<?xml version="1.0"?>
<opencv_storage>
<gps_time_stamp>309921</gps_time_stamp>
<gps_x>-1.2435571670532227e+001</gps_x>
<gps_y>1.0957144737243652e+001</gps_y>
<gps_z>-2.0123291015625000e+000</gps_z>
<image_time_stamp>300757</image_time_stamp>
<disparity type_id="opencv-matrix">
  <rows>88</rows>
  <cols>320</cols>
  <dt>s</dt>
  <data>
    0 0 0 0 0 0 0 0 0 0 0 0 0 0 0 0 0 0 0 0 0 0 0 0 0 0 0 0 0 0 0 0 0 0 0 0 0 0 0 0 0 0 0 0 0 0 0 0 0 0 0 0 0 0 0 0 0 0 0 0 0 0 0 0 0 0 0 0 0 53 53 52 51 52 52 52 52 52 51 52 50 51 50 50 48 46 46 45 38 37 34 34 33 34 33 31 36 33 32 33 32 33 32 33 32 28 28 29 29 29 28 28 29 26 27 28 27 27 26 25 27 23 23 23 -193 -193 -193 21 20 18 21 20 18 19 18 20 20 20 19 20 22 18 16 15 12 11 10 10 9 0 0 0 0 0 0 0 0 9 0 9 9 10 10 10 10 10 10 11 10 10 10 10 10 11 11 11 11 17 25 23 26 26 28 28 28 28 31 29 30 33 37 38 40 41 -177 43 46 49 47 43 53 55 -177 60 61 61 61 62 61 61 59 61 56 53 53 54 -193 -177 -193 -209 -177 -193 -209 82 85 86 89 87 88 87 88 -193 -177 95 -177 -193 748 -193 101 102 100 102 -193 835 834 -193 96 99 -177 820 822 434 437 -193 -193 115 766 -193 -193 -193 -177 415 414 416 417 -193 -193 123 106 -209 -193 32 34 -177 -177 -177 -177 -193 148 149 151 152 157 155 158 157 157 158 158 159 -193 162 -209 -193 -177 -177 -193 174 175 179 180 179 181 184 185 -193 -193 -193 185 185 187 187 184 177 186 0 0 0 0 0
    0 0 0 0 0 0 0 0 0 0 0 0 0 0 0 0 0 0 0 0 0 0 0 0 0 0 0 0 0 0 0 0 0 0 0 0 0 0 0 0 0 0 0 0 0 0 0 0 0 0 0 0 0 0 0 0 0 0 0 0 0 0 0 0 0 0 0 0 0 52 52 51 51 52 52 52 52 52 51 52 51 51 51 50 48 47 46 46 39 38 34 34 33 34 33 31 36 33 32 34 33 33 33 33 33 28 29 30 29 29 28 28 29 26 27 27 26 26 25 24 26 21 21 22 20 -193 18 19 17 15 18 17 15 16 15 17 17 20 18 18 21 17 16 14 12 11 10 10 10 0 9 0 0 0 0 9 9 9 9 10 9 10 11 10 11 11 10 11 10 10 10 10 10 11 11 12 11 17 25 23 27 26 28 29 28 28 31 28 30 32 37 37 39 41 42 42 46 49 47 43 52 56 -177 60 62 61 61 62 61 61 59 60 55 52 53 53 -193 -177 -193 -209 -177 -193 -209 81 84 86 88 87 88 86 87 -193 -193 95 -177 -193 748 -193 101 102 100 102 -193 -193 834 -193 96 99 -177 820 822 434 437 -193 -193 115 766 -193 -193 -193 -177 416 415 417 418 -193 -209 -193 -193 34 34 33 34 32 -177 -177 -177 -193 -177 -177 -177 154 160 157 162 159 159 159 159 160 -193 162 -209 -193 -193 -177 -193 174 175 178 180 179 181 184 185 186 -193 -193 185 185 188 188 185 181 186 0 0 0 0 0
    0 0 0 0 0 0 0 0 0 0 0 0 0 0 0 0 0 0 0 0 0 0 0 0 0 0 0 0 0 0 0 0 0 0 0 0 0 0 0 0 0 0 0 0 0 0 0 0 0 0 0 0 0 0 0 0 0 0 0 0 0 0 0 0 0 0 0 0 0 51 52 51 50 52 52 53 52 52 51 53 51 51 51 50 48 47 46 46 39 38 34 34 33 34 33 32 37 33 32 34 33 34 33 34 33 29 30 30 28 30 28 28 29 26 26 27 27 26 24 24 25 18 20 20 18 -193 15 17 15 13 15 15 13 13 13 15 14 16 15 14 18 15 14 13 11 11 10 10 10 9 9 0 0 0 9 0 0 9 0 10 10 10 11 10 11 11 11 11 10 11 10 10 10 11 11 12 11 17 24 23 26 26 28 29 28 28 31 28 30 32 37 37 39 40 42 42 45 48 47 42 52 57 -177 61 62 61 61 62 61 61 58 59 53 52 52 53 -177 -177 -193 -193 -177 -193 -209 80 83 86 88 86 87 86 87 -193 -193 95 -177 -193 748 -193 102 102 100 -193 -193 -193 -193 -193 97 99 -177 819 822 433 436 -193 -177 115 765 -193 -193 -193 -193 417 416 418 419 287 -209 -193 36 34 34 33 34 32 33 -177 -177 -177 -177 -177 -177 155 162 160 164 161 161 161 160 161 162 162 -193 -193 -193 -177 -193 174 174 178 180 179 181 183 184 185 -193 -193 185 185 188 188 185 185 186 0 0 0 0 0
    0 0 0 0 0 0 0 0 0 0 0 0 0 0 0 0 0 0 0 0 0 0 0 0 0 0 0 0 0 0 0 0 0 0 0 0 0 0 0 0 0 0 0 0 0 0 0 0 0 0 0 0 0 0 0 0 0 0 0 0 0 0 0 0 0 0 0 0 0 51 51 51 50 51 52 52 52 52 51 53 50 51 51 50 48 46 46 46 40 39 34 34 33 34 33 32 37 32 31 33 33 34 34 33 33 29 30 30 28 30 28 27 29 27 27 27 27 26 24 24 23 16 17 17 15 -193 12 14 12 11 13 12 11 12 12 13 11 13 12 11 13 12 12 11 11 11 10 10 10 9 9 0 0 0 0 0 0 9 0 10 10 10 11 11 12 11 11 12 10 11 10 10 11 11 11 11 12 16 23 22 25 25 27 29 28 28 31 28 30 32 37 37 38 40 41 42 45 48 47 42 52 56 -177 60 61 61 61 61 61 60 57 58 52 51 52 53 -177 -177 -193 -177 -177 -193 -209 80 83 85 87 86 87 85 87 -193 -193 96 -177 -193 747 -193 102 102 -193 -209 -193 -193 832 -193 98 100 -177 819 822 433 436 -193 -177 -193 764 420 420 -193 -193 418 -193 419 -193 -193 -209 38 35 34 34 33 34 32 33 -177 -177 -177 -177 -177 -177 156 163 162 165 162 163 162 160 161 162 162 -193 -209 -193 -193 172 173 174 177 180 179 180 183 184 185 185 -193 185 185 187 188 185 185 186 0 0 0 0 0
    0 0 0 0 0 0 0 0 0 0 0 0 0 0 0 0 0 0 0 0 0 0 0 0 0 0 0 0 0 0 0 0 0 0 0 0 0 0 0 0 0 0 0 0 0 0 0 0 0 0 0 0 0 0 0 0 0 0 0 0 0 0 0 0 0 0 0 0 0 50 50 50 49 51 51 52 52 52 51 53 50 51 51 50 48 46 46 46 40 39 34 34 33 34 34 32 37 32 31 33 32 33 33 33 33 28 30 29 28 30 28 27 29 27 27 27 27 26 24 24 23 15 14 13 12 11 9 11 10 9 10 11 10 10 11 11 9 10 10 9 11 10 11 10 10 11 10 10 10 9 10 0 9 0 0 0 0 9 0 10 10 11 12 11 12 11 11 12 10 11 10 10 11 12 12 12 12 16 22 22 24 24 25 28 28 28 30 28 30 31 37 37 38 40 41 42 45 48 47 43 51 56 -177 60 61 60 60 61 60 60 56 57 52 51 52 53 -177 -177 -193 -193 -177 -193 -209 80 82 85 87 86 87 85 87 -193 -193 96 -177 -193 747 -193 102 102 -177 -177 -209 -193 832 -193 -193 100 -177 820 822 433 436 -193 -177 -193 764 421 -193 -177 -177 -193 -193 -193 -177 -193 -209 38 35 34 34 33 35 32 34 -177 -177 -177 -209 -177 -177 157 164 163 165 163 163 162 160 161 162 -193 -193 -209 -193 -193 171 173 174 176 180 178 180 183 184 185 185 185 185 184 187 187 185 185 186 0 0 0 0 0
    0 0 0 0 0 0 0 0 0 0 0 0 0 0 0 0 0 0 0 0 0 0 0 0 0 0 0 0 0 0 0 0 0 0 0 0 0 0 0 0 0 0 0 0 0 0 0 0 0 0 0 0 0 0 0 0 0 0 0 0 0 0 0 0 0 0 0 0 0 50 50 50 49 50 51 51 52 52 51 53 50 51 51 50 48 46 46 46 41 39 35 35 32 34 34 33 37 32 31 33 32 33 33 33 33 28 30 29 28 29 27 27 29 27 27 27 27 27 24 23 22 15 13 12 11 10 0 10 9 0 0 9 9 9 9 10 0 9 10 9 10 9 11 10 10 11 10 10 10 9 10 0 9 0 0 0 0 10 9 11 11 11 12 12 12 11 11 12 10 11 10 10 11 12 12 12 13 15 21 21 23 23 24 28 27 27 30 28 29 31 37 38 37 40 41 42 45 48 47 43 51 56 -193 60 61 60 60 61 60 59 56 56 51 51 52 53 -177 -177 -193 -209 -177 -193 -193 79 82 85 87 85 86 84 87 -193 -193 96 -177 -193 747 -193 102 102 -177 596 -209 -193 831 -193 99 99 -177 821 -193 433 436 -193 -177 -209 -193 421 -193 -193 -193 -177 -193 -177 -177 -193 -209 37 35 34 34 33 35 32 34 -177 -177 -177 -209 -177 -177 158 164 164 165 163 164 163 160 162 -193 -193 -193 -209 -209 -193 171 173 173 176 180 178 180 182 183 186 186 186 186 185 187 188 185 186 185 0 0 0 0 0
    0 0 0 0 0 0 0 0 0 0 0 0 0 0 0 0 0 0 0 0 0 0 0 0 0 0 0 0 0 0 0 0 0 0 0 0 0 0 0 0 0 0 0 0 0 0 0 0 0 0 0 0 0 0 0 0 0 0 0 0 0 0 0 0 0 0 0 0 0 50 49 50 48 49 51 51 52 51 50 52 50 51 51 50 48 46 46 46 41 40 36 36 33 34 34 34 37 32 31 34 32 33 33 32 32 28 30 29 27 29 27 27 29 27 27 27 27 26 23 23 22 16 14 13 11 10 9 10 9 0 0 9 9 9 9 10 0 9 10 9 10 9 12 11 10 11 11 11 10 9 10 0 9 9 0 9 9 10 9 12 11 12 12 12 12 11 11 12 10 10 9 9 11 12 12 12 13 15 21 20 23 22 23 26 26 26 29 27 29 31 36 38 37 40 41 42 45 48 47 43 51 56 -193 -193 61 60 60 -177 -177 -177 55 56 51 51 52 53 -177 -177 195 -209 -177 -193 -193 78 82 84 86 85 86 84 86 -193 -193 95 -177 -193 -193 -193 102 101 594 596 597 98 -193 95 99 99 -177 821 -193 433 436 -193 -177 -193 -209 422 -193 -193 -193 -193 -193 -193 -177 -193 -193 37 35 34 34 33 35 32 34 32 34 36 -209 -177 -177 157 164 164 -177 163 164 162 160 162 -193 -193 -193 -209 -209 -193 171 173 173 176 180 178 180 182 183 186 186 186 186 185 187 188 186 186 185 0 0 0 0 0
    0 0 0 0 0 0 0 0 0 0 0 0 0 0 0 0 0 0 0 0 0 0 0 0 0 0 0 0 0 0 0 0 0 0 0 0 0 0 0 0 0 0 0 0 0 0 0 0 0 0 0 0 0 0 0 0 0 0 0 0 0 0 0 0 0 0 0 0 0 50 49 50 48 49 50 50 51 51 50 52 50 51 50 49 48 46 46 46 42 40 36 36 34 34 34 34 37 32 32 34 32 33 33 32 32 28 31 30 28 30 28 27 29 27 27 27 27 26 24 23 23 18 15 14 12 10 10 10 10 9 9 9 9 9 10 10 9 10 10 9 9 9 10 10 9 10 10 10 10 9 9 0 8 9 0 0 0 10 9 12 11 11 12 12 12 11 11 11 9 10 9 9 11 12 12 12 13 14 21 19 21 20 22 25 25 25 28 26 28 31 36 38 37 40 41 42 45 47 46 42 51 56 -193 -193 61 61 60 -177 -177 -177 56 56 51 51 52 53 -177 -177 194 -193 -177 -193 -193 78 82 84 86 85 85 83 86 -193 -193 95 -177 -193 -193 -193 102 -193 593 595 596 97 -193 94 99 98 -177 822 -209 -177 -177 430 -177 -193 -209 422 -193 -193 -193 -193 -193 -193 -193 -193 -193 37 35 34 33 33 35 32 35 32 34 36 -209 -177 -177 -177 -177 -177 -177 162 163 -193 -193 162 -193 -193 -193 -209 -193 -193 -193 173 173 176 180 178 179 182 183 186 186 186 186 185 187 188 186 187 185 0 0 0 0 0
    0 0 0 0 0 0 0 0 0 0 0 0 0 0 0 0 0 0 0 0 0 0 0 0 0 0 0 0 0 0 0 0 0 0 0 0 0 0 0 0 0 0 0 0 0 0 0 0 0 0 0 0 0 0 0 0 0 0 0 0 0 0 0 0 0 0 0 0 0 50 48 49 48 48 49 48 51 50 50 52 49 51 50 49 48 45 45 45 42 40 36 37 34 34 34 35 37 32 32 34 32 33 33 32 32 29 32 31 29 30 29 28 30 28 27 27 27 26 24 23 22 18 16 14 13 10 10 11 10 10 10 10 10 10 11 11 10 10 10 9 10 0 9 9 9 10 9 9 9 0 9 0 0 9 0 0 9 10 9 12 11 11 12 12 12 10 11 11 9 9 0 9 10 11 12 12 12 13 20 18 20 18 20 24 24 24 26 26 28 31 36 38 37 40 42 42 45 47 46 42 51 57 -193 -177 -193 61 60 -177 -177 -177 56 57 52 52 52 53 -177 -177 194 -193 -177 -177 -193 78 82 84 86 84 85 83 86 -193 -193 94 -177 96 -193 101 101 -193 593 595 596 97 -193 94 99 99 -177 -193 -209 -177 -177 430 -177 -193 -193 -193 -193 -193 -193 -193 -193 -193 -193 -193 -193 37 35 34 33 33 35 33 35 32 34 35 -209 -177 -177 -177 -177 -177 -177 -177 163 161 -193 161 -193 -193 -193 -209 -193 -177 -193 173 174 176 180 178 179 182 183 186 186 186 186 185 188 189 187 188 185 0 0 0 0 0
    0 0 0 0 0 0 0 0 0 0 0 0 0 0 0 0 0 0 0 0 0 0 0 0 0 0 0 0 0 0 0 0 0 0 0 0 0 0 0 0 0 0 0 0 0 0 0 0 0 0 0 0 0 0 0 0 0 0 0 0 0 0 0 0 0 0 0 0 0 50 47 49 47 47 48 46 50 49 48 51 48 50 49 48 47 44 45 44 42 40 37 37 34 34 34 35 37 32 32 35 32 33 33 32 32 29 33 32 29 31 29 29 31 28 28 27 27 26 24 24 23 20 18 16 14 11 11 11 10 11 10 10 11 10 11 11 10 11 11 10 10 0 9 9 0 10 9 9 9 0 9 0 9 9 0 9 0 10 9 11 11 11 11 11 11 10 11 11 9 9 9 9 10 12 12 12 12 13 20 17 20 17 19 23 23 23 26 25 27 30 36 38 37 40 42 42 45 47 46 42 51 57 -177 -177 -177 -193 -193 -177 -177 -177 -193 57 52 52 52 53 426 426 194 -193 -177 -177 -193 78 81 84 86 84 85 83 85 -193 -193 93 -177 95 101 100 101 100 593 595 596 96 -193 95 99 99 -177 -193 -209 -177 -177 430 -177 757 622 -193 -193 -193 -193 -193 -193 -193 299 297 -177 36 35 34 33 33 35 33 35 32 33 34 -209 -177 -177 -177 -177 -177 -177 158 161 160 157 161 -193 -209 -209 -209 -193 -177 -193 173 174 176 180 178 179 182 182 186 186 186 186 185 188 189 187 188 185 0 0 0 0 0
    0 0 0 0 0 0 0 0 0 0 0 0 0 0 0 0 0 0 0 0 0 0 0 0 0 0 0 0 0 0 0 0 0 0 0 0 0 0 0 0 0 0 0 0 0 0 0 0 0 0 0 0 0 0 0 0 0 0 0 0 0 0 0 0 0 0 0 0 0 50 47 49 47 47 47 45 47 47 46 50 47 49 47 48 46 44 44 43 41 40 37 37 34 34 34 35 37 32 32 35 32 32 32 32 32 29 33 32 30 31 30 30 32 29 29 28 28 26 24 24 23 20 18 17 15 12 12 12 11 11 10 11 12 11 12 12 11 12 12 11 11 9 9 9 0 10 9 9 9 0 9 0 9 9 0 9 0 9 9 10 10 10 11 11 11 10 10 11 10 10 9 9 10 11 12 12 12 13 20 16 19 16 19 22 22 23 25 25 27 30 35 38 36 41 42 42 45 47 46 42 51 57 -177 -177 -177 -177 382 -177 -193 -177 -193 58 52 53 52 53 426 426 193 -193 -177 -177 -209 77 81 84 86 84 84 82 85 87 -193 92 -177 94 100 99 100 100 593 595 596 96 -193 95 99 99 -177 -193 -209 -177 -177 430 -177 757 622 -193 -193 -193 -193 -209 -193 -193 299 297 -177 35 35 34 33 33 34 33 35 31 31 32 -209 -177 -177 -177 -177 -177 -177 156 157 159 156 -193 -193 -209 -209 -209 -193 -177 -193 173 174 176 180 178 178 181 182 186 186 186 186 185 188 189 187 187 185 0 0 0 0 0
    0 0 0 0 0 0 0 0 0 0 0 0 0 0 0 0 0 0 0 0 0 0 0 0 0 0 0 0 0 0 0 0 0 0 0 0 0 0 0 0 0 0 0 0 0 0 0 0 0 0 0 0 0 0 0 0 0 0 0 0 0 0 0 0 0 0 0 0 0 50 47 48 47 46 46 44 46 45 44 46 45 47 46 46 45 43 43 42 41 39 37 37 34 34 34 35 37 32 32 35 32 32 32 32 32 29 33 33 31 32 31 31 33 30 30 29 28 26 25 24 24 21 19 17 15 13 13 12 12 12 11 12 12 12 13 12 11 12 12 11 11 9 9 0 0 10 9 9 9 9 9 9 10 10 0 9 0 9 9 10 10 10 10 11 10 10 10 11 9 9 9 9 10 11 12 12 12 13 21 17 19 16 18 22 22 22 24 24 27 30 35 38 37 41 42 42 45 47 46 42 51 57 -177 -177 -177 -177 383 -193 -193 62 -193 59 53 53 52 53 426 426 194 -193 -177 -177 -209 77 81 84 85 83 84 82 85 87 -177 91 -177 93 99 99 100 99 -193 -193 -193 96 -193 95 99 100 -177 -193 -193 -177 -177 430 -177 757 -193 -209 -193 -193 -193 -209 -193 -193 299 297 -177 -193 34 33 32 32 34 32 34 30 29 -177 -209 -193 -177 -177 -177 -177 151 154 154 157 156 159 -193 -209 -193 -209 -209 -177 -193 174 174 176 180 178 178 181 182 186 186 186 186 186 188 189 187 187 183 0 0 0 0 0
    0 0 0 0 0 0 0 0 0 0 0 0 0 0 0 0 0 0 0 0 0 0 0 0 0 0 0 0 0 0 0 0 0 0 0 0 0 0 0 0 0 0 0 0 0 0 0 0 0 0 0 0 0 0 0 0 0 0 0 0 0 0 0 0 0 0 0 0 0 50 46 48 46 46 46 44 45 45 44 44 44 45 44 45 43 41 41 41 40 38 37 37 34 34 34 35 37 32 32 35 32 32 32 31 32 30 34 33 32 32 32 32 34 30 30 29 28 26 25 25 24 22 20 18 16 14 14 13 13 13 12 12 13 13 13 12 12 12 12 12 12 10 9 9 9 10 10 10 10 9 10 10 10 11 0 9 0 9 9 9 9 9 10 10 10 10 10 10 10 9 9 9 10 12 13 13 13 14 21 18 20 17 19 22 22 22 24 24 27 30 35 38 37 41 42 42 45 47 46 42 51 57 -177 -177 -177 -177 383 -193 -193 63 -193 59 53 -193 52 53 426 426 194 -193 -177 -177 -209 76 80 83 85 82 83 81 84 87 -177 91 -177 92 98 98 99 99 -193 -193 97 95 -193 94 98 99 -177 106 -193 -177 -177 430 -177 758 -193 -209 -193 -193 702 -209 -209 -193 298 -209 -177 -209 33 33 32 32 33 32 33 -177 -177 -177 -209 -177 -177 -177 151 150 150 152 153 156 156 159 -193 -193 -209 -193 -209 -193 -193 174 174 176 180 178 178 181 182 186 186 186 186 186 188 190 188 188 183 0 0 0 0 0
    0 0 0 0 0 0 0 0 0 0 0 0 0 0 0 0 0 0 0 0 0 0 0 0 0 0 0 0 0 0 0 0 0 0 0 0 0 0 0 0 0 0 0 0 0 0 0 0 0 0 0 0 0 0 0 0 0 0 0 0 0 0 0 0 0 0 0 0 0 49 46 47 46 46 46 45 46 46 45 44 44 44 44 44 43 41 41 40 40 38 37 37 34 33 33 35 36 32 32 36 32 32 31 31 33 30 34 33 32 32 32 32 34 30 30 29 28 26 26 25 25 22 20 19 17 15 14 14 13 14 13 13 13 13 14 13 12 13 12 12 12 11 9 9 9 11 11 11 10 10 10 10 11 11 0 9 0 0 9 9 9 9 9 10 10 10 9 10 10 9 9 9 10 11 12 13 13 13 22 18 20 17 19 22 22 22 24 24 27 30 35 38 37 41 42 42 45 47 46 42 51 -193 -177 -177 -177 -177 384 -193 -193 64 -193 60 54 -193 52 52 426 426 194 -177 -177 -177 -209 76 80 83 84 81 82 80 84 86 -177 -193 -193 92 98 97 98 99 95 97 96 95 99 94 98 99 -177 106 107 -177 -177 430 -177 -193 -193 -209 -193 -193 701 -193 -209 -209 -193 -209 -177 -209 34 33 31 31 32 31 -177 -177 -177 -193 -193 -177 -177 149 150 149 150 152 153 156 156 159 160 -193 -193 534 -193 -193 -193 174 175 176 180 178 178 181 182 186 186 186 186 186 188 190 188 188 184 0 0 0 0 0
    0 0 0 0 0 0 0 0 0 0 0 0 0 0 0 0 0 0 0 0 0 0 0 0 0 0 0 0 0 0 0 0 0 0 0 0 0 0 0 0 0 0 0 0 0 0 0 0 0 0 0 0 0 0 0 0 0 0 0 0 0 0 0 0 0 0 0 0 0 49 46 47 46 46 45 44 45 45 44 43 43 43 43 43 -193 41 40 40 40 38 37 37 34 33 33 35 36 32 32 36 32 32 32 32 33 30 35 33 32 33 33 32 34 30 31 29 28 26 26 25 25 22 21 19 17 16 15 14 14 15 13 14 14 14 14 13 13 13 12 13 12 11 10 10 10 12 11 10 10 10 10 10 10 11 0 0 0 0 9 9 9 9 10 10 10 10 9 9 10 9 9 9 10 11 12 13 12 12 22 18 21 17 19 22 -177 22 24 24 27 30 35 38 37 41 42 42 45 48 46 42 51 -209 -177 -177 -177 -177 384 384 -193 64 -193 61 -193 -193 52 52 425 426 -193 -177 -177 -177 -209 76 79 82 84 81 81 80 84 86 -177 -193 -193 92 97 97 98 99 95 97 96 94 99 94 97 100 -177 106 107 -177 -177 430 -177 -193 -193 -209 -209 -193 -193 -209 -209 -209 -209 -209 -193 -209 34 34 31 31 31 -177 -177 -177 -177 -193 -193 -177 147 149 150 149 150 151 152 156 156 159 160 160 166 -193 -193 174 173 174 175 176 180 178 178 181 182 186 186 -193 186 186 188 190 188 188 185 0 0 0 0 0
    0 0 0 0 0 0 0 0 0 0 0 0 0 0 0 0 0 0 0 0 0 0 0 0 0 0 0 0 0 0 0 0 0 0 0 0 0 0 0 0 0 0 0 0 0 0 0 0 0 0 0 0 0 0 0 0 0 0 0 0 0 0 0 0 0 0 0 0 0 48 46 46 45 45 45 44 45 45 43 42 43 -193 -193 -209 -209 39 39 38 39 37 36 36 33 33 33 35 36 32 32 36 32 32 32 32 33 31 35 33 32 33 33 33 34 30 31 29 28 26 27 26 26 22 21 20 18 18 16 15 15 15 13 14 15 15 14 13 12 13 11 12 12 11 9 9 10 12 11 11 11 10 10 11 11 11 9 9 0 9 10 10 11 10 10 11 11 11 10 10 10 10 10 9 10 11 12 13 13 12 22 18 21 17 19 -177 -177 22 24 24 27 30 35 38 37 41 42 42 45 48 47 43 51 -209 -177 -177 -177 387 384 384 -193 65 -193 61 -193 -177 52 53 425 426 -193 -177 -177 -177 -193 75 78 81 83 80 81 79 83 86 -177 -193 -193 91 96 96 97 99 94 96 96 94 99 94 97 100 -193 106 107 -177 -177 430 -177 -193 -193 -193 -209 -193 -193 -209 -209 -209 -209 -193 -193 -209 34 33 29 29 29 -177 -177 -177 -193 -209 -193 -177 147 148 150 149 150 151 153 156 156 159 159 159 165 -209 170 174 173 174 175 176 180 178 178 181 181 186 -193 -193 186 186 188 190 189 189 185 0 0 0 0 0
    0 0 0 0 0 0 0 0 0 0 0 0 0 0 0 0 0 0 0 0 0 0 0 0 0 0 0 0 0 0 0 0 0 0 0 0 0 0 0 0 0 0 0 0 0 0 0 0 0 0 0 0 0 0 0 0 0 0 0 0 0 0 0 0 0 0 0 0 0 47 45 46 45 44 44 43 44 44 42 -193 42 -193 -193 -209 39 38 38 38 38 36 35 36 33 33 33 35 36 32 32 36 32 32 32 32 33 31 35 33 32 33 33 33 34 30 32 29 29 27 27 26 26 23 21 20 17 18 15 15 14 15 14 15 15 15 14 13 12 13 11 11 11 11 9 10 11 13 12 11 12 11 11 11 12 11 10 10 9 10 10 11 11 11 11 11 11 11 11 11 11 10 10 9 10 11 12 13 13 13 23 18 21 18 -177 -177 -177 -177 25 25 27 30 36 38 37 41 43 43 45 48 47 43 51 -209 -177 -177 384 387 384 384 385 65 -193 61 -193 -177 53 53 425 426 -193 -177 -177 -193 -193 75 78 80 83 80 80 79 83 86 -177 -193 -193 91 96 96 97 99 95 96 96 -193 100 94 98 100 -193 106 107 -193 -177 430 -177 -193 -193 -193 -209 -193 -193 -193 -209 -209 -209 -193 -209 -209 32 -193 28 28 28 -177 -177 -177 -193 -193 -193 -177 147 149 150 150 151 152 153 156 157 159 159 159 164 -209 169 174 173 174 175 176 180 177 177 181 181 186 -193 -193 185 185 188 190 189 189 185 0 0 0 0 0
    0 0 0 0 0 0 0 0 0 0 0 0 0 0 0 0 0 0 0 0 0 0 0 0 0 0 0 0 0 0 0 0 0 0 0 0 0 0 0 0 0 0 0 0 0 0 0 0 0 0 0 0 0 0 0 0 0 0 0 0 0 0 0 0 0 0 0 0 0 47 45 45 45 44 44 43 44 44 42 41 42 -193 41 40 39 38 38 37 37 36 35 35 33 33 34 36 36 32 32 36 31 31 31 31 33 30 35 33 32 33 33 33 34 30 32 30 29 27 28 26 26 23 22 20 17 19 16 14 14 14 13 14 14 15 13 13 11 12 11 11 11 11 9 9 11 13 12 12 12 11 11 12 12 12 10 11 10 10 11 12 12 12 12 11 11 12 11 11 11 10 10 9 10 11 11 13 13 13 23 19 21 -177 -177 -177 -177 -177 25 25 27 30 36 39 38 41 43 43 45 49 47 43 52 -193 -177 388 385 387 384 384 386 65 -193 -193 -193 -177 53 53 -177 -177 -177 -177 -177 -193 -193 75 78 80 82 79 80 79 83 86 -177 -193 -193 91 96 96 97 99 95 96 96 834 100 94 98 100 -193 106 106 -193 -177 431 -177 -193 -193 -193 -209 -193 -193 -193 -193 -209 -209 -209 -209 -209 -193 -193 27 27 27 -177 -177 -177 23 149 -193 -177 148 149 151 151 152 153 153 156 156 158 159 158 163 -193 169 173 173 174 175 176 180 177 177 181 181 185 -193 -193 185 185 188 190 189 188 185 0 0 0 0 0
    0 0 0 0 0 0 0 0 0 0 0 0 0 0 0 0 0 0 0 0 0 0 0 0 0 0 0 0 0 0 0 0 0 0 0 0 0 0 0 0 0 0 0 0 0 0 0 0 0 0 0 0 0 0 0 0 0 0 0 0 0 0 0 0 0 0 0 0 0 46 45 45 44 44 43 43 43 44 42 41 42 40 40 40 39 38 38 37 37 36 35 35 33 33 34 36 36 32 32 36 31 31 31 31 33 30 35 33 32 33 33 33 35 30 33 30 29 27 28 27 26 24 22 21 17 19 16 14 14 14 13 14 14 15 13 12 11 11 10 10 10 10 9 9 10 12 12 12 12 11 11 12 12 12 12 12 12 12 12 13 14 13 12 11 11 12 11 11 11 10 10 9 10 11 11 13 14 13 23 19 22 -177 -177 -177 -177 -177 25 25 27 31 36 39 38 42 44 43 45 49 47 43 52 57 -193 388 385 387 384 384 386 65 -193 -193 -177 -177 53 54 -177 -177 -177 -177 -177 -193 74 75 78 80 82 79 80 79 83 86 -177 -193 -193 91 96 96 97 99 95 96 96 834 99 94 97 100 -193 105 106 -193 -177 432 -177 -193 -193 -193 -193 -193 124 -177 -177 -209 -209 -209 115 -193 -193 -193 26 26 26 -177 -193 21 -193 150 150 -177 149 150 152 152 153 153 153 156 156 157 158 158 162 166 168 173 173 173 175 176 180 178 177 181 180 185 -193 -193 -193 185 188 190 189 188 185 0 0 0 0 0
    0 0 0 0 0 0 0 0 0 0 0 0 0 0 0 0 0 0 0 0 0 0 0 0 0 0 0 0 0 0 0 0 0 0 0 0 0 0 0 0 0 0 0 0 0 0 0 0 0 0 0 0 0 0 0 0 0 0 0 0 0 0 0 0 0 0 0 0 0 47 45 45 45 44 43 43 43 44 42 41 41 39 40 40 38 38 38 37 37 35 34 35 33 33 33 36 36 31 32 36 31 31 31 31 33 30 35 33 32 33 33 33 34 30 32 30 29 27 28 27 27 24 23 21 18 20 17 14 15 14 14 14 15 15 13 12 11 11 10 10 10 10 0 9 10 11 11 11 11 11 11 11 13 12 13 13 13 14 13 14 15 13 13 11 11 12 10 10 11 10 10 10 11 11 11 13 15 13 22 19 -177 -177 -177 -177 -177 -177 25 25 27 31 36 39 38 42 44 44 46 50 48 44 52 57 385 388 385 387 384 384 386 -193 -193 -193 -177 -177 53 54 -177 -177 -177 -177 -177 -193 -193 -193 78 80 82 79 80 79 83 86 -177 -193 -193 91 96 96 97 99 95 96 96 834 99 94 97 99 -193 105 -193 -177 -177 432 -177 -193 -193 -193 -193 -193 124 -209 -177 -209 -209 -209 114 800 101 96 -193 25 25 26 -193 -193 -193 150 -193 -193 -193 151 153 153 153 154 154 156 156 157 158 -193 162 166 167 173 -193 173 175 176 180 178 178 181 181 185 -193 944 -193 185 187 189 188 188 185 0 0 0 0 0
    0 0 0 0 0 0 0 0 0 0 0 0 0 0 0 0 0 0 0 0 0 0 0 0 0 0 0 0 0 0 0 0 0 0 0 0 0 0 0 0 0 0 0 0 0 0 0 0 0 0 0 0 0 0 0 0 0 0 0 0 0 0 0 0 0 0 0 0 0 48 46 46 46 44 44 44 43 44 42 42 41 40 40 40 39 38 38 37 37 35 34 35 33 33 34 36 36 32 32 36 32 31 31 31 33 30 35 33 31 32 33 32 34 29 32 29 28 27 28 27 27 25 23 22 18 20 18 14 15 15 14 14 15 16 13 13 11 11 10 10 10 9 0 0 9 11 11 10 11 11 10 11 13 12 13 13 13 14 14 14 16 13 14 11 12 12 11 11 12 10 11 10 12 12 12 14 14 13 22 18 21 -177 -177 -177 -177 -177 25 25 27 31 37 39 39 42 45 44 46 50 48 44 53 58 -193 388 384 387 384 384 386 -193 -193 -193 -177 -177 53 54 -177 -177 -177 -177 -177 -193 -209 -193 77 80 83 80 80 79 83 86 -177 -209 -193 91 96 96 97 99 95 96 96 94 99 94 96 99 -193 105 -193 -177 -177 -177 -177 117 -209 -209 -193 125 125 -209 -193 295 -193 -209 115 799 100 94 -209 24 25 -193 -193 -193 -193 151 -193 -193 -193 -193 154 154 154 154 154 156 156 157 158 -193 162 166 167 173 -193 173 175 176 181 178 178 181 181 185 -193 943 -193 184 187 188 188 187 185 0 0 0 0 0
    0 0 0 0 0 0 0 0 0 0 0 0 0 0 0 0 0 0 0 0 0 0 0 0 0 0 0 0 0 0 0 0 0 0 0 0 0 0 0 0 0 0 0 0 0 0 0 0 0 0 0 0 0 0 0 0 0 0 0 0 0 0 0 0 0 0 0 0 0 50 46 47 47 45 43 44 43 44 42 42 41 40 40 -193 39 38 38 37 37 35 34 35 33 33 34 36 36 32 32 36 32 31 32 32 34 30 35 33 31 32 33 32 34 29 32 29 28 27 28 27 27 25 24 22 18 21 18 14 15 16 15 15 17 18 14 14 13 12 10 10 10 9 0 0 0 10 10 10 11 10 10 11 13 12 13 13 13 13 14 14 16 14 14 12 12 12 11 12 12 10 11 11 12 12 12 13 13 13 21 18 21 -177 -177 -177 -177 -177 26 26 27 31 37 39 39 42 45 45 46 49 49 44 53 58 -193 387 384 387 385 385 386 -193 -193 -193 -193 -177 53 54 -177 -177 -177 -177 -177 -177 -209 -193 77 80 83 80 80 79 83 86 -177 -209 -193 92 96 96 97 99 95 96 96 94 99 93 95 98 -193 -209 -209 -177 -177 -177 -209 117 -209 -209 -193 125 125 -209 -193 295 -193 -209 118 799 100 94 -209 23 24 -193 147 149 151 151 -193 -193 -193 154 154 155 155 155 154 157 156 157 158 -193 162 166 168 173 -193 174 175 176 181 178 178 181 181 185 -193 943 -193 184 187 188 188 187 185 0 0 0 0 0
    0 0 0 0 0 0 0 0 0 0 0 0 0 0 0 0 0 0 0 0 0 0 0 0 0 0 0 0 0 0 0 0 0 0 0 0 0 0 0 0 0 0 0 0 0 0 0 0 0 0 0 0 0 0 0 0 0 0 0 0 0 0 0 0 0 0 0 0 0 50 46 47 46 44 43 43 42 43 41 41 40 -193 -193 -193 39 38 38 37 37 35 34 35 33 34 34 36 36 32 32 36 32 32 32 32 34 30 35 33 30 32 33 32 34 29 32 29 29 28 28 27 27 25 25 23 18 21 18 13 15 16 15 15 17 19 14 14 12 12 10 9 10 0 0 0 0 9 9 9 10 10 10 12 13 12 14 14 14 14 14 14 16 14 14 12 12 12 11 12 12 11 12 11 13 13 13 14 13 14 21 18 21 18 -177 -177 -177 -177 26 26 27 32 37 39 39 42 45 45 45 48 48 44 53 58 -193 -177 383 387 385 385 386 63 -193 -193 -193 -177 54 54 -177 -177 -177 -177 -177 -193 -209 -193 77 81 83 81 80 79 83 85 -193 -209 -193 92 97 97 98 100 96 97 97 94 99 93 95 98 -193 -209 -209 -177 -177 -177 -209 -193 -193 -209 -209 125 125 -193 -193 294 294 -193 -193 799 101 95 -209 22 24 -193 145 148 150 150 -193 -193 -193 155 155 156 155 156 155 157 156 157 158 -193 163 -193 168 173 -193 174 176 177 181 179 178 182 181 185 -193 943 -193 183 187 188 187 186 184 0 0 0 0 0
    0 0 0 0 0 0 0 0 0 0 0 0 0 0 0 0 0 0 0 0 0 0 0 0 0 0 0 0 0 0 0 0 0 0 0 0 0 0 0 0 0 0 0 0 0 0 0 0 0 0 0 0 0 0 0 0 0 0 0 0 0 0 0 0 0 0 0 0 0 50 45 47 46 44 42 43 42 43 41 41 40 -193 -193 -193 39 38 37 37 37 35 34 35 34 34 34 36 36 31 32 36 32 31 31 31 33 30 34 33 30 32 33 32 34 29 32 29 29 28 28 27 27 26 25 24 19 22 19 14 15 17 16 17 19 21 16 16 14 13 11 9 10 0 0 0 0 0 0 9 10 10 10 12 13 12 15 14 14 14 14 14 15 14 14 12 12 12 12 13 12 11 12 11 14 14 13 14 13 15 21 18 21 19 21 24 24 24 27 27 27 32 37 39 39 42 45 44 45 48 48 44 53 58 57 -193 -177 -193 385 -193 -193 62 -193 -193 -193 -177 54 54 -177 -177 -177 -177 -177 -193 -209 -193 78 81 83 81 80 80 83 85 -193 -209 -193 92 96 97 98 100 96 97 97 94 99 93 94 97 -193 -209 -177 -177 -177 -177 -209 -193 -193 -209 -209 125 125 -193 294 294 294 293 -193 800 101 96 -193 20 24 -193 144 147 150 150 151 -209 -193 156 156 157 156 157 155 158 -193 -193 -193 -193 -193 -209 168 173 -193 174 176 177 181 179 178 182 181 185 -193 942 -193 183 186 188 187 186 183 0 0 0 0 0
    0 0 0 0 0 0 0 0 0 0 0 0 0 0 0 0 0 0 0 0 0 0 0 0 0 0 0 0 0 0 0 0 0 0 0 0 0 0 0 0 0 0 0 0 0 0 0 0 0 0 0 0 0 0 0 0 0 0 0 0 0 0 0 0 0 0 0 0 0 50 46 48 47 46 44 45 45 45 43 43 41 -193 -193 -193 39 39 38 37 37 35 34 35 34 33 34 36 36 31 32 36 32 31 31 31 33 30 34 33 30 32 32 32 34 28 32 29 29 28 28 27 27 26 26 25 21 23 21 15 17 19 18 19 21 23 18 18 16 14 13 10 10 0 0 0 0 0 0 0 9 10 10 11 12 12 15 14 14 14 14 14 15 14 15 12 12 12 12 13 13 12 13 12 15 15 14 15 13 17 20 19 22 19 22 26 26 26 28 28 28 32 37 39 39 42 44 44 45 48 48 44 52 58 57 59 -193 -193 -193 61 62 62 58 59 -193 -193 54 54 -177 -177 -209 -193 -177 67 -209 75 78 81 83 82 80 80 83 85 -193 -193 -193 92 96 98 98 100 96 96 97 94 99 93 93 96 97 -193 -177 -177 -177 -177 -177 -177 -193 -193 -209 125 126 -193 294 294 294 293 -209 -193 102 99 -193 -193 -193 141 143 147 149 151 -193 96 -193 -193 157 157 156 157 156 158 -193 -193 -193 -209 163 -209 -193 173 -193 175 177 177 181 179 178 182 181 185 -193 942 -193 182 186 187 187 185 182 0 0 0 0 0
    0 0 0 0 0 0 0 0 0 0 0 0 0 0 0 0 0 0 0 0 0 0 0 0 0 0 0 0 0 0 0 0 0 0 0 0 0 0 0 0 0 0 0 0 0 0 0 0 0 0 0 0 0 0 0 0 0 0 0 0 0 0 0 0 0 0 0 0 0 52 47 52 52 52 50 51 52 52 47 48 43 41 42 41 40 39 38 38 37 35 34 35 34 33 34 37 36 31 32 36 32 31 31 31 32 29 33 32 29 31 32 31 33 28 31 29 29 28 28 27 27 26 27 26 23 24 22 18 20 21 20 21 22 25 20 21 19 18 14 10 10 0 0 0 0 0 0 0 0 9 9 11 12 12 15 14 14 15 14 14 15 14 15 12 13 13 12 14 13 12 14 13 16 17 15 16 13 18 21 20 23 21 23 27 27 27 29 29 29 32 37 39 39 42 44 44 45 48 48 45 52 57 57 59 -193 61 -193 60 61 61 58 58 54 58 53 54 -193 -209 -193 60 -193 68 -193 76 79 81 83 82 80 79 83 85 -193 88 94 92 96 98 98 100 96 96 96 94 99 93 93 96 97 -177 -177 -177 -177 -177 110 117 -209 -193 -193 125 127 -193 -193 295 295 -193 -193 121 103 100 -193 -193 -193 141 143 147 149 151 -193 96 -193 -193 157 158 -193 157 156 158 -193 -193 158 -209 163 -209 -193 173 -193 175 177 177 181 179 178 182 182 185 -193 942 -193 182 186 187 187 185 181 0 0 0 0 0
    0 0 0 0 0 0 0 0 0 0 0 0 0 0 0 0 0 0 0 0 0 0 0 0 0 0 0 0 0 0 0 0 0 0 0 0 0 0 0 0 0 0 0 0 0 0 0 0 0 0 0 0 0 0 0 0 0 0 0 0 0 0 0 0 0 0 0 0 0 52 50 54 55 55 54 55 55 55 52 53 47 44 43 41 40 40 38 38 37 35 34 35 34 33 34 37 36 31 32 35 32 31 31 31 32 29 33 32 29 30 31 30 32 28 30 28 28 28 28 27 28 27 27 26 24 25 23 21 21 22 22 24 24 28 24 24 22 22 18 11 10 0 0 0 0 0 0 0 0 9 9 10 12 12 14 14 14 14 14 14 14 14 15 13 13 14 13 15 14 13 15 13 17 18 15 16 14 18 21 21 24 22 24 28 27 27 29 30 29 32 37 38 39 42 44 43 44 46 47 45 52 -193 57 59 58 61 60 60 61 61 57 58 54 58 54 54 55 56 57 60 -193 69 -193 76 79 81 83 82 -177 79 83 84 88 88 94 92 95 98 98 100 96 96 96 94 99 94 93 97 -193 -177 433 434 -177 433 110 117 -193 -209 -193 125 127 125 -193 -193 -193 -193 121 122 103 100 -193 -193 -193 141 143 147 149 151 -193 96 -193 159 157 157 155 157 155 157 -193 -193 158 -209 163 -209 -193 173 -193 175 177 177 181 179 178 182 182 185 -193 942 -193 183 186 187 187 185 180 0 0 0 0 0
    0 0 0 0 0 0 0 0 0 0 0 0 0 0 0 0 0 0 0 0 0 0 0 0 0 0 0 0 0 0 0 0 0 0 0 0 0 0 0 0 0 0 0 0 0 0 0 0 0 0 0 0 0 0 0 0 0 0 0 0 0 0 0 0 0 0 0 0 0 54 52 55 56 56 56 57 57 56 53 54 50 47 45 42 41 41 38 38 38 36 35 36 34 33 34 37 36 32 32 35 32 32 31 31 32 29 32 31 28 30 30 30 31 27 30 28 28 28 27 27 28 27 28 27 26 26 26 25 24 24 23 24 24 28 24 24 23 23 21 14 11 0 9 9 0 0 0 0 0 9 9 9 11 11 13 13 14 14 13 13 14 14 15 13 13 14 13 15 15 15 16 15 19 19 16 18 15 19 21 21 24 22 25 28 28 28 30 30 30 32 36 38 38 41 43 42 43 44 45 43 50 -193 57 59 58 60 60 60 60 60 57 57 54 58 55 54 55 56 58 60 60 69 -193 77 79 81 83 81 -177 79 83 84 88 88 93 91 95 98 98 100 96 96 97 94 99 95 93 97 -193 435 432 433 -177 -177 111 117 120 -209 121 125 128 126 -193 125 -193 -193 122 123 102 99 100 -193 -193 141 144 148 150 151 152 -193 156 159 157 157 155 157 155 157 -193 -193 158 -209 163 -209 -209 174 175 175 177 177 181 179 178 182 181 185 -193 -193 -193 183 186 187 186 185 178 0 0 0 0 0
    0 0 0 0 0 0 0 0 0 0 0 0 0 0 0 0 0 0 0 0 0 0 0 0 0 0 0 0 0 0 0 0 0 0 0 0 0 0 0 0 0 0 0 0 0 0 0 0 0 0 0 0 0 0 0 0 0 0 0 0 0 0 0 0 0 0 0 0 0 55 54 57 58 57 56 57 57 56 53 54 50 49 47 43 42 41 39 39 38 36 35 36 34 34 34 37 36 32 32 35 32 32 31 31 32 28 31 31 28 29 29 29 30 27 30 28 28 28 27 27 28 27 28 27 26 27 28 30 29 28 24 26 25 30 -193 -193 24 25 23 18 13 0 10 9 9 0 0 0 0 9 9 9 9 10 13 13 13 13 13 14 14 14 16 14 14 15 14 16 16 16 17 15 19 19 16 18 15 19 21 22 24 23 26 29 29 29 30 31 31 33 36 37 38 41 42 41 42 43 44 43 48 55 57 58 57 59 60 59 60 60 57 58 55 59 57 56 58 58 59 61 61 69 78 77 79 80 83 81 79 79 82 84 87 88 93 91 94 98 98 99 96 96 97 94 99 95 93 97 -193 -177 -177 -177 -177 -177 112 117 120 123 122 125 129 126 -193 125 125 124 122 124 102 98 100 -193 -193 -193 145 149 150 151 152 156 156 159 157 156 155 156 155 157 156 -193 158 -209 164 -209 -209 174 175 175 177 177 180 179 178 182 181 185 184 -193 -193 183 186 187 186 185 176 0 0 0 0 0
    0 0 0 0 0 0 0 0 0 0 0 0 0 0 0 0 0 0 0 0 0 0 0 0 0 0 0 0 0 0 0 0 0 0 0 0 0 0 0 0 0 0 0 0 0 0 0 0 0 0 0 0 0 0 0 0 0 0 0 0 0 0 0 0 0 0 0 0 0 56 55 58 58 57 56 58 57 56 54 55 52 51 49 -209 42 41 39 39 38 37 35 36 34 34 35 37 36 32 32 34 31 32 31 31 31 28 30 30 28 29 29 29 29 27 30 29 29 28 27 27 28 28 28 27 27 27 29 32 31 31 28 30 28 31 -193 -193 27 28 26 25 16 0 10 10 9 0 0 0 0 9 9 9 9 11 13 14 14 14 14 15 14 15 16 14 13 15 15 16 15 16 16 15 18 19 17 18 16 21 22 23 26 25 28 30 30 30 31 31 32 33 36 37 39 41 42 41 41 43 43 43 47 54 56 57 55 58 59 59 59 59 57 58 56 60 58 58 59 59 58 60 60 69 77 77 78 79 82 81 80 79 82 84 87 88 93 91 93 98 98 99 96 96 97 95 99 96 94 98 -193 -177 -177 -177 -193 -193 113 117 119 123 121 125 128 126 126 125 125 125 122 124 101 99 100 -193 -193 -193 146 149 150 151 152 155 156 158 157 155 -193 155 154 156 156 157 157 -193 163 -193 -193 174 176 176 177 177 180 179 178 182 181 185 184 -193 -193 183 186 187 186 185 178 0 0 0 0 0
    0 0 0 0 0 0 0 0 0 0 0 0 0 0 0 0 0 0 0 0 0 0 0 0 0 0 0 0 0 0 0 0 0 0 0 0 0 0 0 0 0 0 0 0 0 0 0 0 0 0 0 0 0 0 0 0 0 0 0 0 0 0 0 0 0 0 0 0 0 57 57 59 60 58 57 59 58 57 55 55 54 53 52 47 44 43 41 41 39 38 36 37 35 35 35 37 36 32 32 33 31 32 31 31 30 27 29 30 28 28 28 28 28 28 29 29 29 28 28 27 28 28 27 28 27 27 29 31 31 32 29 31 29 31 30 28 28 29 26 25 16 9 11 12 10 0 0 0 0 9 9 0 10 11 13 15 15 15 15 16 15 15 17 15 13 16 14 16 15 16 16 14 17 19 16 19 18 22 23 23 26 26 29 30 30 30 31 31 32 34 36 37 39 41 41 41 41 43 43 43 46 54 55 56 55 57 58 58 59 59 57 58 57 60 59 59 61 60 59 61 62 70 78 78 78 80 82 82 80 80 83 84 87 89 93 91 93 98 98 99 96 96 98 95 100 98 95 99 101 106 -193 -193 109 111 114 117 119 122 121 124 127 126 125 125 125 125 122 125 101 99 -193 -193 -193 144 145 148 149 150 152 154 155 158 157 155 153 155 154 156 155 157 157 157 162 -193 -193 174 176 176 177 178 181 179 179 182 181 185 184 184 -193 183 186 187 186 185 178 0 0 0 0 0
    0 0 0 0 0 0 0 0 0 0 0 0 0 0 0 0 0 0 0 0 0 0 0 0 0 0 0 0 0 0 0 0 0 0 0 0 0 0 0 0 0 0 0 0 0 0 0 0 0 0 0 0 0 0 0 0 0 0 0 0 0 0 0 0 0 0 0 0 0 58 59 60 60 58 58 60 59 58 56 55 54 54 54 51 48 46 43 43 39 38 36 37 35 35 35 37 36 33 31 32 31 32 32 31 30 27 28 29 28 28 28 27 27 29 29 30 28 28 28 28 28 29 27 28 27 28 30 30 32 32 30 33 30 31 31 29 30 30 28 27 21 12 14 14 12 9 0 0 0 9 9 0 9 11 13 16 15 15 14 15 15 16 17 16 13 16 15 16 16 16 16 15 17 19 17 19 20 23 24 24 26 26 29 30 30 30 32 31 33 34 36 37 38 40 41 40 41 43 43 44 46 54 55 56 55 57 58 58 59 59 57 58 57 60 59 59 61 60 58 61 63 70 78 78 78 80 83 82 81 80 83 85 88 89 93 91 92 97 97 98 96 96 98 95 100 98 96 101 103 107 108 110 110 113 116 118 119 121 120 123 126 125 125 124 125 124 121 124 -193 -177 -209 144 144 144 144 146 147 149 152 153 155 157 156 154 153 154 -193 154 154 155 156 156 160 164 166 172 174 174 175 177 180 179 179 182 181 185 184 184 -193 183 185 187 186 185 178 0 0 0 0 0
    0 0 0 0 0 0 0 0 0 0 0 0 0 0 0 0 0 0 0 0 0 0 0 0 0 0 0 0 0 0 0 0 0 0 0 0 0 0 0 0 0 0 0 0 0 0 0 0 0 0 0 0 0 0 0 0 0 0 0 0 0 0 0 0 0 0 0 0 0 58 60 61 61 59 59 60 60 59 56 55 54 53 54 52 50 48 44 43 39 39 37 37 35 34 35 36 36 33 31 32 31 33 32 32 30 27 28 30 29 28 28 27 28 29 30 30 28 29 29 28 28 29 27 27 27 28 30 29 32 32 30 33 30 31 31 29 30 30 28 27 23 18 16 15 13 10 9 9 9 10 10 10 11 13 14 17 16 16 15 16 15 16 16 17 13 16 16 15 16 16 16 15 16 19 17 20 22 23 25 24 27 26 30 29 30 30 32 31 33 34 36 36 38 40 40 40 41 43 43 44 46 54 55 56 55 57 58 58 58 59 57 58 57 60 59 60 61 61 58 61 62 70 77 78 77 79 82 82 80 80 82 85 87 88 93 91 92 96 97 98 96 96 98 95 100 99 98 102 105 109 110 112 113 115 117 118 119 121 120 122 124 124 124 123 124 123 121 124 -193 -193 -193 143 144 143 144 144 146 148 151 151 154 155 155 152 152 152 151 -193 -193 -193 154 154 158 -193 165 169 171 173 173 175 180 179 179 182 182 185 184 184 184 184 185 187 186 186 183 0 0 0 0 0
    0 0 0 0 0 0 0 0 0 0 0 0 0 0 0 0 0 0 0 0 0 0 0 0 0 0 0 0 0 0 0 0 0 0 0 0 0 0 0 0 0 0 0 0 0 0 0 0 0 0 0 0 0 0 0 0 0 0 0 0 0 0 0 0 0 0 0 0 0 58 59 61 61 59 59 60 60 58 56 54 53 53 54 52 51 49 45 43 40 40 37 37 35 34 35 36 36 33 31 32 31 33 33 32 30 27 28 31 29 29 28 28 28 30 32 31 29 30 31 29 29 29 27 27 27 28 30 29 33 32 30 33 30 30 30 29 30 29 28 27 24 20 18 16 14 10 10 10 11 11 11 12 13 15 15 17 16 16 15 16 15 15 15 17 13 16 16 15 15 16 16 15 14 17 15 17 20 21 23 23 25 25 29 28 29 30 32 31 33 35 36 36 39 40 40 40 41 42 43 44 47 54 55 -193 55 57 57 58 58 59 57 57 57 61 60 60 62 61 58 59 59 68 74 76 76 77 81 81 80 80 83 85 88 89 93 91 92 96 96 98 96 96 98 95 100 99 99 103 106 110 111 113 114 116 117 118 119 121 120 122 124 124 124 123 124 123 121 124 -209 -209 -193 143 143 143 143 143 145 147 150 149 153 153 152 151 151 150 150 -193 -193 -193 -193 153 157 -193 164 -193 171 172 172 175 179 180 179 182 183 185 185 185 185 185 185 187 187 186 185 0 0 0 0 0
    0 0 0 0 0 0 0 0 0 0 0 0 0 0 0 0 0 0 0 0 0 0 0 0 0 0 0 0 0 0 0 0 0 0 0 0 0 0 0 0 0 0 0 0 0 0 0 0 0 0 0 0 0 0 0 0 0 0 0 0 0 0 0 0 0 0 0 0 0 58 59 60 59 58 58 59 58 56 55 53 52 52 54 52 52 52 48 44 40 40 37 37 35 34 35 35 36 33 31 32 31 33 33 32 30 28 28 32 30 29 29 29 29 32 33 32 30 32 32 30 30 30 28 27 28 28 31 30 32 31 30 33 30 30 30 28 29 29 28 27 25 23 21 18 15 11 11 12 12 13 12 14 15 17 15 18 16 16 16 16 15 15 14 17 13 15 16 14 15 17 16 16 14 16 16 16 18 18 20 22 23 24 29 28 29 30 32 31 33 34 36 35 39 39 40 39 40 42 43 44 48 55 56 -177 -193 -193 58 58 58 59 57 58 57 61 60 61 61 60 57 57 57 63 70 75 74 75 78 80 79 80 82 86 88 89 92 91 92 95 95 97 96 95 98 96 100 100 100 104 107 111 112 114 115 117 118 119 119 121 120 121 123 123 124 123 124 123 121 124 -209 -209 -193 141 141 142 142 141 143 145 148 146 151 151 151 150 150 149 149 149 150 -193 153 152 157 -193 164 168 171 172 172 174 179 180 179 183 184 185 185 185 185 185 185 187 187 186 185 0 0 0 0 0
    0 0 0 0 0 0 0 0 0 0 0 0 0 0 0 0 0 0 0 0 0 0 0 0 0 0 0 0 0 0 0 0 0 0 0 0 0 0 0 0 0 0 0 0 0 0 0 0 0 0 0 0 0 0 0 0 0 0 0 0 0 0 0 0 0 0 0 0 0 58 59 59 58 57 57 58 56 55 54 53 53 53 54 54 53 53 52 45 41 40 36 36 35 34 35 35 35 33 30 31 30 32 33 32 30 28 29 32 30 29 30 29 29 33 33 32 31 32 32 30 30 30 28 27 28 27 32 30 31 31 30 32 30 29 30 28 29 29 28 28 26 25 24 20 18 12 12 13 14 15 14 17 16 18 15 18 16 16 16 16 14 14 14 17 13 14 17 15 15 17 16 16 14 16 16 16 18 17 19 21 22 24 29 28 29 30 33 32 33 35 36 36 39 39 40 39 41 43 44 45 49 56 56 -193 -193 -193 -193 -193 58 58 56 57 57 60 59 61 61 60 56 57 57 61 67 73 73 74 77 80 79 80 82 86 88 89 92 91 92 95 95 96 96 95 99 96 99 100 101 105 107 111 113 115 115 117 118 118 118 120 120 121 123 123 123 122 124 122 121 123 -209 -193 144 142 141 142 142 141 143 144 147 145 149 149 149 149 150 149 149 149 151 151 153 153 157 159 163 166 169 171 171 173 179 180 180 183 184 186 186 185 185 185 186 187 187 186 185 0 0 0 0 0
    0 0 0 0 0 0 0 0 0 0 0 0 0 0 0 0 0 0 0 0 0 0 0 0 0 0 0 0 0 0 0 0 0 0 0 0 0 0 0 0 0 0 0 0 0 0 0 0 0 0 0 0 0 0 0 0 0 0 0 0 0 0 0 0 0 0 0 0 0 57 58 58 58 56 56 57 57 56 55 54 54 54 56 55 55 55 53 46 42 40 36 36 35 34 35 35 35 33 30 31 30 32 33 32 30 28 29 33 30 29 30 29 29 33 33 32 31 32 33 30 30 31 28 27 28 28 32 31 31 31 30 33 31 30 31 29 29 29 28 29 26 25 23 19 17 13 13 15 16 17 16 20 19 19 16 19 16 16 16 16 14 14 14 18 12 13 17 14 15 16 15 16 13 15 16 15 17 17 19 22 23 24 29 28 29 31 33 32 33 35 36 36 40 39 41 41 43 46 46 47 51 57 57 57 55 -193 -193 -193 -193 58 56 57 57 60 58 60 61 59 55 57 57 60 64 73 73 74 77 80 79 82 83 86 89 89 92 92 93 95 96 96 96 95 99 97 99 100 102 106 109 112 114 -193 116 117 117 118 118 119 119 121 122 122 123 122 123 -193 121 -193 -209 132 145 141 141 142 142 141 142 143 146 143 147 148 148 148 149 149 150 150 151 152 153 153 158 159 161 164 168 169 170 172 179 181 181 184 185 186 186 186 186 186 186 187 187 186 186 0 0 0 0 0
    0 0 0 0 0 0 0 0 0 0 0 0 0 0 0 0 0 0 0 0 0 0 0 0 0 0 0 0 0 0 0 0 0 0 0 0 0 0 0 0 0 0 0 0 0 0 0 0 0 0 0 0 0 0 0 0 0 0 0 0 0 0 0 0 0 0 0 0 0 56 57 57 57 56 57 57 57 56 56 55 55 55 56 56 55 55 53 47 43 40 36 36 36 35 35 35 36 33 30 31 30 31 33 32 30 28 29 34 30 30 31 29 29 34 33 32 31 32 33 30 30 31 28 28 28 28 32 30 31 31 30 33 31 31 32 29 30 30 29 29 26 25 23 19 19 17 17 19 19 20 19 22 20 20 16 19 16 16 16 16 14 14 13 18 12 13 16 14 14 16 15 16 13 14 15 16 17 18 19 21 23 24 29 27 29 30 33 32 33 34 35 35 39 39 41 42 44 47 48 49 52 57 57 57 -193 -193 -193 -193 -193 58 55 56 56 58 54 58 58 57 53 56 56 61 66 74 73 75 78 81 80 83 85 87 89 90 92 92 93 95 96 96 96 95 99 97 99 100 102 107 111 113 115 -193 117 118 117 117 117 118 119 120 120 121 121 121 -193 -193 -193 -209 -209 -193 145 140 141 142 141 140 141 143 145 142 145 147 147 147 148 149 149 150 151 151 153 153 157 158 160 162 166 167 168 170 179 181 181 184 186 186 187 186 186 186 186 188 188 186 186 0 0 0 0 0
    0 0 0 0 0 0 0 0 0 0 0 0 0 0 0 0 0 0 0 0 0 0 0 0 0 0 0 0 0 0 0 0 0 0 0 0 0 0 0 0 0 0 0 0 0 0 0 0 0 0 0 0 0 0 0 0 0 0 0 0 0 0 0 0 0 0 0 0 0 56 57 57 57 57 57 57 57 57 57 56 56 56 56 56 56 56 54 50 45 42 37 37 36 35 35 35 36 33 30 31 31 31 33 32 30 28 30 35 31 30 31 30 30 34 33 32 31 33 33 31 31 31 28 28 29 28 31 29 30 30 30 34 31 31 32 29 30 30 30 29 26 25 24 21 21 20 21 22 21 22 21 23 21 20 15 18 16 16 15 16 14 14 13 18 13 14 17 14 15 16 16 16 13 14 15 15 16 17 18 21 22 24 28 27 30 30 33 32 33 34 35 35 39 38 41 43 45 48 49 49 53 57 58 58 57 59 -193 58 -193 58 55 56 55 58 50 57 57 57 54 57 59 67 69 73 73 75 78 79 78 83 85 87 89 89 91 92 93 95 95 94 95 94 99 96 97 98 101 106 110 114 115 117 117 118 118 118 117 118 118 119 119 119 118 118 -193 -193 -193 -193 -209 133 144 139 140 141 140 140 140 142 144 141 144 147 147 148 148 150 150 151 152 152 153 154 157 158 159 160 165 167 167 169 177 181 181 184 186 186 187 186 186 186 186 188 189 187 187 0 0 0 0 0
    0 0 0 0 0 0 0 0 0 0 0 0 0 0 0 0 0 0 0 0 0 0 0 0 0 0 0 0 0 0 0 0 0 0 0 0 0 0 0 0 0 0 0 0 0 0 0 0 0 0 0 0 0 0 0 0 0 0 0 0 0 0 0 0 0 0 0 0 0 56 56 56 56 56 57 57 56 57 57 56 56 56 56 55 56 56 54 50 46 43 37 37 36 35 35 35 36 33 30 32 31 32 33 32 31 28 30 35 31 30 31 30 30 33 33 32 31 33 34 31 31 32 29 29 29 28 31 28 30 29 30 34 31 31 32 29 30 30 30 29 26 26 25 23 24 23 23 24 24 24 24 25 22 20 16 18 16 16 15 16 13 13 12 18 13 13 18 15 15 17 16 17 13 14 15 15 17 17 18 21 23 24 28 27 30 30 33 33 33 33 35 35 38 37 42 43 46 49 50 50 53 58 58 58 59 60 59 59 59 59 56 57 56 57 50 57 57 57 55 57 59 64 65 67 69 71 75 76 76 82 86 87 89 89 91 92 93 95 95 94 95 94 98 95 95 95 99 105 109 112 114 117 117 118 118 118 117 118 119 119 118 117 116 117 118 -209 -193 -193 125 131 139 138 138 140 140 140 139 141 143 141 143 146 146 148 148 150 151 151 153 152 153 154 157 158 159 160 166 167 168 169 175 179 179 183 184 185 187 187 187 187 186 189 189 187 187 0 0 0 0 0
    0 0 0 0 0 0 0 0 0 0 0 0 0 0 0 0 0 0 0 0 0 0 0 0 0 0 0 0 0 0 0 0 0 0 0 0 0 0 0 0 0 0 0 0 0 0 0 0 0 0 0 0 0 0 0 0 0 0 0 0 0 0 0 0 0 0 0 0 0 56 55 56 56 56 57 56 56 56 57 56 56 56 56 55 56 56 54 51 46 44 38 37 37 35 36 36 37 34 31 32 32 32 34 32 31 29 31 35 31 30 31 30 30 33 32 32 31 33 33 31 32 32 30 29 29 28 31 29 29 29 30 34 31 31 32 29 30 30 30 29 26 26 26 25 26 25 26 26 26 26 25 25 23 21 17 16 16 15 16 16 12 11 10 17 12 12 17 14 14 17 16 17 13 14 15 16 17 17 18 21 23 24 28 27 30 30 33 33 34 33 35 35 38 38 42 43 46 48 49 50 53 58 58 59 60 60 60 59 59 60 57 57 57 58 53 59 59 58 58 59 60 65 65 68 69 71 75 76 76 82 86 86 88 89 90 92 94 95 95 93 96 94 97 95 93 93 94 100 107 110 113 117 117 117 117 116 116 117 119 118 117 116 115 118 120 121 121 121 125 129 136 136 138 140 141 141 140 142 143 141 143 145 145 146 147 150 151 151 153 152 154 155 159 160 161 163 167 169 169 170 175 179 179 182 184 184 187 187 187 187 186 189 189 187 187 0 0 0 0 0
    0 0 0 0 0 0 0 0 0 0 0 0 0 0 0 0 0 0 0 0 0 0 0 0 0 0 0 0 0 0 0 0 0 0 0 0 0 0 0 0 0 0 0 0 0 0 0 0 0 0 0 0 0 0 0 0 0 0 0 0 0 0 0 0 0 0 0 0 0 56 55 55 56 56 57 56 57 57 57 57 57 57 57 56 56 56 55 53 47 45 39 38 38 36 37 36 37 34 31 33 33 32 34 32 31 30 32 35 32 31 32 31 30 33 31 32 32 33 33 32 32 33 30 31 29 28 30 30 29 29 30 34 31 32 32 28 29 29 29 29 26 26 26 26 32 31 30 29 28 28 27 27 24 22 15 12 13 13 14 14 9 0 0 14 11 11 16 13 14 17 16 17 13 14 14 15 16 17 16 21 23 25 28 28 31 31 34 33 34 33 35 36 39 38 42 44 46 48 49 49 53 58 59 59 61 61 60 60 60 60 57 58 58 58 57 60 61 59 59 61 60 67 67 70 70 72 77 76 77 83 87 87 88 89 90 91 94 95 95 93 95 94 96 96 94 95 94 98 105 106 109 112 112 114 114 113 114 113 117 116 116 115 115 118 121 123 123 123 126 130 135 136 138 142 143 143 142 143 143 144 145 146 146 147 148 151 152 153 155 154 155 156 162 162 162 164 169 170 170 170 174 179 179 182 184 184 187 187 187 187 186 188 189 187 187 0 0 0 0 0
    0 0 0 0 0 0 0 0 0 0 0 0 0 0 0 0 0 0 0 0 0 0 0 0 0 0 0 0 0 0 0 0 0 0 0 0 0 0 0 0 0 0 0 0 0 0 0 0 0 0 0 0 0 0 0 0 0 0 0 0 0 0 0 0 0 0 0 0 0 57 56 56 56 57 58 57 58 58 58 59 58 58 57 57 57 57 56 54 48 46 39 39 39 37 37 37 37 34 31 33 33 33 34 33 32 31 34 35 34 32 32 31 31 34 31 33 32 32 33 32 33 33 30 31 30 29 32 30 29 29 30 33 31 31 32 29 29 30 31 31 28 31 30 30 38 36 34 31 30 29 28 27 26 24 16 13 21 17 -225 -225 -225 -225 -225 -225 -225 12 18 15 15 18 16 18 15 16 16 18 19 19 19 22 24 25 29 28 32 31 33 32 33 32 35 36 38 38 42 44 46 48 48 49 52 57 59 59 62 61 61 60 61 61 58 59 59 58 58 61 64 61 64 66 64 70 70 72 72 73 81 77 77 83 86 86 87 88 89 90 93 95 95 92 95 94 96 96 96 96 95 98 104 105 107 108 107 110 109 108 109 108 110 108 109 110 109 109 117 121 123 123 126 132 135 136 139 143 145 145 144 146 145 146 147 148 148 149 149 152 153 154 155 155 156 157 162 162 161 164 168 170 170 170 174 179 179 182 183 184 186 187 187 187 186 188 189 187 186 0 0 0 0 0
    0 0 0 0 0 0 0 0 0 0 0 0 0 0 0 0 0 0 0 0 0 0 0 0 0 0 0 0 0 0 0 0 0 0 0 0 0 0 0 0 0 0 0 0 0 0 0 0 0 0 0 0 0 0 0 0 0 0 0 0 0 0 0 0 0 0 0 0 0 57 57 57 57 58 58 58 58 59 59 59 58 58 58 57 57 57 56 53 48 46 40 40 39 38 37 38 38 34 32 34 34 33 34 33 32 31 35 35 35 33 32 31 31 33 30 32 32 31 32 32 32 32 30 32 30 30 31 31 30 31 31 33 31 32 33 30 30 32 33 33 32 38 36 36 40 38 36 32 30 29 28 27 25 -225 -225 -225 -225 -225 -225 -225 -225 -225 -225 -225 -225 -225 -225 -225 -225 -225 -225 -225 -225 -225 -225 -225 -225 21 22 23 28 26 30 29 33 31 33 32 33 32 34 36 38 38 42 43 46 48 48 48 52 57 58 59 63 61 61 61 62 61 58 60 60 58 60 63 65 63 66 67 66 70 71 71 72 74 83 80 80 84 87 87 87 88 89 90 92 94 95 92 95 95 97 96 97 98 97 99 104 106 108 109 108 110 109 108 108 107 107 105 105 107 106 104 108 113 120 121 123 132 136 138 141 145 147 148 146 148 147 148 149 149 149 150 151 153 154 155 156 156 157 158 161 161 160 163 167 170 170 171 175 179 179 182 183 183 185 187 187 187 185 188 189 187 185 0 0 0 0 0
    0 0 0 0 0 0 0 0 0 0 0 0 0 0 0 0 0 0 0 0 0 0 0 0 0 0 0 0 0 0 0 0 0 0 0 0 0 0 0 0 0 0 0 0 0 0 0 0 0 0 0 0 0 0 0 0 0 0 0 0 0 0 0 0 0 0 0 0 0 58 58 57 58 58 59 58 59 59 59 59 59 58 57 56 56 56 54 53 49 47 42 42 41 39 38 39 38 34 33 34 35 34 35 34 33 32 35 35 37 35 33 32 33 34 31 34 34 32 33 33 33 33 31 33 32 32 32 31 32 34 35 35 34 35 34 32 34 36 37 37 40 42 41 41 41 39 36 34 32 30 29 28 -225 -225 -225 -225 -225 -225 -225 -225 -225 -225 -225 -225 -225 -225 -225 -225 -225 -225 -225 -225 -225 -225 -225 -225 -225 -225 24 24 32 27 29 29 34 30 32 32 33 32 34 36 38 37 42 43 45 47 47 47 52 56 57 58 63 61 61 61 63 62 59 62 61 59 62 64 66 63 66 67 66 71 71 71 73 74 83 82 82 85 87 87 87 88 89 90 91 94 94 91 95 96 98 97 97 98 98 100 105 106 107 109 108 110 110 109 110 107 107 106 105 107 106 104 107 110 116 119 120 124 131 135 139 143 147 148 147 148 148 149 149 149 150 151 152 154 154 155 156 157 158 158 160 161 161 163 167 171 171 171 175 180 179 181 182 183 185 187 187 187 185 188 189 187 186 0 0 0 0 0
    0 0 0 0 0 0 0 0 0 0 0 0 0 0 0 0 0 0 0 0 0 0 0 0 0 0 0 0 0 0 0 0 0 0 0 0 0 0 0 0 0 0 0 0 0 0 0 0 0 0 0 0 0 0 0 0 0 0 0 0 0 0 0 0 0 0 0 0 0 58 58 58 58 59 59 58 59 59 58 58 58 57 56 54 55 54 52 52 48 47 43 44 43 40 39 40 39 35 34 35 36 35 37 36 34 35 37 36 38 36 35 34 35 36 34 36 36 34 35 34 34 34 33 33 32 34 32 31 33 36 36 36 37 38 38 40 42 44 45 45 48 49 47 46 41 39 37 35 34 31 30 -225 -225 -225 -225 -225 -225 -225 -225 -225 -225 -225 -225 -225 -225 -225 -225 -225 -225 -225 -225 -225 -225 -225 -225 -225 -225 -225 -225 24 30 26 28 29 34 30 32 31 32 32 34 36 38 37 41 42 44 47 47 47 52 57 58 58 64 62 62 62 64 63 60 64 63 59 64 65 66 63 66 67 66 70 71 70 73 74 83 82 82 86 87 88 87 88 88 89 90 92 93 90 93 94 95 94 96 98 95 95 105 105 106 106 107 110 110 109 109 108 107 106 108 109 107 106 109 114 118 118 117 121 125 133 138 141 146 148 147 149 148 150 150 150 150 152 152 154 155 155 156 157 158 159 160 162 162 163 167 170 171 171 175 180 179 181 182 183 184 186 187 187 185 188 190 187 186 0 0 0 0 0
    0 0 0 0 0 0 0 0 0 0 0 0 0 0 0 0 0 0 0 0 0 0 0 0 0 0 0 0 0 0 0 0 0 0 0 0 0 0 0 0 0 0 0 0 0 0 0 0 0 0 0 0 0 0 0 0 0 0 0 0 0 0 0 0 0 0 0 0 0 58 58 58 58 59 59 58 59 60 58 58 57 57 55 54 54 53 51 51 46 47 43 45 46 43 42 43 41 39 38 38 38 37 38 37 35 37 37 36 37 36 35 35 36 37 35 37 37 35 36 34 33 33 34 33 32 34 33 33 36 37 37 36 39 39 40 42 43 47 47 49 51 50 48 45 41 39 38 37 35 33 -225 -225 -225 -225 -225 -225 -225 -225 -225 -225 -225 -225 -225 -225 -225 -225 -225 -225 -225 -225 -225 -225 -225 -225 -225 -225 -225 -225 -225 -225 -209 27 27 30 35 30 32 31 32 32 34 37 37 37 41 41 43 46 47 47 52 57 57 58 63 61 62 62 65 64 61 65 64 60 66 65 66 63 66 66 65 68 69 68 72 72 81 81 82 85 87 87 87 88 89 89 90 91 92 90 92 93 94 93 97 99 98 93 103 101 100 99 97 96 93 98 101 102 100 103 105 106 108 108 111 116 119 119 119 123 126 133 138 -193 145 147 147 149 149 150 151 151 151 154 154 156 156 156 157 159 160 160 160 162 162 163 166 170 171 172 175 180 179 181 182 182 184 186 187 187 185 187 190 188 186 0 0 0 0 0
    0 0 0 0 0 0 0 0 0 0 0 0 0 0 0 0 0 0 0 0 0 0 0 0 0 0 0 0 0 0 0 0 0 0 0 0 0 0 0 0 0 0 0 0 0 0 0 0 0 0 0 0 0 0 0 0 0 0 0 0 0 0 0 0 0 0 0 0 0 59 59 59 59 60 60 59 60 61 58 58 57 56 54 53 53 53 51 50 46 47 43 47 49 46 45 46 45 43 42 43 43 41 43 41 37 39 37 35 36 35 34 34 35 36 35 37 37 35 36 34 33 34 34 33 33 35 35 35 37 38 37 37 41 42 44 44 46 50 50 51 52 50 48 45 42 41 40 38 37 -225 -225 -225 -225 -225 -225 -225 -225 -225 -225 -225 -225 -225 -225 -225 -225 -225 -225 -225 -225 -225 -225 -225 -225 -225 -225 -225 -225 -225 -225 -225 -225 29 29 32 35 31 33 31 33 32 35 37 37 37 40 41 42 46 47 46 51 56 57 58 62 61 61 62 65 64 61 65 65 61 67 66 66 63 66 67 66 69 69 69 72 73 80 80 82 85 87 87 87 88 89 89 90 91 92 91 93 96 97 96 100 101 102 98 105 103 100 99 94 90 88 92 92 95 96 104 108 113 115 115 117 120 121 121 121 124 128 134 138 140 145 147 147 148 148 150 150 150 150 153 154 156 156 157 159 162 162 161 162 162 162 163 166 170 171 171 175 180 179 181 182 182 184 186 187 187 185 187 190 188 186 0 0 0 0 0
    0 0 0 0 0 0 0 0 0 0 0 0 0 0 0 0 0 0 0 0 0 0 0 0 0 0 0 0 0 0 0 0 0 0 0 0 0 0 0 0 0 0 0 0 0 0 0 0 0 0 0 0 0 0 0 0 0 0 0 0 0 0 0 0 0 0 0 0 0 59 60 60 60 61 61 61 62 62 59 58 57 56 54 53 52 53 50 50 46 47 44 47 49 47 46 47 47 45 44 44 45 44 45 43 40 39 36 34 36 35 35 34 36 37 36 39 38 36 37 32 33 34 35 34 34 36 37 36 38 39 39 40 44 46 48 48 49 52 51 51 51 50 48 45 43 43 41 40 -225 -225 -225 -225 -225 -225 -225 -225 -225 -225 -225 -225 -225 -225 -225 -225 -225 -225 -225 -225 -225 -225 -225 -225 -225 -225 -225 -225 -225 -225 -225 -225 -225 -225 31 36 36 33 34 32 33 34 36 39 39 39 41 42 43 46 47 47 52 57 57 58 62 61 61 62 64 64 61 66 65 61 68 67 67 64 67 67 67 70 70 70 73 75 80 81 83 85 86 87 87 88 89 89 90 91 92 91 93 96 97 97 102 103 103 102 106 105 102 104 95 89 87 90 89 91 89 -193 -193 111 112 112 116 119 121 121 118 126 126 133 138 140 145 147 147 148 148 150 150 150 150 152 153 154 154 155 156 160 161 161 162 164 162 163 165 170 171 172 175 180 180 181 182 183 183 186 187 187 185 186 189 187 186 0 0 0 0 0
    0 0 0 0 0 0 0 0 0 0 0 0 0 0 0 0 0 0 0 0 0 0 0 0 0 0 0 0 0 0 0 0 0 0 0 0 0 0 0 0 0 0 0 0 0 0 0 0 0 0 0 0 0 0 0 0 0 0 0 0 0 0 0 0 0 0 0 0 0 59 61 61 61 61 61 62 62 62 59 58 58 57 55 53 52 53 49 49 47 49 47 50 51 50 48 49 50 47 45 45 46 46 48 49 47 42 38 36 37 37 37 37 38 39 38 41 41 40 41 34 35 38 38 37 36 39 40 39 40 41 41 43 46 50 51 50 51 53 52 51 51 50 48 46 45 45 44 -225 -225 -225 -225 -225 -225 -225 -225 -225 -225 -225 -225 -225 -225 -225 -225 -225 -225 -225 -225 -225 -225 -225 -225 -225 -225 -225 -225 -225 -225 -225 -225 -225 -225 -225 -225 -225 -225 -225 -225 31 34 35 37 41 42 41 43 43 43 46 47 48 51 57 57 57 61 60 61 61 64 64 62 66 66 62 68 68 67 65 68 68 68 70 71 71 74 75 79 80 83 84 86 88 87 88 89 89 89 90 91 91 92 96 98 98 103 104 105 104 107 106 104 105 103 102 -193 93 92 96 98 -193 -193 108 109 108 112 117 -193 109 113 128 129 133 137 139 144 147 146 149 148 150 150 150 150 152 153 154 153 154 154 157 158 158 157 160 158 161 164 169 171 172 176 181 180 181 182 183 183 186 186 187 186 186 190 188 187 0 0 0 0 0
    0 0 0 0 0 0 0 0 0 0 0 0 0 0 0 0 0 0 0 0 0 0 0 0 0 0 0 0 0 0 0 0 0 0 0 0 0 0 0 0 0 0 0 0 0 0 0 0 0 0 0 0 0 0 0 0 0 0 0 0 0 0 0 0 0 0 0 0 0 59 61 61 60 60 60 60 59 59 57 56 56 56 54 52 51 52 48 49 48 50 48 51 53 50 50 50 51 47 46 45 46 47 50 52 50 43 45 42 -193 40 40 40 40 42 42 43 43 43 43 -209 36 40 40 39 39 40 41 41 42 43 44 45 49 52 53 52 53 54 52 51 51 49 49 48 47 47 -225 -225 -225 -225 -225 -225 -225 -225 -225 -225 -225 -225 -225 -225 -225 -225 -225 -225 -225 -225 -225 -225 -225 -225 -225 -225 -225 -225 -225 -225 -225 -225 -225 -225 -225 -225 -225 -225 -225 -225 -225 -225 -225 37 38 41 42 41 43 43 43 46 48 49 51 56 56 57 61 60 60 61 64 64 62 66 66 62 69 68 68 66 69 69 70 72 72 72 74 75 78 79 82 84 85 87 87 88 89 89 89 90 91 91 92 96 97 96 101 103 104 104 107 106 105 107 105 105 97 99 100 103 -193 -193 104 110 111 110 112 112 104 109 115 124 -193 127 132 134 141 145 144 148 148 150 150 150 150 152 153 154 152 153 153 157 157 156 155 155 155 157 163 168 171 172 176 181 181 181 182 183 183 185 186 186 185 185 189 188 186 0 0 0 0 0
    0 0 0 0 0 0 0 0 0 0 0 0 0 0 0 0 0 0 0 0 0 0 0 0 0 0 0 0 0 0 0 0 0 0 0 0 0 0 0 0 0 0 0 0 0 0 0 0 0 0 0 0 0 0 0 0 0 0 0 0 0 0 0 0 0 0 0 0 0 59 61 60 59 59 59 59 57 57 56 55 55 55 53 50 49 50 47 49 48 50 48 51 53 51 51 50 51 47 45 46 47 47 50 51 50 44 55 58 -209 54 45 44 45 48 50 48 48 51 46 -209 42 43 44 42 42 42 43 43 44 45 47 46 50 53 53 53 53 54 52 51 50 50 50 48 -225 -225 -225 -225 -225 -225 -225 -225 -225 -225 -225 -225 -225 -225 -225 -225 -225 -225 -225 -225 -225 -225 -225 -225 -225 -225 -225 -225 -225 -225 -225 -225 -225 -225 -225 -225 -225 -225 -225 -225 -225 -225 -225 -225 -225 -225 39 43 43 43 43 44 43 46 48 49 51 55 55 56 59 59 59 60 63 64 62 65 65 62 69 68 68 67 70 70 71 73 73 73 75 75 77 78 82 84 85 88 88 88 90 90 89 90 92 93 95 100 99 98 103 103 103 103 106 105 105 107 100 99 92 101 -193 -193 -193 -209 106 116 121 121 122 -193 -193 117 -193 -209 -209 113 113 121 132 -193 140 145 144 148 146 146 148 151 151 152 150 151 152 156 156 156 155 156 155 156 161 167 170 171 175 180 181 180 181 182 183 185 185 185 185 182 186 186 185 0 0 0 0 0
    0 0 0 0 0 0 0 0 0 0 0 0 0 0 0 0 0 0 0 0 0 0 0 0 0 0 0 0 0 0 0 0 0 0 0 0 0 0 0 0 0 0 0 0 0 0 0 0 0 0 0 0 0 0 0 0 0 0 0 0 0 0 0 0 0 0 0 0 0 58 59 58 58 58 58 58 57 57 55 55 55 55 52 49 49 50 48 50 49 50 50 51 53 51 51 49 51 48 46 47 47 47 51 51 51 46 60 68 63 61 58 55 54 56 57 53 52 -193 -209 -209 -209 -193 -209 45 42 42 44 45 46 47 48 47 49 53 54 52 52 53 52 51 51 51 51 -225 -225 -225 -225 -225 -225 -225 -225 -225 -225 -225 -225 -225 -225 -225 -225 -225 -225 -225 -225 -225 -225 -225 -225 -225 -225 -225 -225 -225 -225 -225 -225 -225 -225 -225 -225 -225 -225 -225 -225 -225 -225 -225 -225 -225 -225 -225 40 44 44 46 46 46 45 48 49 50 52 55 55 56 59 59 59 60 62 63 62 64 64 62 68 69 68 -193 -193 -209 -209 74 74 74 76 76 77 78 81 83 85 88 88 88 89 90 90 91 93 95 97 100 100 101 102 101 101 98 104 100 94 93 89 95 93 104 101 -193 111 117 118 121 123 125 127 126 127 124 123 -209 -209 114 118 120 120 120 133 -193 136 139 139 140 144 147 146 146 145 147 150 154 154 154 154 155 154 156 159 165 -193 170 173 178 180 179 180 182 183 185 185 185 185 182 186 186 185 0 0 0 0 0
    0 0 0 0 0 0 0 0 0 0 0 0 0 0 0 0 0 0 0 0 0 0 0 0 0 0 0 0 0 0 0 0 0 0 0 0 0 0 0 0 0 0 0 0 0 0 0 0 0 0 0 0 0 0 0 0 0 0 0 0 0 0 0 0 0 0 0 0 0 58 58 58 57 57 57 57 56 56 56 56 56 55 53 50 50 51 50 51 50 50 50 51 52 50 50 49 52 48 48 48 49 49 52 53 54 52 61 66 62 60 59 57 56 57 57 54 53 59 -209 -209 -209 -209 -209 47 43 42 45 46 47 47 49 47 50 53 54 53 53 52 52 51 51 -225 -225 -225 -225 -225 -225 -225 -225 -225 -225 -225 -225 -225 -225 -225 -225 -225 -225 -225 -225 -225 -225 -225 -225 -225 -225 -225 -225 -225 -225 -225 -225 -225 -225 -225 -225 -225 -225 -225 -225 -225 -225 -225 -225 -225 -225 -225 -225 -225 41 45 45 47 47 47 46 49 50 51 52 55 55 56 58 59 59 60 62 63 62 64 64 62 68 69 69 68 71 73 73 74 74 74 76 76 77 77 79 80 83 87 88 88 90 90 91 92 95 98 97 100 100 101 101 99 99 96 99 98 92 92 88 92 91 99 99 107 110 117 120 121 124 127 131 130 131 133 130 131 -209 -209 119 120 119 -193 128 135 135 135 136 137 140 141 139 139 138 139 145 150 149 149 151 153 151 154 156 162 -209 169 171 177 179 178 179 181 183 183 183 185 184 182 185 185 184 0 0 0 0 0
    0 0 0 0 0 0 0 0 0 0 0 0 0 0 0 0 0 0 0 0 0 0 0 0 0 0 0 0 0 0 0 0 0 0 0 0 0 0 0 0 0 0 0 0 0 0 0 0 0 0 0 0 0 0 0 0 0 0 0 0 0 0 0 0 0 0 0 0 0 58 59 58 57 57 57 57 56 57 57 57 57 56 55 53 53 53 53 52 52 0 -256 -1 -17607 50 51 49 52 49 49 49 50 50 54 55 56 56 64 68 63 62 61 59 57 57 57 55 54 61 -209 -209 -209 -209 -209 -193 44 43 45 47 47 48 49 48 50 54 55 53 53 53 52 51 -225 -225 -225 -225 -225 -225 -225 -225 -225 -225 -225 -225 -225 -225 -225 -225 -225 -225 -225 -225 -225 -225 -225 -225 -225 -225 -225 -225 -225 -225 -225 -225 -225 -225 -225 -225 -225 -225 -225 -225 -225 -225 -225 -225 -225 -225 -225 -225 -225 -225 41 46 46 48 48 48 47 49 50 51 51 54 54 56 58 58 59 59 61 63 62 64 64 62 69 69 69 69 71 72 72 74 74 74 76 76 77 77 79 79 82 86 87 87 90 90 91 92 96 99 97 101 100 100 99 98 98 95 97 98 92 93 90 95 92 98 101 106 110 115 116 120 123 125 128 128 129 133 133 134 -209 -193 121 123 123 -209 135 136 -193 137 137 139 141 141 139 139 138 137 140 139 141 140 141 142 143 150 151 -193 -177 161 168 174 178 176 178 181 182 182 182 184 183 181 184 184 183 0 0 0 0 0
    0 0 0 0 0 0 0 0 0 0 0 0 0 0 0 0 0 0 0 0 0 0 0 0 0 0 0 0 0 0 0 0 0 0 0 0 0 0 0 0 0 0 0 0 0 0 0 0 0 0 0 0 0 0 0 0 0 0 0 0 0 0 0 0 0 0 0 0 0 58 59 58 57 57 57 57 56 57 57 57 57 57 56 54 54 54 54 53 53 52 54 53 54 52 52 51 54 50 51 50 51 52 55 56 58 58 65 67 64 62 61 59 59 58 57 55 -209 65 -209 -209 -209 -209 -209 -193 46 44 46 47 49 49 50 49 51 54 54 53 53 53 52 -225 -225 -225 -225 -225 -225 -225 -225 -225 -225 -225 -225 -225 -225 -225 -225 -225 -225 -225 -225 -225 -225 -225 -225 -225 -225 -225 -225 -225 -225 -225 -225 -225 -225 -225 -225 -225 -225 -225 -225 -225 -225 -225 -225 -225 -225 -225 -225 -225 -225 -225 41 47 47 50 49 49 48 50 50 52 52 54 54 56 57 58 59 60 61 62 63 65 65 64 71 71 70 71 72 73 74 75 75 75 76 77 78 78 80 81 83 86 87 87 89 89 90 91 95 98 96 99 98 99 98 97 97 94 95 97 91 92 91 99 92 100 -193 107 110 116 116 120 123 124 127 126 126 129 125 125 -209 118 120 121 -209 -209 -209 -209 145 141 143 143 142 141 138 138 137 136 136 135 138 137 136 138 139 148 149 -209 -177 155 164 170 174 174 178 181 182 182 182 184 183 182 184 184 183 0 0 0 0 0
    0 0 0 0 0 0 0 0 0 0 0 0 0 0 0 0 0 0 0 0 0 0 0 0 0 0 0 0 0 0 0 0 0 0 0 0 0 0 0 0 0 0 0 0 0 0 0 0 0 0 0 0 0 0 0 0 0 0 0 0 0 0 0 0 0 0 0 0 0 58 58 57 57 57 57 57 56 56 57 57 57 56 55 54 54 54 54 53 53 53 54 54 54 53 53 52 55 52 53 52 53 54 57 60 62 62 66 67 64 61 61 59 59 59 57 56 54 66 -209 -209 -209 -209 -209 -193 48 45 47 50 51 52 52 51 51 53 54 53 53 52 -225 -225 -225 -225 -225 -225 -225 -225 -225 -225 -225 -225 -225 -225 -225 -225 -225 -225 -225 -225 -225 -225 -225 -225 -225 -225 -225 -225 -225 -225 -225 -225 -225 -225 -225 -225 -225 -225 -225 -225 -225 -225 -225 -225 -225 -225 -225 -225 -225 -225 -225 -225 41 46 46 50 49 50 49 51 51 54 53 55 55 57 58 59 59 61 62 63 65 66 65 66 71 70 71 71 73 73 74 76 76 75 76 77 79 78 80 82 83 86 87 86 87 88 89 90 93 95 94 97 97 98 96 96 96 94 96 98 94 96 95 102 101 103 105 106 107 109 110 117 -209 122 124 123 123 122 118 116 110 114 116 118 -209 -209 -209 -193 152 148 -193 -193 -193 145 141 140 137 136 136 136 140 139 138 144 146 153 155 156 152 156 164 169 173 173 177 181 182 182 182 185 184 183 185 185 184 0 0 0 0 0
    0 0 0 0 0 0 0 0 0 0 0 0 0 0 0 0 0 0 0 0 0 0 0 0 0 0 0 0 0 0 0 0 0 0 0 0 0 0 0 0 0 0 0 0 0 0 0 0 0 0 0 0 0 0 0 0 0 0 0 0 0 0 0 0 0 0 0 0 0 57 57 57 56 56 56 56 56 56 57 57 57 57 56 56 56 56 56 55 55 55 55 56 56 55 55 -193 -209 53 -209 -209 -209 56 68 68 67 66 67 67 63 61 61 59 60 58 57 55 49 59 -209 -209 -209 -193 -209 -193 49 46 48 50 52 52 53 51 50 54 55 54 -225 -225 -225 -225 -225 -225 -225 -225 -225 -225 -225 -225 -225 -225 -225 -225 -225 -225 -225 -225 -225 -225 -225 -225 -225 -225 -225 -225 -225 -225 -225 -225 -225 -225 -225 -225 -225 -225 -225 -225 -225 -225 -225 -225 -225 -225 -225 -225 -225 -225 -225 -225 -225 -225 40 43 45 51 49 50 50 52 52 55 55 56 55 57 58 59 60 61 63 63 66 67 66 68 71 71 72 72 74 74 75 76 76 75 76 77 78 77 79 81 83 86 87 87 88 88 90 91 93 94 94 96 96 97 96 96 96 94 99 102 100 102 100 103 102 101 104 -193 106 108 -209 -209 -209 122 123 122 122 120 113 113 107 112 114 115 -209 -209 -209 -193 153 150 148 149 150 149 -193 143 138 136 138 -193 140 140 139 145 146 153 155 156 154 158 165 169 174 173 178 182 183 183 183 185 184 183 185 185 185 0 0 0 0 0
    0 0 0 0 0 0 0 0 0 0 0 0 0 0 0 0 0 0 0 0 0 0 0 0 0 0 0 0 0 0 0 0 0 0 0 0 0 0 0 0 0 0 0 0 0 0 0 0 0 0 0 0 0 0 0 0 0 0 0 0 0 0 0 0 0 0 0 0 0 58 57 57 57 56 56 56 56 56 58 59 58 57 57 57 59 57 59 56 58 56 56 -193 -193 -209 -209 -209 -209 -209 -209 83 75 70 72 71 69 68 67 66 63 61 61 60 60 60 58 58 -225 -225 -225 -209 -225 -225 -209 -209 49 47 49 51 52 53 52 52 51 55 57 -225 -225 -225 -225 -225 -225 -225 -225 -225 -225 -225 -225 -225 -225 -225 -225 -225 -225 -225 -225 -225 -225 -225 -225 -225 -225 -225 -225 -225 -225 -225 -225 -225 -225 -225 -225 -225 -225 -225 -225 -225 -225 -225 -225 -225 -225 -225 -225 -225 -225 -225 -225 -225 -225 -225 -225 40 43 52 48 50 50 53 53 55 56 56 56 58 58 60 60 61 64 64 68 68 67 69 71 72 72 73 73 74 75 76 77 75 76 77 78 78 79 81 82 85 87 87 88 89 90 91 93 94 94 96 96 98 96 96 98 96 101 104 103 106 104 105 105 104 105 -193 109 113 110 112 116 121 121 121 121 120 111 114 109 114 114 115 -209 -209 -209 -209 151 -209 144 147 -209 147 147 149 143 142 145 -209 147 148 149 151 149 153 155 156 153 159 162 167 173 173 179 182 183 183 183 185 184 183 185 185 184 0 0 0 0 0
    0 0 0 0 0 0 0 0 0 0 0 0 0 0 0 0 0 0 0 0 0 0 0 0 0 0 0 0 0 0 0 0 0 0 0 0 0 0 0 0 0 0 0 0 0 0 0 0 0 0 0 0 0 0 0 0 0 0 0 0 0 0 0 0 0 0 0 0 0 60 59 59 59 59 59 59 59 60 62 65 67 62 70 72 72 67 66 68 65 57 -193 -209 -209 -209 -209 -209 87 81 77 76 74 72 72 72 70 69 67 67 64 62 62 61 61 61 -225 -225 -225 -225 -225 -225 -225 -225 -225 -225 -225 48 52 53 53 51 50 50 47 -225 -225 -225 -225 -225 -225 -225 -225 -225 -225 -225 -225 -225 -225 -225 -225 -225 -225 -225 -225 -225 -225 -225 -225 -225 -225 -225 -225 -225 -225 -225 -225 -225 -225 -225 -225 -225 -225 -225 -225 -225 -225 -225 -225 -225 -225 -225 -225 -225 -225 -225 -225 -225 -225 -225 -225 -225 -225 41 44 53 49 51 51 54 54 56 57 57 57 59 59 61 61 62 65 66 68 68 66 69 71 71 72 72 73 73 74 76 77 74 76 77 79 78 80 82 83 85 87 87 88 89 90 92 94 95 95 97 97 98 97 96 98 96 100 103 102 105 103 105 107 107 109 110 111 114 113 112 115 119 119 119 117 108 107 111 107 110 -209 109 117 -209 -209 -209 -209 -209 140 142 -209 -209 143 149 147 149 150 156 -209 154 154 155 -193 156 158 158 156 160 160 161 166 170 179 183 184 184 183 186 184 184 185 185 184 0 0 0 0 0
    0 0 0 0 0 0 0 0 0 0 0 0 0 0 0 0 0 0 0 0 0 0 0 0 0 0 0 0 0 0 0 0 0 0 0 0 0 0 0 0 0 0 0 0 0 0 0 0 0 0 0 0 0 0 0 0 0 0 0 0 0 0 0 0 0 0 0 0 0 61 60 61 62 61 62 63 63 65 67 67 72 67 75 76 76 71 71 74 74 -193 -209 -209 -209 84 88 86 85 81 77 76 75 74 74 72 70 69 68 66 64 62 62 61 61 -225 -225 -225 -225 -225 -225 -225 -225 -225 -225 -225 -225 -225 -225 -225 -225 -225 -225 -225 -225 -225 -225 -225 -225 -225 -225 -225 -225 -225 -225 -225 -225 -225 -225 -225 -225 -225 -225 -225 -225 -225 -225 -225 -225 -225 -225 -225 -225 -225 -225 -225 -225 -225 -225 -225 -225 -225 -225 -225 -225 -225 -225 -225 -225 -225 -225 -225 -225 -225 -225 -225 -225 -225 -225 -225 -225 -225 -225 -225 45 54 51 52 53 55 56 58 59 59 59 61 61 64 64 64 66 67 67 68 67 69 71 71 71 72 72 73 74 76 77 74 75 76 78 77 79 82 83 84 86 87 87 89 91 92 94 95 95 96 97 97 96 95 97 95 99 101 100 102 102 105 107 109 111 112 114 116 116 114 117 119 119 119 116 -193 107 110 -209 109 -209 -209 -209 -209 123 -209 -209 125 136 -193 -209 -209 -193 145 144 144 148 154 -209 154 153 156 155 160 -193 -193 -209 164 166 166 168 172 181 184 184 185 185 188 185 185 186 186 185 0 0 0 0 0
    0 0 0 0 0 0 0 0 0 0 0 0 0 0 0 0 0 0 0 0 0 0 0 0 0 0 0 0 0 0 0 0 0 0 0 0 0 0 0 0 0 0 0 0 0 0 0 0 0 0 0 0 0 0 0 0 0 0 0 0 0 0 0 0 0 0 0 0 0 63 64 65 67 65 66 68 69 70 72 69 75 -193 79 77 76 73 75 76 78 80 84 86 87 86 87 86 85 82 79 77 76 73 74 71 69 68 66 64 63 61 61 -225 -225 -225 -225 -225 -225 -225 -225 -225 -225 -225 -225 -225 -225 -225 -225 -225 -225 -225 -225 -225 -225 -225 -225 -225 -225 -225 -225 -225 -225 -225 -225 -225 -225 -225 -225 -225 -225 -225 -225 -225 -225 -225 -225 -225 -225 -225 -225 -225 -225 -225 -225 -225 -225 -225 -225 -225 -225 -225 -225 -225 -225 -225 -225 -225 -225 -225 -225 -225 -225 -225 -225 -225 -225 -225 -225 -225 -225 -225 -225 -225 -225 -225 -225 54 55 56 59 59 60 61 61 62 62 66 65 66 68 68 68 69 68 69 71 71 71 72 73 74 74 76 77 73 74 75 76 76 78 80 81 82 85 85 86 89 90 92 94 95 94 95 96 96 95 94 95 94 97 100 99 101 102 105 106 109 111 113 115 117 115 114 115 118 116 115 110 106 108 108 109 113 -209 -209 -209 -209 125 125 120 126 127 131 124 129 -193 142 141 -209 -209 -209 165 -193 169 167 168 165 167 165 -193 -193 -193 168 170 173 181 185 184 185 185 188 185 185 186 186 185 0 0 0 0 0
    0 0 0 0 0 0 0 0 0 0 0 0 0 0 0 0 0 0 0 0 0 0 0 0 0 0 0 0 0 0 0 0 0 0 0 0 0 0 0 0 0 0 0 0 0 0 0 0 0 0 0 0 0 0 0 0 0 0 0 0 0 0 0 0 0 0 0 0 0 65 66 66 67 66 65 68 69 70 72 67 -209 -193 77 75 75 72 75 76 78 80 83 84 86 85 87 85 84 83 81 77 76 73 74 71 69 68 67 66 65 -225 -225 -225 -225 -225 -225 -225 -225 -225 -225 -225 -225 -225 -225 -225 -225 -225 -225 -225 -225 -225 -225 -225 -225 -225 -225 -225 -225 -225 -225 -225 -225 -225 -225 -225 -225 -225 -225 -225 -225 -225 -225 -225 -225 -225 -225 -225 -225 -225 -225 -225 -225 -225 -225 -225 -225 -225 -225 -225 -225 -225 -225 -225 -225 -225 -225 -225 -225 -225 -225 -225 -225 -225 -225 -225 -225 -225 -225 -225 -225 -225 -225 -225 -225 -225 -225 -225 -225 56 62 60 61 62 62 62 63 66 66 66 68 68 68 69 68 70 71 72 72 73 73 74 74 76 77 73 74 75 76 76 78 81 81 82 84 84 84 87 89 91 92 94 94 95 95 96 95 93 95 94 99 100 100 104 104 105 107 108 109 110 111 114 111 113 114 116 114 113 111 109 111 111 113 116 119 -193 124 125 125 123 121 124 123 123 125 126 134 140 139 141 148 154 160 164 165 164 166 164 165 164 167 -193 -193 167 170 174 181 186 184 185 185 186 184 185 186 186 185 0 0 0 0 0
    0 0 0 0 0 0 0 0 0 0 0 0 0 0 0 0 0 0 0 0 0 0 0 0 0 0 0 0 0 0 0 0 0 0 0 0 0 0 0 0 0 0 0 0 0 0 0 0 0 0 0 0 0 0 0 0 0 0 0 0 0 0 0 0 0 0 0 0 0 63 64 65 67 65 63 67 69 70 -193 -193 75 -193 78 76 77 73 76 77 81 82 85 85 86 86 87 86 85 83 80 77 76 73 73 70 69 69 68 67 -225 -225 -225 -225 -225 -225 -225 -225 -225 -225 -225 -225 -225 -225 -225 -225 -225 -225 -225 -225 -225 -225 -225 -225 -225 -225 -225 -225 -225 -225 -225 -225 -225 -225 -225 -225 -225 -225 -225 -225 -225 -225 -225 -225 -225 -225 -225 -225 -225 -225 -225 -225 -225 -225 -225 -225 -225 -225 -225 -225 -225 -225 -225 -225 -225 -225 -225 -225 -225 -225 -225 -225 -225 -225 -225 -225 -225 -225 -225 -225 -225 -225 -225 -225 -225 -225 -225 -225 -225 -225 64 61 63 63 63 64 64 67 66 67 68 68 68 70 68 70 71 72 72 73 74 75 75 77 79 74 76 76 77 76 77 81 80 81 83 84 84 87 89 91 92 94 95 96 96 97 97 95 96 97 100 101 101 104 104 106 106 108 108 108 110 112 111 112 114 118 116 116 115 115 117 118 117 119 120 121 124 125 124 123 123 125 126 127 130 131 133 138 137 139 144 151 155 157 157 159 163 160 162 159 161 162 -193 167 170 176 182 186 185 185 186 186 185 185 186 186 185 0 0 0 0 0
    0 0 0 0 0 0 0 0 0 0 0 0 0 0 0 0 0 0 0 0 0 0 0 0 0 0 0 0 0 0 0 0 0 0 0 0 0 0 0 0 0 0 0 0 0 0 0 0 0 0 0 0 0 0 0 0 0 0 0 0 0 0 0 0 0 0 0 0 0 64 66 67 68 67 64 67 69 70 -193 68 -193 -193 77 76 77 74 77 81 84 85 86 87 88 87 88 88 86 84 82 77 77 73 73 71 71 70 -225 -225 -225 -225 -225 -225 -225 -225 -225 -225 -225 -225 -225 -225 -225 -225 -225 -225 -225 -225 -225 -225 -225 -225 -225 -225 -225 -225 -225 -225 -225 -225 -225 -225 -225 -225 -225 -225 -225 -225 -225 -225 -225 -225 -225 -225 -225 -225 -225 -225 -225 -225 -225 -225 -225 -225 -225 -225 -225 -225 -225 -225 -225 -225 -225 -225 -225 -225 -225 -225 -225 -225 -225 -225 -225 -225 -225 -225 -225 -225 -225 -225 -225 -225 -225 -225 -225 -225 -225 -225 -225 -225 68 62 65 66 65 66 66 69 68 68 69 70 69 70 69 70 71 72 72 73 74 76 76 77 79 75 76 76 76 75 75 81 80 81 82 83 84 87 90 91 93 95 97 98 99 99 99 98 100 102 104 103 103 105 105 106 107 108 107 108 109 111 110 111 114 119 117 117 116 116 119 -193 120 -193 122 124 126 127 126 126 126 128 129 130 132 133 135 138 137 138 141 146 150 152 153 154 157 155 157 156 156 160 165 167 170 177 183 186 185 186 186 186 185 185 186 186 186 0 0 0 0 0
    0 0 0 0 0 0 0 0 0 0 0 0 0 0 0 0 0 0 0 0 0 0 0 0 0 0 0 0 0 0 0 0 0 0 0 0 0 0 0 0 0 0 0 0 0 0 0 0 0 0 0 0 0 0 0 0 0 0 0 0 0 0 0 0 0 0 0 0 0 68 69 69 -209 -193 -193 -193 -209 72 -193 -193 73 -193 77 76 78 77 82 85 86 87 88 88 89 89 89 88 87 84 83 78 77 74 74 72 72 -225 -225 -225 -225 -225 -225 -225 -225 -225 -225 -225 -225 -225 -225 -225 -225 -225 -225 -225 -225 -225 -225 -225 -225 -225 -225 -225 -225 -225 -225 -225 -225 -225 -225 -225 -225 -225 -225 -225 -225 -225 -225 -225 -225 -225 -225 -225 -225 -225 -225 -225 -225 -225 -225 -225 -225 -225 -225 -225 -225 -225 -225 -225 -225 -225 -225 -225 -225 -225 -225 -225 -225 -225 -225 -225 -225 -225 -225 -225 -225 -225 -225 -225 -225 -225 -225 -225 -225 -225 -225 -225 -225 -225 -225 63 67 68 67 69 68 71 69 70 71 71 70 71 70 71 72 73 73 74 74 76 76 78 79 77 78 78 78 76 76 82 81 82 83 84 84 88 91 92 94 97 99 100 100 100 101 100 103 105 105 105 104 106 106 107 107 108 107 108 110 112 111 113 115 119 117 119 120 123 124 130 129 130 130 132 133 132 131 133 131 132 133 134 134 135 135 138 137 138 139 139 142 145 150 151 153 151 153 152 152 156 162 166 169 178 183 185 185 185 186 185 184 184 186 185 185 0 0 0 0 0
    0 0 0 0 0 0 0 0 0 0 0 0 0 0 0 0 0 0 0 0 0 0 0 0 0 0 0 0 0 0 0 0 0 0 0 0 0 0 0 0 0 0 0 0 0 0 0 0 0 0 0 0 0 0 0 0 0 0 0 0 0 0 0 0 0 0 0 0 0 -209 -209 -209 -209 -209 -209 -193 -193 73 74 -193 73 -193 78 79 84 85 87 88 88 89 89 90 90 90 89 89 88 85 84 78 78 75 76 -225 -225 -225 -225 -225 -225 -225 -225 -225 -225 -225 -225 -225 -225 -225 -225 -225 -225 -225 -225 -225 -225 -225 -225 -225 -225 -225 -225 -225 -225 -225 -225 -225 -225 -225 -225 -225 -225 -225 -225 -225 -225 -225 -225 -225 -225 -225 -225 -225 -225 -225 -225 -225 -225 -225 -225 -225 -225 -225 -225 -225 -225 -225 -225 -225 -225 -225 -225 -225 -225 -225 -225 -225 -225 -225 -225 -225 -225 -225 -225 -225 -225 -225 -225 -225 -225 -225 -225 -225 -225 -225 -225 -225 -225 -225 -225 -225 65 69 68 70 70 72 70 71 72 72 71 72 71 71 72 73 73 74 74 76 76 78 80 78 80 80 78 78 78 83 82 82 83 83 83 87 91 92 95 98 100 101 101 101 101 101 103 104 106 105 105 106 106 107 108 109 109 109 110 112 112 114 114 116 114 117 118 123 126 132 132 133 132 134 135 134 134 135 133 134 135 136 136 136 137 139 138 139 139 139 140 144 149 151 -209 149 152 150 151 154 158 165 169 179 183 184 185 185 186 185 184 185 185 185 184 0 0 0 0 0
    0 0 0 0 0 0 0 0 0 0 0 0 0 0 0 0 0 0 0 0 0 0 0 0 0 0 0 0 0 0 0 0 0 0 0 0 0 0 0 0 0 0 0 0 0 0 0 0 0 0 0 0 0 0 0 0 0 0 0 0 0 0 0 0 0 0 0 0 0 -209 -209 -209 -209 -209 -209 70 75 74 -193 69 72 77 86 85 88 89 89 90 90 90 90 90 90 89 89 88 87 85 84 82 82 -225 -225 -225 -225 -225 -225 -225 -225 -225 -225 -225 -225 -225 -225 -225 -225 -225 -225 -225 -225 -225 -225 -225 -225 -225 -225 -225 -225 -225 -225 -225 -225 -225 -225 -225 -225 -225 -225 -225 -225 -225 -225 -225 -225 -225 -225 -225 -225 -225 -225 -225 -225 -225 -225 -225 -225 -225 -225 -225 -225 -225 -225 -225 -225 -225 -225 -225 -225 -225 -225 -225 -225 -225 -225 -225 -225 -225 -225 -225 -225 -225 -225 -225 -225 -225 -225 -225 -225 -225 -225 -225 -225 -225 -225 -225 -225 -225 -225 -225 64 70 68 71 71 73 72 73 74 74 72 73 72 72 72 73 73 74 75 77 77 79 80 81 84 84 80 80 80 84 83 83 83 82 82 88 91 92 95 98 100 101 101 101 102 102 103 104 105 105 105 106 106 107 108 110 110 110 110 112 112 114 115 116 112 117 116 -193 127 132 131 133 132 135 135 135 136 137 136 137 137 138 138 138 138 140 139 140 139 140 140 142 146 -193 -209 146 148 148 149 152 156 163 168 177 182 185 185 186 187 186 185 186 186 186 185 0 0 0 0 0
    0 0 0 0 0 0 0 0 0 0 0 0 0 0 0 0 0 0 0 0 0 0 0 0 0 0 0 0 0 0 0 0 0 0 0 0 0 0 0 0 0 0 0 0 0 0 0 0 0 0 0 0 0 0 0 0 0 0 0 0 0 0 0 0 0 0 0 0 0 -209 -209 -209 -209 -209 69 -193 -193 85 -193 -193 -193 -193 91 90 91 91 91 92 91 91 91 90 90 89 89 88 87 87 86 85 -225 -225 -225 -225 -225 -225 -225 -225 -225 -225 -225 -225 -225 -225 -225 -225 -225 -225 -225 -225 -225 -225 -225 -225 -225 -225 -225 -225 -225 -225 -225 -225 -225 -225 -225 -225 -225 -225 -225 -225 -225 -225 -225 -225 -225 -225 -225 -225 -225 -225 -225 -225 -225 -225 -225 -225 -225 -225 -225 -225 -225 -225 -225 -225 -225 -225 -225 -225 -225 -225 -225 -225 -225 -225 -225 -225 -225 -225 -225 -225 -225 -225 -225 -225 -225 -225 -225 -225 -225 -225 -225 -225 -225 -225 -225 -225 -225 -225 -225 -225 -225 70 68 70 70 72 72 73 74 74 73 74 73 73 73 74 75 75 77 78 78 81 82 84 86 86 84 82 83 86 85 85 84 83 83 88 91 92 95 97 100 100 101 101 102 102 104 105 106 106 107 107 107 108 108 109 109 109 110 110 112 115 115 117 114 118 118 123 126 131 133 133 132 135 136 136 137 138 137 138 139 139 139 140 140 141 141 141 140 140 142 145 146 -209 -209 143 147 148 148 151 155 162 167 176 181 184 185 185 187 186 186 186 187 186 186 0 0 0 0 0
    0 0 0 0 0 0 0 0 0 0 0 0 0 0 0 0 0 0 0 0 0 0 0 0 0 0 0 0 0 0 0 0 0 0 0 0 0 0 0 0 0 0 0 0 0 0 0 0 0 0 0 0 0 0 0 0 0 0 0 0 0 0 0 0 0 0 0 0 0 -209 -209 -209 90 -209 -193 -193 93 92 92 91 90 91 93 92 92 92 93 94 92 92 91 91 91 90 89 89 88 88 -225 -225 -225 -225 -225 -225 -225 -225 -225 -225 -225 -225 -225 -225 -225 -225 -225 -225 -225 -225 -225 -225 -225 -225 -225 -225 -225 -225 -225 -225 -225 -225 -225 -225 -225 -225 -225 -225 -225 -225 -225 -225 -225 -225 -225 -225 -225 -225 -225 -225 -225 -225 -225 -225 -225 -225 -225 -225 -225 -225 -225 -225 -225 -225 -225 -225 -225 -225 -225 -225 -225 -225 -225 -225 -225 -225 -225 -225 -225 -225 -225 -225 -225 -225 -225 -225 -225 -225 -225 -225 -225 -225 -225 -225 -225 -225 -225 -225 -225 -225 -225 -225 -225 -225 69 72 72 74 73 74 75 75 75 75 74 75 74 76 76 76 79 79 79 83 84 86 87 87 86 84 86 87 86 86 85 84 83 87 90 91 94 97 100 101 101 101 102 103 106 106 107 107 108 108 108 109 109 109 109 109 110 110 113 115 116 117 115 118 118 123 125 127 129 132 132 135 136 136 137 138 138 140 140 140 141 142 141 143 144 143 142 142 144 148 148 150 148 144 144 142 142 147 153 158 167 176 181 183 184 184 186 186 186 186 187 187 188 0 0 0 0 0
    0 0 0 0 0 0 0 0 0 0 0 0 0 0 0 0 0 0 0 0 0 0 0 0 0 0 0 0 0 0 0 0 0 0 0 0 0 0 0 0 0 0 0 0 0 0 0 0 0 0 0 0 0 0 0 0 0 0 0 0 0 0 0 0 0 0 0 0 0 -193 95 94 94 92 92 93 94 96 94 93 93 93 94 94 95 95 95 96 94 93 92 92 91 90 90 90 -225 -225 -225 -225 -225 -225 -225 -225 -225 -225 -225 -225 -225 -225 -225 -225 -225 -225 -225 -225 -225 -225 -225 -225 -225 -225 -225 -225 -225 -225 -225 -225 -225 -225 -225 -225 -225 -225 -225 -225 -225 -225 -225 -225 -225 -225 -225 -225 -225 -225 -225 -225 -225 -225 -225 -225 -225 -225 -225 -225 -225 -225 -225 -225 -225 -225 -225 -225 -225 -225 -225 -225 -225 -225 -225 -225 -225 -225 -225 -225 -225 -225 -225 -225 -225 -225 -225 -225 -225 -225 -225 -225 -225 -225 -225 -225 -225 -225 -225 -225 -225 -225 -225 -225 -225 -225 72 76 74 75 75 76 78 77 77 77 76 76 75 77 78 77 81 80 79 82 84 86 86 87 87 86 88 89 88 87 86 86 84 88 90 92 94 97 100 101 101 102 104 -209 107 107 108 108 109 109 108 109 109 109 110 109 109 110 113 115 116 117 116 119 119 124 126 128 128 131 132 135 137 137 138 140 140 142 143 143 143 143 142 143 144 144 142 142 143 147 148 150 148 145 144 144 145 149 152 152 166 177 182 183 184 185 186 186 186 187 188 186 187 0 0 0 0 0
    0 0 0 0 0 0 0 0 0 0 0 0 0 0 0 0 0 0 0 0 0 0 0 0 0 0 0 0 0 0 0 0 0 0 0 0 0 0 0 0 0 0 0 0 0 0 0 0 0 0 0 0 0 0 0 0 0 0 0 0 0 0 0 0 0 0 0 0 0 92 96 95 95 94 93 95 97 98 96 95 96 95 97 97 98 96 96 97 95 95 94 93 92 91 -225 -225 -225 -225 -225 -225 -225 -225 -225 -225 -225 -225 -225 -225 -225 -225 -225 -225 -225 -225 -225 -225 -225 -225 -225 -225 -225 -225 -225 -225 -225 -225 -225 -225 -225 -225 -225 -225 -225 -225 -225 -225 -225 -225 -225 -225 -225 -225 -225 -225 -225 -225 -225 -225 -225 -225 -225 -225 -225 -225 -225 -225 -225 -225 -225 -225 -225 -225 -225 -225 -225 -225 -225 -225 -225 -225 -225 -225 -225 -225 -225 -225 -225 -225 -225 -225 -225 -225 -225 -225 -225 -225 -225 -225 -225 -225 -225 -225 -225 -225 -225 -225 -225 -225 -225 -225 -225 -225 -225 81 78 78 77 79 81 79 80 79 77 77 77 78 81 79 83 81 81 84 85 86 87 88 89 88 89 90 90 89 88 87 86 89 91 92 93 96 100 101 102 102 -209 -209 107 107 108 108 109 109 109 109 110 109 110 109 110 110 113 115 115 116 115 119 118 123 127 131 134 135 136 137 139 139 140 143 142 144 144 146 146 145 144 144 144 144 141 141 141 142 142 141 139 140 139 138 140 144 151 152 166 178 182 183 184 185 186 186 186 186 187 186 187 0 0 0 0 0
    0 0 0 0 0 0 0 0 0 0 0 0 0 0 0 0 0 0 0 0 0 0 0 0 0 0 0 0 0 0 0 0 0 0 0 0 0 0 0 0 0 0 0 0 0 0 0 0 0 0 0 0 0 0 0 0 0 0 0 0 0 0 0 0 0 0 0 0 0 92 96 95 96 94 95 98 99 99 99 98 98 98 98 97 98 96 97 97 95 95 94 93 93 -225 -225 -225 -225 -225 -225 -225 -225 -225 -225 -225 -225 -225 -225 -225 -225 -225 -225 -225 -225 -225 -225 -225 -225 -225 -225 -225 -225 -225 -225 -225 -225 -225 -225 -225 -225 -225 -225 -225 -225 -225 -225 -225 -225 -225 -225 -225 -225 -225 -225 -225 -225 -225 -225 -225 -225 -225 -225 -225 -225 -225 -225 -225 -225 -225 -225 -225 -225 -225 -225 -225 -225 -225 -225 -225 -225 -225 -225 -225 -225 -225 -225 -225 -225 -225 -225 -225 -225 -225 -225 -225 -225 -225 -225 -225 -225 -225 -225 -225 -225 -225 -225 -225 -225 -225 -225 -225 -225 -225 -225 -225 -225 82 81 83 84 82 83 82 79 79 78 81 83 80 84 82 83 85 86 87 88 87 89 88 89 90 90 88 88 86 87 89 91 93 93 94 97 100 100 101 102 -209 -209 106 108 108 108 109 109 109 110 110 111 109 110 111 113 115 115 114 114 116 115 121 125 130 134 136 137 138 139 139 140 142 142 144 144 146 148 147 147 146 146 146 142 142 141 143 143 140 139 139 138 -193 138 146 151 152 165 177 182 182 183 184 185 186 186 186 187 186 187 0 0 0 0 0
    0 0 0 0 0 0 0 0 0 0 0 0 0 0 0 0 0 0 0 0 0 0 0 0 0 0 0 0 0 0 0 0 0 0 0 0 0 0 0 0 0 0 0 0 0 0 0 0 0 0 0 0 0 0 0 0 0 0 0 0 0 0 0 0 0 0 0 0 0 94 99 98 99 99 99 101 100 101 100 100 101 100 99 99 99 98 98 97 96 96 96 -225 -225 -225 -225 -225 -225 -225 -225 -225 -225 -225 -225 -225 -225 -225 -225 -225 -225 -225 -225 -225 -225 -225 -225 -225 -225 -225 -225 -225 -225 -225 -225 -225 -225 -225 -225 -225 -225 -225 -225 -225 -225 -225 -225 -225 -225 -225 -225 -225 -225 -225 -225 -225 -225 -225 -225 -225 -225 -225 -225 -225 -225 -225 -225 -225 -225 -225 -225 -225 -225 -225 -225 -225 -225 -225 -225 -225 -225 -225 -225 -225 -225 -225 -225 -225 -225 -225 -225 -225 -225 -225 -225 -225 -225 -225 -225 -225 -225 -225 -225 -225 -225 -225 -225 -225 -225 -225 -225 -225 -225 -225 -225 -225 -225 82 82 84 84 83 84 84 80 80 80 83 85 83 86 84 85 86 87 88 88 88 89 88 89 89 90 89 89 88 88 91 93 95 94 94 96 97 98 98 99 100 -209 104 106 106 106 107 107 108 109 109 111 109 111 112 114 116 115 115 115 116 116 120 123 127 130 134 136 137 137 138 139 140 140 143 143 145 148 147 147 147 146 147 144 143 143 145 146 144 143 144 142 140 141 -193 151 152 165 177 181 181 182 183 185 185 185 186 186 186 186 0 0 0 0 0
    0 0 0 0 0 0 0 0 0 0 0 0 0 0 0 0 0 0 0 0 0 0 0 0 0 0 0 0 0 0 0 0 0 0 0 0 0 0 0 0 0 0 0 0 0 0 0 0 0 0 0 0 0 0 0 0 0 0 0 0 0 0 0 0 0 0 0 0 0 95 100 99 100 101 101 102 102 102 102 102 102 101 100 100 100 99 99 99 98 97 -225 -225 -225 -225 -225 -225 -225 -225 -225 -225 -225 -225 -225 -225 -225 -225 -225 -225 -225 -225 -225 -225 -225 -225 -225 -225 -225 -225 -225 -225 -225 -225 -225 -225 -225 -225 -225 -225 -225 -225 -225 -225 -225 -225 -225 -225 -225 -225 -225 -225 -225 -225 -225 -225 -225 -225 -225 -225 -225 -225 -225 -225 -225 -225 -225 -225 -225 -225 -225 -225 -225 -225 -225 -225 -225 -225 -225 -225 -225 -225 -225 -225 -225 -225 -225 -225 -225 -225 -225 -225 -225 -225 -225 -225 -225 -225 -225 -225 -225 -225 -225 -225 -225 -225 -225 -225 -225 -225 -225 -225 -225 -225 -225 -225 -225 -225 83 85 84 84 85 85 82 81 82 84 86 85 86 85 85 86 87 88 89 89 89 89 90 90 90 89 90 90 91 92 94 94 95 95 96 96 96 96 97 99 100 101 104 104 105 105 106 107 108 108 110 109 111 113 114 116 116 115 115 116 115 118 121 122 125 132 135 137 137 138 139 140 140 143 143 146 148 148 148 148 146 147 144 145 144 146 146 146 146 149 147 148 143 -193 151 152 163 174 181 182 183 184 185 186 186 186 186 186 186 0 0 0 0 0
    0 0 0 0 0 0 0 0 0 0 0 0 0 0 0 0 0 0 0 0 0 0 0 0 0 0 0 0 0 0 0 0 0 0 0 0 0 0 0 0 0 0 0 0 0 0 0 0 0 0 0 0 0 0 0 0 0 0 0 0 0 0 0 0 0 0 0 0 0 96 100 100 101 101 102 102 102 103 103 103 102 102 101 100 100 99 98 98 -225 -225 -225 -225 -225 -225 -225 -225 -225 -225 -225 -225 -225 -225 -225 -225 -225 -225 -225 -225 -225 -225 -225 -225 -225 -225 -225 -225 -225 -225 -225 -225 -225 -225 -225 -225 -225 -225 -225 -225 -225 -225 -225 -225 -225 -225 -225 -225 -225 -225 -225 -225 -225 -225 -225 -225 -225 -225 -225 -225 -225 -225 -225 -225 -225 -225 -225 -225 -225 -225 -225 -225 -225 -225 -225 -225 -225 -225 -225 -225 -225 -225 -225 -225 -225 -225 -225 -225 -225 -225 -225 -225 -225 -225 -225 -225 -225 -225 -225 -225 -225 -225 -225 -225 -225 -225 -225 -225 -225 -225 -225 -225 -225 -225 -225 -225 -225 -225 -225 -225 -225 86 87 86 84 83 82 84 86 85 87 86 87 87 88 89 89 89 90 90 91 91 93 92 94 94 94 94 96 94 95 94 95 94 94 95 96 98 99 100 102 102 104 104 105 105 107 106 109 108 110 113 115 116 117 116 116 117 116 118 120 122 124 131 134 135 136 137 139 139 140 143 144 146 150 149 148 148 147 146 144 144 144 145 144 145 146 148 147 147 146 -193 149 152 163 173 180 181 182 183 184 185 185 185 186 185 186 0 0 0 0 0
    0 0 0 0 0 0 0 0 0 0 0 0 0 0 0 0 0 0 0 0 0 0 0 0 0 0 0 0 0 0 0 0 0 0 0 0 0 0 0 0 0 0 0 0 0 0 0 0 0 0 0 0 0 0 0 0 0 0 0 0 0 0 0 0 0 0 0 0 0 99 101 101 102 102 103 103 104 103 103 103 102 102 101 100 100 99 -225 -225 -225 -225 -225 -225 -225 -225 -225 -225 -225 -225 -225 -225 -225 -225 -225 -225 -225 -225 -225 -225 -225 -225 -225 -225 -225 -225 -225 -225 -225 -225 -225 -225 -225 -225 -225 -225 -225 -225 -225 -225 -225 -225 -225 -225 -225 -225 -225 -225 -225 -225 -225 -225 -225 -225 -225 -225 -225 -225 -225 -225 -225 -225 -225 -225 -225 -225 -225 -225 -225 -225 -225 -225 -225 -225 -225 -225 -225 -225 -225 -225 -225 -225 -225 -225 -225 -225 -225 -225 -225 -225 -225 -225 -225 -225 -225 -225 -225 -225 -225 -225 -225 -225 -225 -225 -225 -225 -225 -225 -225 -225 -225 -225 -225 -225 -225 -225 -225 -225 -225 -225 -225 -225 86 85 82 82 82 84 86 85 87 87 87 88 88 89 89 90 91 91 91 92 94 93 96 96 96 96 98 95 96 94 95 93 93 93 94 95 96 97 100 100 101 101 102 103 106 105 108 107 109 113 116 118 118 118 118 119 119 120 122 123 126 131 134 135 137 138 139 140 141 144 145 146 150 149 149 148 147 146 145 145 145 146 146 147 147 150 148 148 148 153 150 152 164 173 177 177 177 181 182 184 183 184 185 185 186 0 0 0 0 0
    0 0 0 0 0 0 0 0 0 0 0 0 0 0 0 0 0 0 0 0 0 0 0 0 0 0 0 0 0 0 0 0 0 0 0 0 0 0 0 0 0 0 0 0 0 0 0 0 0 0 0 0 0 0 0 0 0 0 0 0 0 0 0 0 0 0 0 0 0 101 103 103 103 103 105 104 104 104 104 104 103 102 102 101 101 -225 -225 -225 -225 -225 -225 -225 -225 -225 -225 -225 -225 -225 -225 -225 -225 -225 -225 -225 -225 -225 -225 -225 -225 -225 -225 -225 -225 -225 -225 -225 -225 -225 -225 -225 -225 -225 -225 -225 -225 -225 -225 -225 -225 -225 -225 -225 -225 -225 -225 -225 -225 -225 -225 -225 -225 -225 -225 -225 -225 -225 -225 -225 -225 -225 -225 -225 -225 -225 -225 -225 -225 -225 -225 -225 -225 -225 -225 -225 -225 -225 -225 -225 -225 -225 -225 -225 -225 -225 -225 -225 -225 -225 -225 -225 -225 -225 -225 -225 -225 -225 -225 -225 -225 -225 -225 -225 -225 -225 -225 -225 -225 -225 -225 -225 -225 -225 -225 -225 -225 -225 -225 -225 -225 -225 -225 -225 83 83 84 85 87 86 88 89 89 90 90 90 90 91 92 91 91 92 94 93 99 98 97 97 98 96 96 94 94 92 92 92 94 96 97 98 100 100 100 100 101 102 105 104 107 107 109 115 118 119 119 119 120 121 121 121 123 124 127 132 135 136 137 137 139 140 141 146 145 146 149 148 148 147 146 146 145 146 147 148 148 150 149 153 152 -193 150 155 150 154 165 172 175 176 176 180 181 182 181 182 184 184 185 0 0 0 0 0
    0 0 0 0 0 0 0 0 0 0 0 0 0 0 0 0 0 0 0 0 0 0 0 0 0 0 0 0 0 0 0 0 0 0 0 0 0 0 0 0 0 0 0 0 0 0 0 0 0 0 0 0 0 0 0 0 0 0 0 0 0 0 0 0 0 0 0 0 0 103 104 104 105 105 105 105 105 104 104 104 103 102 102 -225 -225 -225 -225 -225 -225 -225 -225 -225 -225 -225 -225 -225 -225 -225 -225 -225 -225 -225 -225 -225 -225 -225 -225 -225 -225 -225 -225 -225 -225 -225 -225 -225 -225 -225 -225 -225 -225 -225 -225 -225 -225 -225 -225 -225 -225 -225 -225 -225 -225 -225 -225 -225 -225 -225 -225 -225 -225 -225 -225 -225 -225 -225 -225 -225 -225 -225 -225 -225 -225 -225 -225 -225 -225 -225 -225 -225 -225 -225 -225 -225 -225 -225 -225 -225 -225 -225 -225 -225 -225 -225 -225 -225 -225 -225 -225 -225 -225 -225 -225 -225 -225 -225 -225 -225 -225 -225 -225 -225 -225 -225 -225 -225 -225 -225 -225 -225 -225 -225 -225 -225 -225 -225 -225 -225 -225 -225 -225 -225 -225 83 84 85 87 86 88 91 91 91 91 91 92 92 92 92 92 92 95 95 99 99 97 98 98 96 96 93 94 91 91 92 93 95 95 97 99 99 98 98 99 102 104 104 106 106 109 114 117 118 118 119 119 120 121 121 123 125 127 132 135 136 136 137 138 139 141 146 146 146 149 148 148 147 146 146 146 147 148 150 150 151 151 154 154 155 153 158 -193 161 168 173 175 177 176 180 180 180 180 181 182 182 183 0 0 0 0 0
    0 0 0 0 0 0 0 0 0 0 0 0 0 0 0 0 0 0 0 0 0 0 0 0 0 0 0 0 0 0 0 0 0 0 0 0 0 0 0 0 0 0 0 0 0 0 0 0 0 0 0 0 0 0 0 0 0 0 0 0 0 0 0 0 0 0 0 0 0 105 106 106 106 105 106 106 106 105 105 105 103 -225 -225 -225 -225 -225 -225 -225 -225 -225 -225 -225 -225 -225 -225 -225 -225 -225 -225 -225 -225 -225 -225 -225 -225 -225 -225 -225 -225 -225 -225 -225 -225 -225 -225 -225 -225 -225 -225 -225 -225 -225 -225 -225 -225 -225 -225 -225 -225 -225 -225 -225 -225 -225 -225 -225 -225 -225 -225 -225 -225 -225 -225 -225 -225 -225 -225 -225 -225 -225 -225 -225 -225 -225 -225 -225 -225 -225 -225 -225 -225 -225 -225 -225 -225 -225 -225 -225 -225 -225 -225 -225 -225 -225 -225 -225 -225 -225 -225 -225 -225 -225 -225 -225 -225 -225 -225 -225 -225 -225 -225 -225 -225 -225 -225 -225 -225 -225 -225 -225 -225 -225 -225 -225 -225 -225 -225 -225 -225 -225 -225 -225 -225 83 84 86 87 87 90 94 94 93 93 94 94 95 95 93 93 93 96 98 100 100 99 99 98 97 97 94 94 92 92 92 93 95 95 95 97 97 96 96 96 98 101 103 105 105 108 113 116 117 118 118 119 120 121 121 124 125 128 131 134 134 134 135 136 138 139 144 144 145 148 148 148 148 146 146 146 147 148 149 150 151 151 153 153 154 153 157 155 162 167 170 172 175 174 178 179 178 178 179 181 181 182 0 0 0 0 0
    0 0 0 0 0 0 0 0 0 0 0 0 0 0 0 0 0 0 0 0 0 0 0 0 0 0 0 0 0 0 0 0 0 0 0 0 0 0 0 0 0 0 0 0 0 0 0 0 0 0 0 0 0 0 0 0 0 0 0 0 0 0 0 0 0 0 0 0 0 107 107 107 106 106 107 106 106 105 105 105 -225 -225 -225 -225 -225 -225 -225 -225 -225 -225 -225 -225 -225 -225 -225 -225 -225 -225 -225 -225 -225 -225 -225 -225 -225 -225 -225 -225 -225 -225 -225 -225 -225 -225 -225 -225 -225 -225 -225 -225 -225 -225 -225 -225 -225 -225 -225 -225 -225 -225 -225 -225 -225 -225 -225 -225 -225 -225 -225 -225 -225 -225 -225 -225 -225 -225 -225 -225 -225 -225 -225 -225 -225 -225 -225 -225 -225 -225 -225 -225 -225 -225 -225 -225 -225 -225 -225 -225 -225 -225 -225 -225 -225 -225 -225 -225 -225 -225 -225 -225 -225 -225 -225 -225 -225 -225 -225 -225 -225 -225 -225 -225 -225 -225 -225 -225 -225 -225 -225 -225 -225 -225 -225 -225 -225 -225 -225 -225 -225 -225 -225 -225 -225 -225 85 86 87 89 93 96 96 94 95 96 95 97 97 94 94 94 98 99 100 101 100 100 100 100 100 98 96 93 92 92 93 93 92 93 93 94 94 94 94 95 99 101 105 105 109 115 117 118 118 118 119 120 121 122 124 125 128 131 132 133 133 134 134 136 138 142 143 145 148 148 148 148 146 146 147 148 149 150 151 152 152 154 154 155 153 156 154 157 162 166 169 172 172 175 177 176 177 177 180 181 181 0 0 0 0 0
    0 0 0 0 0 0 0 0 0 0 0 0 0 0 0 0 0 0 0 0 0 0 0 0 0 0 0 0 0 0 0 0 0 0 0 0 0 0 0 0 0 0 0 0 0 0 0 0 0 0 0 0 0 0 0 0 0 0 0 0 0 0 0 0 0 0 0 0 0 109 109 109 108 107 107 106 106 106 -225 -225 -225 -225 -225 -225 -225 -225 -225 -225 -225 -225 -225 -225 -225 -225 -225 -225 -225 -225 -225 -225 -225 -225 -225 -225 -225 -225 -225 -225 -225 -225 -225 -225 -225 -225 -225 -225 -225 -225 -225 -225 -225 -225 -225 -225 -225 -225 -225 -225 -225 -225 -225 -225 -225 -225 -225 -225 -225 -225 -225 -225 -225 -225 -225 -225 -225 -225 -225 -225 -225 -225 -225 -225 -225 -225 -225 -225 -225 -225 -225 -225 -225 -225 -225 -225 -225 -225 -225 -225 -225 -225 -225 -225 -225 -225 -225 -225 -225 -225 -225 -225 -225 -225 -225 -225 -225 -225 -225 -225 -225 -225 -225 -225 -225 -225 -225 -225 -225 -225 -225 -225 -225 -225 -225 -225 -225 -225 -225 -225 -225 -225 -225 -225 -225 -225 -225 86 85 88 93 96 98 96 98 98 98 101 100 98 98 97 100 100 101 102 101 101 101 101 102 101 99 94 93 91 91 91 91 91 92 94 94 94 96 97 100 102 105 105 109 116 118 118 118 119 119 120 121 122 123 124 127 129 131 132 133 134 134 137 140 145 146 147 148 148 148 148 146 146 147 148 149 151 152 153 153 155 155 156 155 157 155 159 163 165 168 171 172 175 175 174 174 175 179 180 179 0 0 0 0 0
    0 0 0 0 0 0 0 0 0 0 0 0 0 0 0 0 0 0 0 0 0 0 0 0 0 0 0 0 0 0 0 0 0 0 0 0 0 0 0 0 0 0 0 0 0 0 0 0 0 0 0 0 0 0 0 0 0 0 0 0 0 0 0 0 0 0 0 0 0 110 110 109 108 107 107 107 107 -225 -225 -225 -225 -225 -225 -225 -225 -225 -225 -225 -225 -225 -225 -225 -225 -225 -225 -225 -225 -225 -225 -225 -225 -225 -225 -225 -225 -225 -225 -225 -225 -225 -225 -225 -225 -225 -225 -225 -225 -225 -225 -225 -225 -225 -225 -225 -225 -225 -225 -225 -225 -225 -225 -225 -225 -225 -225 -225 -225 -225 -225 -225 -225 -225 -225 -225 -225 -225 -225 -225 -225 -225 -225 -225 -225 -225 -225 -225 -225 -225 -225 -225 -225 -225 -225 -225 -225 -225 -225 -225 -225 -225 -225 -225 -225 -225 -225 -225 -225 -225 -225 -225 -225 -225 -225 -225 -225 -225 -225 -225 -225 -225 -225 -225 -225 -225 -225 -225 -225 -225 -225 -225 -225 -225 -225 -225 -225 -225 -225 -225 -225 -225 -225 -225 -225 -225 -225 81 79 85 92 97 99 97 99 100 99 101 101 100 99 98 100 100 101 102 101 101 101 102 103 102 101 97 93 92 91 91 92 91 92 94 95 97 97 100 102 102 105 106 109 116 119 119 119 120 119 120 122 122 123 123 127 128 129 130 132 133 134 138 142 147 148 149 149 149 149 149 148 147 148 150 151 154 155 156 155 157 158 159 158 160 156 160 164 165 168 171 171 174 174 174 175 175 178 180 178 0 0 0 0 0
    0 0 0 0 0 0 0 0 0 0 0 0 0 0 0 0 0 0 0 0 0 0 0 0 0 0 0 0 0 0 0 0 0 0 0 0 0 0 0 0 0 0 0 0 0 0 0 0 0 0 0 0 0 0 0 0 0 0 0 0 0 0 0 0 0 0 0 0 0 110 110 109 108 107 107 -225 -225 -225 -225 -225 -225 -225 -225 -225 -225 -225 -225 -225 -225 -225 -225 -225 -225 -225 -225 -225 -225 -225 -225 -225 -225 -225 -225 -225 -225 -225 -225 -225 -225 -225 -225 -225 -225 -225 -225 -225 -225 -225 -225 -225 -225 -225 -225 -225 -225 -225 -225 -225 -225 -225 -225 -225 -225 -225 -225 -225 -225 -225 -225 -225 -225 -225 -225 -225 -225 -225 -225 -225 -225 -225 -225 -225 -225 -225 -225 -225 -225 -225 -225 -225 -225 -225 -225 -225 -225 -225 -225 -225 -225 -225 -225 -225 -225 -225 -225 -225 -225 -225 -225 -225 -225 -225 -225 -225 -225 -225 -225 -225 -225 -225 -225 -225 -225 -225 -225 -225 -225 -225 -225 -225 -225 -225 -225 -225 -225 -225 -225 -225 -225 -225 -225 -225 -225 -225 -225 -225 81 86 95 97 100 98 100 101 100 102 102 101 99 98 101 101 102 103 102 102 103 104 105 105 105 104 102 101 98 97 97 96 96 97 98 100 99 101 104 104 105 107 110 114 118 118 119 120 119 120 122 122 122 123 126 128 127 128 129 128 133 138 142 148 150 151 150 150 150 151 151 150 150 -193 153 156 158 158 158 160 160 161 160 162 159 162 166 165 -193 171 171 174 174 174 174 174 178 180 179 0 0 0 0 0
    0 0 0 0 0 0 0 0 0 0 0 0 0 0 0 0 0 0 0 0 0 0 0 0 0 0 0 0 0 0 0 0 0 0 0 0 0 0 0 0 0 0 0 0 0 0 0 0 0 0 0 0 0 0 0 0 0 0 0 0 0 0 0 0 0 0 0 0 0 110 109 109 108 107 -225 -225 -225 -225 -225 -225 -225 -225 -225 -225 -225 -225 -225 -225 -225 -225 -225 -225 -225 -225 -225 -225 -225 -225 -225 -225 -225 -225 -225 -225 -225 -225 -225 -225 -225 -225 -225 -225 -225 -225 -225 -225 -225 -225 -225 -225 -225 -225 -225 -225 -225 -225 -225 -225 -225 -225 -225 -225 -225 -225 -225 -225 -225 -225 -225 -225 -225 -225 -225 -225 -225 -225 -225 -225 -225 -225 -225 -225 -225 -225 -225 -225 -225 -225 -225 -225 -225 -225 -225 -225 -225 -225 -225 -225 -225 -225 -225 -225 -225 -225 -225 -225 -225 -225 -225 -225 -225 -225 -225 -225 -225 -225 -225 -225 -225 -225 -225 -225 -225 -225 -225 -225 -225 -225 -225 -225 -225 -225 -225 -225 -225 -225 -225 -225 -225 -225 -225 -225 -225 -225 -225 -225 -225 87 98 96 101 99 101 102 101 102 101 100 98 98 100 101 102 103 103 105 105 106 107 107 107 106 105 104 102 100 101 98 96 97 99 99 101 103 105 105 107 108 110 113 118 118 119 120 120 121 122 122 123 124 126 127 127 129 130 128 133 137 140 147 149 151 150 150 150 151 151 151 151 153 153 156 159 159 159 160 160 161 159 162 160 162 166 -193 167 -193 170 173 174 174 174 173 177 180 179 0 0 0 0 0
    0 0 0 0 0 0 0 0 0 0 0 0 0 0 0 0 0 0 0 0 0 0 0 0 0 0 0 0 0 0 0 0 0 0 0 0 0 0 0 0 0 0 0 0 0 0 0 0 0 0 0 0 0 0 0 0 0 0 0 0 0 0 0 0 0 0 0 0 0 110 110 110 -225 -225 -225 -225 -225 -225 -225 -225 -225 -225 -225 -225 -225 -225 -225 -225 -225 -225 -225 -225 -225 -225 -225 -225 -225 -225 -225 -225 -225 -225 -225 -225 -225 -225 -225 -225 -225 -225 -225 -225 -225 -225 -225 -225 -225 -225 -225 -225 -225 -225 -225 -225 -225 -225 -225 -225 -225 -225 -225 -225 -225 -225 -225 -225 -225 -225 -225 -225 -225 -225 -225 -225 -225 -225 -225 -225 -225 -225 -225 -225 -225 -225 -225 -225 -225 -225 -225 -225 -225 -225 -225 -225 -225 -225 -225 -225 -225 -225 -225 -225 -225 -225 -225 -225 -225 -225 -225 -225 -225 -225 -225 -225 -225 -225 -225 -225 -225 -225 -225 -225 -225 -225 -225 -225 -225 -225 -225 -225 -225 -225 -225 -225 -225 -225 -225 -225 -225 -225 -225 -225 -225 -225 -225 -225 -225 -225 -225 -225 101 98 100 102 101 102 102 101 99 99 101 102 102 104 104 106 105 107 108 107 108 108 107 106 104 102 103 100 97 96 98 99 100 102 105 105 106 108 111 112 117 118 119 120 119 121 122 122 123 124 126 128 128 130 131 131 134 138 140 144 148 150 150 149 150 151 151 151 151 153 153 156 159 159 160 160 160 161 159 161 160 161 163 162 166 169 -193 -193 172 173 173 172 175 177 176 0 0 0 0 0
    0 0 0 0 0 0 0 0 0 0 0 0 0 0 0 0 0 0 0 0 0 0 0 0 0 0 0 0 0 0 0 0 0 0 0 0 0 0 0 0 0 0 0 0 0 0 0 0 0 0 0 0 0 0 0 0 0 0 0 0 0 0 0 0 0 0 0 0 0 111 -225 -225 -225 -225 -225 -225 -225 -225 -225 -225 -225 -225 -225 -225 -225 -225 -225 -225 -225 -225 -225 -225 -225 -225 -225 -225 -225 -225 -225 -225 -225 -225 -225 -225 -225 -225 -225 -225 -225 -225 -225 -225 -225 -225 -225 -225 -225 -225 -225 -225 -225 -225 -225 -225 -225 -225 -225 -225 -225 -225 -225 -225 -225 -225 -225 -225 -225 -225 -225 -225 -225 -225 -225 -225 -225 -225 -225 -225 -225 -225 -225 -225 -225 -225 -225 -225 -225 -225 -225 -225 -225 -225 -225 -225 -225 -225 -225 -225 -225 -225 -225 -225 -225 -225 -225 -225 -225 -225 -225 -225 -225 -225 -225 -225 -225 -225 -225 -225 -225 -225 -225 -225 -225 -225 -225 -225 -225 -225 -225 -225 -225 -225 -225 -225 -225 -225 -225 -225 -225 -225 -225 -225 -225 -225 -225 -225 -225 -225 -225 -225 -225 99 103 104 103 104 104 103 101 101 103 103 103 105 106 107 107 108 110 109 110 109 108 107 106 105 105 103 102 98 100 100 101 102 105 105 107 108 111 112 116 117 118 118 118 120 121 122 122 124 126 128 127 130 132 132 134 138 139 142 148 151 150 150 151 152 152 153 152 153 153 156 159 158 159 159 158 159 159 160 160 160 162 161 165 168 169 -209 172 172 172 171 173 175 173 0 0 0 0 0
    0 0 0 0 0 0 0 0 0 0 0 0 0 0 0 0 0 0 0 0 0 0 0 0 0 0 0 0 0 0 0 0 0 0 0 0 0 0 0 0 0 0 0 0 0 0 0 0 0 0 0 0 0 0 0 0 0 0 0 0 0 0 0 0 0 0 0 0 0 -225 -225 -225 -225 -225 -225 -225 -225 -225 -225 -225 -225 -225 -225 -225 -225 -225 -225 -225 -225 -225 -225 -225 -225 -225 -225 -225 -225 -225 -225 -225 -225 -225 -225 -225 -225 -225 -225 -225 -225 -225 -225 -225 -225 -225 -225 -225 -225 -225 -225 -225 -225 -225 -225 -225 -225 -225 -225 -225 -225 -225 -225 -225 -225 -225 -225 -225 -225 -225 -225 -225 -225 -225 -225 -225 -225 -225 -225 -225 -225 -225 -225 -225 -225 -225 -225 -225 -225 -225 -225 -225 -225 -225 -225 -225 -225 -225 -225 -225 -225 -225 -225 -225 -225 -225 -225 -225 -225 -225 -225 -225 -225 -225 -225 -225 -225 -225 -225 -225 -225 -225 -225 -225 -225 -225 -225 -225 -225 -225 -225 -225 -225 -225 -225 -225 -225 -225 -225 -225 -225 -225 -225 -225 -225 -225 -225 -225 -225 -225 -225 -225 -225 -225 104 105 105 106 105 105 102 102 105 105 105 108 109 110 110 111 114 111 113 112 110 108 107 107 106 105 103 100 102 102 103 103 105 106 107 108 110 112 116 117 119 119 119 120 121 122 123 124 126 127 127 130 132 132 134 137 139 141 145 150 149 150 151 152 153 154 153 154 154 156 161 160 159 159 158 159 158 159 159 157 159 159 162 166 168 170 171 172 174 173 174 177 176 0 0 0 0 0</data></disparity>
</opencv_storage>
