<?xml version="1.0"?>
<opencv_storage>
<gps_time_stamp>305472</gps_time_stamp>
<gps_x>-1.2416150093078613e+001</gps_x>
<gps_y>1.0959260940551758e+001</gps_y>
<gps_z>-2.0228574275970459e+000</gps_z>
<image_time_stamp>296357</image_time_stamp>
<disparity type_id="opencv-matrix">
  <rows>89</rows>
  <cols>320</cols>
  <dt>s</dt>
  <data>
    0 0 0 0 0 0 0 0 0 0 0 0 0 0 0 0 0 0 0 0 0 0 0 0 0 0 0 0 0 0 0 0 0 0 0 0 0 0 0 0 0 0 0 0 0 0 0 0 0 0 0 0 0 0 0 0 0 0 0 0 0 0 0 0 0 0 0 0 0 55 56 57 55 56 53 52 52 49 49 48 48 47 46 47 46 44 46 46 44 44 45 44 41 40 40 40 40 38 39 38 39 38 39 39 39 37 37 33 34 28 30 29 28 29 29 29 29 28 30 28 28 28 27 26 25 24 23 21 22 20 20 20 18 14 16 17 15 16 16 16 -225 -225 -225 -225 -225 -225 -225 -225 -225 -225 -225 -225 -225 -225 -225 -225 -225 -225 -225 -225 -225 -225 -225 -225 -225 -225 -225 -225 -225 -225 -225 -225 -225 -225 -225 -225 -225 -225 -225 -225 -225 -225 -225 -225 -225 -225 -225 -225 -225 -225 37 35 35 36 36 36 36 37 38 40 42 44 45 46 48 50 49 52 51 53 54 55 55 55 56 58 58 61 60 63 62 66 67 68 66 69 69 71 75 74 75 76 77 77 78 80 78 75 81 85 82 82 84 84 -193 86 87 87 83 91 100 100 100 100 102 102 102 102 103 104 105 107 110 114 116 117 118 119 120 121 122 123 124 126 127 129 129 131 133 132 133 135 135 137 137 139 139 139 143 145 145 147 150 151 -193 -193 154 156 154 155 155 155 155 156 157 157 155 158 160 160 159 162 165 166 167 0 0 0 0 0
    0 0 0 0 0 0 0 0 0 0 0 0 0 0 0 0 0 0 0 0 0 0 0 0 0 0 0 0 0 0 0 0 0 0 0 0 0 0 0 0 0 0 0 0 0 0 0 0 0 0 0 0 0 0 0 0 0 0 0 0 0 0 0 0 0 0 0 0 0 56 57 58 57 57 55 54 53 49 50 48 48 47 46 46 46 44 45 45 44 44 44 43 41 40 39 40 40 38 39 38 39 38 39 39 39 37 37 33 34 29 29 29 28 28 29 29 29 28 30 28 27 27 27 26 25 23 23 20 21 20 20 20 18 14 16 17 15 16 16 16 -225 -225 -225 -225 -225 -225 -225 -225 -225 -225 -225 -225 -225 -225 -225 -225 -225 -225 -225 -225 -225 -225 -225 -225 -225 -225 -225 -225 -225 -225 -225 -225 -225 -225 -225 -225 -225 -225 -225 -225 -225 -225 -225 -225 -225 -225 -225 -225 -225 -225 36 35 36 37 36 36 37 37 39 41 44 45 45 46 50 50 49 52 51 53 54 56 55 56 56 59 59 61 61 63 61 65 66 67 64 67 67 70 75 75 75 76 77 78 79 81 79 75 80 85 82 82 84 84 83 86 86 87 82 91 101 101 101 101 102 102 102 103 103 104 106 108 111 115 116 117 118 119 120 121 122 123 124 125 126 128 129 130 132 132 132 134 135 136 137 139 139 139 143 147 146 149 151 -193 -193 -193 154 157 154 155 155 156 155 157 157 158 155 159 160 161 159 161 165 165 166 0 0 0 0 0
    0 0 0 0 0 0 0 0 0 0 0 0 0 0 0 0 0 0 0 0 0 0 0 0 0 0 0 0 0 0 0 0 0 0 0 0 0 0 0 0 0 0 0 0 0 0 0 0 0 0 0 0 0 0 0 0 0 0 0 0 0 0 0 0 0 0 0 0 0 57 58 59 57 58 56 55 54 50 50 48 48 48 46 46 45 44 44 45 43 43 44 43 41 40 39 40 40 38 39 38 39 39 39 39 39 37 38 34 35 28 28 28 27 28 29 29 29 28 29 27 27 27 27 25 25 23 23 21 22 21 20 20 18 14 16 17 14 16 16 16 -225 -225 -225 -225 -225 -225 -225 -225 -225 -225 -225 -225 -225 -225 -225 -225 -225 -225 -225 -225 -225 -225 -225 -225 -225 -225 -225 -225 -225 -225 -225 -225 -225 -225 -225 -225 -225 -225 -225 -225 -225 -225 -225 -225 -225 -225 -225 -225 -225 -225 35 35 36 37 36 36 37 38 40 41 44 44 45 46 50 50 49 52 51 53 54 56 55 55 56 58 58 61 60 62 61 64 67 67 64 67 66 69 76 75 76 77 78 79 79 81 79 75 79 85 83 82 84 84 84 86 86 87 83 91 101 101 101 101 103 103 103 103 104 105 107 110 113 115 117 117 118 119 119 121 122 122 124 124 126 128 128 130 132 131 132 134 135 136 137 138 139 139 143 147 147 149 151 -193 153 154 155 157 155 156 156 156 155 157 158 158 155 159 160 161 159 159 164 164 165 0 0 0 0 0
    0 0 0 0 0 0 0 0 0 0 0 0 0 0 0 0 0 0 0 0 0 0 0 0 0 0 0 0 0 0 0 0 0 0 0 0 0 0 0 0 0 0 0 0 0 0 0 0 0 0 0 0 0 0 0 0 0 0 0 0 0 0 0 0 0 0 0 0 0 58 58 59 58 58 57 -193 55 51 50 49 48 48 46 46 45 44 44 44 43 43 44 44 42 40 40 40 40 38 39 39 39 39 39 39 39 37 39 35 36 28 28 29 28 28 30 29 29 28 29 27 27 27 27 25 25 23 23 22 22 21 20 21 18 14 17 17 14 16 16 16 -225 -225 -225 -225 -225 -225 -225 -225 -225 -225 -225 -225 -225 -225 -225 -225 -225 -225 -225 -225 -225 -225 -225 -225 -225 -225 -225 -225 -225 -225 -225 -225 -225 -225 -225 -225 -225 -225 -225 -225 -225 -225 -225 -225 -225 -225 -225 -225 -225 37 34 35 36 37 36 36 36 38 40 42 44 44 45 46 49 50 48 51 51 53 54 56 55 55 56 58 58 61 60 62 61 64 67 66 65 67 66 70 77 76 76 77 79 79 79 81 80 75 79 84 83 83 84 85 84 87 87 88 86 91 101 100 101 101 102 103 103 103 104 106 108 111 114 116 117 118 119 120 120 121 122 123 124 125 126 127 128 130 132 132 132 133 134 135 136 138 139 139 143 148 148 149 151 -193 154 155 156 158 155 156 156 156 155 157 158 158 155 160 161 162 159 159 164 165 166 0 0 0 0 0
    0 0 0 0 0 0 0 0 0 0 0 0 0 0 0 0 0 0 0 0 0 0 0 0 0 0 0 0 0 0 0 0 0 0 0 0 0 0 0 0 0 0 0 0 0 0 0 0 0 0 0 0 0 0 0 0 0 0 0 0 0 0 0 0 0 0 0 0 0 58 58 60 58 59 59 -193 -193 52 51 50 48 48 46 46 45 44 43 44 43 43 43 43 42 41 40 40 40 38 39 38 39 38 39 39 39 37 39 35 36 28 28 29 28 28 29 28 29 28 28 27 27 26 27 26 26 23 23 22 22 21 21 21 18 15 17 17 14 16 16 16 -225 -225 -225 -225 -225 -225 -225 -225 -225 -225 -225 -225 -225 -225 -225 -225 -225 -225 -225 -225 -225 -225 -225 -225 -225 -225 -225 -225 -225 -225 -225 -225 -225 -225 -225 -225 -225 -225 -225 -225 -225 -225 -225 -225 -225 -225 -225 -225 -225 36 34 35 37 37 36 36 37 38 40 42 43 43 44 45 48 48 47 51 50 53 54 56 55 55 56 57 58 61 59 62 60 64 67 66 65 66 65 70 77 76 76 77 80 79 79 81 80 75 79 84 84 83 85 86 86 88 88 89 89 91 101 101 101 101 102 104 103 104 105 107 109 111 114 115 116 118 119 120 120 121 122 122 124 124 125 126 127 129 132 132 132 133 134 135 137 138 139 139 143 148 148 149 151 -193 154 155 156 158 155 156 156 156 156 157 158 158 155 160 161 162 160 159 165 166 167 0 0 0 0 0
    0 0 0 0 0 0 0 0 0 0 0 0 0 0 0 0 0 0 0 0 0 0 0 0 0 0 0 0 0 0 0 0 0 0 0 0 0 0 0 0 0 0 0 0 0 0 0 0 0 0 0 0 0 0 0 0 0 0 0 0 0 0 0 0 0 0 0 0 0 57 58 59 58 59 59 -193 -209 51 51 50 48 48 46 45 44 43 43 43 42 42 42 42 42 40 39 40 40 38 39 38 39 38 39 39 39 37 39 36 36 28 27 28 27 27 28 29 29 28 28 27 27 27 27 26 26 24 24 23 22 21 20 21 18 15 18 16 13 16 16 16 -225 -225 -225 -225 -225 -225 -225 -225 -225 -225 -225 -225 -225 -225 -225 -225 -225 -225 -225 -225 -225 -225 -225 -225 -225 -225 -225 -225 -225 -225 -225 -225 -225 -225 -225 -225 -225 -225 -225 -225 -225 -225 -225 -225 -225 -225 -225 -225 -225 35 34 35 37 37 36 37 38 39 41 42 43 44 44 46 48 48 47 51 50 53 53 55 55 55 55 57 57 60 59 61 60 64 66 66 66 65 65 70 77 75 76 77 79 78 79 81 80 76 80 85 85 85 87 87 -193 89 90 90 90 91 100 100 100 100 101 104 104 105 106 108 109 112 113 115 117 118 119 119 119 121 121 122 123 124 125 125 127 129 131 131 132 132 134 135 137 138 139 139 143 147 148 149 150 -193 154 155 156 158 155 156 156 157 156 157 158 158 155 160 162 163 162 160 166 166 167 0 0 0 0 0
    0 0 0 0 0 0 0 0 0 0 0 0 0 0 0 0 0 0 0 0 0 0 0 0 0 0 0 0 0 0 0 0 0 0 0 0 0 0 0 0 0 0 0 0 0 0 0 0 0 0 0 0 0 0 0 0 0 0 0 0 0 0 0 0 0 0 0 0 0 57 57 58 58 58 59 -193 -193 51 50 50 48 48 46 45 45 43 43 43 42 42 42 42 42 41 40 40 41 39 39 39 39 39 39 39 39 37 39 36 37 29 28 28 27 27 28 30 29 29 28 28 28 28 28 27 26 25 24 24 22 21 20 21 18 15 18 16 13 16 16 16 -225 -225 -225 -225 -225 -225 -225 -225 -225 -225 -225 -225 -225 -225 -225 -225 -225 -225 -225 -225 -225 -225 -225 -225 -225 -225 -225 -225 -225 -225 -225 -225 -225 -225 -225 -225 -225 -225 -225 -225 -225 -225 -225 -225 -225 -225 -225 -225 36 34 34 36 37 37 36 37 38 39 40 41 42 43 43 45 46 47 46 51 50 52 53 55 54 54 55 56 57 59 59 61 60 64 66 66 66 65 66 70 77 75 76 77 79 78 79 82 81 76 81 85 87 87 89 89 -193 90 91 92 92 91 99 99 99 100 101 103 104 105 106 108 110 111 114 115 116 117 119 119 119 120 121 121 123 123 124 125 127 129 131 131 131 131 134 135 136 138 139 139 142 146 147 148 149 -193 153 155 156 159 156 157 157 157 156 157 158 158 155 160 162 162 162 159 164 165 166 0 0 0 0 0
    0 0 0 0 0 0 0 0 0 0 0 0 0 0 0 0 0 0 0 0 0 0 0 0 0 0 0 0 0 0 0 0 0 0 0 0 0 0 0 0 0 0 0 0 0 0 0 0 0 0 0 0 0 0 0 0 0 0 0 0 0 0 0 0 0 0 0 0 0 56 56 57 57 57 58 -193 -193 51 50 50 49 48 46 45 45 43 43 44 42 42 43 42 42 41 40 41 41 39 39 39 39 39 39 39 39 37 39 35 37 29 28 28 27 28 29 29 30 30 28 29 28 28 28 27 27 26 25 25 22 21 20 21 18 16 18 16 13 16 16 16 -225 -225 -225 -225 -225 -225 -225 -225 -225 -225 -225 -225 -225 -225 -225 -225 -225 -225 -225 -225 -225 -225 -225 -225 -225 -225 -225 -225 -225 -225 -225 -225 -225 -225 -225 -225 -225 -225 -225 -225 -225 -225 -225 -225 -225 -225 -225 -225 35 33 33 35 37 36 36 36 37 38 39 40 41 41 42 44 45 46 46 51 49 52 52 54 53 54 55 55 56 59 58 61 60 63 66 66 66 65 66 69 76 75 76 77 79 78 79 82 81 76 82 86 88 88 90 90 -193 92 93 93 94 91 99 99 99 100 101 104 104 106 107 108 109 112 114 115 116 117 118 118 119 120 121 121 122 122 124 124 127 128 131 131 131 131 134 135 136 137 138 139 141 145 146 146 148 150 152 154 156 159 156 157 157 158 157 158 158 159 155 161 163 163 163 160 164 165 166 0 0 0 0 0
    0 0 0 0 0 0 0 0 0 0 0 0 0 0 0 0 0 0 0 0 0 0 0 0 0 0 0 0 0 0 0 0 0 0 0 0 0 0 0 0 0 0 0 0 0 0 0 0 0 0 0 0 0 0 0 0 0 0 0 0 0 0 0 0 0 0 0 0 0 55 54 56 55 55 57 -193 -209 52 50 50 50 50 48 46 46 44 43 44 43 42 42 42 41 41 40 41 41 39 40 39 39 39 39 39 39 37 39 35 36 30 28 29 27 28 29 29 31 31 29 30 29 29 28 28 28 26 25 25 22 20 20 21 18 16 18 16 13 16 16 16 -225 -225 -225 -225 -225 -225 -225 -225 -225 -225 -225 -225 -225 -225 -225 -225 -225 -225 -225 -225 -225 -225 -225 -225 -225 -225 -225 -225 -225 -225 -225 -225 -225 -225 -225 -225 -225 -225 -225 -225 -225 -225 -225 -225 -225 -225 -225 -225 34 33 34 36 37 36 35 36 36 38 38 39 40 41 42 44 45 45 46 51 49 51 52 53 53 54 55 55 55 59 58 61 60 63 65 65 66 65 66 69 76 75 76 76 78 78 79 82 82 77 83 86 90 89 90 91 -193 92 94 94 94 91 99 99 99 101 102 105 106 107 108 109 110 112 113 115 115 116 117 117 118 119 120 120 122 122 123 123 126 128 132 131 132 132 134 135 136 137 138 139 141 145 146 146 147 149 151 153 155 158 155 157 157 157 157 158 158 158 154 159 161 162 162 160 164 166 167 0 0 0 0 0
    0 0 0 0 0 0 0 0 0 0 0 0 0 0 0 0 0 0 0 0 0 0 0 0 0 0 0 0 0 0 0 0 0 0 0 0 0 0 0 0 0 0 0 0 0 0 0 0 0 0 0 0 0 0 0 0 0 0 0 0 0 0 0 0 0 0 0 0 0 55 54 55 55 54 57 60 -209 52 50 51 51 51 49 47 46 44 44 45 43 42 42 42 41 40 40 41 41 39 40 39 40 39 39 39 39 37 39 35 36 30 28 29 27 27 29 29 30 31 28 30 29 29 29 28 28 27 25 26 22 20 20 21 18 17 18 16 12 16 16 16 -225 -225 -225 -225 -225 -225 -225 -225 -225 -225 -225 -225 -225 -225 -225 -225 -225 -225 -225 -225 -225 -225 -225 -225 -225 -225 -225 -225 -225 -225 -225 -225 -225 -225 -225 -225 -225 -225 -225 -225 -225 -225 -225 -225 -225 -225 -225 -225 34 33 34 36 37 35 35 37 36 37 38 39 40 40 43 44 44 45 45 50 48 51 51 52 52 53 55 55 55 58 59 61 60 63 64 64 66 65 65 69 76 75 75 76 78 77 79 82 82 77 83 86 91 90 91 92 92 93 94 95 95 91 99 99 101 101 102 106 106 107 108 109 110 112 113 114 114 116 117 117 117 119 119 120 122 122 123 123 126 128 132 132 132 132 133 134 135 136 138 138 140 143 145 144 146 149 150 152 154 157 155 156 156 156 156 157 157 156 153 157 159 161 162 160 161 165 167 0 0 0 0 0
    0 0 0 0 0 0 0 0 0 0 0 0 0 0 0 0 0 0 0 0 0 0 0 0 0 0 0 0 0 0 0 0 0 0 0 0 0 0 0 0 0 0 0 0 0 0 0 0 0 0 0 0 0 0 0 0 0 0 0 0 0 0 0 0 0 0 0 0 0 54 53 54 54 52 56 57 -209 51 51 51 51 51 50 48 47 45 44 45 43 42 42 42 41 41 40 40 41 39 40 40 40 40 40 40 39 37 40 35 36 30 27 28 27 26 28 29 29 30 28 30 29 29 29 28 28 28 26 27 22 20 20 21 18 17 18 17 12 16 16 16 -225 -225 -225 -225 -225 -225 -225 -225 -225 -225 -225 -225 -225 -225 -225 -225 -225 -225 -225 -225 -225 -225 -225 -225 -225 -225 -225 -225 -225 -225 -225 -225 -225 -225 -225 -225 -225 -225 -225 -225 -225 -225 -225 -225 -225 -225 -225 36 32 32 33 36 36 35 35 37 36 37 39 39 39 40 43 43 44 45 45 50 48 50 51 51 52 53 54 55 54 58 59 61 60 62 63 63 66 65 65 69 76 75 75 76 78 77 79 82 82 77 84 86 92 90 92 93 93 93 95 -193 96 91 99 100 101 102 103 106 106 107 108 109 110 111 112 113 113 115 116 116 116 118 119 120 121 122 122 123 127 129 133 132 132 132 133 134 135 136 137 138 140 143 144 144 145 148 148 151 153 156 154 155 155 155 155 156 156 155 152 156 160 162 163 161 163 167 168 0 0 0 0 0
    0 0 0 0 0 0 0 0 0 0 0 0 0 0 0 0 0 0 0 0 0 0 0 0 0 0 0 0 0 0 0 0 0 0 0 0 0 0 0 0 0 0 0 0 0 0 0 0 0 0 0 0 0 0 0 0 0 0 0 0 0 0 0 0 0 0 0 0 0 54 52 53 52 50 55 54 -193 50 51 50 50 51 50 48 47 45 45 46 44 43 42 42 41 41 40 40 41 39 40 40 40 40 40 40 40 37 41 35 36 30 28 29 27 27 26 28 28 30 28 30 29 29 29 29 29 28 26 27 21 20 20 21 18 18 17 16 12 16 16 16 -225 -225 -225 -225 -225 -225 -225 -225 -225 -225 -225 -225 -225 -225 -225 -225 -225 -225 -225 -225 -225 -225 -225 -225 -225 -225 -225 -225 -225 -225 -225 -225 -225 -225 -225 -225 -225 -225 -225 -225 -225 -225 -225 -225 -225 -225 -225 35 32 33 34 36 36 35 34 37 36 37 38 38 38 39 42 43 43 44 44 50 47 50 50 50 52 53 54 55 54 58 59 61 60 63 62 63 67 65 65 70 76 75 75 76 78 77 79 82 82 77 84 86 93 90 92 93 93 94 -193 -193 96 91 100 100 101 102 102 105 106 107 108 109 110 111 111 113 113 114 116 115 116 117 119 120 121 122 123 123 128 130 133 132 133 132 133 134 135 137 138 138 140 143 144 143 145 147 147 149 152 154 152 154 154 154 154 155 155 154 151 156 161 163 164 163 165 168 169 0 0 0 0 0
    0 0 0 0 0 0 0 0 0 0 0 0 0 0 0 0 0 0 0 0 0 0 0 0 0 0 0 0 0 0 0 0 0 0 0 0 0 0 0 0 0 0 0 0 0 0 0 0 0 0 0 0 0 0 0 0 0 0 0 0 0 0 0 0 0 0 0 0 0 54 52 53 52 50 54 54 53 51 52 51 51 52 51 49 48 45 46 46 44 43 42 42 41 41 41 41 42 39 41 40 40 40 40 40 40 38 41 35 36 30 27 29 27 26 24 28 28 31 28 31 29 29 29 30 29 29 26 27 21 20 20 21 18 18 17 16 12 16 16 16 -225 -225 -225 -225 -225 -225 -225 -225 -225 -225 -225 -225 -225 -225 -225 -225 -225 -225 -225 -225 -225 -225 -225 -225 -225 -225 -225 -225 -225 -225 -225 -225 -225 -225 -225 -225 -225 -225 -225 -225 -225 -225 -225 -225 -225 -225 -225 33 32 32 34 36 36 35 34 37 36 37 38 38 37 38 42 42 42 44 43 49 47 49 49 48 51 54 54 55 54 58 59 61 61 63 62 63 67 66 66 70 76 75 75 76 77 77 78 82 82 77 84 86 93 91 92 93 93 94 96 96 97 92 100 100 101 102 102 105 106 107 108 109 109 110 110 112 112 113 114 114 115 116 117 119 121 122 123 124 128 130 133 132 132 132 133 135 135 137 137 138 140 143 143 143 144 147 147 148 150 153 151 153 153 153 153 154 153 153 150 155 160 163 163 162 163 166 168 0 0 0 0 0
    0 0 0 0 0 0 0 0 0 0 0 0 0 0 0 0 0 0 0 0 0 0 0 0 0 0 0 0 0 0 0 0 0 0 0 0 0 0 0 0 0 0 0 0 0 0 0 0 0 0 0 0 0 0 0 0 0 0 0 0 0 0 0 0 0 0 0 0 0 55 53 53 52 51 54 54 53 51 52 51 52 52 52 50 49 46 47 47 45 43 42 42 41 41 41 41 42 39 41 40 40 40 40 40 40 38 41 34 37 30 27 28 26 26 25 28 28 30 28 30 29 29 29 29 29 28 26 27 20 20 20 21 18 18 17 16 12 16 16 16 -225 -225 -225 -225 -225 -225 -225 -225 -225 -225 -225 -225 -225 -225 -225 -225 -225 -225 -225 -225 -225 -225 -225 -225 -225 -225 -225 -225 -225 -225 -225 -225 -225 -225 -225 -225 -225 -225 -225 -225 -225 -225 -225 -225 -225 -225 35 32 32 33 34 37 36 34 34 37 36 38 39 38 38 39 43 43 42 44 44 49 47 49 49 47 50 53 53 54 54 58 59 61 61 63 61 63 67 66 67 70 77 75 75 76 77 77 78 82 82 77 84 86 93 91 92 93 94 95 96 97 98 93 101 101 102 102 103 106 107 107 108 109 109 110 110 112 111 111 113 113 114 115 117 119 122 123 124 126 129 131 133 132 132 132 133 134 135 136 137 138 139 142 142 142 144 146 146 148 149 152 149 152 152 152 151 153 152 152 147 154 158 161 161 161 161 165 166 0 0 0 0 0
    0 0 0 0 0 0 0 0 0 0 0 0 0 0 0 0 0 0 0 0 0 0 0 0 0 0 0 0 0 0 0 0 0 0 0 0 0 0 0 0 0 0 0 0 0 0 0 0 0 0 0 0 0 0 0 0 0 0 0 0 0 0 0 0 0 0 0 0 0 55 53 53 53 52 54 54 54 52 52 51 53 52 52 50 49 47 48 48 46 44 43 42 42 41 41 41 42 39 41 39 40 40 40 40 39 37 40 34 37 31 28 29 28 29 26 28 29 29 27 30 28 28 28 28 28 27 26 27 20 19 19 21 18 18 17 16 12 16 16 16 -225 -225 -225 -225 -225 -225 -225 -225 -225 -225 -225 -225 -225 -225 -225 -225 -225 -225 -225 -225 -225 -225 -225 -225 -225 -225 -225 -225 -225 -225 -225 -225 -225 -225 -225 -225 -225 -225 -225 -225 -225 -225 -225 -225 -225 -225 35 32 32 33 34 36 36 33 34 38 36 38 39 39 39 40 43 43 43 45 44 49 46 49 49 46 50 53 53 54 53 57 58 60 61 62 60 63 67 67 68 70 77 76 76 76 78 77 78 82 82 77 84 86 93 91 92 93 94 95 96 97 98 94 100 101 102 102 103 106 106 107 107 108 108 110 110 111 110 111 112 112 113 115 116 120 122 124 125 126 130 131 133 131 132 132 133 134 135 136 137 137 139 142 142 142 143 146 146 147 149 151 149 152 152 152 151 152 151 151 146 154 158 161 161 161 162 165 166 0 0 0 0 0
    0 0 0 0 0 0 0 0 0 0 0 0 0 0 0 0 0 0 0 0 0 0 0 0 0 0 0 0 0 0 0 0 0 0 0 0 0 0 0 0 0 0 0 0 0 0 0 0 0 0 0 0 0 0 0 0 0 0 0 0 0 0 0 0 0 0 0 0 0 54 53 52 52 52 54 55 55 52 52 51 52 52 51 50 48 47 48 47 46 44 44 43 42 41 41 40 42 39 41 39 39 39 39 39 39 37 39 33 37 31 29 30 28 31 27 28 29 28 27 29 28 28 28 28 28 27 26 27 19 19 19 21 18 18 17 16 12 16 16 16 -225 -225 -225 -225 -225 -225 -225 -225 -225 -225 -225 -225 -225 -225 -225 -225 -225 -225 -225 -225 -225 -225 -225 -225 -225 -225 -225 -225 -225 -225 -225 -225 -225 -225 -225 -225 -225 -225 -225 -225 -225 -225 -225 -225 -225 -225 33 32 32 32 34 36 35 33 34 38 36 38 40 40 40 41 44 43 43 45 44 49 46 50 49 46 51 53 53 53 52 57 58 60 61 62 60 62 67 67 68 71 78 76 76 77 78 77 78 82 82 76 83 86 93 91 92 93 94 94 96 97 97 93 100 100 101 101 103 106 106 107 107 108 108 110 109 110 110 111 112 112 112 114 116 121 123 124 126 127 130 130 132 131 132 132 133 134 134 135 136 137 139 142 141 142 143 146 147 148 149 151 149 152 152 152 151 152 151 150 146 154 158 160 160 161 163 165 166 0 0 0 0 0
    0 0 0 0 0 0 0 0 0 0 0 0 0 0 0 0 0 0 0 0 0 0 0 0 0 0 0 0 0 0 0 0 0 0 0 0 0 0 0 0 0 0 0 0 0 0 0 0 0 0 0 0 0 0 0 0 0 0 0 0 0 0 0 0 0 0 0 0 0 53 53 52 52 52 54 55 55 52 51 50 51 51 50 49 48 47 48 47 47 44 44 43 42 41 40 40 42 39 40 38 39 39 39 39 39 37 39 33 37 31 29 30 28 34 28 29 29 29 27 30 28 28 28 28 28 27 26 27 19 19 19 20 18 17 17 16 12 16 16 16 -225 -225 -225 -225 -225 -225 -225 -225 -225 -225 -225 -225 -225 -225 -225 -225 -225 -225 -225 -225 -225 -225 -225 -225 -225 -225 -225 -225 -225 -225 -225 -225 -225 -225 -225 -225 -225 -225 -225 -225 -225 -225 -225 -225 -225 -225 31 31 32 31 34 35 34 32 34 38 36 39 40 41 41 41 45 44 44 46 45 50 47 50 50 47 52 54 54 54 53 57 58 60 61 62 60 62 68 68 69 71 79 76 76 76 77 77 77 81 81 76 84 87 94 91 92 93 94 94 96 97 97 93 100 100 101 101 103 105 105 106 107 108 108 109 109 109 109 110 111 111 111 113 114 121 124 125 126 127 130 130 132 131 132 132 133 134 134 135 136 136 138 142 141 142 143 146 147 148 150 151 149 152 152 152 151 151 150 150 147 153 157 160 159 160 163 166 167 0 0 0 0 0
    0 0 0 0 0 0 0 0 0 0 0 0 0 0 0 0 0 0 0 0 0 0 0 0 0 0 0 0 0 0 0 0 0 0 0 0 0 0 0 0 0 0 0 0 0 0 0 0 0 0 0 0 0 0 0 0 0 0 0 0 0 0 0 0 0 0 0 0 0 53 53 52 53 53 54 54 55 52 51 50 51 50 50 48 47 46 48 46 -209 -193 45 43 43 41 40 40 42 39 40 38 39 38 39 39 38 36 38 32 38 31 29 30 30 35 28 30 29 29 27 29 28 28 27 28 27 27 27 26 18 18 18 20 17 17 16 16 12 16 16 16 -225 -225 -225 -225 -225 -225 -225 -225 -225 -225 -225 -225 -225 -225 -225 -225 -225 -225 -225 -225 -225 -225 -225 -225 -225 -225 -225 -225 -225 -225 -225 -225 -225 -225 -225 -225 -225 -225 -225 -225 -225 -225 -225 -225 -225 34 31 31 32 31 34 35 34 32 33 38 37 39 40 41 41 42 45 44 44 46 45 50 47 51 51 49 53 54 54 54 54 57 58 60 60 62 60 63 68 69 70 72 79 76 76 76 76 76 77 80 81 76 83 87 94 91 92 93 94 94 96 97 97 94 100 101 101 101 103 104 105 105 106 107 107 109 109 109 109 109 110 111 111 114 115 122 126 126 127 128 129 130 132 131 132 131 133 133 134 135 136 136 139 143 142 142 144 146 148 148 150 151 149 152 152 152 152 151 150 150 148 154 159 163 162 163 165 167 168 0 0 0 0 0
    0 0 0 0 0 0 0 0 0 0 0 0 0 0 0 0 0 0 0 0 0 0 0 0 0 0 0 0 0 0 0 0 0 0 0 0 0 0 0 0 0 0 0 0 0 0 0 0 0 0 0 0 0 0 0 0 0 0 0 0 0 0 0 0 0 0 0 0 0 52 52 52 52 53 54 54 55 53 51 51 51 50 49 47 47 45 46 -193 -209 44 -209 -193 43 42 41 41 43 39 40 38 38 38 38 38 38 36 38 31 38 32 30 31 34 36 29 31 29 29 27 29 28 28 27 27 27 26 26 25 18 18 18 20 17 17 16 15 12 16 16 16 -225 -225 -225 -225 -225 -225 -225 -225 -225 -225 -225 -225 -225 -225 -225 -225 -225 -225 -225 -225 -225 -225 -225 -225 -225 -225 -225 -225 0 0 0 0 0 0 0 0 -225 -225 -225 -225 -225 -225 -225 -225 -225 33 31 31 32 31 35 34 33 32 34 38 37 40 40 41 42 42 45 44 44 46 45 50 48 52 51 50 54 55 54 55 55 57 58 60 60 62 60 64 68 70 71 72 79 75 75 75 75 75 76 79 80 75 83 87 94 91 91 92 94 94 95 96 97 94 101 101 101 101 103 104 104 105 106 106 107 109 108 108 108 108 109 110 110 113 114 122 126 126 127 128 129 130 132 131 132 131 133 133 135 135 136 136 139 143 142 143 144 146 148 148 150 151 150 152 152 152 152 151 150 150 151 154 161 164 163 164 166 167 168 0 0 0 0 0
    0 0 0 0 0 0 0 0 0 0 0 0 0 0 0 0 0 0 0 0 0 0 0 0 0 0 0 0 0 0 0 0 0 0 0 0 0 0 0 0 0 0 0 0 0 0 0 0 0 0 0 0 0 0 0 0 0 0 0 0 0 0 0 0 0 0 0 0 0 51 51 51 51 52 54 54 54 53 52 51 51 49 49 47 47 45 45 44 -193 -193 -193 -193 43 -193 41 41 44 39 40 38 38 38 38 38 38 35 37 30 38 32 31 32 36 36 29 31 29 29 27 28 28 27 27 27 26 26 25 25 18 18 18 20 17 17 16 15 12 16 16 16 -225 -225 -225 -225 -225 -225 -225 -225 -225 -225 -225 -225 -225 -225 -225 -225 -225 -225 -225 -225 -225 -225 -225 -225 -225 -225 -225 0 0 0 0 0 0 0 0 0 0 -225 -225 -225 -225 -225 -225 -225 -225 31 30 30 31 31 36 34 33 33 34 38 37 40 40 41 41 42 45 44 45 46 44 49 48 52 52 51 54 55 55 55 55 56 57 60 60 63 61 64 68 -209 72 73 79 74 74 74 75 75 75 78 79 75 82 88 92 90 91 92 93 93 95 96 97 95 101 100 101 101 102 103 104 104 105 106 106 109 108 108 108 109 110 111 112 116 116 122 127 127 128 128 129 130 132 131 132 131 133 133 135 135 137 137 139 143 142 143 144 146 149 148 151 151 151 153 153 153 153 152 151 151 152 154 161 163 163 163 165 166 167 0 0 0 0 0
    0 0 0 0 0 0 0 0 0 0 0 0 0 0 0 0 0 0 0 0 0 0 0 0 0 0 0 0 0 0 0 0 0 0 0 0 0 0 0 0 0 0 0 0 0 0 0 0 0 0 0 0 0 0 0 0 0 0 0 0 0 0 0 0 0 0 0 0 0 51 51 51 51 51 53 53 53 53 51 51 51 49 49 47 46 45 45 44 -193 44 -193 -193 43 -193 42 41 44 39 40 37 38 37 38 38 37 35 37 30 38 30 28 30 35 36 29 31 29 29 27 28 28 27 27 27 26 26 26 26 20 19 19 21 17 17 17 15 12 16 16 16 -225 -225 -225 -225 -225 -225 -225 -225 -225 -225 -225 -225 -225 -225 -225 -225 -225 -225 -225 -225 -225 -225 -225 -225 -225 -225 -225 0 0 0 0 0 0 0 0 0 0 -225 -225 -225 -225 -225 -225 -225 34 30 30 30 31 32 36 34 34 34 35 38 38 41 41 42 42 42 45 44 45 46 44 49 48 52 52 51 53 54 54 55 55 55 56 59 59 62 60 64 68 -209 72 73 78 73 73 73 73 74 74 76 77 -193 81 88 91 90 90 91 93 92 94 95 97 95 101 100 101 101 102 103 103 103 104 104 105 109 108 107 107 108 110 111 113 116 116 122 127 127 127 128 129 130 131 131 132 131 133 133 135 135 -193 137 139 143 142 143 145 146 149 149 152 152 152 153 154 154 154 152 153 152 153 154 160 162 162 162 164 166 167 0 0 0 0 0
    0 0 0 0 0 0 0 0 0 0 0 0 0 0 0 0 0 0 0 0 0 0 0 0 0 0 0 0 0 0 0 0 0 0 0 0 0 0 0 0 0 0 0 0 0 0 0 0 0 0 0 0 0 0 0 0 0 0 0 0 0 0 0 0 0 0 0 0 0 52 51 52 52 52 53 54 52 53 51 51 50 49 48 47 46 45 45 44 -193 43 -193 -193 43 -193 42 41 44 39 40 37 38 37 37 37 37 34 36 30 38 31 29 32 37 36 30 31 29 29 27 28 28 27 27 27 26 27 27 27 21 19 19 21 17 17 16 15 13 16 16 16 -225 -225 -225 -225 -225 -225 -225 -225 -225 -225 -225 -225 -225 -225 -225 -225 -225 -225 -225 -225 -225 -225 -225 -225 -225 -225 0 10 0 0 0 0 0 0 0 0 0 0 -225 -225 -225 -225 -225 -225 32 30 30 30 32 33 36 34 35 35 36 38 38 41 41 42 42 42 45 44 45 46 44 48 48 52 52 52 53 53 53 54 54 54 54 58 57 60 60 63 68 -209 72 73 77 72 72 72 73 73 73 75 76 -193 80 88 90 89 89 90 92 91 93 94 95 95 101 101 101 101 102 103 103 102 103 103 105 108 108 107 108 108 112 112 114 116 116 123 127 127 127 128 129 130 132 131 132 131 133 133 135 -193 -193 137 139 143 143 144 145 146 150 150 153 153 153 154 155 155 155 153 154 152 153 154 161 163 163 163 165 167 167 0 0 0 0 0
    0 0 0 0 0 0 0 0 0 0 0 0 0 0 0 0 0 0 0 0 0 0 0 0 0 0 0 0 0 0 0 0 0 0 0 0 0 0 0 0 0 0 0 0 0 0 0 0 0 0 0 0 0 0 0 0 0 0 0 0 0 0 0 0 0 0 0 0 0 52 51 52 52 52 54 54 52 52 51 50 49 48 47 46 46 45 45 44 -193 43 -193 -193 43 -193 41 41 43 39 40 37 37 37 37 37 36 34 36 30 38 33 30 32 38 35 29 31 28 29 27 28 28 27 27 27 26 27 26 26 21 18 18 20 17 17 16 15 13 16 16 16 -225 -225 -225 -225 -225 -225 -225 -225 -225 -225 -225 -225 -225 -225 -225 -225 -225 -225 -225 -225 -225 -225 -225 -225 -225 -225 0 11 0 0 0 0 0 0 0 9 0 9 0 9 -225 -225 -225 -225 -193 30 30 30 31 34 36 34 34 36 36 38 38 40 40 41 41 41 44 43 44 45 44 47 48 52 52 52 53 53 53 54 53 53 53 57 55 59 59 62 -209 -209 72 73 76 72 72 72 72 72 73 75 -193 74 79 88 89 89 89 90 91 90 91 92 93 94 100 100 100 100 101 101 101 101 102 102 104 108 107 108 108 110 113 113 115 117 117 123 126 126 127 128 129 130 132 132 132 131 133 133 135 -193 137 137 140 143 144 145 146 147 151 150 153 154 154 154 155 155 156 153 155 154 155 155 163 164 164 164 165 167 168 0 0 0 0 0
    0 0 0 0 0 0 0 0 0 0 0 0 0 0 0 0 0 0 0 0 0 0 0 0 0 0 0 0 0 0 0 0 0 0 0 0 0 0 0 0 0 0 0 0 0 0 0 0 0 0 0 0 0 0 0 0 0 0 0 0 0 0 0 0 0 0 0 0 0 52 50 52 52 51 53 53 50 50 50 49 48 47 47 47 46 45 45 44 44 43 -193 -193 -193 -193 -209 -193 42 38 39 36 37 37 37 37 36 33 36 29 39 35 27 28 39 33 29 30 28 28 27 28 29 27 27 27 26 27 26 26 21 18 19 21 17 17 16 16 12 16 16 16 -225 -225 -225 -225 -225 -225 -225 -225 -225 -225 -225 -225 -225 -225 -225 -225 -225 -225 -225 -225 -225 -225 -225 -225 -225 -225 0 12 0 9 0 0 0 0 0 9 0 0 0 9 0 -225 -225 -225 28 29 29 29 29 34 36 34 35 36 36 37 38 39 39 40 39 40 42 42 43 44 43 46 48 51 52 53 53 53 53 54 53 52 52 57 53 59 61 62 69 -209 72 73 75 72 72 72 72 72 73 75 -193 75 80 89 89 89 89 90 90 89 91 91 91 93 100 99 99 99 100 100 100 100 101 101 104 108 108 109 110 111 114 114 116 118 117 123 126 126 127 128 129 130 132 132 132 131 133 133 135 136 137 138 140 144 144 146 147 148 152 151 154 154 155 154 156 156 156 154 156 155 156 156 164 165 165 165 165 167 168 0 0 0 0 0
    0 0 0 0 0 0 0 0 0 0 0 0 0 0 0 0 0 0 0 0 0 0 0 0 0 0 0 0 0 0 0 0 0 0 0 0 0 0 0 0 0 0 0 0 0 0 0 0 0 0 0 0 0 0 0 0 0 0 0 0 0 0 0 0 0 0 0 0 0 52 50 51 52 50 53 52 49 50 50 49 49 48 48 47 46 46 45 44 44 43 43 -193 -193 -209 -209 -193 42 38 39 36 37 37 37 37 36 33 36 29 39 36 25 26 38 31 28 29 27 28 27 27 28 27 27 27 26 27 26 25 21 18 19 21 17 17 16 16 12 16 16 16 -225 -225 -225 -225 -225 -225 -225 -225 -225 -225 -225 -225 -225 -225 -225 -225 -225 -225 -225 -225 -225 -225 -225 -225 -225 -225 0 11 0 0 0 0 0 0 0 0 0 0 0 9 0 -225 -225 285 28 29 29 29 29 34 36 34 35 37 36 37 38 39 38 39 38 38 40 41 42 43 42 45 48 51 52 53 53 52 53 54 53 52 52 56 50 58 61 63 69 -209 73 73 74 72 72 72 72 73 73 76 -193 76 80 89 88 88 -193 89 90 89 90 91 90 93 99 99 99 99 99 99 99 99 100 100 103 108 108 109 110 111 114 115 116 118 117 122 125 126 128 128 129 131 132 132 132 132 133 133 135 136 137 138 140 145 -193 147 148 149 153 151 154 154 156 155 156 156 156 154 157 156 158 156 165 166 165 165 166 168 168 0 0 0 0 0
    0 0 0 0 0 0 0 0 0 0 0 0 0 0 0 0 0 0 0 0 0 0 0 0 0 0 0 0 0 0 0 0 0 0 0 0 0 0 0 0 0 0 0 0 0 0 0 0 0 0 0 0 0 0 0 0 0 0 0 0 0 0 0 0 0 0 0 0 0 52 50 50 51 50 52 52 48 50 50 50 49 48 48 47 46 46 45 44 44 43 43 42 -193 -209 42 41 42 38 39 36 37 37 37 37 36 33 37 30 40 38 24 25 37 30 27 29 27 27 27 27 28 26 26 27 26 27 26 25 22 19 20 21 18 18 16 16 12 16 16 16 -225 -225 -225 -225 -225 -225 -225 -225 -225 -225 -225 -225 -225 -225 -225 -225 -225 -225 -225 -225 -225 -225 -225 -225 -225 -225 0 9 0 0 0 0 0 0 0 0 0 0 0 9 9 -225 -225 282 28 29 30 30 30 34 35 33 35 37 35 36 38 38 37 38 37 38 39 41 42 42 42 45 48 51 52 53 52 52 52 54 53 52 52 55 47 58 62 63 70 -209 73 73 73 73 72 72 72 73 74 76 -193 77 80 89 88 88 -193 -193 90 89 90 91 89 92 96 96 96 97 98 98 98 98 99 100 103 109 108 109 110 111 114 115 116 118 117 122 125 126 128 129 129 131 132 132 132 132 133 133 135 -193 -209 -193 141 -193 -209 -193 149 150 154 151 154 154 156 154 156 156 156 155 158 157 159 157 165 166 166 166 167 169 169 0 0 0 0 0
    0 0 0 0 0 0 0 0 0 0 0 0 0 0 0 0 0 0 0 0 0 0 0 0 0 0 0 0 0 0 0 0 0 0 0 0 0 0 0 0 0 0 0 0 0 0 0 0 0 0 0 0 0 0 0 0 0 0 0 0 0 0 0 0 0 0 0 0 0 52 51 50 51 49 52 52 48 50 50 50 50 48 48 47 46 45 45 44 43 42 42 42 -193 -209 41 41 42 38 39 36 37 37 37 37 36 33 37 30 40 40 23 24 36 29 27 28 26 26 26 26 28 26 26 26 25 27 26 25 23 19 21 22 18 18 16 16 12 16 16 16 -225 -225 -225 -225 -225 -225 -225 -225 -225 -225 -225 -225 -225 -225 -225 -225 -225 -225 -225 -225 -225 -225 -225 -225 -225 -225 0 0 0 0 0 0 0 0 0 0 0 0 0 9 9 -225 279 280 27 28 29 30 29 33 35 34 35 37 35 36 37 38 36 37 37 37 37 40 41 41 42 44 48 51 52 53 52 52 52 53 53 51 52 53 46 58 62 63 70 -209 73 73 73 75 73 73 73 74 75 77 79 78 80 90 88 88 -177 -193 90 89 90 91 87 91 93 93 94 94 95 95 95 96 100 101 104 108 108 109 110 111 113 114 115 118 117 123 125 126 129 129 130 132 132 133 132 133 133 133 135 -209 -209 -209 141 -209 -209 -193 150 151 154 152 154 153 156 154 155 156 156 155 158 158 159 156 164 165 165 165 166 168 168 0 0 0 0 0
    0 0 0 0 0 0 0 0 0 0 0 0 0 0 0 0 0 0 0 0 0 0 0 0 0 0 0 0 0 0 0 0 0 0 0 0 0 0 0 0 0 0 0 0 0 0 0 0 0 0 0 0 0 0 0 0 0 0 0 0 0 0 0 0 0 0 0 0 0 52 51 50 51 49 53 53 49 51 50 50 50 48 48 47 46 46 45 44 43 42 43 42 -193 -193 41 41 41 38 39 36 37 37 36 37 36 33 37 30 40 40 22 24 35 28 27 28 -193 26 27 26 28 26 26 27 25 27 26 25 23 19 21 22 17 18 16 16 13 16 16 16 -225 -225 -225 -225 -225 -225 -225 -225 -225 -225 -225 -225 -225 -225 -225 -225 -225 -225 -225 -225 -225 -225 -225 -225 -225 0 0 10 0 0 0 0 0 0 0 9 0 9 0 10 10 -209 276 -177 26 27 29 29 29 32 35 33 35 37 35 35 37 37 36 36 36 36 36 39 40 40 42 44 47 50 52 53 51 52 52 53 53 51 52 53 45 58 63 63 70 -209 73 72 72 77 74 74 74 75 75 78 80 80 81 90 88 88 -177 -193 90 90 90 91 85 89 90 90 92 91 92 91 92 94 99 100 103 108 108 109 110 111 113 114 115 118 117 122 125 126 129 130 130 132 132 133 132 133 133 133 -193 -209 -209 -209 -193 -209 -209 -193 -193 151 154 151 153 153 156 154 155 155 156 155 158 158 159 156 163 165 165 166 167 169 170 0 0 0 0 0
    0 0 0 0 0 0 0 0 0 0 0 0 0 0 0 0 0 0 0 0 0 0 0 0 0 0 0 0 0 0 0 0 0 0 0 0 0 0 0 0 0 0 0 0 0 0 0 0 0 0 0 0 0 0 0 0 0 0 0 0 0 0 0 0 0 0 0 0 0 52 52 51 51 50 53 54 51 52 51 51 51 48 48 47 46 46 45 44 -193 42 43 42 42 -193 41 40 41 38 39 36 36 37 36 36 36 33 37 30 40 37 24 24 -193 29 27 29 -193 27 27 27 -193 26 26 27 26 27 26 25 23 19 21 22 17 17 16 16 13 16 16 16 -225 -225 -225 -225 -225 -225 -225 -225 -225 -225 -225 -225 -225 -225 -225 -225 -225 -225 -225 -225 -225 -225 -225 -225 -225 0 0 12 0 0 0 9 0 0 9 9 0 0 0 9 -209 -209 -177 -177 27 28 29 30 29 31 34 33 34 36 34 34 37 36 35 36 36 36 35 38 39 39 41 43 47 50 52 53 51 52 52 53 53 51 53 52 45 58 65 64 70 72 72 72 72 79 75 75 75 76 76 79 81 81 81 90 89 -193 -177 -193 -193 90 90 90 84 88 88 89 90 89 90 90 91 94 100 101 104 108 108 109 110 111 113 113 114 117 117 122 125 126 130 130 131 133 133 133 132 133 133 -193 -209 -209 -209 -209 -209 -209 -209 -193 -193 150 153 151 153 152 155 154 155 155 155 155 158 157 159 155 164 166 166 167 168 170 171 0 0 0 0 0
    0 0 0 0 0 0 0 0 0 0 0 0 0 0 0 0 0 0 0 0 0 0 0 0 0 0 0 0 0 0 0 0 0 0 0 0 0 0 0 0 0 0 0 0 0 0 0 0 0 0 0 0 0 0 0 0 0 0 0 0 0 0 0 0 0 0 0 0 0 52 52 51 51 50 54 54 53 52 51 52 51 48 49 47 47 46 44 43 43 42 43 42 42 43 41 41 41 38 39 36 36 37 36 36 36 33 36 30 39 36 -193 24 -193 29 27 28 -193 27 27 27 -193 26 26 27 25 26 25 24 22 18 21 21 17 17 16 16 13 16 16 16 -225 -225 -225 -225 -225 -225 -225 -225 -225 -225 -225 -225 -225 -225 -225 -225 -225 -225 -225 -225 -225 -225 -225 -225 -225 0 0 12 0 9 0 10 9 9 10 11 0 9 0 10 -177 -209 -177 -177 25 26 27 28 28 29 33 32 32 36 33 33 36 35 34 35 35 36 35 38 39 38 42 43 48 50 52 54 52 52 52 53 53 51 54 52 45 58 65 64 69 71 72 72 72 81 77 77 77 78 77 81 82 82 81 90 89 -193 -177 -193 -193 -193 -193 90 82 86 86 86 89 87 89 89 91 95 101 102 105 108 109 110 110 111 112 113 114 116 116 122 125 126 130 130 131 133 133 133 132 134 133 -193 -209 -209 -209 -209 -209 -209 -209 -209 -193 149 152 150 151 151 155 153 154 155 155 154 157 157 158 155 164 167 167 168 168 171 172 0 0 0 0 0
    0 0 0 0 0 0 0 0 0 0 0 0 0 0 0 0 0 0 0 0 0 0 0 0 0 0 0 0 0 0 0 0 0 0 0 0 0 0 0 0 0 0 0 0 0 0 0 0 0 0 0 0 0 0 0 0 0 0 0 0 0 0 0 0 0 0 0 0 0 52 52 51 51 48 54 54 53 53 52 52 51 49 50 48 48 46 44 43 43 42 44 42 42 43 41 41 42 38 39 36 36 37 36 36 36 33 36 30 39 34 20 24 -193 29 27 28 -193 27 28 27 -193 26 26 26 25 26 24 23 22 18 21 21 17 17 16 16 14 16 16 16 -225 -225 -225 -225 -225 -225 -225 -225 -225 -225 -225 -225 -225 -225 -225 -225 -225 -225 -225 -225 -225 -225 -225 -225 -225 0 0 12 0 0 0 10 9 9 10 11 0 0 0 -193 -209 -209 -177 -177 23 24 26 27 27 28 32 30 30 35 32 32 35 34 34 33 35 36 35 38 39 38 42 44 49 51 53 54 52 52 53 53 53 52 55 52 45 58 64 64 69 71 72 73 73 82 78 78 78 79 79 82 83 83 82 90 89 89 -177 -193 -193 -193 -193 89 82 85 85 85 88 85 88 89 90 94 101 102 105 108 109 110 110 111 112 113 113 116 116 122 124 126 130 130 131 132 132 -193 132 134 133 -209 -209 -209 -209 -209 -209 -193 -209 -209 -193 148 150 149 150 150 154 152 154 154 154 154 157 156 158 154 163 166 167 167 168 170 172 0 0 0 0 0
    0 0 0 0 0 0 0 0 0 0 0 0 0 0 0 0 0 0 0 0 0 0 0 0 0 0 0 0 0 0 0 0 0 0 0 0 0 0 0 0 0 0 0 0 0 0 0 0 0 0 0 0 0 0 0 0 0 0 0 0 0 0 0 0 0 0 0 0 0 52 51 51 50 47 53 54 53 53 52 53 52 51 51 49 49 47 44 44 44 43 45 43 43 44 42 42 42 38 39 36 37 37 36 36 36 33 36 30 38 32 23 24 32 29 27 28 26 27 28 27 28 26 26 26 25 25 24 23 22 18 22 21 17 17 16 16 14 17 17 16 -225 -225 -225 -225 -225 -225 -225 -225 -225 -225 -225 -225 -225 -225 -225 -225 -225 -225 -225 -225 -225 -225 -225 -225 -225 0 0 0 0 0 0 0 0 0 9 9 0 0 0 -209 -209 -193 -177 -177 -193 25 26 27 28 28 31 30 29 34 32 31 35 34 34 34 36 37 37 39 40 40 44 45 49 51 53 55 53 53 54 54 54 53 56 52 46 58 66 66 69 71 73 74 74 82 77 77 77 79 79 81 83 83 82 90 89 89 -193 88 -193 89 -193 88 82 85 85 -193 88 85 87 88 90 93 100 101 105 108 109 109 110 111 112 112 112 115 115 122 -193 126 130 129 130 132 132 -193 132 -193 -193 -209 -209 -209 -209 -209 -193 147 -209 -209 147 147 149 148 149 150 154 152 153 154 154 154 156 156 157 154 161 166 166 167 168 170 172 0 0 0 0 0
    0 0 0 0 0 0 0 0 0 0 0 0 0 0 0 0 0 0 0 0 0 0 0 0 0 0 0 0 0 0 0 0 0 0 0 0 0 0 0 0 0 0 0 0 0 0 0 0 0 0 0 0 0 0 0 0 0 0 0 0 0 0 0 0 0 0 0 0 0 51 51 51 50 47 53 53 53 53 52 54 53 51 52 50 50 47 45 44 44 43 45 43 43 44 43 42 43 39 40 36 37 37 36 36 36 33 36 30 38 32 24 25 32 30 27 28 27 28 28 28 28 26 26 26 -193 25 24 22 22 19 22 21 17 17 15 16 15 17 17 16 -225 -225 -225 -225 -225 -225 -225 -225 -225 -225 -225 -225 -225 -225 -225 -225 -225 -225 -225 -225 -225 -225 -225 -225 -225 0 0 0 0 0 0 9 0 9 10 10 0 9 9 -209 -209 260 -177 -177 -193 26 27 28 28 28 31 30 29 34 32 32 36 34 35 35 37 39 39 41 42 42 45 45 49 51 53 55 53 53 54 54 54 54 57 53 47 59 66 67 69 71 73 74 74 81 77 77 77 79 78 81 82 83 82 90 88 88 88 87 -177 88 87 87 81 84 86 -193 88 85 87 88 90 92 99 100 105 108 109 109 109 110 111 111 112 115 114 -193 -193 127 130 130 130 -193 -193 -209 -193 -193 -193 -209 -193 -209 -209 -193 144 146 -209 -193 145 146 148 147 148 149 153 151 153 153 153 153 156 155 156 153 160 165 166 167 168 170 172 0 0 0 0 0
    0 0 0 0 0 0 0 0 0 0 0 0 0 0 0 0 0 0 0 0 0 0 0 0 0 0 0 0 0 0 0 0 0 0 0 0 0 0 0 0 0 0 0 0 0 0 0 0 0 0 0 0 0 0 0 0 0 0 0 0 0 0 0 0 0 0 0 0 0 52 51 51 50 47 53 53 53 53 52 54 53 52 52 51 50 47 45 44 44 43 45 43 43 44 42 42 42 39 40 37 37 37 36 36 36 33 36 30 37 31 25 27 31 31 27 29 28 28 29 28 29 26 26 -193 -193 -193 23 22 21 19 22 21 16 16 15 16 15 17 17 16 -225 -225 -225 -225 -225 -225 -225 -225 -225 -225 -225 -225 -225 -225 -225 -225 -225 -225 -225 -225 -225 -225 -225 -225 -225 0 0 9 9 10 10 10 10 10 11 11 10 9 9 -209 261 260 -177 -177 -193 26 27 28 28 28 30 30 29 33 32 33 36 35 36 36 38 41 41 42 43 43 45 45 49 51 53 55 53 54 54 55 55 54 57 53 49 59 65 66 68 70 73 74 74 80 77 77 77 79 79 80 82 83 82 90 87 87 87 86 -177 87 86 86 81 85 86 85 88 85 87 89 90 91 97 98 105 107 109 109 109 110 110 111 111 114 -193 -193 -193 128 130 129 130 132 -193 -193 -193 -209 -193 -209 -209 -209 -193 141 143 145 147 145 143 144 147 146 147 148 152 149 152 152 152 153 155 155 155 152 158 164 166 167 168 170 172 0 0 0 0 0
    0 0 0 0 0 0 0 0 0 0 0 0 0 0 0 0 0 0 0 0 0 0 0 0 0 0 0 0 0 0 0 0 0 0 0 0 0 0 0 0 0 0 0 0 0 0 0 0 0 0 0 0 0 0 0 0 0 0 0 0 0 0 0 0 0 0 0 0 0 52 52 51 51 47 53 53 54 53 53 55 54 52 53 51 51 47 45 45 43 42 45 43 43 43 42 42 42 39 40 36 37 37 36 37 36 33 36 30 36 31 26 27 30 31 28 29 28 28 29 28 29 26 26 -193 -193 -193 23 21 21 18 21 21 16 16 15 16 16 17 17 16 -225 -225 -225 -225 -225 -225 -225 -225 -225 -225 -225 -225 -225 -225 -225 -225 -225 -225 -225 -225 -225 -225 -225 -225 -225 0 0 0 9 10 10 10 10 11 11 11 10 9 9 -209 260 259 -177 -177 -193 27 27 27 28 28 31 31 30 34 33 33 36 35 36 36 38 41 41 42 43 43 45 45 49 51 53 55 53 53 53 54 54 53 56 53 49 59 64 65 68 70 73 74 74 80 77 77 77 78 78 80 82 83 82 89 86 86 87 86 -193 86 84 85 81 85 86 86 89 86 88 89 90 91 95 96 104 107 109 109 109 110 111 111 112 114 -209 -193 -193 127 129 129 130 132 131 -193 -193 -193 -193 -209 -209 -209 140 141 143 144 146 145 143 144 146 145 146 147 151 148 151 151 151 151 154 154 154 149 157 163 165 166 168 170 172 0 0 0 0 0
    0 0 0 0 0 0 0 0 0 0 0 0 0 0 0 0 0 0 0 0 0 0 0 0 0 0 0 0 0 0 0 0 0 0 0 0 0 0 0 0 0 0 0 0 0 0 0 0 0 0 0 0 0 0 0 0 0 0 0 0 0 0 0 0 0 0 0 0 0 52 52 52 51 47 53 53 54 53 52 55 53 53 53 52 52 48 46 46 44 44 46 43 43 44 42 42 42 39 40 37 37 38 36 37 36 33 36 30 35 31 27 28 29 31 28 29 29 29 30 28 28 26 26 25 -193 -193 22 20 21 18 21 20 17 16 14 16 16 17 17 16 -225 -225 -225 -225 -225 -225 -225 -225 -225 -225 -225 -225 -225 -225 -225 -225 -225 -225 -225 -225 -225 -225 -225 -225 0 0 0 9 10 11 11 11 10 11 12 11 10 9 9 -209 259 -177 -177 -177 -193 28 28 28 29 28 30 31 30 33 33 33 36 35 36 37 37 40 41 41 42 43 45 44 48 50 52 54 52 52 52 54 53 52 56 52 50 58 65 67 69 70 73 75 75 79 77 77 77 78 78 79 81 83 81 89 86 86 86 85 -193 86 84 84 82 86 -193 -193 89 87 89 90 91 91 93 94 101 106 110 109 109 111 111 112 113 114 -193 -193 -193 127 129 128 129 131 131 -193 -193 -193 -193 -209 -209 -193 140 141 143 144 145 144 143 144 146 145 147 147 151 148 151 151 151 150 154 153 153 148 156 164 165 166 168 169 172 0 0 0 0 0
    0 0 0 0 0 0 0 0 0 0 0 0 0 0 0 0 0 0 0 0 0 0 0 0 0 0 0 0 0 0 0 0 0 0 0 0 0 0 0 0 0 0 0 0 0 0 0 0 0 0 0 0 0 0 0 0 0 0 0 0 0 0 0 0 0 0 0 0 0 52 52 52 51 47 51 53 53 51 51 54 52 52 52 52 51 48 46 46 45 44 46 44 44 45 43 42 42 39 -193 37 37 38 37 37 37 33 36 30 35 31 27 28 29 30 28 29 29 29 30 28 28 25 25 25 -193 23 22 20 20 18 21 20 18 16 14 15 15 17 17 16 -225 -225 -225 -225 -225 -225 -225 -225 -225 -225 -225 -225 -225 -225 -225 -225 -225 -225 -225 -225 -225 -225 -225 -225 0 0 0 9 10 11 11 11 11 11 12 11 10 9 9 -177 -209 -177 -177 -193 -193 28 28 28 29 28 30 31 30 33 33 34 36 35 37 38 38 41 41 41 42 43 44 44 47 49 52 54 52 52 51 53 53 52 55 52 51 59 66 68 69 70 74 75 75 79 77 77 77 78 78 78 81 83 81 89 85 85 86 84 86 85 83 84 82 86 -193 -193 89 88 89 90 91 91 92 92 93 105 109 109 109 111 112 113 -193 114 -193 -193 -193 126 128 127 129 131 131 -193 -193 -193 134 -193 -209 -193 140 141 143 144 145 144 143 145 147 145 148 147 151 148 151 151 151 151 153 153 152 148 156 163 164 166 167 168 171 0 0 0 0 0
    0 0 0 0 0 0 0 0 0 0 0 0 0 0 0 0 0 0 0 0 0 0 0 0 0 0 0 0 0 0 0 0 0 0 0 0 0 0 0 0 0 0 0 0 0 0 0 0 0 0 0 0 0 0 0 0 0 0 0 0 0 0 0 0 0 0 0 0 0 53 52 52 51 47 51 53 53 51 50 53 52 52 52 52 52 48 46 47 46 45 47 44 44 45 43 42 42 40 -193 37 38 38 37 37 37 34 36 30 35 31 27 28 28 30 28 29 29 29 31 28 27 25 25 24 23 23 21 19 20 18 20 20 18 16 14 15 15 17 17 16 -225 -225 -225 -225 -225 -225 -225 -225 -225 -225 -225 -225 -225 -225 -225 -225 -225 -225 -225 -225 -225 -225 -225 -225 0 0 0 9 10 11 11 11 11 12 12 11 10 10 11 -177 14 16 24 25 -193 28 27 27 28 28 29 31 29 32 33 34 36 35 -193 -193 38 41 41 41 42 43 44 43 46 48 51 53 51 51 51 53 53 52 55 52 53 59 65 67 68 69 73 74 74 78 76 77 76 77 78 77 80 83 80 88 85 85 86 85 86 86 84 84 83 87 -193 -193 90 89 89 90 90 91 90 90 88 103 109 109 109 112 112 113 -193 114 -193 -193 124 126 127 127 128 131 131 -193 -193 -193 -193 -193 -193 -193 140 141 144 144 145 144 144 147 148 147 149 148 151 149 151 151 151 151 153 152 152 149 156 164 165 166 167 167 171 0 0 0 0 0
    0 0 0 0 0 0 0 0 0 0 0 0 0 0 0 0 0 0 0 0 0 0 0 0 0 0 0 0 0 0 0 0 0 0 0 0 0 0 0 0 0 0 0 0 0 0 0 0 0 0 0 0 0 0 0 0 0 0 0 0 0 0 0 0 0 0 0 0 0 53 52 52 52 48 50 52 52 50 49 52 51 51 51 51 51 49 47 48 47 45 47 44 44 45 42 42 41 40 -193 38 38 39 37 38 37 34 37 30 35 31 27 29 28 29 28 29 30 30 31 28 27 24 24 23 22 22 21 19 20 17 20 20 18 16 14 15 15 17 17 16 -225 -225 -225 -225 -225 -225 -225 -225 -225 -225 -225 -225 -225 -225 -225 -225 -225 -225 -225 -225 -225 0 0 0 0 0 0 9 10 11 12 11 11 12 12 11 10 9 11 -177 16 20 24 25 25 28 27 26 28 27 28 30 29 32 33 33 36 35 -177 -193 38 41 42 41 42 43 44 42 45 47 51 52 51 51 51 53 53 52 55 54 56 60 65 66 66 69 72 73 73 76 75 75 75 75 76 76 79 82 79 88 84 85 86 85 -193 -193 84 85 85 -193 -193 -193 90 88 89 90 90 90 89 89 87 99 108 108 109 112 113 113 114 115 -193 -193 124 126 127 127 128 131 130 131 131 133 134 -209 136 -193 140 141 144 145 146 145 145 149 150 149 151 149 152 150 152 152 152 151 153 152 152 150 155 164 164 165 167 165 170 0 0 0 0 0
    0 0 0 0 0 0 0 0 0 0 0 0 0 0 0 0 0 0 0 0 0 0 0 0 0 0 0 0 0 0 0 0 0 0 0 0 0 0 0 0 0 0 0 0 0 0 0 0 0 0 0 0 0 0 0 0 0 0 0 0 0 0 0 0 0 0 0 0 0 53 52 52 52 49 50 52 52 50 48 50 50 50 50 50 50 49 48 48 48 45 46 43 43 43 41 41 40 39 41 38 38 39 38 38 38 35 37 30 35 32 27 29 28 29 28 29 29 30 31 27 26 24 24 23 22 22 21 19 20 18 20 20 18 16 14 14 14 17 17 16 -225 -225 -225 -225 -225 -225 -225 -225 -225 -225 -225 -225 -225 -225 -225 -225 -225 -225 -225 0 0 0 0 0 0 0 0 0 9 10 11 11 11 12 12 11 12 11 14 -177 20 22 24 24 24 27 27 26 28 27 27 29 29 31 33 33 36 35 -177 -209 -193 42 42 41 43 44 43 42 45 47 51 51 50 51 51 53 53 53 -193 55 58 60 65 66 65 69 71 72 73 76 75 74 74 74 75 75 78 80 77 87 84 85 86 86 -193 -193 85 86 -193 89 90 89 90 88 89 90 89 89 88 88 86 96 107 108 109 112 113 114 114 115 -193 122 125 126 127 127 128 130 130 131 131 133 135 135 136 138 140 141 144 145 146 145 145 150 151 151 153 152 152 152 153 153 153 153 154 153 153 152 155 164 165 165 167 165 170 0 0 0 0 0
    0 0 0 0 0 0 0 0 0 0 0 0 0 0 0 0 0 0 0 0 0 0 0 0 0 0 0 0 0 0 0 0 0 0 0 0 0 0 0 0 0 0 0 0 0 0 0 0 0 0 0 0 0 0 0 0 0 0 0 0 0 0 0 0 0 0 0 0 0 53 53 52 52 50 50 52 52 50 48 50 49 49 49 50 49 48 47 48 47 -193 45 42 41 -193 40 39 39 39 41 37 38 39 38 38 38 36 37 31 35 32 28 29 28 29 28 29 29 29 31 27 26 24 24 23 22 22 21 19 20 18 19 20 17 16 13 14 14 17 17 17 -225 -225 -225 -225 -225 -225 -225 -225 -225 -225 -225 -225 -225 -225 -225 -225 -225 -225 0 0 0 0 0 0 0 0 0 0 9 10 10 11 12 13 13 12 13 13 16 20 20 20 23 23 23 26 26 26 27 27 27 29 29 32 32 32 35 34 -193 -209 -193 41 41 41 42 43 43 41 44 46 50 51 50 51 51 53 53 53 -193 55 59 60 64 65 64 69 70 71 72 75 74 74 73 73 74 74 77 79 75 86 84 85 87 86 -209 -193 -193 -193 -193 90 -193 90 90 88 88 89 89 89 87 88 85 95 106 107 109 113 114 115 115 116 -209 122 125 126 127 127 128 130 130 131 131 133 135 135 135 -193 139 141 -193 145 146 145 145 151 151 152 154 153 153 153 154 154 154 154 154 154 153 153 155 164 165 166 167 165 170 0 0 0 0 0
    0 0 0 0 0 0 0 0 0 0 0 0 0 0 0 0 0 0 0 0 0 0 0 0 0 0 0 0 0 0 0 0 0 0 0 0 0 0 0 0 0 0 0 0 0 0 0 0 0 0 0 0 0 0 0 0 0 0 0 0 0 0 0 0 0 0 0 0 0 54 53 53 52 50 49 52 52 50 48 49 50 49 49 50 49 47 47 48 47 -193 44 42 -193 -193 39 38 39 39 40 37 38 39 38 38 38 36 37 31 36 33 28 29 28 29 28 28 28 29 31 26 25 23 23 23 22 22 21 19 19 18 19 19 17 16 14 15 15 19 19 19 -225 -225 -225 -225 -225 -225 -225 -225 -225 -225 -225 -225 -225 -225 -225 -225 -225 0 0 0 0 0 0 0 0 0 0 0 0 9 9 10 11 11 12 12 13 13 15 20 19 19 22 22 22 24 25 25 26 26 27 28 29 31 32 31 35 34 37 -193 38 40 40 39 41 42 42 40 43 45 51 50 51 51 51 53 53 53 -193 56 60 60 64 65 65 69 70 71 72 75 73 73 73 73 73 73 76 78 74 85 84 85 87 87 89 -193 -193 -193 -193 91 -193 -193 90 88 88 89 89 88 87 87 84 94 106 107 110 114 115 117 117 118 -193 122 124 125 126 126 127 130 129 130 131 133 134 134 135 -193 -193 140 -193 144 146 144 145 150 150 151 153 153 153 154 154 155 155 155 154 154 153 154 155 164 165 166 167 165 169 0 0 0 0 0
    0 0 0 0 0 0 0 0 0 0 0 0 0 0 0 0 0 0 0 0 0 0 0 0 0 0 0 0 0 0 0 0 0 0 0 0 0 0 0 0 0 0 0 0 0 0 0 0 0 0 0 0 0 0 0 0 0 0 0 0 0 0 0 0 0 0 0 0 0 55 54 53 52 51 49 51 52 50 49 50 50 50 49 50 49 47 46 49 48 44 45 43 42 43 40 39 39 39 40 37 38 39 37 38 39 37 37 32 37 35 28 29 28 28 28 28 28 28 29 25 24 23 23 23 23 23 22 20 20 18 19 20 18 17 15 17 15 21 21 21 -225 -225 -225 -225 -225 -225 -225 -225 -225 -225 -225 -225 -225 -225 -225 -225 -225 0 0 0 9 0 0 0 0 0 0 0 0 0 0 9 9 10 10 11 12 13 14 19 17 17 21 21 22 24 25 25 25 26 27 28 28 30 31 30 34 33 37 -193 -193 38 38 38 41 42 42 40 43 45 51 50 51 51 51 53 53 52 -193 55 59 60 64 66 66 70 70 70 71 74 72 72 71 71 71 72 75 76 73 84 85 86 -193 88 90 90 90 90 90 92 -193 -193 90 88 89 89 89 89 87 88 84 93 105 106 110 114 116 118 118 119 121 123 124 125 126 126 127 129 129 130 131 132 134 133 134 -193 -193 -193 -193 144 146 144 145 149 149 151 153 153 153 154 155 155 155 155 155 155 154 155 155 164 165 165 166 164 168 0 0 0 0 0
    0 0 0 0 0 0 0 0 0 0 0 0 0 0 0 0 0 0 0 0 0 0 0 0 0 0 0 0 0 0 0 0 0 0 0 0 0 0 0 0 0 0 0 0 0 0 0 0 0 0 0 0 0 0 0 0 0 0 0 0 0 0 0 0 0 0 0 0 0 55 54 54 52 51 48 51 52 50 49 50 50 50 49 50 50 47 47 48 48 45 45 43 42 44 41 40 40 40 40 37 38 39 38 38 39 38 37 33 38 36 29 31 28 28 28 28 28 28 29 25 24 23 24 24 23 23 22 21 21 20 21 21 20 19 17 20 17 22 22 22 -225 -225 -225 -225 -225 -225 -225 -225 -225 -225 -225 -225 -225 -225 -225 -225 -225 9 0 0 0 0 0 0 0 0 0 0 0 0 9 9 11 11 11 11 12 12 14 19 16 16 20 20 22 23 25 25 25 27 28 28 29 31 31 30 34 34 37 -193 -193 38 38 39 40 42 42 39 43 45 51 50 51 51 51 53 53 52 -193 55 59 59 64 66 66 70 69 69 71 73 70 70 70 70 70 71 73 74 72 83 85 86 -193 -193 92 91 91 91 92 93 751 -193 91 89 89 89 89 89 88 88 85 94 105 106 110 115 116 118 118 119 122 123 124 125 126 126 127 129 129 130 131 132 133 133 134 -193 -193 140 141 142 145 143 144 147 148 150 151 152 152 155 155 155 155 155 155 156 155 156 155 165 165 166 167 165 168 0 0 0 0 0
    0 0 0 0 0 0 0 0 0 0 0 0 0 0 0 0 0 0 0 0 0 0 0 0 0 0 0 0 0 0 0 0 0 0 0 0 0 0 0 0 0 0 0 0 0 0 0 0 0 0 0 0 0 0 0 0 0 0 0 0 0 0 0 0 0 0 0 0 0 55 54 54 52 51 49 51 52 51 50 51 51 50 50 51 50 47 47 48 48 45 46 43 42 44 41 40 40 41 40 37 38 39 38 38 39 38 37 34 38 37 29 31 28 28 28 27 28 28 28 25 25 24 24 24 24 24 23 22 22 22 22 22 22 21 20 22 20 24 24 24 -225 -225 -225 -225 -225 -225 -225 -225 -225 -225 -225 -225 -225 -225 -225 -225 -225 9 0 0 9 9 0 0 0 0 0 9 9 9 9 10 11 12 11 11 13 13 14 18 15 16 19 19 21 22 24 24 25 26 28 28 29 30 31 30 33 34 37 -193 -193 39 39 40 41 43 42 40 44 45 51 50 51 51 51 53 53 52 -193 56 60 60 63 65 64 70 68 68 69 71 68 69 68 69 68 71 72 73 72 83 86 87 -193 -193 93 92 92 93 93 94 -193 92 92 89 89 90 89 89 88 89 87 96 106 107 111 115 116 118 118 119 122 123 125 125 126 126 127 129 129 130 131 132 133 133 134 -193 -193 140 141 142 145 142 143 146 147 150 150 152 152 154 155 155 155 155 154 156 155 157 155 164 164 165 166 165 168 0 0 0 0 0
    0 0 0 0 0 0 0 0 0 0 0 0 0 0 0 0 0 0 0 0 0 0 0 0 0 0 0 0 0 0 0 0 0 0 0 0 0 0 0 0 0 0 0 0 0 0 0 0 0 0 0 0 0 0 0 0 0 0 0 0 0 0 0 0 0 0 0 0 0 55 54 54 52 52 49 51 52 51 50 51 51 50 50 51 51 48 48 49 47 44 45 42 42 44 42 40 40 41 40 38 39 39 38 38 39 38 37 34 38 36 28 29 27 27 28 27 28 29 28 26 25 24 25 25 25 25 23 23 23 22 22 22 22 22 21 23 22 24 26 26 -225 -225 -225 -225 -225 -225 -225 -225 -225 -225 -225 -225 -225 -225 -225 -225 0 11 9 9 9 9 0 0 0 9 0 9 9 9 9 10 11 11 11 11 12 12 13 17 15 15 18 18 20 21 23 23 23 25 27 28 28 30 31 30 33 34 36 -193 -193 39 39 40 41 43 42 40 45 45 51 50 52 52 51 53 53 53 56 56 60 60 62 64 63 69 67 67 67 70 66 67 67 68 66 70 71 72 71 82 87 88 92 91 94 93 93 94 94 94 95 92 92 89 90 90 90 90 89 90 88 98 106 108 111 115 116 118 118 120 122 123 125 125 126 126 127 129 129 130 131 132 133 134 134 -193 -193 140 141 142 144 142 143 145 145 149 149 151 152 154 155 155 155 155 154 156 156 157 154 163 164 164 166 165 168 0 0 0 0 0
    0 0 0 0 0 0 0 0 0 0 0 0 0 0 0 0 0 0 0 0 0 0 0 0 0 0 0 0 0 0 0 0 0 0 0 0 0 0 0 0 0 0 0 0 0 0 0 0 0 0 0 0 0 0 0 0 0 0 0 0 0 0 0 0 0 0 0 0 0 56 54 54 52 52 50 50 52 50 50 51 51 50 50 51 50 48 49 49 46 44 44 41 42 43 41 40 40 41 40 38 39 39 38 38 39 38 36 35 37 35 28 28 27 27 28 27 28 29 28 27 26 25 26 26 26 25 24 23 23 22 22 22 23 22 21 23 23 24 27 28 -225 -225 -225 -225 -225 -225 -225 -225 -225 -225 -225 -225 -225 -225 -225 -225 10 12 10 10 10 10 9 9 0 9 0 0 0 9 0 9 9 10 10 10 13 12 13 16 15 15 17 18 20 20 22 22 23 25 27 28 28 30 31 30 33 34 36 39 -193 39 -193 -193 41 43 43 41 46 46 51 50 52 52 51 53 53 53 56 57 60 60 63 65 64 69 66 67 67 70 66 67 66 68 66 69 71 72 72 81 88 88 92 91 94 93 93 94 94 94 95 92 92 89 90 90 91 91 89 89 86 98 107 109 113 115 116 118 117 120 122 122 124 125 125 126 126 128 128 130 131 131 133 134 134 -193 138 140 141 141 144 142 142 144 144 148 148 150 151 154 155 155 155 155 154 157 156 157 154 159 159 162 164 163 166 0 0 0 0 0
    0 0 0 0 0 0 0 0 0 0 0 0 0 0 0 0 0 0 0 0 0 0 0 0 0 0 0 0 0 0 0 0 0 0 0 0 0 0 0 0 0 0 0 0 0 0 0 0 0 0 0 0 0 0 0 0 0 0 0 0 0 0 0 0 0 0 0 0 0 56 55 55 52 52 50 51 52 50 50 51 52 50 50 50 50 48 49 50 47 44 44 42 42 43 42 40 40 41 39 38 39 39 38 38 38 38 36 35 37 35 29 29 27 27 28 27 28 29 28 27 26 26 26 26 26 26 24 23 23 22 22 21 23 22 22 23 23 24 28 29 29 -225 -225 -225 -225 -225 -225 -225 -225 -225 -225 -225 -225 -225 -225 -225 10 12 12 12 10 10 9 9 9 9 0 0 0 9 0 9 9 9 10 10 12 12 13 16 15 15 17 18 19 19 22 22 23 25 27 28 28 30 32 30 33 34 36 39 -193 -193 -193 -193 42 44 44 42 47 46 51 50 52 52 51 53 53 52 56 56 59 60 63 65 65 69 67 67 68 70 67 68 68 69 67 70 71 72 72 81 89 89 93 92 94 93 93 94 94 93 94 92 92 89 91 91 92 92 90 90 87 99 108 110 115 115 116 117 116 119 121 122 124 125 125 126 126 128 128 129 131 131 132 134 134 136 138 140 141 141 143 142 142 143 143 147 147 150 151 154 155 156 156 156 154 157 156 157 154 158 158 162 163 162 165 0 0 0 0 0
    0 0 0 0 0 0 0 0 0 0 0 0 0 0 0 0 0 0 0 0 0 0 0 0 0 0 0 0 0 0 0 0 0 0 0 0 0 0 0 0 0 0 0 0 0 0 0 0 0 0 0 0 0 0 0 0 0 0 0 0 0 0 0 0 0 0 0 0 0 55 55 55 53 52 51 50 52 50 50 51 52 50 49 50 50 48 49 50 47 45 45 43 44 44 43 41 41 41 39 38 38 38 37 37 38 37 35 35 37 35 30 29 27 27 28 26 28 29 28 27 26 26 26 26 26 26 25 23 23 22 21 21 23 22 22 22 24 24 28 31 31 -225 -225 -225 -225 -225 -225 -225 -225 -225 -225 -225 -225 15 17 14 12 13 12 11 11 10 10 10 9 9 0 9 0 9 0 9 9 9 9 10 11 11 11 15 15 14 16 18 19 19 21 22 23 26 27 29 29 30 32 31 33 34 36 38 38 40 -193 -193 42 44 44 43 48 46 51 50 52 51 51 52 52 50 54 54 59 60 62 65 66 69 67 68 68 70 68 69 69 70 69 71 72 74 73 81 90 90 94 92 94 93 92 93 93 92 93 91 92 90 92 92 92 93 92 92 88 100 -193 -193 115 114 115 117 115 118 -193 121 123 124 125 126 126 127 128 129 131 130 132 134 134 136 138 139 141 141 143 142 142 143 143 147 146 149 151 153 154 155 155 155 154 157 157 157 154 158 158 161 163 162 165 0 0 0 0 0
    0 0 0 0 0 0 0 0 0 0 0 0 0 0 0 0 0 0 0 0 0 0 0 0 0 0 0 0 0 0 0 0 0 0 0 0 0 0 0 0 0 0 0 0 0 0 0 0 0 0 0 0 0 0 0 0 0 0 0 0 0 0 0 0 0 0 0 0 0 55 54 55 53 53 51 49 51 50 49 51 52 49 49 49 49 48 49 49 47 45 45 44 45 44 44 42 41 42 39 38 38 38 37 37 37 37 34 33 37 35 29 29 27 27 29 27 28 29 28 27 26 27 26 26 26 26 25 23 23 21 20 21 23 22 22 22 24 24 28 32 32 -225 -225 -225 -225 -225 -225 -225 -225 -225 23 19 19 14 15 13 11 11 11 0 0 0 9 0 0 9 0 0 0 9 0 9 0 9 9 10 11 11 11 15 15 15 16 19 20 20 21 22 24 26 28 29 29 30 33 31 33 34 36 38 38 40 -193 41 42 44 44 43 48 46 52 51 52 52 51 53 53 49 53 52 59 62 64 67 67 68 68 68 68 70 69 71 71 71 72 72 73 75 75 81 91 91 94 91 94 92 91 92 93 91 92 -193 92 90 92 92 93 94 93 93 -193 -209 -209 -193 -193 -193 -193 -193 -193 -193 -193 118 122 123 124 125 125 127 128 129 131 130 132 133 134 136 138 139 141 141 144 142 142 143 144 147 146 148 150 152 154 154 154 154 154 156 157 157 154 158 159 163 164 164 166 0 0 0 0 0
    0 0 0 0 0 0 0 0 0 0 0 0 0 0 0 0 0 0 0 0 0 0 0 0 0 0 0 0 0 0 0 0 0 0 0 0 0 0 0 0 0 0 0 0 0 0 0 0 0 0 0 0 0 0 0 0 0 0 0 0 0 0 0 0 0 0 0 0 0 56 54 54 53 53 52 50 51 50 49 51 52 50 48 48 48 47 49 48 47 45 45 45 45 44 44 42 41 42 40 38 38 38 37 37 37 37 33 32 36 33 29 29 27 27 29 27 28 29 28 27 26 27 26 26 26 26 25 23 24 21 20 21 23 22 22 21 24 22 28 32 32 -225 -225 -225 -225 -225 -225 -225 -225 22 22 16 14 11 13 11 9 10 10 0 9 0 9 9 9 9 9 9 9 10 9 9 0 9 9 10 10 10 11 14 15 16 17 19 21 21 22 23 25 27 28 30 30 30 33 31 33 34 37 38 39 41 41 41 43 45 44 43 49 47 52 51 52 52 51 52 52 48 51 52 58 62 62 66 65 67 68 68 68 70 70 73 73 73 74 73 74 77 76 81 91 91 93 91 93 91 91 92 92 90 92 310 92 91 93 93 93 95 95 -193 -193 0 0 0 -177 -177 -177 -177 -177 -193 -209 114 121 122 124 124 125 126 128 129 132 130 132 133 134 136 138 139 141 -193 144 143 143 144 145 148 146 147 149 151 153 153 153 153 153 156 157 157 153 158 159 163 165 165 167 0 0 0 0 0
    0 0 0 0 0 0 0 0 0 0 0 0 0 0 0 0 0 0 0 0 0 0 0 0 0 0 0 0 0 0 0 0 0 0 0 0 0 0 0 0 0 0 0 0 0 0 0 0 0 0 0 0 0 0 0 0 0 0 0 0 0 0 0 0 0 0 0 0 0 56 55 55 54 54 52 51 52 49 48 51 52 49 48 48 48 48 49 48 47 46 45 45 45 44 44 43 41 42 40 38 38 38 37 37 36 37 33 31 35 32 27 28 26 27 29 27 28 30 28 27 26 27 26 26 26 26 25 22 24 21 20 21 23 22 22 21 24 20 28 32 32 -225 -225 -225 -225 -225 -225 -225 20 19 21 14 13 11 12 11 10 9 9 0 0 0 0 0 9 0 10 9 10 10 9 9 9 9 10 10 11 11 11 14 15 16 17 19 21 21 22 24 26 27 28 30 30 30 33 31 33 34 37 38 39 41 41 42 43 45 44 44 49 48 51 51 52 52 52 52 52 49 52 54 59 63 62 64 64 66 67 68 68 70 72 74 74 74 75 74 76 79 77 81 91 91 92 90 92 -193 90 91 91 89 90 310 91 91 93 93 93 95 -193 0 0 0 0 0 0 0 -177 -177 -177 -177 -193 -193 -193 -209 123 123 124 125 128 128 132 130 132 133 134 136 -193 139 142 -193 146 145 145 146 147 149 146 147 149 151 152 152 152 152 152 155 156 156 153 157 160 163 165 165 167 0 0 0 0 0
    0 0 0 0 0 0 0 0 0 0 0 0 0 0 0 0 0 0 0 0 0 0 0 0 0 0 0 0 0 0 0 0 0 0 0 0 0 0 0 0 0 0 0 0 0 0 0 0 0 0 0 0 0 0 0 0 0 0 0 0 0 0 0 0 0 0 0 0 0 56 55 55 54 54 52 52 51 49 46 49 52 49 48 48 48 48 48 48 46 45 45 45 45 44 44 43 41 42 40 39 38 38 37 37 36 37 33 30 34 31 27 27 26 27 28 27 28 30 29 28 27 28 26 26 26 26 25 22 24 21 19 20 22 22 21 20 23 18 27 32 32 -225 -225 -225 -225 -225 -225 19 18 17 20 13 12 11 11 10 9 9 10 0 0 9 9 10 10 10 11 10 11 12 9 10 9 9 10 10 10 10 10 13 14 16 17 19 20 20 22 23 25 25 26 29 28 28 32 30 33 34 37 38 39 41 42 42 44 45 44 44 49 48 51 50 51 52 52 52 53 50 51 56 60 65 61 62 62 65 67 68 68 70 74 75 76 76 77 75 77 -177 78 80 90 90 92 89 91 -177 -193 90 90 88 -193 310 -193 90 92 92 92 95 0 0 0 0 0 0 0 0 -177 0 -177 -177 -193 -193 -193 115 122 -193 123 123 127 128 132 130 132 133 134 136 -193 -193 143 -177 147 148 148 148 150 150 147 147 149 151 151 151 151 151 151 155 156 155 153 156 159 160 163 163 165 0 0 0 0 0
    0 0 0 0 0 0 0 0 0 0 0 0 0 0 0 0 0 0 0 0 0 0 0 0 0 0 0 0 0 0 0 0 0 0 0 0 0 0 0 0 0 0 0 0 0 0 0 0 0 0 0 0 0 0 0 0 0 0 0 0 0 0 0 0 0 0 0 0 0 56 55 54 54 54 52 52 52 49 46 48 51 49 47 47 47 47 48 47 46 45 45 44 44 43 43 42 41 42 40 39 38 38 38 37 37 37 33 29 34 32 27 27 26 27 28 27 28 30 29 28 27 28 26 26 26 26 24 22 23 20 17 20 21 21 21 19 22 17 27 31 31 -225 -225 -225 -225 -225 -225 17 16 15 19 13 12 11 11 11 10 9 10 0 9 9 0 0 0 0 10 9 10 11 9 10 10 10 11 11 12 11 11 14 15 16 18 20 21 20 22 23 24 25 26 28 28 28 32 30 33 34 37 38 39 41 41 42 44 45 44 44 48 48 51 50 51 51 51 50 52 49 47 55 58 65 60 61 61 64 67 67 67 70 76 76 77 78 78 76 78 81 79 80 90 90 91 88 90 -177 -177 89 89 86 -193 -193 -177 -193 91 -193 -193 94 0 -193 -193 -193 -193 0 0 0 -177 0 -177 -177 -193 -193 -193 114 121 -193 122 123 126 127 132 129 131 132 133 -193 -177 -193 -193 -177 148 150 150 150 153 152 148 147 149 151 151 151 151 151 151 154 155 154 152 156 160 161 162 162 164 0 0 0 0 0
    0 0 0 0 0 0 0 0 0 0 0 0 0 0 0 0 0 0 0 0 0 0 0 0 0 0 0 0 0 0 0 0 0 0 0 0 0 0 0 0 0 0 0 0 0 0 0 0 0 0 0 0 0 0 0 0 0 0 0 0 0 0 0 0 0 0 0 0 0 55 54 54 54 54 52 52 52 49 46 47 51 49 47 47 47 46 47 46 46 44 44 44 44 43 43 42 41 43 40 39 38 38 38 37 37 37 33 29 34 33 27 27 27 27 28 27 28 30 29 28 27 28 26 26 26 26 24 22 23 20 17 20 21 21 21 19 22 18 27 30 30 25 28 27 -225 -225 18 20 16 14 18 12 12 10 10 11 9 9 10 0 0 9 9 0 0 0 10 9 9 11 9 10 10 10 11 11 12 12 11 14 14 17 18 20 21 21 23 23 24 25 26 27 27 27 31 30 33 35 37 38 39 41 41 41 44 45 44 44 48 49 51 50 51 51 51 50 52 49 47 55 57 62 59 59 60 62 66 67 67 71 77 77 78 79 79 77 79 82 79 80 90 -177 -177 87 -193 -193 -193 88 88 84 86 -177 -177 -177 308 308 309 -193 -193 -177 -177 -177 -177 -209 -209 0 -177 0 -177 -193 -209 -193 -193 112 121 -193 122 122 126 127 132 129 131 132 133 135 -177 -193 -193 -177 149 152 152 152 154 153 149 149 150 152 152 152 152 152 152 154 155 153 151 156 160 160 161 161 163 0 0 0 0 0
    0 0 0 0 0 0 0 0 0 0 0 0 0 0 0 0 0 0 0 0 0 0 0 0 0 0 0 0 0 0 0 0 0 0 0 0 0 0 0 0 0 0 0 0 0 0 0 0 0 0 0 0 0 0 0 0 0 0 0 0 0 0 0 0 0 0 0 0 0 55 54 54 54 54 -193 52 52 50 47 48 51 50 48 47 47 46 47 46 46 44 44 44 44 43 43 42 41 43 41 38 38 38 38 37 37 37 34 29 35 35 28 29 29 28 29 28 28 30 29 28 27 28 26 26 26 25 24 22 23 20 17 20 21 21 21 19 22 20 27 31 30 26 28 28 27 26 20 21 16 16 19 12 12 10 10 11 9 0 9 0 0 9 0 0 0 0 10 9 9 11 9 10 10 10 11 11 12 12 11 13 15 17 18 21 22 21 23 23 24 25 26 27 27 27 31 30 33 35 37 38 39 41 41 41 44 45 44 44 48 50 51 50 51 51 51 50 52 50 48 56 58 61 58 59 60 62 65 66 66 71 78 77 79 79 80 78 80 82 80 80 89 -177 -177 86 88 -193 -193 88 87 84 86 -177 -177 -177 307 307 309 220 -177 -177 -177 -177 -177 -193 -209 -193 -177 -193 -193 -193 -209 -193 -193 110 119 119 122 122 126 127 133 130 131 131 133 134 -177 -193 -193 -177 -193 153 153 153 155 154 151 150 151 153 152 152 152 152 152 153 154 153 150 156 162 162 162 162 164 0 0 0 0 0
    0 0 0 0 0 0 0 0 0 0 0 0 0 0 0 0 0 0 0 0 0 0 0 0 0 0 0 0 0 0 0 0 0 0 0 0 0 0 0 0 0 0 0 0 0 0 0 0 0 0 0 0 0 0 0 0 0 0 0 0 0 0 0 0 0 0 0 0 0 56 54 54 54 54 -193 52 53 50 48 49 51 51 48 47 47 46 47 45 45 44 44 44 44 43 42 42 41 43 41 38 38 38 38 37 37 37 34 29 35 35 29 29 30 29 30 29 29 31 30 29 27 28 27 26 26 26 24 22 23 20 17 20 21 21 21 19 22 22 27 31 30 26 28 28 27 26 21 20 14 13 17 11 10 9 9 10 0 9 9 0 0 9 0 0 0 0 9 9 9 10 9 10 10 10 11 11 12 12 11 13 15 17 19 21 22 21 23 23 23 25 25 27 27 26 30 29 33 36 37 37 38 41 41 41 43 45 44 44 48 51 51 50 51 51 51 50 52 51 48 57 58 61 58 59 59 61 64 65 65 71 79 77 79 80 80 79 80 82 80 80 89 -177 -177 86 87 -193 -193 -193 88 84 86 -193 -177 -177 307 307 308 220 -177 -177 -177 -177 -177 -177 -193 -193 -177 -193 -193 79 86 -193 -193 109 118 119 121 122 125 128 133 130 131 132 133 134 -193 -193 -193 -177 -209 154 154 154 155 155 152 151 152 153 152 152 152 152 151 153 154 152 149 155 162 162 162 163 165 0 0 0 0 0
    0 0 0 0 0 0 0 0 0 0 0 0 0 0 0 0 0 0 0 0 0 0 0 0 0 0 0 0 0 0 0 0 0 0 0 0 0 0 0 0 0 0 0 0 0 0 0 0 0 0 0 0 0 0 0 0 0 0 0 0 0 0 0 0 0 0 0 0 0 57 54 54 54 54 -193 52 53 51 48 50 51 51 49 48 46 45 46 45 44 44 43 43 43 42 42 42 40 42 41 38 38 38 38 37 36 36 34 29 33 34 29 29 30 29 31 29 29 31 30 30 28 29 27 26 26 25 24 23 23 20 17 20 22 21 21 19 21 22 27 29 30 27 28 28 27 26 22 22 13 12 13 10 0 0 0 0 9 9 10 0 9 10 9 0 0 0 10 9 9 10 9 10 10 10 11 11 12 11 10 13 14 17 19 21 23 22 23 22 23 25 25 27 27 26 30 29 32 36 37 37 38 41 41 41 43 45 43 45 48 51 50 50 51 51 50 49 52 51 48 57 58 60 58 58 59 60 62 63 63 71 80 78 80 80 81 79 80 82 79 79 -193 -193 -193 86 87 -193 -193 -177 88 85 86 -193 -193 -193 306 306 308 220 -177 -177 -177 -177 -177 -177 -193 -193 -209 77 78 79 86 -209 -209 109 117 119 122 123 126 128 133 130 132 132 133 134 -209 -193 -193 -177 -209 154 154 154 156 155 153 152 152 153 152 152 152 152 152 153 153 151 149 155 162 162 161 162 164 0 0 0 0 0
    0 0 0 0 0 0 0 0 0 0 0 0 0 0 0 0 0 0 0 0 0 0 0 0 0 0 0 0 0 0 0 0 0 0 0 0 0 0 0 0 0 0 0 0 0 0 0 0 0 0 0 0 0 0 0 0 0 0 0 0 0 0 0 0 0 0 0 0 0 57 55 54 54 54 50 52 52 51 48 50 51 51 49 48 46 44 45 44 44 43 43 43 42 42 41 42 41 42 41 39 38 38 38 38 37 37 35 30 34 35 30 30 32 31 31 30 30 31 30 30 28 28 26 26 26 25 24 23 24 21 18 21 23 22 21 20 21 23 27 27 28 26 26 27 26 26 22 21 13 10 10 9 0 0 0 0 0 9 10 9 10 12 10 10 9 0 11 10 10 11 10 10 11 11 12 11 12 10 9 11 12 16 16 19 22 20 23 21 22 24 25 26 26 26 29 29 32 36 36 37 38 41 41 41 43 46 44 45 48 52 50 49 50 50 49 48 51 51 48 58 58 60 58 58 59 60 62 62 61 71 81 78 81 80 81 79 81 82 80 79 -193 -193 -193 86 87 87 -193 -177 89 85 87 -209 -193 -193 306 306 308 220 -177 -177 -177 -177 -177 -177 -193 -193 -209 78 80 79 85 -193 -209 -193 117 119 122 124 126 128 134 131 132 133 133 134 -209 -209 -193 -177 150 154 154 154 155 155 153 152 153 154 152 152 152 152 152 153 154 151 149 155 162 162 160 160 162 0 0 0 0 0
    0 0 0 0 0 0 0 0 0 0 0 0 0 0 0 0 0 0 0 0 0 0 0 0 0 0 0 0 0 0 0 0 0 0 0 0 0 0 0 0 0 0 0 0 0 0 0 0 0 0 0 0 0 0 0 0 0 0 0 0 0 0 0 0 0 0 0 0 0 58 56 55 54 53 49 52 52 51 49 50 50 51 49 49 46 44 44 43 44 43 43 43 42 42 41 41 41 42 41 39 38 38 38 38 37 37 36 32 34 36 33 32 33 33 33 30 30 31 30 31 28 29 26 25 25 25 24 24 24 22 19 23 23 23 21 20 21 22 26 26 26 25 26 26 26 25 23 22 15 10 10 10 0 0 0 0 0 9 10 9 9 11 9 9 0 0 11 10 10 11 10 11 11 11 12 11 12 10 9 11 11 14 14 18 19 18 21 20 21 23 24 26 26 26 28 29 32 36 36 37 38 41 41 41 43 46 44 45 47 51 49 49 49 49 48 47 51 51 48 57 58 61 59 59 59 60 61 62 61 71 79 77 80 80 80 79 80 82 80 79 -193 -193 -193 86 86 87 -193 883 89 86 87 -193 90 92 306 305 308 219 -177 -193 -177 -177 -177 -177 -193 -193 77 80 82 80 85 -193 -193 -193 -193 119 122 125 126 128 134 131 131 133 133 134 -193 -209 -193 -177 149 153 153 154 155 155 153 152 153 154 153 153 153 153 153 153 154 152 150 154 162 163 160 160 161 0 0 0 0 0
    0 0 0 0 0 0 0 0 0 0 0 0 0 0 0 0 0 0 0 0 0 0 0 0 0 0 0 0 0 0 0 0 0 0 0 0 0 0 0 0 0 0 0 0 0 0 0 0 0 0 0 0 0 0 0 0 0 0 0 0 0 0 0 0 0 0 0 0 0 58 56 56 54 54 50 52 53 52 50 50 50 50 49 48 46 44 44 43 44 43 43 44 42 42 41 41 41 42 42 39 38 38 38 38 37 37 37 34 35 37 34 33 34 34 34 31 31 32 30 31 29 29 27 25 25 25 24 24 24 23 21 23 24 23 21 21 21 22 24 24 25 25 25 26 26 25 24 23 19 12 11 11 0 0 0 0 0 0 10 10 9 10 9 0 0 0 10 9 9 10 10 11 11 11 11 11 12 10 9 10 11 14 15 19 20 19 21 20 21 23 24 26 26 26 29 29 32 36 35 37 37 40 40 40 42 46 43 45 47 52 49 48 49 49 47 47 51 51 48 57 59 61 59 59 59 60 61 62 62 70 78 77 79 79 79 79 80 81 80 78 -193 -193 -193 86 86 88 -209 -177 89 -193 -193 -193 90 93 307 305 308 219 221 -193 -177 -177 -177 -193 -193 -193 81 83 85 82 85 -193 -193 -193 -193 119 123 125 127 128 133 130 131 132 133 134 136 -209 -193 -177 148 152 152 153 154 154 153 153 153 155 154 154 154 154 154 153 155 153 153 154 163 163 160 160 160 0 0 0 0 0
    0 0 0 0 0 0 0 0 0 0 0 0 0 0 0 0 0 0 0 0 0 0 0 0 0 0 0 0 0 0 0 0 0 0 0 0 0 0 0 0 0 0 0 0 0 0 0 0 0 0 0 0 0 0 0 0 0 0 0 0 0 0 0 0 0 0 0 0 0 59 57 56 55 54 52 53 54 52 51 51 50 50 49 48 45 44 44 44 44 44 43 44 42 42 41 41 42 42 42 40 38 38 38 38 37 36 37 35 35 37 35 34 34 34 35 31 31 32 29 31 29 29 27 26 26 25 24 25 24 23 22 24 24 23 21 20 21 22 23 24 24 25 25 26 26 25 24 24 21 13 11 11 0 0 0 0 0 0 9 9 9 10 9 0 0 0 9 9 9 9 10 10 11 10 11 11 12 11 10 11 11 14 14 19 19 19 21 21 22 24 25 27 26 27 29 30 32 36 35 37 36 40 40 39 41 45 42 45 47 52 48 47 48 48 46 47 51 51 48 57 59 61 59 59 59 60 61 62 61 70 78 76 78 79 79 78 79 81 80 78 -209 -193 -193 86 87 88 -193 -193 -193 -193 -177 -193 91 94 -193 305 308 -193 221 223 -177 -177 -193 85 87 85 85 85 87 84 86 -193 -193 -193 -193 -209 123 126 127 128 133 130 131 132 133 133 135 136 139 -177 146 151 151 152 153 153 153 152 153 155 156 155 155 155 155 154 156 155 154 154 165 165 163 162 163 0 0 0 0 0
    0 0 0 0 0 0 0 0 0 0 0 0 0 0 0 0 0 0 0 0 0 0 0 0 0 0 0 0 0 0 0 0 0 0 0 0 0 0 0 0 0 0 0 0 0 0 0 0 0 0 0 0 0 0 0 0 0 0 0 0 0 0 0 0 0 0 0 0 0 61 58 57 56 56 54 55 55 53 51 52 50 51 49 49 45 44 43 44 44 44 43 45 43 43 42 42 43 42 42 40 38 37 38 37 37 36 37 35 35 37 36 34 34 34 35 31 32 32 29 31 29 29 28 26 26 26 24 25 25 24 23 25 24 24 22 21 21 22 23 24 24 25 25 25 26 25 24 24 21 12 11 11 0 0 0 0 0 0 0 0 0 0 9 0 0 0 9 10 9 9 10 10 10 9 10 10 10 9 0 9 11 13 13 18 19 20 21 21 22 24 25 27 27 27 29 31 32 36 34 37 36 39 40 39 41 45 42 45 47 52 48 46 47 48 44 46 50 51 48 57 59 61 59 59 59 60 61 62 61 70 77 76 78 78 78 78 79 82 81 78 -177 86 87 86 87 89 -193 -177 -193 -209 90 -193 92 95 91 -193 -193 -193 221 223 -177 -193 -193 86 88 88 88 87 88 87 87 -193 -209 -193 -193 119 122 125 126 127 133 130 130 132 132 133 134 136 138 -177 145 150 150 151 152 152 153 152 153 155 157 155 155 155 155 155 157 156 156 155 166 166 165 165 165 0 0 0 0 0
    0 0 0 0 0 0 0 0 0 0 0 0 0 0 0 0 0 0 0 0 0 0 0 0 0 0 0 0 0 0 0 0 0 0 0 0 0 0 0 0 0 0 0 0 0 0 0 0 0 0 0 0 0 0 0 0 0 0 0 0 0 0 0 0 0 0 0 0 0 62 60 59 58 57 56 55 55 54 52 52 51 50 49 49 45 44 43 44 45 44 44 46 43 44 42 42 43 42 42 41 39 37 37 37 36 36 37 35 34 37 36 34 35 35 35 31 32 33 29 31 29 29 28 26 26 26 25 25 25 25 24 26 25 24 21 20 21 21 23 23 24 25 24 25 26 25 24 23 21 12 11 11 0 0 0 0 0 0 0 0 0 9 9 9 9 9 10 10 10 10 10 9 10 9 10 9 9 0 0 9 11 12 12 18 18 20 21 21 22 25 25 27 27 28 29 31 32 36 33 36 34 38 39 37 40 44 41 44 46 51 47 45 46 47 44 46 49 51 48 57 58 60 59 59 60 60 61 62 61 69 76 75 77 77 77 77 79 82 81 78 -177 85 86 87 87 -193 -193 -177 -177 -177 91 -193 92 96 92 90 91 -177 220 -193 -177 -193 86 87 89 89 90 90 90 88 -193 -193 -209 -193 119 120 122 125 126 126 132 130 130 133 132 133 134 135 -193 -177 144 149 149 150 152 152 152 152 153 155 159 156 156 156 156 155 157 157 157 155 167 168 166 167 167 0 0 0 0 0
    0 0 0 0 0 0 0 0 0 0 0 0 0 0 0 0 0 0 0 0 0 0 0 0 0 0 0 0 0 0 0 0 0 0 0 0 0 0 0 0 0 0 0 0 0 0 0 0 0 0 0 0 0 0 0 0 0 0 0 0 0 0 0 0 0 0 0 0 0 63 61 60 59 59 57 56 55 54 52 52 50 49 48 48 44 44 43 44 45 45 44 46 43 45 43 43 44 42 42 42 39 37 38 37 36 35 37 36 34 36 36 34 35 35 36 31 32 33 28 30 29 30 29 26 26 26 25 25 25 25 25 26 25 24 21 20 21 21 22 22 23 24 24 25 25 24 24 22 21 11 10 10 0 0 0 0 0 0 0 0 0 9 0 9 9 9 9 10 10 10 10 10 10 10 11 10 9 0 0 0 9 11 11 18 18 21 22 22 23 25 26 28 27 28 30 31 32 36 33 35 33 37 38 36 38 42 39 43 44 50 46 44 46 46 43 45 48 51 48 55 58 59 59 59 60 60 61 62 62 69 75 74 75 75 -193 -193 78 81 81 -193 -177 85 86 87 86 -193 -177 -177 -177 -177 91 95 93 97 94 92 92 -193 -193 92 -177 -193 88 88 90 90 91 92 91 90 -193 -193 -209 -209 121 121 123 125 126 125 132 130 129 133 132 133 134 -193 -193 -177 143 149 148 149 151 151 152 152 152 155 159 156 156 156 156 155 157 157 157 154 164 166 165 165 166 0 0 0 0 0
    0 0 0 0 0 0 0 0 0 0 0 0 0 0 0 0 0 0 0 0 0 0 0 0 0 0 0 0 0 0 0 0 0 0 0 0 0 0 0 0 0 0 0 0 0 0 0 0 0 0 0 0 0 0 0 0 0 0 0 0 0 0 0 0 0 0 0 0 0 63 62 61 60 60 58 56 55 54 52 51 50 48 47 48 44 44 43 44 45 45 44 46 43 45 43 43 44 43 42 43 40 38 38 37 37 35 37 36 34 36 36 35 35 35 36 31 32 33 27 30 30 31 30 26 26 27 26 26 25 26 26 26 25 24 22 21 21 21 22 21 22 23 23 24 25 24 24 22 21 12 10 9 0 0 0 0 0 0 0 0 0 9 0 9 9 9 9 11 11 11 11 11 11 11 11 10 10 0 0 0 0 9 9 17 17 21 22 23 23 26 26 28 28 29 30 32 32 36 32 35 33 37 38 35 37 40 37 42 43 48 46 44 45 46 43 45 47 51 48 53 57 58 58 58 59 59 61 62 63 69 74 73 74 74 -193 -177 76 80 81 -193 -193 84 85 87 86 -193 -177 -177 -177 -177 -193 -193 93 98 96 93 94 -193 -193 93 -193 91 89 88 90 91 92 93 93 92 -193 -193 -209 -209 121 121 123 124 125 125 131 129 129 132 131 132 133 -193 -193 -177 142 147 147 148 150 150 152 151 152 154 159 156 156 156 156 155 157 157 157 153 159 164 165 165 -209 0 0 0 0 0
    0 0 0 0 0 0 0 0 0 0 0 0 0 0 0 0 0 0 0 0 0 0 0 0 0 0 0 0 0 0 0 0 0 0 0 0 0 0 0 0 0 0 0 0 0 0 0 0 0 0 0 0 0 0 0 0 0 0 0 0 0 0 0 0 0 0 0 0 0 63 62 62 61 60 58 57 56 54 52 51 51 48 47 49 45 44 43 44 45 45 44 47 44 45 44 43 44 43 43 43 40 38 38 38 37 36 38 36 34 36 36 35 35 35 36 31 32 33 27 30 30 32 31 27 27 27 26 26 26 26 26 25 25 24 23 23 22 21 22 22 22 23 23 23 24 23 23 21 21 13 11 9 0 0 0 0 0 0 0 0 0 0 0 9 9 9 9 10 10 11 11 11 11 10 11 10 9 9 0 0 0 9 -177 17 17 21 22 23 24 27 26 28 28 29 31 32 32 35 -177 -177 33 37 38 35 37 40 37 41 42 46 45 43 45 46 44 44 46 51 47 51 55 57 58 58 59 59 61 62 63 68 73 72 73 -193 -193 -177 75 -193 -193 -177 -193 84 85 87 86 -193 814 813 814 -177 -193 -193 -193 98 97 93 96 95 -193 95 -193 92 89 89 91 91 93 94 95 94 -193 -177 -209 -193 121 121 122 123 125 124 130 129 128 132 131 132 133 -193 -193 -177 142 146 146 147 149 150 151 151 151 154 158 156 156 156 156 155 157 157 157 153 158 163 164 165 165 0 0 0 0 0
    0 0 0 0 0 0 0 0 0 0 0 0 0 0 0 0 0 0 0 0 0 0 0 0 0 0 0 0 0 0 0 0 0 0 0 0 0 0 0 0 0 0 0 0 0 0 0 0 0 0 0 0 0 0 0 0 0 0 0 0 0 0 0 0 0 0 0 0 0 63 63 62 62 61 59 57 56 55 53 52 51 48 47 50 46 45 43 44 45 45 45 47 44 45 44 44 44 43 43 43 41 -193 39 38 38 36 38 36 35 37 37 36 35 36 37 31 32 -193 26 30 30 31 31 27 26 27 26 26 26 25 25 24 24 23 22 22 21 21 22 22 22 23 23 23 24 23 23 22 21 15 11 10 9 0 0 0 0 0 0 0 0 0 0 0 9 9 9 10 10 11 11 11 11 10 11 10 10 10 10 9 9 9 9 18 17 20 21 23 23 27 26 28 27 29 31 32 32 35 -177 -177 -177 37 38 35 37 40 38 41 42 44 46 43 45 46 44 44 46 51 48 49 54 56 57 57 58 58 60 61 64 68 72 71 72 -193 -193 -177 -193 -193 -193 -177 86 83 85 87 86 -193 814 813 815 812 -193 -193 -193 99 99 94 97 96 95 96 91 92 90 -193 91 92 94 96 96 96 -193 34 -193 -209 -209 121 122 122 124 123 129 128 128 132 131 132 133 -193 -193 -177 141 146 146 146 149 150 151 150 151 154 158 155 155 155 155 155 156 156 156 152 156 161 163 164 163 0 0 0 0 0
    0 0 0 0 0 0 0 0 0 0 0 0 0 0 0 0 0 0 0 0 0 0 0 0 0 0 0 0 0 0 0 0 0 0 0 0 0 0 0 0 0 0 0 0 0 0 0 0 0 0 0 0 0 0 0 0 0 0 0 0 0 0 0 0 0 0 0 0 0 63 63 62 62 61 59 58 57 56 53 52 52 48 46 50 46 45 43 44 45 45 44 46 43 45 43 43 44 44 43 43 41 -209 39 -193 39 37 38 37 35 37 37 -193 36 36 38 31 32 -177 25 29 29 31 31 27 26 27 26 26 25 24 24 23 22 22 21 21 21 21 22 22 22 22 23 23 24 23 23 20 21 14 10 9 0 0 0 0 0 0 0 0 0 0 0 9 9 0 9 10 10 10 11 10 11 10 11 10 10 10 9 9 10 10 11 19 19 22 23 25 25 29 27 29 28 30 32 32 32 35 -177 -177 -177 -177 -177 -177 37 39 38 41 41 42 46 43 44 46 44 45 46 51 48 49 54 55 57 57 58 58 61 61 64 67 72 69 -193 -193 -193 -177 557 563 -193 -177 85 83 84 -193 86 -177 815 813 815 812 814 816 -193 99 100 95 98 98 97 97 91 93 91 -209 93 93 96 97 98 99 -193 32 38 -193 -209 -193 121 122 123 122 128 128 128 132 131 132 133 -193 -193 -193 141 145 145 146 148 149 151 150 151 153 157 155 155 155 155 -193 156 156 155 149 155 158 162 162 161 0 0 0 0 0
    0 0 0 0 0 0 0 0 0 0 0 0 0 0 0 0 0 0 0 0 0 0 0 0 0 0 0 0 0 0 0 0 0 0 0 0 0 0 0 0 0 0 0 0 0 0 0 0 0 0 0 0 0 0 0 0 0 0 0 0 0 0 0 0 0 0 0 0 0 63 63 62 62 61 59 58 57 56 54 52 52 48 46 49 46 45 43 44 44 45 44 46 43 45 43 43 44 43 43 43 41 -209 39 39 38 37 38 37 35 37 38 -193 37 37 38 31 -193 -177 24 29 29 30 30 27 26 26 26 26 25 23 23 22 21 22 21 20 21 20 22 22 22 22 22 22 22 22 22 19 20 13 9 0 0 0 0 0 0 0 0 0 0 0 0 9 9 0 9 10 10 11 10 10 10 10 11 9 9 10 9 9 9 10 12 19 19 23 24 25 26 29 28 30 28 30 32 31 32 35 33 -177 -177 -177 -177 -177 38 40 39 40 40 40 46 43 44 46 45 45 46 51 49 49 54 56 57 57 58 58 61 61 64 66 71 68 -193 -193 -193 -177 557 -193 -193 -193 84 82 84 -193 -193 -177 815 813 815 812 814 816 -177 100 100 96 99 -193 98 98 -193 93 92 -193 95 96 98 99 100 100 -193 -177 -177 -209 -209 -193 121 122 124 122 128 129 128 132 131 132 133 -193 -193 -193 140 144 145 146 148 149 150 150 151 152 156 154 154 -193 -193 -193 155 154 154 146 154 158 162 163 162 0 0 0 0 0
    0 0 0 0 0 0 0 0 0 0 0 0 0 0 0 0 0 0 0 0 0 0 0 0 0 0 0 0 0 0 0 0 0 0 0 0 0 0 0 0 0 0 0 0 0 0 0 0 0 0 0 0 0 0 0 0 0 0 0 0 0 0 0 0 0 0 0 0 0 63 63 62 62 61 59 58 57 56 54 52 52 48 46 49 46 45 43 44 44 45 44 46 43 45 43 43 43 43 42 43 41 41 39 39 39 37 38 37 35 37 38 -193 -193 37 39 -193 -193 -177 -193 29 29 30 30 27 25 26 26 25 24 22 22 21 21 21 20 20 20 19 21 21 20 20 19 20 20 20 20 16 17 11 0 0 0 0 0 0 0 0 0 0 0 0 0 9 9 0 10 10 10 11 10 10 10 10 11 9 9 10 10 10 9 10 13 19 20 23 24 25 25 29 28 30 28 29 31 31 31 34 33 -177 -177 -177 -177 -177 40 41 41 40 40 40 47 43 45 47 46 46 47 51 50 48 54 56 59 58 59 59 62 62 65 66 71 67 68 68 68 -177 558 -193 -177 -193 83 83 84 -193 -193 -177 815 814 815 812 814 816 -177 100 101 -193 99 -193 -193 99 -193 93 92 -193 97 97 99 99 101 101 -193 -177 -177 -209 -193 -193 121 122 124 122 128 130 130 133 132 132 134 -193 -193 -193 140 144 145 145 148 149 150 150 151 152 155 153 -193 -193 -193 -209 154 154 154 144 154 158 161 163 163 0 0 0 0 0
    0 0 0 0 0 0 0 0 0 0 0 0 0 0 0 0 0 0 0 0 0 0 0 0 0 0 0 0 0 0 0 0 0 0 0 0 0 0 0 0 0 0 0 0 0 0 0 0 0 0 0 0 0 0 0 0 0 0 0 0 0 0 0 0 0 0 0 0 0 62 62 62 61 60 59 57 55 55 53 52 51 48 46 50 47 45 44 44 44 45 44 46 43 44 42 42 43 42 42 42 40 41 39 39 39 37 38 37 35 37 38 -193 36 37 39 -193 -193 -177 -209 29 28 29 29 26 25 25 25 24 23 21 21 20 19 21 19 19 18 16 19 19 18 18 17 18 17 19 19 17 18 11 9 0 0 0 0 0 0 0 0 0 0 9 0 9 9 0 10 10 10 11 10 10 10 9 10 9 9 9 10 10 10 10 13 19 20 23 24 24 25 28 27 29 28 29 31 30 31 34 33 36 34 38 38 36 41 42 42 40 40 40 49 44 45 47 47 47 48 51 50 48 54 56 59 59 -193 60 64 63 66 66 70 66 67 67 67 -177 559 -193 -193 -193 82 83 85 -193 87 -177 815 814 -177 -177 92 97 -177 100 100 -193 -193 -193 -193 99 -193 92 92 700 97 -193 99 98 100 -193 26 28 34 -209 -193 -209 -177 122 124 122 129 131 130 133 132 132 134 -193 -193 -193 139 143 144 145 147 149 150 149 150 152 154 152 152 -193 -193 151 153 153 153 144 154 159 162 164 165 0 0 0 0 0
    0 0 0 0 0 0 0 0 0 0 0 0 0 0 0 0 0 0 0 0 0 0 0 0 0 0 0 0 0 0 0 0 0 0 0 0 0 0 0 0 0 0 0 0 0 0 0 0 0 0 0 0 0 0 0 0 0 0 0 0 0 0 0 0 0 0 0 0 0 62 62 62 61 60 58 57 55 54 53 51 51 47 47 49 47 46 44 44 44 45 44 45 43 44 42 42 42 42 41 42 40 40 39 39 39 37 38 37 36 37 38 38 36 36 38 31 -193 -177 -193 28 28 28 28 26 24 24 24 23 22 20 20 20 19 20 19 18 17 14 16 16 15 15 13 15 14 16 17 16 16 11 0 0 0 0 0 0 0 0 0 0 0 0 0 0 9 0 9 9 10 10 10 10 10 9 10 9 9 9 10 10 10 10 13 19 20 22 23 22 24 28 27 29 27 29 31 30 31 34 34 37 35 39 39 38 42 44 44 41 41 41 50 45 46 47 48 49 48 51 50 48 54 56 59 -193 -193 60 64 63 66 66 70 66 67 67 67 -193 -193 -193 -193 -193 81 84 85 -193 -193 -177 -177 -177 -193 -193 93 97 -193 99 99 -193 -193 -177 -193 97 -209 -193 91 701 95 -193 99 97 99 -193 -193 27 33 -193 -193 -209 -193 122 124 122 129 131 131 133 132 133 134 -193 -193 -193 139 143 144 145 147 148 150 149 150 151 153 151 151 151 151 150 153 153 153 144 155 160 163 165 166 0 0 0 0 0
    0 0 0 0 0 0 0 0 0 0 0 0 0 0 0 0 0 0 0 0 0 0 0 0 0 0 0 0 0 0 0 0 0 0 0 0 0 0 0 0 0 0 0 0 0 0 0 0 0 0 0 0 0 0 0 0 0 0 0 0 0 0 0 0 0 0 0 0 0 62 62 62 61 60 59 57 55 54 53 51 50 47 48 49 47 46 45 44 44 45 44 45 42 43 42 42 42 42 41 41 39 40 39 39 39 37 38 37 36 37 38 38 35 35 38 30 30 -193 26 28 27 28 28 25 24 24 24 23 22 20 20 19 18 20 19 18 16 12 13 14 13 13 12 12 12 14 16 16 15 12 9 0 0 0 0 0 0 0 0 0 0 0 0 9 9 0 10 10 10 10 10 10 10 9 10 9 9 9 10 11 10 11 13 19 20 21 23 21 23 27 26 29 27 29 31 30 31 34 35 37 36 40 40 39 43 45 45 41 42 42 51 46 46 47 48 49 49 51 50 48 54 56 60 -193 -193 60 64 63 67 66 70 66 67 67 67 65 -193 -193 -193 -193 81 85 86 -209 -193 -177 -193 -193 -193 92 93 97 95 99 97 -193 -193 -177 -177 -193 -209 -193 -209 -193 -193 -193 -193 97 99 -193 -193 27 33 -193 -193 -209 -193 122 124 122 129 131 131 133 133 133 134 -193 -193 138 139 142 144 145 147 148 149 149 150 151 153 150 150 150 150 149 153 152 152 144 155 161 163 165 165 0 0 0 0 0
    0 0 0 0 0 0 0 0 0 0 0 0 0 0 0 0 0 0 0 0 0 0 0 0 0 0 0 0 0 0 0 0 0 0 0 0 0 0 0 0 0 0 0 0 0 0 0 0 0 0 0 0 0 0 0 0 0 0 0 0 0 0 0 0 0 0 0 0 0 62 62 62 61 60 59 57 55 55 54 51 50 46 48 48 47 46 45 44 45 46 44 45 42 43 42 41 41 41 41 41 39 39 39 39 38 37 38 37 36 37 37 37 35 34 37 31 30 31 27 28 27 27 27 25 23 23 24 23 22 20 20 19 17 20 18 17 15 11 12 13 13 12 11 11 11 12 14 15 12 10 0 0 0 0 0 0 0 0 0 0 0 0 9 9 10 9 11 10 10 10 10 10 9 9 10 9 9 9 10 11 11 11 13 19 19 21 22 21 23 26 26 28 27 28 30 29 31 34 35 38 36 40 40 40 44 47 46 41 43 43 51 46 46 47 48 49 49 51 50 48 54 56 61 -193 -193 -193 -193 64 67 66 71 66 68 68 67 66 -193 71 -209 -193 80 85 87 -193 89 -193 92 92 93 93 93 97 95 98 95 -193 -193 943 948 -193 -209 -193 -209 -193 -193 700 -193 96 98 -193 -193 -177 -177 859 -193 -193 -193 121 123 122 129 132 132 133 133 133 134 -193 -193 138 139 142 144 145 146 148 149 149 150 151 153 150 150 150 150 148 153 151 152 145 156 162 163 165 165 0 0 0 0 0
    0 0 0 0 0 0 0 0 0 0 0 0 0 0 0 0 0 0 0 0 0 0 0 0 0 0 0 0 0 0 0 0 0 0 0 0 0 0 0 0 0 0 0 0 0 0 0 0 0 0 0 0 0 0 0 0 0 0 0 0 0 0 0 0 0 0 0 0 0 62 62 62 62 60 59 58 56 55 55 52 50 46 49 48 47 46 45 44 45 46 44 44 42 43 42 41 41 41 41 40 38 39 38 38 38 36 38 37 35 37 37 37 35 34 37 31 30 31 27 29 27 27 27 25 23 23 24 23 22 20 20 19 17 19 17 15 14 10 10 11 11 11 10 10 10 10 12 13 11 0 0 0 0 0 0 0 0 0 0 0 0 9 9 10 10 9 11 10 10 10 10 10 9 9 10 9 10 10 11 12 11 12 14 19 20 22 23 21 23 26 26 28 27 28 30 29 31 34 35 38 37 -177 41 41 44 47 46 42 43 43 51 46 46 47 48 49 49 51 50 48 54 56 62 -193 -193 -209 -193 65 68 67 71 68 68 69 68 67 -193 71 -193 73 80 86 87 -193 90 92 93 92 -193 94 93 97 95 97 93 -193 -193 944 948 947 -193 -193 -193 -193 -193 700 705 -193 97 -193 -193 -177 -177 860 -193 -193 -193 121 123 122 130 132 132 133 133 133 134 -193 -193 138 138 142 144 145 146 147 149 149 150 152 152 150 150 150 150 148 152 151 152 147 156 163 163 165 165 0 0 0 0 0
    0 0 0 0 0 0 0 0 0 0 0 0 0 0 0 0 0 0 0 0 0 0 0 0 0 0 0 0 0 0 0 0 0 0 0 0 0 0 0 0 0 0 0 0 0 0 0 0 0 0 0 0 0 0 0 0 0 0 0 0 0 0 0 0 0 0 0 0 0 62 62 62 62 61 60 58 57 56 56 52 50 46 50 47 47 46 46 45 46 46 45 44 43 43 42 41 41 40 40 40 37 38 37 37 37 35 37 36 35 36 37 37 35 34 37 31 30 31 28 29 27 27 27 25 23 23 24 22 22 20 20 19 18 20 18 15 14 9 9 10 10 10 9 9 9 10 11 11 11 0 0 0 0 0 0 0 0 0 0 0 0 9 9 10 10 9 11 10 10 10 10 9 9 9 10 0 9 9 10 11 11 12 14 19 20 22 24 22 23 26 26 28 27 28 29 29 31 35 35 38 37 -177 41 41 44 47 47 42 43 43 51 46 46 47 48 49 49 51 50 48 54 57 62 -193 -193 -193 -193 -193 69 -193 72 69 70 -193 70 69 -193 72 75 74 80 -193 87 91 90 92 92 -193 -193 94 93 96 -193 95 92 -193 -193 944 949 947 -193 -193 -193 -193 -193 700 705 -193 96 -209 -193 -177 -177 861 -193 -193 -193 121 123 122 130 132 132 133 133 133 134 -193 -193 138 138 141 144 144 145 147 148 148 150 -193 -193 150 150 150 150 148 152 151 152 148 156 163 163 165 165 0 0 0 0 0
    0 0 0 0 0 0 0 0 0 0 0 0 0 0 0 0 0 0 0 0 0 0 0 0 0 0 0 0 0 0 0 0 0 0 0 0 0 0 0 0 0 0 0 0 0 0 0 0 0 0 0 0 0 0 0 0 0 0 0 0 0 0 0 0 0 0 0 0 0 62 62 62 62 61 60 58 57 57 -193 52 51 47 50 47 47 46 47 45 47 47 46 44 43 42 42 41 41 40 40 39 37 37 37 35 36 35 36 36 34 36 36 36 35 33 37 31 30 31 29 29 27 27 26 25 23 23 24 22 22 21 20 20 19 21 19 16 15 9 0 9 9 9 9 9 9 9 11 11 11 9 0 0 0 0 0 0 0 0 0 0 0 9 9 10 10 9 11 10 10 10 10 9 9 9 10 0 9 9 11 12 11 12 14 20 20 22 23 21 22 25 25 27 26 28 29 29 31 35 35 38 37 -177 41 41 45 48 47 42 44 44 52 47 46 47 48 50 49 51 50 48 54 56 62 -193 -193 -193 -209 -193 -193 -193 72 -193 -193 -209 71 -193 -209 73 77 75 80 -193 88 91 89 92 -193 -193 -177 93 92 94 -209 94 91 -193 -193 944 949 947 -193 -193 -193 -209 700 700 705 -193 95 -209 -193 -177 -177 861 -193 -177 -193 121 123 122 129 132 132 133 132 133 134 -193 -193 -193 138 141 143 143 144 146 148 148 150 -193 -193 150 150 150 151 -193 153 153 153 151 156 164 164 165 166 0 0 0 0 0
    0 0 0 0 0 0 0 0 0 0 0 0 0 0 0 0 0 0 0 0 0 0 0 0 0 0 0 0 0 0 0 0 0 0 0 0 0 0 0 0 0 0 0 0 0 0 0 0 0 0 0 0 0 0 0 0 0 0 0 0 0 0 0 0 0 0 0 0 0 62 62 62 62 61 60 58 57 57 -193 52 51 47 51 47 47 47 47 45 48 47 46 43 44 42 43 41 41 40 40 39 37 37 36 35 36 34 36 35 34 36 35 36 34 33 36 31 29 30 29 28 26 26 26 24 23 23 24 22 22 21 20 20 19 21 20 16 15 0 0 0 0 0 0 0 0 9 10 11 10 9 9 0 0 0 0 0 0 0 0 0 0 9 9 10 10 9 11 10 10 10 10 9 9 9 10 9 9 9 11 12 11 13 13 20 19 22 23 21 22 24 24 26 26 27 29 29 31 35 36 39 38 -177 41 41 45 48 47 42 44 44 52 47 46 47 49 50 50 52 51 48 54 56 62 -193 -177 -193 -209 -209 -193 -193 73 -177 -193 -193 -193 -177 -193 75 78 77 81 -177 89 92 90 92 -193 -193 894 93 91 93 -209 93 91 -193 -193 944 949 948 -193 -193 -193 -209 700 700 706 -193 94 -209 22 26 33 862 -193 -177 -193 121 122 122 128 133 132 133 132 133 134 136 136 -193 138 140 142 142 143 144 147 148 150 -193 -193 151 -193 -193 -193 -193 153 153 153 153 156 164 164 165 165 0 0 0 0 0
    0 0 0 0 0 0 0 0 0 0 0 0 0 0 0 0 0 0 0 0 0 0 0 0 0 0 0 0 0 0 0 0 0 0 0 0 0 0 0 0 0 0 0 0 0 0 0 0 0 0 0 0 0 0 0 0 0 0 0 0 0 0 0 0 0 0 0 0 0 62 62 62 62 61 60 58 57 57 -193 52 50 47 51 47 47 47 47 45 48 47 47 43 44 42 43 41 41 40 40 39 37 37 36 35 36 34 36 35 33 35 34 35 33 32 35 30 29 29 29 28 26 25 25 24 23 23 24 22 23 22 21 21 21 21 20 18 16 10 9 9 9 9 9 9 9 10 11 11 11 10 9 9 0 9 0 0 0 0 0 0 0 9 9 10 10 9 11 10 10 9 9 10 9 9 10 9 9 9 11 12 11 12 12 19 19 21 23 20 21 24 24 26 -193 28 29 29 32 36 37 39 39 -177 41 42 45 48 47 42 44 44 51 47 47 47 49 51 51 52 51 49 54 56 62 -193 -193 -193 -209 -209 -193 -193 73 -193 -193 -193 -177 -177 -193 77 80 78 81 -177 90 92 89 91 -193 -193 895 92 90 91 -209 92 91 -209 -193 944 949 948 -193 -193 -193 -209 -209 701 707 -209 -209 -209 23 26 32 -193 -193 -193 -193 -177 121 122 128 133 131 132 132 133 134 136 135 -193 137 140 142 142 143 144 147 147 150 -193 -193 -193 750 -193 -193 -193 -193 154 153 153 156 163 164 164 164 0 0 0 0 0
    0 0 0 0 0 0 0 0 0 0 0 0 0 0 0 0 0 0 0 0 0 0 0 0 0 0 0 0 0 0 0 0 0 0 0 0 0 0 0 0 0 0 0 0 0 0 0 0 0 0 0 0 0 0 0 0 0 0 0 0 0 0 0 0 0 0 0 0 0 62 62 62 63 61 60 59 58 58 -193 52 51 48 52 47 47 47 47 45 48 47 48 42 45 42 43 41 41 40 40 39 37 37 37 35 36 34 36 34 33 35 34 35 33 31 34 30 28 29 29 27 25 25 25 24 23 24 24 22 23 22 22 22 21 22 21 19 18 13 12 12 11 10 10 10 9 10 11 11 11 10 9 0 0 0 0 0 0 0 0 0 0 9 0 10 9 9 10 10 10 9 9 10 9 9 10 9 0 0 10 11 11 12 12 18 18 22 23 21 22 24 24 27 -193 28 29 30 32 36 37 40 40 -177 41 42 44 47 47 42 43 43 51 48 47 48 50 52 52 53 52 50 55 56 62 -193 -193 -177 -209 -209 -193 -177 74 -193 -193 -193 -177 -177 -193 78 81 79 81 -177 90 91 89 -193 -177 -193 895 -193 -193 -193 -193 -193 -193 -193 308 945 949 948 -193 -193 -193 -209 -209 702 707 -209 -209 -193 18 25 31 -209 -193 -193 -193 120 121 122 128 133 132 132 132 133 133 135 135 -193 -193 139 141 142 142 143 147 148 150 -193 -193 -193 751 978 979 975 -193 -193 153 154 155 162 162 163 162 0 0 0 0 0
    0 0 0 0 0 0 0 0 0 0 0 0 0 0 0 0 0 0 0 0 0 0 0 0 0 0 0 0 0 0 0 0 0 0 0 0 0 0 0 0 0 0 0 0 0 0 0 0 0 0 0 0 0 0 0 0 0 0 0 0 0 0 0 0 0 0 0 0 0 62 62 63 63 61 61 59 58 58 -193 53 52 48 52 48 48 48 48 46 49 47 48 42 45 42 43 41 41 39 40 39 37 36 37 35 36 34 36 34 33 35 34 35 33 32 33 30 29 29 29 27 25 25 25 24 24 24 24 23 24 23 22 23 22 22 21 19 19 16 15 15 14 12 12 11 10 11 12 11 11 10 9 0 0 0 0 0 0 0 0 0 9 10 9 10 9 9 10 9 10 9 9 10 9 9 10 9 0 9 10 12 11 12 12 18 18 23 23 22 22 25 25 27 27 29 30 31 33 37 38 41 41 -177 41 42 44 47 46 42 43 43 51 48 48 49 51 52 53 54 53 51 56 57 62 -193 -209 -177 -209 -209 -193 -177 74 -193 76 -193 -177 -177 382 78 81 79 81 -177 90 91 88 -193 -177 -193 895 900 -177 -177 -193 -193 -193 -177 308 945 949 -193 -193 -193 -193 -209 -209 701 707 -193 -209 -193 10 25 30 -209 -193 -209 -193 -177 122 123 129 133 132 132 132 132 133 135 135 -193 -193 139 141 141 142 143 147 148 150 -193 -193 290 -193 978 979 975 976 978 153 155 155 162 162 163 162 0 0 0 0 0
    0 0 0 0 0 0 0 0 0 0 0 0 0 0 0 0 0 0 0 0 0 0 0 0 0 0 0 0 0 0 0 0 0 0 0 0 0 0 0 0 0 0 0 0 0 0 0 0 0 0 0 0 0 0 0 0 0 0 0 0 0 0 0 0 0 0 0 0 0 63 63 63 63 62 61 59 58 59 -193 53 52 49 52 48 49 48 49 46 50 48 49 43 45 42 43 41 41 39 40 38 37 36 36 35 36 34 36 34 32 36 34 35 33 32 33 30 29 29 29 26 25 25 25 24 24 25 25 23 24 24 23 23 23 23 22 20 20 19 17 17 16 13 13 12 11 12 11 11 12 10 9 0 0 9 0 0 0 0 0 9 9 10 9 10 10 9 10 9 9 9 9 10 9 9 9 9 0 9 10 12 11 12 13 19 19 23 24 23 23 26 26 28 28 29 -177 -177 33 37 38 41 41 41 41 41 44 46 46 41 42 42 51 48 48 50 52 -177 54 54 54 52 56 58 63 -193 -209 -177 -209 -209 -193 -177 73 -193 76 -193 -177 385 383 79 82 80 81 -177 -177 91 88 -209 -193 -193 895 900 -177 -177 -193 -177 -177 307 308 944 -193 -193 -193 -193 -193 -193 -209 700 707 0 -209 -193 -193 25 30 -193 -209 -209 -193 -177 121 123 129 134 132 132 132 132 132 135 134 135 -193 138 141 141 142 143 147 149 151 153 -193 -193 -193 978 979 976 976 978 154 156 155 162 162 163 162 0 0 0 0 0
    0 0 0 0 0 0 0 0 0 0 0 0 0 0 0 0 0 0 0 0 0 0 0 0 0 0 0 0 0 0 0 0 0 0 0 0 0 0 0 0 0 0 0 0 0 0 0 0 0 0 0 0 0 0 0 0 0 0 0 0 0 0 0 0 0 0 0 0 0 63 63 63 63 61 60 59 58 58 -193 53 52 49 52 48 48 48 49 46 50 49 49 43 45 42 43 41 41 39 39 38 37 36 36 35 36 34 36 34 33 36 34 34 33 32 32 30 29 29 29 26 25 25 25 25 24 25 25 24 25 25 24 24 24 23 22 20 21 20 18 17 17 14 14 14 12 13 12 12 13 10 10 9 0 10 9 9 9 0 9 9 10 10 9 10 10 10 10 10 10 10 10 10 10 9 9 9 0 9 10 11 11 12 12 19 19 25 25 24 24 27 27 29 29 30 -177 -177 33 37 38 41 41 41 41 41 43 45 46 41 42 42 50 49 49 51 53 -177 55 55 55 53 57 58 63 -193 -193 -177 -193 -209 69 -193 73 77 76 -193 -177 386 384 79 83 81 81 -177 -177 90 87 88 -193 -193 895 900 83 85 -177 -177 -177 308 308 -193 221 -193 -193 -177 -193 -193 -209 -209 -193 0 -209 -193 10 25 28 -193 -209 -209 -209 -177 120 121 127 133 131 131 131 131 132 134 134 135 136 138 140 140 142 143 147 149 151 154 153 -193 -193 -193 -193 -193 -177 979 155 157 154 162 163 163 163 0 0 0 0 0
    0 0 0 0 0 0 0 0 0 0 0 0 0 0 0 0 0 0 0 0 0 0 0 0 0 0 0 0 0 0 0 0 0 0 0 0 0 0 0 0 0 0 0 0 0 0 0 0 0 0 0 0 0 0 0 0 0 0 0 0 0 0 0 0 0 0 0 0 0 63 63 63 63 61 60 59 58 57 -193 53 51 48 52 48 49 48 49 46 50 49 50 43 45 43 43 41 41 39 39 38 37 36 36 35 36 35 36 34 33 36 34 34 33 32 31 30 29 28 30 26 25 26 25 25 24 26 25 -193 25 26 25 25 24 24 22 21 21 20 19 17 17 15 14 13 12 12 11 12 12 10 10 9 9 10 9 9 9 9 10 10 10 11 9 10 11 11 11 11 11 10 10 11 10 10 9 9 0 0 10 11 10 11 12 19 19 25 26 26 25 28 28 29 30 30 -177 -177 33 37 38 41 41 40 41 41 42 44 45 41 42 42 51 50 50 52 -177 -177 56 56 56 54 57 58 63 62 -193 0 -193 -193 68 -193 73 77 76 -193 387 386 384 79 83 81 81 -177 -177 -177 87 88 -193 -193 895 899 82 84 608 -177 -177 308 308 309 221 -177 -193 -177 -193 -209 -209 -209 -209 0 11 -193 23 25 28 -193 -209 -209 -209 -177 119 121 125 133 130 130 130 130 131 134 133 135 135 138 140 140 141 142 147 150 151 154 153 156 155 155 155 155 -177 -193 155 157 154 164 165 165 165 0 0 0 0 0
    0 0 0 0 0 0 0 0 0 0 0 0 0 0 0 0 0 0 0 0 0 0 0 0 0 0 0 0 0 0 0 0 0 0 0 0 0 0 0 0 0 0 0 0 0 0 0 0 0 0 0 0 0 0 0 0 0 0 0 0 0 0 0 0 0 0 0 0 0 63 63 63 63 61 60 58 57 57 -193 53 51 48 52 48 49 49 50 46 51 50 50 43 45 43 43 41 41 39 39 38 37 36 37 36 36 35 36 34 33 35 33 33 32 32 30 29 28 28 30 25 25 26 25 25 25 26 25 -209 26 27 25 25 25 24 23 21 21 20 19 17 18 16 14 13 12 11 10 11 11 0 9 0 0 10 9 9 10 9 10 10 11 11 10 11 11 11 11 12 11 11 11 12 11 10 10 10 0 9 10 11 10 11 12 19 20 26 26 27 26 30 29 30 31 31 -177 -177 33 37 38 40 40 38 40 40 41 43 44 41 42 42 51 51 51 54 -177 -177 57 57 58 55 58 58 63 61 62 0 -193 -193 68 68 72 75 75 -193 386 386 384 78 83 81 81 -177 90 -177 87 88 86 -193 895 899 82 84 609 -177 -177 -193 308 310 221 -177 -193 -177 -193 -209 -209 -209 -209 0 13 -193 -193 25 28 -193 -193 -209 -193 -193 119 -193 124 132 129 129 129 129 130 133 133 134 134 137 140 140 141 142 147 150 151 154 154 156 156 156 156 156 -177 -193 155 158 154 165 166 166 166 0 0 0 0 0
    0 0 0 0 0 0 0 0 0 0 0 0 0 0 0 0 0 0 0 0 0 0 0 0 0 0 0 0 0 0 0 0 0 0 0 0 0 0 0 0 0 0 0 0 0 0 0 0 0 0 0 0 0 0 0 0 0 0 0 0 0 0 0 0 0 0 0 0 0 63 63 63 63 61 60 58 57 57 -193 53 51 48 52 48 48 49 50 46 51 50 50 43 45 43 43 41 41 39 39 37 37 36 37 36 36 35 36 34 33 34 33 32 31 32 29 29 28 28 30 25 24 26 25 25 25 26 26 135 26 27 25 25 25 24 22 21 21 19 18 16 17 16 13 12 12 11 10 11 10 0 0 0 0 9 9 9 9 9 10 10 10 11 10 11 11 12 11 12 12 12 12 12 12 11 10 10 9 9 10 11 11 11 12 19 20 27 27 28 27 31 29 31 32 31 -177 -177 32 36 37 39 39 36 39 38 40 42 43 39 42 42 51 52 52 -177 -177 -177 59 59 60 56 58 58 62 61 62 -177 -177 -193 67 67 71 74 -193 383 386 386 384 -193 82 80 81 -177 91 91 87 88 87 893 895 899 83 85 -177 -193 -193 -193 -193 -193 221 -177 223 -177 -193 -209 -209 -209 -209 0 -209 -193 -193 25 27 -193 -193 -209 -209 -193 -193 -193 124 132 128 128 129 129 130 133 132 134 134 137 140 139 141 142 147 151 152 154 154 156 156 156 156 156 -193 157 156 157 154 163 164 165 165 0 0 0 0 0
    0 0 0 0 0 0 0 0 0 0 0 0 0 0 0 0 0 0 0 0 0 0 0 0 0 0 0 0 0 0 0 0 0 0 0 0 0 0 0 0 0 0 0 0 0 0 0 0 0 0 0 0 0 0 0 0 0 0 0 0 0 0 0 0 0 0 0 0 0 63 63 63 62 61 60 58 57 57 -193 53 51 48 51 48 48 48 49 46 51 50 51 44 44 43 42 40 41 39 39 37 37 37 37 36 37 36 36 35 34 34 33 32 32 32 30 28 28 27 30 25 24 26 25 25 25 27 26 135 27 28 26 26 25 24 22 21 20 19 17 16 17 15 13 12 11 11 9 11 10 0 0 0 0 9 9 9 9 9 10 9 10 11 10 12 12 13 12 13 13 13 12 12 12 11 10 10 9 9 10 11 11 11 12 19 21 28 27 29 28 32 30 31 33 31 -177 34 32 35 36 38 37 34 38 37 38 41 42 39 42 43 52 54 54 56 -177 -177 -177 60 61 56 58 59 62 62 62 -193 -177 -193 66 66 70 -209 -193 383 386 386 384 387 -193 79 -193 -177 91 91 88 -193 -193 894 895 900 84 86 -193 -193 -193 -193 -193 -193 220 -177 -193 445 -193 -209 -209 -209 -209 0 -209 -193 -193 24 27 -209 -193 -209 -209 -193 -193 122 123 131 128 127 128 129 129 132 132 133 133 136 139 139 141 142 147 151 151 154 154 156 156 156 156 156 -193 157 156 157 154 163 164 165 165 0 0 0 0 0
    0 0 0 0 0 0 0 0 0 0 0 0 0 0 0 0 0 0 0 0 0 0 0 0 0 0 0 0 0 0 0 0 0 0 0 0 0 0 0 0 0 0 0 0 0 0 0 0 0 0 0 0 0 0 0 0 0 0 0 0 0 0 0 0 0 0 0 0 0 64 63 63 62 61 60 58 57 57 -193 53 51 48 51 48 48 48 49 46 50 50 51 44 44 43 42 40 41 39 39 37 38 37 37 37 37 37 37 36 35 34 34 33 33 33 31 29 28 28 30 25 24 27 25 25 25 27 26 135 27 28 26 26 24 -193 22 21 20 19 17 16 17 16 13 12 11 10 0 11 10 0 0 0 0 9 9 9 0 9 9 9 10 11 11 12 13 13 13 13 14 14 12 12 12 11 10 10 9 9 10 11 11 11 12 18 21 29 28 31 29 33 31 32 34 31 32 34 31 34 35 36 36 32 36 36 37 40 41 38 42 43 53 55 55 57 58 -177 -177 60 61 57 58 58 62 62 61 -193 -177 -193 66 66 70 71 -193 -177 -177 386 384 387 -193 78 -193 -177 91 91 89 -193 -209 -177 -177 -177 85 87 -209 90 92 -193 -193 -193 220 -193 -193 -193 -209 -209 -209 -209 -209 0 -193 -193 -177 18 26 -209 -193 -209 -209 -193 119 122 123 131 128 126 129 129 129 132 131 133 132 136 138 138 141 142 147 151 151 153 154 156 155 156 156 156 154 157 157 157 154 164 165 166 166 0 0 0 0 0</data></disparity>
</opencv_storage>
