<?xml version="1.0"?>
<opencv_storage>
<gps_time_stamp>308210</gps_time_stamp>
<gps_x>-1.2401618957519531e+001</gps_x>
<gps_y>1.0959061622619629e+001</gps_y>
<gps_z>-2.0075008869171143e+000</gps_z>
<image_time_stamp>299059</image_time_stamp>
<disparity type_id="opencv-matrix">
  <rows>88</rows>
  <cols>320</cols>
  <dt>s</dt>
  <data>
    0 0 0 0 0 0 0 0 0 0 0 0 0 0 0 0 0 0 0 0 0 0 0 0 0 0 0 0 0 0 0 0 0 0 0 0 0 0 0 0 0 0 0 0 0 0 0 0 0 0 0 0 0 0 0 0 0 0 0 0 0 0 0 0 0 0 0 0 0 43 43 45 43 43 43 42 43 40 42 43 37 38 39 39 39 39 39 38 37 37 35 33 35 33 33 32 31 30 32 31 29 29 29 28 28 27 27 25 25 25 24 24 24 23 23 23 24 21 21 20 18 20 19 20 19 12 -209 -209 -209 -209 -209 -209 -209 -209 -193 -209 -209 -209 -209 -209 -209 -209 -209 -209 -209 -209 -209 -209 -209 -209 -209 -193 -209 -209 -209 -209 -209 -209 -209 -209 -209 -209 -209 -209 -209 -209 -209 -193 -209 253 254 -209 -209 -209 -209 -209 -193 -193 -193 204 -193 -193 -193 -209 33 35 39 39 42 42 43 43 46 48 50 51 53 53 55 56 57 57 58 59 61 60 61 66 63 67 69 69 70 72 73 73 73 76 79 76 79 80 78 84 85 86 86 86 87 88 89 90 90 91 91 95 96 99 100 102 104 110 107 107 107 107 112 114 115 116 115 121 120 121 121 122 122 125 126 126 126 127 130 131 133 134 136 136 141 150 147 147 151 -193 155 156 156 156 546 158 159 159 155 162 162 163 162 164 166 166 167 167 168 169 169 170 170 170 171 173 172 174 176 177 179 180 182 -193 -193 -193 187 186 187 188 189 0 0 0 0 0
    0 0 0 0 0 0 0 0 0 0 0 0 0 0 0 0 0 0 0 0 0 0 0 0 0 0 0 0 0 0 0 0 0 0 0 0 0 0 0 0 0 0 0 0 0 0 0 0 0 0 0 0 0 0 0 0 0 0 0 0 0 0 0 0 0 0 0 0 0 43 43 45 43 43 43 42 43 40 42 43 37 39 39 39 38 38 38 38 37 36 35 34 35 34 33 33 32 31 32 31 30 30 29 28 28 27 27 25 25 25 24 24 23 22 22 22 23 20 21 20 19 20 20 20 20 13 -209 -209 -209 -209 -209 -209 42 -193 -193 -209 -209 63 -209 -209 -209 -209 -209 -193 -209 -209 -209 -209 -209 -209 -209 -209 -209 -193 -209 -209 -209 -209 -209 -209 -193 -193 0 0 -209 -193 -209 -209 -209 253 254 -209 -209 -209 -209 -209 -209 -209 -209 204 -209 -209 -193 -209 30 35 39 40 41 41 42 43 46 50 51 52 54 54 55 56 56 57 57 58 60 59 60 65 62 66 69 68 70 72 73 73 73 76 78 76 79 80 78 84 85 85 85 86 87 88 88 90 90 90 91 95 98 100 102 103 104 109 108 107 108 107 113 116 116 117 117 121 121 121 122 122 122 125 126 126 126 127 131 131 133 133 135 135 139 149 146 146 150 -193 155 155 -193 -193 546 157 158 159 155 162 162 162 162 164 166 166 167 167 168 169 169 169 170 170 171 172 172 174 177 177 179 181 -193 -193 -193 -193 187 186 188 188 189 0 0 0 0 0
    0 0 0 0 0 0 0 0 0 0 0 0 0 0 0 0 0 0 0 0 0 0 0 0 0 0 0 0 0 0 0 0 0 0 0 0 0 0 0 0 0 0 0 0 0 0 0 0 0 0 0 0 0 0 0 0 0 0 0 0 0 0 0 0 0 0 0 0 0 43 43 44 43 43 43 42 42 39 41 42 35 38 38 38 38 37 37 37 37 36 34 34 35 34 33 33 32 31 32 32 30 30 29 28 28 27 27 26 25 25 23 23 23 22 21 22 23 19 21 21 20 21 21 21 20 14 -209 -209 -209 -209 -209 -193 43 43 -193 47 53 59 -193 -209 -209 -209 -193 157 -209 -209 -209 -209 -209 -209 -209 -209 -209 -209 -209 -209 -209 -209 -209 -193 -193 0 0 0 0 0 -193 -193 0 -209 -209 -209 -209 -209 -209 -209 -209 -209 -209 -209 -209 -209 -209 -209 29 34 39 39 40 40 42 43 47 50 51 52 53 54 55 55 56 57 57 58 59 59 60 65 63 66 68 68 70 72 73 73 73 76 78 76 79 79 78 84 85 85 85 86 86 87 88 89 89 90 91 95 -193 -193 -193 103 104 107 108 108 108 107 114 117 117 118 118 121 121 121 122 122 122 125 126 126 126 127 131 132 132 133 135 135 139 149 146 145 150 -193 -193 -193 -193 -193 545 156 157 158 154 161 162 162 162 163 166 166 166 167 168 169 169 169 170 170 171 173 173 175 178 178 180 181 -193 -193 -193 -193 187 186 188 188 189 0 0 0 0 0
    0 0 0 0 0 0 0 0 0 0 0 0 0 0 0 0 0 0 0 0 0 0 0 0 0 0 0 0 0 0 0 0 0 0 0 0 0 0 0 0 0 0 0 0 0 0 0 0 0 0 0 0 0 0 0 0 0 0 0 0 0 0 0 0 0 0 0 0 0 43 43 44 43 43 43 41 42 39 41 42 -225 37 38 38 38 37 37 37 37 36 34 34 35 34 33 33 32 31 31 33 30 30 29 28 28 27 27 26 25 25 24 23 23 22 22 22 23 18 21 21 19 19 20 20 19 10 -209 782 794 -193 -209 -209 -193 44 -193 46 50 -193 -193 -209 -193 -209 -209 157 -209 -209 -209 -209 -209 -209 -193 -209 -209 -209 -209 -193 -193 -193 0 0 0 0 0 0 0 0 -193 -193 0 -209 -209 52 53 51 -193 -209 -209 -209 -209 -209 -209 -209 -209 -209 29 35 39 39 40 40 41 43 48 49 51 52 53 54 55 55 56 57 58 59 59 59 60 66 63 65 68 68 70 72 72 72 72 75 77 75 79 78 79 84 85 85 85 85 86 87 87 88 88 89 90 -193 -193 -193 -193 103 105 108 109 108 108 108 114 117 117 118 -177 -177 121 121 121 122 121 124 125 126 125 127 130 131 132 132 135 136 139 148 145 145 150 -193 -193 -193 547 546 544 155 156 157 154 161 162 162 161 163 166 166 166 168 168 169 169 169 170 170 171 174 173 176 179 179 180 181 -193 -209 -193 186 187 187 188 189 189 0 0 0 0 0
    0 0 0 0 0 0 0 0 0 0 0 0 0 0 0 0 0 0 0 0 0 0 0 0 0 0 0 0 0 0 0 0 0 0 0 0 0 0 0 0 0 0 0 0 0 0 0 0 0 0 0 0 0 0 0 0 0 0 0 0 0 0 0 0 0 0 0 0 0 44 43 44 43 43 43 42 42 39 41 42 -225 -225 39 38 37 37 37 36 36 36 34 34 35 34 34 33 33 32 31 33 30 30 30 29 28 27 27 26 25 25 24 24 23 23 22 23 23 17 20 20 18 17 19 18 18 -209 -209 -193 793 -209 -209 45 43 45 48 47 48 53 -193 -209 -209 -209 -209 -177 -193 -209 -209 -209 -209 -193 251 -209 -209 -209 -209 -193 0 0 0 0 0 0 0 0 0 0 0 0 0 -193 -193 -177 50 50 -209 -209 -209 -209 -209 -209 -209 -209 -209 -193 29 36 39 39 40 40 41 43 48 49 51 52 53 54 54 55 55 57 58 58 58 59 59 66 63 65 68 68 70 72 72 72 72 75 76 75 78 78 79 84 84 84 85 85 86 87 87 88 88 89 -193 -193 -193 -193 -193 103 105 107 109 108 108 108 113 116 116 117 -177 -177 121 121 121 121 121 123 124 125 125 126 130 131 131 132 134 135 138 147 144 144 150 156 -193 -193 546 544 542 -193 155 157 154 161 163 162 162 163 166 166 167 168 168 169 169 169 170 170 172 175 175 177 180 180 181 182 184 184 186 186 188 187 189 190 190 0 0 0 0 0
    0 0 0 0 0 0 0 0 0 0 0 0 0 0 0 0 0 0 0 0 0 0 0 0 0 0 0 0 0 0 0 0 0 0 0 0 0 0 0 0 0 0 0 0 0 0 0 0 0 0 0 0 0 0 0 0 0 0 0 0 0 0 0 0 0 0 0 0 0 44 43 44 43 43 43 42 42 40 41 42 -225 -225 -225 37 36 36 36 35 35 36 34 33 35 34 34 33 33 32 31 34 31 31 31 29 29 28 28 27 25 25 24 24 23 23 22 22 22 15 19 18 15 14 17 16 17 -209 -209 -209 792 805 -209 -209 -209 -209 -209 -209 -209 -209 -209 -209 -209 -209 -209 -193 -209 -209 -209 -209 -209 252 252 -209 250 -209 -209 -193 -193 0 0 0 0 0 0 0 0 0 0 0 -193 -193 -193 46 -193 -193 -209 -209 -209 -209 -209 -209 -193 -209 -209 25 29 37 39 40 40 40 41 43 49 50 52 53 54 55 55 55 56 57 58 58 58 59 59 67 63 65 68 68 71 72 72 72 72 74 76 75 77 77 79 83 84 83 84 85 85 87 87 87 88 -193 -209 -193 960 -193 -193 104 105 108 110 108 109 108 113 116 115 116 -177 -177 120 120 120 121 120 123 124 124 124 126 129 130 130 130 133 134 137 147 143 144 149 155 152 -193 544 543 541 154 155 156 153 160 163 162 162 163 167 167 167 168 169 169 170 170 171 170 172 176 176 179 181 181 182 183 184 185 186 187 188 188 189 190 190 0 0 0 0 0
    0 0 0 0 0 0 0 0 0 0 0 0 0 0 0 0 0 0 0 0 0 0 0 0 0 0 0 0 0 0 0 0 0 0 0 0 0 0 0 0 0 0 0 0 0 0 0 0 0 0 0 0 0 0 0 0 0 0 0 0 0 0 0 0 0 0 0 0 0 45 44 45 44 43 43 42 42 40 41 42 -225 -225 -225 37 36 36 36 35 35 36 35 34 35 34 34 34 33 32 31 34 31 31 31 30 29 28 28 28 26 25 25 24 23 23 21 21 22 14 17 15 13 13 15 15 17 -209 -209 -209 789 798 -209 -209 -209 -209 -209 -209 -209 -209 -209 -209 -209 -209 -209 -193 -209 -209 -209 -209 -209 251 -193 -209 -209 -209 -193 -193 -193 0 0 0 0 0 0 0 0 0 0 -193 -209 -193 -193 45 -193 -193 -209 -209 -209 -193 -209 -209 70 -209 -209 24 30 39 40 40 40 39 41 44 49 50 51 52 53 54 54 54 55 56 57 57 57 57 58 66 63 65 68 68 71 71 71 72 72 74 75 74 77 76 80 83 83 82 84 85 85 86 86 87 88 -209 -209 -193 -193 -193 -193 105 106 109 111 109 109 109 113 116 115 116 116 117 119 120 120 120 118 122 123 123 123 124 126 128 128 129 131 133 136 146 143 144 150 155 151 151 -193 -193 -177 -193 154 155 153 160 163 163 163 163 167 167 168 169 169 169 170 170 171 170 172 176 177 179 182 182 183 184 185 186 187 188 189 189 189 191 191 0 0 0 0 0
    0 0 0 0 0 0 0 0 0 0 0 0 0 0 0 0 0 0 0 0 0 0 0 0 0 0 0 0 0 0 0 0 0 0 0 0 0 0 0 0 0 0 0 0 0 0 0 0 0 0 0 0 0 0 0 0 0 0 0 0 0 0 0 0 0 0 0 0 0 45 44 45 44 43 43 42 42 40 41 42 -225 -225 -225 -225 36 35 36 35 35 35 35 34 35 34 34 34 33 32 31 34 32 31 31 31 29 29 29 28 26 26 25 24 23 23 21 21 21 14 16 13 10 11 12 12 14 -209 -209 -209 -209 -209 -209 -209 -209 -209 -209 -209 -209 -209 -209 -193 -209 -209 -209 -209 -209 -209 -209 -209 -209 -209 -209 -209 -209 -209 -209 -193 -193 0 0 0 0 0 0 0 0 0 0 -193 -209 -193 -193 44 -193 48 -209 -209 -209 -193 -209 -209 -209 -209 -209 29 35 39 40 40 41 39 42 44 47 48 50 52 53 53 53 54 55 56 57 57 57 57 58 65 64 65 68 68 71 71 71 71 72 73 74 74 76 76 80 82 83 81 84 85 85 86 87 87 -209 -209 -209 -209 -193 -209 106 107 108 110 111 109 110 110 113 116 115 115 115 116 119 119 119 119 116 121 122 122 122 124 125 127 127 127 130 132 135 147 146 146 150 155 150 151 151 -193 -177 -193 153 154 -209 159 163 163 163 163 168 167 168 169 169 169 170 170 171 170 171 176 177 179 182 183 184 -193 186 187 187 188 189 190 190 192 192 0 0 0 0 0
    0 0 0 0 0 0 0 0 0 0 0 0 0 0 0 0 0 0 0 0 0 0 0 0 0 0 0 0 0 0 0 0 0 0 0 0 0 0 0 0 0 0 0 0 0 0 0 0 0 0 0 0 0 0 0 0 0 0 0 0 0 0 0 0 0 0 0 0 0 45 44 45 44 43 43 42 42 41 41 42 -225 -225 -225 -225 36 35 35 35 35 34 35 34 34 35 34 34 33 32 32 34 32 32 31 31 30 29 30 29 26 26 25 24 23 23 21 21 22 16 17 14 10 11 12 12 15 -209 -209 -209 -209 -209 -209 -209 -209 -209 -209 -209 -209 -209 -209 -209 -209 -209 -209 -209 -209 -209 -209 -209 -209 -209 -209 -209 -209 -209 -209 -209 -193 0 0 0 0 0 0 0 0 0 -177 -193 -209 41 44 44 -193 -193 -209 -209 -209 -209 -209 -193 -209 -209 34 36 38 39 40 40 41 39 42 44 46 47 49 51 52 53 53 53 55 57 57 57 57 58 58 64 64 65 68 68 71 71 71 72 73 73 73 74 76 76 79 82 82 80 84 85 86 86 87 -193 -209 -193 -193 -209 -193 -209 107 107 108 110 112 110 110 110 113 116 114 115 115 115 118 119 118 118 114 121 121 122 122 123 123 126 125 126 129 131 135 147 148 148 151 154 150 150 150 151 -177 152 152 154 -209 159 163 163 163 163 167 167 167 168 168 169 169 169 170 169 171 175 177 179 182 183 184 185 186 187 188 189 190 190 191 193 193 0 0 0 0 0
    0 0 0 0 0 0 0 0 0 0 0 0 0 0 0 0 0 0 0 0 0 0 0 0 0 0 0 0 0 0 0 0 0 0 0 0 0 0 0 0 0 0 0 0 0 0 0 0 0 0 0 0 0 0 0 0 0 0 0 0 0 0 0 0 0 0 0 0 0 45 44 45 44 43 43 42 42 41 41 42 31 -225 -225 -225 -225 36 34 34 34 33 34 34 34 35 34 34 34 32 32 35 32 32 31 31 30 29 30 29 26 26 25 24 23 23 22 21 21 17 19 15 11 12 13 14 18 -209 -209 -209 -209 -209 -209 -209 -209 -209 -209 -209 -209 -209 -209 -209 -209 -209 -209 -209 100 -209 -209 -209 -209 -209 -209 -209 -209 -209 -209 -193 -193 0 0 0 0 0 0 0 0 -193 -209 -193 37 41 44 42 -193 -193 -209 -209 -209 -193 -209 -209 -209 -209 34 35 37 38 39 40 40 40 43 45 48 48 49 51 51 52 53 52 53 55 56 56 56 58 58 62 64 66 69 68 71 71 71 72 73 73 73 74 77 77 78 81 81 79 84 85 85 86 87 -209 -209 -193 -193 -193 -193 -193 105 106 108 110 112 110 110 110 113 116 114 114 114 114 118 118 118 117 111 121 121 121 121 122 122 124 124 125 129 132 135 147 148 148 151 152 149 149 149 150 -193 151 152 -193 -209 159 163 163 163 163 167 167 167 168 168 169 169 169 170 169 170 175 177 179 183 184 185 186 187 188 188 189 190 191 191 194 193 0 0 0 0 0
    0 0 0 0 0 0 0 0 0 0 0 0 0 0 0 0 0 0 0 0 0 0 0 0 0 0 0 0 0 0 0 0 0 0 0 0 0 0 0 0 0 0 0 0 0 0 0 0 0 0 0 0 0 0 0 0 0 0 0 0 0 0 0 0 0 0 0 0 0 45 44 44 44 43 43 42 42 41 41 42 33 -225 -225 -225 -225 36 35 33 34 33 32 33 34 34 34 33 33 32 31 35 32 32 31 31 30 29 30 29 26 26 25 24 23 23 22 21 22 19 19 15 11 13 14 15 18 -209 -209 -209 -209 -209 -209 -209 -209 -209 -209 -209 -209 -209 -209 -209 -209 -209 -193 -209 99 -209 -209 -209 -209 -209 -209 -209 -209 -209 -209 -193 -209 0 0 0 0 0 0 0 0 -209 -209 30 -225 -225 44 39 -209 -209 -225 -209 -209 -193 -209 -209 -209 38 36 36 38 39 39 40 41 42 45 47 49 49 50 51 51 52 53 52 53 55 56 57 56 58 58 62 65 67 69 69 71 71 72 73 74 73 74 74 77 77 78 80 80 78 84 85 85 86 88 -209 -209 91 -193 -209 -193 -193 105 106 108 110 113 110 110 110 112 115 113 113 113 112 117 117 117 117 110 121 121 121 121 121 122 123 124 125 129 133 136 147 148 149 150 152 148 149 149 150 -193 151 151 -193 -209 159 163 163 163 163 167 167 166 168 168 169 169 169 170 169 170 175 177 179 183 185 186 186 187 189 189 190 191 191 191 194 193 0 0 0 0 0
    0 0 0 0 0 0 0 0 0 0 0 0 0 0 0 0 0 0 0 0 0 0 0 0 0 0 0 0 0 0 0 0 0 0 0 0 0 0 0 0 0 0 0 0 0 0 0 0 0 0 0 0 0 0 0 0 0 0 0 0 0 0 0 0 0 0 0 0 0 45 44 44 44 43 43 42 42 41 42 43 34 -225 -225 -225 -225 -225 35 34 34 33 32 33 34 34 34 33 33 33 32 34 32 32 31 31 30 29 29 29 26 26 25 24 23 23 22 22 22 19 19 15 12 12 14 14 17 -209 -209 -209 -209 -209 -209 -209 -209 -209 -209 -209 -209 -209 -209 -193 -193 -209 -209 -209 -193 -193 -193 -193 -209 -209 -209 -209 -209 -209 -209 -193 -193 0 0 0 0 0 0 0 -193 -209 -209 -225 -225 -225 -225 -225 -225 -225 -225 -225 -209 -209 -193 -209 -209 38 37 37 38 39 39 41 41 43 47 49 51 51 51 52 52 53 54 53 54 54 55 57 56 58 58 61 66 69 -193 69 71 72 73 73 75 73 73 74 77 77 78 80 80 78 84 84 85 86 -193 -209 -193 92 94 -209 100 -193 106 107 109 111 112 110 110 110 111 115 112 112 112 112 116 117 117 116 109 120 120 120 120 120 120 122 123 125 129 133 135 146 149 149 150 151 149 149 149 150 -177 152 152 -193 -209 159 163 163 163 162 167 167 166 168 167 169 169 169 170 169 170 175 178 179 184 186 186 187 188 189 189 191 191 192 191 194 193 0 0 0 0 0
    0 0 0 0 0 0 0 0 0 0 0 0 0 0 0 0 0 0 0 0 0 0 0 0 0 0 0 0 0 0 0 0 0 0 0 0 0 0 0 0 0 0 0 0 0 0 0 0 0 0 0 0 0 0 0 0 0 0 0 0 0 0 0 0 0 0 0 0 0 44 43 44 44 43 43 42 42 41 41 42 33 -225 -225 -225 -225 -225 36 34 34 33 32 32 34 34 34 33 33 33 32 34 32 32 31 30 31 29 29 29 26 26 25 23 23 22 22 21 21 20 20 15 13 13 16 16 18 -193 -193 -209 -209 -209 -209 -209 -209 -209 -209 -209 -209 -193 -209 35 34 34 -193 -193 -193 -193 -193 -193 -193 -193 -193 -193 -193 -193 -193 -209 -193 -193 0 0 0 0 -225 -225 -225 -225 -225 -225 -225 -225 -225 -225 -225 -225 -225 -225 192 -193 -193 -209 -209 38 38 39 39 39 40 41 41 44 49 50 52 52 52 52 52 53 54 52 53 53 53 55 55 57 57 61 67 70 72 70 71 72 73 74 75 72 73 73 76 77 77 79 79 78 84 84 85 85 -209 -209 92 93 95 -193 101 103 106 107 108 110 112 110 110 110 111 115 112 112 112 112 116 116 116 115 108 119 119 119 119 118 117 120 122 126 131 135 137 147 149 149 149 151 149 150 150 151 -177 -193 -193 155 -193 159 163 163 163 162 167 167 166 168 168 169 170 170 170 169 170 175 178 179 184 186 187 187 189 189 189 191 191 192 191 194 193 0 0 0 0 0
    0 0 0 0 0 0 0 0 0 0 0 0 0 0 0 0 0 0 0 0 0 0 0 0 0 0 0 0 0 0 0 0 0 0 0 0 0 0 0 0 0 0 0 0 0 0 0 0 0 0 0 0 0 0 0 0 0 0 0 0 0 0 0 0 0 0 0 0 0 44 43 44 44 43 43 41 42 41 41 42 33 -225 -225 -225 -225 -225 36 35 34 32 32 32 34 34 34 33 33 33 31 34 32 32 31 30 30 30 28 29 26 26 24 23 22 22 21 21 21 20 20 15 14 14 17 17 19 16 16 -209 -209 -209 -209 -193 -209 -209 -209 -209 -193 -193 -209 33 34 34 -193 -193 -193 -193 -193 30 31 30 -193 -193 -193 -193 -193 -193 -193 -225 -225 0 -225 -225 -225 -225 -225 -225 -225 -225 -225 -225 -225 -225 -225 -225 -225 -225 -225 -225 -225 -209 -209 40 40 40 40 40 40 42 41 44 50 50 52 52 52 53 53 54 54 52 54 53 53 55 55 57 57 60 68 71 72 70 71 72 73 74 74 72 72 73 76 77 76 78 80 79 84 84 84 85 -209 -209 93 94 97 99 102 103 105 107 108 110 112 110 110 110 111 115 112 112 112 112 116 116 116 115 109 118 119 118 118 117 118 121 123 127 133 136 139 147 150 149 149 151 150 151 151 152 -193 153 154 156 155 159 164 163 163 162 167 167 166 168 168 169 170 170 170 170 170 175 178 179 184 187 187 188 189 190 190 191 192 193 192 194 193 0 0 0 0 0
    0 0 0 0 0 0 0 0 0 0 0 0 0 0 0 0 0 0 0 0 0 0 0 0 0 0 0 0 0 0 0 0 0 0 0 0 0 0 0 0 0 0 0 0 0 0 0 0 0 0 0 0 0 0 0 0 0 0 0 0 0 0 0 0 0 0 0 0 0 44 43 44 43 43 43 41 42 41 41 42 34 -225 -225 -225 -225 -225 -225 36 35 33 31 31 32 33 33 33 32 33 31 33 32 32 31 30 30 30 28 29 26 25 24 22 22 21 21 21 21 20 20 15 15 15 19 18 20 17 17 23 -209 -209 -209 841 -209 -209 -209 -209 140 -193 -209 -209 -193 -193 -193 -209 -193 -209 -209 -209 -209 -193 195 -193 -193 -193 -225 -225 -225 -225 -225 -225 -225 -225 -225 -225 -225 -225 -225 -225 -225 -225 -225 -225 -225 -225 -225 -225 -225 -225 -225 -225 39 39 39 40 40 39 40 42 42 44 51 49 51 52 52 52 52 53 54 52 53 52 52 55 54 56 56 60 68 72 73 71 71 72 72 73 74 71 72 73 75 76 76 79 80 80 84 84 85 86 89 -209 94 95 98 100 102 103 105 106 107 108 111 109 109 109 111 114 112 112 113 112 117 116 117 116 110 119 119 119 119 118 120 122 125 129 133 136 137 145 149 148 149 151 151 152 152 -193 -193 154 155 157 156 159 164 163 163 163 167 167 166 168 168 169 170 170 170 170 170 174 178 178 184 187 187 188 189 190 190 192 192 193 193 194 193 0 0 0 0 0
    0 0 0 0 0 0 0 0 0 0 0 0 0 0 0 0 0 0 0 0 0 0 0 0 0 0 0 0 0 0 0 0 0 0 0 0 0 0 0 0 0 0 0 0 0 0 0 0 0 0 0 0 0 0 0 0 0 0 0 0 0 0 0 0 0 0 0 0 0 44 43 44 43 43 42 41 42 41 41 42 35 -225 -225 -225 -225 -225 -225 35 35 33 32 31 31 33 33 33 32 33 31 33 32 31 30 30 30 29 27 28 26 25 24 22 22 21 21 21 21 20 19 16 16 15 18 18 19 16 16 24 -209 -209 -209 -209 -209 52 49 -209 -225 -225 -225 -225 -225 -225 -225 -225 100 -225 -193 -225 -193 -225 -225 -225 -225 -225 -225 -225 -225 -225 -225 -225 -225 -225 -225 -225 -225 -225 -225 -225 -225 -225 -225 -225 -225 -225 -225 -225 -225 -225 -225 -225 37 37 38 39 39 39 39 41 41 44 51 49 51 51 52 52 52 53 54 51 53 51 52 54 54 56 56 59 67 71 72 71 71 72 72 73 74 71 72 73 75 76 75 78 81 81 85 85 86 87 90 -209 94 96 98 100 102 103 104 106 107 107 111 109 109 109 110 114 112 112 113 112 117 117 117 117 111 119 119 119 119 120 121 124 127 131 134 136 136 143 146 146 147 151 152 153 153 -193 -193 155 156 159 158 160 164 164 164 163 167 167 166 168 167 169 169 170 170 169 170 174 177 178 184 186 187 188 190 191 190 193 192 193 193 194 192 0 0 0 0 0
    0 0 0 0 0 0 0 0 0 0 0 0 0 0 0 0 0 0 0 0 0 0 0 0 0 0 0 0 0 0 0 0 0 0 0 0 0 0 0 0 0 0 0 0 0 0 0 0 0 0 0 0 0 0 0 0 0 0 0 0 0 0 0 0 0 0 0 0 0 43 43 43 43 42 42 41 42 41 41 42 35 -225 -225 -225 36 36 35 34 35 34 32 31 31 33 33 32 33 33 31 32 32 31 30 30 30 29 27 27 25 25 23 22 22 21 21 21 21 20 19 16 17 14 19 18 19 14 14 23 -209 -209 -225 -225 -225 -225 -225 -225 -225 -225 -225 -225 -225 -225 -225 -225 -225 -225 -225 -225 -225 -225 -225 -225 -225 -225 -225 -225 -225 -225 -225 -225 -225 -225 -225 -225 -225 -225 -225 -225 -225 -225 -225 -225 -225 -225 -225 -225 -225 -225 -225 -225 36 36 37 38 39 38 39 41 41 45 51 49 52 51 52 52 51 53 54 50 52 50 50 52 54 56 56 59 67 70 71 71 71 72 72 73 74 71 73 73 75 76 74 78 82 82 85 84 87 88 91 92 94 95 98 100 101 103 103 104 106 106 110 109 109 109 110 114 113 114 114 113 118 118 118 118 116 119 120 120 121 121 123 126 131 133 134 136 136 141 144 144 145 150 -193 153 -193 -193 -193 156 157 160 159 160 164 164 164 163 166 167 166 167 167 168 169 170 170 169 170 173 177 179 184 187 187 189 190 191 191 193 192 193 192 193 192 0 0 0 0 0
    0 0 0 0 0 0 0 0 0 0 0 0 0 0 0 0 0 0 0 0 0 0 0 0 0 0 0 0 0 0 0 0 0 0 0 0 0 0 0 0 0 0 0 0 0 0 0 0 0 0 0 0 0 0 0 0 0 0 0 0 0 0 0 0 0 0 0 0 0 43 43 43 42 42 42 41 42 41 41 42 33 -225 -193 36 35 34 34 33 34 34 32 31 30 32 33 32 33 34 31 32 32 31 30 30 30 29 27 27 26 25 23 22 22 20 21 21 21 20 18 15 16 13 17 17 17 12 11 -225 -225 -225 -225 -225 -225 -225 -225 -225 -225 -225 -225 -225 -225 -225 -225 -225 -225 -225 -225 -225 -225 -225 -225 -225 -225 -225 -225 -225 -225 -225 -225 -225 -225 -225 -225 -225 -225 -225 -225 -225 -225 -225 -225 -225 -225 -225 -225 -225 -225 -225 -225 -225 37 37 37 38 39 39 39 41 41 45 51 49 52 51 52 51 51 52 53 50 52 49 50 51 53 56 56 58 67 69 71 71 71 72 72 73 73 71 73 73 74 76 75 78 83 83 84 84 87 88 90 91 93 94 97 99 101 102 103 104 105 106 110 108 108 109 110 114 115 115 116 115 120 119 119 119 120 120 120 121 122 124 126 129 132 133 134 135 136 140 142 142 144 150 -193 154 154 155 158 156 158 160 160 160 164 163 163 162 166 166 166 167 167 168 169 170 170 170 170 174 177 179 184 187 188 189 191 192 191 193 193 193 192 193 192 0 0 0 0 0
    0 0 0 0 0 0 0 0 0 0 0 0 0 0 0 0 0 0 0 0 0 0 0 0 0 0 0 0 0 0 0 0 0 0 0 0 0 0 0 0 0 0 0 0 0 0 0 0 0 0 0 0 0 0 0 0 0 0 0 0 0 0 0 0 0 0 0 0 0 44 43 43 43 42 42 41 42 41 41 41 33 -225 -225 36 33 32 31 31 32 33 31 31 30 30 34 32 32 34 32 32 32 31 31 30 30 29 28 28 26 25 23 22 22 20 20 20 21 19 18 14 15 12 16 15 15 10 -225 -225 -225 -225 -225 -225 -225 -225 -225 -225 -225 -225 -225 -225 -225 -225 -225 -225 -225 -225 -225 -225 -225 -225 -225 -225 -225 -225 -225 -225 -225 -225 -225 -225 -225 -225 -225 -225 -225 -225 -225 -225 -225 -225 -225 -225 -225 -225 -225 -225 -225 -225 -225 39 37 37 37 39 39 39 39 41 42 45 50 48 52 51 52 51 51 52 53 50 51 49 50 51 54 56 56 58 67 69 70 71 71 72 72 -193 -193 72 74 74 75 76 76 79 84 84 84 85 87 88 91 92 93 94 96 99 101 102 103 104 105 105 110 108 108 109 110 115 117 117 118 118 121 121 121 121 121 120 122 123 125 126 128 130 132 133 134 134 135 138 141 142 144 150 -193 155 155 156 159 157 159 161 160 160 164 163 163 162 166 166 165 167 167 168 169 170 170 170 170 174 178 179 184 186 187 189 190 192 191 193 193 193 192 193 193 0 0 0 0 0
    0 0 0 0 0 0 0 0 0 0 0 0 0 0 0 0 0 0 0 0 0 0 0 0 0 0 0 0 0 0 0 0 0 0 0 0 0 0 0 0 0 0 0 0 0 0 0 0 0 0 0 0 0 0 0 0 0 0 0 0 0 0 0 0 0 0 0 0 0 44 43 44 43 43 43 42 42 41 41 41 32 -225 -225 36 32 31 30 30 30 31 31 31 30 30 34 33 33 34 32 32 32 31 31 30 30 30 28 28 27 26 24 23 22 20 20 20 21 19 17 14 14 12 14 14 14 -225 -225 -225 -225 -225 -225 -225 -225 -225 -225 -225 -225 -225 -225 -225 -225 -225 -225 -225 -225 -225 -225 -225 -225 -225 -225 -225 -225 -225 -225 -225 -225 -225 -225 -225 -225 -225 -225 -225 -225 -225 -225 -225 -225 -225 -225 -225 -225 -225 -225 -225 -225 -225 -225 38 37 37 37 38 38 38 39 40 41 45 50 47 51 50 52 51 51 52 53 50 51 49 51 51 54 57 57 58 67 68 70 71 71 72 72 -193 -193 72 74 75 75 76 76 79 85 85 84 86 88 89 91 92 93 94 97 100 102 102 103 103 104 105 109 108 108 109 110 115 119 120 120 121 122 123 122 122 122 120 122 124 125 127 128 131 132 133 133 134 135 138 140 141 143 150 -193 155 155 156 159 157 159 161 161 159 164 163 163 161 165 166 165 166 166 167 169 170 170 170 170 174 178 179 183 186 187 189 189 191 191 192 192 193 192 193 192 0 0 0 0 0
    0 0 0 0 0 0 0 0 0 0 0 0 0 0 0 0 0 0 0 0 0 0 0 0 0 0 0 0 0 0 0 0 0 0 0 0 0 0 0 0 0 0 0 0 0 0 0 0 0 0 0 0 0 0 0 0 0 0 0 0 0 0 0 0 0 0 0 0 0 45 44 44 44 43 43 42 42 42 41 41 33 -225 -225 -193 33 -193 30 29 29 -193 -193 31 30 30 32 34 33 34 32 32 32 31 31 30 30 29 28 28 27 26 24 23 22 20 20 20 21 19 17 15 13 11 13 13 13 -225 -225 -225 -225 -225 -225 -225 -225 -225 -225 -225 -225 -225 -225 -225 -225 -225 -225 -225 -225 -225 -225 -225 -225 -225 -225 -225 -225 -225 -225 -225 -225 -225 -225 -225 -225 -225 -225 -225 -225 -225 -225 -225 -225 -225 -225 -225 -225 -225 -225 -225 -225 -225 -225 37 36 37 37 38 38 38 38 40 41 43 49 46 50 48 51 50 50 51 52 49 51 49 53 51 54 57 57 58 66 67 69 70 71 71 71 73 73 73 75 76 75 76 77 78 85 85 84 86 88 89 92 93 94 95 97 100 101 101 101 102 103 104 109 108 109 109 110 116 121 121 122 122 123 124 123 123 124 121 124 125 127 128 129 131 132 132 132 133 134 137 140 141 143 149 -193 -193 -193 156 159 157 159 160 160 159 163 162 162 160 165 165 165 166 166 167 169 170 170 170 170 173 177 179 183 185 187 188 189 191 190 192 192 193 192 192 192 0 0 0 0 0
    0 0 0 0 0 0 0 0 0 0 0 0 0 0 0 0 0 0 0 0 0 0 0 0 0 0 0 0 0 0 0 0 0 0 0 0 0 0 0 0 0 0 0 0 0 0 0 0 0 0 0 0 0 0 0 0 0 0 0 0 0 0 0 0 0 0 0 0 0 46 44 45 44 43 43 43 43 42 41 42 35 -225 -225 -193 -193 -193 29 28 28 -193 -193 30 29 30 30 34 33 33 32 32 32 31 30 30 29 29 28 28 28 26 25 24 22 20 20 20 21 18 16 15 13 11 13 13 13 -225 -225 -225 -225 -225 -225 -225 -225 -225 -225 -225 -225 -225 -225 -225 -225 -225 -225 -225 -225 -225 -225 -225 -225 -225 -225 -225 -225 -225 -225 -225 -225 -225 -225 -225 -225 -225 -225 -225 -225 -225 -225 -225 -225 -225 -225 -225 -225 -225 -225 -225 -225 -225 -225 36 37 37 37 38 38 38 38 40 41 43 48 46 50 47 51 50 50 51 52 49 51 49 53 52 54 57 57 58 65 66 68 70 70 71 -209 73 73 74 76 77 75 77 78 78 85 85 84 86 88 90 93 94 95 96 98 100 101 101 101 102 103 104 110 109 109 109 111 116 123 122 122 123 124 126 125 124 125 121 124 126 128 129 129 131 132 132 133 133 134 136 139 140 141 149 -193 -193 -193 -193 -193 156 159 160 160 158 163 162 162 160 164 165 164 166 166 167 169 170 170 170 170 173 177 178 183 185 186 188 189 191 190 192 192 194 193 194 193 0 0 0 0 0
    0 0 0 0 0 0 0 0 0 0 0 0 0 0 0 0 0 0 0 0 0 0 0 0 0 0 0 0 0 0 0 0 0 0 0 0 0 0 0 0 0 0 0 0 0 0 0 0 0 0 0 0 0 0 0 0 0 0 0 0 0 0 0 0 0 0 0 0 0 46 44 45 44 44 44 43 43 43 41 42 36 -225 40 -193 34 -193 29 29 29 -193 28 30 30 32 30 32 33 32 32 31 32 31 30 30 30 29 29 29 28 27 26 24 23 21 21 20 21 19 16 15 13 10 12 12 12 -225 -225 -225 -225 -225 -225 -225 -225 -225 -225 -225 -225 -225 -225 -225 -225 -225 -225 -225 -225 -225 -225 -225 -225 -225 -225 -225 -225 -225 -225 -225 -225 -225 -225 -225 -225 -225 -225 -225 -225 -225 -225 -225 -225 -225 -225 -225 -225 -225 -225 -225 -225 -225 38 35 36 36 36 37 38 37 38 39 40 42 48 46 50 47 50 50 49 50 51 48 50 49 52 51 54 57 57 58 64 65 67 70 70 -193 -209 -193 -193 -193 77 78 76 78 79 78 85 85 84 86 89 90 92 94 94 95 96 99 100 101 101 102 103 105 110 109 110 110 112 116 123 122 123 123 125 126 125 124 125 121 124 126 127 128 128 131 132 132 132 133 133 135 138 140 141 148 -193 -193 -193 -193 -193 156 159 159 160 158 162 161 161 159 163 164 164 165 166 166 169 170 170 170 170 173 176 178 182 184 186 188 189 191 190 192 193 194 193 194 194 0 0 0 0 0
    0 0 0 0 0 0 0 0 0 0 0 0 0 0 0 0 0 0 0 0 0 0 0 0 0 0 0 0 0 0 0 0 0 0 0 0 0 0 0 0 0 0 0 0 0 0 0 0 0 0 0 0 0 0 0 0 0 0 0 0 0 0 0 0 0 0 0 0 0 46 45 45 45 44 44 44 43 43 41 42 36 38 35 34 32 30 29 28 28 -193 28 32 30 34 31 31 33 32 31 31 32 31 30 30 30 29 29 29 29 27 26 25 24 21 21 21 21 19 16 15 13 10 11 11 11 -225 -225 -225 -225 -225 -225 -225 -225 -225 -225 -225 -225 -225 -225 -225 -225 -225 -225 -225 -225 -225 -225 -225 -225 -225 -225 -225 -225 -225 -225 -225 -225 -225 -225 -225 -225 -225 -225 -225 -225 -225 -225 -225 -225 -225 -225 -225 -225 -225 -225 -225 -225 -225 37 35 36 35 35 36 37 37 38 39 41 43 48 46 49 47 49 50 49 49 51 48 51 49 52 52 54 58 58 58 64 64 67 69 -193 -193 -193 -193 -193 -193 77 79 76 79 79 77 84 84 83 86 89 90 92 94 94 96 96 99 100 101 102 102 103 105 110 109 110 110 113 116 123 122 123 123 124 125 124 124 125 121 122 124 125 126 127 130 131 131 132 132 133 135 139 140 141 148 -193 -193 -193 -193 -177 154 157 158 159 157 161 160 160 158 162 163 164 164 166 165 169 170 169 170 170 172 176 177 182 184 185 187 189 190 190 191 192 195 193 195 195 0 0 0 0 0
    0 0 0 0 0 0 0 0 0 0 0 0 0 0 0 0 0 0 0 0 0 0 0 0 0 0 0 0 0 0 0 0 0 0 0 0 0 0 0 0 0 0 0 0 0 0 0 0 0 0 0 0 0 0 0 0 0 0 0 0 0 0 0 0 0 0 0 0 0 47 45 46 45 44 44 44 44 44 41 42 34 34 30 30 29 29 28 27 28 -193 27 33 29 35 31 31 32 32 31 31 32 31 30 30 30 29 28 29 29 27 26 25 24 21 21 21 21 19 16 15 13 10 11 11 11 -225 -225 -225 -225 -225 -225 -225 -225 -225 -225 -225 -225 -225 -225 -225 -225 -225 -225 -225 -225 -225 -225 -225 -225 -225 -225 -225 -225 -225 -225 -225 -225 -225 -225 -225 -225 -225 -225 -225 -225 -225 -225 -225 -225 -225 -225 -225 -225 -225 -225 -225 -225 -225 36 35 36 35 35 36 37 36 38 39 41 42 47 46 49 47 49 50 49 49 51 48 51 49 53 53 55 58 58 58 64 63 66 69 -177 -193 -193 74 -193 -193 78 80 77 80 80 77 84 84 83 86 89 90 92 94 94 95 96 98 100 100 101 102 103 105 109 109 110 111 114 116 122 122 122 123 124 124 123 122 124 121 122 123 125 126 127 130 131 131 132 133 133 135 140 140 141 147 -193 151 151 152 -177 -193 156 156 158 156 160 159 159 158 161 162 163 163 166 165 169 170 169 170 170 172 177 177 181 183 185 187 189 189 190 190 192 195 193 195 197 0 0 0 0 0
    0 0 0 0 0 0 0 0 0 0 0 0 0 0 0 0 0 0 0 0 0 0 0 0 0 0 0 0 0 0 0 0 0 0 0 0 0 0 0 0 0 0 0 0 0 0 0 0 0 0 0 0 0 0 0 0 0 0 0 0 0 0 0 0 0 0 0 0 0 47 45 46 45 45 45 45 44 45 41 42 34 32 29 29 29 28 27 27 27 -193 -193 33 28 34 31 31 31 32 31 30 31 30 29 30 29 29 28 29 29 27 27 25 24 21 21 21 21 19 16 15 13 9 11 11 11 -225 -225 -225 -225 -225 -225 -225 -225 -225 -225 -225 -225 -225 -225 -225 -225 -225 -225 -225 -225 -225 -225 -225 -225 -225 -225 -225 -225 -225 -225 -225 -225 -225 -225 -225 -225 -225 -225 -225 -225 -225 -225 -225 -225 -225 -225 -225 -225 -225 -225 -225 -225 -225 35 35 36 35 34 36 37 37 39 40 42 43 47 46 49 47 49 50 49 49 51 48 51 49 53 54 55 58 58 58 64 63 66 69 -193 70 -193 74 75 76 78 80 77 80 81 77 83 84 83 86 89 90 92 94 95 96 97 98 101 101 103 103 103 105 109 110 112 111 114 115 119 120 120 121 121 122 121 121 123 120 121 122 124 125 126 130 130 130 132 133 134 135 140 140 141 147 152 149 150 151 -177 -193 155 155 157 155 159 158 158 157 160 162 163 162 165 164 169 170 169 170 170 172 177 176 181 183 184 187 189 189 190 189 190 194 190 193 196 0 0 0 0 0
    0 0 0 0 0 0 0 0 0 0 0 0 0 0 0 0 0 0 0 0 0 0 0 0 0 0 0 0 0 0 0 0 0 0 0 0 0 0 0 0 0 0 0 0 0 0 0 0 0 0 0 0 0 0 0 0 0 0 0 0 0 0 0 0 0 0 0 0 0 48 46 47 46 45 45 45 44 45 41 42 34 32 29 30 29 29 27 27 27 26 -193 33 29 34 31 32 32 32 31 30 31 30 30 30 30 29 28 29 29 27 27 25 24 21 21 21 21 18 15 15 13 9 10 10 10 -225 -225 -225 -225 -225 -225 -225 -225 -225 -225 -225 -225 -225 -225 -225 -225 -225 -225 -225 -225 -225 -225 -225 -225 -225 -225 -225 -225 -225 -225 -225 -225 -225 -225 -225 -225 -225 -225 -225 -225 -225 -225 -225 -225 -225 -225 -225 -225 -225 -225 -225 -225 36 33 33 35 34 34 36 36 37 40 41 43 44 47 46 49 47 48 50 49 49 51 48 51 50 53 54 55 58 58 58 64 63 66 70 69 71 -193 75 75 76 78 80 77 81 81 76 84 84 83 86 89 90 93 95 97 98 98 100 101 102 103 103 104 106 110 110 113 111 113 115 117 118 118 118 119 120 121 121 122 121 121 122 123 124 125 129 130 131 132 133 134 136 142 141 141 146 151 148 149 150 -193 151 154 153 156 154 158 158 158 157 159 161 162 162 165 164 168 170 169 169 169 172 177 175 180 182 183 186 -193 -193 -193 -193 190 194 -209 -209 196 0 0 0 0 0
    0 0 0 0 0 0 0 0 0 0 0 0 0 0 0 0 0 0 0 0 0 0 0 0 0 0 0 0 0 0 0 0 0 0 0 0 0 0 0 0 0 0 0 0 0 0 0 0 0 0 0 0 0 0 0 0 0 0 0 0 0 0 0 0 0 0 0 0 0 48 46 47 46 45 45 45 44 46 41 42 36 31 31 32 32 31 29 28 29 -209 -209 -193 29 34 30 31 32 32 31 30 31 31 30 30 30 29 28 29 29 27 27 25 24 21 21 20 21 18 15 14 13 9 10 10 10 -225 -225 -225 -225 -225 -225 -225 -225 -225 -225 -225 -225 -225 -225 -225 -225 -225 -225 -225 -225 -225 -225 -225 -225 -225 -225 -225 -225 -225 -225 -225 -225 -225 -225 -225 -225 -225 -225 -225 -225 -225 -225 -225 -225 -225 -225 -225 -225 -225 -225 -225 -225 35 33 33 34 33 34 36 36 37 39 40 43 43 47 45 48 46 48 50 49 48 51 48 51 50 54 54 54 58 58 58 65 63 66 69 70 71 74 75 -193 -193 78 80 77 80 81 76 84 84 84 86 89 91 94 95 98 99 100 101 102 103 104 104 106 106 109 109 112 110 112 114 116 116 116 117 118 118 120 120 122 121 121 122 123 123 124 129 130 131 132 133 134 136 143 141 141 145 151 147 147 149 151 149 152 152 155 154 157 157 157 156 159 161 162 161 165 163 168 170 168 169 169 171 176 175 179 181 181 186 -193 -193 -193 -193 -193 -193 196 -209 197 0 0 0 0 0
    0 0 0 0 0 0 0 0 0 0 0 0 0 0 0 0 0 0 0 0 0 0 0 0 0 0 0 0 0 0 0 0 0 0 0 0 0 0 0 0 0 0 0 0 0 0 0 0 0 0 0 0 0 0 0 0 0 0 0 0 0 0 0 0 0 0 0 0 0 48 46 46 46 45 45 45 44 46 41 42 38 30 30 31 33 31 -193 28 -193 -209 -193 -193 28 33 30 31 32 31 31 30 31 31 30 30 30 29 29 29 30 26 26 24 24 20 20 20 20 18 14 14 13 9 9 9 9 -225 -225 -225 -225 -225 -225 -225 -225 -225 -225 -225 -225 -225 -225 -225 -225 -225 -225 -225 -225 -225 -225 -225 -225 -225 -225 -225 -225 -225 -225 -225 -225 -225 -225 -225 -225 -225 -225 -225 -225 -225 -225 -225 -225 -225 -225 -225 -225 -225 -225 -225 -225 33 32 32 34 32 35 35 36 38 40 40 43 43 46 45 47 46 47 49 48 47 50 47 51 50 53 54 54 58 58 58 64 62 65 69 69 71 74 74 -193 -193 78 79 76 80 80 75 83 84 85 85 88 90 93 95 100 102 -209 -193 103 105 106 106 108 108 109 110 114 112 114 115 116 116 117 117 118 118 119 119 121 120 121 122 122 123 124 129 131 131 133 133 134 135 144 141 141 144 150 146 146 147 150 148 151 151 154 153 157 157 157 156 159 161 161 161 165 163 168 169 168 169 169 171 175 174 177 180 -193 185 -193 -193 -193 -193 -193 198 198 -193 198 0 0 0 0 0
    0 0 0 0 0 0 0 0 0 0 0 0 0 0 0 0 0 0 0 0 0 0 0 0 0 0 0 0 0 0 0 0 0 0 0 0 0 0 0 0 0 0 0 0 0 0 0 0 0 0 0 0 0 0 0 0 0 0 0 0 0 0 0 0 0 0 0 0 0 48 46 46 46 45 45 45 44 46 41 43 38 30 30 31 32 31 -193 28 -193 -193 -193 34 29 33 30 30 32 31 31 30 31 31 30 30 30 29 29 29 30 27 26 24 24 20 20 20 20 17 14 13 12 9 9 9 9 -225 -225 -225 -225 -225 -225 -225 -225 -225 -225 -225 -225 -225 -225 -225 -225 -225 -225 -225 -225 -225 -225 -225 -225 -225 -225 -225 -225 -225 -225 -225 -225 -225 -225 -225 -225 -225 -225 -225 -225 -225 -225 -225 -225 -225 -225 -225 -225 -225 -225 -225 35 31 31 31 33 31 35 35 36 38 40 40 44 43 46 44 47 46 46 49 48 46 49 47 50 49 53 54 54 58 59 59 65 62 65 69 69 70 74 74 -193 -193 77 78 76 79 80 75 84 85 86 85 89 90 92 95 100 -209 -209 104 105 106 109 108 109 109 109 112 114 112 114 115 116 116 116 117 117 117 119 119 120 120 120 122 122 123 123 129 131 132 134 134 135 135 143 141 141 143 149 145 145 146 149 147 150 151 153 153 157 157 157 156 159 161 161 161 165 162 168 169 168 169 -193 171 175 174 176 179 -193 183 -209 -193 -193 -193 195 197 197 197 198 0 0 0 0 0
    0 0 0 0 0 0 0 0 0 0 0 0 0 0 0 0 0 0 0 0 0 0 0 0 0 0 0 0 0 0 0 0 0 0 0 0 0 0 0 0 0 0 0 0 0 0 0 0 0 0 0 0 0 0 0 0 0 0 0 0 0 0 0 0 0 0 0 0 0 49 46 47 46 46 45 46 45 47 42 43 39 28 30 28 30 -193 -209 26 26 -193 -193 33 29 33 30 30 32 31 31 30 31 31 30 30 30 29 29 29 30 27 26 25 24 20 20 19 20 16 13 13 12 0 0 0 0 -225 -225 -225 -225 -225 -225 -225 -225 -225 -225 -225 -225 -225 -225 -225 -225 -225 -225 -225 -225 -225 -225 -225 -225 -225 -225 -225 -225 -225 -225 -225 -225 -225 -225 -225 -225 -225 -225 -225 -225 -225 -225 -225 -225 -225 -225 -225 -225 -225 -225 -225 33 30 30 30 31 30 35 34 36 37 39 40 43 42 45 44 46 46 46 48 47 46 48 46 50 48 53 53 53 58 58 58 65 62 65 69 68 70 73 73 -193 -193 76 78 76 79 81 75 85 86 87 85 89 90 92 94 100 101 102 102 104 107 109 108 109 108 110 112 114 112 112 115 115 115 116 116 116 117 118 118 120 120 121 122 123 124 124 130 131 132 133 133 135 135 143 142 141 143 149 145 144 146 149 146 149 150 153 153 157 157 157 157 159 161 161 161 164 161 167 168 167 -193 -193 170 174 174 174 177 -193 182 -193 -193 -193 -193 193 195 196 196 198 0 0 0 0 0
    0 0 0 0 0 0 0 0 0 0 0 0 0 0 0 0 0 0 0 0 0 0 0 0 0 0 0 0 0 0 0 0 0 0 0 0 0 0 0 0 0 0 0 0 0 0 0 0 0 0 0 0 0 0 0 0 0 0 0 0 0 0 0 0 0 0 0 0 0 49 46 47 46 46 45 46 45 47 42 43 -209 25 24 24 -209 -193 -209 24 24 22 23 32 29 33 30 30 32 31 31 30 31 31 30 30 30 29 29 28 28 26 25 25 23 19 19 18 19 15 12 12 11 0 0 0 0 -225 -225 -225 -225 -225 -225 -225 -225 -225 -225 -225 -225 -225 -225 -225 -225 -225 -225 -225 -225 -225 -225 -225 -225 -225 -225 -225 -225 -225 -225 -225 -225 -225 -225 -225 -225 -225 -225 -225 -225 -225 -225 -225 -225 -225 -225 -225 -225 -225 -225 -225 30 29 29 29 30 29 36 34 36 38 39 39 43 42 44 43 46 45 46 48 47 46 48 47 51 50 54 55 54 58 59 59 66 62 64 68 67 69 73 -193 -193 -193 76 77 75 79 81 75 85 85 86 85 88 89 92 94 99 99 101 103 105 107 109 108 109 109 110 112 113 111 112 114 115 115 116 116 116 117 119 118 119 119 122 124 124 125 126 131 132 133 133 134 135 135 145 142 142 143 149 145 145 145 148 146 149 150 153 153 157 157 157 157 159 162 161 161 164 160 167 168 167 -193 -193 170 174 174 173 176 -193 182 -193 -193 -193 -193 192 193 195 195 197 0 0 0 0 0
    0 0 0 0 0 0 0 0 0 0 0 0 0 0 0 0 0 0 0 0 0 0 0 0 0 0 0 0 0 0 0 0 0 0 0 0 0 0 0 0 0 0 0 0 0 0 0 0 0 0 0 0 0 0 0 0 0 0 0 0 0 0 0 0 0 0 0 0 0 49 46 47 47 46 45 46 45 47 42 44 -193 20 20 18 -209 -193 -193 22 22 21 22 29 29 32 30 30 33 31 32 31 31 31 30 30 30 28 29 27 27 26 25 24 22 18 18 17 18 13 12 11 10 0 0 0 0 -225 -225 -225 -225 -225 -225 -225 -225 -225 -225 -225 -225 -225 -225 -225 -225 -225 -225 -225 -225 -225 -225 -225 -225 -225 -225 -225 -225 -225 -225 -225 -225 -225 -225 -225 -225 -225 -225 -225 -225 -225 -225 -225 -225 -225 -225 -225 -225 -225 -225 29 28 27 27 28 28 28 36 34 37 38 39 39 42 41 43 42 45 45 45 48 47 46 48 48 51 51 55 55 54 58 59 59 66 62 64 68 67 69 72 -193 72 72 75 76 75 78 81 75 85 85 85 85 87 89 91 94 99 98 101 103 105 107 108 108 109 109 110 111 112 111 112 115 116 115 116 116 117 117 119 119 119 119 123 126 125 127 127 131 132 133 134 135 136 136 145 143 143 144 149 145 145 146 149 146 149 150 153 153 157 157 157 157 159 162 161 161 164 160 167 168 166 -193 -193 169 173 174 173 176 -193 182 -193 -193 -193 190 192 192 195 194 196 0 0 0 0 0
    0 0 0 0 0 0 0 0 0 0 0 0 0 0 0 0 0 0 0 0 0 0 0 0 0 0 0 0 0 0 0 0 0 0 0 0 0 0 0 0 0 0 0 0 0 0 0 0 0 0 0 0 0 0 0 0 0 0 0 0 0 0 0 0 0 0 0 0 0 49 47 47 47 46 45 46 45 47 42 44 -193 0 0 -193 -209 -193 16 20 21 21 22 28 29 31 31 30 33 30 32 31 31 31 30 30 30 28 29 27 27 27 25 25 23 18 18 17 18 13 11 10 10 0 0 0 0 -225 -225 -225 -225 -225 -225 -225 -225 -225 -225 -225 -225 -225 -225 -225 -225 -225 -225 -225 -225 -225 -225 -225 -225 -225 -225 -225 -225 -225 -225 -225 -225 -225 -225 -225 -225 -225 -225 -225 -225 -225 -225 -225 -225 -225 -225 -225 -225 -225 -225 26 26 26 25 26 26 27 36 33 37 38 39 40 42 41 43 42 44 44 45 47 47 45 48 47 50 51 54 54 54 58 59 59 66 62 63 68 66 68 71 -193 71 70 74 75 74 77 80 75 82 83 84 83 86 -209 91 94 98 100 101 103 104 106 107 107 109 108 109 111 113 112 112 115 117 116 116 117 118 118 119 -193 119 118 123 126 126 127 126 130 132 133 134 135 136 136 145 144 144 144 150 146 146 146 149 146 149 150 153 153 157 157 158 158 159 162 161 161 164 160 167 168 166 167 -193 169 174 175 173 177 176 182 185 187 189 189 192 192 194 194 196 0 0 0 0 0
    0 0 0 0 0 0 0 0 0 0 0 0 0 0 0 0 0 0 0 0 0 0 0 0 0 0 0 0 0 0 0 0 0 0 0 0 0 0 0 0 0 0 0 0 0 0 0 0 0 0 0 0 0 0 0 0 0 0 0 0 0 0 0 0 0 0 0 0 0 50 47 47 47 46 46 46 45 47 42 45 -209 0 0 -193 -209 -193 16 20 21 21 23 28 29 31 31 30 33 30 32 31 31 31 30 30 30 28 29 27 27 26 25 25 23 19 19 18 18 13 11 10 10 0 0 0 0 -225 -225 -225 -225 -225 -225 -225 -225 -225 -225 -225 -225 -225 -225 -225 -225 -225 -225 -225 -225 -225 -225 -225 -225 -225 -225 -225 -225 -225 -225 -225 -225 -225 -225 -225 -225 -225 -225 -225 -225 -225 -225 -225 -225 -225 -225 -225 -225 -225 -225 26 25 25 25 25 26 27 35 33 37 38 38 39 41 41 42 41 43 44 45 47 46 45 48 47 50 51 54 54 55 59 59 59 66 62 63 68 65 68 70 -193 70 69 73 73 73 76 79 74 81 82 83 83 86 88 91 93 99 101 101 103 104 105 107 107 108 108 109 111 113 112 112 115 117 116 117 118 119 118 120 -193 120 117 123 126 126 127 126 129 131 133 133 135 136 136 146 146 145 145 150 147 147 147 150 148 150 151 154 154 158 158 158 158 159 163 161 161 164 160 167 168 166 168 168 169 174 175 174 178 178 183 185 187 189 189 192 193 195 195 196 0 0 0 0 0
    0 0 0 0 0 0 0 0 0 0 0 0 0 0 0 0 0 0 0 0 0 0 0 0 0 0 0 0 0 0 0 0 0 0 0 0 0 0 0 0 0 0 0 0 0 0 0 0 0 0 0 0 0 0 0 0 0 0 0 0 0 0 0 0 0 0 0 0 0 50 47 47 47 46 46 46 45 47 42 46 -209 0 0 0 -193 10 14 19 21 21 24 29 30 31 31 30 33 30 32 31 30 30 30 29 30 28 29 27 26 26 25 24 24 19 19 18 19 13 11 10 9 0 0 0 0 -225 -225 -225 -225 -225 -225 -225 -225 -225 -225 -225 -225 -225 -225 -225 -225 -225 -225 -225 -225 -225 -225 -225 -225 -225 -225 -225 -225 -225 -225 -225 -225 -225 -225 16 18 15 15 15 15 14 15 -225 -225 -225 -225 -225 -225 -225 -225 24 24 24 25 25 26 27 35 33 37 38 38 39 40 40 41 40 42 43 44 46 45 45 47 47 50 52 53 54 56 59 60 60 66 63 63 68 65 67 69 69 69 68 72 72 71 76 78 74 79 81 83 83 85 88 91 94 99 101 101 103 104 106 107 107 108 107 108 111 111 111 111 114 117 116 117 118 119 119 119 119 119 115 122 126 125 126 126 128 131 132 133 134 136 136 147 147 146 146 150 149 149 149 150 149 150 153 155 155 158 158 159 159 159 163 161 161 163 159 167 168 166 168 168 169 174 176 175 179 180 183 185 187 188 188 191 192 194 194 196 0 0 0 0 0
    0 0 0 0 0 0 0 0 0 0 0 0 0 0 0 0 0 0 0 0 0 0 0 0 0 0 0 0 0 0 0 0 0 0 0 0 0 0 0 0 0 0 0 0 0 0 0 0 0 0 0 0 0 0 0 0 0 0 0 0 0 0 0 0 0 0 0 0 0 50 47 47 47 46 46 47 45 47 42 46 -193 0 0 0 0 0 12 17 22 22 27 30 31 31 32 31 33 30 32 31 30 30 30 29 29 28 29 27 26 26 25 24 24 19 19 18 18 12 11 10 9 0 0 0 0 -225 -225 -225 -225 -225 -225 -225 -225 -225 -225 -225 -225 -225 -225 -225 -225 -225 -225 -225 -225 -225 -225 -225 -225 -225 -225 -225 -225 -225 -225 -225 -225 -225 20 13 15 13 13 13 12 12 12 11 -225 -225 -225 -225 -225 -225 286 23 23 23 24 24 26 26 34 34 37 38 38 40 41 41 41 39 42 43 45 46 45 45 47 47 49 52 52 54 56 59 59 60 67 64 64 68 65 67 69 69 69 68 71 71 70 75 77 73 78 81 82 83 85 87 91 93 97 99 100 102 104 105 106 106 107 107 108 110 110 110 110 114 118 116 117 118 119 119 119 119 119 114 122 126 125 126 126 127 129 131 132 135 137 138 147 148 146 146 150 150 150 150 151 -193 151 155 157 156 159 159 159 160 159 163 161 160 163 158 167 167 166 167 168 170 175 178 177 180 181 184 185 186 187 187 189 190 192 191 193 0 0 0 0 0
    0 0 0 0 0 0 0 0 0 0 0 0 0 0 0 0 0 0 0 0 0 0 0 0 0 0 0 0 0 0 0 0 0 0 0 0 0 0 0 0 0 0 0 0 0 0 0 0 0 0 0 0 0 0 0 0 0 0 0 0 0 0 0 0 0 0 0 0 0 50 47 47 48 47 46 47 45 47 42 46 44 0 0 0 0 0 10 13 23 24 30 32 33 32 33 31 33 30 33 31 30 30 31 29 29 28 29 26 26 26 26 24 24 19 19 18 18 12 10 9 9 0 0 0 0 -225 -225 -225 -225 -225 -225 -225 -225 -225 -225 -225 -225 -225 -225 -225 -225 -225 -225 -225 -225 -225 -225 -225 -225 -225 -225 -225 -225 -225 -225 -225 -225 17 18 11 14 12 12 12 11 11 11 11 -225 -225 -225 -225 -225 -225 -177 22 22 23 23 25 26 26 34 35 38 37 38 40 40 41 41 39 41 43 45 45 44 46 47 47 49 52 52 53 56 59 59 60 67 65 66 69 66 67 69 69 69 68 70 70 69 74 76 73 78 80 82 82 85 88 91 93 96 98 99 101 103 104 104 105 106 106 107 109 108 108 108 111 117 114 116 117 118 119 119 119 119 114 122 126 126 126 126 127 129 131 133 135 138 139 146 148 146 146 150 151 151 151 152 -177 153 156 158 157 159 159 160 160 159 163 161 160 163 157 167 168 166 168 167 170 176 179 178 182 182 184 185 186 187 187 189 189 190 190 191 0 0 0 0 0
    0 0 0 0 0 0 0 0 0 0 0 0 0 0 0 0 0 0 0 0 0 0 0 0 0 0 0 0 0 0 0 0 0 0 0 0 0 0 0 0 0 0 0 0 0 0 0 0 0 0 0 0 0 0 0 0 0 0 0 0 0 0 0 0 0 0 0 0 0 50 47 47 48 47 46 47 45 48 42 46 44 0 0 0 0 0 10 12 23 24 31 32 34 32 34 32 34 31 33 32 30 30 31 29 29 28 29 26 25 26 26 23 25 19 18 17 18 11 9 0 0 0 0 0 0 -225 -225 -225 -225 -225 -225 -225 -225 -225 -225 -225 -225 -225 -225 -225 -225 -225 -225 -225 -225 -225 -225 -225 -225 -225 -225 -225 -225 -225 -225 -225 -225 19 17 12 15 13 13 13 12 12 11 11 15 -225 -225 -225 -225 -225 -193 22 23 23 24 26 27 27 34 37 38 37 38 40 40 41 41 39 41 43 45 45 44 46 47 47 49 52 51 52 55 58 58 59 67 66 67 70 66 67 69 69 69 68 70 70 69 74 75 73 77 80 81 83 86 89 91 93 95 97 99 101 102 103 103 104 105 105 106 107 107 107 107 111 116 114 116 117 119 119 119 119 119 115 122 126 125 125 125 126 127 130 132 135 138 139 147 148 146 147 150 152 152 152 152 -177 154 158 159 158 160 160 160 160 159 163 160 159 162 156 167 168 167 167 167 170 176 180 180 183 184 185 186 186 188 187 189 189 189 189 190 0 0 0 0 0
    0 0 0 0 0 0 0 0 0 0 0 0 0 0 0 0 0 0 0 0 0 0 0 0 0 0 0 0 0 0 0 0 0 0 0 0 0 0 0 0 0 0 0 0 0 0 0 0 0 0 0 0 0 0 0 0 0 0 0 0 0 0 0 0 0 0 0 0 0 50 47 47 48 47 46 47 45 48 42 46 45 0 0 0 0 0 13 15 25 26 32 32 34 32 34 32 34 31 33 32 30 29 31 29 29 27 28 25 24 25 26 23 25 19 18 17 18 11 0 0 0 0 0 0 0 -225 -225 -225 -225 -225 -225 -225 -225 -225 -225 -225 -225 -225 -225 -225 -225 -225 -225 -225 -225 -225 -225 -225 -225 -225 -225 -225 -225 -225 -225 -225 -225 19 16 13 15 13 13 13 12 12 11 11 12 -225 -225 -225 -225 -193 21 21 22 23 24 26 27 27 34 37 37 37 38 40 41 41 41 40 40 43 46 45 44 47 47 48 49 52 51 52 55 58 58 60 67 67 68 70 67 68 70 70 70 68 69 70 68 73 74 72 77 80 82 84 86 90 92 93 95 98 99 101 101 102 102 103 104 104 104 106 107 107 107 110 116 114 116 118 119 119 119 119 120 117 122 125 124 125 125 124 125 127 130 133 137 140 147 149 147 147 150 154 153 153 153 -177 155 159 160 159 160 160 160 161 159 162 159 158 162 -193 167 168 168 168 166 170 177 180 180 183 185 185 185 186 188 187 188 188 189 188 189 0 0 0 0 0
    0 0 0 0 0 0 0 0 0 0 0 0 0 0 0 0 0 0 0 0 0 0 0 0 0 0 0 0 0 0 0 0 0 0 0 0 0 0 0 0 0 0 0 0 0 0 0 0 0 0 0 0 0 0 0 0 0 0 0 0 0 0 0 0 0 0 0 0 0 50 47 47 48 47 46 47 45 48 42 47 45 0 0 0 -193 0 16 20 26 27 33 32 34 32 34 32 33 31 33 32 30 29 31 29 29 27 28 25 25 25 26 22 25 20 19 16 18 10 0 0 0 0 0 0 0 -225 -225 -225 -225 -225 -225 -225 -225 -225 -225 -225 -225 -225 -225 -225 -225 -225 -225 -225 -225 -225 -225 -225 -225 -225 -225 -225 -225 -225 -225 -225 17 20 16 13 15 13 13 12 12 11 10 10 11 9 -225 -225 -225 -193 20 20 21 23 24 26 27 28 33 38 36 36 38 41 41 41 41 40 40 44 47 46 44 48 48 48 49 52 50 51 55 57 57 59 67 68 69 71 68 69 70 70 70 69 69 70 68 73 73 71 76 81 83 85 87 90 93 94 96 98 99 99 100 101 102 103 104 103 103 106 106 107 107 110 117 115 118 119 120 120 120 120 121 119 122 124 124 124 124 124 124 124 127 130 136 139 146 149 147 147 150 155 154 154 154 -193 156 160 161 159 160 160 160 161 159 162 159 158 161 -193 -193 -209 169 168 167 170 177 178 178 182 183 184 184 186 187 186 187 188 188 187 -193 0 0 0 0 0
    0 0 0 0 0 0 0 0 0 0 0 0 0 0 0 0 0 0 0 0 0 0 0 0 0 0 0 0 0 0 0 0 0 0 0 0 0 0 0 0 0 0 0 0 0 0 0 0 0 0 0 0 0 0 0 0 0 0 0 0 0 0 0 0 0 0 0 0 0 50 47 47 48 47 46 47 45 47 42 46 45 -193 -193 -209 -193 -193 -209 -209 30 32 36 33 35 32 34 32 34 31 33 31 30 29 31 29 29 27 28 25 25 25 26 23 25 20 19 16 17 9 0 0 0 0 0 0 0 -225 -225 -225 -225 -225 -225 -225 -225 -225 -225 -225 -225 -225 -225 -225 -225 -225 -225 -225 -225 -225 -225 -225 -225 -225 -225 -225 -225 -225 -225 -225 17 20 16 13 14 13 12 12 11 11 10 10 11 10 9 -225 -225 -193 20 20 22 24 25 27 27 29 33 39 36 35 37 41 41 41 42 41 40 45 47 46 44 48 47 47 48 51 49 51 54 57 57 60 67 70 70 71 70 70 71 71 71 70 70 70 69 72 72 71 77 82 84 86 87 91 93 94 96 98 98 99 99 100 101 102 103 102 103 106 107 108 108 110 117 116 118 119 121 121 120 121 122 121 122 124 124 124 123 124 124 124 126 128 135 139 146 149 147 147 150 155 153 154 154 -193 156 160 161 159 160 160 160 161 159 162 158 157 160 -177 -209 -209 -209 168 166 170 176 175 175 179 180 181 183 -193 -193 186 187 188 187 187 -193 0 0 0 0 0
    0 0 0 0 0 0 0 0 0 0 0 0 0 0 0 0 0 0 0 0 0 0 0 0 0 0 0 0 0 0 0 0 0 0 0 0 0 0 0 0 0 0 0 0 0 0 0 0 0 0 0 0 0 0 0 0 0 0 0 0 0 0 0 0 0 0 0 0 0 51 47 47 48 47 46 46 45 47 42 44 44 34 34 38 -193 -209 30 33 32 33 36 33 35 33 34 32 34 31 33 31 30 29 31 29 29 27 28 25 25 25 26 22 25 20 19 16 17 0 0 0 0 0 0 0 0 -225 -225 -225 -225 -225 -225 -225 -225 -225 -225 -225 -225 -225 -225 -225 -225 -225 -225 -225 -225 -225 -225 -225 -225 -225 -225 -225 -225 -225 -225 -225 17 19 15 12 13 13 12 11 11 11 10 11 12 10 11 17 19 -193 -193 21 23 25 27 29 29 30 33 38 36 35 37 40 41 41 42 42 41 45 47 47 45 49 48 48 48 51 49 51 53 57 57 59 68 71 70 72 71 71 -193 71 71 71 70 71 70 72 72 71 77 84 85 86 87 91 94 95 97 97 98 99 99 100 100 101 101 101 102 104 105 106 106 107 116 116 118 120 121 121 122 122 122 122 122 125 124 124 124 124 124 125 127 130 136 140 144 149 146 146 149 154 152 153 153 -193 156 160 161 159 160 160 160 161 159 161 158 157 159 -177 -193 -193 -209 -193 166 169 174 171 172 173 173 176 180 -209 0 -193 -193 187 187 -193 -193 0 0 0 0 0
    0 0 0 0 0 0 0 0 0 0 0 0 0 0 0 0 0 0 0 0 0 0 0 0 0 0 0 0 0 0 0 0 0 0 0 0 0 0 0 0 0 0 0 0 0 0 0 0 0 0 0 0 0 0 0 0 0 0 0 0 0 0 0 0 0 0 0 0 0 51 47 47 48 47 46 46 45 47 42 43 43 34 33 36 31 30 33 34 33 34 35 34 35 33 34 32 34 31 33 32 30 29 31 29 29 27 28 25 25 25 25 23 24 20 19 15 16 0 0 0 0 0 0 0 0 -225 -225 -225 -225 -225 -225 -225 -225 -225 -225 -225 -225 -225 -225 -225 -225 -225 -225 -225 -225 -225 -225 -225 -225 -225 -225 -225 -225 -225 -225 -225 16 19 14 12 13 12 12 11 11 11 9 11 12 10 12 17 18 16 20 21 22 24 27 29 30 31 34 38 36 37 38 41 41 41 42 43 42 46 47 47 45 49 48 48 48 51 49 51 52 56 56 59 67 71 70 72 -193 -193 -177 72 72 72 70 72 71 72 73 73 78 85 86 87 89 92 95 95 95 96 97 98 99 99 99 99 100 100 100 103 104 105 105 107 115 117 118 120 121 122 123 123 123 123 122 125 125 125 125 125 125 126 129 131 136 140 143 148 145 145 149 152 151 151 152 -177 155 159 161 159 160 160 160 161 159 161 158 157 159 -177 -209 -209 -209 -193 166 169 172 168 169 169 169 171 176 -193 0 0 0 -193 -193 -177 -177 0 0 0 0 0
    0 0 0 0 0 0 0 0 0 0 0 0 0 0 0 0 0 0 0 0 0 0 0 0 0 0 0 0 0 0 0 0 0 0 0 0 0 0 0 0 0 0 0 0 0 0 0 0 0 0 0 0 0 0 0 0 0 0 0 0 0 0 0 0 0 0 0 0 0 51 47 47 48 47 46 46 45 47 41 43 43 33 31 33 31 29 33 33 34 34 34 34 35 33 34 32 34 31 33 32 30 29 31 29 29 27 28 25 25 25 25 23 24 21 18 14 15 0 0 0 0 0 0 0 0 -225 -225 -225 -225 -225 -225 -225 -225 -225 -225 -225 -225 -225 -225 -225 -225 -225 -225 -225 -225 -225 -225 -225 -225 -225 -225 -225 -225 -225 -225 -225 16 20 12 11 11 11 11 10 10 10 0 10 12 11 13 16 17 16 21 21 22 25 27 28 30 31 34 37 36 37 38 41 40 41 42 43 42 46 47 48 45 49 48 48 48 51 48 51 51 56 56 59 67 72 71 72 -209 -193 -193 -193 72 72 71 73 73 73 74 74 79 86 86 87 90 92 95 95 95 96 97 97 98 98 98 97 99 99 99 102 104 105 106 107 115 118 119 121 122 122 123 124 124 123 121 124 124 125 124 124 124 126 130 131 137 141 143 148 145 145 148 152 150 150 151 -177 154 158 160 158 159 160 160 161 159 161 158 157 160 -193 -209 -209 -209 167 165 168 171 166 168 167 167 168 172 -193 0 0 0 0 -177 -177 -177 0 0 0 0 0
    0 0 0 0 0 0 0 0 0 0 0 0 0 0 0 0 0 0 0 0 0 0 0 0 0 0 0 0 0 0 0 0 0 0 0 0 0 0 0 0 0 0 0 0 0 0 0 0 0 0 0 0 0 0 0 0 0 0 0 0 0 0 0 0 0 0 0 0 0 51 47 47 48 47 46 47 45 47 41 43 43 32 30 32 31 30 33 33 34 33 34 35 35 33 34 32 34 31 33 32 30 29 31 29 29 28 27 25 25 25 25 23 24 21 18 13 15 0 0 0 0 0 0 0 0 -225 -225 -225 -225 -225 -225 -225 -225 -225 -225 -225 -225 -225 -225 -225 -225 -225 -225 -225 -225 -225 -225 -225 -225 -225 -225 -225 -225 -225 -225 18 16 20 12 11 11 11 11 10 10 10 0 10 11 11 13 16 16 17 23 22 23 27 28 29 31 32 34 36 37 37 37 40 40 41 42 44 43 46 47 48 46 48 48 49 48 51 48 51 50 56 56 59 67 73 70 72 -193 73 74 73 73 73 72 74 74 73 75 75 79 85 86 87 90 92 95 95 95 96 97 97 96 97 97 96 97 97 97 102 104 106 107 107 116 119 120 122 122 123 123 124 124 123 121 123 123 124 124 124 124 126 132 133 138 142 144 148 145 145 148 151 149 149 150 -177 -193 157 159 158 159 160 160 161 159 162 158 157 159 -193 -193 -209 -193 165 164 167 169 165 166 165 166 -193 170 -193 0 0 0 -193 670 -177 -193 0 0 0 0 0
    0 0 0 0 0 0 0 0 0 0 0 0 0 0 0 0 0 0 0 0 0 0 0 0 0 0 0 0 0 0 0 0 0 0 0 0 0 0 0 0 0 0 0 0 0 0 0 0 0 0 0 0 0 0 0 0 0 0 0 0 0 0 0 0 0 0 0 0 0 51 47 47 48 47 46 47 44 46 41 42 42 34 31 33 32 31 33 32 34 33 34 34 35 33 34 32 34 32 33 32 30 29 30 29 29 28 28 26 25 25 25 23 24 21 18 14 15 0 0 0 0 0 0 0 0 -225 -225 -225 -225 -225 -225 -225 -225 -225 -225 -225 -225 -225 -225 -225 -225 -225 -225 -225 -225 -225 -225 -225 -225 -225 -225 -225 -225 -225 -225 17 16 20 12 11 11 11 11 9 10 10 0 10 11 12 14 16 17 18 24 23 24 27 28 28 32 32 34 35 36 36 37 40 39 40 41 44 43 46 47 49 46 49 49 49 48 51 48 51 50 57 57 59 66 72 69 71 -193 74 74 73 73 73 73 75 75 74 76 76 79 85 86 87 89 92 95 95 95 96 96 96 96 97 97 96 96 96 97 103 106 108 109 108 116 120 120 122 122 123 123 124 123 123 119 122 123 124 124 125 124 127 133 134 139 143 145 149 145 145 147 150 148 148 149 -177 -193 156 158 157 158 159 160 161 159 162 158 -193 159 -193 -193 -193 -193 -193 163 166 168 164 166 164 165 -193 -209 -193 0 0 0 0 669 -193 -193 0 0 0 0 0
    0 0 0 0 0 0 0 0 0 0 0 0 0 0 0 0 0 0 0 0 0 0 0 0 0 0 0 0 0 0 0 0 0 0 0 0 0 0 0 0 0 0 0 0 0 0 0 0 0 0 0 0 0 0 0 0 0 0 0 0 0 0 0 0 0 0 0 0 0 51 47 47 48 47 46 46 44 46 41 41 41 34 31 33 31 32 32 32 34 33 33 34 34 33 33 32 34 32 33 32 30 29 30 29 29 28 28 26 25 26 25 23 24 21 18 14 15 0 0 0 0 0 0 0 0 -225 -225 -225 -225 -225 -225 -225 -225 -225 -225 -225 -225 -225 -225 -225 -225 -225 -225 -225 -225 -225 -225 -225 -225 -225 -225 -225 -225 -225 -225 16 16 19 12 10 10 10 10 9 10 9 0 11 12 13 15 16 17 19 23 23 24 26 27 28 32 32 32 34 36 35 36 39 39 40 41 45 43 46 47 49 47 49 49 49 48 51 48 53 51 58 59 60 66 71 68 70 -193 74 74 74 73 74 73 76 76 74 76 77 79 85 86 87 89 92 95 95 95 95 95 95 96 98 98 96 96 95 99 106 108 110 111 108 117 123 120 122 122 122 123 123 123 123 117 121 122 123 123 124 124 130 136 137 142 146 146 149 145 145 146 150 147 146 148 -177 151 155 157 156 157 159 160 160 158 161 158 -193 159 155 -193 -209 164 -193 -193 165 167 163 165 164 164 545 -193 -177 0 0 0 0 -193 -193 -193 0 0 0 0 0
    0 0 0 0 0 0 0 0 0 0 0 0 0 0 0 0 0 0 0 0 0 0 0 0 0 0 0 0 0 0 0 0 0 0 0 0 0 0 0 0 0 0 0 0 0 0 0 0 0 0 0 0 0 0 0 0 0 0 0 0 0 0 0 0 0 0 0 0 0 51 47 47 48 47 46 46 44 46 40 40 39 34 31 33 31 32 32 32 33 32 33 34 33 33 33 31 34 32 33 32 31 29 30 29 29 28 28 26 26 26 25 23 24 22 18 16 15 0 0 0 0 0 0 0 0 -225 -225 -225 -225 -225 -225 -225 -225 -225 -225 -225 -225 -225 -225 -225 -225 -225 -225 -225 -225 -225 -225 -225 -225 -225 -225 -225 -225 -225 -225 16 16 19 12 10 10 11 10 9 10 10 0 12 14 16 16 17 17 19 24 23 24 26 27 28 32 31 32 32 36 35 35 38 38 39 41 45 43 46 46 50 47 48 49 49 48 51 48 53 51 59 61 62 66 70 67 70 -193 73 74 74 74 74 74 76 77 75 77 78 79 85 86 86 89 91 96 95 95 94 95 95 96 98 98 97 98 100 105 109 112 113 114 111 117 122 119 120 120 121 122 122 121 122 115 121 122 123 124 126 127 134 138 139 143 146 146 149 144 144 145 149 145 145 147 150 149 153 155 155 156 159 159 160 158 160 158 -193 159 156 -193 -193 162 162 -193 164 167 163 164 163 164 -177 -193 -177 0 0 0 0 0 -193 -193 0 0 0 0 0
    0 0 0 0 0 0 0 0 0 0 0 0 0 0 0 0 0 0 0 0 0 0 0 0 0 0 0 0 0 0 0 0 0 0 0 0 0 0 0 0 0 0 0 0 0 0 0 0 0 0 0 0 0 0 0 0 0 0 0 0 0 0 0 0 0 0 0 0 0 51 47 47 48 47 46 46 44 45 40 40 38 34 30 32 31 31 32 31 32 32 33 33 33 32 33 31 34 32 33 31 31 29 30 30 29 29 28 27 26 26 25 24 24 21 18 17 16 0 0 0 0 0 0 0 0 -225 -225 -225 -225 -225 -225 -225 -225 -225 -225 -225 -225 -225 -225 -225 -225 -225 -225 -225 -225 -225 -225 -225 -225 -225 -225 -225 -225 -225 -225 16 16 17 10 10 10 11 10 9 10 10 10 14 16 18 17 17 17 20 24 24 24 27 27 28 32 31 32 32 36 35 35 39 39 39 41 46 44 46 46 49 47 47 48 49 47 50 48 53 52 60 63 62 65 69 66 69 -209 73 73 74 74 74 74 77 78 75 78 79 79 85 86 86 89 91 95 94 94 94 95 95 96 98 99 98 100 101 106 110 113 114 115 111 117 120 118 119 119 120 120 120 120 120 113 121 122 124 125 128 130 136 139 139 142 145 144 148 143 143 144 149 144 144 146 149 148 152 154 154 155 158 159 159 158 160 159 -193 159 157 158 165 161 -193 -193 163 167 162 164 163 163 -193 -193 544 0 0 0 0 0 -193 -193 0 0 0 0 0
    0 0 0 0 0 0 0 0 0 0 0 0 0 0 0 0 0 0 0 0 0 0 0 0 0 0 0 0 0 0 0 0 0 0 0 0 0 0 0 0 0 0 0 0 0 0 0 0 0 0 0 0 0 0 0 0 0 0 0 0 0 0 0 0 0 0 0 0 0 51 47 47 48 47 47 47 44 46 40 40 39 34 30 32 31 31 32 31 32 32 33 33 32 32 32 32 34 32 33 31 31 29 30 30 29 29 28 27 26 26 25 24 24 21 17 17 16 9 0 0 0 0 0 0 0 -225 -225 -225 -225 -225 -225 -225 -225 -225 -225 -225 -225 -225 -225 -225 -225 -225 -225 -225 -225 -225 -225 -225 -225 -225 -225 -225 -225 -225 -225 16 17 16 10 10 10 10 9 9 10 9 9 12 14 18 17 17 18 21 24 24 25 27 27 28 33 32 32 32 37 37 36 39 40 41 42 47 45 46 46 49 47 47 48 49 47 51 48 54 53 60 63 63 64 68 65 68 71 72 -193 -177 -193 -193 -193 77 78 76 79 80 79 85 85 86 88 90 94 93 94 93 95 95 96 98 99 98 100 100 105 107 110 111 113 110 116 120 116 118 117 118 119 119 119 119 112 121 124 126 127 130 131 136 139 139 141 144 144 148 143 143 143 149 144 144 145 149 147 151 153 153 154 158 158 159 158 160 159 -177 159 157 157 165 161 -193 401 163 167 162 164 163 163 -193 -193 -193 0 0 0 0 0 -209 -209 0 0 0 0 0
    0 0 0 0 0 0 0 0 0 0 0 0 0 0 0 0 0 0 0 0 0 0 0 0 0 0 0 0 0 0 0 0 0 0 0 0 0 0 0 0 0 0 0 0 0 0 0 0 0 0 0 0 0 0 0 0 0 0 0 0 0 0 0 0 0 0 0 0 0 51 47 47 48 47 47 47 44 46 41 41 40 34 31 33 31 32 31 31 32 32 33 33 32 32 32 32 33 32 33 31 32 29 30 30 29 29 28 27 26 26 25 24 23 20 16 17 16 11 0 0 0 0 0 0 0 -225 -225 -225 -225 -225 -225 -225 -225 -225 -225 -225 -225 -225 -225 -225 -225 -225 -225 -225 -225 -225 -225 -225 -225 -225 -225 -225 -225 -225 -225 16 18 16 12 10 10 10 9 9 10 9 9 11 13 17 16 16 17 21 25 24 25 27 27 28 33 32 32 -177 -177 -177 36 39 39 40 41 45 44 45 46 49 47 47 48 49 47 51 48 54 53 60 64 63 64 68 64 67 71 71 -193 541 541 540 -177 76 78 76 79 80 78 85 85 86 88 89 93 93 94 94 95 95 97 98 100 99 -193 100 104 106 109 109 111 109 116 119 115 117 116 116 118 118 118 118 111 122 126 127 129 130 131 136 138 138 140 142 142 148 143 144 144 149 144 144 145 148 147 149 151 152 152 157 158 158 -193 160 -193 -177 159 158 -193 -193 162 -193 -177 -193 167 162 164 162 162 -193 164 -209 -209 -193 0 0 -209 -209 -209 0 0 0 0 0
    0 0 0 0 0 0 0 0 0 0 0 0 0 0 0 0 0 0 0 0 0 0 0 0 0 0 0 0 0 0 0 0 0 0 0 0 0 0 0 0 0 0 0 0 0 0 0 0 0 0 0 0 0 0 0 0 0 0 0 0 0 0 0 0 0 0 0 0 0 51 47 46 48 47 47 47 44 46 41 41 41 34 31 33 31 32 31 31 32 32 33 33 32 33 32 32 33 32 33 31 32 29 30 30 29 29 28 27 26 26 25 23 23 19 16 17 16 13 0 0 0 0 0 0 0 -225 -225 -225 -225 -225 -225 -225 -225 -225 -225 -225 -225 -225 -225 -225 -225 -225 -225 -225 -225 -225 -225 -225 -225 -225 -225 -225 -225 -225 -225 16 18 15 11 10 9 10 0 9 9 0 9 11 12 17 15 16 16 21 26 25 25 28 27 28 32 33 32 32 36 35 35 38 39 39 40 44 43 46 46 49 47 47 48 49 47 51 48 54 54 60 65 64 64 68 65 67 70 70 -193 -177 -177 -177 -177 76 78 76 79 79 78 85 85 86 87 88 94 93 96 94 96 95 97 99 101 -193 -193 -193 105 106 110 110 112 109 116 119 114 116 115 115 117 117 117 117 110 122 126 129 131 132 132 137 139 138 140 141 142 148 143 143 143 149 144 144 145 148 146 148 150 150 151 157 157 158 -193 160 -193 -177 -193 159 -193 -209 162 -193 -177 -193 166 162 163 162 161 -193 -193 -209 -193 -193 -193 -193 -209 -193 83 0 0 0 0 0
    0 0 0 0 0 0 0 0 0 0 0 0 0 0 0 0 0 0 0 0 0 0 0 0 0 0 0 0 0 0 0 0 0 0 0 0 0 0 0 0 0 0 0 0 0 0 0 0 0 0 0 0 0 0 0 0 0 0 0 0 0 0 0 0 0 0 0 0 0 51 47 46 48 47 47 47 45 46 41 41 41 34 31 33 31 33 30 30 31 31 33 33 31 32 32 32 33 32 33 31 33 30 30 30 29 29 28 27 27 25 25 23 23 19 16 17 17 14 9 10 0 0 0 0 0 -225 -225 -225 -225 -225 -225 -225 -225 -225 -225 -225 -225 -225 -225 -225 -225 -225 -225 -225 -225 -225 -225 -225 -225 -225 -225 -225 -225 -225 -225 16 18 15 11 10 10 10 9 9 10 9 9 11 13 18 15 16 16 21 25 25 25 27 27 28 32 33 32 31 36 34 34 37 38 38 39 44 43 46 46 49 48 48 48 49 47 51 49 55 55 60 65 64 64 68 64 67 70 69 -193 -177 -193 -193 -177 76 78 76 78 78 77 84 84 86 85 87 93 93 96 94 95 95 97 99 101 -193 -193 -193 105 107 111 110 113 110 116 119 113 115 114 114 116 117 117 117 110 122 127 130 132 132 133 137 138 138 139 140 141 147 143 142 143 149 145 144 145 148 146 148 150 150 150 157 157 157 -177 160 -193 -177 -193 161 -193 -209 165 -193 -177 -193 166 -193 -193 161 -193 -193 -209 -209 78 -193 -193 -193 80 82 83 0 0 0 0 0
    0 0 0 0 0 0 0 0 0 0 0 0 0 0 0 0 0 0 0 0 0 0 0 0 0 0 0 0 0 0 0 0 0 0 0 0 0 0 0 0 0 0 0 0 0 0 0 0 0 0 0 0 0 0 0 0 0 0 0 0 0 0 0 0 0 0 0 0 0 51 47 47 48 48 47 47 45 46 41 41 41 34 31 33 31 32 30 30 30 31 33 32 31 32 32 32 33 32 32 30 34 30 30 30 29 29 28 28 27 25 25 24 23 19 17 18 17 -193 10 11 0 0 0 0 0 -225 -225 -225 -225 -225 -225 -225 -225 -225 -225 -225 -225 -225 -225 -225 -225 -225 -225 -225 -225 -225 -225 -225 -225 -225 -225 -225 -225 -225 20 16 19 17 12 11 10 10 9 10 11 10 10 12 13 18 16 16 16 21 24 24 24 25 26 27 31 31 30 31 35 33 34 35 37 37 38 43 42 45 46 49 48 48 49 50 48 52 50 56 57 60 64 63 63 68 64 66 69 68 70 -193 -193 -209 -193 76 77 75 78 77 78 83 82 85 84 86 91 92 95 93 95 95 98 99 101 100 -193 -193 105 106 111 110 112 109 116 118 112 114 113 112 115 116 116 117 109 122 129 131 132 132 133 137 137 137 137 138 139 144 142 142 142 149 145 145 145 148 147 148 150 150 150 156 156 157 -177 161 -177 -177 -193 164 -193 170 -193 -193 -177 -193 166 -193 -193 161 -193 -193 -209 -193 79 -193 80 82 81 82 83 0 0 0 0 0
    0 0 0 0 0 0 0 0 0 0 0 0 0 0 0 0 0 0 0 0 0 0 0 0 0 0 0 0 0 0 0 0 0 0 0 0 0 0 0 0 0 0 0 0 0 0 0 0 0 0 0 0 0 0 0 0 0 0 0 0 0 0 0 0 0 0 0 0 0 51 47 47 49 48 47 48 45 46 41 43 42 33 31 33 31 33 30 30 30 30 33 32 30 32 32 32 33 32 32 30 34 30 31 30 30 29 28 28 27 25 24 24 23 19 17 18 18 -193 12 12 0 0 0 0 0 -225 -225 -225 -225 -225 -225 -225 -225 -225 -225 -225 -225 -225 -225 -225 -225 -225 -225 -225 -225 -225 -225 -225 -225 -225 -225 -225 -225 -225 21 18 20 19 14 12 11 11 10 11 12 11 11 12 13 18 15 16 15 21 22 22 23 24 26 27 30 32 30 32 35 34 35 36 37 36 37 42 42 45 45 48 48 49 50 51 49 52 51 57 58 61 64 63 63 68 64 66 69 68 70 -193 -193 -193 -177 -193 76 75 77 77 77 83 82 85 84 86 90 91 94 93 94 95 97 99 101 101 -209 -193 105 106 111 110 112 109 115 118 112 113 113 112 115 115 116 116 108 122 127 129 131 131 132 135 135 136 136 136 138 141 141 141 141 149 146 146 146 149 148 149 150 150 150 156 156 158 -177 -193 -177 -177 -193 -193 -193 172 -193 -177 -177 -193 -193 -193 -193 161 -193 -193 -209 78 81 -193 80 82 81 82 83 0 0 0 0 0
    0 0 0 0 0 0 0 0 0 0 0 0 0 0 0 0 0 0 0 0 0 0 0 0 0 0 0 0 0 0 0 0 0 0 0 0 0 0 0 0 0 0 0 0 0 0 0 0 0 0 0 0 0 0 0 0 0 0 0 0 0 0 0 0 0 0 0 0 0 51 48 47 49 48 48 48 46 47 42 45 45 33 32 34 31 34 30 29 29 30 35 31 30 32 32 32 33 32 32 30 35 31 31 30 30 30 29 28 28 25 25 24 23 19 18 18 18 18 13 13 0 9 0 0 0 -225 -225 -225 -225 -225 -225 -225 -225 -225 -225 -225 -225 -225 -225 -225 -225 -225 -225 -225 -225 -225 -225 -225 -225 -225 -225 -225 -225 31 22 20 21 20 14 13 11 11 10 12 12 11 10 12 12 18 15 15 13 21 22 23 23 25 26 28 31 34 31 34 35 35 36 36 37 36 37 41 41 45 45 48 49 50 51 52 50 53 52 57 59 60 64 63 63 68 64 65 68 67 69 -193 -193 -177 -177 -193 75 74 77 76 77 82 80 84 83 85 -193 91 93 93 93 94 97 98 101 101 -209 -193 -193 105 111 109 111 108 113 117 111 112 112 111 114 115 116 116 108 122 128 129 131 131 131 133 134 135 135 136 137 139 141 141 141 149 147 147 147 150 149 150 151 151 151 156 156 158 -177 -193 -177 -177 -177 -193 -209 174 -193 -177 397 397 -193 -193 -193 -193 -193 -193 -209 -193 82 79 81 82 81 82 83 0 0 0 0 0
    0 0 0 0 0 0 0 0 0 0 0 0 0 0 0 0 0 0 0 0 0 0 0 0 0 0 0 0 0 0 0 0 0 0 0 0 0 0 0 0 0 0 0 0 0 0 0 0 0 0 0 0 0 0 0 0 0 0 0 0 0 0 0 0 0 0 0 0 0 51 48 47 49 48 48 48 47 47 43 47 46 33 34 37 33 37 30 29 29 29 36 31 30 32 32 32 34 31 32 30 36 31 32 31 31 30 30 29 28 25 25 24 24 20 19 19 18 19 14 13 9 10 10 10 10 -225 -225 -225 -225 -225 -225 -225 -225 -225 -225 -225 -225 -225 -225 -225 -225 -225 -225 -225 -225 -225 -225 -225 -225 -225 -225 -225 22 23 18 17 20 17 14 12 11 11 10 12 12 10 11 11 12 16 14 14 12 20 22 23 24 25 27 29 31 35 32 34 35 36 36 36 37 37 37 42 42 45 46 48 49 51 51 52 50 54 53 58 60 60 64 63 63 68 64 65 68 67 69 -193 -193 -177 -177 -177 -193 -193 76 75 77 82 79 -193 83 85 -177 -193 -193 -193 93 94 96 98 101 101 -209 -209 -209 103 109 -193 109 106 110 117 111 112 112 111 114 115 116 116 108 122 127 128 130 130 129 132 133 134 135 136 138 140 142 141 142 149 148 148 149 150 150 151 152 -177 152 157 157 159 -177 -193 -177 -177 -177 -193 -209 177 -193 398 397 397 -193 -193 -193 -193 -193 -193 -209 -209 -193 81 82 83 81 81 83 0 0 0 0 0
    0 0 0 0 0 0 0 0 0 0 0 0 0 0 0 0 0 0 0 0 0 0 0 0 0 0 0 0 0 0 0 0 0 0 0 0 0 0 0 0 0 0 0 0 0 0 0 0 0 0 0 0 0 0 0 0 0 0 0 0 0 0 0 0 0 0 0 0 0 50 48 47 49 48 48 48 47 46 44 46 46 33 35 39 34 38 29 29 28 28 35 30 30 32 32 32 34 31 32 30 36 31 32 31 31 30 30 29 29 26 26 24 24 21 20 20 19 19 14 14 10 10 11 12 12 -225 -225 -225 -225 -225 -225 -225 -225 -225 -225 -225 -225 -225 -225 -225 -225 -225 -225 -225 -225 -225 -225 -225 -225 12 16 21 18 19 15 15 17 14 14 12 11 11 10 11 11 11 11 12 13 16 14 14 12 20 21 23 23 24 26 28 30 35 32 34 34 -177 36 35 36 36 36 41 -193 45 45 48 50 51 52 53 51 54 53 59 61 60 64 63 63 68 65 65 68 67 -193 529 530 531 -177 -177 -177 146 76 75 77 -193 -193 -193 82 -193 -177 -193 -193 -193 -193 94 96 98 101 101 -193 -209 -193 102 108 -193 -193 105 108 117 111 113 113 112 114 115 116 116 109 122 127 127 128 128 127 130 131 134 135 137 138 141 143 142 142 149 149 149 150 151 -193 153 153 -177 -177 157 157 160 -177 -177 -177 -177 -193 171 -193 179 -193 398 397 397 398 -177 -177 -193 -209 -193 -177 -177 -209 -193 83 83 80 80 82 0 0 0 0 0
    0 0 0 0 0 0 0 0 0 0 0 0 0 0 0 0 0 0 0 0 0 0 0 0 0 0 0 0 0 0 0 0 0 0 0 0 0 0 0 0 0 0 0 0 0 0 0 0 0 0 0 0 0 0 0 0 0 0 0 0 0 0 0 0 0 0 0 0 0 50 48 47 49 48 48 48 47 46 44 45 46 33 35 37 33 38 27 28 26 25 33 29 29 32 32 32 34 31 33 31 36 31 32 31 31 30 30 29 30 26 26 24 25 22 21 21 19 19 15 15 12 11 12 13 13 13 -225 -225 -225 -225 -225 -225 -225 -225 -225 -225 -225 -225 -225 -225 -225 -225 -225 -225 -225 -225 -225 13 17 13 14 19 15 16 13 14 14 13 12 11 10 11 10 12 12 12 13 14 14 17 14 13 12 18 19 21 20 21 23 26 28 34 31 33 33 -177 35 34 34 35 35 -193 -193 44 45 48 50 52 52 53 52 55 55 59 62 60 64 64 63 68 66 66 69 67 -177 527 527 529 -177 350 -193 144 144 -193 -193 143 -193 -193 -193 -193 -177 -177 -193 -193 93 94 96 98 100 101 101 -209 -193 103 110 -193 -193 106 109 118 111 113 113 112 115 116 116 117 109 122 126 126 129 128 128 130 131 134 135 137 138 140 142 141 141 148 150 150 151 -193 -177 154 155 -177 -177 158 158 161 -177 -177 -193 -177 -193 173 -193 180 -193 398 398 398 398 -177 -177 -209 -209 11 13 -177 -193 -209 -193 83 80 80 -193 0 0 0 0 0
    0 0 0 0 0 0 0 0 0 0 0 0 0 0 0 0 0 0 0 0 0 0 0 0 0 0 0 0 0 0 0 0 0 0 0 0 0 0 0 0 0 0 0 0 0 0 0 0 0 0 0 0 0 0 0 0 0 0 0 0 0 0 0 0 0 0 0 0 0 49 49 47 49 48 48 48 47 46 45 44 46 32 35 34 33 38 27 28 25 25 29 27 28 32 32 33 34 32 33 31 36 32 32 31 31 30 30 29 30 26 27 25 25 23 21 21 20 20 16 16 13 12 13 15 15 15 -225 -225 -225 -225 -225 -225 -225 -225 -225 -225 -225 -225 -225 -225 -225 -225 -225 -225 -225 -225 -225 18 18 14 13 15 12 12 10 11 0 9 9 9 9 10 10 12 11 12 13 15 14 16 13 12 12 16 18 20 20 21 24 26 28 33 31 33 34 -177 35 34 34 35 35 -193 -193 45 45 49 52 53 53 54 54 56 57 60 63 60 63 64 63 67 66 66 68 67 527 527 526 -177 -177 349 145 143 143 140 141 142 -193 -193 -193 -193 -177 -177 -193 -193 -193 -193 95 97 100 101 -209 -193 -209 -193 114 -193 -193 108 114 118 112 114 114 112 115 116 117 118 111 122 126 126 129 129 130 130 131 134 135 137 139 140 141 140 141 148 151 -193 -193 -177 -177 155 156 -177 156 158 158 161 -177 -177 -193 -177 -193 174 -193 180 -193 398 398 398 -177 -177 -177 -209 -209 11 14 -177 -177 -209 -209 84 79 79 -193 0 0 0 0 0
    0 0 0 0 0 0 0 0 0 0 0 0 0 0 0 0 0 0 0 0 0 0 0 0 0 0 0 0 0 0 0 0 0 0 0 0 0 0 0 0 0 0 0 0 0 0 0 0 0 0 0 0 0 0 0 0 0 0 0 0 0 0 0 0 0 0 0 0 0 48 49 46 48 48 47 47 47 45 45 44 45 33 34 34 34 37 29 28 25 25 27 26 28 32 32 33 35 32 34 32 36 32 33 32 31 31 30 29 31 27 28 26 26 24 22 22 21 20 16 16 14 13 13 16 16 16 -225 -225 -225 -225 -225 -225 -225 -225 -225 -225 -225 -225 -225 -225 -225 -225 -225 -225 -225 -225 -225 20 17 15 15 16 14 12 11 12 9 10 9 10 10 10 11 12 12 12 13 15 13 15 12 11 11 15 17 20 20 22 24 26 27 33 31 33 34 33 35 34 34 35 34 40 40 44 45 49 53 53 54 55 55 57 58 60 64 60 62 64 63 66 66 66 68 67 -177 -177 -177 -193 -193 -193 145 143 142 140 141 142 -177 -193 -193 -193 -177 -177 -193 -177 -209 -193 94 96 99 100 -209 58 -193 -209 116 113 -193 108 114 119 112 114 114 113 116 117 117 118 114 122 126 126 128 128 129 129 131 133 135 136 138 140 141 140 140 148 -209 -177 -193 -177 -177 155 156 -177 157 158 158 161 -177 -177 -193 -177 -193 174 -193 180 -193 399 398 398 -177 -193 -177 -209 -209 10 12 8 -193 -209 -209 -209 78 78 -193 0 0 0 0 0
    0 0 0 0 0 0 0 0 0 0 0 0 0 0 0 0 0 0 0 0 0 0 0 0 0 0 0 0 0 0 0 0 0 0 0 0 0 0 0 0 0 0 0 0 0 0 0 0 0 0 0 0 0 0 0 0 0 0 0 0 0 0 0 0 0 0 0 0 0 48 49 46 48 47 47 47 47 45 45 43 45 36 36 36 35 36 31 30 27 27 28 25 27 33 33 33 35 33 35 32 36 32 33 32 32 31 31 29 32 28 29 27 27 26 24 24 23 21 17 16 15 13 13 16 16 16 -225 -225 -225 -225 -225 -225 -225 -225 -225 -225 -225 -225 -225 -225 -225 -225 -225 -225 -225 -225 -225 20 17 14 14 14 12 10 10 10 0 9 9 10 10 10 12 13 12 13 14 15 13 14 12 10 12 14 17 20 21 22 24 26 28 33 31 33 35 34 36 35 35 36 35 40 41 44 46 50 53 53 54 56 -193 57 59 61 63 60 63 66 64 67 68 67 69 68 -193 -193 -193 347 -177 -177 -193 142 142 -193 141 142 207 207 -177 -193 -193 -193 -193 -177 -209 -193 94 95 99 100 -193 -177 -209 -193 115 113 112 109 113 118 113 114 114 113 116 117 117 118 115 122 125 126 128 128 129 129 132 134 135 137 139 141 142 140 141 148 -209 -177 -193 -177 -177 155 156 -177 157 158 158 160 -177 -177 -193 -177 -193 174 -193 180 -193 399 398 398 -177 -177 -177 -209 -209 0 9 0 -193 -209 -209 -209 -209 -193 -193 0 0 0 0 0
    0 0 0 0 0 0 0 0 0 0 0 0 0 0 0 0 0 0 0 0 0 0 0 0 0 0 0 0 0 0 0 0 0 0 0 0 0 0 0 0 0 0 0 0 0 0 0 0 0 0 0 0 0 0 0 0 0 0 0 0 0 0 0 0 0 0 0 0 0 47 49 46 47 47 46 47 47 45 46 43 45 38 37 37 36 36 32 30 28 27 29 25 27 34 34 33 35 33 35 32 36 32 33 32 32 31 31 29 32 28 30 28 28 27 25 25 25 22 17 16 15 13 13 16 16 16 -225 -225 -225 -225 -225 -225 -225 -225 -225 -225 -225 -225 -225 -225 -225 -225 -225 -225 -225 -225 -225 23 20 16 15 15 13 11 11 11 10 10 9 11 10 11 11 12 12 12 13 14 12 12 10 10 12 14 17 20 20 22 23 25 28 32 31 33 35 34 36 35 36 36 35 40 41 43 46 50 53 53 54 55 56 57 58 60 62 60 63 65 64 67 68 67 69 69 72 -193 -193 347 -193 348 -193 142 141 -193 141 142 207 208 -177 -177 211 -193 -193 -177 -209 -193 -193 94 98 100 -193 -193 -209 108 114 112 111 109 111 118 113 114 114 113 115 117 117 118 115 121 125 126 128 128 129 129 132 134 135 137 139 142 143 141 141 148 -209 -177 -193 -177 -177 154 156 -177 156 157 157 160 -193 -177 -177 -177 -193 174 -209 181 -193 399 398 398 -177 -177 -177 -193 -209 -209 0 0 0 0 -209 -193 -209 -209 187 0 0 0 0 0
    0 0 0 0 0 0 0 0 0 0 0 0 0 0 0 0 0 0 0 0 0 0 0 0 0 0 0 0 0 0 0 0 0 0 0 0 0 0 0 0 0 0 0 0 0 0 0 0 0 0 0 0 0 0 0 0 0 0 0 0 0 0 0 0 0 0 0 0 0 46 49 46 47 47 46 46 46 45 46 43 45 39 36 36 34 35 31 29 27 26 29 26 27 33 34 32 34 33 35 32 36 32 33 32 32 31 30 29 32 28 31 28 28 27 26 25 25 23 18 16 15 14 13 16 16 16 -225 -225 -225 -225 -225 -225 -225 -225 -225 -225 -225 -225 -225 -225 -225 -225 -225 -225 -225 -225 21 22 18 15 14 14 11 10 10 10 9 9 9 10 10 11 10 11 11 11 12 13 10 11 9 10 13 13 18 19 20 21 23 25 27 30 31 32 35 34 35 35 36 36 36 40 41 43 46 50 52 52 53 55 55 56 58 59 61 59 63 65 64 67 68 67 69 69 -193 72 -193 347 -193 -193 -193 -193 -193 -193 141 142 -193 207 -177 -177 -177 -193 -209 -193 -209 291 -193 94 97 99 -193 -193 -209 108 112 111 109 108 110 116 114 113 114 112 115 117 117 118 115 121 126 127 129 130 131 131 133 135 136 138 140 143 144 141 142 148 -209 -193 -193 -177 -177 -193 155 -177 155 156 157 158 -193 -177 294 -177 -193 174 -209 181 -193 398 397 397 -193 -193 -177 -193 -193 -209 -209 0 0 0 -209 -193 -193 -209 -209 0 0 0 0 0
    0 0 0 0 0 0 0 0 0 0 0 0 0 0 0 0 0 0 0 0 0 0 0 0 0 0 0 0 0 0 0 0 0 0 0 0 0 0 0 0 0 0 0 0 0 0 0 0 0 0 0 0 0 0 0 0 0 0 0 0 0 0 0 0 0 0 0 0 0 46 48 46 46 46 46 46 46 44 45 42 44 39 33 33 31 33 31 28 26 26 28 26 28 32 34 32 33 33 35 32 36 32 32 32 31 30 30 29 32 29 31 29 28 28 26 26 26 24 18 16 16 14 12 16 16 16 -225 -225 -225 -225 -225 -225 -225 -225 -225 -225 -225 -225 -225 -225 -225 -225 -225 -225 -225 -225 18 19 17 15 13 13 10 10 9 9 0 0 0 9 9 10 10 11 11 11 13 13 11 11 9 9 13 14 18 20 20 21 23 25 27 29 30 30 34 33 34 35 36 36 36 40 42 42 46 49 52 50 52 54 54 55 57 58 60 59 62 65 64 66 69 67 69 69 -193 73 -209 -193 74 -193 75 -193 -193 73 141 142 -209 -193 -177 -193 -177 -209 -209 -177 -193 291 -193 94 97 99 -193 -193 -209 107 110 111 109 108 109 114 114 113 113 112 114 116 117 118 116 121 126 128 130 131 132 131 133 134 136 137 139 143 145 141 142 148 -193 150 150 -177 -177 -193 153 154 154 155 156 157 161 -177 293 -177 -177 174 -209 180 -193 397 396 -193 -193 -193 -193 -209 -193 -209 -209 -193 -193 0 -209 0 0 -209 -209 0 0 0 0 0
    0 0 0 0 0 0 0 0 0 0 0 0 0 0 0 0 0 0 0 0 0 0 0 0 0 0 0 0 0 0 0 0 0 0 0 0 0 0 0 0 0 0 0 0 0 0 0 0 0 0 0 0 0 0 0 0 0 0 0 0 0 0 0 0 0 0 0 0 0 46 48 46 46 46 46 46 46 44 45 42 44 40 31 31 31 31 30 26 25 25 28 26 28 32 34 33 33 33 35 31 36 32 32 32 31 30 30 29 32 29 31 29 29 28 27 26 26 24 19 16 16 14 12 16 16 16 -225 -225 -225 -225 -225 -225 -225 -225 -225 -225 -225 -225 -225 -225 -225 -225 -225 -225 -225 20 15 17 15 14 12 11 9 9 0 0 0 0 0 9 9 10 9 10 10 10 12 12 10 11 10 10 14 14 18 19 19 21 22 24 26 28 29 29 34 32 34 34 36 35 35 39 41 42 46 49 51 50 52 53 54 54 56 57 59 58 62 65 64 66 69 67 69 69 -193 73 -193 -193 75 0 75 -193 -193 73 141 142 -209 -209 -193 -193 -177 -209 -209 -177 -177 292 -193 94 97 99 -193 -209 -209 107 109 110 108 108 108 112 113 112 113 112 113 116 117 118 116 121 126 129 130 131 131 131 132 133 135 136 138 141 145 141 142 148 152 150 149 -193 -177 150 152 -177 152 154 155 156 160 -177 292 -177 294 -193 -209 180 184 396 395 -193 182 180 -193 -209 -193 -193 -193 77 -193 -193 -193 0 0 -193 -209 0 0 0 0 0
    0 0 0 0 0 0 0 0 0 0 0 0 0 0 0 0 0 0 0 0 0 0 0 0 0 0 0 0 0 0 0 0 0 0 0 0 0 0 0 0 0 0 0 0 0 0 0 0 0 0 0 0 0 0 0 0 0 0 0 0 0 0 0 0 0 0 0 0 0 46 48 45 46 46 46 46 45 44 45 42 45 41 30 31 31 30 29 25 24 25 28 27 28 32 34 33 33 33 35 31 35 32 32 32 31 30 30 29 32 29 32 29 29 28 27 26 26 25 20 16 16 14 12 16 16 16 -225 -225 -225 -225 -225 -225 -225 -225 -225 -225 -225 -225 -225 -225 -225 -225 -225 16 16 15 15 17 14 14 14 12 9 9 0 0 0 0 0 9 9 10 10 11 10 10 11 12 10 10 10 10 14 15 19 20 20 22 23 24 27 28 29 29 34 32 33 34 36 35 35 38 41 -193 46 49 51 49 51 53 53 53 56 56 59 58 62 65 64 65 69 66 68 -193 -177 73 -193 75 75 0 75 76 -193 73 -177 -177 -193 -193 -193 -193 -209 -209 -209 -177 -177 292 -193 93 96 99 97 100 103 106 108 109 107 107 107 110 112 111 112 111 112 116 117 117 116 120 125 129 130 131 132 131 132 133 134 135 138 141 146 141 142 148 151 149 148 149 -177 148 150 150 151 152 154 155 159 -177 291 -177 -177 -193 -209 180 183 -193 -177 188 183 182 -193 -209 -193 -193 -193 77 -193 -193 -193 0 0 0 -177 0 0 0 0 0
    0 0 0 0 0 0 0 0 0 0 0 0 0 0 0 0 0 0 0 0 0 0 0 0 0 0 0 0 0 0 0 0 0 0 0 0 0 0 0 0 0 0 0 0 0 0 0 0 0 0 0 0 0 0 0 0 0 0 0 0 0 0 0 0 0 0 0 0 0 46 48 46 46 46 46 45 45 44 45 42 44 41 29 31 32 31 31 27 26 27 31 30 30 33 35 33 33 34 35 31 35 32 31 32 31 30 30 29 32 29 32 29 28 28 27 26 26 25 20 16 16 14 12 16 16 16 -225 -225 -225 -225 -225 -225 -225 -225 -225 -225 -225 -225 -225 -225 11 9 14 13 14 13 14 15 14 14 14 11 9 9 0 0 0 0 0 9 9 10 10 11 10 10 11 11 9 9 9 10 15 15 19 21 22 24 25 25 27 29 29 30 34 31 33 33 37 35 35 38 41 -193 46 49 51 49 52 53 53 53 56 55 59 58 62 64 64 65 69 65 68 68 -177 73 -193 -193 74 0 75 77 -193 -193 -193 -193 -193 -193 -193 -193 -193 -209 -209 -177 -177 292 -193 93 96 99 97 100 102 105 107 107 107 106 106 108 111 110 111 111 112 115 116 117 115 118 124 128 129 130 131 131 132 132 134 135 138 141 146 143 143 148 151 148 148 148 150 147 148 149 149 150 154 154 158 -177 -177 -177 -177 -193 -209 180 183 -209 -177 188 183 183 -193 -193 -193 -193 -193 76 78 79 -193 0 0 0 15 0 0 0 0 0
    0 0 0 0 0 0 0 0 0 0 0 0 0 0 0 0 0 0 0 0 0 0 0 0 0 0 0 0 0 0 0 0 0 0 0 0 0 0 0 0 0 0 0 0 0 0 0 0 0 0 0 0 0 0 0 0 0 0 0 0 0 0 0 0 0 0 0 0 0 46 49 46 46 46 46 45 45 44 45 42 44 42 29 33 33 31 32 27 26 28 35 33 32 34 36 33 33 34 34 31 35 31 31 32 31 30 29 28 32 29 32 29 28 27 26 26 -193 -193 20 15 16 14 12 16 16 16 -225 -225 -225 -225 -225 -225 -225 -225 -225 -225 -225 -225 10 17 13 10 14 13 14 14 13 13 13 12 13 11 10 9 0 9 9 9 9 10 11 11 11 11 11 10 10 11 9 0 9 10 14 15 19 21 22 24 25 25 27 29 29 29 33 31 32 33 36 35 35 38 41 -193 46 48 50 48 50 52 52 51 54 54 59 58 62 64 64 65 69 65 68 69 -193 73 73 -193 74 0 75 -193 -193 -193 141 144 -193 -193 -193 -193 -209 -193 -209 -177 -177 293 -193 93 95 98 96 101 101 105 106 107 106 106 105 107 110 109 110 110 111 114 115 116 114 116 123 127 127 128 130 130 131 132 133 134 137 140 147 143 144 147 151 147 147 147 149 146 147 148 148 149 153 154 157 -177 -177 -177 -177 -193 -209 -193 183 -209 -177 189 183 183 -193 -193 -193 -193 75 76 78 79 -193 0 0 -193 -209 0 0 0 0 0
    0 0 0 0 0 0 0 0 0 0 0 0 0 0 0 0 0 0 0 0 0 0 0 0 0 0 0 0 0 0 0 0 0 0 0 0 0 0 0 0 0 0 0 0 0 0 0 0 0 0 0 0 0 0 0 0 0 0 0 0 0 0 0 0 0 0 0 0 0 46 50 46 46 47 46 46 45 44 45 42 44 42 33 37 36 34 36 29 27 29 39 36 35 34 36 33 32 33 34 30 34 30 30 31 30 29 29 28 32 29 31 29 27 27 25 25 -193 22 20 15 16 14 12 17 18 19 -225 -225 -225 -225 -225 -225 -225 -225 -225 -225 -225 9 0 13 14 11 13 13 14 14 13 12 12 11 11 10 0 0 0 0 10 9 9 10 11 12 11 11 11 9 9 10 9 9 9 11 15 15 19 21 22 23 24 25 27 28 29 29 33 31 32 32 36 35 34 38 41 -193 46 48 49 47 49 51 51 50 54 53 58 58 62 64 64 65 69 65 68 68 73 73 73 -193 -193 0 -193 -193 -193 -193 141 144 -193 -193 -193 -193 -209 -209 -209 -177 -177 293 -193 92 94 98 95 100 100 105 105 106 105 105 105 107 110 109 109 110 111 113 114 115 112 113 122 126 127 128 130 130 131 132 133 134 137 139 148 144 145 147 150 146 146 146 149 145 146 147 148 149 153 154 157 -177 -177 -177 -177 -193 -209 -193 183 -209 -177 189 183 183 -209 -193 -177 -193 75 76 77 79 -193 0 0 -193 -209 0 0 0 0 0
    0 0 0 0 0 0 0 0 0 0 0 0 0 0 0 0 0 0 0 0 0 0 0 0 0 0 0 0 0 0 0 0 0 0 0 0 0 0 0 0 0 0 0 0 0 0 0 0 0 0 0 0 0 0 0 0 0 0 0 0 0 0 0 0 0 0 0 0 0 46 50 46 46 47 46 45 45 44 45 41 43 41 36 38 39 39 39 38 28 34 40 37 36 35 36 34 32 34 33 30 34 30 30 31 30 29 29 28 31 29 31 28 27 26 25 25 -193 21 20 15 17 14 13 20 21 22 20 26 26 26 26 -225 -225 -225 -225 0 0 0 0 10 12 10 12 13 14 14 12 12 12 11 11 10 9 9 0 9 11 10 10 12 12 12 11 12 11 9 10 11 9 10 10 12 15 15 18 20 21 23 24 25 26 28 28 29 33 30 32 31 35 34 34 38 41 -193 46 47 48 47 48 50 51 49 52 51 58 58 61 62 63 63 68 64 67 67 72 72 -193 -193 -209 0 -193 -193 -209 -193 141 144 -193 -193 -209 -209 -209 -193 -209 -177 -193 -193 -193 92 94 97 94 98 98 105 105 105 -193 105 104 106 109 109 109 110 110 113 114 115 113 113 122 127 128 129 131 130 131 132 133 133 136 138 148 144 145 147 150 146 146 146 148 145 146 146 147 148 153 154 156 -177 -177 -177 -177 -193 -209 -209 183 -209 -177 -193 183 183 -209 -193 -177 -177 -193 76 77 79 75 0 0 0 0 0 0 0 0 0
    0 0 0 0 0 0 0 0 0 0 0 0 0 0 0 0 0 0 0 0 0 0 0 0 0 0 0 0 0 0 0 0 0 0 0 0 0 0 0 0 0 0 0 0 0 0 0 0 0 0 0 0 0 0 0 0 0 0 0 0 0 0 0 0 0 0 0 0 0 46 50 46 46 47 45 45 45 44 44 41 41 41 37 39 40 40 40 40 31 37 42 39 38 36 37 35 33 35 33 30 34 30 29 30 30 29 28 28 31 28 30 28 27 26 23 23 -193 20 20 15 17 15 15 23 24 23 23 26 26 26 26 24 23 20 9 0 0 0 0 10 11 10 12 12 14 13 12 11 11 10 10 9 0 0 0 0 10 9 10 11 12 12 12 12 12 10 12 12 11 11 12 13 15 16 18 20 22 23 25 26 27 29 29 30 33 30 32 32 35 35 34 38 41 41 46 48 48 47 48 50 50 48 52 51 57 58 61 62 63 62 68 64 66 66 71 70 71 -193 -193 -177 -193 -193 -193 70 -193 -193 70 -193 73 73 78 -209 -209 -193 -193 -193 -193 92 93 96 93 97 97 -193 -209 -209 -193 -209 103 105 109 109 110 110 110 114 114 115 113 112 122 127 128 130 132 131 133 132 134 133 135 137 146 143 144 145 150 145 145 146 148 144 145 146 147 147 153 153 156 -177 -193 -177 -177 -177 -209 -209 182 -209 -193 -193 -193 183 -209 -193 -177 -177 -193 -193 -193 78 -193 -193 0 0 0 0 0 0 0 0
    0 0 0 0 0 0 0 0 0 0 0 0 0 0 0 0 0 0 0 0 0 0 0 0 0 0 0 0 0 0 0 0 0 0 0 0 0 0 0 0 0 0 0 0 0 0 0 0 0 0 0 0 0 0 0 0 0 0 0 0 0 0 0 0 0 0 0 0 0 47 50 47 47 47 46 45 45 44 44 41 41 41 39 40 41 42 42 42 39 40 43 40 40 37 38 36 34 35 34 31 34 30 29 30 29 28 28 28 30 28 29 28 26 25 23 23 -193 20 19 14 17 16 17 25 25 25 25 27 27 27 27 25 24 24 21 0 0 0 0 0 10 9 11 12 13 13 12 11 12 10 10 9 0 0 0 9 11 9 10 11 12 12 13 13 12 10 12 12 11 11 12 12 14 15 18 21 24 25 27 28 29 31 30 31 34 31 33 32 36 35 34 38 42 41 46 48 48 46 48 50 51 48 52 52 58 59 62 63 62 62 68 64 66 66 70 69 70 -193 -193 -193 -209 -209 -193 70 -193 -193 71 -193 74 76 80 -209 -209 -209 -193 -193 92 92 93 96 93 96 95 -193 -209 -209 -193 -209 101 105 109 109 110 110 111 114 114 115 114 111 122 127 128 130 131 131 133 132 133 132 134 136 147 143 144 145 150 146 146 146 148 144 145 146 147 147 153 153 155 -177 -193 -177 -177 -177 -209 -209 -193 -209 -193 -193 -209 183 -193 -193 -193 -193 -193 -193 -193 -193 -209 -193 0 0 0 0 0 0 0 0
    0 0 0 0 0 0 0 0 0 0 0 0 0 0 0 0 0 0 0 0 0 0 0 0 0 0 0 0 0 0 0 0 0 0 0 0 0 0 0 0 0 0 0 0 0 0 0 0 0 0 0 0 0 0 0 0 0 0 0 0 0 0 0 0 0 0 0 0 0 48 51 48 48 48 46 46 46 44 44 42 42 41 40 40 43 42 42 42 41 41 43 41 41 37 37 36 34 36 34 31 34 29 28 29 29 28 28 28 30 27 28 27 26 25 22 22 20 19 19 14 17 17 20 25 26 27 26 27 28 28 28 26 26 26 25 11 10 0 0 0 9 9 10 11 12 12 11 11 11 9 9 9 0 0 0 9 12 10 11 12 13 13 13 13 11 9 11 11 10 11 11 13 14 15 18 20 24 25 27 28 29 32 31 32 34 31 34 33 36 36 34 39 43 42 46 48 48 47 48 50 51 49 54 54 60 60 62 63 63 62 68 64 66 66 70 68 69 70 -193 -193 70 -193 134 70 -209 -193 -193 75 77 80 82 86 88 89 91 91 91 91 92 95 92 93 93 -193 -193 -209 -209 -209 98 104 109 109 110 111 111 114 115 115 114 111 121 125 127 128 130 130 133 133 133 132 135 137 146 144 144 146 150 147 147 147 149 145 146 147 147 147 154 154 155 -177 -193 -177 -177 -177 -209 -209 -209 23 -193 -193 -177 183 398 -193 -193 -209 -193 -193 -177 -193 -209 -209 -193 0 0 0 0 0 0 0
    0 0 0 0 0 0 0 0 0 0 0 0 0 0 0 0 0 0 0 0 0 0 0 0 0 0 0 0 0 0 0 0 0 0 0 0 0 0 0 0 0 0 0 0 0 0 0 0 0 0 0 0 0 0 0 0 0 0 0 0 0 0 0 0 0 0 0 0 0 49 52 49 49 49 47 47 46 45 44 42 43 42 41 41 44 43 43 44 43 42 43 42 41 37 37 35 34 36 34 31 33 29 28 29 29 28 28 27 29 27 28 26 25 24 22 21 19 18 19 14 17 17 21 25 26 28 28 28 28 28 29 27 27 28 26 17 15 0 0 0 0 0 9 10 11 11 10 10 11 10 10 9 10 9 10 10 12 10 11 12 12 12 12 12 11 9 11 11 10 10 12 13 15 17 19 21 25 26 28 29 29 33 31 33 35 32 35 34 36 37 36 40 44 43 47 49 49 48 49 51 52 50 55 55 62 61 63 63 63 63 68 65 67 68 70 68 68 70 69 -193 69 70 -177 70 -209 74 74 77 79 84 84 86 87 88 90 90 90 91 91 93 90 -193 91 -193 -193 -193 -193 -209 98 104 110 109 111 112 112 115 115 116 115 111 121 124 126 128 130 130 133 133 134 133 135 136 144 144 144 146 151 147 147 148 150 146 147 148 148 148 154 154 156 -177 -193 -177 -177 -177 -177 -209 -209 23 -193 -193 -177 182 398 -193 -193 -193 -193 -193 -177 -193 -209 -209 -209 -209 -209 0 0 0 0 0
    0 0 0 0 0 0 0 0 0 0 0 0 0 0 0 0 0 0 0 0 0 0 0 0 0 0 0 0 0 0 0 0 0 0 0 0 0 0 0 0 0 0 0 0 0 0 0 0 0 0 0 0 0 0 0 0 0 0 0 0 0 0 0 0 0 0 0 0 0 49 52 50 49 49 48 48 47 45 45 43 43 43 42 41 45 44 44 45 45 44 44 44 43 39 39 36 34 36 33 31 32 29 28 28 29 28 28 27 29 27 27 26 -193 23 22 20 19 18 19 14 17 18 22 25 28 29 29 29 29 28 29 28 28 28 28 23 22 14 0 0 0 0 0 9 10 11 9 9 10 9 0 9 9 0 9 9 12 10 10 12 12 11 12 12 11 9 11 10 10 10 12 12 14 16 19 21 25 25 28 29 29 33 31 33 35 32 35 34 36 37 37 41 45 44 47 50 49 48 50 51 53 51 55 56 63 62 63 63 63 63 68 66 68 69 70 68 68 70 69 -193 69 70 -193 70 -193 74 75 78 81 85 85 86 87 87 89 89 90 90 90 91 88 75 -193 -193 -193 -193 71 -209 100 104 111 109 112 112 112 115 116 116 115 110 121 124 125 127 128 128 132 133 133 132 135 136 143 144 144 145 151 148 149 149 150 147 148 149 150 150 155 155 156 -177 159 -177 -177 -177 -177 -209 -209 23 -193 -193 398 -193 -177 399 -209 399 -193 -193 -177 -193 -209 178 -193 -209 -209 0 0 0 0 0
    0 0 0 0 0 0 0 0 0 0 0 0 0 0 0 0 0 0 0 0 0 0 0 0 0 0 0 0 0 0 0 0 0 0 0 0 0 0 0 0 0 0 0 0 0 0 0 0 0 0 0 0 0 0 0 0 0 0 0 0 0 0 0 0 0 0 0 0 0 49 52 51 50 49 49 48 48 46 45 44 44 44 43 42 46 44 45 45 46 44 45 45 44 40 40 37 34 34 32 31 30 28 27 28 28 28 28 27 29 26 27 26 25 23 22 20 20 18 19 15 18 19 23 25 29 30 30 29 29 29 29 28 28 27 27 23 19 12 0 0 0 0 0 0 8 10 0 0 9 0 0 9 9 0 9 9 12 11 11 13 12 11 12 12 12 9 11 10 9 10 12 12 14 16 19 21 25 25 27 28 29 32 30 32 34 32 34 34 35 37 37 41 45 44 47 51 49 48 49 50 53 51 55 56 62 62 63 63 63 62 68 67 68 69 70 68 69 70 69 -193 69 69 -193 70 -193 74 76 78 81 85 85 86 87 87 88 89 89 -193 90 90 -209 73 74 71 -193 -193 71 -209 102 105 113 110 112 112 112 115 116 116 115 110 121 123 124 126 127 127 130 131 131 131 134 136 144 145 144 146 151 150 150 150 151 148 149 150 -177 152 156 156 156 -193 158 -177 -177 306 308 -209 -209 24 -193 22 398 -193 -177 399 -209 399 -193 -193 -177 -209 -209 180 184 184 185 0 0 0 0 0
    0 0 0 0 0 0 0 0 0 0 0 0 0 0 0 0 0 0 0 0 0 0 0 0 0 0 0 0 0 0 0 0 0 0 0 0 0 0 0 0 0 0 0 0 0 0 0 0 0 0 0 0 0 0 0 0 0 0 0 0 0 0 0 0 0 0 0 0 0 49 52 51 50 50 50 49 49 47 46 44 45 45 44 42 47 44 45 45 46 45 45 45 44 41 40 37 35 33 31 30 29 28 27 27 28 27 28 28 28 26 27 26 25 24 22 21 20 19 20 17 20 22 25 27 31 31 31 30 29 29 29 28 28 27 27 22 20 15 10 0 0 0 0 0 0 9 0 0 9 0 0 10 10 9 10 9 12 11 11 13 11 11 12 12 11 9 12 11 9 10 12 12 15 16 19 20 24 25 27 28 28 32 30 32 33 32 34 35 34 37 37 41 44 44 47 51 49 48 49 50 54 52 55 57 61 62 63 62 63 62 68 67 69 70 70 69 69 70 69 -193 69 69 -193 71 73 74 76 78 80 85 84 85 86 87 88 88 89 -193 90 90 -209 -193 -193 70 -193 -209 -209 -209 104 106 115 110 114 114 113 116 116 117 116 111 121 124 125 127 128 128 130 132 133 133 136 137 145 147 146 147 151 151 151 152 152 150 150 152 -177 154 156 156 157 -193 159 305 -177 307 309 -209 -209 -209 -193 22 399 -193 -177 399 -209 -177 -209 -193 -177 -209 -209 180 184 184 185 0 0 0 0 0
    0 0 0 0 0 0 0 0 0 0 0 0 0 0 0 0 0 0 0 0 0 0 0 0 0 0 0 0 0 0 0 0 0 0 0 0 0 0 0 0 0 0 0 0 0 0 0 0 0 0 0 0 0 0 0 0 0 0 0 0 0 0 0 0 0 0 0 0 0 50 52 51 50 50 50 49 49 47 47 45 45 45 44 42 47 45 45 45 47 45 45 45 45 41 41 38 36 32 30 30 28 27 26 26 27 27 28 28 28 26 27 27 25 25 23 21 21 19 21 19 21 24 27 28 31 31 32 31 30 30 30 28 27 27 27 22 21 18 12 0 0 0 0 0 0 0 0 0 9 9 0 10 10 9 10 9 10 10 10 12 11 10 11 11 11 10 12 11 9 10 12 13 15 16 19 21 25 25 27 29 29 32 30 31 33 32 34 35 34 37 37 41 44 44 47 51 49 48 49 50 54 53 56 58 61 62 62 62 62 61 67 68 69 71 70 70 70 70 -193 -193 69 70 -209 -193 72 74 76 77 79 83 83 83 85 86 87 -209 -193 -193 90 90 -193 -209 -193 -193 -193 -193 -193 -193 105 106 115 111 115 115 114 117 117 117 117 111 121 122 123 124 125 125 127 129 132 133 136 137 143 146 145 146 151 152 152 -193 -193 151 151 154 156 155 157 157 158 -193 159 306 -177 308 310 -209 -209 -193 -209 22 -177 -193 -177 -177 -209 -193 -209 75 -193 -209 -193 180 184 184 185 0 0 0 0 0
    0 0 0 0 0 0 0 0 0 0 0 0 0 0 0 0 0 0 0 0 0 0 0 0 0 0 0 0 0 0 0 0 0 0 0 0 0 0 0 0 0 0 0 0 0 0 0 0 0 0 0 0 0 0 0 0 0 0 0 0 0 0 0 0 0 0 0 0 0 50 52 51 51 50 51 50 50 48 48 46 46 46 45 42 48 45 45 45 47 45 45 46 46 42 42 40 37 30 30 30 28 27 26 26 27 28 28 28 28 27 27 28 26 25 24 21 22 20 21 21 22 26 28 29 31 32 32 31 30 31 30 29 28 27 27 23 22 20 12 0 0 0 0 0 0 0 0 0 9 9 9 10 9 0 9 9 9 9 9 11 10 9 10 10 10 9 11 9 0 9 11 12 14 16 20 22 25 25 27 29 29 32 30 30 32 31 34 35 34 37 37 41 44 45 47 51 49 48 49 50 55 54 56 58 61 62 62 62 62 61 67 69 70 71 70 70 70 71 -193 -177 70 70 -193 -209 72 -193 75 77 77 82 80 81 83 -193 -193 -193 -193 -193 90 91 94 -209 -209 -193 99 105 106 -193 106 107 116 112 115 115 114 117 117 117 117 111 121 121 122 123 123 123 124 125 129 131 134 135 -209 145 143 144 151 154 -193 153 -193 -193 152 156 157 156 158 158 159 -193 -193 307 -177 308 310 -209 -209 -209 -209 22 -177 -177 -177 -177 -209 -209 -193 -193 -193 -209 -193 179 184 184 185 0 0 0 0 0
    0 0 0 0 0 0 0 0 0 0 0 0 0 0 0 0 0 0 0 0 0 0 0 0 0 0 0 0 0 0 0 0 0 0 0 0 0 0 0 0 0 0 0 0 0 0 0 0 0 0 0 0 0 0 0 0 0 0 0 0 0 0 0 0 0 0 0 0 0 50 52 51 51 51 51 50 50 49 49 46 47 47 45 42 48 45 46 46 48 45 45 46 46 42 42 40 38 29 30 30 28 27 26 27 27 28 29 28 29 27 27 28 27 26 25 22 22 20 -193 -193 23 29 28 30 31 32 33 31 30 31 30 30 28 27 26 22 20 18 9 0 0 0 0 0 0 0 0 9 9 10 9 10 10 9 10 9 0 9 9 10 9 9 9 9 9 9 9 0 0 0 10 12 13 16 20 23 25 25 26 29 28 31 30 30 31 30 33 34 33 37 37 40 43 45 47 50 49 48 49 50 55 54 55 59 61 63 62 62 62 61 67 70 70 71 70 71 71 71 608 609 70 71 -193 -193 72 -193 -193 76 76 79 78 80 82 -193 -193 -193 0 -177 90 91 96 -209 -193 100 102 106 106 107 107 107 116 112 115 115 114 116 117 117 117 111 119 120 121 122 122 122 122 123 126 128 133 -193 -209 -193 145 146 151 157 154 155 155 -193 154 157 159 157 158 159 160 161 -177 -193 -177 309 311 -209 -209 -209 -209 22 -177 -177 -177 -177 -193 -193 172 -193 -193 -209 -193 179 184 -193 185 0 0 0 0 0
    0 0 0 0 0 0 0 0 0 0 0 0 0 0 0 0 0 0 0 0 0 0 0 0 0 0 0 0 0 0 0 0 0 0 0 0 0 0 0 0 0 0 0 0 0 0 0 0 0 0 0 0 0 0 0 0 0 0 0 0 0 0 0 0 0 0 0 0 0 50 52 51 51 51 51 50 50 49 49 46 48 47 46 42 49 46 46 46 48 45 45 46 46 42 42 39 37 29 30 30 28 28 27 28 28 29 30 30 31 27 28 27 26 26 27 24 24 22 -193 -193 25 32 29 31 31 31 33 31 30 31 30 30 28 27 25 19 17 16 9 0 0 0 0 0 0 0 0 0 9 10 10 10 10 9 10 9 9 9 9 10 9 9 9 9 9 9 9 0 0 9 11 12 14 16 20 23 25 25 26 28 28 30 29 30 30 30 31 33 32 37 37 40 42 45 46 50 49 48 48 50 55 54 53 58 61 62 62 61 62 61 67 71 70 71 70 71 71 -193 608 609 -193 -193 -193 -193 73 -193 -193 75 75 78 77 79 81 -193 84 -177 -193 -193 90 92 97 100 105 103 104 107 106 108 108 108 116 113 115 115 114 116 117 117 117 111 117 119 120 121 121 121 121 122 124 126 -193 -193 -193 -193 144 145 150 158 155 155 156 157 155 159 160 158 159 159 161 162 -177 -193 -177 -177 -177 -177 -209 190 -209 22 -177 -193 -193 -193 171 172 172 -193 -193 -209 -193 179 -193 -193 185 0 0 0 0 0
    0 0 0 0 0 0 0 0 0 0 0 0 0 0 0 0 0 0 0 0 0 0 0 0 0 0 0 0 0 0 0 0 0 0 0 0 0 0 0 0 0 0 0 0 0 0 0 0 0 0 0 0 0 0 0 0 0 0 0 0 0 0 0 0 0 0 0 0 0 50 52 51 51 51 51 50 50 49 49 46 48 47 46 42 48 46 46 46 48 45 44 46 46 42 42 39 37 29 30 30 28 28 28 29 30 31 33 32 34 28 30 28 27 27 27 25 25 24 25 26 27 31 29 30 31 30 32 31 30 30 29 29 27 27 25 20 15 14 9 0 0 0 0 0 0 0 0 9 9 10 10 11 10 9 10 9 9 9 9 10 9 9 10 9 10 10 10 0 0 9 11 12 14 15 19 23 25 25 26 28 28 -177 -177 29 30 30 31 32 32 37 36 38 41 44 46 49 48 48 48 50 54 54 50 57 59 61 60 61 61 59 66 71 70 71 69 71 -193 608 609 609 -193 -193 141 -193 73 -193 75 75 74 77 77 79 81 -193 84 -177 -209 -209 -193 92 97 101 106 105 105 107 107 108 109 108 116 113 114 114 114 116 116 117 116 111 115 118 118 119 120 119 119 121 124 126 -193 -193 195 -193 142 143 150 158 155 155 155 158 156 160 160 159 159 160 161 163 -177 -193 -193 -177 -193 -177 -209 191 -209 22 -177 -193 -193 -193 171 172 173 -193 -193 -209 -193 -193 -193 -209 -193 0 0 0 0 0
    0 0 0 0 0 0 0 0 0 0 0 0 0 0 0 0 0 0 0 0 0 0 0 0 0 0 0 0 0 0 0 0 0 0 0 0 0 0 0 0 0 0 0 0 0 0 0 0 0 0 0 0 0 0 0 0 0 0 0 0 0 0 0 0 0 0 0 0 0 50 52 51 51 51 51 50 50 49 49 46 48 47 46 42 48 46 46 45 48 45 44 46 46 42 -193 39 38 29 31 30 28 27 27 28 30 31 32 31 31 28 30 28 27 27 28 26 27 26 27 27 29 31 29 30 31 30 31 30 29 29 28 28 26 25 23 19 14 12 10 0 0 0 0 9 9 9 9 10 10 11 11 12 10 9 9 9 0 9 9 10 9 9 10 10 10 10 9 0 0 0 10 11 12 13 17 23 24 25 26 27 27 -177 -177 29 29 29 30 32 33 37 36 37 40 43 45 48 47 46 46 49 53 53 49 57 58 60 60 60 60 58 64 71 69 71 69 72 -193 609 610 609 -193 -209 141 -193 73 74 75 74 -193 77 76 78 80 -193 -193 -177 -193 -209 -193 92 97 99 105 104 104 107 -193 109 109 109 117 114 114 114 113 115 116 116 116 111 113 117 118 118 118 117 117 120 123 124 -193 190 193 -193 142 142 149 -193 154 154 155 158 156 160 161 159 160 160 162 164 -177 -193 96 -177 -193 -209 -209 192 -193 22 -177 -193 179 173 172 172 173 173 174 -209 -193 -193 -193 -193 -193 0 0 0 0 0
    0 0 0 0 0 0 0 0 0 0 0 0 0 0 0 0 0 0 0 0 0 0 0 0 0 0 0 0 0 0 0 0 0 0 0 0 0 0 0 0 0 0 0 0 0 0 0 0 0 0 0 0 0 0 0 0 0 0 0 0 0 0 0 0 0 0 0 0 0 51 52 51 52 51 52 50 50 49 49 46 48 47 45 42 47 46 46 45 47 45 44 45 45 42 -193 39 38 29 31 31 29 27 26 27 28 29 29 27 27 25 27 27 26 26 27 26 27 27 28 29 30 31 29 29 30 29 30 29 28 28 27 27 25 24 20 17 13 12 10 0 0 0 0 10 9 9 9 10 10 11 11 12 9 9 0 0 0 9 9 9 9 9 10 10 11 10 10 0 0 9 10 10 11 11 15 22 23 25 25 27 27 -177 29 29 29 29 30 32 33 37 35 36 39 42 44 46 45 45 44 48 52 52 48 57 57 60 59 59 59 58 62 71 68 70 68 71 -193 609 611 610 -209 -193 142 75 73 74 75 73 -193 76 76 78 80 -193 -193 -177 -177 -193 -193 93 97 98 103 103 103 106 -193 108 110 109 116 114 114 114 113 115 115 116 115 111 112 118 118 118 118 118 118 121 124 127 -193 -193 -193 -193 142 142 149 -193 153 153 154 -193 156 159 160 159 160 160 162 164 -177 -193 95 -177 -193 -177 -209 192 195 22 -193 -193 181 174 172 172 174 173 173 -193 -193 -193 -193 290 290 0 0 0 0 0
    0 0 0 0 0 0 0 0 0 0 0 0 0 0 0 0 0 0 0 0 0 0 0 0 0 0 0 0 0 0 0 0 0 0 0 0 0 0 0 0 0 0 0 0 0 0 0 0 0 0 0 0 0 0 0 0 0 0 0 0 0 0 0 0 0 0 0 0 0 51 53 51 52 51 52 51 50 50 49 46 48 47 45 42 46 46 45 45 47 44 44 45 45 -193 -193 38 38 29 32 31 30 27 26 27 29 28 29 26 26 24 26 27 26 25 27 26 27 27 28 28 29 31 29 29 29 29 29 29 28 28 27 26 25 24 15 13 11 11 9 0 0 0 0 10 9 10 9 10 10 12 11 11 9 9 0 0 0 0 9 9 9 9 10 10 11 10 10 9 9 9 10 11 11 12 15 23 23 26 27 28 28 30 30 29 30 30 31 32 34 37 35 35 38 41 44 45 45 44 44 48 52 52 47 56 57 59 58 59 59 57 61 71 67 69 68 -193 -193 611 -193 -177 -193 73 142 75 73 -193 -193 73 -193 75 75 -193 79 -193 -193 -177 -193 -193 -193 93 96 98 102 101 102 105 -193 108 110 109 116 115 113 113 113 114 115 116 115 111 112 117 118 118 118 118 119 123 129 131 133 -193 -193 143 141 141 148 -193 152 152 153 -193 156 158 160 159 160 160 163 165 -193 -193 94 -177 96 -209 -193 192 195 21 -193 -193 182 175 173 172 173 172 172 -193 -209 -193 -193 -193 -177 0 0 0 0 0
    0 0 0 0 0 0 0 0 0 0 0 0 0 0 0 0 0 0 0 0 0 0 0 0 0 0 0 0 0 0 0 0 0 0 0 0 0 0 0 0 0 0 0 0 0 0 0 0 0 0 0 0 0 0 0 0 0 0 0 0 0 0 0 0 0 0 0 0 0 50 52 51 53 52 52 51 50 50 49 46 47 46 45 42 46 46 45 44 46 44 43 45 44 -193 -193 37 37 29 32 32 31 28 27 28 30 29 30 26 26 24 26 26 26 25 26 25 27 27 27 28 28 30 28 28 29 28 28 28 27 26 25 25 23 21 13 12 10 10 0 0 0 0 0 10 9 10 9 11 11 12 11 11 9 9 9 0 0 0 9 9 9 9 10 10 11 10 10 9 10 10 11 11 11 12 15 23 23 25 27 28 28 30 30 29 30 30 31 32 35 37 36 36 38 41 44 45 45 44 44 47 51 52 46 56 58 59 58 59 58 57 60 70 66 69 68 71 -193 -193 -193 -193 0 74 142 75 73 -193 -193 72 -193 -193 -193 -193 -193 -193 -193 175 -193 -193 -193 93 96 97 101 101 101 105 -193 108 110 108 116 115 112 112 112 113 115 115 114 111 111 117 118 118 118 118 119 124 128 129 131 -193 135 141 140 140 146 -193 150 151 152 -193 155 157 159 158 159 160 163 165 -193 -193 94 -177 95 -209 -193 191 194 21 22 -193 182 175 173 171 172 171 170 -193 -209 -209 -193 -193 -193 0 0 0 0 0</data></disparity>
</opencv_storage>
