<?xml version="1.0"?>
<opencv_storage>
<gps_time_stamp>319407</gps_time_stamp>
<gps_x>-1.2406546592712402e+001</gps_x>
<gps_y>1.0962196350097656e+001</gps_y>
<gps_z>-2.0018174648284912e+000</gps_z>
<image_time_stamp>310260</image_time_stamp>
<disparity type_id="opencv-matrix">
  <rows>88</rows>
  <cols>320</cols>
  <dt>s</dt>
  <data>
    0 0 0 0 0 0 0 0 0 0 0 0 0 0 0 0 0 0 0 0 0 0 0 0 0 0 0 0 0 0 0 0 0 0 0 0 0 0 0 0 0 0 0 0 0 0 0 0 0 0 0 0 0 0 0 0 0 0 0 0 0 0 0 0 0 0 0 0 0 47 47 46 47 46 46 46 45 45 45 44 45 41 41 43 42 41 38 -209 -209 0 -209 0 0 0 0 0 0 9 0 0 0 0 9 11 11 12 9 10 10 0 0 0 0 0 0 0 0 0 9 9 9 0 11 11 10 9 0 0 0 9 9 0 0 9 12 9 10 9 9 10 11 11 11 10 11 12 13 13 13 12 12 12 11 12 12 10 10 11 10 11 11 11 11 11 13 14 13 16 15 13 15 15 15 15 14 13 13 12 12 12 12 11 11 11 11 17 25 26 27 30 36 39 40 39 39 39 49 54 54 53 -193 55 -177 -193 -177 -193 55 -209 -209 -209 145 -193 -209 68 65 67 71 83 78 -193 -193 -193 80 82 82 82 82 -193 88 -193 -193 94 98 97 97 97 95 100 96 100 101 98 100 100 99 -193 752 751 -193 -209 -177 -177 255 255 253 -193 252 -193 108 864 -193 -193 126 130 132 134 -193 -193 148 143 147 147 146 146 147 146 148 143 147 -193 147 149 150 149 153 154 168 171 174 172 172 172 172 172 171 172 174 172 183 182 183 183 184 184 184 186 188 189 190 190 192 187 190 200 213 0 0 0 0 0
    0 0 0 0 0 0 0 0 0 0 0 0 0 0 0 0 0 0 0 0 0 0 0 0 0 0 0 0 0 0 0 0 0 0 0 0 0 0 0 0 0 0 0 0 0 0 0 0 0 0 0 0 0 0 0 0 0 0 0 0 0 0 0 0 0 0 0 0 0 48 47 46 48 46 47 46 45 45 45 44 45 40 40 41 39 38 35 -209 -209 -209 -193 0 0 0 0 0 10 11 10 0 10 9 12 11 12 12 10 11 12 9 0 0 0 0 0 0 0 0 9 10 9 0 11 11 10 9 0 0 0 0 9 0 0 0 10 0 9 9 9 10 11 11 11 10 11 12 13 12 12 12 11 11 11 12 11 10 10 11 10 11 12 11 11 11 13 14 13 16 15 14 14 16 15 15 15 14 14 13 13 13 12 12 12 11 11 17 25 26 27 31 36 39 40 40 40 40 49 55 55 -193 -177 56 210 211 -193 -209 42 45 -209 -209 146 -209 -177 -193 65 68 71 84 79 -193 -193 -193 80 82 82 83 83 -193 -193 -193 90 94 98 97 97 97 94 100 96 100 102 98 100 -177 100 -193 752 751 -193 107 -193 254 255 256 254 -193 252 -193 -193 865 -193 -193 126 131 133 134 -193 -193 -193 143 146 146 146 145 146 145 147 142 146 -193 145 148 149 148 153 152 166 168 174 171 172 172 172 172 172 173 174 171 180 180 182 181 182 183 183 187 191 194 195 195 195 188 189 199 212 0 0 0 0 0
    0 0 0 0 0 0 0 0 0 0 0 0 0 0 0 0 0 0 0 0 0 0 0 0 0 0 0 0 0 0 0 0 0 0 0 0 0 0 0 0 0 0 0 0 0 0 0 0 0 0 0 0 0 0 0 0 0 0 0 0 0 0 0 0 0 0 0 0 0 48 47 46 48 46 47 46 45 45 44 45 45 40 39 38 35 33 30 -209 -193 12 -193 -209 9 10 11 11 12 13 12 10 13 12 13 12 13 13 11 12 13 10 9 0 0 0 0 0 0 0 9 11 9 9 10 11 10 9 0 0 0 0 9 0 0 0 9 0 9 0 9 10 11 11 11 11 12 12 13 13 12 12 11 11 11 12 11 10 10 11 10 11 12 11 11 12 13 14 13 16 15 13 14 16 14 14 15 13 13 13 12 12 12 12 12 10 11 17 26 26 28 32 37 40 -177 40 40 40 48 56 55 -193 -177 -193 210 211 -193 -209 39 41 -209 -209 148 -193 -193 115 64 68 71 85 81 80 -193 84 81 83 83 83 83 -193 90 92 91 94 99 97 97 97 94 100 97 99 102 98 100 100 100 101 750 750 -193 107 -193 -177 -177 -177 -177 -193 -193 -193 115 866 -193 -193 126 131 133 134 -193 -193 149 143 146 146 145 145 146 144 146 142 145 145 144 147 148 148 153 152 165 169 175 172 172 172 172 172 172 173 174 170 179 179 181 181 182 183 184 189 194 195 196 196 194 190 190 197 206 0 0 0 0 0
    0 0 0 0 0 0 0 0 0 0 0 0 0 0 0 0 0 0 0 0 0 0 0 0 0 0 0 0 0 0 0 0 0 0 0 0 0 0 0 0 0 0 0 0 0 0 0 0 0 0 0 0 0 0 0 0 0 0 0 0 0 0 0 0 0 0 0 0 0 48 46 45 48 46 46 46 45 45 44 45 45 40 39 38 34 33 31 -209 -193 15 -193 10 10 10 10 11 13 13 12 11 14 14 15 14 15 14 13 14 14 12 11 9 9 9 0 0 9 10 10 12 10 10 10 11 10 9 0 0 0 0 9 0 0 0 9 0 9 9 9 10 11 11 12 11 12 13 13 12 12 12 11 11 11 12 11 10 10 11 10 11 12 12 11 12 12 14 13 15 14 13 13 15 14 14 15 13 13 13 12 12 12 12 12 10 10 17 27 27 29 33 38 41 -177 41 41 41 48 57 55 -193 206 -193 211 212 213 -209 37 40 -209 -209 149 143 -193 117 63 68 71 85 81 80 79 84 81 83 83 83 84 -193 90 92 92 94 99 97 97 97 94 100 97 98 102 97 100 100 100 101 749 749 -193 107 115 -177 -177 -177 -193 -193 252 -193 -209 864 123 126 126 130 133 -193 -193 -193 149 143 145 146 145 144 145 144 146 141 145 145 144 147 148 148 153 154 165 169 175 171 172 172 172 172 172 172 173 170 180 180 182 183 184 185 186 190 193 194 195 195 194 190 190 196 202 0 0 0 0 0
    0 0 0 0 0 0 0 0 0 0 0 0 0 0 0 0 0 0 0 0 0 0 0 0 0 0 0 0 0 0 0 0 0 0 0 0 0 0 0 0 0 0 0 0 0 0 0 0 0 0 0 0 0 0 0 0 0 0 0 0 0 0 0 0 0 0 0 0 0 48 46 45 48 46 46 46 45 45 44 45 45 41 40 40 35 35 33 -193 -209 17 18 11 11 10 11 11 13 14 12 12 16 16 17 16 16 14 14 14 14 12 12 10 10 9 9 9 10 11 11 13 11 10 11 11 10 9 0 0 0 0 0 0 0 0 9 9 10 10 10 11 12 12 13 12 13 13 13 12 12 11 11 10 10 11 11 11 11 12 10 11 12 12 11 12 12 13 12 14 13 12 13 15 14 14 15 14 14 13 13 13 12 12 12 9 9 17 28 28 31 36 39 42 -177 43 43 43 47 57 54 54 207 -193 211 212 213 -209 36 39 -193 -209 150 148 -193 -193 -193 69 72 85 81 80 79 83 81 83 83 83 83 540 90 92 92 93 98 97 97 97 94 99 96 97 101 -177 -177 100 100 101 -193 748 -193 108 115 254 256 -177 -193 -193 252 254 -209 -193 124 126 125 130 132 -193 -193 138 148 144 145 146 145 144 144 143 145 141 144 145 142 146 147 -193 -193 159 166 170 174 171 171 171 171 171 172 172 173 170 180 180 182 182 183 184 185 188 190 192 194 194 193 191 190 195 200 0 0 0 0 0
    0 0 0 0 0 0 0 0 0 0 0 0 0 0 0 0 0 0 0 0 0 0 0 0 0 0 0 0 0 0 0 0 0 0 0 0 0 0 0 0 0 0 0 0 0 0 0 0 0 0 0 0 0 0 0 0 0 0 0 0 0 0 0 0 0 0 0 0 0 48 46 45 48 46 46 46 45 45 44 44 44 41 41 41 37 38 37 -209 -209 -209 20 12 12 11 11 12 13 14 12 13 17 17 17 16 17 15 15 14 13 12 12 10 11 10 10 10 12 12 13 15 13 11 12 12 11 9 0 0 0 0 0 0 0 0 9 10 10 10 11 12 13 12 13 13 13 13 13 12 12 12 11 11 11 12 11 11 11 12 11 12 12 12 12 12 12 13 12 14 13 12 13 15 14 14 15 13 13 13 13 13 11 12 12 9 9 18 31 31 35 38 41 44 -177 44 44 44 46 56 53 52 -193 -193 212 212 214 -193 35 38 -193 -209 151 150 148 -209 63 69 72 85 81 80 79 82 81 83 83 83 83 539 90 91 92 92 98 97 97 97 94 99 96 95 101 -177 -177 99 99 100 -193 747 -193 108 115 253 256 -177 -177 253 252 -193 -209 -209 124 126 125 129 131 -193 134 -193 147 143 144 146 145 144 144 143 144 141 143 144 142 146 146 -193 -193 162 165 170 172 170 170 170 170 170 171 172 173 170 179 179 182 182 183 184 185 188 190 193 195 194 193 192 191 196 200 0 0 0 0 0
    0 0 0 0 0 0 0 0 0 0 0 0 0 0 0 0 0 0 0 0 0 0 0 0 0 0 0 0 0 0 0 0 0 0 0 0 0 0 0 0 0 0 0 0 0 0 0 0 0 0 0 0 0 0 0 0 0 0 0 0 0 0 0 0 0 0 0 0 0 48 46 45 48 46 46 46 45 44 43 44 44 41 41 42 39 39 40 41 -209 -209 -209 -209 14 12 12 12 14 15 12 15 18 18 17 16 18 16 14 14 12 11 11 11 12 11 11 12 14 14 15 18 15 12 13 13 11 10 0 0 0 0 0 0 0 0 9 10 12 11 12 12 13 13 13 13 13 13 13 12 12 12 11 11 11 12 12 12 12 13 12 12 12 12 12 12 12 13 12 13 13 12 13 14 13 13 14 13 13 13 12 12 11 11 11 0 0 -177 -177 36 38 40 42 45 44 44 44 44 45 55 52 51 -193 52 -193 213 -193 -177 35 38 40 -193 152 151 151 -209 63 70 73 85 82 80 79 82 81 83 83 83 83 -177 90 91 93 92 97 96 96 96 94 98 96 94 100 -177 -177 98 98 100 -193 -193 106 107 115 253 256 -177 -177 253 252 -193 -209 -209 123 125 125 129 131 -193 133 -193 146 143 143 146 144 144 143 143 143 140 142 144 141 145 145 -193 -209 165 165 170 172 170 170 170 170 170 172 172 173 170 178 178 181 181 183 184 184 187 189 193 194 193 193 193 193 196 200 0 0 0 0 0
    0 0 0 0 0 0 0 0 0 0 0 0 0 0 0 0 0 0 0 0 0 0 0 0 0 0 0 0 0 0 0 0 0 0 0 0 0 0 0 0 0 0 0 0 0 0 0 0 0 0 0 0 0 0 0 0 0 0 0 0 0 0 0 0 0 0 0 0 0 48 45 45 48 46 45 46 45 44 43 44 44 41 42 43 41 41 42 43 43 42 -193 -209 -193 -193 13 13 15 16 13 16 19 18 18 -193 19 18 15 15 13 12 13 12 13 12 12 13 16 17 18 20 18 14 15 15 13 11 9 0 0 0 0 0 0 9 10 11 12 12 13 12 14 12 13 13 13 13 13 12 12 11 12 11 11 13 11 12 12 13 12 12 13 12 12 13 12 13 12 13 13 12 13 14 12 13 14 13 13 13 13 12 10 11 10 0 0 -177 -177 -193 41 42 45 47 46 45 45 45 44 54 50 49 -193 50 50 213 -193 42 35 38 39 39 -193 151 152 -193 63 70 74 85 82 80 79 82 82 83 83 83 83 -177 90 90 -193 92 97 96 96 96 94 98 96 94 99 -177 -177 97 98 99 99 -193 -193 107 113 253 256 -177 -177 -177 251 -193 -209 -193 122 124 125 129 131 133 134 136 144 143 143 145 144 143 143 142 142 140 141 143 140 144 -193 -193 -193 170 166 170 172 170 170 170 170 170 172 173 173 170 178 179 181 181 182 183 184 186 188 191 193 192 192 194 193 195 199 0 0 0 0 0
    0 0 0 0 0 0 0 0 0 0 0 0 0 0 0 0 0 0 0 0 0 0 0 0 0 0 0 0 0 0 0 0 0 0 0 0 0 0 0 0 0 0 0 0 0 0 0 0 0 0 0 0 0 0 0 0 0 0 0 0 0 0 0 0 0 0 0 0 0 47 45 45 48 45 45 45 45 44 43 44 44 42 42 44 42 42 44 44 44 43 43 -209 -209 -209 15 15 16 17 15 17 19 19 -193 -209 20 19 16 17 14 13 14 13 14 13 13 15 17 18 20 21 20 17 17 16 15 13 11 9 0 0 0 0 0 0 10 11 12 12 13 12 13 12 13 12 13 12 13 11 12 11 12 11 11 13 11 12 12 12 12 12 12 12 11 13 12 12 12 13 12 12 12 13 12 12 13 12 12 13 12 12 10 10 9 0 0 -177 -177 -177 42 44 46 48 46 46 46 46 44 54 49 48 47 49 49 -193 45 42 35 37 39 39 -193 -177 153 155 67 71 75 85 83 81 80 82 83 83 83 83 84 -177 90 90 -193 92 97 97 97 97 94 98 97 93 99 -177 -177 96 96 97 -193 -193 -193 106 110 253 255 -177 -177 252 -193 -193 -209 -193 121 123 126 129 131 132 133 135 142 142 142 144 143 142 142 142 141 140 140 142 -193 -193 -193 -193 187 172 167 171 172 169 169 169 169 169 171 172 173 170 177 179 181 181 182 183 184 186 187 190 192 191 191 193 193 194 199 0 0 0 0 0
    0 0 0 0 0 0 0 0 0 0 0 0 0 0 0 0 0 0 0 0 0 0 0 0 0 0 0 0 0 0 0 0 0 0 0 0 0 0 0 0 0 0 0 0 0 0 0 0 0 0 0 0 0 0 0 0 0 0 0 0 0 0 0 0 0 0 0 0 0 47 45 45 48 45 44 45 44 43 43 43 43 42 42 45 42 42 45 44 44 44 43 -193 -209 -209 18 18 17 18 15 17 18 18 -193 -193 20 19 17 18 15 15 15 14 15 14 15 16 17 18 20 21 21 19 19 19 18 16 14 11 9 10 9 10 10 10 12 12 12 12 13 12 13 12 13 12 13 12 13 12 12 11 13 12 12 13 11 12 12 12 11 11 11 11 11 12 11 11 12 12 12 12 12 12 12 12 13 12 12 12 12 11 10 9 0 0 0 16 -177 -177 43 44 47 49 47 46 47 47 43 53 48 47 46 47 48 45 45 42 35 38 40 40 -193 -177 154 156 70 72 76 84 83 81 80 82 83 83 83 83 84 -177 90 90 -193 92 97 97 97 97 95 98 97 92 97 -177 94 93 94 95 -193 -193 -193 105 -193 253 254 -177 -193 251 -193 -193 -209 -193 -193 123 126 128 130 131 133 135 140 142 142 144 143 142 142 141 140 140 139 141 -193 -193 -193 -193 187 170 168 171 172 168 168 168 168 168 170 171 171 169 176 181 182 182 182 183 184 186 187 189 190 189 190 193 193 194 198 0 0 0 0 0
    0 0 0 0 0 0 0 0 0 0 0 0 0 0 0 0 0 0 0 0 0 0 0 0 0 0 0 0 0 0 0 0 0 0 0 0 0 0 0 0 0 0 0 0 0 0 0 0 0 0 0 0 0 0 0 0 0 0 0 0 0 0 0 0 0 0 0 0 0 47 45 45 47 44 44 45 44 43 42 43 43 42 43 46 43 42 46 45 45 44 43 -193 -193 -193 19 19 18 17 15 17 18 19 -193 -193 21 19 16 18 15 15 15 14 15 14 16 18 18 19 21 22 22 21 20 20 20 19 17 13 11 11 11 12 12 11 13 12 12 12 13 12 13 12 13 11 12 12 13 12 12 11 13 12 12 13 11 12 12 12 12 11 11 11 11 12 11 11 11 12 11 12 12 12 12 11 12 12 11 11 11 11 9 9 0 0 0 16 31 46 42 43 45 48 46 46 46 46 42 51 47 46 44 46 48 45 44 42 35 39 41 42 -209 -177 -193 157 -209 72 76 83 83 81 80 81 84 83 83 83 84 -177 89 89 -193 91 97 97 97 97 95 98 96 92 96 -177 -193 -193 -193 -193 -177 -193 -209 -209 -193 253 254 253 -193 251 -193 -193 -193 -193 117 122 126 127 129 130 133 135 -193 143 142 144 143 142 142 141 140 140 139 141 -193 -193 -193 -193 -193 -193 168 171 171 168 168 168 168 167 169 171 171 170 178 183 184 183 183 184 185 185 186 188 189 190 191 194 195 196 199 0 0 0 0 0
    0 0 0 0 0 0 0 0 0 0 0 0 0 0 0 0 0 0 0 0 0 0 0 0 0 0 0 0 0 0 0 0 0 0 0 0 0 0 0 0 0 0 0 0 0 0 0 0 0 0 0 0 0 0 0 0 0 0 0 0 0 0 0 0 0 0 0 0 0 47 46 45 47 44 43 45 44 43 42 42 42 42 44 47 43 43 46 45 45 44 43 44 -193 -193 -209 21 19 18 15 18 20 -193 -193 21 21 19 17 18 15 15 16 15 16 15 17 20 19 20 22 22 22 22 21 21 20 19 18 14 12 11 11 11 11 11 13 12 13 12 13 12 13 12 13 11 12 12 13 12 12 11 13 11 11 12 11 12 12 12 12 12 11 12 12 12 11 12 12 12 11 12 12 12 12 12 12 12 12 12 11 11 10 9 0 0 0 14 27 43 40 41 42 45 44 45 45 44 41 49 45 44 43 44 46 44 43 41 35 39 42 44 -209 -177 -209 -193 -209 72 75 82 83 81 81 81 84 82 82 82 83 -177 -193 -193 -209 -193 96 97 97 97 95 97 96 91 94 -177 -193 -193 -193 -193 -177 -193 -209 -177 250 252 253 252 -193 250 -193 246 -193 -193 114 122 125 128 129 131 133 134 -193 143 141 144 143 142 142 141 140 140 139 140 -193 -193 -193 -193 -193 166 168 170 171 167 168 168 167 167 170 171 172 171 178 183 184 183 183 184 185 186 187 188 190 190 191 194 195 196 199 0 0 0 0 0
    0 0 0 0 0 0 0 0 0 0 0 0 0 0 0 0 0 0 0 0 0 0 0 0 0 0 0 0 0 0 0 0 0 0 0 0 0 0 0 0 0 0 0 0 0 0 0 0 0 0 0 0 0 0 0 0 0 0 0 0 0 0 0 0 0 0 0 0 0 47 46 45 47 44 43 45 45 43 42 42 42 -193 44 47 44 43 47 45 46 45 43 44 -193 -193 -209 21 19 17 15 18 20 19 21 21 21 19 17 18 16 15 16 15 17 18 18 21 20 21 22 22 22 22 21 21 20 19 18 13 11 10 10 10 10 10 12 12 12 12 13 12 13 13 13 11 12 12 13 13 13 11 12 12 11 12 11 12 12 12 13 12 12 12 12 13 12 12 12 12 12 13 13 12 12 12 12 12 12 12 11 11 11 10 10 9 9 13 24 40 36 38 40 43 43 44 43 43 41 47 45 44 42 43 46 43 43 40 36 40 43 45 -209 -177 -209 -209 -193 71 75 80 82 81 81 81 84 82 82 82 83 -177 -209 -193 -209 -209 96 97 97 97 95 96 95 91 93 -177 -193 -193 320 -177 -177 -193 -193 -177 250 252 252 251 -193 -193 -193 245 -209 -193 108 121 125 128 130 131 132 134 -193 143 141 143 142 142 142 142 140 140 138 140 -193 -193 140 -193 -193 164 169 170 170 168 168 168 168 168 170 172 172 172 178 183 183 183 183 184 185 187 187 189 191 191 192 195 196 197 199 0 0 0 0 0
    0 0 0 0 0 0 0 0 0 0 0 0 0 0 0 0 0 0 0 0 0 0 0 0 0 0 0 0 0 0 0 0 0 0 0 0 0 0 0 0 0 0 0 0 0 0 0 0 0 0 0 0 0 0 0 0 0 0 0 0 0 0 0 0 0 0 0 0 0 47 46 45 47 44 43 44 45 43 42 42 42 -193 43 47 43 42 46 45 45 44 43 43 -193 -209 -209 22 19 16 15 17 19 19 20 20 20 19 17 18 16 15 16 16 17 19 19 21 21 21 22 23 22 22 20 21 18 18 16 12 11 10 9 10 11 10 12 12 12 12 13 12 12 13 13 11 13 12 13 13 13 12 12 12 12 13 11 13 12 12 13 12 12 13 12 14 12 13 13 13 13 13 13 13 12 12 12 13 13 12 12 12 11 11 10 10 10 13 22 34 29 33 38 41 42 42 42 42 40 46 45 44 42 42 46 43 43 41 37 40 44 48 -209 -177 -193 -193 -209 71 74 78 82 81 81 81 85 82 83 83 84 -177 -209 -193 -193 -193 96 96 96 96 95 95 94 90 91 -177 -193 -193 -193 -177 -177 -193 -193 -177 249 252 251 251 -193 -193 -209 245 -209 -193 -193 -193 -193 128 130 132 133 -193 -193 -193 140 143 142 142 142 141 140 140 137 139 -193 -193 139 -193 148 162 169 169 169 167 168 168 168 168 170 171 172 172 177 183 183 183 184 184 185 187 188 189 191 191 193 195 197 198 199 0 0 0 0 0
    0 0 0 0 0 0 0 0 0 0 0 0 0 0 0 0 0 0 0 0 0 0 0 0 0 0 0 0 0 0 0 0 0 0 0 0 0 0 0 0 0 0 0 0 0 0 0 0 0 0 0 0 0 0 0 0 0 0 0 0 0 0 0 0 0 0 0 0 0 47 46 45 47 44 43 44 44 43 42 42 42 -193 43 46 43 42 46 45 45 44 43 43 -209 -209 -209 22 19 14 13 15 18 17 19 19 19 18 17 18 16 16 16 17 18 20 20 22 21 22 23 23 23 22 20 20 18 18 15 11 11 10 9 10 10 10 12 11 12 12 13 12 12 13 13 12 13 12 13 13 13 12 13 13 13 13 12 14 13 13 14 13 13 13 13 14 12 13 13 12 12 13 12 13 12 12 12 13 13 12 12 12 11 11 10 10 10 11 20 27 27 29 36 40 41 42 41 41 39 45 45 44 42 43 46 44 44 41 39 40 44 49 -209 -177 154 -193 -193 71 74 77 81 80 81 81 85 83 84 84 84 540 -177 -193 -193 91 96 96 96 96 95 95 94 89 90 88 85 85 -193 -177 -177 -193 -193 -177 -177 252 251 -177 -193 -193 -209 244 -193 -193 103 114 -209 -193 130 132 133 -193 -193 144 140 142 141 141 141 141 139 139 136 137 -193 -193 136 -209 147 160 169 168 169 166 167 167 167 167 169 170 172 173 178 183 184 184 184 185 186 187 188 188 190 191 191 194 197 198 199 0 0 0 0 0
    0 0 0 0 0 0 0 0 0 0 0 0 0 0 0 0 0 0 0 0 0 0 0 0 0 0 0 0 0 0 0 0 0 0 0 0 0 0 0 0 0 0 0 0 0 0 0 0 0 0 0 0 0 0 0 0 0 0 0 0 0 0 0 0 0 0 0 0 0 47 47 45 47 44 43 44 44 43 42 42 42 -193 43 46 43 42 45 45 45 43 42 -193 -193 -209 -209 23 18 13 12 14 17 16 18 19 18 18 16 18 16 16 16 16 17 19 19 21 21 22 22 23 22 22 20 20 17 16 14 11 10 10 9 10 10 10 11 11 12 11 12 12 12 13 13 12 13 12 14 14 14 13 14 15 15 14 14 14 13 13 14 12 13 13 13 13 13 13 13 12 13 13 12 13 12 12 12 13 13 13 12 12 11 11 10 10 10 11 18 24 25 27 34 39 40 41 41 41 39 44 45 44 42 43 46 44 44 41 39 40 44 48 -209 -177 154 155 -193 71 74 76 80 80 81 81 85 83 85 85 85 540 -177 -193 -193 92 96 96 96 96 95 94 93 -193 -193 87 84 85 -193 -177 -177 -193 -193 249 249 252 -177 -193 -193 -193 -209 244 -193 -193 102 112 123 128 130 132 133 135 136 144 140 142 141 140 140 140 -193 138 133 134 -193 125 -209 -193 -177 160 169 168 168 165 167 167 167 167 168 169 171 173 179 184 184 185 185 185 187 187 188 188 190 192 193 195 198 199 200 0 0 0 0 0
    0 0 0 0 0 0 0 0 0 0 0 0 0 0 0 0 0 0 0 0 0 0 0 0 0 0 0 0 0 0 0 0 0 0 0 0 0 0 0 0 0 0 0 0 0 0 0 0 0 0 0 0 0 0 0 0 0 0 0 0 0 0 0 0 0 0 0 0 0 47 47 46 47 45 43 44 45 43 42 42 42 -193 43 46 43 41 45 44 44 43 41 -209 36 -209 -209 22 16 12 12 13 15 14 17 17 17 17 16 17 16 16 16 17 16 20 20 21 21 21 22 22 22 22 19 19 16 15 13 11 10 10 10 10 10 10 11 10 11 11 12 11 12 13 12 12 13 13 14 14 14 13 15 17 17 16 16 15 15 14 15 13 13 13 13 13 13 13 13 12 12 12 12 13 13 13 12 14 14 13 13 12 11 11 11 10 10 10 17 23 25 26 32 37 39 39 40 39 38 43 46 44 42 43 46 43 44 42 40 40 44 48 -209 -177 -177 -177 -177 71 74 75 79 80 81 80 85 84 86 -193 -193 -193 -177 90 94 92 96 96 96 96 96 95 93 -193 -193 86 84 84 -193 -177 -177 -193 -193 -193 -193 253 -193 781 785 -193 -209 244 -193 104 101 110 123 128 130 133 134 136 136 145 139 141 140 -193 140 -193 -177 -209 128 129 -209 -209 -209 -193 -209 167 170 168 168 165 167 167 167 167 167 169 170 172 179 184 184 185 185 186 187 188 189 189 192 194 195 196 199 199 200 0 0 0 0 0
    0 0 0 0 0 0 0 0 0 0 0 0 0 0 0 0 0 0 0 0 0 0 0 0 0 0 0 0 0 0 0 0 0 0 0 0 0 0 0 0 0 0 0 0 0 0 0 0 0 0 0 0 0 0 0 0 0 0 0 0 0 0 0 0 0 0 0 0 0 47 47 46 46 45 43 44 45 43 43 42 42 43 43 45 43 41 45 44 44 42 -193 -209 -193 -209 -209 22 17 12 11 13 15 14 15 16 16 16 15 16 15 15 16 16 16 20 20 21 21 21 21 22 21 21 18 18 14 13 12 11 10 10 9 10 9 10 10 10 11 10 11 11 12 12 12 12 13 12 14 14 14 14 16 18 18 18 18 18 18 17 18 15 15 14 14 14 13 13 13 12 12 12 12 13 13 14 13 14 14 13 13 13 12 12 11 11 10 10 17 23 24 25 30 35 37 38 39 38 36 42 46 43 42 43 47 44 44 42 41 41 -177 -177 -193 -177 -177 -177 -177 71 73 75 79 80 81 80 85 84 86 -193 -193 -193 -177 91 95 93 96 96 96 96 96 95 94 -209 -193 87 85 85 -193 -177 -177 -193 -193 -209 -209 253 -193 782 786 787 -193 -193 -193 103 100 107 -193 -193 130 134 135 137 136 143 138 -193 139 -193 -193 835 -177 -177 -193 -193 -193 -193 -193 -193 -193 169 171 169 168 165 167 167 167 167 167 169 170 172 178 184 184 185 185 185 187 188 189 190 192 195 196 197 198 199 199 0 0 0 0 0
    0 0 0 0 0 0 0 0 0 0 0 0 0 0 0 0 0 0 0 0 0 0 0 0 0 0 0 0 0 0 0 0 0 0 0 0 0 0 0 0 0 0 0 0 0 0 0 0 0 0 0 0 0 0 0 0 0 0 0 0 0 0 0 0 0 0 0 0 0 46 47 46 46 46 44 44 45 44 43 43 43 44 44 45 43 41 45 44 44 43 -193 -193 -193 -209 -193 21 16 12 11 12 14 13 14 14 14 15 14 15 15 15 15 17 16 21 20 21 21 22 21 22 20 20 17 17 13 12 11 10 10 9 9 9 9 9 10 9 10 10 10 11 11 12 11 12 13 12 13 14 14 15 16 19 19 19 20 19 20 19 19 17 16 15 15 14 14 14 13 12 12 12 11 13 13 14 12 14 14 13 13 13 12 12 11 11 10 10 16 23 24 25 29 34 36 38 38 38 36 42 48 44 42 44 47 44 44 43 42 41 45 -177 48 -177 -177 -177 -177 70 73 74 79 80 80 80 85 -193 87 -193 87 87 -193 92 96 93 96 97 97 97 97 95 96 -193 -193 87 85 -193 -193 -177 -177 89 -193 -209 -209 -193 -193 -177 -177 788 -193 103 103 104 102 105 104 -209 -209 132 134 135 136 -209 137 -193 -209 -193 -193 -177 -177 -177 -193 -209 -193 -193 -193 -209 -193 170 171 169 168 165 167 167 167 167 168 170 171 173 178 183 183 184 184 185 186 187 189 190 192 195 195 196 197 197 198 0 0 0 0 0
    0 0 0 0 0 0 0 0 0 0 0 0 0 0 0 0 0 0 0 0 0 0 0 0 0 0 0 0 0 0 0 0 0 0 0 0 0 0 0 0 0 0 0 0 0 0 0 0 0 0 0 0 0 0 0 0 0 0 0 0 0 0 0 0 0 0 0 0 0 46 47 46 46 47 44 45 46 45 44 43 44 45 44 45 43 42 45 44 44 43 -193 -193 -209 -193 23 20 16 11 11 11 13 12 13 13 14 15 15 15 15 15 16 18 17 22 20 21 21 21 21 21 19 20 15 16 12 11 10 10 9 9 0 0 0 9 9 9 10 9 10 11 11 12 11 12 13 12 14 14 15 15 18 20 20 20 21 20 21 19 20 18 17 16 16 15 15 14 14 13 12 12 12 13 14 14 13 13 14 13 13 13 11 12 11 11 10 10 16 23 25 25 28 32 35 37 39 39 37 42 49 45 44 45 48 45 45 44 43 41 44 48 47 -177 -177 -177 -177 71 74 75 79 80 80 80 84 -193 87 -193 87 88 92 93 97 94 96 97 97 98 98 96 97 -193 -193 -193 -193 -193 -193 -177 -209 90 -193 -193 -209 -193 -193 -193 -177 -177 -209 104 104 104 104 105 107 -193 -209 122 131 131 134 -209 135 -209 -209 -209 -209 -193 -177 -177 -193 -193 -209 -193 -193 -209 -193 168 170 168 167 165 168 168 168 168 169 170 171 172 176 182 182 183 184 184 185 187 188 190 192 194 194 195 196 197 197 0 0 0 0 0
    0 0 0 0 0 0 0 0 0 0 0 0 0 0 0 0 0 0 0 0 0 0 0 0 0 0 0 0 0 0 0 0 0 0 0 0 0 0 0 0 0 0 0 0 0 0 0 0 0 0 0 0 0 0 0 0 0 0 0 0 0 0 0 0 0 0 0 0 0 47 47 46 46 48 44 45 46 45 44 43 44 45 44 45 44 42 45 44 44 43 -193 41 -209 -193 -209 20 15 11 10 10 11 11 12 12 13 14 14 14 15 15 16 18 17 21 19 20 21 21 20 20 18 18 15 15 12 11 10 10 9 9 0 0 0 10 9 9 10 9 10 11 11 11 10 12 13 12 14 14 16 17 19 21 20 20 22 21 22 20 20 19 19 17 17 15 15 14 14 13 12 11 12 12 13 13 12 13 13 13 13 12 11 12 11 11 11 10 15 22 25 26 28 33 36 39 40 40 40 43 51 47 46 48 50 46 47 46 45 41 45 48 48 -193 -177 -177 -177 -193 74 75 79 80 80 80 84 -177 88 88 88 88 93 93 97 95 96 98 97 98 99 96 98 -209 -209 -209 -209 -177 -193 -177 -209 -193 -193 -209 -193 -209 -193 -209 -193 -209 -193 105 105 106 106 106 108 -193 -193 -193 127 128 132 -193 134 -193 135 -193 -209 -209 -177 -177 -193 -193 -193 -193 -193 -209 166 -193 166 166 166 164 168 168 168 168 168 169 170 171 174 181 182 183 184 184 185 186 188 190 192 193 193 195 196 196 197 0 0 0 0 0
    0 0 0 0 0 0 0 0 0 0 0 0 0 0 0 0 0 0 0 0 0 0 0 0 0 0 0 0 0 0 0 0 0 0 0 0 0 0 0 0 0 0 0 0 0 0 0 0 0 0 0 0 0 0 0 0 0 0 0 0 0 0 0 0 0 0 0 0 0 47 48 46 46 49 45 45 47 45 44 44 44 45 44 44 44 42 45 44 44 43 -193 41 -193 -193 -209 20 15 11 10 10 11 11 11 12 12 13 14 14 14 14 16 18 17 21 19 19 20 21 20 19 17 17 15 15 12 12 10 11 10 10 9 0 0 10 9 9 10 9 9 10 10 10 10 11 12 12 13 14 17 17 20 21 21 21 22 22 22 20 21 20 19 18 18 16 16 15 15 14 12 11 12 12 12 13 12 13 12 12 13 12 11 11 11 11 10 11 15 21 24 25 28 32 36 39 40 40 40 43 51 48 48 50 51 48 49 49 46 42 47 50 48 49 -209 -177 -177 73 74 75 79 80 80 79 83 -193 88 88 88 88 93 93 97 95 95 97 98 98 99 96 100 -209 -209 -209 -209 -193 -209 -209 -209 99 -193 -193 -193 -193 -193 -193 -193 -193 -193 107 107 107 107 106 108 -193 -193 -193 -193 127 131 -193 134 -209 -193 138 137 -209 -209 -209 -193 -193 612 -193 -193 -193 163 -193 164 164 166 165 168 168 168 168 168 169 170 170 173 180 182 182 183 183 185 185 188 189 191 193 193 195 196 196 196 0 0 0 0 0
    0 0 0 0 0 0 0 0 0 0 0 0 0 0 0 0 0 0 0 0 0 0 0 0 0 0 0 0 0 0 0 0 0 0 0 0 0 0 0 0 0 0 0 0 0 0 0 0 0 0 0 0 0 0 0 0 0 0 0 0 0 0 0 0 0 0 0 0 0 47 48 46 46 49 45 46 47 46 45 44 45 45 44 44 44 42 45 44 44 43 42 41 -177 -177 -209 20 15 10 9 10 10 10 10 11 12 12 12 13 13 13 14 17 17 20 18 18 20 20 19 18 16 15 15 14 13 12 11 11 10 10 9 0 0 9 9 9 9 0 0 9 9 9 9 10 12 11 13 15 18 18 21 21 21 21 23 22 22 20 21 20 20 18 18 16 16 15 14 14 12 11 11 12 12 13 12 12 12 12 12 12 11 11 11 11 10 11 16 21 24 25 27 31 35 39 40 40 40 43 51 48 48 51 52 51 52 52 50 46 54 55 53 55 -193 -193 -177 73 75 75 79 80 79 79 83 -193 87 87 87 87 92 93 96 95 95 97 98 98 99 97 100 96 102 106 106 -209 -209 -209 -193 105 107 107 106 107 109 -193 -193 -193 -193 108 108 108 109 107 109 -193 -193 -193 -193 128 131 -193 133 -193 -193 -193 -193 -209 -209 -209 -193 -209 -193 -193 -209 -193 163 -193 164 165 167 167 169 169 169 169 169 169 169 170 173 180 182 183 183 183 184 185 187 189 191 194 193 195 196 195 196 0 0 0 0 0
    0 0 0 0 0 0 0 0 0 0 0 0 0 0 0 0 0 0 0 0 0 0 0 0 0 0 0 0 0 0 0 0 0 0 0 0 0 0 0 0 0 0 0 0 0 0 0 0 0 0 0 0 0 0 0 0 0 0 0 0 0 0 0 0 0 0 0 0 0 48 48 46 46 50 45 46 48 46 45 44 45 46 44 45 45 42 45 44 44 43 42 41 -193 -177 -193 -209 -193 11 10 10 10 11 11 11 12 12 12 13 13 13 14 16 17 20 18 18 19 19 18 17 15 14 14 14 12 11 11 11 10 10 9 0 0 9 9 9 8 0 0 9 9 9 0 10 11 11 13 15 19 19 21 22 22 22 23 23 23 21 22 21 20 19 18 16 16 15 15 14 13 11 11 12 12 13 11 12 11 11 12 12 11 11 11 11 10 11 17 21 24 25 27 30 35 38 40 40 40 43 50 48 49 51 52 51 52 53 52 49 55 55 55 56 58 69 -209 73 75 76 79 81 80 80 83 86 87 87 87 87 91 93 95 95 94 97 98 99 100 98 101 100 104 109 107 113 110 109 -193 108 109 109 108 108 110 110 110 110 109 110 110 110 112 108 112 -193 -209 -193 130 128 130 131 133 135 -193 -193 -193 -209 -209 -209 -209 -209 -193 -209 -209 161 -193 -193 165 166 168 168 169 169 169 169 169 169 169 169 172 179 182 183 183 183 183 185 187 190 193 195 194 196 196 195 195 0 0 0 0 0
    0 0 0 0 0 0 0 0 0 0 0 0 0 0 0 0 0 0 0 0 0 0 0 0 0 0 0 0 0 0 0 0 0 0 0 0 0 0 0 0 0 0 0 0 0 0 0 0 0 0 0 0 0 0 0 0 0 0 0 0 0 0 0 0 0 0 0 0 0 50 50 48 47 51 46 47 48 46 45 45 45 46 44 45 45 42 45 44 44 43 42 41 -193 -193 -193 -193 -193 12 10 10 11 11 12 12 12 12 12 12 13 12 13 16 18 21 19 19 19 20 18 17 15 14 14 13 12 11 10 11 11 10 10 0 9 9 9 9 0 0 0 9 0 9 0 9 11 10 13 14 18 19 21 22 22 22 23 23 23 21 22 21 20 19 19 17 16 15 15 14 13 11 11 11 11 12 11 11 11 10 12 11 11 11 11 11 10 11 18 22 25 26 27 30 34 38 40 40 40 43 50 49 51 52 53 53 54 55 54 53 57 56 55 56 57 67 73 74 75 76 79 81 81 81 84 87 87 87 87 87 91 92 94 94 94 97 99 100 100 99 101 102 104 109 107 113 111 111 111 111 111 111 109 110 111 113 113 112 110 112 112 113 115 -193 -193 -177 -209 125 -193 130 131 132 133 136 135 138 138 -193 -209 147 -209 -209 -177 -193 -193 161 162 -193 164 166 168 169 169 169 170 170 170 170 170 170 171 178 181 181 181 182 181 183 186 189 193 195 194 196 196 195 195 0 0 0 0 0
    0 0 0 0 0 0 0 0 0 0 0 0 0 0 0 0 0 0 0 0 0 0 0 0 0 0 0 0 0 0 0 0 0 0 0 0 0 0 0 0 0 0 0 0 0 0 0 0 0 0 0 0 0 0 0 0 0 0 0 0 0 0 0 0 0 0 0 0 0 52 52 49 48 52 46 47 49 46 45 45 46 47 44 45 46 42 45 44 44 43 42 41 42 -193 -209 19 -193 13 11 -209 -193 13 13 14 14 13 13 13 14 13 14 18 19 21 20 20 20 20 19 18 15 14 15 13 12 11 10 11 11 11 10 0 9 9 9 9 0 0 0 9 0 0 0 9 10 10 13 13 18 18 20 21 21 21 22 22 23 21 21 21 20 19 19 17 16 15 15 14 13 11 11 11 10 11 10 10 10 10 11 11 10 11 11 11 11 11 18 23 25 26 27 30 35 38 40 40 41 44 49 50 53 53 54 54 55 56 56 56 58 57 56 57 57 66 73 74 75 75 78 82 82 82 84 87 87 87 87 87 90 92 93 94 93 97 99 99 100 99 100 102 103 109 107 113 112 111 113 113 112 113 110 112 113 115 115 115 113 115 116 117 -193 -193 -193 -177 -193 -193 -193 131 132 133 134 136 136 138 140 138 143 149 -209 -209 -177 -193 -193 158 -193 -193 162 165 167 169 169 170 170 170 170 171 171 170 171 177 180 180 180 180 179 180 185 189 194 195 193 198 197 197 197 0 0 0 0 0
    0 0 0 0 0 0 0 0 0 0 0 0 0 0 0 0 0 0 0 0 0 0 0 0 0 0 0 0 0 0 0 0 0 0 0 0 0 0 0 0 0 0 0 0 0 0 0 0 0 0 0 0 0 0 0 0 0 0 0 0 0 0 0 0 0 0 0 0 0 54 53 51 49 52 47 47 49 47 46 45 46 47 44 45 46 43 45 44 44 43 42 41 42 -193 -209 21 21 17 13 -209 -209 -209 -193 -193 -193 -193 -193 16 19 15 15 20 21 22 21 21 21 21 20 20 16 14 15 12 12 11 10 11 11 10 10 9 9 9 10 9 9 0 0 9 0 0 0 0 10 10 13 13 18 17 19 19 20 20 21 21 22 20 21 21 20 19 19 17 16 15 14 14 13 11 11 11 10 11 10 10 10 10 10 11 10 11 10 10 10 10 18 23 25 26 28 31 35 38 39 40 41 44 50 51 54 55 55 56 56 57 58 58 60 59 57 58 58 67 73 74 76 75 78 83 83 84 85 88 86 86 86 87 90 91 92 94 92 96 99 99 100 98 99 101 102 108 106 112 112 112 114 114 113 113 111 112 113 116 116 116 115 117 118 120 -193 -193 28 -177 -193 -193 -193 133 133 134 135 137 137 139 140 139 144 147 -193 151 -177 -193 -193 156 -193 -193 159 164 167 168 168 170 170 170 170 171 171 170 171 176 180 180 180 180 179 -209 -193 189 194 197 195 199 200 199 199 0 0 0 0 0
    0 0 0 0 0 0 0 0 0 0 0 0 0 0 0 0 0 0 0 0 0 0 0 0 0 0 0 0 0 0 0 0 0 0 0 0 0 0 0 0 0 0 0 0 0 0 0 0 0 0 0 0 0 0 0 0 0 0 0 0 0 0 0 0 0 0 0 0 0 56 55 53 51 53 48 48 50 47 46 45 46 47 44 45 46 43 45 45 44 43 42 42 42 -193 -193 -209 -209 -209 52 63 61 60 60 60 61 62 62 -209 -193 20 18 21 22 23 21 21 21 21 20 20 17 14 14 12 12 10 10 10 10 10 10 9 9 9 10 10 9 9 9 9 9 9 9 9 10 10 13 13 19 16 18 18 19 19 20 20 21 20 21 20 20 19 19 18 16 15 14 14 13 11 11 11 10 11 10 10 10 9 10 11 10 11 11 11 10 11 19 23 26 27 28 31 35 37 38 39 40 45 49 52 55 56 56 57 57 58 59 59 61 59 58 59 59 68 72 74 76 75 78 83 84 84 85 88 85 86 86 87 89 90 90 92 91 95 98 99 98 97 98 101 100 -193 106 110 110 111 113 114 113 113 111 113 115 117 118 118 117 119 120 123 124 -193 -193 -193 -193 -193 135 135 136 137 137 138 139 139 141 140 145 148 150 150 -193 -193 155 156 156 -193 158 163 167 168 168 169 170 170 170 171 170 169 171 175 179 179 180 180 -193 -209 -209 -209 191 196 195 199 201 199 199 0 0 0 0 0
    0 0 0 0 0 0 0 0 0 0 0 0 0 0 0 0 0 0 0 0 0 0 0 0 0 0 0 0 0 0 0 0 0 0 0 0 0 0 0 0 0 0 0 0 0 0 0 0 0 0 0 0 0 0 0 0 0 0 0 0 0 0 0 0 0 0 0 0 0 58 57 56 54 54 49 49 51 47 46 45 46 47 44 46 47 43 46 45 44 43 43 42 43 43 44 42 49 50 55 65 61 61 61 61 63 64 63 60 48 -193 20 22 23 23 22 22 21 21 20 21 17 13 14 12 12 10 10 10 10 10 10 9 10 9 11 10 10 10 9 10 10 9 10 9 10 11 13 13 18 15 18 18 19 19 20 20 21 20 21 20 20 19 18 17 15 14 13 13 13 11 11 11 10 11 10 10 9 9 10 10 10 12 11 11 10 12 21 23 25 26 27 30 35 36 37 38 39 45 48 52 56 57 57 58 58 59 59 60 62 59 58 59 60 67 70 73 76 75 76 83 85 85 85 88 85 85 86 86 87 88 89 91 90 93 96 98 97 97 96 100 99 -193 105 108 108 109 112 113 113 113 111 114 116 119 120 120 120 122 124 127 128 130 131 133 133 135 137 137 137 138 138 138 140 140 142 142 147 149 151 151 -193 156 156 156 156 158 160 164 167 168 168 169 170 170 170 171 171 169 172 176 179 179 180 180 -193 -193 -193 -209 -193 192 191 198 201 199 199 0 0 0 0 0
    0 0 0 0 0 0 0 0 0 0 0 0 0 0 0 0 0 0 0 0 0 0 0 0 0 0 0 0 0 0 0 0 0 0 0 0 0 0 0 0 0 0 0 0 0 0 0 0 0 0 0 0 0 0 0 0 0 0 0 0 0 0 0 0 0 0 0 0 0 61 59 58 57 56 52 51 52 48 47 46 47 48 45 48 49 45 47 46 45 44 43 43 44 44 45 44 50 52 55 66 62 61 62 62 64 65 63 60 53 52 -209 -193 25 24 24 23 22 22 21 21 18 13 15 12 12 10 10 10 10 10 10 9 10 9 11 10 10 10 10 10 10 10 10 9 10 11 13 13 16 14 17 17 19 19 20 19 21 20 21 20 20 18 17 17 14 14 13 13 13 11 11 11 10 11 10 10 9 0 10 11 9 12 11 11 10 12 22 25 25 26 27 30 32 33 34 35 37 43 46 50 55 56 57 58 58 58 59 60 62 58 58 60 60 64 67 72 75 74 75 82 86 85 85 87 84 84 85 86 86 87 88 89 89 93 95 96 96 97 95 98 98 103 103 106 106 108 110 111 112 112 110 113 115 120 121 122 122 124 126 130 130 132 133 134 135 136 137 138 138 138 139 139 140 141 143 143 147 150 151 151 153 155 156 157 157 159 161 165 168 169 168 169 170 171 171 172 171 170 174 178 179 179 180 181 179 -209 -193 -209 -193 189 190 197 200 198 197 0 0 0 0 0
    0 0 0 0 0 0 0 0 0 0 0 0 0 0 0 0 0 0 0 0 0 0 0 0 0 0 0 0 0 0 0 0 0 0 0 0 0 0 0 0 0 0 0 0 0 0 0 0 0 0 0 0 0 0 0 0 0 0 0 0 0 0 0 0 0 0 0 0 0 62 61 61 59 59 55 53 54 50 48 47 49 50 48 52 53 51 52 51 48 46 45 45 46 50 49 50 54 55 57 68 62 62 63 64 64 64 63 60 53 53 50 40 37 27 25 24 22 21 21 21 18 13 15 11 12 10 10 10 10 10 10 9 10 9 11 11 11 11 11 11 11 11 11 10 11 11 13 12 13 13 15 15 17 18 19 19 20 20 21 20 20 19 16 16 13 14 13 12 12 11 10 11 10 10 9 9 9 0 9 11 9 12 11 13 12 17 24 31 26 27 28 29 31 31 32 33 36 43 45 50 55 56 57 58 57 58 59 60 61 58 59 60 58 62 64 71 76 74 74 83 87 85 85 87 83 84 85 86 86 86 87 89 88 92 95 96 96 97 95 98 97 102 103 105 105 107 109 109 111 111 108 111 114 121 122 124 124 126 128 132 132 132 134 135 136 137 138 138 139 139 141 140 141 142 144 145 149 151 152 151 153 156 156 157 158 162 163 167 169 169 168 170 170 171 171 172 171 170 175 178 179 180 181 181 179 -209 -193 -209 -193 190 190 196 199 197 198 0 0 0 0 0
    0 0 0 0 0 0 0 0 0 0 0 0 0 0 0 0 0 0 0 0 0 0 0 0 0 0 0 0 0 0 0 0 0 0 0 0 0 0 0 0 0 0 0 0 0 0 0 0 0 0 0 0 0 0 0 0 0 0 0 0 0 0 0 0 0 0 0 0 0 63 62 62 61 60 59 57 57 52 52 51 52 54 54 55 55 56 56 55 54 52 51 52 54 56 55 57 57 57 58 69 63 63 65 66 65 65 64 61 55 55 52 44 43 36 28 24 23 21 21 21 17 13 14 11 12 10 10 9 10 10 10 9 10 9 12 12 11 12 12 11 11 11 12 11 11 11 12 11 12 12 13 14 16 18 19 19 20 21 21 20 20 18 16 15 13 13 13 12 12 11 10 11 9 10 0 0 0 0 0 9 0 11 11 15 18 21 27 36 27 28 29 31 31 31 32 34 36 43 45 50 55 55 56 57 56 57 58 59 59 55 55 56 54 58 62 71 78 75 75 82 87 85 85 87 83 84 86 86 86 85 87 88 88 92 95 95 95 97 95 97 97 102 102 105 105 106 108 109 111 111 107 109 112 121 122 124 124 127 128 132 132 133 134 135 136 138 138 139 139 140 141 140 142 143 146 147 151 152 153 152 154 156 157 158 158 163 165 167 169 168 168 170 170 171 171 172 172 171 176 179 180 179 180 180 -193 -209 -193 -193 -193 186 186 -193 198 197 199 0 0 0 0 0
    0 0 0 0 0 0 0 0 0 0 0 0 0 0 0 0 0 0 0 0 0 0 0 0 0 0 0 0 0 0 0 0 0 0 0 0 0 0 0 0 0 0 0 0 0 0 0 0 0 0 0 0 0 0 0 0 0 0 0 0 0 0 0 0 0 0 0 0 0 64 62 62 61 60 60 59 61 58 58 58 58 60 60 58 57 57 56 55 55 53 52 53 55 57 56 57 58 58 59 69 63 64 65 66 66 64 64 61 56 56 53 46 45 42 35 25 23 21 21 21 17 14 14 11 12 10 11 10 10 10 10 10 11 9 12 12 11 13 12 11 11 11 11 11 11 12 13 12 12 12 14 14 17 18 19 20 21 21 21 20 20 19 15 14 12 12 12 12 12 11 10 11 9 9 0 0 0 0 0 9 0 11 12 16 17 23 31 37 28 29 30 31 32 32 33 35 37 44 47 50 55 56 56 57 57 57 58 59 60 57 55 57 55 57 61 70 79 76 76 82 87 84 84 86 83 83 86 85 85 84 86 88 87 91 93 93 94 96 95 96 95 100 101 104 104 106 108 108 110 111 107 108 114 121 122 124 125 127 129 132 132 133 134 135 136 138 138 139 139 140 142 141 143 144 147 148 151 153 153 152 154 156 156 157 158 164 165 167 169 168 168 170 171 172 172 172 174 172 177 177 175 175 175 175 -193 -209 -193 177 180 185 186 -193 192 196 199 0 0 0 0 0
    0 0 0 0 0 0 0 0 0 0 0 0 0 0 0 0 0 0 0 0 0 0 0 0 0 0 0 0 0 0 0 0 0 0 0 0 0 0 0 0 0 0 0 0 0 0 0 0 0 0 0 0 0 0 0 0 0 0 0 0 0 0 0 0 0 0 0 0 0 63 62 61 60 59 59 58 60 60 60 65 62 63 63 60 58 58 57 56 55 54 53 54 55 58 57 58 59 59 60 68 62 64 65 66 65 64 64 61 58 58 55 51 48 45 38 28 23 20 21 20 17 15 15 11 12 10 11 9 10 10 10 10 11 10 12 12 12 13 12 11 11 11 11 10 11 13 12 12 13 13 15 15 18 19 20 21 22 22 22 21 21 20 15 13 12 12 12 12 12 13 11 12 11 10 9 10 9 10 0 11 9 13 13 16 16 22 32 37 28 29 30 32 32 33 33 35 38 44 47 50 53 55 55 56 56 57 57 59 60 57 56 59 59 60 65 72 81 77 78 81 86 83 83 85 83 83 85 85 85 83 86 87 86 90 91 90 91 92 92 93 92 96 99 101 101 105 106 107 109 110 106 107 116 122 122 125 125 127 128 131 131 132 133 135 135 137 138 138 139 140 142 141 143 144 146 148 150 152 151 150 152 154 155 156 157 163 165 167 169 168 169 171 171 173 173 173 174 172 174 174 174 174 175 174 174 -193 -193 181 183 187 188 189 191 195 199 0 0 0 0 0
    0 0 0 0 0 0 0 0 0 0 0 0 0 0 0 0 0 0 0 0 0 0 0 0 0 0 0 0 0 0 0 0 0 0 0 0 0 0 0 0 0 0 0 0 0 0 0 0 0 0 0 0 0 0 0 0 0 0 0 0 0 0 0 0 0 0 0 0 0 64 62 61 61 60 59 59 60 61 61 67 63 63 63 61 59 59 58 57 56 55 55 56 57 59 58 59 60 60 61 68 63 65 65 66 66 64 65 63 59 60 57 54 52 50 41 31 22 20 20 19 18 15 14 12 12 11 11 9 10 9 10 10 11 10 12 12 12 13 12 11 11 11 11 11 12 13 12 13 14 14 16 16 19 21 21 23 23 23 23 22 22 22 16 13 12 12 12 13 13 14 13 13 13 12 11 12 11 11 10 12 12 14 13 15 16 22 31 37 28 29 30 32 33 33 34 35 38 45 47 49 52 54 55 55 56 56 56 58 59 57 56 59 60 60 67 72 84 79 79 81 86 82 82 85 82 82 85 85 85 82 86 86 85 89 89 87 89 89 89 89 87 89 93 93 91 101 104 105 107 -193 98 105 117 123 122 125 125 126 127 130 131 131 133 135 135 138 138 139 140 140 141 140 143 145 145 147 149 150 148 148 150 152 154 156 157 163 166 168 169 169 170 171 172 174 174 173 173 172 174 173 173 174 175 174 179 -209 -209 -193 186 191 191 189 191 194 198 0 0 0 0 0
    0 0 0 0 0 0 0 0 0 0 0 0 0 0 0 0 0 0 0 0 0 0 0 0 0 0 0 0 0 0 0 0 0 0 0 0 0 0 0 0 0 0 0 0 0 0 0 0 0 0 0 0 0 0 0 0 0 0 0 0 0 0 0 0 0 0 0 0 0 64 62 62 61 60 60 60 60 62 61 67 63 62 63 61 59 59 58 57 56 56 56 57 58 60 59 60 62 61 63 69 64 66 66 67 67 65 66 63 60 60 57 56 53 52 42 35 23 20 20 19 18 15 14 12 13 11 12 10 10 10 11 11 11 10 13 12 12 12 12 11 11 11 12 11 13 14 13 14 15 15 18 17 19 21 22 23 23 23 23 22 23 23 18 13 12 12 13 13 13 14 13 13 13 12 12 12 12 12 11 12 14 13 12 14 14 20 29 35 27 29 30 33 34 34 34 36 38 45 48 49 52 54 55 55 56 56 56 57 58 57 56 59 59 60 67 72 84 79 78 80 85 81 81 84 82 81 85 84 84 81 85 85 83 87 87 80 85 85 86 86 85 84 89 90 88 93 101 105 106 107 104 106 118 124 122 125 126 126 127 129 131 131 133 135 136 139 139 139 140 140 141 140 143 145 145 147 148 149 148 147 149 151 154 156 158 165 167 169 170 169 171 172 172 174 175 172 173 173 173 172 173 174 175 174 182 -209 -209 -209 187 190 188 186 186 187 196 0 0 0 0 0
    0 0 0 0 0 0 0 0 0 0 0 0 0 0 0 0 0 0 0 0 0 0 0 0 0 0 0 0 0 0 0 0 0 0 0 0 0 0 0 0 0 0 0 0 0 0 0 0 0 0 0 0 0 0 0 0 0 0 0 0 0 0 0 0 0 0 0 0 0 64 62 62 61 60 60 60 60 62 62 69 64 63 63 61 59 59 58 57 57 56 56 57 58 61 60 61 63 62 65 69 64 67 66 67 67 65 66 63 60 61 58 57 55 54 43 42 -209 21 21 20 19 16 15 14 15 14 13 12 12 11 12 12 12 11 13 12 12 12 12 11 11 12 12 12 14 15 14 15 16 16 19 18 20 22 22 23 23 23 23 22 23 23 17 15 14 14 14 15 15 15 14 14 15 13 12 11 11 12 11 10 11 10 10 13 15 20 27 33 27 28 30 33 34 34 35 36 38 44 48 48 51 54 54 55 55 55 55 56 57 57 56 58 60 62 67 72 83 78 78 79 84 80 80 84 82 81 85 83 83 81 84 85 82 86 85 77 85 85 86 86 86 85 89 89 88 92 102 105 107 107 -193 105 114 121 121 124 125 125 125 125 129 130 130 133 134 -193 138 139 139 139 140 140 141 144 144 145 148 148 147 147 148 151 154 158 161 166 169 169 170 170 171 172 172 174 174 172 172 172 172 171 173 174 175 175 185 186 -209 -193 187 189 187 185 185 184 193 0 0 0 0 0
    0 0 0 0 0 0 0 0 0 0 0 0 0 0 0 0 0 0 0 0 0 0 0 0 0 0 0 0 0 0 0 0 0 0 0 0 0 0 0 0 0 0 0 0 0 0 0 0 0 0 0 0 0 0 0 0 0 0 0 0 0 0 0 0 0 0 0 0 0 62 61 61 60 60 60 60 60 65 66 71 65 62 62 60 59 59 60 59 58 59 59 60 62 64 63 63 65 66 67 69 65 68 66 67 67 66 66 63 61 62 59 58 57 57 52 48 -209 21 23 21 20 18 16 15 16 15 14 13 13 12 13 13 12 12 13 13 12 13 12 11 12 12 12 14 15 16 15 16 17 17 20 18 20 23 22 23 23 22 22 22 22 22 17 15 16 15 16 16 16 16 16 15 17 14 13 13 14 13 13 11 13 10 12 14 15 18 25 34 29 29 31 33 34 35 35 37 38 44 49 49 50 53 54 54 54 55 55 55 57 57 56 58 59 61 66 71 82 78 77 78 84 80 80 83 82 81 85 84 83 81 85 85 83 85 85 76 85 85 85 86 86 85 88 88 88 94 105 105 108 108 106 106 112 117 118 120 121 121 122 121 124 125 125 127 -193 -209 -209 136 138 138 138 141 142 144 143 144 147 146 146 147 147 150 154 159 163 168 170 170 170 170 171 172 172 173 173 171 172 172 172 171 172 174 174 175 185 187 -209 188 189 190 188 186 186 185 190 0 0 0 0 0
    0 0 0 0 0 0 0 0 0 0 0 0 0 0 0 0 0 0 0 0 0 0 0 0 0 0 0 0 0 0 0 0 0 0 0 0 0 0 0 0 0 0 0 0 0 0 0 0 0 0 0 0 0 0 0 0 0 0 0 0 0 0 0 0 0 0 0 0 0 61 59 59 58 58 57 58 58 63 66 73 -193 61 62 60 58 59 61 61 60 63 64 65 66 67 66 66 67 68 68 69 66 68 66 66 66 65 65 62 61 62 58 59 58 58 56 54 52 -193 24 23 22 21 17 16 18 17 16 15 14 13 14 14 14 13 15 15 14 14 14 13 13 14 14 16 16 18 17 18 19 18 20 19 20 23 22 22 22 22 22 21 21 21 15 14 15 14 16 16 18 19 19 16 19 16 16 15 16 15 14 12 14 11 14 17 18 18 24 35 30 30 31 34 34 35 36 38 39 45 50 50 50 53 53 54 54 54 55 55 56 57 55 57 58 61 64 71 82 77 77 78 84 79 79 83 83 82 85 84 84 81 85 85 83 84 84 76 85 85 85 85 86 85 89 88 88 93 101 103 107 108 108 112 116 -193 118 119 120 119 121 118 122 -193 -193 -209 -209 -209 -209 135 137 137 137 140 141 143 143 144 148 146 147 149 150 -209 -209 160 165 169 171 170 170 170 171 172 172 173 172 170 171 171 171 170 171 173 -193 -193 186 -193 -193 -193 191 191 189 186 186 186 191 0 0 0 0 0
    0 0 0 0 0 0 0 0 0 0 0 0 0 0 0 0 0 0 0 0 0 0 0 0 0 0 0 0 0 0 0 0 0 0 0 0 0 0 0 0 0 0 0 0 0 0 0 0 0 0 0 0 0 0 0 0 0 0 0 0 0 0 0 0 0 0 0 0 0 59 57 58 56 55 53 54 53 -193 -209 74 -209 60 60 59 58 59 61 62 60 65 67 68 68 68 68 68 69 68 68 69 66 69 66 66 66 64 64 62 61 62 58 58 58 58 56 54 54 50 -193 27 24 22 19 18 20 19 18 17 15 13 15 16 16 15 16 17 16 17 18 17 17 18 18 20 19 21 20 21 20 20 21 20 21 23 21 22 22 21 22 21 21 20 14 12 13 13 15 15 19 21 21 18 20 18 17 17 18 16 15 13 14 11 15 18 19 17 23 32 29 30 31 34 34 36 37 39 41 45 50 51 51 53 53 53 53 53 54 55 55 56 55 57 59 61 64 71 81 77 77 78 84 80 80 83 84 82 86 84 84 82 86 86 84 84 83 75 85 86 85 86 86 87 89 90 89 93 96 100 103 105 106 109 113 -193 118 119 120 119 121 120 -193 -209 -193 -193 -209 -209 -193 133 135 133 134 137 137 138 139 141 145 142 145 148 149 -193 154 156 163 169 171 170 170 171 172 171 172 173 171 170 171 171 171 170 171 172 -209 -209 -209 -209 -209 -209 191 191 189 -209 -209 -209 -209 0 0 0 0 0
    0 0 0 0 0 0 0 0 0 0 0 0 0 0 0 0 0 0 0 0 0 0 0 0 0 0 0 0 0 0 0 0 0 0 0 0 0 0 0 0 0 0 0 0 0 0 0 0 0 0 0 0 0 0 0 0 0 0 0 0 0 0 0 0 0 0 0 0 0 57 55 56 52 53 48 49 50 -193 59 -209 -209 60 59 57 57 58 61 63 61 67 69 69 68 69 68 68 70 69 69 69 68 70 67 66 66 64 64 62 60 61 58 57 58 57 55 54 53 50 43 36 30 23 20 20 21 21 20 18 17 14 17 17 17 17 18 18 17 19 20 20 20 20 20 22 21 23 22 22 21 20 21 20 21 23 21 22 21 21 22 21 21 20 13 12 13 13 14 14 19 21 22 18 21 18 19 18 19 17 16 14 16 12 17 19 19 18 23 30 29 29 31 34 35 37 37 39 42 46 51 51 51 53 53 53 53 53 55 55 56 57 57 58 61 62 65 71 79 78 77 78 85 80 80 84 84 83 86 84 84 82 86 86 85 84 84 76 87 87 86 86 87 87 89 89 89 92 93 98 101 -193 106 111 112 116 116 118 119 118 119 119 -193 -193 -209 -209 -209 -209 -209 -209 -209 -209 -209 -193 -209 -209 -209 139 143 142 144 146 -193 -193 -193 -193 157 166 167 169 168 170 172 171 171 173 171 170 170 170 170 170 170 172 -209 -209 -209 -209 -209 -209 194 193 190 -209 -209 -209 -209 0 0 0 0 0
    0 0 0 0 0 0 0 0 0 0 0 0 0 0 0 0 0 0 0 0 0 0 0 0 0 0 0 0 0 0 0 0 0 0 0 0 0 0 0 0 0 0 0 0 0 0 0 0 0 0 0 0 0 0 0 0 0 0 0 0 0 0 0 0 0 0 0 0 0 -193 -193 56 51 53 50 54 -193 68 63 -193 -209 61 59 58 -193 -193 63 65 63 68 70 69 69 70 68 69 71 71 70 70 70 70 68 67 67 65 63 61 61 61 58 58 58 56 55 54 53 51 46 39 38 25 21 21 22 22 21 20 18 16 18 19 18 18 18 18 18 20 22 22 22 22 21 23 22 24 23 23 22 21 21 21 21 22 21 21 20 21 21 20 21 19 13 13 13 13 14 14 20 22 22 19 21 19 19 19 19 17 16 14 16 12 17 20 20 18 23 29 29 29 30 34 35 37 37 39 43 46 51 52 52 53 53 53 54 54 56 56 57 58 58 58 63 63 66 70 77 77 77 77 84 79 80 83 85 83 86 84 85 83 87 87 86 84 85 78 88 88 86 86 87 87 89 89 89 92 93 97 100 -193 107 112 111 115 114 116 117 117 117 116 -209 -209 -209 -209 -209 -209 -209 -209 -209 -209 -209 -209 -209 -209 -209 140 144 143 145 147 147 -193 -209 -209 -209 -209 -193 -209 -209 -209 169 169 169 171 170 169 169 170 169 169 170 172 -209 -209 -209 -209 -209 -193 196 194 -193 -193 -209 -209 -209 0 0 0 0 0
    0 0 0 0 0 0 0 0 0 0 0 0 0 0 0 0 0 0 0 0 0 0 0 0 0 0 0 0 0 0 0 0 0 0 0 0 0 0 0 0 0 0 0 0 0 0 0 0 0 0 0 0 0 0 0 0 0 0 0 0 0 0 0 0 0 0 0 0 0 -193 -209 -209 46 49 48 -193 -209 -193 59 -193 -209 59 -209 -209 -193 -209 -193 66 65 69 70 70 71 72 71 72 73 72 71 71 71 70 68 68 67 65 63 61 61 60 58 57 58 56 55 55 54 53 50 43 41 31 23 22 23 23 23 21 19 17 19 20 19 19 18 19 19 21 23 23 23 23 23 24 23 25 24 24 22 21 22 21 21 22 20 20 18 19 20 19 20 19 13 13 12 14 12 12 20 22 23 20 22 19 19 19 19 18 17 14 16 12 18 20 21 19 23 29 30 30 31 34 35 37 37 39 44 46 51 53 52 53 54 54 54 54 56 57 57 58 59 58 62 62 64 70 75 76 76 76 84 79 80 83 85 83 85 85 85 83 87 87 86 85 86 83 89 90 87 87 88 88 89 88 88 91 93 97 100 100 106 108 108 111 111 113 114 114 114 -193 114 -209 -209 -209 -209 -209 -193 -209 -193 -209 -209 -193 -209 -209 -209 -209 -209 -209 148 149 -193 -209 -209 -193 -193 -193 -193 -193 -209 -209 168 169 168 171 169 169 169 169 169 169 170 171 -209 -209 -209 -209 -193 -209 -193 194 191 188 -209 -193 -193 0 0 0 0 0
    0 0 0 0 0 0 0 0 0 0 0 0 0 0 0 0 0 0 0 0 0 0 0 0 0 0 0 0 0 0 0 0 0 0 0 0 0 0 0 0 0 0 0 0 0 0 0 0 0 0 0 0 0 0 0 0 0 0 0 0 0 0 0 0 0 0 0 0 0 -209 -193 -209 43 47 46 52 -193 -193 58 -209 -209 -209 -209 -209 -209 -209 -193 66 66 70 72 72 74 75 74 76 76 75 73 72 72 71 69 69 67 66 63 61 61 60 58 57 58 56 55 55 55 54 51 46 43 34 24 23 24 24 24 22 20 18 20 21 20 20 19 19 20 22 24 23 23 23 23 25 24 26 25 25 22 22 22 21 21 22 19 20 16 18 19 18 19 17 12 13 12 14 11 9 21 23 24 20 22 20 19 19 20 18 17 14 17 12 18 21 22 22 25 30 31 30 31 34 35 36 36 38 44 45 51 53 53 53 54 54 54 54 56 57 57 58 59 58 62 63 64 69 73 74 75 75 83 79 80 83 85 83 86 85 85 84 87 87 87 86 88 87 90 93 90 90 90 91 90 90 90 93 95 97 100 100 105 107 107 111 111 113 113 113 114 113 113 -193 -193 -193 -209 -209 -193 -209 -193 -193 -209 -193 -209 -209 -209 -209 -209 -209 -209 -209 -193 -209 -209 241 -193 -193 -193 -193 -209 -193 168 168 168 171 169 169 169 169 168 169 170 170 635 -193 -193 -193 -193 -209 -209 190 188 188 -209 -193 -193 0 0 0 0 0
    0 0 0 0 0 0 0 0 0 0 0 0 0 0 0 0 0 0 0 0 0 0 0 0 0 0 0 0 0 0 0 0 0 0 0 0 0 0 0 0 0 0 0 0 0 0 0 0 0 0 0 0 0 0 0 0 0 0 0 0 0 0 0 0 0 0 0 0 0 -209 -209 -209 41 44 44 50 -209 -193 -193 -209 -209 -209 -209 -209 115 117 -193 -193 68 71 73 74 75 75 75 80 78 77 75 72 72 71 70 70 68 67 64 62 62 61 58 57 58 56 55 55 54 54 52 48 47 37 25 23 24 24 23 21 20 18 21 21 21 21 20 21 21 22 24 24 24 23 22 24 24 28 26 26 23 23 23 22 22 22 19 19 15 17 17 16 17 15 11 12 12 14 13 12 22 24 25 21 23 20 20 19 20 18 18 15 17 13 19 22 24 24 26 32 33 32 32 34 34 35 36 38 44 45 51 53 52 53 54 53 54 54 56 57 -193 59 59 58 61 62 63 68 72 74 74 75 83 80 81 84 86 84 86 86 86 85 87 88 88 87 89 89 90 93 92 92 91 92 91 91 92 94 94 96 98 95 102 104 106 108 109 111 112 112 112 111 111 114 111 -193 -209 -209 -209 -209 -209 -193 -209 -209 -209 133 -209 -193 -209 -209 -193 -193 -193 -209 -193 240 -193 -193 -193 -193 -193 -193 167 167 167 170 168 168 168 168 167 169 169 170 636 637 -193 -193 -209 -209 -209 -193 -193 -193 -209 -209 182 0 0 0 0 0
    0 0 0 0 0 0 0 0 0 0 0 0 0 0 0 0 0 0 0 0 0 0 0 0 0 0 0 0 0 0 0 0 0 0 0 0 0 0 0 0 0 0 0 0 0 0 0 0 0 0 0 0 0 0 0 0 0 0 0 0 0 0 0 0 0 0 0 0 0 -193 -193 -209 39 42 42 -193 -209 -209 68 -193 -209 -193 70 -193 -193 70 69 70 70 72 76 76 77 77 77 81 80 78 76 74 74 72 72 71 69 69 65 63 63 61 58 58 58 56 55 55 54 54 52 49 46 35 27 24 24 24 24 22 21 20 23 23 23 23 22 22 23 24 26 25 25 24 24 26 25 28 27 27 24 23 23 23 23 23 19 19 13 16 16 15 -193 -193 10 10 9 11 9 9 21 26 26 22 23 20 20 20 21 19 18 16 18 13 20 23 25 25 28 33 34 33 34 35 35 35 37 39 45 45 50 53 52 53 53 53 54 54 56 57 57 59 60 59 61 61 62 67 70 73 73 74 83 82 83 85 87 85 86 87 87 86 88 89 89 88 90 91 91 94 92 93 92 93 91 91 92 95 95 96 98 94 100 102 104 106 107 108 109 109 110 110 110 111 109 -209 -193 109 -209 -209 -209 -209 -209 -209 -209 136 -209 139 142 143 143 147 146 -193 -209 239 -193 -193 -193 -193 -193 -209 167 167 167 170 168 168 168 168 166 168 169 169 636 638 642 644 -193 -209 -209 188 187 186 -193 -193 182 0 0 0 0 0
    0 0 0 0 0 0 0 0 0 0 0 0 0 0 0 0 0 0 0 0 0 0 0 0 0 0 0 0 0 0 0 0 0 0 0 0 0 0 0 0 0 0 0 0 0 0 0 0 0 0 0 0 0 0 0 0 0 0 0 0 0 0 0 0 0 0 0 0 0 85 87 -193 -209 -209 -209 -209 77 74 71 72 78 73 73 73 73 73 70 71 72 72 77 78 79 79 79 83 82 79 76 73 73 72 71 71 69 68 65 63 63 60 58 58 58 55 55 54 54 53 52 50 46 34 28 25 24 24 24 24 23 22 26 25 26 27 24 25 26 26 28 27 27 26 26 27 27 29 27 27 23 23 23 23 23 23 19 20 11 15 14 66 78 88 -193 0 0 0 0 0 -177 27 27 23 24 21 21 21 22 21 19 17 19 14 21 24 27 26 28 33 36 35 35 36 37 37 39 40 46 45 49 53 52 52 53 53 54 54 57 58 58 60 61 60 62 61 62 66 69 72 72 73 82 82 84 85 87 85 86 87 87 86 87 88 88 88 91 92 91 94 94 94 93 95 92 93 97 97 95 95 96 93 97 99 101 103 105 106 107 107 108 108 108 109 108 108 105 111 -209 -209 125 -209 -209 -209 -209 136 -193 138 141 142 141 145 144 143 -193 -193 -193 -193 -209 -193 -193 -209 167 167 168 170 168 168 168 168 167 169 170 170 -193 638 642 -193 643 -177 -209 -209 -209 183 181 182 -193 0 0 0 0 0
    0 0 0 0 0 0 0 0 0 0 0 0 0 0 0 0 0 0 0 0 0 0 0 0 0 0 0 0 0 0 0 0 0 0 0 0 0 0 0 0 0 0 0 0 0 0 0 0 0 0 0 0 0 0 0 0 0 0 0 0 0 0 0 0 0 0 0 0 0 86 85 85 83 77 79 78 78 78 75 75 80 77 76 76 76 75 73 75 76 74 80 81 82 82 82 85 83 82 77 74 74 72 71 71 70 69 66 65 65 61 60 59 60 55 54 54 53 53 52 51 47 38 30 28 25 25 26 26 26 26 29 29 30 32 32 32 33 32 33 31 32 30 30 30 28 29 28 28 23 22 22 22 23 24 20 21 -177 -177 -177 -177 73 87 108 120 -193 -193 0 0 -177 22 26 23 24 -193 21 22 22 22 21 18 20 15 22 24 29 28 30 34 36 36 36 37 38 38 40 41 45 45 49 52 52 52 54 54 55 55 57 59 59 61 61 61 62 61 61 65 68 71 72 73 82 84 85 86 87 84 86 87 87 87 87 88 88 -193 91 93 92 95 95 95 94 95 93 94 101 100 98 97 98 95 98 100 101 103 105 105 106 107 108 109 108 109 108 114 115 122 -209 125 128 -209 128 132 -209 137 -193 -193 140 140 140 142 141 141 -193 -193 -193 -193 -209 -209 -193 -193 167 167 167 170 168 169 168 169 168 170 172 171 -209 -209 -177 -193 -193 -193 -209 -209 -193 182 181 -209 -193 0 0 0 0 0
    0 0 0 0 0 0 0 0 0 0 0 0 0 0 0 0 0 0 0 0 0 0 0 0 0 0 0 0 0 0 0 0 0 0 0 0 0 0 0 0 0 0 0 0 0 0 0 0 0 0 0 0 0 0 0 0 0 0 0 0 0 0 0 0 0 0 0 0 0 83 79 77 74 74 76 75 81 78 77 77 82 78 78 77 77 76 75 77 78 76 82 82 83 83 83 85 84 83 79 75 75 72 72 72 71 69 67 66 66 63 62 62 62 56 55 54 53 53 52 51 48 40 38 37 28 28 29 31 32 30 33 32 33 36 38 39 41 39 40 39 40 39 39 38 30 -225 -225 29 23 22 22 23 23 23 21 22 12 26 46 62 74 89 108 -225 -225 -225 -225 -225 -225 -225 -225 -225 -225 -225 -225 -225 -225 -225 -225 -225 -225 -225 -225 -225 -225 30 33 35 37 36 36 37 39 38 40 40 45 45 48 52 52 52 54 54 55 56 57 59 59 62 62 61 62 61 61 64 67 70 71 72 81 84 85 86 87 84 85 87 87 87 86 88 88 -177 92 94 92 95 96 96 95 97 95 96 103 101 101 100 100 98 99 101 104 105 107 107 108 109 110 112 112 116 114 117 119 124 125 126 -209 -209 -209 -209 -193 -193 -193 -209 141 141 140 143 142 144 -193 -193 -209 -209 -209 -193 165 -209 166 166 167 170 168 169 169 169 168 170 172 172 -209 -209 -209 -209 -209 -209 -209 181 182 -193 -193 -209 -193 0 0 0 0 0
    0 0 0 0 0 0 0 0 0 0 0 0 0 0 0 0 0 0 0 0 0 0 0 0 0 0 0 0 0 0 0 0 0 0 0 0 0 0 0 0 0 0 0 0 0 0 0 0 0 0 0 0 0 0 0 0 0 0 0 0 0 0 0 0 0 0 0 0 0 78 75 73 71 72 74 77 79 78 77 79 82 79 78 78 78 77 78 79 79 78 84 84 84 84 84 85 84 83 80 75 75 72 71 71 70 69 67 66 66 63 63 64 64 56 56 55 54 53 53 52 50 41 42 42 36 33 34 38 39 37 37 37 35 39 41 43 44 42 42 43 43 43 42 41 -225 -225 -225 -225 -225 -225 -225 -225 -225 -225 -225 -225 -225 -225 -225 -225 -225 -225 -225 -225 -225 -225 -225 -225 -225 -225 -225 -225 -225 -225 -225 -225 -225 -225 -225 -225 -225 -225 -225 -225 -225 -225 38 37 39 37 38 38 39 39 40 41 45 45 49 52 52 52 54 54 55 55 57 59 59 62 62 61 61 61 61 64 66 69 70 72 79 85 86 86 87 84 85 87 87 87 86 88 88 -177 92 94 93 96 96 97 96 99 96 96 102 99 100 100 100 96 96 101 104 106 107 109 109 110 112 114 115 118 117 119 120 124 127 129 129 132 130 -209 -209 -193 -209 -209 -193 -209 -209 -209 140 -209 -209 -209 -209 -193 -193 159 166 -209 167 167 168 171 169 169 169 169 168 170 172 172 -209 -209 -209 -209 -193 179 180 178 178 177 179 -209 -193 0 0 0 0 0
    0 0 0 0 0 0 0 0 0 0 0 0 0 0 0 0 0 0 0 0 0 0 0 0 0 0 0 0 0 0 0 0 0 0 0 0 0 0 0 0 0 0 0 0 0 0 0 0 0 0 0 0 0 0 0 0 0 0 0 0 0 0 0 0 0 0 0 0 0 79 77 76 73 73 76 81 81 79 78 81 82 79 80 79 78 79 79 81 80 80 85 85 85 85 84 85 84 82 79 75 75 72 71 71 70 69 67 66 67 63 64 65 66 57 56 55 54 54 54 53 52 42 46 46 42 39 39 40 41 40 39 40 39 41 44 46 45 43 43 43 44 43 42 41 -225 -225 -225 -225 -225 -225 -225 -225 -225 -225 -225 -225 -225 -225 -225 -225 -225 -225 -225 -225 -225 -225 -225 -225 -225 -225 -225 -225 -225 -225 -225 -225 -225 -225 -225 -225 -225 -225 -225 -225 -225 -225 38 37 39 38 38 38 39 39 41 43 46 47 49 51 51 50 52 53 53 54 55 58 59 61 62 61 61 61 61 64 66 69 69 72 78 85 86 87 88 84 86 88 87 87 86 87 88 190 93 94 94 96 98 98 98 100 98 99 103 100 102 101 100 98 98 102 105 106 108 111 111 112 115 117 118 121 120 121 122 126 129 130 128 129 127 -209 -209 -209 -209 134 136 -209 -209 -209 -193 -193 139 -209 -193 151 152 160 167 172 168 167 168 171 169 169 169 170 168 171 172 172 -209 -193 175 176 177 176 176 174 174 173 174 -193 -209 0 0 0 0 0
    0 0 0 0 0 0 0 0 0 0 0 0 0 0 0 0 0 0 0 0 0 0 0 0 0 0 0 0 0 0 0 0 0 0 0 0 0 0 0 0 0 0 0 0 0 0 0 0 0 0 0 0 0 0 0 0 0 0 0 0 0 0 0 0 0 0 0 0 0 80 78 76 74 73 77 82 81 79 79 81 81 80 80 79 78 79 80 81 80 81 85 85 86 86 85 86 85 82 81 76 76 72 72 71 71 69 67 66 67 63 65 67 67 56 55 54 54 54 54 53 51 42 46 47 43 41 41 41 42 41 40 41 40 43 45 47 46 44 44 44 44 44 42 41 -225 -225 -225 -225 -225 -225 -225 -225 -225 -225 -225 -225 -225 -225 -225 -225 -225 -225 -225 -225 -225 -225 -225 -225 -225 -225 -225 -225 -225 -225 -225 -225 -225 -225 -225 -225 -225 -225 -225 -225 -225 -225 -225 37 39 38 39 39 40 40 41 44 46 49 49 50 50 50 51 52 52 53 54 57 59 61 61 62 61 61 61 64 66 69 69 72 78 86 87 87 88 85 86 88 87 87 85 87 88 191 93 94 94 96 98 98 98 100 99 99 104 102 103 102 102 101 101 105 106 107 109 114 114 116 118 119 120 122 122 122 123 125 128 127 125 125 126 124 -193 -209 -209 131 135 135 137 138 139 140 141 143 148 151 152 156 165 170 168 167 168 171 169 170 169 170 169 171 173 173 -193 -193 175 175 176 176 176 175 174 173 173 -193 -177 0 0 0 0 0
    0 0 0 0 0 0 0 0 0 0 0 0 0 0 0 0 0 0 0 0 0 0 0 0 0 0 0 0 0 0 0 0 0 0 0 0 0 0 0 0 0 0 0 0 0 0 0 0 0 0 0 0 0 0 0 0 0 0 0 0 0 0 0 0 0 0 0 0 0 80 78 76 74 73 77 81 81 80 80 81 81 80 80 79 78 79 79 80 80 81 84 83 84 85 85 85 85 81 80 77 77 72 71 71 71 69 67 66 66 62 65 66 64 54 53 53 53 53 53 52 50 42 45 47 44 42 42 42 43 42 41 42 42 44 46 47 47 44 45 45 45 43 42 41 -225 -225 -225 -225 -225 -225 -225 -225 -225 -225 -225 -225 -225 -225 -225 -225 -225 -225 -225 -225 -225 -225 -225 -225 -225 -225 -225 -225 -225 -225 -225 -225 -225 -225 -225 -225 -225 -225 -225 -225 -225 -225 -225 -225 39 40 41 41 42 42 42 47 47 51 50 51 51 50 51 52 52 54 54 57 59 61 61 61 61 61 61 64 66 69 70 72 79 87 87 87 88 85 86 88 88 87 85 87 87 -177 92 93 -193 95 98 98 98 100 99 99 104 -193 104 103 103 103 102 105 106 106 108 114 116 117 120 121 122 123 123 123 123 125 126 126 124 124 124 123 131 -209 132 130 135 135 137 138 139 142 143 145 148 150 151 153 163 168 167 167 168 171 169 170 170 171 169 171 172 172 -193 -193 -193 174 174 175 176 175 176 175 177 178 -193 0 0 0 0 0
    0 0 0 0 0 0 0 0 0 0 0 0 0 0 0 0 0 0 0 0 0 0 0 0 0 0 0 0 0 0 0 0 0 0 0 0 0 0 0 0 0 0 0 0 0 0 0 0 0 0 0 0 0 0 0 0 0 0 0 0 0 0 0 0 0 0 0 0 0 79 78 76 74 73 77 81 81 80 80 81 81 80 81 80 79 79 79 80 80 80 84 82 84 85 84 83 85 80 78 77 77 71 70 70 71 68 66 65 65 62 65 66 64 54 54 54 54 53 53 51 50 42 44 47 44 43 43 43 43 42 42 44 43 45 47 48 49 46 47 47 46 44 44 43 -225 -225 -225 -225 -225 -225 -225 -225 -225 -225 -225 -225 -225 -225 -225 -225 -225 -225 -225 -225 -225 -225 -225 -225 -225 -225 -225 -225 -225 -225 -225 -225 -225 -225 -225 -225 -225 -225 -225 -225 -225 -225 -225 -225 -225 45 46 45 46 46 45 51 49 53 51 52 53 53 53 53 53 55 54 58 59 60 60 61 62 62 61 64 66 69 69 72 78 86 86 86 87 85 86 88 87 87 85 87 87 -177 91 93 93 95 98 98 98 100 100 100 104 104 105 105 105 105 105 106 106 107 109 113 116 118 120 122 122 125 125 125 125 127 128 127 125 126 125 125 130 131 132 131 137 137 139 140 142 146 145 146 148 149 150 152 160 167 166 166 168 170 169 170 170 170 169 171 172 172 -193 171 -193 172 173 174 175 176 177 178 181 181 183 0 0 0 0 0
    0 0 0 0 0 0 0 0 0 0 0 0 0 0 0 0 0 0 0 0 0 0 0 0 0 0 0 0 0 0 0 0 0 0 0 0 0 0 0 0 0 0 0 0 0 0 0 0 0 0 0 0 0 0 0 0 0 0 0 0 0 0 0 0 0 0 0 0 0 79 77 76 74 73 77 82 81 81 80 82 82 81 82 80 79 79 80 81 81 81 83 81 83 84 84 80 82 77 75 77 76 71 69 69 70 67 66 65 65 63 65 67 64 55 55 55 55 54 53 52 51 44 47 49 46 45 44 44 44 43 44 46 46 50 51 52 51 50 51 50 48 46 46 -225 -225 -225 -225 -225 -225 -225 -225 -225 -225 -225 -225 -225 -225 -225 -225 -225 -225 -225 -225 -225 -225 -225 -225 -225 -225 -225 -225 -225 -225 -225 -225 -225 -225 -225 -225 -225 -225 -225 -225 -225 -225 -225 -225 -225 -225 -225 49 48 50 49 46 53 50 55 53 54 55 54 55 55 55 56 55 58 59 60 60 61 62 62 61 64 66 69 69 71 77 85 84 85 87 85 86 88 87 87 85 87 88 -193 91 92 92 94 98 98 99 100 100 99 103 103 105 105 105 106 106 107 107 108 110 113 116 118 119 122 122 124 125 125 125 128 129 129 127 127 127 126 129 127 127 125 137 137 141 141 144 148 147 148 148 150 150 151 159 167 164 165 167 169 169 170 169 170 169 171 172 172 170 171 171 172 173 174 174 175 177 179 182 182 183 0 0 0 0 0
    0 0 0 0 0 0 0 0 0 0 0 0 0 0 0 0 0 0 0 0 0 0 0 0 0 0 0 0 0 0 0 0 0 0 0 0 0 0 0 0 0 0 0 0 0 0 0 0 0 0 0 0 0 0 0 0 0 0 0 0 0 0 0 0 0 0 0 0 0 78 77 76 73 73 76 81 81 81 81 82 82 81 82 81 80 81 82 82 81 81 82 80 82 83 81 78 78 76 76 79 78 72 69 70 70 67 67 65 65 65 65 67 64 56 56 56 56 54 54 53 52 46 49 51 48 47 46 46 45 45 46 49 49 53 54 54 53 52 52 51 50 47 -225 -225 -225 -225 -225 -225 -225 -225 -225 -225 -225 -225 -225 -225 -225 -225 -225 -225 -225 -225 -225 -225 -225 -225 -225 -225 -225 -225 -225 -225 -225 -225 -225 -225 -225 -225 -225 -225 -225 -225 -225 -225 -225 -225 -225 -225 -225 -225 -225 -225 -225 54 41 56 54 58 56 56 57 57 57 57 57 57 56 58 59 59 60 60 62 62 62 64 67 69 69 71 76 84 82 84 86 85 86 88 87 87 85 88 88 -193 91 92 92 94 97 97 98 99 99 98 102 102 104 105 105 106 107 108 109 110 112 114 116 118 119 121 122 123 124 124 125 127 128 128 127 128 128 128 131 133 134 134 139 140 142 142 144 147 147 147 148 149 150 151 158 166 164 165 167 169 169 169 169 169 168 171 172 171 170 171 171 173 173 175 176 177 180 181 184 185 186 0 0 0 0 0
    0 0 0 0 0 0 0 0 0 0 0 0 0 0 0 0 0 0 0 0 0 0 0 0 0 0 0 0 0 0 0 0 0 0 0 0 0 0 0 0 0 0 0 0 0 0 0 0 0 0 0 0 0 0 0 0 0 0 0 0 0 0 0 0 0 0 0 0 0 77 76 75 73 72 75 81 81 80 82 83 81 82 83 82 80 82 83 83 82 0 -256 -1 16701 83 80 78 78 75 76 80 79 72 70 70 70 67 67 66 66 66 65 67 64 58 58 58 57 55 54 53 53 47 50 51 49 49 49 48 48 49 51 54 54 56 56 55 54 54 53 51 50 47 -225 -225 -225 -225 -225 -225 -225 -225 -225 -225 -225 -225 -225 -225 -225 -225 -225 -225 -225 -225 -225 -225 -225 -225 -225 -225 -225 -225 -225 -225 -225 -225 -225 -225 -225 -225 -225 -225 -225 -225 -225 -225 -225 -225 -225 -225 -225 -225 -225 -225 -225 -225 -209 60 57 60 57 57 58 58 58 58 58 58 57 59 59 59 60 61 62 63 64 66 68 70 71 71 76 82 81 82 85 85 86 88 87 87 85 88 88 89 91 92 92 94 97 97 98 98 98 97 101 102 103 104 105 106 108 108 110 110 112 115 116 118 118 120 121 123 124 125 125 127 128 127 128 128 127 129 132 -209 135 -193 139 140 142 142 145 148 148 149 150 151 151 152 158 164 162 163 166 168 169 169 169 169 168 170 171 171 169 171 171 172 174 176 177 180 183 184 185 186 188 0 0 0 0 0
    0 0 0 0 0 0 0 0 0 0 0 0 0 0 0 0 0 0 0 0 0 0 0 0 0 0 0 0 0 0 0 0 0 0 0 0 0 0 0 0 0 0 0 0 0 0 0 0 0 0 0 0 0 0 0 0 0 0 0 0 0 0 0 0 0 0 0 0 0 77 77 76 74 73 77 82 80 82 83 83 81 84 85 83 82 83 83 84 83 84 82 81 83 83 82 82 78 75 75 79 77 72 70 70 69 67 67 66 66 67 66 68 64 59 59 59 58 57 56 55 56 51 52 53 51 51 51 51 52 53 55 56 57 57 57 56 56 55 54 52 50 -225 -225 -225 -225 -225 -225 -225 -225 -225 -225 -225 -225 -225 -225 -225 -225 -225 -225 -225 -225 -225 -225 -225 -225 -225 -225 -225 -225 -225 -225 -225 -225 -225 -225 -225 -225 -225 -225 -225 -225 -225 -225 -225 -225 -225 -225 -225 -225 -225 -225 -225 -225 -225 -209 61 58 61 57 58 59 59 59 59 59 59 57 59 59 59 61 62 63 64 65 67 68 70 71 71 76 81 80 81 84 85 86 88 87 87 85 88 89 89 90 91 92 94 97 96 98 97 98 96 100 101 103 104 105 105 107 108 109 110 111 114 116 118 119 120 122 124 125 126 126 127 129 128 130 131 130 132 133 136 136 137 139 140 142 142 145 148 149 150 151 151 152 152 156 162 160 161 165 167 168 168 168 168 167 169 170 170 169 170 171 172 175 176 178 180 184 185 187 186 189 0 0 0 0 0
    0 0 0 0 0 0 0 0 0 0 0 0 0 0 0 0 0 0 0 0 0 0 0 0 0 0 0 0 0 0 0 0 0 0 0 0 0 0 0 0 0 0 0 0 0 0 0 0 0 0 0 0 0 0 0 0 0 0 0 0 0 0 0 0 0 0 0 0 0 77 77 78 76 75 80 83 83 85 85 85 82 85 85 83 84 84 84 84 83 83 81 80 81 81 80 82 77 75 77 80 77 73 70 71 69 68 68 66 65 67 66 68 63 60 60 59 58 57 56 55 57 54 53 54 52 52 52 54 55 56 57 58 58 58 58 58 58 57 55 53 -225 -225 -225 -225 -225 -225 -225 -225 -225 -225 -225 -225 -225 -225 -225 -225 -225 -225 -225 -225 -225 -225 -225 -225 -225 -225 -225 -225 -225 -225 -225 -225 -225 -225 -225 -225 -225 -225 -225 -225 -225 -225 -225 -225 -225 -225 -225 -225 -225 -225 -225 -225 -225 -225 -209 59 54 60 57 57 59 60 60 60 60 60 59 60 60 60 62 62 63 64 65 67 68 70 71 71 75 81 80 80 84 86 86 87 87 87 85 88 89 89 90 91 91 94 96 96 97 97 98 95 100 101 103 104 105 105 107 107 108 109 110 113 115 118 119 121 122 125 126 128 127 128 128 128 129 130 130 132 133 134 134 136 139 139 141 143 146 149 150 151 152 152 153 152 156 161 159 160 165 166 167 168 168 168 167 169 170 170 169 170 171 173 175 177 178 182 186 187 190 188 190 0 0 0 0 0
    0 0 0 0 0 0 0 0 0 0 0 0 0 0 0 0 0 0 0 0 0 0 0 0 0 0 0 0 0 0 0 0 0 0 0 0 0 0 0 0 0 0 0 0 0 0 0 0 0 0 0 0 0 0 0 0 0 0 0 0 0 0 0 0 0 0 0 0 0 76 76 77 76 76 81 82 84 86 86 86 83 85 85 83 84 83 83 84 83 83 81 81 81 80 79 82 76 75 77 80 76 74 71 71 69 69 68 66 65 67 66 67 62 59 59 59 58 56 54 51 54 54 53 54 53 52 54 56 57 57 59 59 60 60 60 60 58 57 56 53 -225 -225 -225 -225 -225 -225 -225 -225 -225 -225 -225 -225 -225 -225 -225 -225 -225 -225 -225 -225 -225 -225 -225 -225 -225 -225 -225 -225 -225 -225 -225 -225 -225 -225 -225 -225 -225 -225 -225 -225 -225 -225 -225 -225 -225 -225 -225 -225 -225 -225 -225 -225 -225 -225 -225 -209 -209 64 60 61 62 63 63 63 62 62 61 62 61 60 62 62 63 64 66 67 68 70 72 72 75 80 79 79 83 86 85 87 87 86 85 88 89 89 89 90 91 94 96 95 97 96 97 94 98 100 102 103 104 105 107 107 108 109 109 111 113 117 118 120 122 124 125 127 127 127 128 128 130 130 130 132 133 135 136 137 139 138 141 143 146 150 151 153 153 153 153 153 155 160 158 159 164 166 167 167 167 167 166 169 170 170 169 169 170 172 175 178 177 181 185 186 187 186 188 0 0 0 0 0
    0 0 0 0 0 0 0 0 0 0 0 0 0 0 0 0 0 0 0 0 0 0 0 0 0 0 0 0 0 0 0 0 0 0 0 0 0 0 0 0 0 0 0 0 0 0 0 0 0 0 0 0 0 0 0 0 0 0 0 0 0 0 0 0 0 0 0 0 0 75 75 77 77 77 79 80 83 86 85 86 83 84 85 84 84 83 84 84 82 83 81 81 80 79 79 82 77 75 79 80 76 74 72 72 70 69 69 66 65 68 66 66 62 60 59 58 57 55 50 46 57 55 55 55 53 54 57 59 60 60 61 61 62 62 62 60 59 58 56 -225 -225 -225 -225 -225 -225 -225 -225 -225 -225 -225 -225 -225 -225 -225 -225 -225 -225 -225 -225 -225 -225 -225 -225 -225 -225 -225 -225 -225 -225 -225 -225 -225 -225 -225 -225 -225 -225 -225 -225 -225 -225 -225 -225 -225 -225 -225 -225 -225 -225 -225 -225 -225 -225 -225 -225 -209 -209 -209 64 67 67 67 67 65 64 63 62 63 61 60 61 61 63 64 66 67 68 70 72 72 75 79 79 79 83 86 85 86 86 86 85 89 89 90 89 91 91 94 96 95 97 96 97 94 97 99 101 102 103 104 106 106 107 108 109 110 112 116 118 120 122 124 124 127 127 127 128 128 130 131 132 134 134 137 137 138 140 139 142 143 146 149 150 152 153 153 153 153 154 157 156 157 162 165 166 167 167 166 165 168 169 169 169 169 170 171 173 176 175 177 183 185 186 187 188 0 0 0 0 0
    0 0 0 0 0 0 0 0 0 0 0 0 0 0 0 0 0 0 0 0 0 0 0 0 0 0 0 0 0 0 0 0 0 0 0 0 0 0 0 0 0 0 0 0 0 0 0 0 0 0 0 0 0 0 0 0 0 0 0 0 0 0 0 0 0 0 0 0 0 75 75 78 79 79 81 82 83 86 84 87 83 84 84 84 84 83 84 84 82 83 82 82 81 81 81 83 77 76 81 81 76 74 73 72 70 70 70 67 65 69 67 66 63 62 62 61 59 58 51 52 57 55 56 55 55 56 59 62 64 63 64 64 64 64 64 62 60 59 -225 -225 -225 -225 -225 -225 -225 -225 -225 -225 -225 -225 -225 -225 -225 -225 -225 -225 -225 -225 -225 -225 -225 -225 -225 -225 -225 -225 -225 -225 -225 -225 -225 -225 -225 -225 -225 -225 -225 -225 -225 -225 -225 -225 -225 -225 -225 -225 -225 -225 -225 -225 -225 -225 -225 -225 -225 -225 -209 -209 63 68 68 66 67 66 64 64 63 64 63 61 64 63 64 66 68 68 69 71 73 73 75 80 80 79 83 86 85 85 86 86 85 89 89 89 89 91 92 95 96 96 97 96 97 94 97 99 101 102 103 104 106 106 108 109 109 109 111 115 116 119 121 123 124 127 128 128 130 131 132 134 134 136 136 138 138 139 140 140 142 143 145 148 149 151 152 153 153 152 153 156 154 156 159 162 164 164 165 165 164 167 169 169 169 169 170 171 174 176 175 174 181 184 186 186 188 0 0 0 0 0
    0 0 0 0 0 0 0 0 0 0 0 0 0 0 0 0 0 0 0 0 0 0 0 0 0 0 0 0 0 0 0 0 0 0 0 0 0 0 0 0 0 0 0 0 0 0 0 0 0 0 0 0 0 0 0 0 0 0 0 0 0 0 0 0 0 0 0 0 0 75 75 78 80 81 83 83 83 85 85 88 84 85 85 84 84 84 84 84 81 82 81 82 82 82 83 84 78 78 82 80 74 73 72 72 70 70 69 67 65 69 67 66 63 65 64 62 60 59 41 54 67 56 58 56 58 62 66 68 68 67 68 67 67 67 65 63 61 -225 -225 -225 -225 -225 -225 -225 -225 -225 -225 -225 -225 -225 -225 -225 -225 -225 -225 -225 -225 -225 -225 -225 -225 -225 -225 -225 -225 -225 -225 -225 -225 -225 -225 -225 -225 -225 -225 -225 -225 -225 -225 -225 -225 -225 -225 -225 -225 -225 -225 -225 -225 -225 -225 -225 -225 -225 -225 -225 -225 -225 64 68 68 68 68 67 66 66 66 66 65 63 66 64 65 67 68 68 69 71 73 73 75 79 79 79 83 86 84 85 85 86 84 88 88 89 89 91 93 95 97 96 98 97 97 95 98 98 101 101 102 102 105 105 107 108 109 109 110 114 115 117 120 122 123 126 127 128 130 131 134 136 135 137 138 139 139 140 141 141 142 144 145 147 149 151 153 153 153 153 152 154 153 154 155 156 159 160 162 164 163 167 169 169 169 170 172 172 174 177 177 174 179 179 182 -193 187 0 0 0 0 0
    0 0 0 0 0 0 0 0 0 0 0 0 0 0 0 0 0 0 0 0 0 0 0 0 0 0 0 0 0 0 0 0 0 0 0 0 0 0 0 0 0 0 0 0 0 0 0 0 0 0 0 0 0 0 0 0 0 0 0 0 0 0 0 0 0 0 0 0 0 75 75 79 81 82 84 83 83 85 85 87 84 84 84 83 83 83 84 84 81 83 82 83 84 85 85 86 80 81 83 80 74 74 73 72 70 70 69 67 65 69 67 66 63 68 67 65 64 -209 -193 -193 -209 -209 -209 57 62 66 69 70 70 69 69 68 69 68 66 64 62 -225 -225 -225 -225 -225 -225 -225 -225 -225 -225 -225 -225 -225 -225 -225 -225 -225 -225 -225 -225 -225 -225 -225 -225 -225 -225 -225 -225 -225 -225 -225 -225 -225 -225 -225 -225 -225 -225 -225 -225 -225 -225 -225 -225 -225 -225 -225 -225 -225 -225 -225 -225 -225 -225 -225 -225 -225 -225 -225 -225 -225 -225 -225 70 70 69 69 68 68 68 67 67 64 66 65 66 67 68 68 69 71 74 73 75 79 79 79 83 86 84 85 85 86 85 88 89 89 89 92 94 96 97 97 98 97 98 95 98 98 100 101 102 101 105 105 107 108 108 110 111 115 116 117 120 121 122 125 126 126 129 130 133 134 135 137 138 139 139 140 141 140 142 144 144 147 148 152 153 153 153 153 152 153 151 153 153 153 154 155 155 160 160 165 169 168 169 170 172 172 175 177 179 175 180 178 -209 -209 188 0 0 0 0 0
    0 0 0 0 0 0 0 0 0 0 0 0 0 0 0 0 0 0 0 0 0 0 0 0 0 0 0 0 0 0 0 0 0 0 0 0 0 0 0 0 0 0 0 0 0 0 0 0 0 0 0 0 0 0 0 0 0 0 0 0 0 0 0 0 0 0 0 0 0 75 76 79 80 82 84 83 83 85 86 86 84 84 84 83 83 83 83 83 82 84 83 84 85 86 86 86 82 83 83 80 74 73 73 73 71 71 69 67 65 70 68 67 66 70 72 72 81 89 91 91 -209 -209 -209 61 68 70 71 71 71 70 69 69 70 69 67 65 -225 -225 -225 -225 -225 -225 -225 -225 -225 -225 -225 -225 -225 -225 -225 -225 -225 -225 -225 -225 -225 -225 -225 -225 -225 -225 -225 -225 -225 -225 -225 -225 -225 -225 -225 -225 -225 -225 -225 -225 -225 -225 -225 -225 -225 -225 -225 -225 -225 -225 -225 -225 -225 -225 -225 -225 -225 -225 -225 -225 -225 -225 -225 -225 -225 70 71 70 69 69 70 69 69 66 68 67 67 68 69 69 70 71 74 74 76 79 79 78 83 86 84 84 86 86 86 88 89 89 89 92 94 96 97 97 99 97 98 95 98 99 100 101 101 100 103 103 105 107 107 110 113 116 118 119 121 123 124 126 127 127 130 131 132 134 134 136 138 138 139 140 140 140 142 145 146 148 151 153 154 154 155 154 152 153 151 152 151 151 153 -193 -193 -193 -193 160 164 167 169 170 171 171 174 176 177 175 179 174 -209 -209 -209 0 0 0 0 0
    0 0 0 0 0 0 0 0 0 0 0 0 0 0 0 0 0 0 0 0 0 0 0 0 0 0 0 0 0 0 0 0 0 0 0 0 0 0 0 0 0 0 0 0 0 0 0 0 0 0 0 0 0 0 0 0 0 0 0 0 0 0 0 0 0 0 0 0 0 77 78 81 82 83 84 83 82 84 86 86 83 84 83 83 83 83 83 83 81 84 84 85 86 87 87 87 84 84 84 79 73 73 73 72 71 71 69 68 64 71 70 68 71 73 76 82 88 90 89 -209 -209 -209 82 75 75 73 73 73 73 72 71 71 71 70 68 -225 -225 -225 -225 -225 -225 -225 -225 -225 -225 -225 -225 -225 -225 -225 -225 -225 -225 -225 -225 -225 -225 -225 -225 -225 -225 -225 -225 -225 -225 -225 -225 -225 -225 -225 -225 -225 -225 -225 -225 -225 -225 -225 -225 -225 -225 -225 -225 -225 -225 -225 -225 -225 -225 -225 -225 -225 -225 -225 -225 -225 -225 -225 -225 -225 -225 -225 72 71 70 70 71 71 70 68 69 68 68 69 70 69 70 71 75 74 76 78 79 78 83 85 84 84 85 85 86 88 88 89 89 92 95 96 97 96 99 97 98 95 98 98 100 100 101 98 101 100 103 106 106 109 112 116 118 120 121 122 123 125 127 127 129 131 131 133 133 135 137 137 139 140 141 141 143 146 146 148 150 153 152 153 154 153 151 152 150 151 150 151 -193 -193 -209 -193 -209 157 162 168 170 171 172 171 173 175 176 176 179 172 -209 -209 -209 0 0 0 0 0
    0 0 0 0 0 0 0 0 0 0 0 0 0 0 0 0 0 0 0 0 0 0 0 0 0 0 0 0 0 0 0 0 0 0 0 0 0 0 0 0 0 0 0 0 0 0 0 0 0 0 0 0 0 0 0 0 0 0 0 0 0 0 0 0 0 0 0 0 0 78 80 82 83 83 85 82 81 83 85 86 83 83 83 82 82 82 83 82 80 84 84 85 86 88 88 87 85 85 84 79 74 73 73 73 72 71 70 68 65 72 71 68 72 73 86 85 86 87 86 86 85 -209 81 76 75 74 74 74 73 72 73 73 72 71 70 -225 -225 -225 -225 -225 -225 -225 -225 -225 -225 -225 -225 -225 -225 -225 -225 -225 -225 -225 -225 -225 -225 -225 -225 -225 -225 -225 -225 -225 -225 -225 -225 -225 -225 -225 -225 -225 -225 -225 -225 -225 -225 -225 -225 -225 -225 -225 -225 -225 -225 -225 -225 -225 -225 -225 -225 -225 -225 -225 -225 -225 -225 -225 -225 -225 -225 -225 72 71 70 70 71 71 71 69 70 69 70 70 71 70 70 72 74 74 75 77 78 77 82 85 83 84 85 85 86 87 87 88 89 92 94 95 96 96 99 98 98 96 99 99 100 101 101 99 101 100 102 105 105 108 111 115 118 120 121 123 124 125 127 127 128 131 131 132 133 134 136 137 139 140 141 142 143 145 145 147 148 151 151 152 153 153 151 152 151 152 152 153 -193 -209 -209 -193 -209 160 164 167 169 169 170 -193 172 172 174 174 177 174 -209 -209 -209 0 0 0 0 0
    0 0 0 0 0 0 0 0 0 0 0 0 0 0 0 0 0 0 0 0 0 0 0 0 0 0 0 0 0 0 0 0 0 0 0 0 0 0 0 0 0 0 0 0 0 0 0 0 0 0 0 0 0 0 0 0 0 0 0 0 0 0 0 0 0 0 0 0 0 80 82 82 82 83 84 82 80 82 85 85 82 83 83 82 82 81 82 80 79 84 84 85 89 92 98 93 87 86 84 79 73 73 73 72 71 71 69 68 65 72 70 68 73 -193 93 86 88 89 87 88 88 89 86 82 78 76 75 75 74 74 74 73 73 72 -225 -225 -225 -225 -225 -225 -225 -225 -225 -225 -225 -225 -225 -225 -225 -225 -225 -225 -225 -225 -225 -225 -225 -225 -225 -225 -225 -225 -225 -225 -225 -225 -225 -225 -225 -225 -225 -225 -225 -225 -225 -225 -225 -225 -225 -225 -225 -225 -225 -225 -225 -225 -225 -225 -225 -225 -225 -225 -225 -225 -225 -225 -225 -225 -225 -225 -225 -225 75 73 71 71 73 72 72 70 72 71 72 72 73 72 73 73 75 75 76 77 78 77 83 85 84 85 86 86 86 87 87 88 89 92 93 94 95 96 99 98 99 97 99 100 101 100 100 98 101 100 102 104 104 107 111 114 118 120 121 122 123 124 126 127 128 131 131 133 134 135 138 138 140 142 142 143 143 145 145 145 147 149 148 150 152 153 151 151 151 152 152 153 153 152 -209 -193 -193 163 -193 168 170 170 171 -193 172 172 174 174 179 179 -209 -209 -209 0 0 0 0 0
    0 0 0 0 0 0 0 0 0 0 0 0 0 0 0 0 0 0 0 0 0 0 0 0 0 0 0 0 0 0 0 0 0 0 0 0 0 0 0 0 0 0 0 0 0 0 0 0 0 0 0 0 0 0 0 0 0 0 0 0 0 0 0 0 0 0 0 0 0 83 84 82 82 83 84 82 80 82 85 85 83 83 83 82 81 81 82 80 79 84 83 86 90 94 99 94 90 88 85 80 73 73 73 72 71 71 69 69 65 73 71 68 73 84 86 83 85 86 85 86 86 89 86 84 81 78 76 76 75 75 74 74 73 -225 -225 -225 -225 -225 -225 -225 -225 -225 -225 -225 -225 -225 -225 -225 -225 -225 -225 -225 -225 -225 -225 -225 -225 -225 -225 -225 -225 -225 -225 -225 -225 -225 -225 -225 -225 -225 -225 -225 -225 -225 -225 -225 -225 -225 -225 -225 -225 -225 -225 -225 -225 -225 -225 -225 -225 -225 -225 -225 -225 -225 -225 -225 -225 -225 -225 -225 -225 -225 -225 74 73 73 74 73 73 71 72 72 73 73 74 73 73 74 76 75 76 78 78 78 83 85 84 85 86 86 87 87 87 88 89 92 92 93 95 95 99 98 99 97 100 100 101 100 101 98 100 100 102 104 105 108 111 113 117 119 120 121 122 123 126 126 128 131 131 133 134 136 139 138 140 142 142 144 143 144 144 143 145 146 145 149 151 152 151 151 152 153 153 153 153 152 153 157 -193 -193 170 170 171 172 173 172 173 173 176 175 -193 -193 -209 -209 -209 0 0 0 0 0
    0 0 0 0 0 0 0 0 0 0 0 0 0 0 0 0 0 0 0 0 0 0 0 0 0 0 0 0 0 0 0 0 0 0 0 0 0 0 0 0 0 0 0 0 0 0 0 0 0 0 0 0 0 0 0 0 0 0 0 0 0 0 0 0 0 0 0 0 0 85 88 86 86 85 86 83 81 84 86 85 83 84 83 82 82 82 82 79 80 85 84 87 92 96 99 96 93 90 86 80 72 72 72 71 71 71 68 69 66 73 73 72 76 83 85 82 83 82 82 83 87 87 85 83 81 78 77 77 76 75 75 74 73 -225 -225 -225 -225 -225 -225 -225 -225 -225 -225 -225 -225 -225 -225 -225 -225 -225 -225 -225 -225 -225 -225 -225 -225 -225 -225 -225 -225 -225 -225 -225 -225 -225 -225 -225 -225 -225 -225 -225 -225 -225 -225 -225 -225 -225 -225 -225 -225 -225 -225 -225 -225 -225 -225 -225 -225 -225 -225 -225 -225 -225 -225 -225 -225 -225 -225 -225 -225 -225 -225 75 74 74 76 75 75 73 73 74 74 74 75 74 74 75 77 76 76 78 79 78 83 85 84 86 86 87 87 87 88 88 89 91 92 93 95 96 99 99 99 98 100 100 101 100 101 99 101 101 103 106 107 110 113 115 118 120 120 121 122 123 126 127 128 131 131 133 134 135 138 138 140 142 142 144 143 144 143 140 143 143 142 148 150 151 151 152 153 154 154 154 153 153 154 157 162 164 169 170 171 172 174 174 175 173 177 -193 -193 -193 -209 -209 -209 0 0 0 0 0
    0 0 0 0 0 0 0 0 0 0 0 0 0 0 0 0 0 0 0 0 0 0 0 0 0 0 0 0 0 0 0 0 0 0 0 0 0 0 0 0 0 0 0 0 0 0 0 0 0 0 0 0 0 0 0 0 0 0 0 0 0 0 0 0 0 0 0 0 0 -209 92 -209 -193 -193 87 83 80 83 87 84 84 85 84 82 83 83 83 80 84 87 87 90 94 96 98 97 95 90 84 77 72 72 71 71 71 70 67 69 67 73 70 73 78 83 85 82 83 82 84 86 88 88 87 85 83 81 79 78 77 76 75 74 -225 -225 -225 -225 -225 -225 -225 -225 -225 -225 -225 -225 -225 -225 -225 -225 -225 -225 -225 -225 -225 -225 -225 -225 -225 -225 -225 -225 -225 -225 -225 -225 -225 -225 -225 -225 -225 -225 -225 -225 -225 -225 -225 -225 -225 -225 -225 -225 -225 -225 -225 -225 -225 -225 -225 -225 -225 -225 -225 -225 -225 -225 -225 -225 -225 -225 -225 -225 -225 -225 -225 76 75 75 76 75 75 73 73 74 74 75 75 74 75 75 77 76 76 77 78 78 82 84 84 86 87 87 89 89 90 90 91 93 93 94 96 97 99 99 100 99 101 101 101 101 101 100 102 102 105 108 109 113 115 117 119 121 120 121 122 123 126 126 126 128 128 130 132 134 137 137 140 143 144 145 143 144 142 140 143 142 142 147 150 152 152 153 154 156 155 155 155 154 155 158 165 165 169 170 171 172 173 174 174 173 175 -193 -193 -193 -209 -209 -209 0 0 0 0 0
    0 0 0 0 0 0 0 0 0 0 0 0 0 0 0 0 0 0 0 0 0 0 0 0 0 0 0 0 0 0 0 0 0 0 0 0 0 0 0 0 0 0 0 0 0 0 0 0 0 0 0 0 0 0 0 0 0 0 0 0 0 0 0 0 0 0 0 0 0 -209 -209 -209 -209 -209 87 79 76 81 86 82 82 83 82 81 83 83 83 80 89 91 93 97 100 100 101 101 98 91 84 80 76 76 74 73 73 72 69 71 70 74 72 72 75 75 82 79 79 81 84 86 89 89 87 86 84 82 79 78 77 76 74 -225 -225 -225 -225 -225 -225 -225 -225 -225 -225 -225 -225 -225 -225 -225 -225 -225 -225 -225 -225 -225 -225 -225 -225 -225 -225 -225 -225 -225 -225 -225 -225 -225 -225 -225 -225 -225 -225 -225 -225 -225 -225 -225 -225 -225 -225 -225 -225 -225 -225 -225 -225 -225 -225 -225 -225 -225 -225 -225 -225 -225 -225 -225 -225 -225 -225 -225 -225 -225 -225 -225 -225 78 77 77 78 78 78 76 76 76 77 77 78 76 76 77 79 77 77 78 79 79 84 85 85 86 88 89 90 91 91 91 92 93 93 93 96 97 97 99 100 100 101 101 102 102 102 102 103 104 106 110 112 115 117 119 121 122 122 122 123 124 126 126 126 128 127 129 131 133 135 135 138 140 140 141 140 140 140 138 141 140 140 144 148 151 153 155 156 158 157 158 157 157 158 161 166 167 169 170 171 172 172 173 174 -193 -193 -193 -193 -209 -209 -209 -193 0 0 0 0 0
    0 0 0 0 0 0 0 0 0 0 0 0 0 0 0 0 0 0 0 0 0 0 0 0 0 0 0 0 0 0 0 0 0 0 0 0 0 0 0 0 0 0 0 0 0 0 0 0 0 0 0 0 0 0 0 0 0 0 0 0 0 0 0 0 0 0 0 0 0 -209 -209 -209 -209 -209 -209 76 74 80 86 82 82 83 83 83 85 85 86 85 91 97 100 104 105 103 103 102 99 88 85 81 78 80 77 75 73 72 70 73 -209 -209 -209 -209 -193 75 80 76 77 82 84 86 89 89 88 87 86 83 80 79 78 76 75 -225 -225 -225 -225 -225 -225 -225 -225 -225 -225 -225 -225 -225 -225 -225 -225 -225 -225 -225 -225 -225 -225 -225 -225 -225 -225 -225 -225 -225 -225 -225 -225 -225 -225 -225 -225 -225 -225 -225 -225 -225 -225 -225 -225 -225 -225 -225 -225 -225 -225 -225 -225 -225 -225 -225 -225 -225 -225 -225 -225 -225 -225 -225 -225 -225 -225 -225 -225 -225 -225 -225 -225 -225 77 77 78 80 80 78 78 79 80 80 81 79 78 78 82 79 78 79 82 82 85 85 86 86 89 89 90 91 91 92 92 94 93 94 96 97 96 99 100 100 101 101 102 101 102 102 103 104 107 110 114 116 118 119 121 123 123 123 124 125 127 127 126 127 126 127 128 129 132 133 137 139 140 140 140 140 140 139 141 141 141 144 148 151 154 155 158 159 158 159 158 158 160 162 166 167 169 170 171 172 172 174 173 -193 -193 -209 -193 -209 -209 -209 -193 0 0 0 0 0
    0 0 0 0 0 0 0 0 0 0 0 0 0 0 0 0 0 0 0 0 0 0 0 0 0 0 0 0 0 0 0 0 0 0 0 0 0 0 0 0 0 0 0 0 0 0 0 0 0 0 0 0 0 0 0 0 0 0 0 0 0 0 0 0 0 0 0 0 0 -193 -209 -209 -193 -209 -209 -209 72 80 85 84 84 84 86 84 87 87 87 89 91 94 97 100 100 99 100 99 95 89 87 79 78 81 78 75 73 73 75 82 89 -209 -209 -209 -193 77 82 79 79 82 84 87 89 89 88 88 86 85 82 81 79 77 -225 -225 -225 -225 -225 -225 -225 -225 -225 -225 -225 -225 -225 -225 -225 -225 -225 -225 -225 -225 -225 -225 -225 -225 -225 -225 -225 -225 -225 -225 -225 -225 -225 -225 -225 -225 -225 -225 -225 -225 -225 -225 -225 -225 -225 -225 -225 -225 -225 -225 -225 -225 -225 -225 -225 -225 -225 -225 -225 -225 -225 -225 -225 -225 -225 -225 -225 -225 -225 -225 -225 -225 -225 -225 76 76 75 78 80 77 77 78 80 80 80 79 78 78 82 82 80 81 84 85 87 86 86 87 89 89 90 92 91 92 93 94 94 94 96 97 96 99 100 100 101 102 102 102 102 102 103 -209 -209 -193 113 116 118 119 121 123 123 124 125 126 128 128 126 126 125 126 125 125 128 130 136 138 139 140 140 140 140 139 141 141 141 143 145 147 150 152 155 158 157 158 159 161 162 164 167 168 170 170 171 171 171 172 172 170 -209 -209 -209 -209 -209 -209 -209 0 0 0 0 0
    0 0 0 0 0 0 0 0 0 0 0 0 0 0 0 0 0 0 0 0 0 0 0 0 0 0 0 0 0 0 0 0 0 0 0 0 0 0 0 0 0 0 0 0 0 0 0 0 0 0 0 0 0 0 0 0 0 0 0 0 0 0 0 0 0 0 0 0 0 -193 -209 -193 -193 -209 -209 -209 -209 85 88 89 87 86 -193 84 86 85 85 88 90 93 96 96 96 93 96 93 91 87 85 79 78 81 78 77 74 75 79 86 90 91 -209 -209 75 81 85 83 81 84 86 88 89 89 89 88 86 86 83 81 78 -225 -225 -225 -225 -225 -225 -225 -225 -225 -225 -225 -225 -225 -225 -225 -225 -225 -225 -225 -225 -225 -225 -225 -225 -225 -225 -225 -225 -225 -225 -225 -225 -225 -225 -225 -225 -225 -225 -225 -225 -225 -225 -225 -225 -225 -225 -225 -225 -225 -225 -225 -225 -225 -225 -225 -225 -225 -225 -225 -225 -225 -225 -225 -225 -225 -225 -225 -225 -225 -225 -225 -225 -225 -225 -225 74 74 73 75 82 78 78 79 81 82 81 79 79 78 83 82 81 83 85 88 88 88 88 89 90 91 92 94 92 93 93 95 95 95 97 98 96 100 100 101 101 102 103 103 103 104 -209 106 108 -193 115 116 119 119 122 123 124 126 127 129 130 129 128 128 127 128 126 126 129 131 135 137 138 138 138 138 139 139 141 142 142 144 145 146 149 150 152 156 156 158 160 163 164 165 167 168 169 169 169 169 169 170 170 168 -209 167 172 -193 -209 -209 -209 0 0 0 0 0
    0 0 0 0 0 0 0 0 0 0 0 0 0 0 0 0 0 0 0 0 0 0 0 0 0 0 0 0 0 0 0 0 0 0 0 0 0 0 0 0 0 0 0 0 0 0 0 0 0 0 0 0 0 0 0 0 0 0 0 0 0 0 0 0 0 0 0 0 0 -193 -209 170 174 -193 -193 -193 -209 -209 94 98 90 -193 90 85 86 85 85 84 87 91 90 90 91 90 91 90 90 87 86 84 83 84 81 81 78 77 84 89 92 90 -193 -209 79 86 87 87 84 86 87 89 90 90 89 88 88 88 85 84 81 -225 -225 -225 -225 -225 -225 -225 -225 -225 -225 -225 -225 -225 -225 -225 -225 -225 -225 -225 -225 -225 -225 -225 -225 -225 -225 -225 -225 -225 -225 -225 -225 -225 -225 -225 -225 -225 -225 -225 -225 -225 -225 -225 -225 -225 -225 -225 -225 -225 -225 -225 -225 -225 -225 -225 -225 -225 -225 -225 -225 -225 -225 -225 -225 -225 -225 -225 -225 -225 -225 -225 -225 -225 -225 -225 -225 75 75 78 80 79 77 80 82 82 81 80 80 81 85 84 83 86 87 90 90 92 92 92 92 93 94 96 93 95 94 96 97 98 99 99 98 101 101 103 102 102 103 104 104 105 -209 108 111 115 117 118 119 120 122 123 124 126 127 129 130 129 127 126 126 127 125 124 127 129 133 137 138 138 138 138 140 139 142 142 142 145 146 146 148 149 151 153 154 157 158 163 164 165 167 167 169 168 168 169 169 170 169 168 169 168 172 178 -209 173 180 0 0 0 0 0
    0 0 0 0 0 0 0 0 0 0 0 0 0 0 0 0 0 0 0 0 0 0 0 0 0 0 0 0 0 0 0 0 0 0 0 0 0 0 0 0 0 0 0 0 0 0 0 0 0 0 0 0 0 0 0 0 0 0 0 0 0 0 0 0 0 0 0 0 0 -209 -209 -209 175 -193 -193 -193 -193 94 93 95 90 88 89 85 85 85 84 84 86 89 88 89 90 89 89 89 90 87 86 85 85 85 82 83 80 82 86 92 94 90 90 -209 85 88 88 87 85 86 88 89 90 90 89 89 89 89 87 87 -225 -225 -225 -225 -225 -225 -225 -225 -225 -225 -225 -225 -225 -225 -225 -225 -225 -225 -225 -225 -225 -225 -225 -225 -225 -225 -225 -225 -225 -225 -225 -225 -225 -225 -225 -225 -225 -225 -225 -225 -225 -225 -225 -225 -225 -225 -225 -225 -225 -225 -225 -225 -225 -225 -225 -225 -225 -225 -225 -225 -225 -225 -225 -225 -225 -225 -225 -225 -225 -225 -225 -225 -225 -225 -225 -225 -225 -225 71 77 -193 -193 62 72 80 81 80 79 77 81 86 85 85 87 88 92 92 93 93 92 92 94 94 98 94 96 95 96 98 99 100 99 98 101 101 103 102 102 103 105 105 107 108 110 114 117 119 119 120 121 122 124 124 126 127 129 130 130 128 127 125 126 124 123 125 126 132 136 138 138 140 140 142 142 144 144 145 147 148 147 149 149 149 152 154 158 160 165 165 165 167 167 168 168 168 169 168 170 -209 -209 -209 -209 -193 -193 -209 172 176 0 0 0 0 0
    0 0 0 0 0 0 0 0 0 0 0 0 0 0 0 0 0 0 0 0 0 0 0 0 0 0 0 0 0 0 0 0 0 0 0 0 0 0 0 0 0 0 0 0 0 0 0 0 0 0 0 0 0 0 0 0 0 0 0 0 0 0 0 0 0 0 0 0 0 -193 -209 -209 -209 -209 -209 99 -193 97 -209 95 87 87 88 86 85 85 85 85 87 89 89 89 89 89 88 89 90 86 85 84 86 -193 81 84 -209 -193 88 93 94 91 91 91 91 92 90 90 88 89 89 90 91 90 89 89 89 90 -225 -225 -225 -225 -225 -225 -225 -225 -225 -225 -225 -225 -225 -225 -225 -225 -225 -225 -225 -225 -225 -225 -225 -225 -225 -225 -225 -225 -225 -225 -225 -225 -225 -225 -225 -225 -225 -225 -225 -225 -225 -225 -225 -225 -225 -225 -225 -225 -225 -225 -225 -225 -225 -225 -225 -225 -225 -225 -225 -225 -225 -225 -225 -225 -225 -225 -225 -225 -225 -225 -225 -225 -225 -225 -225 -225 -225 -225 -225 -225 -225 -225 -225 45 54 68 -177 80 78 77 76 81 86 85 86 88 88 91 92 94 95 94 96 97 98 100 98 98 97 97 99 99 100 99 98 100 100 103 102 103 104 106 106 108 109 111 115 117 119 120 121 121 123 124 124 126 127 129 131 131 131 129 128 128 126 125 127 129 133 136 138 140 142 143 146 146 147 147 148 148 149 148 149 148 147 149 151 156 161 166 165 166 166 166 166 167 167 168 167 -193 -209 -209 -209 -193 176 178 176 175 176 0 0 0 0 0
    0 0 0 0 0 0 0 0 0 0 0 0 0 0 0 0 0 0 0 0 0 0 0 0 0 0 0 0 0 0 0 0 0 0 0 0 0 0 0 0 0 0 0 0 0 0 0 0 0 0 0 0 0 0 0 0 0 0 0 0 0 0 0 0 0 0 0 0 0 -209 -209 -193 -209 -209 -209 -209 -193 -209 -209 93 -209 86 88 87 86 86 85 87 87 89 88 88 88 88 89 90 91 89 88 88 93 -209 -209 -209 -209 -209 90 94 93 90 91 94 93 93 92 91 89 90 91 91 91 90 90 90 91 -225 -225 -225 -225 -225 -225 -225 -225 -225 -225 -225 -225 -225 -225 -225 -225 -225 -225 -225 -225 -225 -225 -225 -225 -225 -225 -225 -225 -225 -225 -225 -225 -225 -225 -225 -225 -225 -225 -225 -225 -225 -225 -225 -225 -225 -225 -225 -225 -225 -225 -225 -225 -225 -225 -225 -225 -225 -225 -225 -225 -225 -225 -225 -225 -225 -225 -225 -225 -225 -225 -225 -225 -225 -225 -225 -225 -225 -225 -225 -225 -225 -225 -225 -225 -225 -225 -225 75 75 73 74 74 78 86 85 85 88 89 92 94 97 97 96 97 99 100 102 100 100 98 99 101 100 100 100 99 101 100 103 102 102 105 106 106 108 108 110 114 116 118 119 120 120 122 123 124 126 127 128 131 131 131 130 129 130 128 127 128 130 133 136 139 140 144 144 147 148 148 148 148 148 149 148 149 149 147 149 151 156 159 166 166 167 166 167 167 167 168 168 168 171 -193 -193 -193 177 177 179 178 177 177 0 0 0 0 0
    0 0 0 0 0 0 0 0 0 0 0 0 0 0 0 0 0 0 0 0 0 0 0 0 0 0 0 0 0 0 0 0 0 0 0 0 0 0 0 0 0 0 0 0 0 0 0 0 0 0 0 0 0 0 0 0 0 0 0 0 0 0 0 0 0 0 0 0 0 -209 66 -193 -209 -193 -209 -209 -209 -209 -209 98 -209 89 91 88 87 86 86 87 86 88 87 87 87 88 88 89 91 -193 -209 -209 -209 112 -209 119 -209 -209 94 99 95 92 93 95 93 93 93 92 90 92 91 91 91 90 90 90 -225 -225 -225 -225 -225 -225 -225 -225 -225 -225 -225 -225 -225 -225 -225 -225 -225 -225 -225 -225 -225 -225 -225 -225 -225 -225 -225 -225 -225 -225 -225 -225 -225 -225 -225 -225 -225 -225 -225 -225 -225 -225 -225 -225 -225 -225 -225 -225 -225 -225 -225 -225 -225 -225 -225 -225 -225 -225 -225 -225 -225 -225 -225 -225 -225 -225 -225 -225 -225 -225 -225 -225 -225 -225 -225 -225 -225 -225 -225 -225 -225 -225 -225 -225 -225 -225 -225 -225 -225 -225 73 74 74 79 86 86 86 88 90 94 98 101 101 98 99 101 102 104 103 102 100 100 102 102 101 101 100 102 100 103 102 102 104 107 107 109 108 110 112 115 116 117 117 119 121 123 124 126 127 127 131 132 132 131 130 131 129 128 128 128 132 135 138 139 146 147 149 149 149 149 149 149 149 148 148 148 147 149 151 156 160 165 167 167 166 167 167 167 168 169 168 173 173 -193 177 179 179 180 179 178 176 0 0 0 0 0
    0 0 0 0 0 0 0 0 0 0 0 0 0 0 0 0 0 0 0 0 0 0 0 0 0 0 0 0 0 0 0 0 0 0 0 0 0 0 0 0 0 0 0 0 0 0 0 0 0 0 0 0 0 0 0 0 0 0 0 0 0 0 0 0 0 0 0 0 0 -209 64 -193 -209 -193 -209 -209 -209 -209 -209 -209 -209 88 91 87 86 86 85 87 86 88 87 87 87 88 -193 89 -193 -209 -209 -209 -209 -209 -209 -209 -209 102 99 100 98 96 94 96 95 95 94 93 92 93 92 91 91 90 90 -225 -225 -225 -225 -225 -225 -225 -225 -225 -225 -225 -225 -225 -225 -225 -225 -225 -225 -225 -225 -225 -225 -225 -225 -225 -225 -225 -225 -225 -225 -225 -225 -225 -225 -225 -225 -225 -225 -225 -225 -225 -225 -225 -225 -225 -225 -225 -225 -225 -225 -225 -225 -225 -225 -225 -225 -225 -225 -225 -225 -225 -225 -225 -225 -225 -225 -225 -225 -225 -225 -225 -225 -225 -225 -225 -225 -225 -225 -225 -225 -225 -225 -225 -225 -225 -225 -225 -225 -225 -225 -225 -225 77 76 81 86 86 86 89 91 94 99 103 104 101 102 105 106 106 107 106 102 103 104 104 103 102 102 103 102 105 104 105 106 109 111 113 111 112 114 116 117 118 117 120 120 122 123 125 127 127 132 133 134 132 131 -209 -193 -193 128 128 130 134 137 139 146 149 150 151 149 149 149 148 148 147 147 147 145 148 150 155 162 168 170 169 167 168 168 168 -193 -193 168 172 172 176 176 177 178 179 178 178 176 0 0 0 0 0
    0 0 0 0 0 0 0 0 0 0 0 0 0 0 0 0 0 0 0 0 0 0 0 0 0 0 0 0 0 0 0 0 0 0 0 0 0 0 0 0 0 0 0 0 0 0 0 0 0 0 0 0 0 0 0 0 0 0 0 0 0 0 0 0 0 0 0 0 0 -209 -209 -209 -209 -209 -209 -193 -193 -209 -209 -209 -209 88 90 88 86 87 85 87 88 89 88 87 87 89 -193 90 90 -209 -209 -209 -209 -193 -193 -209 107 102 101 101 100 97 95 97 96 96 95 94 92 92 91 91 90 89 -225 -225 -225 -225 -225 -225 -225 -225 -225 -225 -225 -225 -225 -225 -225 -225 -225 -225 -225 -225 -225 -225 -225 -225 -225 -225 -225 -225 -225 -225 -225 -225 -225 -225 -225 -225 -225 -225 -225 -225 -225 -225 -225 -225 -225 -225 -225 -225 -225 -225 -225 -225 -225 -225 -225 -225 -225 -225 -225 -225 -225 -225 -225 -225 -225 -225 -225 -225 -225 -225 -225 -225 -225 -225 -225 -225 -225 -225 -225 -225 -225 -225 -225 -225 -225 -225 -225 -225 -225 -225 -225 -225 -225 -225 76 81 86 85 85 90 91 93 97 102 105 102 103 105 106 107 107 107 105 105 106 105 104 103 103 104 105 106 107 107 108 113 113 115 113 113 115 115 118 118 117 120 120 123 124 126 127 126 131 132 134 133 131 -209 -193 130 130 129 130 133 137 138 146 149 150 151 150 149 148 148 148 147 147 147 146 147 150 155 161 169 172 172 169 170 169 169 170 170 170 173 173 176 176 178 179 179 179 179 -193 0 0 0 0 0
    0 0 0 0 0 0 0 0 0 0 0 0 0 0 0 0 0 0 0 0 0 0 0 0 0 0 0 0 0 0 0 0 0 0 0 0 0 0 0 0 0 0 0 0 0 0 0 0 0 0 0 0 0 0 0 0 0 0 0 0 0 0 0 0 0 0 0 0 0 -209 -193 -193 -193 100 101 102 102 -193 -209 -209 -209 90 92 90 88 87 86 88 88 89 89 87 87 89 -209 89 -209 -209 -209 -209 -209 -209 -209 -209 109 104 103 103 103 100 97 99 98 98 97 95 92 92 92 91 90 -225 -225 -225 -225 -225 -225 -225 -225 -225 -225 -225 -225 -225 -225 -225 -225 -225 -225 -225 -225 -225 -225 -225 -225 -225 -225 -225 -225 -225 -225 -225 -225 -225 -225 -225 -225 -225 -225 -225 -225 -225 -225 -225 -225 -225 -225 -225 -225 -225 -225 -225 -225 -225 -225 -225 -225 -225 -225 -225 -225 -225 -225 -225 -225 -225 -225 -225 -225 -225 -225 -225 -225 -225 -225 -225 -225 -225 -225 -225 -225 -225 -225 -225 -225 -225 -225 -225 -225 -225 -225 -225 -225 -225 -225 -225 -225 82 86 77 83 91 92 92 95 101 104 102 103 106 107 107 108 108 107 107 108 107 106 105 105 106 106 107 108 109 110 115 115 116 115 115 116 116 118 119 118 120 119 121 121 123 123 121 126 129 133 133 131 131 131 132 131 131 128 132 -193 138 146 150 151 151 150 149 149 149 149 148 148 148 147 149 153 157 162 169 172 174 172 173 171 170 170 170 171 175 173 176 176 179 180 180 180 180 -193 0 0 0 0 0
    0 0 0 0 0 0 0 0 0 0 0 0 0 0 0 0 0 0 0 0 0 0 0 0 0 0 0 0 0 0 0 0 0 0 0 0 0 0 0 0 0 0 0 0 0 0 0 0 0 0 0 0 0 0 0 0 0 0 0 0 0 0 0 0 0 0 0 0 0 -209 98 -193 98 98 99 102 -209 -193 -209 -209 -209 101 100 95 90 89 88 89 89 89 89 88 87 89 -209 -209 -209 -209 -209 -209 -209 -209 -209 107 107 104 104 104 104 102 100 101 100 100 100 96 94 94 94 94 93 -225 -225 -225 -225 -225 -225 -225 -225 -225 -225 -225 -225 -225 -225 -225 -225 -225 -225 -225 -225 -225 -225 -225 -225 -225 -225 -225 -225 -225 -225 -225 -225 -225 -225 -225 -225 -225 -225 -225 -225 -225 -225 -225 -225 -225 -225 -225 -225 -225 -225 -225 -225 -225 -225 -225 -225 -225 -225 -225 -225 -225 -225 -225 -225 -225 -225 -225 -225 -225 -225 -225 -225 -225 -225 -225 -225 -225 -225 -225 -225 -225 -225 -225 -225 -225 -225 -225 -225 -225 -225 -225 -225 -225 -225 -225 -225 -225 -225 78 84 90 92 91 93 99 104 103 105 108 109 109 110 111 110 109 110 110 108 107 107 109 108 109 110 111 111 115 115 116 115 116 117 117 118 120 118 121 120 121 120 121 121 120 123 127 132 133 131 130 132 133 -209 -209 -193 -193 -209 -209 146 151 151 151 150 149 149 149 149 149 149 148 148 150 154 159 162 168 172 173 172 174 172 171 171 171 171 174 174 176 176 178 179 180 180 181 180 0 0 0 0 0
    0 0 0 0 0 0 0 0 0 0 0 0 0 0 0 0 0 0 0 0 0 0 0 0 0 0 0 0 0 0 0 0 0 0 0 0 0 0 0 0 0 0 0 0 0 0 0 0 0 0 0 0 0 0 0 0 0 0 0 0 0 0 0 0 0 0 0 0 0 -209 -193 -209 -193 -193 -209 -209 -209 -209 -193 -193 -209 -193 104 101 92 91 89 90 90 90 91 90 89 91 -209 -209 -209 -209 -209 -209 110 111 110 106 106 105 105 104 105 103 102 102 101 101 100 99 97 98 99 100 -193 -193 14 -225 -225 -225 -225 -225 -225 -225 -225 -225 98 97 97 -193 -193 -193 -225 -225 -225 -225 -225 -225 -225 -225 -225 -225 -225 -225 -225 -225 -225 -225 -225 -225 -225 -225 -225 -225 -225 -225 -225 -225 -225 -225 -225 -225 -225 -225 -225 -225 -225 -225 -225 -225 -225 -225 -225 -225 -225 -225 -225 -225 -225 -225 -225 -225 -225 -225 -225 -225 -225 -225 -225 -225 -225 -225 -225 -225 -225 -225 -225 -225 -225 -225 -225 -225 -225 -225 -225 -225 -225 -225 -225 -225 -225 -225 -225 -225 82 88 92 88 91 94 101 103 105 109 109 109 111 112 113 111 112 111 109 109 109 110 110 110 112 113 113 116 116 117 116 117 117 118 118 120 118 121 121 121 119 120 118 119 122 126 132 134 132 131 133 134 -209 -209 -209 -209 -209 -209 144 149 150 150 150 149 149 148 149 148 148 148 148 151 154 158 162 167 170 172 172 174 173 172 172 172 173 176 175 176 175 176 178 179 180 182 182 0 0 0 0 0
    0 0 0 0 0 0 0 0 0 0 0 0 0 0 0 0 0 0 0 0 0 0 0 0 0 0 0 0 0 0 0 0 0 0 0 0 0 0 0 0 0 0 0 0 0 0 0 0 0 0 0 0 0 0 0 0 0 0 0 0 0 0 0 0 0 0 0 0 0 -193 -193 -209 -209 -193 -193 -209 -193 -209 -209 -209 -209 -193 105 103 97 94 90 91 91 91 94 93 -209 -209 -209 -209 -209 -209 -209 -209 108 107 107 105 107 105 105 105 106 104 103 103 102 101 102 101 99 100 101 -193 -193 -193 -193 -209 -193 108 -225 -225 -225 -225 -225 -225 98 97 97 97 97 96 -225 -225 -225 -225 -225 -225 -225 -225 -225 -225 -225 -225 -225 -225 -225 -225 -225 -225 -225 -225 -225 -225 -225 -225 -225 -225 -225 -225 -225 -225 -225 -225 -225 -225 -225 -225 -225 -225 -225 -225 -225 -225 -225 -225 -225 -225 -225 -225 -225 -225 -225 -225 -225 -225 -225 -225 -225 -225 -225 -225 -225 -225 -225 -225 -225 -225 -225 -225 -225 -225 -225 -225 -225 -225 -225 -225 -225 -225 -225 -225 -225 -225 -225 87 94 88 91 97 -209 105 106 110 110 110 112 113 114 112 114 113 112 112 111 112 112 111 114 114 114 117 117 118 117 119 119 120 120 121 120 122 122 121 119 120 119 120 121 126 133 136 134 133 136 136 136 136 133 -209 -209 -209 141 -193 148 149 148 147 147 147 147 147 147 147 149 151 154 158 161 165 169 171 171 174 174 172 172 172 173 175 174 175 174 175 178 179 181 182 183 0 0 0 0 0
    0 0 0 0 0 0 0 0 0 0 0 0 0 0 0 0 0 0 0 0 0 0 0 0 0 0 0 0 0 0 0 0 0 0 0 0 0 0 0 0 0 0 0 0 0 0 0 0 0 0 0 0 0 0 0 0 0 0 0 0 0 0 0 0 0 0 0 0 0 115 110 -209 -209 -193 -209 -209 -209 -209 -209 -209 -209 -209 -209 -193 99 97 92 92 92 92 95 95 96 101 -209 -209 -209 -209 -209 107 109 107 107 107 107 106 106 106 107 106 105 104 102 102 103 102 100 101 -193 -193 -193 -193 -193 -193 103 -193 -225 -225 -225 -225 -225 -225 98 97 97 97 97 96 -225 -225 -225 -225 -225 -225 -225 -225 -225 -225 -225 -225 -225 -225 -225 -225 -225 -225 -225 -225 -225 -225 -225 -225 -225 -225 -225 -225 -225 -225 -225 -225 -225 -225 -225 -225 -225 -225 -225 -225 -225 -225 -225 -225 -225 -225 -225 -225 -225 -225 -225 -225 -225 -225 -225 -225 -225 -225 -225 -225 -225 -225 -225 -225 -225 -225 -225 -225 -225 -225 -225 -225 -225 -225 -225 -225 -225 -225 -225 -225 -225 -225 -225 87 100 87 91 99 -193 -193 -193 -193 110 110 112 113 114 112 114 113 112 113 112 113 113 112 115 114 115 117 117 119 119 120 121 121 122 123 121 123 122 122 120 122 119 120 119 123 128 134 131 128 133 133 134 135 132 132 132 133 -209 -209 -209 142 144 145 145 146 148 148 147 148 150 151 154 158 162 166 169 171 171 173 173 173 171 171 172 173 172 173 173 174 177 180 182 184 184 0 0 0 0 0
    0 0 0 0 0 0 0 0 0 0 0 0 0 0 0 0 0 0 0 0 0 0 0 0 0 0 0 0 0 0 0 0 0 0 0 0 0 0 0 0 0 0 0 0 0 0 0 0 0 0 0 0 0 0 0 0 0 0 0 0 0 0 0 0 0 0 0 0 0 -193 114 -209 -209 -209 -209 -209 -209 -209 -209 -209 -209 -193 -209 103 98 97 92 93 93 94 97 97 100 103 -209 -209 -193 -209 111 108 109 107 108 107 107 107 107 107 108 107 106 105 104 104 104 104 101 101 -193 -193 -193 -193 -193 -209 103 -193 -225 -225 -225 -225 -225 -225 98 97 97 97 97 96 -225 -225 -225 -225 -225 -225 -225 -225 -225 -225 -225 -225 -225 -225 -225 -225 -225 -225 -225 -225 -225 -225 -225 -225 -225 -225 -225 -225 -225 -225 -225 -225 -225 -225 -225 -225 -225 -225 -225 -225 -225 -225 -225 -225 -225 -225 -225 -225 -225 -225 -225 -225 -225 -225 -225 -225 -225 -225 -225 -225 -225 -225 -225 -225 -225 -225 -225 -225 -225 -225 -225 -225 -225 -225 -225 -225 -225 -225 -225 -225 -225 -225 -225 -225 -209 75 -209 -209 68 -193 66 67 -193 -177 -177 113 114 113 115 113 113 114 114 114 115 115 116 115 116 118 118 119 120 121 121 121 122 123 122 123 122 121 120 123 122 123 122 124 128 131 130 127 131 131 133 136 134 134 134 134 136 -209 -209 140 142 145 145 146 148 148 147 147 150 151 155 158 163 166 169 170 171 172 172 172 170 171 170 170 170 171 171 172 176 180 182 184 184 0 0 0 0 0</data></disparity>
</opencv_storage>
