<?xml version="1.0"?>
<opencv_storage>
<gps_time_stamp>320507</gps_time_stamp>
<gps_x>-1.2428262710571289e+001</gps_x>
<gps_y>1.0743167877197266e+001</gps_y>
<gps_z>-2.0048866271972656e+000</gps_z>
<image_time_stamp>311357</image_time_stamp>
<disparity type_id="opencv-matrix">
  <rows>86</rows>
  <cols>320</cols>
  <dt>s</dt>
  <data>
    0 0 0 0 0 0 0 0 0 0 0 0 0 0 0 0 0 0 0 0 0 0 0 0 0 0 0 0 0 0 0 0 0 0 0 0 0 0 0 0 0 0 0 0 0 0 0 0 0 0 0 0 0 0 0 0 0 0 0 0 0 0 0 0 0 0 0 0 0 52 52 52 51 50 50 46 48 51 47 51 47 47 51 48 48 49 48 50 -193 -193 -193 -209 -193 11 10 10 10 10 11 11 11 13 15 18 19 20 21 21 22 22 22 22 22 23 24 24 24 24 24 24 24 25 24 21 20 18 16 15 13 13 12 11 11 11 10 11 12 11 13 12 13 13 13 14 14 13 15 14 15 16 16 16 16 19 19 18 18 16 16 14 14 15 12 13 14 13 14 15 15 14 13 14 13 12 13 12 12 11 11 12 11 11 11 11 10 10 11 10 10 11 11 11 10 28 45 44 46 50 48 48 49 49 51 45 54 55 59 58 58 58 58 58 61 63 61 -193 -193 100 96 100 100 99 99 -193 -193 -193 -177 -193 -193 -193 68 66 69 71 73 75 78 84 89 91 99 105 105 107 108 108 108 112 112 113 113 115 114 118 115 116 -177 120 -193 118 122 -193 861 125 125 112 -193 -209 -209 -209 124 -193 -193 -193 -193 -209 -193 -193 -193 -193 147 145 -209 -193 -193 -177 -193 397 -193 -193 398 404 -193 -209 -193 85 -193 86 87 89 88 -209 -193 -193 94 93 96 -209 -209 -193 -193 -193 84 84 84 0 0 0 0 0
    0 0 0 0 0 0 0 0 0 0 0 0 0 0 0 0 0 0 0 0 0 0 0 0 0 0 0 0 0 0 0 0 0 0 0 0 0 0 0 0 0 0 0 0 0 0 0 0 0 0 0 0 0 0 0 0 0 0 0 0 0 0 0 0 0 0 0 0 0 52 52 52 51 50 50 47 47 51 47 50 47 47 51 48 48 49 47 49 -193 -193 -193 -209 -193 11 9 10 10 10 11 11 11 12 14 17 18 19 20 21 22 22 22 23 23 23 25 24 25 24 25 24 24 24 23 21 20 18 15 14 13 13 12 11 11 11 10 11 11 11 12 12 13 13 13 14 14 13 16 14 15 16 16 16 17 20 21 19 20 19 19 17 17 17 14 14 15 14 15 15 15 14 13 14 13 11 12 13 12 11 12 13 11 11 12 11 11 11 11 10 10 11 10 10 9 -193 44 43 45 50 47 47 48 48 50 45 54 55 58 57 57 57 57 57 60 61 -177 -193 -193 100 95 100 100 100 100 -193 223 -177 -177 -193 -193 -193 67 65 68 71 72 74 77 83 88 91 99 105 -193 107 107 108 108 112 112 113 113 114 113 117 115 116 -193 119 -193 118 121 -193 859 126 125 114 -193 -209 -209 -209 124 -193 -193 -193 -193 -193 -193 -193 -193 -193 146 144 -209 -193 -193 -177 -193 397 -193 395 399 404 -193 -209 -193 -193 86 86 -193 -209 88 -193 -193 -193 94 94 96 -193 -209 -193 -193 -193 84 83 83 0 0 0 0 0
    0 0 0 0 0 0 0 0 0 0 0 0 0 0 0 0 0 0 0 0 0 0 0 0 0 0 0 0 0 0 0 0 0 0 0 0 0 0 0 0 0 0 0 0 0 0 0 0 0 0 0 0 0 0 0 0 0 0 0 0 0 0 0 0 0 0 0 0 0 53 52 52 51 50 50 47 47 51 47 50 47 46 50 47 47 48 46 48 45 48 -193 -209 -193 11 10 10 9 9 10 10 10 11 12 15 15 18 20 20 22 21 22 23 23 23 25 23 24 24 25 24 23 24 23 19 20 17 13 12 12 11 11 11 10 10 9 11 11 11 12 12 12 13 13 14 13 14 16 14 15 16 16 17 18 20 21 20 21 21 21 20 19 20 16 16 16 15 15 15 15 15 13 13 13 11 13 13 13 12 12 13 12 11 12 11 11 11 10 10 10 10 10 11 9 -209 -193 42 44 49 46 46 47 47 49 44 55 55 58 56 57 56 56 56 59 59 -193 -193 -193 100 94 99 99 99 99 -193 223 -177 -177 -193 -193 70 68 66 68 71 73 74 77 82 88 90 98 105 -193 106 107 107 108 112 111 112 112 113 112 116 114 116 118 119 119 118 121 -193 857 126 126 119 -209 -209 -209 -209 -177 -193 -193 -177 -193 -193 -193 -193 -193 -193 145 -193 -209 -193 -193 -177 397 398 398 396 399 404 -193 -209 -209 -193 -193 86 -193 -209 -209 -193 -193 -193 94 94 96 -193 -193 -193 -193 -193 83 83 83 0 0 0 0 0
    0 0 0 0 0 0 0 0 0 0 0 0 0 0 0 0 0 0 0 0 0 0 0 0 0 0 0 0 0 0 0 0 0 0 0 0 0 0 0 0 0 0 0 0 0 0 0 0 0 0 0 0 0 0 0 0 0 0 0 0 0 0 0 0 0 0 0 0 0 52 52 52 51 50 50 48 46 52 47 50 46 46 50 47 47 48 46 47 44 47 47 -209 -193 10 9 10 9 9 9 10 9 10 10 12 12 16 18 18 20 20 21 22 21 22 23 22 23 22 23 23 21 22 21 16 18 16 12 12 11 11 11 10 10 9 9 10 10 10 11 11 11 12 12 13 12 13 15 14 15 15 16 17 18 21 22 21 22 22 22 21 20 20 17 17 17 16 16 15 16 15 13 13 13 12 13 14 14 12 12 13 11 11 12 11 11 11 10 10 9 10 10 11 0 -209 -177 42 43 47 46 45 46 47 49 45 56 56 58 55 56 55 55 55 -193 -193 -209 -209 -193 99 93 97 98 98 98 223 223 -177 -177 -193 -193 70 69 67 69 72 73 74 78 82 88 90 98 105 -193 106 107 107 107 111 111 111 111 112 111 115 114 115 117 119 119 118 122 -193 855 127 128 122 -193 -209 -209 -209 -177 -193 -193 -177 -209 -193 -193 -209 -193 -209 -193 -209 -193 -209 -177 -177 397 398 399 397 401 -193 -209 -193 18 -193 -193 -193 -209 11 -193 10 -193 -193 94 94 96 -193 -193 -193 252 -193 -193 84 84 0 0 0 0 0
    0 0 0 0 0 0 0 0 0 0 0 0 0 0 0 0 0 0 0 0 0 0 0 0 0 0 0 0 0 0 0 0 0 0 0 0 0 0 0 0 0 0 0 0 0 0 0 0 0 0 0 0 0 0 0 0 0 0 0 0 0 0 0 0 0 0 0 0 0 52 52 52 51 50 50 48 46 52 48 50 47 46 50 47 47 48 45 47 44 47 47 -209 -193 10 9 9 9 9 9 10 10 10 10 11 11 12 13 13 15 16 17 19 19 20 22 21 21 21 22 21 19 19 19 14 16 15 12 11 10 11 10 10 9 9 9 10 10 10 11 11 11 12 11 12 12 13 15 13 15 15 17 18 19 22 22 21 23 23 23 22 22 21 19 18 18 17 16 15 16 15 14 13 13 12 13 14 13 12 12 13 12 12 12 11 11 11 10 10 10 10 11 12 9 -209 -177 -209 43 46 45 -193 45 47 49 46 56 57 58 55 55 55 55 55 -193 -193 -209 -209 -193 99 92 96 97 -193 98 222 222 -177 -177 -193 -193 70 69 67 69 73 74 75 78 82 88 90 98 105 -193 106 106 107 107 111 111 111 111 111 110 115 114 115 117 119 119 118 122 -193 854 128 129 123 -193 -209 -209 -209 129 -193 -209 135 -209 -193 -193 -209 -209 -209 -209 -209 -193 -209 -209 -177 -193 398 400 -193 402 -193 -209 21 18 14 12 -193 -193 11 -193 10 -209 -193 -193 -193 96 -193 -193 -193 -193 -177 -193 85 85 0 0 0 0 0
    0 0 0 0 0 0 0 0 0 0 0 0 0 0 0 0 0 0 0 0 0 0 0 0 0 0 0 0 0 0 0 0 0 0 0 0 0 0 0 0 0 0 0 0 0 0 0 0 0 0 0 0 0 0 0 0 0 0 0 0 0 0 0 0 0 0 0 0 0 52 52 51 51 50 50 49 46 52 48 50 47 46 50 47 47 47 45 47 44 47 49 -209 -193 -209 0 0 0 0 9 10 10 10 10 10 10 11 12 11 12 13 14 18 18 20 21 20 20 20 21 20 16 16 16 12 13 13 11 10 10 10 10 9 9 9 9 10 10 10 11 11 10 12 11 12 11 12 15 13 15 15 17 18 20 22 22 22 23 23 23 22 23 23 21 20 19 19 17 16 17 16 14 14 13 13 13 14 14 12 12 12 11 12 12 11 11 11 10 10 10 10 11 12 -193 -209 -209 -209 43 45 45 -193 45 47 49 48 56 58 60 56 57 57 57 56 -193 -177 -193 -209 -193 99 91 93 95 97 97 -193 221 -177 -193 -193 -193 -193 69 68 69 73 74 75 80 84 88 90 98 104 104 106 106 107 107 111 111 111 111 111 110 115 114 116 118 119 119 119 123 125 854 128 130 124 130 -193 -209 -193 129 -177 -193 135 -209 -193 -209 -209 -209 -209 -209 -209 -193 -209 -209 -177 -193 397 400 -193 -193 -193 -193 21 18 14 13 -193 10 11 10 9 -193 -209 -193 171 -193 175 -177 -177 -177 178 -193 86 85 0 0 0 0 0
    0 0 0 0 0 0 0 0 0 0 0 0 0 0 0 0 0 0 0 0 0 0 0 0 0 0 0 0 0 0 0 0 0 0 0 0 0 0 0 0 0 0 0 0 0 0 0 0 0 0 0 0 0 0 0 0 0 0 0 0 0 0 0 0 0 0 0 0 0 52 52 52 51 50 51 49 47 53 49 50 47 46 50 47 47 47 45 46 44 47 49 -193 -193 -209 -209 0 0 0 9 11 11 11 11 11 10 11 12 11 11 13 15 19 20 21 22 20 20 20 20 19 15 14 14 11 12 12 11 10 10 10 9 9 9 9 9 10 10 10 10 10 10 11 11 11 11 12 14 13 14 16 18 18 20 22 22 22 23 23 23 22 23 23 21 21 20 20 18 17 17 16 15 14 13 13 13 14 14 12 12 12 11 12 12 11 12 12 11 10 10 11 11 13 -193 -177 -177 -209 42 45 44 -193 45 48 50 51 56 58 61 57 58 58 58 58 58 58 59 -193 64 99 -193 -193 -193 94 95 89 -193 -209 -209 -209 -193 -209 70 69 70 75 76 77 82 86 89 91 98 104 104 105 106 106 107 111 110 110 110 110 110 114 114 116 118 119 119 119 124 126 126 128 130 125 131 -193 -193 -193 128 128 129 -193 -209 -193 -209 -193 -209 -209 -209 -209 -209 -209 -209 -209 -209 -193 -209 -209 -193 -193 -193 20 18 14 14 12 10 12 10 -193 -193 -193 -193 171 -177 -177 -177 -177 -177 179 -193 -193 -193 0 0 0 0 0
    0 0 0 0 0 0 0 0 0 0 0 0 0 0 0 0 0 0 0 0 0 0 0 0 0 0 0 0 0 0 0 0 0 0 0 0 0 0 0 0 0 0 0 0 0 0 0 0 0 0 0 0 0 0 0 0 0 0 0 0 0 0 0 0 0 0 0 0 0 53 53 52 52 50 51 50 47 53 49 50 48 46 50 47 47 46 44 46 43 46 49 -209 -209 -209 -209 -209 0 9 10 12 11 11 11 11 10 11 12 11 11 15 17 21 22 22 22 20 20 19 19 18 15 14 13 11 12 11 11 10 10 11 10 10 10 9 10 10 10 10 10 10 9 10 11 11 10 11 14 13 13 15 19 19 21 23 23 22 24 24 24 23 24 24 22 22 21 20 18 18 17 16 14 14 13 13 13 14 14 13 13 13 11 12 12 12 12 12 10 10 10 10 12 13 -193 -177 -177 -209 42 44 44 44 44 47 50 51 55 58 60 56 58 58 59 58 59 59 59 59 64 -193 70 71 -193 -193 92 86 89 -209 71 -209 -193 -209 -209 72 72 80 81 82 85 88 90 91 99 104 104 105 106 106 106 110 110 110 110 110 110 114 115 116 118 120 120 120 124 126 127 128 129 125 131 -193 -193 -193 127 -193 -193 32 -193 -193 -193 -193 29 -193 -209 -209 -193 -209 141 -193 -209 -193 -193 24 20 -193 -193 -193 18 15 14 12 11 12 -193 -193 171 -193 173 172 -177 -177 -177 -177 -193 -193 -193 -193 -193 0 0 0 0 0
    0 0 0 0 0 0 0 0 0 0 0 0 0 0 0 0 0 0 0 0 0 0 0 0 0 0 0 0 0 0 0 0 0 0 0 0 0 0 0 0 0 0 0 0 0 0 0 0 0 0 0 0 0 0 0 0 0 0 0 0 0 0 0 0 0 0 0 0 0 53 53 52 52 50 51 51 48 53 50 51 48 46 50 47 46 46 44 45 43 45 49 42 -193 63 -193 69 -209 -193 11 13 12 12 12 11 10 12 14 -209 -209 -209 -193 -193 23 23 23 21 21 20 20 18 15 14 14 11 12 11 11 10 11 11 10 11 10 10 10 10 10 10 10 10 9 10 10 10 10 11 13 12 13 14 18 19 21 23 23 23 25 24 25 24 24 25 23 22 21 21 18 17 17 16 15 14 13 14 13 14 15 13 13 13 12 12 12 12 12 12 10 10 9 10 12 14 -193 -209 -177 -209 41 42 43 43 44 47 50 52 55 58 60 57 58 59 60 59 60 61 61 60 66 68 69 70 71 73 81 79 79 77 76 -193 -209 -209 -209 84 84 86 87 88 88 90 91 91 99 104 104 105 105 106 106 110 110 110 110 110 109 113 115 116 118 120 120 120 124 127 128 128 129 125 131 130 131 -193 -193 -193 -193 32 31 31 31 29 29 -193 -209 -209 -193 -209 -193 -209 -209 -209 22 23 19 20 -193 -193 17 15 14 12 11 12 -193 -193 -193 -193 -177 -193 -193 -177 -177 -177 -193 -193 -193 186 187 0 0 0 0 0
    0 0 0 0 0 0 0 0 0 0 0 0 0 0 0 0 0 0 0 0 0 0 0 0 0 0 0 0 0 0 0 0 0 0 0 0 0 0 0 0 0 0 0 0 0 0 0 0 0 0 0 0 0 0 0 0 0 0 0 0 0 0 0 0 0 0 0 0 0 53 53 52 52 50 52 51 48 54 50 51 48 46 50 47 46 46 44 45 43 45 49 44 58 64 67 67 68 68 68 68 -193 14 15 13 10 12 -209 -209 -209 -209 -209 -193 25 24 24 22 22 21 20 19 15 15 14 12 12 11 12 11 11 12 10 11 10 10 11 10 10 9 10 10 9 10 10 10 10 11 12 11 13 13 17 19 20 22 22 22 23 23 24 23 24 24 23 22 21 21 18 17 17 16 15 15 13 14 14 14 15 13 13 13 12 12 12 12 13 12 11 10 9 10 13 15 15 14 -209 30 39 41 42 42 43 46 50 53 55 58 60 57 59 60 61 60 61 62 62 61 66 68 69 70 71 72 73 74 74 75 75 85 -209 -209 89 88 88 89 90 89 90 92 92 92 99 104 103 104 105 105 105 109 109 109 109 110 109 113 115 116 118 120 121 121 125 128 129 128 129 126 131 131 131 -193 -193 -193 32 32 31 31 31 29 28 -193 -209 -193 -209 -209 -193 -209 -193 -193 21 -193 18 -193 -193 -193 17 -193 14 -193 11 -193 171 172 -193 -193 -193 -193 -193 178 179 -193 -193 -193 -193 186 187 0 0 0 0 0
    0 0 0 0 0 0 0 0 0 0 0 0 0 0 0 0 0 0 0 0 0 0 0 0 0 0 0 0 0 0 0 0 0 0 0 0 0 0 0 0 0 0 0 0 0 0 0 0 0 0 0 0 0 0 0 0 0 0 0 0 0 0 0 0 0 0 0 0 0 53 53 52 52 50 52 52 48 54 51 51 49 46 51 47 46 46 44 45 43 45 50 47 58 66 67 67 67 68 68 68 68 67 -193 -193 -193 -193 58 -209 -209 -209 -209 42 32 26 25 23 22 21 20 19 16 15 15 12 12 11 12 11 12 12 11 11 11 11 11 10 11 10 10 10 10 10 10 10 10 10 12 11 13 12 17 18 19 21 21 21 22 22 23 22 23 24 22 22 21 21 18 16 16 16 15 15 13 14 14 14 14 13 13 13 11 12 12 12 13 12 11 10 10 10 14 16 17 16 24 26 33 40 41 41 42 45 50 54 55 58 61 58 59 61 62 61 62 64 63 62 66 67 67 70 70 70 70 72 71 73 75 86 89 89 90 89 90 90 91 91 91 94 93 93 99 104 103 104 104 104 104 109 108 108 109 110 110 113 116 117 119 121 121 122 125 128 128 128 129 127 131 131 131 130 -193 -193 -193 32 31 30 31 29 28 -193 -209 -193 -209 -193 -193 -209 -193 -193 -193 -193 -193 -193 -193 -193 17 -193 -193 -193 10 172 172 -193 -193 -193 -193 -193 -193 -193 -193 -193 -193 -193 -193 186 187 0 0 0 0 0
    0 0 0 0 0 0 0 0 0 0 0 0 0 0 0 0 0 0 0 0 0 0 0 0 0 0 0 0 0 0 0 0 0 0 0 0 0 0 0 0 0 0 0 0 0 0 0 0 0 0 0 0 0 0 0 0 0 0 0 0 0 0 0 0 0 0 0 0 0 53 53 53 52 51 53 52 50 55 52 53 51 48 52 49 48 47 45 45 43 45 50 52 59 68 68 68 68 67 69 69 69 68 61 56 59 58 59 58 -209 53 -193 46 -209 29 26 24 23 22 20 19 17 16 14 12 12 11 13 11 12 12 11 11 11 11 12 10 11 10 11 11 10 10 10 10 10 9 10 10 12 11 17 16 18 20 21 20 22 22 23 22 23 23 22 22 20 21 18 16 16 16 14 15 13 14 14 13 14 13 13 13 11 12 12 12 13 12 11 10 10 10 14 17 18 18 23 24 28 36 40 41 41 45 51 54 55 58 61 59 60 62 62 61 62 65 64 63 66 66 66 69 70 69 68 70 70 72 76 85 88 90 90 90 91 91 93 92 92 96 94 94 100 104 103 103 104 104 104 108 108 108 109 110 111 113 116 118 -193 122 122 122 125 128 128 127 128 127 130 131 130 130 129 -193 -193 -193 -193 -193 30 29 28 -193 -193 -193 -193 -193 -209 -209 157 -193 -193 -193 -193 -193 -193 -193 16 -193 -193 -193 -193 172 172 -193 -193 -193 -193 -193 0 -193 -193 -193 -193 -193 -193 187 187 0 0 0 0 0
    0 0 0 0 0 0 0 0 0 0 0 0 0 0 0 0 0 0 0 0 0 0 0 0 0 0 0 0 0 0 0 0 0 0 0 0 0 0 0 0 0 0 0 0 0 0 0 0 0 0 0 0 0 0 0 0 0 0 0 0 0 0 0 0 0 0 0 0 0 54 53 53 53 51 53 54 52 56 54 55 54 52 54 52 50 49 46 47 44 46 52 55 61 70 69 69 70 68 69 70 69 68 60 57 60 59 59 59 56 54 52 49 -209 -193 28 25 24 22 20 19 18 17 15 13 13 11 13 12 12 12 11 11 11 11 12 10 12 11 11 11 11 11 10 11 11 10 11 10 12 11 16 15 17 19 20 20 21 21 23 22 23 23 22 22 20 21 17 16 15 15 14 15 13 14 14 13 14 13 13 13 11 13 13 12 13 13 12 11 11 11 16 19 21 21 25 26 29 33 37 39 40 44 50 55 54 58 61 59 61 64 63 62 63 65 64 64 66 65 64 68 69 68 65 69 70 73 79 86 87 91 92 91 91 92 94 93 93 98 95 95 100 103 102 103 103 103 103 107 107 107 108 111 111 113 117 118 -193 122 122 122 125 128 128 127 127 126 129 128 128 127 127 130 131 -193 -193 -193 29 -193 -193 139 140 143 -193 -193 -193 -193 155 -193 -193 -193 -193 -193 163 -193 -193 -193 -193 -193 -193 173 173 174 175 -193 -193 -193 0 -193 -193 -193 -193 183 184 187 187 0 0 0 0 0
    0 0 0 0 0 0 0 0 0 0 0 0 0 0 0 0 0 0 0 0 0 0 0 0 0 0 0 0 0 0 0 0 0 0 0 0 0 0 0 0 0 0 0 0 0 0 0 0 0 0 0 0 0 0 0 0 0 0 0 0 0 0 0 0 0 0 0 0 0 57 56 55 55 54 56 56 56 58 58 58 58 58 59 58 55 57 52 56 51 49 54 57 64 71 71 70 71 69 70 70 69 67 59 57 59 59 59 59 56 55 53 50 -193 -193 29 26 24 22 21 19 19 17 15 14 13 11 13 12 12 12 11 12 12 12 13 11 13 11 11 11 11 11 11 11 11 10 11 11 12 12 15 14 16 18 19 19 20 21 22 22 23 23 22 22 20 20 16 15 14 14 13 15 13 14 14 13 15 13 13 14 11 13 13 12 14 13 12 11 12 12 18 21 22 22 25 27 29 33 37 39 40 43 50 55 54 58 60 59 61 65 63 62 64 65 64 64 65 64 62 67 69 68 63 70 74 75 81 85 87 90 92 91 92 93 94 94 94 99 96 96 100 103 101 102 103 103 103 106 107 107 108 111 113 114 118 119 -177 122 123 123 125 128 128 127 127 126 128 128 127 127 126 131 131 132 137 -193 -193 139 -193 141 141 146 -193 -193 -193 -193 156 156 157 159 158 160 162 163 165 168 168 170 171 174 174 176 177 -193 -193 -193 -193 -193 0 -193 -193 185 185 188 188 0 0 0 0 0
    0 0 0 0 0 0 0 0 0 0 0 0 0 0 0 0 0 0 0 0 0 0 0 0 0 0 0 0 0 0 0 0 0 0 0 0 0 0 0 0 0 0 0 0 0 0 0 0 0 0 0 0 0 0 0 0 0 0 0 0 0 0 0 0 0 0 0 0 0 66 68 67 67 64 65 65 63 62 61 59 60 60 60 60 60 62 64 65 -193 50 55 56 68 76 72 71 72 71 71 71 70 68 59 57 58 58 57 58 56 54 52 50 46 -193 29 26 23 21 19 19 19 16 15 14 13 12 14 12 13 13 12 13 12 13 13 11 13 11 11 11 11 11 10 11 11 10 11 11 12 11 13 13 15 17 19 19 20 21 22 22 22 22 21 21 18 18 14 13 13 13 12 14 12 13 14 13 14 13 14 14 12 13 14 12 14 13 13 11 12 13 20 23 23 23 25 28 29 33 37 38 40 42 47 52 51 56 58 58 60 64 63 62 64 65 63 64 66 64 63 67 69 69 65 71 74 75 79 84 85 88 91 90 91 93 94 94 94 100 97 97 100 103 101 102 102 102 102 106 106 106 107 111 113 114 118 119 -193 122 123 123 124 128 127 126 126 127 128 128 128 129 129 134 134 134 137 139 -193 140 142 142 142 147 -193 -193 -193 -193 157 158 158 159 158 160 162 163 167 170 169 172 173 176 175 177 178 -193 180 -193 -193 -193 0 -193 -193 185 185 188 188 0 0 0 0 0
    0 0 0 0 0 0 0 0 0 0 0 0 0 0 0 0 0 0 0 0 0 0 0 0 0 0 0 0 0 0 0 0 0 0 0 0 0 0 0 0 0 0 0 0 0 0 0 0 0 0 0 0 0 0 0 0 0 0 0 0 0 0 0 0 0 0 0 0 0 71 72 72 72 70 69 69 66 64 60 60 61 60 61 61 60 65 69 69 72 55 56 56 70 82 74 73 74 73 73 73 73 71 58 57 58 58 58 58 56 54 51 50 49 -209 29 27 22 20 19 18 18 16 15 14 13 12 14 13 13 13 12 13 13 13 13 11 13 11 12 11 11 10 10 11 11 10 10 10 11 10 11 12 14 15 17 19 20 20 22 22 22 21 20 20 15 14 12 11 12 13 12 14 12 13 14 13 15 14 14 15 12 14 15 12 15 13 13 12 13 17 22 24 24 24 25 27 27 29 31 32 33 38 44 47 47 54 56 57 59 63 62 62 63 65 63 64 66 65 63 69 70 69 66 71 74 75 79 83 84 87 90 90 90 93 94 94 94 100 98 98 101 103 100 102 102 102 102 105 106 106 107 111 114 114 117 119 120 122 123 123 124 127 127 126 126 128 128 129 130 132 132 137 137 137 139 140 142 141 143 143 143 148 -193 -209 154 155 157 157 158 159 159 160 163 165 169 171 171 174 175 177 176 178 179 181 181 183 183 183 -193 -193 185 186 186 189 188 0 0 0 0 0
    0 0 0 0 0 0 0 0 0 0 0 0 0 0 0 0 0 0 0 0 0 0 0 0 0 0 0 0 0 0 0 0 0 0 0 0 0 0 0 0 0 0 0 0 0 0 0 0 0 0 0 0 0 0 0 0 0 0 0 0 0 0 0 0 0 0 0 0 0 69 72 71 70 69 68 67 66 63 61 61 62 61 62 62 62 67 69 70 71 58 57 56 70 82 73 73 73 72 73 72 72 71 60 59 58 59 59 58 57 55 52 52 53 -209 30 28 22 20 19 19 19 16 15 14 13 13 15 13 13 13 12 13 13 13 13 11 13 11 11 11 11 10 10 11 11 10 10 11 12 11 11 11 13 14 16 18 19 20 21 22 22 21 20 20 14 13 11 11 12 12 12 13 12 13 14 13 15 14 14 15 12 15 16 12 15 12 12 11 13 18 22 27 25 25 26 30 28 31 32 33 33 37 44 47 47 54 57 57 59 63 62 61 63 64 62 63 66 65 62 69 70 69 68 71 73 74 76 79 79 81 85 86 88 93 93 94 96 101 100 100 101 103 100 102 102 102 102 105 105 105 106 111 115 115 118 120 120 122 123 123 123 127 126 126 126 129 129 130 133 134 135 139 139 138 140 142 144 143 144 145 144 150 -193 -193 155 155 157 158 158 159 160 161 164 168 170 172 172 176 176 178 177 179 180 181 182 183 183 184 184 186 186 186 188 191 190 0 0 0 0 0
    0 0 0 0 0 0 0 0 0 0 0 0 0 0 0 0 0 0 0 0 0 0 0 0 0 0 0 0 0 0 0 0 0 0 0 0 0 0 0 0 0 0 0 0 0 0 0 0 0 0 0 0 0 0 0 0 0 0 0 0 0 0 0 0 0 0 0 0 0 70 73 72 70 69 68 67 66 64 62 62 63 63 64 64 65 69 71 -209 -193 -193 61 60 70 82 74 74 75 74 74 74 73 73 64 61 60 60 61 59 59 57 54 54 55 -209 32 31 23 19 19 19 18 15 15 14 13 13 15 13 13 13 12 13 13 13 13 11 14 11 11 11 11 11 10 11 11 11 11 11 12 12 11 12 13 14 16 19 20 21 22 22 22 22 22 22 14 13 11 11 12 12 12 13 12 12 13 13 14 13 14 14 11 15 16 12 15 11 12 12 14 20 23 30 31 27 28 33 30 34 35 36 37 38 45 49 49 54 57 57 59 63 61 61 62 64 62 63 64 64 61 68 66 64 59 69 69 -209 -193 -193 -209 -193 74 79 87 95 94 94 97 102 102 102 102 103 100 101 102 102 102 104 104 104 106 111 115 115 118 120 120 122 123 124 123 126 126 125 126 130 129 131 134 135 136 141 140 140 142 144 145 143 145 146 145 151 -193 154 155 156 157 157 158 160 160 162 164 169 170 172 171 178 176 178 176 179 180 181 182 183 183 184 185 186 187 188 191 194 193 0 0 0 0 0
    0 0 0 0 0 0 0 0 0 0 0 0 0 0 0 0 0 0 0 0 0 0 0 0 0 0 0 0 0 0 0 0 0 0 0 0 0 0 0 0 0 0 0 0 0 0 0 0 0 0 0 0 0 0 0 0 0 0 0 0 0 0 0 0 0 0 0 0 0 72 74 72 71 70 69 68 68 67 65 65 65 65 66 66 68 70 71 -193 -177 -177 66 65 71 82 75 76 76 75 76 75 74 74 67 64 61 62 62 60 61 59 55 55 56 -209 33 33 23 19 19 19 18 15 14 14 12 13 14 13 13 12 12 13 13 14 12 12 14 12 12 12 11 11 10 11 11 11 11 12 12 12 12 13 14 15 18 21 21 22 23 23 23 23 23 24 15 14 12 12 12 12 12 12 12 12 13 12 13 12 14 13 12 15 18 14 18 13 14 12 16 22 23 31 37 30 31 35 34 36 37 37 39 38 45 49 50 55 57 57 59 62 61 61 62 64 62 63 64 64 61 66 64 64 58 69 69 -209 -193 74 -193 -193 73 77 86 93 92 93 94 102 102 102 102 104 100 102 102 102 102 103 103 103 105 110 115 115 118 120 120 122 123 123 122 125 125 125 125 129 129 131 134 135 137 142 141 140 142 145 145 144 145 146 145 151 153 154 154 155 156 157 158 159 160 162 164 169 170 170 170 178 175 178 176 178 179 181 182 183 182 184 185 186 188 189 195 196 196 0 0 0 0 0
    0 0 0 0 0 0 0 0 0 0 0 0 0 0 0 0 0 0 0 0 0 0 0 0 0 0 0 0 0 0 0 0 0 0 0 0 0 0 0 0 0 0 0 0 0 0 0 0 0 0 0 0 0 0 0 0 0 0 0 0 0 0 0 0 0 0 0 0 0 -209 75 -209 -193 71 70 70 69 69 68 67 68 67 68 68 69 70 70 70 -193 -193 68 69 72 80 76 78 77 77 78 77 76 75 70 67 64 64 65 62 63 61 57 57 57 57 31 32 23 18 19 19 19 15 15 14 12 14 14 12 13 12 12 13 13 13 12 12 14 12 12 12 11 11 10 11 12 11 12 13 12 14 13 14 16 17 19 22 22 23 23 23 24 24 24 25 18 16 13 13 12 12 13 13 13 13 13 13 14 14 17 15 15 15 17 16 18 15 15 13 16 23 24 33 39 33 34 37 36 37 38 38 39 38 44 48 50 55 56 57 58 61 61 61 62 64 62 63 65 65 63 66 65 63 58 69 -193 -209 -193 74 73 74 73 76 86 92 91 92 92 101 102 102 102 104 100 102 103 102 102 102 103 103 103 109 113 112 117 119 119 122 123 123 123 125 125 124 126 130 129 131 135 135 137 142 142 141 142 146 146 144 146 147 145 152 154 155 155 155 157 157 158 160 160 162 163 169 170 170 170 179 175 178 176 179 179 181 182 183 182 185 185 187 189 191 197 198 197 0 0 0 0 0
    0 0 0 0 0 0 0 0 0 0 0 0 0 0 0 0 0 0 0 0 0 0 0 0 0 0 0 0 0 0 0 0 0 0 0 0 0 0 0 0 0 0 0 0 0 0 0 0 0 0 0 0 0 0 0 0 0 0 0 0 0 0 0 0 0 0 0 0 0 -209 -209 -209 -193 72 71 71 70 70 69 69 69 69 69 69 69 70 70 70 71 70 70 71 74 80 77 80 78 78 78 77 76 75 71 69 65 66 66 63 64 62 58 58 59 58 30 31 24 19 19 19 19 16 16 15 13 15 14 13 13 13 12 13 14 14 12 12 14 12 11 11 11 11 10 12 12 12 13 14 13 15 15 16 17 18 19 22 22 23 23 24 24 24 24 25 19 18 13 13 12 12 13 13 14 13 13 14 14 15 18 16 16 15 17 18 19 16 17 15 18 23 24 32 41 37 37 39 38 38 39 39 40 38 44 49 51 55 57 57 59 60 61 62 62 63 62 63 65 65 64 66 67 65 62 72 71 -193 73 75 74 75 73 78 86 93 91 92 92 100 103 102 103 104 100 102 103 103 102 102 102 102 101 108 111 111 117 118 119 121 122 123 123 125 124 124 126 130 130 131 135 135 137 141 141 141 142 146 145 144 146 148 147 153 155 156 156 156 157 158 159 160 161 163 163 169 170 171 171 179 176 179 177 179 180 181 182 183 182 184 185 187 189 192 197 198 197 0 0 0 0 0
    0 0 0 0 0 0 0 0 0 0 0 0 0 0 0 0 0 0 0 0 0 0 0 0 0 0 0 0 0 0 0 0 0 0 0 0 0 0 0 0 0 0 0 0 0 0 0 0 0 0 0 0 0 0 0 0 0 0 0 0 0 0 0 0 0 0 0 0 0 -209 -209 -209 -209 72 72 72 71 71 70 70 71 71 71 70 71 71 70 71 71 71 71 71 75 80 77 80 78 78 78 77 76 75 72 70 66 68 68 65 66 63 58 58 59 60 -209 36 25 20 20 20 20 17 17 16 13 16 15 14 14 14 13 14 15 14 13 13 14 12 12 12 11 10 9 12 13 13 13 14 13 16 16 17 18 18 20 22 22 23 23 23 24 24 24 25 18 19 13 14 13 13 13 13 14 14 13 13 14 15 17 15 15 14 15 19 18 16 16 14 16 22 23 29 40 38 39 40 39 39 40 40 42 40 45 51 53 56 57 58 59 60 62 62 63 64 63 65 67 67 66 67 69 68 69 73 73 74 73 75 74 74 74 79 86 93 91 92 93 100 103 103 103 104 100 102 103 103 102 101 102 102 100 107 110 109 116 117 118 120 121 122 122 123 123 122 126 130 130 132 134 135 137 139 140 140 141 145 144 143 145 148 147 153 155 156 156 156 157 157 158 160 161 163 163 168 170 170 170 179 176 179 176 179 179 181 182 183 182 184 185 187 190 193 197 198 198 0 0 0 0 0
    0 0 0 0 0 0 0 0 0 0 0 0 0 0 0 0 0 0 0 0 0 0 0 0 0 0 0 0 0 0 0 0 0 0 0 0 0 0 0 0 0 0 0 0 0 0 0 0 0 0 0 0 0 0 0 0 0 0 0 0 0 0 0 0 0 0 0 0 0 -209 -209 -209 -209 72 73 73 71 72 71 71 72 72 73 72 72 72 71 71 72 72 71 72 76 79 77 80 78 77 77 76 75 75 72 71 68 69 69 65 65 62 57 58 58 58 -209 41 36 22 21 21 21 17 17 16 14 17 17 15 16 15 14 15 16 16 14 14 15 13 13 14 12 11 10 12 14 13 14 15 14 17 17 17 19 18 20 23 22 23 23 23 24 23 24 24 18 20 15 15 14 13 14 13 14 14 13 14 15 15 16 14 14 13 14 18 16 12 14 15 19 23 24 27 38 36 37 39 38 38 39 40 41 41 45 52 53 56 57 58 59 60 62 63 63 65 64 66 67 67 67 67 68 68 68 71 72 73 73 75 74 75 76 83 88 93 92 93 94 100 102 103 103 104 100 102 103 103 102 101 101 102 98 106 108 107 113 111 113 117 117 118 118 118 116 -193 123 124 125 127 -209 -193 135 -193 138 -193 139 141 140 140 141 -209 145 152 155 155 155 155 156 156 157 159 161 163 164 168 168 168 169 178 175 178 176 179 179 180 182 182 182 184 184 186 190 193 197 199 198 0 0 0 0 0
    0 0 0 0 0 0 0 0 0 0 0 0 0 0 0 0 0 0 0 0 0 0 0 0 0 0 0 0 0 0 0 0 0 0 0 0 0 0 0 0 0 0 0 0 0 0 0 0 0 0 0 0 0 0 0 0 0 0 0 0 0 0 0 0 0 0 0 0 0 -209 -209 -209 -209 73 75 74 72 72 71 72 74 75 75 74 73 73 72 73 73 73 72 73 78 79 77 82 79 77 77 76 75 74 72 71 69 69 69 65 65 61 58 58 58 57 51 41 38 24 23 22 23 20 18 18 15 19 19 17 17 15 14 16 18 18 16 15 18 16 16 18 15 14 14 15 18 16 17 18 16 20 19 19 20 19 20 23 21 23 23 23 23 23 24 23 18 21 17 17 15 14 15 15 15 15 14 16 16 16 16 16 14 15 14 17 14 14 16 18 18 24 24 27 37 36 37 38 38 38 39 40 41 41 45 55 55 57 57 58 59 59 61 63 63 65 64 66 66 67 67 65 67 66 67 70 71 72 72 74 73 75 76 85 89 94 92 93 94 100 102 102 102 103 100 102 103 102 102 101 101 101 98 106 107 107 111 109 113 115 116 116 116 115 111 -193 -209 -209 -193 82 75 -193 -193 -209 -209 -209 -209 140 137 139 139 143 144 150 152 -193 -193 -193 -193 153 155 157 160 159 162 166 166 166 168 175 174 177 175 178 178 180 182 182 182 184 184 186 190 194 198 199 199 0 0 0 0 0
    0 0 0 0 0 0 0 0 0 0 0 0 0 0 0 0 0 0 0 0 0 0 0 0 0 0 0 0 0 0 0 0 0 0 0 0 0 0 0 0 0 0 0 0 0 0 0 0 0 0 0 0 0 0 0 0 0 0 0 0 0 0 0 0 0 0 0 0 0 -209 -209 -209 -209 75 77 77 75 75 72 73 75 76 76 75 73 74 72 73 74 75 74 75 80 80 78 83 79 77 77 76 75 73 72 71 69 69 69 64 65 60 58 59 58 58 55 43 38 24 23 23 23 21 20 18 17 19 19 18 18 16 16 18 19 19 19 19 20 19 20 21 18 19 19 19 21 19 20 21 20 22 21 21 21 20 21 23 22 23 23 23 23 23 24 24 19 22 18 17 16 14 15 16 16 17 15 17 16 16 17 17 15 15 14 16 13 15 18 19 18 21 23 27 38 37 38 39 39 39 41 42 43 43 47 56 55 57 57 58 58 59 61 62 62 65 63 65 65 67 66 64 65 65 65 70 71 72 71 72 72 75 75 85 90 93 92 93 94 100 101 102 102 103 100 102 102 102 102 101 101 101 97 106 107 106 111 108 116 117 118 117 117 116 113 -193 -209 -209 83 82 75 72 -177 -193 -209 -209 139 141 139 141 142 144 144 149 151 -209 147 148 -193 150 151 154 156 154 156 163 163 162 166 172 172 175 174 177 177 179 181 182 181 183 184 186 189 195 198 199 199 0 0 0 0 0
    0 0 0 0 0 0 0 0 0 0 0 0 0 0 0 0 0 0 0 0 0 0 0 0 0 0 0 0 0 0 0 0 0 0 0 0 0 0 0 0 0 0 0 0 0 0 0 0 0 0 0 0 0 0 0 0 0 0 0 0 0 0 0 0 0 0 0 0 0 -209 -209 -209 -209 75 79 79 77 79 75 74 76 77 78 75 74 74 72 73 74 77 76 77 82 81 79 83 80 78 76 75 75 73 71 71 69 68 68 64 64 60 59 60 60 60 58 51 -193 26 24 23 23 22 21 18 17 19 19 18 19 17 17 18 20 20 20 20 21 21 22 22 20 21 21 21 22 20 22 22 22 25 23 22 22 21 21 23 22 22 22 23 23 23 24 23 19 22 17 16 15 14 15 18 17 18 17 19 18 18 18 18 16 16 15 17 13 17 20 20 20 22 23 25 36 37 38 38 40 40 41 42 43 44 47 56 55 57 57 58 58 58 61 62 62 64 63 65 65 67 67 64 66 66 67 73 74 74 73 73 74 77 78 85 89 93 91 92 93 100 100 101 101 102 99 101 102 101 101 101 101 101 98 106 107 106 111 108 116 116 118 116 117 115 113 102 -209 -209 -209 -209 -209 75 -177 -209 -193 -193 141 143 141 143 144 143 143 146 -193 -193 -193 148 148 150 151 154 155 154 156 159 160 159 165 169 170 173 173 175 176 178 181 181 180 183 183 186 189 195 198 199 199 0 0 0 0 0
    0 0 0 0 0 0 0 0 0 0 0 0 0 0 0 0 0 0 0 0 0 0 0 0 0 0 0 0 0 0 0 0 0 0 0 0 0 0 0 0 0 0 0 0 0 0 0 0 0 0 0 0 0 0 0 0 0 0 0 0 0 0 0 0 0 0 0 0 0 -209 -209 82 84 79 83 83 85 86 79 76 77 78 79 76 74 73 72 73 75 80 78 80 83 82 81 83 80 78 75 75 74 72 71 71 69 68 67 64 63 60 59 61 60 61 60 56 -209 -209 24 23 23 23 22 19 18 19 19 18 19 17 17 18 21 20 21 21 21 21 23 23 22 22 21 21 22 21 23 23 24 27 24 24 24 22 22 23 21 22 21 22 22 22 23 23 19 22 16 16 14 13 15 18 17 19 17 20 19 19 19 19 17 18 16 19 14 18 21 21 21 22 23 24 34 37 38 38 41 40 42 43 43 44 46 56 55 57 57 58 58 59 61 62 61 64 63 65 65 67 67 65 67 68 69 73 74 76 74 75 75 78 79 85 88 92 91 91 92 99 99 99 100 102 98 100 101 101 101 101 101 102 98 106 107 107 111 108 116 116 117 116 117 116 114 -193 -209 -209 -209 -193 -209 76 -193 -193 -193 -193 143 144 143 144 144 145 144 146 147 -193 -193 -193 147 149 149 152 150 152 153 157 160 159 165 169 170 172 172 174 174 176 180 180 180 182 183 185 189 195 197 199 199 0 0 0 0 0
    0 0 0 0 0 0 0 0 0 0 0 0 0 0 0 0 0 0 0 0 0 0 0 0 0 0 0 0 0 0 0 0 0 0 0 0 0 0 0 0 0 0 0 0 0 0 0 0 0 0 0 0 0 0 0 0 0 0 0 0 0 0 0 0 0 0 0 0 0 -209 83 84 86 82 85 84 87 87 82 75 77 80 81 78 75 74 73 74 77 85 82 83 84 83 82 83 81 79 76 76 75 73 71 71 69 68 67 65 62 60 60 62 61 61 61 58 -193 -193 24 23 23 23 23 20 19 20 20 20 20 18 19 19 21 21 22 21 22 22 23 24 22 22 22 22 23 22 24 24 25 28 25 24 24 22 22 22 21 21 20 21 22 22 23 23 19 22 16 15 14 13 14 19 17 20 18 20 19 19 19 19 17 18 16 18 13 18 21 21 21 22 23 24 33 37 38 39 41 41 43 43 44 45 46 56 54 56 57 58 59 59 61 62 61 64 64 65 64 66 67 65 66 68 68 72 73 74 73 74 74 78 79 84 87 91 90 91 92 98 98 99 100 102 98 100 101 101 101 102 102 102 99 106 108 108 110 108 116 115 117 116 117 116 115 -193 -209 -209 -193 -209 -209 -209 -209 -193 -193 -193 142 143 142 144 145 147 146 148 -209 -209 149 151 150 151 149 153 -209 149 152 157 160 160 166 168 170 171 172 174 173 174 176 177 177 179 182 184 188 195 195 198 -193 0 0 0 0 0
    0 0 0 0 0 0 0 0 0 0 0 0 0 0 0 0 0 0 0 0 0 0 0 0 0 0 0 0 0 0 0 0 0 0 0 0 0 0 0 0 0 0 0 0 0 0 0 0 0 0 0 0 0 0 0 0 0 0 0 0 0 0 0 0 0 0 0 0 0 -209 -209 87 86 87 86 85 88 88 84 75 77 80 83 82 78 77 76 80 84 88 86 86 86 85 83 84 81 79 75 75 74 72 71 71 69 68 66 64 62 60 60 61 61 61 60 58 58 61 -209 24 24 24 23 21 20 21 21 20 21 19 20 20 23 22 22 22 22 23 24 24 22 22 22 22 23 22 24 24 25 28 25 25 25 22 22 22 20 21 20 21 21 21 22 22 19 22 16 16 15 13 14 20 16 21 19 21 19 20 19 19 18 19 16 19 13 18 21 22 21 22 23 24 32 38 39 39 42 42 44 45 45 46 46 56 54 56 57 58 59 59 61 62 61 64 64 65 64 66 67 65 67 69 69 73 73 75 74 75 75 79 79 85 87 91 90 91 92 99 98 99 100 102 98 100 101 101 101 102 102 102 99 106 108 108 110 108 116 114 116 114 115 114 112 -193 -193 -209 -193 -193 -209 -209 -193 -193 139 139 141 -193 141 -193 145 -193 -193 -193 -209 -193 -193 -193 -193 -193 -193 157 -209 -209 -209 -209 -209 -209 -209 -193 -209 166 168 169 169 171 172 173 176 177 181 -209 -193 -193 -193 -193 -209 0 0 0 0 0
    0 0 0 0 0 0 0 0 0 0 0 0 0 0 0 0 0 0 0 0 0 0 0 0 0 0 0 0 0 0 0 0 0 0 0 0 0 0 0 0 0 0 0 0 0 0 0 0 0 0 0 0 0 0 0 0 0 0 0 0 0 0 0 0 0 0 0 0 0 -209 -209 89 89 90 91 90 92 91 90 87 82 85 87 87 86 84 85 87 88 89 88 87 87 86 85 84 82 80 75 75 74 73 71 71 70 70 67 65 62 61 60 61 61 60 59 58 58 60 56 -209 24 23 23 20 20 21 20 20 21 20 -193 -193 24 24 23 23 23 23 24 24 22 22 21 21 22 20 22 22 23 26 24 25 25 23 23 22 20 21 19 21 21 20 22 22 19 21 17 17 17 14 14 20 16 22 20 22 20 20 20 20 18 19 16 19 13 18 22 22 22 22 24 24 32 38 38 38 41 42 44 44 45 46 46 55 54 55 56 57 58 58 60 62 61 64 65 66 65 67 68 67 68 70 71 73 74 75 74 76 76 80 80 84 87 91 91 92 92 99 99 100 100 102 98 100 101 102 101 102 102 102 100 106 108 109 109 108 116 114 116 112 114 111 110 86 -193 -193 -209 -209 -209 -193 -193 -209 139 138 140 -193 -193 142 144 -193 -193 -193 -209 -193 -193 -209 -209 -209 -209 -209 -209 -209 -209 -209 -209 -209 -209 -193 -193 -193 -193 164 164 166 167 169 171 -209 -209 -193 -193 -193 -193 -193 -193 0 0 0 0 0
    0 0 0 0 0 0 0 0 0 0 0 0 0 0 0 0 0 0 0 0 0 0 0 0 0 0 0 0 0 0 0 0 0 0 0 0 0 0 0 0 0 0 0 0 0 0 0 0 0 0 0 0 0 0 0 0 0 0 0 0 0 0 0 0 0 0 0 0 0 -209 -209 89 89 91 93 94 94 92 94 96 -209 -209 -193 -193 91 90 90 93 90 92 90 88 87 87 86 84 82 81 76 75 75 74 72 70 70 69 67 64 62 62 61 61 61 61 59 59 59 60 56 43 -193 -177 23 19 20 20 20 21 21 -193 176 174 -193 -193 25 25 25 25 25 24 23 22 21 22 22 20 21 21 22 25 23 25 25 24 23 22 21 21 18 20 20 20 21 22 19 20 16 18 17 14 14 22 17 23 21 23 21 21 20 20 18 20 17 18 13 19 22 22 23 24 25 26 33 39 37 37 40 41 43 43 44 44 45 54 53 54 54 56 57 57 60 61 60 64 65 66 66 67 69 68 69 71 71 73 74 75 74 76 76 80 80 84 86 91 91 91 92 99 99 100 101 102 99 100 101 102 101 102 102 103 101 107 109 109 109 107 115 113 115 111 113 111 108 92 97 101 98 -209 -209 -209 -209 -209 -193 140 142 -193 141 -193 144 -193 -193 -193 -209 -193 -193 -209 -209 -209 -209 -209 -209 -209 -209 -209 -209 -209 -209 -193 -193 -193 -209 -193 -209 -193 -209 -193 -209 176 -209 -209 -209 -193 -193 -193 -193 0 0 0 0 0
    0 0 0 0 0 0 0 0 0 0 0 0 0 0 0 0 0 0 0 0 0 0 0 0 0 0 0 0 0 0 0 0 0 0 0 0 0 0 0 0 0 0 0 0 0 0 0 0 0 0 0 0 0 0 0 0 0 0 0 0 0 0 0 0 0 0 0 0 0 -209 -209 87 90 91 93 94 95 96 97 100 101 102 101 101 97 99 97 99 93 94 92 89 89 89 87 85 83 83 77 76 76 74 72 70 69 69 66 64 62 62 61 61 61 61 59 59 59 60 53 44 -193 -177 23 18 19 19 18 21 22 177 181 178 -193 31 28 29 27 27 27 25 24 23 23 23 22 20 21 21 22 24 23 24 24 24 23 22 21 22 16 20 20 20 20 22 19 19 14 16 15 12 14 22 18 24 22 23 21 21 21 21 20 21 18 19 14 20 23 23 23 24 26 27 34 39 37 36 39 40 41 42 43 43 45 53 52 53 54 55 56 56 59 60 60 64 65 66 66 68 69 68 69 70 71 73 74 75 74 76 76 81 81 85 87 91 91 92 92 99 100 101 102 103 100 101 101 102 102 102 103 103 102 107 109 109 109 108 117 116 117 116 117 114 112 -193 -209 -193 -209 -209 -209 80 -193 -209 -193 -193 145 143 144 -209 147 -209 -193 -193 -209 -193 -193 -209 -209 -209 -209 -209 -209 -209 -209 -209 -209 -209 -193 -193 -193 -193 -193 -193 -193 -209 -209 -193 -193 -193 -209 -209 -209 -209 -209 -209 -209 0 0 0 0 0
    0 0 0 0 0 0 0 0 0 0 0 0 0 0 0 0 0 0 0 0 0 0 0 0 0 0 0 0 0 0 0 0 0 0 0 0 0 0 0 0 0 0 0 0 0 0 0 0 0 0 0 0 0 0 0 0 0 0 0 0 0 0 0 0 0 0 0 0 0 122 -209 -209 92 91 92 93 94 95 96 98 101 101 102 103 100 101 98 99 93 92 92 89 89 89 87 85 83 83 78 76 76 75 72 70 69 69 67 65 62 64 61 61 61 60 58 59 59 60 51 52 -193 -177 24 16 18 18 18 21 23 176 183 178 -193 37 34 35 35 32 31 28 25 24 23 23 22 20 21 21 22 25 23 24 24 25 25 22 22 22 12 15 17 16 14 21 17 16 10 10 11 9 13 22 18 25 23 24 21 21 21 22 22 22 20 21 15 21 24 24 25 25 27 31 37 40 39 38 40 40 41 42 42 43 45 53 52 53 53 54 55 55 58 59 59 63 65 66 67 68 69 68 70 71 72 74 76 76 76 78 77 83 83 86 87 92 92 93 92 100 101 101 102 104 100 101 102 103 103 103 103 -193 102 107 110 110 109 109 117 116 118 117 117 115 113 107 105 108 109 117 116 -209 -193 -209 -209 -193 143 -209 -209 -209 147 -209 -209 -209 -209 -193 -193 -209 -209 -209 -209 -193 -209 -209 -209 -209 -193 -209 -193 -209 -193 -193 80 -193 -193 -209 -209 -193 -193 -193 -209 -209 -209 -209 -209 -209 -209 0 0 0 0 0
    0 0 0 0 0 0 0 0 0 0 0 0 0 0 0 0 0 0 0 0 0 0 0 0 0 0 0 0 0 0 0 0 0 0 0 0 0 0 0 0 0 0 0 0 0 0 0 0 0 0 0 0 0 0 0 0 0 0 0 0 0 0 0 0 0 0 0 0 0 -193 -193 95 93 92 92 93 94 95 95 97 99 99 101 101 99 100 95 97 93 92 92 89 89 89 86 85 83 83 79 77 77 76 72 70 70 70 67 65 62 66 61 60 60 59 57 58 58 59 50 55 54 -209 -209 13 16 16 18 22 -193 -193 -193 178 36 43 43 42 45 41 39 38 36 28 24 24 22 20 20 20 22 24 22 24 24 26 26 24 24 24 10 -225 -225 -225 -225 -225 -225 -225 -225 -225 -225 -225 12 -193 -193 27 27 26 23 23 23 24 24 24 24 23 18 22 25 24 27 30 32 37 38 42 40 41 42 42 42 42 43 43 45 52 51 52 53 54 55 55 57 59 59 63 66 67 68 69 70 70 71 72 73 75 76 76 77 79 77 83 83 87 87 93 93 93 93 100 102 102 103 104 101 102 102 104 104 103 103 228 103 107 110 110 108 110 117 115 118 118 119 116 114 108 106 113 118 119 121 119 124 128 135 -193 -193 -209 -209 -209 -209 -209 -209 -209 -209 -193 -209 -209 -209 -193 -193 -209 -209 -209 -193 -209 -209 -209 -209 -209 -193 -209 79 -193 -193 -193 -193 -209 -193 -193 -209 -209 -193 -193 -193 -193 -193 0 0 0 0 0
    0 0 0 0 0 0 0 0 0 0 0 0 0 0 0 0 0 0 0 0 0 0 0 0 0 0 0 0 0 0 0 0 0 0 0 0 0 0 0 0 0 0 0 0 0 0 0 0 0 0 0 0 0 0 0 0 0 0 0 0 0 0 0 0 0 0 0 0 0 95 94 93 92 91 92 92 93 95 95 96 100 100 101 101 99 99 95 97 93 92 93 90 90 90 87 85 84 84 80 78 77 76 73 71 70 70 68 65 62 67 60 59 59 57 56 57 57 57 48 54 53 48 -209 -209 -209 -209 -209 -209 47 45 43 42 42 45 45 47 51 45 43 42 42 42 27 25 22 19 20 21 22 22 22 25 -225 -225 -225 -225 -225 -225 -225 -225 -225 -225 -225 -225 -225 -225 -225 -225 -225 -225 -225 -225 -225 -225 -225 -225 -225 -225 -225 -225 -225 -225 -225 -225 -225 19 23 23 -225 -225 38 42 40 44 41 42 43 43 43 43 43 44 45 53 51 52 53 53 54 55 56 58 58 63 67 68 69 70 71 71 73 73 74 75 77 77 79 81 79 83 84 86 87 92 93 93 93 100 103 103 104 105 102 103 103 105 105 103 104 -193 103 107 110 110 108 110 118 117 121 121 122 117 115 -193 101 113 114 118 -193 121 125 131 133 -209 -209 -209 -209 -209 -209 -209 -209 -209 134 -209 -209 -209 -193 17 20 -209 -209 -209 114 -209 -209 -209 -209 -193 -193 -209 -193 -209 -193 -193 -193 -193 -193 -193 -209 -209 -209 -209 -193 -193 -193 0 0 0 0 0
    0 0 0 0 0 0 0 0 0 0 0 0 0 0 0 0 0 0 0 0 0 0 0 0 0 0 0 0 0 0 0 0 0 0 0 0 0 0 0 0 0 0 0 0 0 0 0 0 0 0 0 0 0 0 0 0 0 0 0 0 0 0 0 0 0 0 0 0 0 96 95 94 93 92 92 93 93 96 95 96 100 99 101 100 98 99 95 98 94 93 93 90 90 90 87 86 84 84 82 79 78 77 74 72 72 72 71 67 64 70 61 59 59 58 56 57 57 57 47 53 53 49 54 49 50 51 58 51 53 50 46 43 44 46 48 50 51 46 45 44 44 44 31 25 22 19 19 19 -225 -225 -225 -225 -225 -225 -225 -225 -225 -225 -225 -225 -225 -225 -225 -225 -225 -225 -225 -225 -225 -225 -225 -225 -225 -225 -225 -225 -225 -225 -225 -225 -225 -225 -225 -225 -225 -225 -225 -225 -225 -225 -225 47 44 49 43 43 44 43 44 44 44 45 46 52 51 51 52 52 54 54 56 57 58 63 68 68 70 71 71 71 73 73 75 76 78 78 80 82 81 84 85 87 88 92 93 94 94 101 104 104 105 106 103 104 104 106 106 104 104 -193 104 107 110 110 107 110 117 116 120 121 121 118 115 113 108 119 121 121 123 124 129 133 134 137 137 135 -193 -209 -209 -209 -209 121 129 -193 -193 -209 -193 -193 -193 -209 -209 -209 -193 -209 -209 -209 -209 171 -193 -193 -193 -209 -209 -209 -193 -193 -193 -193 -193 -209 -209 -209 -209 -209 -209 0 0 0 0 0
    0 0 0 0 0 0 0 0 0 0 0 0 0 0 0 0 0 0 0 0 0 0 0 0 0 0 0 0 0 0 0 0 0 0 0 0 0 0 0 0 0 0 0 0 0 0 0 0 0 0 0 0 0 0 0 0 0 0 0 0 0 0 0 0 0 0 0 0 0 98 97 95 93 92 93 95 94 96 97 97 101 100 101 101 98 99 97 99 95 93 94 91 91 91 88 86 84 84 82 79 79 78 74 73 73 74 73 68 67 70 61 59 59 58 57 58 58 57 47 54 53 51 52 47 49 50 55 49 52 49 45 43 44 48 51 51 52 47 46 45 45 45 33 25 22 19 19 19 -225 -225 -225 -225 -225 -225 -225 -225 -225 -225 -225 -225 -225 -225 -225 -225 -225 -225 -225 -225 -225 -225 -225 -225 -225 -225 -225 -225 -225 -225 -225 -225 -225 -225 -225 -225 -225 -225 -225 -225 -225 -225 -225 48 45 49 44 43 45 44 45 45 45 45 46 51 50 50 50 50 52 53 55 56 57 62 69 69 71 71 72 72 74 74 76 77 79 78 80 82 82 84 86 87 89 93 94 95 95 101 104 105 106 106 104 105 105 106 106 104 105 -193 105 107 110 111 108 111 116 116 119 121 121 120 117 117 115 121 121 122 124 125 129 133 134 136 136 135 137 -209 -209 -209 121 121 127 129 134 134 135 -193 -209 -209 -209 -209 -193 -209 -209 -209 -209 -193 -193 165 -193 166 -193 -193 -193 -193 -193 -193 -193 -193 -209 -209 -209 -209 -209 0 0 0 0 0
    0 0 0 0 0 0 0 0 0 0 0 0 0 0 0 0 0 0 0 0 0 0 0 0 0 0 0 0 0 0 0 0 0 0 0 0 0 0 0 0 0 0 0 0 0 0 0 0 0 0 0 0 0 0 0 0 0 0 0 0 0 0 0 0 0 0 0 0 0 98 97 96 94 93 94 95 95 98 98 99 101 101 102 101 100 101 98 99 96 94 95 92 92 92 88 87 85 84 83 79 79 78 75 73 74 74 74 69 68 70 61 59 59 58 57 58 58 57 48 55 54 53 50 46 48 48 50 47 49 48 44 43 47 52 53 53 54 50 48 47 47 47 37 26 22 19 19 19 -225 -225 -225 -225 -225 -225 -225 -225 -225 -225 -225 -225 -225 -225 -225 -225 -225 -225 -225 -225 -225 -225 -225 -225 -225 -225 -225 -225 -225 -225 -225 -225 -225 -225 -225 -225 -225 -225 -225 -225 -225 -225 -225 48 45 49 45 45 46 45 46 46 46 46 46 50 49 48 49 48 50 51 54 54 56 62 71 70 72 72 73 73 75 75 77 77 79 78 79 81 82 83 86 87 89 93 95 97 97 102 105 106 106 107 105 105 105 107 107 105 105 105 105 107 110 111 108 111 116 116 118 121 121 121 120 121 -193 122 123 123 124 124 128 133 133 136 136 136 137 -193 138 129 126 129 130 131 132 134 135 136 -193 -209 -209 -209 117 -209 -209 -209 160 165 164 163 164 165 -193 -193 -209 -193 -209 -193 178 -193 -209 -193 -209 -209 -209 0 0 0 0 0
    0 0 0 0 0 0 0 0 0 0 0 0 0 0 0 0 0 0 0 0 0 0 0 0 0 0 0 0 0 0 0 0 0 0 0 0 0 0 0 0 0 0 0 0 0 0 0 0 0 0 0 0 0 0 0 0 0 0 0 0 0 0 0 0 0 0 0 0 0 98 97 96 95 94 95 95 95 98 99 99 102 101 101 101 101 101 98 98 97 94 95 93 92 92 88 86 85 84 83 80 79 78 75 74 74 74 74 69 68 69 61 59 59 59 58 59 58 56 49 56 55 55 51 49 50 50 51 49 50 49 45 46 52 54 54 53 54 52 51 50 49 48 42 41 24 -225 -225 -225 -225 -225 -225 -225 -225 -225 -225 -225 -225 -225 -225 -225 -225 -225 -225 -225 -225 -225 -225 -225 -225 -225 -225 -225 -225 -225 -225 -225 -225 -225 -225 -225 -225 -225 -225 -225 -225 -225 -225 -225 -225 -225 -225 47 45 49 46 46 48 46 47 47 47 47 48 51 51 49 51 49 51 51 54 53 55 60 71 71 72 72 73 73 75 75 76 76 77 77 78 79 80 81 84 86 89 93 95 97 97 102 105 106 106 107 106 105 106 107 107 105 106 106 105 106 109 110 107 110 115 116 119 121 121 121 121 122 123 124 126 126 127 127 130 134 134 136 136 136 135 135 135 128 125 126 126 127 130 135 135 135 137 -193 135 -209 -209 131 -209 -209 158 163 163 162 164 165 166 -193 -209 -193 -193 173 176 175 -193 175 -193 177 179 0 0 0 0 0
    0 0 0 0 0 0 0 0 0 0 0 0 0 0 0 0 0 0 0 0 0 0 0 0 0 0 0 0 0 0 0 0 0 0 0 0 0 0 0 0 0 0 0 0 0 0 0 0 0 0 0 0 0 0 0 0 0 0 0 0 0 0 0 0 0 0 0 0 0 98 97 96 95 94 94 95 95 98 99 97 101 100 101 101 100 98 93 94 95 93 94 92 91 91 87 85 84 84 83 80 79 78 75 74 75 75 74 68 66 67 61 59 59 59 58 58 57 55 48 56 55 54 52 51 51 51 52 50 50 50 47 50 55 57 57 55 56 55 54 54 52 50 46 44 -225 -225 -225 -225 -225 -225 -225 -225 -225 -225 -225 -225 -225 -225 -225 -225 -225 -225 -225 -225 -225 -225 -225 -225 -225 -225 -225 -225 -225 -225 -225 -225 -225 -225 -225 -225 -225 -225 -225 -225 -225 -225 -225 -225 -225 -225 -225 47 45 50 47 48 49 47 48 49 50 51 52 53 53 52 53 51 52 52 53 52 54 57 68 70 72 72 73 73 75 75 75 76 77 77 78 78 79 80 84 86 89 93 94 96 96 101 104 105 105 106 106 106 106 108 107 105 106 106 106 106 109 110 107 110 116 118 120 122 122 122 122 124 124 126 127 127 127 128 131 134 132 133 135 135 135 135 135 130 127 128 127 127 130 133 134 133 136 137 137 -209 -209 -193 137 148 156 160 159 160 163 164 165 166 -209 -209 -209 -193 175 176 -193 177 177 180 181 0 0 0 0 0
    0 0 0 0 0 0 0 0 0 0 0 0 0 0 0 0 0 0 0 0 0 0 0 0 0 0 0 0 0 0 0 0 0 0 0 0 0 0 0 0 0 0 0 0 0 0 0 0 0 0 0 0 0 0 0 0 0 0 0 0 0 0 0 0 0 0 0 0 0 98 98 96 95 94 94 94 94 97 96 94 98 98 98 98 96 94 91 92 94 92 92 92 91 89 86 85 84 84 83 80 79 78 76 75 76 76 75 68 66 67 63 60 60 60 60 59 58 56 50 56 55 55 53 52 53 53 53 53 52 53 52 55 58 60 60 59 58 56 56 56 54 52 49 -225 -225 -225 -225 -225 -225 -225 -225 -225 -225 -225 -225 -225 -225 -225 -225 -225 -225 -225 -225 -225 -225 -225 -225 -225 -225 -225 -225 -225 -225 -225 -225 -225 -225 -225 -225 -225 -225 -225 -225 -225 -225 -225 -225 -225 -225 -225 -225 -225 46 52 49 50 51 49 50 50 52 53 54 55 55 54 55 54 55 54 55 53 55 58 66 70 72 73 73 74 76 75 76 76 77 77 77 78 79 80 83 85 88 91 92 93 94 101 103 104 105 105 107 106 107 108 108 106 107 107 107 106 109 109 107 110 116 119 120 122 122 122 122 124 124 126 127 127 128 129 131 133 132 132 134 134 134 135 136 133 132 133 134 131 134 135 135 134 137 136 137 139 139 138 140 146 153 154 155 157 158 161 163 165 -209 -209 -209 -209 173 174 172 177 178 181 182 0 0 0 0 0
    0 0 0 0 0 0 0 0 0 0 0 0 0 0 0 0 0 0 0 0 0 0 0 0 0 0 0 0 0 0 0 0 0 0 0 0 0 0 0 0 0 0 0 0 0 0 0 0 0 0 0 0 0 0 0 0 0 0 0 0 0 0 0 0 0 0 0 0 0 98 98 96 95 94 94 94 94 97 97 94 97 97 96 96 94 93 89 94 94 92 92 93 91 89 87 85 83 83 83 80 79 78 77 76 77 78 76 70 67 68 65 63 63 62 61 60 59 57 54 56 56 56 55 54 55 55 55 54 54 55 55 57 61 62 62 61 59 58 58 57 55 53 50 -225 -225 -225 -225 -225 -225 -225 -225 -225 -225 -225 -225 -225 -225 -225 -225 -225 -225 -225 -225 -225 -225 -225 -225 -225 -225 -225 -225 -225 -225 -225 -225 -225 -225 -225 -225 -225 -225 -225 -225 -225 -225 -225 -225 -225 -225 -225 -225 -225 -225 -225 50 52 53 51 53 51 54 53 55 56 56 54 55 54 56 54 55 53 55 59 67 70 72 73 74 74 76 75 75 76 76 77 77 77 79 79 82 84 87 91 92 93 94 100 103 104 104 104 107 106 107 108 107 106 107 107 107 105 108 108 107 109 115 118 120 122 122 122 123 124 125 126 127 128 130 131 133 135 134 134 136 135 135 135 136 135 134 136 137 135 137 137 137 137 138 138 138 140 139 139 141 144 150 151 153 155 155 157 159 -193 -193 -193 -193 -209 -209 -209 -209 176 -193 -209 -209 0 0 0 0 0
    0 0 0 0 0 0 0 0 0 0 0 0 0 0 0 0 0 0 0 0 0 0 0 0 0 0 0 0 0 0 0 0 0 0 0 0 0 0 0 0 0 0 0 0 0 0 0 0 0 0 0 0 0 0 0 0 0 0 0 0 0 0 0 0 0 0 0 0 0 98 98 96 95 94 95 95 95 98 97 94 97 97 97 97 94 91 90 102 97 93 93 94 91 88 87 85 83 83 83 80 79 78 77 76 78 79 76 71 69 68 67 65 65 64 62 61 60 59 57 58 57 58 57 56 56 56 55 54 54 56 56 58 62 63 63 62 60 60 59 58 57 54 -225 -225 -225 -225 -225 -225 -225 -225 -225 -225 -225 -225 -225 -225 -225 -225 -225 -225 -225 -225 -225 -225 -225 -225 -225 -225 -225 -225 -225 -225 -225 -225 -225 -225 -225 -225 -225 -225 -225 -225 -225 -225 -225 -225 -225 -225 -225 -225 -225 -225 -225 -225 -225 52 55 54 56 53 57 56 58 58 58 57 57 56 58 55 57 54 56 59 67 69 71 72 73 73 75 74 75 76 76 77 76 77 79 79 82 85 87 91 92 93 94 100 103 103 103 104 107 107 107 108 107 106 107 107 106 105 106 107 106 108 114 118 119 122 122 122 123 125 126 128 130 131 132 132 133 135 134 133 134 134 133 133 132 132 132 135 137 136 137 138 138 139 139 140 141 142 141 142 143 145 149 152 154 155 155 156 157 159 -193 -209 -209 -209 -209 -193 -209 -209 -209 -209 -209 0 0 0 0 0
    0 0 0 0 0 0 0 0 0 0 0 0 0 0 0 0 0 0 0 0 0 0 0 0 0 0 0 0 0 0 0 0 0 0 0 0 0 0 0 0 0 0 0 0 0 0 0 0 0 0 0 0 0 0 0 0 0 0 0 0 0 0 0 0 0 0 0 0 0 100 99 98 97 97 96 96 97 99 98 95 97 98 99 98 96 93 96 103 97 92 92 92 90 87 86 84 81 82 82 80 79 78 78 77 78 79 76 72 70 69 68 67 66 65 63 63 61 60 59 61 60 59 58 57 57 57 56 55 56 58 58 60 64 64 64 63 62 61 60 59 58 -225 -225 -225 -225 -225 -225 -225 -225 -225 -225 -225 -225 -225 -225 -225 -225 -225 -225 -225 -225 -225 -225 -225 -225 -225 -225 -225 -225 -225 -225 -225 -225 -225 -225 -225 -225 -225 -225 -225 -225 -225 -225 -225 -225 -225 -225 -225 -225 -225 -225 -225 -225 -225 -225 -225 -225 53 55 53 -209 -193 60 59 59 58 59 58 60 58 59 58 59 62 65 67 69 70 72 72 74 74 74 75 75 76 76 76 79 78 83 85 87 92 93 94 95 100 103 103 103 104 107 107 107 107 107 106 107 107 107 104 105 106 106 108 113 117 118 120 121 122 124 125 126 128 129 131 131 132 133 134 134 134 135 134 134 135 134 134 136 137 138 138 138 139 140 140 140 140 141 143 142 144 145 147 150 154 155 156 158 159 159 160 160 159 -193 -193 -209 -209 -209 -209 -209 -209 -209 0 0 0 0 0
    0 0 0 0 0 0 0 0 0 0 0 0 0 0 0 0 0 0 0 0 0 0 0 0 0 0 0 0 0 0 0 0 0 0 0 0 0 0 0 0 0 0 0 0 0 0 0 0 0 0 0 0 0 0 0 0 0 0 0 0 0 0 0 0 0 0 0 0 0 100 99 98 98 97 97 96 98 99 98 95 97 98 98 96 93 92 96 103 93 91 91 90 88 86 86 83 80 82 82 79 79 78 78 76 78 79 76 73 71 70 68 67 67 66 64 63 61 61 62 64 61 60 59 58 58 57 56 56 57 59 59 62 65 65 64 64 63 62 61 60 -225 -225 -225 -225 -225 -225 -225 -225 -225 -225 -225 -225 -225 -225 -225 -225 -225 -225 -225 -225 -225 -225 -225 -225 -225 -225 -225 -225 -225 -225 -225 -225 -225 -225 -225 -225 -225 -225 -225 -225 -225 -225 -225 -225 -225 -225 -225 -225 -225 -225 -225 -225 -225 -225 -225 -225 -225 -225 56 -193 -209 -209 66 63 62 62 61 61 63 60 61 60 60 63 64 66 67 69 71 71 73 74 73 74 74 75 75 75 78 -193 82 85 87 92 93 94 95 100 103 102 102 103 108 107 107 107 107 105 107 107 107 104 105 106 106 108 113 117 118 120 121 122 123 124 125 126 127 130 130 130 132 133 133 133 135 134 134 135 134 136 137 138 139 139 140 140 140 139 140 139 141 143 143 146 147 149 153 155 155 157 160 162 162 162 162 161 158 160 164 161 157 -209 -209 -209 -209 0 0 0 0 0
    0 0 0 0 0 0 0 0 0 0 0 0 0 0 0 0 0 0 0 0 0 0 0 0 0 0 0 0 0 0 0 0 0 0 0 0 0 0 0 0 0 0 0 0 0 0 0 0 0 0 0 0 0 0 0 0 0 0 0 0 0 0 0 0 0 0 0 0 0 100 100 99 99 98 97 95 100 99 98 94 97 98 97 94 95 92 93 100 91 90 91 89 88 86 86 84 81 82 81 79 79 77 78 76 78 79 76 74 72 70 69 68 67 67 65 63 61 62 66 66 63 61 60 59 59 58 58 58 58 61 61 64 66 65 65 64 63 63 62 61 -225 -225 -225 -225 -225 -225 -225 -225 -225 -225 -225 -225 -225 -225 -225 -225 -225 -225 -225 -225 -225 -225 -225 -225 -225 -225 -225 -225 -225 -225 -225 -225 -225 -225 -225 -225 -225 -225 -225 -225 -225 -225 -225 -225 -225 -225 -225 -225 -225 -225 -225 -225 -225 -225 -225 -225 -225 -225 -225 -209 -209 -209 69 66 63 64 63 63 64 62 62 61 62 64 64 66 66 68 71 71 73 73 73 74 74 75 75 75 77 -193 81 84 86 90 92 93 94 100 102 101 102 103 108 107 107 107 107 106 107 107 107 103 105 106 106 107 113 117 117 119 121 121 122 123 124 125 125 128 128 128 131 133 132 134 135 134 134 135 135 136 138 138 139 140 141 141 142 141 142 141 144 147 147 149 149 152 154 156 156 158 161 163 163 164 163 162 158 161 164 160 156 158 -209 -209 -209 0 0 0 0 0
    0 0 0 0 0 0 0 0 0 0 0 0 0 0 0 0 0 0 0 0 0 0 0 0 0 0 0 0 0 0 0 0 0 0 0 0 0 0 0 0 0 0 0 0 0 0 0 0 0 0 0 0 0 0 0 0 0 0 0 0 0 0 0 0 0 0 0 0 0 101 101 100 99 98 96 95 99 98 95 93 94 96 95 93 93 91 91 96 90 89 91 89 88 86 86 84 82 83 82 79 79 77 78 76 77 78 76 74 72 71 70 69 68 68 65 63 60 69 68 69 66 64 62 61 61 61 61 62 61 64 65 66 67 66 66 65 64 63 62 -225 -225 -225 -225 -225 -225 -225 -225 -225 -225 -225 -225 -225 -225 -225 -225 -225 -225 -225 -225 -225 -225 -225 -225 -225 -225 -225 -225 -225 -225 -225 -225 -225 -225 -225 -225 -225 -225 -225 -225 -225 -225 -225 -225 -225 -225 -225 -225 -225 -225 -225 -225 -225 -225 -225 -225 -225 -225 -225 -225 -225 -209 -193 70 67 64 65 63 64 65 63 63 61 61 63 62 63 62 64 67 68 71 71 72 74 74 75 75 75 77 77 80 84 86 89 90 91 93 99 102 101 101 103 108 107 107 107 107 106 107 108 107 103 104 105 106 107 114 118 118 119 121 120 122 123 123 124 125 127 128 127 131 132 132 134 136 135 135 137 137 137 139 140 141 142 142 143 143 142 144 143 147 147 147 149 150 151 154 155 156 158 162 164 163 165 165 164 159 160 163 159 158 167 152 -193 -193 0 0 0 0 0
    0 0 0 0 0 0 0 0 0 0 0 0 0 0 0 0 0 0 0 0 0 0 0 0 0 0 0 0 0 0 0 0 0 0 0 0 0 0 0 0 0 0 0 0 0 0 0 0 0 0 0 0 0 0 0 0 0 0 0 0 0 0 0 0 0 0 0 0 0 101 101 100 99 98 98 94 96 96 93 92 93 93 91 91 91 90 91 94 90 89 90 89 88 86 86 84 82 82 81 79 78 77 78 76 77 78 76 74 72 71 70 68 67 67 64 61 60 72 69 70 68 67 64 64 64 65 65 66 65 67 67 68 68 68 66 65 64 63 -225 -225 -225 -225 -225 -225 -225 -225 -225 -225 -225 -225 -225 -225 -225 -225 -225 -225 -225 -225 -225 -225 -225 -225 -225 -225 -225 -225 -225 -225 -225 -225 -225 -225 -225 -225 -225 -225 -225 -225 -225 -225 -225 -225 -225 -225 -225 -225 -225 -225 -225 -225 -225 -225 -225 -225 -225 -225 -225 -225 -225 -225 -209 -193 70 68 65 67 65 67 67 66 66 64 65 66 63 63 62 62 64 65 69 70 72 74 75 76 77 77 79 79 81 84 85 88 89 90 91 98 102 100 101 103 108 107 107 107 107 106 108 108 108 103 104 105 106 107 114 118 118 119 121 121 122 122 123 124 124 126 127 126 129 131 132 134 137 137 137 139 140 140 142 142 142 145 147 147 145 145 146 146 148 148 148 150 150 152 154 155 157 160 163 165 165 166 167 166 163 164 164 162 159 166 164 162 -193 0 0 0 0 0
    0 0 0 0 0 0 0 0 0 0 0 0 0 0 0 0 0 0 0 0 0 0 0 0 0 0 0 0 0 0 0 0 0 0 0 0 0 0 0 0 0 0 0 0 0 0 0 0 0 0 0 0 0 0 0 0 0 0 0 0 0 0 0 0 0 0 0 0 0 101 101 101 101 100 101 95 97 95 93 93 93 93 92 91 92 90 93 95 91 0 -256 -1 -16638 86 86 84 82 83 81 79 78 77 78 77 77 78 76 74 73 73 72 69 68 67 63 58 68 72 70 70 69 68 66 66 67 68 68 68 67 69 68 69 69 68 66 65 63 -225 -225 -225 -225 -225 -225 -225 -225 -225 -225 -225 -225 -225 -225 -225 -225 -225 -225 -225 -225 -225 -225 -225 -225 -225 -225 -225 -225 -225 -225 -225 -225 -225 -225 -225 -225 -225 -225 -225 -225 -225 -225 -225 -225 -225 -225 -225 -225 -225 -225 -225 -225 -225 -225 -225 -225 -225 -225 -225 -225 -225 -225 -225 -209 -209 72 70 68 70 69 69 69 68 68 67 67 68 66 66 65 65 67 68 71 72 74 75 77 77 79 79 81 81 82 84 85 88 89 90 90 96 102 100 100 103 108 107 107 107 106 106 108 108 108 104 105 106 106 108 114 117 117 119 121 121 122 122 123 124 124 126 127 126 129 132 134 136 139 139 138 140 139 140 141 141 141 144 147 147 147 147 148 148 149 150 149 151 152 153 154 156 158 160 163 165 165 167 167 167 166 166 166 165 160 165 160 160 164 0 0 0 0 0
    0 0 0 0 0 0 0 0 0 0 0 0 0 0 0 0 0 0 0 0 0 0 0 0 0 0 0 0 0 0 0 0 0 0 0 0 0 0 0 0 0 0 0 0 0 0 0 0 0 0 0 0 0 0 0 0 0 0 0 0 0 0 0 0 0 0 0 0 0 100 100 100 100 100 101 96 99 96 95 94 94 93 93 92 93 91 96 97 93 92 91 89 88 86 86 84 82 82 80 79 78 77 78 77 77 78 76 75 75 74 74 71 70 68 61 -209 63 71 70 70 69 68 66 67 68 69 69 69 69 70 70 70 69 68 67 65 63 -225 -225 -225 -225 -225 -225 -225 -225 -225 -225 -225 -225 -225 -225 -225 -225 -225 -225 -225 -225 -225 -225 -225 -225 -225 -225 -225 -225 -225 -225 -225 -225 -225 -225 -225 -225 -225 -225 -225 -225 -225 -225 -225 -225 -225 -225 -225 -225 -225 -225 -225 -225 -225 -225 -225 -225 -225 -225 -225 -225 -225 -225 -225 -225 -225 76 73 72 72 71 71 71 70 70 69 69 69 69 68 68 67 68 69 71 73 75 76 77 78 81 81 83 83 83 86 86 88 89 89 90 95 101 99 99 102 107 106 107 107 106 105 107 108 108 104 104 105 106 108 113 116 117 119 120 121 122 122 123 123 124 125 125 125 127 131 134 136 139 139 138 139 138 139 140 141 141 141 143 145 145 147 148 149 149 150 150 152 153 154 156 158 159 160 163 165 164 166 167 167 166 167 169 169 167 169 168 170 171 0 0 0 0 0
    0 0 0 0 0 0 0 0 0 0 0 0 0 0 0 0 0 0 0 0 0 0 0 0 0 0 0 0 0 0 0 0 0 0 0 0 0 0 0 0 0 0 0 0 0 0 0 0 0 0 0 0 0 0 0 0 0 0 0 0 0 0 0 0 0 0 0 0 0 100 100 100 99 99 99 94 98 96 94 94 94 94 94 93 94 93 97 97 93 93 91 88 87 86 85 84 82 82 80 79 78 77 79 78 76 77 75 76 76 75 74 69 58 56 53 -209 -193 -193 69 70 69 68 67 68 69 70 70 71 70 71 71 71 70 69 67 65 -225 -225 -225 -225 -225 -225 -225 -225 -225 -225 -225 -225 -225 -225 -225 -225 -225 -225 -225 -225 -225 -225 -225 -225 -225 -225 -225 -225 -225 -225 -225 -225 -225 -225 -225 -225 -225 -225 -225 -225 -225 -225 -225 -225 -225 -225 -225 -225 -225 -225 -225 -225 -225 -225 -225 -225 -225 -225 -225 -225 -225 -225 -225 -225 -225 -225 74 72 71 72 71 71 72 71 70 70 70 70 70 70 70 69 69 69 71 74 76 77 78 79 82 82 84 83 83 85 86 87 89 89 89 94 101 98 99 102 106 106 107 106 106 105 107 108 108 104 104 105 106 108 114 115 116 119 120 120 121 122 122 122 124 125 125 125 127 130 132 135 137 138 139 139 139 140 141 142 141 141 144 144 146 147 148 149 149 151 151 153 155 156 159 161 163 163 165 166 165 167 167 168 168 168 171 172 170 172 171 174 173 0 0 0 0 0
    0 0 0 0 0 0 0 0 0 0 0 0 0 0 0 0 0 0 0 0 0 0 0 0 0 0 0 0 0 0 0 0 0 0 0 0 0 0 0 0 0 0 0 0 0 0 0 0 0 0 0 0 0 0 0 0 0 0 0 0 0 0 0 0 0 0 0 0 0 100 100 99 99 98 98 94 97 95 93 93 93 93 94 93 95 94 97 96 94 93 90 88 87 85 85 84 82 82 79 79 78 78 79 78 76 76 76 77 77 76 75 56 56 59 59 -209 -209 69 69 70 69 68 69 70 71 72 72 72 71 72 72 72 71 70 68 -225 -225 -225 -225 -225 -225 -225 -225 -225 -225 -225 -225 -225 -225 -225 -225 -225 -225 -225 -225 -225 -225 -225 -225 -225 -225 -225 -225 -225 -225 -225 -225 -225 -225 -225 -225 -225 -225 -225 -225 -225 -225 -225 -225 -225 -225 -225 -225 -225 -225 -225 -225 -225 -225 -225 -225 -225 -225 -225 -225 -225 -225 -225 -225 -225 -225 -225 -225 71 68 71 69 70 71 71 71 70 70 70 70 70 70 68 70 70 71 74 77 78 80 81 84 83 84 84 83 85 85 86 87 87 88 93 100 97 98 101 106 105 106 106 106 105 107 109 108 104 105 106 107 109 114 115 116 118 119 120 121 121 122 122 124 125 125 125 127 130 132 134 136 137 139 140 140 140 142 143 142 142 144 144 145 146 148 148 148 150 151 154 156 158 161 163 164 165 166 167 166 168 168 168 169 169 172 173 172 174 172 176 176 0 0 0 0 0
    0 0 0 0 0 0 0 0 0 0 0 0 0 0 0 0 0 0 0 0 0 0 0 0 0 0 0 0 0 0 0 0 0 0 0 0 0 0 0 0 0 0 0 0 0 0 0 0 0 0 0 0 0 0 0 0 0 0 0 0 0 0 0 0 0 0 0 0 0 100 100 100 99 98 98 94 97 95 93 93 93 93 94 94 96 95 98 96 94 94 90 89 87 86 85 84 83 82 79 80 77 78 79 77 75 76 76 77 77 76 74 57 63 66 67 65 59 64 68 69 69 70 71 72 72 73 73 73 73 73 73 73 71 70 -225 -225 -225 -225 -225 -225 -225 -225 -225 -225 -225 -225 -225 -225 -225 -225 -225 -225 -225 -225 -225 -225 -225 -225 -225 -225 -225 -225 -225 -225 -225 -225 -225 -225 -225 -225 -225 -225 -225 -225 -225 -225 -225 -225 -225 -225 -225 -225 -225 -225 -225 -225 -225 -225 -225 -225 -225 -225 -225 -225 -225 -225 -225 -225 -225 -225 -225 -225 -225 -225 -225 70 69 70 71 71 71 71 71 71 72 71 72 71 72 73 72 75 77 78 81 81 84 83 84 84 83 84 85 85 87 86 88 91 99 96 96 101 105 105 106 106 106 105 108 109 109 105 105 107 107 111 115 115 116 118 119 120 121 121 122 122 124 125 125 125 127 129 130 132 135 134 136 138 138 139 140 141 140 141 143 142 143 145 147 147 148 149 151 154 156 160 163 164 165 166 166 167 166 169 169 169 170 170 172 175 176 178 178 181 182 0 0 0 0 0
    0 0 0 0 0 0 0 0 0 0 0 0 0 0 0 0 0 0 0 0 0 0 0 0 0 0 0 0 0 0 0 0 0 0 0 0 0 0 0 0 0 0 0 0 0 0 0 0 0 0 0 0 0 0 0 0 0 0 0 0 0 0 0 0 0 0 0 0 0 100 100 99 98 98 97 94 98 96 93 93 94 94 96 96 98 97 99 97 96 96 91 89 87 86 86 84 84 83 80 81 77 79 79 78 75 75 77 78 77 78 78 74 72 72 72 66 60 64 68 69 70 73 73 74 75 75 75 75 74 75 74 74 73 -225 -225 -225 -225 -225 -225 -225 -225 -225 -225 -225 -225 -225 -225 -225 -225 -225 -225 -225 -225 -225 -225 -225 -225 -225 -225 -225 -225 -225 -225 -225 -225 -225 -225 -225 -225 -225 -225 -225 -225 -225 -225 -225 -225 -225 -225 -225 -225 -225 -225 -225 -225 -225 -225 -225 -225 -225 -225 -225 -225 -225 -225 -225 -225 -225 -225 -225 -225 -225 -225 -225 -225 69 69 71 -193 72 72 73 73 72 73 73 74 72 74 74 73 76 78 78 81 81 84 83 84 84 83 84 85 85 87 86 88 91 99 95 96 100 104 104 106 106 106 106 108 110 109 105 106 107 107 110 114 114 116 118 120 121 121 122 123 123 125 125 125 125 126 128 128 131 133 133 135 137 138 138 139 140 140 141 143 144 145 146 148 148 149 150 151 153 155 158 161 163 165 165 165 166 164 166 166 167 168 169 172 178 182 183 183 185 185 0 0 0 0 0
    0 0 0 0 0 0 0 0 0 0 0 0 0 0 0 0 0 0 0 0 0 0 0 0 0 0 0 0 0 0 0 0 0 0 0 0 0 0 0 0 0 0 0 0 0 0 0 0 0 0 0 0 0 0 0 0 0 0 0 0 0 0 0 0 0 0 0 0 0 100 99 99 98 98 96 94 98 95 93 93 94 94 97 96 98 97 99 98 97 98 91 90 87 86 86 85 84 83 80 82 77 81 79 78 75 75 78 78 85 89 86 84 77 76 75 68 65 65 68 69 72 75 75 76 76 76 76 76 76 76 75 74 74 -225 -225 -225 -225 -225 -225 -225 -225 -225 -225 -225 -225 -225 -225 -225 -225 -225 -225 -225 -225 -225 -225 -225 -225 -225 -225 -225 -225 -225 -225 -225 -225 -225 -225 -225 -225 -225 -225 -225 -225 -225 -225 -225 -225 -225 -225 -225 -225 -225 -225 -225 -225 -225 -225 -225 -225 -225 -225 -225 -225 -225 -225 -225 -225 -225 -225 -225 -225 -225 -225 -225 -225 -225 -225 72 80 75 74 74 74 72 74 73 75 73 75 75 75 77 79 79 82 82 84 84 85 85 84 85 85 85 88 88 89 92 99 95 95 100 103 104 105 106 105 105 108 110 109 105 106 107 107 110 113 114 116 118 120 121 122 122 123 123 125 126 126 127 128 129 130 132 134 133 135 137 138 138 139 140 141 142 144 146 147 149 150 150 150 151 151 153 155 158 160 162 164 165 165 165 162 165 165 166 167 168 172 178 183 185 185 186 186 0 0 0 0 0
    0 0 0 0 0 0 0 0 0 0 0 0 0 0 0 0 0 0 0 0 0 0 0 0 0 0 0 0 0 0 0 0 0 0 0 0 0 0 0 0 0 0 0 0 0 0 0 0 0 0 0 0 0 0 0 0 0 0 0 0 0 0 0 0 0 0 0 0 0 99 99 99 98 98 96 94 98 96 94 95 95 95 98 98 99 99 101 99 99 100 91 90 86 86 85 84 83 83 80 82 77 82 80 78 75 77 84 88 89 90 87 86 82 81 79 -209 68 59 68 71 75 78 78 78 77 78 77 77 76 76 75 75 -225 -225 -225 -225 -225 -225 -225 -225 -225 -225 -225 -225 -225 -225 -225 -225 -225 -225 -225 -225 -225 -225 -225 -225 -225 -225 -225 -225 -225 -225 -225 -225 -225 -225 -225 -225 -225 -225 -225 -225 -225 -225 -225 -225 -225 -225 -225 -225 -225 -225 -225 -225 -225 -225 -225 -225 -225 -225 -225 -225 -225 -225 -225 -225 -225 -225 -225 -225 -225 -225 -225 -225 -225 -225 -225 -225 -225 78 78 76 76 75 77 75 77 75 76 77 77 79 81 81 83 83 85 85 86 86 86 87 86 87 89 89 90 92 98 94 95 99 103 103 105 105 105 105 108 109 109 105 106 107 107 111 113 115 117 119 120 121 122 122 123 123 125 127 127 127 128 130 131 132 133 133 134 135 137 137 138 139 140 141 143 144 147 148 150 150 150 151 151 153 155 157 159 160 161 162 162 164 160 164 163 165 167 169 172 179 183 184 186 187 187 0 0 0 0 0
    0 0 0 0 0 0 0 0 0 0 0 0 0 0 0 0 0 0 0 0 0 0 0 0 0 0 0 0 0 0 0 0 0 0 0 0 0 0 0 0 0 0 0 0 0 0 0 0 0 0 0 0 0 0 0 0 0 0 0 0 0 0 0 0 0 0 0 0 0 99 99 99 98 97 95 94 99 96 96 96 97 98 101 101 102 102 102 101 101 101 92 90 87 86 86 84 83 82 80 82 78 82 80 78 76 83 87 89 88 88 86 85 82 82 81 -209 70 59 70 74 78 81 81 80 79 79 78 78 77 76 75 -225 -225 -225 -225 -225 -225 -225 -225 -225 -225 -225 -225 -225 -225 -225 -225 -225 -225 -225 -225 -225 -225 -225 -225 -225 -225 -225 -225 -225 -225 -225 -225 -225 -225 -225 -225 -225 -225 -225 -225 -225 -225 -225 -225 -225 -225 -225 -225 -225 -225 -225 -225 -225 -225 -225 -225 -225 -225 -225 -225 -225 -225 -225 -225 -225 -225 -225 -225 -225 -225 -225 -225 -225 -225 -225 -225 -225 -225 79 78 77 77 76 77 76 78 77 78 78 79 80 82 83 84 84 85 85 86 86 87 88 87 88 90 90 91 94 98 95 95 99 103 104 106 106 106 105 108 109 109 105 106 -193 -193 111 114 -209 116 119 -193 121 122 122 123 123 126 127 127 127 128 130 130 131 131 131 132 133 135 135 136 138 139 140 142 143 146 147 149 150 151 151 152 154 156 158 160 161 161 162 162 163 160 164 163 165 167 169 175 181 184 184 186 187 187 0 0 0 0 0
    0 0 0 0 0 0 0 0 0 0 0 0 0 0 0 0 0 0 0 0 0 0 0 0 0 0 0 0 0 0 0 0 0 0 0 0 0 0 0 0 0 0 0 0 0 0 0 0 0 0 0 0 0 0 0 0 0 0 0 0 0 0 0 0 0 0 0 0 0 99 99 99 98 97 95 95 99 97 97 99 99 102 105 107 104 103 102 101 101 102 93 90 87 87 86 85 84 83 80 82 78 83 81 78 76 84 87 -209 88 87 84 83 82 82 83 74 -193 69 74 80 82 84 82 82 81 81 80 79 78 77 76 -225 -225 -225 -225 -225 -225 -225 -225 -225 -225 -225 -225 -225 -225 -225 -225 -225 -225 -225 -225 -225 -225 -225 -225 -225 -225 -225 -225 -225 -225 -225 -225 -225 -225 -225 -225 -225 -225 -225 -225 -225 -225 -225 -225 -225 -225 -225 -225 -225 -225 -225 -225 -225 -225 -225 -225 -225 -225 -225 -225 -225 -225 -225 -225 -225 -225 -225 -225 -225 -225 -225 -225 -225 -225 -225 -225 -225 -225 -225 78 78 79 76 77 77 78 78 80 80 81 81 84 84 85 84 86 85 86 86 88 89 88 88 91 91 91 95 99 95 95 100 104 104 106 106 106 106 108 110 110 105 107 -209 -209 113 -209 -209 -193 118 120 121 122 122 122 123 126 127 128 127 128 129 129 130 130 129 131 132 134 135 136 138 139 141 142 143 146 147 148 149 150 151 151 153 155 158 160 161 163 164 163 164 162 165 164 166 168 169 176 181 183 184 185 186 187 0 0 0 0 0
    0 0 0 0 0 0 0 0 0 0 0 0 0 0 0 0 0 0 0 0 0 0 0 0 0 0 0 0 0 0 0 0 0 0 0 0 0 0 0 0 0 0 0 0 0 0 0 0 0 0 0 0 0 0 0 0 0 0 0 0 0 0 0 0 0 0 0 0 0 99 99 99 98 97 94 96 100 99 100 103 102 105 115 121 111 104 101 102 102 102 94 91 87 87 86 85 84 83 81 83 79 84 81 77 80 86 86 -193 88 87 84 83 83 83 83 76 74 72 77 80 83 84 83 82 81 82 81 79 78 77 -225 -225 -225 -225 -225 -225 -225 -225 -225 -225 -225 -225 -225 -225 -225 -225 -225 -225 -225 -225 -225 -225 -225 -225 -225 -225 -225 -225 -225 -225 -225 -225 -225 -225 -225 -225 -225 -225 -225 -225 -225 -225 -225 -225 -225 -225 -225 -225 -225 -225 -225 -225 -225 -225 -225 -225 -225 -225 -225 -225 -225 -225 -225 -225 -225 -225 -225 -225 -225 -225 -225 -225 -225 -225 -225 -225 -225 -225 -225 -225 78 78 78 75 76 78 80 80 84 82 83 83 85 86 86 85 87 86 87 87 89 90 89 89 91 91 92 96 100 96 96 101 105 105 106 107 106 107 109 110 110 106 107 109 108 115 114 115 116 118 120 121 122 122 122 124 127 128 129 128 129 129 129 130 129 128 130 131 134 135 136 138 140 141 143 145 147 147 149 150 151 151 151 154 154 157 159 160 163 164 164 165 164 167 -193 167 169 -193 -193 -193 -193 -193 -193 186 186 0 0 0 0 0
    0 0 0 0 0 0 0 0 0 0 0 0 0 0 0 0 0 0 0 0 0 0 0 0 0 0 0 0 0 0 0 0 0 0 0 0 0 0 0 0 0 0 0 0 0 0 0 0 0 0 0 0 0 0 0 0 0 0 0 0 0 0 0 0 0 0 0 0 0 99 99 99 99 97 94 99 101 101 104 107 -193 111 117 121 119 105 103 104 104 104 97 93 88 88 87 86 85 84 82 83 80 85 82 77 86 85 -193 -209 88 87 85 84 84 84 85 79 78 78 86 85 85 86 85 84 83 84 83 79 78 -225 -225 -225 -225 -225 -225 -225 -225 -225 -225 -225 -225 -225 -225 -225 -225 -225 -225 -225 -225 -225 -225 -225 -225 -225 -225 -225 -225 -225 -225 -225 -225 -225 -225 -225 -225 -225 -225 -225 -225 -225 -225 -225 -225 -225 -225 -225 -225 -225 -225 -225 -225 -225 -225 -225 -225 -225 -225 -225 -225 -225 -225 -225 -225 -225 -225 -225 -225 -225 -225 -225 -225 -225 -225 -225 -225 -225 -225 -225 -225 -225 -225 75 80 78 77 80 84 82 86 85 85 84 86 87 87 86 88 87 88 88 90 90 89 89 91 92 93 98 101 99 99 102 106 106 107 108 107 107 109 110 110 106 108 110 109 115 115 115 116 118 120 121 122 123 123 125 128 129 129 128 129 129 129 130 129 128 129 131 133 134 135 137 138 141 143 145 148 148 150 151 152 153 153 155 155 157 158 158 161 163 163 165 165 167 -193 168 169 -193 -193 -193 -193 -193 -209 -193 -193 0 0 0 0 0
    0 0 0 0 0 0 0 0 0 0 0 0 0 0 0 0 0 0 0 0 0 0 0 0 0 0 0 0 0 0 0 0 0 0 0 0 0 0 0 0 0 0 0 0 0 0 0 0 0 0 0 0 0 0 0 0 0 0 0 0 0 0 0 0 0 0 0 0 0 99 99 99 99 97 94 101 102 102 107 116 119 118 119 121 119 109 105 105 106 105 99 97 89 89 88 87 86 85 83 83 81 86 82 79 87 -193 -193 -193 89 88 86 85 86 86 87 86 85 87 89 88 87 87 86 85 85 84 83 79 -225 -225 -225 -225 -225 -225 -225 -225 -225 -225 -225 -225 -225 -225 -225 -225 -225 -225 -225 -225 -225 -225 -225 -225 -225 -225 -225 -225 -225 -225 -225 -225 -225 -225 -225 -225 -225 -225 -225 -225 -225 -225 -225 -225 -225 -225 -225 -225 -225 -225 -225 -225 -225 -225 -225 -225 -225 -225 -225 -225 -225 -225 -225 -225 -225 -225 -225 -225 -225 -225 -225 -225 -225 -225 -225 -225 -225 -225 -225 -225 -225 -225 -225 73 79 81 81 83 86 84 86 86 87 86 87 88 88 87 88 88 89 88 90 90 89 90 91 93 95 100 102 101 101 104 107 106 107 107 106 107 108 109 109 106 108 109 108 115 115 115 117 119 121 122 123 123 124 125 129 129 129 128 129 128 128 129 128 127 127 129 132 133 134 136 137 139 141 145 148 148 150 152 153 154 153 155 155 157 157 157 159 162 162 164 164 166 -193 167 168 -193 -209 -193 -193 -209 -209 -209 -209 0 0 0 0 0
    0 0 0 0 0 0 0 0 0 0 0 0 0 0 0 0 0 0 0 0 0 0 0 0 0 0 0 0 0 0 0 0 0 0 0 0 0 0 0 0 0 0 0 0 0 0 0 0 0 0 0 0 0 0 0 0 0 0 0 0 0 0 0 0 0 0 0 0 0 98 99 100 99 97 95 102 102 104 111 120 122 121 121 121 120 113 104 105 106 104 99 97 90 90 88 88 87 86 84 84 83 88 83 89 89 -209 -209 -209 92 90 88 87 87 88 89 91 90 92 93 92 89 88 87 87 86 85 84 80 -225 -225 -225 -225 -225 -225 -225 -225 -225 -225 -225 -225 -225 -225 -225 -225 -225 -225 -225 -225 -225 -225 -225 -225 -225 -225 -225 -225 -225 -225 -225 -225 -225 -225 -225 -225 -225 -225 -225 -225 -225 -225 -225 -225 -225 -225 -225 -225 -225 -225 -225 -225 -225 -225 -225 -225 -225 -225 -225 -225 -225 -225 -225 -225 -225 -225 -225 -225 -225 -225 -225 -225 -225 -225 -225 -225 -225 -225 -225 -225 -225 -225 -225 -225 80 82 80 83 88 85 86 86 88 87 88 89 89 89 90 90 90 89 91 91 90 90 92 94 -193 100 102 101 102 105 107 106 107 107 107 107 108 109 108 106 108 109 108 114 115 115 117 118 121 121 123 123 123 125 129 130 130 129 129 129 129 130 128 127 128 129 133 134 135 137 137 140 142 146 149 149 151 153 154 155 154 155 155 156 156 155 156 158 158 160 162 165 165 166 167 168 -209 -193 175 -193 -193 -209 -209 0 0 0 0 0
    0 0 0 0 0 0 0 0 0 0 0 0 0 0 0 0 0 0 0 0 0 0 0 0 0 0 0 0 0 0 0 0 0 0 0 0 0 0 0 0 0 0 0 0 0 0 0 0 0 0 0 0 0 0 0 0 0 0 0 0 0 0 0 0 0 0 0 0 0 100 100 101 100 99 100 105 106 109 116 120 124 123 125 126 -209 111 104 107 106 104 102 99 94 93 90 89 88 87 87 87 89 93 94 101 97 -193 91 93 94 90 88 88 88 90 92 95 96 98 98 97 91 89 88 88 87 85 84 -225 -225 -225 -225 -225 -225 -225 -225 -225 -225 -225 -225 -225 -225 -225 -225 -225 -225 -225 -225 -225 -225 -225 -225 -225 -225 -225 -225 -225 -225 -225 -225 -225 -225 -225 -225 -225 -225 -225 -225 -225 -225 -225 -225 -225 -225 -225 -225 -225 -225 -225 -225 -225 -225 -225 -225 -225 -225 -225 -225 -225 -225 -225 -225 -225 -225 -225 -225 -225 -225 -225 -225 -225 -225 -225 -225 -225 -225 -225 -225 -225 -225 -225 -225 -225 -225 84 81 84 88 86 87 87 90 89 90 92 92 91 92 92 93 91 93 93 91 92 94 96 99 101 103 102 103 106 108 107 108 108 107 107 108 108 107 106 108 109 108 114 115 115 117 118 119 120 121 122 122 125 129 130 131 131 130 131 131 132 130 130 131 131 135 136 136 138 138 139 141 144 148 148 150 152 154 156 154 155 156 156 156 156 156 157 157 159 161 165 166 167 168 168 170 172 174 175 176 177 -193 0 0 0 0 0
    0 0 0 0 0 0 0 0 0 0 0 0 0 0 0 0 0 0 0 0 0 0 0 0 0 0 0 0 0 0 0 0 0 0 0 0 0 0 0 0 0 0 0 0 0 0 0 0 0 0 0 0 0 0 0 0 0 0 0 0 0 0 0 0 0 0 0 0 0 101 101 103 102 101 104 106 107 111 112 117 119 120 122 -209 119 112 105 109 107 105 104 102 100 99 98 100 90 92 91 93 101 104 103 -209 -193 -209 89 91 92 89 88 87 89 94 96 100 102 101 101 100 94 91 90 89 87 86 84 -225 -225 -225 -225 -225 -225 -225 -225 -225 -225 -225 -225 -225 -225 -225 -225 -225 -225 -225 -225 -225 -225 -225 -225 -225 -225 -225 -225 -225 -225 -225 -225 -225 -225 -225 -225 -225 -225 -225 -225 -225 -225 -225 -225 -225 -225 -225 -225 -225 -225 -225 -225 -225 -225 -225 -225 -225 -225 -225 -225 -225 -225 -225 -225 -225 -225 -225 -225 -225 -225 -225 -225 -225 -225 -225 -225 -225 -225 -225 -225 -225 -225 -225 -225 -225 -225 86 84 85 89 87 88 88 92 90 92 94 95 95 94 94 95 93 96 96 94 94 96 98 -193 103 104 104 105 107 108 107 107 107 107 107 107 107 106 106 108 109 107 113 114 114 116 117 118 119 120 121 121 124 129 129 130 130 130 130 130 131 130 129 131 131 134 136 136 138 138 139 140 142 144 144 147 150 152 154 153 155 154 156 156 156 157 159 158 161 163 166 168 169 169 170 171 173 174 175 174 174 176 0 0 0 0 0
    0 0 0 0 0 0 0 0 0 0 0 0 0 0 0 0 0 0 0 0 0 0 0 0 0 0 0 0 0 0 0 0 0 0 0 0 0 0 0 0 0 0 0 0 0 0 0 0 0 0 0 0 0 0 0 0 0 0 0 0 0 0 0 0 0 0 0 0 0 106 104 105 103 102 103 103 105 107 107 114 -193 -193 123 -209 115 107 106 109 107 105 104 103 100 100 98 100 92 94 93 94 100 101 102 -193 -193 -209 89 91 92 88 87 88 90 95 97 100 101 101 100 99 95 92 91 90 89 87 -225 -225 -225 -225 -225 -225 -225 -225 -225 -225 -225 -225 -225 -225 -225 -225 -225 -225 -225 -225 -225 -225 -225 -225 -225 -225 -225 -225 -225 -225 -225 -225 -225 -225 -225 -225 -225 -225 -225 -225 -225 -225 -225 -225 -225 -225 -225 -225 -225 -225 -225 -225 -225 -225 -225 -225 -225 -225 -225 -225 -225 -225 -225 -225 -225 -225 -225 -225 -225 -225 -225 -225 -225 -225 -225 -225 -225 -225 -225 -225 -225 -225 -225 -225 -225 -225 -225 88 86 86 89 88 91 90 94 92 94 97 99 98 97 97 97 96 97 98 96 95 97 99 -193 104 104 105 105 107 108 107 108 107 107 107 107 107 107 107 109 109 107 114 114 113 115 117 118 119 120 121 121 124 129 129 130 130 130 130 129 131 130 128 131 131 135 137 137 139 138 139 141 142 144 144 147 150 152 155 154 156 156 158 158 158 159 160 160 162 163 166 167 169 169 169 171 173 174 174 173 174 175 0 0 0 0 0
    0 0 0 0 0 0 0 0 0 0 0 0 0 0 0 0 0 0 0 0 0 0 0 0 0 0 0 0 0 0 0 0 0 0 0 0 0 0 0 0 0 0 0 0 0 0 0 0 0 0 0 0 0 0 0 0 0 0 0 0 0 0 0 0 0 0 0 0 0 109 106 105 103 104 105 106 111 118 -209 121 135 135 -209 -209 105 103 102 105 103 101 101 103 104 103 101 103 95 98 97 97 100 101 103 -193 95 100 95 97 98 94 93 93 96 101 102 103 104 103 102 101 96 94 93 92 90 -225 -225 -225 -225 -225 -225 -225 -225 -225 -225 -225 -225 -225 -225 -225 -225 -225 -225 -225 -225 -225 -225 -225 -225 -225 -225 -225 -225 -225 -225 -225 -225 -225 -225 -225 -225 -225 -225 -225 -225 -225 -225 -225 -225 -225 -225 -225 -225 -225 -225 -225 -225 -225 -225 -225 -225 -225 -225 -225 -225 -225 -225 -225 -225 -225 -225 -225 -225 -225 -225 -225 -225 -225 -225 -225 -225 -225 -225 -225 -225 -225 -225 -225 -225 -225 -225 -225 -225 -225 86 87 90 88 91 90 96 93 96 99 101 100 99 100 100 98 99 100 97 97 98 101 -193 -209 104 106 105 107 108 106 107 107 106 107 107 107 107 107 109 108 108 113 114 113 115 117 118 119 120 121 121 124 129 129 130 130 130 129 129 131 130 128 132 132 136 138 139 140 139 140 141 143 145 146 149 151 153 156 154 156 156 157 157 158 158 159 159 162 163 166 167 169 169 169 170 172 174 173 172 173 174 0 0 0 0 0
    0 0 0 0 0 0 0 0 0 0 0 0 0 0 0 0 0 0 0 0 0 0 0 0 0 0 0 0 0 0 0 0 0 0 0 0 0 0 0 0 0 0 0 0 0 0 0 0 0 0 0 0 0 0 0 0 0 0 0 0 0 0 0 0 0 0 0 0 0 112 108 108 106 106 109 110 118 121 123 124 132 129 128 -209 104 101 101 103 101 100 101 104 105 104 102 104 96 99 98 98 100 101 101 102 97 100 99 99 101 102 102 101 102 104 105 105 105 104 103 101 98 97 96 94 92 -225 -225 -225 -225 -225 -225 -225 -225 -225 -225 -225 -225 -225 -225 -225 -225 -225 -225 -225 -225 -225 -225 -225 -225 -225 -225 -225 -225 -225 -225 -225 -225 -225 -225 -225 -225 -225 -225 -225 -225 -225 -225 -225 -225 -225 -225 -225 -225 -225 -225 -225 -225 -225 -225 -225 -225 -225 -225 -225 -225 -225 -225 -225 -225 -225 -225 -225 -225 -225 -225 -225 -225 -225 -225 -225 -225 -225 -225 -225 -225 -225 -225 -225 -225 -225 -225 -225 -225 -225 86 86 89 88 90 89 97 93 95 99 101 101 100 100 100 99 99 100 98 98 99 101 -193 -209 104 106 106 108 108 106 107 106 106 107 106 107 106 107 108 107 107 111 112 112 115 116 118 119 120 121 122 124 129 129 130 130 130 130 130 132 131 129 132 133 136 138 138 139 138 139 141 142 144 146 150 152 154 157 155 157 156 157 157 158 157 158 159 162 163 166 167 169 169 169 171 173 175 173 173 173 174 0 0 0 0 0
    0 0 0 0 0 0 0 0 0 0 0 0 0 0 0 0 0 0 0 0 0 0 0 0 0 0 0 0 0 0 0 0 0 0 0 0 0 0 0 0 0 0 0 0 0 0 0 0 0 0 0 0 0 0 0 0 0 0 0 0 0 0 0 0 0 0 0 0 0 109 108 109 108 108 109 111 117 120 121 121 124 -193 -209 -193 105 100 101 101 98 98 100 103 105 104 103 105 100 102 101 100 101 102 102 103 98 101 99 100 102 104 104 105 104 105 106 106 106 104 103 102 101 100 101 99 -225 -225 -225 -225 -225 -225 -225 -225 -225 -225 -225 -225 -225 -225 -225 -225 -225 -225 -225 -225 -225 -225 -225 -225 -225 -225 -225 -225 -225 -225 -225 -225 -225 -225 -225 -225 -225 -225 -225 -225 -225 -225 -225 -225 -225 -225 -225 -225 -225 -225 -225 -225 -225 -225 -225 -225 -225 -225 -225 -225 -225 -225 -225 -225 -225 -225 -225 -225 -225 -225 -225 -225 -225 -225 -225 -225 -225 -225 -225 -225 -225 -225 -225 -225 -225 -225 -225 -225 -225 -225 85 84 84 86 87 88 97 93 95 98 101 101 100 101 101 100 100 101 99 99 102 -193 -209 105 105 106 105 107 107 105 106 105 106 106 106 107 106 107 109 108 108 109 111 110 114 116 117 118 120 121 122 123 129 130 130 131 131 130 130 132 132 131 133 134 135 137 137 137 137 137 139 139 141 146 151 153 154 156 155 156 156 157 157 158 157 159 159 161 162 165 167 169 169 170 171 173 175 173 173 174 175 0 0 0 0 0
    0 0 0 0 0 0 0 0 0 0 0 0 0 0 0 0 0 0 0 0 0 0 0 0 0 0 0 0 0 0 0 0 0 0 0 0 0 0 0 0 0 0 0 0 0 0 0 0 0 0 0 0 0 0 0 0 0 0 0 0 0 0 0 0 0 0 0 0 0 107 107 107 107 108 110 111 117 119 -193 118 119 114 109 103 103 100 99 99 96 96 97 99 103 104 103 106 102 102 102 102 102 103 103 103 99 101 101 102 104 105 105 105 105 106 107 106 106 104 103 102 101 100 100 -225 -225 -225 -225 -225 -225 -225 -225 -225 -225 -225 -225 -225 -225 -225 -225 -225 -225 -225 -225 -225 -225 -225 -225 -225 -225 -225 -225 -225 -225 -225 -225 -225 -225 -225 -225 -225 -225 -225 -225 -225 -225 -225 -225 -225 -225 -225 -225 -225 -225 -225 -225 -225 -225 -225 -225 -225 -225 -225 -225 -225 -225 -225 -225 -225 -225 -225 -225 -225 -225 -225 -225 -225 -225 -225 -225 -225 -225 -225 -225 -225 -225 -225 -225 -225 -225 -225 -225 -225 -225 -225 83 81 81 83 85 87 100 95 98 100 103 103 102 102 101 101 101 102 100 100 102 102 -193 105 105 107 106 108 107 105 106 106 106 106 107 107 107 108 110 109 108 109 111 109 113 115 117 118 119 121 121 123 128 129 130 131 130 130 130 132 132 131 133 134 135 137 137 137 137 136 137 138 140 143 148 151 153 155 152 154 156 156 156 156 156 157 157 160 161 165 166 -209 169 170 172 173 174 172 -193 -193 -193 0 0 0 0 0
    0 0 0 0 0 0 0 0 0 0 0 0 0 0 0 0 0 0 0 0 0 0 0 0 0 0 0 0 0 0 0 0 0 0 0 0 0 0 0 0 0 0 0 0 0 0 0 0 0 0 0 0 0 0 0 0 0 0 0 0 0 0 0 0 0 0 0 0 0 108 107 108 108 108 110 112 118 120 124 116 117 109 107 102 102 100 99 100 97 97 97 98 102 104 103 105 102 101 101 101 102 102 102 102 99 101 102 105 105 106 106 106 106 107 108 107 106 105 104 104 102 -225 -225 -225 -225 -225 -225 -225 -225 -225 -225 -225 -225 -225 -225 -225 -225 -225 -225 -225 -225 -225 -225 -225 -225 -225 -225 -225 -225 -225 -225 -225 -225 -225 -225 -225 -225 -225 -225 -225 -225 -225 -225 -225 -225 -225 -225 -225 -225 -225 -225 -225 -225 -225 -225 -225 -225 -225 -225 -225 -225 -225 -225 -225 -225 -225 -225 -225 -225 -225 -225 -225 -225 -225 -225 -225 -225 -225 -225 -225 -225 -225 -225 -225 -225 -225 -225 -225 -225 -225 -225 -225 -225 -225 -225 80 81 83 85 87 100 96 100 101 103 104 103 104 102 102 102 103 101 101 102 103 104 106 106 107 106 108 108 106 107 108 108 107 108 108 108 109 111 110 108 109 110 109 113 116 117 118 119 121 121 123 127 128 129 130 130 129 130 132 132 131 133 135 136 137 138 139 138 139 140 140 143 145 149 151 152 153 151 153 156 156 155 156 156 157 157 160 162 165 167 -209 170 171 173 174 175 173 -193 -193 -193 0 0 0 0 0
    0 0 0 0 0 0 0 0 0 0 0 0 0 0 0 0 0 0 0 0 0 0 0 0 0 0 0 0 0 0 0 0 0 0 0 0 0 0 0 0 0 0 0 0 0 0 0 0 0 0 0 0 0 0 0 0 0 0 0 0 0 0 0 0 0 0 0 0 0 109 108 109 108 108 110 111 115 119 -209 108 105 104 104 101 101 100 99 100 99 99 100 101 105 108 105 107 103 103 103 102 102 103 102 103 100 102 103 105 106 106 107 107 107 108 108 107 106 105 105 104 -225 -225 -225 -225 -225 -225 -225 -225 -225 -225 -225 -225 -225 -225 -225 -225 -225 -225 -225 -225 -225 -225 -225 -225 -225 -225 -225 -225 -225 -225 -225 -225 -225 -225 -225 -225 -225 -225 -225 -225 -225 -225 -225 -225 -225 -225 -225 -225 -225 -225 -225 -225 -225 -225 -225 -225 -225 -225 -225 -225 -225 -225 -225 -225 -225 -225 -225 -225 -225 -225 -225 -225 -225 -225 -225 -225 -225 -225 -225 -225 -225 -225 -225 -225 -225 -225 -225 -225 -225 -225 -225 -225 -225 -225 -225 84 84 86 87 88 101 99 102 104 105 106 105 105 102 103 102 103 102 102 103 104 105 107 109 109 108 109 110 108 108 109 109 109 109 109 110 111 112 112 109 110 110 110 114 115 116 117 119 121 121 123 126 127 127 128 128 128 128 131 131 130 133 136 136 137 139 139 139 139 142 141 144 145 149 151 152 153 151 152 155 155 155 157 156 157 159 161 163 -193 -193 -209 172 175 178 177 178 175 -193 175 175 0 0 0 0 0
    0 0 0 0 0 0 0 0 0 0 0 0 0 0 0 0 0 0 0 0 0 0 0 0 0 0 0 0 0 0 0 0 0 0 0 0 0 0 0 0 0 0 0 0 0 0 0 0 0 0 0 0 0 0 0 0 0 0 0 0 0 0 0 0 0 0 0 0 0 110 108 108 107 106 108 -193 106 -193 -193 103 102 102 102 99 99 98 98 99 97 97 99 100 104 109 105 108 104 104 104 103 103 103 103 103 102 104 105 106 107 108 108 109 108 108 107 106 106 105 104 -225 -225 -225 -225 -225 -225 -225 -225 -225 -225 -225 -225 -225 -225 -225 -225 -225 -225 -225 -225 -225 -225 -225 -225 -225 -225 -225 -225 -225 -225 -225 -225 -225 -225 -225 -225 -225 -225 -225 -225 -225 -225 -225 -225 -225 -225 -225 -225 -225 -225 -225 -225 -225 -225 -225 -225 -225 -225 -225 -225 -225 -225 -225 -225 -225 -225 -225 -225 -225 -225 -225 -225 -225 -225 -225 -225 -225 -225 -225 -225 -225 -225 -225 -225 -225 -225 -225 -225 -225 -225 -225 -225 -225 -225 -225 -225 -225 86 87 90 93 103 98 101 100 103 104 102 104 100 100 100 101 101 102 104 105 106 109 112 113 111 112 113 109 110 111 110 110 110 111 111 112 113 113 110 111 110 111 113 115 115 117 118 121 121 122 125 126 126 127 128 127 128 131 131 131 131 135 134 135 138 136 137 137 141 141 145 142 148 151 151 153 151 154 155 155 155 157 155 157 160 163 165 -209 -209 -209 175 -193 180 176 177 175 173 175 174 0 0 0 0 0
    0 0 0 0 0 0 0 0 0 0 0 0 0 0 0 0 0 0 0 0 0 0 0 0 0 0 0 0 0 0 0 0 0 0 0 0 0 0 0 0 0 0 0 0 0 0 0 0 0 0 0 0 0 0 0 0 0 0 0 0 0 0 0 0 0 0 0 0 0 109 107 107 106 -209 108 -193 -193 -193 101 102 101 101 101 99 99 99 98 97 96 94 96 98 103 114 104 112 108 110 106 105 104 104 104 105 105 107 107 108 109 110 110 111 110 108 108 107 106 106 -225 -225 -225 -225 -225 -225 -225 -225 -225 -225 -225 -225 -225 -225 -225 -225 -225 -225 -225 -225 -225 -225 -225 -225 -225 -225 -225 -225 -225 -225 -225 -225 -225 -225 -225 -225 -225 -225 -225 -225 -225 -225 -225 -225 -225 -225 -225 -225 -225 -225 -225 -225 -225 -225 -225 -225 -225 -225 -225 -225 -225 -225 -225 -225 -225 -225 -225 -225 -225 -225 -225 -225 -225 -225 -225 -225 -225 -225 -225 -225 -225 -225 -225 -225 -225 -225 -225 -225 -225 -225 -225 -225 -225 -225 -225 -225 -225 -225 -225 89 98 105 114 -209 91 97 102 99 97 102 94 94 93 98 97 100 103 106 107 110 114 114 112 113 114 112 112 113 112 112 112 113 114 114 115 114 112 112 111 112 114 115 116 117 118 121 122 122 124 126 126 127 128 128 130 133 133 133 133 136 136 136 138 135 136 136 139 140 144 141 148 152 153 155 153 155 157 156 156 158 154 156 159 164 165 -193 -209 -209 -209 -193 -193 175 175 -193 -193 175 175 0 0 0 0 0
    0 0 0 0 0 0 0 0 0 0 0 0 0 0 0 0 0 0 0 0 0 0 0 0 0 0 0 0 0 0 0 0 0 0 0 0 0 0 0 0 0 0 0 0 0 0 0 0 0 0 0 0 0 0 0 0 0 0 0 0 0 0 0 0 0 0 0 0 0 107 106 -193 -209 103 -209 -193 -193 -193 -193 -193 -193 100 101 99 100 99 98 98 98 97 100 102 105 113 114 117 116 117 112 109 107 107 107 108 107 109 109 111 112 113 113 113 111 110 109 109 109 -225 -225 -225 -225 -225 -225 -225 -225 -225 -225 -225 -225 -225 -225 -225 -225 -225 -225 -225 -225 -225 -225 -225 -225 -225 -225 -225 -225 -225 -225 -225 -225 -225 -225 -225 -225 -225 -225 -225 -225 -225 -225 -225 -225 -225 -225 -225 -225 -225 -225 -225 -225 -225 -225 -225 -225 -225 -225 -225 -225 -225 -225 -225 -225 -225 -225 -225 -225 -225 -225 -225 -225 -225 -225 -225 -225 -225 -225 -225 -225 -225 -225 -225 -225 -225 -225 -225 -225 -225 -225 -225 -225 -225 -225 -225 -225 -225 -225 -225 -225 -225 -225 -225 -225 -225 88 90 78 79 86 89 90 91 89 91 93 100 105 107 108 111 116 116 115 116 116 115 116 117 117 116 115 115 116 116 117 116 114 114 113 114 116 117 117 117 118 121 121 122 123 125 125 126 127 129 132 134 134 134 134 137 136 136 138 136 137 137 140 142 145 142 148 152 152 155 154 155 157 156 156 159 156 159 162 165 165 -209 -209 -209 -209 -193 -193 -193 -193 -193 -193 175 176 0 0 0 0 0
    0 0 0 0 0 0 0 0 0 0 0 0 0 0 0 0 0 0 0 0 0 0 0 0 0 0 0 0 0 0 0 0 0 0 0 0 0 0 0 0 0 0 0 0 0 0 0 0 0 0 0 0 0 0 0 0 0 0 0 0 0 0 0 0 0 0 0 0 0 106 106 108 108 -209 -193 100 -193 -193 -193 -193 -193 99 100 99 100 100 100 100 100 101 103 103 105 113 116 118 117 117 115 112 110 111 110 109 109 111 111 112 113 114 112 111 111 110 109 108 -225 -225 -225 -225 -225 -225 -225 -225 -225 -225 -225 -225 -225 -225 -225 -225 -225 -225 -225 -225 -225 -225 -225 -225 -225 -225 -225 -225 -225 -225 -225 -225 -225 -225 -225 -225 -225 -225 -225 -225 -225 -225 -225 -225 -225 -225 -225 -225 -225 -225 -225 -225 -225 -225 -225 -225 -225 -225 -225 -225 -225 -225 -225 -225 -225 -225 -225 -225 -225 -225 -225 -225 -225 -225 -225 -225 -225 -225 -225 -225 -225 -225 -225 -225 -225 -225 -225 -225 -225 -225 -225 -225 -225 -225 -225 -225 -225 -225 -225 -225 -225 -225 -225 -225 -225 -225 -225 -225 -225 75 81 85 86 89 88 89 91 100 106 109 111 114 117 117 117 118 118 116 117 119 118 118 117 117 117 118 119 118 116 116 115 117 119 118 117 117 119 121 121 122 122 123 124 126 128 129 132 134 135 135 135 137 136 136 137 136 137 -209 -193 141 143 141 145 149 150 153 151 152 154 153 153 158 156 160 162 165 165 -193 -209 -209 171 -193 -193 -193 -193 -193 -193 175 176 0 0 0 0 0
    0 0 0 0 0 0 0 0 0 0 0 0 0 0 0 0 0 0 0 0 0 0 0 0 0 0 0 0 0 0 0 0 0 0 0 0 0 0 0 0 0 0 0 0 0 0 0 0 0 0 0 0 0 0 0 0 0 0 0 0 0 0 0 0 0 0 0 0 0 108 106 -193 -209 -209 -209 -209 -209 -193 -209 -209 -209 -193 99 98 100 101 101 101 101 101 103 -209 106 117 119 120 119 118 117 116 115 116 115 114 113 114 114 114 115 115 113 112 111 110 108 -225 -225 -225 -225 -225 -225 -225 -225 -225 -225 -225 -225 -225 -225 -225 -225 -225 -225 -225 -225 -225 -225 -225 -225 -225 -225 -225 -225 -225 -225 -225 -225 -225 -225 -225 -225 -225 -225 -225 -225 -225 -225 -225 -225 -225 -225 -225 -225 -225 -225 -225 -225 -225 -225 -225 -225 -225 -225 -225 -225 -225 -225 -225 -225 -225 -225 -225 -225 -225 -225 -225 -225 -225 -225 -225 -225 -225 -225 -225 -225 -225 -225 -225 -225 -225 -225 -225 -225 -225 -225 -225 -225 -225 -225 -225 -225 -225 -225 -225 -225 -225 -225 -225 -225 -225 -225 -225 -225 -225 -225 -225 77 82 83 88 85 88 91 100 107 110 112 115 118 118 118 118 119 118 119 119 119 119 118 117 118 119 119 118 117 118 117 119 120 120 118 119 120 122 121 122 121 122 123 125 127 129 132 133 134 134 135 136 136 136 137 137 138 -209 -193 143 143 141 143 146 147 149 148 149 152 151 153 157 155 158 160 -193 162 -193 164 -193 -193 -193 -193 -193 174 -193 174 175 176 0 0 0 0 0
    0 0 0 0 0 0 0 0 0 0 0 0 0 0 0 0 0 0 0 0 0 0 0 0 0 0 0 0 0 0 0 0 0 0 0 0 0 0 0 0 0 0 0 0 0 0 0 0 0 0 0 0 0 0 0 0 0 0 0 0 0 0 0 0 0 0 0 0 0 -209 -209 -209 -209 -209 -209 -209 -209 -209 -209 -209 -193 -209 100 99 101 102 102 103 103 103 -193 -209 110 118 -209 121 120 119 118 118 119 119 119 118 117 117 117 117 115 115 114 113 112 110 -225 -225 -225 -225 -225 -225 -225 -225 -225 -225 -225 -225 -225 -225 -225 -225 -225 -225 -225 -225 -225 -225 -225 -225 -225 -225 -225 -225 -225 -225 -225 -225 -225 -225 -225 -225 -225 -225 -225 -225 -225 -225 -225 -225 -225 -225 -225 -225 -225 -225 -225 -225 -225 -225 -225 -225 -225 -225 -225 -225 -225 -225 -225 -225 -225 -225 -225 -225 -225 -225 -225 -225 -225 -225 -225 -225 -225 -225 -225 -225 -225 -225 -225 -225 -225 -225 -225 -225 -225 -225 -225 -225 -225 -225 -225 -225 -225 -225 -225 -225 -225 -225 -225 -225 -225 -225 -225 -225 -225 -225 -225 -225 -225 -225 87 88 87 89 91 100 106 109 112 115 118 118 119 119 119 118 119 120 120 120 119 118 118 119 120 119 119 120 119 121 122 122 121 121 122 123 121 123 122 122 123 124 126 128 131 132 133 133 134 136 136 136 137 137 138 -193 -193 142 142 141 142 144 146 148 148 150 152 152 154 160 157 160 161 164 -193 -209 164 -193 -193 -193 -193 172 173 173 173 174 174 0 0 0 0 0
    0 0 0 0 0 0 0 0 0 0 0 0 0 0 0 0 0 0 0 0 0 0 0 0 0 0 0 0 0 0 0 0 0 0 0 0 0 0 0 0 0 0 0 0 0 0 0 0 0 0 0 0 0 0 0 0 0 0 0 0 0 0 0 0 0 0 0 0 0 -193 -209 -209 -209 -209 -209 -193 -193 -209 -209 -209 -209 -209 101 -193 104 106 105 108 116 -209 119 -193 119 120 120 122 122 121 121 122 122 122 122 121 121 120 119 118 116 116 115 114 112 -225 -225 -225 -225 -225 -225 -225 -225 -225 -225 -225 -225 -225 -225 -225 -225 -225 -225 -225 -225 -225 -225 -225 -225 -225 -225 -225 -225 -225 -225 -225 -225 -225 -225 -225 -225 -225 -225 -225 -225 -225 -225 -225 -225 -225 -225 -225 -225 -225 -225 -225 -225 -225 -225 -225 -225 -225 -225 -225 -225 -225 -225 -225 -225 -225 -225 -225 -225 -225 -225 -225 -225 -225 -225 -225 -225 -225 -225 -225 -225 -225 -225 -225 -225 -225 -225 -225 -225 -225 -225 -225 -225 -225 -225 -225 -225 -225 -225 -225 -225 -225 -225 -225 -225 -225 -225 -225 -225 -225 -225 -225 -225 -225 -225 -225 -225 90 89 90 93 101 107 108 112 115 118 119 120 120 120 119 120 120 121 120 119 118 119 120 121 120 119 120 119 121 121 121 121 120 121 122 121 122 121 121 123 123 126 127 130 131 132 132 133 135 135 135 137 137 -209 -193 -193 142 142 141 142 144 145 147 148 149 151 151 154 159 157 160 162 165 -193 -209 166 -193 -193 -193 -193 172 173 173 172 174 174 0 0 0 0 0
    0 0 0 0 0 0 0 0 0 0 0 0 0 0 0 0 0 0 0 0 0 0 0 0 0 0 0 0 0 0 0 0 0 0 0 0 0 0 0 0 0 0 0 0 0 0 0 0 0 0 0 0 0 0 0 0 0 0 0 0 0 0 0 0 0 0 0 0 0 124 -209 -209 -209 -209 -209 226 -193 -193 -209 -209 -209 -209 -209 -209 -209 123 121 122 124 125 123 122 121 120 121 122 122 122 122 123 124 124 123 122 122 121 120 119 118 117 116 115 -225 -225 -225 -225 -225 -225 -225 -225 -225 -225 -225 -225 -225 -225 -225 -225 -225 -225 -225 -225 -225 -225 -225 -225 -225 -225 -225 -225 -225 -225 -225 -225 -225 -225 -225 -225 -225 -225 -225 -225 -225 -225 -225 -225 -225 -225 -225 -225 -225 -225 -225 -225 -225 -225 -225 -225 -225 -225 -225 -225 -225 -225 -225 -225 -225 -225 -225 -225 -225 -225 -225 -225 -225 -225 -225 -225 -225 -225 -225 -225 -225 -225 -225 -225 -225 -225 -225 -225 -225 -225 -225 -225 -225 -225 -225 -225 -225 -225 -225 -225 -225 -225 -225 -225 -225 -225 -225 -225 -225 -225 -225 -225 -225 -225 -225 -225 -225 -225 91 92 94 101 107 108 110 114 118 119 120 120 120 119 121 121 122 122 121 120 120 121 123 121 121 122 120 122 122 122 121 121 122 123 121 122 121 121 123 123 124 127 130 131 131 132 133 134 135 136 137 -193 138 -193 -193 142 142 143 144 149 148 150 151 151 152 152 154 157 155 158 162 -193 -209 -209 -209 -209 -209 -209 -193 172 172 172 172 173 174 0 0 0 0 0
    0 0 0 0 0 0 0 0 0 0 0 0 0 0 0 0 0 0 0 0 0 0 0 0 0 0 0 0 0 0 0 0 0 0 0 0 0 0 0 0 0 0 0 0 0 0 0 0 0 0 0 0 0 0 0 0 0 0 0 0 0 0 0 0 0 0 0 0 0 125 130 -209 -209 -209 -193 226 -193 -193 -209 -209 -209 196 194 -193 -193 122 122 124 125 127 125 124 123 122 123 123 123 123 123 123 124 124 124 123 123 122 121 121 120 118 117 -225 -225 -225 -225 -225 -225 -225 -225 -225 -225 -225 -225 -225 -225 -225 -225 -225 -225 -225 -225 -225 -225 -225 -225 -225 -225 -225 -225 -225 -225 -225 -225 -225 -225 -225 -225 -225 -225 -225 -225 -225 -225 -225 -225 -225 -225 -225 -225 -225 -225 -225 -225 -225 -225 -225 -225 -225 -225 -225 -225 -225 -225 -225 -225 -225 -225 -225 -225 -225 -225 -225 -225 -225 -225 -225 -225 -225 -225 -225 -225 -225 -225 -225 -225 -225 -225 -225 -225 -225 -225 -225 -225 -225 -225 -225 -225 -225 -225 -225 -225 -225 -225 -225 -225 -225 -225 -225 -225 -225 -225 -225 -225 -225 -225 -225 -225 -225 -225 -225 91 92 95 101 105 108 109 113 117 119 121 121 121 119 121 121 122 123 122 121 122 123 126 124 124 125 123 125 125 124 123 122 123 123 121 122 120 120 122 123 125 129 131 131 131 132 133 134 134 -193 -193 -193 -209 -209 -209 -193 143 145 146 151 150 152 152 152 153 153 154 157 155 157 160 -193 -193 -209 -209 -209 -209 -209 -193 171 171 171 171 172 172 0 0 0 0 0
    0 0 0 0 0 0 0 0 0 0 0 0 0 0 0 0 0 0 0 0 0 0 0 0 0 0 0 0 0 0 0 0 0 0 0 0 0 0 0 0 0 0 0 0 0 0 0 0 0 0 0 0 0 0 0 0 0 0 0 0 0 0 0 0 0 0 0 0 0 123 123 124 -193 -209 -209 -193 -209 -209 -209 -209 -193 -193 -193 -193 -193 122 122 123 125 127 126 124 123 123 125 124 125 124 124 124 126 125 125 124 124 122 122 121 121 119 -225 -225 -225 -225 -225 -225 -225 -225 -225 -225 -225 -225 -225 -225 -225 -225 -225 -225 -225 -225 -225 -225 -225 -225 -225 -225 -225 -225 -225 -225 -225 -225 -225 -225 -225 -225 -225 -225 -225 -225 -225 -225 -225 -225 -225 -225 -225 -225 -225 -225 -225 -225 -225 -225 -225 -225 -225 -225 -225 -225 -225 -225 -225 -225 -225 -225 -225 -225 -225 -225 -225 -225 -225 -225 -225 -225 -225 -225 -225 -225 -225 -225 -225 -225 -225 -225 -225 -225 -225 -225 -225 -225 -225 -225 -225 -225 -225 -225 -225 -225 -225 -225 -225 -225 -225 -225 -225 -225 -225 -225 -225 -225 -225 -225 -225 -225 -225 -225 -225 -225 -225 92 94 100 104 106 107 108 113 117 119 119 119 118 120 121 122 123 122 122 123 125 130 129 130 131 126 130 129 128 127 124 125 125 124 126 122 122 124 124 125 130 131 130 130 132 133 134 135 136 -209 -193 -209 -209 -209 142 141 143 145 150 149 151 152 152 153 153 153 156 155 158 160 162 164 166 166 -193 -209 -209 -193 171 171 171 171 172 172 0 0 0 0 0
    0 0 0 0 0 0 0 0 0 0 0 0 0 0 0 0 0 0 0 0 0 0 0 0 0 0 0 0 0 0 0 0 0 0 0 0 0 0 0 0 0 0 0 0 0 0 0 0 0 0 0 0 0 0 0 0 0 0 0 0 0 0 0 0 0 0 0 0 0 122 120 122 -209 -209 -193 -209 -209 -209 -193 -193 -193 -193 -193 -193 122 122 122 123 125 128 127 124 124 124 127 125 125 125 124 125 126 126 126 125 124 123 123 123 122 -225 -225 -225 -225 -225 -225 -225 -225 -225 -225 -225 -225 -225 -225 -225 -225 -225 -225 -225 -225 -225 -225 -225 -225 -225 -225 -225 -225 -225 -225 -225 -225 -225 -225 -225 -225 -225 -225 -225 -225 -225 -225 -225 -225 -225 -225 -225 -225 -225 -225 -225 -225 -225 -225 -225 -225 -225 -225 -225 -225 -225 -225 -225 -225 -225 -225 -225 -225 -225 -225 -225 -225 -225 -225 -225 -225 -225 -225 -225 -225 -225 -225 -225 -225 -225 -225 -225 -225 -225 -225 -225 -225 -225 -225 -225 -225 -225 -225 -225 -225 -225 -225 -225 -225 -225 -225 -225 -225 -225 -225 -225 -225 -225 -225 -225 -225 -225 -225 -225 -225 -225 -225 -225 -225 97 103 102 105 105 109 114 120 120 121 119 120 121 123 124 124 124 125 127 131 132 134 134 132 134 133 132 132 128 129 128 126 128 124 123 125 123 124 128 130 128 129 131 132 134 135 136 -209 -193 -193 140 -193 142 -193 -193 -193 -193 150 151 152 152 153 153 153 156 156 159 161 163 165 166 165 167 -209 -209 -193 172 172 172 172 173 173 0 0 0 0 0
    0 0 0 0 0 0 0 0 0 0 0 0 0 0 0 0 0 0 0 0 0 0 0 0 0 0 0 0 0 0 0 0 0 0 0 0 0 0 0 0 0 0 0 0 0 0 0 0 0 0 0 0 0 0 0 0 0 0 0 0 0 0 0 0 0 0 0 0 0 123 121 124 -209 -209 -209 -209 -209 -209 -193 -193 -193 -193 -193 -193 123 123 123 124 125 128 127 125 125 126 132 128 128 127 126 127 128 129 127 126 126 126 127 127 127 -225 -225 -225 -225 -225 -225 -209 -193 219 223 225 227 -193 -193 -193 -193 134 131 132 132 -193 413 -193 -193 -225 -225 -225 -225 -225 -225 -225 -225 -225 -225 -225 -225 -225 -225 -225 -225 -225 -225 -225 -225 -225 -225 -225 -225 -225 -225 -225 -225 -225 -225 -225 -225 -225 -225 -225 -225 -225 -225 -225 -225 -225 -225 -225 -225 -225 -225 -225 -225 -225 -225 -225 -225 -225 -225 -225 -225 -225 -225 -225 -225 -225 -225 -225 -225 -225 -225 -225 -225 -225 -225 -225 -225 -225 -225 -225 -225 -225 -225 -225 -225 -225 -225 -225 -225 -225 -225 -225 -225 -225 -225 -225 -225 -225 -225 -225 -225 -225 -225 -225 -225 -225 102 101 104 104 109 112 118 119 121 120 121 121 124 127 127 128 131 132 133 135 135 136 134 135 134 134 133 131 133 133 131 133 130 130 129 126 128 130 130 130 130 131 132 134 136 137 -209 -209 -209 140 141 142 -193 -209 -193 -209 150 150 151 150 152 152 152 154 154 157 160 162 165 167 166 168 168 170 172 173 172 172 172 173 173 0 0 0 0 0
    0 0 0 0 0 0 0 0 0 0 0 0 0 0 0 0 0 0 0 0 0 0 0 0 0 0 0 0 0 0 0 0 0 0 0 0 0 0 0 0 0 0 0 0 0 0 0 0 0 0 0 0 0 0 0 0 0 0 0 0 0 0 0 0 0 0 0 0 0 123 122 -193 -209 -209 -193 -209 -209 -209 -193 -193 -193 -209 -193 -193 123 123 123 124 125 128 127 126 127 129 134 133 132 131 129 130 132 130 129 131 131 132 132 132 131 131 -193 130 -193 -193 -193 212 -193 -193 -193 -193 -193 -193 -193 -193 133 134 132 133 133 133 -193 132 131 -193 -193 0 0 0 -193 -225 -225 -225 -225 -225 -225 -225 -225 -225 -225 -225 -225 -225 -225 -225 -225 -225 -225 -225 -225 -225 -225 -225 -225 -225 -225 -225 -225 -225 -225 -225 -225 -225 -225 -225 -225 -225 -225 -225 -225 -225 -225 -225 -225 -225 -225 -225 -225 -225 -225 -225 -225 -225 -225 -225 -225 -225 -225 -225 -225 -225 -225 -225 -225 -225 -225 -225 -225 -225 -225 -225 -225 -225 -225 -225 -225 -225 -225 -225 -225 -225 -225 -225 -225 -225 -225 -225 -225 -225 -225 -225 -225 -225 -225 -225 -225 98 99 102 105 108 109 116 120 119 121 121 125 130 131 134 136 135 136 138 137 138 137 136 136 135 136 134 135 135 135 136 134 134 134 131 133 134 133 134 134 135 135 137 138 139 139 140 139 141 143 144 144 -193 -193 -193 -193 151 152 151 153 152 152 153 153 155 159 161 166 170 167 169 169 171 173 172 172 172 171 172 172 0 0 0 0 0
    0 0 0 0 0 0 0 0 0 0 0 0 0 0 0 0 0 0 0 0 0 0 0 0 0 0 0 0 0 0 0 0 0 0 0 0 0 0 0 0 0 0 0 0 0 0 0 0 0 0 0 0 0 0 0 0 0 0 0 0 0 0 0 0 0 0 0 0 0 124 123 -209 -209 -209 -209 -209 -193 123 -193 -193 121 -193 123 123 123 123 124 126 126 129 127 128 131 133 136 137 135 134 133 133 134 131 131 133 133 133 134 134 133 134 135 132 131 131 132 133 133 133 132 134 137 137 138 135 133 134 132 133 133 133 133 132 132 -193 -209 -209 -193 -193 -193 -193 0 -193 0 -193 122 -225 -225 -225 -225 -225 -225 -225 -225 -225 -225 -225 -225 -225 -225 -225 -225 -225 -225 -225 -225 -225 -225 -225 -225 -225 -225 -225 -225 -225 -225 -225 -225 -225 -225 -225 -225 -225 -225 -225 -225 -225 -225 -225 -225 -225 -225 -225 -225 -225 -225 -225 -225 -225 -225 -225 -225 -225 -225 -225 -225 -225 -225 -225 -225 -225 -225 -225 -225 -225 -225 -225 -225 -225 -225 -225 -225 -225 -225 -225 -225 -225 -225 -225 -225 -225 -225 -225 -225 -225 -225 -225 100 102 106 107 107 112 119 118 119 121 124 132 134 137 139 138 140 141 139 139 139 138 138 137 138 136 137 138 138 138 137 137 136 133 135 135 134 137 137 137 137 139 140 141 141 142 141 145 147 147 148 -193 -209 -193 152 152 153 151 153 153 151 153 153 155 159 162 166 170 168 170 169 171 172 172 171 172 171 172 172 0 0 0 0 0
    0 0 0 0 0 0 0 0 0 0 0 0 0 0 0 0 0 0 0 0 0 0 0 0 0 0 0 0 0 0 0 0 0 0 0 0 0 0 0 0 0 0 0 0 0 0 0 0 0 0 0 0 0 0 0 0 0 0 0 0 0 0 0 0 0 0 0 0 0 128 -209 -209 -209 -193 -193 -209 129 125 123 124 122 124 124 123 124 123 124 126 127 130 129 131 134 135 137 138 136 136 135 134 134 131 132 133 132 133 133 134 133 134 134 131 132 132 132 132 133 134 132 135 138 138 138 135 133 134 132 133 133 133 133 132 132 -193 -193 -193 -209 138 140 140 139 133 135 124 124 124 125 125 124 123 124 -225 -225 -225 -225 -225 -225 -225 -225 -225 -225 -225 -225 -225 -225 -225 -225 -225 -225 -225 -225 -225 -225 -225 -225 -225 -225 -225 -225 -225 -225 -225 -225 -225 -225 -225 -225 -225 -225 -225 -225 -225 -225 -225 -225 -225 -225 -225 -225 -225 -225 -225 -225 -225 -225 -225 -225 -225 -225 -225 -225 -225 -225 -225 -225 -225 -225 -225 -225 -225 -225 -225 -225 -225 -225 -225 -225 -225 -225 -225 -225 -225 -225 -225 -225 -225 -225 103 105 105 106 113 118 117 119 121 127 134 136 137 140 139 141 142 141 141 140 140 141 139 140 138 139 140 141 140 140 140 139 137 138 138 137 139 138 139 139 141 142 144 142 144 143 147 148 148 148 151 -193 153 152 152 153 149 152 152 150 151 151 154 158 159 164 169 168 171 171 173 175 173 172 172 172 173 173 0 0 0 0 0</data></disparity>
</opencv_storage>
