<?xml version="1.0"?>
<opencv_storage>
<gps_time_stamp>306386</gps_time_stamp>
<gps_x>-1.2416685104370117e+001</gps_x>
<gps_y>1.0967664718627930e+001</gps_y>
<gps_z>-2.0222287178039551e+000</gps_z>
<image_time_stamp>297260</image_time_stamp>
<disparity type_id="opencv-matrix">
  <rows>89</rows>
  <cols>320</cols>
  <dt>s</dt>
  <data>
    0 0 0 0 0 0 0 0 0 0 0 0 0 0 0 0 0 0 0 0 0 0 0 0 0 0 0 0 0 0 0 0 0 0 0 0 0 0 0 0 0 0 0 0 0 0 0 0 0 0 0 0 0 0 0 0 0 0 0 0 0 0 0 0 0 0 0 0 0 52 53 53 52 54 53 54 53 51 50 48 47 46 45 44 42 41 40 44 40 44 43 43 43 42 42 43 41 43 37 36 29 28 30 31 31 29 28 28 31 31 29 31 29 30 29 29 29 29 28 29 27 27 26 23 22 22 22 20 19 20 18 13 18 18 18 -225 -225 -225 -225 -225 -225 -225 -225 -225 -225 -225 -225 -225 -225 -225 -225 -225 -225 -225 -225 -225 -225 -225 -225 -225 -225 -225 -225 -225 -225 -225 -225 -225 -225 -225 -225 -225 -225 -225 -225 -225 -225 -225 -225 -225 -225 -225 -225 -225 36 34 34 34 36 37 38 38 39 44 44 47 47 46 46 46 49 48 46 47 45 44 52 56 56 59 62 62 63 66 64 65 62 65 63 63 67 67 66 70 70 72 73 80 84 84 84 87 87 87 88 88 89 89 89 90 90 90 97 95 95 93 101 101 102 102 103 -193 105 106 107 108 109 115 116 116 116 117 118 119 119 120 121 122 122 124 124 125 127 127 129 129 133 135 135 139 140 141 142 145 -193 145 146 148 149 151 152 153 154 154 156 156 157 159 160 162 -193 -193 -193 -193 -193 -193 -193 170 171 173 -193 -193 -193 -193 -193 0 0 0 0 0
    0 0 0 0 0 0 0 0 0 0 0 0 0 0 0 0 0 0 0 0 0 0 0 0 0 0 0 0 0 0 0 0 0 0 0 0 0 0 0 0 0 0 0 0 0 0 0 0 0 0 0 0 0 0 0 0 0 0 0 0 0 0 0 0 0 0 0 0 0 53 53 54 53 54 54 55 53 52 50 49 47 46 45 44 42 42 40 44 40 44 43 43 43 42 42 43 41 43 36 36 29 28 30 31 31 30 28 28 28 30 29 31 29 30 30 29 29 29 29 29 27 27 26 22 22 22 22 20 19 19 18 13 18 18 18 -225 -225 -225 -225 -225 -225 -225 -225 -225 -225 -225 -225 -225 -225 -225 -225 -225 -225 -225 -225 -225 -225 -225 -225 -225 -225 -225 -225 -225 -225 -225 -225 -225 -225 -225 -225 -225 -225 -225 -225 -225 -225 -225 -225 -225 -225 -225 -225 -225 36 34 34 34 36 37 39 38 39 45 44 47 47 46 46 46 49 48 46 47 45 44 51 56 56 59 63 63 64 66 65 65 63 65 63 64 67 67 65 69 70 73 73 81 84 85 85 88 89 89 89 89 90 89 90 91 91 90 96 94 94 93 101 100 101 101 102 -193 105 106 107 107 110 116 116 116 116 116 118 119 119 119 121 121 122 124 124 125 127 127 129 130 135 136 137 140 140 142 142 145 -193 145 146 148 149 152 153 154 155 155 157 157 158 161 160 163 -193 -193 -193 -193 -193 -193 -193 171 171 172 -193 -193 -193 -193 -193 0 0 0 0 0
    0 0 0 0 0 0 0 0 0 0 0 0 0 0 0 0 0 0 0 0 0 0 0 0 0 0 0 0 0 0 0 0 0 0 0 0 0 0 0 0 0 0 0 0 0 0 0 0 0 0 0 0 0 0 0 0 0 0 0 0 0 0 0 0 0 0 0 0 0 53 54 55 54 56 56 -193 54 53 52 50 47 46 44 44 42 42 40 44 40 44 43 43 42 42 42 42 41 43 36 36 29 27 29 30 30 30 29 28 28 31 30 31 29 31 30 29 29 30 29 29 28 27 26 22 22 21 22 20 20 19 18 13 18 18 18 -225 -225 -225 -225 -225 -225 -225 -225 -225 -225 -225 -225 -225 -225 -225 -225 -225 -225 -225 -225 -225 -225 -225 -225 -225 -225 -225 -225 -225 -225 -225 -225 -225 -225 -225 -225 -225 -225 -225 -225 -225 -225 -225 -225 -225 -225 -225 -225 -225 34 33 33 34 36 37 38 38 40 47 45 48 48 47 46 46 50 48 46 47 45 45 51 56 56 59 63 64 64 66 65 65 62 65 63 64 67 67 65 69 70 72 72 80 85 85 85 88 91 90 90 90 90 90 91 92 92 90 97 95 95 94 101 100 100 -193 -193 321 -193 105 106 106 110 116 116 115 116 116 117 119 119 119 121 121 122 123 124 125 127 127 130 131 137 -193 138 140 140 142 142 146 -193 145 147 149 150 152 154 155 156 156 158 158 159 162 161 164 -193 -193 -193 -193 -193 -193 -193 171 172 -193 -193 -193 -177 -177 -193 0 0 0 0 0
    0 0 0 0 0 0 0 0 0 0 0 0 0 0 0 0 0 0 0 0 0 0 0 0 0 0 0 0 0 0 0 0 0 0 0 0 0 0 0 0 0 0 0 0 0 0 0 0 0 0 0 0 0 0 0 0 0 0 0 0 0 0 0 0 0 0 0 0 0 54 54 55 55 57 58 58 -193 55 53 52 46 45 43 43 41 41 40 44 40 45 43 43 43 42 42 42 41 43 36 36 29 27 29 30 30 30 29 29 28 30 30 30 29 31 30 29 29 29 29 29 28 28 26 22 22 21 22 20 20 19 18 13 18 18 18 -225 -225 -225 -225 -225 -225 -225 -225 -225 -225 -225 -225 -225 -225 -225 -225 -225 -225 -225 -225 -225 -225 -225 -225 -225 -225 -225 -225 -225 -225 -225 -225 -225 -225 -225 -225 -225 -225 -225 -225 -225 -225 -225 -225 -225 -225 -225 -225 36 34 34 33 34 36 37 38 38 40 47 45 48 47 47 46 47 50 48 46 47 45 45 51 56 56 59 63 65 64 66 65 65 62 65 63 64 66 67 64 69 70 72 73 79 85 85 85 87 92 90 91 91 -177 91 93 93 93 90 98 96 96 96 102 -193 -193 -193 320 319 321 -193 105 106 110 115 115 115 116 116 117 118 119 119 121 121 121 123 124 125 127 128 131 132 137 -193 138 140 141 143 143 146 146 146 147 149 151 153 154 155 156 156 158 158 159 162 161 164 -193 -193 -193 -193 -193 -193 -193 172 -193 -193 254 256 255 257 -209 0 0 0 0 0
    0 0 0 0 0 0 0 0 0 0 0 0 0 0 0 0 0 0 0 0 0 0 0 0 0 0 0 0 0 0 0 0 0 0 0 0 0 0 0 0 0 0 0 0 0 0 0 0 0 0 0 0 0 0 0 0 0 0 0 0 0 0 0 0 0 0 0 0 0 53 54 55 55 57 58 58 -209 -193 -193 -209 -193 44 42 43 41 42 41 45 41 45 43 43 43 42 42 42 41 43 36 36 29 27 29 30 31 30 30 30 29 29 30 29 28 31 30 29 29 29 29 28 29 29 26 22 22 21 22 20 19 18 18 12 17 17 17 -225 -225 -225 -225 -225 -225 -225 -225 -225 -225 -225 -225 -225 -225 -225 -225 -225 -225 -225 -225 -225 -225 -225 -225 -225 -225 -225 -225 -225 -225 -225 -225 -225 -225 -225 -225 -225 -225 -225 -225 -225 -225 -225 -225 -225 -225 -225 -225 35 33 33 33 33 36 37 38 38 40 48 45 48 47 47 46 47 50 48 46 48 45 45 50 56 56 60 63 65 64 66 64 65 62 65 63 63 65 66 64 69 69 71 72 78 85 84 84 87 94 91 -177 -177 -177 92 94 94 94 90 98 97 97 98 -193 -193 319 319 320 319 -177 -193 -193 105 110 114 115 115 115 116 117 117 117 118 119 120 121 123 124 125 128 129 131 133 136 -193 138 140 140 142 143 146 146 146 147 149 151 153 154 155 156 156 157 157 159 162 161 -193 -193 -193 0 -193 0 -193 0 -193 -193 -193 255 256 256 -209 -209 0 0 0 0 0
    0 0 0 0 0 0 0 0 0 0 0 0 0 0 0 0 0 0 0 0 0 0 0 0 0 0 0 0 0 0 0 0 0 0 0 0 0 0 0 0 0 0 0 0 0 0 0 0 0 0 0 0 0 0 0 0 0 0 0 0 0 0 0 0 0 0 0 0 0 53 54 54 55 56 57 57 -193 55 53 -193 -193 44 42 43 42 42 41 45 41 45 43 43 43 42 42 42 41 42 35 36 28 28 30 32 31 32 30 30 29 29 30 28 27 31 30 29 29 29 29 28 30 29 26 21 21 21 22 19 19 18 17 12 17 17 17 -225 -225 -225 -225 -225 -225 -225 -225 -225 -225 -225 -225 -225 -225 -225 -225 -225 -225 -225 -225 -225 -225 -225 -225 -225 -225 -225 -225 -225 -225 -225 -225 -225 -225 -225 -225 -225 -225 -225 -225 -225 -225 -225 -225 -225 -225 -225 -225 34 32 33 32 33 35 37 37 38 40 47 44 48 47 47 46 47 50 48 46 48 45 47 51 57 57 61 63 65 64 65 64 65 62 65 62 63 63 66 64 68 68 71 72 79 86 84 84 87 94 92 -177 -177 -177 92 94 95 94 90 97 97 97 99 -193 319 319 320 320 319 -177 -177 -193 105 110 114 115 115 115 116 116 117 117 118 119 120 121 123 124 127 129 130 132 133 -193 137 139 140 140 142 142 146 146 145 147 148 151 153 154 155 156 156 157 157 159 162 161 164 -193 -193 0 -193 0 -193 0 -193 -193 -209 255 -209 -209 -209 -209 0 0 0 0 0
    0 0 0 0 0 0 0 0 0 0 0 0 0 0 0 0 0 0 0 0 0 0 0 0 0 0 0 0 0 0 0 0 0 0 0 0 0 0 0 0 0 0 0 0 0 0 0 0 0 0 0 0 0 0 0 0 0 0 0 0 0 0 0 0 0 0 0 0 0 53 54 53 54 55 56 56 55 54 53 52 47 46 44 45 43 43 43 46 42 45 43 43 42 42 42 42 40 42 35 37 28 28 29 32 31 32 30 31 28 29 29 27 27 31 30 29 29 29 28 29 30 30 26 21 21 21 22 19 19 17 16 12 17 17 17 -225 -225 -225 -225 -225 -225 -225 -225 -225 -225 -225 -225 -225 -225 -225 -225 -225 -225 -225 -225 -225 -225 -225 -225 -225 -225 -225 -225 -225 -225 -225 -225 -225 -225 -225 -225 -225 -225 -225 -225 -225 -225 -225 -225 -225 -225 -225 35 33 32 34 32 33 35 36 37 38 40 47 44 48 46 47 46 46 49 47 46 48 46 48 51 57 57 61 63 65 64 65 64 65 63 65 62 63 63 66 64 68 68 71 72 79 85 84 84 87 95 92 92 -177 -177 92 94 94 94 89 97 97 97 99 -177 -177 319 320 320 319 -177 -177 106 106 110 114 115 114 115 115 115 116 116 117 119 121 121 124 125 128 130 131 133 134 -209 138 139 140 140 142 142 145 145 145 147 148 151 153 154 155 156 156 157 158 158 161 161 163 -193 -193 -193 -209 -193 -193 -193 -209 -209 -209 -209 -209 -209 -209 -209 0 0 0 0 0
    0 0 0 0 0 0 0 0 0 0 0 0 0 0 0 0 0 0 0 0 0 0 0 0 0 0 0 0 0 0 0 0 0 0 0 0 0 0 0 0 0 0 0 0 0 0 0 0 0 0 0 0 0 0 0 0 0 0 0 0 0 0 0 0 0 0 0 0 0 52 52 52 52 54 55 55 55 54 54 53 49 47 45 47 44 45 44 47 42 45 43 43 42 42 42 41 40 42 35 37 27 26 28 30 30 33 29 30 28 30 29 28 27 30 29 29 29 29 28 29 30 30 25 20 20 20 21 18 18 16 16 12 16 16 16 -225 -225 -225 -225 -225 -225 -225 -225 -225 -225 -225 -225 -225 -225 -225 -225 -225 -225 -225 -225 -225 -225 -225 -225 -225 -225 -225 -225 -225 -225 -225 -225 -225 -225 -225 -225 -225 -225 -225 -225 -225 -225 -225 -225 -225 -225 -225 35 32 32 33 32 34 34 35 36 37 40 46 43 46 45 47 46 46 49 47 46 48 46 49 51 57 57 60 62 65 64 65 64 65 63 65 62 63 62 66 65 67 68 71 74 81 85 84 84 87 94 92 91 -177 92 92 93 94 94 89 96 97 97 100 -193 -193 318 319 319 -177 -177 -193 106 106 111 114 115 114 115 115 115 116 116 117 120 121 122 125 126 129 131 131 133 135 -209 -193 139 140 140 142 142 145 145 144 147 149 151 153 155 155 156 156 157 158 158 161 160 162 -193 -193 -193 -193 -209 -209 -209 -209 -209 -209 -209 -209 -209 -209 -209 0 0 0 0 0
    0 0 0 0 0 0 0 0 0 0 0 0 0 0 0 0 0 0 0 0 0 0 0 0 0 0 0 0 0 0 0 0 0 0 0 0 0 0 0 0 0 0 0 0 0 0 0 0 0 0 0 0 0 0 0 0 0 0 0 0 0 0 0 0 0 0 0 0 0 50 50 50 50 52 53 54 53 53 53 52 49 48 46 48 45 45 45 47 42 45 43 43 42 42 41 41 40 42 35 37 27 26 28 30 30 35 29 31 28 31 29 28 28 30 29 29 28 29 27 28 28 29 24 19 19 19 21 18 18 16 16 12 16 16 16 -225 -225 -225 -225 -225 -225 -225 -225 -225 -225 -225 -225 -225 -225 -225 -225 -225 -225 -225 -225 -225 -225 -225 -225 -225 -225 -225 -225 -225 -225 -225 -225 -225 -225 -225 -225 -225 -225 -225 -225 -225 -225 -225 -225 -225 -225 -225 34 32 32 33 32 35 34 35 36 39 40 44 42 45 44 46 45 45 48 47 46 48 47 50 51 57 57 60 61 64 63 64 64 65 63 65 62 64 62 66 66 66 67 71 73 81 85 84 84 87 94 91 91 91 91 91 93 93 93 89 96 97 97 101 -193 -193 -177 -177 -177 -177 -193 106 107 107 112 114 114 113 114 114 114 116 116 117 121 122 123 126 127 129 131 131 133 135 -193 -193 138 139 140 141 141 144 144 144 148 -193 -193 -193 -193 -193 -193 157 158 159 158 161 160 162 -193 -193 -193 -193 -209 -209 -209 -209 -209 -209 -209 -209 -209 -209 -209 0 0 0 0 0
    0 0 0 0 0 0 0 0 0 0 0 0 0 0 0 0 0 0 0 0 0 0 0 0 0 0 0 0 0 0 0 0 0 0 0 0 0 0 0 0 0 0 0 0 0 0 0 0 0 0 0 0 0 0 0 0 0 0 0 0 0 0 0 0 0 0 0 0 0 50 50 49 49 50 52 53 52 52 52 51 49 48 46 48 45 45 45 46 42 45 42 43 42 42 41 41 40 42 35 38 27 27 28 31 32 36 29 31 28 31 29 29 28 30 29 29 28 29 27 28 28 28 23 19 19 19 21 18 18 16 15 13 16 16 16 -225 -225 -225 -225 -225 -225 -225 -225 -225 -225 -225 -225 -225 -225 -225 -225 -225 -225 -225 -225 -225 -225 -225 -225 -225 -225 -225 -225 -225 -225 -225 17 14 14 14 14 13 -225 -225 -225 -225 -225 -225 -225 -225 -225 -225 32 31 31 32 32 35 34 36 36 39 39 42 40 44 43 46 45 45 48 47 46 48 48 51 51 57 57 60 61 64 63 63 64 65 62 65 62 64 61 66 66 65 67 70 73 80 85 84 84 86 93 91 90 91 91 91 92 92 93 88 95 98 98 102 -193 -193 -177 -177 -193 -193 106 107 108 108 112 114 113 113 113 114 115 117 116 119 122 123 125 128 127 130 131 131 133 134 -193 -193 137 138 -193 141 141 143 143 143 -193 -177 -177 -193 -193 -193 -193 -193 -193 159 158 160 160 161 -193 165 -193 -193 -193 -209 -209 -209 -209 -209 -209 -209 -209 -209 -209 0 0 0 0 0
    0 0 0 0 0 0 0 0 0 0 0 0 0 0 0 0 0 0 0 0 0 0 0 0 0 0 0 0 0 0 0 0 0 0 0 0 0 0 0 0 0 0 0 0 0 0 0 0 0 0 0 0 0 0 0 0 0 0 0 0 0 0 0 0 0 0 0 0 0 49 50 49 49 49 52 53 52 51 51 51 49 48 47 49 45 45 45 46 42 44 42 42 42 42 41 41 40 42 36 39 28 27 29 32 34 37 29 31 27 31 29 29 28 29 29 29 28 29 27 28 28 28 24 19 19 19 21 18 18 16 15 13 16 16 16 -225 -225 -225 -225 -225 -225 -225 -225 -225 -225 -225 -225 -225 -225 -225 -225 -225 -225 -225 -225 -225 -225 -225 -225 -225 -225 -225 -225 -225 21 15 17 15 15 15 14 14 15 -225 -225 -225 -225 -225 -225 -225 -225 35 31 31 31 32 33 36 34 36 36 39 38 40 40 43 42 45 44 45 47 47 46 48 48 51 51 57 57 60 61 64 63 63 64 65 62 65 61 65 60 66 67 65 67 71 74 82 85 84 84 86 93 90 90 90 90 90 91 91 92 87 94 100 100 103 -177 -193 -193 -193 106 107 107 108 108 109 112 113 112 113 113 114 114 116 116 120 122 123 126 129 128 130 131 132 133 135 -209 -193 137 138 -209 140 141 143 -193 143 -193 18 18 -193 -193 -193 -193 -193 -193 -209 -193 160 -193 161 164 164 -193 -193 -193 -193 -209 -209 -209 -209 -209 -209 -193 -209 -209 0 0 0 0 0
    0 0 0 0 0 0 0 0 0 0 0 0 0 0 0 0 0 0 0 0 0 0 0 0 0 0 0 0 0 0 0 0 0 0 0 0 0 0 0 0 0 0 0 0 0 0 0 0 0 0 0 0 0 0 0 0 0 0 0 0 0 0 0 0 0 0 0 0 0 50 50 50 49 47 50 51 -193 50 49 50 49 48 48 49 45 45 45 47 42 45 42 42 42 42 42 41 40 42 36 39 28 29 31 36 36 39 29 31 28 31 28 30 29 29 29 29 29 29 28 29 28 28 26 20 20 20 21 18 18 16 15 13 16 16 16 -225 -225 -225 -225 -225 -225 -225 -225 -225 -225 -225 -225 -225 -225 -225 -225 -225 -225 -225 -225 -225 -225 -225 -225 -225 -225 -225 -225 -225 19 12 15 13 13 13 12 12 13 11 -225 -225 -225 -225 -225 -225 -225 34 31 31 31 32 34 37 35 37 36 39 38 40 39 42 42 45 44 45 46 46 46 48 48 51 51 57 57 60 61 64 63 63 64 65 62 65 61 65 60 65 66 63 64 69 75 84 86 84 85 86 92 89 89 89 89 89 90 90 90 85 93 -193 101 -193 -177 106 106 108 107 108 107 109 108 109 112 113 112 113 112 114 114 117 116 121 123 124 126 129 128 130 131 132 133 135 -209 136 137 138 -193 140 141 143 -193 143 -193 -193 19 18 -193 16 -193 -193 -193 -209 -193 -209 -193 160 163 164 -193 -193 -193 -193 -209 -209 -209 -209 -209 -209 -177 -209 -209 0 0 0 0 0
    0 0 0 0 0 0 0 0 0 0 0 0 0 0 0 0 0 0 0 0 0 0 0 0 0 0 0 0 0 0 0 0 0 0 0 0 0 0 0 0 0 0 0 0 0 0 0 0 0 0 0 0 0 0 0 0 0 0 0 0 0 0 0 0 0 0 0 0 0 50 50 50 49 47 49 49 -193 48 47 48 47 48 47 48 45 45 45 46 42 44 42 42 42 42 42 41 40 42 36 38 28 30 31 35 34 39 29 32 28 31 28 30 29 29 30 29 29 29 28 29 27 28 26 20 20 20 21 18 18 17 16 13 16 16 16 -225 -225 -225 -225 -225 -225 -225 -225 -225 -225 -225 -225 -225 -225 -225 -225 -225 -225 -225 -225 -225 -225 -225 -225 -225 -225 -225 -225 15 16 11 14 12 12 12 11 11 12 11 -225 -225 -225 -225 -225 -225 -225 32 31 31 31 32 35 37 35 36 37 39 37 39 39 42 41 44 44 44 46 46 47 48 48 51 52 57 58 60 61 64 62 63 64 65 62 65 61 65 60 65 66 63 63 67 74 85 87 85 86 87 92 88 88 88 88 87 88 -193 -193 84 92 -193 100 -193 -177 106 107 109 107 108 108 109 109 109 112 113 111 113 112 114 114 118 116 121 124 124 126 129 128 130 131 132 133 134 136 136 137 138 -193 140 141 143 -193 -193 -193 20 20 19 20 16 -193 -193 -193 -209 -193 -193 -193 -177 -177 164 -193 -193 -193 -193 -193 -209 -209 -209 -209 -209 -177 -209 -209 0 0 0 0 0
    0 0 0 0 0 0 0 0 0 0 0 0 0 0 0 0 0 0 0 0 0 0 0 0 0 0 0 0 0 0 0 0 0 0 0 0 0 0 0 0 0 0 0 0 0 0 0 0 0 0 0 0 0 0 0 0 0 0 0 0 0 0 0 0 0 0 0 0 0 51 51 51 50 47 50 49 47 47 46 47 46 47 46 48 44 45 45 46 42 44 43 42 42 42 41 41 40 42 36 37 28 31 31 31 31 37 29 32 27 31 28 31 30 29 30 29 29 30 28 30 27 27 27 20 20 20 21 18 18 17 16 13 16 16 16 -225 -225 -225 -225 -225 -225 -225 -225 -225 -225 -225 -225 -225 -225 -225 -225 -225 -225 -225 -225 -225 -225 -225 -225 -225 -225 -225 -225 14 13 10 13 12 11 11 10 10 10 10 12 -225 -225 -225 -225 -225 -225 31 30 31 31 31 35 37 36 37 37 39 38 39 39 42 42 44 44 45 45 46 47 48 48 51 52 58 58 61 60 63 62 63 64 65 62 65 61 65 60 66 66 63 64 70 77 87 87 86 86 87 91 87 87 87 86 86 86 86 -193 82 91 -193 98 -177 -177 107 108 110 108 109 108 110 109 109 112 113 111 113 112 114 114 118 117 121 124 124 126 129 128 130 130 132 133 134 136 -193 -209 138 -193 140 -193 -193 21 20 20 20 21 20 20 16 -193 -193 -193 -193 -193 -209 -193 -177 -177 163 -193 -193 -193 -193 -193 -209 -209 -209 -209 -209 -193 -193 179 0 0 0 0 0
    0 0 0 0 0 0 0 0 0 0 0 0 0 0 0 0 0 0 0 0 0 0 0 0 0 0 0 0 0 0 0 0 0 0 0 0 0 0 0 0 0 0 0 0 0 0 0 0 0 0 0 0 0 0 0 0 0 0 0 0 0 0 0 0 0 0 0 0 0 52 52 51 50 48 50 49 47 47 45 46 46 46 46 47 44 44 45 46 42 44 43 43 42 42 42 41 40 42 36 37 29 31 30 30 31 37 28 32 27 31 28 31 30 29 30 30 29 30 28 30 27 27 27 21 21 20 21 19 18 16 16 13 16 16 16 -225 -225 -225 -225 -225 -225 -225 -225 -225 -225 -225 -225 -225 -225 -225 -225 -225 -225 -225 -225 -225 -225 -225 -225 -225 -225 -225 -225 14 10 9 11 11 10 10 9 0 0 9 -193 -225 -225 -225 -225 -225 31 30 30 31 31 31 35 37 36 37 38 39 38 39 39 42 41 44 44 44 45 46 48 48 48 51 51 57 57 61 60 63 62 63 64 65 62 65 62 65 60 67 68 65 68 73 79 86 87 85 85 87 90 85 86 85 85 85 85 85 84 81 90 -193 96 -193 -177 107 108 110 108 108 108 109 109 109 112 112 110 112 112 114 115 118 117 122 125 125 126 129 128 130 130 132 133 134 -193 -193 -209 -193 -209 140 -193 21 20 20 20 21 21 21 -193 -193 -193 -193 -193 223 -193 -209 -193 159 163 164 -193 -193 -193 -193 -193 -209 -209 174 174 176 175 178 178 0 0 0 0 0
    0 0 0 0 0 0 0 0 0 0 0 0 0 0 0 0 0 0 0 0 0 0 0 0 0 0 0 0 0 0 0 0 0 0 0 0 0 0 0 0 0 0 0 0 0 0 0 0 0 0 0 0 0 0 0 0 0 0 0 0 0 0 0 0 0 0 0 0 0 52 52 52 50 47 49 49 47 47 45 46 45 45 45 47 44 44 44 46 42 45 43 43 42 42 42 41 40 42 36 37 29 31 30 29 30 38 28 32 27 30 27 31 31 29 30 29 29 30 29 30 27 27 28 21 21 20 21 19 18 16 16 13 16 16 16 -225 -225 -225 -225 -225 -225 -225 -225 -225 -225 -225 -225 -225 -225 -225 -225 -225 -225 -225 -225 -225 -225 -225 -225 -225 -225 -225 14 13 9 9 10 10 9 9 0 0 0 9 9 0 -225 -225 -225 -225 29 29 30 30 31 31 35 37 35 37 37 38 37 38 39 42 41 44 44 44 45 47 48 47 48 51 51 57 57 61 60 63 62 63 64 65 62 65 61 65 60 68 68 67 71 73 79 85 86 85 85 86 88 84 85 84 84 83 84 84 84 80 90 -193 98 -193 -193 107 108 110 107 108 107 108 108 109 111 111 110 112 112 115 115 118 118 122 125 125 126 129 128 131 130 132 133 135 -193 -193 -193 -193 -209 140 -193 -193 21 20 20 21 22 21 -193 17 -193 -193 222 -193 224 -193 -193 -193 163 165 -193 -193 -193 -193 -193 -193 173 173 173 176 175 178 178 0 0 0 0 0
    0 0 0 0 0 0 0 0 0 0 0 0 0 0 0 0 0 0 0 0 0 0 0 0 0 0 0 0 0 0 0 0 0 0 0 0 0 0 0 0 0 0 0 0 0 0 0 0 0 0 0 0 0 0 0 0 0 0 0 0 0 0 0 0 0 0 0 0 0 52 52 52 50 48 49 48 46 46 44 45 45 45 45 46 43 44 44 46 42 45 43 43 42 42 42 41 40 42 35 36 29 31 29 29 30 38 28 32 27 30 27 31 31 29 30 29 29 30 28 30 27 27 27 21 21 20 21 19 18 16 17 13 16 16 16 -225 -225 -225 -225 -225 -225 -225 -225 -225 -225 -225 -225 -225 -225 -225 -225 -225 -225 -225 -225 -225 -225 -225 -225 -225 -225 -225 14 13 11 9 11 11 10 10 9 0 0 9 9 0 0 -225 -225 -225 27 28 29 29 30 30 34 36 35 36 37 37 36 38 39 -193 41 43 43 44 44 47 48 47 47 50 51 58 58 62 60 63 62 63 64 65 62 65 61 65 59 68 69 69 72 74 78 84 85 84 84 85 88 83 84 83 83 83 83 84 84 80 90 -193 100 103 -193 108 108 111 108 109 107 109 109 108 111 111 109 112 112 115 115 118 117 122 125 124 126 128 128 131 130 132 133 -193 -193 35 35 -193 -209 140 -193 -193 21 20 21 22 22 22 -193 17 -177 -193 -193 -193 -193 -193 -193 -193 164 165 -193 -177 -193 -193 -193 171 172 172 173 174 174 177 176 0 0 0 0 0
    0 0 0 0 0 0 0 0 0 0 0 0 0 0 0 0 0 0 0 0 0 0 0 0 0 0 0 0 0 0 0 0 0 0 0 0 0 0 0 0 0 0 0 0 0 0 0 0 0 0 0 0 0 0 0 0 0 0 0 0 0 0 0 0 0 0 0 0 0 53 53 52 50 49 50 49 46 45 44 44 44 44 44 45 42 43 43 46 41 44 43 43 42 42 42 41 40 42 35 36 28 28 27 28 27 38 28 31 27 29 27 30 31 29 31 29 29 30 29 30 27 27 28 22 21 21 21 19 18 16 17 13 16 16 16 -225 -225 -225 -225 -225 -225 -225 -225 -225 -225 -225 -225 -225 -225 -225 -225 -225 -225 -225 -225 -225 -225 -225 -225 -225 -225 -225 14 14 12 10 11 11 10 10 9 0 0 9 9 0 0 -225 -225 295 -193 28 28 29 30 30 33 35 34 36 37 36 35 37 39 -193 41 43 43 44 45 47 48 46 47 50 51 58 58 63 61 64 63 63 64 65 62 65 61 66 59 69 70 71 72 74 79 84 85 84 84 85 88 83 84 83 83 83 84 -193 -193 82 91 -193 101 103 -193 108 109 111 109 109 108 110 109 108 110 110 109 111 111 114 114 118 117 121 124 124 126 128 127 131 130 132 133 35 36 35 35 33 -209 -209 -193 -193 20 20 20 22 22 22 -209 -209 -177 -209 -193 -193 -209 -209 -193 -193 164 166 -193 -193 -193 -193 -193 170 171 171 172 173 173 175 175 0 0 0 0 0
    0 0 0 0 0 0 0 0 0 0 0 0 0 0 0 0 0 0 0 0 0 0 0 0 0 0 0 0 0 0 0 0 0 0 0 0 0 0 0 0 0 0 0 0 0 0 0 0 0 0 0 0 0 0 0 0 0 0 0 0 0 0 0 0 0 0 0 0 0 53 53 52 51 49 50 50 47 46 44 44 -193 43 43 44 41 42 43 46 41 45 43 43 42 42 42 41 40 42 34 35 27 26 26 27 26 37 27 31 27 29 27 30 30 29 31 30 29 30 29 30 27 27 28 22 21 21 21 18 18 16 17 13 16 16 16 -225 -225 -225 -225 -225 -225 -225 -225 -225 -225 -225 -225 -225 -225 -225 -225 -225 -225 -225 -225 -225 -225 -225 -225 -225 -225 -225 14 14 10 9 10 10 10 9 0 0 0 9 9 0 0 -225 -225 294 27 29 29 31 31 30 32 35 34 35 36 36 34 37 39 41 41 43 43 44 45 47 49 46 47 50 51 59 58 63 61 65 63 64 64 65 62 65 61 66 59 70 71 72 72 74 79 84 85 83 84 85 88 84 84 84 84 83 85 -177 -177 -193 92 -193 100 103 109 108 109 111 109 109 108 110 109 108 110 110 109 111 111 114 114 117 117 121 124 124 125 127 127 131 129 133 -193 35 35 35 35 32 -193 -209 -209 -193 19 -193 -193 21 22 22 -209 -209 -209 -209 -209 -209 -209 -209 -193 161 165 166 167 -193 -193 171 171 170 171 171 171 172 172 173 174 0 0 0 0 0
    0 0 0 0 0 0 0 0 0 0 0 0 0 0 0 0 0 0 0 0 0 0 0 0 0 0 0 0 0 0 0 0 0 0 0 0 0 0 0 0 0 0 0 0 0 0 0 0 0 0 0 0 0 0 0 0 0 0 0 0 0 0 0 0 0 0 0 0 0 54 53 52 51 50 51 50 48 46 44 44 -193 43 -193 44 41 42 43 45 42 45 43 43 42 42 42 41 40 42 33 34 26 25 27 27 27 37 27 31 27 29 27 30 30 29 31 29 29 30 28 29 26 26 27 21 21 20 21 18 18 16 17 13 16 16 16 -225 -225 -225 -225 -225 -225 -225 -225 -225 -225 -225 -225 -225 -225 -225 -225 -225 -225 -225 -225 -225 -225 -225 -225 -225 -225 -225 14 14 0 0 9 9 9 0 0 0 0 0 0 0 0 -225 -225 291 -193 28 29 31 30 30 31 35 33 33 36 35 35 37 40 41 41 44 44 45 45 48 49 46 47 49 51 58 58 63 61 65 63 64 64 65 62 65 62 66 60 71 71 72 73 74 78 82 84 82 83 85 88 84 85 84 84 84 85 -177 -177 -193 92 -193 100 103 109 108 108 111 109 109 108 110 109 108 110 110 108 111 111 114 114 118 117 121 124 124 125 127 127 130 129 133 -193 35 35 35 35 33 -209 -209 -209 -209 17 -193 -193 -193 -193 -193 -209 -209 -209 -209 -209 -209 -209 -193 157 160 164 166 -193 -209 -209 171 171 170 171 170 171 171 -193 -193 -193 0 0 0 0 0
    0 0 0 0 0 0 0 0 0 0 0 0 0 0 0 0 0 0 0 0 0 0 0 0 0 0 0 0 0 0 0 0 0 0 0 0 0 0 0 0 0 0 0 0 0 0 0 0 0 0 0 0 0 0 0 0 0 0 0 0 0 0 0 0 0 0 0 0 0 54 53 52 51 51 51 51 50 47 45 44 -193 43 -193 44 41 42 43 46 42 45 44 44 42 42 42 42 40 42 32 33 26 25 27 27 25 34 28 30 27 30 27 31 30 29 31 29 29 29 28 29 26 26 26 21 20 19 20 17 17 16 16 14 16 16 16 -225 -225 -225 -225 -225 -225 -225 -225 -225 -225 -225 -225 -225 -225 -225 -225 -225 -225 -225 -225 -225 -225 -225 -225 -225 -225 17 14 14 0 0 9 9 0 0 0 0 0 0 0 0 -209 -209 290 -177 -193 27 29 30 30 29 30 35 32 32 35 35 34 37 40 41 -193 43 44 45 45 48 48 46 47 49 51 58 57 62 61 65 63 64 64 65 63 65 62 67 60 71 72 73 74 74 77 80 84 82 84 85 88 84 85 85 85 84 85 -177 -193 84 92 100 99 102 108 107 108 111 108 109 108 110 110 108 110 110 109 111 111 114 113 117 117 121 123 124 125 127 127 130 129 -193 34 36 36 35 35 33 -209 -209 -209 -209 15 -209 -209 -209 -209 -209 -209 -209 -209 -209 -209 -209 -209 -193 156 159 163 165 -209 -209 -209 -193 -193 169 170 169 -193 -209 -209 -209 -209 0 0 0 0 0
    0 0 0 0 0 0 0 0 0 0 0 0 0 0 0 0 0 0 0 0 0 0 0 0 0 0 0 0 0 0 0 0 0 0 0 0 0 0 0 0 0 0 0 0 0 0 0 0 0 0 0 0 0 0 0 0 0 0 0 0 0 0 0 0 0 0 0 0 0 54 53 52 52 51 51 52 50 48 46 46 45 43 43 44 42 42 43 46 42 45 44 44 42 42 42 42 40 42 32 32 26 23 25 25 24 -193 26 28 26 29 27 30 30 29 31 29 29 29 28 28 26 25 26 21 20 19 20 17 16 16 16 14 16 16 16 -225 -225 -225 -225 -225 -225 -225 -225 -225 -225 -225 -225 -225 -225 -225 -225 -225 -225 -225 -225 -225 -225 -225 -225 -225 -225 16 14 15 0 0 0 9 0 0 0 0 0 0 0 9 -209 -193 -177 -193 28 28 29 31 30 30 30 35 33 32 36 35 35 37 40 42 41 43 43 45 45 47 48 45 46 49 51 57 56 62 61 65 63 63 64 65 63 65 62 67 61 71 72 73 74 74 77 81 83 83 84 85 88 85 85 85 85 85 86 -193 -193 85 92 99 99 102 108 107 108 110 108 109 108 111 110 108 111 110 109 111 111 114 113 117 117 120 123 124 125 126 127 131 -193 36 34 36 36 35 36 33 -209 -209 -209 -209 -209 -209 -209 -209 -209 -209 -209 -209 -209 156 -193 -193 -193 156 156 158 162 165 -209 -209 -209 -209 -209 -209 -209 -193 -209 -209 -209 -209 -209 0 0 0 0 0
    0 0 0 0 0 0 0 0 0 0 0 0 0 0 0 0 0 0 0 0 0 0 0 0 0 0 0 0 0 0 0 0 0 0 0 0 0 0 0 0 0 0 0 0 0 0 0 0 0 0 0 0 0 0 0 0 0 0 0 0 0 0 0 0 0 0 0 0 0 54 53 52 52 51 51 52 50 49 47 46 46 44 43 45 42 43 43 46 42 45 44 44 42 42 42 42 40 42 32 32 26 22 25 25 24 -193 27 27 26 30 27 30 31 28 31 29 30 29 28 28 25 25 25 21 21 19 20 17 16 16 16 15 16 16 16 -225 -225 -225 -225 -225 -225 -225 -225 -225 -225 -225 -225 -225 -225 -225 -225 -225 -225 -225 -225 -225 -225 -225 -225 -225 -225 14 13 16 10 9 9 10 9 0 0 0 0 9 10 11 13 21 -193 26 27 26 28 29 29 29 29 33 32 31 35 34 34 36 39 41 40 42 42 44 45 47 48 45 46 48 51 56 56 61 61 64 62 63 63 64 62 65 62 67 61 71 72 73 74 75 78 81 82 83 84 85 87 84 85 85 85 85 85 -193 -193 85 93 100 100 102 108 107 108 110 108 109 108 111 110 108 111 110 109 111 112 114 113 118 117 119 123 123 125 126 127 -193 35 36 34 35 36 35 35 33 -209 -209 -193 -209 -209 -209 -209 -209 -209 -209 -209 -209 -209 156 156 156 155 156 156 158 162 164 -209 -193 -193 372 -193 -209 -209 -193 -209 -209 -209 -209 -209 0 0 0 0 0
    0 0 0 0 0 0 0 0 0 0 0 0 0 0 0 0 0 0 0 0 0 0 0 0 0 0 0 0 0 0 0 0 0 0 0 0 0 0 0 0 0 0 0 0 0 0 0 0 0 0 0 0 0 0 0 0 0 0 0 0 0 0 0 0 0 0 0 0 0 53 52 52 52 51 52 52 50 50 47 47 46 44 44 45 42 43 43 46 42 45 44 44 42 42 42 42 40 42 32 31 25 23 25 25 25 27 28 27 27 30 27 31 31 28 31 29 30 29 27 27 25 25 25 21 21 19 20 17 15 16 16 15 16 16 16 -225 -225 -225 -225 -225 -225 -225 -225 -225 -225 -225 -225 -225 -225 -225 -225 -225 -225 -225 -225 -225 -225 -225 -225 -225 -225 14 14 14 10 10 10 11 10 9 9 9 10 12 14 17 17 22 25 26 27 26 28 29 29 30 29 33 32 32 35 34 34 36 38 40 40 42 42 44 44 46 47 45 46 48 50 56 55 60 60 64 62 62 62 63 62 64 62 67 61 71 71 72 74 75 78 80 81 83 84 85 87 84 85 85 85 85 85 -193 86 85 93 101 101 103 108 107 108 111 108 109 108 111 110 108 111 110 109 112 112 114 113 117 117 118 122 123 125 125 127 -193 35 36 34 35 36 35 35 33 -209 -209 -193 -209 -209 -209 -209 -209 -209 -209 -209 -209 -193 156 155 157 155 156 156 157 162 164 -193 -193 -193 372 -209 -209 -209 163 -209 18 -209 -209 -209 0 0 0 0 0
    0 0 0 0 0 0 0 0 0 0 0 0 0 0 0 0 0 0 0 0 0 0 0 0 0 0 0 0 0 0 0 0 0 0 0 0 0 0 0 0 0 0 0 0 0 0 0 0 0 0 0 0 0 0 0 0 0 0 0 0 0 0 0 0 0 0 0 0 0 52 51 50 52 50 52 52 51 52 49 48 48 44 44 46 43 43 43 46 42 45 44 44 42 42 42 42 40 42 30 29 25 24 26 26 26 27 28 27 27 30 28 30 31 28 31 29 29 28 27 27 24 24 24 21 20 18 21 16 14 16 16 16 16 16 16 -225 -225 -225 -225 -225 -225 -225 -225 -225 -225 -225 -225 -225 -225 -225 -225 -225 -225 -225 -225 -225 -225 -225 -225 -225 -225 15 16 15 11 11 11 12 11 10 11 10 11 13 15 17 18 22 24 27 27 26 28 28 28 30 29 33 32 32 34 34 34 36 38 40 40 41 42 44 44 46 47 44 46 48 50 55 54 59 59 63 61 61 62 63 62 64 62 66 61 70 71 72 74 75 78 79 82 83 83 84 87 84 85 84 85 85 85 -193 87 85 93 101 101 103 108 107 108 111 108 110 109 111 110 108 112 111 110 113 112 114 113 117 117 115 122 -193 -193 125 126 -193 36 36 34 35 35 34 35 33 -209 -209 -193 -193 -193 -209 -209 -209 -209 139 -209 -209 -193 156 155 156 156 156 157 157 161 -193 -193 -209 -193 -193 -209 -193 -193 -193 -209 -193 -209 -209 -209 0 0 0 0 0
    0 0 0 0 0 0 0 0 0 0 0 0 0 0 0 0 0 0 0 0 0 0 0 0 0 0 0 0 0 0 0 0 0 0 0 0 0 0 0 0 0 0 0 0 0 0 0 0 0 0 0 0 0 0 0 0 0 0 0 0 0 0 0 0 0 0 0 0 0 -193 -193 49 52 51 53 53 53 53 51 50 49 45 45 47 43 43 43 46 42 45 44 44 42 42 42 42 39 41 30 29 25 25 26 26 25 26 27 27 27 30 28 30 31 28 31 28 29 28 27 26 24 24 24 20 21 18 21 16 14 17 16 16 16 16 16 -225 -225 -225 -225 -225 -225 -225 -225 -225 -225 -225 -225 -225 -225 -225 -225 -225 -225 -225 -225 -225 -225 -225 -225 -225 -225 15 18 15 12 12 12 12 11 11 11 10 11 13 14 17 18 21 24 27 27 27 27 28 28 30 29 32 31 31 34 35 34 36 38 41 40 42 43 44 44 46 47 45 46 48 49 55 53 58 58 61 60 60 61 62 61 63 62 66 61 70 71 73 74 75 78 79 82 83 83 83 86 84 85 84 85 84 85 86 87 85 92 101 100 103 108 107 108 111 109 110 109 111 110 108 113 111 110 113 112 114 113 117 116 113 121 -193 -193 -193 126 -193 36 36 34 36 35 34 -193 33 -193 -209 -209 -209 -193 -209 -209 -193 141 141 -193 -193 -209 155 155 156 156 156 157 157 -193 -193 -193 -209 -193 -193 -209 -193 -193 -193 -209 -193 -209 -209 -209 0 0 0 0 0
    0 0 0 0 0 0 0 0 0 0 0 0 0 0 0 0 0 0 0 0 0 0 0 0 0 0 0 0 0 0 0 0 0 0 0 0 0 0 0 0 0 0 0 0 0 0 0 0 0 0 0 0 0 0 0 0 0 0 0 0 0 0 0 0 0 0 0 0 0 -193 -193 47 50 49 52 53 53 53 52 50 50 46 45 47 43 43 43 46 42 45 44 44 42 42 42 42 39 41 30 29 25 25 27 27 26 27 28 27 28 30 28 30 32 28 31 28 29 27 26 26 24 24 23 20 20 18 21 16 14 16 16 16 16 16 16 -225 -225 -225 -225 -225 -225 -225 -225 -225 -225 -225 -225 -225 -225 -225 -225 -225 -225 -225 -225 -225 -225 -225 -225 -225 -225 15 18 14 11 11 11 12 10 10 10 9 10 12 13 17 17 20 23 28 27 26 27 27 27 30 29 32 31 31 33 35 35 37 38 41 41 42 43 45 44 46 47 45 46 48 48 55 53 57 57 60 59 59 60 61 60 63 62 65 62 70 72 73 74 75 77 79 82 83 83 83 86 84 84 84 85 84 85 86 86 84 91 100 99 102 108 106 107 111 108 110 109 111 110 108 113 112 110 113 112 114 113 117 116 112 121 33 -193 -193 126 -193 36 36 35 36 35 34 -193 -193 -193 -193 -193 -177 -193 141 143 141 144 143 -193 -193 -209 -193 155 156 156 156 -193 -193 -193 -193 -209 -209 -193 -193 -209 -193 -193 -193 -209 -209 -209 -209 -193 0 0 0 0 0
    0 0 0 0 0 0 0 0 0 0 0 0 0 0 0 0 0 0 0 0 0 0 0 0 0 0 0 0 0 0 0 0 0 0 0 0 0 0 0 0 0 0 0 0 0 0 0 0 0 0 0 0 0 0 0 0 0 0 0 0 0 0 0 0 0 0 0 0 0 49 -193 46 50 48 52 53 53 53 52 50 50 46 45 47 43 43 43 46 42 45 43 43 41 42 41 41 38 41 30 29 25 26 27 27 27 27 28 27 28 30 28 30 32 28 31 28 29 27 27 26 24 24 23 20 21 18 21 17 14 16 16 15 16 16 16 -225 -225 -225 -225 -225 -225 -225 -225 -225 -225 -225 -225 -225 -225 -225 -225 -225 -225 -225 -225 -225 -225 -225 -225 -225 -225 15 18 15 12 11 12 12 10 10 10 9 10 12 12 17 15 19 23 28 -193 26 28 27 27 31 30 31 31 31 33 35 36 37 38 -193 41 43 44 45 44 45 47 45 46 47 47 54 52 56 55 58 58 58 59 60 60 62 62 65 63 70 71 72 73 75 77 78 82 82 82 83 86 83 83 83 84 82 84 84 85 81 90 101 98 102 107 105 106 110 108 110 109 110 110 108 113 112 110 114 111 114 114 117 116 111 121 32 -193 -193 125 -193 37 36 35 36 35 -193 -209 -193 -193 -193 -193 141 141 143 146 144 147 145 -193 86 -209 -193 155 156 -193 -193 -193 -193 -177 -193 -193 -193 89 -193 -209 -193 -193 -193 -209 -209 -209 723 724 0 0 0 0 0
    0 0 0 0 0 0 0 0 0 0 0 0 0 0 0 0 0 0 0 0 0 0 0 0 0 0 0 0 0 0 0 0 0 0 0 0 0 0 0 0 0 0 0 0 0 0 0 0 0 0 0 0 0 0 0 0 0 0 0 0 0 0 0 0 0 0 0 0 0 49 48 46 48 49 52 52 54 54 52 50 50 46 46 48 44 43 43 46 42 44 43 43 41 41 41 41 38 41 30 29 26 26 27 27 27 27 28 27 29 30 29 30 33 28 31 28 29 27 27 27 25 24 24 21 21 19 22 17 14 16 15 15 16 16 16 -225 -225 -225 -225 -225 -225 -225 -225 -225 -225 -225 -225 -225 -225 -225 -225 -225 -225 -225 -225 -225 -225 -225 -225 -225 15 12 15 14 12 12 12 12 10 11 11 10 10 12 12 17 15 18 23 28 27 26 28 27 27 31 30 31 31 31 32 34 35 37 -193 -177 -193 42 43 45 44 45 46 45 45 47 46 54 51 55 54 -209 -193 57 58 59 59 61 61 64 62 69 70 71 72 74 76 77 82 82 83 83 85 83 83 83 83 81 83 83 84 79 90 101 97 101 106 104 105 109 107 -193 962 110 110 108 113 112 111 114 111 114 114 -193 115 109 121 32 -193 122 124 -193 -193 36 35 36 -209 -209 -193 139 -193 -193 140 141 142 144 147 145 148 146 -193 87 -193 -209 -193 -193 -177 -177 -177 -177 -177 -193 638 644 90 93 -209 -209 -193 -193 -193 -209 -209 721 -209 0 0 0 0 0
    0 0 0 0 0 0 0 0 0 0 0 0 0 0 0 0 0 0 0 0 0 0 0 0 0 0 0 0 0 0 0 0 0 0 0 0 0 0 0 0 0 0 0 0 0 0 0 0 0 0 0 0 0 0 0 0 0 0 0 0 0 0 0 0 0 0 0 0 0 51 50 48 48 49 52 50 53 53 53 50 51 46 46 48 43 43 42 45 41 43 42 42 40 41 41 41 38 41 31 30 26 27 27 28 28 28 29 28 29 29 28 29 32 28 31 28 29 27 27 27 25 24 24 21 21 19 22 17 14 16 15 15 16 16 16 -225 -225 -225 -225 -225 -225 -225 -225 -225 -225 -225 -225 -225 -225 -225 -225 -225 -225 -225 -225 -225 -225 -225 -225 -225 12 11 14 15 12 12 13 13 11 12 12 11 11 12 12 17 14 17 22 28 27 27 28 27 27 32 30 31 32 32 33 34 35 37 -177 -177 -193 -193 43 44 44 45 46 45 45 47 45 54 50 54 53 -193 -193 -193 -193 58 -193 61 61 64 63 69 70 70 71 74 75 76 82 82 82 82 85 82 82 82 83 81 83 84 85 80 90 100 96 101 105 103 104 108 -193 -177 961 109 109 108 113 112 111 114 111 114 114 -193 115 -193 121 -193 -193 122 124 128 -193 -193 -193 -193 137 -193 139 139 141 139 140 141 141 143 146 145 147 146 -193 -193 -209 786 782 -177 -177 -177 -177 -177 -177 640 -177 -177 -193 -193 -193 -209 -193 -193 -193 -209 -193 720 -209 0 0 0 0 0
    0 0 0 0 0 0 0 0 0 0 0 0 0 0 0 0 0 0 0 0 0 0 0 0 0 0 0 0 0 0 0 0 0 0 0 0 0 0 0 0 0 0 0 0 0 0 0 0 0 0 0 0 0 0 0 0 0 0 0 0 0 0 0 0 0 0 0 0 0 51 51 48 48 50 52 49 52 53 53 50 51 46 46 48 43 42 42 44 40 42 42 42 40 40 40 40 37 41 31 31 26 28 29 30 29 30 30 29 30 29 28 28 33 28 30 28 29 27 27 27 25 24 24 21 21 19 22 17 14 16 15 15 16 16 16 -225 -225 -225 -225 -225 -225 -225 -225 -225 -225 -225 -225 -225 -225 -225 -225 -225 -225 -225 -225 -225 -225 0 0 9 0 0 11 13 12 12 13 13 12 12 12 11 11 11 11 15 12 14 21 28 26 26 28 27 26 31 30 31 30 31 31 -193 35 37 -177 -177 -193 -193 44 45 44 45 46 44 45 47 44 53 49 52 52 -193 55 55 -193 -193 -177 60 61 64 63 69 69 70 71 74 75 76 83 81 81 81 84 82 82 82 82 81 83 85 85 81 90 100 96 100 104 101 103 107 -193 -177 961 108 109 108 113 113 111 114 110 114 114 -193 115 -193 121 -193 -193 122 125 129 129 -193 -193 -193 136 -193 139 139 140 139 139 141 141 -193 -193 -193 -193 -193 -193 -177 -193 785 782 -177 -177 -177 -177 -177 -193 639 -177 -177 -209 -193 -193 -209 -193 -193 -193 -209 -193 -193 -193 0 0 0 0 0
    0 0 0 0 0 0 0 0 0 0 0 0 0 0 0 0 0 0 0 0 0 0 0 0 0 0 0 0 0 0 0 0 0 0 0 0 0 0 0 0 0 0 0 0 0 0 0 0 0 0 0 0 0 0 0 0 0 0 0 0 0 0 0 0 0 0 0 0 0 51 51 48 49 49 51 48 51 51 51 49 50 46 45 47 43 42 42 44 40 42 41 41 39 40 40 40 37 39 31 31 27 28 29 30 30 30 30 29 31 30 29 28 33 28 30 28 29 27 27 27 26 23 23 21 21 19 21 17 15 16 15 14 16 16 16 -225 -225 -225 -225 -225 -225 -225 -225 -225 -225 -225 -225 -225 -225 -225 -225 -225 -225 -225 -225 0 0 0 0 9 0 0 10 11 11 11 12 12 11 12 11 10 11 11 10 15 12 13 20 27 27 27 28 27 27 31 30 31 30 31 32 33 34 36 -177 -177 -209 -193 44 44 44 45 46 44 45 47 44 53 49 52 52 54 53 54 -193 -209 -177 59 60 63 62 68 69 69 71 73 74 75 83 81 81 81 84 82 83 83 83 81 85 86 86 83 90 99 95 98 102 99 102 -193 -193 -177 962 108 108 108 113 113 110 114 110 115 114 -193 115 -193 121 -193 -193 123 125 129 129 132 134 136 136 137 138 138 139 -193 138 140 -209 -193 -193 703 707 705 -177 -177 -177 -177 781 -177 -177 -177 -177 -177 -193 639 -177 -177 -193 -193 -209 -209 -193 169 -193 171 174 -193 -193 0 0 0 0 0
    0 0 0 0 0 0 0 0 0 0 0 0 0 0 0 0 0 0 0 0 0 0 0 0 0 0 0 0 0 0 0 0 0 0 0 0 0 0 0 0 0 0 0 0 0 0 0 0 0 0 0 0 0 0 0 0 0 0 0 0 0 0 0 0 0 0 0 0 0 52 52 49 50 50 51 48 50 50 50 49 49 46 45 46 43 42 42 43 40 41 41 41 39 40 40 39 37 40 32 32 27 28 29 31 29 30 30 29 31 30 28 28 33 28 30 28 29 27 27 27 26 23 23 21 21 19 21 17 15 15 15 14 16 16 16 -225 -225 -225 -225 -225 -225 -225 -225 -225 -225 -225 -225 -225 -225 -225 -225 -225 -225 -225 0 0 0 0 0 0 0 0 0 10 11 10 11 12 10 11 11 11 10 9 9 -193 11 11 17 -193 26 26 27 26 26 31 30 31 30 31 32 33 34 36 37 -193 41 43 44 44 45 45 46 44 45 47 44 53 49 52 51 53 53 53 -193 -193 -177 59 60 63 62 67 69 69 70 72 73 75 84 80 80 80 84 83 83 83 83 82 86 86 87 84 89 99 94 96 101 98 101 -177 -193 -193 963 108 108 108 112 113 110 114 110 115 115 116 116 110 122 123 124 124 126 130 130 133 134 136 135 137 137 138 138 -193 137 138 -209 -177 -193 704 708 706 707 706 706 -193 -177 -177 -177 -177 -177 -193 640 -177 -177 -177 -209 -193 -209 -193 -209 170 170 171 175 178 -193 0 0 0 0 0
    0 0 0 0 0 0 0 0 0 0 0 0 0 0 0 0 0 0 0 0 0 0 0 0 0 0 0 0 0 0 0 0 0 0 0 0 0 0 0 0 0 0 0 0 0 0 0 0 0 0 0 0 0 0 0 0 0 0 0 0 0 0 0 0 0 0 0 0 0 53 53 51 51 51 52 47 50 49 49 48 49 46 45 46 44 42 42 43 40 42 41 41 39 40 40 40 38 41 34 34 27 29 31 34 32 32 30 30 31 30 29 28 33 29 30 29 29 28 28 28 27 24 24 21 21 19 21 16 15 15 15 14 16 16 16 -225 -225 -225 -225 -225 -225 -225 -225 -225 -225 -225 -225 -225 -225 -225 -225 -225 -225 12 0 0 0 0 0 0 0 0 0 0 9 9 9 10 9 10 10 11 10 9 9 12 10 11 16 -193 25 25 27 27 26 31 31 32 30 31 33 33 34 36 37 41 -193 43 44 44 45 45 46 44 45 47 44 53 49 52 51 53 53 53 -193 -193 -177 58 59 62 62 67 70 69 70 72 74 75 84 79 80 79 85 83 83 83 83 82 86 86 87 84 89 99 94 94 100 97 100 -193 104 -193 964 107 108 107 112 113 110 114 110 115 116 117 117 113 122 125 125 126 127 130 130 133 133 135 135 137 137 138 137 -193 135 -193 -209 -177 -193 -177 708 706 707 706 706 -177 -193 -193 -193 -209 -193 -177 -177 -177 -177 -177 -209 -193 -209 -193 -193 171 170 172 175 -193 78 0 0 0 0 0
    0 0 0 0 0 0 0 0 0 0 0 0 0 0 0 0 0 0 0 0 0 0 0 0 0 0 0 0 0 0 0 0 0 0 0 0 0 0 0 0 0 0 0 0 0 0 0 0 0 0 0 0 0 0 0 0 0 0 0 0 0 0 0 0 0 0 0 0 0 52 53 51 51 51 51 45 48 48 48 47 49 46 45 46 44 43 42 43 41 42 41 41 40 40 40 40 39 41 36 36 30 36 38 38 35 34 32 31 32 31 29 28 34 29 30 29 30 28 28 28 27 24 24 21 21 20 21 17 15 15 15 13 16 16 16 -225 -225 -225 -225 -225 -225 -225 -225 -225 -225 -225 -225 -225 -225 -225 -225 -225 -225 14 0 0 0 0 0 0 0 0 0 0 0 0 0 0 0 0 0 11 10 9 10 13 11 12 17 23 25 24 26 27 26 31 30 32 30 31 33 33 33 36 37 41 -193 43 43 44 44 45 46 44 45 47 44 53 49 52 51 53 53 53 -177 -193 -193 58 59 62 62 66 69 68 69 72 74 75 84 79 80 80 85 84 84 83 83 83 87 86 87 84 88 99 93 93 100 96 100 -193 104 -193 965 107 107 107 111 112 110 113 109 115 116 117 117 116 123 125 126 126 127 130 130 132 133 134 134 137 137 137 136 -193 133 -193 -193 -193 -193 -193 -193 706 707 -177 -177 -177 90 89 91 -209 97 -193 -177 -177 -193 -177 -193 -193 -209 -209 -209 171 170 171 175 -193 77 0 0 0 0 0
    0 0 0 0 0 0 0 0 0 0 0 0 0 0 0 0 0 0 0 0 0 0 0 0 0 0 0 0 0 0 0 0 0 0 0 0 0 0 0 0 0 0 0 0 0 0 0 0 0 0 0 0 0 0 0 0 0 0 0 0 0 0 0 0 0 0 0 0 0 52 53 51 51 52 52 46 49 50 47 46 49 45 45 46 44 43 42 43 42 42 42 42 40 40 40 40 39 41 35 36 29 36 37 38 36 36 34 33 33 33 30 29 34 29 30 29 30 29 29 29 28 25 25 22 21 20 21 17 15 15 15 13 16 16 16 -225 -225 -225 -225 -225 -225 -225 -225 -225 -225 -225 -225 -225 -225 -225 -225 -225 -225 16 9 0 9 0 0 0 0 0 0 0 0 0 0 0 0 9 9 11 10 10 11 14 12 13 16 22 24 24 25 27 26 30 30 32 30 31 33 33 33 36 37 41 -193 43 43 43 44 45 45 43 45 47 44 53 49 51 51 53 53 52 -177 -193 -193 58 59 62 62 66 69 67 69 72 73 76 84 79 79 79 85 84 84 83 83 83 87 87 87 84 88 99 93 93 100 96 100 -193 103 -193 965 106 106 106 110 111 109 112 108 114 116 117 117 115 122 125 125 126 126 129 129 132 132 134 133 136 136 137 136 135 132 132 -193 -209 -193 21 21 -193 -193 -193 -193 -209 89 89 91 -193 97 -193 -193 -209 -209 -209 431 436 -209 503 -193 170 169 170 174 -209 76 0 0 0 0 0
    0 0 0 0 0 0 0 0 0 0 0 0 0 0 0 0 0 0 0 0 0 0 0 0 0 0 0 0 0 0 0 0 0 0 0 0 0 0 0 0 0 0 0 0 0 0 0 0 0 0 0 0 0 0 0 0 0 0 0 0 0 0 0 0 0 0 0 0 0 52 53 51 50 51 52 47 48 52 49 46 49 45 46 46 45 43 43 43 43 43 42 42 41 41 41 41 41 41 35 36 28 34 34 37 36 36 35 34 33 33 31 29 35 30 30 29 30 29 29 29 28 25 25 21 21 20 21 16 15 16 16 12 16 16 16 -225 -225 -225 -225 -225 -225 -225 -225 -225 -225 -225 -225 -225 -225 -225 -225 -225 -225 18 11 9 9 0 0 0 0 0 0 0 0 0 0 0 0 0 0 10 10 10 11 15 12 14 17 23 25 24 25 27 26 30 30 32 30 31 33 34 32 36 36 -193 -193 -193 42 43 43 45 45 43 45 47 45 53 49 51 50 53 52 52 -177 55 54 58 60 61 62 66 69 67 69 71 73 77 84 79 78 78 84 85 85 84 84 85 88 88 89 88 88 100 93 93 100 96 100 -193 103 -193 -177 105 105 105 109 110 -193 111 108 113 116 116 116 111 121 124 125 125 126 128 128 131 131 133 132 136 135 136 136 -193 132 132 130 -209 23 -193 21 -193 -193 -193 -193 -193 88 88 91 -193 97 103 -209 -209 -209 -193 430 435 -209 503 503 -193 169 169 174 -209 75 0 0 0 0 0
    0 0 0 0 0 0 0 0 0 0 0 0 0 0 0 0 0 0 0 0 0 0 0 0 0 0 0 0 0 0 0 0 0 0 0 0 0 0 0 0 0 0 0 0 0 0 0 0 0 0 0 0 0 0 0 0 0 0 0 0 0 0 0 0 0 0 0 0 0 52 52 51 50 51 51 47 47 49 48 45 46 44 46 46 45 43 43 43 44 43 42 42 41 41 41 41 41 40 33 35 27 32 31 36 35 36 35 35 33 33 31 30 35 30 31 30 30 29 29 28 28 25 25 21 21 20 21 16 16 16 16 12 16 16 16 -225 -225 -225 -225 -225 -225 -225 -225 -225 -225 -225 -225 -225 -225 -225 -225 -225 -225 19 11 9 9 9 0 0 0 0 0 0 0 0 0 0 0 9 9 10 10 10 11 14 12 15 16 22 23 23 24 26 26 29 29 31 30 31 33 34 32 36 -193 -193 39 42 42 -193 43 45 45 43 45 47 45 54 49 51 50 52 52 52 -193 54 54 58 59 61 61 66 70 68 70 71 73 77 82 77 77 77 84 85 86 85 85 86 89 90 90 90 88 99 93 93 100 96 99 -193 102 104 -193 104 104 104 108 109 386 -193 -193 112 116 115 114 109 120 123 124 125 125 127 127 131 131 132 131 135 134 136 135 134 132 132 131 -209 -193 -193 20 -193 -193 18 -193 -193 87 87 91 -209 98 103 -193 -209 -209 427 430 433 -209 -193 502 -193 168 168 173 -209 -193 0 0 0 0 0
    0 0 0 0 0 0 0 0 0 0 0 0 0 0 0 0 0 0 0 0 0 0 0 0 0 0 0 0 0 0 0 0 0 0 0 0 0 0 0 0 0 0 0 0 0 0 0 0 0 0 0 0 0 0 0 0 0 0 0 0 0 0 0 0 0 0 0 0 0 51 51 50 50 51 51 48 48 49 48 45 46 44 45 45 45 43 42 42 43 44 42 42 41 41 41 41 41 41 32 34 26 29 27 35 35 35 35 35 33 33 32 30 35 30 31 30 30 29 29 28 28 25 25 21 20 19 20 16 16 15 16 12 16 16 16 -225 -225 -225 -225 -225 -225 -225 -225 -225 -225 -225 -225 -225 -225 -225 -225 -225 22 20 14 10 9 10 0 0 0 0 0 0 0 0 0 0 0 0 0 9 10 10 10 13 13 16 17 22 23 23 24 26 26 29 29 31 30 30 32 34 31 35 -193 -193 38 -193 42 42 43 44 45 43 45 47 45 54 50 52 51 52 52 51 53 54 52 58 59 61 61 66 70 69 70 71 73 76 80 77 76 76 84 85 86 86 85 87 90 90 -177 90 88 99 93 93 100 96 99 -193 102 103 -193 103 103 103 107 107 386 386 -193 112 116 114 113 108 118 122 123 124 125 126 126 130 130 131 130 134 133 135 134 134 132 132 131 -193 -209 -193 -193 -193 -193 -193 -193 -193 84 85 -193 -209 -193 -193 -209 -209 -193 428 430 432 -209 -193 502 -193 166 165 171 -209 -209 0 0 0 0 0
    0 0 0 0 0 0 0 0 0 0 0 0 0 0 0 0 0 0 0 0 0 0 0 0 0 0 0 0 0 0 0 0 0 0 0 0 0 0 0 0 0 0 0 0 0 0 0 0 0 0 0 0 0 0 0 0 0 0 0 0 0 0 0 0 0 0 0 0 0 51 51 50 49 51 51 48 48 48 47 46 46 45 46 45 44 43 42 42 43 44 42 42 41 41 41 41 41 41 31 33 25 24 24 29 31 32 33 35 33 33 32 30 34 30 31 30 29 29 29 28 28 25 25 20 20 19 20 16 16 15 16 12 16 16 16 -225 -225 -225 -225 -225 -225 -225 -225 -225 -225 -225 -225 -225 -225 -225 -225 -225 22 21 18 12 11 11 0 0 0 0 0 0 0 0 0 0 0 0 0 10 10 10 10 13 13 15 16 21 22 22 23 26 25 29 29 30 30 31 33 34 31 35 35 39 38 -193 42 42 43 44 45 43 45 47 45 54 51 52 51 53 53 52 53 54 52 57 58 60 60 64 69 69 69 71 73 76 79 76 76 76 84 86 87 86 86 87 90 91 -177 91 88 100 93 93 101 96 99 -193 101 103 -193 102 102 101 105 -193 386 386 -177 111 116 113 111 107 115 117 121 123 124 124 125 129 129 130 130 134 133 135 134 134 133 -193 132 -193 -193 -193 -193 -193 -193 -193 -193 -209 84 85 -193 340 -177 345 354 -209 -193 428 429 430 428 -193 -193 -193 165 -193 -209 -193 -209 0 0 0 0 0
    0 0 0 0 0 0 0 0 0 0 0 0 0 0 0 0 0 0 0 0 0 0 0 0 0 0 0 0 0 0 0 0 0 0 0 0 0 0 0 0 0 0 0 0 0 0 0 0 0 0 0 0 0 0 0 0 0 0 0 0 0 0 0 0 0 0 0 0 0 51 51 50 50 51 51 48 48 49 48 46 46 46 47 45 45 44 42 43 43 44 43 42 42 41 41 41 41 41 30 33 25 22 22 25 29 29 32 35 32 32 33 30 34 30 31 30 29 29 29 28 28 25 25 20 20 19 20 16 17 15 16 11 17 17 17 -225 -225 -225 -225 -225 -225 -225 -225 -225 -225 -225 -225 -225 -225 -225 20 20 18 19 17 15 13 11 0 9 0 0 0 0 0 0 0 0 0 0 0 9 9 9 10 13 13 15 16 20 21 21 22 25 25 28 28 29 30 30 32 34 31 35 35 39 38 -193 42 42 43 45 45 44 46 48 46 54 52 53 53 54 54 54 54 55 56 59 61 62 62 65 69 68 69 71 73 -193 -193 76 76 76 83 86 87 86 86 88 90 92 -177 92 88 101 94 94 101 96 99 102 101 102 -193 101 101 99 104 -193 385 385 -177 110 115 111 109 106 111 106 -209 -209 -209 -193 124 128 128 129 130 134 133 135 135 -193 -193 -193 -193 -193 -193 -209 -193 -193 -193 -193 28 -209 -209 -209 -193 338 -193 -193 -209 -209 -209 -193 428 429 427 429 -193 164 163 -193 -209 -209 -209 0 0 0 0 0
    0 0 0 0 0 0 0 0 0 0 0 0 0 0 0 0 0 0 0 0 0 0 0 0 0 0 0 0 0 0 0 0 0 0 0 0 0 0 0 0 0 0 0 0 0 0 0 0 0 0 0 0 0 0 0 0 0 0 0 0 0 0 0 0 0 0 0 0 0 51 51 50 49 51 50 48 48 49 49 47 47 47 47 46 45 44 42 43 43 44 43 42 41 41 41 41 41 41 30 32 25 22 23 25 29 29 31 34 32 32 33 30 34 30 31 30 29 29 29 28 28 24 25 19 19 19 20 17 17 15 16 11 17 17 17 -225 -225 -225 -225 -225 -225 -225 -225 -225 -225 -225 13 10 15 14 15 15 15 17 16 15 15 11 9 9 0 0 0 0 0 0 0 0 0 0 0 9 10 10 11 14 15 18 19 22 22 21 23 24 25 27 27 28 30 30 31 34 31 34 35 39 38 40 42 42 43 45 46 44 46 49 47 54 53 53 54 55 54 54 54 55 56 58 62 62 62 67 68 68 70 71 -193 -193 -193 -193 75 76 83 86 88 87 86 88 91 92 -177 93 88 100 94 94 101 96 98 102 100 101 -193 99 99 98 102 101 385 385 -177 110 114 109 107 -193 108 -209 -209 -209 -209 -209 122 126 127 128 129 134 -193 -193 -193 -193 -193 -193 -193 -193 -193 -209 -193 -193 -193 -209 -193 -209 -209 -193 -193 -193 -209 -209 -209 -209 -209 -193 427 428 427 429 -193 164 162 -193 -209 -209 -209 0 0 0 0 0
    0 0 0 0 0 0 0 0 0 0 0 0 0 0 0 0 0 0 0 0 0 0 0 0 0 0 0 0 0 0 0 0 0 0 0 0 0 0 0 0 0 0 0 0 0 0 0 0 0 0 0 0 0 0 0 0 0 0 0 0 0 0 0 0 0 0 0 0 0 51 51 49 49 51 50 48 47 49 49 47 47 46 46 45 44 44 42 42 42 43 42 42 41 41 41 41 41 41 29 32 25 21 22 24 27 27 30 34 32 32 33 30 34 30 31 30 29 28 28 27 28 24 24 19 19 19 20 17 17 15 17 11 18 18 18 -225 -225 -225 -225 -225 -225 -225 -225 -225 10 15 15 11 14 13 15 15 13 14 14 12 13 10 10 10 9 9 0 0 0 0 0 0 0 0 0 0 9 9 10 14 16 19 21 23 23 22 23 24 25 27 27 27 29 30 31 34 31 35 36 39 38 -193 42 42 43 45 46 45 47 50 48 54 54 53 54 55 53 53 53 55 56 58 62 63 62 67 67 68 69 70 -193 -177 -177 -209 -193 75 82 86 88 87 86 88 91 93 93 94 88 100 95 95 101 96 98 101 99 100 97 98 98 96 100 99 -177 -177 -193 109 113 -193 -193 -209 -193 -209 -193 -209 -209 -209 -209 126 127 128 130 135 -193 -193 -209 -193 -193 334 334 -193 -193 -209 -193 85 85 -193 -193 -209 -193 -209 -193 -209 -209 -193 -209 -209 -209 -193 427 427 427 430 -193 -193 162 -209 -209 -209 -209 0 0 0 0 0
    0 0 0 0 0 0 0 0 0 0 0 0 0 0 0 0 0 0 0 0 0 0 0 0 0 0 0 0 0 0 0 0 0 0 0 0 0 0 0 0 0 0 0 0 0 0 0 0 0 0 0 0 0 0 0 0 0 0 0 0 0 0 0 0 0 0 0 0 0 51 51 50 49 51 50 48 47 48 48 47 46 46 45 44 44 43 42 42 41 43 42 42 41 41 41 41 40 41 29 31 21 17 19 22 24 25 29 32 32 32 33 31 34 30 31 30 29 28 28 27 28 23 24 18 18 18 20 17 18 15 17 11 19 19 19 -225 -225 -225 -225 -225 -225 -225 -225 9 9 12 14 9 12 11 13 13 10 11 11 9 10 0 0 0 0 0 0 0 0 0 0 0 0 0 0 0 0 9 9 13 15 18 21 23 23 23 24 25 25 27 27 27 -193 30 30 34 32 35 36 39 39 -193 42 42 43 45 47 45 48 50 48 54 54 53 54 54 53 53 52 54 55 56 60 62 62 66 66 67 69 70 -209 -177 -177 -209 -193 75 81 86 87 87 86 88 90 93 94 94 89 99 96 96 101 97 97 101 98 100 -193 98 98 95 99 99 -177 -177 -177 109 112 -193 -193 -193 -177 -193 -193 -193 -209 -209 -209 125 127 128 130 135 -193 -209 -209 337 -193 333 333 -193 -193 -209 -193 86 85 -193 86 -209 -193 -209 -193 92 -193 -193 -193 -209 -209 -209 426 427 427 430 -209 -193 162 -209 -193 -193 -209 0 0 0 0 0
    0 0 0 0 0 0 0 0 0 0 0 0 0 0 0 0 0 0 0 0 0 0 0 0 0 0 0 0 0 0 0 0 0 0 0 0 0 0 0 0 0 0 0 0 0 0 0 0 0 0 0 0 0 0 0 0 0 0 0 0 0 0 0 0 0 0 0 0 0 52 51 50 49 50 50 48 47 48 48 47 46 46 45 43 43 43 42 42 41 43 42 42 41 41 41 41 40 42 30 32 25 19 20 22 24 24 27 31 31 31 33 30 34 30 31 30 28 28 28 27 28 23 23 18 18 18 19 18 19 16 18 12 21 21 21 -225 -225 -225 -225 -225 -225 -225 -225 9 9 12 13 9 12 11 12 12 10 9 11 9 9 0 0 0 0 9 10 9 9 10 0 9 0 9 9 0 9 10 10 14 16 18 21 23 23 24 25 25 26 28 27 27 30 30 30 34 31 35 36 39 -193 -193 42 42 43 45 47 45 48 50 49 54 55 53 54 55 54 54 52 54 55 55 59 62 61 64 65 66 68 70 -209 -193 -177 -209 -193 74 81 86 87 87 85 87 90 93 93 94 89 98 97 97 101 97 97 100 97 99 -193 97 97 95 99 99 -177 -177 -193 109 113 -193 -193 -193 -177 -193 -193 -193 -209 -209 -209 125 128 128 130 135 -193 -193 -209 336 -193 333 333 -193 -193 -209 -193 -193 85 -193 86 -209 -209 89 90 92 -193 -193 -209 -209 -209 -209 -193 426 -193 430 -209 -193 -193 -209 -193 -193 90 0 0 0 0 0
    0 0 0 0 0 0 0 0 0 0 0 0 0 0 0 0 0 0 0 0 0 0 0 0 0 0 0 0 0 0 0 0 0 0 0 0 0 0 0 0 0 0 0 0 0 0 0 0 0 0 0 0 0 0 0 0 0 0 0 0 0 0 0 0 0 0 0 0 0 52 51 50 49 50 50 48 47 47 47 47 46 46 45 43 43 42 42 42 40 43 42 42 41 41 41 41 40 42 32 34 27 23 23 24 25 25 28 31 31 32 33 30 34 30 31 30 28 28 28 27 28 23 23 18 18 18 20 19 19 16 19 13 23 23 23 21 -225 -225 -225 -225 -225 12 9 9 0 10 12 9 11 11 12 12 9 9 10 0 0 0 0 0 0 0 9 0 9 10 0 9 9 9 10 9 10 11 11 14 16 18 21 23 22 23 24 25 25 27 27 27 29 30 30 34 31 34 36 39 -193 -177 42 43 43 45 47 45 49 49 49 54 55 54 54 55 54 53 52 54 55 54 59 61 61 63 64 66 68 70 -209 -209 -177 -193 -193 74 80 86 86 86 85 86 89 92 92 93 88 97 96 96 101 96 96 100 97 99 97 97 97 95 98 99 -177 -177 -209 110 114 -193 -193 -177 -177 -193 -193 -193 -209 -193 -209 126 129 129 131 -193 -193 -193 -209 -193 -193 332 332 332 -193 -193 -193 -193 85 -209 87 -209 -209 90 -193 92 -177 -193 -193 -193 -193 -193 420 -193 -209 -193 -193 406 -193 -209 -193 -193 92 0 0 0 0 0
    0 0 0 0 0 0 0 0 0 0 0 0 0 0 0 0 0 0 0 0 0 0 0 0 0 0 0 0 0 0 0 0 0 0 0 0 0 0 0 0 0 0 0 0 0 0 0 0 0 0 0 0 0 0 0 0 0 0 0 0 0 0 0 0 0 0 0 0 0 52 51 50 49 50 50 48 48 47 48 48 47 46 45 43 42 42 42 42 40 43 42 42 41 41 41 41 40 42 32 34 28 26 25 25 29 27 29 32 32 33 33 31 34 30 30 30 28 27 27 26 27 23 24 19 18 19 20 20 20 17 20 14 25 25 26 26 25 25 25 25 24 24 10 9 0 9 10 0 10 10 10 11 9 9 10 0 9 0 0 0 0 0 0 0 0 9 0 0 9 10 10 10 12 11 11 14 17 19 22 23 23 23 25 26 25 28 27 26 29 29 30 34 31 34 36 39 -177 -177 42 43 43 46 47 46 49 49 49 54 55 53 54 54 53 53 52 54 55 53 58 60 60 61 63 65 67 68 -193 -209 -177 -209 -193 74 80 86 85 85 84 85 88 91 91 92 88 96 96 96 101 96 96 100 96 99 97 98 98 95 99 99 385 386 -193 110 114 -193 -193 -177 -177 -193 -193 -193 -209 -193 -209 126 -193 130 131 -193 -193 -193 -209 -193 -193 331 331 331 -193 -193 -193 -193 85 -193 87 -193 -209 -193 -177 -193 -177 -193 -193 -193 -193 -209 416 -193 -209 -193 -193 406 -193 -193 -193 -193 93 0 0 0 0 0
    0 0 0 0 0 0 0 0 0 0 0 0 0 0 0 0 0 0 0 0 0 0 0 0 0 0 0 0 0 0 0 0 0 0 0 0 0 0 0 0 0 0 0 0 0 0 0 0 0 0 0 0 0 0 0 0 0 0 0 0 0 0 0 0 0 0 0 0 0 53 51 50 49 50 50 48 48 47 47 47 46 46 45 43 42 42 42 42 40 43 42 42 41 41 41 41 39 41 32 34 29 28 27 26 30 28 30 32 32 33 33 30 34 29 30 29 27 27 27 26 27 23 24 19 19 19 21 21 21 19 21 18 25 26 27 27 26 26 26 26 25 26 25 10 9 10 10 0 10 9 10 10 0 0 9 0 0 0 0 0 0 9 9 0 0 10 9 9 10 10 11 10 12 12 11 14 16 18 20 22 23 22 24 25 25 27 27 26 29 29 30 34 31 34 36 39 -177 -177 43 43 44 46 48 46 50 49 49 53 55 53 54 54 53 53 51 54 55 51 58 60 59 60 62 63 64 67 -193 -193 -193 -209 -193 74 80 86 85 84 83 84 87 89 -177 90 87 95 97 97 102 97 96 100 96 99 98 98 98 96 99 100 385 387 108 110 114 -193 -193 -177 -177 -177 -193 -193 -209 -193 -209 126 -193 130 131 -193 -193 -193 -209 -193 -193 331 331 -193 -193 -209 -193 -193 86 -193 87 -193 -209 -177 -177 -193 -177 -177 -193 401 -193 407 415 425 -209 -193 402 -193 -193 -193 -193 -193 93 0 0 0 0 0
    0 0 0 0 0 0 0 0 0 0 0 0 0 0 0 0 0 0 0 0 0 0 0 0 0 0 0 0 0 0 0 0 0 0 0 0 0 0 0 0 0 0 0 0 0 0 0 0 0 0 0 0 0 0 0 0 0 0 0 0 0 0 0 0 0 0 0 0 0 52 51 50 49 49 50 47 48 47 47 47 46 45 44 42 42 42 42 42 40 43 42 42 41 41 41 40 39 40 31 33 30 29 29 28 30 30 31 32 32 32 33 30 34 29 29 29 27 27 27 26 27 24 24 20 19 20 21 21 22 20 22 21 25 25 27 27 26 25 26 26 25 27 26 11 11 11 11 0 10 8 9 10 0 0 9 0 0 0 0 0 0 9 9 0 0 10 9 9 10 10 11 10 12 12 11 14 17 19 21 23 23 23 25 26 26 28 28 27 30 29 30 34 31 34 36 39 -177 -177 43 43 44 46 48 46 51 50 49 53 55 52 53 53 51 51 50 53 54 50 58 60 59 60 62 63 63 65 -193 -193 -193 -193 73 74 79 87 84 83 82 83 85 -193 -193 -193 86 94 98 98 102 97 97 100 97 99 99 99 99 97 100 101 386 387 109 110 114 -193 -193 -177 -177 -177 -209 -193 -209 -209 -193 126 131 130 132 -193 -193 -177 -193 -177 -193 330 331 -193 -193 -209 -193 -209 -209 -209 87 -209 -209 -177 -177 -177 -177 -177 -193 405 -193 409 415 423 410 -193 403 -193 -193 93 -193 -193 92 0 0 0 0 0
    0 0 0 0 0 0 0 0 0 0 0 0 0 0 0 0 0 0 0 0 0 0 0 0 0 0 0 0 0 0 0 0 0 0 0 0 0 0 0 0 0 0 0 0 0 0 0 0 0 0 0 0 0 0 0 0 0 0 0 0 0 0 0 0 0 0 0 0 0 52 51 50 49 49 50 48 48 47 48 47 47 45 44 42 42 42 42 42 40 43 42 42 42 42 41 40 39 40 33 35 34 31 31 31 33 34 34 32 32 32 32 30 34 29 28 29 27 26 26 26 26 24 24 21 20 21 22 22 23 21 22 22 25 25 26 25 25 24 24 24 23 25 25 11 13 11 12 0 0 0 0 0 0 0 0 0 0 0 0 0 0 0 9 0 0 10 9 9 10 10 11 10 12 12 11 14 18 19 22 23 23 24 25 27 26 28 28 27 30 30 30 34 31 35 36 39 -177 -177 42 43 43 46 48 46 51 49 49 53 55 51 52 52 50 50 50 52 53 49 58 60 59 60 62 62 63 64 64 65 -193 -193 74 74 79 86 83 83 82 82 -193 -177 -193 -193 86 93 98 98 102 98 98 101 98 100 -193 -193 100 98 101 102 387 -193 110 110 114 106 105 -177 -177 -177 -193 -193 -209 -209 -209 126 131 130 132 -193 -193 -177 -193 -177 134 -193 -193 -193 -193 -209 22 -209 -209 -193 87 -209 -209 775 775 -177 -177 -177 -193 405 -193 409 414 421 409 -193 -193 94 -193 92 -193 -193 91 0 0 0 0 0
    0 0 0 0 0 0 0 0 0 0 0 0 0 0 0 0 0 0 0 0 0 0 0 0 0 0 0 0 0 0 0 0 0 0 0 0 0 0 0 0 0 0 0 0 0 0 0 0 0 0 0 0 0 0 0 0 0 0 0 0 0 0 0 0 0 0 0 0 0 52 51 51 49 48 51 49 48 47 48 47 47 45 45 43 43 42 43 42 41 44 43 43 42 42 42 41 40 40 36 37 36 34 33 33 35 36 35 34 34 32 32 31 34 29 28 28 26 26 26 26 26 24 25 22 21 22 22 22 23 22 22 23 24 24 26 25 25 23 24 25 24 26 25 15 15 15 15 0 0 0 0 0 0 0 0 0 0 0 0 0 0 0 10 9 9 10 9 9 10 11 11 10 11 11 10 13 16 19 21 23 23 24 25 27 26 28 28 27 30 30 30 34 31 35 36 39 -177 -177 42 43 43 46 48 46 51 49 49 52 55 51 51 51 50 49 49 51 53 48 58 60 59 60 62 62 63 64 65 68 72 75 76 76 79 85 83 82 81 82 -177 -193 -193 -193 85 92 98 98 102 99 99 102 99 100 -193 -193 102 100 103 103 387 110 111 110 114 106 105 257 261 -177 -193 -193 -209 -209 -209 125 131 130 132 -193 -193 -177 -193 -177 134 -193 -193 -193 -193 -209 22 -193 -193 -177 87 -177 -209 776 776 -177 -177 -177 -193 -193 -193 408 414 420 408 403 -209 94 -193 91 -193 -193 91 0 0 0 0 0
    0 0 0 0 0 0 0 0 0 0 0 0 0 0 0 0 0 0 0 0 0 0 0 0 0 0 0 0 0 0 0 0 0 0 0 0 0 0 0 0 0 0 0 0 0 0 0 0 0 0 0 0 0 0 0 0 0 0 0 0 0 0 0 0 0 0 0 0 0 52 51 51 49 48 50 49 49 48 48 47 48 46 46 44 44 43 44 43 42 44 43 43 43 43 42 41 41 41 38 38 38 36 35 35 36 37 36 35 35 33 33 31 33 29 28 28 26 26 26 26 26 25 26 23 22 23 23 23 24 23 23 23 24 24 26 25 24 23 24 25 24 26 26 19 17 19 17 0 0 0 0 0 0 0 0 0 0 9 0 0 0 0 10 9 10 11 10 10 11 11 12 11 12 11 10 12 15 17 19 21 21 22 24 26 26 28 28 27 30 30 30 34 31 35 36 39 -177 -193 43 43 43 45 47 45 50 48 49 51 55 50 51 51 50 48 49 51 52 48 58 61 59 60 62 62 63 63 64 69 72 77 77 77 79 85 83 83 82 83 -177 -193 86 86 84 91 98 97 102 100 100 102 100 101 -193 -193 103 102 -177 -177 387 -193 112 109 114 106 105 258 262 262 -193 -193 -193 -209 -209 124 131 130 131 -193 -193 -177 -193 -193 134 -193 -193 -193 -177 -177 -193 -193 -177 -177 -209 -177 778 777 776 -193 773 -193 -193 -193 -193 406 413 420 -209 -209 -193 93 -193 -193 -193 -193 91 0 0 0 0 0
    0 0 0 0 0 0 0 0 0 0 0 0 0 0 0 0 0 0 0 0 0 0 0 0 0 0 0 0 0 0 0 0 0 0 0 0 0 0 0 0 0 0 0 0 0 0 0 0 0 0 0 0 0 0 0 0 0 0 0 0 0 0 0 0 0 0 0 0 0 52 51 51 50 48 50 49 49 48 48 47 48 46 47 45 44 44 44 43 42 45 44 44 44 44 43 42 42 42 39 39 39 38 36 37 37 37 37 35 35 33 33 32 33 29 27 27 26 26 26 27 27 26 27 25 24 25 24 24 25 24 23 24 24 24 26 25 24 24 24 25 25 26 26 21 17 17 15 0 0 0 0 0 0 0 0 0 0 10 0 0 9 0 10 9 10 11 10 10 11 11 12 11 13 11 10 12 15 17 18 21 20 21 23 26 25 28 28 27 30 30 30 34 30 34 35 38 -193 -193 42 43 43 45 47 46 50 48 48 50 54 50 50 50 48 47 49 50 52 48 59 62 60 61 62 62 62 62 63 68 72 78 77 77 80 85 83 83 82 83 -177 -193 86 86 84 90 97 96 102 101 101 103 101 102 -177 -177 -193 -209 105 106 -193 -177 113 109 114 106 105 259 262 262 -193 -193 -193 -209 -193 124 131 130 132 136 -193 -177 -193 -193 134 133 133 131 125 129 -193 -209 -177 -177 -177 -177 779 778 777 777 -177 -193 -193 -193 -193 -177 -177 -177 -209 -209 -193 -193 -193 -193 -193 -193 -193 0 0 0 0 0
    0 0 0 0 0 0 0 0 0 0 0 0 0 0 0 0 0 0 0 0 0 0 0 0 0 0 0 0 0 0 0 0 0 0 0 0 0 0 0 0 0 0 0 0 0 0 0 0 0 0 0 0 0 0 0 0 0 0 0 0 0 0 0 0 0 0 0 0 0 52 51 51 50 48 49 50 50 49 49 48 49 47 48 46 45 44 45 43 43 44 44 44 44 45 44 42 42 42 40 41 40 39 37 38 38 38 38 36 36 34 33 32 32 29 27 26 25 25 26 26 27 27 27 26 25 26 25 25 25 25 23 24 23 24 25 25 24 24 24 25 25 26 25 21 16 15 13 0 0 0 0 0 0 0 0 0 0 9 0 0 9 9 10 10 10 11 10 10 11 11 11 11 11 9 9 10 13 15 18 21 20 21 23 26 26 28 27 27 30 30 30 34 31 35 35 39 40 40 43 43 43 45 47 47 50 49 49 51 54 49 50 50 48 47 49 49 52 48 59 62 61 61 62 62 62 62 62 68 71 77 77 77 79 85 83 83 82 83 -177 86 86 86 85 90 98 96 102 102 103 -177 103 104 -193 -193 106 106 106 106 -177 -177 112 109 114 106 105 -177 -177 262 -193 -193 -193 -209 -177 123 131 130 132 136 -193 592 -193 -193 133 132 132 131 125 129 128 -209 -177 -177 779 778 780 778 -177 -177 -177 -193 -193 -193 613 -209 -177 -177 -193 -193 160 -193 -193 -193 -193 653 -193 0 0 0 0 0
    0 0 0 0 0 0 0 0 0 0 0 0 0 0 0 0 0 0 0 0 0 0 0 0 0 0 0 0 0 0 0 0 0 0 0 0 0 0 0 0 0 0 0 0 0 0 0 0 0 0 0 0 0 0 0 0 0 0 0 0 0 0 0 0 0 0 0 0 0 52 52 52 50 49 50 51 50 49 50 48 50 47 48 46 45 45 45 44 43 44 44 44 44 46 44 43 43 43 41 41 41 40 38 38 38 38 38 35 36 33 33 31 32 29 28 26 25 25 26 27 27 27 28 28 27 28 27 26 25 25 24 24 23 24 25 25 25 25 25 25 25 26 25 20 16 14 12 0 0 0 0 0 0 0 0 9 9 9 9 0 10 10 10 10 10 11 11 10 11 10 11 10 10 0 0 9 13 15 16 20 20 22 23 26 26 28 28 28 30 30 30 34 31 35 36 39 40 41 43 44 44 45 47 47 49 49 49 51 54 49 50 50 48 47 48 49 52 49 59 63 62 62 63 63 63 63 63 68 70 76 76 77 78 84 83 83 82 84 -177 86 87 87 85 90 99 96 102 103 104 105 104 105 107 106 107 107 106 107 -177 -177 111 108 112 -193 -193 -177 -177 262 -193 -193 -193 -193 -177 122 129 129 131 136 -193 593 -193 -193 133 132 132 131 125 130 129 133 -193 -177 -177 -177 -177 -177 -177 -177 -209 -209 -193 614 614 -209 -177 -177 -193 -209 -193 -193 -193 -193 -193 652 -193 0 0 0 0 0
    0 0 0 0 0 0 0 0 0 0 0 0 0 0 0 0 0 0 0 0 0 0 0 0 0 0 0 0 0 0 0 0 0 0 0 0 0 0 0 0 0 0 0 0 0 0 0 0 0 0 0 0 0 0 0 0 0 0 0 0 0 0 0 0 0 0 0 0 0 51 52 52 51 49 51 51 51 49 50 48 50 46 48 46 45 45 46 44 44 45 45 44 44 47 45 44 44 44 42 42 41 41 38 39 38 38 38 36 36 33 32 30 30 30 28 25 24 25 27 28 28 29 30 30 29 29 29 25 24 24 23 23 23 24 25 25 25 25 25 25 24 25 24 20 15 14 12 0 0 0 0 0 0 0 0 9 9 9 9 0 10 9 10 10 10 10 10 10 11 9 10 9 0 0 0 0 11 13 14 20 20 22 23 27 26 28 28 28 29 30 29 33 30 34 35 39 40 40 42 43 43 44 46 47 48 51 51 51 54 49 51 50 48 47 48 49 52 51 59 64 64 63 64 64 65 64 64 69 70 75 76 76 78 84 82 82 82 84 -177 87 87 87 87 91 99 96 102 104 104 105 106 106 108 107 107 107 106 -193 -177 -177 110 107 111 -193 -193 -177 261 261 -177 -177 -193 -209 -177 122 127 128 130 135 132 592 -193 132 132 132 132 131 125 129 129 132 -193 -177 -193 -177 -177 -177 -177 -193 -209 -209 -193 615 615 -209 -177 -177 -209 -209 -193 -193 -193 0 -193 652 -193 0 0 0 0 0
    0 0 0 0 0 0 0 0 0 0 0 0 0 0 0 0 0 0 0 0 0 0 0 0 0 0 0 0 0 0 0 0 0 0 0 0 0 0 0 0 0 0 0 0 0 0 0 0 0 0 0 0 0 0 0 0 0 0 0 0 0 0 0 0 0 0 0 0 0 50 52 52 52 50 51 51 50 49 50 48 50 46 48 47 46 45 47 44 44 45 45 45 44 48 45 44 45 45 43 43 42 42 39 40 38 39 38 36 37 34 32 30 29 31 29 25 25 26 28 29 29 30 31 31 30 30 30 25 24 23 23 23 23 24 24 24 24 24 24 25 24 25 24 19 14 12 12 0 0 0 0 0 0 0 0 0 0 0 9 0 9 9 10 11 11 11 11 10 11 10 10 9 0 0 0 0 12 13 15 21 20 23 24 27 26 28 28 28 29 30 29 33 30 34 35 39 40 41 43 43 43 44 46 47 47 51 51 51 54 49 51 51 49 47 48 49 52 52 60 65 66 64 66 65 66 66 65 69 70 74 75 76 77 83 82 82 82 84 -177 -193 88 -193 88 91 99 96 101 -209 105 106 108 107 109 108 108 108 -193 -193 -177 -177 -193 -177 110 -193 -209 257 260 260 539 539 -193 -193 106 122 125 126 129 134 131 -193 132 132 132 131 131 130 125 129 128 131 134 -177 -193 -193 -177 -177 -177 -193 -209 -193 -209 615 616 -209 -177 -193 -209 -193 -193 0 -193 0 -193 -177 -193 0 0 0 0 0
    0 0 0 0 0 0 0 0 0 0 0 0 0 0 0 0 0 0 0 0 0 0 0 0 0 0 0 0 0 0 0 0 0 0 0 0 0 0 0 0 0 0 0 0 0 0 0 0 0 0 0 0 0 0 0 0 0 0 0 0 0 0 0 0 0 0 0 0 0 51 53 53 52 51 51 51 50 49 50 48 49 46 48 47 46 46 47 45 45 45 45 45 45 48 46 44 45 45 44 43 42 43 40 41 39 39 39 37 37 35 33 30 30 33 30 26 26 27 28 30 30 30 30 30 30 29 31 27 24 24 24 24 24 24 24 24 24 24 24 24 24 23 23 19 14 12 11 0 0 0 0 0 0 0 0 0 0 0 0 0 10 10 10 11 12 12 12 11 11 10 10 9 9 0 0 0 10 11 13 20 20 23 24 27 26 28 28 28 29 30 29 33 30 34 35 39 40 41 43 43 44 44 46 47 46 51 51 51 54 49 51 51 49 47 49 49 52 53 60 65 67 65 66 66 66 66 65 69 70 73 75 75 76 82 81 81 82 84 -177 -193 88 88 88 90 97 95 100 -209 -193 106 109 108 109 108 109 109 -193 -193 -193 -177 -193 -177 108 -193 -209 255 258 -193 -177 -177 -177 -193 106 120 123 124 127 134 130 -193 132 131 131 131 131 130 125 129 128 129 132 -193 -193 -193 -193 -177 -193 -193 -209 -193 -209 615 -193 754 -177 -209 -209 0 0 0 -193 0 -193 -177 -193 0 0 0 0 0
    0 0 0 0 0 0 0 0 0 0 0 0 0 0 0 0 0 0 0 0 0 0 0 0 0 0 0 0 0 0 0 0 0 0 0 0 0 0 0 0 0 0 0 0 0 0 0 0 0 0 0 0 0 0 0 0 0 0 0 0 0 0 0 0 0 0 0 0 0 52 54 54 53 51 51 51 50 49 50 48 49 45 48 47 46 46 47 45 45 45 45 45 44 48 45 45 45 45 44 43 42 44 40 41 39 39 -193 37 38 36 34 31 30 35 32 27 28 28 29 30 30 30 30 30 30 29 30 27 25 25 25 24 24 25 25 25 25 25 25 25 25 24 22 20 15 12 11 8 0 0 0 0 0 0 0 0 0 0 0 0 9 9 10 11 12 12 12 12 11 10 10 9 9 0 0 0 0 9 11 19 19 23 24 27 26 28 27 28 29 30 29 33 31 34 35 39 40 41 43 43 44 44 46 48 45 50 50 50 54 49 51 51 49 47 49 49 52 53 60 65 67 65 66 65 66 66 64 67 69 72 74 74 76 82 81 81 82 85 -177 -193 88 89 88 90 97 94 100 -193 -193 106 110 108 109 109 109 109 107 107 -193 -177 -193 -177 -193 -177 -193 -193 -177 -193 -177 -177 -177 -209 106 119 122 123 127 133 129 -193 131 131 131 130 131 130 125 128 128 128 130 33 -193 102 -193 -209 -209 -193 -209 -193 -209 615 -193 752 -177 -209 -193 0 0 0 -193 0 652 -177 -193 0 0 0 0 0
    0 0 0 0 0 0 0 0 0 0 0 0 0 0 0 0 0 0 0 0 0 0 0 0 0 0 0 0 0 0 0 0 0 0 0 0 0 0 0 0 0 0 0 0 0 0 0 0 0 0 0 0 0 0 0 0 0 0 0 0 0 0 0 0 0 0 0 0 0 52 54 55 54 52 51 52 50 49 50 47 48 45 47 46 45 45 47 45 45 45 45 45 44 48 45 45 46 46 44 44 43 45 41 42 39 39 -193 38 -193 -193 34 31 31 35 32 27 29 29 29 29 30 29 29 29 29 28 29 27 25 25 25 24 25 25 25 25 25 25 25 25 25 24 22 19 14 12 10 9 0 0 0 0 0 0 0 0 0 0 0 0 9 9 9 10 11 12 11 12 11 10 10 9 9 0 0 0 9 10 11 20 19 23 24 27 26 28 28 28 29 30 29 33 31 33 35 39 40 41 43 43 44 44 46 49 45 51 51 51 54 49 51 51 49 48 49 49 52 53 60 65 68 65 66 64 65 66 63 65 68 70 73 73 75 82 80 81 82 85 -177 -209 -193 89 89 90 98 94 100 -193 106 106 -193 108 109 109 109 109 107 -193 107 -177 -193 -177 -193 -177 -193 -193 255 255 540 -177 -177 -209 105 119 122 123 126 132 129 -193 131 131 131 130 131 130 124 128 127 125 126 -193 -193 102 -209 -209 -209 870 -209 -209 -209 614 -209 752 -177 -209 -193 -193 0 0 -193 0 652 -177 -193 0 0 0 0 0
    0 0 0 0 0 0 0 0 0 0 0 0 0 0 0 0 0 0 0 0 0 0 0 0 0 0 0 0 0 0 0 0 0 0 0 0 0 0 0 0 0 0 0 0 0 0 0 0 0 0 0 0 0 0 0 0 0 0 0 0 0 0 0 0 0 0 0 0 0 52 54 55 55 53 51 52 50 49 50 47 48 45 47 46 45 45 46 44 45 45 45 45 44 49 46 45 46 46 44 44 43 45 41 41 38 38 -193 37 -193 -193 34 31 31 36 32 27 28 29 28 29 29 28 28 28 28 27 27 25 24 24 25 24 25 25 25 25 25 25 25 24 24 22 20 17 14 11 10 9 0 0 0 0 0 0 0 0 0 0 0 0 9 9 9 10 11 11 11 12 11 10 10 10 10 9 9 9 9 10 12 21 20 24 25 28 27 29 28 29 29 30 29 33 31 33 34 38 39 40 42 43 43 44 47 50 45 51 51 51 54 49 51 51 49 48 50 50 52 54 61 65 68 65 66 64 65 66 63 64 67 68 71 71 74 81 80 80 82 85 -193 -209 89 89 89 90 98 94 100 -193 105 106 -193 108 109 109 110 110 107 108 108 -177 -209 -177 -177 -177 -177 -193 255 -193 -177 -177 -177 -209 104 119 123 123 126 132 128 129 130 130 131 129 130 130 124 126 126 -193 -209 -193 -193 102 -209 -209 -209 870 -209 -209 -209 -193 -193 -193 -177 -177 156 -193 -193 0 -193 -193 -177 -193 -209 0 0 0 0 0
    0 0 0 0 0 0 0 0 0 0 0 0 0 0 0 0 0 0 0 0 0 0 0 0 0 0 0 0 0 0 0 0 0 0 0 0 0 0 0 0 0 0 0 0 0 0 0 0 0 0 0 0 0 0 0 0 0 0 0 0 0 0 0 0 0 0 0 0 0 52 54 55 55 53 51 52 51 49 50 47 48 44 46 46 45 45 46 44 45 45 45 45 44 49 46 45 46 46 44 44 43 45 41 41 38 38 -193 37 -193 -193 34 32 31 36 32 27 28 28 28 28 29 27 27 26 26 25 26 24 23 23 24 23 24 25 24 24 24 24 23 22 21 19 17 15 14 11 11 10 9 0 0 0 0 0 0 0 0 0 0 0 9 9 9 10 10 11 11 12 11 11 11 10 10 10 10 9 9 10 13 21 21 26 26 28 27 30 28 29 29 30 29 33 31 33 34 39 39 40 42 43 43 45 49 50 45 52 52 52 55 50 51 51 50 50 51 51 53 55 61 65 68 65 66 64 65 66 64 64 67 67 71 70 74 81 79 79 82 84 -193 -209 -193 89 89 90 98 94 100 -193 105 -193 306 108 109 109 110 110 107 108 108 -177 -209 -177 -177 -177 -177 -193 255 255 541 -177 -177 -193 105 120 123 124 125 131 128 128 130 130 130 129 130 129 123 125 125 -193 -209 -193 -193 102 -209 -193 -193 870 -209 -209 -209 -193 -209 -193 -177 -177 -193 -193 -193 -193 -193 -193 -193 -193 -209 0 0 0 0 0
    0 0 0 0 0 0 0 0 0 0 0 0 0 0 0 0 0 0 0 0 0 0 0 0 0 0 0 0 0 0 0 0 0 0 0 0 0 0 0 0 0 0 0 0 0 0 0 0 0 0 0 0 0 0 0 0 0 0 0 0 0 0 0 0 0 0 0 0 0 52 54 55 55 53 51 53 51 49 50 46 47 44 45 45 44 45 45 44 44 44 45 44 43 49 45 45 45 45 44 43 42 44 40 41 38 38 -193 38 -193 -177 34 32 31 37 32 26 27 28 27 27 27 25 26 24 24 24 24 23 23 22 24 22 24 24 23 21 22 21 20 19 19 17 16 14 15 11 12 11 10 9 9 9 9 0 0 0 0 0 0 0 0 9 9 9 10 11 10 11 10 10 11 10 10 10 10 9 9 10 14 21 22 26 26 27 27 29 28 29 29 30 29 32 31 33 33 38 38 39 41 42 42 46 49 50 45 53 53 53 55 51 51 51 50 51 52 53 54 57 62 65 68 65 67 65 65 66 64 63 67 66 71 70 74 80 79 79 81 84 -193 -193 -193 88 88 89 97 93 100 -209 105 -193 -177 108 109 109 110 110 107 108 108 -177 -209 -177 -177 -177 -177 -193 -177 -177 -193 -177 -177 -177 -193 121 124 124 125 130 128 128 130 130 130 128 130 129 123 124 124 -193 -209 -193 -193 -193 180 -193 -193 -193 -209 -209 -209 -193 -209 -193 -177 -177 -193 -193 -193 -193 -193 -193 -193 -209 -209 0 0 0 0 0
    0 0 0 0 0 0 0 0 0 0 0 0 0 0 0 0 0 0 0 0 0 0 0 0 0 0 0 0 0 0 0 0 0 0 0 0 0 0 0 0 0 0 0 0 0 0 0 0 0 0 0 0 0 0 0 0 0 0 0 0 0 0 0 0 0 0 0 0 0 52 53 55 54 53 50 52 50 49 49 45 47 43 45 45 44 45 45 44 44 44 45 44 43 48 45 44 44 44 43 42 41 43 40 40 37 38 39 37 -193 -193 35 33 31 37 31 26 26 27 26 26 26 24 25 23 23 23 23 22 22 21 23 21 23 22 20 19 20 18 17 16 17 16 15 14 16 11 12 11 11 9 9 9 9 0 0 0 0 0 0 0 0 0 9 9 10 11 10 11 10 10 11 9 10 10 10 10 10 11 15 22 22 26 27 27 27 29 28 29 29 30 28 32 31 32 33 37 38 38 41 41 41 46 50 50 45 53 53 53 55 52 52 52 51 52 -193 -193 56 58 63 65 68 66 67 64 65 66 65 63 68 66 71 70 74 80 78 78 81 83 82 87 87 88 86 89 96 93 100 -193 105 -193 -177 108 109 109 110 110 108 109 109 -177 -193 -177 -177 -177 -177 -193 -177 -193 -193 541 541 -177 -209 121 125 125 126 130 128 128 130 130 130 128 130 129 -193 123 123 -193 -193 -193 -193 -193 182 -193 -193 -209 -209 -193 -209 -209 -193 -193 413 422 -193 -193 -193 -193 158 160 -209 -209 -209 0 0 0 0 0
    0 0 0 0 0 0 0 0 0 0 0 0 0 0 0 0 0 0 0 0 0 0 0 0 0 0 0 0 0 0 0 0 0 0 0 0 0 0 0 0 0 0 0 0 0 0 0 0 0 0 0 0 0 0 0 0 0 0 0 0 0 0 0 0 0 0 0 0 0 53 53 54 54 52 49 51 50 48 48 45 47 43 44 45 44 44 45 44 44 44 45 44 43 47 44 44 43 42 42 41 40 42 39 40 36 37 38 37 37 -193 34 32 31 35 30 26 26 27 26 26 26 24 24 23 23 22 23 23 22 21 23 18 22 20 17 14 15 13 13 14 15 14 14 14 16 11 13 12 12 10 10 9 9 9 0 0 0 0 0 0 0 0 9 9 10 11 10 11 10 11 11 10 10 10 11 11 10 12 15 22 22 26 26 26 26 29 28 28 29 30 28 32 31 32 33 38 38 38 41 41 41 46 50 51 45 53 53 53 55 53 53 53 53 54 -193 58 58 60 63 65 68 66 67 64 65 67 65 63 68 66 71 70 74 79 78 77 79 81 81 87 87 87 85 88 96 93 100 -209 105 105 -193 108 110 109 110 111 108 110 110 -193 108 -177 -193 -177 -177 -193 -177 -193 -193 -177 -177 -193 -209 121 125 125 126 130 129 128 130 130 131 128 130 129 -193 -193 122 115 111 107 106 -193 185 -209 -209 -209 -193 -193 -209 -209 -193 391 -193 -193 -193 -209 -193 -193 158 159 -209 -209 -209 0 0 0 0 0
    0 0 0 0 0 0 0 0 0 0 0 0 0 0 0 0 0 0 0 0 0 0 0 0 0 0 0 0 0 0 0 0 0 0 0 0 0 0 0 0 0 0 0 0 0 0 0 0 0 0 0 0 0 0 0 0 0 0 0 0 0 0 0 0 0 0 0 0 0 54 53 54 54 52 49 52 50 50 48 46 48 43 44 45 44 44 44 44 44 44 45 44 43 46 44 43 42 41 41 40 40 41 38 39 36 37 38 36 36 35 34 32 31 34 29 25 25 27 25 26 26 24 25 23 23 22 22 22 21 19 21 13 16 14 13 11 11 11 12 12 13 13 14 13 17 12 14 12 12 11 11 10 10 9 9 0 0 0 0 0 0 0 9 9 10 11 10 11 10 11 11 10 10 10 11 11 11 12 15 21 21 25 26 25 26 29 28 28 29 29 28 32 31 33 33 38 38 37 41 41 41 46 51 51 45 53 53 53 55 55 54 54 54 55 58 60 59 61 63 66 68 66 67 64 65 67 66 64 68 -193 -193 69 73 78 77 76 78 80 80 85 86 86 83 87 95 93 99 -209 104 105 -209 -193 -177 109 110 111 109 111 111 110 109 -193 -193 -177 -177 -177 -177 -193 -193 -177 -177 -177 -177 121 126 126 127 130 129 129 130 130 131 128 130 130 -193 -193 123 117 114 109 108 -209 189 -193 -209 -209 102 -193 -193 -209 -193 389 -193 -209 -193 -209 -209 -193 158 159 -193 -209 -209 0 0 0 0 0
    0 0 0 0 0 0 0 0 0 0 0 0 0 0 0 0 0 0 0 0 0 0 0 0 0 0 0 0 0 0 0 0 0 0 0 0 0 0 0 0 0 0 0 0 0 0 0 0 0 0 0 0 0 0 0 0 0 0 0 0 0 0 0 0 0 0 0 0 0 54 53 54 54 53 50 52 51 51 48 46 48 44 44 45 44 44 44 44 45 44 45 44 43 46 44 43 42 41 40 39 39 40 38 39 35 37 37 36 36 35 33 32 30 32 28 25 25 26 25 26 25 25 25 23 23 22 22 22 21 18 18 10 10 10 11 10 10 10 11 11 12 12 13 11 14 11 13 12 12 11 11 11 11 10 10 9 0 9 0 0 0 0 10 10 10 11 10 11 11 11 12 10 11 10 12 12 12 13 15 21 21 24 25 25 26 29 28 28 29 30 29 32 31 33 33 38 38 37 41 41 41 46 52 51 45 54 54 54 56 56 56 55 56 56 60 62 61 62 63 66 68 66 67 64 65 67 66 -193 -193 -193 -193 -193 73 -193 76 75 77 78 79 84 84 85 80 85 95 93 99 -209 103 104 -209 -177 -177 -193 110 111 109 111 112 111 111 -193 109 -177 -177 -177 -177 -193 -177 -193 -193 -193 -177 121 127 127 127 130 130 129 131 130 131 128 130 130 123 124 124 119 116 110 109 -193 193 -193 104 103 102 -193 -193 -209 -193 -177 -193 -209 -193 -209 -209 -209 -193 159 -193 15 -193 0 0 0 0 0
    0 0 0 0 0 0 0 0 0 0 0 0 0 0 0 0 0 0 0 0 0 0 0 0 0 0 0 0 0 0 0 0 0 0 0 0 0 0 0 0 0 0 0 0 0 0 0 0 0 0 0 0 0 0 0 0 0 0 0 0 0 0 0 0 0 0 0 0 0 54 52 53 54 52 50 52 51 51 47 47 48 44 44 45 44 44 44 44 45 44 45 44 43 45 43 42 41 40 39 38 38 39 37 38 35 36 37 35 35 34 33 31 30 31 28 25 25 26 25 26 25 24 25 23 22 22 22 22 20 16 15 9 0 0 -193 -193 9 9 9 10 10 11 12 10 12 10 12 12 12 12 11 11 11 10 11 9 9 9 0 0 0 0 10 10 11 11 11 11 11 11 12 10 12 11 13 13 14 15 17 21 21 24 25 25 26 29 28 28 29 30 29 32 31 32 32 38 38 37 41 41 41 46 52 52 46 55 55 55 56 58 57 57 57 58 62 63 62 64 64 66 68 66 67 64 65 68 66 -193 -193 -193 -193 -193 -193 -209 74 -193 76 -193 78 83 83 84 80 84 94 93 98 -209 102 103 -209 -177 -177 -193 110 111 109 111 112 111 112 -193 -193 -177 -177 -177 -177 -193 -177 -193 267 -193 -177 121 127 128 127 130 130 129 131 130 131 128 130 130 123 124 124 121 118 111 108 -193 194 -193 104 103 102 -193 -193 -193 -193 -177 -193 -193 -193 -209 -209 -209 -193 160 -193 16 -193 0 0 0 0 0
    0 0 0 0 0 0 0 0 0 0 0 0 0 0 0 0 0 0 0 0 0 0 0 0 0 0 0 0 0 0 0 0 0 0 0 0 0 0 0 0 0 0 0 0 0 0 0 0 0 0 0 0 0 0 0 0 0 0 0 0 0 0 0 0 0 0 0 0 0 54 52 53 53 52 49 52 51 50 46 47 48 45 44 45 45 44 44 44 45 44 44 44 43 43 42 42 40 39 39 37 37 38 37 38 35 36 37 35 35 34 32 31 30 30 28 25 25 25 25 25 25 24 24 23 22 22 22 22 20 15 14 0 0 0 -193 -193 0 0 9 10 10 11 12 10 12 9 12 11 11 11 11 11 11 10 10 9 9 9 0 9 0 9 10 10 11 11 11 11 11 11 12 10 12 11 14 14 14 15 17 21 21 -193 25 26 26 29 28 28 29 30 29 32 31 33 33 38 38 37 41 41 41 46 52 52 46 55 55 55 56 60 58 57 59 59 63 65 63 65 64 66 68 66 67 64 66 68 67 -193 -193 -193 -193 -193 -193 -209 -209 -193 75 -193 77 82 82 83 78 83 93 92 97 -193 100 103 -193 -177 -177 -193 109 110 109 111 112 112 112 -193 -193 -177 -177 -177 -177 -193 -177 -209 267 -193 -177 121 127 128 127 130 130 129 131 130 131 128 130 130 124 125 125 122 119 113 110 188 195 -209 -193 -209 -193 -209 -193 -193 -193 -177 -177 -193 -193 -209 -209 -209 -193 161 -193 16 -193 0 0 0 0 0
    0 0 0 0 0 0 0 0 0 0 0 0 0 0 0 0 0 0 0 0 0 0 0 0 0 0 0 0 0 0 0 0 0 0 0 0 0 0 0 0 0 0 0 0 0 0 0 0 0 0 0 0 0 0 0 0 0 0 0 0 0 0 0 0 0 0 0 0 0 54 51 52 52 51 49 51 51 50 45 49 48 47 44 46 45 44 44 44 44 43 44 43 42 42 41 41 40 38 38 37 37 38 37 38 35 36 36 35 34 33 32 31 29 28 27 25 25 25 25 25 25 24 24 23 22 22 22 22 20 15 -193 0 0 0 0 0 0 0 0 9 10 11 12 10 11 9 11 11 11 11 11 11 10 10 10 9 9 0 0 0 0 9 10 10 11 11 11 11 11 11 12 10 11 11 14 14 14 15 17 21 21 -193 25 25 26 29 28 28 29 30 29 32 31 33 33 38 38 37 41 41 41 46 52 52 45 55 55 55 56 62 59 58 60 61 64 65 63 65 64 67 68 66 67 65 66 68 67 -193 -193 -193 -193 -193 -193 -177 -209 -193 74 -193 76 80 81 81 78 82 92 92 96 102 99 102 -177 -177 -177 -177 108 109 108 110 112 111 112 -193 -193 -177 -177 -177 -177 -193 -177 -209 267 -193 -177 121 126 128 127 130 130 130 131 130 131 129 130 131 124 125 126 122 121 116 112 189 196 -209 -209 -209 151 152 153 -193 -193 -177 -193 -193 -193 -209 -209 -209 -209 161 -193 15 -209 0 0 0 0 0
    0 0 0 0 0 0 0 0 0 0 0 0 0 0 0 0 0 0 0 0 0 0 0 0 0 0 0 0 0 0 0 0 0 0 0 0 0 0 0 0 0 0 0 0 0 0 0 0 0 0 0 0 0 0 0 0 0 0 0 0 0 0 0 0 0 0 0 0 0 54 51 51 52 50 49 51 51 50 44 50 48 49 45 46 45 44 44 44 44 43 43 43 42 42 41 40 39 38 37 37 36 37 36 38 35 36 36 34 34 33 31 31 28 27 27 25 25 26 25 26 26 25 25 23 23 22 23 23 21 17 15 0 0 0 0 0 0 0 0 9 10 11 12 11 11 9 10 10 10 10 10 11 10 10 10 9 0 0 0 0 0 0 10 10 11 11 11 11 11 11 12 10 11 10 13 14 15 16 17 21 21 24 24 26 26 29 28 28 29 30 29 33 31 33 33 38 38 37 41 41 41 45 52 51 45 55 55 55 56 63 60 59 61 62 65 66 64 66 64 67 69 66 67 65 66 69 68 -193 -193 -193 -193 66 -193 -209 71 -193 73 -177 75 78 79 80 77 81 92 92 95 101 98 101 -177 -177 -177 -177 108 108 107 110 111 110 111 734 -193 -177 -177 -177 -177 -177 -177 -193 266 -193 -177 120 126 127 127 130 131 130 131 131 131 129 130 131 125 126 126 123 121 -193 115 189 197 -209 -209 148 150 152 152 154 -209 -193 -193 -193 -193 -209 -209 -193 -193 162 -193 -193 -209 0 0 0 0 0
    0 0 0 0 0 0 0 0 0 0 0 0 0 0 0 0 0 0 0 0 0 0 0 0 0 0 0 0 0 0 0 0 0 0 0 0 0 0 0 0 0 0 0 0 0 0 0 0 0 0 0 0 0 0 0 0 0 0 0 0 0 0 0 0 0 0 0 0 0 54 51 51 52 50 49 51 51 50 44 51 48 50 45 46 45 44 45 44 44 43 43 43 42 41 41 40 39 37 37 36 35 36 36 37 35 35 35 33 32 32 30 30 27 26 27 25 25 26 25 26 26 25 26 23 23 23 23 23 21 17 15 0 0 0 0 0 0 0 0 9 10 11 12 10 10 10 10 10 10 10 10 10 9 9 9 9 0 0 0 0 0 9 10 10 11 11 11 11 10 11 11 10 11 10 13 14 15 16 17 21 20 23 24 26 26 29 28 28 30 30 29 34 31 33 33 38 38 37 41 41 41 45 52 51 45 55 55 55 56 63 60 59 61 62 65 66 64 66 64 67 69 66 -177 -177 67 69 68 -193 -193 -193 -193 65 69 -209 70 -193 72 -177 -193 77 78 79 77 80 92 92 94 101 97 100 -193 -177 -177 -177 -193 -193 -193 109 111 110 110 734 -193 735 737 736 260 -177 -177 -193 -193 -193 -177 120 126 127 126 130 131 130 132 131 131 129 130 131 125 126 126 123 121 -193 116 -177 -177 -209 -193 147 150 152 152 154 -209 -193 159 -193 -193 -193 -209 164 -193 162 -193 -193 -209 0 0 0 0 0
    0 0 0 0 0 0 0 0 0 0 0 0 0 0 0 0 0 0 0 0 0 0 0 0 0 0 0 0 0 0 0 0 0 0 0 0 0 0 0 0 0 0 0 0 0 0 0 0 0 0 0 0 0 0 0 0 0 0 0 0 0 0 0 0 0 0 0 0 0 55 51 51 51 50 49 50 51 49 44 -193 47 51 45 46 46 44 45 44 44 44 43 43 42 41 41 40 40 37 37 36 35 36 36 37 35 34 35 32 32 31 29 29 27 26 27 25 25 26 26 27 26 26 26 24 23 23 23 23 21 18 16 10 0 0 0 0 0 0 9 10 11 12 13 11 11 10 10 10 10 10 10 10 9 9 9 9 0 0 0 0 0 9 10 10 11 10 11 11 10 11 11 10 10 10 13 14 14 15 15 21 20 23 23 26 26 29 28 28 30 30 30 34 31 33 33 38 -177 37 41 41 41 45 52 51 45 55 55 55 56 63 60 59 61 62 65 66 64 66 64 67 69 66 -177 -177 66 69 68 65 67 64 66 64 68 -209 69 69 71 -177 -177 76 77 78 76 79 91 92 93 100 96 100 -193 -177 -177 971 971 971 -177 108 110 109 109 734 -193 735 737 736 259 -177 -193 -177 -177 -177 -177 119 125 127 126 130 131 130 131 130 131 129 130 131 126 126 127 124 122 -193 -193 -193 -177 -209 147 147 150 -193 153 -193 -193 -193 -193 -193 159 -193 -209 164 -193 163 -193 -193 -209 0 0 0 0 0
    0 0 0 0 0 0 0 0 0 0 0 0 0 0 0 0 0 0 0 0 0 0 0 0 0 0 0 0 0 0 0 0 0 0 0 0 0 0 0 0 0 0 0 0 0 0 0 0 0 0 0 0 0 0 0 0 0 0 0 0 0 0 0 0 0 0 0 0 0 55 51 51 51 50 49 50 51 49 44 -193 47 51 46 46 46 44 45 44 44 44 43 43 42 41 41 40 40 38 37 36 35 36 36 36 34 34 34 32 31 30 29 29 27 26 27 25 25 26 26 27 26 26 26 23 24 23 23 23 21 19 17 12 10 9 9 9 9 10 10 10 11 12 13 11 11 11 10 10 9 10 9 10 9 9 0 0 0 0 0 0 0 9 10 10 10 10 11 10 10 11 11 10 10 10 12 13 14 15 14 20 20 23 24 27 26 29 28 28 30 30 30 34 30 33 33 38 -177 37 41 41 42 45 52 51 45 56 56 56 56 63 60 59 60 62 64 65 63 65 64 66 69 66 -177 -177 66 69 68 64 67 63 65 63 67 69 68 68 70 -177 -177 76 77 77 76 78 91 92 92 100 95 99 -177 -193 -177 971 971 971 -177 -177 108 -209 -193 733 -193 735 737 736 258 261 -193 -177 -177 -177 -177 119 125 127 126 130 131 130 131 131 131 130 131 132 127 127 128 126 125 128 129 -209 -177 -193 -193 149 151 -193 -193 -193 -193 -193 -193 161 160 -193 -209 165 -193 164 -209 -193 -209 0 0 0 0 0
    0 0 0 0 0 0 0 0 0 0 0 0 0 0 0 0 0 0 0 0 0 0 0 0 0 0 0 0 0 0 0 0 0 0 0 0 0 0 0 0 0 0 0 0 0 0 0 0 0 0 0 0 0 0 0 0 0 0 0 0 0 0 0 0 0 0 0 0 0 54 51 51 51 49 49 50 50 49 44 -193 46 50 46 46 46 44 45 44 44 44 43 42 42 41 41 40 40 38 37 36 35 36 36 35 34 33 33 31 30 29 28 29 27 26 28 26 25 26 27 27 26 26 26 23 24 23 23 22 20 19 18 14 13 11 11 11 9 11 10 11 12 12 12 11 11 11 10 9 9 9 9 9 9 0 0 0 0 0 0 0 0 9 10 10 10 10 10 10 10 10 10 9 9 10 12 13 13 14 14 20 20 23 24 27 26 29 28 28 30 30 30 34 30 32 33 38 -177 38 41 42 42 45 51 50 45 56 56 56 56 63 59 59 60 61 63 65 63 65 64 66 69 66 67 65 66 68 68 64 66 63 65 63 66 69 68 67 70 -177 -177 76 77 77 76 78 91 92 92 100 95 99 -177 -193 -177 -193 971 971 -177 -177 107 -193 -193 733 -193 -177 -177 -177 256 260 -177 -177 -177 -177 -193 118 124 126 126 131 131 130 131 131 131 131 132 133 130 129 131 129 131 -193 -193 -209 -209 -193 -193 150 152 766 -193 -193 -193 750 755 162 161 164 -193 165 166 164 -209 -193 -209 0 0 0 0 0
    0 0 0 0 0 0 0 0 0 0 0 0 0 0 0 0 0 0 0 0 0 0 0 0 0 0 0 0 0 0 0 0 0 0 0 0 0 0 0 0 0 0 0 0 0 0 0 0 0 0 0 0 0 0 0 0 0 0 0 0 0 0 0 0 0 0 0 0 0 54 51 51 51 49 48 50 50 49 44 52 46 50 46 46 46 44 45 43 44 44 43 42 42 41 41 40 41 38 36 36 34 35 35 35 33 32 32 31 29 29 28 29 26 26 28 26 26 26 27 27 25 26 26 23 23 23 23 22 21 20 19 16 17 14 13 13 10 12 11 12 12 12 12 12 11 12 11 10 9 9 9 9 0 0 0 0 0 0 0 9 9 9 10 10 10 10 10 10 10 10 10 9 9 10 11 12 12 13 14 20 20 24 24 28 27 29 28 28 30 30 29 34 30 32 33 38 39 38 41 42 42 45 51 50 45 56 56 56 56 62 59 58 60 60 63 64 62 64 64 66 69 66 67 65 65 68 68 64 66 63 65 63 66 68 68 68 70 -177 -177 76 77 77 76 79 91 92 92 100 94 98 -193 101 -177 -193 -193 -193 -193 -209 -209 -177 -193 -177 -193 -177 -177 -193 255 259 -177 -177 -177 -177 -193 117 123 126 125 131 131 130 131 131 132 131 133 134 132 131 133 133 135 140 150 151 155 -193 -193 151 152 -193 -193 -193 758 750 755 163 161 164 162 165 166 -193 -209 166 -209 0 0 0 0 0
    0 0 0 0 0 0 0 0 0 0 0 0 0 0 0 0 0 0 0 0 0 0 0 0 0 0 0 0 0 0 0 0 0 0 0 0 0 0 0 0 0 0 0 0 0 0 0 0 0 0 0 0 0 0 0 0 0 0 0 0 0 0 0 0 0 0 0 0 0 54 51 51 50 49 48 50 50 48 44 52 46 49 46 46 45 44 45 43 44 44 43 42 42 42 42 40 41 38 36 36 34 35 34 33 32 30 31 30 28 28 27 29 26 25 28 26 26 27 28 27 25 26 26 22 23 23 23 22 21 20 20 17 19 17 15 16 11 13 13 13 13 12 12 13 12 13 11 10 10 10 9 9 0 0 0 0 0 0 0 9 9 10 10 10 10 10 10 10 10 9 10 9 0 9 11 11 11 12 12 19 19 24 24 28 27 29 28 27 29 30 29 33 30 32 33 38 39 38 42 42 43 45 50 50 45 56 56 56 56 61 58 58 59 59 62 64 62 63 64 66 69 66 67 65 65 68 68 64 66 63 65 63 67 69 69 68 70 -177 452 76 -193 77 77 79 91 93 93 100 95 98 -193 100 -177 100 101 101 99 -193 -193 -177 -193 -177 -193 -177 -177 -193 255 258 530 530 -177 -177 106 117 123 125 125 130 131 130 131 131 132 131 133 134 133 131 134 -193 137 143 150 151 154 -193 -193 151 152 -193 157 -193 758 750 754 163 161 163 162 164 166 -193 -193 166 -193 0 0 0 0 0
    0 0 0 0 0 0 0 0 0 0 0 0 0 0 0 0 0 0 0 0 0 0 0 0 0 0 0 0 0 0 0 0 0 0 0 0 0 0 0 0 0 0 0 0 0 0 0 0 0 0 0 0 0 0 0 0 0 0 0 0 0 0 0 0 0 0 0 0 0 54 51 51 51 48 48 49 49 48 44 52 45 48 46 46 45 44 45 43 44 44 43 43 42 42 42 41 41 38 36 35 33 34 34 32 31 29 30 29 27 27 26 29 26 25 28 26 26 27 28 27 25 26 26 22 23 23 22 21 21 20 19 17 19 17 16 18 12 14 14 14 13 12 12 12 11 12 10 10 10 10 9 9 0 0 0 0 0 0 0 9 10 10 10 11 10 10 10 10 10 9 9 0 0 0 10 11 10 11 12 19 19 24 25 28 27 29 27 27 29 29 29 33 29 31 32 38 39 38 42 42 43 45 50 49 44 56 56 56 56 60 -193 57 58 -177 61 -193 61 63 64 65 68 66 67 64 65 68 68 63 66 64 66 64 67 69 69 69 71 451 452 76 -193 78 78 79 91 93 93 100 95 98 -193 100 102 99 100 100 98 -177 101 -177 -177 -177 108 -177 -177 -193 254 257 529 529 -177 -177 105 116 123 125 125 130 131 130 131 131 132 132 -193 -193 134 132 -193 -193 -193 143 151 152 155 -193 -193 153 153 158 158 159 -193 751 755 163 161 163 162 164 165 163 -193 165 -193 0 0 0 0 0
    0 0 0 0 0 0 0 0 0 0 0 0 0 0 0 0 0 0 0 0 0 0 0 0 0 0 0 0 0 0 0 0 0 0 0 0 0 0 0 0 0 0 0 0 0 0 0 0 0 0 0 0 0 0 0 0 0 0 0 0 0 0 0 0 0 0 0 0 0 54 51 51 51 48 48 49 49 48 43 51 45 47 46 45 45 44 45 43 45 44 44 43 43 42 42 41 41 38 35 34 31 32 32 31 29 28 29 28 26 26 26 29 26 26 29 27 27 27 29 27 -193 26 26 21 23 22 22 21 20 20 19 18 19 18 17 19 13 14 14 14 12 11 11 12 10 11 10 9 10 11 10 10 9 9 0 9 9 9 9 10 11 11 11 11 11 10 11 10 10 9 9 0 0 0 10 11 10 11 12 20 20 25 25 29 28 29 27 27 29 29 28 32 29 30 32 37 39 38 42 42 43 45 49 49 44 55 55 55 55 59 55 55 56 -177 60 -193 61 62 64 65 68 66 67 64 65 68 68 63 66 64 66 65 67 69 70 70 -193 450 451 76 -193 78 79 79 91 93 93 100 95 97 101 99 101 98 99 99 -177 -177 100 371 -177 -177 108 -177 -177 -193 253 256 -193 -177 -177 -177 -209 116 123 126 125 130 131 130 131 132 132 132 -193 -193 134 132 -193 -193 -193 -193 -193 153 155 -193 153 154 155 159 159 160 161 751 -193 163 161 163 162 164 165 163 -193 165 165 0 0 0 0 0
    0 0 0 0 0 0 0 0 0 0 0 0 0 0 0 0 0 0 0 0 0 0 0 0 0 0 0 0 0 0 0 0 0 0 0 0 0 0 0 0 0 0 0 0 0 0 0 0 0 0 0 0 0 0 0 0 0 0 0 0 0 0 0 0 0 0 0 0 0 54 51 51 51 49 48 49 49 48 43 51 44 46 46 45 45 44 45 43 45 44 45 43 43 42 42 41 41 38 35 33 31 31 31 30 28 27 28 27 26 26 25 29 26 26 29 27 27 27 29 27 -193 26 26 20 22 22 21 20 20 20 18 18 19 17 17 18 13 15 14 15 12 11 11 12 10 10 9 9 10 11 10 10 9 9 9 10 10 9 10 11 12 11 12 12 11 11 11 10 10 9 9 0 0 0 10 10 10 10 11 20 20 26 26 30 28 30 28 27 29 29 28 31 28 30 32 37 39 38 42 42 43 45 49 48 43 54 53 53 54 57 54 54 54 -177 59 -193 60 62 63 64 68 66 66 64 64 68 67 63 66 64 67 65 67 69 70 -193 -193 449 451 77 -177 79 80 80 91 93 93 100 95 97 100 98 100 98 98 98 95 99 99 371 -177 -177 109 -177 -177 -193 253 255 -193 -177 -177 -177 -209 115 122 127 126 130 131 130 131 132 132 132 -193 -193 -193 132 -193 -193 -193 -193 -193 -193 154 153 153 155 155 160 159 160 162 -193 -193 163 161 163 163 163 165 163 163 165 164 0 0 0 0 0
    0 0 0 0 0 0 0 0 0 0 0 0 0 0 0 0 0 0 0 0 0 0 0 0 0 0 0 0 0 0 0 0 0 0 0 0 0 0 0 0 0 0 0 0 0 0 0 0 0 0 0 0 0 0 0 0 0 0 0 0 0 0 0 0 0 0 0 0 0 54 51 52 51 49 49 49 50 48 44 52 45 46 46 45 45 44 45 43 44 44 45 44 43 43 43 42 42 38 36 33 30 31 31 30 28 27 28 27 26 26 26 29 26 26 29 27 27 28 30 27 25 26 26 21 22 22 21 20 20 20 19 19 20 18 17 19 14 15 13 14 11 10 11 11 9 10 9 9 10 11 10 10 9 9 9 10 11 10 11 12 12 12 12 13 12 11 11 11 10 9 9 0 0 0 9 10 9 10 11 20 21 27 27 30 29 30 28 27 29 28 27 31 28 29 31 37 39 38 42 42 43 44 48 47 42 53 51 51 53 56 52 52 53 54 -193 -193 60 61 63 64 68 66 66 64 64 68 67 63 66 65 67 66 67 69 71 -193 -193 -177 451 78 -177 -177 -177 81 91 93 93 100 95 96 100 98 100 97 98 98 95 98 99 -177 -177 -193 109 -177 -177 -193 -177 -177 528 528 527 -177 -209 114 122 128 126 130 132 130 130 132 132 132 -193 -193 -193 133 -193 -193 -193 -193 -193 -193 153 153 153 155 156 160 159 160 162 161 160 164 161 163 163 163 164 162 163 165 164 0 0 0 0 0
    0 0 0 0 0 0 0 0 0 0 0 0 0 0 0 0 0 0 0 0 0 0 0 0 0 0 0 0 0 0 0 0 0 0 0 0 0 0 0 0 0 0 0 0 0 0 0 0 0 0 0 0 0 0 0 0 0 0 0 0 0 0 0 0 0 0 0 0 0 54 51 52 51 49 49 50 50 49 44 53 45 46 47 45 45 44 45 43 44 44 46 44 43 43 43 42 42 39 37 33 31 30 31 29 28 28 28 28 26 26 26 29 26 26 30 27 27 28 30 27 25 26 26 21 23 23 21 20 21 21 20 19 20 19 18 19 14 14 13 13 10 9 9 10 0 0 0 9 10 10 10 10 10 9 9 10 11 10 11 12 12 12 12 13 13 12 12 11 10 10 9 9 9 0 9 10 10 10 11 20 21 28 27 31 29 30 28 27 29 28 27 31 27 28 31 36 39 38 41 42 42 44 47 47 42 52 48 48 51 55 52 52 52 53 -193 -193 60 61 63 64 68 66 66 -193 64 68 67 63 66 65 67 66 67 69 71 -193 -193 -177 452 78 -193 -177 -177 83 91 94 94 101 95 96 100 97 99 97 97 97 95 98 99 -177 -177 -193 109 -177 -177 -193 -177 -177 528 528 527 -177 -209 112 123 129 126 131 132 130 130 132 132 132 -193 -193 -193 134 138 -193 -193 -193 153 -193 152 153 154 155 156 159 159 160 162 162 160 164 160 163 162 163 164 162 162 164 164 0 0 0 0 0
    0 0 0 0 0 0 0 0 0 0 0 0 0 0 0 0 0 0 0 0 0 0 0 0 0 0 0 0 0 0 0 0 0 0 0 0 0 0 0 0 0 0 0 0 0 0 0 0 0 0 0 0 0 0 0 0 0 0 0 0 0 0 0 0 0 0 0 0 0 54 51 52 51 49 49 50 50 49 44 52 45 45 47 45 45 44 45 43 44 43 46 44 43 43 42 42 42 39 38 33 31 30 30 30 28 28 28 28 26 26 26 30 26 26 29 27 27 28 30 28 25 27 27 22 23 23 22 20 21 21 19 19 20 18 17 19 14 15 13 13 11 10 10 11 0 0 0 0 9 10 10 10 10 10 10 11 11 11 12 13 13 13 13 14 13 13 12 12 11 10 9 9 9 0 9 10 9 10 11 20 22 28 28 31 30 30 28 27 29 28 27 31 27 28 31 36 39 38 41 42 42 44 47 46 41 50 46 46 48 54 50 51 51 53 -209 -193 60 61 63 64 68 66 66 -193 64 68 67 63 66 65 67 66 67 69 72 -209 -193 -177 -177 79 -193 84 85 84 91 94 94 101 95 96 100 97 99 97 97 97 95 98 99 373 -177 -193 110 -193 -177 -193 -177 -177 -193 529 -177 -177 -193 110 123 130 127 131 132 130 131 132 132 132 -193 -193 -193 134 138 -193 -193 147 153 -193 151 152 153 155 156 158 158 159 161 162 159 163 160 162 162 162 163 161 162 164 163 0 0 0 0 0
    0 0 0 0 0 0 0 0 0 0 0 0 0 0 0 0 0 0 0 0 0 0 0 0 0 0 0 0 0 0 0 0 0 0 0 0 0 0 0 0 0 0 0 0 0 0 0 0 0 0 0 0 0 0 0 0 0 0 0 0 0 0 0 0 0 0 0 0 0 54 51 51 51 49 48 49 50 49 43 51 44 44 46 45 45 44 45 43 44 43 46 44 43 43 42 42 42 40 39 34 32 31 31 30 28 29 29 29 27 26 26 30 26 26 29 27 27 28 30 28 25 27 27 22 23 23 22 20 21 21 19 19 20 17 17 18 14 15 14 14 12 10 11 11 9 0 0 0 9 10 9 10 9 10 10 12 12 11 12 13 13 14 14 15 13 14 13 12 11 10 10 9 9 0 9 9 9 10 11 19 22 29 28 32 30 31 29 28 30 28 27 31 27 28 31 36 39 38 41 42 42 44 46 46 41 48 45 45 46 54 49 50 50 52 -193 -193 59 60 63 64 68 66 66 546 65 68 67 63 65 65 67 66 66 69 -193 -193 -193 -193 -177 80 -193 85 86 85 91 95 95 101 96 96 100 97 99 97 98 98 95 98 99 374 -177 -193 110 -193 -177 -193 -177 -177 -193 529 -177 -177 -193 109 123 130 127 131 132 130 131 132 131 132 -193 -193 -193 134 138 140 141 146 151 150 150 152 153 155 155 157 158 158 160 162 158 163 159 161 162 161 163 161 162 164 163 0 0 0 0 0
    0 0 0 0 0 0 0 0 0 0 0 0 0 0 0 0 0 0 0 0 0 0 0 0 0 0 0 0 0 0 0 0 0 0 0 0 0 0 0 0 0 0 0 0 0 0 0 0 0 0 0 0 0 0 0 0 0 0 0 0 0 0 0 0 0 0 0 0 0 54 52 52 51 49 48 48 49 48 42 49 43 43 45 45 44 44 44 43 43 43 46 43 43 43 42 42 42 40 40 36 34 32 32 32 29 30 30 29 27 27 26 30 26 26 29 27 27 27 30 27 25 27 27 22 23 23 22 20 21 21 20 19 20 17 17 18 14 15 14 13 11 10 11 10 9 0 0 0 0 9 9 9 9 10 10 13 12 11 13 14 13 14 14 15 14 14 13 12 11 10 10 9 9 0 9 9 9 10 11 18 22 29 28 33 30 31 29 28 30 28 27 31 27 28 31 36 38 37 41 42 42 44 46 46 40 50 46 46 47 54 50 50 50 52 266 -177 59 60 62 64 68 66 67 546 -193 68 67 63 65 65 67 66 66 69 -193 -193 -193 -193 -177 81 -193 86 87 86 92 96 96 102 96 97 100 97 99 98 98 98 96 99 100 -209 -193 108 110 114 -177 -193 -177 -177 -193 529 -177 -177 -193 107 123 131 128 131 133 130 131 132 131 132 -193 -193 -193 133 138 139 141 145 150 149 150 151 153 154 155 157 158 158 160 162 158 163 159 161 162 161 163 161 162 164 163 0 0 0 0 0
    0 0 0 0 0 0 0 0 0 0 0 0 0 0 0 0 0 0 0 0 0 0 0 0 0 0 0 0 0 0 0 0 0 0 0 0 0 0 0 0 0 0 0 0 0 0 0 0 0 0 0 0 0 0 0 0 0 0 0 0 0 0 0 0 0 0 0 0 0 54 52 52 52 50 48 49 50 48 42 49 43 43 44 45 44 44 44 43 43 42 46 43 43 43 42 42 42 41 41 36 35 34 34 34 31 33 32 31 28 28 27 31 26 26 29 26 26 27 29 27 25 26 27 22 23 23 22 20 21 21 20 18 20 16 17 17 14 15 14 14 12 11 12 11 9 9 0 0 0 0 0 0 9 10 10 12 12 11 13 14 13 14 13 15 13 14 13 12 11 10 10 9 9 0 0 9 9 9 10 16 21 29 28 33 30 31 30 28 30 29 28 31 28 29 32 36 39 38 42 42 42 44 47 46 41 50 48 47 51 55 51 51 51 53 -193 -193 58 60 62 64 69 67 67 545 -193 69 67 -193 65 65 66 65 64 68 -193 -193 -193 -193 -177 82 87 87 88 87 91 96 96 102 97 98 101 98 100 99 -193 -193 97 100 101 -193 -193 109 110 115 -193 -209 -177 -177 -193 -177 530 -177 -193 107 123 131 128 132 133 131 132 132 132 133 -193 -193 -193 133 138 -193 141 145 150 149 150 151 153 154 154 156 157 158 160 162 158 163 159 161 162 161 163 161 162 164 163 0 0 0 0 0
    0 0 0 0 0 0 0 0 0 0 0 0 0 0 0 0 0 0 0 0 0 0 0 0 0 0 0 0 0 0 0 0 0 0 0 0 0 0 0 0 0 0 0 0 0 0 0 0 0 0 0 0 0 0 0 0 0 0 0 0 0 0 0 0 0 0 0 0 0 54 52 52 52 50 49 50 51 49 43 51 43 44 44 44 45 44 44 43 42 42 45 43 43 43 42 42 42 41 41 38 37 36 36 36 34 34 34 32 29 29 27 30 26 26 28 26 26 26 28 27 25 26 27 23 24 23 22 20 21 21 20 19 20 17 18 18 15 16 14 15 14 13 14 14 12 11 10 0 0 0 0 0 9 9 10 12 12 12 14 14 13 14 13 15 13 14 13 11 11 10 10 9 9 0 0 0 0 9 9 13 17 27 27 33 30 31 30 28 30 29 28 32 28 29 32 36 -177 39 42 42 43 45 47 46 41 47 46 45 51 55 52 52 52 54 -193 -193 59 60 62 64 69 67 67 66 67 69 68 -193 65 65 66 65 65 68 -193 -209 74 -193 -193 83 88 88 88 88 91 97 96 101 98 99 101 98 100 100 973 975 -193 101 101 -177 -193 111 111 116 -193 -209 254 257 -177 -177 -177 -177 -193 109 123 131 129 132 134 132 132 132 132 133 132 135 -193 134 138 -193 141 145 149 149 150 151 153 153 153 155 156 157 159 161 157 163 159 161 163 161 163 161 162 164 163 0 0 0 0 0
    0 0 0 0 0 0 0 0 0 0 0 0 0 0 0 0 0 0 0 0 0 0 0 0 0 0 0 0 0 0 0 0 0 0 0 0 0 0 0 0 0 0 0 0 0 0 0 0 0 0 0 0 0 0 0 0 0 0 0 0 0 0 0 0 0 0 0 0 0 55 52 52 52 51 49 50 51 50 43 52 44 44 45 45 45 44 44 43 42 42 45 43 43 43 43 42 42 42 42 39 39 38 38 37 36 35 34 32 30 29 27 30 26 25 27 25 25 26 28 26 25 26 27 23 24 23 22 21 21 21 21 19 20 17 18 18 16 16 16 16 16 14 17 16 15 15 12 0 0 0 0 0 0 0 9 11 11 11 13 13 13 14 13 14 13 13 13 12 11 11 10 9 9 0 0 0 0 9 9 11 14 -193 26 32 29 30 29 28 30 29 28 32 29 30 33 36 -177 -177 41 42 43 45 47 47 42 48 46 46 52 55 53 53 53 54 -193 59 59 60 61 65 69 67 68 66 67 69 68 64 65 65 65 64 64 68 -209 -209 74 76 -193 83 89 89 89 89 91 97 95 101 99 100 102 99 101 -193 973 975 973 -193 -193 382 -193 113 111 117 -193 -209 255 258 -193 -177 -177 -193 -209 110 123 130 128 132 134 132 133 132 132 133 132 135 135 134 138 139 141 145 149 149 150 151 153 152 153 155 156 157 158 159 157 163 159 161 163 161 163 161 162 164 164 0 0 0 0 0
    0 0 0 0 0 0 0 0 0 0 0 0 0 0 0 0 0 0 0 0 0 0 0 0 0 0 0 0 0 0 0 0 0 0 0 0 0 0 0 0 0 0 0 0 0 0 0 0 0 0 0 0 0 0 0 0 0 0 0 0 0 0 0 0 0 0 0 0 0 56 53 53 53 52 49 50 51 50 43 51 44 44 44 45 45 44 44 43 42 42 45 43 43 43 43 42 42 42 43 40 40 40 39 38 37 37 36 34 32 30 28 31 26 25 27 25 25 25 27 26 24 26 27 23 24 23 23 21 22 22 22 19 21 18 19 18 19 19 18 18 18 16 19 18 19 16 13 0 0 0 0 0 0 0 0 10 11 11 12 12 12 13 12 13 12 13 13 11 11 11 10 9 9 0 0 0 0 9 9 11 13 16 24 30 28 29 28 28 29 29 29 31 29 31 33 37 -177 -177 -177 -177 43 44 46 46 41 46 45 44 50 55 53 54 54 55 57 58 58 60 61 64 69 67 68 66 67 70 69 64 64 65 65 64 65 69 73 -209 74 77 -193 84 89 89 89 89 91 98 96 101 100 101 103 100 101 -193 973 975 974 974 975 383 -193 114 112 118 -193 -193 257 259 -193 -193 -209 -209 -177 -193 123 130 128 131 133 132 -193 132 132 133 132 135 136 134 138 139 141 144 148 148 150 151 153 152 152 155 157 157 158 159 156 163 160 161 163 161 163 161 163 164 164 0 0 0 0 0</data></disparity>
</opencv_storage>
