<?xml version="1.0"?>
<opencv_storage>
<gps_time_stamp>279510</gps_time_stamp>
<gps_x>-1.3984213829040527e+001</gps_x>
<gps_y>1.1291607856750488e+001</gps_y>
<gps_z>-2.2867014408111572e+000</gps_z>
<image_time_stamp>270358</image_time_stamp>
<disparity type_id="opencv-matrix">
  <rows>93</rows>
  <cols>320</cols>
  <dt>s</dt>
  <data>
    0 0 0 0 0 0 0 0 0 0 0 0 0 0 0 0 0 0 0 0 0 0 0 0 0 0 0 0 0 0 0 0 0 0 0 0 0 0 0 0 0 0 0 0 0 0 0 0 0 0 0 0 0 0 0 0 0 0 0 0 0 0 0 0 0 0 0 0 0 26 25 25 26 26 26 26 27 28 26 29 28 27 27 27 26 27 29 29 27 27 28 28 28 28 29 28 29 29 29 29 29 28 28 26 -193 -193 25 28 -193 30 -193 -193 -193 -193 37 36 34 27 29 22 24 24 24 24 26 27 31 30 33 31 32 32 36 36 37 37 35 33 -193 23 18 18 19 20 20 19 17 21 17 25 26 27 24 27 31 29 30 30 30 30 29 30 29 27 29 28 36 31 33 31 30 30 29 29 28 26 30 27 29 30 33 28 29 29 28 26 27 27 27 26 28 25 25 27 28 29 28 26 27 28 30 34 35 35 40 36 37 40 37 35 34 36 35 34 35 34 31 30 34 34 29 32 28 28 26 30 32 37 37 40 -209 -209 -193 -209 -209 -209 0 0 -193 -209 -209 -209 -209 -193 -209 36 36 37 40 38 38 37 38 38 37 39 37 35 38 38 38 38 37 39 37 39 39 38 38 41 42 41 42 46 48 49 54 52 53 54 52 52 53 52 52 50 52 52 51 53 53 52 54 54 56 55 56 58 61 63 63 66 63 60 65 67 69 72 73 74 74 75 76 78 79 0 0 0 0 0
    0 0 0 0 0 0 0 0 0 0 0 0 0 0 0 0 0 0 0 0 0 0 0 0 0 0 0 0 0 0 0 0 0 0 0 0 0 0 0 0 0 0 0 0 0 0 0 0 0 0 0 0 0 0 0 0 0 0 0 0 0 0 0 0 0 0 0 0 0 27 26 26 27 27 27 26 27 28 27 29 28 27 27 27 26 27 29 28 27 27 27 28 28 28 29 27 29 29 29 29 29 28 28 26 28 26 26 28 32 31 -193 -193 -193 -193 37 37 33 28 29 21 23 23 22 22 24 24 28 27 32 30 31 31 35 35 37 36 33 31 -193 22 18 18 19 20 20 19 17 21 16 25 26 27 24 27 30 29 30 30 29 29 29 29 28 27 28 27 36 31 33 31 31 30 29 29 28 26 31 27 29 30 34 29 30 30 29 27 28 28 28 26 27 24 26 27 29 29 28 28 28 28 30 31 32 30 37 34 35 40 36 34 34 35 35 34 34 34 31 30 34 34 29 31 29 29 28 30 -193 36 -209 -209 -193 -209 -193 -209 -193 -193 0 0 -193 -209 -209 -209 -209 -193 -209 38 37 38 40 38 38 38 38 39 38 39 38 36 38 38 38 38 37 39 37 39 39 38 39 41 42 41 43 46 48 50 54 52 53 55 52 52 53 52 52 50 52 51 49 53 53 51 54 53 55 54 55 57 60 64 65 68 66 63 68 69 71 74 74 75 75 77 77 79 81 0 0 0 0 0
    0 0 0 0 0 0 0 0 0 0 0 0 0 0 0 0 0 0 0 0 0 0 0 0 0 0 0 0 0 0 0 0 0 0 0 0 0 0 0 0 0 0 0 0 0 0 0 0 0 0 0 0 0 0 0 0 0 0 0 0 0 0 0 0 0 0 0 0 0 28 27 26 28 27 27 27 28 28 27 30 29 27 27 27 26 27 29 27 26 27 27 28 28 27 30 27 30 30 30 30 30 29 29 26 29 26 26 29 32 31 -193 32 -193 -193 37 37 32 28 29 22 22 22 23 23 25 24 28 28 33 32 33 32 36 37 38 38 33 31 21 22 18 18 19 21 20 20 17 21 16 25 27 28 25 27 30 28 29 29 29 29 28 28 27 26 27 26 34 30 32 30 30 30 29 29 29 26 31 27 28 29 35 30 31 30 29 27 28 28 28 26 27 24 26 27 30 31 29 29 29 29 30 30 31 29 31 31 32 39 36 34 34 35 35 34 35 34 31 31 34 34 29 31 29 30 29 32 33 36 35 -209 -193 -209 -209 -209 -193 -193 0 0 -193 -209 -209 -193 -209 -193 -209 38 37 39 40 39 38 38 39 39 38 39 38 36 39 39 38 38 38 39 38 40 40 39 40 42 43 42 43 46 48 51 54 52 53 54 51 51 52 51 52 49 52 51 48 52 52 51 53 52 54 53 55 56 58 65 67 70 68 67 70 71 72 75 75 76 76 78 78 80 83 0 0 0 0 0
    0 0 0 0 0 0 0 0 0 0 0 0 0 0 0 0 0 0 0 0 0 0 0 0 0 0 0 0 0 0 0 0 0 0 0 0 0 0 0 0 0 0 0 0 0 0 0 0 0 0 0 0 0 0 0 0 0 0 0 0 0 0 0 0 0 0 0 0 0 28 27 26 27 27 27 28 28 29 27 30 29 28 28 28 26 27 29 28 27 28 28 28 28 28 30 28 31 31 30 30 30 29 29 27 29 26 26 30 -193 32 -193 33 -193 -193 37 36 30 28 29 22 22 22 23 23 23 23 24 26 29 28 30 31 35 38 40 39 34 32 21 22 19 18 20 21 20 20 17 21 16 25 26 27 24 27 28 28 29 28 28 28 27 26 26 24 26 25 32 29 30 30 30 30 30 29 29 25 30 27 29 30 36 30 31 31 30 28 29 29 29 26 27 24 26 28 31 32 30 29 29 29 29 28 29 27 29 29 31 39 36 35 35 36 35 35 35 35 32 31 34 34 29 30 28 30 30 34 -193 37 -209 -209 -209 -209 -193 -209 -193 -209 0 0 -209 -209 -209 61 -209 -193 -209 -209 38 39 40 39 39 39 39 39 38 40 38 37 39 39 39 38 39 40 39 41 41 40 41 42 43 42 44 46 48 51 54 52 52 54 51 51 52 51 51 48 51 50 47 52 52 50 52 51 54 52 55 57 61 71 70 72 71 70 71 72 72 75 75 76 77 79 79 82 84 0 0 0 0 0
    0 0 0 0 0 0 0 0 0 0 0 0 0 0 0 0 0 0 0 0 0 0 0 0 0 0 0 0 0 0 0 0 0 0 0 0 0 0 0 0 0 0 0 0 0 0 0 0 0 0 0 0 0 0 0 0 0 0 0 0 0 0 0 0 0 0 0 0 0 28 27 27 28 27 28 28 29 29 28 31 30 29 29 28 26 27 29 28 27 28 28 28 29 28 30 28 31 31 31 30 30 30 30 28 29 27 27 31 32 32 -193 33 -193 -193 37 36 29 28 29 24 23 23 23 23 23 23 23 24 25 26 27 28 32 35 38 40 30 29 21 22 19 19 20 21 20 20 17 20 16 25 25 26 24 26 26 27 28 28 28 28 26 26 25 23 25 24 30 28 30 29 30 29 30 29 29 26 31 27 30 31 37 31 32 32 31 28 28 29 29 25 28 25 28 30 32 33 30 29 29 28 28 27 28 27 28 29 31 39 36 35 35 36 36 36 35 35 32 33 34 35 30 30 28 30 31 35 -209 -209 -209 -209 -209 -193 -193 -209 -193 -209 -209 -209 -209 -209 -209 -209 -209 -193 -193 -193 38 39 41 39 39 39 39 39 39 40 39 38 39 39 39 39 39 40 40 41 41 41 41 43 44 43 44 47 48 50 54 51 52 54 50 50 51 51 51 48 51 50 47 52 52 50 52 51 54 52 56 61 68 73 72 72 72 71 72 72 72 74 74 76 77 78 79 81 83 0 0 0 0 0
    0 0 0 0 0 0 0 0 0 0 0 0 0 0 0 0 0 0 0 0 0 0 0 0 0 0 0 0 0 0 0 0 0 0 0 0 0 0 0 0 0 0 0 0 0 0 0 0 0 0 0 0 0 0 0 0 0 0 0 0 0 0 0 0 0 0 0 0 0 29 27 27 28 27 28 29 30 30 29 31 30 29 30 29 27 27 29 28 27 28 28 28 29 28 31 29 32 31 32 31 31 31 31 28 30 27 27 32 32 32 35 33 -193 -193 36 36 28 29 30 25 25 24 24 24 23 24 24 26 25 26 27 27 31 35 34 39 29 29 -193 23 19 19 20 21 20 20 17 20 16 24 24 25 23 25 25 26 27 27 27 27 25 25 24 23 24 23 28 27 29 29 29 29 30 29 30 26 32 28 31 33 37 31 33 32 31 28 28 28 28 25 27 24 28 30 32 33 30 29 28 26 27 26 26 25 -193 27 31 40 36 36 36 36 36 36 36 36 33 34 34 35 31 30 29 31 31 33 -193 -209 -193 -209 -209 -193 -193 -209 -193 -209 -209 -209 -209 -209 -209 54 -209 -209 44 40 39 40 41 39 39 39 39 39 39 40 39 38 40 40 40 39 40 40 40 41 42 42 42 44 45 44 45 47 47 50 54 51 51 54 50 50 51 50 51 48 51 50 46 52 52 51 53 52 54 53 57 63 69 74 72 72 72 71 72 72 72 74 74 75 77 78 78 81 83 0 0 0 0 0
    0 0 0 0 0 0 0 0 0 0 0 0 0 0 0 0 0 0 0 0 0 0 0 0 0 0 0 0 0 0 0 0 0 0 0 0 0 0 0 0 0 0 0 0 0 0 0 0 0 0 0 0 0 0 0 0 0 0 0 0 0 0 0 0 0 0 0 0 0 28 27 26 27 27 28 29 30 30 29 31 31 30 30 29 27 27 29 28 27 28 28 29 29 28 31 29 32 32 32 32 31 31 31 29 30 27 27 32 31 32 34 32 33 33 35 35 28 31 31 26 29 27 26 26 24 24 25 26 25 26 27 26 29 34 31 34 28 29 -193 23 19 19 20 21 20 20 17 20 15 23 24 24 23 25 25 26 27 27 27 27 25 24 22 22 23 23 26 26 27 28 28 28 29 29 29 25 31 28 32 34 38 32 33 33 32 28 28 28 29 25 28 25 29 30 30 32 30 29 29 27 -193 25 26 26 26 26 27 39 36 36 36 36 36 36 36 36 33 35 34 36 32 31 31 34 34 35 -193 -209 -193 23 -209 -209 -209 -209 -209 -209 -209 -209 -209 -209 -193 52 44 -209 43 40 39 40 41 40 39 39 39 39 39 40 39 38 40 40 40 40 40 41 41 41 42 42 42 44 45 44 45 46 46 49 53 50 50 54 50 50 51 50 51 48 51 50 46 52 52 51 53 52 55 54 58 63 69 74 72 72 72 72 72 72 72 74 73 75 77 78 78 81 83 0 0 0 0 0
    0 0 0 0 0 0 0 0 0 0 0 0 0 0 0 0 0 0 0 0 0 0 0 0 0 0 0 0 0 0 0 0 0 0 0 0 0 0 0 0 0 0 0 0 0 0 0 0 0 0 0 0 0 0 0 0 0 0 0 0 0 0 0 0 0 0 0 0 0 26 25 25 -193 26 28 29 30 30 29 31 30 30 30 28 27 27 29 28 27 28 28 29 29 29 31 29 33 33 33 33 32 32 31 29 30 27 27 32 30 31 33 32 32 32 34 34 28 33 33 28 34 32 29 27 25 25 24 25 25 25 26 25 27 30 28 -193 27 29 -193 23 19 19 20 20 20 20 17 20 15 23 23 24 23 25 25 26 27 27 26 27 25 24 21 21 23 22 26 26 27 27 28 28 29 28 29 25 31 30 35 37 39 32 34 33 33 29 28 28 28 26 30 26 30 30 30 32 30 29 28 27 -193 25 26 26 25 24 25 39 35 36 35 36 36 36 36 36 34 36 34 37 33 32 34 38 37 38 35 -209 19 19 -209 -209 -209 -209 -209 -209 -209 -209 -209 -209 40 50 45 -209 43 40 40 40 41 40 39 39 39 39 39 40 39 39 40 40 40 40 41 41 41 42 43 43 43 44 44 43 44 45 44 47 52 48 49 54 49 50 51 50 50 48 51 50 46 52 53 52 54 53 55 54 58 63 68 74 71 71 71 72 72 72 72 73 73 75 77 78 78 81 83 0 0 0 0 0
    0 0 0 0 0 0 0 0 0 0 0 0 0 0 0 0 0 0 0 0 0 0 0 0 0 0 0 0 0 0 0 0 0 0 0 0 0 0 0 0 0 0 0 0 0 0 0 0 0 0 0 0 0 0 0 0 0 0 0 0 0 0 0 0 0 0 0 0 0 25 24 25 -193 25 27 28 29 29 28 30 29 29 29 27 26 27 28 27 27 28 28 29 29 29 32 29 33 33 33 33 32 32 31 29 30 27 27 33 30 30 32 31 31 31 33 33 28 33 34 29 36 35 33 29 25 25 25 25 24 24 26 25 27 32 29 -193 29 29 -193 23 20 20 21 21 21 21 18 20 16 23 23 23 22 25 24 26 26 26 26 26 24 23 20 20 22 22 26 26 27 28 28 28 29 28 30 25 31 31 34 37 39 30 33 32 33 28 27 27 27 26 31 26 30 31 31 -193 -193 29 28 -209 -209 -209 -209 -209 25 24 25 39 35 37 35 36 36 36 36 36 -193 -193 34 37 35 34 37 40 40 42 42 -209 -209 -209 -209 -209 -209 -209 -209 -209 -209 -209 -209 -193 40 49 -209 -209 43 41 40 40 40 40 39 39 39 38 39 40 39 39 40 40 40 40 41 41 41 42 43 43 43 43 44 43 43 43 43 45 50 47 48 54 49 50 51 50 50 49 51 50 47 52 53 52 54 53 54 54 58 62 68 73 71 71 71 72 72 72 72 73 73 75 77 77 78 81 83 0 0 0 0 0
    0 0 0 0 0 0 0 0 0 0 0 0 0 0 0 0 0 0 0 0 0 0 0 0 0 0 0 0 0 0 0 0 0 0 0 0 0 0 0 0 0 0 0 0 0 0 0 0 0 0 0 0 0 0 0 0 0 0 0 0 0 0 0 0 0 0 0 0 0 24 24 -193 -193 25 26 28 28 29 27 28 28 28 28 26 26 27 28 27 27 28 28 29 30 29 32 30 34 35 34 34 33 32 32 30 31 27 26 32 29 29 31 30 30 30 31 32 27 32 33 29 36 35 33 27 24 24 24 23 22 23 26 25 28 34 30 -193 31 29 -193 23 22 21 22 22 22 22 19 21 18 23 23 23 23 25 24 26 25 25 25 25 23 22 20 20 22 22 26 26 27 27 28 28 29 28 31 25 32 34 37 40 40 -193 -193 33 33 -193 27 27 27 26 32 -193 -209 -209 -209 -193 -193 -193 -193 -209 -209 -209 -209 -209 27 26 27 39 35 37 35 36 36 36 36 36 -193 -193 34 38 37 35 38 41 41 43 43 -193 -209 -209 -209 -209 79 80 -193 -209 -209 -209 -209 43 41 46 44 44 42 41 40 40 40 39 39 39 39 38 38 39 39 39 39 40 40 40 42 42 42 42 43 43 43 43 43 42 42 43 43 44 48 45 47 54 49 49 51 50 51 49 51 51 47 52 53 52 54 53 54 54 58 62 67 73 71 71 71 72 72 72 72 72 71 74 76 76 77 80 83 0 0 0 0 0
    0 0 0 0 0 0 0 0 0 0 0 0 0 0 0 0 0 0 0 0 0 0 0 0 0 0 0 0 0 0 0 0 0 0 0 0 0 0 0 0 0 0 0 0 0 0 0 0 0 0 0 0 0 0 0 0 0 0 0 0 0 0 0 0 0 0 0 0 0 23 23 -193 524 -193 25 27 28 28 26 27 27 27 27 25 27 28 28 28 29 29 29 31 30 30 32 31 34 35 35 35 33 33 32 30 30 26 24 32 28 29 31 -193 -193 -193 31 32 27 32 32 28 34 34 32 27 25 24 24 24 24 24 26 26 28 32 29 -193 31 29 -177 -193 23 23 23 23 23 22 20 22 19 23 23 23 23 25 24 25 25 24 24 24 22 22 19 20 22 22 25 26 26 27 27 28 29 28 31 25 32 36 39 41 41 -193 -193 -193 32 -193 26 27 26 26 34 -193 -193 -209 -209 -209 -209 -193 -193 -209 -209 -209 -209 -209 28 27 31 40 35 37 34 35 36 36 36 36 -193 -193 33 38 37 36 38 41 41 43 43 -193 -209 -209 -209 -209 78 79 -209 -209 -209 -209 -209 40 39 41 40 40 39 39 39 39 38 38 38 38 38 37 37 39 39 39 39 40 40 40 42 42 42 41 43 43 43 43 43 42 42 42 42 43 47 44 45 54 49 49 51 50 51 50 51 51 48 53 53 52 54 53 54 55 59 62 68 73 71 71 72 72 72 71 72 72 71 74 76 75 77 80 82 0 0 0 0 0
    0 0 0 0 0 0 0 0 0 0 0 0 0 0 0 0 0 0 0 0 0 0 0 0 0 0 0 0 0 0 0 0 0 0 0 0 0 0 0 0 0 0 0 0 0 0 0 0 0 0 0 0 0 0 0 0 0 0 0 0 0 0 0 0 0 0 0 0 0 23 23 -193 525 -193 25 27 27 28 26 27 26 27 27 25 27 28 28 29 31 30 30 32 31 31 32 31 33 35 35 33 31 31 32 30 29 24 24 31 28 28 30 -193 -193 29 30 31 27 32 32 -193 33 34 32 26 25 24 24 24 24 24 26 27 29 32 30 -193 32 30 -177 -193 -193 24 24 24 24 23 22 23 21 23 23 23 23 25 24 25 25 23 23 24 21 21 18 19 22 22 25 25 26 27 27 27 29 27 31 25 33 38 40 41 41 -193 -193 31 31 -193 26 26 25 26 34 -193 0 -209 -209 -209 -209 -209 -209 -209 -209 -209 -209 -209 30 30 37 41 35 38 34 35 37 36 36 36 -193 37 33 39 38 36 39 42 42 45 44 -193 -193 -209 -209 -209 -209 -209 39 39 38 -193 39 38 38 39 38 38 37 37 38 38 38 38 37 37 37 37 37 38 39 39 39 40 41 41 42 42 42 41 42 43 42 42 42 41 41 42 43 44 47 44 45 54 49 49 51 50 51 50 51 51 48 53 53 53 54 54 54 55 60 62 68 73 71 71 72 72 72 71 71 72 70 73 75 74 76 78 80 0 0 0 0 0
    0 0 0 0 0 0 0 0 0 0 0 0 0 0 0 0 0 0 0 0 0 0 0 0 0 0 0 0 0 0 0 0 0 0 0 0 0 0 0 0 0 0 0 0 0 0 0 0 0 0 0 0 0 0 0 0 0 0 0 0 0 0 0 0 0 0 0 0 0 23 23 523 526 -193 26 27 27 28 27 27 26 -193 -193 23 25 27 26 28 30 28 30 32 30 31 30 30 32 33 35 32 29 29 31 29 27 22 23 32 28 28 30 -193 28 29 30 31 27 31 31 -193 -193 35 34 28 27 25 26 25 25 25 27 28 30 32 30 -193 32 30 -193 28 26 26 25 26 25 25 -193 25 23 25 24 25 25 27 26 26 26 24 24 25 22 22 20 20 22 22 25 25 26 27 27 27 28 27 31 26 33 37 37 39 38 27 29 29 30 26 25 -193 24 26 34 -193 -193 -209 -209 -209 -209 -209 -209 -209 -209 -209 -209 -209 32 32 38 43 36 38 34 35 37 37 37 36 34 37 33 40 40 37 41 42 43 45 44 -193 -193 -209 -209 -209 -209 -193 38 38 37 37 38 36 37 37 37 37 36 37 37 38 37 37 36 36 36 36 36 38 39 39 39 40 41 41 42 42 42 40 42 42 42 42 42 41 41 43 43 44 47 44 46 54 49 50 51 50 51 51 51 51 49 53 54 53 55 54 54 56 60 61 67 73 71 71 71 71 71 71 71 72 69 73 75 74 75 76 78 0 0 0 0 0
    0 0 0 0 0 0 0 0 0 0 0 0 0 0 0 0 0 0 0 0 0 0 0 0 0 0 0 0 0 0 0 0 0 0 0 0 0 0 0 0 0 0 0 0 0 0 0 0 0 0 0 0 0 0 0 0 0 0 0 0 0 0 0 0 0 0 0 0 0 24 24 524 527 -193 27 27 28 28 27 27 -193 671 673 -193 -193 26 26 27 -193 -193 -193 -209 -209 30 -209 -209 -209 -209 -193 -209 -209 26 29 27 24 20 23 32 28 28 30 29 29 29 30 32 27 32 32 -193 -193 37 37 34 29 28 28 28 28 28 31 31 32 34 31 -193 32 31 -193 29 28 28 27 28 27 26 26 27 25 26 26 28 27 30 28 28 27 25 -193 25 23 23 21 21 23 22 25 26 26 26 26 26 27 26 30 25 32 37 36 39 36 27 28 28 29 25 25 -193 21 26 34 -193 -209 -209 -209 -209 -209 -209 -209 44 44 50 52 -209 33 31 39 44 37 39 34 35 37 37 37 36 34 37 33 40 40 39 42 44 46 46 45 44 47 -209 -209 -209 -209 -209 37 37 35 36 37 35 36 35 36 37 35 36 36 37 37 36 35 35 35 35 35 37 39 39 39 40 40 40 42 42 41 40 42 42 42 42 42 41 42 43 43 44 47 45 46 54 50 50 51 51 51 51 51 52 50 53 54 53 55 54 54 56 59 59 64 72 70 70 71 70 70 70 71 72 69 73 75 73 74 74 77 0 0 0 0 0
    0 0 0 0 0 0 0 0 0 0 0 0 0 0 0 0 0 0 0 0 0 0 0 0 0 0 0 0 0 0 0 0 0 0 0 0 0 0 0 0 0 0 0 0 0 0 0 0 0 0 0 0 0 0 0 0 0 0 0 0 0 0 0 0 0 0 0 0 0 25 -193 -177 -177 27 27 28 28 28 27 27 -193 -177 -177 -193 -193 27 -193 28 -193 -193 -193 -209 -209 29 -209 -209 -193 -209 -193 -209 -193 24 26 25 24 20 23 32 28 29 30 29 29 29 30 32 27 32 32 28 33 36 38 35 29 27 28 28 28 29 32 31 32 34 32 31 34 32 -193 31 31 30 29 30 29 28 28 28 27 27 28 30 29 32 31 31 29 27 -193 26 24 23 22 22 24 23 27 27 27 27 26 26 26 25 28 23 30 36 35 38 32 -193 27 28 28 -193 25 -193 -193 27 37 -193 -209 35 -193 -209 -209 42 43 41 42 47 50 -209 35 34 39 45 37 39 35 36 37 37 36 36 34 36 33 40 40 41 45 46 50 49 49 48 51 -209 44 -209 -209 -193 37 36 34 35 36 34 35 34 35 36 34 35 36 36 36 35 34 35 35 35 35 37 39 39 39 40 40 40 42 42 41 39 42 42 42 42 42 41 41 43 44 45 47 45 47 54 50 50 51 51 51 52 51 52 50 53 53 53 54 54 53 56 57 58 61 71 70 70 71 70 71 70 71 72 69 73 74 -193 73 72 77 0 0 0 0 0
    0 0 0 0 0 0 0 0 0 0 0 0 0 0 0 0 0 0 0 0 0 0 0 0 0 0 0 0 0 0 0 0 0 0 0 0 0 0 0 0 0 0 0 0 0 0 0 0 0 0 0 0 0 0 0 0 0 0 0 0 0 0 0 0 0 0 0 0 0 26 26 524 -193 28 28 28 28 28 27 27 -193 671 -177 -193 -193 -193 -209 -193 -193 -193 -209 -209 -209 28 -193 -193 -209 -209 -193 24 23 24 25 25 24 21 23 33 28 29 31 29 29 29 30 32 27 32 31 27 30 31 35 33 29 26 27 28 29 29 32 31 31 32 32 31 33 33 -193 33 34 32 32 33 31 30 29 30 28 28 28 30 29 31 31 30 28 -193 -209 -193 -193 23 23 23 25 25 28 28 29 29 27 27 27 25 28 -193 28 -193 32 38 -193 -193 -193 -193 -193 -193 24 -193 -193 28 38 37 -209 -193 -193 -193 -193 -193 45 41 41 46 49 -209 36 36 40 45 38 39 35 36 36 36 36 36 34 36 33 40 40 41 47 47 50 50 51 50 53 55 -209 -209 -209 -209 37 37 34 34 35 34 35 34 35 36 33 34 35 36 36 35 34 35 35 35 35 37 39 38 39 40 40 40 42 42 42 40 42 43 42 42 42 41 42 44 46 46 47 46 48 55 51 51 52 51 51 52 51 52 50 52 53 52 53 53 52 55 54 54 -225 -225 67 67 68 60 67 66 -209 -193 -193 -193 -209 -209 -209 -209 -193 0 0 0 0 0
    0 0 0 0 0 0 0 0 0 0 0 0 0 0 0 0 0 0 0 0 0 0 0 0 0 0 0 0 0 0 0 0 0 0 0 0 0 0 0 0 0 0 0 0 0 0 0 0 0 0 0 0 0 0 0 0 0 0 0 0 0 0 0 0 0 0 0 0 0 28 27 -193 28 28 28 28 28 27 27 27 668 671 672 -193 -193 -193 -209 -193 -209 -209 -209 -209 24 26 -193 -193 -209 -209 -209 23 22 24 25 24 26 22 23 -193 29 30 32 30 30 29 30 32 27 32 30 -193 -193 29 35 -193 31 26 26 29 29 30 32 31 30 31 32 32 32 35 -193 35 36 34 34 35 33 33 31 31 30 28 29 30 29 30 30 28 26 -209 24 -193 23 23 24 24 25 25 27 28 30 29 27 26 26 25 27 -209 -193 -209 29 37 26 -193 -193 26 27 25 24 24 15 27 36 35 33 -209 -193 40 -193 42 49 45 45 48 48 44 40 40 41 45 38 39 35 36 36 36 37 36 34 36 33 40 42 43 50 48 51 51 51 51 53 49 -193 -209 -209 -209 37 37 35 35 36 34 35 34 34 35 33 34 35 36 35 35 33 35 35 35 35 37 40 39 39 40 40 40 42 42 42 40 42 44 44 44 44 42 44 49 50 50 49 47 49 55 52 51 52 52 52 52 51 52 51 52 53 52 53 53 51 55 54 51 -225 -225 -209 -193 -209 53 -209 -209 -209 -209 -209 -209 -209 -209 -209 140 -193 0 0 0 0 0
    0 0 0 0 0 0 0 0 0 0 0 0 0 0 0 0 0 0 0 0 0 0 0 0 0 0 0 0 0 0 0 0 0 0 0 0 0 0 0 0 0 0 0 0 0 0 0 0 0 0 0 0 0 0 0 0 0 0 0 0 0 0 0 0 0 0 0 0 0 29 28 28 29 29 29 29 29 28 28 28 -193 671 672 666 -193 -193 -209 -193 -209 -209 -209 -209 23 25 -209 24 -209 -193 -209 -193 21 22 -193 23 -209 23 24 -193 29 31 32 30 30 29 30 31 27 31 29 -209 -193 -209 35 36 34 28 28 30 30 31 32 31 30 30 30 32 32 35 36 35 37 34 35 35 34 34 32 32 30 28 29 31 30 30 30 29 27 -193 25 27 25 24 26 26 26 27 28 28 29 28 26 -193 25 24 25 24 29 -209 32 38 29 27 28 28 28 27 26 26 19 27 34 34 31 34 36 39 40 42 45 45 44 46 45 -193 38 38 40 44 38 39 34 35 37 37 37 36 35 37 34 41 45 44 52 51 53 52 52 53 54 -209 37 -193 -193 37 37 37 35 35 36 34 34 33 34 35 32 33 34 35 35 35 33 35 36 35 35 37 40 39 39 40 40 40 42 43 42 41 43 45 46 46 46 45 48 52 53 53 52 49 51 55 53 51 53 52 51 52 51 52 51 52 53 51 52 53 51 54 53 50 -225 -225 -209 -193 -209 54 -209 -209 -209 -209 -209 -209 -209 -209 -209 -193 -193 0 0 0 0 0
    0 0 0 0 0 0 0 0 0 0 0 0 0 0 0 0 0 0 0 0 0 0 0 0 0 0 0 0 0 0 0 0 0 0 0 0 0 0 0 0 0 0 0 0 0 0 0 0 0 0 0 0 0 0 0 0 0 0 0 0 0 0 0 0 0 0 0 0 0 30 29 29 29 30 30 30 30 29 29 29 668 671 -193 -193 -193 27 -209 -193 -193 -209 -209 -193 -193 24 -193 22 -193 21 22 21 20 21 -193 -193 -209 -193 24 -193 30 32 33 31 31 30 31 31 27 32 30 -193 31 34 36 37 35 31 30 32 33 34 34 33 31 29 29 31 30 35 35 35 36 34 35 36 35 34 33 33 31 29 32 32 30 31 31 29 28 29 27 28 27 26 27 28 28 30 29 30 29 30 29 28 27 27 26 26 29 33 31 38 29 28 29 29 29 28 28 28 25 29 33 32 31 34 35 37 38 41 43 43 43 44 44 33 33 31 40 43 38 39 34 36 37 37 37 37 36 37 36 42 48 46 53 53 54 53 54 54 54 -209 38 -193 41 37 37 37 35 34 36 34 34 32 33 34 31 32 34 34 35 34 32 35 36 35 35 37 40 39 39 40 40 40 42 43 43 41 44 48 49 49 50 50 52 55 55 55 53 50 50 55 53 51 53 52 51 52 51 52 51 51 52 51 52 53 51 53 52 48 -225 -225 -209 -193 -209 -209 -209 -209 -209 -209 -209 -209 -209 -209 -209 -209 -193 0 0 0 0 0
    0 0 0 0 0 0 0 0 0 0 0 0 0 0 0 0 0 0 0 0 0 0 0 0 0 0 0 0 0 0 0 0 0 0 0 0 0 0 0 0 0 0 0 0 0 0 0 0 0 0 0 0 0 0 0 0 0 0 0 0 0 0 0 0 0 0 0 0 0 31 30 30 30 29 30 30 30 30 30 30 -177 -193 31 -193 -193 -193 -209 -209 -209 -209 -209 -193 22 22 22 21 21 21 21 21 21 21 22 -193 -209 26 27 -193 -193 33 34 32 32 31 32 32 27 32 30 27 31 32 36 36 35 32 31 33 34 35 35 34 33 30 30 32 30 35 34 35 36 34 35 36 35 34 32 33 31 29 34 33 32 32 32 30 29 30 29 29 29 28 29 30 31 32 31 31 30 31 30 29 28 28 27 27 28 34 31 38 31 30 31 32 31 31 30 30 27 30 32 32 31 34 33 37 36 40 41 42 41 41 41 31 33 32 39 42 39 39 35 37 38 38 39 39 38 40 39 44 51 49 54 54 53 53 54 54 54 -209 -193 -193 42 37 37 36 35 34 36 34 34 32 33 34 32 32 34 34 35 35 34 36 37 36 36 38 41 39 39 39 40 40 43 43 43 42 46 50 51 51 51 51 52 54 53 54 49 46 46 54 54 51 53 52 51 52 51 51 51 50 51 50 50 52 49 52 51 46 45 -225 -209 -193 -209 -209 -193 -209 -209 -209 -193 -193 -193 -193 -193 -209 -193 0 0 0 0 0
    0 0 0 0 0 0 0 0 0 0 0 0 0 0 0 0 0 0 0 0 0 0 0 0 0 0 0 0 0 0 0 0 0 0 0 0 0 0 0 0 0 0 0 0 0 0 0 0 0 0 0 0 0 0 0 0 0 0 0 0 0 0 0 0 0 0 0 0 0 31 30 30 30 30 30 30 30 30 30 30 -193 31 31 -193 -193 -193 -209 -209 -209 -209 -209 -193 21 22 23 22 23 22 22 22 22 22 23 23 -209 27 28 -193 -193 -193 -193 33 33 32 33 33 27 33 30 -209 31 30 35 35 34 32 30 32 33 35 35 33 33 31 30 32 30 36 34 35 37 34 35 36 35 35 32 34 32 29 35 34 33 32 33 31 30 31 30 30 29 29 31 30 31 34 31 32 31 32 31 30 29 29 27 28 29 34 32 38 32 32 32 34 32 33 31 31 28 31 32 33 31 34 32 36 35 38 41 42 41 41 39 33 34 33 39 40 39 40 37 39 40 39 40 -193 41 43 43 47 52 51 54 54 52 52 54 54 54 -209 -209 -209 -193 -209 35 -193 32 31 35 33 33 31 33 34 33 33 35 35 36 36 36 37 38 37 36 38 41 39 39 39 39 41 43 44 44 44 48 51 52 51 50 51 51 52 51 51 46 43 43 54 54 51 53 52 51 52 51 51 51 49 51 49 49 50 47 50 49 46 47 51 -209 -193 -209 -209 -193 -193 -209 -193 -193 -193 -209 -209 -193 -193 -193 0 0 0 0 0
    0 0 0 0 0 0 0 0 0 0 0 0 0 0 0 0 0 0 0 0 0 0 0 0 0 0 0 0 0 0 0 0 0 0 0 0 0 0 0 0 0 0 0 0 0 0 0 0 0 0 0 0 0 0 0 0 0 0 0 0 0 0 0 0 0 0 0 0 0 31 30 30 30 29 30 30 31 30 30 31 30 31 32 27 -193 -193 -209 -209 -209 -209 -209 -209 20 21 23 22 23 23 22 22 22 -193 -209 -193 -209 27 29 -193 -193 -193 -193 33 34 32 34 33 28 34 31 -193 33 32 35 35 34 32 29 32 33 35 35 33 33 30 30 31 29 36 33 33 37 34 35 35 35 34 32 34 33 28 35 34 33 32 34 31 30 31 30 30 29 29 31 30 31 34 32 33 31 33 32 30 29 30 27 27 29 35 33 38 33 34 34 35 33 34 31 32 30 32 31 33 31 34 31 36 35 36 40 41 40 38 36 31 32 30 39 40 40 40 38 41 41 41 42 44 44 45 46 49 52 52 54 53 52 52 54 55 55 -209 -209 -209 -209 -209 -209 -209 -209 -209 -209 -209 -209 -209 -209 -209 38 36 37 37 37 38 40 39 41 39 37 39 41 39 40 39 39 43 45 46 48 49 51 53 54 52 51 51 51 51 49 49 45 42 43 52 54 50 53 52 51 51 51 51 50 48 50 48 48 49 46 48 48 46 47 51 56 -193 -209 -209 -193 -193 -193 75 -193 -209 -225 -209 29 31 -193 0 0 0 0 0
    0 0 0 0 0 0 0 0 0 0 0 0 0 0 0 0 0 0 0 0 0 0 0 0 0 0 0 0 0 0 0 0 0 0 0 0 0 0 0 0 0 0 0 0 0 0 0 0 0 0 0 0 0 0 0 0 0 0 0 0 0 0 0 0 0 0 0 0 0 30 29 31 30 29 31 31 31 31 30 31 30 32 33 27 -193 -193 -209 638 -209 -209 -209 -209 19 20 23 18 21 22 -193 -193 21 -193 21 22 -209 27 29 -193 -193 -193 -193 33 33 32 33 32 28 33 30 -193 33 31 35 34 35 32 28 31 33 35 34 31 31 30 29 31 29 35 32 32 35 33 33 34 33 33 30 33 32 27 33 32 32 30 33 30 30 31 30 31 30 29 32 30 32 35 32 33 31 33 32 31 30 31 27 29 29 34 32 38 33 34 33 35 33 34 31 32 30 32 31 33 31 34 30 37 35 34 40 40 35 35 33 30 31 32 39 40 40 41 40 43 43 43 45 46 46 48 49 51 52 52 54 52 50 51 55 55 56 56 -209 -209 -209 -209 -193 -193 -209 -209 -193 50 52 -209 -209 -193 -209 -209 52 46 47 44 49 48 48 47 40 41 43 40 42 40 41 49 50 51 53 54 54 54 55 53 51 51 51 50 48 47 46 42 43 51 54 50 53 52 51 51 51 51 50 48 50 48 48 49 46 48 49 47 49 52 58 -193 -209 -209 74 -193 74 74 -193 -209 -225 -209 28 30 -193 0 0 0 0 0
    0 0 0 0 0 0 0 0 0 0 0 0 0 0 0 0 0 0 0 0 0 0 0 0 0 0 0 0 0 0 0 0 0 0 0 0 0 0 0 0 0 0 0 0 0 0 0 0 0 0 0 0 0 0 0 0 0 0 0 0 0 0 0 0 0 0 0 0 0 30 29 31 30 29 31 31 31 31 31 32 30 32 33 27 34 -193 -209 643 645 -209 -209 -193 -209 18 9 19 -209 -209 -209 19 20 20 20 22 -209 27 30 -193 -193 -193 -193 33 33 31 33 31 27 32 29 28 33 31 34 34 35 34 30 32 33 34 33 30 29 29 28 30 28 33 30 30 34 32 32 33 32 33 30 32 31 26 30 29 31 29 32 30 30 30 30 32 30 29 33 31 32 35 32 33 31 33 32 31 31 32 28 30 30 34 34 38 33 35 34 35 33 34 32 33 30 32 31 32 31 34 30 37 34 35 40 40 34 34 32 29 32 36 40 41 41 42 42 46 46 45 47 48 49 50 51 51 52 53 53 52 50 51 55 57 58 -193 -193 -209 -209 -209 -209 -209 -209 52 53 53 55 55 54 55 55 54 55 52 52 49 52 53 51 53 51 49 51 49 53 50 57 -193 -209 55 56 56 55 55 55 53 51 51 51 49 48 47 46 42 44 50 54 51 53 53 51 52 51 51 50 48 50 48 48 49 46 48 51 48 51 54 61 -193 74 -193 -193 -193 75 -193 -193 -193 -193 -209 -209 29 -193 0 0 0 0 0
    0 0 0 0 0 0 0 0 0 0 0 0 0 0 0 0 0 0 0 0 0 0 0 0 0 0 0 0 0 0 0 0 0 0 0 0 0 0 0 0 0 0 0 0 0 0 0 0 0 0 0 0 0 0 0 0 0 0 0 0 0 0 0 0 0 0 0 0 0 29 28 31 29 28 31 30 30 30 31 31 29 32 32 28 33 32 -193 -209 -209 -209 -209 -209 20 19 18 22 21 22 21 20 20 18 19 22 -209 26 29 -193 -193 -193 -193 32 32 31 33 30 27 29 28 27 32 31 32 32 34 34 32 33 34 33 34 30 29 29 27 30 28 33 30 30 34 31 32 32 31 32 29 32 31 27 30 29 32 30 32 30 30 31 30 32 31 30 33 31 32 35 32 33 31 33 33 31 31 32 28 31 31 35 35 39 34 35 35 35 34 34 32 33 30 32 31 32 30 34 29 37 30 33 39 39 30 32 31 31 35 37 40 41 42 43 44 48 48 48 50 51 51 52 52 52 52 53 53 52 50 51 55 56 58 58 -193 -193 59 57 -193 -193 -193 51 54 54 55 56 55 57 56 56 58 55 55 53 54 -193 52 -193 54 53 54 55 56 56 62 57 -193 56 56 56 55 54 55 52 51 50 50 48 47 47 46 42 45 49 54 51 53 53 52 52 52 51 51 48 50 48 48 49 46 48 52 51 54 57 62 -209 -193 -193 -193 -193 -193 -209 -209 -209 -193 -193 -193 30 -209 0 0 0 0 0
    0 0 0 0 0 0 0 0 0 0 0 0 0 0 0 0 0 0 0 0 0 0 0 0 0 0 0 0 0 0 0 0 0 0 0 0 0 0 0 0 0 0 0 0 0 0 0 0 0 0 0 0 0 0 0 0 0 0 0 0 0 0 0 0 0 0 0 0 0 27 28 30 29 28 31 31 31 31 31 31 29 31 31 27 30 30 27 27 27 -193 -193 -209 23 21 19 22 20 21 21 20 19 18 20 22 -209 25 28 -193 -193 -193 -193 -193 32 31 33 30 26 28 27 27 31 31 32 32 33 33 33 33 35 34 35 31 30 30 28 30 29 33 30 30 34 31 32 32 31 32 29 32 31 27 31 30 32 31 32 30 30 31 30 33 31 30 33 31 32 35 32 34 31 33 33 32 31 32 28 31 32 36 36 39 34 36 36 36 34 34 32 33 30 33 32 32 31 34 30 38 26 33 36 33 28 29 29 32 33 36 38 40 42 43 45 49 48 48 51 52 52 52 52 52 51 53 53 51 49 50 54 55 55 55 54 54 55 54 53 52 49 51 53 54 56 57 57 58 58 58 60 57 57 55 54 55 52 53 54 53 54 54 55 55 60 57 -193 56 56 55 55 54 55 52 51 49 49 47 47 46 46 43 45 47 53 50 52 53 53 53 52 51 51 48 50 48 47 47 45 47 52 50 55 -225 -225 -225 -225 -225 -193 -193 -209 -209 -209 -209 -193 -209 -209 -209 -209 0 0 0 0 0
    0 0 0 0 0 0 0 0 0 0 0 0 0 0 0 0 0 0 0 0 0 0 0 0 0 0 0 0 0 0 0 0 0 0 0 0 0 0 0 0 0 0 0 0 0 0 0 0 0 0 0 0 0 0 0 0 0 0 0 0 0 0 0 0 0 0 0 0 0 26 27 29 28 28 31 31 31 31 31 30 28 30 30 26 27 28 26 26 26 25 26 -193 23 21 19 23 21 21 21 21 20 19 21 23 -209 24 28 -193 -193 -193 -193 33 32 32 34 31 26 29 28 27 31 30 32 31 32 32 31 32 34 34 35 30 30 31 29 30 30 33 30 30 34 31 31 32 31 31 29 32 31 27 31 30 33 31 32 30 30 31 30 33 31 30 32 31 32 35 32 33 30 33 33 31 31 32 27 30 31 36 36 39 35 36 36 36 34 34 32 33 31 33 32 32 31 35 31 38 27 32 33 30 28 29 29 34 33 35 37 40 43 44 46 49 47 48 51 52 52 52 52 52 51 53 53 51 50 51 54 55 55 55 55 54 55 54 53 52 51 52 54 54 57 58 57 58 58 58 60 57 57 56 54 55 53 53 53 52 53 53 54 55 60 56 60 56 56 55 55 54 54 52 51 48 48 46 46 45 45 43 45 46 52 50 52 53 53 53 52 51 51 47 49 48 46 47 44 46 52 51 56 -225 -225 -225 -225 -225 -193 -193 -209 -209 -209 -209 -209 -209 -209 -209 -209 0 0 0 0 0
    0 0 0 0 0 0 0 0 0 0 0 0 0 0 0 0 0 0 0 0 0 0 0 0 0 0 0 0 0 0 0 0 0 0 0 0 0 0 0 0 0 0 0 0 0 0 0 0 0 0 0 0 0 0 0 0 0 0 0 0 0 0 0 0 0 0 0 0 0 24 25 27 26 27 30 30 30 31 30 29 28 29 27 24 24 25 23 24 24 24 25 24 23 22 20 23 22 22 21 21 21 21 23 25 -193 25 28 -193 -193 -193 -193 33 32 33 35 31 26 29 27 27 30 30 30 29 30 31 30 30 32 32 33 29 29 31 29 30 31 33 30 30 34 32 31 32 31 31 29 31 31 27 30 29 33 31 32 31 31 31 31 34 31 29 32 30 32 35 32 33 30 33 33 31 31 31 27 29 31 35 36 39 35 36 36 35 34 34 32 33 31 33 32 32 32 35 31 37 25 31 32 28 27 29 29 36 34 36 38 40 43 45 46 49 47 48 51 52 52 52 51 51 50 53 53 51 49 50 54 54 55 55 55 54 55 55 54 52 53 54 55 54 58 58 57 58 58 58 59 57 56 55 54 55 53 53 52 52 52 52 53 54 59 56 59 56 56 55 54 54 54 51 50 47 47 45 46 45 45 43 45 45 52 50 51 53 54 53 52 51 51 47 49 48 46 46 44 46 52 51 57 -225 -225 -225 -225 -225 -193 -209 -225 -225 -209 -209 -209 -209 -209 -209 -209 0 0 0 0 0
    0 0 0 0 0 0 0 0 0 0 0 0 0 0 0 0 0 0 0 0 0 0 0 0 0 0 0 0 0 0 0 0 0 0 0 0 0 0 0 0 0 0 0 0 0 0 0 0 0 0 0 0 0 0 0 0 0 0 0 0 0 0 0 0 0 0 0 0 0 22 24 26 25 26 29 30 30 30 29 28 27 28 25 22 23 23 22 24 23 24 23 23 23 21 20 24 22 22 22 22 22 22 24 26 -193 25 28 -193 -193 -193 -193 33 31 33 35 30 26 29 27 27 31 30 31 30 31 32 31 31 33 34 32 28 28 32 29 31 31 32 30 30 34 32 31 32 31 31 29 32 31 27 29 28 33 31 32 31 31 31 31 34 31 29 32 30 32 34 31 32 30 32 33 31 32 30 27 29 32 36 37 39 35 36 37 35 35 34 32 33 30 33 32 31 32 35 32 38 -193 33 35 24 25 28 30 38 35 37 38 40 42 44 45 48 46 47 51 52 52 51 51 51 50 53 53 51 49 50 54 54 54 54 55 54 55 55 53 52 52 53 55 54 57 57 56 57 57 57 58 56 55 55 54 55 53 53 52 52 51 51 53 53 58 56 59 56 56 55 54 53 54 51 50 47 47 45 46 45 46 43 44 45 52 50 51 54 54 54 53 51 51 48 49 48 46 46 44 46 53 53 57 -225 -225 -225 -225 -225 -225 -225 -225 -225 -209 -209 -209 -209 -209 -209 -209 0 0 0 0 0
    0 0 0 0 0 0 0 0 0 0 0 0 0 0 0 0 0 0 0 0 0 0 0 0 0 0 0 0 0 0 0 0 0 0 0 0 0 0 0 0 0 0 0 0 0 0 0 0 0 0 0 0 0 0 0 0 0 0 0 0 0 0 0 0 0 0 0 0 0 21 22 24 24 26 29 30 30 30 28 28 26 26 23 21 22 23 22 24 23 24 23 24 24 21 20 23 22 21 21 22 22 21 23 26 -209 25 28 -193 30 -193 -193 32 30 33 34 30 26 28 27 27 31 30 31 30 32 32 31 31 32 32 31 28 28 29 28 32 31 32 30 30 34 32 32 32 31 31 30 32 31 27 29 28 33 30 31 31 31 31 32 35 32 29 32 31 33 34 31 32 30 31 32 31 32 30 27 30 32 37 39 40 36 36 38 36 35 34 33 33 30 34 33 31 34 36 35 37 -193 -209 -209 22 24 27 30 38 35 36 38 39 41 42 43 47 45 46 50 51 51 51 51 51 50 53 53 51 49 50 53 53 54 53 54 54 54 54 53 52 52 53 54 54 56 57 56 57 57 57 58 55 55 54 53 54 52 52 51 51 50 50 52 53 57 56 58 56 56 54 54 54 54 51 50 46 47 45 46 45 45 43 44 45 51 49 50 54 54 54 53 51 51 48 50 49 46 47 45 47 55 56 59 -225 -225 -225 -225 -225 -225 -225 -225 -225 -225 -209 -193 -209 -209 -225 -225 0 0 0 0 0
    0 0 0 0 0 0 0 0 0 0 0 0 0 0 0 0 0 0 0 0 0 0 0 0 0 0 0 0 0 0 0 0 0 0 0 0 0 0 0 0 0 0 0 0 0 0 0 0 0 0 0 0 0 0 0 0 0 0 0 0 0 0 0 0 0 0 0 0 0 21 22 23 24 26 28 29 29 29 27 27 26 26 22 21 21 23 22 24 23 25 23 24 25 22 21 22 21 21 21 21 21 21 23 -209 -193 -193 -193 -193 29 31 32 32 29 32 33 29 24 25 23 25 27 27 28 27 28 29 29 29 27 29 29 27 27 29 28 33 31 31 30 30 35 32 32 33 30 31 30 32 31 27 29 29 33 30 31 31 31 32 33 35 32 30 32 32 34 33 32 32 30 31 32 31 31 29 28 30 33 39 40 40 36 37 38 36 36 35 33 34 30 34 34 31 -193 -193 37 36 -193 45 -209 23 25 29 33 37 35 36 37 38 39 40 41 44 43 45 49 51 51 51 51 51 50 53 53 51 50 50 53 53 53 53 54 54 54 54 53 52 52 53 54 54 56 57 56 57 57 56 57 55 55 54 53 55 52 52 51 51 50 49 51 52 56 55 57 55 56 54 54 54 54 51 50 46 47 45 46 45 45 43 44 44 50 48 50 54 54 54 53 52 52 49 50 50 47 47 45 47 55 56 59 -225 -225 -225 -225 -225 -225 -225 -225 -225 -209 -193 -209 -209 -209 -225 -225 0 0 0 0 0
    0 0 0 0 0 0 0 0 0 0 0 0 0 0 0 0 0 0 0 0 0 0 0 0 0 0 0 0 0 0 0 0 0 0 0 0 0 0 0 0 0 0 0 0 0 0 0 0 0 0 0 0 0 0 0 0 0 0 0 0 0 0 0 0 0 0 0 0 0 21 22 22 23 25 28 29 29 29 26 26 -193 25 21 20 21 23 21 24 23 25 24 24 25 22 21 22 22 22 21 22 22 21 23 -209 -193 -193 -193 -193 29 31 -193 31 29 33 33 29 24 24 21 25 27 27 28 28 29 30 30 30 28 29 29 27 27 28 27 32 31 31 30 30 35 32 32 32 30 31 31 33 32 27 30 31 33 31 31 31 31 32 34 34 33 30 32 32 34 33 32 31 30 31 32 31 31 29 28 31 32 -193 40 40 37 37 38 36 36 35 34 35 31 36 35 31 37 37 38 34 36 41 39 25 28 30 36 37 36 36 37 36 38 39 40 42 42 43 47 50 51 51 51 50 50 53 53 51 49 50 52 52 53 53 53 53 54 54 53 52 52 54 55 55 56 57 56 57 57 57 57 56 55 55 55 56 53 54 52 52 50 50 52 53 58 56 57 55 56 54 54 54 54 50 50 46 47 45 45 45 45 44 43 44 49 47 49 53 54 54 53 51 52 49 50 50 47 47 45 45 55 55 -225 -225 -225 -225 -225 -225 -225 -225 -225 -225 -225 -209 -209 -209 -209 -225 -225 0 0 0 0 0
    0 0 0 0 0 0 0 0 0 0 0 0 0 0 0 0 0 0 0 0 0 0 0 0 0 0 0 0 0 0 0 0 0 0 0 0 0 0 0 0 0 0 0 0 0 0 0 0 0 0 0 0 0 0 0 0 0 0 0 0 0 0 0 0 0 0 0 0 0 21 22 22 23 24 27 28 28 28 -193 -177 -193 24 20 20 21 22 20 23 23 25 24 24 24 22 21 22 22 22 21 22 22 22 23 -193 23 24 26 -193 29 -193 -193 31 29 33 34 30 23 24 17 23 24 26 28 28 29 28 29 31 31 30 29 28 28 28 30 33 32 31 30 31 36 32 32 33 31 31 32 33 32 28 31 34 33 31 31 32 32 32 34 34 32 31 32 33 33 33 32 31 31 30 32 31 30 28 27 29 31 -193 38 40 36 37 37 36 35 35 34 35 31 36 35 32 39 -193 39 34 37 39 38 27 29 31 37 37 36 35 36 35 37 38 39 41 42 43 47 50 50 51 50 50 50 53 53 51 49 50 52 52 53 53 53 53 53 53 53 52 52 54 55 55 56 56 56 56 57 56 56 56 55 56 56 56 54 54 52 51 50 49 52 53 58 -193 57 56 56 55 55 54 54 50 49 46 46 44 45 44 44 43 43 44 48 46 48 52 53 53 53 51 51 49 50 49 47 48 45 44 54 -209 -225 -225 -225 -225 -225 -225 -225 -225 -225 -225 -225 -209 -209 -209 -209 -225 -225 0 0 0 0 0
    0 0 0 0 0 0 0 0 0 0 0 0 0 0 0 0 0 0 0 0 0 0 0 0 0 0 0 0 0 0 0 0 0 0 0 0 0 0 0 0 0 0 0 0 0 0 0 0 0 0 0 0 0 0 0 0 0 0 0 0 0 0 0 0 0 0 0 0 0 21 22 22 23 24 27 28 28 28 -193 -193 23 23 20 19 20 22 19 23 22 -193 23 24 24 22 21 22 21 21 21 21 22 22 23 24 23 24 26 -193 29 -193 -193 31 29 33 33 30 24 24 17 16 21 25 27 28 28 28 29 32 33 32 29 28 29 29 32 33 32 30 30 31 36 32 32 32 31 31 33 33 32 28 32 35 33 31 31 33 32 32 35 34 32 31 32 33 33 32 32 31 31 30 32 31 30 27 27 30 30 39 37 39 35 36 37 35 35 35 33 35 31 36 35 33 40 39 39 35 39 38 38 28 29 32 38 36 36 35 37 35 37 38 39 40 41 42 46 49 50 51 50 50 49 53 53 51 49 51 53 52 53 53 53 53 53 53 53 52 53 54 55 55 55 56 56 56 56 55 55 55 55 56 55 56 54 55 53 52 50 50 -193 53 58 56 57 56 56 55 55 54 54 50 49 45 46 43 44 43 43 44 43 44 47 46 48 52 52 53 52 51 52 50 50 50 49 49 46 43 51 -193 -225 -225 -225 -225 -225 -225 -225 -225 -225 -225 -225 -193 62 -209 -209 61 -225 0 0 0 0 0
    0 0 0 0 0 0 0 0 0 0 0 0 0 0 0 0 0 0 0 0 0 0 0 0 0 0 0 0 0 0 0 0 0 0 0 0 0 0 0 0 0 0 0 0 0 0 0 0 0 0 0 0 0 0 0 0 0 0 0 0 0 0 0 0 0 0 0 0 0 22 22 22 23 23 26 27 27 27 23 24 23 22 19 20 20 22 19 22 -193 -193 -193 24 25 23 21 23 22 22 22 22 22 22 23 24 24 25 26 31 29 30 -193 31 30 33 32 30 25 25 23 25 25 26 28 29 32 30 31 35 37 34 30 29 29 29 33 33 31 30 30 32 37 33 33 32 31 31 32 33 32 27 30 34 32 30 31 33 32 33 35 33 32 31 32 33 32 32 32 31 31 30 32 32 30 28 30 32 31 39 37 39 35 36 36 35 34 35 33 34 31 36 34 35 40 39 38 31 38 34 35 27 27 33 37 36 37 35 37 35 37 37 39 40 41 42 45 48 49 50 50 50 49 52 52 51 49 51 53 52 53 53 54 54 54 54 54 53 54 55 56 55 55 56 56 56 56 55 54 54 55 57 57 59 57 58 56 55 53 52 -193 54 59 55 56 55 56 55 55 55 54 49 48 45 45 43 43 43 43 44 43 44 47 46 48 52 52 53 53 52 53 51 52 52 51 53 51 44 -193 -209 -209 -225 -225 -225 -225 -225 -225 -225 -225 -225 -225 -225 -225 -225 -225 -225 -225 0 0 0 0 0
    0 0 0 0 0 0 0 0 0 0 0 0 0 0 0 0 0 0 0 0 0 0 0 0 0 0 0 0 0 0 0 0 0 0 0 0 0 0 0 0 0 0 0 0 0 0 0 0 0 0 0 0 0 0 0 0 0 0 0 0 0 0 0 0 0 0 0 0 0 22 21 21 22 22 25 26 26 -193 22 24 23 22 20 20 21 23 19 23 -193 -193 -193 -193 25 24 22 23 23 23 22 22 23 23 23 -193 24 24 25 30 28 30 -193 30 29 31 31 29 24 24 21 -193 24 -193 26 29 -209 -209 34 38 38 34 30 30 30 29 33 33 31 29 30 33 37 33 33 32 31 32 32 33 31 26 30 32 30 30 31 33 32 33 34 32 32 31 32 33 32 31 31 31 31 30 32 33 30 30 34 35 34 40 37 39 35 36 35 35 34 34 33 34 31 35 33 35 39 38 36 30 39 36 37 29 28 35 37 36 -193 36 37 36 37 37 38 -193 41 41 44 47 49 50 50 50 49 52 52 51 49 51 52 52 52 52 53 54 54 54 55 54 55 56 56 56 56 56 56 56 56 54 54 54 54 57 58 60 58 59 57 -193 53 53 -193 -193 60 55 56 55 57 56 56 55 54 49 47 45 45 43 43 43 43 43 42 44 46 45 47 51 51 52 53 53 53 53 53 54 53 55 54 47 56 -209 -225 -225 -225 -225 -225 -225 -225 -225 -225 -225 -225 -225 -225 -225 -225 -225 -225 0 0 0 0 0
    0 0 0 0 0 0 0 0 0 0 0 0 0 0 0 0 0 0 0 0 0 0 0 0 0 0 0 0 0 0 0 0 0 0 0 0 0 0 0 0 0 0 0 0 0 0 0 0 0 0 0 0 0 0 0 0 0 0 0 0 0 0 0 0 0 0 0 0 0 22 22 22 23 21 25 25 25 -193 -193 24 22 21 21 21 22 24 20 23 -209 -193 -193 26 26 25 23 24 23 23 23 22 22 23 22 -193 23 24 25 29 28 29 701 29 29 30 30 29 24 23 18 17 21 22 -209 25 -209 -209 35 38 37 34 30 29 29 29 33 32 30 29 30 33 37 34 33 32 31 33 33 33 31 26 31 32 30 30 32 33 32 33 34 32 32 32 33 33 32 32 32 31 32 31 32 33 30 31 35 35 35 40 37 38 35 36 35 34 34 34 32 34 31 35 32 37 39 39 38 36 41 40 41 34 32 37 37 35 -193 35 37 36 37 37 38 -177 -193 41 44 47 49 50 50 50 49 53 52 52 49 51 51 51 52 52 52 53 53 53 54 53 55 56 56 56 55 56 56 56 57 54 53 53 -209 58 59 -193 58 59 59 -193 55 54 -193 56 60 56 55 56 57 57 57 56 55 48 47 46 45 43 43 43 43 43 42 44 46 45 47 50 49 51 53 52 53 53 54 54 54 56 56 50 -193 -209 -225 -225 -225 -225 -225 -225 -225 -225 -225 -225 -225 -225 -225 -225 -225 -225 -225 0 0 0 0 0
    0 0 0 0 0 0 0 0 0 0 0 0 0 0 0 0 0 0 0 0 0 0 0 0 0 0 0 0 0 0 0 0 0 0 0 0 0 0 0 0 0 0 0 0 0 0 0 0 0 0 0 0 0 0 0 0 0 0 0 0 0 0 0 0 0 0 0 0 0 -177 -193 23 23 21 25 25 25 26 -193 -193 22 21 23 23 24 26 -193 25 -209 -193 -193 -193 26 26 24 24 23 23 23 22 22 22 22 -193 23 24 24 -193 -193 28 -193 28 28 29 29 28 24 23 18 17 22 23 -209 -193 -209 -209 34 36 36 32 30 29 28 30 32 31 30 29 30 32 37 34 33 31 31 32 33 33 31 26 32 32 30 30 32 33 32 33 34 32 32 32 33 33 32 32 32 32 32 31 33 33 30 32 35 35 34 40 36 38 34 36 34 34 33 34 32 34 31 36 31 38 39 39 38 36 41 39 39 35 34 38 36 35 -193 35 37 36 36 37 37 -193 41 41 44 47 49 51 51 51 50 53 53 52 49 51 51 51 52 52 52 53 53 53 54 54 56 56 56 57 55 56 56 56 57 54 -193 54 -209 59 -193 -193 59 59 59 -209 -193 -193 56 57 60 56 55 56 57 58 58 57 56 48 48 48 46 43 43 42 43 43 43 44 46 45 47 48 47 48 52 52 53 53 54 54 55 58 58 54 57 -209 -225 -225 -225 -225 -225 -225 -225 -225 -193 -193 -225 -225 -225 -225 -225 -225 -225 0 0 0 0 0
    0 0 0 0 0 0 0 0 0 0 0 0 0 0 0 0 0 0 0 0 0 0 0 0 0 0 0 0 0 0 0 0 0 0 0 0 0 0 0 0 0 0 0 0 0 0 0 0 0 0 0 0 0 0 0 0 0 0 0 0 0 0 0 0 0 0 0 0 0 -177 -177 -193 -193 21 25 25 25 26 -193 -193 22 20 24 -193 25 27 -209 25 25 -193 -193 27 26 26 25 -193 -193 -193 25 23 23 23 23 23 23 23 24 -193 -193 27 -193 27 28 28 28 28 25 25 20 21 23 26 -209 -193 -193 37 37 37 36 34 30 30 28 30 31 30 30 29 29 32 36 34 32 31 31 -193 33 32 30 25 32 31 29 30 32 33 32 33 34 31 32 32 33 33 31 32 31 31 32 31 33 32 30 34 36 35 35 40 35 37 33 35 33 33 33 33 32 34 31 35 30 39 39 38 38 37 40 37 38 35 34 38 36 34 -193 35 37 36 37 37 37 -193 41 41 44 49 50 52 52 52 50 54 54 53 49 51 51 51 51 52 52 53 53 53 56 55 -193 58 58 57 55 56 56 56 -193 54 -193 54 54 59 59 59 59 60 59 -193 -209 -193 -193 58 61 56 56 56 58 58 58 57 56 48 49 49 46 42 43 42 43 43 43 45 46 45 47 48 46 47 51 52 53 54 55 54 56 59 59 52 55 -209 -225 -225 -225 -225 -225 -225 -225 -225 48 45 -225 -225 -225 -225 -225 -225 -225 0 0 0 0 0
    0 0 0 0 0 0 0 0 0 0 0 0 0 0 0 0 0 0 0 0 0 0 0 0 0 0 0 0 0 0 0 0 0 0 0 0 0 0 0 0 0 0 0 0 0 0 0 0 0 0 0 0 0 0 0 0 0 0 0 0 0 0 0 0 0 0 0 0 0 -177 -177 -177 -177 20 24 24 24 25 -193 671 21 18 25 25 26 -193 23 25 23 25 27 27 26 27 26 27 25 26 26 24 -193 24 -193 23 22 23 24 -193 700 -193 -193 27 27 28 28 28 26 27 25 24 25 30 39 43 45 -209 38 37 37 35 32 30 29 31 32 30 30 29 29 31 36 34 32 31 32 -193 32 31 29 25 30 29 29 30 32 33 32 34 34 31 32 32 33 32 31 32 31 31 32 32 34 32 30 35 35 35 35 39 34 36 32 35 32 32 32 33 31 33 31 35 30 39 39 38 37 36 39 35 36 34 33 38 35 34 37 35 37 36 36 37 37 40 42 41 45 51 51 53 53 53 52 55 55 54 50 52 51 52 51 52 52 51 -193 -193 -209 -209 -209 58 -193 -193 -193 55 55 55 55 53 -193 53 54 58 58 57 59 59 59 -193 -193 -193 -193 59 61 -193 56 56 57 58 58 57 56 48 49 50 46 42 42 42 43 43 44 46 46 46 50 50 47 48 52 53 53 54 56 55 57 60 61 -193 -193 -209 -225 -225 -225 -225 -225 -225 -225 -225 49 46 -225 -225 -225 -225 -225 -225 -225 0 0 0 0 0
    0 0 0 0 0 0 0 0 0 0 0 0 0 0 0 0 0 0 0 0 0 0 0 0 0 0 0 0 0 0 0 0 0 0 0 0 0 0 0 0 0 0 0 0 0 0 0 0 0 0 0 0 0 0 0 0 0 0 0 0 0 0 0 0 0 0 0 0 0 -177 -177 -193 -193 20 23 23 23 -209 -177 671 -193 18 25 -193 25 25 22 23 21 24 26 27 26 27 27 28 26 27 27 25 24 24 -193 24 23 24 24 -193 702 -193 -193 -193 -193 27 27 27 26 28 25 22 23 26 29 33 37 28 34 34 35 34 32 30 29 31 32 29 30 30 29 31 35 33 32 30 32 -193 30 30 28 25 29 27 28 29 32 33 32 34 34 31 32 32 33 32 31 32 31 31 32 33 33 32 30 35 35 35 34 38 33 36 31 35 31 31 32 32 30 33 31 35 29 38 38 36 34 34 38 33 33 33 32 39 35 34 37 35 36 36 36 36 36 41 42 41 45 52 52 54 54 54 53 55 56 55 51 54 54 54 51 52 -193 51 -193 -193 -209 -209 -209 57 -193 55 54 54 54 54 54 52 52 52 53 58 57 57 58 59 59 59 -193 59 -193 59 61 -193 56 56 57 58 58 57 56 49 51 51 46 41 42 42 43 44 45 48 47 47 52 53 50 49 52 55 54 56 58 57 59 62 63 -193 -193 -209 -225 -225 -225 -225 -225 -225 -225 -225 46 44 -225 -225 -225 -225 -225 -225 -225 0 0 0 0 0
    0 0 0 0 0 0 0 0 0 0 0 0 0 0 0 0 0 0 0 0 0 0 0 0 0 0 0 0 0 0 0 0 0 0 0 0 0 0 0 0 0 0 0 0 0 0 0 0 0 0 0 0 0 0 0 0 0 0 0 0 0 0 0 0 0 0 0 0 0 -177 -193 -193 -193 20 23 23 23 -209 -177 671 -193 19 25 25 25 25 22 23 21 23 25 27 27 27 27 28 27 28 28 26 -193 24 -193 24 23 24 24 -193 703 -193 704 701 701 26 26 26 26 28 25 23 23 25 25 26 33 28 33 33 33 34 32 30 30 32 31 30 31 30 29 32 35 33 32 31 32 31 30 30 28 25 29 26 28 29 32 33 33 35 34 31 32 32 34 32 31 32 31 31 32 34 34 31 31 35 35 34 34 37 32 35 31 34 31 31 32 32 30 32 31 34 29 38 36 34 33 34 38 34 33 34 33 39 35 35 37 35 36 36 37 37 36 41 42 41 46 54 53 55 55 55 54 56 56 -193 51 54 53 53 51 53 -193 52 -193 -193 -209 -193 -193 -193 -209 -193 54 54 54 54 53 52 52 52 53 57 57 57 58 58 58 59 -209 59 -193 59 60 -193 56 56 57 58 57 57 56 51 52 53 49 42 42 42 44 44 46 49 48 48 51 53 50 49 52 54 54 56 58 58 59 62 64 -193 -193 -193 -225 -225 -225 -225 -225 -225 -225 -225 45 44 -225 -225 -225 -225 -225 -225 -225 0 0 0 0 0
    0 0 0 0 0 0 0 0 0 0 0 0 0 0 0 0 0 0 0 0 0 0 0 0 0 0 0 0 0 0 0 0 0 0 0 0 0 0 0 0 0 0 0 0 0 0 0 0 0 0 0 0 0 0 0 0 0 0 0 0 0 0 0 0 0 0 0 0 0 -177 -193 -193 -193 21 24 24 24 -209 -193 672 -193 20 26 25 25 24 22 23 22 23 25 26 27 28 28 29 27 28 29 27 -193 25 -193 24 23 24 24 23 -193 -193 704 702 702 -193 25 25 26 28 25 24 24 25 25 24 30 27 32 30 31 33 32 30 30 31 31 29 31 31 29 32 34 32 33 32 33 31 30 30 28 26 30 26 27 28 32 32 33 35 34 31 32 33 34 32 31 32 31 31 31 34 34 31 31 35 35 33 33 37 32 35 31 34 31 31 32 32 30 32 30 34 28 37 35 33 34 35 38 35 35 35 36 40 36 36 37 36 37 37 37 37 36 42 43 42 48 55 55 56 56 56 55 57 56 -193 51 -193 52 53 50 53 -193 -193 -193 -193 -193 -193 -193 -193 -209 -193 54 54 54 54 53 52 52 52 53 53 55 56 56 58 58 58 -193 58 -193 59 60 -193 -193 57 58 58 57 57 56 53 54 54 51 42 42 43 44 45 48 50 50 50 51 52 50 49 51 53 53 55 58 56 58 61 64 60 -193 -193 -225 -225 -225 -225 -225 -225 -225 -193 -193 -193 -225 -225 -225 -225 -225 -225 -225 0 0 0 0 0
    0 0 0 0 0 0 0 0 0 0 0 0 0 0 0 0 0 0 0 0 0 0 0 0 0 0 0 0 0 0 0 0 0 0 0 0 0 0 0 0 0 0 0 0 0 0 0 0 0 0 0 0 0 0 0 0 0 0 0 0 0 0 0 0 0 0 0 0 0 -193 28 28 28 23 25 25 25 25 672 672 -193 -193 26 24 24 23 21 23 21 23 -193 26 27 28 28 29 27 28 29 27 26 25 26 24 23 23 24 23 -193 -193 705 702 703 -177 -193 22 26 28 25 21 21 23 23 22 24 24 29 28 28 31 31 29 31 31 30 29 31 32 29 32 33 31 32 32 32 30 30 31 28 27 31 27 28 29 32 32 33 36 34 32 33 33 35 32 32 32 31 31 31 34 33 29 30 33 33 30 31 37 31 35 31 34 31 31 32 32 30 32 30 34 28 36 34 33 35 36 39 36 36 37 38 41 36 36 37 36 36 37 37 37 36 42 43 43 49 55 56 56 56 57 56 57 57 -193 52 -193 53 54 50 53 -193 -193 -193 -193 -193 -193 -193 55 -193 53 54 53 53 53 53 52 52 51 52 50 53 53 53 55 55 57 -193 -193 55 57 59 -193 -193 57 58 58 58 58 57 54 55 55 53 43 44 44 46 46 50 51 51 50 51 51 51 48 50 51 51 51 55 50 55 58 60 -193 -193 -209 -225 -225 -225 -225 -225 -225 -209 -209 -209 -193 -225 -225 -225 -225 -225 -225 -225 0 0 0 0 0
    0 0 0 0 0 0 0 0 0 0 0 0 0 0 0 0 0 0 0 0 0 0 0 0 0 0 0 0 0 0 0 0 0 0 0 0 0 0 0 0 0 0 0 0 0 0 0 0 0 0 0 0 0 0 0 0 0 0 0 0 0 0 0 0 0 0 0 0 0 -177 30 29 30 25 26 26 26 27 673 673 -193 -193 26 -193 -209 22 21 23 22 23 -193 26 27 28 29 29 27 28 29 28 27 26 26 24 23 23 24 22 21 23 706 702 704 705 -193 21 26 29 26 22 21 23 23 22 24 24 29 28 27 31 30 29 31 31 30 29 31 32 29 32 32 30 32 31 31 30 30 31 29 28 31 27 29 29 32 33 34 37 35 33 35 35 36 33 33 33 31 30 31 33 31 27 28 29 30 28 29 35 30 35 30 34 31 31 32 32 30 32 30 34 28 35 34 32 37 36 38 35 35 36 39 41 37 36 37 36 36 37 37 36 36 42 43 43 50 56 56 56 56 57 56 58 58 -193 53 -193 54 54 50 54 -193 -193 -193 -193 -193 -193 -193 55 54 53 53 52 53 53 53 52 51 51 52 49 52 52 51 53 53 56 -193 -193 55 57 59 -193 -193 57 58 57 57 57 57 55 55 55 54 43 46 46 49 49 51 52 52 51 51 51 50 47 48 47 48 45 47 44 49 -193 -193 -193 33 -193 -209 -209 -225 -225 -225 -225 -209 -209 -209 -193 -225 -225 -225 -225 -225 -225 -225 0 0 0 0 0
    0 0 0 0 0 0 0 0 0 0 0 0 0 0 0 0 0 0 0 0 0 0 0 0 0 0 0 0 0 0 0 0 0 0 0 0 0 0 0 0 0 0 0 0 0 0 0 0 0 0 0 0 0 0 0 0 0 0 0 0 0 0 0 0 0 0 0 0 0 -177 31 30 31 26 27 27 27 28 -193 674 -193 -193 26 -193 -209 22 22 23 23 23 25 26 27 28 29 29 28 29 30 28 27 26 27 -193 23 23 24 21 20 22 707 703 704 705 -193 20 27 30 27 24 22 24 24 23 24 24 29 27 27 30 30 29 31 31 30 29 32 32 29 32 31 29 32 31 31 -193 30 31 28 29 31 26 29 29 32 35 37 39 37 34 37 36 37 33 33 33 31 29 31 32 30 26 27 28 28 27 28 35 30 35 30 33 31 31 32 32 30 32 30 34 28 35 33 31 37 37 37 33 33 35 38 40 37 37 37 36 36 37 37 36 36 42 42 42 50 56 56 56 56 57 56 58 58 -193 54 -209 54 55 52 56 -193 -193 -193 -193 -193 126 -193 55 -193 52 53 52 52 52 52 51 51 50 52 49 53 52 52 54 54 56 -193 -193 55 56 58 59 57 57 58 57 57 57 57 55 54 55 53 43 47 47 50 50 52 53 52 51 51 50 50 47 48 46 47 44 46 45 48 55 -193 -193 34 33 -209 -209 -225 -225 -225 -225 -225 -225 -225 -225 -225 -225 -225 -225 -225 -225 -225 0 0 0 0 0
    0 0 0 0 0 0 0 0 0 0 0 0 0 0 0 0 0 0 0 0 0 0 0 0 0 0 0 0 0 0 0 0 0 0 0 0 0 0 0 0 0 0 0 0 0 0 0 0 0 0 0 0 0 0 0 0 0 0 0 0 0 0 0 0 0 0 0 0 0 -177 31 29 31 26 27 27 28 28 -193 -193 27 -193 27 25 -193 22 22 24 23 24 26 26 27 28 30 29 28 29 30 28 27 27 27 -193 24 23 -193 21 19 21 -193 704 706 706 -193 20 27 31 28 25 23 24 24 23 25 24 29 27 27 30 29 30 32 31 30 30 32 32 29 32 30 28 32 30 -193 547 29 30 28 29 30 26 27 27 31 35 38 41 40 39 41 40 39 35 35 34 31 29 31 31 28 25 23 25 25 25 27 34 30 36 30 34 31 31 32 32 30 32 29 34 28 34 32 31 38 37 37 34 33 35 39 40 37 37 37 36 36 36 37 35 37 41 42 42 49 55 56 56 56 56 56 57 58 58 55 -193 56 57 55 58 59 57 55 -209 -193 -193 -193 54 54 52 53 52 52 52 52 51 51 50 52 49 52 51 51 53 53 54 -193 -209 53 52 57 58 57 57 57 -193 56 56 56 55 54 54 53 42 47 47 51 50 53 53 52 51 51 50 50 47 48 47 47 45 47 48 49 53 49 44 37 34 33 -209 -225 -225 -225 -225 -225 -225 -225 -225 -225 -225 -225 -225 -225 -225 -225 0 0 0 0 0
    0 0 0 0 0 0 0 0 0 0 0 0 0 0 0 0 0 0 0 0 0 0 0 0 0 0 0 0 0 0 0 0 0 0 0 0 0 0 0 0 0 0 0 0 0 0 0 0 0 0 0 0 0 0 0 0 0 0 0 0 0 0 0 0 0 0 0 0 0 28 31 30 32 27 28 28 29 30 29 -193 28 26 28 27 26 24 25 25 25 25 27 27 28 28 30 29 29 29 30 28 28 27 27 -193 24 24 -193 21 19 21 -193 706 -177 -193 22 19 27 30 27 25 23 24 25 23 26 25 28 27 27 28 29 30 33 31 30 31 33 33 29 33 29 28 31 -193 544 545 29 30 27 29 29 25 26 25 30 39 42 43 44 44 44 44 42 39 38 35 34 30 32 31 26 23 21 23 23 24 27 34 30 37 31 34 32 32 33 32 30 32 29 33 28 32 30 31 37 36 36 34 33 35 39 39 37 37 38 37 36 36 37 35 38 41 41 41 49 55 56 55 55 55 55 57 57 58 55 57 58 59 59 61 61 58 56 56 56 55 55 55 55 53 54 52 52 52 52 52 51 49 51 48 51 50 49 51 50 -193 -193 51 51 48 56 57 56 57 57 56 56 56 56 55 54 54 52 41 46 46 50 49 52 52 52 51 50 50 50 48 49 47 47 45 48 51 50 53 52 54 44 38 37 -209 -225 -225 -225 -225 -225 -225 -225 -225 -225 -225 -225 -225 -225 -225 -225 0 0 0 0 0
    0 0 0 0 0 0 0 0 0 0 0 0 0 0 0 0 0 0 0 0 0 0 0 0 0 0 0 0 0 0 0 0 0 0 0 0 0 0 0 0 0 0 0 0 0 0 0 0 0 0 0 0 0 0 0 0 0 0 0 0 0 0 0 0 0 0 0 0 0 27 30 29 31 28 29 29 30 31 30 28 29 27 29 28 27 26 26 26 26 26 27 27 28 28 30 29 29 29 30 28 28 27 27 26 25 24 -193 21 20 22 22 708 -193 22 22 19 26 29 26 24 23 23 25 23 27 27 30 28 28 27 28 33 34 31 31 31 33 32 29 33 28 27 31 656 -193 544 28 30 27 29 29 25 25 24 30 44 46 47 49 47 47 46 43 43 -209 -209 -209 -209 -209 -209 -209 20 15 22 22 24 27 37 32 38 33 34 33 33 34 33 31 32 28 33 29 32 30 32 38 37 36 35 34 35 39 38 37 36 38 37 36 37 37 35 39 -193 41 41 49 54 56 55 55 55 55 57 57 58 55 54 57 58 59 60 60 59 56 56 56 55 55 55 55 53 54 52 52 52 52 52 51 50 52 49 52 52 50 50 -209 -209 -209 -193 45 42 54 55 55 56 56 56 56 56 56 55 54 54 51 42 45 45 49 48 51 52 51 50 50 50 50 47 48 46 46 44 46 50 49 54 -193 -193 49 42 40 -209 -225 -225 -225 -225 -225 -225 -225 -225 -225 -225 -225 -225 -225 -225 -225 0 0 0 0 0
    0 0 0 0 0 0 0 0 0 0 0 0 0 0 0 0 0 0 0 0 0 0 0 0 0 0 0 0 0 0 0 0 0 0 0 0 0 0 0 0 0 0 0 0 0 0 0 0 0 0 0 0 0 0 0 0 0 0 0 0 0 0 0 0 0 0 0 0 0 27 30 29 31 29 31 30 31 33 32 29 29 28 30 29 28 26 26 27 27 27 28 27 28 28 30 29 29 29 29 28 29 28 28 26 25 25 -193 22 21 22 -193 -193 -193 23 23 20 27 29 26 24 23 23 25 23 29 28 32 30 29 28 29 35 34 31 32 32 33 32 29 32 27 27 30 655 -193 545 28 29 -193 29 30 25 27 26 35 46 48 47 48 48 47 47 45 48 -209 -209 -209 -209 -209 -209 -209 21 16 24 24 25 29 -209 35 40 34 35 34 34 34 33 31 33 28 34 30 33 31 37 40 40 39 38 36 36 39 37 37 36 38 37 36 37 37 34 40 -193 42 42 49 55 56 55 56 55 55 57 57 -193 55 54 57 58 60 63 63 63 67 61 62 60 59 56 55 54 54 52 52 53 53 52 51 51 52 50 55 54 52 50 -209 -209 -209 -209 36 39 50 51 52 55 55 55 55 55 55 54 53 53 51 44 47 46 49 48 51 51 50 50 49 48 49 46 47 45 45 44 46 51 50 55 58 -193 -193 43 41 -225 -225 -225 -225 -225 -225 -225 -225 -225 -225 -225 -225 -225 -225 -225 -225 0 0 0 0 0
    0 0 0 0 0 0 0 0 0 0 0 0 0 0 0 0 0 0 0 0 0 0 0 0 0 0 0 0 0 0 0 0 0 0 0 0 0 0 0 0 0 0 0 0 0 0 0 0 0 0 0 0 0 0 0 0 0 0 0 0 0 0 0 0 0 0 0 0 0 26 29 28 31 29 32 31 33 34 33 30 31 29 31 30 29 27 27 27 28 27 29 28 28 28 29 30 29 29 30 29 29 28 28 27 26 25 26 23 -193 23 -193 -193 24 24 24 22 27 30 27 25 27 27 -209 27 32 30 34 30 31 29 31 35 33 31 32 32 33 31 28 30 26 26 29 655 -193 546 28 29 -193 29 30 25 28 29 38 45 48 47 48 50 49 51 -193 -193 -209 -193 -209 -209 -209 -193 -209 21 15 23 23 25 33 -209 40 41 35 36 35 35 34 34 31 33 27 34 31 34 34 40 40 39 37 37 36 36 39 36 36 35 37 36 36 36 36 33 41 -193 42 42 49 54 56 55 56 55 56 57 58 58 56 57 58 61 65 67 68 69 73 68 70 68 62 56 56 54 54 53 53 53 53 53 52 51 53 51 55 54 51 48 -209 -209 -209 -209 34 39 48 48 49 52 53 53 53 53 54 52 51 51 50 44 47 46 48 48 50 50 49 49 48 47 48 46 47 44 45 46 49 53 53 55 60 -193 57 44 -209 -225 -225 -225 -225 -225 -225 -225 -225 -225 -225 -225 -225 -225 -225 -225 -225 0 0 0 0 0
    0 0 0 0 0 0 0 0 0 0 0 0 0 0 0 0 0 0 0 0 0 0 0 0 0 0 0 0 0 0 0 0 0 0 0 0 0 0 0 0 0 0 0 0 0 0 0 0 0 0 0 0 0 0 0 0 0 0 0 0 0 0 0 0 0 0 0 0 0 26 28 28 30 30 32 31 34 34 33 31 31 30 31 32 30 28 28 28 29 28 29 29 29 29 30 30 30 29 30 29 30 28 28 28 26 26 26 24 -193 24 -193 -193 24 24 24 22 27 30 27 25 28 28 -209 35 35 31 35 31 33 30 34 35 33 31 32 32 33 30 28 29 25 25 28 -177 -193 546 -193 -193 -193 29 30 25 -193 -209 42 49 52 50 50 51 49 50 -209 53 -209 189 -209 -209 -209 -193 -209 20 15 19 17 24 -209 -209 46 45 35 35 35 35 34 34 31 32 26 32 32 33 33 38 39 37 35 35 35 35 39 35 35 34 37 35 35 35 35 31 40 -193 41 41 49 54 55 55 55 55 56 58 59 59 58 59 61 64 68 70 71 73 76 73 70 70 67 58 58 55 55 54 53 54 54 54 53 51 54 53 56 57 55 49 -209 -209 -209 -209 34 38 45 45 47 50 53 52 51 52 52 50 50 50 49 45 46 46 48 47 49 49 48 48 46 46 47 45 46 44 45 47 50 53 53 55 61 68 59 50 47 -225 -225 -225 -225 -225 -225 -225 -225 -225 -225 -225 -225 -225 -225 -225 -225 0 0 0 0 0
    0 0 0 0 0 0 0 0 0 0 0 0 0 0 0 0 0 0 0 0 0 0 0 0 0 0 0 0 0 0 0 0 0 0 0 0 0 0 0 0 0 0 0 0 0 0 0 0 0 0 0 0 0 0 0 0 0 0 0 0 0 0 0 0 0 0 0 0 0 26 27 28 29 30 32 31 34 34 32 32 32 31 32 34 32 29 30 29 30 29 30 29 29 29 30 31 30 30 30 30 31 29 29 29 26 26 27 24 -193 24 25 25 25 24 24 22 28 30 28 26 30 -193 35 -209 37 33 35 33 34 31 35 35 32 31 32 33 33 30 28 28 24 25 27 -193 -193 -177 -193 28 -193 29 30 25 -193 -209 43 49 51 -177 48 48 45 44 43 45 -193 189 190 -209 -209 -209 -209 19 15 19 18 23 -209 -209 46 46 35 35 35 35 34 34 31 32 25 31 32 32 34 37 37 35 34 34 33 35 39 34 34 34 36 35 35 35 35 30 40 -193 41 41 49 55 56 56 56 56 56 60 62 61 60 63 65 68 70 72 73 73 77 74 72 72 70 62 63 56 57 55 54 54 55 55 54 53 56 56 61 63 59 -209 -209 -209 -209 -209 26 36 42 42 44 47 51 51 49 50 51 49 49 49 48 45 45 46 47 46 49 49 48 47 46 46 47 45 46 45 46 48 51 53 53 54 61 -193 62 55 55 -225 -225 -225 -225 -225 -225 -225 -225 -225 -225 -225 -225 -225 -225 -225 -225 0 0 0 0 0
    0 0 0 0 0 0 0 0 0 0 0 0 0 0 0 0 0 0 0 0 0 0 0 0 0 0 0 0 0 0 0 0 0 0 0 0 0 0 0 0 0 0 0 0 0 0 0 0 0 0 0 0 0 0 0 0 0 0 0 0 0 0 0 0 0 0 0 0 0 26 27 27 29 30 32 31 34 34 32 32 32 31 32 34 34 30 31 30 31 30 30 30 30 29 30 32 31 30 30 30 31 28 29 29 26 27 28 25 -193 25 26 26 25 25 25 23 28 30 27 26 -193 -193 35 -193 37 33 34 33 34 32 36 34 32 31 32 33 33 30 28 27 23 25 26 -193 -193 -177 27 27 -193 29 30 25 26 31 -193 47 -177 47 45 45 -193 -209 -193 42 -193 190 -209 -209 -209 -209 -209 20 17 19 19 23 -209 -209 43 44 35 35 35 35 34 33 30 31 25 31 34 34 36 38 37 37 35 35 35 36 39 34 34 33 36 34 34 35 35 31 41 44 43 43 51 56 57 57 58 58 58 61 63 62 61 65 66 68 71 73 74 74 78 76 72 72 70 62 63 58 59 58 56 57 60 60 60 58 63 61 66 66 63 -209 -209 -209 -209 32 25 33 39 40 42 44 47 48 47 48 50 47 48 48 48 46 45 46 46 46 49 48 47 47 46 46 47 46 47 45 46 50 52 53 53 54 61 67 66 59 60 65 -225 -225 -225 -225 -225 -225 -225 -225 -225 -225 -225 -225 -225 -225 -225 0 0 0 0 0
    0 0 0 0 0 0 0 0 0 0 0 0 0 0 0 0 0 0 0 0 0 0 0 0 0 0 0 0 0 0 0 0 0 0 0 0 0 0 0 0 0 0 0 0 0 0 0 0 0 0 0 0 0 0 0 0 0 0 0 0 0 0 0 0 0 0 0 0 0 25 26 27 28 30 32 30 33 33 31 32 32 31 31 33 34 30 30 30 31 30 30 31 31 29 31 35 32 30 31 31 32 29 29 30 27 27 28 26 25 25 26 26 25 25 25 24 28 29 27 26 30 28 33 34 36 32 33 33 33 33 36 34 31 31 33 33 33 29 28 27 23 24 25 -193 -209 -177 26 26 26 29 30 25 24 27 -193 48 48 45 43 -193 -209 28 40 -193 -209 -209 -209 -209 -209 -209 -209 16 15 15 16 22 -209 -209 40 42 34 34 34 34 34 33 30 31 26 32 35 34 34 36 36 36 34 34 33 35 39 34 34 33 36 34 35 35 36 32 42 51 49 50 54 58 59 60 60 59 59 63 64 63 62 66 65 68 71 73 74 73 76 75 71 72 71 64 65 61 63 62 65 64 65 65 66 63 67 64 67 66 63 -209 -209 -209 -209 32 27 32 37 39 42 43 46 48 49 52 53 51 52 52 52 52 50 49 47 46 50 49 47 47 46 47 48 47 47 46 46 51 52 54 53 55 61 65 67 60 61 64 62 -225 -225 -225 -225 -225 -225 -225 -225 -225 -225 -225 -225 -225 -225 0 0 0 0 0
    0 0 0 0 0 0 0 0 0 0 0 0 0 0 0 0 0 0 0 0 0 0 0 0 0 0 0 0 0 0 0 0 0 0 0 0 0 0 0 0 0 0 0 0 0 0 0 0 0 0 0 0 0 0 0 0 0 0 0 0 0 0 0 0 0 0 0 0 0 24 26 26 28 30 31 29 32 32 31 32 32 31 30 33 34 31 31 30 32 31 30 31 32 29 31 36 32 31 32 32 33 29 30 32 27 27 29 27 26 26 27 27 26 26 26 25 27 29 27 26 28 26 29 32 35 31 32 32 33 34 35 33 31 31 33 33 33 30 27 26 23 24 25 24 24 -193 26 26 26 29 30 26 26 30 -193 48 48 -193 43 -193 -209 32 -193 42 -193 -209 -209 -209 -209 -209 -209 -209 -193 12 14 22 -209 -209 36 40 33 32 33 33 33 32 29 31 26 34 37 36 34 36 36 36 33 33 30 34 39 34 34 34 36 35 36 37 37 36 44 55 54 55 55 59 61 61 62 61 60 65 66 65 64 66 65 67 70 72 73 72 76 72 70 72 72 65 66 63 66 64 69 68 67 67 67 66 67 64 65 66 64 63 -193 -209 -209 -193 29 31 32 37 41 43 45 48 52 55 55 55 56 55 55 55 54 54 51 50 52 49 48 49 47 48 47 47 48 46 48 51 51 53 54 54 61 64 65 59 60 63 60 -225 -225 -225 -225 -225 -225 -225 -225 -225 -225 -225 -225 -225 -225 0 0 0 0 0
    0 0 0 0 0 0 0 0 0 0 0 0 0 0 0 0 0 0 0 0 0 0 0 0 0 0 0 0 0 0 0 0 0 0 0 0 0 0 0 0 0 0 0 0 0 0 0 0 0 0 0 0 0 0 0 0 0 0 0 0 0 0 0 0 0 0 0 0 0 24 25 26 28 29 30 28 30 30 29 31 32 30 30 32 35 31 30 31 33 30 30 31 33 29 31 37 33 31 33 33 33 29 30 32 27 27 29 28 27 27 28 27 26 27 27 26 27 28 27 26 27 25 27 32 36 31 32 33 33 36 35 33 31 31 33 33 33 30 28 26 23 24 24 24 24 -193 25 26 25 30 32 28 31 38 -193 46 48 45 43 -193 -209 36 42 46 49 -209 -209 -209 -209 -209 -209 -209 -193 11 13 21 23 -209 30 39 31 31 32 32 32 31 29 31 26 34 38 36 34 37 37 39 37 36 32 36 39 37 36 36 37 36 37 39 39 40 47 56 55 57 57 61 63 64 64 63 63 67 68 67 64 64 63 67 70 72 73 72 75 72 70 73 74 68 68 66 69 67 71 70 68 68 68 67 67 63 64 65 64 63 57 -209 -209 -193 27 28 29 36 41 44 48 51 53 57 57 56 57 57 57 56 55 55 53 53 54 52 50 51 50 51 51 49 48 47 48 51 50 51 47 -209 -193 57 61 57 59 62 -225 -225 -225 -225 -225 -225 -225 -225 -225 -225 -225 -225 -225 -225 -225 0 0 0 0 0
    0 0 0 0 0 0 0 0 0 0 0 0 0 0 0 0 0 0 0 0 0 0 0 0 0 0 0 0 0 0 0 0 0 0 0 0 0 0 0 0 0 0 0 0 0 0 0 0 0 0 0 0 0 0 0 0 0 0 0 0 0 0 0 0 0 0 0 0 0 24 25 25 27 28 29 28 29 29 29 31 31 29 30 31 34 31 30 30 33 29 29 30 34 29 31 37 32 31 33 33 33 30 31 32 26 27 30 29 28 28 28 28 27 28 27 26 27 27 26 26 25 25 26 32 35 30 31 33 33 36 35 32 31 32 33 33 34 30 28 27 23 25 24 24 24 22 25 26 26 30 34 32 36 40 42 43 -193 -209 -193 45 -209 -209 44 51 52 53 53 54 55 57 -209 -209 -209 11 13 21 23 -209 29 39 30 30 32 32 32 31 29 30 25 32 36 31 30 34 37 40 38 39 37 38 40 38 38 38 39 38 39 40 41 43 49 57 56 57 57 62 62 65 66 64 64 68 68 68 65 66 65 66 71 73 74 72 74 75 72 76 81 75 84 72 73 71 70 69 68 68 68 66 66 61 63 64 63 60 56 55 47 44 38 33 32 37 41 44 49 51 53 57 58 57 58 58 58 58 57 57 55 55 56 54 52 53 52 53 53 52 50 47 49 51 51 53 53 53 58 58 60 58 60 62 60 -225 -225 -225 -225 -225 -225 -225 -225 -225 -225 -225 -225 -225 -225 0 0 0 0 0
    0 0 0 0 0 0 0 0 0 0 0 0 0 0 0 0 0 0 0 0 0 0 0 0 0 0 0 0 0 0 0 0 0 0 0 0 0 0 0 0 0 0 0 0 0 0 0 0 0 0 0 0 0 0 0 0 0 0 0 0 0 0 0 0 0 0 0 0 0 24 25 25 26 27 27 27 28 28 28 31 31 29 30 30 33 31 29 30 32 29 28 30 34 29 31 37 32 31 34 34 33 30 31 32 26 28 30 30 29 29 28 28 27 28 27 25 25 24 24 24 23 23 -193 28 33 29 32 32 33 36 34 31 31 32 33 33 34 31 28 27 24 25 24 24 24 22 25 25 26 31 35 34 36 39 39 -209 -209 -209 -209 -209 -209 -209 -209 -193 52 54 54 55 56 59 -193 -209 -209 11 13 20 22 -209 28 38 30 29 31 31 31 30 28 30 26 31 35 28 28 -209 37 41 38 39 -193 -193 45 40 40 40 40 40 40 43 44 46 52 57 57 58 58 63 63 66 67 65 65 67 68 68 66 67 66 66 72 73 73 71 70 -193 69 73 -193 60 73 74 72 70 69 68 68 67 67 64 63 59 59 60 59 57 55 54 51 51 51 42 40 40 45 49 54 55 55 58 59 58 58 59 59 59 58 58 57 57 58 56 54 54 53 54 54 53 51 47 48 50 50 51 52 55 58 58 60 59 61 63 62 61 -225 -225 -225 -225 -225 -225 -225 -225 -225 -225 -225 -225 -225 0 0 0 0 0
    0 0 0 0 0 0 0 0 0 0 0 0 0 0 0 0 0 0 0 0 0 0 0 0 0 0 0 0 0 0 0 0 0 0 0 0 0 0 0 0 0 0 0 0 0 0 0 0 0 0 0 0 0 0 0 0 0 0 0 0 0 0 0 0 0 0 0 0 0 24 25 25 26 27 27 27 27 28 28 31 31 30 30 30 33 30 29 29 31 28 27 29 34 29 32 37 32 32 34 34 33 30 32 32 26 29 32 33 30 29 28 27 27 27 25 24 24 23 23 23 23 23 -193 25 30 29 31 32 34 35 33 30 31 32 33 33 34 31 29 28 25 25 24 24 24 21 24 24 25 30 35 34 35 37 35 -209 -209 -193 -193 -209 -209 28 -209 -209 47 -193 52 54 56 59 -193 -209 -209 13 14 20 22 -193 28 38 29 28 31 31 30 29 28 29 26 30 34 27 28 -209 -209 47 -209 -193 -193 40 49 42 41 41 41 41 42 45 46 49 54 58 59 60 60 64 64 64 66 65 64 66 67 67 64 66 66 65 67 71 71 67 54 50 47 42 43 46 44 50 58 61 62 63 65 66 66 63 62 59 59 60 -193 -193 56 55 54 53 -193 45 43 46 52 54 58 57 56 60 61 59 60 60 59 59 58 59 57 57 58 56 55 55 54 55 55 54 52 49 49 49 48 48 52 57 59 59 61 60 62 64 63 62 -225 -225 -225 -225 -225 -225 -225 -225 -225 -225 -225 -225 -225 0 0 0 0 0
    0 0 0 0 0 0 0 0 0 0 0 0 0 0 0 0 0 0 0 0 0 0 0 0 0 0 0 0 0 0 0 0 0 0 0 0 0 0 0 0 0 0 0 0 0 0 0 0 0 0 0 0 0 0 0 0 0 0 0 0 0 0 0 0 0 0 0 0 0 26 26 25 26 26 26 27 27 28 28 31 31 30 30 30 33 30 29 29 30 28 27 29 34 29 32 37 32 32 35 35 33 30 31 33 26 29 33 36 33 32 29 28 27 27 26 24 23 22 22 23 23 22 23 24 27 27 29 29 33 34 32 30 31 32 33 33 34 31 29 29 26 26 24 24 24 20 22 24 23 29 33 32 33 34 31 -193 -209 -193 -209 -209 25 24 -209 -209 44 48 49 51 55 57 60 -209 16 14 15 20 -209 110 29 38 29 29 32 31 31 30 28 29 26 30 34 27 28 -209 -209 53 -209 49 58 -193 54 49 42 42 42 42 43 49 49 52 55 59 60 61 61 66 65 65 66 64 63 65 65 66 61 61 61 61 63 66 63 60 45 44 40 38 38 39 37 -209 35 -209 -209 59 63 66 66 64 63 59 60 61 60 -193 58 59 58 58 60 59 -193 54 58 56 59 59 59 63 64 61 61 61 60 59 59 59 57 57 59 57 55 56 56 57 57 56 54 52 52 50 50 51 54 59 60 59 60 60 63 65 65 64 -225 -225 -225 -225 -225 -225 -225 -225 -225 -225 -225 -225 -225 0 0 0 0 0
    0 0 0 0 0 0 0 0 0 0 0 0 0 0 0 0 0 0 0 0 0 0 0 0 0 0 0 0 0 0 0 0 0 0 0 0 0 0 0 0 0 0 0 0 0 0 0 0 0 0 0 0 0 0 0 0 0 0 0 0 0 0 0 0 0 0 0 0 0 28 26 26 26 27 26 27 27 28 28 31 31 30 29 29 32 30 29 28 29 28 27 28 33 29 31 37 31 31 33 34 32 29 31 32 26 29 35 37 35 35 31 29 27 27 26 24 22 21 22 22 23 23 24 25 26 27 28 27 33 33 31 30 31 33 33 33 35 30 30 30 27 26 25 24 24 17 20 22 17 28 31 31 32 32 -193 -193 -209 -193 -193 -193 23 22 -193 -209 44 51 52 52 56 57 61 -209 -209 13 14 21 -209 -193 32 38 31 30 33 32 32 30 28 30 26 31 35 27 29 -209 -209 -193 -209 54 60 59 55 54 44 43 44 44 46 52 52 54 55 59 61 63 63 67 65 65 67 65 63 64 62 64 60 60 61 60 61 64 64 62 46 44 40 38 38 38 36 26 -193 -209 -209 59 62 66 68 67 65 60 60 61 62 -193 59 60 59 58 61 61 60 59 65 63 64 62 62 65 65 63 63 63 62 61 60 60 58 58 59 58 56 57 57 58 58 58 57 55 56 55 56 57 57 61 61 60 60 60 61 63 64 64 -225 -225 -225 -225 -225 -225 -225 -225 -225 -225 -225 -225 -225 0 0 0 0 0
    0 0 0 0 0 0 0 0 0 0 0 0 0 0 0 0 0 0 0 0 0 0 0 0 0 0 0 0 0 0 0 0 0 0 0 0 0 0 0 0 0 0 0 0 0 0 0 0 0 0 0 0 0 0 0 0 0 0 0 0 0 0 0 0 0 0 0 0 0 28 26 26 26 27 26 28 28 28 29 32 31 31 30 30 31 30 29 28 28 0 -256 -1 -9465 27 29 36 30 30 31 31 30 28 30 31 26 29 35 37 35 36 32 29 27 26 25 23 22 21 22 22 22 22 23 24 25 25 26 26 30 32 30 30 31 32 32 33 34 30 30 32 28 26 25 24 24 16 19 20 -177 27 30 30 32 32 30 -193 -193 24 26 25 25 24 27 28 39 43 43 -193 -209 -209 -209 -209 -209 16 16 -193 457 -209 35 39 34 31 35 34 33 31 29 31 27 32 36 26 26 -209 -209 62 71 -209 63 63 57 56 47 45 45 46 48 53 53 55 56 59 61 64 64 67 65 65 67 64 63 62 61 62 60 60 60 59 60 62 62 61 45 42 38 38 38 39 36 -193 -193 59 -193 60 63 65 67 67 64 60 59 61 63 62 62 64 63 61 65 65 64 61 68 68 67 65 64 67 67 65 65 64 63 62 61 61 60 59 61 60 58 58 57 59 59 59 59 58 57 56 57 58 57 61 61 60 60 60 62 63 64 64 60 -225 -225 -225 -225 -225 -225 -225 -225 -225 -225 -225 -225 0 0 0 0 0
    0 0 0 0 0 0 0 0 0 0 0 0 0 0 0 0 0 0 0 0 0 0 0 0 0 0 0 0 0 0 0 0 0 0 0 0 0 0 0 0 0 0 0 0 0 0 0 0 0 0 0 0 0 0 0 0 0 0 0 0 0 0 0 0 0 0 0 0 0 30 27 27 27 27 27 29 29 28 29 32 32 32 30 30 31 30 29 28 27 28 28 28 29 27 27 33 28 29 29 28 28 27 29 30 26 29 34 38 36 36 32 28 27 26 25 24 22 21 22 22 23 23 25 25 25 25 26 28 31 31 30 30 31 33 33 33 34 31 31 33 28 26 25 25 25 16 18 20 11 27 30 31 33 34 30 27 27 26 27 28 28 26 27 29 33 35 32 32 30 -209 -209 25 -193 23 24 26 -209 -209 37 40 36 34 36 36 35 33 30 32 26 31 35 23 -193 -209 79 -193 74 69 68 69 59 58 50 46 48 49 51 54 54 55 55 59 60 62 63 67 64 63 68 65 62 62 61 63 60 60 61 60 60 63 63 61 45 41 38 39 38 38 37 -177 -209 62 61 61 63 64 66 65 62 61 58 61 65 -209 66 -193 71 70 71 71 69 68 71 70 69 67 66 67 68 66 66 65 64 63 62 63 61 61 63 61 59 59 59 60 60 60 59 58 58 56 57 58 58 61 61 60 60 61 61 63 64 65 61 -225 -225 -225 -225 -225 -225 -225 -225 -225 -225 -225 -225 0 0 0 0 0
    0 0 0 0 0 0 0 0 0 0 0 0 0 0 0 0 0 0 0 0 0 0 0 0 0 0 0 0 0 0 0 0 0 0 0 0 0 0 0 0 0 0 0 0 0 0 0 0 0 0 0 0 0 0 0 0 0 0 0 0 0 0 0 0 0 0 0 0 0 31 28 29 29 29 28 31 30 29 31 34 32 33 30 30 30 29 29 27 26 28 28 28 29 26 26 30 27 28 27 27 27 26 29 30 26 29 32 37 35 35 31 27 26 25 24 24 22 21 22 22 23 23 24 24 24 24 25 27 29 29 30 30 32 33 33 33 34 31 32 32 28 26 26 25 25 17 18 19 12 26 30 30 33 -193 29 26 28 26 27 28 27 26 27 28 30 30 29 30 28 29 -193 26 25 24 28 30 -209 -209 38 40 38 37 38 37 37 35 31 32 26 29 33 -177 -209 74 81 78 77 74 71 72 63 62 52 49 50 51 53 55 55 55 56 58 60 61 64 68 63 62 67 65 62 62 62 63 61 62 62 62 61 67 66 64 46 40 38 38 37 38 39 -209 -193 65 64 64 65 65 66 65 61 61 57 61 -209 -209 -193 -209 -209 -209 75 74 72 71 71 70 70 69 67 68 68 66 66 66 65 63 62 63 62 61 65 64 60 60 60 62 62 61 60 59 59 57 58 59 58 61 61 60 60 61 61 62 63 64 60 -225 -225 -225 -225 -225 -225 -225 -225 -225 -225 -225 -225 0 0 0 0 0
    0 0 0 0 0 0 0 0 0 0 0 0 0 0 0 0 0 0 0 0 0 0 0 0 0 0 0 0 0 0 0 0 0 0 0 0 0 0 0 0 0 0 0 0 0 0 0 0 0 0 0 0 0 0 0 0 0 0 0 0 0 0 0 0 0 0 0 0 0 33 30 31 31 30 30 33 32 31 33 34 32 33 30 30 29 29 28 27 26 29 29 29 29 26 26 28 27 27 26 26 26 26 28 29 26 29 32 36 35 35 30 27 26 25 24 24 23 22 22 22 23 23 25 25 24 25 26 27 29 29 30 29 32 32 33 33 34 31 31 32 28 26 25 25 25 17 18 19 12 26 29 29 33 -193 28 25 28 27 27 28 28 26 27 28 30 29 29 30 27 29 32 26 25 24 30 33 38 40 39 41 40 39 -193 -193 39 37 33 34 25 28 29 -177 -209 -193 80 82 83 81 76 78 -193 68 54 51 52 53 54 56 56 57 57 59 61 61 63 68 61 61 66 65 62 62 62 63 62 64 64 63 63 69 69 67 50 39 38 37 36 38 -193 -209 60 66 65 65 65 66 67 66 62 64 -209 -209 -209 -209 -193 -209 -209 -209 -193 73 70 70 71 70 70 69 68 68 69 68 67 67 67 66 63 65 65 62 68 67 62 60 60 62 62 60 61 59 59 58 59 59 59 62 61 60 60 61 61 61 62 62 59 -225 -225 -225 -225 -225 -225 -225 -225 -225 -225 -225 -225 0 0 0 0 0
    0 0 0 0 0 0 0 0 0 0 0 0 0 0 0 0 0 0 0 0 0 0 0 0 0 0 0 0 0 0 0 0 0 0 0 0 0 0 0 0 0 0 0 0 0 0 0 0 0 0 0 0 0 0 0 0 0 0 0 0 0 0 0 0 0 0 0 0 0 33 30 31 31 31 30 33 32 31 33 34 32 33 29 30 29 29 29 27 27 30 30 29 29 27 26 28 26 27 25 25 25 25 28 28 26 29 31 36 36 35 30 25 26 25 24 24 23 22 22 23 24 24 26 25 25 25 27 28 30 29 30 29 31 31 32 31 33 30 31 32 28 26 25 25 25 18 19 19 12 25 27 28 32 32 26 24 28 27 27 28 28 27 27 28 30 28 29 29 26 28 30 25 24 24 31 34 39 42 41 43 43 -193 -193 -209 -193 39 35 35 26 29 31 -177 -209 -209 75 78 82 79 76 79 72 67 66 60 58 58 57 57 59 59 59 59 60 59 63 67 62 60 64 66 62 62 63 63 62 64 64 64 63 70 70 69 -193 -193 38 37 37 39 49 59 60 65 64 65 65 66 67 67 64 66 -209 -209 -209 -209 -209 -193 -209 -209 -193 74 70 69 70 70 70 70 69 70 70 70 69 69 70 68 64 66 64 64 66 70 62 59 58 61 61 59 60 60 59 58 60 60 59 62 62 61 60 61 62 62 63 63 60 -225 -225 -225 -225 -225 -225 -225 -225 -225 -225 -225 -225 0 0 0 0 0
    0 0 0 0 0 0 0 0 0 0 0 0 0 0 0 0 0 0 0 0 0 0 0 0 0 0 0 0 0 0 0 0 0 0 0 0 0 0 0 0 0 0 0 0 0 0 0 0 0 0 0 0 0 0 0 0 0 0 0 0 0 0 0 0 0 0 0 0 0 33 31 32 33 32 31 34 33 33 34 34 32 33 29 30 30 29 28 27 27 31 30 29 29 27 26 28 26 27 25 24 25 25 27 28 27 28 30 34 34 31 28 24 25 24 25 25 24 23 23 24 25 24 27 26 25 25 27 28 30 29 30 29 31 31 32 31 33 30 31 31 27 26 26 25 25 19 19 19 12 23 24 25 30 -193 25 24 28 27 27 28 28 27 27 28 29 28 28 29 26 28 30 26 24 24 30 33 38 40 41 43 -193 -193 -193 -193 -193 45 40 39 -209 28 30 -209 -209 67 70 72 73 72 71 71 71 69 65 63 62 61 60 58 62 58 57 57 58 57 63 64 61 58 61 66 62 63 63 63 63 64 64 64 63 70 70 69 -193 -193 39 39 39 -193 57 60 60 66 65 66 65 66 67 67 66 67 -193 -209 -209 -209 -209 77 -193 -209 -193 75 71 70 70 71 71 71 71 71 72 72 71 71 72 71 68 68 64 63 63 72 62 59 58 61 60 58 61 62 60 59 60 59 59 61 62 61 60 61 61 61 62 63 61 -225 -225 -225 -225 -225 -225 -225 -225 -225 -225 -225 -225 0 0 0 0 0
    0 0 0 0 0 0 0 0 0 0 0 0 0 0 0 0 0 0 0 0 0 0 0 0 0 0 0 0 0 0 0 0 0 0 0 0 0 0 0 0 0 0 0 0 0 0 0 0 0 0 0 0 0 0 0 0 0 0 0 0 0 0 0 0 0 0 0 0 0 33 31 33 33 33 32 35 34 33 35 34 32 32 29 31 30 29 29 27 27 32 31 30 29 27 27 27 25 26 24 22 23 23 27 27 27 28 29 33 33 30 28 24 25 24 25 27 24 23 23 24 25 24 27 26 25 25 27 28 29 29 30 29 31 31 32 31 33 30 31 31 27 26 26 25 25 18 19 18 12 23 -193 26 30 -193 25 24 28 27 27 29 28 27 28 29 30 28 29 29 27 28 31 27 24 24 31 35 39 42 44 50 -193 55 -193 -209 -193 58 58 60 59 -209 -209 -209 -209 -209 66 68 69 69 69 69 70 67 66 63 62 62 61 60 61 57 56 56 56 56 63 63 62 61 65 67 63 64 65 63 64 64 64 64 63 72 71 70 62 -193 -193 -193 61 59 61 64 63 68 66 67 66 66 68 68 66 68 -193 -209 -209 -193 -209 79 -193 -209 -209 76 70 70 71 71 72 72 72 73 73 74 73 73 73 73 71 71 68 67 64 65 61 58 56 57 56 56 58 60 59 58 59 59 59 60 61 60 59 60 60 60 61 62 60 58 -225 -225 -225 -225 -225 -225 -225 -225 -225 -225 -225 0 0 0 0 0
    0 0 0 0 0 0 0 0 0 0 0 0 0 0 0 0 0 0 0 0 0 0 0 0 0 0 0 0 0 0 0 0 0 0 0 0 0 0 0 0 0 0 0 0 0 0 0 0 0 0 0 0 0 0 0 0 0 0 0 0 0 0 0 0 0 0 0 0 0 33 31 34 34 33 32 35 33 33 36 34 32 32 29 30 29 29 29 27 28 33 32 30 29 27 26 26 25 25 22 21 23 22 26 26 27 28 28 32 32 30 29 25 26 24 25 28 25 24 24 24 25 25 28 26 25 26 27 28 29 29 30 29 31 31 31 31 32 30 30 31 27 26 25 25 25 18 19 18 11 24 26 29 32 -209 24 24 30 28 28 29 29 28 28 29 30 28 29 30 27 29 31 27 24 26 34 38 -193 -193 48 54 -193 58 59 -193 60 60 61 63 60 -193 -193 -193 -193 67 65 67 68 69 71 72 71 70 70 67 65 62 59 57 57 55 51 52 52 55 63 63 62 62 66 68 65 66 66 65 66 66 66 65 63 73 73 73 68 64 67 70 69 66 66 68 66 69 67 67 66 67 67 67 66 67 62 -193 -193 -209 -209 80 -209 -209 -209 80 74 73 73 73 74 73 74 75 75 75 74 74 74 74 72 71 68 68 66 67 64 59 55 55 53 54 56 57 57 57 58 59 59 59 61 61 60 60 60 59 60 60 60 58 -225 -225 -225 -225 -225 -225 -225 -225 -225 -225 -225 0 0 0 0 0
    0 0 0 0 0 0 0 0 0 0 0 0 0 0 0 0 0 0 0 0 0 0 0 0 0 0 0 0 0 0 0 0 0 0 0 0 0 0 0 0 0 0 0 0 0 0 0 0 0 0 0 0 0 0 0 0 0 0 0 0 0 0 0 0 0 0 0 0 0 32 32 35 34 33 33 34 33 32 36 34 32 32 29 30 30 30 29 27 27 32 32 30 29 27 26 26 25 25 23 21 22 21 26 25 27 27 27 30 30 28 27 25 26 25 26 30 26 24 24 25 26 25 29 27 26 26 28 29 29 29 30 28 31 31 31 30 31 30 30 30 26 25 25 25 25 19 19 18 10 -193 -209 -209 -193 -209 -193 24 32 29 29 30 29 28 29 30 31 28 29 30 27 28 32 27 25 26 35 39 -193 -209 51 -209 59 60 61 62 62 63 64 65 61 62 -193 -209 62 63 62 64 68 68 70 70 70 70 69 67 66 62 58 57 57 54 49 51 52 55 61 63 63 64 65 68 64 66 67 64 66 66 66 65 61 73 72 -193 67 61 65 68 69 67 67 69 67 69 67 68 66 67 67 67 65 66 62 67 62 -193 -209 -209 -209 -209 -209 80 75 76 75 76 76 76 76 77 77 76 76 75 75 75 72 71 69 68 67 67 66 60 56 55 54 53 54 56 55 55 56 57 59 59 60 61 61 61 60 60 60 60 61 60 60 -225 -225 -225 -225 -225 -225 -225 181 193 202 0 0 0 0 0
    0 0 0 0 0 0 0 0 0 0 0 0 0 0 0 0 0 0 0 0 0 0 0 0 0 0 0 0 0 0 0 0 0 0 0 0 0 0 0 0 0 0 0 0 0 0 0 0 0 0 0 0 0 0 0 0 0 0 0 0 0 0 0 0 0 0 0 0 0 33 32 35 35 32 33 33 31 31 36 34 31 31 28 30 30 31 29 27 28 33 32 30 29 28 26 26 25 26 23 22 24 22 27 28 30 28 26 28 28 27 26 25 26 26 27 33 28 25 25 25 28 26 29 27 26 26 28 30 29 29 30 29 31 31 31 30 32 30 29 29 26 25 25 25 25 20 20 -193 -193 -193 -209 -209 -209 -225 -193 23 32 28 28 30 29 28 29 29 30 28 29 30 27 28 -225 -193 -193 25 36 -193 -209 -193 -209 -209 61 63 64 64 64 65 65 65 61 62 61 -193 61 62 60 66 66 67 68 68 69 69 67 66 63 61 59 57 57 56 51 53 55 56 61 62 63 64 65 68 66 67 67 66 67 68 68 68 62 74 76 75 73 70 70 69 68 68 67 69 67 69 66 68 66 67 67 67 65 66 62 67 61 -209 -209 -209 -209 -209 -209 -209 77 77 77 78 79 78 77 78 78 78 77 77 76 75 73 72 70 70 67 67 64 60 56 55 54 53 54 55 54 55 55 57 60 59 61 61 62 61 61 62 62 61 63 64 65 -225 -225 -225 -225 -225 143 -177 183 196 202 0 0 0 0 0
    0 0 0 0 0 0 0 0 0 0 0 0 0 0 0 0 0 0 0 0 0 0 0 0 0 0 0 0 0 0 0 0 0 0 0 0 0 0 0 0 0 0 0 0 0 0 0 0 0 0 0 0 0 0 0 0 0 0 0 0 0 0 0 0 0 0 0 0 0 34 33 36 36 33 33 32 30 32 36 33 29 29 27 28 28 30 29 27 28 33 32 30 29 28 26 26 25 26 23 23 25 25 28 29 31 28 26 27 27 27 26 25 27 26 28 34 29 27 25 26 27 24 28 26 25 25 27 28 28 29 29 28 30 30 31 29 31 29 28 29 27 25 25 25 26 20 21 19 -225 -225 -225 -225 -225 -225 -225 -225 32 27 28 29 29 28 29 29 31 28 30 30 -225 -225 -225 -225 22 24 38 -209 -193 -193 -209 -209 -193 63 65 64 64 64 63 63 60 61 61 60 61 62 61 64 64 66 68 68 68 69 67 64 64 62 59 59 58 57 53 55 57 58 61 62 62 63 64 68 65 66 67 66 68 69 69 70 65 76 82 79 81 82 73 70 68 68 67 68 67 69 67 68 66 68 67 67 66 66 63 66 60 -193 43 46 -193 -193 -209 -209 -209 76 75 78 78 78 77 78 78 79 78 78 78 78 75 74 72 72 68 66 62 59 56 56 55 55 56 56 56 56 57 58 60 58 60 61 63 64 64 65 65 65 67 69 71 -193 -225 -225 -177 -177 -177 -209 184 196 203 0 0 0 0 0
    0 0 0 0 0 0 0 0 0 0 0 0 0 0 0 0 0 0 0 0 0 0 0 0 0 0 0 0 0 0 0 0 0 0 0 0 0 0 0 0 0 0 0 0 0 0 0 0 0 0 0 0 0 0 0 0 0 0 0 0 0 0 0 0 0 0 0 0 0 41 39 39 36 35 31 29 29 30 33 31 28 29 27 29 29 33 29 29 28 32 31 29 28 29 27 27 26 27 24 22 26 -225 -225 -225 -225 -225 -225 -225 -225 -225 -225 -225 -225 -225 -225 -225 -225 -225 -225 -225 26 26 37 30 30 29 31 30 31 31 30 28 30 29 30 28 31 28 28 31 27 25 26 26 27 21 22 -225 -225 -225 -225 -225 -225 -225 -225 -225 -225 28 29 30 29 29 29 29 31 28 -225 -225 -225 -225 -225 -225 -225 23 -193 -177 871 877 -209 72 63 63 65 63 63 64 61 61 59 61 61 59 61 62 61 63 63 66 66 67 67 68 66 64 64 64 60 60 59 58 55 57 59 58 61 61 62 62 63 66 65 65 66 65 68 69 69 -193 -209 -193 -209 84 86 87 77 70 68 67 66 66 66 68 66 68 66 67 67 67 67 66 64 66 60 68 44 50 -193 -193 -209 -209 -209 74 73 77 78 77 78 79 79 79 79 79 79 79 76 75 72 72 69 65 61 58 57 56 56 56 57 57 57 58 58 59 61 59 60 62 65 67 68 68 67 67 69 70 73 -209 -209 -209 -209 -193 -193 170 184 197 204 0 0 0 0 0
    0 0 0 0 0 0 0 0 0 0 0 0 0 0 0 0 0 0 0 0 0 0 0 0 0 0 0 0 0 0 0 0 0 0 0 0 0 0 0 0 0 0 0 0 0 0 0 0 0 0 0 0 0 0 0 0 0 0 0 0 0 0 0 0 0 0 0 0 0 -225 -225 -225 -225 -225 -225 -225 -225 -225 -225 -225 -225 -225 -225 -225 -225 -225 -225 -225 -225 -225 -225 28 28 29 27 27 -225 -225 -225 -225 -225 -225 -225 -225 -225 -225 -225 -225 -225 -225 -225 -225 -225 -225 -225 -225 -225 -225 -225 -225 -225 -225 -225 34 34 31 32 31 32 30 29 27 29 28 28 27 29 26 28 31 28 26 27 27 28 24 -225 -225 -225 -225 -225 -225 -225 -225 -225 -225 -225 -225 -225 -225 -225 -225 -225 -225 -225 -225 -225 -225 -225 -225 -225 -225 -225 -225 870 -193 -177 -193 -193 74 66 63 65 63 62 63 60 61 59 61 61 59 61 63 61 63 63 65 66 67 66 67 64 63 64 63 61 60 60 60 58 59 61 60 61 62 62 62 63 65 64 63 64 63 69 70 -209 -193 -209 -209 -193 86 87 86 82 72 68 67 64 63 64 67 64 68 65 67 66 67 66 66 64 66 60 67 -193 -209 -209 108 -209 -209 -209 79 75 78 78 77 78 79 79 79 79 79 78 79 76 74 71 71 68 63 60 59 57 56 57 57 57 57 58 58 59 60 63 61 64 -193 67 -193 -193 -193 69 69 -209 -209 -209 -209 -209 -209 -209 -209 -209 180 186 198 204 0 0 0 0 0
    0 0 0 0 0 0 0 0 0 0 0 0 0 0 0 0 0 0 0 0 0 0 0 0 0 0 0 0 0 0 0 0 0 0 0 0 0 0 0 0 0 0 0 0 0 0 0 0 0 0 0 0 0 0 0 0 0 0 0 0 0 0 0 0 0 0 0 0 0 -225 -225 -225 -225 -225 -225 -225 -225 -225 -225 -225 -225 -225 -225 -225 -225 -225 -225 -225 -225 -225 -225 -225 -225 -225 -225 -225 -225 -225 -225 -225 -225 -225 -225 -225 -225 -225 -225 -225 -225 -225 -225 -225 -225 -225 -225 -225 -225 -225 -225 -225 -225 -225 -225 -225 -225 -225 -225 -225 -193 -193 30 30 30 31 -225 -225 -225 -225 -225 -225 -225 -225 -225 -225 -225 -225 -225 -225 -225 -225 -225 -225 -225 -225 -225 -225 -225 -225 -225 -225 -225 -225 -225 -225 -225 -225 -225 -225 -225 -225 -225 -225 -225 -225 -225 -225 -225 -225 78 76 69 65 67 64 63 64 61 61 60 62 62 60 61 64 61 63 63 64 65 66 65 66 63 62 63 62 60 59 60 60 58 60 62 62 62 62 63 62 62 64 63 62 61 59 71 -193 -209 -193 -209 -193 -193 -193 88 -193 81 73 69 69 66 68 68 70 65 68 64 66 65 66 65 65 63 65 60 65 58 -209 -209 108 -209 -209 -209 82 77 78 77 77 78 78 78 78 78 78 78 78 74 72 71 70 68 65 62 61 59 58 58 58 58 58 58 59 59 60 62 -177 -177 -177 -177 -177 -177 -177 -209 -209 -209 -209 -209 -209 -209 -209 -209 -209 -209 -209 187 198 203 0 0 0 0 0
    0 0 0 0 0 0 0 0 0 0 0 0 0 0 0 0 0 0 0 0 0 0 0 0 0 0 0 0 0 0 0 0 0 0 0 0 0 0 0 0 0 0 0 0 0 0 0 0 0 0 0 0 0 0 0 0 0 0 0 0 0 0 0 0 0 0 0 0 0 -225 -225 -225 -225 -225 -225 -225 -225 -225 -225 -225 -225 -225 -225 -225 -225 -225 -225 -225 -225 -225 -225 -225 -225 -225 -225 -225 -225 -225 -225 -225 -225 -225 -225 -225 -225 -225 -225 -225 -225 -225 -225 -225 -225 -225 -225 -225 -225 -225 -225 -225 -225 -225 -225 -225 -225 -225 -225 -225 -225 -225 -225 -225 -225 -225 -225 -225 -225 -225 -225 -225 -225 -225 -225 -225 -225 -225 -225 -225 -225 -225 -225 -225 -225 -225 -225 -225 -225 -225 -225 -225 -225 -225 -225 -225 -225 -225 -225 -225 -225 -225 -225 -225 -225 -225 -225 -225 -225 -225 78 75 68 65 67 64 63 63 60 61 59 61 61 59 61 63 61 63 63 63 65 66 65 66 62 62 63 62 60 60 60 61 59 61 62 63 62 63 63 62 62 64 63 62 59 56 -193 92 94 96 93 -193 94 -193 -209 -209 77 71 69 70 68 71 70 71 64 68 63 66 64 64 64 64 63 64 59 64 58 -209 -209 107 -209 -209 -209 82 76 76 76 76 77 77 77 77 76 76 75 75 72 70 70 69 68 66 64 64 62 61 61 60 59 59 60 60 59 60 65 -177 -177 -177 -177 -177 -177 -177 -209 -209 -209 -209 -209 -209 -209 -209 -209 -209 -209 -209 189 198 203 0 0 0 0 0
    0 0 0 0 0 0 0 0 0 0 0 0 0 0 0 0 0 0 0 0 0 0 0 0 0 0 0 0 0 0 0 0 0 0 0 0 0 0 0 0 0 0 0 0 0 0 0 0 0 0 0 0 0 0 0 0 0 0 0 0 0 0 0 0 0 0 0 0 0 -225 -225 -225 -225 -225 -225 -225 -225 -225 -225 -225 -225 -225 -225 -225 -225 -225 -225 -225 -225 -225 -225 -225 -225 -225 -225 -225 -225 -225 -225 -225 -225 -225 -225 -225 -225 -225 -225 -225 -225 -225 -225 -225 -225 -225 -225 -225 -225 -225 -225 -225 -225 -225 -225 -225 -225 -225 -225 -225 -225 -225 -225 -225 -225 -225 -225 -225 -225 -225 -225 -225 -225 -225 -225 -225 -225 -225 -225 -225 -225 -225 -225 -225 -225 -225 -225 -225 -225 -225 -225 -225 -225 -225 -225 -225 -225 -225 -225 -225 -225 -225 -225 -225 -225 -225 -225 -225 -225 -225 77 75 69 64 67 64 62 62 60 60 59 61 61 59 60 63 61 63 63 64 64 66 65 66 62 62 63 62 60 60 60 61 59 61 62 64 62 63 64 63 62 64 64 62 58 -177 83 93 95 96 93 93 -209 90 -193 -193 78 72 70 72 70 -209 -193 -209 60 67 61 64 63 63 63 63 63 64 60 64 59 59 -193 -209 -209 -209 77 82 72 74 75 75 75 75 75 74 74 74 73 72 70 69 69 68 67 66 64 65 63 62 62 60 60 59 60 60 60 62 68 -193 -209 -209 -177 -209 -209 -209 -209 -209 -209 -209 210 -209 200 201 202 203 -193 -193 197 198 203 0 0 0 0 0
    0 0 0 0 0 0 0 0 0 0 0 0 0 0 0 0 0 0 0 0 0 0 0 0 0 0 0 0 0 0 0 0 0 0 0 0 0 0 0 0 0 0 0 0 0 0 0 0 0 0 0 0 0 0 0 0 0 0 0 0 0 0 0 0 0 0 0 0 0 52 -225 -225 -225 -225 -225 -225 -225 -225 -225 -225 -225 -225 -225 -225 -225 -225 -225 -225 -225 -225 -225 -225 -225 -225 -225 -225 -225 -225 -225 -225 -225 -225 -225 -225 -225 -225 -225 -225 -225 -225 -225 -225 -225 -225 -225 -225 -225 -225 -225 -225 -225 -225 -225 -225 -225 -225 -225 -225 -225 -225 -225 -225 -225 -225 -225 -225 -225 -225 -225 -225 -225 -225 -225 -225 -225 -225 -225 -225 -225 -225 -225 -225 -225 -225 -225 -225 -225 -225 -225 -225 -225 -225 -225 -225 -225 -225 -225 -225 -225 -225 -225 -225 -225 -225 -225 -225 -225 -225 75 73 68 62 66 62 61 62 59 59 59 61 61 59 60 62 61 63 63 64 63 65 65 66 62 62 62 62 60 60 60 61 60 62 63 64 62 64 64 63 62 64 64 62 58 73 89 94 94 94 92 91 -209 -193 -193 -193 78 -193 71 73 -209 -209 -193 81 -209 68 61 64 62 63 63 63 62 64 60 64 59 60 61 -209 -209 -209 77 80 71 72 73 73 72 72 73 73 72 73 72 71 70 69 69 68 67 66 64 65 64 63 63 61 60 61 62 63 62 65 70 84 -177 -209 -209 -209 -209 -209 -209 -209 -209 203 206 -209 199 199 200 202 203 203 200 199 203 0 0 0 0 0
    0 0 0 0 0 0 0 0 0 0 0 0 0 0 0 0 0 0 0 0 0 0 0 0 0 0 0 0 0 0 0 0 0 0 0 0 0 0 0 0 0 0 0 0 0 0 0 0 0 0 0 0 0 0 0 0 0 0 0 0 0 0 0 0 0 0 0 0 0 56 57 -225 -225 -225 -225 -225 -225 -225 -225 -225 -225 -225 -225 -225 -225 -225 -225 -225 -225 -225 -225 -225 -225 -225 -225 -225 -225 -225 -225 -225 -225 -225 -225 -225 -225 -225 -225 -225 -225 -225 -225 -225 -225 -225 -225 -225 -225 -225 -225 -225 -225 -225 -225 -225 -225 -225 -225 -225 -225 -225 -225 -225 -225 -225 -225 -225 -225 -225 -225 -225 -225 -225 -225 -225 -225 -225 -225 -225 -225 -225 -225 -225 -225 -225 -225 -225 -225 -225 -225 -225 -225 -225 -225 -225 -225 -225 -225 -225 -225 -225 -225 -225 -225 -225 -225 -225 -225 79 74 72 69 61 65 60 59 61 58 59 59 60 61 59 60 62 61 63 63 64 63 65 65 65 62 62 63 62 61 61 61 62 61 62 64 65 63 64 64 63 62 63 64 63 57 73 89 94 94 95 93 93 -209 -209 -209 -209 -209 71 69 -209 -209 -209 -193 82 -209 68 61 -193 62 63 63 63 63 65 60 67 -193 -209 -209 -209 -209 -209 75 76 69 70 71 71 71 72 72 72 71 73 72 71 70 69 69 68 66 65 64 65 64 64 64 62 62 62 65 67 68 70 -209 -209 -209 -209 -209 -209 -209 -209 -209 189 198 202 -193 197 197 198 199 202 204 205 200 199 203 0 0 0 0 0
    0 0 0 0 0 0 0 0 0 0 0 0 0 0 0 0 0 0 0 0 0 0 0 0 0 0 0 0 0 0 0 0 0 0 0 0 0 0 0 0 0 0 0 0 0 0 0 0 0 0 0 0 0 0 0 0 0 0 0 0 0 0 0 0 0 0 0 0 0 57 58 61 -225 -225 -225 -225 -225 -225 -225 -225 -225 -225 -225 -225 -225 -225 -225 -225 -225 -225 -225 -225 -225 -225 -225 -225 -225 -225 -225 -225 -225 -225 -225 -225 -225 -225 -225 -225 -225 -225 -225 -225 -225 -225 -225 -225 -225 -225 -225 -225 -225 -225 -225 -225 -225 -225 -225 -225 -225 -225 -225 -225 -225 -225 -225 -225 -225 -225 -225 -225 -225 -225 -225 -225 -225 -225 -225 -225 -225 -225 -225 -225 -225 -225 -225 -225 -225 -225 -225 -225 -225 -225 -225 -225 -225 -225 -225 -225 -225 -225 -225 -225 -225 -225 -225 -225 72 76 73 71 69 60 63 58 58 59 57 58 58 60 60 59 61 63 61 62 63 64 64 65 65 64 62 62 63 63 61 61 61 62 62 62 64 65 63 65 65 64 62 63 65 63 58 74 89 93 93 96 95 96 -193 -193 -209 -209 -209 -209 70 -209 -209 -209 -193 82 -209 68 -193 -193 62 63 64 65 64 66 62 69 65 69 69 -209 -193 -193 72 72 68 68 69 70 71 71 72 72 71 72 71 71 70 68 68 68 66 66 -177 -193 65 66 67 65 64 65 68 -193 -193 -177 -193 277 291 301 -209 -209 -209 -209 -209 186 195 -193 -193 194 192 195 198 202 204 206 -209 196 201 0 0 0 0 0
    0 0 0 0 0 0 0 0 0 0 0 0 0 0 0 0 0 0 0 0 0 0 0 0 0 0 0 0 0 0 0 0 0 0 0 0 0 0 0 0 0 0 0 0 0 0 0 0 0 0 0 0 0 0 0 0 0 0 0 0 0 0 0 0 0 0 0 0 0 58 59 63 -225 -225 -225 -225 -225 -225 -225 -225 -225 -225 -225 -225 -225 -225 -225 -225 -225 -225 -225 -225 -225 -225 -225 -225 -225 -225 -225 -225 -225 -225 -225 -225 -225 -225 -225 -225 -225 -225 -225 -225 -225 -225 -225 -225 -225 -225 -225 -225 -225 -225 -225 -225 -225 -225 -225 -225 -225 -225 -225 -225 -225 -225 -225 -225 -225 -225 -225 -225 -225 -225 -225 -225 -225 -225 -225 -225 -225 -225 -225 -225 -225 -225 -225 -225 -225 -225 -225 -225 -225 -225 -225 -225 -225 -225 -225 -225 -225 -225 -225 -225 -225 -225 -225 -225 71 73 71 69 68 62 64 59 59 60 58 58 59 60 60 59 61 62 61 62 63 63 63 65 65 63 61 62 63 62 61 61 61 62 62 63 64 65 63 65 65 64 62 64 65 64 58 73 89 92 92 97 96 98 -193 94 -209 -209 -209 -209 -193 -209 -209 -209 -193 -209 -209 68 -193 -193 62 63 65 65 65 67 63 70 67 70 -193 -209 -209 -209 -209 -209 69 69 70 71 71 72 72 71 70 72 71 70 69 68 68 67 66 67 66 67 -209 -193 -193 -193 -193 -209 236 243 248 249 257 268 -209 -209 -209 -209 -209 -209 -209 -209 189 198 198 -193 184 187 191 199 202 -193 185 188 197 0 0 0 0 0
    0 0 0 0 0 0 0 0 0 0 0 0 0 0 0 0 0 0 0 0 0 0 0 0 0 0 0 0 0 0 0 0 0 0 0 0 0 0 0 0 0 0 0 0 0 0 0 0 0 0 0 0 0 0 0 0 0 0 0 0 0 0 0 0 0 0 0 0 0 59 60 63 -225 -225 -225 -225 -225 -225 -225 -225 -225 -225 -225 -225 -225 -225 -225 -225 -225 -225 -225 -225 -225 -225 -225 -225 -225 -225 -225 -225 -225 -225 -225 -225 -225 -225 -225 -225 -225 -225 -225 -225 -225 -225 -225 -225 -225 -225 -225 -225 -225 -225 -225 -225 -225 -225 -225 -225 -225 -225 -225 -225 -225 -225 -225 -225 -225 -225 -225 -225 -225 -225 -225 -225 -225 -225 -225 -225 -225 -225 -225 -225 -225 -225 -225 -225 -225 -225 -225 -225 -225 -225 -225 -225 -225 -225 -225 -225 -225 -225 -225 -225 -225 -225 -225 -225 70 70 69 67 67 63 64 59 60 60 58 58 59 60 60 59 60 62 60 61 62 62 63 63 64 62 61 61 62 62 61 60 61 62 62 63 64 66 64 65 66 65 62 64 66 65 -177 73 89 91 91 95 94 97 -193 -193 -209 -209 -209 -209 -209 -209 -209 -209 -209 -209 -209 68 -193 -193 61 64 65 65 65 67 63 70 69 -193 -209 -209 -193 -193 159 161 382 390 -209 -209 72 72 72 71 70 72 71 70 69 68 68 68 67 -177 -193 -209 -209 -177 -193 -193 -209 -209 -193 242 246 244 -209 -209 221 229 -209 -209 -209 -209 -209 -209 189 198 -193 -193 -193 186 188 197 201 -193 180 183 189 0 0 0 0 0
    0 0 0 0 0 0 0 0 0 0 0 0 0 0 0 0 0 0 0 0 0 0 0 0 0 0 0 0 0 0 0 0 0 0 0 0 0 0 0 0 0 0 0 0 0 0 0 0 0 0 0 0 0 0 0 0 0 0 0 0 0 0 0 0 0 0 0 0 0 61 61 63 -225 -225 -225 -225 -225 -225 -225 -225 -225 -225 -225 -225 -225 -225 -225 -225 -225 -225 -225 -225 -225 -225 -225 -225 -225 -225 -225 -225 -225 -225 -225 -225 -225 -225 -225 -225 -225 -225 -225 -225 -225 -225 -225 -225 -225 -225 -225 -225 -225 -225 -225 -225 -225 -225 -225 -225 -225 -225 -225 -225 -225 -225 -225 -225 -225 -225 -225 -225 -225 -225 -225 -225 -225 -225 -225 -225 -225 -225 -225 -225 -225 -225 -225 -225 -225 -225 -225 -225 -225 -225 -225 -225 -225 -225 -225 -225 -225 -225 -225 -225 -225 -225 -225 -225 69 69 66 64 66 64 64 59 62 60 58 58 59 59 59 59 60 61 60 61 61 62 62 62 64 61 60 61 62 61 60 60 60 61 62 62 63 66 64 65 65 64 62 63 65 65 58 73 79 84 88 92 91 94 -209 -193 -209 -209 -209 -209 -209 -209 -209 -209 -193 -209 -193 -209 -209 -209 60 63 65 66 66 -193 -193 -209 -209 -193 312 326 340 -177 -209 -209 -193 -209 -209 -209 -209 -209 72 71 70 72 71 71 70 69 69 -193 -209 -193 -209 -209 -209 -177 -193 -209 -209 -209 232 237 241 -209 -209 -209 218 226 229 -209 -209 -209 -209 -209 188 192 -209 179 180 181 181 183 174 171 170 174 187 0 0 0 0 0
    0 0 0 0 0 0 0 0 0 0 0 0 0 0 0 0 0 0 0 0 0 0 0 0 0 0 0 0 0 0 0 0 0 0 0 0 0 0 0 0 0 0 0 0 0 0 0 0 0 0 0 0 0 0 0 0 0 0 0 0 0 0 0 0 0 0 0 0 0 63 63 64 -225 -225 -225 -225 -225 -225 -225 -225 -225 -225 -225 -225 -225 -225 -225 -225 -225 -225 -225 -225 -225 -225 -225 -225 -225 -225 -225 -225 -225 -225 -225 -225 -225 -225 -225 -225 -225 -225 -225 -225 -225 -225 -225 -225 -225 -225 -225 -225 -225 -225 -225 -225 -225 -225 -225 -225 -225 -225 -225 -225 -225 -225 -225 -225 -225 -225 -225 -225 -225 -225 -225 -225 -225 -225 -225 -225 -225 -225 -225 -225 -225 -225 -225 -225 -225 -225 -225 -225 -225 -225 -225 -225 -225 -225 -225 -225 -225 -225 -225 -225 -225 -225 -225 -225 69 69 67 66 66 64 60 55 56 55 53 53 54 56 57 57 59 60 60 60 61 62 61 62 64 61 61 62 63 62 61 62 62 61 63 62 63 65 64 65 64 64 62 63 66 65 59 69 70 72 -209 -209 -209 -209 -209 -209 -193 -209 -209 -209 -209 -209 -209 45 49 -209 52 -209 -209 -193 -209 -209 -209 -209 -209 -209 -193 -209 -209 -209 -209 -209 -209 -209 212 214 216 219 225 -209 -209 -209 73 72 -193 -209 -193 -193 -209 -209 -209 -209 -209 -209 -209 -209 224 227 231 -193 -209 221 230 235 237 -209 -209 211 216 221 223 -209 -209 -209 -209 -209 -209 -209 -209 170 171 172 -209 158 169 171 -193 -193 201 0 0 0 0 0
    0 0 0 0 0 0 0 0 0 0 0 0 0 0 0 0 0 0 0 0 0 0 0 0 0 0 0 0 0 0 0 0 0 0 0 0 0 0 0 0 0 0 0 0 0 0 0 0 0 0 0 0 0 0 0 0 0 0 0 0 0 0 0 0 0 0 0 0 0 65 66 66 -225 -225 -225 -225 -225 -225 -225 -225 -225 -225 -225 -225 -225 -225 -225 -225 -225 -225 -225 -225 -225 -225 -225 -225 -225 -225 -225 -225 -225 -225 -225 -225 -225 -225 -225 -225 -225 -225 -225 -225 -225 -225 -225 -225 -225 -225 -225 -225 -225 -225 -225 -225 -225 -225 -225 -225 -225 -225 -225 -225 -225 -225 -225 -225 -225 -225 -225 -225 -225 -225 -225 -225 -225 -225 -225 -225 -225 -225 -225 -225 -225 -225 -225 -225 -225 -225 -225 -225 -225 -225 -225 -225 -225 -225 -225 -225 -225 -225 -225 -225 -225 -225 -225 -225 69 68 67 67 67 64 59 48 56 54 51 50 53 55 57 57 60 60 59 59 61 62 62 62 65 61 61 61 63 62 61 61 62 61 63 62 63 64 63 64 64 63 62 62 65 65 59 66 67 69 -209 -209 -209 -209 -209 -209 -209 -209 -209 44 -209 -209 44 46 51 -209 -209 -209 -209 -209 -209 -209 -209 -209 -209 -209 189 191 -209 202 -209 -209 -209 211 212 214 215 218 220 -209 -209 -209 -209 -209 -209 -209 -209 -209 -209 -209 -209 233 236 -209 -209 220 223 224 228 -209 -209 -209 227 231 -209 -209 -209 -209 221 226 -209 -209 -209 -209 -209 -209 -209 -209 -209 -209 -209 -209 -177 154 168 171 -209 186 203 0 0 0 0 0
    0 0 0 0 0 0 0 0 0 0 0 0 0 0 0 0 0 0 0 0 0 0 0 0 0 0 0 0 0 0 0 0 0 0 0 0 0 0 0 0 0 0 0 0 0 0 0 0 0 0 0 0 0 0 0 0 0 0 0 0 0 0 0 0 0 0 0 0 0 66 67 69 -225 -225 -225 -225 -225 -225 -225 -225 -225 -225 -225 -225 -225 -225 -225 -225 -225 -225 -225 -225 -225 -225 -225 -225 -225 -225 -225 -225 -225 -225 -225 -225 -225 -225 -225 -225 -225 -225 -225 -225 -225 -225 -225 -225 -225 -225 -225 -225 -225 -225 -225 -225 -225 -225 -225 -225 -225 -225 -225 -225 -225 -225 -225 -225 -225 -225 -225 -225 -225 -225 -225 -225 -225 -225 -225 -225 -225 -225 -225 -225 -225 -225 -225 -225 -225 -225 -225 -225 -225 -225 -225 -225 -225 -225 -225 -225 -225 -225 -225 -225 -225 -225 -225 -225 68 66 64 64 64 61 57 42 52 52 46 45 49 54 56 57 60 59 58 59 59 61 61 61 64 60 60 61 62 62 61 61 62 61 63 62 63 63 62 63 63 62 61 61 63 64 60 63 64 66 -193 -209 -209 -209 -209 -209 -209 -209 -209 47 53 52 53 -209 -209 -209 -209 -209 -209 -209 -209 -209 -193 197 195 194 194 195 198 200 202 203 204 212 215 216 216 218 222 -209 234 -209 -209 -209 -209 242 245 247 -209 -209 -209 232 234 -209 -209 -209 221 223 225 226 221 222 226 226 229 230 -209 -209 -209 -209 -209 -209 -209 -209 -209 -209 -209 -209 -209 -209 -209 -209 139 151 163 -209 -209 190 204 0 0 0 0 0
    0 0 0 0 0 0 0 0 0 0 0 0 0 0 0 0 0 0 0 0 0 0 0 0 0 0 0 0 0 0 0 0 0 0 0 0 0 0 0 0 0 0 0 0 0 0 0 0 0 0 0 0 0 0 0 0 0 0 0 0 0 0 0 0 0 0 0 0 0 67 68 70 -225 -225 -225 -225 -225 -225 -225 -225 -225 -225 -225 -225 -225 -225 -225 -225 -225 -225 -225 -225 -225 -225 -225 -225 -225 -225 -225 -225 -225 -225 -225 -225 -225 -225 -225 -225 -225 -225 -225 -225 -225 -225 -225 -225 -225 -225 -225 -225 -225 -225 -225 -225 -225 -225 -225 -225 -225 -225 -225 -225 -225 -225 -225 -225 -225 -225 -225 -225 -225 -225 -225 -225 -225 -225 -225 -225 -225 -225 -225 -225 -225 -225 -225 -225 -225 -225 -225 -225 -225 -225 -225 -225 -225 -225 -225 -225 -225 -225 -225 -225 -225 -225 -225 -225 69 66 63 63 63 60 51 42 48 42 40 40 42 50 56 57 61 59 58 58 58 60 61 60 64 59 60 61 62 63 62 62 63 61 63 62 63 63 62 62 62 60 60 60 61 63 60 62 65 67 69 65 -193 -209 61 62 -193 -193 -209 58 -209 -209 -209 -209 -209 -209 -209 -209 -209 -209 -209 -209 198 201 199 197 197 198 199 201 202 207 215 218 224 225 226 232 235 245 249 247 -209 -209 -209 242 240 240 -209 -209 -209 234 235 -193 -193 228 225 229 -209 -209 -209 -209 -209 -209 -209 -209 -209 -209 -209 -209 -209 -209 -209 -209 -209 -209 -209 -209 -209 -209 -209 -209 -209 -209 -193 -209 -193 192 205 0 0 0 0 0
    0 0 0 0 0 0 0 0 0 0 0 0 0 0 0 0 0 0 0 0 0 0 0 0 0 0 0 0 0 0 0 0 0 0 0 0 0 0 0 0 0 0 0 0 0 0 0 0 0 0 0 0 0 0 0 0 0 0 0 0 0 0 0 0 0 0 0 0 0 70 71 -225 -225 -225 -225 -225 -225 -225 -225 -225 -225 -225 -225 -225 -225 -225 -225 -225 -225 -225 -225 -225 -225 -225 -225 -225 -225 -225 -225 -225 -225 -225 -225 -225 -225 -225 -225 -225 -225 -225 -225 -225 -225 -225 -225 -225 -225 -225 -225 -225 -225 -225 -225 -225 -225 -225 -225 -225 -225 -225 -225 -225 -225 -225 -225 -225 -225 -225 -225 -225 -225 -225 -225 -225 -225 -225 -225 -225 -225 -225 -225 -225 -225 -225 -225 -225 -225 -225 -225 -225 -225 -225 -225 -225 -225 -225 -225 -225 -225 -225 -225 -225 -225 -225 -225 -225 66 61 59 59 59 56 47 42 46 39 37 38 40 45 51 56 59 57 56 56 56 57 59 58 62 58 59 60 61 61 62 61 62 60 62 62 63 63 62 61 61 59 59 60 60 61 61 60 64 66 67 66 68 65 65 65 65 68 -193 -193 -209 -209 -209 -209 -209 -209 -209 -209 -209 -209 -209 -209 199 202 199 197 198 201 202 207 210 214 220 230 234 235 235 236 235 247 249 248 -209 -209 236 240 235 -193 -193 230 233 232 232 231 231 229 228 228 230 229 230 -209 -209 -209 -209 -209 -209 -209 -209 -209 -209 -209 -209 -209 -209 -209 -209 -209 -209 -209 -209 -209 -209 -209 -209 -209 -193 -209 206 0 0 0 0 0
    0 0 0 0 0 0 0 0 0 0 0 0 0 0 0 0 0 0 0 0 0 0 0 0 0 0 0 0 0 0 0 0 0 0 0 0 0 0 0 0 0 0 0 0 0 0 0 0 0 0 0 0 0 0 0 0 0 0 0 0 0 0 0 0 0 0 0 0 0 71 -225 -225 -225 -225 -225 -225 -225 -225 -225 -225 -225 -225 -225 -225 -225 -225 -225 -225 -225 -225 -225 -225 -225 -225 -225 -225 -225 -225 -225 -225 -225 -225 -225 -225 -225 -225 -225 -225 -225 -225 -225 -225 -225 -225 -225 -225 -225 -225 -225 -225 -225 -225 -225 -225 -225 -225 -225 -225 -225 -225 -225 -225 -225 -225 -225 -225 -225 -225 -225 -225 -225 -225 -225 -225 -225 -225 -225 -225 -225 -225 -225 -225 -225 -225 -225 -225 -225 -225 -225 -225 -225 -225 -225 -225 -225 -225 -225 -225 -225 -225 -225 -225 -225 -225 -225 -225 -225 56 56 56 55 52 45 42 43 37 34 35 34 39 39 45 54 53 53 53 54 54 54 55 59 57 57 58 60 60 61 61 62 59 62 63 62 62 61 60 60 58 58 59 60 61 60 60 61 64 66 67 68 66 68 69 70 71 -209 -209 -209 -209 -209 -209 -209 -209 -209 -209 196 202 205 205 199 203 202 201 201 206 212 216 217 217 222 227 233 234 236 236 234 247 249 247 -209 231 235 237 234 234 -193 232 234 233 233 232 232 230 228 228 229 229 -209 -209 -209 -209 -209 -209 -209 -209 -209 -209 -209 -209 -209 -209 -209 -209 -209 -209 -209 -209 -209 -209 148 155 166 171 179 198 211 0 0 0 0 0
    0 0 0 0 0 0 0 0 0 0 0 0 0 0 0 0 0 0 0 0 0 0 0 0 0 0 0 0 0 0 0 0 0 0 0 0 0 0 0 0 0 0 0 0 0 0 0 0 0 0 0 0 0 0 0 0 0 0 0 0 0 0 0 0 0 0 0 0 0 -225 -225 -225 -225 -225 -225 -225 -225 -225 -225 -225 -225 -225 -225 -225 -225 -225 -225 -225 -225 -225 -225 -225 -225 -225 -225 -225 -225 -225 -225 -225 -225 -225 -225 -225 -225 -225 -225 -225 -225 -225 -225 -225 -225 -225 -225 -225 -225 -225 -225 -225 -225 -225 -225 -225 -225 -225 -225 -225 -225 -225 -225 -225 -225 -225 -225 -225 -225 -225 -225 -225 -225 -225 -225 -225 -225 -225 -225 -225 -225 -225 -225 -225 -225 -225 -225 -225 -225 -225 -225 -225 -225 -225 -225 -225 -225 -225 -225 -225 -225 -225 -225 -225 -225 -225 -225 -225 -225 -225 51 51 48 45 43 42 43 37 35 36 34 37 37 39 45 49 52 51 52 52 51 53 59 57 57 58 60 61 62 62 64 59 62 62 61 61 61 60 60 58 59 59 60 61 61 61 61 63 67 70 71 70 71 72 -193 -209 -209 1008 1008 1008 -209 -209 -209 -209 -209 -209 198 202 206 210 203 205 205 206 206 212 216 217 217 217 221 226 231 234 235 235 232 244 249 246 235 231 233 239 238 236 236 234 238 236 235 235 233 230 228 228 229 -209 -209 -209 -209 -209 -209 -209 -209 -209 -209 -209 -209 -209 -209 -209 -209 -209 -209 -209 -209 -209 142 -209 153 163 -209 -177 192 207 217 0 0 0 0 0
    0 0 0 0 0 0 0 0 0 0 0 0 0 0 0 0 0 0 0 0 0 0 0 0 0 0 0 0 0 0 0 0 0 0 0 0 0 0 0 0 0 0 0 0 0 0 0 0 0 0 0 0 0 0 0 0 0 0 0 0 0 0 0 0 0 0 0 0 0 -225 -225 -225 -225 -225 -225 -225 -225 -225 -225 -225 -225 -225 -225 -225 -225 -225 -225 -225 -225 -225 -225 -225 -225 -225 -225 -225 -225 -225 -225 -225 -225 -225 -225 -225 -225 -225 -225 -225 -225 -225 -225 -225 -225 -225 -225 -225 -225 -225 -225 -225 -225 -225 -225 -225 -225 -225 -225 -225 -225 -225 -225 -225 -225 -225 -225 -225 -225 -225 -225 -225 -225 -225 -225 -225 -225 -225 -225 -225 -225 -225 -225 -225 -225 -225 -225 -225 -225 -225 -225 -225 -225 -225 -225 -225 -225 -225 -225 -225 -225 -225 -225 -225 -225 -225 -225 -225 -225 -225 -225 -225 -225 41 41 42 43 37 35 36 34 37 37 39 42 54 55 53 55 55 54 54 61 57 57 57 60 61 62 61 65 59 62 62 61 61 61 60 60 58 59 59 61 61 61 62 63 67 71 72 74 72 -209 -209 -209 -209 -209 -209 -209 -209 -209 -209 -209 -209 -209 196 202 205 210 213 210 209 210 211 211 213 216 217 217 217 222 227 231 234 235 234 232 244 249 250 250 246 244 248 247 244 243 237 239 236 235 235 233 230 228 228 -209 -209 -209 -209 -209 -209 -209 -209 -209 -209 -209 -209 -209 -209 -209 -209 -209 -209 -209 -209 132 140 151 -209 -209 -209 -209 -209 210 215 220 0 0 0 0 0
    0 0 0 0 0 0 0 0 0 0 0 0 0 0 0 0 0 0 0 0 0 0 0 0 0 0 0 0 0 0 0 0 0 0 0 0 0 0 0 0 0 0 0 0 0 0 0 0 0 0 0 0 0 0 0 0 0 0 0 0 0 0 0 0 0 0 0 0 0 -225 -225 -225 -225 -225 -225 -225 -225 -225 -225 -225 -225 -225 -225 -225 -225 -225 -225 -225 -225 -225 -225 -225 -225 -225 -225 -225 -225 -225 -225 -225 -225 -225 -225 -225 -225 -225 -225 -225 -225 -225 -225 -225 -225 -225 -225 -225 -225 -225 -225 -225 -225 -225 -225 -225 -225 -225 -225 -225 -225 -225 -225 -225 -225 -225 -225 -225 -225 -225 -225 -225 -225 -225 -225 -225 -225 -225 -225 -225 -225 -225 -225 -225 -225 -225 -225 -225 -225 -225 -225 -225 -225 -225 -225 -225 -225 -225 -225 -225 -225 -225 -225 -225 -225 -225 -225 -225 -225 -225 -225 -225 -225 -225 -225 -225 -225 -225 35 36 34 37 37 39 40 39 54 56 62 70 66 -193 67 58 58 58 60 61 62 61 65 60 62 62 61 61 61 60 61 59 61 60 62 62 63 65 68 71 74 84 -209 -209 -209 -209 -209 -209 -209 -209 -209 -209 -209 -209 -209 -209 -209 -193 203 205 210 212 210 209 208 208 208 211 213 216 216 217 221 226 233 237 242 243 248 251 255 256 254 251 249 249 247 244 243 237 239 236 235 235 -193 -209 -209 -209 -209 -209 -209 -209 -209 -209 -209 -209 -209 -209 -209 -209 -209 -209 -209 -209 -209 -209 -209 -209 -209 151 162 -177 -209 -209 -209 216 217 218 222 0 0 0 0 0</data></disparity>
</opencv_storage>
