<?xml version="1.0"?>
<opencv_storage>
<gps_time_stamp>323010</gps_time_stamp>
<gps_x>-1.2424059867858887e+001</gps_x>
<gps_y>1.0714296340942383e+001</gps_y>
<gps_z>-1.9928940534591675e+000</gps_z>
<image_time_stamp>313862</image_time_stamp>
<disparity type_id="opencv-matrix">
  <rows>88</rows>
  <cols>320</cols>
  <dt>s</dt>
  <data>
    0 0 0 0 0 0 0 0 0 0 0 0 0 0 0 0 0 0 0 0 0 0 0 0 0 0 0 0 0 0 0 0 0 0 0 0 0 0 0 0 0 0 0 0 0 0 0 0 0 0 0 0 0 0 0 0 0 0 0 0 0 0 0 0 0 0 0 0 0 0 0 0 0 0 0 0 0 0 0 0 0 0 0 0 -193 0 0 0 9 9 10 10 10 9 0 9 9 9 0 0 0 0 0 0 0 0 0 0 0 9 9 9 13 15 14 15 15 14 11 13 13 12 13 14 11 18 13 12 13 11 11 11 11 12 10 11 13 11 13 12 13 13 12 15 13 14 14 14 13 14 14 13 12 13 12 12 12 13 12 13 14 13 13 13 14 13 13 13 13 13 14 13 13 12 12 11 12 12 11 11 15 14 14 16 18 17 19 19 20 18 22 23 -209 -209 -193 64 63 61 59 62 62 64 63 67 65 66 69 70 -209 74 74 77 82 82 82 82 84 81 86 89 89 89 93 93 96 95 96 100 19 20 -193 -193 -209 -193 -193 -193 106 -193 -177 110 113 114 112 111 111 114 115 112 110 107 -209 -193 106 -193 99 96 -193 207 -193 -209 130 131 132 130 -193 -193 130 -209 -209 160 -193 -193 156 156 153 155 152 153 155 159 160 163 163 164 166 173 179 180 180 184 185 188 191 189 189 188 192 192 195 196 193 192 194 194 194 194 194 192 188 194 194 201 202 204 207 0 0 0 0 0
    0 0 0 0 0 0 0 0 0 0 0 0 0 0 0 0 0 0 0 0 0 0 0 0 0 0 0 0 0 0 0 0 0 0 0 0 0 0 0 0 0 0 0 0 0 0 0 0 0 0 0 0 0 0 0 0 0 0 0 0 0 0 0 0 0 0 0 0 0 0 0 0 0 0 0 0 0 0 0 0 0 0 0 0 9 10 10 9 10 10 11 11 11 9 0 9 10 10 9 0 0 0 0 0 0 0 0 0 0 9 10 9 13 16 14 15 14 13 11 13 14 12 13 14 11 19 14 13 13 11 12 12 12 13 10 12 13 12 14 13 14 13 13 16 14 15 15 14 13 14 14 13 12 13 12 12 12 13 12 13 14 13 13 13 14 13 13 13 13 13 13 13 13 12 12 11 12 12 12 11 14 14 14 16 17 16 18 19 20 18 20 21 -209 -209 -193 -193 -209 60 59 62 61 64 63 66 65 65 68 69 -193 73 73 76 83 83 83 83 85 83 87 90 89 89 93 93 96 94 95 99 17 19 -193 -193 -193 -193 -209 -193 -193 -193 -177 110 113 114 113 111 111 114 115 112 110 108 -193 106 107 -209 101 99 -209 206 -193 -193 129 131 132 131 129 128 132 -209 -209 159 -193 159 156 156 154 155 153 154 156 159 160 163 163 163 166 172 178 180 181 183 186 188 191 189 189 188 192 192 194 196 193 191 194 194 193 194 195 193 188 195 194 201 202 205 208 0 0 0 0 0
    0 0 0 0 0 0 0 0 0 0 0 0 0 0 0 0 0 0 0 0 0 0 0 0 0 0 0 0 0 0 0 0 0 0 0 0 0 0 0 0 0 0 0 0 0 0 0 0 0 0 0 0 0 0 0 0 0 0 0 0 0 0 0 0 0 0 0 0 0 9 0 0 0 0 0 0 0 0 0 0 0 0 0 0 0 10 10 9 11 11 12 11 11 10 10 10 10 11 10 0 0 0 0 0 0 0 0 0 0 10 11 11 14 16 14 14 13 13 11 13 12 12 12 14 11 20 14 14 13 11 12 12 12 12 10 11 12 12 14 13 13 13 13 15 14 15 15 15 14 14 14 13 13 13 12 12 12 13 12 12 14 13 13 13 14 13 13 13 13 13 13 13 13 12 13 12 13 12 12 12 13 14 14 14 15 15 18 19 20 18 20 20 -209 -209 -209 -193 -193 60 59 62 61 64 62 65 64 65 67 69 -193 -193 73 76 83 84 85 84 86 84 88 91 90 90 93 93 96 94 95 99 -193 -193 99 98 101 -193 -209 -193 -193 -193 -193 110 113 115 113 111 111 113 114 112 110 109 106 108 109 -209 -209 -209 -209 -193 -209 131 129 131 131 131 130 129 -193 -209 -209 158 -193 159 156 156 155 155 154 154 156 159 160 163 163 163 165 170 177 180 182 183 186 188 192 189 189 188 192 192 194 196 192 191 194 194 194 194 195 194 188 197 195 202 204 206 210 0 0 0 0 0
    0 0 0 0 0 0 0 0 0 0 0 0 0 0 0 0 0 0 0 0 0 0 0 0 0 0 0 0 0 0 0 0 0 0 0 0 0 0 0 0 0 0 0 0 0 0 0 0 0 0 0 0 0 0 0 0 0 0 0 0 0 0 0 0 0 0 0 0 0 10 10 9 9 0 10 9 0 0 0 0 0 0 0 0 0 10 10 10 11 12 12 12 12 11 11 11 11 12 11 10 9 0 0 0 0 0 0 0 0 10 11 12 15 16 13 12 11 11 10 11 10 10 10 12 11 18 15 14 13 11 12 12 12 12 11 12 12 12 14 13 13 13 14 14 14 15 15 15 14 14 15 13 13 13 12 12 12 13 12 12 13 13 12 13 14 13 14 14 13 14 14 14 14 13 13 12 13 12 12 12 13 14 13 13 15 15 19 19 20 18 20 19 -209 -209 -193 62 -193 -193 59 63 61 64 62 65 64 65 66 68 -193 -209 -193 76 84 85 86 86 86 86 89 92 91 91 93 93 95 94 94 97 -193 -193 99 97 100 100 -193 -193 105 103 -193 111 113 115 113 111 111 113 114 112 110 111 106 109 111 -193 -209 -209 -193 -209 133 132 128 131 130 130 129 129 -193 -209 -209 158 -193 159 156 156 155 155 155 155 157 159 160 162 162 162 165 168 176 179 182 183 186 188 192 189 189 188 191 191 193 196 192 191 194 193 193 194 194 194 187 196 194 202 204 206 210 0 0 0 0 0
    0 0 0 0 0 0 0 0 0 0 0 0 0 0 0 0 0 0 0 0 0 0 0 0 0 0 0 0 0 0 0 0 0 0 0 0 0 0 0 0 0 0 0 0 0 0 0 0 0 0 0 0 0 0 0 0 0 0 0 0 0 0 0 0 0 0 0 0 0 10 11 10 9 9 9 9 0 0 0 0 0 0 0 0 9 11 11 11 12 13 13 12 12 11 12 11 11 12 12 10 10 9 9 0 0 0 0 0 0 10 11 13 15 15 13 11 11 12 10 11 10 11 11 12 11 17 15 15 14 12 12 13 12 13 11 12 12 12 14 13 12 13 14 14 14 15 14 15 13 14 15 13 13 14 12 12 12 13 12 12 13 12 11 12 12 12 13 14 13 14 14 14 14 14 14 13 13 13 12 12 14 14 14 14 16 16 19 19 21 18 21 18 -209 -209 -209 61 -193 -193 -193 63 61 64 61 65 64 65 66 68 -193 -209 -193 76 84 86 86 86 87 87 89 93 91 91 93 93 95 94 93 96 -193 99 97 95 99 99 103 -193 105 103 -177 112 113 115 114 111 112 113 114 112 110 112 -193 109 111 -193 -209 138 138 -193 133 132 129 131 130 130 129 129 -193 -209 -209 158 -193 159 156 156 155 154 157 155 157 159 161 163 163 163 165 168 174 178 182 181 186 187 192 189 189 188 191 191 192 196 192 190 193 193 193 193 194 193 187 196 194 201 204 206 211 0 0 0 0 0
    0 0 0 0 0 0 0 0 0 0 0 0 0 0 0 0 0 0 0 0 0 0 0 0 0 0 0 0 0 0 0 0 0 0 0 0 0 0 0 0 0 0 0 0 0 0 0 0 0 0 0 0 0 0 0 0 0 0 0 0 0 0 0 0 0 0 0 0 0 11 12 11 10 9 10 9 0 0 0 0 0 0 0 0 10 12 12 13 13 14 15 13 13 11 12 12 11 12 12 11 11 9 10 0 0 0 10 -193 9 11 11 12 14 14 14 11 11 12 10 12 11 11 12 12 12 16 15 16 14 13 13 14 13 13 11 12 12 13 14 13 12 13 13 13 13 15 14 15 14 14 15 13 13 14 13 13 12 13 12 12 13 11 11 11 12 12 12 13 12 13 13 14 14 14 14 13 14 13 12 13 15 15 14 14 15 16 19 19 21 18 21 17 -209 -209 -209 60 -193 -193 -193 63 61 64 61 65 65 65 66 68 -193 73 73 77 85 86 87 87 87 89 90 93 91 91 92 92 94 93 92 94 -177 97 96 94 97 98 102 104 104 103 -177 113 113 115 114 112 112 112 114 112 110 111 -209 -193 110 -193 -209 137 137 -193 133 133 130 132 131 131 130 130 -193 -209 -209 -193 -193 160 156 155 154 154 159 156 158 160 161 163 163 163 165 167 173 176 180 180 185 186 192 189 188 187 191 192 192 196 192 190 192 192 192 192 193 193 187 195 192 201 204 205 209 0 0 0 0 0
    0 0 0 0 0 0 0 0 0 0 0 0 0 0 0 0 0 0 0 0 0 0 0 0 0 0 0 0 0 0 0 0 0 0 0 0 0 0 0 0 0 0 0 0 0 0 0 0 0 0 0 0 0 0 0 0 0 0 0 0 0 0 0 0 0 0 0 0 0 15 15 16 13 11 13 11 0 0 0 0 0 0 0 -193 10 13 13 14 13 15 15 14 14 12 13 12 12 13 13 11 12 11 12 9 9 9 12 -193 -193 13 12 12 13 14 15 11 11 12 10 11 10 11 11 11 11 15 15 16 15 13 13 15 13 13 12 13 12 13 14 13 12 13 14 13 14 15 14 15 14 14 15 13 14 14 13 12 12 13 12 11 12 11 10 11 12 12 12 13 12 13 13 14 14 14 14 13 14 14 13 14 16 16 15 14 16 16 18 19 21 19 23 15 -209 -209 -209 -209 -193 -193 -193 63 61 64 62 65 65 65 66 68 -193 73 74 77 85 88 87 87 87 90 90 93 92 91 92 91 93 93 -193 -193 -177 -193 95 -193 96 97 101 103 103 103 -177 -193 113 115 114 112 112 113 114 112 109 111 -209 -209 109 -193 -209 137 137 136 133 134 131 132 132 132 131 131 -193 -193 -209 -193 -193 159 156 -193 154 154 160 157 159 161 162 164 164 164 165 167 173 175 180 178 185 185 191 188 188 187 191 192 192 196 192 190 192 192 192 193 193 193 187 196 195 201 204 205 208 0 0 0 0 0
    0 0 0 0 0 0 0 0 0 0 0 0 0 0 0 0 0 0 0 0 0 0 0 0 0 0 0 0 0 0 0 0 0 0 0 0 0 0 0 0 0 0 0 0 0 0 0 0 0 0 0 0 0 0 0 0 0 0 0 0 0 0 0 0 0 0 0 0 0 20 20 21 19 14 18 17 10 9 0 0 0 9 10 11 12 15 16 17 15 17 17 15 15 13 14 13 12 13 13 13 14 12 14 11 12 12 15 -193 -193 16 13 14 15 15 16 11 12 12 11 11 10 11 12 11 11 14 14 16 15 14 13 15 13 13 12 13 12 13 13 13 12 13 13 13 13 15 14 15 14 14 15 13 13 14 12 12 11 12 11 11 12 11 10 11 11 12 12 13 13 14 13 14 14 14 14 13 14 13 13 13 16 15 15 15 16 17 18 20 22 20 26 -193 -209 -209 -209 -209 -193 -177 -193 62 61 64 62 65 66 65 66 68 68 73 74 76 85 88 88 87 88 90 90 93 92 91 91 91 93 93 -193 -193 -177 -193 -193 -193 96 97 100 103 104 103 -209 -193 113 115 114 112 112 112 113 112 109 111 -209 -209 -193 -209 -209 137 136 136 133 134 132 133 133 133 132 132 -193 -193 -209 -209 -193 -193 156 -193 154 153 161 157 160 161 163 164 164 164 165 167 173 175 179 177 183 184 190 188 188 187 191 192 192 196 192 190 192 192 193 193 193 194 187 197 195 201 204 205 207 0 0 0 0 0
    0 0 0 0 0 0 0 0 0 0 0 0 0 0 0 0 0 0 0 0 0 0 0 0 0 0 0 0 0 0 0 0 0 0 0 0 0 0 0 0 0 0 0 0 0 0 0 0 0 0 0 0 0 0 0 0 0 0 0 0 0 0 0 0 0 0 0 0 0 21 20 20 19 15 18 19 11 11 10 11 11 11 12 13 14 18 19 20 18 19 19 16 17 14 15 13 13 14 14 14 15 13 15 12 13 13 16 20 15 19 15 17 18 17 19 12 12 12 11 12 11 11 11 11 11 13 13 15 15 14 12 14 12 12 12 12 12 13 13 13 12 13 13 13 13 14 14 14 15 14 15 13 14 14 12 12 11 11 11 10 11 10 10 11 11 12 13 13 13 14 13 14 14 14 14 13 14 13 12 12 14 14 14 14 16 17 18 20 22 21 28 -209 -209 -209 -209 -193 -193 -177 -177 62 61 63 62 65 66 65 66 68 68 73 74 76 84 88 87 87 87 90 90 92 92 91 91 91 92 93 -193 -193 -177 -193 -193 -177 -193 -193 -193 -193 -209 -209 -209 -193 112 114 113 112 111 111 113 112 109 111 -193 -209 -193 -209 -209 136 135 135 132 134 132 133 133 133 132 132 -193 -193 -193 -209 -193 -193 -193 -209 -193 153 161 156 159 161 163 165 165 165 166 168 173 175 178 176 183 184 189 188 187 187 190 192 192 196 192 190 192 193 193 193 194 194 188 197 196 201 203 203 205 0 0 0 0 0
    0 0 0 0 0 0 0 0 0 0 0 0 0 0 0 0 0 0 0 0 0 0 0 0 0 0 0 0 0 0 0 0 0 0 0 0 0 0 0 0 0 0 0 0 0 0 0 0 0 0 0 0 0 0 0 0 0 0 0 0 0 0 0 0 0 0 0 0 0 21 20 21 19 19 20 21 13 13 12 12 12 12 13 13 15 19 20 20 19 20 20 18 19 15 17 14 14 16 15 15 16 15 16 13 15 15 18 21 16 20 16 18 19 18 19 12 13 13 11 12 11 11 12 11 12 12 13 16 14 14 12 14 12 12 12 12 12 13 13 13 12 14 14 13 14 15 14 14 15 15 15 13 14 14 12 12 11 11 10 10 11 10 10 11 11 12 12 13 12 13 13 14 14 14 13 12 13 12 11 12 14 13 13 13 15 16 17 20 22 22 30 -209 -209 -209 -209 -193 -209 -177 -177 61 62 63 63 65 66 65 65 68 68 72 74 75 82 87 85 85 86 89 89 91 91 91 90 91 92 93 -193 -193 -193 -193 -193 -177 -193 -193 -193 -177 -209 -209 -193 -193 -209 114 112 112 111 111 112 112 109 111 -209 -209 -209 -209 -193 136 135 135 132 135 133 133 133 133 133 132 -193 -193 -193 -209 -209 -209 -209 -209 -193 152 161 156 159 161 163 165 165 165 166 168 174 177 179 177 183 184 190 188 188 187 190 192 192 196 192 190 192 193 193 193 194 194 188 196 194 200 203 203 204 0 0 0 0 0
    0 0 0 0 0 0 0 0 0 0 0 0 0 0 0 0 0 0 0 0 0 0 0 0 0 0 0 0 0 0 0 0 0 0 0 0 0 0 0 0 0 0 0 0 0 0 0 0 0 0 0 0 0 0 0 0 0 0 0 0 0 0 0 0 0 0 0 0 0 20 19 20 17 19 20 21 14 14 12 12 13 13 13 13 15 18 19 20 20 20 20 19 19 15 18 15 15 17 16 16 17 16 18 16 18 18 20 23 -193 23 17 20 21 19 20 12 13 13 11 12 10 11 12 11 12 12 14 16 14 14 12 14 11 11 12 12 12 13 13 13 12 14 14 13 14 15 15 14 15 14 15 13 13 13 12 11 11 10 10 10 11 10 9 10 10 11 12 12 12 13 12 13 13 13 13 11 13 12 11 11 13 13 12 12 15 16 17 19 22 23 30 -209 -209 -209 -193 -209 -209 -177 -177 61 62 63 63 65 66 65 65 68 67 72 74 74 80 86 84 84 86 88 88 90 91 90 90 91 92 93 91 92 93 93 96 -193 -209 -193 -193 -177 -193 -209 -177 -193 -209 113 112 111 110 111 113 112 110 111 -209 -209 -209 -209 -209 -193 -209 -193 131 135 133 134 134 134 133 132 -193 -193 -193 -209 -209 -209 -193 -193 135 151 161 156 158 160 163 164 165 165 166 167 174 178 180 178 184 184 190 188 188 188 190 192 192 197 193 190 192 193 193 193 194 194 188 195 192 198 202 202 204 0 0 0 0 0
    0 0 0 0 0 0 0 0 0 0 0 0 0 0 0 0 0 0 0 0 0 0 0 0 0 0 0 0 0 0 0 0 0 0 0 0 0 0 0 0 0 0 0 0 0 0 0 0 0 0 0 0 0 0 0 0 0 0 0 0 0 0 0 0 0 0 0 0 0 -209 21 -193 19 21 20 22 15 15 14 13 15 15 16 15 17 19 20 21 21 21 21 20 20 16 19 16 15 17 17 17 18 17 18 17 20 20 22 25 24 24 19 22 21 19 20 13 13 13 11 12 11 11 12 11 12 12 14 17 15 15 13 14 11 12 12 12 11 13 12 13 12 14 14 13 14 15 14 14 15 14 14 13 13 13 12 11 12 10 10 10 10 10 9 10 10 11 11 11 11 12 12 12 12 12 11 9 11 10 9 9 12 12 12 12 15 16 16 19 22 23 30 -209 -209 -209 0 -193 -193 -177 -177 -193 62 63 63 65 66 64 64 68 67 71 74 73 78 85 82 83 85 87 87 89 90 89 89 91 92 93 91 93 94 94 97 -193 -209 -209 -193 -177 -193 -193 -177 -177 -193 112 111 111 110 111 113 112 111 111 -209 -193 -209 -209 -209 -209 -209 -209 131 135 134 134 134 134 134 132 -193 -193 -193 -209 -209 -209 -209 122 136 150 158 155 157 159 162 164 164 164 165 167 174 179 181 180 184 184 191 189 188 188 190 193 193 197 193 191 192 193 193 193 193 193 187 193 189 193 201 201 203 0 0 0 0 0
    0 0 0 0 0 0 0 0 0 0 0 0 0 0 0 0 0 0 0 0 0 0 0 0 0 0 0 0 0 0 0 0 0 0 0 0 0 0 0 0 0 0 0 0 0 0 0 0 0 0 0 0 0 0 0 0 0 0 0 0 0 0 0 0 0 0 0 0 0 -209 26 26 23 24 22 24 20 17 18 15 20 18 19 18 19 20 21 22 22 22 22 21 21 18 20 16 15 17 17 17 18 18 18 18 21 21 22 24 25 24 21 23 22 19 21 15 14 14 12 13 12 12 13 11 13 12 14 18 16 15 13 14 11 12 12 12 11 12 12 13 12 14 14 14 14 16 14 14 15 14 14 13 13 13 11 11 11 10 10 10 10 10 9 10 9 10 10 11 11 11 11 12 12 12 10 0 10 9 9 8 11 11 12 12 15 16 16 18 22 23 30 -209 -193 -209 0 -193 -193 -177 -177 -193 62 62 63 65 66 64 64 67 67 70 73 73 76 85 81 82 84 86 85 87 89 89 89 91 92 93 91 93 95 94 99 -193 -209 -193 -193 -193 -193 -193 -193 -177 -193 111 111 111 109 111 113 112 112 110 -209 37 -209 -193 -209 201 -193 -209 132 136 134 135 135 135 134 134 -193 -193 -193 -209 -209 -209 -209 131 136 149 156 154 156 158 161 163 164 164 165 166 174 179 182 181 185 185 191 189 189 189 190 193 193 197 194 191 192 192 193 193 193 193 187 191 189 191 201 201 203 0 0 0 0 0
    0 0 0 0 0 0 0 0 0 0 0 0 0 0 0 0 0 0 0 0 0 0 0 0 0 0 0 0 0 0 0 0 0 0 0 0 0 0 0 0 0 0 0 0 0 0 0 0 0 0 0 0 0 0 0 0 0 0 0 0 0 0 0 0 0 0 0 0 0 28 26 26 23 24 23 23 23 21 22 20 23 22 22 21 21 21 22 23 23 23 23 22 21 19 20 16 16 18 18 18 18 19 19 20 22 22 22 23 24 24 22 23 22 20 21 16 15 14 12 13 12 12 13 11 12 11 13 16 15 15 13 14 12 12 12 11 11 12 12 13 11 14 14 14 15 17 15 14 16 14 13 12 12 12 10 11 11 10 10 10 10 10 9 10 10 11 10 12 11 12 11 12 12 12 10 0 9 9 0 8 10 11 11 12 15 15 16 18 21 24 30 -193 -193 -193 -193 -193 -177 -177 -177 -193 62 62 63 64 66 63 63 66 66 69 73 70 75 84 81 81 83 86 84 87 88 88 88 92 92 94 92 95 97 96 101 -209 -209 -193 -193 -193 -193 -193 -193 -177 -193 111 -193 111 109 111 113 112 113 109 -209 36 -193 -193 -193 199 -209 -209 131 136 134 135 136 135 135 135 -193 -193 -193 -193 -193 -209 -209 -193 137 149 155 154 156 157 159 162 162 162 164 166 173 179 182 182 185 185 190 190 189 189 190 193 193 197 194 191 192 192 193 193 193 193 187 189 187 -193 -193 -209 203 0 0 0 0 0
    0 0 0 0 0 0 0 0 0 0 0 0 0 0 0 0 0 0 0 0 0 0 0 0 0 0 0 0 0 0 0 0 0 0 0 0 0 0 0 0 0 0 0 0 0 0 0 0 0 0 0 0 0 0 0 0 0 0 0 0 0 0 0 0 0 0 0 0 0 26 25 24 22 22 22 22 23 22 23 22 24 24 24 23 23 22 23 25 25 24 24 23 22 21 21 -193 17 18 19 19 19 20 19 20 21 21 22 22 23 23 22 23 22 21 21 19 16 15 13 13 13 12 12 11 12 11 12 14 14 13 12 13 12 12 12 11 11 12 12 13 12 14 14 15 15 17 15 14 15 14 13 13 12 12 10 11 11 10 10 10 10 10 10 11 11 11 12 13 12 12 12 12 12 12 10 0 9 9 0 9 9 10 10 12 15 15 15 17 21 25 30 -193 -209 -177 -193 -193 -177 -177 -177 -193 62 62 63 64 65 63 63 66 66 68 72 68 75 84 81 81 83 85 82 86 88 88 88 92 93 94 -193 96 99 -193 -193 -193 -193 -193 -193 -193 -193 -193 692 -177 -177 111 -193 111 110 -193 113 113 114 109 -209 35 -193 -193 -193 198 -209 -209 132 137 135 135 136 135 136 135 -193 -193 -209 -209 155 -193 150 142 142 149 154 154 155 155 158 160 161 161 163 166 172 179 182 182 184 184 190 189 189 189 190 193 193 197 194 192 192 193 193 193 193 192 187 188 187 -193 -209 -209 -209 0 0 0 0 0
    0 0 0 0 0 0 0 0 0 0 0 0 0 0 0 0 0 0 0 0 0 0 0 0 0 0 0 0 0 0 0 0 0 0 0 0 0 0 0 0 0 0 0 0 0 0 0 0 0 0 0 0 0 0 0 0 0 0 0 0 0 0 0 0 0 0 0 0 0 25 24 22 21 21 20 20 22 21 24 23 25 25 25 24 24 23 24 25 25 25 25 25 24 23 22 -193 18 19 20 20 19 20 19 20 21 21 22 21 22 22 21 23 21 20 20 18 15 15 13 12 12 12 12 12 12 12 12 13 13 12 12 12 12 12 12 12 12 12 12 14 12 14 13 16 14 16 15 14 15 14 14 13 12 12 11 12 11 10 10 11 11 11 11 12 11 12 12 13 12 13 12 12 11 12 11 0 9 9 0 9 9 9 10 11 14 15 15 17 21 25 30 -193 -209 -177 -193 -193 -177 -177 -177 -193 62 62 63 63 65 63 63 66 66 67 71 67 74 84 80 81 83 85 82 86 88 88 88 93 93 94 -193 97 100 -193 -193 190 -193 -193 -193 -193 112 114 692 -193 -193 111 -193 112 110 -193 113 113 115 108 -209 35 -193 -193 -193 197 -209 -209 131 137 134 135 136 135 136 135 -193 -193 -193 -209 156 154 153 149 149 150 154 154 155 155 157 159 159 159 162 165 172 179 183 183 185 185 190 190 189 189 189 193 193 196 195 192 192 193 193 193 193 193 188 188 187 -209 -209 -209 -209 0 0 0 0 0
    0 0 0 0 0 0 0 0 0 0 0 0 0 0 0 0 0 0 0 0 0 0 0 0 0 0 0 0 0 0 0 0 0 0 0 0 0 0 0 0 0 0 0 0 0 0 0 0 0 0 0 0 0 0 0 0 0 0 0 0 0 0 0 0 0 0 0 0 0 22 22 19 18 19 17 17 20 19 23 22 25 24 25 25 25 23 25 26 26 25 26 26 25 24 22 21 18 19 20 20 20 20 19 21 21 21 22 21 21 21 19 21 20 16 16 15 13 13 12 12 12 11 12 12 12 12 12 12 13 12 12 12 12 12 12 12 12 13 13 14 12 13 13 16 14 16 14 14 15 14 14 13 13 13 11 12 12 11 11 12 11 11 12 12 12 12 13 14 13 13 13 12 12 12 11 9 10 9 9 9 10 10 10 11 13 14 15 15 20 23 28 0 -193 -177 -193 -193 -177 -177 -177 -193 61 61 63 63 65 62 62 65 66 67 71 66 74 83 80 81 83 84 81 86 88 88 88 93 94 95 -193 98 101 -177 -177 -193 -209 -193 -193 114 111 114 -193 -193 -193 111 -193 112 110 -193 113 113 116 107 -209 35 37 -193 -193 196 -209 -209 131 137 134 135 135 133 135 135 -193 -209 -177 -209 157 156 154 -193 153 152 154 155 155 155 156 158 159 159 161 164 170 179 184 185 186 186 191 191 189 190 189 193 193 196 195 192 192 193 193 192 193 193 188 187 187 -209 -193 -209 -193 0 0 0 0 0
    0 0 0 0 0 0 0 0 0 0 0 0 0 0 0 0 0 0 0 0 0 0 0 0 0 0 0 0 0 0 0 0 0 0 0 0 0 0 0 0 0 0 0 0 0 0 0 0 0 0 0 0 0 0 0 0 0 0 0 0 0 0 0 0 0 0 0 0 0 19 19 17 16 16 14 14 17 16 20 19 23 22 23 23 24 23 25 26 25 25 26 26 25 24 22 21 19 20 20 20 21 21 21 22 22 23 23 23 23 21 19 21 19 15 14 14 12 13 12 12 12 11 12 12 12 11 12 12 12 12 12 12 12 12 12 12 12 13 13 14 12 13 13 16 14 16 15 14 14 14 14 14 13 13 12 12 12 12 11 12 11 11 12 13 12 13 13 15 13 14 14 12 12 13 12 11 11 10 10 10 11 11 11 12 13 14 16 15 19 21 26 0 -209 -177 -209 -193 -177 -177 -177 -193 61 61 63 62 64 62 62 65 66 66 70 65 74 84 81 82 83 85 82 86 89 89 89 93 94 95 -193 98 101 -193 -193 -193 -193 -193 -193 114 111 113 -209 -193 -193 111 -193 112 -193 -193 113 113 116 105 -209 36 38 37 36 195 -193 -209 -177 -177 134 134 135 132 136 -209 -209 -193 -177 -193 158 157 155 154 154 153 155 156 155 155 156 158 159 159 161 164 169 179 185 186 187 187 191 192 190 190 189 193 193 196 196 192 192 193 192 192 192 192 189 187 188 187 -209 -209 -209 0 0 0 0 0
    0 0 0 0 0 0 0 0 0 0 0 0 0 0 0 0 0 0 0 0 0 0 0 0 0 0 0 0 0 0 0 0 0 0 0 0 0 0 0 0 0 0 0 0 0 0 0 0 0 0 0 0 0 0 0 0 0 0 0 0 0 0 0 0 0 0 0 0 0 16 17 14 14 13 12 12 14 13 17 15 21 21 22 22 23 22 25 25 25 25 26 26 26 24 22 21 18 19 20 20 21 21 21 23 23 23 24 23 23 21 20 20 18 14 14 13 12 12 12 11 11 10 12 12 12 11 12 12 13 12 13 12 13 12 12 12 12 12 12 13 13 13 14 18 15 17 16 15 15 15 14 14 13 13 12 13 13 12 12 13 12 12 13 13 13 13 13 14 13 14 15 13 13 14 13 12 12 12 11 11 11 12 12 14 14 15 17 15 19 20 24 -193 -193 -177 -177 -193 -193 -177 -193 -193 61 61 63 62 64 62 63 65 66 66 70 65 74 84 82 84 84 85 82 86 89 89 89 93 93 95 95 97 101 -193 -209 -193 596 -193 -193 114 110 112 -193 -193 113 111 -193 -193 -193 -193 113 112 115 -193 -209 37 38 37 35 192 -209 -193 -177 -177 133 133 134 128 -209 103 100 -177 -177 -177 158 158 156 155 154 154 155 158 156 156 156 159 159 159 161 164 168 179 186 187 187 187 191 192 190 191 189 193 193 195 196 192 191 193 192 192 192 192 190 187 189 187 -209 -209 -193 0 0 0 0 0
    0 0 0 0 0 0 0 0 0 0 0 0 0 0 0 0 0 0 0 0 0 0 0 0 0 0 0 0 0 0 0 0 0 0 0 0 0 0 0 0 0 0 0 0 0 0 0 0 0 0 0 0 0 0 0 0 0 0 0 0 0 0 0 0 0 0 0 0 0 14 15 13 12 12 12 12 13 12 15 13 19 20 22 22 23 22 25 26 26 26 26 26 26 25 22 21 19 19 20 21 22 21 22 23 22 23 23 23 23 21 20 19 17 15 14 13 12 12 12 11 11 11 12 12 12 12 12 13 13 13 13 13 14 13 13 13 12 13 13 14 13 13 16 19 16 19 18 18 17 17 15 15 14 14 13 13 13 13 12 13 12 12 13 12 13 13 14 14 14 14 15 13 14 14 13 12 12 12 12 11 12 12 12 14 14 15 18 16 19 19 21 -193 -177 -193 -193 -177 -209 -177 -209 -193 61 61 63 61 64 62 63 65 67 66 70 65 74 84 84 85 85 86 83 87 90 89 89 93 93 94 95 96 101 -177 -209 -193 -193 -193 -193 113 110 111 -193 -193 -193 -193 -193 -193 -193 -193 113 112 114 103 -209 37 38 37 -177 190 -209 -193 -177 133 131 132 132 125 -209 102 98 96 -177 -177 158 157 156 155 154 155 155 159 156 157 157 160 160 160 161 164 167 178 185 186 187 187 190 193 190 191 189 193 193 195 196 192 191 192 192 192 192 192 190 187 190 187 -209 -209 208 0 0 0 0 0
    0 0 0 0 0 0 0 0 0 0 0 0 0 0 0 0 0 0 0 0 0 0 0 0 0 0 0 0 0 0 0 0 0 0 0 0 0 0 0 0 0 0 0 0 0 0 0 0 0 0 0 0 0 0 0 0 0 0 0 0 0 0 0 0 0 0 0 0 0 12 13 12 12 11 11 11 12 12 13 12 17 18 20 20 21 21 24 25 25 26 25 26 26 25 23 23 20 21 21 21 22 22 22 23 21 22 22 22 21 19 18 17 15 15 14 13 12 13 12 12 12 11 12 12 12 12 12 13 13 13 13 12 14 13 13 13 12 13 13 14 13 14 17 20 18 21 19 19 19 18 17 16 15 14 14 14 13 13 13 13 12 12 14 12 13 14 14 15 14 14 15 13 14 14 13 12 12 12 12 11 12 11 12 14 15 15 18 16 19 19 20 -193 -177 -209 -193 -193 -209 -177 -209 57 61 61 63 61 64 62 63 65 67 66 71 66 74 85 85 86 86 87 85 88 91 89 89 92 92 94 94 95 100 -177 -209 -209 -193 -193 -193 113 109 110 -193 -193 -193 -193 -193 -193 -193 -209 113 111 113 103 -209 37 38 -193 -177 189 -193 -193 126 131 130 130 131 124 -209 102 98 96 93 -177 -193 -193 156 155 155 155 155 160 156 157 157 160 160 160 162 164 168 177 185 186 186 186 189 193 190 190 189 193 193 194 196 192 191 193 192 192 192 192 191 187 191 187 -209 -209 -193 0 0 0 0 0
    0 0 0 0 0 0 0 0 0 0 0 0 0 0 0 0 0 0 0 0 0 0 0 0 0 0 0 0 0 0 0 0 0 0 0 0 0 0 0 0 0 0 0 0 0 0 0 0 0 0 0 0 0 0 0 0 0 0 0 0 0 0 0 0 0 0 0 0 0 10 11 10 10 10 10 10 11 10 12 11 14 16 18 19 20 20 22 24 24 25 24 25 26 26 24 25 23 22 22 22 23 22 22 23 20 21 21 21 20 18 17 16 14 15 13 13 12 12 12 12 12 11 12 11 12 11 12 12 12 12 12 12 14 12 13 13 13 13 13 14 14 15 19 22 20 22 22 21 21 21 19 19 16 15 15 14 14 13 13 14 12 12 14 13 13 15 15 15 14 15 16 13 15 15 14 13 13 13 12 12 12 11 12 15 15 16 19 18 19 19 20 -193 -177 -193 -193 -193 -209 -209 -209 57 62 61 63 61 63 62 63 64 67 66 71 67 74 85 86 87 88 87 -193 89 92 90 90 92 92 94 94 94 99 -193 -193 -209 -177 -193 -193 110 108 108 -193 107 -193 -193 -193 -193 113 -209 -193 -209 113 103 -209 37 38 -193 -177 189 -193 -193 -193 130 128 129 130 124 -193 102 98 95 -177 -177 -209 -193 155 155 155 156 156 160 156 158 157 161 161 161 162 165 168 176 185 185 185 186 188 192 -193 190 189 193 193 194 197 192 191 193 192 192 192 193 192 187 192 187 197 -209 -193 0 0 0 0 0
    0 0 0 0 0 0 0 0 0 0 0 0 0 0 0 0 0 0 0 0 0 0 0 0 0 0 0 0 0 0 0 0 0 0 0 0 0 0 0 0 0 0 0 0 0 0 0 0 0 0 0 0 0 0 0 0 0 0 0 0 0 0 0 0 0 0 0 0 0 9 10 9 9 9 9 9 9 9 11 10 12 15 17 17 19 20 22 23 24 24 23 25 26 -193 25 27 25 24 24 23 25 23 23 23 20 22 21 21 20 17 16 15 15 14 13 12 12 12 12 11 11 10 11 11 12 11 12 12 12 12 12 12 13 12 13 13 13 13 14 14 15 17 20 22 22 24 23 23 23 23 22 21 19 17 18 16 15 14 14 14 13 13 14 13 14 15 16 15 14 15 17 14 15 15 14 13 13 13 13 12 13 12 13 16 15 17 19 19 19 19 19 18 -193 -177 -177 -193 -209 -209 -209 58 63 61 63 60 63 62 64 64 67 67 71 69 75 85 -193 88 88 88 -193 90 93 91 91 92 92 94 94 93 97 -193 101 -193 -177 -177 -193 -193 107 107 -193 107 111 112 -193 -193 114 -193 -193 -193 112 103 -193 37 38 34 -177 188 -193 -193 -193 128 127 128 129 124 -209 -209 98 -193 -193 -193 -193 -193 155 155 155 155 155 160 157 158 157 161 161 161 162 165 167 176 184 185 185 186 188 193 -193 190 189 192 192 193 197 192 191 193 192 192 193 193 192 187 192 188 195 -209 -193 0 0 0 0 0
    0 0 0 0 0 0 0 0 0 0 0 0 0 0 0 0 0 0 0 0 0 0 0 0 0 0 0 0 0 0 0 0 0 0 0 0 0 0 0 0 0 0 0 0 0 0 0 0 0 0 0 0 0 0 0 0 0 0 0 0 0 0 0 0 0 0 0 0 0 0 9 0 0 0 9 0 9 9 10 10 11 14 15 15 18 19 21 22 23 23 22 24 25 -193 -193 26 25 24 24 24 26 25 24 24 21 23 22 21 20 16 14 14 14 13 12 11 11 11 11 11 11 10 11 11 12 11 12 12 12 12 13 12 13 12 13 13 13 13 14 14 15 18 21 23 23 25 25 25 25 25 24 23 21 19 20 18 17 15 14 15 13 13 14 13 13 15 16 15 15 15 17 14 15 15 14 13 13 13 13 12 13 12 14 16 15 17 18 19 19 19 19 18 -193 -209 -209 -209 -209 -209 -209 58 62 60 63 60 63 63 64 65 68 68 72 70 75 85 -209 89 89 89 91 91 94 92 92 92 92 94 94 92 96 -209 99 101 -177 -177 -193 -193 106 107 106 108 111 112 113 114 114 116 115 -193 111 103 -193 37 38 -193 -177 -193 -209 -209 125 128 126 127 129 124 135 -209 -193 -209 -193 -193 -193 -193 155 155 154 155 155 161 157 159 157 162 161 162 162 165 167 176 185 185 186 186 188 193 -193 190 189 192 192 193 197 192 190 193 192 192 193 193 192 187 193 188 197 201 -193 0 0 0 0 0
    0 0 0 0 0 0 0 0 0 0 0 0 0 0 0 0 0 0 0 0 0 0 0 0 0 0 0 0 0 0 0 0 0 0 0 0 0 0 0 0 0 0 0 0 0 0 0 0 0 0 0 0 0 0 0 0 0 0 0 0 0 0 0 0 0 0 0 0 0 0 9 0 0 0 9 9 9 9 10 10 11 13 14 14 16 17 19 20 21 21 20 22 22 -193 23 25 25 24 -193 24 27 -193 -193 -193 20 21 21 20 18 15 14 14 15 14 13 12 12 12 12 11 11 10 11 11 12 11 12 13 13 12 13 13 13 12 13 13 13 13 14 14 16 19 23 24 25 27 27 27 26 27 25 24 22 21 21 20 18 16 15 16 14 14 14 13 12 15 16 15 15 15 17 14 15 15 14 13 13 13 13 12 13 12 14 16 15 17 18 19 18 19 18 17 16 -193 -209 -209 -209 -193 -193 61 63 60 63 60 62 63 64 65 68 69 73 72 76 85 -209 89 90 90 94 92 95 94 93 92 93 95 94 92 95 96 97 100 -193 -193 -193 -193 106 107 106 109 111 112 112 -193 114 116 116 111 -193 -193 34 37 38 -209 -177 -193 -193 -193 125 128 126 128 130 126 137 -209 -193 -209 -209 -209 -209 -193 154 155 155 156 155 161 157 159 157 163 162 162 163 165 167 175 184 184 185 186 187 193 -193 190 189 192 192 192 196 192 190 193 192 192 192 192 192 187 194 189 198 202 -193 0 0 0 0 0
    0 0 0 0 0 0 0 0 0 0 0 0 0 0 0 0 0 0 0 0 0 0 0 0 0 0 0 0 0 0 0 0 0 0 0 0 0 0 0 0 0 0 0 0 0 0 0 0 0 0 0 0 0 0 0 0 0 0 0 0 0 0 0 0 0 0 0 0 0 0 9 0 0 0 9 0 9 10 10 10 11 13 13 12 14 15 16 17 18 19 16 20 21 22 22 26 27 -209 -209 -209 -193 -209 -209 -193 17 19 20 19 17 15 14 14 15 15 13 13 13 13 12 11 11 10 11 11 12 11 12 13 12 12 13 13 13 12 13 13 13 13 14 15 17 20 25 26 27 28 29 28 27 28 26 24 23 22 21 20 19 17 15 16 14 14 13 13 12 14 16 14 15 15 16 14 16 15 14 13 13 14 13 12 13 12 15 17 16 17 18 19 18 19 18 17 16 17 -209 -193 -209 -193 -193 65 65 61 64 60 62 64 65 67 69 71 74 74 76 85 -193 90 90 91 95 93 95 94 93 92 92 94 93 -193 93 94 95 99 98 -193 -193 -193 106 107 107 109 111 112 112 -193 115 -193 -193 -193 -193 -193 -193 37 -193 -209 -193 -193 -193 125 125 128 127 130 132 131 138 -193 -193 -193 148 150 -193 -193 154 155 155 156 156 162 158 160 158 164 163 164 164 166 168 175 182 181 183 185 185 192 -193 189 188 192 193 193 197 192 190 192 192 192 192 192 192 187 193 189 199 -193 -193 0 0 0 0 0
    0 0 0 0 0 0 0 0 0 0 0 0 0 0 0 0 0 0 0 0 0 0 0 0 0 0 0 0 0 0 0 0 0 0 0 0 0 0 0 0 0 0 0 0 0 0 0 0 0 0 0 0 0 0 0 0 0 0 0 0 0 0 0 0 0 0 0 0 0 0 8 0 0 0 9 0 9 9 9 10 11 13 12 12 13 14 14 15 16 16 14 16 18 19 20 26 -193 -209 -193 -209 -209 -209 -209 -209 13 15 18 16 15 13 14 14 15 15 14 13 13 13 13 12 11 10 11 11 11 11 11 12 12 12 13 12 13 12 13 14 13 14 15 16 19 22 26 27 27 29 30 30 28 28 27 25 24 23 22 21 19 17 16 17 15 14 13 12 12 14 16 14 15 15 16 15 16 15 14 13 13 14 13 13 13 12 15 17 17 17 19 20 19 19 18 17 15 15 -209 -209 -193 -193 -193 67 65 62 63 60 62 65 66 68 70 72 74 74 77 85 -193 89 90 90 95 93 94 93 92 91 92 94 93 90 92 93 94 98 97 99 -193 107 106 106 107 109 111 112 114 -193 118 -193 121 -193 118 -193 -193 -209 -209 -209 -209 -193 -193 127 126 130 129 133 134 135 140 141 143 143 147 149 151 -209 154 154 155 156 156 162 158 161 159 165 164 164 164 166 168 174 180 179 180 183 184 191 -193 -193 188 192 193 193 197 193 190 192 192 192 192 192 192 187 193 189 197 -193 -193 0 0 0 0 0
    0 0 0 0 0 0 0 0 0 0 0 0 0 0 0 0 0 0 0 0 0 0 0 0 0 0 0 0 0 0 0 0 0 0 0 0 0 0 0 0 0 0 0 0 0 0 0 0 0 0 0 0 0 0 0 0 0 0 0 0 0 0 0 0 0 0 0 0 0 0 9 0 0 9 9 0 9 9 10 11 11 13 13 12 13 14 13 14 15 15 12 14 15 16 17 23 -209 -193 -193 -209 -209 -193 -209 -209 -209 -193 18 16 14 13 13 14 15 15 14 13 14 14 13 12 12 11 11 11 11 10 10 11 11 11 12 11 12 11 12 14 13 14 15 18 20 22 26 27 27 29 30 30 29 29 28 26 25 24 23 22 20 19 17 17 16 14 13 13 12 14 16 14 15 14 16 14 15 14 14 13 13 13 13 12 13 13 16 17 17 18 19 20 19 20 18 17 16 16 -209 -193 -177 70 -193 69 66 62 63 61 62 66 67 69 71 73 74 74 76 84 89 88 89 89 94 92 92 92 92 91 92 93 92 90 92 93 93 96 95 98 -193 105 105 105 106 108 110 111 115 -193 119 122 123 122 121 122 122 123 122 123 124 125 126 129 129 132 132 135 136 137 141 141 143 143 147 148 150 -193 153 154 156 157 157 163 159 162 160 165 165 164 165 166 168 173 178 176 177 180 183 190 -193 188 188 192 193 193 197 193 190 192 192 192 192 192 192 187 193 190 197 201 201 0 0 0 0 0
    0 0 0 0 0 0 0 0 0 0 0 0 0 0 0 0 0 0 0 0 0 0 0 0 0 0 0 0 0 0 0 0 0 0 0 0 0 0 0 0 0 0 0 0 0 0 0 0 0 0 0 0 0 0 0 0 0 0 0 0 0 0 0 0 0 0 0 0 0 9 9 9 9 9 10 9 9 10 11 11 12 14 13 13 14 14 14 15 15 14 12 14 15 14 15 -209 -209 -209 -193 -209 -193 -193 -209 -209 -177 -193 -193 17 16 14 13 14 15 15 13 13 13 14 12 12 12 10 10 11 10 10 9 10 10 10 11 11 10 10 12 13 13 14 16 19 20 23 26 26 27 28 29 30 29 30 29 27 27 26 25 23 21 20 18 17 16 14 13 13 12 14 15 14 15 14 16 14 15 14 14 13 13 13 13 12 13 13 17 17 18 18 19 20 19 20 18 17 15 15 -177 -193 -177 71 70 71 66 63 62 60 62 67 68 70 72 73 75 75 76 83 87 87 88 89 94 92 92 93 92 91 92 93 92 90 92 93 92 94 94 96 97 104 105 105 106 109 111 112 116 -193 -193 124 124 124 123 124 124 125 124 126 125 128 128 131 131 134 135 137 137 139 143 142 143 144 147 147 150 152 153 154 157 158 159 164 161 162 162 166 165 165 165 167 167 173 177 174 175 178 182 189 187 187 188 192 193 193 197 193 190 192 193 193 192 193 193 188 194 191 196 200 200 0 0 0 0 0
    0 0 0 0 0 0 0 0 0 0 0 0 0 0 0 0 0 0 0 0 0 0 0 0 0 0 0 0 0 0 0 0 0 0 0 0 0 0 0 0 0 0 0 0 0 0 0 0 0 0 0 0 0 0 0 0 0 0 0 0 0 0 0 0 0 0 0 0 0 10 10 10 9 10 10 9 9 10 10 12 12 14 13 13 14 14 14 15 15 15 13 16 16 14 17 -209 -209 -209 -209 -209 69 67 67 -193 -177 -193 -193 17 16 14 13 14 15 14 13 13 13 13 12 12 12 10 11 11 10 10 9 9 10 9 11 10 10 10 12 13 13 13 16 19 21 24 26 26 27 28 29 29 29 29 28 27 27 26 25 24 22 20 18 17 16 13 13 13 12 14 15 13 15 14 16 14 14 14 13 13 14 14 14 13 14 14 18 17 18 18 19 20 19 19 18 16 16 15 15 -177 -177 -177 71 73 66 63 61 60 61 68 69 71 72 74 75 75 76 83 86 85 86 88 92 91 91 92 92 91 92 93 93 91 92 93 92 93 93 94 96 103 105 106 108 110 112 113 116 -193 119 124 124 125 124 125 125 126 125 128 126 130 130 132 134 135 137 139 139 140 144 143 144 144 147 147 150 152 153 155 157 159 161 165 162 163 163 166 166 165 166 167 167 172 175 173 174 177 182 188 187 187 188 192 193 193 197 193 190 192 192 192 192 192 192 187 193 191 196 200 200 0 0 0 0 0
    0 0 0 0 0 0 0 0 0 0 0 0 0 0 0 0 0 0 0 0 0 0 0 0 0 0 0 0 0 0 0 0 0 0 0 0 0 0 0 0 0 0 0 0 0 0 0 0 0 0 0 0 0 0 0 0 0 0 0 0 0 0 0 0 0 0 0 0 0 10 10 10 9 9 9 9 9 10 10 13 13 13 13 13 14 14 14 15 15 15 14 17 15 14 18 -209 -209 -209 72 70 68 66 65 -193 -177 -177 -209 16 16 15 13 14 15 14 13 13 13 13 12 12 12 11 11 11 10 10 9 9 9 9 10 10 10 10 11 13 13 13 16 18 20 23 25 24 25 26 27 28 28 28 28 26 26 25 24 23 21 20 18 17 17 13 14 13 12 14 14 13 15 14 16 13 14 14 13 13 14 14 14 13 14 14 18 17 18 18 19 20 19 19 18 17 16 15 15 -193 -193 -177 71 72 63 62 60 60 60 70 71 73 73 74 74 75 75 81 84 83 83 87 91 90 90 92 92 91 93 93 93 91 93 94 92 92 93 93 96 105 106 107 110 112 112 114 116 117 119 123 123 125 125 125 125 126 126 129 127 131 132 134 136 137 139 140 140 141 146 144 145 145 147 147 150 152 154 155 158 160 162 165 163 164 164 167 166 165 166 167 167 172 174 172 173 175 182 187 188 188 188 191 193 193 197 193 190 191 192 192 192 192 192 187 191 190 193 198 199 0 0 0 0 0
    0 0 0 0 0 0 0 0 0 0 0 0 0 0 0 0 0 0 0 0 0 0 0 0 0 0 0 0 0 0 0 0 0 0 0 0 0 0 0 0 0 0 0 0 0 0 0 0 0 0 0 0 0 0 0 0 0 0 0 0 0 0 0 0 0 0 0 0 0 10 10 10 9 9 9 9 9 10 10 13 13 13 13 14 14 14 14 15 15 16 15 18 16 16 18 -209 -209 -177 71 70 68 66 65 64 -193 -177 -209 15 15 15 13 14 15 13 13 12 13 14 13 12 12 11 11 10 10 9 0 0 0 9 9 9 10 10 11 12 13 13 16 18 20 21 24 23 24 25 26 26 27 27 27 25 25 25 23 22 21 19 18 16 16 13 13 12 12 13 14 12 14 13 15 13 14 14 12 13 14 13 13 13 14 14 17 18 19 19 20 20 19 20 19 17 16 15 15 -193 -193 -193 71 71 61 61 59 61 60 70 72 73 73 74 74 74 74 79 81 81 80 86 89 89 89 91 91 91 93 93 93 92 93 94 92 91 92 92 99 108 109 109 111 111 112 113 115 117 119 123 123 124 124 125 125 126 125 129 127 132 132 134 137 137 140 141 140 142 146 145 146 145 148 147 150 153 154 156 158 161 164 166 164 164 165 167 167 166 166 167 167 171 173 171 171 173 181 186 188 188 189 191 192 192 196 193 191 191 192 192 191 192 192 187 190 190 193 198 200 0 0 0 0 0
    0 0 0 0 0 0 0 0 0 0 0 0 0 0 0 0 0 0 0 0 0 0 0 0 0 0 0 0 0 0 0 0 0 0 0 0 0 0 0 0 0 0 0 0 0 0 0 0 0 0 0 0 0 0 0 0 0 0 0 0 0 0 0 0 0 0 0 0 0 9 9 9 0 0 0 0 9 9 9 12 12 12 12 14 13 15 15 15 15 17 17 19 18 19 21 -177 59 69 70 68 67 66 64 63 -193 -209 -209 16 17 17 13 14 14 13 13 12 12 13 13 12 12 11 11 10 10 9 0 0 0 0 9 9 9 9 10 12 12 13 17 18 19 21 23 22 23 23 24 25 26 25 26 24 25 24 23 22 20 18 17 15 15 12 13 12 12 13 13 12 13 13 15 12 14 14 12 13 14 13 14 13 14 14 17 18 19 19 20 21 20 20 20 18 17 15 -177 -193 -193 -193 72 71 61 62 60 63 60 70 72 74 73 74 74 74 74 78 79 78 78 85 87 87 88 89 90 91 92 92 92 91 92 93 91 90 90 90 102 109 110 109 111 110 110 111 114 117 119 123 123 125 125 125 125 126 125 130 127 132 132 134 137 137 140 141 140 142 146 144 145 145 147 147 151 154 155 156 159 162 164 166 165 164 165 167 167 167 167 168 167 171 172 171 170 172 180 186 189 188 189 191 192 192 196 193 191 190 192 191 191 192 192 188 189 190 194 -193 -209 0 0 0 0 0
    0 0 0 0 0 0 0 0 0 0 0 0 0 0 0 0 0 0 0 0 0 0 0 0 0 0 0 0 0 0 0 0 0 0 0 0 0 0 0 0 0 0 0 0 0 0 0 0 0 0 0 0 0 0 0 0 0 0 0 0 0 0 0 0 0 0 0 0 0 9 9 9 9 0 0 0 0 9 9 12 11 12 12 15 14 15 16 17 17 19 18 20 20 -209 -193 -177 57 65 68 65 65 64 61 60 59 -209 -209 20 20 19 14 14 14 13 13 12 13 13 12 12 12 11 12 10 10 10 0 0 0 9 9 9 9 9 10 12 12 13 17 18 19 20 22 21 22 22 23 23 24 24 24 23 24 23 23 21 20 18 16 15 14 11 13 11 12 13 13 12 13 13 15 12 13 14 12 14 14 14 14 14 15 15 17 19 21 20 21 21 21 21 21 19 19 16 17 14 16 -193 -209 -193 57 61 59 62 60 69 72 73 72 74 73 73 73 77 77 77 76 83 85 85 86 87 87 90 91 90 90 90 91 92 91 90 89 88 99 108 109 109 110 110 111 112 114 117 119 123 123 125 125 125 125 126 125 130 127 132 132 135 137 137 140 141 140 142 146 144 145 145 147 147 150 153 155 156 159 162 164 166 165 165 166 168 168 167 167 167 167 170 171 170 169 172 180 185 191 188 189 191 192 192 196 194 191 190 192 191 191 192 192 188 188 190 193 -193 -193 0 0 0 0 0
    0 0 0 0 0 0 0 0 0 0 0 0 0 0 0 0 0 0 0 0 0 0 0 0 0 0 0 0 0 0 0 0 0 0 0 0 0 0 0 0 0 0 0 0 0 0 0 0 0 0 0 0 0 0 0 0 0 0 0 0 0 0 0 0 0 0 0 0 0 10 10 10 9 0 0 0 0 0 9 13 11 12 12 15 14 16 17 18 18 21 -193 -193 -209 -209 -209 -209 57 64 67 65 64 63 61 60 59 58 -209 -209 22 -193 14 15 14 12 13 12 13 13 13 13 12 12 12 11 11 10 0 9 9 9 9 9 9 10 10 12 12 13 16 18 18 18 20 19 20 21 21 22 23 23 24 23 24 23 22 20 20 17 15 14 13 11 13 11 12 13 12 12 13 13 15 12 14 14 12 15 15 14 15 13 16 16 18 20 22 21 22 22 22 21 22 21 21 19 20 19 21 22 -193 -177 50 59 57 60 60 63 69 70 70 72 71 72 72 76 76 75 75 82 83 83 84 85 85 89 90 89 89 90 92 92 91 89 88 87 97 106 108 108 110 109 110 111 113 116 119 123 123 125 125 125 125 126 126 130 127 132 132 135 137 137 140 140 140 141 146 144 145 144 147 146 150 154 155 156 159 162 165 166 166 165 166 167 167 167 167 167 167 170 170 170 170 172 179 184 191 189 189 191 192 192 195 194 191 190 192 192 192 192 192 188 188 189 190 -193 -193 0 0 0 0 0
    0 0 0 0 0 0 0 0 0 0 0 0 0 0 0 0 0 0 0 0 0 0 0 0 0 0 0 0 0 0 0 0 0 0 0 0 0 0 0 0 0 0 0 0 0 0 0 0 0 0 0 0 0 0 0 0 0 0 0 0 0 0 0 0 0 0 0 0 0 -193 12 11 11 10 0 0 0 0 9 12 11 12 12 15 14 16 17 18 18 21 -193 -193 -209 -193 -209 -209 58 63 67 65 64 63 61 61 60 59 -209 -193 621 -193 -193 15 14 12 13 12 13 13 13 13 13 12 13 11 12 12 9 10 10 10 10 10 10 11 10 12 12 12 15 16 16 17 19 18 20 21 21 21 22 23 24 23 23 23 22 19 19 17 15 13 13 11 13 11 11 12 12 12 13 13 15 12 14 15 12 16 16 14 15 13 15 15 19 20 23 22 23 22 22 21 22 22 22 22 23 22 24 25 34 -177 44 56 54 57 58 59 65 67 68 71 71 72 72 77 75 75 75 82 81 82 83 84 83 88 89 88 88 90 91 91 90 90 89 88 97 104 106 106 107 107 108 108 110 112 117 121 122 125 124 124 124 126 126 130 127 132 132 135 137 138 141 140 140 142 146 144 145 144 146 145 151 154 156 157 160 163 166 167 167 166 167 168 168 167 168 168 167 170 171 170 171 173 179 184 192 189 190 191 192 192 195 194 192 189 192 192 192 192 192 189 187 189 189 -193 -193 0 0 0 0 0
    0 0 0 0 0 0 0 0 0 0 0 0 0 0 0 0 0 0 0 0 0 0 0 0 0 0 0 0 0 0 0 0 0 0 0 0 0 0 0 0 0 0 0 0 0 0 0 0 0 0 0 0 0 0 0 0 0 0 0 0 0 0 0 0 0 0 0 0 0 102 -209 -193 12 11 0 0 0 0 9 12 11 12 11 14 14 16 17 18 19 22 345 345 -209 -193 -209 -209 -193 62 65 64 65 64 63 64 63 61 -193 -193 -193 -193 -177 -193 13 11 12 11 12 12 13 13 13 13 14 12 13 12 11 11 12 11 11 11 11 11 10 11 12 12 14 14 15 16 18 18 20 21 22 22 23 23 24 23 23 22 21 18 17 15 14 13 12 11 13 11 11 12 12 12 12 13 15 12 14 16 12 19 18 16 16 17 19 18 21 22 23 23 23 22 23 21 22 22 22 22 23 23 24 27 37 37 46 56 56 56 57 58 63 67 68 71 71 72 72 78 76 76 76 83 81 82 84 84 82 87 88 87 86 90 91 90 89 89 89 86 94 103 105 105 108 107 108 110 109 109 113 119 120 123 123 123 123 124 126 129 126 132 132 135 138 139 141 140 139 141 144 143 144 142 144 142 152 154 156 157 160 163 166 -193 167 167 168 168 168 168 169 168 168 171 171 171 171 173 177 183 193 189 190 191 192 192 194 195 192 189 191 191 191 191 191 189 187 189 189 -209 -209 0 0 0 0 0
    0 0 0 0 0 0 0 0 0 0 0 0 0 0 0 0 0 0 0 0 0 0 0 0 0 0 0 0 0 0 0 0 0 0 0 0 0 0 0 0 0 0 0 0 0 0 0 0 0 0 0 0 0 0 0 0 0 0 0 0 0 0 0 0 0 0 0 0 0 94 -193 87 -193 -209 0 0 0 0 0 11 11 11 11 14 14 16 18 19 19 -193 344 344 -209 -193 -209 -209 58 62 64 64 66 66 66 67 67 65 -193 -193 622 -193 -177 12 12 11 12 11 13 13 13 14 14 13 14 12 14 13 12 12 13 12 12 12 12 12 11 11 12 12 13 13 13 14 16 17 19 21 22 22 23 23 23 22 22 21 19 15 15 14 13 13 12 11 12 11 11 12 12 11 12 14 16 12 17 20 13 24 -193 -193 18 21 22 19 22 23 24 23 24 22 23 22 22 22 22 22 23 23 24 -193 -193 37 48 57 57 58 58 59 64 68 68 71 71 72 72 77 76 76 76 82 81 82 83 82 80 85 87 86 84 90 91 89 90 90 90 83 90 97 100 104 106 106 108 110 108 108 110 113 116 118 119 120 -193 123 126 128 126 132 133 136 140 140 142 140 139 141 143 142 143 140 141 140 151 153 -193 -209 -193 163 167 168 168 168 168 168 168 168 169 168 168 170 170 170 170 172 174 182 194 190 190 190 192 192 194 195 192 189 191 191 191 192 191 190 187 191 192 200 201 0 0 0 0 0
    0 0 0 0 0 0 0 0 0 0 0 0 0 0 0 0 0 0 0 0 0 0 0 0 0 0 0 0 0 0 0 0 0 0 0 0 0 0 0 0 0 0 0 0 0 0 0 0 0 0 0 0 0 0 0 0 0 0 0 0 0 0 0 0 0 0 0 0 0 86 77 80 81 77 -177 0 0 0 0 10 11 11 11 14 14 17 18 19 20 23 -209 -177 -209 -193 -209 -193 60 63 65 66 67 68 69 69 69 67 65 -209 624 622 -209 12 13 12 12 11 13 13 14 14 14 13 14 12 14 13 13 12 13 12 12 12 12 12 11 11 12 12 13 13 13 13 15 16 19 21 22 23 23 23 23 23 22 21 18 14 13 13 12 12 11 11 12 10 11 11 12 12 13 14 16 13 19 22 18 26 -193 -209 19 22 23 21 23 23 24 24 24 23 23 22 22 22 21 22 23 22 24 -193 -193 -193 51 57 58 60 60 64 68 70 71 72 72 72 72 76 76 75 76 82 80 81 82 82 80 84 87 87 84 90 91 91 91 91 91 -209 86 83 84 86 -193 96 -193 109 106 108 107 109 110 111 112 114 116 121 126 128 129 134 134 136 139 141 142 140 139 140 142 141 143 140 140 138 -193 -193 -209 -209 -209 164 169 168 168 168 169 168 168 168 169 168 168 170 170 169 170 171 172 181 194 190 190 190 192 192 193 196 192 189 191 192 192 193 192 192 188 195 195 201 201 0 0 0 0 0
    0 0 0 0 0 0 0 0 0 0 0 0 0 0 0 0 0 0 0 0 0 0 0 0 0 0 0 0 0 0 0 0 0 0 0 0 0 0 0 0 0 0 0 0 0 0 0 0 0 0 0 0 0 0 0 0 0 0 0 0 0 0 0 0 0 0 0 0 0 81 76 78 79 77 77 76 -209 0 0 0 10 11 11 12 14 17 19 19 20 24 -193 -209 -209 -209 -193 58 61 64 67 66 68 69 70 71 71 -193 -193 -193 -177 622 -193 11 13 12 12 11 13 13 14 14 14 14 14 13 15 14 14 13 14 13 13 12 13 12 12 12 13 13 14 14 14 14 16 16 20 22 23 24 24 24 24 23 23 23 18 14 12 12 12 11 11 10 11 10 10 11 11 11 12 13 14 13 16 21 16 23 -193 -209 11 19 25 -193 -193 23 25 24 24 23 23 22 21 21 21 22 23 22 -193 60 -193 -193 53 57 59 61 61 67 69 70 71 72 72 73 72 76 76 76 76 81 80 80 82 81 80 84 86 87 86 90 91 91 92 92 91 90 89 87 88 90 91 -209 -209 -193 -193 -209 -209 107 107 106 107 108 109 116 119 120 126 135 133 136 138 140 140 138 -193 -209 -209 -209 -209 -209 -209 -209 -209 -209 -209 119 -209 -209 -209 170 170 169 170 168 168 168 169 167 168 169 169 169 170 171 170 180 193 189 190 190 192 192 193 196 192 189 192 193 193 194 193 194 189 196 197 201 201 0 0 0 0 0
    0 0 0 0 0 0 0 0 0 0 0 0 0 0 0 0 0 0 0 0 0 0 0 0 0 0 0 0 0 0 0 0 0 0 0 0 0 0 0 0 0 0 0 0 0 0 0 0 0 0 0 0 0 0 0 0 0 0 0 0 0 0 0 0 0 0 0 0 0 76 74 76 77 77 77 77 77 -193 -209 -193 10 11 10 12 14 17 19 19 21 24 -209 -209 -209 -209 56 58 61 64 66 66 68 69 70 71 72 -193 -209 -193 -177 -177 -193 11 13 13 12 12 14 13 14 15 15 14 15 15 16 15 15 14 15 14 13 13 13 13 12 12 13 13 14 14 14 14 17 17 21 24 25 25 25 25 25 24 24 25 19 15 11 12 12 12 12 11 11 10 11 11 12 11 13 14 14 14 15 20 19 22 -193 -209 13 19 25 -193 42 -193 29 -193 24 -193 23 22 21 21 21 22 23 -193 -193 60 -193 -193 53 57 59 62 61 67 68 69 71 72 72 73 73 77 76 76 77 81 80 80 81 81 80 84 86 88 87 90 92 92 92 92 91 90 89 89 92 93 95 97 101 104 102 105 105 105 105 105 105 106 109 117 120 122 129 133 133 136 138 137 139 -209 -209 -209 -209 -209 -209 -209 -209 -209 -209 -209 -209 -209 -209 -193 -209 -209 -209 -209 -209 166 166 167 169 167 167 169 169 169 170 172 172 180 191 189 189 190 192 192 192 196 192 189 192 193 194 194 194 194 189 197 197 201 200 0 0 0 0 0
    0 0 0 0 0 0 0 0 0 0 0 0 0 0 0 0 0 0 0 0 0 0 0 0 0 0 0 0 0 0 0 0 0 0 0 0 0 0 0 0 0 0 0 0 0 0 0 0 0 0 0 0 0 0 0 0 0 0 0 0 0 0 0 0 0 0 0 0 0 73 73 74 75 76 78 78 78 -193 245 -193 -193 12 11 12 15 18 20 -193 21 -209 -193 -193 -193 58 57 58 62 65 66 66 68 69 70 71 72 -209 -209 -177 -177 -177 -209 11 15 15 13 12 14 13 15 15 15 14 15 15 16 15 16 14 15 14 14 13 13 13 12 13 14 13 14 14 15 14 18 18 21 26 26 27 25 26 26 25 25 26 19 17 12 13 13 13 12 12 12 11 11 11 11 10 12 14 13 13 15 15 18 20 20 11 10 17 22 -193 -193 44 34 -193 24 -193 23 21 21 20 21 22 -193 -193 -193 59 -193 -193 54 57 59 62 61 66 67 68 70 71 71 73 73 77 77 77 77 81 80 80 81 81 81 84 86 89 88 91 92 92 92 92 91 90 89 91 93 95 98 99 101 103 102 104 106 105 105 105 105 106 108 115 118 119 123 125 128 132 134 134 -193 -209 -209 -209 -209 -209 -209 60 60 -209 -209 -209 -209 -209 -209 -209 -209 -209 -209 -209 -209 165 165 166 168 167 167 169 169 169 171 173 173 179 189 188 189 190 192 192 192 196 192 189 192 193 194 194 194 195 189 197 197 200 201 0 0 0 0 0
    0 0 0 0 0 0 0 0 0 0 0 0 0 0 0 0 0 0 0 0 0 0 0 0 0 0 0 0 0 0 0 0 0 0 0 0 0 0 0 0 0 0 0 0 0 0 0 0 0 0 0 0 0 0 0 0 0 0 0 0 0 0 0 0 0 0 0 0 0 73 72 74 74 76 78 79 79 80 -193 -193 -193 -209 12 12 16 19 20 -209 -193 -209 -209 47 57 59 58 60 64 67 67 67 69 69 70 72 72 -193 -193 -209 -209 -193 -209 11 15 15 13 12 14 13 15 16 16 14 15 15 16 15 16 14 15 14 14 13 13 13 13 13 14 14 14 14 15 15 18 19 22 27 26 27 26 26 26 25 25 26 19 18 12 14 14 13 13 12 12 11 12 12 12 10 13 14 12 12 14 13 16 18 17 10 10 15 19 18 24 23 26 -193 23 22 23 21 20 21 21 23 -193 -193 -193 59 56 57 54 56 58 61 61 66 67 67 69 70 71 72 73 76 77 77 78 81 80 80 81 82 82 85 87 90 89 91 92 92 92 92 91 90 89 90 93 96 99 99 101 103 102 102 105 105 105 105 105 106 108 114 117 120 123 124 126 127 131 131 134 -193 -209 -209 -209 -209 -209 62 61 -193 -209 -209 -193 -209 -209 -209 -209 -193 -209 -209 -209 164 164 166 168 167 168 170 170 170 172 173 173 179 188 188 189 190 192 192 192 196 192 189 192 193 194 194 195 195 190 198 198 201 201 0 0 0 0 0
    0 0 0 0 0 0 0 0 0 0 0 0 0 0 0 0 0 0 0 0 0 0 0 0 0 0 0 0 0 0 0 0 0 0 0 0 0 0 0 0 0 0 0 0 0 0 0 0 0 0 0 0 0 0 0 0 0 0 0 0 0 0 0 0 0 0 0 0 0 73 72 73 74 76 79 80 81 81 81 82 83 83 -209 14 18 21 21 -209 23 -193 36 48 59 62 60 61 66 67 67 67 69 69 70 72 74 75 73 75 -193 -209 -209 11 16 16 14 13 15 14 16 16 16 14 14 16 16 15 16 14 15 14 14 13 13 14 14 14 14 14 15 15 16 16 19 19 22 27 26 27 25 25 26 25 25 25 18 18 13 14 15 14 14 13 13 13 13 14 13 11 13 13 12 12 13 11 13 14 16 9 10 14 16 16 22 20 23 23 24 22 23 21 20 21 21 23 -177 -177 58 57 55 56 54 55 57 61 61 67 68 68 70 71 71 73 73 76 77 77 78 80 79 80 82 82 84 86 88 91 90 92 92 92 92 92 92 91 89 90 93 95 98 99 101 104 101 101 105 104 105 104 104 105 107 116 121 123 128 128 130 129 131 -193 -193 -209 -209 -209 -209 -209 63 64 64 57 60 -209 -193 -209 -209 -209 -209 -209 -209 -193 -209 164 164 165 168 167 168 170 170 170 172 174 174 179 188 188 189 189 192 192 192 196 192 190 193 194 194 195 195 196 192 199 199 201 201 0 0 0 0 0
    0 0 0 0 0 0 0 0 0 0 0 0 0 0 0 0 0 0 0 0 0 0 0 0 0 0 0 0 0 0 0 0 0 0 0 0 0 0 0 0 0 0 0 0 0 0 0 0 0 0 0 0 0 0 0 0 0 0 0 0 0 0 0 0 0 0 0 0 0 73 72 73 74 76 80 82 81 82 83 83 83 84 83 17 21 -193 -209 -209 -209 -209 37 52 60 64 62 63 66 68 67 67 69 70 70 72 75 77 76 -193 0 0 0 10 16 16 14 14 16 14 16 16 16 14 14 16 16 15 17 14 15 14 15 14 14 14 14 14 14 14 16 15 16 17 19 20 22 27 25 26 24 25 25 24 24 24 17 19 13 16 16 15 15 14 14 14 13 14 13 12 13 13 11 11 12 11 11 12 13 0 10 14 15 15 18 18 22 21 -225 20 23 21 19 21 -193 -193 59 59 56 55 54 55 54 54 57 62 -193 68 70 69 70 72 72 73 74 75 76 77 78 79 79 80 81 82 85 86 88 91 91 92 93 92 92 93 92 92 90 90 94 96 101 101 103 105 103 105 108 107 108 108 107 110 113 119 122 125 131 132 132 131 132 132 -193 -209 -209 -209 -193 -209 69 69 69 61 62 -193 -209 -209 -209 -209 -193 162 -193 166 -209 164 164 165 168 166 167 169 169 169 172 174 174 179 188 188 189 189 192 192 192 196 192 189 192 194 195 195 196 197 193 199 199 201 201 0 0 0 0 0
    0 0 0 0 0 0 0 0 0 0 0 0 0 0 0 0 0 0 0 0 0 0 0 0 0 0 0 0 0 0 0 0 0 0 0 0 0 0 0 0 0 0 0 0 0 0 0 0 0 0 0 0 0 0 0 0 0 0 0 0 0 0 0 0 0 0 0 0 0 73 72 73 75 78 83 83 83 83 84 85 84 84 83 81 23 -193 -209 -209 -209 -209 -193 54 60 66 63 64 67 68 68 67 69 70 69 72 76 78 77 -193 0 0 0 11 17 18 15 16 17 15 17 17 18 16 15 17 17 16 17 16 17 15 17 16 15 16 16 16 16 16 18 17 18 18 20 20 22 27 25 25 24 24 24 23 23 23 17 20 14 17 17 16 16 15 15 16 14 15 14 13 15 15 13 13 13 12 13 14 13 10 11 13 12 12 15 14 16 -225 -225 -225 -225 -225 20 23 67 -209 53 56 52 53 52 53 53 52 57 62 -209 67 70 69 70 72 72 74 74 75 76 77 78 78 78 79 80 82 85 86 88 91 91 92 92 92 92 92 92 92 90 90 95 96 101 103 105 106 106 107 112 113 113 117 118 120 120 122 124 126 132 133 133 132 133 133 133 133 -209 -209 -209 -209 -209 71 70 64 65 64 63 69 -209 -209 -193 -193 161 165 168 163 163 165 168 166 167 169 169 169 172 173 173 179 188 188 189 188 191 191 191 196 192 189 192 194 195 195 196 197 193 199 199 200 201 0 0 0 0 0
    0 0 0 0 0 0 0 0 0 0 0 0 0 0 0 0 0 0 0 0 0 0 0 0 0 0 0 0 0 0 0 0 0 0 0 0 0 0 0 0 0 0 0 0 0 0 0 0 0 0 0 0 0 0 0 0 0 0 0 0 0 0 0 0 0 0 0 0 0 73 73 73 76 80 85 85 84 84 84 85 83 82 81 77 -209 -209 -209 -209 -209 -193 -193 54 59 68 64 65 67 68 68 67 69 69 68 71 75 76 75 76 -193 14 11 14 19 19 17 17 18 16 18 18 19 18 18 20 19 19 20 20 20 18 19 17 19 18 17 18 17 17 19 19 20 20 22 22 23 28 25 25 24 24 24 23 24 24 18 21 16 19 19 17 17 15 14 17 16 18 16 17 20 18 17 16 16 16 15 16 14 11 13 15 15 16 16 19 22 21 -225 -225 -225 -225 -225 33 62 44 46 51 49 50 49 51 52 52 57 60 -193 65 68 67 69 71 71 73 74 75 76 76 77 78 78 79 80 81 86 86 88 91 92 92 92 92 92 92 92 93 92 92 98 99 102 104 106 107 107 109 115 116 118 121 122 123 124 125 125 127 133 132 132 132 132 131 132 131 -209 -193 -193 -209 -209 -209 -209 -209 65 66 -177 -177 -209 -177 -193 156 158 164 167 163 163 165 167 166 167 169 170 170 172 174 174 179 188 188 188 188 190 191 191 196 192 189 192 194 194 195 195 197 193 198 199 200 200 0 0 0 0 0
    0 0 0 0 0 0 0 0 0 0 0 0 0 0 0 0 0 0 0 0 0 0 0 0 0 0 0 0 0 0 0 0 0 0 0 0 0 0 0 0 0 0 0 0 0 0 0 0 0 0 0 0 0 0 0 0 0 0 0 0 0 0 0 0 0 0 0 0 0 80 74 74 76 82 86 87 85 85 84 84 84 83 81 78 74 74 -193 -209 -209 -209 -209 59 61 69 65 65 66 68 68 67 69 69 67 71 74 75 74 74 75 21 14 16 20 20 18 18 19 17 19 19 20 19 20 21 21 20 22 22 22 21 22 20 22 20 20 20 19 20 21 21 22 22 23 23 24 27 25 25 24 23 24 23 23 24 18 21 17 19 20 18 18 17 16 20 19 20 20 20 23 21 21 20 19 19 18 18 16 12 14 17 19 19 20 20 24 24 26 -225 -225 -225 -225 -225 54 44 45 49 48 48 48 49 51 50 56 58 59 63 66 65 68 70 70 73 73 74 75 76 77 77 77 78 79 81 85 85 87 89 91 91 92 92 91 92 93 95 95 95 100 101 102 103 105 106 107 110 115 118 119 121 122 123 125 125 124 127 133 132 133 132 132 132 132 131 -209 124 -193 -209 -209 -209 -209 -193 -193 -193 -209 -209 -209 -193 -193 155 156 163 167 163 164 166 168 166 167 170 170 170 172 174 174 179 188 188 188 188 190 190 190 196 192 190 191 194 194 194 195 197 193 198 199 199 200 0 0 0 0 0
    0 0 0 0 0 0 0 0 0 0 0 0 0 0 0 0 0 0 0 0 0 0 0 0 0 0 0 0 0 0 0 0 0 0 0 0 0 0 0 0 0 0 0 0 0 0 0 0 0 0 0 0 0 0 0 0 0 0 0 0 0 0 0 0 0 0 0 0 0 87 74 74 75 80 87 87 86 85 83 84 84 84 82 79 76 77 77 84 78 73 74 69 68 69 67 66 66 67 67 67 69 68 67 69 73 74 72 74 74 30 21 20 22 20 19 19 20 18 20 20 21 20 21 21 22 21 23 23 24 23 24 23 24 23 23 23 21 22 23 24 25 24 25 25 24 27 25 24 23 23 23 22 23 23 18 22 18 20 21 20 20 20 19 22 22 22 23 22 24 23 22 22 21 21 21 20 19 13 17 19 21 21 21 21 24 25 27 28 -225 -225 -225 -225 -225 45 45 49 47 48 47 48 49 49 56 56 58 61 64 64 67 70 69 72 72 73 74 75 77 77 77 78 79 82 86 86 88 88 90 90 91 92 91 91 93 95 96 96 100 101 102 104 106 107 108 113 115 117 118 120 122 123 124 123 123 126 133 132 133 132 134 135 -193 -193 -193 -193 -193 -193 -193 -193 -193 141 -193 144 148 148 149 -209 -193 155 155 163 167 163 164 167 168 167 167 170 170 170 172 174 174 178 187 188 188 187 189 190 190 196 192 190 191 193 194 193 195 197 193 198 199 199 200 0 0 0 0 0
    0 0 0 0 0 0 0 0 0 0 0 0 0 0 0 0 0 0 0 0 0 0 0 0 0 0 0 0 0 0 0 0 0 0 0 0 0 0 0 0 0 0 0 0 0 0 0 0 0 0 0 0 0 0 0 0 0 0 0 0 0 0 0 0 0 0 0 0 0 87 75 74 76 81 87 88 86 87 85 85 85 84 83 82 78 80 80 88 88 87 86 -193 -209 -193 69 68 67 67 68 66 69 67 65 68 71 72 70 73 -193 34 25 23 23 21 21 20 21 20 21 21 22 21 22 22 22 22 24 25 25 25 25 25 25 25 25 26 24 25 25 26 26 26 26 25 25 27 24 24 23 22 22 21 22 23 18 22 19 22 23 22 23 23 22 24 23 23 24 23 24 23 23 23 22 22 22 21 20 14 18 20 22 22 22 22 24 25 26 28 -225 -225 -225 -225 -225 46 46 49 48 48 47 48 49 46 55 56 57 61 63 63 65 69 68 71 71 72 74 74 76 76 76 78 79 82 85 85 87 87 89 89 90 91 89 91 93 94 94 95 97 99 100 103 105 108 109 116 117 118 119 120 123 124 125 125 123 126 132 133 134 132 133 133 134 -193 -193 -193 -193 139 141 143 142 141 142 142 146 147 149 150 154 155 156 161 166 163 164 167 167 166 167 169 170 170 172 172 172 176 186 188 187 187 189 190 190 195 192 190 190 192 193 193 194 197 193 198 199 199 201 0 0 0 0 0
    0 0 0 0 0 0 0 0 0 0 0 0 0 0 0 0 0 0 0 0 0 0 0 0 0 0 0 0 0 0 0 0 0 0 0 0 0 0 0 0 0 0 0 0 0 0 0 0 0 0 0 0 0 0 0 0 0 0 0 0 0 0 0 0 0 0 0 0 0 -193 75 74 76 80 87 88 86 87 85 85 85 85 85 83 79 82 82 88 89 90 89 -193 90 90 -193 69 68 68 69 66 68 66 65 67 70 71 69 73 -209 35 30 25 24 22 22 22 23 21 22 22 23 22 23 22 23 22 25 26 25 26 26 25 26 26 26 27 25 26 27 28 28 27 27 26 26 27 25 24 22 21 22 21 22 22 19 23 20 23 26 24 25 25 25 26 24 24 24 24 25 24 23 23 23 23 23 21 21 15 19 21 22 23 23 22 24 25 26 28 -225 -225 -225 -225 -225 47 47 49 49 48 47 49 49 46 56 55 57 60 62 62 64 68 68 70 71 71 73 74 75 75 76 77 78 81 84 85 87 87 89 88 89 90 89 91 93 94 94 96 98 99 99 103 105 108 111 118 118 119 119 120 123 125 129 131 127 131 135 136 136 134 134 134 133 136 138 138 -193 139 142 143 142 142 142 141 144 146 148 -193 155 156 157 162 165 163 163 166 166 166 166 169 170 170 171 172 -193 175 185 187 187 187 189 190 190 195 192 190 189 192 193 192 194 197 193 198 199 199 200 0 0 0 0 0
    0 0 0 0 0 0 0 0 0 0 0 0 0 0 0 0 0 0 0 0 0 0 0 0 0 0 0 0 0 0 0 0 0 0 0 0 0 0 0 0 0 0 0 0 0 0 0 0 0 0 0 0 0 0 0 0 0 0 0 0 0 0 0 0 0 0 0 0 0 -193 74 73 75 77 85 87 86 87 84 84 84 84 83 82 79 82 81 88 89 90 90 93 92 92 94 -193 68 68 70 67 68 66 65 67 70 70 69 73 -209 35 31 27 25 22 23 22 23 22 23 22 23 23 23 23 23 23 25 26 25 25 26 25 26 26 27 27 26 27 28 29 28 28 28 27 26 27 26 25 23 21 22 21 22 22 20 23 21 24 27 27 27 27 28 29 27 25 28 25 27 25 24 24 23 24 23 22 21 15 19 21 23 24 23 23 24 25 26 28 -225 -225 -225 -225 -225 48 48 49 49 49 48 50 50 47 57 57 58 60 61 62 64 67 67 70 70 71 72 74 75 75 76 77 78 80 84 84 86 87 88 88 89 91 90 91 93 95 95 97 99 100 100 104 106 108 113 118 119 119 119 119 123 126 132 134 132 135 137 138 137 136 135 134 133 135 137 137 137 139 141 143 142 142 142 141 145 148 150 153 155 157 158 162 165 164 164 167 166 166 166 169 171 170 171 172 172 175 184 188 187 187 189 190 190 195 192 190 189 191 193 192 193 196 193 197 199 198 200 0 0 0 0 0
    0 0 0 0 0 0 0 0 0 0 0 0 0 0 0 0 0 0 0 0 0 0 0 0 0 0 0 0 0 0 0 0 0 0 0 0 0 0 0 0 0 0 0 0 0 0 0 0 0 0 0 0 0 0 0 0 0 0 0 0 0 0 0 0 0 0 0 0 0 91 81 79 77 78 85 87 86 87 84 84 84 83 82 80 78 80 78 87 89 89 89 93 93 93 94 -193 68 67 69 66 67 65 64 66 69 69 67 72 -209 36 32 28 26 23 23 23 24 22 23 23 24 23 23 23 23 23 25 26 25 25 26 25 26 26 27 28 27 28 29 30 29 29 29 28 27 27 27 26 23 22 22 21 22 23 21 24 22 25 29 28 28 28 29 31 31 27 31 27 29 26 25 25 24 24 24 22 21 15 20 21 23 24 24 25 25 26 27 28 -225 -225 -225 -225 -225 47 47 48 49 49 48 51 51 48 57 57 58 59 59 60 62 65 66 70 70 71 72 74 75 75 76 78 78 81 84 84 86 87 88 88 89 91 90 92 93 95 95 97 98 100 100 103 105 108 113 118 119 119 119 119 125 128 134 134 132 134 136 136 135 134 134 132 131 134 137 137 138 139 142 143 143 143 143 141 147 149 150 153 155 156 156 161 164 163 164 167 166 166 166 169 171 171 172 172 172 175 184 188 187 187 189 190 190 194 193 191 189 191 192 192 193 196 193 195 198 198 200 0 0 0 0 0
    0 0 0 0 0 0 0 0 0 0 0 0 0 0 0 0 0 0 0 0 0 0 0 0 0 0 0 0 0 0 0 0 0 0 0 0 0 0 0 0 0 0 0 0 0 0 0 0 0 0 0 0 0 0 0 0 0 0 0 0 0 0 0 0 0 0 0 0 0 94 86 86 75 78 84 86 86 87 85 84 84 83 81 80 78 79 77 85 87 -193 89 93 93 92 93 -193 67 67 68 66 64 64 63 65 68 66 64 71 -193 37 34 30 27 23 24 23 24 23 23 23 24 23 24 23 24 24 25 26 25 25 26 25 26 26 27 28 27 28 29 30 30 29 29 29 28 28 30 28 25 23 23 23 24 -193 -209 24 23 24 29 27 27 27 27 29 32 28 34 28 30 27 26 26 25 25 25 22 22 17 20 22 24 25 25 25 26 28 28 30 -225 -225 -225 -225 -225 47 46 47 47 47 46 51 50 48 56 57 58 59 59 60 62 65 66 69 70 71 72 73 75 75 76 78 78 81 83 84 86 87 88 89 90 91 91 93 93 96 96 98 100 101 100 103 105 108 110 117 118 118 119 -193 126 129 134 134 132 132 133 132 132 131 131 128 128 132 137 138 138 139 142 143 143 143 142 140 144 146 148 152 154 155 156 160 162 162 163 166 165 165 166 169 172 171 172 172 172 176 184 189 187 187 189 190 190 194 193 191 189 191 192 192 192 196 194 194 198 198 200 0 0 0 0 0
    0 0 0 0 0 0 0 0 0 0 0 0 0 0 0 0 0 0 0 0 0 0 0 0 0 0 0 0 0 0 0 0 0 0 0 0 0 0 0 0 0 0 0 0 0 0 0 0 0 0 0 0 0 0 0 0 0 0 0 0 0 0 0 0 0 0 0 0 0 96 88 89 80 75 80 85 84 87 84 83 83 82 81 80 78 79 76 83 86 83 89 92 92 91 93 -193 67 66 67 65 63 63 63 65 67 64 63 71 -209 38 35 30 27 23 24 23 24 23 24 23 24 23 24 24 24 25 26 27 26 26 27 26 27 26 27 28 27 28 28 30 29 29 29 29 28 29 32 29 27 24 24 -193 -209 -177 -193 -209 23 24 28 27 26 27 27 31 35 29 35 29 31 27 26 26 26 26 26 23 22 18 22 23 26 26 25 26 27 29 30 32 -225 -225 -225 -225 -225 47 45 45 47 46 46 50 50 49 55 58 58 60 60 61 64 66 67 70 70 71 72 73 74 75 76 78 78 82 84 86 87 88 89 90 91 92 92 94 94 96 96 98 99 100 99 102 102 105 107 112 113 115 118 119 124 126 129 130 128 128 130 128 129 128 128 128 129 133 137 138 138 140 142 143 143 143 143 142 145 147 149 152 153 154 156 158 160 161 159 165 164 164 165 168 172 171 172 172 172 175 184 189 187 187 189 190 190 193 194 191 189 192 192 192 193 196 194 194 198 198 201 0 0 0 0 0
    0 0 0 0 0 0 0 0 0 0 0 0 0 0 0 0 0 0 0 0 0 0 0 0 0 0 0 0 0 0 0 0 0 0 0 0 0 0 0 0 0 0 0 0 0 0 0 0 0 0 0 0 0 0 0 0 0 0 0 0 0 0 0 0 0 0 0 0 0 100 89 88 78 75 77 83 83 87 84 83 85 83 82 81 79 79 77 82 84 79 88 92 92 -193 92 -193 67 65 66 65 61 62 62 64 67 65 63 73 -209 -193 37 30 27 23 25 23 24 23 24 24 24 24 24 24 26 26 27 29 28 28 28 28 28 27 27 28 27 27 27 29 29 28 29 28 28 29 32 30 28 22 -209 -209 -209 109 115 114 -209 19 28 27 26 28 30 32 33 29 35 30 30 27 26 26 26 26 27 23 23 19 23 24 27 27 26 25 26 28 29 -225 -225 -225 -225 -225 -225 50 46 46 47 46 45 51 51 50 54 57 58 59 59 61 64 66 68 70 70 71 72 74 74 75 76 78 79 83 85 86 87 88 89 90 90 92 92 93 92 93 93 95 96 98 96 101 101 103 105 107 107 109 108 111 117 117 121 124 123 123 124 125 126 125 126 127 128 133 136 138 138 140 143 144 143 143 144 142 146 148 149 153 153 155 156 158 159 160 158 165 163 163 165 168 172 172 172 172 172 175 183 188 187 187 189 190 190 193 194 191 189 192 192 192 193 196 195 194 198 198 201 0 0 0 0 0
    0 0 0 0 0 0 0 0 0 0 0 0 0 0 0 0 0 0 0 0 0 0 0 0 0 0 0 0 0 0 0 0 0 0 0 0 0 0 0 0 0 0 0 0 0 0 0 0 0 0 0 0 0 0 0 0 0 0 0 0 0 0 0 0 0 0 0 0 0 101 94 91 85 75 78 83 84 87 85 84 86 83 82 81 80 79 77 81 83 77 87 92 92 -193 92 -193 67 65 66 65 61 62 62 64 67 66 64 73 -209 -209 -209 30 27 23 25 23 25 24 25 25 26 25 25 25 29 31 32 35 33 33 32 -193 -193 -193 28 28 27 27 26 28 28 28 29 28 28 30 33 31 27 -193 59 69 68 -193 -209 -193 -209 -209 -209 -193 28 31 33 33 28 28 35 29 29 26 25 25 25 26 27 24 24 21 24 25 28 27 26 25 25 26 -225 -225 -225 -225 -225 -225 -225 55 51 51 51 50 48 52 52 51 53 57 58 59 59 60 64 66 68 70 71 72 73 74 75 76 77 79 80 84 85 86 87 88 89 90 90 91 91 92 92 92 92 92 93 97 94 101 102 105 107 107 108 108 107 109 111 112 117 -193 -209 120 122 122 123 123 124 124 125 130 134 137 138 139 142 143 143 143 144 142 146 147 149 152 153 155 157 158 159 160 158 163 162 160 164 167 172 172 172 172 173 176 183 188 187 187 189 191 191 193 195 191 189 192 192 192 193 196 195 193 198 198 201 0 0 0 0 0
    0 0 0 0 0 0 0 0 0 0 0 0 0 0 0 0 0 0 0 0 0 0 0 0 0 0 0 0 0 0 0 0 0 0 0 0 0 0 0 0 0 0 0 0 0 0 0 0 0 0 0 0 0 0 0 0 0 0 0 0 0 0 0 0 0 0 0 0 0 101 100 99 92 83 85 86 87 88 86 85 86 83 82 80 79 79 77 80 81 75 86 91 92 -209 91 -193 68 66 67 65 61 62 62 65 68 66 66 71 -193 75 -193 -193 26 23 24 23 25 25 27 28 27 27 26 -225 -225 -225 -209 -209 -193 37 36 35 -193 27 27 28 27 26 25 27 27 28 29 29 29 30 34 33 -177 -177 60 68 69 -193 -209 -193 -209 -209 107 -225 -225 -225 -225 -225 -225 -225 -225 -225 -193 -209 25 25 25 -225 -225 -225 -225 -225 -225 -225 -225 -225 -225 -225 -225 -225 -225 -225 -225 -225 -225 -225 69 57 53 53 53 52 51 53 53 51 52 57 59 60 59 60 64 65 68 70 71 72 73 75 75 76 77 79 80 83 85 86 87 88 89 90 90 91 92 92 92 92 92 93 95 97 96 100 103 105 107 107 107 108 106 108 109 110 117 -193 -209 120 122 122 123 123 123 123 124 126 130 132 135 137 140 141 142 143 143 141 144 146 149 153 153 155 156 157 157 159 157 159 159 157 162 167 -193 173 173 173 174 178 183 189 187 187 189 191 191 192 195 191 189 192 192 192 193 196 194 192 197 198 -193 0 0 0 0 0
    0 0 0 0 0 0 0 0 0 0 0 0 0 0 0 0 0 0 0 0 0 0 0 0 0 0 0 0 0 0 0 0 0 0 0 0 0 0 0 0 0 0 0 0 0 0 0 0 0 0 0 0 0 0 0 0 0 0 0 0 0 0 0 0 0 0 0 0 0 102 101 99 94 86 87 87 87 88 85 84 86 82 80 79 79 77 76 77 78 73 81 89 -193 -209 64 69 68 66 66 66 61 63 63 66 68 66 69 70 71 75 -193 -193 27 25 23 23 23 26 -209 -193 -193 -193 42 41 50 -225 59 59 59 54 43 39 -193 28 26 26 27 24 23 25 -225 -225 -225 -225 -225 -225 -225 -225 -225 -225 -225 -225 -225 -225 -225 -225 -225 -225 -225 -225 -225 -225 -225 -225 -225 -225 -225 -225 -225 -225 -225 -225 -225 -225 -225 -225 -225 -225 -225 -225 -225 -225 -225 -225 -225 -225 -225 -225 -225 -225 -225 66 65 59 55 55 55 54 53 54 54 52 53 57 58 59 59 60 64 66 68 70 71 72 73 75 76 76 77 79 81 84 85 86 87 88 89 90 91 92 93 93 93 93 93 94 98 100 99 102 104 105 108 107 108 108 107 108 109 110 118 -193 121 120 122 122 122 123 123 123 124 125 128 129 134 137 139 140 141 142 143 141 145 146 149 153 153 155 155 158 158 161 158 159 159 157 161 166 -209 174 175 175 179 181 184 189 187 187 189 190 190 191 195 190 189 192 192 193 193 196 195 192 197 198 -193 0 0 0 0 0
    0 0 0 0 0 0 0 0 0 0 0 0 0 0 0 0 0 0 0 0 0 0 0 0 0 0 0 0 0 0 0 0 0 0 0 0 0 0 0 0 0 0 0 0 0 0 0 0 0 0 0 0 0 0 0 0 0 0 0 0 0 0 0 0 0 0 0 0 0 101 100 99 94 87 87 87 88 88 85 84 86 81 79 78 78 76 75 76 76 68 73 76 67 62 63 66 68 65 65 65 61 63 63 66 68 67 69 70 70 75 -193 76 76 -209 -225 -225 -225 -225 -225 -193 64 65 62 56 55 57 60 58 59 56 50 42 55 29 26 26 25 20 14 -225 -225 -225 -225 -225 -225 -225 -225 -225 -225 -225 -225 -225 -225 -225 -225 -225 -225 -225 -225 -225 -225 -225 -225 -225 -225 -225 -225 -225 -225 -225 -225 -225 -225 -225 -225 -225 -225 -225 -225 -225 -225 -225 -225 -225 -225 -225 -225 -225 -225 -225 61 64 61 59 56 56 56 56 54 55 54 54 53 57 58 59 59 60 65 66 69 70 72 72 74 75 76 76 77 79 81 83 85 86 87 87 89 90 91 92 93 94 93 93 93 94 99 100 101 103 104 106 108 108 108 108 107 108 108 109 115 116 121 119 121 121 121 122 122 123 123 124 126 126 135 137 139 140 140 142 143 142 145 145 148 152 152 154 155 156 157 161 158 158 158 157 161 166 -209 -193 178 179 182 183 186 190 187 187 188 189 190 190 195 190 189 193 192 193 193 196 195 192 198 198 -193 0 0 0 0 0
    0 0 0 0 0 0 0 0 0 0 0 0 0 0 0 0 0 0 0 0 0 0 0 0 0 0 0 0 0 0 0 0 0 0 0 0 0 0 0 0 0 0 0 0 0 0 0 0 0 0 0 0 0 0 0 0 0 0 0 0 0 0 0 0 0 0 0 0 0 101 100 100 96 88 88 89 89 89 87 86 87 82 78 78 78 75 75 75 75 67 70 71 64 60 61 62 67 64 64 65 61 63 63 66 68 66 69 70 69 74 -193 -193 75 -225 -225 68 71 70 72 71 66 66 65 57 56 57 60 59 59 57 52 42 55 29 26 26 25 20 14 -225 -225 -225 -225 -225 -225 -225 -225 -225 -225 -225 -225 -225 -225 -225 -225 -225 -225 -225 -225 -225 -225 -225 -225 -225 -225 -225 -225 -225 -225 -225 -225 -225 -225 -225 -225 -225 -225 -225 -225 -225 -225 -225 -225 -225 -225 -225 -225 -225 -225 -225 60 61 59 59 56 57 57 57 57 57 57 57 57 58 59 59 59 60 66 67 70 71 72 72 74 75 76 76 77 79 81 82 84 86 87 88 89 90 92 93 94 94 94 93 93 95 99 99 101 102 105 107 109 109 109 109 110 111 110 110 114 116 120 119 121 121 121 122 122 123 123 124 125 126 135 138 140 141 142 144 145 144 146 145 147 151 150 154 153 154 155 157 156 156 157 156 160 166 -209 -209 179 181 183 184 187 190 187 187 188 189 189 189 195 190 189 193 192 193 193 196 195 192 198 199 201 0 0 0 0 0
    0 0 0 0 0 0 0 0 0 0 0 0 0 0 0 0 0 0 0 0 0 0 0 0 0 0 0 0 0 0 0 0 0 0 0 0 0 0 0 0 0 0 0 0 0 0 0 0 0 0 0 0 0 0 0 0 0 0 0 0 0 0 0 0 0 0 0 0 0 101 100 100 96 88 87 87 88 88 87 88 87 83 79 80 80 76 76 75 76 69 70 70 64 61 61 62 67 65 64 65 62 63 64 66 68 66 68 69 68 -193 396 -193 -193 61 60 62 66 65 69 66 65 65 60 55 55 56 58 57 58 56 49 42 55 29 26 26 25 20 14 -225 -225 -225 -225 -225 -225 -225 -225 -225 -225 -225 -225 -225 -225 -225 -225 -225 -225 -225 -225 -225 -225 -225 -225 -225 -225 -225 -225 -225 -225 -225 -225 -225 -225 -225 -225 -225 -225 -225 -225 -225 -225 -225 -225 -225 -225 -225 -225 -225 -225 -225 57 58 57 59 57 58 58 58 59 59 59 59 59 60 60 61 60 61 68 68 70 71 73 73 74 75 75 75 77 79 80 82 84 86 87 88 89 90 91 92 93 93 93 93 93 96 100 100 101 102 105 107 108 108 108 108 110 110 110 111 112 115 118 118 120 121 121 121 122 123 124 125 126 127 137 139 141 141 142 143 144 143 144 142 143 149 150 154 154 156 157 158 156 156 157 157 160 166 -209 -209 179 180 182 183 186 189 187 187 187 188 188 189 195 190 190 193 192 193 193 196 195 192 198 199 201 0 0 0 0 0
    0 0 0 0 0 0 0 0 0 0 0 0 0 0 0 0 0 0 0 0 0 0 0 0 0 0 0 0 0 0 0 0 0 0 0 0 0 0 0 0 0 0 0 0 0 0 0 0 0 0 0 0 0 0 0 0 0 0 0 0 0 0 0 0 0 0 0 0 0 99 98 96 92 88 86 86 87 87 86 88 86 83 79 80 80 78 77 75 76 72 70 71 67 62 62 62 67 65 64 64 63 63 63 65 67 66 66 68 67 69 -193 -193 68 61 59 60 62 63 66 63 64 62 58 55 55 56 58 57 57 55 49 42 -193 -209 26 26 25 20 -225 -225 -225 -225 -225 -225 -225 -225 -225 -225 -225 -225 -225 -225 -225 -225 -225 -225 -225 -225 -225 -225 -225 -225 -225 -225 -225 -225 -225 -225 -225 -225 -225 -225 -225 -225 -225 -225 -225 -225 -225 -225 -225 -225 -225 -225 -225 -225 -225 -225 -225 -225 57 57 56 59 58 59 59 59 59 60 60 61 60 61 62 62 62 62 68 68 68 70 71 71 73 74 74 75 77 78 80 83 85 86 87 87 88 89 90 90 91 91 91 91 92 94 99 99 101 101 104 107 108 107 107 107 108 109 109 110 110 112 115 116 118 118 119 120 121 122 123 124 125 127 138 139 141 142 142 144 145 144 145 142 145 148 151 155 154 157 158 160 158 158 159 159 160 166 -209 -209 176 178 181 182 185 188 186 187 187 189 189 189 195 190 190 193 192 194 193 195 195 192 198 199 201 0 0 0 0 0
    0 0 0 0 0 0 0 0 0 0 0 0 0 0 0 0 0 0 0 0 0 0 0 0 0 0 0 0 0 0 0 0 0 0 0 0 0 0 0 0 0 0 0 0 0 0 0 0 0 0 0 0 0 0 0 0 0 0 0 0 0 0 0 0 0 0 0 0 0 97 96 94 91 88 87 87 88 87 87 89 86 83 80 80 81 79 78 76 76 73 72 71 68 63 62 62 66 65 64 64 64 63 63 65 67 65 65 66 65 63 68 67 65 60 58 59 61 61 63 62 64 61 57 56 55 56 57 57 57 54 49 42 -193 -209 25 25 -225 -225 -225 -225 -225 -225 -225 -225 -225 -225 -225 -225 -225 -225 -225 -225 -225 -225 -225 -225 -225 -225 -225 -225 -225 -225 -225 -225 -225 -225 -225 -225 -225 -225 -225 -225 -225 -225 -225 -225 -225 -225 -225 -225 -225 -225 -225 -225 -225 -225 -225 -225 -225 -225 57 57 56 59 58 60 59 60 60 61 61 62 62 62 63 64 63 64 67 67 67 69 70 70 73 73 74 74 77 78 81 83 85 85 87 87 87 88 89 89 90 90 91 91 92 95 100 101 103 103 107 108 109 108 108 108 109 109 109 109 109 111 115 116 118 117 119 119 120 121 121 122 122 124 -193 140 142 143 143 144 145 144 145 141 144 147 151 154 153 156 157 159 159 158 159 161 161 166 -209 -209 180 180 182 183 185 189 187 188 187 189 189 190 195 190 190 192 192 193 193 195 195 192 198 199 200 0 0 0 0 0
    0 0 0 0 0 0 0 0 0 0 0 0 0 0 0 0 0 0 0 0 0 0 0 0 0 0 0 0 0 0 0 0 0 0 0 0 0 0 0 0 0 0 0 0 0 0 0 0 0 0 0 0 0 0 0 0 0 0 0 0 0 0 0 0 0 0 0 0 0 97 96 93 91 90 88 87 88 87 88 89 86 84 81 81 81 81 78 76 75 73 72 71 69 63 61 62 65 65 64 64 64 63 63 64 66 65 64 64 63 60 64 63 62 59 57 58 60 61 63 64 63 61 58 56 56 56 57 56 55 52 -225 -225 -225 -225 -225 -225 -225 -225 -225 -225 -225 -225 -225 -225 -225 -225 -225 -225 -225 -225 -225 -225 -225 -225 -225 -225 -225 -225 -225 -225 -225 -225 -225 -225 -225 -225 -225 -225 -225 -225 -225 -225 -225 -225 -225 -225 -225 -225 -225 -225 -225 -225 -225 -225 -225 -225 -225 -225 -225 -225 56 57 56 59 59 60 60 60 61 62 62 64 64 64 65 65 65 65 68 68 67 69 70 70 73 73 74 74 77 77 80 82 85 85 87 87 88 88 89 89 90 -193 91 91 92 95 100 102 105 104 109 109 111 109 109 109 109 108 109 108 109 110 115 116 117 116 118 119 119 120 121 121 122 124 140 141 142 143 143 144 144 144 143 141 142 143 148 149 151 155 156 160 160 160 161 163 163 167 175 -209 182 182 184 183 185 190 188 188 188 189 189 190 195 190 189 192 192 193 192 195 195 192 198 198 199 0 0 0 0 0
    0 0 0 0 0 0 0 0 0 0 0 0 0 0 0 0 0 0 0 0 0 0 0 0 0 0 0 0 0 0 0 0 0 0 0 0 0 0 0 0 0 0 0 0 0 0 0 0 0 0 0 0 0 0 0 0 0 0 0 0 0 0 0 0 0 0 0 0 0 95 94 92 91 91 89 87 87 87 90 90 86 84 82 81 82 82 78 76 75 0 -256 -1 27044 65 61 62 64 65 64 63 65 63 63 63 64 64 63 63 63 58 62 61 61 59 57 58 60 60 64 64 63 61 59 57 56 57 56 55 53 51 -225 -225 -225 -225 -225 -225 -225 -225 -225 -225 -225 -225 -225 -225 -225 -225 -225 -225 -225 -225 -225 -225 -225 -225 -225 -225 -225 -225 -225 -225 -225 -225 -225 -225 -225 -225 -225 -225 -225 -225 -225 -225 -225 -225 -225 -225 -225 -225 -225 -225 -225 -225 -225 -225 -225 -225 -225 -225 -225 -225 55 56 55 58 59 61 60 61 62 63 63 66 65 65 65 66 65 65 68 68 66 69 69 69 72 73 74 74 76 78 81 82 85 86 88 88 89 89 90 90 91 -209 91 91 91 94 100 102 106 106 111 110 112 110 110 109 110 108 109 108 108 110 116 117 119 116 118 119 120 121 122 123 126 130 138 141 142 143 143 144 144 143 143 142 142 143 145 147 145 150 153 158 160 159 160 164 163 167 176 -193 183 183 184 184 185 191 188 189 188 189 189 189 195 190 189 192 191 193 192 194 195 191 198 198 199 0 0 0 0 0
    0 0 0 0 0 0 0 0 0 0 0 0 0 0 0 0 0 0 0 0 0 0 0 0 0 0 0 0 0 0 0 0 0 0 0 0 0 0 0 0 0 0 0 0 0 0 0 0 0 0 0 0 0 0 0 0 0 0 0 0 0 0 0 0 0 0 0 0 0 -193 90 89 88 89 88 85 86 86 89 90 86 85 82 81 82 83 79 76 75 74 74 71 70 66 61 62 64 64 63 62 64 63 62 63 63 63 63 62 63 58 61 60 61 59 57 58 60 61 65 64 63 60 59 58 57 57 57 55 54 53 -225 -225 -225 -225 -225 -225 -225 -225 -225 -225 -225 -225 -225 -225 -225 -225 -225 -225 -225 -225 -225 -225 -225 -225 -225 -225 -225 -225 -225 -225 -225 -225 -225 -225 -225 -225 -225 -225 -225 -225 -225 -225 -225 -225 -225 -225 -225 -225 -225 -225 -225 -225 -225 -225 -225 -225 -225 -225 -225 -225 -225 55 54 57 59 63 62 64 65 66 66 68 67 68 68 68 68 68 70 70 68 70 70 70 73 73 74 74 77 78 81 82 85 86 88 90 90 91 91 91 91 92 91 92 92 94 96 102 -209 107 112 110 112 111 111 110 111 109 110 109 110 112 119 120 121 118 120 119 120 121 122 123 126 132 139 142 143 144 143 144 144 144 144 143 143 144 146 147 143 146 -209 156 159 159 158 164 163 167 176 -209 183 183 184 183 184 192 188 189 188 190 190 190 195 191 189 192 191 192 191 194 195 191 197 198 199 0 0 0 0 0
    0 0 0 0 0 0 0 0 0 0 0 0 0 0 0 0 0 0 0 0 0 0 0 0 0 0 0 0 0 0 0 0 0 0 0 0 0 0 0 0 0 0 0 0 0 0 0 0 0 0 0 0 0 0 0 0 0 0 0 0 0 0 0 0 0 0 0 0 0 -209 90 89 88 88 88 84 84 86 89 89 85 84 83 81 83 83 79 77 75 75 75 72 71 69 62 62 65 65 64 62 65 63 62 63 63 63 63 62 63 57 61 60 61 60 57 58 60 62 65 64 65 62 60 59 59 58 57 55 54 -225 -225 -225 -225 -225 -225 -225 -225 -225 -225 -225 -225 -225 -225 -225 -225 -225 -225 -225 -225 -225 -225 -225 -225 -225 -225 -225 -225 -225 -225 -225 -225 -225 -225 -225 -225 -225 -225 -225 -225 -225 -225 -225 -225 -225 -225 -225 -225 -225 -225 -225 -225 -225 -225 -225 -225 -225 -225 -225 -225 -225 -225 54 53 56 59 66 65 67 68 68 69 69 69 69 70 70 70 70 72 72 71 73 73 73 74 74 74 75 77 78 80 82 86 87 89 90 91 92 92 92 92 92 92 93 92 94 94 101 -209 107 112 111 113 111 111 111 111 110 111 110 112 113 119 120 120 117 118 117 118 118 120 121 122 131 140 143 143 142 142 143 142 143 143 142 143 143 147 147 147 -193 -209 150 -209 -209 151 -209 163 167 178 -193 184 185 185 184 184 193 189 189 188 190 191 191 196 192 188 191 191 192 191 194 195 192 197 198 199 0 0 0 0 0
    0 0 0 0 0 0 0 0 0 0 0 0 0 0 0 0 0 0 0 0 0 0 0 0 0 0 0 0 0 0 0 0 0 0 0 0 0 0 0 0 0 0 0 0 0 0 0 0 0 0 0 0 0 0 0 0 0 0 0 0 0 0 0 0 0 0 0 0 0 107 95 92 91 91 88 84 84 86 89 89 85 85 84 81 83 83 79 77 76 76 76 73 72 71 62 63 66 65 64 62 66 63 62 63 63 63 63 63 64 57 61 60 60 59 57 58 60 62 64 64 66 63 61 60 60 59 57 56 54 -225 -225 -225 -225 -225 -225 -225 -225 -225 -225 -225 -225 -225 -225 -225 -225 -225 -225 -225 -225 -225 -225 -225 -225 -225 -225 -225 -225 -225 -225 -225 -225 -225 -225 -225 -225 -225 -225 -225 -225 -225 -225 -225 -225 -225 -225 -225 -225 -225 -225 -225 -225 -225 -225 -225 -225 -225 -225 -225 -225 -225 -225 -225 53 58 62 69 68 69 70 69 70 70 70 70 70 70 71 71 72 72 73 74 74 74 76 75 75 76 79 78 81 82 86 88 89 91 91 92 92 92 92 93 92 93 92 94 94 101 -209 106 111 110 113 111 111 111 111 110 111 110 113 114 118 118 118 116 117 116 117 118 120 122 124 131 137 140 141 140 140 141 141 142 142 141 143 142 147 147 148 -193 -193 151 -193 -209 152 158 161 167 176 -209 185 185 185 184 184 193 189 190 189 191 191 191 196 192 188 191 190 192 191 194 195 192 197 198 199 0 0 0 0 0
    0 0 0 0 0 0 0 0 0 0 0 0 0 0 0 0 0 0 0 0 0 0 0 0 0 0 0 0 0 0 0 0 0 0 0 0 0 0 0 0 0 0 0 0 0 0 0 0 0 0 0 0 0 0 0 0 0 0 0 0 0 0 0 0 0 0 0 0 0 107 97 92 92 91 89 85 85 87 90 90 86 86 85 83 84 84 81 78 77 78 76 73 73 72 64 64 66 66 64 62 66 63 62 63 63 63 63 63 64 57 59 59 59 58 56 58 60 62 64 64 65 63 61 61 60 59 57 55 -225 -225 -225 -225 -225 -225 -225 -225 -225 -225 -225 -225 -225 -225 -225 -225 -225 -225 -225 -225 -225 -225 -225 -225 -225 -225 -225 -225 -225 -225 -225 -225 -225 -225 -225 -225 -225 -225 -225 -225 -225 -225 -225 -225 -225 -225 -225 -225 -225 -225 -225 -225 -225 -225 -225 -225 -225 -225 -225 -225 -225 -225 -225 -225 -225 59 63 70 69 70 71 70 71 71 71 71 71 71 71 72 73 73 73 74 75 75 76 76 76 77 79 78 82 81 87 88 89 90 91 92 91 91 91 92 92 93 92 93 -193 -209 -209 106 110 110 112 110 111 110 110 109 110 110 111 111 115 116 116 114 116 114 117 119 121 123 126 132 136 139 140 139 139 140 141 142 142 141 143 143 148 149 149 -193 -193 151 152 153 153 158 160 167 172 -193 181 181 181 181 183 192 189 189 189 191 192 192 195 193 188 190 190 191 191 193 195 191 195 197 198 0 0 0 0 0
    0 0 0 0 0 0 0 0 0 0 0 0 0 0 0 0 0 0 0 0 0 0 0 0 0 0 0 0 0 0 0 0 0 0 0 0 0 0 0 0 0 0 0 0 0 0 0 0 0 0 0 0 0 0 0 0 0 0 0 0 0 0 0 0 0 0 0 0 0 105 99 94 94 93 92 86 86 88 91 90 87 86 86 83 85 84 81 79 77 78 77 73 74 73 64 64 66 66 64 62 66 64 63 64 64 63 63 63 65 57 57 57 57 56 56 59 62 65 66 67 66 64 64 62 61 60 59 -225 -225 -225 -225 -225 -225 -225 -225 -225 -225 -225 -225 -225 -225 -225 -225 -225 -225 -225 -225 -225 -225 -225 -225 -225 -225 -225 -225 -225 -225 -225 -225 -225 -225 -225 -225 -225 -225 -225 -225 -225 -225 -225 -225 -225 -225 -225 -225 -225 -225 -225 -225 -225 -225 -225 -225 -225 -225 -225 -225 -225 -225 -225 -225 -225 -225 -225 -225 -225 73 72 74 72 73 73 72 72 72 71 72 73 73 73 74 74 75 76 77 77 76 78 78 79 82 80 87 88 89 90 90 91 91 91 91 92 91 92 91 92 92 -209 -209 106 109 110 112 111 111 111 111 110 111 110 112 110 114 115 115 114 115 115 119 121 123 124 126 131 134 138 139 139 139 141 141 143 143 143 145 145 149 150 150 -193 148 150 151 152 152 155 157 166 171 180 181 181 180 180 183 191 188 189 188 190 191 191 195 193 188 190 190 191 191 192 194 191 194 197 197 0 0 0 0 0
    0 0 0 0 0 0 0 0 0 0 0 0 0 0 0 0 0 0 0 0 0 0 0 0 0 0 0 0 0 0 0 0 0 0 0 0 0 0 0 0 0 0 0 0 0 0 0 0 0 0 0 0 0 0 0 0 0 0 0 0 0 0 0 0 0 0 0 0 0 104 100 96 96 96 94 87 87 90 93 91 88 87 87 84 85 85 81 79 77 78 77 73 74 73 63 64 67 66 65 63 66 64 63 64 64 64 63 63 65 57 55 55 56 57 61 64 67 69 69 69 68 67 66 64 63 62 60 -225 -225 -225 -225 -225 -225 -225 -225 -225 -225 -225 -225 -225 -225 -225 -225 -225 -225 -225 -225 -225 -225 -225 -225 -225 -225 -225 -225 -225 -225 -225 -225 -225 -225 -225 -225 -225 -225 -225 -225 -225 -225 -225 -225 -225 -225 -225 -225 -225 -225 -225 -225 -225 -225 -225 -225 -225 -225 -225 -225 -225 -225 -225 -225 -225 -225 -225 -225 -225 -225 72 77 73 75 74 73 73 73 72 73 73 73 74 74 75 76 76 77 77 77 78 77 79 82 79 86 88 89 90 91 92 91 91 92 92 92 93 91 92 93 99 -209 105 108 108 111 110 111 111 112 112 114 111 113 112 115 117 116 116 118 117 121 123 124 125 128 130 134 137 138 139 139 141 141 143 144 144 145 146 149 150 150 150 148 149 150 150 151 153 154 165 171 181 182 182 182 181 184 191 189 189 188 190 191 191 194 193 188 190 190 191 191 192 194 191 192 196 197 0 0 0 0 0
    0 0 0 0 0 0 0 0 0 0 0 0 0 0 0 0 0 0 0 0 0 0 0 0 0 0 0 0 0 0 0 0 0 0 0 0 0 0 0 0 0 0 0 0 0 0 0 0 0 0 0 0 0 0 0 0 0 0 0 0 0 0 0 0 0 0 0 0 0 105 101 99 99 98 95 87 87 91 93 91 89 87 87 85 86 85 81 79 77 78 77 73 73 72 63 64 67 66 65 63 67 65 63 64 64 64 64 64 66 57 47 53 57 70 75 71 71 72 71 71 69 69 68 65 64 63 -225 -225 -225 -225 -225 -225 -225 -225 -225 -225 -225 -225 -225 -225 -225 -225 -225 -225 -225 -225 -225 -225 -225 -225 -225 -225 -225 -225 -225 -225 -225 -225 -225 -225 -225 -225 -225 -225 -225 -225 -225 -225 -225 -225 -225 -225 -225 -225 -225 -225 -225 -225 -225 -225 -225 -225 -225 -225 -225 -225 -225 -225 -225 -225 -225 -225 -225 -225 -225 -225 -225 73 78 74 76 74 74 73 74 72 74 74 74 75 75 75 77 77 78 78 78 80 79 80 83 79 86 87 89 90 91 92 92 92 92 93 93 95 93 95 97 100 101 104 106 107 108 108 110 109 111 112 114 112 113 113 115 116 116 116 119 119 121 123 125 126 128 130 133 137 137 138 138 140 140 142 143 143 143 145 147 150 150 151 149 151 151 153 152 154 155 163 168 179 182 182 182 182 184 190 189 189 188 189 191 191 193 194 188 190 190 191 191 192 193 191 191 196 196 0 0 0 0 0
    0 0 0 0 0 0 0 0 0 0 0 0 0 0 0 0 0 0 0 0 0 0 0 0 0 0 0 0 0 0 0 0 0 0 0 0 0 0 0 0 0 0 0 0 0 0 0 0 0 0 0 0 0 0 0 0 0 0 0 0 0 0 0 0 0 0 0 0 0 104 102 101 101 100 94 87 87 92 92 91 89 87 87 85 86 85 80 79 77 77 77 73 73 72 64 65 67 66 65 63 68 66 64 65 65 64 64 65 66 58 51 62 79 87 82 77 75 74 73 72 71 71 68 66 65 -225 -225 -225 -225 -225 -225 -225 -225 -225 -225 -225 -225 -225 -225 -225 -225 -225 -225 -225 -225 -225 -225 -225 -225 -225 -225 -225 -225 -225 -225 -225 -225 -225 -225 -225 -225 -225 -225 -225 -225 -225 -225 -225 -225 -225 -225 -225 -225 -225 -225 -225 -225 -225 -225 -225 -225 -225 -225 -225 -225 -225 -225 -225 -225 -225 -225 -225 -225 -225 -225 -225 -225 -225 78 73 76 74 74 74 74 73 75 75 75 76 77 77 79 79 79 79 80 81 80 81 83 79 86 86 88 90 91 93 92 92 93 94 94 97 95 96 99 101 101 103 104 105 105 106 108 107 109 112 114 111 111 113 115 116 117 117 119 120 123 124 126 127 128 131 133 136 136 137 137 138 138 140 141 141 141 143 147 149 150 151 149 150 150 152 151 153 153 158 166 178 183 182 183 183 184 191 189 189 189 189 191 191 193 195 188 190 190 191 191 192 193 192 190 196 196 0 0 0 0 0
    0 0 0 0 0 0 0 0 0 0 0 0 0 0 0 0 0 0 0 0 0 0 0 0 0 0 0 0 0 0 0 0 0 0 0 0 0 0 0 0 0 0 0 0 0 0 0 0 0 0 0 0 0 0 0 0 0 0 0 0 0 0 0 0 0 0 0 0 0 103 102 103 102 102 92 87 87 94 92 91 89 87 86 86 86 85 80 79 77 76 76 73 72 71 64 66 68 67 66 65 69 67 66 66 66 66 66 67 67 58 54 69 87 85 82 78 76 75 74 73 73 72 70 67 -225 -225 -225 -225 -225 -225 -225 -225 -225 -225 -225 -225 -225 -225 -225 -225 -225 -225 -225 -225 -225 -225 -225 -225 -225 -225 -225 -225 -225 -225 -225 -225 -225 -225 -225 -225 -225 -225 -225 -225 -225 -225 -225 -225 -225 -225 -225 -225 -225 -225 -225 -225 -225 -225 -225 -225 -225 -225 -225 -225 -225 -225 -225 -225 -225 -225 -225 -225 -225 -225 -225 -225 -225 -225 77 72 76 74 75 74 75 75 77 77 77 77 78 78 81 80 80 80 80 82 80 80 82 78 84 83 86 88 89 92 92 92 93 94 94 97 95 97 99 101 100 102 102 103 103 105 107 106 107 111 112 110 111 113 114 115 116 117 119 120 122 124 125 127 127 131 133 136 136 136 137 137 138 140 140 140 141 143 147 150 151 152 150 150 151 152 152 153 152 156 166 179 184 184 185 185 185 192 190 189 189 189 191 191 192 195 189 190 191 191 192 192 193 193 190 197 197 0 0 0 0 0
    0 0 0 0 0 0 0 0 0 0 0 0 0 0 0 0 0 0 0 0 0 0 0 0 0 0 0 0 0 0 0 0 0 0 0 0 0 0 0 0 0 0 0 0 0 0 0 0 0 0 0 0 0 0 0 0 0 0 0 0 0 0 0 0 0 0 0 0 0 104 104 105 105 104 -193 88 88 96 92 91 89 87 86 86 86 85 80 79 77 76 75 72 71 70 65 67 69 68 67 68 71 69 68 68 68 68 68 69 68 58 57 73 84 84 82 79 77 76 75 75 74 73 70 68 -225 -225 -225 -225 -225 -225 -225 -225 -225 -225 -225 -225 -225 -225 -225 -225 -225 -225 -225 -225 -225 -225 -225 -225 -225 -225 -225 -225 -225 -225 -225 -225 -225 -225 -225 -225 -225 -225 -225 -225 -225 -225 -225 -225 -225 -225 -225 -225 -225 -225 -225 -225 -225 -225 -225 -225 -225 -225 -225 -225 -225 -225 -225 -225 -225 -225 -225 -225 -225 -225 -225 -225 -225 -225 75 71 75 73 74 74 75 74 78 77 77 79 80 79 82 81 82 81 82 83 81 81 83 80 85 83 84 87 88 90 90 91 92 92 93 96 95 96 98 101 101 102 103 103 104 105 107 106 106 109 111 109 110 113 112 113 115 117 118 120 122 124 125 129 130 132 134 136 136 136 136 136 137 139 139 139 141 142 147 151 152 153 151 151 152 153 153 154 153 157 166 178 184 184 185 185 185 192 191 189 189 189 191 191 191 195 189 190 191 191 192 193 193 194 190 197 198 0 0 0 0 0
    0 0 0 0 0 0 0 0 0 0 0 0 0 0 0 0 0 0 0 0 0 0 0 0 0 0 0 0 0 0 0 0 0 0 0 0 0 0 0 0 0 0 0 0 0 0 0 0 0 0 0 0 0 0 0 0 0 0 0 0 0 0 0 0 0 0 0 0 0 105 105 105 104 104 104 93 93 99 93 92 91 88 87 87 87 85 81 79 77 75 74 71 70 68 65 67 69 69 67 69 71 71 70 69 69 69 69 71 69 61 61 75 84 84 83 80 78 77 76 75 75 73 71 -225 -225 -225 -225 -225 -225 -225 -225 -225 -225 -225 -225 -225 -225 -225 -225 -225 -225 -225 -225 -225 -225 -225 -225 -225 -225 -225 -225 -225 -225 -225 -225 -225 -225 -225 -225 -225 -225 -225 -225 -225 -225 -225 -225 -225 -225 -225 -225 -225 -225 -225 -225 -225 -225 -225 -225 -225 -225 -225 -225 -225 -225 -225 -225 -225 -225 -225 -225 -225 -225 -225 -225 -225 -225 -225 -225 70 74 72 74 73 75 75 79 78 78 81 82 81 84 83 83 82 83 84 82 82 84 81 85 83 83 84 85 87 88 89 91 91 92 96 95 97 99 100 101 102 103 103 103 105 106 106 107 109 111 110 111 113 112 112 114 116 118 119 122 123 125 129 130 133 134 135 136 136 136 137 138 139 139 140 142 143 148 152 153 154 152 153 153 154 154 155 153 157 165 176 -193 183 183 184 184 189 190 188 188 188 190 190 190 195 189 190 192 192 192 193 193 194 190 197 198 0 0 0 0 0
    0 0 0 0 0 0 0 0 0 0 0 0 0 0 0 0 0 0 0 0 0 0 0 0 0 0 0 0 0 0 0 0 0 0 0 0 0 0 0 0 0 0 0 0 0 0 0 0 0 0 0 0 0 0 0 0 0 0 0 0 0 0 0 0 0 0 0 0 0 106 106 106 105 104 104 95 96 99 93 92 91 89 87 88 88 86 83 80 77 75 72 71 69 68 66 69 70 70 69 71 72 72 72 71 70 70 70 72 70 67 70 77 84 85 83 81 79 78 77 76 75 73 -225 -225 -225 -225 -225 -225 -225 -225 -225 -225 -225 -225 -225 -225 -225 -225 -225 -225 -225 -225 -225 -225 -225 -225 -225 -225 -225 -225 -225 -225 -225 -225 -225 -225 -225 -225 -225 -225 -225 -225 -225 -225 -225 -225 -225 -225 -225 -225 -225 -225 -225 -225 -225 -225 -225 -225 -225 -225 -225 -225 -225 -225 -225 -225 -225 -225 -225 -225 -225 -225 -225 -225 -225 -225 -225 -225 -225 -225 -225 74 78 76 79 82 84 82 82 85 84 83 85 84 84 83 84 84 82 84 85 83 86 85 85 87 86 88 88 89 91 90 91 95 94 95 98 99 101 101 102 103 103 105 106 107 107 109 111 111 111 112 112 113 114 115 117 119 121 122 124 127 129 132 134 136 136 137 137 138 138 140 140 141 142 144 147 151 152 154 152 152 153 154 154 155 154 157 165 175 180 181 181 182 183 187 189 187 188 188 189 189 189 195 189 190 193 192 193 193 194 194 190 198 198 0 0 0 0 0
    0 0 0 0 0 0 0 0 0 0 0 0 0 0 0 0 0 0 0 0 0 0 0 0 0 0 0 0 0 0 0 0 0 0 0 0 0 0 0 0 0 0 0 0 0 0 0 0 0 0 0 0 0 0 0 0 0 0 0 0 0 0 0 0 0 0 0 0 0 108 107 107 106 105 105 99 98 99 93 92 91 89 87 88 88 86 83 80 77 74 71 70 70 69 67 71 72 71 71 72 74 74 74 73 72 72 73 73 73 72 75 82 85 85 84 82 81 80 78 77 76 -225 -225 -225 -225 -225 -225 -225 -225 -225 -225 -225 -225 -225 -225 -225 -225 -225 -225 -225 -225 -225 -225 -225 -225 -225 -225 -225 -225 -225 -225 -225 -225 -225 -225 -225 -225 -225 -225 -225 -225 -225 -225 -225 -225 -225 -225 -225 -225 -225 -225 -225 -225 -225 -225 -225 -225 -225 -225 -225 -225 -225 -225 -225 -225 -225 -225 -225 -225 -225 -225 -225 -225 -225 -225 -225 -225 -225 -225 -225 -225 -225 -225 79 82 87 87 84 84 86 86 85 86 86 85 85 85 85 84 85 86 85 87 87 88 89 90 91 91 91 92 92 92 96 95 95 98 99 101 101 102 102 102 104 106 107 107 108 110 110 110 111 112 113 114 116 117 119 121 122 123 125 125 129 132 135 136 137 137 138 138 139 139 141 141 143 145 150 152 154 152 152 153 154 154 155 154 156 164 173 -209 181 181 183 184 188 190 188 188 188 189 189 189 195 190 190 193 193 193 194 194 195 191 199 199 0 0 0 0 0
    0 0 0 0 0 0 0 0 0 0 0 0 0 0 0 0 0 0 0 0 0 0 0 0 0 0 0 0 0 0 0 0 0 0 0 0 0 0 0 0 0 0 0 0 0 0 0 0 0 0 0 0 0 0 0 0 0 0 0 0 0 0 0 0 0 0 0 0 0 111 110 109 108 106 107 101 99 99 93 92 91 88 87 88 87 86 83 79 76 73 70 69 69 69 68 72 75 74 75 76 77 76 76 75 74 74 74 75 76 77 85 86 86 86 85 84 83 81 80 79 78 -225 -225 -225 -225 -225 -225 -225 -225 -225 -225 -225 -225 -225 -225 -225 -225 -225 -225 -225 -225 -225 -225 -225 -225 -225 -225 -225 -225 -225 -225 -225 -225 -225 -225 -225 -225 -225 -225 -225 -225 -225 -225 -225 -225 -225 -225 -225 -225 -225 -225 -225 -225 -225 -225 -225 -225 -225 -225 -225 -225 -225 -225 -225 -225 -225 -225 -225 -225 -225 -225 -225 -225 -225 -225 -225 -225 -225 -225 -225 -225 -225 -225 -225 85 91 88 86 85 88 87 86 87 86 86 86 86 86 85 86 86 86 88 88 88 90 92 92 93 93 94 93 94 97 96 96 99 100 102 102 103 103 103 105 106 107 107 108 110 110 111 111 113 114 115 116 117 119 120 122 122 124 124 127 131 135 136 137 137 138 138 139 139 140 140 142 144 148 151 153 151 152 153 154 155 154 155 156 162 169 -209 177 180 183 185 189 191 188 188 188 189 189 189 196 190 190 193 193 193 194 194 195 192 199 199 0 0 0 0 0
    0 0 0 0 0 0 0 0 0 0 0 0 0 0 0 0 0 0 0 0 0 0 0 0 0 0 0 0 0 0 0 0 0 0 0 0 0 0 0 0 0 0 0 0 0 0 0 0 0 0 0 0 0 0 0 0 0 0 0 0 0 0 0 0 0 0 0 0 0 112 110 111 109 108 108 104 102 99 93 93 91 88 87 88 87 85 83 79 75 73 67 68 68 69 68 73 78 77 78 79 78 77 78 77 76 76 77 80 83 88 90 89 87 87 86 85 84 82 81 80 -225 -225 -225 -225 -225 -225 -225 -225 -225 -225 -225 -225 -225 -225 -225 -225 -225 -225 -225 -225 -225 -225 -225 -225 -225 -225 -225 -225 -225 -225 -225 -225 -225 -225 -225 -225 -225 -225 -225 -225 -225 -225 -225 -225 -225 -225 -225 -225 -225 -225 -225 -225 -225 -225 -225 -225 -225 -225 -225 -225 -225 -225 -225 -225 -225 -225 -225 -225 -225 -225 -225 -225 -225 -225 -225 -225 -225 -225 -225 -225 -225 -225 -225 -225 87 94 89 87 86 88 88 87 88 87 86 87 87 88 86 87 88 88 89 89 90 92 93 93 93 93 94 93 94 96 94 95 98 101 102 103 103 104 104 105 106 107 108 108 110 111 111 112 113 113 114 115 116 118 119 121 121 123 123 127 130 135 136 136 137 137 138 138 138 139 140 141 143 147 150 152 151 152 153 153 154 154 155 157 162 167 -209 -193 173 181 184 189 192 189 189 188 190 190 190 196 190 190 193 192 193 193 194 195 191 199 199 0 0 0 0 0
    0 0 0 0 0 0 0 0 0 0 0 0 0 0 0 0 0 0 0 0 0 0 0 0 0 0 0 0 0 0 0 0 0 0 0 0 0 0 0 0 0 0 0 0 0 0 0 0 0 0 0 0 0 0 0 0 0 0 0 0 0 0 0 0 0 0 0 0 0 113 110 110 109 108 108 105 103 100 93 93 91 88 87 88 87 85 84 81 75 71 68 70 69 -193 69 75 85 82 84 82 78 77 78 78 76 76 79 83 86 90 92 91 89 88 88 87 85 83 82 -225 -225 -225 -225 -225 -225 -225 -225 -225 -225 -225 -225 -225 -225 -225 -225 -225 -225 -225 -225 -225 -225 -225 -225 -225 -225 -225 -225 -225 -225 -225 -225 -225 -225 -225 -225 -225 -225 -225 -225 -225 -225 -225 -225 -225 -225 -225 -225 -225 -225 -225 -225 -225 -225 -225 -225 -225 -225 -225 -225 -225 -225 -225 -225 -225 -225 -225 -225 -225 -225 -225 -225 -225 -225 -225 -225 -225 -225 -225 -225 -225 -225 -225 -225 -225 -225 90 88 86 86 88 88 88 89 88 87 88 88 89 88 89 89 89 91 91 91 94 94 95 95 95 95 94 94 95 93 94 96 99 102 102 103 103 103 105 106 106 107 107 108 109 110 110 112 112 114 114 115 117 119 120 121 122 122 126 129 134 136 137 137 137 138 138 138 140 141 141 145 147 149 151 150 150 151 151 152 153 154 156 161 167 -209 168 169 176 183 188 191 188 189 188 189 189 189 196 190 190 193 192 193 193 193 194 190 199 199 0 0 0 0 0
    0 0 0 0 0 0 0 0 0 0 0 0 0 0 0 0 0 0 0 0 0 0 0 0 0 0 0 0 0 0 0 0 0 0 0 0 0 0 0 0 0 0 0 0 0 0 0 0 0 0 0 0 0 0 0 0 0 0 0 0 0 0 0 0 0 0 0 0 0 113 111 110 110 110 109 107 105 101 95 95 92 89 88 88 87 85 85 82 76 72 70 -193 -193 -193 -193 85 89 88 88 86 83 82 82 82 80 80 84 86 89 91 93 93 90 89 89 88 86 84 82 -225 -225 -225 -225 -225 -225 -225 -225 -225 -225 -225 -225 -225 -225 -225 -225 -225 -225 -225 -225 -225 -225 -225 -225 -225 -225 -225 -225 -225 -225 -225 -225 -225 -225 -225 -225 -225 -225 -225 -225 -225 -225 -225 -225 -225 -225 -225 -225 -225 -225 -225 -225 -225 -225 -225 -225 -225 -225 -225 -225 -225 -225 -225 -225 -225 -225 -225 -225 -225 -225 -225 -225 -225 -225 -225 -225 -225 -225 -225 -225 -225 -225 -225 -225 -225 -225 -225 87 84 86 89 88 88 88 88 88 89 89 90 89 90 91 91 92 93 92 96 96 96 96 96 96 94 94 95 93 93 95 98 101 102 103 103 103 104 105 105 106 106 107 109 110 111 112 112 114 115 115 117 119 120 121 122 122 125 128 134 136 138 139 140 141 140 141 144 146 145 148 -193 -193 152 151 151 152 152 153 154 155 157 162 166 167 167 168 171 181 186 190 188 188 188 189 189 189 195 190 189 193 192 193 193 193 194 191 199 199 0 0 0 0 0
    0 0 0 0 0 0 0 0 0 0 0 0 0 0 0 0 0 0 0 0 0 0 0 0 0 0 0 0 0 0 0 0 0 0 0 0 0 0 0 0 0 0 0 0 0 0 0 0 0 0 0 0 0 0 0 0 0 0 0 0 0 0 0 0 0 0 0 0 0 113 111 111 110 110 109 108 106 102 98 97 93 89 88 88 87 85 87 84 79 72 -193 -193 -193 91 -193 86 90 89 89 87 85 84 84 85 85 85 88 88 91 93 94 93 91 91 90 89 87 84 -225 -225 -225 -225 -225 -225 -225 -225 -225 -225 -225 -225 -225 -225 -225 -225 -225 -225 -225 -225 -225 -225 -225 -225 -225 -225 -225 -225 -225 -225 -225 -225 -225 -225 -225 -225 -225 -225 -225 -225 -225 -225 -225 -225 -225 -225 -225 -225 -225 -225 -225 -225 -225 -225 -225 -225 -225 -225 -225 -225 -225 -225 -225 -225 -225 -225 -225 -225 -225 -225 -225 -225 -225 -225 -225 -225 -225 -225 -225 -225 -225 -225 -225 -225 -225 -225 -225 -225 -225 81 86 93 90 89 90 90 89 91 91 91 90 92 93 93 95 96 94 98 98 98 98 97 98 95 95 96 93 93 95 97 100 100 103 102 103 104 105 105 106 107 108 109 111 111 113 113 115 115 115 117 119 120 121 122 122 124 126 133 136 137 140 141 142 142 143 146 148 146 148 149 150 150 150 151 151 151 153 153 154 156 161 167 -193 167 168 172 179 184 190 187 188 188 189 189 189 195 190 189 193 193 193 193 193 194 190 199 199 0 0 0 0 0
    0 0 0 0 0 0 0 0 0 0 0 0 0 0 0 0 0 0 0 0 0 0 0 0 0 0 0 0 0 0 0 0 0 0 0 0 0 0 0 0 0 0 0 0 0 0 0 0 0 0 0 0 0 0 0 0 0 0 0 0 0 0 0 0 0 0 0 0 0 113 111 110 110 110 109 107 106 103 101 99 95 92 90 90 89 86 88 87 87 -177 91 93 93 93 91 88 91 89 90 88 87 86 86 87 89 89 91 91 94 95 95 94 93 92 91 90 89 -225 -225 -225 -225 -225 -225 -225 -225 -225 -225 -225 -225 -225 -225 -225 -225 -225 -225 -225 -225 -225 -225 -225 -225 -225 -225 -225 -225 -225 -225 -225 -225 -225 -225 -225 -225 -225 -225 -225 -225 -225 -225 -225 -225 -225 -225 -225 -225 -225 -225 -225 -225 -225 -225 -225 -225 -225 -225 -225 -225 -225 -225 -225 -225 -225 -225 -225 -225 -225 -225 -225 -225 -225 -225 -225 -225 -225 -225 -225 -225 -225 -225 -225 -225 -225 -225 -225 -225 -225 -225 -225 83 89 88 88 88 89 88 91 91 92 91 93 94 94 96 98 97 100 100 100 100 99 100 97 97 96 93 94 95 97 100 98 103 102 103 104 105 105 107 108 109 110 111 112 113 114 115 115 115 116 118 119 121 121 121 122 125 130 134 136 140 141 142 143 144 146 149 147 148 148 150 150 150 151 151 150 152 152 154 155 161 168 -209 169 171 174 179 184 190 188 188 187 189 189 189 195 191 189 193 192 192 192 193 194 189 198 198 0 0 0 0 0
    0 0 0 0 0 0 0 0 0 0 0 0 0 0 0 0 0 0 0 0 0 0 0 0 0 0 0 0 0 0 0 0 0 0 0 0 0 0 0 0 0 0 0 0 0 0 0 0 0 0 0 0 0 0 0 0 0 0 0 0 0 0 0 0 0 0 0 0 0 113 110 110 110 110 109 108 107 105 102 102 99 95 93 92 90 90 94 93 95 96 99 99 96 96 94 91 92 91 91 90 88 88 88 90 91 92 93 93 96 98 97 95 94 93 92 91 -225 -225 -225 -225 -225 -225 -225 -225 -225 -225 -225 -225 -225 -225 -225 -225 -225 -225 -225 -225 -225 -225 -225 -225 -225 -225 -225 -225 -225 -225 -225 -225 -225 -225 -225 -225 -225 -225 -225 -225 -225 -225 -225 -225 -225 -225 -225 -225 -225 -225 -225 -225 -225 -225 -225 -225 -225 -225 -225 -225 -225 -225 -225 -225 -225 -225 -225 -225 -225 -225 -225 -225 -225 -225 -225 -225 -225 -225 -225 -225 -225 -225 -225 -225 -225 -225 -225 -225 -225 -225 -225 -225 -225 87 85 86 87 88 88 91 91 93 93 95 96 97 99 100 100 101 101 101 101 101 101 100 100 99 96 96 99 100 101 99 103 101 102 104 104 105 106 107 108 109 111 111 113 114 115 116 116 116 119 120 121 122 122 123 125 130 134 136 140 141 141 142 142 144 146 144 145 145 148 150 151 151 151 151 153 154 155 156 162 168 -209 169 171 174 178 184 191 188 189 188 189 190 190 195 191 189 193 192 192 192 192 193 188 196 195 0 0 0 0 0
    0 0 0 0 0 0 0 0 0 0 0 0 0 0 0 0 0 0 0 0 0 0 0 0 0 0 0 0 0 0 0 0 0 0 0 0 0 0 0 0 0 0 0 0 0 0 0 0 0 0 0 0 0 0 0 0 0 0 0 0 0 0 0 0 0 0 0 0 0 112 110 110 110 110 110 108 108 106 105 104 102 101 98 97 93 94 99 99 100 102 101 100 98 98 98 94 95 94 94 91 90 90 90 92 94 94 96 95 98 99 98 97 95 94 93 92 -225 -225 -225 -225 -225 -225 -225 -225 -225 -225 -225 -225 -225 -225 -225 -225 -225 -225 -225 -225 -225 -225 -225 -225 -225 -225 -225 -225 -225 -225 -225 -225 -225 -225 -225 -225 -225 -225 -225 -225 -225 -225 -225 -225 -225 -225 -225 -225 -225 -225 -225 -225 -225 -225 -225 -225 -225 -225 -225 -225 -225 -225 -225 -225 -225 -225 -225 -225 -225 -225 -225 -225 -225 -225 -225 -225 -225 -225 -225 -225 -225 -225 -225 -225 -225 -225 -225 -225 -225 -225 -225 -225 -225 -225 90 89 90 88 89 93 92 95 95 95 97 99 100 101 101 102 102 102 103 102 102 101 102 101 100 101 102 102 103 103 106 103 104 105 105 105 107 107 107 108 110 112 114 115 116 117 118 118 120 121 122 122 123 124 126 130 134 136 140 140 141 141 142 143 145 144 145 145 148 150 152 152 152 152 153 154 154 156 161 167 -209 169 172 175 179 184 192 189 189 188 190 190 190 196 192 189 193 192 192 192 192 192 188 194 194 0 0 0 0 0
    0 0 0 0 0 0 0 0 0 0 0 0 0 0 0 0 0 0 0 0 0 0 0 0 0 0 0 0 0 0 0 0 0 0 0 0 0 0 0 0 0 0 0 0 0 0 0 0 0 0 0 0 0 0 0 0 0 0 0 0 0 0 0 0 0 0 0 0 0 112 110 110 110 110 109 108 108 106 105 104 102 100 99 100 96 95 100 99 100 101 100 99 98 97 98 96 97 95 95 93 91 92 94 95 97 98 99 98 100 100 99 98 96 95 94 -225 -225 -225 -225 -225 -225 -225 -225 -225 -225 -225 -225 -225 -225 -225 -225 -225 -225 -225 -225 -225 -225 -225 -225 -225 -225 -225 -225 -225 -225 -225 -225 -225 -225 -225 -225 -225 -225 -225 -225 -225 -225 -225 -225 -225 -225 -225 -225 -225 -225 -225 -225 -225 -225 -225 -225 -225 -225 -225 -225 -225 -225 -225 -225 -225 -225 -225 -225 -225 -225 -225 -225 -225 -225 -225 -225 -225 -225 -225 -225 -225 -225 -225 -225 -225 -225 -225 -225 -225 -225 -225 -225 -225 -225 -225 -225 90 88 87 88 96 92 95 95 96 98 99 100 101 102 103 103 103 104 104 104 103 104 103 103 105 106 106 106 107 108 107 107 107 107 106 108 109 108 110 112 114 115 116 117 118 119 119 120 121 121 122 122 124 126 129 133 135 139 139 141 141 141 143 145 145 146 147 150 151 153 154 154 152 153 154 154 156 162 168 -209 174 177 180 182 185 194 189 190 188 190 191 191 196 192 189 193 192 191 191 191 192 187 191 191 0 0 0 0 0</data></disparity>
</opencv_storage>
