<?xml version="1.0"?>
<opencv_storage>
<gps_time_stamp>315501</gps_time_stamp>
<gps_x>-1.2432659149169922e+001</gps_x>
<gps_y>1.0964301109313965e+001</gps_y>
<gps_z>-2.0071613788604736e+000</gps_z>
<image_time_stamp>306357</image_time_stamp>
<disparity type_id="opencv-matrix">
  <rows>89</rows>
  <cols>320</cols>
  <dt>s</dt>
  <data>
    0 0 0 0 0 0 0 0 0 0 0 0 0 0 0 0 0 0 0 0 0 0 0 0 0 0 0 0 0 0 0 0 0 0 0 0 0 0 0 0 0 0 0 0 0 0 0 0 0 0 0 0 0 0 0 0 0 0 0 0 0 0 0 0 0 0 0 0 0 48 49 50 48 48 48 48 49 45 48 46 46 46 45 44 44 44 45 46 48 46 47 46 44 43 43 42 39 34 32 31 34 38 34 36 34 34 33 31 31 31 28 34 29 29 29 32 33 32 32 32 -225 -225 -225 -225 -225 -225 -225 -225 -225 -225 -225 -225 -225 -225 -225 -225 -225 -225 -225 -225 -225 -225 -225 -225 -225 -225 -225 -225 -225 -225 -225 -225 -225 -225 -225 -225 -225 -225 -225 -225 -225 -225 -225 -225 -225 -225 -225 -225 -225 9 18 12 13 12 12 11 11 12 12 9 12 -225 -225 -225 -225 -225 -225 34 33 33 34 35 34 37 35 37 39 40 40 44 43 46 47 51 51 52 54 54 53 56 56 55 56 59 60 59 62 64 63 68 74 74 75 82 79 80 83 81 81 79 83 83 80 85 85 82 90 91 92 92 94 99 102 104 106 107 110 110 112 113 114 114 114 115 116 117 117 118 120 122 122 123 124 128 127 129 131 -193 -209 -193 -193 -209 -193 148 -177 -193 154 152 153 151 151 151 152 152 152 149 153 -209 156 163 164 165 168 171 178 176 177 181 186 185 185 185 186 188 189 190 -193 -193 192 195 196 195 194 196 197 0 0 0 0 0
    0 0 0 0 0 0 0 0 0 0 0 0 0 0 0 0 0 0 0 0 0 0 0 0 0 0 0 0 0 0 0 0 0 0 0 0 0 0 0 0 0 0 0 0 0 0 0 0 0 0 0 0 0 0 0 0 0 0 0 0 0 0 0 0 0 0 0 0 0 48 49 49 48 48 48 48 49 45 48 46 47 46 46 45 45 45 46 46 48 46 46 47 45 44 43 42 41 36 35 32 34 38 34 36 34 34 32 31 31 31 28 34 29 29 29 32 33 33 33 33 -225 -225 -225 -225 -225 -225 -225 -225 -225 -225 -225 -225 -225 -225 -225 -225 -225 -225 -225 -225 -225 -225 -225 -225 -225 -225 -225 -225 -225 -225 -225 -225 -225 -225 -225 -225 -225 -225 -225 -225 -225 -225 -225 -225 -225 -225 -225 -225 11 12 17 12 14 12 12 12 12 12 12 10 12 -225 -225 -225 -225 -225 -225 32 32 33 34 35 34 37 35 37 39 40 40 44 43 46 48 51 52 53 55 55 55 58 58 57 58 59 60 59 62 63 62 68 74 75 76 83 80 80 83 80 80 78 83 83 80 85 85 82 90 91 92 93 95 100 103 105 106 108 110 111 111 112 113 113 114 115 116 117 116 118 119 121 122 122 123 127 127 129 132 -193 -177 -209 -209 -209 -193 -209 -177 -177 154 151 152 151 151 151 151 151 151 147 152 -193 156 163 163 165 167 170 177 175 176 180 185 184 185 185 185 188 189 190 -193 -193 191 195 196 195 194 196 197 0 0 0 0 0
    0 0 0 0 0 0 0 0 0 0 0 0 0 0 0 0 0 0 0 0 0 0 0 0 0 0 0 0 0 0 0 0 0 0 0 0 0 0 0 0 0 0 0 0 0 0 0 0 0 0 0 0 0 0 0 0 0 0 0 0 0 0 0 0 0 0 0 0 0 48 49 49 48 48 48 48 49 45 49 47 47 47 46 45 46 46 47 47 48 46 46 47 45 44 43 42 41 37 37 34 34 38 34 35 34 34 32 31 31 31 27 33 29 29 28 32 33 32 32 32 -225 -225 -225 -225 -225 -225 -225 -225 -225 -225 -225 -225 -225 -225 -225 -225 -225 -225 -225 -225 -225 -225 -225 -225 -225 -225 -225 -225 -225 -225 -225 -225 -225 -225 -225 -225 -225 -225 -225 -225 -225 -225 -225 -225 -225 -225 -225 -225 12 15 17 13 15 13 13 13 12 13 12 10 11 0 9 -225 -225 -225 -225 30 31 32 33 34 34 37 35 36 39 40 40 43 43 46 -193 52 53 54 56 56 56 59 59 58 59 59 60 59 62 62 61 68 76 75 77 84 80 80 83 80 80 78 82 82 79 84 85 82 90 91 93 93 96 101 103 105 107 108 110 111 111 112 112 113 113 115 116 116 116 117 119 -193 121 122 122 126 126 128 131 -193 -177 -193 -209 -209 -177 -209 -177 -177 154 150 152 150 150 150 150 150 150 146 152 152 155 163 163 164 166 170 175 174 174 178 184 184 184 184 185 187 189 190 -193 192 191 195 196 195 194 196 197 0 0 0 0 0
    0 0 0 0 0 0 0 0 0 0 0 0 0 0 0 0 0 0 0 0 0 0 0 0 0 0 0 0 0 0 0 0 0 0 0 0 0 0 0 0 0 0 0 0 0 0 0 0 0 0 0 0 0 0 0 0 0 0 0 0 0 0 0 0 0 0 0 0 0 48 49 49 48 48 48 48 49 45 49 47 47 48 46 45 46 46 47 47 48 46 45 47 45 44 44 43 42 39 39 37 35 38 34 35 34 34 32 31 31 31 28 34 29 30 28 32 32 32 32 32 -225 -225 -225 -225 -225 -225 -225 -225 -225 -225 -225 -225 -225 -225 -225 -225 -225 -225 -225 -225 -225 -225 -225 -225 -225 -225 -225 -225 -225 -225 -225 -225 -225 -225 -225 -225 -225 -225 -225 -225 -225 -225 -225 -225 -225 -225 -225 -225 13 17 17 13 15 13 13 13 13 13 12 10 11 0 9 0 -225 -225 -225 28 30 32 33 33 33 37 35 36 39 39 40 43 42 45 -193 52 -193 -193 -193 57 57 59 60 58 59 60 60 60 62 61 61 69 79 77 79 84 80 80 83 80 80 78 82 82 79 84 84 82 90 91 93 94 98 102 104 106 106 108 110 111 111 111 111 112 113 114 115 115 115 116 118 120 121 121 121 125 125 128 131 -177 -177 -177 -177 -193 -177 -193 -177 -177 154 150 151 149 149 149 149 150 149 145 152 153 156 165 165 166 167 170 173 173 173 177 183 183 184 184 185 187 189 190 192 192 191 195 196 195 194 196 -193 0 0 0 0 0
    0 0 0 0 0 0 0 0 0 0 0 0 0 0 0 0 0 0 0 0 0 0 0 0 0 0 0 0 0 0 0 0 0 0 0 0 0 0 0 0 0 0 0 0 0 0 0 0 0 0 0 0 0 0 0 0 0 0 0 0 0 0 0 0 0 0 0 0 0 48 49 50 48 48 48 48 49 44 49 47 47 47 46 45 46 46 47 46 48 46 45 47 46 45 44 43 43 40 41 39 35 38 35 35 34 34 33 31 31 31 28 34 29 30 28 32 32 32 32 32 -225 -225 -225 -225 -225 -225 -225 -225 -225 -225 -225 -225 -225 -225 -225 -225 -225 -225 -225 -225 -225 -225 -225 -225 -225 -225 -225 -225 -225 -225 -225 -225 -225 -225 -225 -225 -225 -225 -225 -225 -225 -225 -225 -225 -225 -225 -225 -225 13 19 17 14 16 14 14 13 13 14 12 11 11 9 9 0 0 -225 -225 28 30 32 34 35 34 38 35 35 38 38 40 42 42 45 -193 52 -193 -193 57 57 58 60 61 59 60 59 60 60 62 61 62 69 82 78 80 85 80 80 83 80 80 78 82 82 79 84 84 82 90 92 95 97 100 104 105 106 107 109 111 111 111 111 112 113 114 114 115 115 115 116 118 -193 121 121 121 126 125 129 132 -177 -177 -177 -177 -193 -177 -193 -177 -177 153 149 150 148 148 148 148 149 149 145 152 153 157 164 164 166 167 169 174 173 174 176 183 183 184 184 185 187 189 190 192 192 191 195 196 195 194 196 -193 0 0 0 0 0
    0 0 0 0 0 0 0 0 0 0 0 0 0 0 0 0 0 0 0 0 0 0 0 0 0 0 0 0 0 0 0 0 0 0 0 0 0 0 0 0 0 0 0 0 0 0 0 0 0 0 0 0 0 0 0 0 0 0 0 0 0 0 0 0 0 0 0 0 0 49 49 50 49 48 49 48 49 44 49 47 47 47 46 45 46 46 47 46 48 45 45 47 46 45 44 43 44 41 41 40 36 38 35 35 34 34 33 31 31 31 27 34 29 29 28 31 32 32 32 32 -225 -225 -225 -225 -225 -225 -225 -225 -225 -225 -225 -225 -225 -225 -225 -225 -225 -225 -225 -225 -225 -225 -225 -225 -225 -225 -225 -225 -225 -225 -225 -225 -225 -225 -225 -225 -225 -225 -225 -225 -225 -225 -225 -225 -225 -225 -225 -225 13 20 16 15 16 14 14 13 13 14 11 10 10 9 0 0 0 -225 -225 -193 30 32 35 36 36 38 35 35 37 38 40 42 41 45 -193 53 -193 -193 58 58 59 60 61 59 60 59 59 60 62 61 62 70 83 78 80 84 80 80 83 80 80 78 82 82 78 83 84 81 90 94 98 99 102 105 106 107 107 109 110 110 110 110 111 112 112 112 113 114 114 115 118 -193 -193 120 121 125 126 130 132 -177 -177 -177 -177 -177 -177 -193 -177 -177 153 148 150 147 148 148 148 148 148 144 152 153 156 162 163 165 167 169 175 174 175 176 182 183 184 184 184 187 189 190 192 192 191 195 197 195 194 195 -193 0 0 0 0 0
    0 0 0 0 0 0 0 0 0 0 0 0 0 0 0 0 0 0 0 0 0 0 0 0 0 0 0 0 0 0 0 0 0 0 0 0 0 0 0 0 0 0 0 0 0 0 0 0 0 0 0 0 0 0 0 0 0 0 0 0 0 0 0 0 0 0 0 0 0 49 49 50 49 49 49 48 49 45 49 47 48 48 46 45 46 47 47 45 48 45 45 47 46 45 45 44 44 41 42 41 36 38 35 35 34 34 33 31 31 31 27 34 29 29 28 31 32 32 32 32 -225 -225 -225 -225 -225 -225 -225 -225 -225 -225 -225 -225 -225 -225 -225 -225 -225 -225 -225 -225 -225 -225 -225 -225 -225 -225 -225 -225 -225 -225 -225 -225 -225 -225 -225 -225 -225 -225 -225 -225 -225 -225 -225 -225 -225 -225 -225 17 14 20 16 15 16 15 14 13 13 14 10 10 10 9 0 0 0 -225 -225 -177 30 32 35 36 35 38 35 35 36 37 40 41 41 45 -193 53 -193 -193 57 57 58 60 60 58 59 58 57 59 61 60 61 70 83 78 80 84 80 80 83 80 80 78 82 82 79 84 84 82 90 95 98 100 102 105 106 107 108 109 109 109 109 110 110 111 110 111 113 113 113 114 116 -193 -193 119 120 -193 126 131 133 -177 -177 -177 -177 -177 -193 -193 -177 -177 -193 147 150 147 147 147 148 148 148 144 153 154 157 162 163 166 167 169 175 174 174 176 182 183 183 184 184 186 189 189 192 192 192 195 197 195 194 195 197 0 0 0 0 0
    0 0 0 0 0 0 0 0 0 0 0 0 0 0 0 0 0 0 0 0 0 0 0 0 0 0 0 0 0 0 0 0 0 0 0 0 0 0 0 0 0 0 0 0 0 0 0 0 0 0 0 0 0 0 0 0 0 0 0 0 0 0 0 0 0 0 0 0 0 49 49 50 49 49 49 49 49 45 50 48 48 48 46 45 46 47 47 45 48 45 44 47 45 45 44 44 44 42 43 42 37 38 35 36 34 34 33 31 31 31 27 34 28 29 28 31 32 32 32 32 -225 -225 -225 -225 -225 -225 -225 -225 -225 -225 -225 -225 -225 -225 -225 -225 -225 -225 -225 -225 -225 -225 -225 -225 -225 -225 -225 -225 -225 -225 -225 -225 -225 -225 -225 -225 -225 -225 -225 -225 -225 -225 -225 -225 -225 -225 -225 15 14 21 15 15 15 14 14 13 13 13 10 10 10 9 0 0 0 -225 -225 -177 30 32 36 35 35 38 35 35 37 38 41 41 42 46 -193 53 -193 58 57 57 58 59 60 58 59 57 56 59 60 60 62 70 84 78 79 84 80 80 83 80 80 78 82 82 79 84 84 83 90 95 98 100 102 105 106 107 107 108 108 109 109 109 109 110 109 110 112 112 112 113 115 -193 -193 118 119 -193 126 132 133 -177 -177 -177 -177 -177 -193 -177 -177 -177 -193 147 149 147 147 148 148 148 149 145 153 155 157 163 164 166 167 169 175 174 174 175 182 182 183 184 184 186 188 189 192 192 192 195 197 195 195 195 197 0 0 0 0 0
    0 0 0 0 0 0 0 0 0 0 0 0 0 0 0 0 0 0 0 0 0 0 0 0 0 0 0 0 0 0 0 0 0 0 0 0 0 0 0 0 0 0 0 0 0 0 0 0 0 0 0 0 0 0 0 0 0 0 0 0 0 0 0 0 0 0 0 0 0 49 49 50 49 49 49 49 49 45 51 48 48 48 46 46 46 47 47 45 47 45 44 47 45 45 44 44 44 42 42 42 37 38 35 36 34 34 33 31 31 31 27 34 28 29 29 32 33 33 33 33 -225 -225 -225 -225 -225 -225 -225 -225 -225 -225 -225 -225 -225 -225 -225 -225 -225 -225 -225 -225 -225 -225 -225 -225 -225 -225 -225 -225 -225 -225 -225 -225 -225 -225 -225 -225 -225 -225 -225 -225 -225 -225 -225 -225 -225 -225 -225 14 13 21 15 14 15 14 14 13 13 13 9 10 10 9 0 0 0 -225 -225 338 31 34 37 36 36 38 36 35 37 38 42 42 42 47 -193 53 57 59 57 57 59 60 60 58 59 57 57 59 61 60 62 70 84 78 78 84 80 80 83 80 80 78 82 82 79 84 85 84 91 95 97 99 101 105 105 106 106 107 107 108 108 108 108 109 109 109 112 111 112 113 115 -193 -193 117 119 -209 125 132 132 -193 -177 -177 -177 -177 -177 -177 -177 -177 -193 147 150 148 147 148 148 148 149 145 154 156 158 165 165 167 167 169 176 175 175 176 182 183 183 184 184 186 188 189 192 192 192 195 197 195 195 195 197 0 0 0 0 0
    0 0 0 0 0 0 0 0 0 0 0 0 0 0 0 0 0 0 0 0 0 0 0 0 0 0 0 0 0 0 0 0 0 0 0 0 0 0 0 0 0 0 0 0 0 0 0 0 0 0 0 0 0 0 0 0 0 0 0 0 0 0 0 0 0 0 0 0 0 49 50 50 49 49 49 49 49 45 51 48 47 48 46 46 46 47 47 45 47 45 44 47 45 45 45 44 44 42 42 42 36 38 35 35 34 34 32 31 31 30 27 34 29 29 29 33 34 34 34 34 -225 -225 -225 -225 -225 -225 -225 -225 -225 -225 -225 -225 -225 -225 -225 -225 -225 -225 -225 -225 -225 -225 -225 -225 -225 -225 -225 -225 -225 -225 -225 -225 -225 -225 -225 -225 -225 -225 -225 -225 -225 -225 -225 -225 -225 -225 -225 13 13 21 15 16 16 15 15 13 14 14 10 10 10 9 0 0 0 -225 -225 341 -193 35 39 36 36 37 37 35 36 38 41 41 42 47 -193 53 57 59 58 58 60 60 60 59 60 58 58 60 62 61 64 70 82 77 78 83 79 79 83 80 80 78 82 82 80 85 86 85 91 94 96 98 100 104 104 105 105 107 107 108 107 108 108 108 108 109 111 111 112 113 115 -193 -193 118 119 -193 124 131 131 -193 -177 -177 -177 -177 -177 -177 -177 -177 -193 147 150 148 147 148 148 148 149 145 153 156 157 165 166 168 169 170 177 175 176 177 182 183 183 184 184 186 188 188 192 192 193 195 197 195 194 195 197 0 0 0 0 0
    0 0 0 0 0 0 0 0 0 0 0 0 0 0 0 0 0 0 0 0 0 0 0 0 0 0 0 0 0 0 0 0 0 0 0 0 0 0 0 0 0 0 0 0 0 0 0 0 0 0 0 0 0 0 0 0 0 0 0 0 0 0 0 0 0 0 0 0 0 49 50 50 50 50 49 49 49 45 51 48 47 48 46 45 46 47 47 45 47 45 44 47 45 44 45 44 44 42 42 42 36 38 35 35 34 34 32 31 31 30 27 34 29 29 30 33 34 35 35 35 -225 -225 -225 -225 -225 -225 -225 -225 -225 -225 -225 -225 -225 -225 -225 -225 -225 -225 -225 -225 -225 -225 -225 -225 -225 -225 -225 -225 -225 -225 -225 -225 -225 -225 -225 -225 -225 -225 -225 -225 -225 -225 -225 -225 -225 -225 -225 13 13 21 15 16 15 15 15 14 14 14 10 11 11 10 10 0 0 -177 -225 343 -193 -193 39 37 37 38 37 35 36 37 41 40 42 46 -193 53 -193 58 58 58 60 60 60 59 60 58 58 59 62 61 65 70 79 76 77 83 79 79 82 80 80 78 83 83 81 86 87 87 92 95 97 97 100 102 103 103 104 106 106 106 107 107 107 108 108 108 110 110 112 113 116 -209 -193 119 120 122 125 131 130 134 -193 -193 -177 -177 -177 -177 -177 -177 151 146 150 149 147 148 148 149 149 146 154 156 157 163 165 167 168 169 177 175 176 176 182 183 183 184 184 186 188 188 192 191 193 195 197 195 194 195 197 0 0 0 0 0
    0 0 0 0 0 0 0 0 0 0 0 0 0 0 0 0 0 0 0 0 0 0 0 0 0 0 0 0 0 0 0 0 0 0 0 0 0 0 0 0 0 0 0 0 0 0 0 0 0 0 0 0 0 0 0 0 0 0 0 0 0 0 0 0 0 0 0 0 0 50 50 51 50 50 49 50 50 45 51 48 47 47 46 45 46 47 47 45 47 45 44 47 45 44 45 44 44 42 42 42 36 38 35 35 34 34 32 31 31 30 28 33 29 29 30 33 34 35 35 35 -193 -209 -225 -225 -225 -225 -225 -225 -225 -225 -225 -225 -225 -225 -225 -225 -225 -225 -225 -225 -225 -225 -225 -225 -225 -225 -225 -225 -225 -225 -225 -225 -225 -225 -225 -225 -225 -225 -225 -225 -225 -225 -225 -225 -225 -225 -225 12 12 21 15 15 15 15 15 14 14 15 11 12 12 12 11 9 10 18 -225 -209 34 -193 -193 37 38 38 38 36 36 38 40 40 42 46 -193 -177 -177 58 58 58 60 61 61 59 60 58 59 60 64 62 66 69 76 75 76 82 78 79 82 80 80 79 83 83 81 86 87 87 91 94 96 97 100 101 102 103 103 104 104 105 105 106 106 107 106 106 109 109 111 113 115 -193 -177 -193 120 123 125 132 130 134 -193 139 -193 -177 -177 -177 -177 -177 151 146 150 149 147 148 148 149 149 147 154 156 157 161 164 166 167 168 176 175 176 176 182 183 184 184 184 186 188 188 192 191 193 195 196 194 194 194 197 0 0 0 0 0
    0 0 0 0 0 0 0 0 0 0 0 0 0 0 0 0 0 0 0 0 0 0 0 0 0 0 0 0 0 0 0 0 0 0 0 0 0 0 0 0 0 0 0 0 0 0 0 0 0 0 0 0 0 0 0 0 0 0 0 0 0 0 0 0 0 0 0 0 0 50 50 51 50 50 50 50 50 45 51 48 47 48 46 45 46 47 47 45 47 45 44 48 45 44 45 44 44 42 42 42 37 38 36 35 34 34 33 31 31 30 28 32 29 28 29 32 34 34 34 34 0 -193 59 -225 -225 -225 -225 -225 -225 -225 -225 -225 -225 -225 -225 -225 -225 -225 -225 -225 -225 -225 -225 -225 -225 -225 -225 -225 -225 -225 -225 -225 -225 -225 -225 -225 -225 -225 -225 -225 -225 -225 -225 -225 -225 -225 -225 11 11 21 15 15 14 15 15 14 15 16 11 12 12 13 12 10 11 19 -209 -209 -193 -177 -177 38 38 39 39 36 36 38 40 40 41 45 -193 162 164 58 59 58 60 61 61 59 60 58 59 59 64 63 66 69 75 75 76 81 78 78 82 80 80 79 83 83 82 86 87 87 91 94 96 97 99 101 101 102 103 103 103 103 103 104 104 105 105 104 108 108 110 112 114 -193 -177 -193 -193 123 125 132 130 134 138 139 -193 -177 -177 -177 -177 -177 151 146 150 149 147 149 149 149 150 148 154 155 156 159 162 164 166 167 176 174 175 176 182 183 184 184 184 186 188 188 192 191 193 194 196 194 194 194 -193 0 0 0 0 0
    0 0 0 0 0 0 0 0 0 0 0 0 0 0 0 0 0 0 0 0 0 0 0 0 0 0 0 0 0 0 0 0 0 0 0 0 0 0 0 0 0 0 0 0 0 0 0 0 0 0 0 0 0 0 0 0 0 0 0 0 0 0 0 0 0 0 0 0 0 50 51 51 50 50 50 50 50 46 51 49 47 47 46 45 46 47 47 45 47 45 44 48 45 44 45 44 44 42 42 42 37 38 36 35 34 34 32 31 31 30 28 32 29 28 29 32 35 35 35 35 0 -209 59 -225 -225 -225 -225 -225 -225 -225 -225 -225 -225 -225 -225 -225 -225 -225 -225 -225 -225 -225 -225 -225 -225 -225 -225 -225 -225 -225 -225 -225 -225 -225 -225 -225 -225 -225 -225 -225 -225 -225 -225 -225 -225 -225 13 10 10 20 13 13 13 13 13 13 14 15 11 13 13 13 12 10 11 19 -209 -209 -193 -177 -177 39 39 39 39 37 36 38 40 40 41 46 -193 161 163 58 58 58 60 60 61 59 60 58 60 59 65 63 66 69 74 74 75 81 78 78 82 80 80 79 83 83 81 86 86 87 91 95 95 96 98 99 100 101 101 102 102 102 102 103 103 104 103 104 107 108 110 111 -193 -193 -177 -193 -193 124 125 132 128 133 138 138 -193 -177 -177 -177 -177 -177 151 146 150 150 148 149 149 149 150 148 154 155 155 159 161 163 164 167 173 173 174 174 181 183 184 184 184 186 188 188 192 191 193 194 196 194 193 195 -193 0 0 0 0 0
    0 0 0 0 0 0 0 0 0 0 0 0 0 0 0 0 0 0 0 0 0 0 0 0 0 0 0 0 0 0 0 0 0 0 0 0 0 0 0 0 0 0 0 0 0 0 0 0 0 0 0 0 0 0 0 0 0 0 0 0 0 0 0 0 0 0 0 0 0 50 50 51 50 50 50 50 50 46 51 48 47 47 46 45 46 46 47 44 47 45 44 48 46 44 45 44 45 43 43 43 37 38 36 35 34 34 32 31 31 30 28 32 29 28 30 30 36 -193 -193 -193 0 57 60 -225 -225 -225 -225 -225 -225 -225 -225 -225 -225 -225 -225 -225 -225 -225 -225 -225 -225 -225 -225 -225 -225 -225 -225 -225 -225 -225 -225 -225 -225 -225 -225 -225 -225 -225 -225 -225 -225 -225 -225 -225 -225 -225 10 9 11 18 13 14 13 14 14 14 14 14 12 14 13 14 12 11 12 19 -209 -209 -193 -177 -177 39 38 39 39 38 37 38 40 40 41 45 -177 160 161 57 58 58 59 60 60 59 60 59 60 59 65 64 65 68 74 74 75 80 77 78 82 80 80 79 83 83 81 86 87 87 92 95 95 96 97 99 100 100 101 101 101 102 102 103 103 104 103 104 108 111 112 113 -193 -193 942 947 -193 124 124 132 128 133 138 138 142 -177 -177 -177 -177 -177 150 146 150 150 148 149 149 150 150 148 154 155 155 159 162 163 165 167 173 173 173 174 182 183 184 184 185 187 188 188 192 191 193 194 196 195 194 195 784 0 0 0 0 0
    0 0 0 0 0 0 0 0 0 0 0 0 0 0 0 0 0 0 0 0 0 0 0 0 0 0 0 0 0 0 0 0 0 0 0 0 0 0 0 0 0 0 0 0 0 0 0 0 0 0 0 0 0 0 0 0 0 0 0 0 0 0 0 0 0 0 0 0 0 50 51 51 50 50 50 50 50 46 51 48 47 47 46 45 46 46 47 44 47 45 44 48 46 45 45 44 45 43 44 44 38 39 37 35 34 33 32 31 30 30 28 31 29 28 30 29 37 58 -193 -193 -193 58 60 -225 -225 -225 -225 -225 -225 -225 -225 -225 -225 -225 -225 -225 -225 -225 -225 -225 -225 -225 -225 -225 -225 -225 -225 -225 -225 -225 -225 -225 -225 -225 -225 -225 -225 -225 -225 -225 -225 -225 -225 -225 -225 -225 9 9 12 16 13 13 13 14 14 14 15 14 13 14 14 14 12 11 12 19 24 -209 -177 -177 -177 40 39 39 40 39 37 38 41 41 42 46 -193 161 161 57 59 59 60 61 61 60 61 59 62 60 67 64 65 68 73 74 74 79 77 77 81 80 80 79 82 83 81 86 87 87 92 94 95 95 96 98 99 100 99 100 101 102 102 103 103 104 104 105 111 114 115 115 116 -193 -177 -177 -193 125 124 131 128 133 138 139 142 -177 -177 -177 -177 -177 150 147 151 151 148 149 -193 150 150 149 153 155 154 158 160 162 164 166 172 172 173 174 181 183 184 184 185 187 188 188 192 191 193 194 196 195 194 196 784 0 0 0 0 0
    0 0 0 0 0 0 0 0 0 0 0 0 0 0 0 0 0 0 0 0 0 0 0 0 0 0 0 0 0 0 0 0 0 0 0 0 0 0 0 0 0 0 0 0 0 0 0 0 0 0 0 0 0 0 0 0 0 0 0 0 0 0 0 0 0 0 0 0 0 50 51 51 50 50 50 50 50 45 51 48 47 46 46 45 46 46 47 44 47 45 45 48 46 45 46 45 46 43 44 45 39 39 37 36 35 34 33 31 31 30 29 31 29 29 31 -177 -209 59 59 59 -193 59 60 -225 -225 -225 -225 -225 -225 -225 -225 -225 -225 -225 -225 -225 -225 -225 -225 -225 -225 -225 -225 -225 -225 -225 -225 -225 -225 -225 -225 -225 -225 -225 -225 -225 -225 -225 -225 -225 -225 -225 -225 -225 -225 -225 0 0 12 15 13 14 14 14 14 15 15 14 13 14 13 13 12 11 11 18 23 -209 371 -177 -177 40 38 39 40 39 -177 38 40 41 41 45 -193 160 160 -193 60 59 60 61 62 60 62 60 63 60 68 64 65 68 73 73 74 79 77 77 81 80 80 79 82 83 81 86 87 87 91 94 94 95 96 96 98 99 99 100 100 101 103 103 104 105 104 106 112 116 116 116 117 -193 940 946 122 125 125 131 129 133 138 139 143 -177 -177 -177 -177 -177 -193 147 151 151 148 150 -193 150 150 148 153 154 154 157 160 162 164 167 172 172 172 174 181 183 184 184 185 187 189 189 193 191 193 195 196 196 195 196 785 0 0 0 0 0
    0 0 0 0 0 0 0 0 0 0 0 0 0 0 0 0 0 0 0 0 0 0 0 0 0 0 0 0 0 0 0 0 0 0 0 0 0 0 0 0 0 0 0 0 0 0 0 0 0 0 0 0 0 0 0 0 0 0 0 0 0 0 0 0 0 0 0 0 0 50 51 51 50 50 50 50 51 45 51 47 46 46 46 45 46 46 47 44 48 45 45 48 46 45 46 45 46 43 45 45 41 42 39 37 37 36 35 33 33 32 30 32 30 29 32 33 44 58 58 58 58 58 60 -225 -225 -225 -225 -225 -225 -225 -225 -225 -225 -225 -225 -225 -225 -225 -225 -225 -225 -225 -225 -225 -225 -225 -225 -225 -225 -225 -225 -225 -225 -225 -225 -225 -225 -225 -225 -225 -225 -225 -225 -225 -225 -225 9 9 14 14 14 15 14 14 14 15 15 14 14 14 13 14 12 11 11 17 23 -209 374 -177 374 40 38 38 39 39 -177 38 40 41 41 45 -193 159 159 -193 60 59 60 61 61 60 62 60 64 59 68 65 65 68 73 73 74 79 76 77 81 81 81 79 82 83 81 86 87 87 91 94 94 95 95 95 97 100 100 100 100 102 104 105 106 107 105 107 113 117 117 117 117 -193 -193 -193 123 126 125 131 130 134 138 139 144 -177 -177 -177 -177 -177 -177 148 151 151 148 150 150 150 150 149 153 153 153 156 158 160 163 167 171 172 172 174 182 184 185 185 185 188 189 189 193 191 193 195 197 196 196 197 786 0 0 0 0 0
    0 0 0 0 0 0 0 0 0 0 0 0 0 0 0 0 0 0 0 0 0 0 0 0 0 0 0 0 0 0 0 0 0 0 0 0 0 0 0 0 0 0 0 0 0 0 0 0 0 0 0 0 0 0 0 0 0 0 0 0 0 0 0 0 0 0 0 0 0 51 51 51 50 51 50 50 51 46 51 47 46 46 45 45 46 46 46 44 48 45 45 48 46 45 46 45 46 44 46 46 42 44 43 40 39 39 38 35 34 33 31 31 29 27 30 -177 -193 57 57 57 58 58 59 -225 -225 -225 -225 -225 -225 -225 -225 -225 -225 -225 -225 -225 -225 -225 -225 -225 -225 -225 -225 -225 -225 -225 -225 -225 -225 -225 -225 -225 -225 -225 -225 -225 -225 -225 -225 -225 -225 -225 -225 -225 -225 -225 0 -177 15 13 14 14 13 13 15 15 15 14 14 14 13 14 12 11 11 16 22 -209 -193 372 375 40 37 37 39 39 -177 38 40 41 41 45 51 160 159 -193 59 58 59 60 61 60 62 60 64 59 69 65 65 68 73 74 74 79 77 77 82 81 81 79 83 84 82 87 88 87 92 94 95 95 95 94 97 100 100 100 101 102 105 106 107 108 105 107 114 -193 117 116 117 -209 -193 -193 123 126 125 131 131 134 -193 140 145 -177 -177 -177 -177 -177 -177 149 152 152 149 150 150 151 151 149 153 154 154 157 159 161 163 167 171 172 173 175 182 185 185 185 186 188 189 189 193 191 -193 196 197 197 196 198 -193 0 0 0 0 0
    0 0 0 0 0 0 0 0 0 0 0 0 0 0 0 0 0 0 0 0 0 0 0 0 0 0 0 0 0 0 0 0 0 0 0 0 0 0 0 0 0 0 0 0 0 0 0 0 0 0 0 0 0 0 0 0 0 0 0 0 0 0 0 0 0 0 0 0 0 51 51 51 50 51 50 50 51 46 51 47 46 46 46 45 46 46 47 44 49 46 45 48 46 45 46 46 46 44 46 48 43 47 46 43 44 45 42 38 -193 36 35 35 -193 25 37 -209 49 55 53 53 56 56 57 43 -225 -225 -225 -225 -225 -225 -225 -225 -225 -225 -225 -225 -225 -225 -225 -225 -225 -225 -225 -225 -225 -225 -225 -225 -225 -225 -225 -225 -225 -225 -225 -225 -225 -225 -225 -225 -225 -225 -225 -225 -225 18 11 11 17 13 13 14 13 13 14 15 14 13 14 13 12 13 11 10 10 15 23 -209 35 -193 38 40 37 37 38 38 37 38 40 41 40 44 50 -193 158 -193 58 58 59 60 60 60 62 60 63 59 69 65 65 69 74 74 75 79 77 78 81 81 81 79 82 83 81 86 87 86 91 93 93 94 93 93 97 101 100 101 102 103 -193 107 108 107 104 107 114 -193 118 117 117 -209 -209 -209 123 126 124 131 132 134 -209 140 -193 -177 -177 -177 -177 -177 -177 149 152 152 149 151 151 151 151 151 153 154 153 157 159 161 163 167 172 174 174 176 182 185 185 185 186 188 189 189 193 191 -177 -193 198 198 198 198 -193 0 0 0 0 0
    0 0 0 0 0 0 0 0 0 0 0 0 0 0 0 0 0 0 0 0 0 0 0 0 0 0 0 0 0 0 0 0 0 0 0 0 0 0 0 0 0 0 0 0 0 0 0 0 0 0 0 0 0 0 0 0 0 0 0 0 0 0 0 0 0 0 0 0 0 51 51 51 50 50 50 50 51 47 50 47 47 47 47 46 47 47 48 46 49 46 46 49 47 46 47 46 46 45 47 49 45 49 49 47 48 51 49 -209 -193 -209 43 43 -193 -193 48 47 52 55 54 53 55 55 54 45 45 -225 -225 -225 -225 -225 -225 -225 -225 -225 -225 -225 -225 -225 -225 -225 -225 -225 -225 -225 -225 -225 -225 -225 -225 -225 -225 -225 -225 -225 -225 -225 -225 -225 -225 -225 -225 -225 -225 -225 -225 17 12 12 17 12 12 13 12 12 13 14 13 11 13 13 11 11 9 0 0 13 25 -225 34 35 36 40 35 35 37 38 36 38 39 40 40 43 49 49 -177 55 58 58 58 59 60 59 61 60 63 58 68 64 64 68 75 74 75 79 77 78 81 81 81 79 82 83 80 86 86 87 91 92 92 93 92 93 97 101 101 101 102 104 -193 -193 108 108 105 107 115 -209 118 -193 118 -209 -209 122 123 126 124 131 131 134 -209 140 -193 -177 -177 -193 -177 -177 -177 150 152 153 150 152 152 152 152 152 153 154 153 158 161 163 165 168 173 175 175 176 182 186 185 185 186 187 189 189 193 -193 588 -193 199 -193 198 199 203 0 0 0 0 0
    0 0 0 0 0 0 0 0 0 0 0 0 0 0 0 0 0 0 0 0 0 0 0 0 0 0 0 0 0 0 0 0 0 0 0 0 0 0 0 0 0 0 0 0 0 0 0 0 0 0 0 0 0 0 0 0 0 0 0 0 0 0 0 0 0 0 0 0 0 51 51 51 50 50 50 50 51 47 50 47 47 48 48 46 48 48 49 47 50 47 47 50 48 47 48 47 47 46 48 50 46 50 51 50 51 53 53 -193 -193 -193 50 49 48 49 51 49 52 55 53 52 53 52 50 45 45 45 -225 -225 -225 -225 -225 -225 -225 -225 -225 -225 -225 -225 -225 -225 -225 -225 -225 -225 -225 -225 -225 -225 -225 -225 -225 -225 -225 -225 -225 -225 -225 -225 -225 -225 -225 -225 23 22 23 17 12 12 17 12 12 13 12 12 13 13 13 10 13 12 11 11 0 0 0 -225 -225 -225 34 35 36 39 34 35 37 38 36 38 39 40 40 43 49 49 -177 55 57 57 58 59 59 -193 61 60 62 58 67 63 63 68 75 74 75 79 77 78 81 81 81 79 82 82 79 85 86 87 90 92 92 92 92 92 97 101 101 -193 -193 104 108 -193 110 111 107 110 117 -209 119 -193 118 -209 -193 122 123 125 124 130 132 134 -209 139 -193 -177 -177 -193 -177 -177 -177 -193 153 154 150 152 153 153 153 153 153 154 153 159 163 165 166 168 174 177 177 177 182 186 185 185 185 187 189 189 192 -193 589 -177 -193 -193 199 200 203 0 0 0 0 0
    0 0 0 0 0 0 0 0 0 0 0 0 0 0 0 0 0 0 0 0 0 0 0 0 0 0 0 0 0 0 0 0 0 0 0 0 0 0 0 0 0 0 0 0 0 0 0 0 0 0 0 0 0 0 0 0 0 0 0 0 0 0 0 0 0 0 0 0 0 51 52 51 50 50 50 51 52 48 50 47 48 49 49 48 49 49 50 49 51 49 48 50 49 48 49 48 47 47 50 51 47 51 52 51 52 54 53 53 -193 53 53 52 52 53 52 51 52 53 52 50 51 50 45 45 45 44 44 -225 -225 -225 -225 -225 -225 -225 -225 -225 -225 -225 -225 -225 -225 -225 -225 -225 -225 -225 -225 -225 -225 -225 -225 -225 -225 -225 -225 -225 -225 -225 29 24 25 23 21 18 20 16 12 12 17 12 12 13 13 12 13 14 13 11 13 11 11 10 0 0 -225 -225 -225 -225 35 35 35 39 33 34 37 37 36 39 39 40 40 43 50 49 -177 55 57 57 58 59 59 -193 61 60 62 57 66 62 62 68 74 74 75 80 77 79 81 81 81 79 82 82 79 85 85 87 90 91 91 91 92 92 97 101 101 -193 -193 104 108 -193 111 112 108 113 118 -209 120 -193 119 -209 122 122 123 125 124 130 132 134 -209 139 -193 -177 -193 -193 -193 -177 -193 -193 153 154 -177 153 153 153 154 154 152 153 153 158 164 165 167 169 176 177 177 178 182 187 185 185 185 186 189 189 -193 595 589 -177 -177 -177 200 200 203 0 0 0 0 0
    0 0 0 0 0 0 0 0 0 0 0 0 0 0 0 0 0 0 0 0 0 0 0 0 0 0 0 0 0 0 0 0 0 0 0 0 0 0 0 0 0 0 0 0 0 0 0 0 0 0 0 0 0 0 0 0 0 0 0 0 0 0 0 0 0 0 0 0 0 52 52 51 51 51 50 51 52 49 51 48 49 50 51 49 50 50 52 51 53 50 50 51 50 -193 50 48 48 48 51 51 49 52 53 53 52 54 54 53 53 55 55 54 54 55 52 52 52 51 50 48 50 48 44 44 44 44 44 -225 -225 -225 -225 -225 -225 -225 -225 -225 -225 -225 -225 -225 -225 -225 -225 -225 -225 -225 -225 -225 -225 -225 -225 -225 -225 -225 -225 -225 -225 29 28 23 23 22 20 17 19 16 13 12 16 12 12 12 13 12 13 13 12 10 12 11 11 9 0 0 -225 -225 -225 -225 32 32 33 38 33 34 37 37 37 39 39 41 41 44 50 48 -193 55 57 58 58 59 59 59 61 60 62 57 66 62 62 68 75 75 75 80 77 79 80 81 81 79 82 82 79 85 85 87 89 89 90 91 92 92 97 -193 -193 -193 103 104 107 108 110 112 107 113 118 -209 120 -209 119 121 122 123 123 124 124 130 132 134 -209 140 -193 -193 -209 -177 -193 -177 149 -193 153 154 -177 153 154 154 154 154 152 153 153 159 165 166 167 169 175 177 177 177 181 186 184 185 185 186 188 189 -193 596 590 -193 912 913 -209 -193 203 0 0 0 0 0
    0 0 0 0 0 0 0 0 0 0 0 0 0 0 0 0 0 0 0 0 0 0 0 0 0 0 0 0 0 0 0 0 0 0 0 0 0 0 0 0 0 0 0 0 0 0 0 0 0 0 0 0 0 0 0 0 0 0 0 0 0 0 0 0 0 0 0 0 0 52 52 52 51 51 50 52 52 50 51 48 50 51 52 50 51 51 53 53 54 52 51 51 51 -193 50 50 48 49 51 52 50 52 53 53 52 54 54 53 54 55 55 54 54 55 52 52 52 49 48 46 48 47 43 44 44 44 44 43 -225 -225 -225 -225 -225 -225 -225 -225 -225 -225 -225 -225 -225 -225 -225 -225 -225 -225 -225 -225 -225 -225 -225 -225 -225 -225 -225 -225 -225 26 26 22 21 21 20 16 17 15 13 13 14 12 12 12 13 12 13 13 11 10 11 11 11 10 9 9 0 12 21 28 28 28 30 38 32 34 37 37 37 38 39 40 40 43 48 47 52 54 57 57 58 59 59 59 61 60 63 58 67 63 63 68 75 75 76 80 77 80 80 81 81 78 82 81 78 84 83 87 88 89 90 -193 93 93 98 -209 -193 -193 -193 104 107 -193 110 112 107 113 118 -209 -209 -209 119 121 122 123 123 124 124 129 132 133 -193 139 -193 -193 -209 -193 -193 -177 148 152 153 -177 -177 153 154 154 154 155 152 153 154 160 165 166 168 170 175 178 177 178 182 187 184 185 185 186 188 188 596 597 591 -193 912 913 -209 -209 203 0 0 0 0 0
    0 0 0 0 0 0 0 0 0 0 0 0 0 0 0 0 0 0 0 0 0 0 0 0 0 0 0 0 0 0 0 0 0 0 0 0 0 0 0 0 0 0 0 0 0 0 0 0 0 0 0 0 0 0 0 0 0 0 0 0 0 0 0 0 0 0 0 0 0 52 52 52 51 50 51 52 52 51 51 49 51 52 53 51 51 52 54 54 54 53 52 52 52 -193 52 51 49 50 52 52 51 52 53 53 51 54 53 53 53 55 55 54 54 55 52 52 52 49 48 46 47 47 43 43 44 44 43 42 -225 -225 -225 -225 -225 -225 -225 -225 -225 -225 -225 -225 -225 -225 -225 -225 -225 -225 -225 -225 -225 -225 -225 -225 -225 -225 -225 -225 -225 24 25 22 20 19 18 15 15 14 12 13 14 12 12 11 13 12 12 13 10 9 10 11 12 10 9 10 10 12 19 24 25 27 29 37 31 34 38 37 37 38 39 40 40 43 48 47 52 54 56 57 58 59 60 59 62 60 64 59 67 64 64 69 76 75 76 80 77 80 80 80 81 78 81 80 78 83 82 87 88 89 -193 -193 94 94 99 -209 -177 -177 -193 105 108 -209 111 113 -193 -193 -193 -193 -209 -193 119 121 -177 123 123 124 124 128 131 132 135 139 -193 -193 -193 -209 -209 -193 148 152 153 -177 -177 154 154 155 155 155 152 153 -193 160 166 167 168 170 175 179 177 177 181 187 184 184 184 185 187 188 596 597 591 912 912 913 -209 -209 -193 0 0 0 0 0
    0 0 0 0 0 0 0 0 0 0 0 0 0 0 0 0 0 0 0 0 0 0 0 0 0 0 0 0 0 0 0 0 0 0 0 0 0 0 0 0 0 0 0 0 0 0 0 0 0 0 0 0 0 0 0 0 0 0 0 0 0 0 0 0 0 0 0 0 0 53 53 52 51 50 51 52 53 52 51 50 52 53 53 52 52 53 55 -209 -193 -193 53 -193 -209 -209 -209 -193 -193 -193 -193 53 -193 53 54 53 51 54 54 53 54 56 55 54 55 56 53 53 53 51 48 47 49 48 43 42 43 42 42 41 40 -225 -225 -225 -225 -225 -225 -225 -225 -225 -225 -225 -225 -225 -225 -225 -225 -225 -225 -225 -225 -225 -225 -225 -225 -225 -225 -225 -225 24 24 21 20 19 18 14 14 13 12 13 13 12 11 10 13 12 12 13 10 10 11 12 12 10 10 11 11 13 16 23 25 26 28 37 31 34 38 37 38 39 40 40 40 43 48 46 52 54 -193 58 58 59 60 59 62 61 64 59 67 64 64 69 77 76 77 80 77 80 79 79 80 77 80 -193 77 82 80 87 87 -193 -209 -209 93 93 98 -209 -177 -177 -193 104 107 -209 -193 -193 -193 -177 -177 -193 -177 -209 119 -193 -177 123 123 124 124 128 130 132 135 138 -193 -193 -193 -209 -193 -193 148 152 153 -177 -177 154 155 155 155 156 152 153 -209 161 166 167 169 170 175 178 176 176 181 186 183 184 184 184 186 187 597 598 592 912 912 914 -209 -209 -193 0 0 0 0 0
    0 0 0 0 0 0 0 0 0 0 0 0 0 0 0 0 0 0 0 0 0 0 0 0 0 0 0 0 0 0 0 0 0 0 0 0 0 0 0 0 0 0 0 0 0 0 0 0 0 0 0 0 0 0 0 0 0 0 0 0 0 0 0 0 0 0 0 0 0 53 53 52 51 51 52 53 53 53 52 51 52 54 54 52 53 -193 -193 -209 -209 -209 -209 -193 95 97 97 98 96 -209 -209 -209 -193 54 54 53 52 54 54 53 54 55 55 54 54 56 53 53 53 52 49 48 49 49 42 42 42 42 42 40 39 -225 -225 -225 -225 -225 -225 -225 -225 -225 -225 -225 -225 -225 -225 -225 -225 -225 -225 -225 -225 -225 -225 -225 -225 -225 -225 -225 -225 24 23 21 20 18 17 14 13 13 12 14 13 12 11 11 12 12 12 12 9 10 11 12 12 11 10 11 11 12 15 21 24 26 27 37 32 35 39 38 38 39 40 40 40 42 47 46 52 54 56 57 58 59 60 59 62 61 64 59 66 64 64 69 76 75 75 79 76 79 77 78 79 76 78 -193 76 80 79 86 87 -193 90 -209 94 94 98 -209 -193 -193 -193 103 105 -193 -193 -193 -193 -177 -177 -193 -177 -209 -209 122 -177 123 124 125 124 128 130 132 134 137 139 145 142 140 -193 142 148 152 153 155 -177 154 155 155 155 156 152 153 -209 160 166 167 169 170 174 178 176 176 180 185 182 183 183 184 186 186 -177 598 592 913 913 914 -209 -193 -193 0 0 0 0 0
    0 0 0 0 0 0 0 0 0 0 0 0 0 0 0 0 0 0 0 0 0 0 0 0 0 0 0 0 0 0 0 0 0 0 0 0 0 0 0 0 0 0 0 0 0 0 0 0 0 0 0 0 0 0 0 0 0 0 0 0 0 0 0 0 0 0 0 0 0 53 53 52 51 51 52 53 53 53 51 51 52 54 54 52 53 -193 -193 -193 -209 -209 -209 -193 95 96 97 97 96 -193 -193 -193 -193 55 55 54 52 55 54 53 53 55 54 54 53 55 53 52 53 52 50 50 49 50 42 42 42 42 41 41 39 38 -225 -225 -225 -225 -225 -225 -225 -225 -225 -225 -225 -225 -225 -225 -225 -225 -225 -225 -225 -225 -225 -225 -225 -225 -225 -225 -225 24 23 20 20 18 16 14 13 12 11 13 12 11 11 10 12 13 13 13 10 11 12 12 13 11 11 12 12 13 15 21 23 26 27 36 32 35 38 38 38 39 40 40 40 42 47 46 52 54 56 57 58 59 59 59 62 61 64 60 67 67 66 68 74 73 74 76 74 77 76 76 78 76 77 77 76 79 78 85 86 87 90 -193 95 94 98 -209 102 -193 101 102 104 -209 -209 -209 -209 -193 -193 -193 -177 -209 -209 -193 -177 124 124 125 125 129 131 132 134 138 140 145 143 141 143 143 148 152 153 154 -177 154 154 155 155 155 152 153 153 160 166 167 168 169 173 177 175 175 180 184 182 182 183 183 185 185 -193 597 591 913 913 915 -193 -193 -193 0 0 0 0 0
    0 0 0 0 0 0 0 0 0 0 0 0 0 0 0 0 0 0 0 0 0 0 0 0 0 0 0 0 0 0 0 0 0 0 0 0 0 0 0 0 0 0 0 0 0 0 0 0 0 0 0 0 0 0 0 0 0 0 0 0 0 0 0 0 0 0 0 0 0 53 53 52 51 51 52 53 53 53 52 51 52 54 55 53 53 -193 -209 58 -209 -209 -209 -193 -193 96 97 98 96 -193 -209 -209 -193 54 55 54 52 55 54 52 53 54 54 54 52 55 52 51 52 52 49 50 49 50 43 43 43 42 41 41 40 39 -225 -225 -225 -225 -225 -225 -225 -225 -225 -225 -225 -225 -225 -225 -225 -225 -225 -225 -225 -225 -225 -225 -225 -225 -225 -225 25 25 24 20 19 18 16 13 12 11 11 12 11 11 11 10 12 13 14 13 11 12 12 12 13 12 11 11 12 12 15 21 23 27 27 34 32 34 38 38 38 39 39 40 40 42 47 46 52 54 56 57 58 58 59 59 62 61 64 60 66 68 66 68 73 72 72 74 72 75 75 75 77 75 76 76 76 79 78 86 87 88 91 90 95 94 98 -193 101 102 101 102 104 -209 -193 -209 -209 -177 -209 -193 -193 -209 -209 124 124 124 125 126 126 130 131 133 135 138 140 144 143 141 143 143 148 152 152 154 -177 154 154 154 154 155 152 153 153 159 165 166 168 169 173 178 175 176 180 184 182 182 182 182 184 185 -193 596 591 -193 -177 -177 -193 -193 -193 0 0 0 0 0
    0 0 0 0 0 0 0 0 0 0 0 0 0 0 0 0 0 0 0 0 0 0 0 0 0 0 0 0 0 0 0 0 0 0 0 0 0 0 0 0 0 0 0 0 0 0 0 0 0 0 0 0 0 0 0 0 0 0 0 0 0 0 0 0 0 0 0 0 0 52 52 52 51 50 52 53 53 53 52 51 52 54 55 53 53 -193 -209 59 -193 -209 -209 -193 -193 96 97 98 -193 -209 -209 -209 54 54 55 55 52 55 54 52 53 54 54 53 52 54 52 51 52 51 50 50 50 51 43 44 44 42 40 40 40 39 -225 -225 -225 -225 -225 -225 -225 -225 -225 -225 -225 -225 -225 -225 -225 -225 -225 -225 -225 -225 -225 -225 -225 -225 -225 -225 23 22 21 17 16 15 15 12 12 12 11 13 11 11 11 10 11 12 13 12 10 12 12 12 13 13 13 12 13 13 16 21 23 27 27 32 32 34 38 37 38 38 39 40 40 41 46 46 51 54 56 57 57 58 59 59 61 60 63 60 66 68 67 68 72 71 71 73 71 75 74 75 76 75 76 76 76 79 79 87 87 88 92 91 95 95 98 -209 101 102 101 102 104 -193 105 -209 -193 -193 -209 -209 -209 -193 124 125 125 125 125 126 127 130 132 132 135 138 140 144 142 141 143 143 148 151 152 153 -177 154 154 154 154 155 151 152 153 158 164 166 168 169 172 178 175 176 180 184 181 181 182 182 184 184 -193 595 590 -193 -193 -177 -209 -193 -193 0 0 0 0 0
    0 0 0 0 0 0 0 0 0 0 0 0 0 0 0 0 0 0 0 0 0 0 0 0 0 0 0 0 0 0 0 0 0 0 0 0 0 0 0 0 0 0 0 0 0 0 0 0 0 0 0 0 0 0 0 0 0 0 0 0 0 0 0 0 0 0 0 0 0 51 51 51 50 49 51 52 53 53 52 51 52 54 55 53 54 -209 -209 -193 -209 -209 -193 -193 -193 -209 -209 -193 -193 -209 -193 -209 54 54 55 55 52 55 55 52 53 54 53 54 52 54 52 51 52 51 50 51 50 51 44 45 45 42 40 40 40 39 35 -225 -225 -225 -225 -225 -225 -225 -225 -225 -225 -225 -225 -225 -225 -225 -225 -225 -225 -225 -225 -225 -225 -225 -225 -225 21 20 19 17 14 14 14 12 12 12 11 13 11 11 12 10 12 11 13 12 10 12 13 13 14 14 14 12 14 14 16 20 22 26 26 31 32 34 37 37 37 38 38 40 40 41 45 45 51 53 55 55 55 57 57 57 60 59 62 60 65 68 67 68 72 70 71 72 71 -193 73 74 75 74 76 76 76 79 80 86 87 88 92 91 95 95 98 -193 101 -193 101 101 103 104 104 105 100 -193 -209 -209 124 126 125 125 125 125 126 126 128 130 131 132 134 138 139 143 142 141 142 142 148 152 152 153 -177 153 154 154 154 155 152 153 153 158 164 166 168 169 172 178 175 176 179 183 180 180 181 181 183 183 -193 595 590 -193 197 -177 200 -209 201 0 0 0 0 0
    0 0 0 0 0 0 0 0 0 0 0 0 0 0 0 0 0 0 0 0 0 0 0 0 0 0 0 0 0 0 0 0 0 0 0 0 0 0 0 0 0 0 0 0 0 0 0 0 0 0 0 0 0 0 0 0 0 0 0 0 0 0 0 0 0 0 0 0 0 51 50 51 49 49 51 52 53 53 52 52 52 54 55 53 54 -193 -209 -209 -193 -193 -193 -193 -193 -209 -209 -209 -193 -209 -193 -209 54 53 54 55 53 55 55 53 54 54 54 54 52 54 52 51 53 51 51 51 50 51 45 46 46 43 40 39 39 39 36 39 -225 -225 -225 -225 -225 -225 -225 -225 -225 -225 -225 -225 -225 -225 -225 -225 -225 -225 -225 -225 -225 -225 -225 -225 20 20 18 17 13 12 13 12 12 11 11 13 11 11 12 10 11 10 13 12 10 12 13 13 14 15 16 13 17 15 16 20 23 26 26 30 31 32 36 36 36 37 38 39 39 40 44 44 50 52 54 54 54 56 56 57 59 59 61 59 64 68 67 68 72 70 71 72 71 -193 73 73 -193 74 75 76 -193 79 80 86 87 88 92 91 95 96 98 101 101 -193 100 100 102 103 102 103 97 -193 -209 120 123 125 125 126 125 125 126 126 128 129 131 131 133 137 138 141 141 140 142 142 148 151 152 153 -177 153 154 154 154 154 151 152 152 157 163 166 168 169 171 178 175 175 178 183 179 179 180 181 182 183 -193 594 589 -193 196 -209 -193 -209 201 0 0 0 0 0
    0 0 0 0 0 0 0 0 0 0 0 0 0 0 0 0 0 0 0 0 0 0 0 0 0 0 0 0 0 0 0 0 0 0 0 0 0 0 0 0 0 0 0 0 0 0 0 0 0 0 0 0 0 0 0 0 0 0 0 0 0 0 0 0 0 0 0 0 0 50 49 50 49 49 51 51 52 53 52 52 52 53 55 53 54 55 56 -209 -193 54 -193 -193 -193 -209 -209 53 -193 -209 -193 -193 54 53 54 55 53 54 55 53 54 54 54 54 52 54 52 50 53 52 51 51 50 51 46 48 47 43 40 38 38 38 37 39 38 -225 -225 -225 -225 -225 -225 -225 -225 -225 -225 -225 -225 -225 -225 -225 -225 -225 -225 -225 -225 -225 17 18 16 20 20 16 14 12 12 11 12 11 11 12 10 11 12 10 10 9 12 11 10 12 13 12 14 16 18 13 18 16 17 21 23 26 26 30 31 32 36 35 35 36 37 39 39 40 44 44 50 52 53 53 53 55 56 -209 59 58 60 59 64 69 67 68 72 70 71 72 71 -193 73 73 -193 -193 75 76 -193 79 80 87 87 88 91 90 94 96 98 -193 100 101 100 100 102 102 102 103 99 107 -193 119 123 124 125 126 125 126 126 127 129 129 131 130 132 137 137 141 140 140 142 142 148 151 151 153 -177 153 154 154 154 154 150 151 150 157 164 168 169 170 172 178 175 175 177 182 179 179 179 180 182 182 -193 594 589 593 196 -177 -193 -209 201 0 0 0 0 0
    0 0 0 0 0 0 0 0 0 0 0 0 0 0 0 0 0 0 0 0 0 0 0 0 0 0 0 0 0 0 0 0 0 0 0 0 0 0 0 0 0 0 0 0 0 0 0 0 0 0 0 0 0 0 0 0 0 0 0 0 0 0 0 0 0 0 0 0 0 50 49 50 49 49 50 51 52 53 53 53 52 53 54 53 54 55 56 56 55 54 -193 -209 -209 -209 -193 53 -193 -193 -193 -209 53 53 54 55 53 54 55 53 54 54 54 54 52 54 52 50 52 51 52 51 50 50 47 50 49 43 41 39 38 38 37 38 38 37 -225 -225 -225 -225 -225 -225 -225 -225 -225 -225 -225 -225 -225 -225 13 12 12 13 13 14 14 14 11 17 20 15 15 13 13 12 13 12 11 11 10 10 11 10 9 0 11 11 10 13 14 12 15 17 19 15 19 16 18 21 23 25 26 30 32 32 36 35 34 36 37 39 39 40 44 44 49 51 53 51 51 54 55 54 57 57 59 58 64 69 68 68 72 70 71 72 71 -193 73 73 -193 75 75 77 -193 80 80 87 88 -193 90 89 93 95 97 -193 -193 -193 100 100 102 102 102 103 100 107 -193 119 -193 123 125 125 125 125 126 127 129 129 131 129 131 137 137 141 140 140 141 142 147 151 150 -177 -177 153 154 154 154 154 150 150 150 157 166 169 170 171 172 179 174 175 177 182 178 178 179 180 182 182 590 594 589 594 196 -177 -193 -209 201 0 0 0 0 0
    0 0 0 0 0 0 0 0 0 0 0 0 0 0 0 0 0 0 0 0 0 0 0 0 0 0 0 0 0 0 0 0 0 0 0 0 0 0 0 0 0 0 0 0 0 0 0 0 0 0 0 0 0 0 0 0 0 0 0 0 0 0 0 0 0 0 0 0 0 50 49 50 49 48 50 51 52 53 53 53 52 53 54 53 54 55 56 56 55 55 -193 -209 -209 -209 -209 53 -193 -193 -209 -193 54 53 54 55 53 54 55 53 54 53 53 54 52 53 51 49 52 51 52 51 50 50 47 52 50 45 43 39 39 38 38 38 37 37 36 -225 -225 -225 -225 -225 -225 -225 -225 -225 -225 -225 -225 19 16 13 13 15 14 15 15 14 12 13 18 14 13 12 11 12 13 12 12 11 10 10 11 10 0 0 10 10 10 12 14 12 14 17 19 14 20 16 19 21 23 25 26 30 32 32 36 34 34 35 37 39 38 39 43 43 49 50 52 50 50 53 54 53 56 55 58 58 64 69 68 68 71 71 71 72 71 -177 73 74 76 76 76 77 -193 80 80 87 88 -193 -193 -193 93 -193 -193 -193 -193 -177 -193 101 103 103 102 104 102 108 113 118 -193 123 124 125 124 125 126 126 130 128 131 129 132 137 137 141 140 140 142 142 147 151 149 -177 -177 153 153 153 154 154 149 150 149 157 166 169 170 170 171 179 174 175 177 182 178 178 178 179 181 181 589 593 589 593 196 -177 -193 -209 201 0 0 0 0 0
    0 0 0 0 0 0 0 0 0 0 0 0 0 0 0 0 0 0 0 0 0 0 0 0 0 0 0 0 0 0 0 0 0 0 0 0 0 0 0 0 0 0 0 0 0 0 0 0 0 0 0 0 0 0 0 0 0 0 0 0 0 0 0 0 0 0 0 0 0 50 48 49 48 47 49 50 51 53 53 53 52 52 54 53 54 55 56 56 55 55 55 -209 -193 -209 53 53 51 54 -209 54 53 52 53 54 52 53 54 52 53 53 53 53 52 53 51 49 52 51 52 51 50 50 48 52 52 45 44 39 39 38 37 36 35 36 35 34 -225 -225 -225 -225 -225 -225 -225 -225 -225 -225 15 19 16 12 11 12 12 14 13 13 11 12 17 15 13 13 12 12 13 13 12 11 10 10 11 10 9 0 10 10 9 12 14 12 14 17 19 14 19 18 18 21 23 25 26 30 31 31 35 33 33 35 36 38 37 39 43 43 48 50 52 49 49 52 53 52 55 54 57 57 64 69 68 68 71 71 72 72 -193 -193 74 75 77 77 76 78 -193 80 -193 86 -193 -193 -209 -193 -193 -209 -209 -177 -193 -177 -193 -193 103 -193 103 105 104 109 113 117 120 122 123 124 124 125 125 126 129 128 130 129 132 137 136 -177 -193 -193 142 143 148 151 149 -177 -177 153 153 153 153 153 147 149 147 157 167 169 170 170 171 178 174 174 176 182 178 178 178 179 181 181 589 593 588 593 196 -177 -193 -209 201 0 0 0 0 0
    0 0 0 0 0 0 0 0 0 0 0 0 0 0 0 0 0 0 0 0 0 0 0 0 0 0 0 0 0 0 0 0 0 0 0 0 0 0 0 0 0 0 0 0 0 0 0 0 0 0 0 0 0 0 0 0 0 0 0 0 0 0 0 0 0 0 0 0 0 50 48 48 48 46 48 49 49 52 53 52 52 51 53 53 54 55 55 55 55 55 55 -193 55 53 53 52 50 52 54 53 51 50 52 53 51 52 54 51 53 53 53 54 52 53 51 49 52 50 51 50 49 49 47 51 50 44 43 38 38 37 37 35 34 34 34 33 -225 -225 -225 -225 -225 -225 -225 -225 -225 16 15 19 16 11 10 12 12 13 12 13 12 12 16 14 13 13 12 12 13 13 12 12 10 10 10 10 9 0 9 9 9 12 14 13 14 16 19 15 19 17 18 21 22 25 26 30 30 30 35 33 32 34 36 38 37 39 43 43 48 49 51 49 49 52 52 51 54 53 57 57 64 69 68 69 71 72 73 73 74 -193 75 76 78 78 77 79 78 80 -193 -193 -177 -193 -193 -193 -193 -209 -193 -177 -177 -177 101 102 -193 -193 -193 106 105 110 114 117 119 122 123 124 123 124 125 125 129 127 129 128 131 136 -193 -177 -193 -209 142 144 148 151 149 -177 -177 153 153 153 153 153 145 148 -177 156 169 170 170 171 172 178 174 174 176 182 178 178 178 179 181 181 590 594 588 -177 196 -193 199 -209 201 0 0 0 0 0
    0 0 0 0 0 0 0 0 0 0 0 0 0 0 0 0 0 0 0 0 0 0 0 0 0 0 0 0 0 0 0 0 0 0 0 0 0 0 0 0 0 0 0 0 0 0 0 0 0 0 0 0 0 0 0 0 0 0 0 0 0 0 0 0 0 0 0 0 0 49 47 47 47 45 46 47 47 51 52 52 52 51 53 53 54 55 55 55 54 55 55 55 56 54 52 52 49 51 53 52 50 49 50 51 50 51 53 51 53 53 53 54 53 53 52 50 52 50 52 50 49 48 47 50 50 44 43 38 38 38 37 36 34 33 32 32 31 -225 -225 -225 -225 -225 -225 -225 19 16 15 18 17 12 10 12 11 12 12 12 11 11 14 14 13 13 13 13 14 14 13 12 11 10 11 10 0 0 0 9 9 11 13 13 13 16 18 15 18 17 18 20 21 24 25 29 29 30 34 32 32 34 36 38 37 39 43 42 48 49 51 49 49 51 52 50 54 53 57 57 64 69 69 70 72 74 74 75 76 78 76 77 79 79 77 79 79 80 -193 -193 -193 -193 -177 -177 -193 -209 -209 -177 -193 -193 102 102 105 -209 -193 106 106 110 113 117 119 122 122 123 123 124 124 125 129 126 128 128 131 -193 -193 -177 -193 -193 142 145 148 151 148 -177 -177 152 152 152 152 152 142 147 -193 157 169 170 171 172 172 178 174 174 175 181 177 178 178 179 181 181 590 594 588 -177 196 -193 199 -193 200 0 0 0 0 0
    0 0 0 0 0 0 0 0 0 0 0 0 0 0 0 0 0 0 0 0 0 0 0 0 0 0 0 0 0 0 0 0 0 0 0 0 0 0 0 0 0 0 0 0 0 0 0 0 0 0 0 0 0 0 0 0 0 0 0 0 0 0 0 0 0 0 0 0 0 49 47 47 47 45 46 46 46 49 51 51 51 50 53 53 54 55 55 55 55 56 55 55 56 54 53 52 49 50 51 51 49 48 49 50 49 50 52 51 53 53 54 55 54 54 53 51 52 51 52 50 49 48 48 49 50 45 44 39 39 38 38 37 36 34 33 32 31 30 -225 -225 -225 -225 -225 14 17 14 14 17 16 12 10 11 11 12 11 12 11 11 14 14 13 13 13 13 13 13 12 11 10 9 9 10 0 0 0 9 9 12 13 14 13 14 17 15 17 17 18 19 20 24 25 30 29 29 33 32 32 34 36 38 36 39 43 42 47 48 50 48 48 51 51 49 53 51 57 56 64 69 68 70 72 76 75 75 78 79 77 78 80 80 78 79 79 80 80 85 -193 -193 -177 -177 -193 -209 -193 -193 -193 -209 102 103 105 106 105 108 107 110 113 117 119 122 121 123 123 123 124 124 129 126 127 128 131 -193 -193 -177 -193 140 143 145 148 150 147 -177 147 150 151 151 151 150 141 148 -209 159 169 170 171 172 172 177 174 174 175 181 178 178 178 179 181 182 590 594 -177 -177 197 -209 198 -193 199 0 0 0 0 0
    0 0 0 0 0 0 0 0 0 0 0 0 0 0 0 0 0 0 0 0 0 0 0 0 0 0 0 0 0 0 0 0 0 0 0 0 0 0 0 0 0 0 0 0 0 0 0 0 0 0 0 0 0 0 0 0 0 0 0 0 0 0 0 0 0 0 0 0 0 49 47 47 47 45 46 45 45 49 50 51 51 50 52 53 54 55 55 55 55 56 55 54 55 53 51 51 48 48 50 50 49 47 48 49 48 49 51 50 52 53 54 54 54 53 52 51 52 50 52 49 48 48 47 48 48 45 45 40 39 39 38 37 36 35 33 32 32 31 30 -225 -225 -225 -225 14 15 14 13 16 16 12 10 11 11 11 11 11 11 11 14 13 13 13 13 13 13 13 12 11 9 9 9 9 0 0 0 0 0 11 13 13 12 15 17 17 17 16 18 19 21 23 24 29 28 29 33 31 31 33 35 37 35 39 43 42 47 48 50 48 48 51 51 49 53 51 57 57 65 69 69 70 71 77 75 75 79 80 78 79 81 81 78 80 79 79 80 84 85 -193 -177 -193 -193 -209 -193 -193 -193 -193 102 103 106 107 106 109 109 111 114 117 119 122 121 123 123 123 124 124 129 126 127 128 131 -193 138 -177 141 141 143 146 147 150 146 -177 145 149 150 150 150 149 140 148 -177 159 168 170 171 172 172 176 173 173 175 181 178 178 178 179 181 182 590 593 -193 -177 197 -193 198 -193 199 0 0 0 0 0
    0 0 0 0 0 0 0 0 0 0 0 0 0 0 0 0 0 0 0 0 0 0 0 0 0 0 0 0 0 0 0 0 0 0 0 0 0 0 0 0 0 0 0 0 0 0 0 0 0 0 0 0 0 0 0 0 0 0 0 0 0 0 0 0 0 0 0 0 0 49 46 46 47 45 46 45 45 48 48 50 51 50 52 53 54 55 55 55 55 55 55 53 54 48 48 49 46 46 48 49 48 46 47 47 46 46 48 47 49 51 53 54 53 53 52 51 52 50 51 49 48 47 46 47 46 44 44 41 40 39 39 38 37 36 34 32 32 32 31 31 -225 -225 -225 14 15 13 13 15 15 11 10 11 11 11 11 11 10 10 13 12 12 13 13 13 13 13 12 12 10 9 9 9 0 0 0 9 9 11 13 14 12 14 16 15 15 16 18 19 20 23 24 29 28 29 33 31 31 32 35 37 35 39 42 42 46 48 49 48 48 50 51 47 52 51 57 57 65 70 70 70 72 79 76 76 80 81 79 80 82 82 78 80 80 79 80 84 85 -193 -177 -193 -193 -193 93 -193 99 -193 101 103 106 107 107 111 110 112 115 118 119 122 122 123 123 124 125 125 129 127 127 128 132 -193 138 -177 141 141 143 146 147 149 145 148 144 149 149 149 149 148 141 151 153 161 168 170 171 172 171 176 173 173 175 181 178 178 178 179 181 182 -177 -177 -193 -193 196 -193 197 197 198 0 0 0 0 0
    0 0 0 0 0 0 0 0 0 0 0 0 0 0 0 0 0 0 0 0 0 0 0 0 0 0 0 0 0 0 0 0 0 0 0 0 0 0 0 0 0 0 0 0 0 0 0 0 0 0 0 0 0 0 0 0 0 0 0 0 0 0 0 0 0 0 0 0 0 49 46 46 47 44 46 45 45 47 46 49 50 50 51 52 54 55 56 55 54 54 54 51 51 44 45 46 45 45 48 48 47 46 46 46 45 45 46 45 46 49 51 52 52 52 52 51 52 50 51 49 48 48 46 46 46 44 44 41 40 40 40 39 37 36 35 32 33 32 32 32 32 -225 -225 14 15 13 13 13 15 10 9 11 10 10 11 10 10 10 12 12 12 13 13 13 13 13 12 12 10 10 9 9 9 9 0 9 0 10 12 13 12 13 14 14 13 15 17 17 19 23 24 30 28 28 33 30 31 32 35 37 34 39 42 41 46 47 49 48 48 50 51 47 53 52 57 58 67 71 71 71 72 80 76 77 81 81 79 80 82 82 78 80 80 79 80 84 85 -193 -177 -193 -193 92 93 -193 97 -193 100 103 106 107 108 111 111 113 116 118 120 123 122 123 123 124 125 125 129 126 127 128 132 -193 138 -193 141 141 143 146 147 149 144 148 144 148 148 148 149 148 142 152 154 160 168 170 171 171 171 176 173 174 175 181 178 178 178 179 181 182 -177 -177 -193 -193 196 -193 196 196 197 0 0 0 0 0
    0 0 0 0 0 0 0 0 0 0 0 0 0 0 0 0 0 0 0 0 0 0 0 0 0 0 0 0 0 0 0 0 0 0 0 0 0 0 0 0 0 0 0 0 0 0 0 0 0 0 0 0 0 0 0 0 0 0 0 0 0 0 0 0 0 0 0 0 0 49 46 46 47 44 46 44 44 45 44 45 47 47 48 49 52 53 55 54 52 51 49 47 48 43 45 45 45 45 48 48 47 45 45 45 44 44 45 44 45 47 51 52 52 52 53 52 52 50 51 50 49 48 47 46 46 43 44 41 40 40 39 39 37 36 35 32 33 32 32 33 34 34 27 17 14 12 12 11 15 11 9 10 10 11 11 11 12 11 12 12 12 12 13 13 13 12 11 12 10 10 10 9 9 9 9 10 0 10 11 12 11 12 12 12 12 13 15 17 19 23 24 30 28 28 32 30 31 32 35 36 34 39 42 41 46 47 49 47 48 51 51 48 54 54 59 59 68 71 71 71 72 80 77 77 81 82 79 80 82 82 79 80 80 79 80 84 85 -193 -193 90 92 92 93 -193 95 94 99 102 -209 -209 -193 -193 -209 114 117 119 122 124 123 124 124 124 125 125 129 126 127 128 132 -193 138 -193 -193 -193 143 146 147 149 144 147 144 148 148 148 148 147 142 152 152 157 166 169 170 171 171 175 173 173 174 180 178 178 178 179 181 182 -177 -177 -193 17 196 198 196 195 197 0 0 0 0 0
    0 0 0 0 0 0 0 0 0 0 0 0 0 0 0 0 0 0 0 0 0 0 0 0 0 0 0 0 0 0 0 0 0 0 0 0 0 0 0 0 0 0 0 0 0 0 0 0 0 0 0 0 0 0 0 0 0 0 0 0 0 0 0 0 0 0 0 0 0 48 46 46 47 44 45 43 43 43 42 43 44 44 44 45 48 49 53 50 47 46 45 45 46 44 44 45 44 45 46 47 46 44 44 44 43 44 44 44 44 47 50 51 51 51 53 51 52 50 50 49 49 47 46 46 45 43 44 41 40 40 39 38 37 36 35 31 34 33 31 31 32 29 25 21 17 14 13 12 13 0 0 0 0 9 9 9 11 11 12 12 12 13 14 14 13 12 11 13 11 11 10 10 10 10 10 10 9 10 11 12 10 12 11 12 12 13 15 17 19 22 23 28 27 27 31 30 30 32 35 36 34 39 42 41 45 47 48 47 48 51 51 48 55 55 60 60 67 71 71 72 72 80 77 77 82 82 79 80 82 82 79 80 80 79 80 84 85 84 88 90 92 92 92 92 93 93 96 100 -209 -209 -209 -209 -209 -209 117 -193 123 124 124 126 125 125 125 125 129 126 127 128 132 139 138 -193 141 141 143 146 147 149 143 147 144 147 147 147 147 147 142 152 152 156 165 169 169 170 171 174 172 173 173 180 178 178 178 179 181 182 -177 -177 -193 17 196 198 195 195 196 0 0 0 0 0
    0 0 0 0 0 0 0 0 0 0 0 0 0 0 0 0 0 0 0 0 0 0 0 0 0 0 0 0 0 0 0 0 0 0 0 0 0 0 0 0 0 0 0 0 0 0 0 0 0 0 0 0 0 0 0 0 0 0 0 0 0 0 0 0 0 0 0 0 0 49 46 46 47 45 46 43 43 43 42 44 44 44 43 44 45 47 51 47 45 45 45 45 45 44 44 44 43 43 44 45 45 43 43 43 43 43 44 43 44 46 49 51 51 51 51 50 51 48 49 48 48 46 45 45 45 43 43 41 40 39 39 39 37 36 34 31 34 32 30 29 29 26 25 21 14 11 9 0 10 0 0 0 0 9 9 0 11 11 11 11 11 12 14 13 13 12 11 12 11 10 10 10 10 10 10 10 9 10 10 11 10 11 10 10 11 11 14 16 18 21 23 27 27 27 31 30 30 32 34 36 35 39 42 42 45 47 48 47 49 51 52 48 56 57 62 61 68 71 71 72 73 81 77 77 82 82 79 80 82 82 79 81 81 80 81 85 86 85 89 91 93 93 93 92 92 92 94 97 -209 -209 -209 -209 -209 -209 -193 -193 125 125 124 126 126 125 125 125 129 126 127 128 132 140 139 144 142 142 143 145 146 149 143 147 144 147 147 147 147 147 142 152 152 155 163 168 169 169 170 174 172 173 173 180 178 179 179 179 181 183 -177 -177 -193 17 196 198 195 195 196 0 0 0 0 0
    0 0 0 0 0 0 0 0 0 0 0 0 0 0 0 0 0 0 0 0 0 0 0 0 0 0 0 0 0 0 0 0 0 0 0 0 0 0 0 0 0 0 0 0 0 0 0 0 0 0 0 0 0 0 0 0 0 0 0 0 0 0 0 0 0 0 0 0 0 49 47 47 48 45 46 43 43 44 44 46 45 45 43 44 45 48 50 47 45 45 45 45 45 44 44 43 43 43 42 44 44 42 42 42 42 42 43 43 44 45 48 49 50 49 49 48 50 47 49 49 48 46 46 46 45 43 44 41 39 39 38 38 37 36 34 30 34 32 28 28 28 26 25 21 16 10 0 0 0 0 0 0 0 0 9 0 10 11 10 10 10 11 13 13 12 12 11 12 12 11 11 11 11 11 11 11 10 9 10 11 9 10 9 9 10 11 14 15 17 21 23 27 27 27 31 30 31 32 34 37 36 39 42 42 45 48 48 47 49 50 52 48 56 57 62 61 67 71 71 73 73 82 78 78 82 82 79 80 82 82 80 81 81 80 81 85 86 85 90 91 93 93 93 92 92 92 93 -193 -209 -209 -193 -193 -177 -209 -209 -193 126 125 124 126 126 125 125 125 129 126 127 128 132 140 139 143 142 142 143 145 145 148 143 147 145 147 147 147 147 147 143 152 152 155 160 166 168 169 169 173 172 173 173 180 179 179 179 180 181 183 -177 -177 -193 16 -193 198 195 195 -193 0 0 0 0 0
    0 0 0 0 0 0 0 0 0 0 0 0 0 0 0 0 0 0 0 0 0 0 0 0 0 0 0 0 0 0 0 0 0 0 0 0 0 0 0 0 0 0 0 0 0 0 0 0 0 0 0 0 0 0 0 0 0 0 0 0 0 0 0 0 0 0 0 0 0 51 48 48 48 46 48 44 43 45 45 48 47 47 43 44 45 48 49 46 44 45 44 45 45 44 44 43 43 43 41 43 42 41 41 41 40 40 41 42 44 45 46 47 47 47 46 45 47 45 47 48 47 46 45 45 45 43 43 41 39 38 38 37 36 36 34 29 32 32 28 27 26 24 23 21 18 13 10 9 0 0 0 0 0 0 0 0 10 13 10 10 10 10 13 13 12 11 11 12 12 11 12 11 11 12 11 11 10 9 9 10 9 10 9 9 10 11 13 14 17 20 22 27 28 28 32 31 32 33 35 37 37 39 43 42 45 48 48 47 49 50 52 48 57 59 62 62 67 72 72 73 74 82 78 78 83 82 79 80 82 81 80 81 81 79 80 85 85 85 90 90 92 93 92 92 91 91 91 -193 -193 -193 -193 -177 -177 -209 -209 -193 127 125 124 127 125 125 125 125 129 125 127 129 133 140 139 144 142 142 143 146 146 149 143 147 145 147 147 147 147 148 144 152 153 154 158 165 167 167 168 172 171 172 172 180 179 179 180 180 182 184 -177 -177 -193 16 -193 198 195 195 -193 0 0 0 0 0
    0 0 0 0 0 0 0 0 0 0 0 0 0 0 0 0 0 0 0 0 0 0 0 0 0 0 0 0 0 0 0 0 0 0 0 0 0 0 0 0 0 0 0 0 0 0 0 0 0 0 0 0 0 0 0 0 0 0 0 0 0 0 0 0 0 0 0 0 0 51 49 50 49 47 49 45 44 46 46 50 48 46 43 43 42 46 47 45 43 44 44 44 45 44 43 42 41 41 39 40 39 38 38 38 38 39 40 41 43 45 46 47 48 48 47 46 47 45 46 47 47 45 44 44 44 42 42 40 38 37 36 36 34 34 32 28 30 31 26 27 24 23 22 20 18 14 11 11 10 0 0 0 0 0 0 0 0 10 9 9 9 9 12 13 12 12 11 13 13 13 13 12 13 13 12 12 12 10 10 10 9 10 9 9 10 11 13 14 16 19 22 27 27 27 32 31 32 33 35 37 38 40 43 43 46 49 49 48 51 51 54 52 58 62 63 63 67 72 72 73 74 83 79 79 83 82 79 80 82 81 80 81 81 79 80 85 85 85 89 90 91 92 92 91 90 90 90 -193 -193 -193 -193 -193 -177 198 -209 121 128 125 124 126 125 124 124 124 129 125 127 130 133 140 139 145 143 -193 145 148 148 150 144 148 146 147 147 147 147 148 144 152 153 154 157 163 165 166 168 172 171 172 172 180 180 180 180 181 182 185 -177 -177 -193 16 -193 198 195 195 195 0 0 0 0 0
    0 0 0 0 0 0 0 0 0 0 0 0 0 0 0 0 0 0 0 0 0 0 0 0 0 0 0 0 0 0 0 0 0 0 0 0 0 0 0 0 0 0 0 0 0 0 0 0 0 0 0 0 0 0 0 0 0 0 0 0 0 0 0 0 0 0 0 0 0 52 50 50 50 48 50 46 45 47 47 50 48 46 44 43 42 45 45 44 43 43 44 44 44 44 43 42 41 41 37 37 37 36 36 36 36 38 39 40 42 45 46 47 49 49 47 46 -193 46 46 47 46 44 43 43 43 41 40 38 37 35 35 34 32 32 30 27 29 30 26 26 24 22 22 21 20 15 11 12 10 0 0 9 9 0 0 0 9 10 9 9 9 9 11 12 12 12 12 12 13 13 13 13 13 13 12 13 12 9 9 9 9 0 0 0 9 11 13 15 16 19 23 28 29 29 34 32 34 35 36 38 39 40 44 43 47 51 51 50 52 53 56 56 58 62 62 63 67 72 72 73 75 83 79 79 83 82 79 81 83 81 80 81 80 79 80 84 85 -193 89 89 91 92 92 91 90 90 90 -193 -193 -177 -193 -177 -177 -209 -209 121 128 125 124 126 124 123 123 123 128 124 127 131 134 140 139 145 -193 -177 -193 149 149 150 145 148 147 147 147 147 147 148 144 152 152 154 157 163 165 166 168 173 172 173 172 181 180 181 181 181 182 186 -177 -177 -193 16 -193 198 195 195 195 0 0 0 0 0
    0 0 0 0 0 0 0 0 0 0 0 0 0 0 0 0 0 0 0 0 0 0 0 0 0 0 0 0 0 0 0 0 0 0 0 0 0 0 0 0 0 0 0 0 0 0 0 0 0 0 0 0 0 0 0 0 0 0 0 0 0 0 0 0 0 0 0 0 0 52 51 51 51 49 51 47 45 48 46 48 47 45 43 43 42 45 45 44 42 43 44 44 44 44 43 42 42 42 40 40 38 38 38 37 37 37 38 40 41 44 44 46 48 48 47 45 46 45 46 46 45 43 42 42 41 39 39 37 35 33 32 33 31 30 29 27 28 29 26 26 24 22 21 21 20 15 11 12 10 0 0 9 9 9 0 0 9 10 10 10 10 10 12 13 12 12 12 12 13 13 13 13 13 13 12 13 13 9 9 0 0 0 0 0 9 11 14 15 16 19 23 28 28 29 34 33 35 36 37 39 41 41 45 45 49 52 52 52 53 54 57 57 58 62 62 62 66 71 71 73 74 83 79 79 83 82 80 81 83 81 80 81 81 78 79 84 85 -193 89 -193 90 92 92 91 90 90 90 -193 -209 -177 -177 0 -177 -209 -193 121 127 125 124 -193 124 123 122 122 128 124 126 131 134 140 139 146 -209 -177 -193 -193 150 151 145 148 147 147 147 147 147 147 143 151 151 152 156 161 163 165 167 172 172 172 172 181 181 181 182 182 183 187 -177 -177 -193 16 -193 199 195 195 195 0 0 0 0 0
    0 0 0 0 0 0 0 0 0 0 0 0 0 0 0 0 0 0 0 0 0 0 0 0 0 0 0 0 0 0 0 0 0 0 0 0 0 0 0 0 0 0 0 0 0 0 0 0 0 0 0 0 0 0 0 0 0 0 0 0 0 0 0 0 0 0 0 0 0 52 51 51 51 50 52 48 46 48 47 49 47 45 43 44 43 45 45 44 42 44 45 44 45 44 44 43 43 43 42 41 39 39 38 36 36 36 37 39 40 42 43 44 46 47 46 45 45 44 44 44 44 42 41 41 39 38 37 35 34 31 31 31 30 30 28 26 27 28 25 25 23 21 20 21 19 15 11 11 9 0 0 10 9 9 9 0 10 11 11 11 10 11 12 14 12 13 12 12 13 13 13 14 14 14 13 13 14 10 10 9 9 9 0 9 10 12 14 15 16 19 23 27 28 29 34 33 35 37 37 39 42 42 47 46 50 53 53 53 54 55 58 59 58 62 61 60 65 69 69 73 74 84 79 79 83 82 80 81 83 81 80 81 81 78 79 84 85 -193 89 -193 -193 -193 91 91 -193 89 89 191 -177 -193 -177 0 0 -209 -209 121 126 125 123 -193 -193 123 122 123 128 125 127 131 134 139 139 145 -209 -177 -193 -193 150 151 145 148 146 146 146 146 147 147 143 151 150 152 156 161 162 164 167 172 171 172 172 181 182 182 183 183 184 188 -177 -177 -193 15 -193 199 196 196 195 0 0 0 0 0
    0 0 0 0 0 0 0 0 0 0 0 0 0 0 0 0 0 0 0 0 0 0 0 0 0 0 0 0 0 0 0 0 0 0 0 0 0 0 0 0 0 0 0 0 0 0 0 0 0 0 0 0 0 0 0 0 0 0 0 0 0 0 0 0 0 0 0 0 0 52 51 51 51 50 52 49 47 50 48 50 48 45 44 44 43 47 45 44 43 44 45 45 45 45 44 43 44 44 42 41 39 39 39 36 35 36 37 38 39 41 41 42 44 46 44 43 43 43 41 42 42 40 38 39 38 36 36 34 33 30 30 31 30 30 27 26 26 28 25 25 23 20 18 20 19 14 11 11 9 0 0 9 9 0 0 0 0 10 10 10 9 11 11 13 12 13 12 13 14 15 14 14 15 15 13 14 14 11 10 9 11 10 9 10 10 13 15 14 16 18 23 27 28 30 35 34 36 38 38 40 43 42 47 47 52 54 54 54 55 57 59 60 58 62 61 61 65 69 69 73 74 83 78 79 83 82 81 82 84 82 81 81 81 79 79 -193 84 -193 -193 -193 -193 -193 91 -193 -193 90 -193 191 -193 -193 -177 0 0 -209 -193 120 125 124 123 -193 -193 123 122 123 129 125 127 132 134 139 139 -193 -193 -193 146 -193 150 151 145 148 146 145 146 146 146 147 142 151 151 153 156 160 161 164 167 173 172 172 173 181 183 184 184 184 185 189 -193 -193 18 15 -193 199 196 196 195 0 0 0 0 0
    0 0 0 0 0 0 0 0 0 0 0 0 0 0 0 0 0 0 0 0 0 0 0 0 0 0 0 0 0 0 0 0 0 0 0 0 0 0 0 0 0 0 0 0 0 0 0 0 0 0 0 0 0 0 0 0 0 0 0 0 0 0 0 0 0 0 0 0 0 52 51 51 51 50 51 49 47 50 49 50 49 46 45 45 44 47 45 44 44 44 46 45 45 45 44 44 44 44 43 41 39 39 39 36 36 36 37 38 39 41 41 41 43 45 43 43 42 42 39 40 40 38 36 37 37 36 36 33 33 30 29 30 29 29 27 25 26 27 26 25 23 20 17 19 17 14 10 10 9 0 0 9 9 0 0 0 0 9 0 0 0 9 10 11 11 12 12 13 14 15 14 14 15 14 13 13 13 11 10 10 11 10 9 10 10 12 15 14 15 19 24 28 29 31 36 35 37 38 38 40 43 43 48 49 53 55 55 55 55 58 61 62 59 65 63 64 67 71 71 73 74 83 79 79 83 82 81 83 84 82 81 81 81 79 -177 83 83 -193 -193 -193 622 624 -193 -193 -193 90 -209 190 -193 -209 -177 0 0 -193 -193 118 124 123 123 -193 -193 123 122 123 129 126 127 132 134 138 138 -193 -193 -193 -193 738 150 151 145 148 146 145 146 146 146 147 142 151 151 153 155 158 160 162 167 174 172 173 174 181 185 185 185 185 185 190 -193 19 18 15 -193 199 196 196 195 0 0 0 0 0
    0 0 0 0 0 0 0 0 0 0 0 0 0 0 0 0 0 0 0 0 0 0 0 0 0 0 0 0 0 0 0 0 0 0 0 0 0 0 0 0 0 0 0 0 0 0 0 0 0 0 0 0 0 0 0 0 0 0 0 0 0 0 0 0 0 0 0 0 0 52 51 51 51 49 51 49 46 50 48 49 48 46 45 45 44 47 46 44 44 45 47 45 46 45 45 44 44 44 43 41 39 39 39 37 36 36 37 38 38 40 40 40 43 45 44 43 -193 -193 35 37 -193 -193 32 34 35 33 33 30 30 28 28 28 27 27 26 25 25 28 26 26 24 20 17 19 19 16 11 10 9 9 9 10 9 0 0 0 0 9 9 9 0 9 9 10 11 12 11 12 13 15 14 15 15 14 13 13 13 12 11 10 12 10 11 13 13 15 16 15 17 20 25 29 31 33 36 36 38 38 39 40 43 42 47 50 54 56 56 56 57 60 63 64 59 67 65 66 68 72 72 73 74 83 79 79 83 82 82 83 84 83 81 82 82 79 -177 83 82 79 -193 -193 -177 625 -209 -193 -193 -193 -209 -193 -193 -209 -209 -209 9 -177 -193 117 122 122 123 -193 -193 123 123 124 129 127 128 132 134 137 137 -193 -193 -193 -193 738 151 151 145 148 147 145 146 146 147 147 142 152 152 153 155 158 158 160 166 173 172 173 174 181 185 185 185 -193 186 190 14 19 18 14 -193 200 196 196 195 0 0 0 0 0
    0 0 0 0 0 0 0 0 0 0 0 0 0 0 0 0 0 0 0 0 0 0 0 0 0 0 0 0 0 0 0 0 0 0 0 0 0 0 0 0 0 0 0 0 0 0 0 0 0 0 0 0 0 0 0 0 0 0 0 0 0 0 0 0 0 0 0 0 0 52 51 51 51 49 51 49 46 51 49 50 49 46 46 45 46 48 47 45 45 46 47 45 46 45 45 44 44 43 42 41 39 39 39 36 36 36 37 37 37 39 39 39 43 46 47 -193 -209 -193 -209 -209 -209 -193 27 30 32 29 30 28 28 27 26 26 26 26 25 24 25 28 27 26 24 19 17 19 19 17 11 11 9 10 9 10 9 9 0 0 0 9 9 0 0 9 9 10 10 11 11 12 13 15 14 14 15 14 13 13 13 12 11 10 12 10 11 12 13 15 16 16 18 20 26 30 32 34 37 37 38 38 39 41 43 42 47 51 54 57 57 57 57 61 64 65 59 67 66 67 69 72 72 73 74 83 78 79 83 82 82 84 85 83 82 82 82 79 80 83 82 78 -193 -193 -193 626 -193 -193 -193 -193 -209 -193 93 96 92 -209 -193 -177 109 116 120 122 123 -193 -193 123 123 124 129 128 128 132 134 136 137 -193 -193 -193 -193 -193 151 151 146 147 147 145 146 146 147 147 142 152 152 153 155 158 158 161 166 175 173 174 175 181 186 184 185 -193 185 189 14 18 18 14 -193 200 196 196 195 0 0 0 0 0
    0 0 0 0 0 0 0 0 0 0 0 0 0 0 0 0 0 0 0 0 0 0 0 0 0 0 0 0 0 0 0 0 0 0 0 0 0 0 0 0 0 0 0 0 0 0 0 0 0 0 0 0 0 0 0 0 0 0 0 0 0 0 0 0 0 0 0 0 0 52 51 51 51 50 52 50 46 51 49 49 49 47 46 46 46 48 47 46 45 46 46 45 45 45 44 43 44 43 42 41 39 39 39 37 36 36 37 37 36 38 37 35 41 46 -193 -193 0 10 -193 15 -193 -209 25 26 28 26 28 25 26 25 24 24 25 25 23 23 26 27 26 26 24 19 16 19 18 13 10 10 9 10 9 9 9 9 0 0 0 0 0 0 0 9 9 9 10 11 11 12 13 15 14 14 15 14 13 13 13 12 11 10 12 10 11 12 13 14 16 18 20 22 26 30 32 34 37 36 38 38 39 41 43 42 47 -193 54 57 57 57 57 61 65 65 59 67 66 67 69 72 72 73 74 83 78 79 83 82 83 84 85 83 83 83 83 80 81 83 82 78 -193 -193 -193 628 -193 -193 -193 -193 -209 188 93 96 92 94 -209 -177 108 116 120 122 123 124 -193 123 123 125 129 128 128 132 134 136 137 -193 -193 -193 143 -193 150 151 146 147 147 144 145 146 146 146 142 150 150 151 155 157 158 162 167 177 174 175 176 181 185 184 184 -193 -193 189 15 18 18 14 -193 -209 197 197 195 0 0 0 0 0
    0 0 0 0 0 0 0 0 0 0 0 0 0 0 0 0 0 0 0 0 0 0 0 0 0 0 0 0 0 0 0 0 0 0 0 0 0 0 0 0 0 0 0 0 0 0 0 0 0 0 0 0 0 0 0 0 0 0 0 0 0 0 0 0 0 0 0 0 0 52 51 52 52 51 52 51 46 52 48 49 48 46 46 45 47 48 48 46 46 46 46 45 45 45 44 43 43 43 42 41 39 39 39 37 36 36 36 36 34 35 34 30 -193 43 -193 12 8 10 12 13 15 -209 21 23 23 22 25 19 19 16 16 16 21 23 22 23 26 27 26 26 25 19 14 15 14 10 0 0 0 10 0 9 0 0 0 0 0 9 0 0 0 9 9 9 10 11 11 12 12 14 13 13 15 14 13 13 12 12 11 10 11 10 10 11 13 13 15 17 20 22 26 31 32 34 37 36 37 37 39 41 42 42 47 -193 54 56 -177 56 57 61 65 65 60 68 67 68 70 73 73 73 74 82 78 79 83 82 84 85 86 84 83 83 83 81 83 83 82 78 -193 -193 -193 628 628 736 -193 -193 -209 -193 92 95 92 93 -193 -177 107 115 120 122 123 -193 -193 123 124 125 130 129 128 131 133 135 137 141 634 142 143 148 150 151 146 147 147 144 145 145 146 146 141 150 149 148 154 157 157 161 166 -193 173 174 176 181 185 183 183 -193 -193 188 15 18 19 13 -193 -209 197 197 195 0 0 0 0 0
    0 0 0 0 0 0 0 0 0 0 0 0 0 0 0 0 0 0 0 0 0 0 0 0 0 0 0 0 0 0 0 0 0 0 0 0 0 0 0 0 0 0 0 0 0 0 0 0 0 0 0 0 0 0 0 0 0 0 0 0 0 0 0 0 0 0 0 0 0 52 51 52 52 51 53 51 46 52 48 48 48 45 45 45 46 48 48 46 46 46 47 45 45 45 44 43 43 43 42 40 39 39 39 36 35 35 36 35 33 33 32 28 24 -193 15 14 10 10 12 12 13 14 17 18 16 16 16 13 12 10 9 9 13 17 18 20 24 23 22 22 21 13 10 0 0 0 0 0 0 0 0 0 0 0 0 0 0 0 0 0 0 9 9 9 10 11 11 12 12 14 13 13 14 14 13 13 12 12 11 11 12 11 11 11 12 12 14 16 20 22 25 30 31 32 36 35 36 36 38 40 41 41 46 -193 53 55 55 55 56 60 64 65 58 -193 68 68 70 74 73 74 74 82 78 79 83 82 84 85 86 84 84 84 84 -193 84 83 82 78 84 197 -193 629 -193 737 -177 -177 -193 -193 -193 94 -193 93 -193 -177 107 114 119 121 122 123 123 123 124 126 130 130 129 132 133 136 138 141 635 142 143 148 150 151 147 147 147 144 145 146 146 146 141 150 150 150 155 157 157 161 166 176 172 173 176 181 186 183 183 -193 -177 188 15 17 19 13 -193 -209 197 197 -193 0 0 0 0 0
    0 0 0 0 0 0 0 0 0 0 0 0 0 0 0 0 0 0 0 0 0 0 0 0 0 0 0 0 0 0 0 0 0 0 0 0 0 0 0 0 0 0 0 0 0 0 0 0 0 0 0 0 0 0 0 0 0 0 0 0 0 0 0 0 0 0 0 0 0 52 51 52 52 51 52 51 46 51 49 49 47 46 46 45 46 47 48 46 47 46 47 45 45 45 44 43 43 42 42 40 39 39 38 36 35 35 35 34 33 32 31 27 23 20 15 14 10 10 11 11 12 12 15 14 13 13 12 10 10 0 0 0 10 11 12 14 20 16 16 18 16 12 10 0 0 0 0 0 0 0 0 0 0 0 0 0 0 0 0 0 0 9 9 9 10 11 11 12 12 14 13 13 14 13 13 13 12 12 11 11 11 11 10 11 11 11 12 14 20 23 25 31 31 33 36 34 35 36 37 39 40 41 44 -193 52 54 53 53 54 59 62 63 56 -209 66 67 70 74 73 73 73 81 78 79 83 82 84 86 86 84 84 84 84 -193 84 83 82 79 85 -193 -193 -193 -209 738 737 -177 -193 -193 -193 93 91 92 -209 -177 106 113 118 120 122 122 123 123 124 125 130 131 129 132 133 136 138 142 635 143 -193 149 -193 152 147 148 148 144 146 146 146 147 141 151 151 152 155 158 160 163 166 174 172 173 175 181 186 183 183 183 -177 188 15 17 19 13 -193 -209 -193 198 -193 0 0 0 0 0
    0 0 0 0 0 0 0 0 0 0 0 0 0 0 0 0 0 0 0 0 0 0 0 0 0 0 0 0 0 0 0 0 0 0 0 0 0 0 0 0 0 0 0 0 0 0 0 0 0 0 0 0 0 0 0 0 0 0 0 0 0 0 0 0 0 0 0 0 0 53 51 52 52 51 52 51 45 51 48 49 46 46 45 44 46 46 47 45 46 45 46 45 45 45 44 43 43 42 41 39 38 38 38 36 35 35 35 34 33 32 31 27 24 21 16 14 11 10 11 11 11 11 14 12 11 11 9 0 0 0 0 0 9 9 10 12 16 14 12 15 12 11 9 0 0 0 0 0 0 0 0 0 0 0 0 0 0 0 0 0 0 0 9 9 9 11 10 12 12 13 13 13 14 13 12 13 11 12 11 11 11 11 10 11 11 11 12 14 20 24 26 31 32 33 36 34 35 35 37 39 39 40 43 -193 50 53 52 52 53 57 60 63 55 -209 66 67 70 73 72 73 72 80 77 78 82 82 85 86 86 84 84 84 85 -193 85 83 83 -177 85 -193 -193 84 -193 739 738 -177 -193 188 -193 93 92 92 99 -193 106 111 118 120 121 122 122 123 123 125 129 131 129 132 133 136 139 142 635 145 -193 149 -193 -193 -193 -193 149 145 146 146 147 147 142 151 152 152 155 158 160 162 165 172 171 173 175 180 185 182 182 182 -193 187 15 17 19 13 -193 -209 -193 199 -193 0 0 0 0 0
    0 0 0 0 0 0 0 0 0 0 0 0 0 0 0 0 0 0 0 0 0 0 0 0 0 0 0 0 0 0 0 0 0 0 0 0 0 0 0 0 0 0 0 0 0 0 0 0 0 0 0 0 0 0 0 0 0 0 0 0 0 0 0 0 0 0 0 0 0 53 51 52 52 51 52 51 45 49 48 48 46 45 45 44 45 44 45 44 45 45 46 44 44 44 44 43 43 42 41 39 38 38 38 36 35 35 35 34 33 32 31 27 25 -193 18 15 11 10 11 11 10 11 13 11 10 10 0 0 0 0 0 0 9 9 10 11 13 13 10 12 9 0 0 0 0 0 0 0 0 0 0 0 0 0 0 0 0 0 0 0 0 0 0 0 9 10 10 12 12 13 13 12 13 13 12 13 11 12 12 11 11 11 10 11 11 11 12 14 21 26 26 31 31 32 35 33 33 34 35 38 37 39 42 -193 49 52 51 51 52 56 56 61 55 -193 64 66 69 72 71 71 72 78 77 77 82 82 84 85 86 84 84 84 85 -193 85 84 83 -177 85 -193 83 84 -177 -177 -177 -177 -193 -177 -193 93 93 93 99 -209 105 110 117 119 121 122 122 123 123 125 128 131 129 132 133 136 139 143 635 -193 628 151 -193 -193 750 -193 -193 145 146 147 147 147 142 151 152 152 155 159 160 162 165 170 170 172 173 179 184 180 181 181 182 -193 15 17 18 13 -193 -209 -209 199 -193 0 0 0 0 0
    0 0 0 0 0 0 0 0 0 0 0 0 0 0 0 0 0 0 0 0 0 0 0 0 0 0 0 0 0 0 0 0 0 0 0 0 0 0 0 0 0 0 0 0 0 0 0 0 0 0 0 0 0 0 0 0 0 0 0 0 0 0 0 0 0 0 0 0 0 53 51 52 52 50 52 51 46 48 47 47 46 46 46 45 45 44 45 44 44 44 45 44 44 44 43 42 42 42 41 38 37 37 38 36 35 35 34 33 33 32 31 28 26 -193 -193 18 11 10 10 10 10 10 11 10 9 10 0 0 0 0 0 0 9 10 11 13 15 13 11 12 9 10 9 0 0 0 0 0 0 0 0 0 0 0 0 0 0 0 9 9 0 9 9 9 10 11 10 12 12 12 13 12 13 13 12 13 11 12 12 11 11 11 11 11 11 11 12 14 21 27 26 32 31 32 35 32 33 34 35 37 36 39 40 -193 47 51 50 49 51 55 55 56 54 72 63 65 68 71 70 70 71 77 76 77 82 81 84 84 86 84 84 84 85 -193 85 84 84 -177 -193 -193 -193 84 -177 -177 -177 -177 737 189 -193 94 94 93 99 -193 105 110 117 119 121 122 122 123 123 125 128 131 128 131 133 136 140 146 635 -193 628 152 -193 -193 750 -193 -193 145 146 147 147 148 143 151 152 153 156 160 160 162 165 169 171 172 172 177 183 179 179 180 181 -193 15 17 18 12 -193 -209 -209 200 -177 0 0 0 0 0
    0 0 0 0 0 0 0 0 0 0 0 0 0 0 0 0 0 0 0 0 0 0 0 0 0 0 0 0 0 0 0 0 0 0 0 0 0 0 0 0 0 0 0 0 0 0 0 0 0 0 0 0 0 0 0 0 0 0 0 0 0 0 0 0 0 0 0 0 0 53 51 52 52 50 52 51 46 47 47 48 46 46 47 45 46 45 46 45 44 45 45 44 44 44 43 42 42 42 41 38 37 36 38 35 34 35 33 33 33 32 31 29 27 -193 -193 20 12 10 10 10 9 9 11 10 9 10 0 0 0 0 0 9 10 11 11 13 15 13 11 12 10 10 10 9 0 9 10 0 0 0 0 0 0 0 0 0 0 0 10 10 10 10 10 10 11 12 11 13 12 12 13 12 13 13 12 13 11 12 12 11 11 12 10 10 10 10 11 14 21 27 26 32 31 32 35 32 32 33 34 37 35 38 40 43 46 50 49 48 50 54 54 55 53 57 61 64 67 70 69 68 70 76 75 76 81 81 83 84 85 83 83 84 84 83 85 84 85 -177 -177 -193 -193 84 -177 -177 -177 -177 -209 190 -193 93 93 93 98 103 105 110 117 119 121 122 122 123 123 125 128 130 128 132 132 137 142 148 -177 -193 -193 -193 -193 -193 750 749 754 146 147 148 148 148 144 151 152 153 156 161 162 164 166 171 172 172 173 177 183 178 179 179 180 -193 15 16 18 12 -193 -209 -193 201 -177 0 0 0 0 0
    0 0 0 0 0 0 0 0 0 0 0 0 0 0 0 0 0 0 0 0 0 0 0 0 0 0 0 0 0 0 0 0 0 0 0 0 0 0 0 0 0 0 0 0 0 0 0 0 0 0 0 0 0 0 0 0 0 0 0 0 0 0 0 0 0 0 0 0 0 53 51 52 52 50 52 51 46 47 47 47 45 46 46 45 46 45 47 45 45 45 46 44 45 44 44 42 42 42 41 38 36 35 37 35 34 35 33 33 34 33 32 29 28 -193 -193 23 16 11 12 11 10 10 12 10 9 10 0 0 0 9 0 10 10 11 11 12 13 12 11 12 9 10 9 9 9 9 11 9 9 0 0 0 0 0 0 0 9 9 10 11 11 10 12 11 11 12 11 13 12 12 13 12 12 13 11 13 11 12 12 11 11 12 11 11 10 11 11 12 20 26 25 31 30 31 34 32 32 33 34 36 34 38 40 42 46 49 48 47 49 52 53 54 53 57 61 63 66 69 67 67 69 75 75 75 80 80 83 83 84 83 83 83 84 -193 -193 84 -177 -177 -177 -193 -193 84 -177 -193 -193 -177 -209 191 -193 -193 92 92 97 103 105 109 117 119 120 122 -193 123 123 125 128 130 128 132 132 139 145 -193 -177 -193 -193 -193 -193 751 751 749 755 148 149 149 149 150 147 152 152 153 156 160 161 163 166 169 172 172 172 176 183 178 178 178 180 -193 14 16 18 12 -193 -193 -177 201 -177 0 0 0 0 0
    0 0 0 0 0 0 0 0 0 0 0 0 0 0 0 0 0 0 0 0 0 0 0 0 0 0 0 0 0 0 0 0 0 0 0 0 0 0 0 0 0 0 0 0 0 0 0 0 0 0 0 0 0 0 0 0 0 0 0 0 0 0 0 0 0 0 0 0 0 53 51 52 52 49 52 51 46 47 47 47 45 46 46 45 45 45 47 45 45 46 46 45 45 44 44 43 43 43 42 38 35 34 37 35 34 35 33 33 35 34 33 30 30 -193 -193 -193 22 14 13 11 11 11 12 10 10 10 0 0 0 9 0 10 10 10 11 12 13 13 11 12 10 10 10 10 10 10 11 9 0 0 0 0 0 0 0 0 9 10 11 12 12 11 12 11 12 13 11 14 12 12 13 12 12 13 11 13 11 12 12 11 12 13 11 12 11 11 11 12 18 24 25 30 29 30 34 32 32 33 33 36 34 38 39 42 45 48 47 46 48 51 52 53 52 58 61 62 65 68 66 66 68 74 73 74 79 79 82 81 84 82 82 83 84 -193 -193 84 -193 -193 -177 -193 -193 85 -177 -193 -193 -177 -209 192 -193 -193 91 91 96 103 105 109 116 119 120 122 -193 123 123 125 128 130 128 132 132 140 147 -193 636 -193 -193 -193 156 -193 751 -193 -193 149 150 151 151 151 150 153 153 154 155 159 162 163 166 168 173 172 172 176 183 178 178 178 180 -193 14 15 17 11 -193 -193 -177 -193 -177 0 0 0 0 0
    0 0 0 0 0 0 0 0 0 0 0 0 0 0 0 0 0 0 0 0 0 0 0 0 0 0 0 0 0 0 0 0 0 0 0 0 0 0 0 0 0 0 0 0 0 0 0 0 0 0 0 0 0 0 0 0 0 0 0 0 0 0 0 0 0 0 0 0 0 53 51 52 51 49 51 51 46 47 46 47 45 46 46 46 45 45 47 45 45 47 46 45 45 44 45 43 43 43 41 38 35 33 37 35 34 35 33 33 35 35 34 31 31 31 28 28 26 17 14 11 11 12 13 11 11 11 9 0 0 10 9 11 11 11 11 12 13 13 11 12 10 11 11 12 12 11 11 9 0 0 0 0 0 0 0 0 9 10 11 12 12 12 13 11 12 13 11 14 12 12 13 12 12 12 11 13 11 12 12 11 12 13 11 12 11 11 12 13 19 24 25 31 29 31 34 32 32 33 33 36 34 38 39 -193 45 47 47 46 47 50 51 53 52 58 61 62 64 67 65 65 67 73 72 72 -193 78 81 80 83 81 81 82 84 82 84 84 -193 -193 -177 -193 -193 86 -193 -193 -193 -177 -209 193 -193 -193 92 91 96 104 105 108 116 119 120 122 123 123 124 125 128 130 128 132 131 141 149 -193 636 -193 -209 -193 156 -193 -193 -193 154 151 152 152 152 152 153 153 154 155 155 158 163 164 167 170 175 174 174 177 183 178 178 178 180 183 13 14 16 11 -193 -193 -177 -209 -209 0 0 0 0 0
    0 0 0 0 0 0 0 0 0 0 0 0 0 0 0 0 0 0 0 0 0 0 0 0 0 0 0 0 0 0 0 0 0 0 0 0 0 0 0 0 0 0 0 0 0 0 0 0 0 0 0 0 0 0 0 0 0 0 0 0 0 0 0 0 0 0 0 0 0 53 51 51 50 48 50 50 46 47 46 47 45 46 47 47 45 45 47 46 45 48 46 45 45 44 45 43 43 44 41 38 35 32 37 35 34 35 33 33 36 35 35 32 33 32 29 29 28 20 14 11 11 12 12 11 11 11 9 9 9 11 10 12 12 11 11 12 14 14 12 13 11 12 12 13 13 11 12 10 9 0 0 0 0 0 9 9 10 10 11 12 12 12 13 12 12 13 11 14 12 12 12 12 11 12 11 12 10 11 11 10 12 12 11 12 11 11 12 13 19 24 25 31 29 31 35 32 32 33 33 36 34 38 39 42 44 46 46 45 46 50 51 53 52 60 62 62 63 67 64 64 66 72 71 71 -177 76 79 78 82 80 81 81 83 81 84 84 -193 -193 -177 -193 -193 86 -193 -193 -193 -177 -209 192 -193 -193 92 91 96 103 105 108 115 119 120 123 124 124 124 125 128 130 127 132 130 143 152 -193 637 -209 -209 -193 -193 -193 157 154 155 152 153 153 153 153 154 153 154 154 155 157 161 164 167 170 176 174 174 176 183 177 178 178 179 182 12 13 15 -193 -193 -193 -177 -209 -209 0 0 0 0 0
    0 0 0 0 0 0 0 0 0 0 0 0 0 0 0 0 0 0 0 0 0 0 0 0 0 0 0 0 0 0 0 0 0 0 0 0 0 0 0 0 0 0 0 0 0 0 0 0 0 0 0 0 0 0 0 0 0 0 0 0 0 0 0 0 0 0 0 0 0 53 51 51 50 48 50 51 46 47 46 47 45 47 47 47 45 46 48 46 45 49 46 46 45 45 45 43 43 44 41 39 34 30 37 34 34 35 33 33 35 35 34 32 32 32 29 30 29 23 15 13 12 12 12 11 11 11 9 9 9 13 10 13 13 12 12 13 15 14 13 13 12 12 12 13 13 11 12 10 10 0 0 9 9 9 9 9 10 10 11 12 12 12 13 11 12 13 12 14 12 12 12 12 12 12 11 12 11 11 11 10 12 11 11 12 11 11 12 13 19 24 25 31 29 31 35 32 32 33 33 36 34 38 39 42 44 46 46 45 45 50 51 53 52 61 65 63 64 67 65 65 66 72 70 71 -177 75 78 77 81 79 80 81 83 81 84 -193 -193 -177 -177 -193 -193 87 -193 -193 -193 -177 -193 192 -193 -193 92 91 95 103 105 108 115 119 121 124 125 124 124 126 127 130 127 131 129 142 -209 -193 637 -193 -193 -193 -193 -193 158 154 155 153 154 154 154 154 154 153 153 154 154 156 160 163 167 171 179 176 177 178 183 177 177 177 179 182 -193 12 14 -177 -193 197 -177 -209 -209 0 0 0 0 0
    0 0 0 0 0 0 0 0 0 0 0 0 0 0 0 0 0 0 0 0 0 0 0 0 0 0 0 0 0 0 0 0 0 0 0 0 0 0 0 0 0 0 0 0 0 0 0 0 0 0 0 0 0 0 0 0 0 0 0 0 0 0 0 0 0 0 0 0 0 53 50 51 50 47 50 51 46 47 46 46 45 47 47 48 45 46 49 47 46 50 47 46 46 45 45 43 44 44 41 39 35 29 37 34 34 35 33 33 35 35 34 32 32 32 29 30 29 25 17 13 12 12 11 11 10 11 10 10 11 15 12 14 14 13 13 14 15 15 13 14 12 12 13 13 13 12 12 11 10 9 0 9 9 9 10 10 10 11 11 12 12 12 13 11 12 12 12 13 12 12 12 12 12 12 11 12 11 11 11 10 12 11 11 12 11 11 12 13 19 24 25 31 29 31 35 32 32 33 33 36 34 38 39 42 44 46 46 45 45 49 51 53 52 60 66 64 65 68 67 67 66 72 69 70 -177 75 78 77 80 79 79 80 83 81 84 -193 -193 -177 -177 -193 89 87 -193 -193 -193 -177 -209 191 -193 -193 92 91 95 103 105 108 115 119 121 124 125 125 125 126 128 130 127 131 127 141 -209 -193 638 -177 -193 -193 -193 -193 159 154 156 154 155 155 155 155 155 153 153 154 153 156 160 165 168 173 180 177 177 178 182 177 177 177 179 181 182 -193 -193 -177 -193 197 -177 -193 -193 0 0 0 0 0
    0 0 0 0 0 0 0 0 0 0 0 0 0 0 0 0 0 0 0 0 0 0 0 0 0 0 0 0 0 0 0 0 0 0 0 0 0 0 0 0 0 0 0 0 0 0 0 0 0 0 0 0 0 0 0 0 0 0 0 0 0 0 0 0 0 0 0 0 0 52 50 50 49 47 50 51 45 47 46 46 45 47 47 49 45 47 50 47 47 51 47 47 46 46 46 43 44 45 41 40 36 29 37 35 34 35 33 34 35 34 35 32 33 33 30 31 29 26 21 14 13 12 11 11 11 11 11 11 12 16 13 14 14 13 14 14 16 15 14 14 13 13 14 14 14 12 12 11 10 9 9 9 10 9 10 10 11 11 11 12 13 12 13 12 12 13 12 14 13 12 12 12 12 12 11 12 11 11 10 10 12 11 10 12 10 10 11 12 18 24 25 31 29 31 35 32 32 33 33 36 34 38 39 42 44 46 46 45 45 49 51 53 52 60 68 66 66 69 68 68 67 72 68 70 -177 74 77 76 79 79 79 80 83 81 85 -193 -193 -193 -177 -193 90 88 -193 -193 -193 -177 -209 191 -193 -193 91 89 93 101 105 108 115 120 121 125 126 125 125 126 128 130 127 131 127 140 -209 -193 638 -177 -193 -193 -193 750 159 155 156 154 156 -193 156 156 156 153 154 154 153 156 162 165 168 173 180 176 176 177 182 177 177 177 178 181 181 -177 -177 588 591 197 -177 199 -193 0 0 0 0 0
    0 0 0 0 0 0 0 0 0 0 0 0 0 0 0 0 0 0 0 0 0 0 0 0 0 0 0 0 0 0 0 0 0 0 0 0 0 0 0 0 0 0 0 0 0 0 0 0 0 0 0 0 0 0 0 0 0 0 0 0 0 0 0 0 0 0 0 0 0 52 50 51 50 48 50 52 46 47 46 46 45 47 46 49 45 47 50 48 47 51 47 47 46 46 46 43 45 45 41 40 37 30 37 35 34 36 33 34 34 34 35 33 33 34 30 32 30 27 26 19 16 15 13 12 11 11 11 10 12 15 12 14 14 13 14 14 16 15 14 14 13 13 14 14 14 12 12 11 10 8 0 0 9 0 9 9 10 11 11 12 12 12 13 12 12 12 12 13 12 12 12 12 11 12 11 11 11 10 10 9 11 10 9 11 10 9 10 11 17 24 25 31 29 31 35 33 33 33 33 36 34 38 39 43 44 46 46 45 45 49 51 53 52 60 69 67 67 70 68 68 67 72 67 69 -177 73 -193 -193 -193 78 79 81 84 82 85 -193 -193 -193 -193 -193 90 88 -193 -193 -193 -177 -209 -193 -209 -193 90 88 92 -193 -193 107 115 120 122 126 127 126 126 127 128 130 126 130 -193 140 -193 -193 637 815 -193 -193 748 750 159 155 156 155 156 767 -193 156 156 153 153 154 153 156 163 166 168 172 180 175 176 177 182 177 177 177 178 181 181 -177 -177 588 590 197 -209 198 -193 0 0 0 0 0
    0 0 0 0 0 0 0 0 0 0 0 0 0 0 0 0 0 0 0 0 0 0 0 0 0 0 0 0 0 0 0 0 0 0 0 0 0 0 0 0 0 0 0 0 0 0 0 0 0 0 0 0 0 0 0 0 0 0 0 0 0 0 0 0 0 0 0 0 0 53 51 51 50 48 51 52 46 48 46 46 45 47 46 49 45 47 50 47 47 51 47 47 46 46 46 43 45 45 40 41 38 30 37 35 34 36 33 34 34 34 34 32 33 34 31 33 30 29 28 23 21 20 15 14 12 12 12 12 14 16 13 14 15 14 15 15 17 16 15 15 14 13 15 14 14 12 11 10 9 0 0 0 0 0 9 9 9 10 11 12 12 12 12 12 12 12 12 13 12 12 12 12 11 12 11 11 11 11 10 10 11 10 10 11 10 10 10 11 17 23 25 30 29 30 34 33 33 34 34 37 35 39 40 43 44 46 46 45 45 49 51 53 52 60 70 68 68 70 68 68 66 71 66 69 -177 -193 -193 75 -193 -193 80 81 84 83 86 -193 -193 -193 -193 -193 90 88 -193 -193 -193 -177 -193 -193 -209 -193 90 87 91 -193 -193 107 114 120 122 126 127 126 126 127 128 130 126 130 -193 -193 -193 -193 637 814 -193 -193 748 750 159 154 -177 155 156 767 -193 156 156 153 153 154 153 156 163 166 167 169 179 174 175 175 182 176 176 176 178 181 181 596 596 588 -193 197 -209 197 -193 0 0 0 0 0
    0 0 0 0 0 0 0 0 0 0 0 0 0 0 0 0 0 0 0 0 0 0 0 0 0 0 0 0 0 0 0 0 0 0 0 0 0 0 0 0 0 0 0 0 0 0 0 0 0 0 0 0 0 0 0 0 0 0 0 0 0 0 0 0 0 0 0 0 0 53 51 51 51 49 51 53 46 48 46 46 45 47 47 50 44 47 50 47 47 51 47 47 46 47 46 43 45 46 41 41 38 30 38 35 34 36 33 34 33 33 34 32 32 34 31 33 30 29 29 25 23 22 17 15 13 13 13 13 15 17 14 15 16 15 17 16 17 17 15 16 15 14 16 13 13 11 10 9 0 0 0 0 0 0 0 0 9 10 10 11 11 12 12 12 12 12 12 12 12 11 11 11 11 12 11 11 11 11 10 10 11 10 9 11 10 10 10 11 17 23 24 30 28 29 34 32 33 34 34 37 36 40 40 44 44 46 46 46 45 49 51 53 52 61 71 69 69 71 69 69 66 71 65 68 -177 72 -193 75 -193 -193 80 82 85 83 86 -193 92 -193 92 -193 90 89 90 -193 -193 -177 -193 -177 -193 -193 -193 -193 92 -209 -193 107 114 120 122 126 127 126 126 127 128 131 126 129 -193 -193 763 -177 636 814 -193 -193 748 749 158 154 -177 154 156 766 -193 156 156 152 153 154 154 158 165 166 167 168 175 172 173 173 181 176 176 176 178 181 181 595 596 589 -193 -193 -193 196 -193 0 0 0 0 0
    0 0 0 0 0 0 0 0 0 0 0 0 0 0 0 0 0 0 0 0 0 0 0 0 0 0 0 0 0 0 0 0 0 0 0 0 0 0 0 0 0 0 0 0 0 0 0 0 0 0 0 0 0 0 0 0 0 0 0 0 0 0 0 0 0 0 0 0 0 54 51 51 51 49 51 53 46 48 46 46 46 47 47 50 44 46 50 47 47 51 47 47 46 47 46 43 46 46 41 41 38 31 38 35 34 36 33 34 33 33 34 32 32 34 30 33 30 30 29 25 24 23 18 16 13 14 13 15 16 18 15 17 17 16 18 17 17 17 15 16 14 13 15 12 11 11 10 9 0 0 0 0 0 0 0 9 9 9 10 11 10 12 11 12 11 12 12 12 12 12 11 11 11 12 11 11 11 11 10 10 10 10 9 10 9 9 10 11 18 24 24 30 28 29 33 33 33 34 35 37 37 41 41 45 44 46 46 46 46 50 51 53 52 61 -193 70 70 71 69 69 67 71 65 68 -193 72 -193 75 78 -193 80 82 85 83 86 86 92 -193 91 90 90 89 91 -209 -193 -177 -177 -177 -193 -209 -193 -193 93 -209 -193 107 113 120 122 126 126 126 126 127 128 131 126 128 -193 -193 -177 -177 -193 -177 -193 -209 -193 -193 158 153 -177 -177 155 766 -193 -193 155 151 153 154 154 159 165 166 167 168 175 172 172 173 181 175 176 176 178 181 181 595 596 589 -193 -193 -193 196 -193 0 0 0 0 0
    0 0 0 0 0 0 0 0 0 0 0 0 0 0 0 0 0 0 0 0 0 0 0 0 0 0 0 0 0 0 0 0 0 0 0 0 0 0 0 0 0 0 0 0 0 0 0 0 0 0 0 0 0 0 0 0 0 0 0 0 0 0 0 0 0 0 0 0 0 54 52 51 51 49 51 53 47 48 47 46 46 47 47 50 44 46 50 47 47 51 47 47 46 47 47 44 46 46 41 41 38 31 38 35 33 36 33 35 32 33 34 32 32 34 30 33 30 31 30 26 25 24 19 17 13 14 13 15 16 19 15 18 18 17 18 18 18 17 15 16 14 13 15 11 10 11 10 10 9 0 0 0 9 0 0 9 9 9 10 11 10 11 11 13 11 12 12 12 12 12 11 12 11 12 11 11 11 11 10 10 11 10 10 10 9 9 11 11 19 25 25 30 28 29 32 33 33 35 35 38 37 41 42 46 44 46 46 46 46 50 51 53 51 61 -193 72 72 72 70 70 67 71 64 68 -193 72 -193 75 -193 -193 79 82 84 83 86 86 92 -193 -193 89 -177 89 91 -193 -193 -193 192 -177 -193 -209 -193 181 92 -193 -193 107 114 120 122 125 126 125 126 127 128 131 126 128 769 -193 763 -177 -177 -209 -193 -209 -193 -193 157 153 -177 -177 154 765 -193 -193 154 150 152 153 154 159 164 165 167 168 176 173 173 173 181 176 176 176 178 180 180 594 595 588 -193 -209 -193 196 -193 0 0 0 0 0
    0 0 0 0 0 0 0 0 0 0 0 0 0 0 0 0 0 0 0 0 0 0 0 0 0 0 0 0 0 0 0 0 0 0 0 0 0 0 0 0 0 0 0 0 0 0 0 0 0 0 0 0 0 0 0 0 0 0 0 0 0 0 0 0 0 0 0 0 0 54 52 52 51 49 51 53 47 48 47 46 46 48 48 51 44 47 50 47 47 51 47 47 46 47 47 44 46 46 41 41 38 31 38 35 33 36 33 35 32 32 34 32 32 34 31 34 30 31 30 27 26 25 20 17 12 13 12 15 16 19 16 18 18 18 19 18 18 17 14 16 12 12 13 10 9 10 9 10 10 9 9 9 10 9 9 10 10 10 11 12 11 11 11 14 11 12 13 12 13 13 12 12 12 12 12 11 12 11 11 11 11 11 10 10 10 10 11 12 20 25 25 30 28 28 32 34 34 35 36 38 38 42 43 47 44 46 46 46 46 50 51 53 51 60 90 75 74 75 71 71 67 71 65 68 72 72 -193 75 -193 0 79 82 84 82 85 85 91 -193 -193 89 -177 -177 -193 -193 -193 -193 191 -177 -193 -209 -209 180 -193 -193 -193 107 115 121 122 125 126 125 126 127 127 132 125 127 770 -193 763 -177 -177 -209 -177 -193 -193 153 156 152 153 -177 153 765 767 -193 153 148 151 152 153 159 165 166 167 169 176 173 173 173 180 176 176 176 178 180 180 -193 595 588 -193 -209 198 196 -193 0 0 0 0 0
    0 0 0 0 0 0 0 0 0 0 0 0 0 0 0 0 0 0 0 0 0 0 0 0 0 0 0 0 0 0 0 0 0 0 0 0 0 0 0 0 0 0 0 0 0 0 0 0 0 0 0 0 0 0 0 0 0 0 0 0 0 0 0 0 0 0 0 0 0 54 52 52 51 49 51 53 47 48 47 47 47 48 48 51 44 47 51 47 48 51 47 47 47 47 47 44 47 47 41 41 38 31 38 35 34 36 33 35 32 33 34 32 33 34 31 34 30 31 31 27 26 25 20 17 12 13 13 15 17 19 17 19 19 19 19 19 18 17 14 14 11 11 11 9 9 9 9 10 10 9 9 9 10 10 10 11 11 11 12 12 12 12 12 15 12 14 13 13 13 13 13 13 12 13 12 12 12 12 11 11 11 11 10 10 11 10 12 13 20 24 25 30 28 29 32 34 34 36 37 38 39 43 44 49 44 47 47 46 46 50 51 53 50 60 90 76 76 76 71 71 66 71 65 68 71 72 -193 75 -193 0 78 82 84 82 85 85 90 -193 -193 88 -177 89 -193 198 198 -193 191 187 -193 -209 -209 180 -193 -193 -193 -209 114 121 122 125 125 125 125 126 127 132 125 127 770 -193 763 28 -177 -193 -177 -193 -193 153 155 151 152 150 153 766 -193 -193 -193 147 151 152 153 158 165 165 167 168 175 172 172 172 180 175 176 176 178 180 180 -193 594 587 10 -193 198 196 -193 0 0 0 0 0
    0 0 0 0 0 0 0 0 0 0 0 0 0 0 0 0 0 0 0 0 0 0 0 0 0 0 0 0 0 0 0 0 0 0 0 0 0 0 0 0 0 0 0 0 0 0 0 0 0 0 0 0 0 0 0 0 0 0 0 0 0 0 0 0 0 0 0 0 0 54 52 52 51 49 51 53 47 49 48 47 47 48 48 51 44 47 51 47 48 51 47 48 47 47 47 44 47 47 41 42 38 32 38 35 34 36 33 35 32 33 34 33 33 34 31 34 30 31 30 27 26 25 20 16 11 13 13 15 17 19 18 20 20 20 20 19 18 17 14 14 11 11 11 10 9 10 10 10 10 10 10 10 11 10 10 12 11 11 12 13 12 13 13 16 13 14 13 13 14 14 13 13 12 13 12 12 12 11 11 10 11 11 10 10 11 11 12 14 19 24 25 29 28 28 32 35 35 37 37 39 40 43 45 50 44 47 47 46 46 50 51 53 50 60 90 76 75 75 71 71 66 71 65 68 71 72 -193 75 -193 0 78 82 83 82 84 -177 -177 636 -177 88 -177 89 197 198 197 -193 191 187 -193 -209 -209 180 -193 -193 -193 -193 112 121 121 124 124 124 125 125 126 132 125 -193 769 -193 763 28 -177 -177 -177 -193 -193 153 155 150 151 149 152 767 -193 -193 152 146 152 152 153 158 165 165 166 168 176 172 172 172 180 176 176 177 178 180 180 -193 594 587 11 -193 198 196 -193 0 0 0 0 0
    0 0 0 0 0 0 0 0 0 0 0 0 0 0 0 0 0 0 0 0 0 0 0 0 0 0 0 0 0 0 0 0 0 0 0 0 0 0 0 0 0 0 0 0 0 0 0 0 0 0 0 0 0 0 0 0 0 0 0 0 0 0 0 0 0 0 0 0 0 53 51 52 50 49 51 53 47 49 48 47 47 49 49 51 45 47 50 47 48 51 47 48 47 47 47 44 47 47 41 41 38 33 38 35 34 36 33 35 32 33 34 33 33 34 31 34 29 31 30 27 25 24 20 16 11 12 13 15 17 19 19 21 20 20 20 19 17 16 13 13 11 11 11 10 9 10 10 10 10 10 10 10 11 11 10 12 11 12 13 13 12 14 14 16 14 15 14 14 15 14 13 13 11 12 12 12 12 11 11 10 11 11 11 10 11 11 13 14 19 23 24 29 28 28 31 35 35 37 38 39 41 44 46 50 44 47 47 47 46 50 52 52 49 59 90 76 76 75 72 71 67 71 66 68 71 72 -193 75 -193 0 78 82 83 82 84 -177 -177 635 -177 88 87 89 197 198 197 -193 191 187 -193 -209 -177 180 -193 93 92 -193 111 -193 120 123 124 124 125 125 125 132 125 127 769 -193 763 27 -177 -177 -177 -193 -177 152 154 149 150 148 151 -193 151 151 150 144 151 151 153 158 166 166 167 168 178 173 173 173 180 176 177 177 178 180 181 -193 -177 -177 11 -193 -193 196 -193 0 0 0 0 0
    0 0 0 0 0 0 0 0 0 0 0 0 0 0 0 0 0 0 0 0 0 0 0 0 0 0 0 0 0 0 0 0 0 0 0 0 0 0 0 0 0 0 0 0 0 0 0 0 0 0 0 0 0 0 0 0 0 0 0 0 0 0 0 0 0 0 0 0 0 53 51 51 50 48 50 53 47 49 49 47 48 49 49 51 45 47 51 47 48 51 48 48 47 47 47 44 47 46 41 41 38 34 38 35 34 36 33 35 32 33 34 33 33 33 31 34 29 31 30 27 25 24 20 16 12 12 13 16 16 19 18 20 19 19 18 18 15 14 12 12 11 11 11 10 9 10 10 10 10 10 10 10 11 11 11 12 12 12 13 13 13 15 16 17 15 17 15 15 17 14 13 13 11 12 12 12 11 11 11 10 12 12 11 10 11 11 14 15 19 22 24 28 27 28 31 35 35 37 38 39 42 44 47 51 45 47 47 47 46 50 51 52 47 58 89 78 77 77 74 73 70 72 67 69 72 72 -193 75 76 -177 78 82 83 82 84 85 90 -193 -193 88 87 89 197 -193 -193 -193 -193 187 -193 0 -177 -193 -193 -209 95 106 -177 -193 120 123 123 124 125 125 125 132 125 127 770 -193 -177 26 -177 631 -193 -193 -177 152 154 148 149 147 150 -193 150 150 150 144 152 152 154 160 166 166 167 168 178 173 173 173 180 177 177 178 179 180 181 -193 -177 -193 12 12 -193 -193 -193 0 0 0 0 0
    0 0 0 0 0 0 0 0 0 0 0 0 0 0 0 0 0 0 0 0 0 0 0 0 0 0 0 0 0 0 0 0 0 0 0 0 0 0 0 0 0 0 0 0 0 0 0 0 0 0 0 0 0 0 0 0 0 0 0 0 0 0 0 0 0 0 0 0 0 53 50 51 49 47 49 53 47 50 49 48 48 49 49 51 45 47 51 47 48 51 48 48 47 47 47 44 46 46 41 41 38 33 38 35 34 36 33 35 32 33 34 32 33 33 30 34 29 30 30 26 25 23 19 16 12 13 13 15 16 19 18 20 19 18 17 17 14 13 12 11 11 11 11 10 10 11 10 10 10 10 10 11 11 11 11 13 12 12 13 13 14 15 17 18 17 19 17 17 18 15 14 13 12 12 12 12 11 11 11 10 12 12 11 11 11 12 14 15 18 21 23 27 27 27 31 35 35 37 38 40 42 45 47 51 45 47 47 47 46 50 51 52 46 57 -177 80 79 79 76 75 73 74 69 69 72 72 -193 75 77 -177 79 82 83 82 84 85 90 -193 -177 88 86 88 -177 -193 -193 -177 -193 -209 -193 0 0 -193 -193 -209 97 108 -209 -193 119 123 123 123 124 124 125 132 125 127 770 -193 -177 26 -177 -209 -193 148 -193 152 153 147 148 146 149 -193 149 149 149 143 152 151 153 158 165 166 168 168 180 174 174 174 181 178 178 178 179 180 181 182 -177 10 13 13 -193 -193 -193 0 0 0 0 0
    0 0 0 0 0 0 0 0 0 0 0 0 0 0 0 0 0 0 0 0 0 0 0 0 0 0 0 0 0 0 0 0 0 0 0 0 0 0 0 0 0 0 0 0 0 0 0 0 0 0 0 0 0 0 0 0 0 0 0 0 0 0 0 0 0 0 0 0 0 52 50 50 48 47 48 52 46 49 49 48 48 49 49 51 45 48 51 47 48 51 48 48 47 47 47 44 46 46 41 42 38 34 38 35 34 36 33 35 32 32 34 32 33 33 30 34 29 30 29 26 24 23 19 16 12 13 13 15 16 18 19 20 18 19 17 17 14 13 12 12 11 11 10 11 10 11 10 10 10 9 10 10 11 11 11 13 12 12 14 14 15 16 19 19 18 20 18 18 19 17 15 14 13 13 13 13 12 11 11 10 12 12 12 11 11 11 14 15 18 20 24 28 28 28 32 36 36 38 39 40 43 45 48 51 45 48 48 48 46 50 51 51 45 57 89 82 79 79 77 76 74 75 70 70 72 72 76 75 77 -193 79 82 83 82 83 85 89 -193 -177 87 85 87 -193 -193 -193 -177 84 -209 -193 0 0 -193 -193 -193 -209 112 -209 -193 119 122 124 124 124 124 125 131 125 127 771 -193 -177 -193 -177 -209 -193 147 -193 151 152 146 147 144 148 148 148 148 148 142 151 150 148 154 163 164 168 168 180 174 174 174 181 178 178 179 179 181 182 182 -193 11 13 13 -193 13 -193 0 0 0 0 0
    0 0 0 0 0 0 0 0 0 0 0 0 0 0 0 0 0 0 0 0 0 0 0 0 0 0 0 0 0 0 0 0 0 0 0 0 0 0 0 0 0 0 0 0 0 0 0 0 0 0 0 0 0 0 0 0 0 0 0 0 0 0 0 0 0 0 0 0 0 51 49 49 48 46 48 52 46 49 49 47 48 49 49 51 45 48 51 47 48 51 48 48 47 47 47 44 46 46 41 43 39 35 39 36 34 36 33 35 32 32 34 32 33 33 30 34 29 30 29 25 23 22 19 17 13 14 14 17 19 21 22 22 20 20 18 18 14 13 12 11 11 12 11 11 10 11 10 10 9 9 9 10 11 10 11 13 12 12 14 15 16 17 19 19 19 21 19 19 20 18 16 15 13 13 13 13 12 11 11 11 12 12 12 11 11 11 14 15 17 20 24 27 28 28 32 36 36 39 39 40 44 45 48 51 45 48 48 48 47 49 51 51 44 56 -177 82 79 79 78 76 74 76 71 71 72 73 76 75 77 -193 80 82 84 83 84 85 89 -193 -193 86 85 86 -193 -193 -177 -193 84 -209 -193 -193 -193 -193 -209 -177 -209 117 -193 -193 119 122 124 124 125 125 126 131 125 127 770 133 -177 24 -193 -193 -193 147 151 151 152 145 146 144 148 148 148 148 147 142 152 151 149 154 164 164 168 168 179 173 173 173 180 178 179 179 179 181 182 183 -193 11 13 14 13 13 -193 0 0 0 0 0
    0 0 0 0 0 0 0 0 0 0 0 0 0 0 0 0 0 0 0 0 0 0 0 0 0 0 0 0 0 0 0 0 0 0 0 0 0 0 0 0 0 0 0 0 0 0 0 0 0 0 0 0 0 0 0 0 0 0 0 0 0 0 0 0 0 0 0 0 0 51 49 49 47 46 47 52 45 49 50 47 48 49 49 51 45 49 51 47 48 51 48 48 47 47 47 44 46 46 41 43 39 34 39 35 34 36 33 34 31 32 33 31 32 32 30 33 28 29 28 25 23 21 18 16 13 15 16 19 22 23 25 23 22 21 18 18 13 12 12 11 11 11 10 11 10 11 10 10 9 9 9 10 10 10 11 12 12 12 15 15 16 18 19 19 19 21 20 18 20 18 16 16 14 14 14 13 13 12 11 11 11 12 12 10 11 11 13 14 15 19 -193 -193 28 29 33 37 37 39 39 41 45 45 48 51 45 48 48 48 47 49 51 51 43 56 -177 81 77 78 77 75 74 76 73 72 73 74 77 76 78 -193 82 83 85 84 84 85 89 89 -193 86 85 86 -193 -193 -177 -193 84 -209 -193 -193 -193 -193 -209 -177 -209 118 -193 -193 120 122 125 125 126 126 127 132 125 128 -193 133 -177 -177 -193 -193 -193 147 151 -193 151 145 146 144 148 148 148 148 147 142 152 152 149 154 161 163 167 168 178 172 173 173 180 179 179 180 180 182 183 -193 13 12 13 13 13 13 -193 0 0 0 0 0
    0 0 0 0 0 0 0 0 0 0 0 0 0 0 0 0 0 0 0 0 0 0 0 0 0 0 0 0 0 0 0 0 0 0 0 0 0 0 0 0 0 0 0 0 0 0 0 0 0 0 0 0 0 0 0 0 0 0 0 0 0 0 0 0 0 0 0 0 0 50 48 49 47 46 47 52 45 50 50 47 47 48 49 51 45 48 51 47 48 51 48 48 47 47 47 44 46 46 41 42 38 34 38 35 34 35 33 34 31 32 33 31 32 32 29 33 28 29 29 25 23 22 19 17 16 19 19 21 24 26 26 24 22 21 18 18 13 12 12 11 11 11 10 10 10 10 10 10 9 0 9 9 9 9 10 12 11 12 16 15 17 19 20 20 20 21 20 18 20 18 16 16 14 14 14 13 13 12 11 11 11 12 11 10 11 11 13 13 14 18 -193 -193 27 28 33 38 38 39 39 41 45 45 47 51 45 48 49 49 47 48 51 50 43 56 -177 81 76 77 75 74 74 74 75 73 73 75 78 76 79 82 83 83 85 85 84 86 89 89 87 86 86 86 -209 -193 -177 -193 85 -209 -193 -209 -209 -193 -209 -209 107 119 -193 121 120 122 125 125 126 127 127 132 126 128 130 133 -193 -177 635 -177 -193 147 151 -193 151 144 146 143 148 147 147 148 147 142 152 152 150 154 159 162 166 167 178 172 172 173 181 180 181 181 181 182 183 -193 14 12 13 13 -193 13 -193 0 0 0 0 0
    0 0 0 0 0 0 0 0 0 0 0 0 0 0 0 0 0 0 0 0 0 0 0 0 0 0 0 0 0 0 0 0 0 0 0 0 0 0 0 0 0 0 0 0 0 0 0 0 0 0 0 0 0 0 0 0 0 0 0 0 0 0 0 0 0 0 0 0 0 50 48 49 47 46 47 51 45 50 50 47 47 48 49 51 45 48 50 47 48 51 48 48 46 47 47 44 46 45 41 41 38 34 37 35 34 35 33 34 31 32 34 32 32 32 30 33 29 30 29 26 23 24 21 20 20 22 22 23 27 28 29 26 24 22 19 19 14 12 12 11 12 11 11 10 10 10 10 10 9 9 9 10 10 10 11 12 12 12 17 16 17 20 20 19 20 21 20 18 20 18 16 16 15 14 15 13 13 12 12 12 11 12 12 10 11 11 12 12 13 16 21 25 27 28 33 38 38 39 39 41 44 44 47 51 46 49 50 50 49 49 51 51 44 53 -177 81 74 76 74 73 73 74 77 74 74 76 78 77 80 82 83 83 85 85 84 86 89 89 87 86 86 86 -209 -193 -177 -193 85 -193 -193 -209 -193 -209 -193 -209 108 119 120 120 120 122 125 125 126 127 127 132 127 128 131 133 26 -177 636 -177 -193 146 150 -193 151 144 145 143 147 147 147 147 147 142 152 152 151 155 160 162 165 167 177 172 173 174 181 182 182 182 182 183 184 -193 13 12 12 -193 -193 -193 -193 0 0 0 0 0
    0 0 0 0 0 0 0 0 0 0 0 0 0 0 0 0 0 0 0 0 0 0 0 0 0 0 0 0 0 0 0 0 0 0 0 0 0 0 0 0 0 0 0 0 0 0 0 0 0 0 0 0 0 0 0 0 0 0 0 0 0 0 0 0 0 0 0 0 0 49 48 49 47 46 47 51 45 49 50 47 47 48 49 51 45 48 50 47 49 51 48 47 46 47 47 43 45 45 41 41 38 35 38 36 35 36 34 35 32 32 34 32 32 33 30 33 30 31 30 27 25 25 23 23 22 25 25 26 33 32 33 29 25 23 20 18 13 11 11 11 11 11 11 10 10 10 11 11 10 10 10 10 11 11 13 13 12 13 18 18 19 21 20 20 21 22 21 19 20 19 16 17 15 14 15 14 14 13 12 12 12 12 12 11 11 11 12 12 13 16 21 25 27 28 33 37 38 39 39 41 44 44 46 51 46 49 50 50 49 48 50 50 44 52 -193 -193 72 74 75 74 74 74 79 75 75 78 79 77 80 83 83 83 85 85 84 86 88 89 -177 86 85 85 87 87 -209 -193 86 -193 -193 -193 188 -193 187 -209 108 119 -193 119 120 121 124 125 125 127 127 132 127 129 131 133 26 -177 636 636 -193 146 150 -193 150 144 145 143 147 147 147 147 147 142 152 152 151 155 159 161 164 167 175 172 173 175 182 183 184 183 183 184 184 -193 13 -193 11 -193 197 196 196 0 0 0 0 0
    0 0 0 0 0 0 0 0 0 0 0 0 0 0 0 0 0 0 0 0 0 0 0 0 0 0 0 0 0 0 0 0 0 0 0 0 0 0 0 0 0 0 0 0 0 0 0 0 0 0 0 0 0 0 0 0 0 0 0 0 0 0 0 0 0 0 0 0 0 50 48 49 47 46 47 51 45 49 50 47 47 48 49 51 45 49 51 47 49 51 48 47 46 47 46 44 45 44 41 42 40 37 39 37 37 37 35 36 32 33 35 33 33 34 30 34 30 32 32 28 26 27 24 25 24 29 31 30 37 36 36 34 29 27 22 20 15 12 12 11 11 11 11 11 11 11 11 11 11 11 12 12 12 12 14 14 13 15 19 19 20 21 20 20 21 22 21 18 19 19 17 17 16 15 15 14 14 13 12 12 11 11 12 11 11 11 11 12 12 16 22 25 28 29 33 37 38 39 39 40 43 43 44 50 45 48 49 50 49 49 51 50 45 51 52 56 61 72 73 73 72 72 78 75 75 78 79 77 80 83 83 83 85 84 83 85 87 88 86 85 85 85 87 -193 -209 -209 -193 -177 -193 188 188 186 188 -209 110 119 118 118 119 120 122 123 124 125 125 131 128 129 131 133 -193 -177 -193 636 -193 145 149 149 150 143 145 143 147 147 147 147 147 142 152 152 151 154 157 159 163 167 176 172 174 175 182 184 185 185 -193 185 185 -193 13 -193 10 -193 196 195 195 0 0 0 0 0</data></disparity>
</opencv_storage>
