<?xml version="1.0"?>
<opencv_storage>
<gps_time_stamp>321416</gps_time_stamp>
<gps_x>-1.2432092666625977e+001</gps_x>
<gps_y>1.0709609031677246e+001</gps_y>
<gps_z>-1.9954743385314941e+000</gps_z>
<image_time_stamp>312260</image_time_stamp>
<disparity type_id="opencv-matrix">
  <rows>88</rows>
  <cols>320</cols>
  <dt>s</dt>
  <data>
    0 0 0 0 0 0 0 0 0 0 0 0 0 0 0 0 0 0 0 0 0 0 0 0 0 0 0 0 0 0 0 0 0 0 0 0 0 0 0 0 0 0 0 0 0 0 0 0 0 0 0 0 0 0 0 0 0 0 0 0 0 0 0 0 0 0 0 0 0 53 52 52 52 51 48 51 -209 -209 -193 0 0 0 0 0 0 0 0 0 0 0 0 0 0 0 0 11 10 10 0 0 0 0 0 0 0 0 0 0 0 0 0 0 0 0 0 0 0 0 0 0 0 0 9 10 9 10 9 9 9 9 10 9 0 9 9 9 9 9 9 0 0 0 9 9 10 10 12 12 13 13 13 13 12 12 12 11 12 11 11 11 12 12 12 12 12 13 12 14 13 12 14 15 13 14 13 13 12 12 12 12 10 11 11 10 11 11 12 12 12 17 20 24 41 42 44 44 47 50 51 52 53 55 57 57 57 57 58 65 61 66 66 69 70 72 73 -193 -209 75 76 77 76 84 86 83 89 88 89 90 90 89 89 88 -209 -193 -193 -209 -193 -193 109 -193 109 107 109 110 116 111 117 117 118 121 121 121 121 121 126 125 126 128 125 127 128 128 129 124 132 134 135 137 139 147 143 143 144 148 143 145 145 148 -193 153 153 -193 -177 -193 160 160 162 158 160 -193 -177 -193 163 164 164 -193 -193 -193 -193 -193 -193 -193 -177 -193 83 84 86 353 351 -209 -193 -209 -209 -209 329 0 0 0 0 0
    0 0 0 0 0 0 0 0 0 0 0 0 0 0 0 0 0 0 0 0 0 0 0 0 0 0 0 0 0 0 0 0 0 0 0 0 0 0 0 0 0 0 0 0 0 0 0 0 0 0 0 0 0 0 0 0 0 0 0 0 0 0 0 0 0 0 0 0 0 54 53 53 54 52 51 -209 -209 -209 0 0 0 0 0 0 0 0 0 0 0 0 0 0 0 0 0 0 0 8 0 0 0 0 0 0 0 0 0 0 0 0 0 0 0 0 0 0 0 0 0 0 0 0 0 9 9 10 10 9 9 9 11 10 9 10 10 10 9 10 9 0 0 9 0 0 9 10 12 12 13 13 13 13 12 12 11 11 11 11 12 12 12 13 12 13 12 13 12 14 13 13 14 15 14 15 15 15 13 14 14 13 12 12 12 10 10 10 11 11 11 16 20 25 -193 42 44 44 48 51 52 53 54 57 57 57 57 57 58 64 61 65 65 69 70 72 73 73 -209 76 77 78 77 85 87 84 91 88 89 91 90 89 89 87 -193 -193 96 -209 180 -193 106 -193 -193 105 107 107 115 110 117 118 119 122 121 121 121 121 126 126 126 128 125 127 128 128 128 124 131 133 134 137 138 147 142 143 143 147 142 144 144 147 -193 -193 153 -193 -177 -193 160 159 161 158 159 160 -177 -193 163 164 164 -193 -193 -193 167 -193 -193 -209 -177 -193 83 85 86 354 -193 -209 -193 -209 -209 -209 -193 0 0 0 0 0
    0 0 0 0 0 0 0 0 0 0 0 0 0 0 0 0 0 0 0 0 0 0 0 0 0 0 0 0 0 0 0 0 0 0 0 0 0 0 0 0 0 0 0 0 0 0 0 0 0 0 0 0 0 0 0 0 0 0 0 0 0 0 0 0 0 0 0 0 0 54 52 52 54 53 52 -209 -209 -209 0 0 0 0 0 0 0 0 0 0 0 0 0 0 0 0 0 0 0 0 0 0 0 0 0 0 0 0 0 0 0 0 0 0 0 0 0 0 0 0 0 0 0 0 0 0 0 10 9 10 10 10 13 12 10 12 11 11 10 11 10 0 0 9 9 9 9 11 12 12 13 13 13 13 12 12 11 11 11 12 12 12 12 13 13 13 13 14 12 13 13 13 13 15 14 14 15 16 14 15 15 14 13 13 12 10 10 11 12 11 11 15 19 25 -193 -193 43 44 48 51 53 54 54 57 57 58 57 57 58 65 61 65 65 69 70 71 73 73 -193 76 78 78 77 85 87 84 91 88 89 91 91 89 89 87 87 89 94 -209 -209 -193 105 -193 -193 104 106 105 114 110 116 -193 119 122 122 122 122 -193 127 126 126 128 125 127 128 128 129 124 131 134 135 137 138 146 142 143 143 147 142 143 143 147 -193 -209 -193 -193 665 -193 159 159 160 157 158 159 -177 -193 163 163 164 -193 -193 -193 166 -193 166 -209 -177 -193 84 85 86 -193 -193 -209 -209 -209 -209 327 328 0 0 0 0 0
    0 0 0 0 0 0 0 0 0 0 0 0 0 0 0 0 0 0 0 0 0 0 0 0 0 0 0 0 0 0 0 0 0 0 0 0 0 0 0 0 0 0 0 0 0 0 0 0 0 0 0 0 0 0 0 0 0 0 0 0 0 0 0 0 0 0 0 0 0 54 52 52 54 54 54 -209 -209 0 0 0 0 0 0 0 0 0 0 0 0 0 0 0 0 0 0 0 0 0 0 0 0 0 0 0 0 0 0 0 0 0 0 0 0 0 0 0 0 0 0 0 0 0 0 0 0 9 9 10 10 10 14 12 11 12 11 11 10 11 10 0 9 10 9 9 10 11 13 13 13 13 13 13 13 12 12 11 12 12 12 13 13 13 13 13 13 14 12 13 12 12 13 14 13 14 15 16 14 15 15 15 13 13 12 11 10 11 13 12 12 15 19 24 38 -193 43 44 48 51 54 54 55 57 57 57 57 57 58 66 61 65 65 69 69 71 73 73 -193 76 78 78 77 84 86 84 91 87 88 91 91 -193 89 87 87 88 92 98 -209 104 104 105 105 103 105 104 113 109 115 -193 119 122 122 122 122 -193 127 126 126 128 125 127 128 128 129 124 131 134 134 137 138 146 142 142 143 147 142 143 143 146 -193 -209 -209 -193 664 -193 159 158 159 157 158 159 -177 -193 164 164 164 162 -193 -209 165 165 164 164 -193 -193 84 86 87 -193 89 -193 -193 -193 -209 326 328 0 0 0 0 0
    0 0 0 0 0 0 0 0 0 0 0 0 0 0 0 0 0 0 0 0 0 0 0 0 0 0 0 0 0 0 0 0 0 0 0 0 0 0 0 0 0 0 0 0 0 0 0 0 0 0 0 0 0 0 0 0 0 0 0 0 0 0 0 0 0 0 0 0 0 54 52 53 55 57 -209 -209 0 0 0 0 0 0 0 0 0 0 0 0 0 0 0 0 0 0 0 0 0 0 0 0 0 0 0 0 0 0 0 0 0 0 0 0 0 0 0 0 0 0 0 0 0 0 0 0 0 9 9 10 10 10 14 12 10 12 11 11 10 11 10 9 9 10 10 10 10 11 12 13 14 13 13 13 13 12 12 12 13 12 13 13 13 13 13 13 13 13 12 12 12 12 12 14 13 13 15 15 14 15 15 15 13 13 13 10 11 12 13 13 12 15 19 23 -209 -193 -209 43 47 51 54 54 55 57 56 57 57 57 58 66 62 65 65 68 69 71 73 73 -193 76 78 77 76 83 86 -193 91 87 88 91 -193 -193 90 87 87 88 91 97 -193 103 104 105 105 103 105 104 112 109 114 -193 119 122 122 122 -193 -177 127 127 125 128 125 127 129 129 130 125 132 134 134 137 138 146 142 142 143 147 142 143 143 146 -193 -209 -209 -177 663 -209 158 157 159 157 158 159 244 -193 165 164 164 162 -193 -193 164 164 163 158 -209 -193 84 86 87 -193 89 -193 -193 -209 -209 -193 327 0 0 0 0 0
    0 0 0 0 0 0 0 0 0 0 0 0 0 0 0 0 0 0 0 0 0 0 0 0 0 0 0 0 0 0 0 0 0 0 0 0 0 0 0 0 0 0 0 0 0 0 0 0 0 0 0 0 0 0 0 0 0 0 0 0 0 0 0 0 0 0 0 0 0 54 52 54 57 59 -209 0 0 0 0 0 0 0 0 0 0 0 0 0 0 0 0 0 0 0 0 0 0 0 0 0 0 0 0 0 0 0 0 0 0 0 0 0 -193 0 0 0 0 0 0 0 0 0 0 0 0 9 9 10 10 10 13 11 10 12 11 12 11 11 10 9 10 10 10 10 10 11 12 12 13 13 14 13 13 12 12 12 12 12 13 13 13 13 13 13 13 13 12 12 12 12 12 13 13 13 15 15 14 15 15 14 13 13 13 10 10 12 13 12 12 15 18 22 -193 -177 -209 44 48 51 54 54 54 57 55 57 57 57 58 66 62 64 64 68 68 71 73 72 -193 76 78 77 76 82 86 208 90 87 88 -193 -193 -193 91 87 87 88 90 95 -193 103 103 105 104 102 104 103 111 108 113 -193 119 121 121 121 -193 606 127 127 125 127 125 127 128 129 129 125 132 134 135 137 138 146 142 142 143 147 142 142 143 146 -193 -209 -193 -177 663 -209 157 156 157 156 157 -193 244 -209 166 164 164 163 -193 -193 164 163 162 156 -209 -193 85 88 88 90 89 -193 -209 -209 -209 -209 326 0 0 0 0 0
    0 0 0 0 0 0 0 0 0 0 0 0 0 0 0 0 0 0 0 0 0 0 0 0 0 0 0 0 0 0 0 0 0 0 0 0 0 0 0 0 0 0 0 0 0 0 0 0 0 0 0 0 0 0 0 0 0 0 0 0 0 0 0 0 0 0 0 0 0 54 52 54 57 -193 0 0 0 0 0 0 0 0 0 0 0 0 0 0 0 0 0 0 0 0 0 0 0 0 0 0 0 0 0 0 0 0 0 0 0 0 0 -193 -193 0 0 0 0 0 0 0 0 0 0 0 0 9 9 9 10 10 11 10 10 13 11 13 11 12 10 10 11 10 10 11 10 11 11 12 13 12 14 13 13 12 12 12 13 13 13 13 13 13 13 13 13 13 13 12 12 12 13 13 13 12 15 15 14 15 15 13 12 12 13 10 10 12 13 13 13 15 18 22 26 -209 -193 43 48 51 53 54 54 56 54 56 56 56 58 67 62 64 64 66 67 69 72 71 -193 75 76 74 74 79 85 208 90 87 87 -193 -193 91 91 88 87 88 89 94 -193 102 102 104 104 102 103 103 110 108 112 -193 118 120 121 121 -193 606 126 126 125 127 125 126 128 129 129 124 131 134 134 137 138 146 143 143 144 147 143 143 -193 146 -193 -193 150 -193 662 -209 -193 -193 -193 -209 157 -193 244 -193 166 164 165 164 -193 163 -193 162 162 154 -209 -193 87 89 90 91 90 -193 -209 -209 -209 -209 325 0 0 0 0 0
    0 0 0 0 0 0 0 0 0 0 0 0 0 0 0 0 0 0 0 0 0 0 0 0 0 0 0 0 0 0 0 0 0 0 0 0 0 0 0 0 0 0 0 0 0 0 0 0 0 0 0 0 0 0 0 0 0 0 0 0 0 0 0 0 0 0 0 0 0 53 51 54 -193 -193 0 0 0 0 0 0 0 0 0 0 0 0 0 0 0 0 0 0 0 0 0 0 0 0 0 0 0 0 0 0 0 0 0 0 0 0 0 -193 -193 0 0 0 0 0 0 0 0 0 9 9 9 10 9 11 10 10 10 9 9 15 11 13 11 12 11 11 11 11 10 11 10 12 11 12 12 12 14 13 13 12 12 12 12 13 13 13 13 13 13 14 13 13 13 12 12 12 13 13 14 13 15 15 15 15 15 13 12 12 13 10 10 11 13 12 12 15 18 21 27 -209 43 43 47 50 52 52 53 55 52 55 55 55 57 67 62 64 65 65 66 68 70 69 68 72 72 71 72 76 81 -177 87 85 -193 -193 -193 92 91 89 87 88 89 93 100 -193 101 103 103 102 -193 103 110 108 111 -177 117 119 120 120 120 -177 126 126 124 127 126 126 128 128 129 124 131 134 134 137 138 146 144 144 145 148 144 143 -193 147 -193 -193 150 -193 661 -193 -209 -193 -193 -209 158 -193 244 243 167 164 165 164 -193 163 -193 161 161 153 -209 86 88 91 91 92 91 92 -209 -209 -209 -209 326 0 0 0 0 0
    0 0 0 0 0 0 0 0 0 0 0 0 0 0 0 0 0 0 0 0 0 0 0 0 0 0 0 0 0 0 0 0 0 0 0 0 0 0 0 0 0 0 0 0 0 0 0 0 0 0 0 0 0 0 0 0 0 0 0 0 0 0 0 0 0 0 0 0 0 51 50 52 -209 0 0 0 0 0 0 0 0 0 0 0 0 0 0 0 0 0 0 0 0 0 0 0 0 0 0 0 0 0 0 0 0 0 0 0 0 0 0 0 0 0 0 0 10 9 0 0 10 11 11 11 10 11 10 11 11 9 9 0 0 15 10 14 11 13 12 11 12 11 10 12 10 12 11 12 12 12 13 12 12 12 11 11 13 13 12 13 13 13 13 14 14 13 13 13 12 12 13 13 13 13 15 15 15 14 15 13 12 11 12 10 9 10 13 12 12 15 19 22 28 -193 43 43 46 49 51 51 51 53 50 54 54 54 56 67 63 64 66 66 65 66 69 68 66 70 70 69 70 74 78 -177 84 85 -193 -193 -193 92 92 89 87 89 89 92 98 -193 -193 -193 102 102 -209 103 109 108 110 -177 116 118 120 120 120 -193 125 125 124 126 125 125 127 128 128 124 131 134 135 137 138 146 145 145 146 148 145 144 -193 148 -209 -193 149 -193 661 -209 -193 -193 -193 -209 158 -193 243 242 -193 -193 166 165 -193 164 -193 161 160 152 -209 88 88 92 91 92 90 91 -209 -209 -209 -209 -209 0 0 0 0 0
    0 0 0 0 0 0 0 0 0 0 0 0 0 0 0 0 0 0 0 0 0 0 0 0 0 0 0 0 0 0 0 0 0 0 0 0 0 0 0 0 0 0 0 0 0 0 0 0 0 0 0 0 0 0 0 0 0 0 0 0 0 0 0 0 0 0 0 0 0 50 49 51 -209 0 0 0 0 0 0 0 0 0 0 0 0 0 0 0 0 0 0 0 0 0 0 0 0 0 0 0 0 0 0 0 0 0 0 0 0 -193 0 0 0 0 0 0 9 9 0 0 11 11 11 11 10 10 9 10 10 9 9 0 0 14 10 14 12 13 12 12 12 12 11 13 11 12 11 12 12 11 13 12 12 12 11 11 13 12 12 13 13 13 13 14 14 13 13 13 12 11 12 13 13 12 14 14 14 14 14 12 12 12 13 11 10 11 13 13 13 16 19 22 29 42 42 42 45 47 50 49 50 52 48 54 54 54 56 68 64 66 67 66 66 66 69 68 67 70 70 69 70 74 79 -177 83 -193 -193 -193 -193 92 92 90 88 90 90 93 98 -193 -193 -193 101 102 -209 103 109 108 109 -193 115 117 119 119 119 -193 124 124 124 126 125 125 127 127 128 124 131 135 136 138 139 146 146 146 147 149 -193 145 18 149 -209 -193 149 -193 -193 -193 -193 -177 155 -209 158 161 242 241 -193 -193 167 -193 -193 -193 -193 162 161 153 -209 88 88 91 91 91 90 90 -209 -209 -209 -209 -209 0 0 0 0 0
    0 0 0 0 0 0 0 0 0 0 0 0 0 0 0 0 0 0 0 0 0 0 0 0 0 0 0 0 0 0 0 0 0 0 0 0 0 0 0 0 0 0 0 0 0 0 0 0 0 0 0 0 0 0 0 0 0 0 0 0 0 0 0 0 0 0 0 0 0 48 47 49 -209 0 0 0 0 0 0 0 0 0 0 0 0 0 0 0 0 0 0 0 0 0 0 0 0 0 0 0 0 0 0 0 0 0 0 0 0 9 0 0 0 0 0 0 9 0 0 0 11 11 11 11 10 10 10 11 11 9 9 0 0 12 10 14 12 13 13 12 13 12 12 14 11 13 12 12 12 11 14 12 12 12 11 11 13 12 13 13 13 13 13 13 14 12 13 12 11 11 13 13 13 13 13 14 14 14 14 12 13 12 13 12 11 12 15 14 14 18 20 22 30 43 42 42 45 46 49 48 49 51 48 53 54 54 56 67 65 66 68 67 66 66 69 68 67 70 70 69 71 75 80 -177 -193 -193 -193 -193 -193 92 92 91 89 91 91 93 98 -193 -193 -193 -209 -209 -209 103 109 109 109 116 -193 117 119 119 119 -193 -193 124 123 126 126 125 127 128 128 125 130 135 137 138 139 147 148 148 149 150 -193 -193 17 150 -193 149 149 150 -193 -209 -193 -193 -193 -193 157 160 241 240 236 -193 168 -209 -193 -209 -209 163 163 154 158 88 88 91 90 90 89 -209 -209 -193 -209 -209 -177 0 0 0 0 0
    0 0 0 0 0 0 0 0 0 0 0 0 0 0 0 0 0 0 0 0 0 0 0 0 0 0 0 0 0 0 0 0 0 0 0 0 0 0 0 0 0 0 0 0 0 0 0 0 0 0 0 0 0 0 0 0 0 0 0 0 0 0 0 0 0 0 0 0 0 45 46 48 -209 0 0 0 0 0 0 0 0 0 0 0 0 0 0 0 0 0 0 0 0 0 0 0 0 0 0 0 0 0 0 0 0 0 0 0 0 9 0 0 0 0 0 0 10 10 0 0 11 12 11 11 11 10 10 12 12 10 9 0 0 11 9 14 12 13 13 12 13 12 12 15 12 14 12 12 13 11 14 12 13 12 12 11 14 12 13 12 13 12 12 13 13 11 13 12 12 11 13 13 13 14 14 14 15 14 14 12 12 12 12 12 11 12 15 14 14 19 20 22 31 43 42 42 44 46 48 48 48 51 -177 -177 54 53 56 66 64 66 68 67 66 67 69 68 68 70 71 70 72 75 81 -193 -193 -193 429 439 -209 93 93 92 90 92 92 94 98 -193 -193 -193 -209 -209 -209 -193 110 109 109 116 -193 116 119 119 119 119 -193 124 123 126 126 124 127 128 128 125 128 135 137 138 139 147 149 149 149 151 -193 -193 17 150 -193 148 149 150 -193 -209 -193 -193 -193 -193 157 159 -193 -193 235 -193 -193 -209 -177 -209 -193 -177 165 158 165 88 -193 91 90 91 89 -193 357 357 358 -209 -177 0 0 0 0 0
    0 0 0 0 0 0 0 0 0 0 0 0 0 0 0 0 0 0 0 0 0 0 0 0 0 0 0 0 0 0 0 0 0 0 0 0 0 0 0 0 0 0 0 0 0 0 0 0 0 0 0 0 0 0 0 0 0 0 0 0 0 0 0 0 0 0 0 0 0 42 45 50 -209 0 0 0 0 0 0 0 0 0 0 0 0 0 0 0 0 0 0 0 0 0 0 0 0 0 0 0 0 0 0 9 0 0 9 0 0 9 9 0 0 9 9 9 11 11 0 0 12 13 12 12 11 11 10 13 13 11 10 10 9 12 9 14 12 13 13 13 13 13 13 15 12 14 12 12 13 11 14 12 13 12 12 11 13 12 12 12 13 12 12 12 13 11 13 13 12 12 14 14 14 14 14 14 14 14 14 12 12 12 12 12 11 12 14 14 15 19 21 23 32 43 43 43 45 46 47 47 48 50 -177 -177 53 53 55 65 65 66 68 67 67 67 69 69 69 70 71 -193 74 75 82 -193 -193 -193 429 439 -209 93 93 93 90 92 93 95 98 -193 -193 -193 -209 -209 -209 -209 110 109 109 116 -193 116 119 119 119 119 122 124 123 125 126 124 127 127 127 125 126 134 136 138 139 146 149 149 149 150 -193 -193 16 150 -193 148 149 150 -193 -209 -193 -193 -193 -193 156 159 -193 -193 235 -193 -209 -209 -177 -209 -193 -177 166 164 167 -209 -209 93 91 91 89 -193 356 356 357 -193 351 0 0 0 0 0
    0 0 0 0 0 0 0 0 0 0 0 0 0 0 0 0 0 0 0 0 0 0 0 0 0 0 0 0 0 0 0 0 0 0 0 0 0 0 0 0 0 0 0 0 0 0 0 0 0 0 0 0 0 0 0 0 0 0 0 0 0 0 0 0 0 0 0 0 0 42 47 52 52 -209 0 0 0 0 0 0 0 0 0 0 0 0 0 0 0 0 0 0 0 0 0 0 0 0 0 0 0 10 11 11 9 10 9 0 0 10 9 0 0 9 9 10 11 13 9 10 13 14 12 12 10 10 9 11 10 9 0 0 0 12 10 15 12 13 13 13 13 13 12 14 12 13 12 12 12 12 13 12 13 13 12 12 14 13 13 12 13 12 12 13 13 11 13 13 12 12 14 13 14 14 14 14 14 14 13 12 12 12 11 11 10 11 13 14 14 19 21 23 33 44 43 43 44 45 47 47 48 50 47 52 53 52 55 63 65 66 68 67 67 67 69 69 70 -193 72 -193 75 76 82 -193 -193 -193 -193 -193 -209 93 93 93 90 93 94 95 98 -193 -193 -193 -209 -209 -209 -209 109 110 109 116 -193 116 119 119 119 119 121 123 122 125 126 123 126 127 127 125 125 134 137 138 139 145 150 148 149 150 -193 -193 16 -193 150 -193 150 150 -193 -193 -209 -193 -177 -177 156 158 -193 -193 -193 -177 -209 -209 -177 -193 -193 -177 167 167 167 -193 -193 -209 93 -193 -193 -193 355 354 356 -209 349 0 0 0 0 0
    0 0 0 0 0 0 0 0 0 0 0 0 0 0 0 0 0 0 0 0 0 0 0 0 0 0 0 0 0 0 0 0 0 0 0 0 0 0 0 0 0 0 0 0 0 0 0 0 0 0 0 0 0 0 0 0 0 0 0 0 0 0 0 0 0 0 0 0 0 44 48 52 51 58 -209 0 0 0 0 0 0 0 0 0 0 0 0 0 0 0 0 0 0 0 0 0 0 0 9 10 11 12 13 12 10 10 9 0 0 9 9 0 0 9 9 10 11 13 9 10 13 13 12 12 10 10 0 10 9 0 0 9 0 12 10 15 12 13 13 13 13 13 13 14 12 14 12 12 13 13 13 12 13 13 12 12 15 13 13 13 13 12 12 13 13 11 13 13 12 11 13 13 13 14 13 13 13 13 13 13 12 12 11 11 11 11 14 14 14 19 21 23 34 44 42 42 44 45 47 47 48 50 47 52 53 -193 54 -193 -193 65 68 67 67 67 69 -193 70 -193 73 -209 76 76 83 -193 -193 -193 -193 -209 -193 92 93 93 90 93 -193 95 97 -193 100 100 -193 -209 -209 -193 108 110 109 116 114 116 119 118 118 118 -209 123 122 125 126 123 126 127 126 125 124 134 137 138 139 144 150 148 148 -193 -193 14 16 -193 150 -193 -193 151 -193 -209 -209 -193 -177 -177 156 -177 -193 -193 -193 231 -209 -193 -177 -193 295 169 168 168 167 170 -209 -209 93 -193 -193 -193 352 -177 -177 -193 348 0 0 0 0 0
    0 0 0 0 0 0 0 0 0 0 0 0 0 0 0 0 0 0 0 0 0 0 0 0 0 0 0 0 0 0 0 0 0 0 0 0 0 0 0 0 0 0 0 0 0 0 0 0 0 0 0 0 0 0 0 0 0 0 0 0 0 0 0 0 0 0 0 0 0 47 49 52 51 56 56 -193 -193 -193 0 0 0 0 0 0 0 9 0 0 0 -193 9 0 0 0 0 9 0 11 11 13 13 13 13 13 11 11 10 0 0 9 9 9 0 9 9 10 11 14 10 11 12 13 12 12 11 11 9 10 10 9 0 9 0 11 11 15 12 13 13 13 13 13 13 14 12 13 12 12 13 13 12 12 13 12 12 12 15 13 12 13 13 12 12 13 13 11 13 13 12 11 12 13 13 14 13 13 14 14 14 14 12 12 12 11 11 11 14 14 14 18 20 23 33 -193 42 42 44 45 47 47 48 51 47 53 53 -193 55 60 -193 65 68 67 68 68 70 -193 71 -193 74 -209 77 77 84 -193 -193 -193 -193 -209 -193 92 93 93 90 93 -193 95 97 98 99 100 -193 -193 -193 103 108 110 109 116 114 116 119 118 118 118 120 123 122 124 125 123 125 126 126 126 124 133 136 137 139 143 150 147 148 -193 -193 -193 16 -193 149 -193 -193 -209 -193 -209 -193 -193 669 -177 156 -177 -193 -177 -209 230 231 -193 -177 -177 -193 169 168 168 166 170 -209 -209 -193 -193 -193 -193 350 -177 351 -193 -209 0 0 0 0 0
    0 0 0 0 0 0 0 0 0 0 0 0 0 0 0 0 0 0 0 0 0 0 0 0 0 0 0 0 0 0 0 0 0 0 0 0 0 0 0 0 0 0 0 0 0 0 0 0 0 0 0 0 0 0 0 0 0 0 0 0 0 0 0 0 0 0 0 0 0 48 50 52 52 54 54 57 58 61 -193 0 0 0 0 0 0 11 12 11 -193 -193 -193 -193 9 10 10 10 9 13 13 14 15 15 13 14 12 12 11 9 0 10 10 9 9 10 10 11 12 15 11 11 13 14 13 12 10 10 0 9 9 9 0 0 0 10 11 14 12 12 13 13 12 13 13 13 12 13 13 12 13 13 13 13 14 13 13 12 15 13 12 13 13 12 12 13 13 11 13 13 12 11 12 13 13 14 14 14 14 14 14 14 13 13 12 11 11 12 15 15 15 18 20 23 32 -193 42 42 44 45 46 48 49 51 47 53 54 -209 55 60 -193 65 68 67 68 68 70 -177 72 -193 75 -193 78 78 84 -193 -193 -193 -193 -209 -193 -193 93 94 91 93 -193 95 97 98 99 99 101 104 105 103 107 111 109 116 115 117 119 118 -177 118 119 123 122 124 125 123 126 127 127 127 124 134 137 137 139 143 150 147 147 -193 -193 -193 -193 -193 149 914 913 -193 -193 -193 -193 -193 669 669 155 -177 -193 -177 -209 230 230 -177 -177 -177 -193 169 168 168 166 171 -209 -193 -193 -193 -193 -193 349 -177 -193 194 -193 0 0 0 0 0
    0 0 0 0 0 0 0 0 0 0 0 0 0 0 0 0 0 0 0 0 0 0 0 0 0 0 0 0 0 0 0 0 0 0 0 0 0 0 0 0 0 0 0 0 0 0 0 0 0 0 0 0 0 0 0 0 0 0 0 0 0 0 0 0 0 0 0 0 0 49 50 52 52 53 53 57 57 60 63 -193 0 0 0 10 9 12 13 14 11 -193 12 11 9 11 10 10 9 13 15 15 17 17 14 15 13 13 11 10 9 11 11 11 11 12 12 13 13 16 12 12 13 14 13 12 10 10 0 9 9 0 0 0 0 11 11 14 12 12 13 13 12 13 13 13 13 13 13 12 13 13 13 13 14 13 14 13 15 13 12 13 13 11 12 12 12 11 12 12 11 11 12 13 13 14 14 14 14 14 14 14 13 13 13 12 12 13 15 16 15 18 19 22 32 -193 42 42 44 45 46 48 49 51 47 54 54 -209 56 59 -193 65 68 67 69 69 70 -177 -193 -193 75 -193 79 78 84 -193 -193 -209 -193 -209 458 -193 94 94 91 93 -193 95 97 98 99 99 101 103 104 102 106 111 109 116 116 117 119 118 118 118 119 123 122 124 126 123 126 128 128 128 124 134 138 138 140 144 149 146 146 147 147 143 146 -193 148 915 914 -193 -193 -177 -193 -193 -177 -177 155 -193 -193 -177 -209 229 230 -177 -177 -177 -209 -177 167 168 165 171 -209 -193 98 -193 -193 -193 347 346 -193 194 194 0 0 0 0 0
    0 0 0 0 0 0 0 0 0 0 0 0 0 0 0 0 0 0 0 0 0 0 0 0 0 0 0 0 0 0 0 0 0 0 0 0 0 0 0 0 0 0 0 0 0 0 0 0 0 0 0 0 0 0 0 0 0 0 0 0 0 0 0 0 0 0 0 0 0 49 50 52 52 52 52 56 56 59 62 -209 0 0 0 10 10 13 14 15 12 12 13 12 10 12 11 11 10 14 16 17 18 18 15 16 14 14 12 11 10 12 12 13 12 13 13 15 14 17 12 13 13 15 14 13 10 10 0 9 0 0 0 0 0 11 12 13 12 12 14 13 13 14 13 13 13 13 13 12 13 13 12 13 14 13 14 13 14 13 12 12 12 11 11 12 12 11 12 12 11 11 12 13 13 14 15 14 14 15 14 14 13 13 14 12 12 13 15 15 15 18 19 22 31 -193 42 42 44 45 46 49 49 51 47 54 54 -209 56 57 -193 63 67 66 69 69 70 -177 73 -193 75 -193 79 78 84 86 -193 -193 -193 -209 459 -193 94 94 91 93 -193 96 98 99 100 99 102 103 104 103 106 111 109 116 117 118 120 118 118 118 119 124 123 124 125 123 126 128 128 129 123 134 138 138 140 143 149 145 145 146 147 143 145 -193 148 916 914 916 -193 -177 -193 -193 -177 -177 154 156 -209 -177 -209 229 -193 -193 -177 -177 -209 -193 167 167 164 171 -209 103 -193 -209 -209 -209 -209 -209 195 194 194 0 0 0 0 0
    0 0 0 0 0 0 0 0 0 0 0 0 0 0 0 0 0 0 0 0 0 0 0 0 0 0 0 0 0 0 0 0 0 0 0 0 0 0 0 0 0 0 0 0 0 0 0 0 0 0 0 0 0 0 0 0 0 0 0 0 0 0 0 0 0 0 0 0 0 50 50 52 52 52 52 55 55 58 -193 -209 -193 0 0 10 10 13 15 15 14 13 14 13 12 14 12 12 12 15 17 17 18 18 14 15 13 13 12 11 11 12 13 14 13 15 15 16 14 18 13 13 14 16 14 13 10 10 0 0 0 0 0 0 9 12 13 14 13 13 14 13 13 14 13 13 13 13 13 12 13 13 12 13 15 14 15 14 14 13 12 12 12 11 11 12 12 12 12 12 11 11 12 13 13 14 14 14 14 15 14 14 13 12 14 11 11 12 14 15 15 17 19 22 31 -193 42 42 44 45 46 50 50 52 47 54 54 -209 56 57 65 63 67 66 69 69 71 -193 73 -193 75 -193 78 78 84 86 -193 -209 -193 458 459 -193 94 94 91 93 95 96 98 100 100 100 102 103 104 103 105 112 109 116 117 118 120 118 118 118 119 124 123 123 125 123 126 128 128 128 123 134 138 138 140 142 149 144 144 145 146 143 144 145 147 916 915 916 -193 -177 -193 -193 -193 -193 154 156 -209 -193 -209 -177 -193 -193 -177 -177 -193 -193 166 166 162 170 -209 103 -193 -209 -193 -209 -209 343 195 194 195 0 0 0 0 0
    0 0 0 0 0 0 0 0 0 0 0 0 0 0 0 0 0 0 0 0 0 0 0 0 0 0 0 0 0 0 0 0 0 0 0 0 0 0 0 0 0 0 0 0 0 0 0 0 0 0 0 0 0 0 0 0 0 0 0 0 0 0 0 0 0 0 0 0 0 50 51 52 53 52 51 54 54 -193 -193 357 -193 9 10 11 11 13 17 16 15 15 16 14 13 16 14 13 13 16 19 19 19 19 15 15 13 13 12 12 11 13 13 14 14 16 17 18 15 18 14 14 14 16 15 13 11 11 0 0 0 0 0 9 9 12 14 14 14 14 15 14 13 15 13 13 13 12 12 11 13 14 12 14 15 14 15 14 15 13 12 13 12 11 12 12 12 12 12 12 11 11 11 13 13 13 14 14 13 14 14 13 12 11 13 10 10 11 13 14 15 16 19 22 31 -193 43 43 44 45 47 51 50 52 -177 -177 55 -209 56 56 -193 63 67 67 70 69 71 -193 73 -193 76 -193 78 77 84 86 -209 -209 -193 460 460 468 94 95 91 93 96 97 99 101 101 101 103 103 104 103 104 112 109 115 118 118 119 118 118 118 119 124 123 123 124 123 125 127 127 128 123 133 137 138 140 142 148 144 144 144 146 142 144 -193 147 916 915 916 -193 -193 -193 -193 -193 -193 155 157 -193 -193 -209 -177 -193 -193 -177 -177 -193 166 164 164 159 170 -209 103 -193 -209 -193 -209 -209 -177 196 195 196 0 0 0 0 0
    0 0 0 0 0 0 0 0 0 0 0 0 0 0 0 0 0 0 0 0 0 0 0 0 0 0 0 0 0 0 0 0 0 0 0 0 0 0 0 0 0 0 0 0 0 0 0 0 0 0 0 0 0 0 0 0 0 0 0 0 0 0 0 0 0 0 0 0 0 51 52 52 52 51 50 52 51 -193 353 357 14 14 15 14 14 15 18 18 17 16 17 15 15 17 16 14 15 18 20 19 19 19 16 14 13 12 12 11 11 13 14 15 15 18 19 19 17 19 16 15 15 18 17 14 12 11 9 9 0 0 0 9 10 12 15 15 15 14 16 14 13 15 13 12 13 12 12 11 12 14 12 13 16 14 15 15 15 13 12 13 12 12 12 12 12 12 12 12 11 11 11 13 13 13 14 14 13 14 14 14 12 12 13 10 10 11 13 14 15 15 18 22 30 -193 43 43 44 45 47 51 51 52 -177 -177 -193 -209 56 57 -193 63 67 67 70 70 71 -193 73 -193 75 -193 78 76 83 -193 -209 -209 -209 -177 465 470 -193 -193 91 93 96 98 100 101 102 102 103 103 104 103 104 112 108 114 118 118 119 118 118 118 118 124 124 123 124 123 125 127 127 128 123 133 137 138 140 142 148 144 144 144 147 143 144 144 147 916 914 916 -193 -193 -209 -193 157 159 155 157 -193 -193 -209 -193 164 -193 -177 -177 -193 165 163 163 157 169 -209 102 -193 -209 99 -209 -209 -193 196 195 196 0 0 0 0 0
    0 0 0 0 0 0 0 0 0 0 0 0 0 0 0 0 0 0 0 0 0 0 0 0 0 0 0 0 0 0 0 0 0 0 0 0 0 0 0 0 0 0 0 0 0 0 0 0 0 0 0 0 0 0 0 0 0 0 0 0 0 0 0 0 0 0 0 0 0 52 52 52 52 50 48 51 49 -193 354 357 20 20 19 19 17 18 19 19 18 17 17 15 15 17 16 15 16 18 21 20 19 19 15 14 13 12 12 11 11 12 14 16 16 19 21 20 19 21 19 18 17 18 18 14 13 12 10 10 10 10 9 10 11 13 16 15 15 15 16 15 13 15 14 12 13 12 12 11 13 14 12 13 16 13 15 14 14 12 12 13 12 11 12 12 12 12 12 12 11 12 11 12 12 13 14 13 14 14 14 14 12 12 13 10 11 12 13 14 15 15 18 21 30 -193 43 -193 45 46 48 52 52 53 51 -177 -193 -209 58 58 -193 63 68 68 71 71 72 -193 73 -193 75 -193 -193 75 83 -193 -209 -209 -209 -177 469 472 477 -193 -209 92 97 98 101 102 103 102 104 103 104 104 104 112 108 113 118 118 119 119 119 119 119 124 124 123 124 123 125 127 127 128 123 133 137 138 140 143 149 144 144 144 147 142 143 -193 147 915 914 915 -193 -193 -209 -193 157 159 155 157 -193 -177 -193 -193 163 -193 -177 -177 -193 163 162 162 156 168 -209 103 -193 -193 99 -209 -209 -193 196 195 196 0 0 0 0 0
    0 0 0 0 0 0 0 0 0 0 0 0 0 0 0 0 0 0 0 0 0 0 0 0 0 0 0 0 0 0 0 0 0 0 0 0 0 0 0 0 0 0 0 0 0 0 0 0 0 0 0 0 0 0 0 0 0 0 0 0 0 0 0 0 0 0 0 0 0 51 51 52 52 50 48 50 48 -193 354 357 21 21 20 20 18 18 18 19 18 17 17 16 15 18 17 15 16 18 21 19 19 18 14 14 14 12 13 12 12 13 15 17 18 20 22 22 21 23 22 21 19 20 20 15 14 13 11 11 11 11 10 10 11 12 15 14 15 14 16 15 13 14 14 12 13 12 12 11 13 14 12 13 15 12 14 13 13 12 11 12 11 11 12 12 12 12 12 12 11 12 11 13 12 13 14 13 13 15 15 14 12 12 13 10 11 11 12 13 14 15 17 21 30 44 45 45 47 47 50 54 53 55 54 -177 59 -193 59 59 66 64 68 68 71 71 72 -193 73 -193 75 -193 -193 74 81 -209 -209 -209 -209 -177 472 473 480 -193 -193 92 97 98 101 103 103 102 103 102 103 103 103 112 108 113 119 118 120 119 119 -193 -193 124 124 123 125 124 125 127 127 128 123 133 137 138 140 143 149 144 144 144 147 143 143 -193 147 915 914 915 -193 -177 -193 158 157 159 155 157 158 239 -193 164 163 163 812 -193 -193 162 161 161 156 167 105 -193 -193 -193 -193 -193 -209 -193 197 195 197 0 0 0 0 0
    0 0 0 0 0 0 0 0 0 0 0 0 0 0 0 0 0 0 0 0 0 0 0 0 0 0 0 0 0 0 0 0 0 0 0 0 0 0 0 0 0 0 0 0 0 0 0 0 0 0 0 0 0 0 0 0 0 0 0 0 0 0 0 0 0 0 0 0 0 51 51 51 52 50 48 50 47 -193 354 357 -193 22 21 20 17 17 17 18 17 16 17 15 15 18 17 16 18 19 22 20 20 19 15 15 15 13 14 12 13 14 16 18 20 21 23 23 22 23 23 22 21 21 20 15 14 13 11 11 12 12 11 11 12 13 14 14 14 14 16 15 14 14 14 12 13 12 13 11 12 13 11 12 14 12 14 13 12 12 11 12 11 11 12 11 11 12 12 12 12 12 11 12 12 13 14 14 13 14 14 14 13 12 13 10 11 11 11 12 13 15 18 22 31 45 47 47 49 49 52 56 54 56 -177 -177 -193 -193 60 60 66 64 67 69 71 71 71 -193 72 71 74 -193 -193 73 79 -193 -209 -209 -209 473 473 473 484 -193 -193 -193 96 98 101 103 103 102 103 102 103 103 103 112 108 112 119 118 119 120 120 120 -193 125 125 123 125 124 124 127 127 127 123 133 138 139 141 143 149 145 145 145 148 143 144 -193 147 914 912 914 -193 -177 157 157 157 159 155 157 158 239 -193 163 162 163 812 -193 -193 -193 160 161 156 167 104 -193 0 0 -193 -193 -193 197 197 195 197 0 0 0 0 0
    0 0 0 0 0 0 0 0 0 0 0 0 0 0 0 0 0 0 0 0 0 0 0 0 0 0 0 0 0 0 0 0 0 0 0 0 0 0 0 0 0 0 0 0 0 0 0 0 0 0 0 0 0 0 0 0 0 0 0 0 0 0 0 0 0 0 0 0 0 52 52 52 53 50 48 50 48 -193 354 -193 -193 22 21 19 17 17 18 17 17 16 17 16 16 19 19 18 20 21 23 22 21 21 18 17 16 13 15 13 14 15 18 19 20 21 23 22 22 23 23 22 21 21 19 15 14 13 12 11 12 12 11 12 12 13 13 14 14 14 15 14 14 14 14 13 13 12 13 11 12 12 10 11 14 12 14 13 12 12 11 12 12 12 13 12 12 12 12 12 12 12 12 12 12 13 13 13 13 13 13 13 13 10 12 10 10 10 11 12 13 14 18 22 31 45 51 51 51 52 54 57 55 58 -177 -177 -193 -193 60 60 66 63 67 69 71 70 71 72 70 69 73 -193 -177 71 76 -209 -193 -209 -193 476 475 475 487 -193 -193 -209 95 97 101 103 103 102 103 102 102 103 103 111 108 111 119 118 119 120 120 120 -209 125 125 123 125 124 124 126 126 126 122 131 136 138 140 142 148 145 146 146 148 144 144 -193 148 913 911 913 -193 -177 157 158 157 159 155 157 158 -177 -193 163 162 163 -193 -193 -193 -193 161 161 157 -193 104 -193 0 0 -193 0 -193 197 197 195 197 0 0 0 0 0
    0 0 0 0 0 0 0 0 0 0 0 0 0 0 0 0 0 0 0 0 0 0 0 0 0 0 0 0 0 0 0 0 0 0 0 0 0 0 0 0 0 0 0 0 0 0 0 0 0 0 0 0 0 0 0 0 0 0 0 0 0 0 0 0 0 0 0 0 0 52 52 52 53 50 48 50 49 46 -177 -193 -193 20 19 17 16 15 18 17 18 17 18 18 18 20 20 19 21 22 23 22 21 20 18 17 16 14 15 14 15 16 18 19 20 21 23 22 22 23 23 22 21 20 19 15 15 14 12 11 12 12 11 12 12 12 13 14 14 13 14 14 14 13 14 12 13 12 13 11 11 11 10 10 13 12 14 12 12 13 12 13 12 12 13 12 12 13 12 12 12 13 12 12 12 13 13 13 13 12 12 13 12 10 11 10 10 10 10 11 13 13 18 22 31 44 -209 -193 -193 54 55 59 56 59 -177 -177 60 -193 60 60 66 64 67 70 71 70 70 71 69 68 71 -193 -193 69 73 -209 -193 -177 -177 -177 480 478 489 493 -193 -193 94 96 102 103 103 102 102 101 102 103 103 111 107 110 118 118 119 -193 120 120 598 125 125 123 125 124 123 125 125 125 122 128 135 137 139 141 148 146 147 147 149 145 145 146 148 -193 -193 911 -209 -177 157 158 157 159 155 157 158 -177 -193 163 162 163 -193 -193 -193 301 161 162 157 -193 104 -193 0 0 -193 0 -193 197 197 195 197 0 0 0 0 0
    0 0 0 0 0 0 0 0 0 0 0 0 0 0 0 0 0 0 0 0 0 0 0 0 0 0 0 0 0 0 0 0 0 0 0 0 0 0 0 0 0 0 0 0 0 0 0 0 0 0 0 0 0 0 0 0 0 0 0 0 0 0 0 0 0 0 0 0 0 52 52 53 53 50 49 50 50 47 351 -193 -193 18 17 15 15 14 16 16 17 16 17 18 18 20 20 18 21 22 23 22 20 19 17 17 16 13 14 13 15 16 19 19 21 22 23 23 23 23 23 22 21 20 19 15 15 14 12 11 12 12 11 12 12 12 13 13 14 13 14 14 14 13 13 12 12 12 13 11 11 11 11 11 14 12 14 13 13 13 12 13 13 13 14 13 13 13 13 13 13 13 12 13 12 13 13 13 13 12 12 12 12 10 11 10 10 9 10 11 13 13 18 22 30 43 -193 -193 -193 -193 55 59 56 59 -177 -177 59 -193 60 61 66 64 67 71 71 70 69 71 69 67 70 69 -193 -193 -177 -209 483 484 -177 -177 485 482 489 494 -193 239 93 -193 101 102 102 101 101 100 101 102 103 109 107 110 118 118 119 -193 120 -193 597 124 125 123 125 124 123 125 125 125 122 126 134 135 138 140 148 147 147 148 150 146 146 147 149 -193 -193 -193 -209 -177 156 157 157 158 156 158 158 -177 -193 164 163 163 -193 -193 -193 301 162 162 157 -193 104 0 0 0 0 0 -193 197 197 195 197 0 0 0 0 0
    0 0 0 0 0 0 0 0 0 0 0 0 0 0 0 0 0 0 0 0 0 0 0 0 0 0 0 0 0 0 0 0 0 0 0 0 0 0 0 0 0 0 0 0 0 0 0 0 0 0 0 0 0 0 0 0 0 0 0 0 0 0 0 0 0 0 0 0 0 52 53 53 53 51 49 50 50 46 -193 -193 -193 17 15 13 13 13 15 14 15 15 16 17 18 19 19 18 21 22 22 21 20 19 17 17 17 14 15 14 18 17 20 21 22 22 24 23 23 22 23 21 20 19 18 15 15 13 12 11 12 12 11 12 12 12 14 13 14 13 14 15 14 13 14 12 13 12 13 12 12 13 13 12 15 13 15 13 13 13 12 13 13 13 14 13 13 13 13 13 13 13 12 13 12 13 13 13 13 12 13 13 11 11 11 11 10 10 10 11 12 13 17 22 28 41 -177 -177 -177 -177 -193 -193 55 58 -177 -177 58 -209 -193 -193 66 65 67 72 71 69 69 70 68 66 68 68 -193 -193 71 482 483 485 486 486 486 485 489 495 -193 -193 92 -209 100 100 100 99 99 99 99 101 102 107 106 110 118 117 118 120 -193 596 596 124 125 123 125 125 123 125 125 125 123 126 133 135 138 139 148 148 148 148 150 147 147 -193 149 -193 -193 -193 -209 -193 -193 -193 157 158 156 158 159 241 -193 164 163 164 -193 -193 -193 302 163 163 159 167 -193 0 0 0 0 0 -193 -193 196 194 196 0 0 0 0 0
    0 0 0 0 0 0 0 0 0 0 0 0 0 0 0 0 0 0 0 0 0 0 0 0 0 0 0 0 0 0 0 0 0 0 0 0 0 0 0 0 0 0 0 0 0 0 0 0 0 0 0 0 0 0 0 0 0 0 0 0 0 0 0 0 0 0 0 0 0 53 53 53 53 51 49 50 50 46 -193 -193 -193 17 14 13 12 13 14 13 14 13 14 15 16 18 17 16 19 20 21 20 19 18 17 17 18 16 16 16 20 19 22 22 22 23 24 22 23 22 22 20 19 17 17 14 14 12 11 10 11 11 11 11 12 12 14 13 14 13 14 15 14 14 14 13 14 13 14 14 13 16 15 14 16 14 15 14 14 14 13 14 14 13 14 13 13 14 13 13 13 12 12 13 12 13 12 13 13 13 13 13 11 12 12 11 11 10 10 11 12 14 17 22 27 37 -177 -177 -177 -177 -193 -193 54 57 -177 -177 -177 -193 -193 -193 -193 -193 -193 71 71 69 68 70 68 66 67 67 -193 -193 -193 482 483 485 487 -193 487 487 490 495 501 -193 91 -209 98 98 98 98 98 98 99 99 102 106 106 109 117 116 118 120 -193 596 596 123 125 123 126 126 123 125 125 125 124 125 133 135 138 140 148 149 150 150 151 147 147 -209 150 -193 -193 -193 -193 -193 -193 -209 156 158 156 159 160 -193 -193 -193 -193 164 -193 -193 -193 302 165 165 163 -209 -193 0 0 0 -193 -193 -193 -193 193 190 194 0 0 0 0 0
    0 0 0 0 0 0 0 0 0 0 0 0 0 0 0 0 0 0 0 0 0 0 0 0 0 0 0 0 0 0 0 0 0 0 0 0 0 0 0 0 0 0 0 0 0 0 0 0 0 0 0 0 0 0 0 0 0 0 0 0 0 0 0 0 0 0 0 0 0 53 53 54 53 51 49 50 50 45 -193 -193 -209 16 -193 12 11 11 12 12 13 12 13 14 14 16 16 14 18 18 19 18 18 18 16 18 19 18 19 19 22 20 22 23 22 22 23 22 22 21 22 18 18 16 15 14 13 12 11 10 11 10 11 11 11 11 13 13 14 12 13 14 14 14 15 13 14 14 15 14 14 17 17 16 18 16 17 15 15 15 13 14 14 13 13 13 13 14 13 12 13 12 12 14 12 13 13 13 13 12 13 13 12 12 12 11 11 11 10 11 12 13 17 22 26 34 -177 -177 -177 -177 -193 -193 53 56 -177 -177 -177 -209 -209 -193 -193 -193 -193 71 70 68 67 69 67 66 67 67 -193 -177 -209 -209 482 485 -193 -193 487 -193 490 496 502 -193 -193 -209 97 97 97 97 97 97 98 98 101 105 106 109 117 115 117 120 120 595 596 -193 124 123 126 127 123 125 126 126 124 125 134 136 138 140 148 151 150 150 151 148 148 529 150 -193 -193 -193 151 -193 -193 287 156 158 157 159 161 -193 -177 -193 -193 165 -193 815 -209 -193 166 166 166 -193 -193 -193 -193 0 -193 -209 -193 -193 189 188 191 0 0 0 0 0
    0 0 0 0 0 0 0 0 0 0 0 0 0 0 0 0 0 0 0 0 0 0 0 0 0 0 0 0 0 0 0 0 0 0 0 0 0 0 0 0 0 0 0 0 0 0 0 0 0 0 0 0 0 0 0 0 0 0 0 0 0 0 0 0 0 0 0 0 0 53 53 54 53 51 49 50 50 46 -193 -193 -193 -193 -209 9 9 10 11 11 12 12 13 13 14 15 15 14 17 17 18 17 17 17 16 19 20 19 20 22 23 22 24 24 23 23 23 21 22 20 20 17 17 15 15 14 13 12 10 9 10 10 10 10 11 11 13 13 13 12 13 14 14 13 15 13 14 14 15 15 15 18 19 18 20 18 19 18 17 17 15 14 15 13 14 14 13 14 13 12 13 12 12 14 13 13 13 13 13 12 13 13 11 12 12 11 11 10 10 10 12 12 16 21 25 31 -177 -177 -177 -177 -193 48 52 55 57 -177 57 -193 -209 -193 -193 -193 -193 70 69 67 67 69 68 67 66 67 -193 330 -209 -209 482 485 -209 -193 -193 -193 490 496 -193 -177 -193 -209 96 97 96 96 97 97 97 96 100 104 106 109 117 115 117 120 120 595 595 598 124 123 126 127 123 125 125 126 125 124 133 134 138 139 147 151 151 151 -193 148 148 528 -193 -209 -193 -193 -193 -209 -193 -177 157 159 158 159 161 -209 18 -193 -193 165 -193 816 -193 -209 168 167 -193 -193 -193 -193 -193 -193 91 -193 -193 -193 188 187 189 0 0 0 0 0
    0 0 0 0 0 0 0 0 0 0 0 0 0 0 0 0 0 0 0 0 0 0 0 0 0 0 0 0 0 0 0 0 0 0 0 0 0 0 0 0 0 0 0 0 0 0 0 0 0 0 0 0 0 0 0 0 0 0 0 0 0 0 0 0 0 0 0 0 0 53 53 54 53 51 49 50 50 47 50 49 -193 -209 -209 0 0 0 9 10 11 11 12 12 13 14 14 14 16 16 16 16 17 17 17 20 20 20 22 24 25 23 24 25 23 23 22 20 20 18 18 15 15 14 14 13 13 12 10 9 10 9 9 11 11 11 13 13 13 13 13 14 13 14 15 13 14 14 15 15 16 19 20 19 21 20 20 20 19 18 17 15 16 14 14 14 13 15 13 12 14 12 13 15 14 14 13 14 14 12 13 13 11 12 12 11 10 10 10 11 12 12 16 20 24 29 -177 -177 -193 -209 42 46 50 54 57 55 57 63 -193 -193 64 -193 65 70 68 68 67 69 68 67 66 68 -193 -177 -209 -209 480 484 -209 -193 -193 -193 -193 496 -193 241 -193 -193 95 96 95 95 96 95 96 94 99 103 105 109 117 115 117 119 119 594 -193 597 124 123 126 127 123 125 125 126 125 123 132 133 137 139 147 152 150 150 -193 148 147 528 -193 -193 -193 149 150 -193 -193 -193 -193 159 158 160 162 -193 17 -193 -193 165 -193 816 -193 -209 -193 -193 -193 -193 -193 -193 176 -193 91 -193 -193 -209 187 187 189 0 0 0 0 0
    0 0 0 0 0 0 0 0 0 0 0 0 0 0 0 0 0 0 0 0 0 0 0 0 0 0 0 0 0 0 0 0 0 0 0 0 0 0 0 0 0 0 0 0 0 0 0 0 0 0 0 0 0 0 0 0 0 0 0 0 0 0 0 0 0 0 0 0 0 53 53 54 53 51 49 50 50 48 50 49 -193 -209 -209 0 0 0 9 9 11 11 12 12 12 12 13 12 14 14 14 14 16 15 16 19 19 20 21 23 24 23 24 24 22 22 21 19 18 17 16 14 15 14 13 13 13 11 10 9 9 8 9 10 10 11 13 13 13 13 14 14 13 14 15 14 15 15 15 16 17 20 21 20 22 21 21 22 20 19 18 17 17 16 15 15 14 15 14 13 14 13 13 16 14 14 13 13 14 12 12 12 11 12 11 11 10 10 10 11 12 12 15 18 23 27 -177 -209 -209 -209 -193 45 48 53 56 54 58 64 -193 63 63 68 65 70 68 68 67 69 69 68 66 68 -193 -209 -209 -209 479 483 -193 -177 -193 489 -193 494 -193 240 -193 -193 95 96 -193 -193 94 94 94 92 98 103 106 109 117 114 116 119 119 119 119 -193 124 123 126 127 124 126 126 126 126 123 132 133 137 139 146 152 149 149 -193 148 147 -193 -193 -209 -193 150 150 -177 -193 -193 -193 159 159 160 162 163 17 -193 -193 165 -193 816 -177 -209 -193 -209 0 -193 -193 -193 176 178 -193 -193 -193 -209 186 187 188 0 0 0 0 0
    0 0 0 0 0 0 0 0 0 0 0 0 0 0 0 0 0 0 0 0 0 0 0 0 0 0 0 0 0 0 0 0 0 0 0 0 0 0 0 0 0 0 0 0 0 0 0 0 0 0 0 0 0 0 0 0 0 0 0 0 0 0 0 0 0 0 0 0 0 53 53 54 53 51 50 50 50 48 49 48 46 -193 0 0 0 0 9 9 11 11 12 11 11 12 12 11 12 12 12 12 14 14 15 17 18 19 21 23 24 23 24 24 22 22 21 18 16 16 15 14 14 14 13 13 13 12 10 10 9 9 9 11 10 11 13 13 13 14 14 14 13 14 15 14 15 15 15 17 18 21 22 21 22 22 22 22 20 20 18 18 17 17 15 15 14 15 14 13 13 12 12 15 14 14 13 13 13 12 13 13 11 12 12 11 10 10 10 11 12 11 15 17 22 -193 -193 -209 -209 -209 -209 44 46 51 54 53 57 64 62 64 64 69 66 70 68 68 67 69 69 69 66 69 -209 -193 -209 -209 478 481 483 484 -193 -209 -209 492 -193 240 -193 -193 -193 96 -193 -193 94 94 95 92 98 102 106 109 116 114 116 119 119 119 118 120 124 123 126 127 124 126 126 126 126 123 132 133 137 139 146 151 148 148 150 147 146 18 18 -193 -193 -193 151 -177 -193 -193 158 159 160 160 162 163 17 -193 -193 165 -193 816 -177 -193 -193 -193 0 0 -193 176 177 178 181 -193 -193 -193 185 186 -177 0 0 0 0 0
    0 0 0 0 0 0 0 0 0 0 0 0 0 0 0 0 0 0 0 0 0 0 0 0 0 0 0 0 0 0 0 0 0 0 0 0 0 0 0 0 0 0 0 0 0 0 0 0 0 0 0 0 0 0 0 0 0 0 0 0 0 0 0 0 0 0 0 0 0 52 53 53 53 51 50 50 50 47 48 48 46 -193 -193 0 0 0 0 9 10 10 11 11 11 11 12 11 11 11 11 11 13 13 14 16 18 20 21 24 25 25 27 27 24 23 22 18 15 15 14 13 14 13 13 13 12 12 10 10 9 9 10 10 10 11 13 13 12 14 14 14 13 13 15 14 15 16 16 18 19 22 22 22 23 23 23 23 21 21 19 19 19 18 16 16 15 16 15 14 13 12 12 14 14 13 12 12 13 12 13 12 11 12 12 11 11 10 10 11 12 11 15 16 21 -193 -193 -193 -177 -177 -209 43 45 50 53 54 58 65 64 65 65 70 67 70 68 68 68 69 69 69 67 69 -193 -193 -193 75 -193 480 -193 -193 -193 -209 -193 -177 -193 239 -193 -193 95 97 -193 -193 96 96 97 93 99 103 107 110 116 114 116 119 118 118 118 119 124 123 126 127 124 126 127 127 127 123 132 134 138 140 146 151 148 148 149 147 145 16 17 -193 -193 -209 -193 -177 157 -209 159 159 160 159 162 163 16 -193 -193 166 166 -177 -177 -177 -193 0 0 0 -193 178 178 179 182 181 183 184 185 -177 -193 0 0 0 0 0
    0 0 0 0 0 0 0 0 0 0 0 0 0 0 0 0 0 0 0 0 0 0 0 0 0 0 0 0 0 0 0 0 0 0 0 0 0 0 0 0 0 0 0 0 0 0 0 0 0 0 0 0 0 0 0 0 0 0 0 0 0 0 0 0 0 0 0 0 0 53 54 54 54 51 50 50 50 47 48 47 46 -193 -209 0 0 0 0 0 10 10 11 11 11 11 11 11 11 11 11 10 12 12 13 14 16 18 20 24 26 26 29 29 26 24 22 17 14 15 13 12 13 13 12 12 12 11 10 10 9 9 10 10 10 10 11 12 11 12 12 13 12 12 15 14 15 16 17 19 21 23 23 22 24 24 24 24 22 21 20 21 20 19 18 17 16 17 16 14 13 12 12 14 13 13 12 12 12 12 12 12 11 12 12 11 10 11 11 11 12 12 15 16 20 24 -193 -193 -177 -177 -193 -193 45 50 53 54 59 64 65 66 66 70 67 70 68 69 68 70 -193 70 68 70 -193 -193 73 76 74 -209 -209 -193 -209 86 86 -193 -193 238 -193 -193 96 99 97 -193 99 99 99 97 101 104 108 110 116 114 116 119 118 118 118 119 124 123 126 127 124 127 127 128 128 123 132 135 138 141 146 151 147 147 148 146 144 15 -177 -193 -193 154 154 -177 157 161 159 159 160 159 162 163 15 -193 -193 166 166 -193 -193 -193 -193 0 0 0 -193 179 180 180 182 182 184 184 186 -177 -193 0 0 0 0 0
    0 0 0 0 0 0 0 0 0 0 0 0 0 0 0 0 0 0 0 0 0 0 0 0 0 0 0 0 0 0 0 0 0 0 0 0 0 0 0 0 0 0 0 0 0 0 0 0 0 0 0 0 0 0 0 0 0 0 0 0 0 0 0 0 0 0 0 0 0 53 54 54 54 52 50 51 50 47 49 -193 48 -193 -209 -209 0 9 10 10 11 11 12 11 11 11 11 10 11 11 10 10 11 11 12 13 15 15 20 23 26 27 31 32 28 -209 22 15 13 14 12 12 13 13 12 12 12 11 10 10 9 9 10 10 10 10 10 11 10 11 12 11 11 12 14 13 14 16 18 20 22 24 23 23 25 24 24 24 22 22 21 21 21 20 19 18 17 17 16 14 13 12 12 13 12 13 12 12 12 11 12 12 11 12 11 10 10 10 11 11 12 12 15 15 20 23 -209 -209 -193 -177 -209 43 45 50 54 55 59 64 64 65 65 70 66 70 68 69 69 70 -193 70 69 -193 -193 -193 74 76 76 -193 -209 -193 -193 86 86 88 -193 -177 -193 -193 98 100 99 98 100 100 101 99 102 104 108 110 116 115 116 119 118 118 118 119 124 123 126 127 124 126 127 128 128 122 132 135 138 141 145 150 146 146 147 145 143 148 -177 -193 -193 155 156 -177 158 161 159 158 160 158 161 162 14 -193 165 165 165 -193 -193 -193 -193 0 0 0 -193 180 180 181 183 182 -209 -209 186 -177 -193 0 0 0 0 0
    0 0 0 0 0 0 0 0 0 0 0 0 0 0 0 0 0 0 0 0 0 0 0 0 0 0 0 0 0 0 0 0 0 0 0 0 0 0 0 0 0 0 0 0 0 0 0 0 0 0 0 0 0 0 0 0 0 0 0 0 0 0 0 0 0 0 0 0 0 53 54 53 54 51 50 51 51 49 50 -193 49 42 -209 -209 0 10 11 12 12 11 12 12 11 12 12 11 11 11 10 10 11 11 12 13 14 14 21 23 27 30 34 35 -193 -209 -193 15 13 15 13 13 13 12 12 12 12 12 11 11 10 10 10 10 10 10 10 11 10 11 11 11 11 11 13 13 13 15 18 21 23 24 24 23 25 25 25 25 23 23 22 22 21 21 19 18 17 16 16 13 13 12 11 13 12 13 12 12 12 11 12 12 11 12 11 10 10 10 11 11 12 12 15 15 19 22 23 -193 -193 -209 39 43 46 50 54 56 59 63 64 64 65 69 65 69 67 69 69 70 71 71 70 72 71 76 75 76 77 76 84 83 85 86 87 88 92 -193 -193 -193 100 101 100 100 101 102 103 102 104 105 109 111 116 115 117 119 119 119 118 119 124 123 125 126 123 126 127 127 127 122 132 135 138 140 144 150 145 145 146 145 142 147 -177 150 -209 155 157 -193 158 161 159 158 160 158 160 161 13 164 164 165 165 -193 -193 -193 -193 0 0 0 -193 180 181 -193 -193 -193 -209 -209 187 -177 -177 0 0 0 0 0
    0 0 0 0 0 0 0 0 0 0 0 0 0 0 0 0 0 0 0 0 0 0 0 0 0 0 0 0 0 0 0 0 0 0 0 0 0 0 0 0 0 0 0 0 0 0 0 0 0 0 0 0 0 0 0 0 0 0 0 0 0 0 0 0 0 0 0 0 0 53 54 53 54 52 50 51 51 50 51 51 50 -193 -209 -209 -209 12 14 15 13 12 12 13 12 13 13 12 12 11 11 10 11 11 12 13 14 14 23 25 30 32 35 36 -193 -193 26 18 15 17 14 15 13 12 12 12 12 12 11 11 10 11 11 10 10 10 10 10 10 11 11 10 11 11 12 12 13 14 16 21 22 23 23 23 24 24 25 25 22 23 22 22 21 21 19 18 17 16 16 13 12 12 11 13 12 12 12 12 12 11 12 12 11 12 11 10 10 10 10 12 13 13 15 15 18 21 22 22 22 26 39 43 46 51 54 56 59 62 63 63 65 69 66 69 67 69 70 70 71 71 70 72 71 75 75 75 75 76 80 81 82 86 87 89 92 94 96 94 100 100 101 101 102 103 104 104 106 107 110 112 116 116 117 120 119 119 119 120 125 123 125 125 123 125 127 127 127 122 131 135 137 140 142 149 144 144 146 145 142 147 -193 150 -209 156 158 160 159 161 160 158 160 158 160 161 -193 163 164 165 166 -193 -193 -193 -193 -193 0 0 -193 182 -193 -193 -193 -193 -193 -193 188 189 -177 0 0 0 0 0
    0 0 0 0 0 0 0 0 0 0 0 0 0 0 0 0 0 0 0 0 0 0 0 0 0 0 0 0 0 0 0 0 0 0 0 0 0 0 0 0 0 0 0 0 0 0 0 0 0 0 0 0 0 0 0 0 0 0 0 0 0 0 0 0 0 0 0 0 0 53 54 53 54 52 50 51 51 50 51 51 51 43 -209 -209 -209 -193 -193 -209 -209 -209 -193 -193 13 14 12 10 10 10 9 9 -193 10 12 13 15 17 -193 -209 32 34 36 37 -193 -193 27 21 18 18 15 16 13 12 12 12 13 12 11 11 10 11 11 10 10 9 9 9 9 10 10 10 10 10 12 11 13 14 16 20 21 22 22 22 23 24 24 24 22 22 21 22 21 21 20 17 17 15 15 13 13 12 11 12 12 12 12 12 13 12 12 12 11 12 11 11 10 10 10 12 14 14 16 16 18 20 22 22 21 24 37 43 47 51 54 56 59 61 62 62 65 68 66 69 68 69 70 71 71 71 70 72 71 74 74 74 74 76 78 81 81 87 89 90 93 95 96 95 100 100 101 101 102 103 105 105 107 108 111 113 116 117 118 120 119 119 120 120 125 123 125 125 123 125 127 127 127 122 131 136 138 140 143 149 145 144 145 145 142 148 -193 151 154 156 159 161 159 161 160 158 160 158 160 161 160 164 164 166 166 167 168 169 171 -193 -193 -193 177 183 -193 -193 -193 -193 -193 -193 189 190 192 0 0 0 0 0
    0 0 0 0 0 0 0 0 0 0 0 0 0 0 0 0 0 0 0 0 0 0 0 0 0 0 0 0 0 0 0 0 0 0 0 0 0 0 0 0 0 0 0 0 0 0 0 0 0 0 0 0 0 0 0 0 0 0 0 0 0 0 0 0 0 0 0 0 0 53 54 53 54 52 50 51 51 50 51 52 53 49 -209 78 83 83 85 85 78 75 73 71 -209 -209 -209 -209 10 10 0 -209 -209 -193 12 13 16 19 -209 -209 -193 38 39 40 -193 37 34 24 22 20 17 18 14 12 13 12 12 12 11 11 10 11 11 10 10 9 9 9 9 10 10 9 10 10 11 11 13 14 16 20 20 21 21 21 22 23 23 24 22 22 21 23 21 21 20 17 17 15 14 12 13 12 11 12 12 12 12 12 13 11 12 12 11 12 11 11 10 10 10 12 14 14 16 16 17 19 21 21 21 22 31 43 47 51 53 56 60 61 62 62 66 68 67 69 69 69 70 71 71 71 71 72 71 73 74 73 74 76 78 82 81 89 90 91 94 95 96 96 100 100 101 102 103 105 106 107 108 108 112 113 116 117 117 120 119 119 120 120 125 123 124 125 123 125 127 127 127 122 131 136 138 140 144 150 145 145 145 145 142 148 -193 151 154 157 159 160 159 160 159 157 160 158 160 162 161 165 165 167 168 168 169 170 171 172 173 174 179 185 186 186 188 187 -193 -193 191 192 194 0 0 0 0 0
    0 0 0 0 0 0 0 0 0 0 0 0 0 0 0 0 0 0 0 0 0 0 0 0 0 0 0 0 0 0 0 0 0 0 0 0 0 0 0 0 0 0 0 0 0 0 0 0 0 0 0 0 0 0 0 0 0 0 0 0 0 0 0 0 0 0 0 0 0 53 53 53 54 52 51 52 52 52 53 54 56 -209 75 78 82 82 84 84 80 76 72 69 67 67 67 70 -209 10 -209 -209 -209 -209 -193 -193 -193 -193 -209 -209 38 40 40 41 39 39 38 29 25 22 18 19 14 12 12 12 12 11 10 11 10 11 11 10 10 9 9 9 9 9 9 9 10 10 10 10 12 13 15 19 19 21 19 20 21 22 22 23 22 22 21 22 21 20 20 17 16 14 14 12 12 11 11 12 12 12 12 12 13 11 12 12 11 12 12 11 10 11 11 12 15 15 16 16 17 19 21 21 21 22 29 42 46 49 53 56 60 60 61 62 67 68 67 70 69 69 71 71 71 71 71 72 71 73 74 74 75 79 80 85 87 91 91 92 95 96 96 96 100 99 101 103 104 105 107 107 109 109 112 114 116 117 117 120 119 119 120 120 126 123 124 125 123 124 126 127 127 121 130 136 138 140 144 150 146 145 145 145 143 148 151 151 154 156 158 159 158 159 159 157 159 157 160 162 161 166 166 168 169 170 171 172 173 174 176 177 181 186 187 187 189 188 190 192 194 194 196 0 0 0 0 0
    0 0 0 0 0 0 0 0 0 0 0 0 0 0 0 0 0 0 0 0 0 0 0 0 0 0 0 0 0 0 0 0 0 0 0 0 0 0 0 0 0 0 0 0 0 0 0 0 0 0 0 0 0 0 0 0 0 0 0 0 0 0 0 0 0 0 0 0 0 53 54 53 54 52 51 52 54 54 55 56 72 -209 79 81 83 83 84 85 82 77 71 63 63 65 66 69 -209 -209 -209 -209 -209 -193 -193 -193 -193 -193 36 -209 40 41 41 42 40 40 39 34 27 23 18 19 14 12 12 11 11 11 10 10 10 11 11 10 10 9 9 9 9 9 9 10 10 9 10 10 12 12 14 17 17 20 18 20 21 21 22 22 22 22 21 22 21 20 19 16 16 13 13 11 13 11 12 12 11 12 12 12 13 11 12 12 11 12 12 11 10 11 12 12 15 16 16 18 19 20 22 22 22 22 28 41 45 49 54 57 61 59 59 60 66 66 66 69 70 69 71 71 71 71 71 72 71 72 75 74 77 81 84 88 90 93 92 92 96 96 96 96 101 100 102 103 104 105 107 107 109 109 112 114 116 117 118 120 120 120 120 121 126 123 124 124 123 124 126 126 126 121 130 136 138 140 143 149 146 145 146 146 144 148 152 152 153 155 157 158 157 158 158 156 158 157 160 162 161 165 166 168 169 170 171 173 175 177 178 179 183 186 187 188 189 190 192 194 195 196 196 0 0 0 0 0
    0 0 0 0 0 0 0 0 0 0 0 0 0 0 0 0 0 0 0 0 0 0 0 0 0 0 0 0 0 0 0 0 0 0 0 0 0 0 0 0 0 0 0 0 0 0 0 0 0 0 0 0 0 0 0 0 0 0 0 0 0 0 0 0 0 0 0 0 0 53 55 55 56 53 53 55 56 57 59 68 75 84 83 83 84 84 85 86 84 80 71 66 62 64 65 68 -193 -209 -209 -209 -209 0 -209 -209 300 -209 -209 -209 41 42 42 42 41 40 39 37 28 23 19 19 14 12 12 11 11 10 10 10 9 10 10 9 10 9 9 9 9 10 9 10 11 10 10 11 12 12 13 15 15 17 16 18 19 20 21 21 21 21 20 22 20 19 18 15 14 12 12 11 13 11 12 12 11 12 12 13 13 11 13 13 11 13 11 12 10 11 11 15 17 19 18 21 21 22 23 24 23 25 30 39 43 47 52 55 56 56 57 58 64 64 64 68 70 68 71 71 71 71 72 72 72 72 76 75 77 81 83 87 90 92 92 92 96 96 96 96 101 99 101 103 103 104 106 107 109 109 112 114 116 118 118 120 120 120 121 121 127 123 124 124 122 123 125 126 126 121 130 135 138 140 142 148 146 145 146 145 145 148 151 151 153 155 156 157 157 157 158 156 159 158 160 162 162 165 166 168 169 171 172 174 177 178 178 180 183 186 187 187 189 190 193 195 196 196 197 0 0 0 0 0
    0 0 0 0 0 0 0 0 0 0 0 0 0 0 0 0 0 0 0 0 0 0 0 0 0 0 0 0 0 0 0 0 0 0 0 0 0 0 0 0 0 0 0 0 0 0 0 0 0 0 0 0 0 0 0 0 0 0 0 0 0 0 0 0 0 0 0 0 0 54 55 55 56 54 55 57 60 66 70 74 81 85 85 84 84 84 85 86 84 75 67 63 63 62 63 66 69 72 75 -209 -209 -209 -209 -193 301 309 -209 45 43 43 43 43 42 41 40 38 28 23 19 20 14 12 12 12 11 10 10 10 10 10 10 10 10 10 10 10 10 10 10 11 11 10 10 11 12 12 12 13 13 15 15 18 18 19 20 20 21 21 20 21 19 17 16 14 13 11 11 11 12 11 11 12 12 12 12 13 14 11 13 14 11 14 12 13 11 11 12 19 20 21 20 23 24 24 25 26 25 27 31 37 40 43 47 50 53 53 54 57 62 63 63 67 70 69 70 71 71 70 72 72 72 71 75 74 76 79 81 86 89 91 92 92 96 96 95 96 100 98 100 102 102 103 106 107 109 109 113 115 116 117 118 120 120 120 121 122 127 123 123 123 122 123 124 125 125 121 128 134 137 138 140 146 144 144 145 145 145 147 151 151 152 154 155 155 156 157 157 156 159 159 160 163 163 166 166 168 170 172 174 176 178 178 178 180 183 186 186 187 188 190 194 195 197 196 197 0 0 0 0 0
    0 0 0 0 0 0 0 0 0 0 0 0 0 0 0 0 0 0 0 0 0 0 0 0 0 0 0 0 0 0 0 0 0 0 0 0 0 0 0 0 0 0 0 0 0 0 0 0 0 0 0 0 0 0 0 0 0 0 0 0 0 0 0 0 0 0 0 0 0 56 57 57 57 56 59 61 69 74 76 79 85 86 86 85 84 84 85 84 82 65 60 60 61 61 61 64 68 70 72 79 -209 -209 -209 -193 307 -177 42 45 44 44 43 43 42 40 39 38 28 23 18 19 14 13 13 12 11 11 10 11 10 11 10 10 11 10 11 11 11 11 11 12 12 11 10 11 12 12 12 12 12 13 13 17 18 19 19 20 21 21 20 21 18 16 14 12 12 11 11 11 12 11 12 12 12 12 12 13 15 12 15 17 13 18 15 17 13 11 12 20 22 21 21 25 25 25 26 27 27 28 31 36 38 42 44 48 51 52 55 57 63 62 63 67 70 69 70 71 71 70 72 72 72 70 74 74 75 77 77 84 86 90 90 90 93 94 93 95 98 97 100 102 103 104 107 108 113 111 115 115 116 117 117 119 120 120 121 121 126 123 123 123 123 123 125 125 125 122 128 133 135 137 138 143 143 143 145 145 145 147 151 151 151 153 154 154 156 157 158 157 160 160 161 163 164 167 167 169 170 173 175 178 178 178 177 179 183 186 186 188 188 191 195 196 198 197 198 0 0 0 0 0
    0 0 0 0 0 0 0 0 0 0 0 0 0 0 0 0 0 0 0 0 0 0 0 0 0 0 0 0 0 0 0 0 0 0 0 0 0 0 0 0 0 0 0 0 0 0 0 0 0 0 0 0 0 0 0 0 0 0 0 0 0 0 0 0 0 0 0 0 0 58 59 59 59 59 65 67 71 74 76 77 85 85 84 84 84 84 84 80 78 60 58 58 59 60 60 63 67 69 70 72 70 -209 -209 -193 -209 -193 43 45 45 44 43 44 43 41 39 39 28 23 17 17 14 14 13 12 12 11 10 11 10 11 10 10 11 11 11 12 12 11 11 12 12 11 11 11 12 12 11 11 11 13 13 17 18 19 20 21 22 21 21 21 19 16 14 12 12 11 11 11 12 11 12 12 12 13 13 14 16 13 17 19 15 21 19 20 16 10 13 21 23 22 22 26 26 26 26 28 28 29 32 35 37 42 43 45 48 51 55 57 64 63 64 67 70 68 69 70 71 70 72 72 72 67 73 73 74 74 75 80 80 87 -193 87 90 91 -193 92 94 93 96 100 101 103 106 108 115 112 116 115 115 115 116 119 120 120 121 121 126 123 123 123 123 122 125 125 125 123 128 132 134 135 137 141 142 143 145 145 145 147 151 151 151 153 154 154 155 157 157 156 160 160 162 164 165 167 167 170 171 174 176 178 178 179 178 180 184 187 187 188 189 191 195 196 197 196 197 0 0 0 0 0
    0 0 0 0 0 0 0 0 0 0 0 0 0 0 0 0 0 0 0 0 0 0 0 0 0 0 0 0 0 0 0 0 0 0 0 0 0 0 0 0 0 0 0 0 0 0 0 0 0 0 0 0 0 0 0 0 0 0 0 0 0 0 0 0 0 0 0 0 0 61 60 61 62 62 68 70 72 75 75 76 84 84 83 84 84 84 83 79 77 57 58 58 59 60 61 63 66 69 69 70 69 -193 -209 -193 -193 -193 43 45 45 43 43 44 44 42 40 40 28 22 15 15 14 16 14 13 12 11 11 11 11 11 10 10 12 11 12 13 12 12 12 13 13 12 11 12 12 12 12 11 11 13 13 18 19 20 21 21 22 22 22 22 20 17 14 13 12 12 12 12 13 12 12 12 12 12 12 13 15 12 16 18 13 18 16 18 13 9 13 22 23 22 22 27 26 26 27 29 28 29 32 35 36 41 43 44 47 51 56 57 63 63 64 67 70 68 69 70 71 71 73 73 73 69 74 74 75 74 74 79 79 85 87 86 88 -193 -193 -193 -193 92 -193 -193 -193 -193 101 104 114 111 118 114 114 113 114 118 120 120 121 121 125 123 122 123 124 122 125 125 125 124 128 132 134 134 137 139 141 142 145 144 145 147 151 150 151 152 153 152 155 156 156 156 159 160 161 164 165 167 167 169 170 173 176 178 178 179 178 180 184 186 186 188 188 191 195 196 197 196 198 0 0 0 0 0
    0 0 0 0 0 0 0 0 0 0 0 0 0 0 0 0 0 0 0 0 0 0 0 0 0 0 0 0 0 0 0 0 0 0 0 0 0 0 0 0 0 0 0 0 0 0 0 0 0 0 0 0 0 0 0 0 0 0 0 0 0 0 0 0 0 0 0 0 0 65 62 64 66 67 71 71 73 75 75 78 85 85 83 85 84 84 83 79 76 58 58 58 58 59 61 63 66 69 69 69 67 62 -193 -193 -209 -193 43 45 45 43 43 44 45 43 41 41 26 21 14 13 14 17 14 13 12 12 11 12 12 12 11 11 13 13 13 14 13 13 13 14 14 12 12 14 12 13 12 12 12 14 14 19 20 22 22 23 23 23 23 23 22 19 16 15 14 13 14 14 14 13 12 13 12 12 11 12 14 12 14 18 15 19 18 19 14 0 14 23 24 23 23 28 27 27 27 30 29 30 33 35 35 41 43 44 47 51 57 58 62 63 64 66 69 68 69 70 71 71 73 73 74 71 75 75 75 74 73 74 74 78 80 83 87 -193 -193 -193 -193 94 -193 43 -193 -193 -193 102 106 107 118 112 111 111 111 117 120 121 121 121 125 124 123 123 124 122 125 125 126 125 128 132 133 133 136 138 141 141 145 144 145 147 150 150 150 150 151 150 153 154 155 154 158 159 160 162 164 166 167 168 169 173 175 178 178 179 178 180 183 186 185 187 187 190 194 195 197 196 198 0 0 0 0 0
    0 0 0 0 0 0 0 0 0 0 0 0 0 0 0 0 0 0 0 0 0 0 0 0 0 0 0 0 0 0 0 0 0 0 0 0 0 0 0 0 0 0 0 0 0 0 0 0 0 0 0 0 0 0 0 0 0 0 0 0 0 0 0 0 0 0 0 0 0 67 64 67 69 70 73 73 74 76 76 80 86 85 85 87 87 87 88 85 81 66 64 61 60 61 62 65 67 70 69 68 65 62 62 -193 -193 45 43 44 44 42 42 44 46 43 41 38 23 21 13 12 14 17 15 14 13 12 12 13 13 12 11 11 13 13 13 14 14 13 14 14 15 13 13 15 13 13 13 12 13 16 15 21 22 23 24 24 24 24 24 24 24 21 19 17 15 15 14 15 15 14 13 13 13 13 12 14 16 15 14 15 16 17 17 18 14 0 12 23 25 25 24 32 28 28 29 32 31 32 35 35 35 41 43 43 46 52 57 58 63 63 64 66 69 68 69 70 71 71 74 74 74 72 75 75 75 75 74 74 75 76 78 81 86 -193 -193 -193 94 95 96 -193 -193 -193 -193 96 100 104 119 111 111 111 111 118 123 122 121 122 126 125 123 123 125 122 125 126 126 126 128 132 133 132 136 137 140 140 144 143 145 146 149 149 149 149 150 149 153 154 154 154 157 160 160 161 164 166 167 169 170 174 175 178 178 179 179 180 184 186 185 186 187 189 192 194 196 195 196 0 0 0 0 0
    0 0 0 0 0 0 0 0 0 0 0 0 0 0 0 0 0 0 0 0 0 0 0 0 0 0 0 0 0 0 0 0 0 0 0 0 0 0 0 0 0 0 0 0 0 0 0 0 0 0 0 0 0 0 0 0 0 0 0 0 0 0 0 0 0 0 0 0 0 69 67 70 72 72 74 75 75 76 76 81 87 86 86 88 89 89 90 88 86 71 72 68 65 65 66 69 70 71 70 68 66 63 67 -193 52 46 43 44 44 42 41 43 47 43 40 29 21 20 14 12 15 18 16 15 14 14 13 14 14 13 11 12 13 13 14 15 14 14 14 15 16 14 14 16 13 14 13 13 15 17 17 21 23 24 25 25 25 25 25 25 25 22 20 18 16 15 15 16 15 15 14 13 13 13 13 15 16 15 13 14 18 19 18 19 17 10 15 23 25 25 25 33 29 29 30 33 32 33 36 36 36 41 42 43 45 52 58 59 63 63 64 66 68 68 68 70 70 71 74 74 74 73 75 75 75 75 75 74 74 75 77 81 84 -193 91 94 93 94 96 -193 -193 -193 -193 92 96 104 117 110 110 110 111 117 124 122 122 122 125 126 124 124 126 123 126 127 127 127 128 132 133 132 135 136 139 139 144 143 144 146 149 149 149 149 150 148 153 154 155 155 159 161 161 163 164 166 168 169 171 175 -193 -193 -193 180 180 181 184 186 186 187 187 189 191 193 195 193 195 0 0 0 0 0
    0 0 0 0 0 0 0 0 0 0 0 0 0 0 0 0 0 0 0 0 0 0 0 0 0 0 0 0 0 0 0 0 0 0 0 0 0 0 0 0 0 0 0 0 0 0 0 0 0 0 0 0 0 0 0 0 0 0 0 0 0 0 0 0 0 0 0 0 0 72 70 72 74 75 76 77 77 77 77 83 87 86 87 88 89 89 90 87 86 73 80 72 69 70 70 71 72 72 70 68 67 63 66 54 52 48 44 45 44 42 41 43 47 42 35 28 21 20 16 12 15 19 17 16 16 15 14 15 15 14 12 13 14 14 14 15 15 15 16 17 18 17 16 17 14 15 14 14 16 18 17 21 24 24 25 25 25 25 25 26 26 23 21 19 18 16 15 16 16 15 15 14 13 13 13 15 16 14 13 13 15 18 16 18 17 11 15 22 23 24 24 30 29 29 30 34 33 34 36 37 37 41 42 42 45 52 58 59 62 63 64 65 67 68 68 69 70 72 74 74 75 74 75 75 75 75 75 74 74 75 78 83 85 90 91 93 92 93 95 94 94 95 -193 93 100 105 116 109 110 110 110 117 123 121 122 122 125 127 124 124 127 123 127 127 128 128 128 131 132 130 134 134 137 137 142 142 143 145 146 147 147 148 148 146 152 154 155 156 159 163 162 164 165 167 169 170 173 -193 -193 -193 180 181 180 181 184 187 186 187 187 189 191 192 195 193 194 0 0 0 0 0
    0 0 0 0 0 0 0 0 0 0 0 0 0 0 0 0 0 0 0 0 0 0 0 0 0 0 0 0 0 0 0 0 0 0 0 0 0 0 0 0 0 0 0 0 0 0 0 0 0 0 0 0 0 0 0 0 0 0 0 0 0 0 0 0 0 0 0 0 0 76 73 76 76 77 79 79 78 78 78 83 86 85 86 87 88 88 88 87 86 79 86 77 73 73 74 74 75 73 71 69 68 62 65 53 52 50 45 45 44 41 41 43 47 43 33 27 22 22 18 13 16 20 18 16 17 16 15 16 17 15 14 15 16 15 15 17 16 16 18 18 19 18 16 17 14 15 14 15 17 18 18 21 24 24 25 25 25 25 26 26 26 23 22 21 19 17 16 17 17 16 15 14 14 15 15 16 16 14 13 13 14 16 12 15 15 14 18 22 22 23 24 30 31 32 34 36 35 35 37 37 38 41 41 42 46 54 58 60 62 63 64 65 67 68 68 69 70 72 74 75 75 75 75 75 75 76 75 74 74 75 79 84 86 89 90 91 91 92 93 93 92 93 -193 92 102 107 115 109 110 110 110 117 123 121 121 122 125 128 124 124 127 124 128 128 129 128 128 131 132 129 132 131 135 134 140 140 141 143 144 144 145 145 146 143 148 153 153 154 157 160 161 162 165 168 171 171 -193 -193 176 179 179 180 179 180 183 185 184 186 185 187 190 190 194 192 193 0 0 0 0 0
    0 0 0 0 0 0 0 0 0 0 0 0 0 0 0 0 0 0 0 0 0 0 0 0 0 0 0 0 0 0 0 0 0 0 0 0 0 0 0 0 0 0 0 0 0 0 0 0 0 0 0 0 0 0 0 0 0 0 0 0 0 0 0 0 0 0 0 0 0 83 76 80 79 79 80 80 79 78 79 85 87 87 88 89 89 90 90 89 88 86 88 82 75 76 76 74 76 75 72 69 68 64 67 55 54 52 45 45 44 41 40 43 47 44 36 32 24 23 21 15 18 21 19 17 18 16 16 18 19 17 17 16 19 17 18 19 18 18 19 19 21 20 18 19 16 16 15 16 18 19 18 22 24 24 25 25 25 25 26 26 26 23 23 22 20 19 18 18 18 18 17 17 17 19 19 20 19 18 16 16 17 17 13 16 18 18 18 23 24 25 25 29 34 36 38 39 38 37 38 39 39 42 42 43 50 56 60 62 62 63 64 65 67 68 68 70 71 73 75 75 75 75 75 76 76 77 76 75 76 77 81 85 86 89 90 90 90 92 93 93 93 94 93 98 104 108 114 109 109 110 111 117 123 121 121 122 124 129 125 125 128 124 128 128 130 129 128 132 132 130 133 132 136 133 140 139 140 141 142 143 144 144 145 143 147 152 151 153 154 157 157 159 163 167 171 -193 -193 -193 175 178 179 180 179 180 182 -193 183 187 185 187 188 188 192 190 190 0 0 0 0 0
    0 0 0 0 0 0 0 0 0 0 0 0 0 0 0 0 0 0 0 0 0 0 0 0 0 0 0 0 0 0 0 0 0 0 0 0 0 0 0 0 0 0 0 0 0 0 0 0 0 0 0 0 0 0 0 0 0 0 0 0 0 0 0 0 0 0 0 0 0 89 85 85 82 81 81 81 80 79 81 86 88 88 89 91 91 91 91 91 89 89 90 86 80 81 80 78 80 78 74 71 69 68 70 70 59 58 47 45 43 40 40 43 46 44 38 33 24 24 22 19 19 21 20 18 18 17 17 18 19 18 18 16 19 18 20 20 21 20 22 22 24 23 22 22 19 19 17 18 20 20 19 22 24 24 25 25 25 25 25 26 26 23 23 21 20 19 18 18 19 20 19 20 19 22 21 22 21 20 18 18 17 17 12 16 19 20 20 22 25 26 27 29 -225 37 40 40 40 39 40 41 40 42 43 45 53 60 61 62 63 63 64 65 66 67 67 70 71 73 74 74 75 75 75 75 76 78 78 79 80 82 85 87 88 90 90 90 90 92 92 93 93 93 95 99 104 107 112 109 110 110 111 117 123 121 121 122 124 130 126 126 128 124 128 129 130 130 128 132 132 130 133 133 137 134 140 139 139 140 142 142 143 143 144 142 146 152 151 152 154 158 158 161 162 167 -193 -193 -193 -193 173 176 179 180 180 180 182 184 184 188 187 189 188 187 190 189 191 0 0 0 0 0
    0 0 0 0 0 0 0 0 0 0 0 0 0 0 0 0 0 0 0 0 0 0 0 0 0 0 0 0 0 0 0 0 0 0 0 0 0 0 0 0 0 0 0 0 0 0 0 0 0 0 0 0 0 0 0 0 0 0 0 0 0 0 0 0 0 0 0 0 0 91 89 87 84 83 82 82 81 80 83 87 89 90 90 93 92 92 92 92 90 90 90 87 83 84 84 83 82 80 77 72 70 69 70 70 64 61 51 46 42 40 39 41 44 43 38 32 26 24 23 22 20 21 20 20 20 18 19 19 20 19 19 17 19 18 20 21 22 22 23 23 25 25 24 24 21 21 19 19 20 21 20 22 24 24 25 25 25 25 25 25 25 22 22 20 19 19 18 18 19 21 21 22 21 23 22 23 22 21 20 20 19 19 14 19 21 22 23 24 26 27 28 30 -225 38 41 41 41 40 41 41 41 42 43 51 56 62 61 62 62 63 64 65 65 67 67 70 70 73 74 74 74 74 75 75 76 78 77 78 80 83 85 89 89 91 91 91 90 92 93 94 94 94 98 100 104 107 110 109 110 110 111 117 123 121 122 122 124 130 126 126 129 125 129 129 131 130 128 132 132 131 134 134 137 134 139 139 139 140 142 142 142 143 143 142 145 151 151 151 -209 160 160 164 164 167 170 169 170 172 172 174 176 178 180 179 180 183 182 186 187 187 -209 -209 -193 -193 192 0 0 0 0 0
    0 0 0 0 0 0 0 0 0 0 0 0 0 0 0 0 0 0 0 0 0 0 0 0 0 0 0 0 0 0 0 0 0 0 0 0 0 0 0 0 0 0 0 0 0 0 0 0 0 0 0 0 0 0 0 0 0 0 0 0 0 0 0 0 0 0 0 0 0 91 89 88 85 83 83 83 82 82 85 88 90 91 92 95 92 92 92 92 91 90 91 88 85 85 85 84 83 81 77 73 71 70 70 70 67 63 57 53 43 41 40 41 42 42 38 30 27 25 24 23 22 22 21 21 21 19 20 19 21 20 20 17 19 18 20 21 22 22 23 23 26 25 25 25 22 22 19 20 21 21 20 22 24 23 24 24 24 24 25 25 25 21 22 20 20 20 19 19 20 22 22 23 22 23 23 23 23 22 21 21 20 21 15 20 23 23 24 25 26 27 28 30 -225 -225 42 42 42 41 42 42 41 42 43 51 55 61 60 61 62 62 64 64 64 66 67 69 69 72 73 73 74 74 75 75 75 77 77 77 79 80 84 89 89 91 91 91 90 93 94 96 96 97 100 101 104 107 109 109 110 111 112 118 124 122 122 123 125 131 127 127 129 125 129 130 131 130 128 132 132 132 134 135 137 134 140 139 140 141 142 142 142 143 143 -193 145 152 151 -193 -193 -193 160 164 165 168 170 169 171 172 173 175 176 178 179 179 179 182 180 183 185 -193 -209 -209 -209 -193 -209 0 0 0 0 0
    0 0 0 0 0 0 0 0 0 0 0 0 0 0 0 0 0 0 0 0 0 0 0 0 0 0 0 0 0 0 0 0 0 0 0 0 0 0 0 0 0 0 0 0 0 0 0 0 0 0 0 0 0 0 0 0 0 0 0 0 0 0 0 0 0 0 0 0 0 93 91 89 85 84 85 85 84 85 87 88 90 91 92 94 91 91 91 91 90 91 91 88 85 85 85 84 82 81 78 75 73 71 70 70 68 63 58 55 45 42 41 42 42 41 38 31 28 26 25 24 22 22 22 22 22 20 20 20 21 20 20 17 19 18 21 22 23 22 24 23 26 26 25 24 22 23 20 21 21 21 20 21 24 23 23 24 24 24 25 25 26 21 22 19 21 20 19 18 20 22 23 23 23 24 23 23 23 23 21 21 20 21 15 21 23 24 24 25 26 27 28 30 -225 -225 42 43 43 42 42 43 42 42 42 47 54 60 59 60 61 62 63 64 64 66 66 69 69 71 73 73 74 74 74 74 75 77 77 78 81 81 85 89 89 91 91 91 90 93 94 96 97 98 101 102 105 107 108 109 111 112 114 118 125 122 123 123 125 130 127 127 129 125 129 130 131 131 128 132 133 132 134 135 137 134 139 139 140 141 142 141 142 142 143 142 144 153 -209 -209 65 -193 -193 -193 164 167 169 167 170 171 172 174 175 177 179 179 179 181 179 182 184 185 -209 -193 -209 -193 -209 0 0 0 0 0
    0 0 0 0 0 0 0 0 0 0 0 0 0 0 0 0 0 0 0 0 0 0 0 0 0 0 0 0 0 0 0 0 0 0 0 0 0 0 0 0 0 0 0 0 0 0 0 0 0 0 0 0 0 0 0 0 0 0 0 0 0 0 0 0 0 0 0 0 0 95 92 90 86 86 87 87 86 87 88 90 90 91 92 93 91 91 90 90 90 90 90 87 85 85 84 83 82 79 76 74 72 71 68 68 66 61 59 56 45 42 42 41 41 40 38 30 28 26 26 24 23 23 22 23 22 20 21 20 22 20 21 17 19 18 21 22 23 22 23 23 26 26 25 25 22 23 20 21 21 21 20 21 23 22 22 23 23 23 24 24 24 19 20 17 20 19 18 15 20 23 23 25 23 25 24 24 23 23 22 22 21 22 16 21 24 24 25 25 26 27 28 30 -225 -225 42 43 43 43 43 44 43 43 42 47 54 59 58 59 60 61 63 63 63 65 65 69 69 71 72 72 73 74 74 73 74 76 76 77 80 81 85 89 89 91 90 90 89 92 93 96 96 98 102 102 105 107 108 110 111 113 115 119 125 122 123 123 125 130 127 127 128 124 128 130 132 131 128 133 133 132 134 135 137 134 138 139 139 141 142 141 142 142 142 142 143 153 -209 -209 -177 -193 -193 -193 162 166 165 164 168 169 171 173 173 176 178 178 179 182 179 182 184 186 188 -193 188 -193 -209 0 0 0 0 0
    0 0 0 0 0 0 0 0 0 0 0 0 0 0 0 0 0 0 0 0 0 0 0 0 0 0 0 0 0 0 0 0 0 0 0 0 0 0 0 0 0 0 0 0 0 0 0 0 0 0 0 0 0 0 0 0 0 0 0 0 0 0 0 0 0 0 0 0 0 96 93 91 87 87 88 88 89 89 91 93 90 91 92 93 91 90 89 89 88 90 90 86 84 84 84 83 81 79 76 74 72 71 67 67 65 61 58 56 47 43 43 42 40 40 37 30 28 26 26 24 23 23 22 23 22 21 21 21 22 21 21 18 19 18 21 22 23 22 23 23 25 25 25 25 23 24 21 22 21 21 20 21 23 22 21 22 22 22 23 23 23 17 17 15 19 18 17 13 20 24 24 27 24 26 24 24 24 24 23 23 21 22 16 21 24 25 25 26 27 27 28 30 -225 -225 41 42 42 42 42 44 43 43 43 49 54 59 57 59 58 60 62 62 62 63 64 68 69 71 71 71 72 73 74 73 74 75 75 77 81 82 85 89 88 90 89 89 89 91 92 95 95 97 102 102 104 106 107 110 112 114 117 119 126 123 123 124 124 130 127 127 128 124 128 130 131 130 127 132 132 132 134 135 137 135 138 139 139 141 142 142 141 142 142 142 141 -193 -209 -209 -177 -193 -193 -209 161 166 159 163 167 169 170 172 172 174 176 177 179 181 178 181 184 185 187 -193 -193 -193 -209 0 0 0 0 0
    0 0 0 0 0 0 0 0 0 0 0 0 0 0 0 0 0 0 0 0 0 0 0 0 0 0 0 0 0 0 0 0 0 0 0 0 0 0 0 0 0 0 0 0 0 0 0 0 0 0 0 0 0 0 0 0 0 0 0 0 0 0 0 0 0 0 0 0 0 97 93 92 88 89 90 90 91 92 95 97 93 93 94 95 92 91 90 89 89 90 89 86 84 84 82 81 80 78 75 73 72 70 67 67 64 60 58 56 49 44 44 43 41 41 39 32 30 27 26 24 24 23 22 23 23 21 23 -193 -193 21 22 18 20 18 21 22 23 22 -193 -193 25 25 25 26 24 24 21 22 22 22 21 21 22 21 20 21 21 21 21 23 22 16 15 13 16 17 15 13 20 24 24 28 25 27 25 25 25 24 23 23 21 22 15 21 24 25 25 26 28 29 30 32 -225 -225 41 41 41 41 41 44 43 43 43 50 55 60 58 59 58 60 62 62 62 63 64 68 69 71 71 71 72 73 74 74 74 76 76 78 81 83 85 89 88 89 88 89 88 91 92 95 96 98 102 102 104 106 106 110 113 116 118 120 127 123 123 124 124 129 127 127 127 124 127 130 131 130 127 133 132 132 134 136 137 136 138 139 139 141 143 142 141 142 141 141 140 -193 -209 -209 -209 -209 -209 -209 163 167 156 164 167 168 170 171 170 172 175 176 179 180 178 181 184 185 186 184 179 -193 -209 0 0 0 0 0
    0 0 0 0 0 0 0 0 0 0 0 0 0 0 0 0 0 0 0 0 0 0 0 0 0 0 0 0 0 0 0 0 0 0 0 0 0 0 0 0 0 0 0 0 0 0 0 0 0 0 0 0 0 0 0 0 0 0 0 0 0 0 0 0 0 0 0 0 0 99 95 95 95 94 96 99 99 98 100 101 98 97 98 98 94 93 91 91 89 89 89 85 81 81 78 78 77 77 74 73 71 70 67 67 64 60 58 57 50 46 46 45 42 42 40 35 31 28 27 24 24 23 23 24 24 23 25 -193 179 -193 22 17 19 -193 -193 -193 23 23 -193 -209 26 26 26 27 25 25 22 22 22 22 21 21 21 19 18 20 21 21 21 22 20 14 14 11 13 14 12 11 18 25 26 30 26 28 25 25 25 25 23 24 22 23 18 23 26 26 26 27 29 34 36 38 40 -225 42 42 42 43 42 45 43 43 44 51 56 60 59 59 58 59 61 62 61 62 63 68 69 71 71 71 72 73 74 74 74 76 77 78 83 85 86 90 89 91 89 90 89 92 94 98 99 100 103 103 105 106 106 110 115 117 120 121 128 124 124 124 124 129 127 127 127 124 127 130 131 130 127 133 133 133 135 136 137 137 139 141 139 142 143 142 141 142 142 141 140 -193 -193 141 134 -209 -209 -209 -209 -209 156 163 166 166 168 169 168 170 173 175 178 179 178 181 184 185 187 185 183 -193 -193 0 0 0 0 0
    0 0 0 0 0 0 0 0 0 0 0 0 0 0 0 0 0 0 0 0 0 0 0 0 0 0 0 0 0 0 0 0 0 0 0 0 0 0 0 0 0 0 0 0 0 0 0 0 0 0 0 0 0 0 0 0 0 0 0 0 0 0 0 0 0 0 0 0 0 103 101 101 101 100 99 100 99 98 100 100 98 97 98 98 95 93 92 90 89 88 88 84 82 82 79 79 78 77 74 73 71 70 66 67 63 59 58 57 51 47 46 45 42 42 40 36 33 29 29 26 25 24 23 27 26 25 28 -193 -193 -193 23 -193 -193 -193 -193 -193 25 24 26 -209 27 26 27 29 26 26 22 21 21 21 20 -193 16 16 14 16 18 19 18 19 15 12 12 9 10 11 9 10 18 24 25 30 27 28 25 25 25 25 24 24 22 23 19 24 29 28 27 27 30 37 40 41 50 53 44 42 42 43 42 44 43 42 44 50 56 60 59 59 58 59 61 61 61 62 63 68 69 71 71 71 73 73 75 75 75 77 77 79 83 85 86 89 89 91 90 91 91 93 94 98 100 100 103 104 105 105 105 112 117 119 120 121 128 124 124 124 124 128 126 126 127 124 126 130 131 130 127 133 133 133 -193 136 136 137 138 140 139 142 143 141 141 142 141 141 140 -193 -193 143 -209 -209 -209 -209 -209 163 160 163 165 165 166 167 166 168 -193 -193 177 179 177 180 183 -193 187 186 186 192 189 0 0 0 0 0
    0 0 0 0 0 0 0 0 0 0 0 0 0 0 0 0 0 0 0 0 0 0 0 0 0 0 0 0 0 0 0 0 0 0 0 0 0 0 0 0 0 0 0 0 0 0 0 0 0 0 0 0 0 0 0 0 0 0 0 0 0 0 0 0 0 0 0 0 0 108 107 107 106 105 103 102 100 99 101 100 99 97 97 97 94 93 91 89 89 87 87 84 83 82 79 79 77 76 74 73 71 71 66 66 63 59 57 56 52 48 47 46 43 42 41 40 36 34 32 28 26 25 25 33 32 28 35 -209 180 -193 -209 -209 -193 -193 -193 -209 27 28 28 28 28 27 27 29 26 27 22 20 17 18 18 -193 10 9 9 10 13 13 11 12 11 11 11 0 0 9 10 10 -193 -193 24 28 25 27 24 24 25 24 24 25 23 25 21 26 33 30 30 29 31 -193 -193 43 53 52 45 42 42 42 41 43 43 41 42 47 55 59 58 58 58 59 61 61 61 61 62 68 70 71 72 72 73 74 75 75 75 76 76 79 81 82 83 86 86 89 88 90 91 92 94 99 100 101 103 104 104 105 104 111 117 119 120 121 127 124 123 124 124 127 125 125 125 124 125 130 130 130 126 132 132 133 134 136 136 137 138 140 139 142 142 141 141 142 141 140 139 145 140 142 -209 -209 -209 -209 -209 160 160 162 165 164 166 -209 166 168 170 -193 176 179 177 180 -193 -209 -193 -193 188 196 192 0 0 0 0 0
    0 0 0 0 0 0 0 0 0 0 0 0 0 0 0 0 0 0 0 0 0 0 0 0 0 0 0 0 0 0 0 0 0 0 0 0 0 0 0 0 0 0 0 0 0 0 0 0 0 0 0 0 0 0 0 0 0 0 0 0 0 0 0 0 0 0 0 0 0 116 117 118 119 109 107 104 103 102 102 102 101 99 98 97 94 93 91 89 89 87 86 85 84 82 79 79 77 77 74 73 72 71 66 65 62 58 57 56 52 49 47 47 44 42 43 42 38 38 38 33 29 26 34 43 44 43 45 48 -193 49 43 43 49 49 49 46 41 41 36 37 33 27 28 29 27 27 24 23 20 20 20 18 9 9 0 9 10 10 12 12 11 -225 -225 -225 -225 -225 -225 -225 -225 -225 -225 -225 -225 -209 23 23 24 23 25 26 24 28 22 24 36 30 -225 -225 -225 -225 -209 43 53 53 49 43 42 43 41 44 44 42 43 47 55 58 58 58 58 59 60 60 61 61 62 68 70 71 72 -193 -193 74 75 75 75 77 77 79 81 82 83 85 85 87 87 89 90 91 93 97 99 100 102 104 104 104 105 111 118 119 120 121 125 123 123 123 123 126 124 124 124 123 124 128 129 128 125 131 132 133 134 136 136 136 137 139 138 141 141 140 140 140 140 140 139 141 139 140 -209 -209 -209 -209 -209 -209 157 160 164 164 -193 -209 166 -209 -193 -209 -193 180 179 181 -193 -193 -193 -193 188 193 191 0 0 0 0 0
    0 0 0 0 0 0 0 0 0 0 0 0 0 0 0 0 0 0 0 0 0 0 0 0 0 0 0 0 0 0 0 0 0 0 0 0 0 0 0 0 0 0 0 0 0 0 0 0 0 0 0 0 0 0 0 0 0 0 0 0 0 0 0 0 0 0 0 0 0 119 120 121 121 111 109 106 104 103 103 103 102 100 99 97 94 93 90 89 89 87 86 84 84 82 78 78 77 76 74 73 72 72 66 64 61 57 56 56 53 50 48 48 45 43 44 44 41 43 44 43 -209 59 60 54 53 53 53 54 54 53 50 48 54 51 50 49 46 45 41 41 -193 27 27 28 31 29 30 -209 -225 -225 -225 -225 -225 -225 -225 -225 -225 -225 -225 -225 -225 -225 -225 -225 -225 -225 -225 -225 -225 -225 -225 -225 -225 -225 -225 -225 -225 -225 -225 -225 -225 -225 -225 -225 -225 -225 -225 -225 -225 -225 -225 49 55 54 53 45 44 44 43 46 46 43 43 46 56 58 58 58 58 59 60 60 61 61 62 67 70 71 72 -193 -193 75 75 76 76 78 77 79 81 82 83 86 86 87 87 89 91 91 93 96 97 99 102 104 104 104 105 111 116 117 118 120 123 122 122 122 122 125 123 123 123 122 123 127 127 127 124 130 132 133 133 135 135 136 137 139 138 141 141 140 140 140 140 140 138 140 139 141 139 143 -209 150 156 156 157 160 161 162 165 -209 165 -193 -193 -193 -193 -193 181 183 -209 -193 -193 -193 -193 189 189 0 0 0 0 0
    0 0 0 0 0 0 0 0 0 0 0 0 0 0 0 0 0 0 0 0 0 0 0 0 0 0 0 0 0 0 0 0 0 0 0 0 0 0 0 0 0 0 0 0 0 0 0 0 0 0 0 0 0 0 0 0 0 0 0 0 0 0 0 0 0 0 0 0 0 122 126 132 135 109 107 106 104 104 103 104 103 102 101 100 96 96 92 91 90 88 87 86 84 82 78 78 77 75 74 72 71 71 65 63 61 57 57 56 53 52 50 50 46 43 45 44 41 42 43 42 -177 59 60 55 54 54 54 55 55 54 51 51 55 52 51 50 48 47 43 42 -193 27 27 28 31 29 30 -225 -225 -225 -225 -225 -225 -225 -225 -225 -225 -225 -225 -225 -225 -225 -225 -225 -225 -225 -225 -225 -225 -225 -225 -225 -225 -225 -225 -225 -225 -225 -225 -225 -225 -225 -225 -225 -225 -225 -225 -225 -225 -225 -225 48 54 54 54 45 45 46 44 47 48 44 44 47 55 58 58 58 57 59 59 60 60 61 61 66 69 71 72 -193 -193 75 75 76 76 78 78 79 80 82 83 86 86 87 87 89 91 91 92 95 96 98 101 103 104 104 104 109 -193 115 117 119 121 122 121 122 122 124 123 122 122 122 123 127 126 126 124 129 132 133 133 134 134 135 136 138 137 140 141 140 140 140 140 140 138 139 138 140 139 142 148 149 154 154 156 158 158 -209 -193 -209 163 -209 -209 -193 -193 -193 -193 -193 -209 -193 187 -193 -193 188 188 0 0 0 0 0
    0 0 0 0 0 0 0 0 0 0 0 0 0 0 0 0 0 0 0 0 0 0 0 0 0 0 0 0 0 0 0 0 0 0 0 0 0 0 0 0 0 0 0 0 0 0 0 0 0 0 0 0 0 0 0 0 0 0 0 0 0 0 0 0 0 0 0 0 0 123 122 -193 -193 105 105 106 104 104 103 103 103 103 102 100 97 96 94 92 91 89 88 86 86 84 81 81 79 77 75 73 73 72 65 62 61 57 57 57 54 53 51 51 47 44 46 46 41 45 48 44 46 60 61 56 56 55 55 55 55 54 52 53 55 53 52 52 50 49 44 42 -193 27 27 28 31 29 30 -225 -225 -225 -225 -225 -225 -225 -225 -225 -225 -225 -225 -225 -225 -225 -225 -225 -225 -225 -225 -225 -225 -225 -225 -225 -225 -225 -225 -225 -225 -225 -225 -225 -225 -225 -225 -225 -225 -225 -225 -225 -225 -225 -225 48 54 54 54 47 46 49 46 48 49 45 45 47 55 57 57 57 57 59 59 60 60 60 61 66 69 71 73 74 74 75 76 77 77 78 78 80 80 83 83 86 86 87 -193 90 91 91 92 94 96 96 101 103 104 104 105 109 -193 114 115 118 120 121 121 121 122 123 123 122 122 122 123 126 126 126 125 129 132 132 132 134 133 134 135 136 136 138 139 138 139 139 140 140 139 139 139 141 141 145 150 151 154 153 155 158 158 -209 -193 -193 162 -193 -193 -209 -193 -209 -193 -193 -209 -193 -193 -193 -193 -193 -193 0 0 0 0 0
    0 0 0 0 0 0 0 0 0 0 0 0 0 0 0 0 0 0 0 0 0 0 0 0 0 0 0 0 0 0 0 0 0 0 0 0 0 0 0 0 0 0 0 0 0 0 0 0 0 0 0 0 0 0 0 0 0 0 0 0 0 0 0 0 0 0 0 0 0 120 118 113 -193 104 104 105 104 104 104 104 104 103 102 100 97 98 95 94 93 90 89 88 87 85 82 81 79 76 74 72 73 71 65 62 61 58 58 57 55 54 52 52 49 45 47 47 42 49 52 48 52 61 63 59 57 56 55 56 56 55 53 54 56 54 53 53 51 51 45 42 -193 27 27 28 31 30 30 -225 -225 -225 -225 -225 -225 -225 -225 -225 -225 -225 -225 -225 -225 -225 -225 -225 -225 -225 -225 -225 -225 -225 -225 -225 -225 -225 -225 -225 -225 -225 -225 -225 -225 -225 -225 -225 -225 -225 -225 -225 -225 -225 -225 48 54 54 55 49 48 50 47 49 50 46 47 47 55 57 57 58 58 59 59 59 60 60 61 65 68 72 74 75 76 76 77 78 78 78 78 80 80 82 83 85 85 86 -193 89 90 90 91 93 95 96 100 103 104 104 105 108 113 113 114 116 119 121 121 121 122 123 123 122 122 123 122 125 126 126 125 129 133 133 133 134 134 135 135 135 135 137 138 137 139 140 141 141 140 140 141 142 142 146 150 151 154 154 156 158 157 158 159 160 160 160 162 -193 -209 -193 -193 -193 -209 187 188 -193 -193 187 188 0 0 0 0 0
    0 0 0 0 0 0 0 0 0 0 0 0 0 0 0 0 0 0 0 0 0 0 0 0 0 0 0 0 0 0 0 0 0 0 0 0 0 0 0 0 0 0 0 0 0 0 0 0 0 0 0 0 0 0 0 0 0 0 0 0 0 0 0 0 0 0 0 0 0 118 116 112 108 106 106 106 105 105 104 104 104 103 102 100 97 98 96 95 94 90 89 89 88 85 81 80 77 74 72 70 72 71 65 61 62 60 59 58 55 56 52 52 50 44 47 47 42 50 53 46 54 60 61 57 56 55 55 55 55 55 54 55 56 55 54 54 53 52 46 44 42 27 27 28 -225 -225 -225 -225 -225 -225 -225 -225 -225 -225 -225 -225 -225 -225 -225 -225 -225 -225 -225 -225 -225 -225 -225 -225 -225 -225 -225 -225 -225 -225 -225 -225 -225 -225 -225 -225 -225 -225 -225 -225 -225 -225 -225 -225 -225 -225 -225 45 54 54 54 50 50 52 49 51 52 49 50 48 56 57 57 58 58 59 59 59 59 59 60 65 68 71 74 75 76 77 77 77 77 78 78 79 79 81 82 84 85 86 87 89 90 90 90 93 94 96 99 102 102 102 104 106 110 111 112 114 118 121 121 121 122 123 123 123 123 123 122 125 126 126 126 129 134 134 134 134 136 135 135 135 135 136 136 136 138 139 140 140 139 139 140 141 141 142 146 149 153 153 155 156 155 156 156 158 157 158 159 159 -209 -193 -193 -209 -209 -209 189 -193 -193 187 188 0 0 0 0 0
    0 0 0 0 0 0 0 0 0 0 0 0 0 0 0 0 0 0 0 0 0 0 0 0 0 0 0 0 0 0 0 0 0 0 0 0 0 0 0 0 0 0 0 0 0 0 0 0 0 0 0 0 0 0 0 0 0 0 0 0 0 0 0 0 0 0 0 0 0 117 115 110 107 106 106 106 105 105 104 104 104 103 102 99 97 99 96 94 93 0 -256 -1 -13958 85 80 79 77 74 72 71 74 72 66 62 63 61 59 59 56 56 52 52 50 44 47 48 43 54 56 -193 58 61 61 58 56 55 55 55 57 57 55 56 57 56 55 55 54 53 49 46 44 -225 -225 -225 -225 -225 -225 -225 -225 -225 -225 -225 -225 -225 -225 -225 -225 -225 -225 -225 -225 -225 -225 -225 -225 -225 -225 -225 -225 -225 -225 -225 -225 -225 -225 -225 -225 -225 -225 -225 -225 -225 -225 -225 -225 -225 -225 -225 -225 -225 -225 42 52 52 53 48 48 51 50 52 54 52 54 54 58 60 60 61 61 62 62 61 62 61 61 64 65 71 73 75 76 77 76 77 77 77 77 78 79 80 81 84 85 86 86 89 89 90 90 93 94 96 99 101 102 102 103 105 -193 109 110 112 117 122 121 122 122 123 124 123 123 124 122 125 126 126 127 128 134 134 134 134 135 134 134 134 133 134 134 135 138 138 140 139 139 138 139 139 139 140 143 148 151 151 154 155 155 155 156 158 157 159 162 164 66 68 70 -209 -209 -209 -193 -193 -193 -193 -193 0 0 0 0 0
    0 0 0 0 0 0 0 0 0 0 0 0 0 0 0 0 0 0 0 0 0 0 0 0 0 0 0 0 0 0 0 0 0 0 0 0 0 0 0 0 0 0 0 0 0 0 0 0 0 0 0 0 0 0 0 0 0 0 0 0 0 0 0 0 0 0 0 0 0 116 115 110 108 106 106 106 105 105 105 105 105 103 102 99 97 99 96 94 93 90 89 89 88 85 78 78 78 75 73 72 76 74 69 64 65 62 61 61 56 57 54 53 53 46 50 51 48 57 57 58 58 61 60 58 56 56 55 56 58 58 57 58 59 58 57 58 56 55 53 50 -225 -225 -225 -225 -225 -225 -225 -225 -225 -225 -225 -225 -225 -225 -225 -225 -225 -225 -225 -225 -225 -225 -225 -225 -225 -225 -225 -225 -225 -225 -225 -225 -225 -225 -225 -225 -225 -225 -225 -225 -225 -225 -225 -225 -225 -225 -225 -225 -225 -225 -225 40 49 49 51 48 48 52 52 54 56 57 57 58 59 62 62 63 62 62 62 62 62 62 61 63 62 69 71 74 75 76 76 76 77 77 77 78 79 80 81 83 84 85 86 88 89 89 89 93 94 96 99 100 101 101 103 104 -193 108 110 111 117 123 122 122 123 123 125 124 124 124 122 125 126 126 127 127 134 134 133 133 135 134 134 134 133 135 138 138 140 140 141 141 140 139 139 138 138 138 141 147 150 150 153 154 155 155 156 159 158 162 164 167 -193 -193 -193 176 -193 -193 -209 -209 -209 -209 -209 0 0 0 0 0
    0 0 0 0 0 0 0 0 0 0 0 0 0 0 0 0 0 0 0 0 0 0 0 0 0 0 0 0 0 0 0 0 0 0 0 0 0 0 0 0 0 0 0 0 0 0 0 0 0 0 0 0 0 0 0 0 0 0 0 0 0 0 0 0 0 0 0 0 0 116 114 110 108 106 106 106 106 106 105 105 105 103 102 100 98 100 96 94 93 90 90 89 88 86 78 78 79 75 73 75 78 76 71 67 67 65 65 64 57 58 56 56 55 49 50 52 52 56 56 57 57 59 60 59 57 57 57 59 60 60 60 60 60 60 59 58 57 56 54 -225 -225 -225 -225 -225 -225 -225 -225 -225 -225 -225 -225 -225 -225 -225 -225 -225 -225 -225 -225 -225 -225 -225 -225 -225 -225 -225 -225 -225 -225 -225 -225 -225 -225 -225 -225 -225 -225 -225 -225 -225 -225 -225 -225 -225 -225 -225 -225 -225 -225 -225 -225 -225 47 52 54 52 53 56 57 57 59 59 59 61 61 65 64 65 65 63 64 63 62 62 60 62 60 67 70 72 74 76 75 77 78 78 78 79 80 82 82 84 85 86 88 89 90 90 90 92 94 95 98 99 101 101 102 103 -209 108 109 111 117 124 123 123 124 124 126 125 125 125 123 125 126 127 128 127 134 133 133 132 135 133 134 135 133 136 141 140 143 141 142 143 143 141 140 140 141 141 146 151 153 153 153 154 155 156 157 159 158 161 164 167 169 168 174 176 181 184 186 185 -209 -209 -209 0 0 0 0 0
    0 0 0 0 0 0 0 0 0 0 0 0 0 0 0 0 0 0 0 0 0 0 0 0 0 0 0 0 0 0 0 0 0 0 0 0 0 0 0 0 0 0 0 0 0 0 0 0 0 0 0 0 0 0 0 0 0 0 0 0 0 0 0 0 0 0 0 0 0 115 113 109 107 106 106 106 105 105 105 105 105 103 101 99 98 100 95 94 92 89 90 89 89 88 79 80 80 75 74 73 76 75 71 67 68 67 68 66 60 61 59 59 63 54 52 54 55 57 57 57 57 58 60 60 59 59 61 63 64 64 64 63 62 62 61 60 59 57 -225 -225 -225 -225 -225 -225 -225 -225 -225 -225 -225 -225 -225 -225 -225 -225 -225 -225 -225 -225 -225 -225 -225 -225 -225 -225 -225 -225 -225 -225 -225 -225 -225 -225 -225 -225 -225 -225 -225 -225 -225 -225 -225 -225 -225 -225 -225 -225 -225 -225 -225 -225 -225 -225 -225 -225 -225 53 53 56 58 57 61 60 61 63 65 68 67 67 66 65 66 64 63 63 60 62 60 66 69 72 74 76 76 78 80 78 79 80 82 83 83 85 86 86 88 89 90 89 89 92 94 94 97 98 100 100 101 103 -209 107 109 110 117 125 123 124 124 125 128 126 126 126 124 126 128 128 129 127 133 133 133 132 134 133 133 134 133 136 143 140 142 141 142 142 142 141 141 141 143 147 152 154 155 155 155 156 156 157 157 159 158 160 163 166 168 166 171 173 181 184 186 185 185 184 183 0 0 0 0 0
    0 0 0 0 0 0 0 0 0 0 0 0 0 0 0 0 0 0 0 0 0 0 0 0 0 0 0 0 0 0 0 0 0 0 0 0 0 0 0 0 0 0 0 0 0 0 0 0 0 0 0 0 0 0 0 0 0 0 0 0 0 0 0 0 0 0 0 0 0 114 112 109 107 107 106 106 105 106 106 105 105 103 101 99 99 101 95 94 92 90 90 90 90 90 84 84 83 77 76 74 77 75 71 69 69 69 69 68 64 64 62 67 71 67 55 59 59 60 59 60 59 59 61 63 62 64 65 67 67 67 66 65 64 63 62 61 60 58 -225 -225 -225 -225 -225 -225 -225 -225 -225 -225 -225 -225 -225 -225 -225 -225 -225 -225 -225 -225 -225 -225 -225 -225 -225 -225 -225 -225 -225 -225 -225 -225 -225 -225 -225 -225 -225 -225 -225 -225 -225 -225 -225 -225 -225 -225 -225 -225 -225 -225 -225 -225 -225 -225 -225 -225 -225 -225 50 56 61 58 62 61 63 66 68 70 69 69 69 68 68 67 65 65 61 62 60 64 68 70 73 76 76 78 80 78 79 81 83 84 84 85 86 87 88 89 90 89 89 92 94 95 98 99 101 100 101 103 -209 107 109 111 118 126 123 124 125 125 128 127 127 127 124 127 128 129 129 126 133 133 132 132 134 133 133 134 133 136 141 140 141 140 141 142 142 140 140 140 141 147 153 154 156 157 157 158 159 159 159 160 159 161 163 166 168 165 169 172 180 183 185 185 184 183 184 0 0 0 0 0
    0 0 0 0 0 0 0 0 0 0 0 0 0 0 0 0 0 0 0 0 0 0 0 0 0 0 0 0 0 0 0 0 0 0 0 0 0 0 0 0 0 0 0 0 0 0 0 0 0 0 0 0 0 0 0 0 0 0 0 0 0 0 0 0 0 0 0 0 0 112 111 109 109 108 107 106 106 107 107 106 105 103 100 99 99 100 94 93 92 90 91 91 91 91 86 86 84 80 77 75 77 75 72 70 70 70 70 69 66 65 64 69 72 69 59 62 63 63 62 61 59 60 62 65 65 67 68 68 68 68 68 66 65 64 63 61 60 -225 -225 -225 -225 -225 -225 -225 -225 -225 -225 -225 -225 -225 -225 -225 -225 -225 -225 -225 -225 -225 -225 -225 -225 -225 -225 -225 -225 -225 -225 -225 -225 -225 -225 -225 -225 -225 -225 -225 -225 -225 -225 -225 -225 -225 -225 -225 -225 -225 -225 -225 -225 -225 -225 -225 -225 -225 -225 -225 51 59 -209 61 67 65 68 70 71 72 71 71 71 69 70 69 68 66 63 64 60 64 68 69 73 75 76 78 80 79 79 81 83 84 84 85 86 86 88 88 89 88 89 92 95 97 99 100 101 101 102 103 106 -209 110 112 118 127 124 124 125 126 129 127 127 127 124 126 128 128 129 125 132 132 131 131 134 132 132 133 133 136 139 139 140 139 140 141 141 140 140 140 141 147 154 156 157 159 158 159 161 160 160 160 159 161 162 165 166 163 166 170 180 183 185 184 183 180 181 0 0 0 0 0
    0 0 0 0 0 0 0 0 0 0 0 0 0 0 0 0 0 0 0 0 0 0 0 0 0 0 0 0 0 0 0 0 0 0 0 0 0 0 0 0 0 0 0 0 0 0 0 0 0 0 0 0 0 0 0 0 0 0 0 0 0 0 0 0 0 0 0 0 0 113 112 110 112 111 108 106 106 108 109 108 106 103 100 99 99 99 94 93 92 91 91 92 92 91 86 87 84 81 78 75 76 75 72 72 71 70 71 69 69 67 67 71 71 70 65 67 67 66 64 62 60 60 62 67 67 69 69 69 69 69 68 67 67 65 64 62 -225 -225 -225 -225 -225 -225 -225 -225 -225 -225 -225 -225 -225 -225 -225 -225 -225 -225 -225 -225 -225 -225 -225 -225 -225 -225 -225 -225 -225 -225 -225 -225 -225 -225 -225 -225 -225 -225 -225 -225 -225 -225 -225 -225 -225 -225 -225 -225 -225 -225 -225 -225 -225 -225 -225 -225 -225 -225 -225 -225 -225 -225 -209 66 70 69 71 72 74 73 72 72 72 71 71 70 69 68 66 66 62 65 68 68 72 74 75 77 80 79 80 82 84 84 84 85 86 86 88 89 89 89 91 94 97 98 100 100 102 101 102 103 106 -209 109 111 118 127 124 125 125 126 129 127 127 127 124 126 129 129 129 125 132 132 131 131 134 132 132 134 132 136 138 139 140 140 140 141 140 140 140 140 141 145 152 154 157 159 159 160 161 161 161 160 161 162 163 166 167 164 168 172 180 183 185 183 183 179 179 0 0 0 0 0
    0 0 0 0 0 0 0 0 0 0 0 0 0 0 0 0 0 0 0 0 0 0 0 0 0 0 0 0 0 0 0 0 0 0 0 0 0 0 0 0 0 0 0 0 0 0 0 0 0 0 0 0 0 0 0 0 0 0 0 0 0 0 0 0 0 0 0 0 0 115 116 115 120 118 110 107 107 110 109 108 105 103 100 99 98 99 93 92 91 91 91 92 92 92 87 88 86 83 78 76 76 75 74 73 72 71 71 70 70 68 68 71 71 69 67 68 67 66 65 62 60 60 62 69 69 71 71 70 70 70 69 69 67 66 64 62 -225 -225 -225 -225 -225 -225 -225 -225 -225 -225 -225 -225 -225 -225 -225 -225 -225 -225 -225 -225 -225 -225 -225 -225 -225 -225 -225 -225 -225 -225 -225 -225 -225 -225 -225 -225 -225 -225 -225 -225 -225 -225 -225 -225 -225 -225 -225 -225 -225 -225 -225 -225 -225 -225 -225 -225 -225 -225 -225 -225 -225 -225 -225 65 70 68 71 72 75 74 72 73 72 72 72 71 71 69 69 69 65 67 69 69 71 72 73 75 79 79 80 82 84 84 84 85 86 87 88 89 90 90 93 96 99 100 101 101 102 101 102 103 -209 -209 108 112 119 128 124 124 125 125 129 127 127 127 124 127 129 129 129 124 130 130 130 129 133 130 132 134 132 135 138 138 141 140 141 141 141 140 140 141 142 144 151 153 157 160 159 161 163 163 163 163 164 166 168 170 171 169 170 172 178 -193 182 180 178 174 175 0 0 0 0 0
    0 0 0 0 0 0 0 0 0 0 0 0 0 0 0 0 0 0 0 0 0 0 0 0 0 0 0 0 0 0 0 0 0 0 0 0 0 0 0 0 0 0 0 0 0 0 0 0 0 0 0 0 0 0 0 0 0 0 0 0 0 0 0 0 0 0 0 0 0 117 119 120 123 120 108 105 108 110 110 109 105 103 100 99 97 98 92 91 91 91 91 92 93 92 89 89 87 84 80 77 77 76 75 74 73 72 73 71 73 71 71 71 71 70 68 69 69 68 67 64 63 63 67 71 71 72 72 71 71 70 70 69 68 67 66 -225 -225 -225 -225 -225 -225 -225 -225 -225 -225 -225 -225 -225 -225 -225 -225 -225 -225 -225 -225 -225 -225 -225 -225 -225 -225 -225 -225 -225 -225 -225 -225 -225 -225 -225 -225 -225 -225 -225 -225 -225 -225 -225 -225 -225 -225 -225 -225 -225 -225 -225 -225 -225 -225 -225 -225 -225 -225 -225 -225 -225 -225 -225 -225 66 70 69 71 73 75 74 72 73 73 72 72 71 71 70 70 70 67 69 70 71 72 73 73 76 79 80 81 83 84 85 85 86 87 87 89 90 91 91 94 97 100 100 102 102 102 102 103 103 -193 -209 112 115 120 128 124 124 124 125 128 126 126 127 124 127 128 128 128 123 128 127 127 128 131 130 132 135 134 137 140 140 142 141 142 142 141 141 141 142 143 146 152 154 157 160 159 162 163 164 165 165 167 168 169 171 173 172 173 175 178 177 178 176 175 172 173 0 0 0 0 0
    0 0 0 0 0 0 0 0 0 0 0 0 0 0 0 0 0 0 0 0 0 0 0 0 0 0 0 0 0 0 0 0 0 0 0 0 0 0 0 0 0 0 0 0 0 0 0 0 0 0 0 0 0 0 0 0 0 0 0 0 0 0 0 0 0 0 0 0 0 122 123 122 125 118 108 107 109 110 109 108 104 103 100 98 96 98 92 91 91 92 91 93 94 93 89 89 88 85 83 79 77 76 75 74 74 73 72 69 71 72 72 72 71 70 69 69 70 69 68 66 65 66 70 73 73 73 73 72 72 71 71 70 69 68 -225 -225 -225 -225 -225 -225 -225 -225 -225 -225 -225 -225 -225 -225 -225 -225 -225 -225 -225 -225 -225 -225 -225 -225 -225 -225 -225 -225 -225 -225 -225 -225 -225 -225 -225 -225 -225 -225 -225 -225 -225 -225 -225 -225 -225 -225 -225 -225 -225 -225 -225 -225 -225 -225 -225 -225 -225 -225 -225 -225 -225 -225 -225 -225 -225 -225 71 70 -209 75 76 74 72 73 73 72 72 72 71 71 71 73 71 72 73 74 74 75 75 77 80 79 81 83 85 85 85 86 87 87 89 90 91 91 94 95 98 99 101 101 102 102 103 104 108 -209 -193 118 120 128 123 124 124 125 128 126 126 126 123 126 128 127 127 122 125 124 125 126 130 130 132 134 135 137 140 140 142 142 143 142 142 141 142 144 146 150 155 156 158 161 160 162 164 165 166 167 168 169 170 172 173 172 173 174 177 175 176 175 175 172 172 0 0 0 0 0
    0 0 0 0 0 0 0 0 0 0 0 0 0 0 0 0 0 0 0 0 0 0 0 0 0 0 0 0 0 0 0 0 0 0 0 0 0 0 0 0 0 0 0 0 0 0 0 0 0 0 0 0 0 0 0 0 0 0 0 0 0 0 0 0 0 0 0 0 0 126 125 123 124 115 107 107 108 109 108 107 104 103 100 98 95 97 92 91 91 92 92 93 94 94 90 90 89 87 85 81 77 76 75 74 74 73 72 66 72 73 73 72 71 71 69 70 70 70 69 67 68 69 72 74 74 74 73 73 72 72 72 71 70 69 -225 -225 -225 -225 -225 -225 -225 -225 -225 -225 -225 -225 -225 -225 -225 -225 -225 -225 -225 -225 -225 -225 -225 -225 -225 -225 -225 -225 -225 -225 -225 -225 -225 -225 -225 -225 -225 -225 -225 -225 -225 -225 -225 -225 -225 -225 -225 -225 -225 -225 -225 -225 -225 -225 -225 -225 -225 -225 -225 -225 -225 -225 -225 -225 -225 -225 -225 71 76 76 78 75 73 74 75 74 73 73 73 73 73 74 74 73 74 74 74 75 74 75 78 78 79 82 84 86 86 87 88 88 89 90 91 91 93 95 98 98 101 101 102 102 104 104 108 -209 -193 118 120 126 123 123 123 124 127 126 126 126 123 125 127 127 126 121 123 123 124 127 131 132 132 134 134 136 137 138 140 141 142 142 142 142 144 146 148 151 156 156 158 161 160 162 163 164 165 166 168 169 170 171 172 172 172 172 173 173 174 174 176 174 173 0 0 0 0 0
    0 0 0 0 0 0 0 0 0 0 0 0 0 0 0 0 0 0 0 0 0 0 0 0 0 0 0 0 0 0 0 0 0 0 0 0 0 0 0 0 0 0 0 0 0 0 0 0 0 0 0 0 0 0 0 0 0 0 0 0 0 0 0 0 0 0 0 0 0 127 126 123 120 111 107 107 107 108 108 107 103 102 100 98 95 97 92 92 91 93 92 93 94 93 90 91 90 88 86 79 77 75 74 73 73 72 69 62 73 74 75 72 72 71 70 70 71 70 69 69 71 72 74 75 75 74 75 74 74 73 72 72 70 -225 -225 -225 -225 -225 -225 -225 -225 -225 -225 -225 -225 -225 -225 -225 -225 -225 -225 -225 -225 -225 -225 -225 -225 -225 -225 -225 -225 -225 -225 -225 -225 -225 -225 -225 -225 -225 -225 -225 -225 -225 -225 -225 -225 -225 -225 -225 -225 -225 -225 -225 -225 -225 -225 -225 -225 -225 -225 -225 -225 -225 -225 -225 -225 -225 -225 -225 -225 -225 83 78 80 76 74 75 76 76 75 74 74 74 75 76 76 75 75 76 75 75 74 74 76 76 77 80 83 85 86 87 88 88 89 90 91 92 94 95 98 99 101 102 102 103 104 104 109 -209 115 117 120 125 122 122 123 124 126 125 125 125 122 124 126 126 126 121 123 123 124 126 131 132 133 134 134 135 136 136 139 140 142 141 142 144 146 147 148 152 155 155 157 159 159 162 163 164 165 165 167 169 169 170 171 170 170 171 172 172 173 173 175 175 176 0 0 0 0 0
    0 0 0 0 0 0 0 0 0 0 0 0 0 0 0 0 0 0 0 0 0 0 0 0 0 0 0 0 0 0 0 0 0 0 0 0 0 0 0 0 0 0 0 0 0 0 0 0 0 0 0 0 0 0 0 0 0 0 0 0 0 0 0 0 0 0 0 0 0 126 126 124 119 110 107 108 107 108 107 107 102 102 101 98 95 96 93 92 92 94 93 93 94 93 91 91 90 88 85 80 79 78 76 75 75 76 73 70 75 77 78 74 73 71 70 71 71 71 71 71 73 74 75 77 76 76 75 75 74 73 73 72 -225 -225 -225 -225 -225 -225 -225 -225 -225 -225 -225 -225 -225 -225 -225 -225 -225 -225 -225 -225 -225 -225 -225 -225 -225 -225 -225 -225 -225 -225 -225 -225 -225 -225 -225 -225 -225 -225 -225 -225 -225 -225 -225 -225 -225 -225 -225 -225 -225 -225 -225 -225 -225 -225 -225 -225 -225 -225 -225 -225 -225 -225 -225 -225 -225 -225 -225 -225 -225 -225 -225 77 82 76 75 76 77 77 76 75 76 76 77 78 77 76 77 77 76 76 75 74 74 74 75 77 80 85 86 87 88 89 90 91 92 92 94 96 99 99 101 102 102 103 104 104 108 -209 116 118 120 125 122 122 122 123 126 125 125 125 122 124 126 126 126 121 123 123 124 126 133 134 134 135 136 136 136 139 141 142 144 143 143 145 147 148 149 151 155 155 156 158 158 161 164 164 165 165 167 169 169 171 171 170 171 172 172 173 174 174 177 176 176 0 0 0 0 0
    0 0 0 0 0 0 0 0 0 0 0 0 0 0 0 0 0 0 0 0 0 0 0 0 0 0 0 0 0 0 0 0 0 0 0 0 0 0 0 0 0 0 0 0 0 0 0 0 0 0 0 0 0 0 0 0 0 0 0 0 0 0 0 0 0 0 0 0 0 125 124 122 118 108 106 109 107 107 107 107 102 102 102 99 96 97 94 93 92 94 93 93 94 92 91 91 90 88 85 81 80 79 77 76 77 77 75 76 79 81 80 77 75 72 71 71 71 71 72 72 74 74 76 78 77 77 76 76 75 74 74 -225 -225 -225 -225 -225 -225 -225 -225 -225 -225 -225 -225 -225 -225 -225 -225 -225 -225 -225 -225 -225 -225 -225 -225 -225 -225 -225 -225 -225 -225 -225 -225 -225 -225 -225 -225 -225 -225 -225 -225 -225 -225 -225 -225 -225 -225 -225 -225 -225 -225 -225 -225 -225 -225 -225 -225 -225 -225 -225 -225 -225 -225 -225 -225 -225 -225 -225 -225 -225 -225 -225 -225 -225 83 74 74 75 77 77 76 76 76 77 79 80 79 78 78 78 77 77 75 74 74 74 75 76 79 84 85 87 89 90 91 92 93 94 95 97 99 99 101 102 102 102 104 103 108 -209 115 118 120 125 121 121 122 123 125 124 124 125 122 124 126 126 126 121 122 123 123 126 133 134 135 135 136 137 137 138 142 143 145 144 145 146 148 148 149 151 154 154 155 156 156 158 162 162 163 163 165 167 168 169 170 169 170 171 172 172 175 174 178 178 177 0 0 0 0 0
    0 0 0 0 0 0 0 0 0 0 0 0 0 0 0 0 0 0 0 0 0 0 0 0 0 0 0 0 0 0 0 0 0 0 0 0 0 0 0 0 0 0 0 0 0 0 0 0 0 0 0 0 0 0 0 0 0 0 0 0 0 0 0 0 0 0 0 0 0 122 121 119 115 107 106 110 108 107 107 107 103 103 103 99 95 96 93 93 92 94 93 92 93 92 91 90 90 88 85 83 82 82 79 78 79 80 80 80 81 82 81 79 76 72 70 71 71 72 73 73 74 75 76 79 78 78 77 76 75 74 -225 -225 -225 -225 -225 -225 -225 -225 -225 -225 -225 -225 -225 -225 -225 -225 -225 -225 -225 -225 -225 -225 -225 -225 -225 -225 -225 -225 -225 -225 -225 -225 -225 -225 -225 -225 -225 -225 -225 -225 -225 -225 -225 -225 -225 -225 -225 -225 -225 -225 -225 -225 -225 -225 -225 -225 -225 -225 -225 -225 -225 -225 -225 -225 -225 -225 -225 -225 -225 -225 -225 -225 -225 -225 -225 72 72 73 78 78 77 78 78 79 82 82 82 79 80 80 79 79 77 76 76 76 77 76 80 85 86 88 91 92 93 94 95 96 96 98 100 98 100 101 101 101 103 103 108 -209 -209 117 120 124 120 121 121 122 125 124 124 124 122 124 125 126 126 121 122 123 123 125 133 134 135 136 137 137 137 139 144 145 146 145 146 147 149 149 149 151 154 154 154 156 156 158 162 163 164 164 166 167 169 170 171 170 171 172 173 174 177 176 179 180 179 0 0 0 0 0
    0 0 0 0 0 0 0 0 0 0 0 0 0 0 0 0 0 0 0 0 0 0 0 0 0 0 0 0 0 0 0 0 0 0 0 0 0 0 0 0 0 0 0 0 0 0 0 0 0 0 0 0 0 0 0 0 0 0 0 0 0 0 0 0 0 0 0 0 0 121 120 118 114 108 108 111 108 108 107 107 103 103 103 99 96 96 94 93 92 94 93 92 94 92 91 91 90 89 87 85 84 84 80 78 81 83 82 81 79 80 79 79 77 74 71 72 72 74 75 75 76 76 77 79 78 78 77 76 75 74 -225 -225 -225 -225 -225 -225 -225 -225 -225 -225 -225 -225 -225 -225 -225 -225 -225 -225 -225 -225 -225 -225 -225 -225 -225 -225 -225 -225 -225 -225 -225 -225 -225 -225 -225 -225 -225 -225 -225 -225 -225 -225 -225 -225 -225 -225 -225 -225 -225 -225 -225 -225 -225 -225 -225 -225 -225 -225 -225 -225 -225 -225 -225 -225 -225 -225 -225 -225 -225 -225 -225 -225 -225 -225 -225 69 70 72 79 78 77 79 80 81 83 83 83 81 82 82 81 81 80 78 78 78 80 79 83 87 88 91 93 94 94 94 96 97 96 98 98 98 99 100 101 101 103 103 108 -209 115 118 119 123 119 120 121 121 124 123 123 124 121 124 125 125 125 120 122 123 124 126 134 136 136 137 138 138 138 139 143 144 146 145 147 148 149 149 150 152 155 154 154 156 156 158 161 163 163 163 165 166 167 168 170 169 170 171 173 175 177 178 180 181 180 0 0 0 0 0
    0 0 0 0 0 0 0 0 0 0 0 0 0 0 0 0 0 0 0 0 0 0 0 0 0 0 0 0 0 0 0 0 0 0 0 0 0 0 0 0 0 0 0 0 0 0 0 0 0 0 0 0 0 0 0 0 0 0 0 0 0 0 0 0 0 0 0 0 0 119 118 116 112 108 109 112 108 108 107 107 103 103 103 99 96 96 94 93 92 94 94 92 93 92 91 91 90 89 88 87 85 86 79 78 82 83 84 80 75 77 78 81 79 75 72 73 75 78 78 79 78 78 80 81 80 78 77 76 75 -225 -225 -225 -225 -225 -225 -225 -225 -225 -225 -225 -225 -225 -225 -225 -225 -225 -225 -225 -225 -225 -225 -225 -225 -225 -225 -225 -225 -225 -225 -225 -225 -225 -225 -225 -225 -225 -225 -225 -225 -225 -225 -225 -225 -225 -225 -225 -225 -225 -225 -225 -225 -225 -225 -225 -225 -225 -225 -225 -225 -225 -225 -225 -225 -225 -225 -225 -225 -225 -225 -225 -225 -225 -225 -225 -225 -225 68 71 78 78 78 80 79 81 83 83 84 83 84 83 83 83 82 80 81 81 82 80 85 88 89 92 93 94 95 94 96 97 95 98 97 97 98 100 101 101 103 103 108 -209 116 117 119 122 119 119 120 121 123 123 123 123 121 123 124 125 125 121 122 124 124 126 134 136 136 137 137 138 138 140 142 143 145 145 147 149 150 150 151 154 156 156 155 156 156 157 159 162 162 161 163 163 165 166 167 167 169 170 173 177 180 181 182 183 182 0 0 0 0 0</data></disparity>
</opencv_storage>
