<?xml version="1.0"?>
<opencv_storage>
<gps_time_stamp>281809</gps_time_stamp>
<gps_x>-1.3970272064208984e+001</gps_x>
<gps_y>1.1295298576354980e+001</gps_y>
<gps_z>-2.2926497459411621e+000</gps_z>
<image_time_stamp>272655</image_time_stamp>
<disparity type_id="opencv-matrix">
  <rows>93</rows>
  <cols>320</cols>
  <dt>s</dt>
  <data>
    0 0 0 0 0 0 0 0 0 0 0 0 0 0 0 0 0 0 0 0 0 0 0 0 0 0 0 0 0 0 0 0 0 0 0 0 0 0 0 0 0 0 0 0 0 0 0 0 0 0 0 0 0 0 0 0 0 0 0 0 0 0 0 0 0 0 0 0 0 16 15 16 16 17 15 16 16 17 15 18 15 16 16 16 15 16 17 17 16 18 17 18 18 19 19 18 19 18 19 19 17 19 18 19 17 18 18 18 20 19 19 20 17 19 19 19 18 17 20 17 18 18 17 19 19 19 19 19 20 18 20 20 18 20 19 19 19 20 21 19 21 19 19 21 -177 -193 -177 22 -193 22 23 23 23 22 -193 -209 -193 -193 -177 275 275 272 275 21 19 19 20 19 19 19 20 20 18 21 20 22 20 21 21 23 22 23 21 21 20 21 20 20 20 21 20 22 22 23 24 24 24 23 22 23 21 22 21 21 22 23 22 22 24 22 22 23 23 23 23 25 25 25 28 28 29 29 29 29 28 29 29 29 31 29 34 31 33 34 35 35 35 35 37 37 39 39 40 40 40 40 41 41 41 42 42 43 43 45 45 45 44 44 44 45 44 43 42 43 43 43 44 47 48 51 51 51 51 52 52 52 55 54 54 56 57 58 58 59 59 58 60 61 60 60 65 64 62 64 64 63 64 65 65 64 69 68 67 68 68 68 66 65 66 61 60 65 65 64 64 0 0 0 0 0
    0 0 0 0 0 0 0 0 0 0 0 0 0 0 0 0 0 0 0 0 0 0 0 0 0 0 0 0 0 0 0 0 0 0 0 0 0 0 0 0 0 0 0 0 0 0 0 0 0 0 0 0 0 0 0 0 0 0 0 0 0 0 0 0 0 0 0 0 0 16 15 16 16 17 16 16 16 17 15 18 15 16 16 16 15 16 17 17 16 18 17 17 18 19 19 18 19 18 19 19 17 19 18 19 17 18 18 19 20 19 19 20 17 19 19 19 17 17 20 17 17 18 17 19 19 19 19 19 20 18 20 20 18 20 19 19 19 19 21 19 21 19 19 21 -177 -193 -177 22 23 22 23 23 22 22 -193 -193 -193 -193 -177 275 275 273 275 21 19 19 20 20 19 19 20 20 18 20 20 21 19 21 20 22 21 22 21 21 20 21 20 20 20 21 20 21 22 22 23 23 23 23 21 22 21 21 20 21 22 23 22 22 24 22 22 23 23 23 23 25 25 25 28 28 29 29 29 29 28 29 29 29 31 29 34 31 33 34 35 35 35 35 37 37 39 39 39 40 40 40 41 41 41 42 42 43 44 45 45 45 45 44 44 45 45 43 43 43 43 44 44 48 48 51 51 51 52 52 52 52 55 54 54 56 57 57 58 59 59 58 60 61 60 60 65 64 62 64 63 63 63 65 66 65 69 68 67 68 68 68 66 65 65 60 58 62 63 61 62 0 0 0 0 0
    0 0 0 0 0 0 0 0 0 0 0 0 0 0 0 0 0 0 0 0 0 0 0 0 0 0 0 0 0 0 0 0 0 0 0 0 0 0 0 0 0 0 0 0 0 0 0 0 0 0 0 0 0 0 0 0 0 0 0 0 0 0 0 0 0 0 0 0 0 16 15 17 17 17 16 16 16 16 15 18 14 16 16 16 15 16 17 16 16 18 16 17 18 18 18 18 19 18 19 19 17 18 18 19 17 18 18 18 20 19 19 20 17 19 19 19 17 17 20 17 17 18 17 19 19 19 19 19 20 18 20 20 18 20 19 19 19 19 21 19 20 19 18 21 21 -177 -177 21 23 21 22 22 22 22 23 -193 -193 20 -193 -177 275 273 275 21 20 19 20 20 20 19 20 20 18 20 20 20 18 20 20 21 20 22 21 20 21 21 20 20 20 21 20 21 22 21 23 23 24 24 19 23 21 19 20 22 23 24 22 23 24 22 22 23 23 23 23 25 25 25 27 28 29 28 29 29 28 29 29 29 31 29 34 31 33 34 35 35 35 35 37 37 39 39 39 39 40 40 40 40 40 42 42 43 44 45 45 45 45 45 44 45 45 44 43 43 45 45 45 49 49 51 51 51 52 52 52 52 54 54 54 56 57 57 58 59 59 58 60 61 59 60 64 64 62 64 63 63 63 65 66 65 69 69 67 68 68 68 66 65 66 60 58 61 61 -193 60 0 0 0 0 0
    0 0 0 0 0 0 0 0 0 0 0 0 0 0 0 0 0 0 0 0 0 0 0 0 0 0 0 0 0 0 0 0 0 0 0 0 0 0 0 0 0 0 0 0 0 0 0 0 0 0 0 0 0 0 0 0 0 0 0 0 0 0 0 0 0 0 0 0 0 16 15 17 16 17 16 16 16 16 15 18 15 17 17 16 15 16 17 16 16 18 16 17 18 18 18 18 19 18 19 19 18 18 18 19 18 18 18 18 19 18 19 20 17 18 19 18 17 16 20 17 16 19 17 18 19 19 19 18 20 18 19 20 18 20 19 19 19 18 20 19 20 19 18 21 21 -177 21 21 23 21 22 22 22 22 22 -193 -193 20 -193 -177 276 273 -193 21 20 19 21 20 20 19 20 21 18 19 19 20 17 20 19 20 19 21 21 20 21 21 20 20 20 22 21 21 22 21 23 23 23 23 18 22 20 19 21 23 24 25 23 23 24 22 22 23 23 23 23 25 24 25 27 28 29 28 29 29 28 29 28 29 31 29 34 31 33 34 35 35 35 35 37 37 39 38 39 39 39 39 40 40 39 42 42 43 45 46 46 46 46 46 45 46 46 44 44 44 46 46 46 49 48 51 51 51 51 52 52 52 54 54 54 56 57 57 57 58 59 58 59 61 59 59 64 65 62 64 64 63 64 66 66 65 69 69 68 68 69 68 66 65 66 60 57 60 61 -193 60 0 0 0 0 0
    0 0 0 0 0 0 0 0 0 0 0 0 0 0 0 0 0 0 0 0 0 0 0 0 0 0 0 0 0 0 0 0 0 0 0 0 0 0 0 0 0 0 0 0 0 0 0 0 0 0 0 0 0 0 0 0 0 0 0 0 0 0 0 0 0 0 0 0 0 16 14 17 16 17 16 16 16 15 15 18 15 17 17 16 15 16 17 16 16 18 16 17 19 18 18 18 20 18 19 19 18 17 17 19 18 17 18 18 19 18 19 21 17 18 19 18 17 16 20 17 16 19 17 18 19 19 19 18 20 19 18 20 18 19 19 19 19 18 20 19 20 19 19 21 21 20 21 21 23 20 22 22 22 22 22 23 23 20 23 -177 -177 274 21 21 20 20 21 21 21 19 21 21 18 19 20 19 18 20 19 20 19 21 21 20 21 21 20 20 20 22 21 21 22 21 23 23 23 23 18 22 20 19 22 23 24 27 23 23 24 23 23 24 23 24 24 25 25 26 27 27 28 28 29 28 28 29 29 30 32 29 34 32 34 34 35 35 35 36 38 38 39 38 39 39 39 38 39 39 39 42 42 42 45 46 46 46 46 46 45 46 46 44 44 45 46 46 46 49 48 50 51 50 51 52 52 52 54 54 54 56 57 57 57 58 59 58 59 61 59 59 64 65 62 64 64 63 64 66 66 66 69 69 68 69 69 69 67 65 66 60 57 60 60 59 59 0 0 0 0 0
    0 0 0 0 0 0 0 0 0 0 0 0 0 0 0 0 0 0 0 0 0 0 0 0 0 0 0 0 0 0 0 0 0 0 0 0 0 0 0 0 0 0 0 0 0 0 0 0 0 0 0 0 0 0 0 0 0 0 0 0 0 0 0 0 0 0 0 0 0 16 14 16 16 16 16 16 16 15 16 18 15 18 17 17 16 16 17 15 16 18 16 18 19 18 18 18 20 18 19 19 19 17 18 19 18 17 18 18 19 17 20 21 17 18 20 18 17 16 20 17 15 19 17 18 18 18 18 17 20 18 18 20 18 19 19 19 19 17 20 19 20 19 19 21 21 21 20 20 22 20 21 22 21 21 21 -193 22 19 23 -193 -177 -193 21 22 21 20 22 21 21 20 21 22 18 19 20 19 18 20 19 20 19 21 22 20 22 21 20 21 21 22 21 21 22 20 22 22 22 22 17 22 20 17 23 23 26 30 24 23 24 23 23 24 24 24 24 25 25 26 26 27 28 28 28 28 29 30 29 31 32 30 34 32 34 34 35 35 36 36 38 38 39 38 39 39 39 38 38 38 38 42 42 42 45 46 46 46 47 46 45 46 46 44 45 45 47 46 46 49 48 50 50 50 51 52 52 52 54 54 54 56 57 57 57 59 59 58 60 61 59 59 64 65 62 64 64 63 64 66 66 66 69 70 68 69 69 69 67 65 66 60 57 59 59 59 59 0 0 0 0 0
    0 0 0 0 0 0 0 0 0 0 0 0 0 0 0 0 0 0 0 0 0 0 0 0 0 0 0 0 0 0 0 0 0 0 0 0 0 0 0 0 0 0 0 0 0 0 0 0 0 0 0 0 0 0 0 0 0 0 0 0 0 0 0 0 0 0 0 0 0 16 14 16 15 16 16 16 16 14 17 18 15 18 18 17 16 17 17 15 16 18 16 18 19 18 18 18 20 18 18 19 19 16 18 18 18 16 18 18 19 16 19 21 17 18 19 18 17 16 20 17 15 19 17 17 18 18 18 16 20 18 17 20 18 19 19 19 19 17 20 19 19 19 19 21 21 21 20 20 22 19 21 21 20 21 20 22 22 18 22 22 -193 21 21 22 22 21 23 22 22 20 22 22 19 19 20 19 19 20 20 20 19 22 22 20 22 21 20 21 21 22 21 20 22 20 22 21 22 21 16 21 19 15 23 22 29 34 24 23 24 23 23 24 24 24 24 25 25 26 26 27 27 27 28 28 29 30 29 31 32 30 34 32 34 34 35 35 36 37 38 38 39 38 39 39 38 38 38 38 38 42 42 42 46 46 47 46 47 47 46 46 46 45 46 46 47 45 46 49 47 50 50 49 51 52 52 52 54 54 54 57 58 57 57 59 59 59 60 61 59 60 64 66 62 64 64 63 63 66 66 66 -193 70 68 69 69 69 68 65 66 60 -193 59 59 58 58 0 0 0 0 0
    0 0 0 0 0 0 0 0 0 0 0 0 0 0 0 0 0 0 0 0 0 0 0 0 0 0 0 0 0 0 0 0 0 0 0 0 0 0 0 0 0 0 0 0 0 0 0 0 0 0 0 0 0 0 0 0 0 0 0 0 0 0 0 0 0 0 0 0 0 16 14 16 15 15 16 17 16 14 17 18 15 18 18 18 17 17 18 14 16 18 16 17 19 17 18 18 20 18 18 19 19 16 18 18 18 16 18 18 19 15 19 21 17 17 19 18 16 15 20 16 15 19 17 17 17 18 18 15 20 19 16 20 18 19 19 20 19 16 19 19 19 20 20 21 20 21 18 19 21 18 19 20 19 20 19 21 21 17 22 21 19 21 21 22 23 22 24 23 23 22 22 23 20 19 21 20 19 20 20 20 19 22 22 21 22 21 21 21 21 22 21 20 22 20 22 21 22 21 16 22 19 15 22 21 29 34 23 23 24 23 23 24 24 24 24 25 25 27 26 27 27 28 29 28 29 30 29 31 32 30 34 33 34 34 35 35 36 37 39 38 39 38 38 39 38 38 37 38 38 42 42 42 46 46 47 47 48 47 46 47 46 45 46 46 46 45 46 49 47 50 50 49 51 52 53 52 54 55 55 57 58 57 57 59 59 59 60 61 59 60 64 66 62 64 64 63 63 65 66 65 -193 70 68 69 69 69 68 65 66 61 57 60 59 58 59 0 0 0 0 0
    0 0 0 0 0 0 0 0 0 0 0 0 0 0 0 0 0 0 0 0 0 0 0 0 0 0 0 0 0 0 0 0 0 0 0 0 0 0 0 0 0 0 0 0 0 0 0 0 0 0 0 0 0 0 0 0 0 0 0 0 0 0 0 0 0 0 0 0 0 17 15 17 16 16 16 17 16 13 18 18 14 18 19 18 18 18 18 14 17 18 15 17 19 17 18 18 20 17 17 19 19 16 18 17 17 15 18 18 19 14 19 21 17 17 19 18 16 15 19 16 14 19 16 16 17 17 17 14 21 19 16 20 18 19 19 20 19 15 19 19 18 20 21 22 21 22 17 18 21 18 18 20 19 19 17 21 21 16 22 22 14 23 21 22 24 22 24 23 23 22 22 23 20 20 21 20 19 20 20 20 20 22 22 21 22 22 21 21 21 22 20 20 21 19 21 20 21 21 16 21 19 16 20 21 26 30 22 22 24 23 23 24 24 25 25 26 26 27 27 27 28 28 29 28 29 30 29 31 33 31 34 33 35 35 35 35 36 37 39 38 38 38 38 38 38 37 36 37 38 42 42 42 47 47 48 47 48 47 46 46 46 45 46 46 46 46 47 49 47 50 51 50 52 52 53 53 54 55 55 56 58 57 58 59 59 59 60 61 59 60 64 66 62 64 64 63 63 65 66 65 67 70 68 69 69 69 68 66 67 62 58 62 60 59 59 0 0 0 0 0
    0 0 0 0 0 0 0 0 0 0 0 0 0 0 0 0 0 0 0 0 0 0 0 0 0 0 0 0 0 0 0 0 0 0 0 0 0 0 0 0 0 0 0 0 0 0 0 0 0 0 0 0 0 0 0 0 0 0 0 0 0 0 0 0 0 0 0 0 0 17 15 17 16 15 16 16 16 13 17 17 14 18 20 19 19 18 19 13 17 18 16 17 19 17 18 18 20 17 17 19 19 15 18 17 17 15 18 18 18 14 20 21 18 17 19 18 16 16 20 16 15 19 16 16 16 17 17 14 20 18 15 20 17 18 18 19 18 14 18 18 16 21 22 22 21 22 17 18 21 18 18 20 18 18 16 20 20 14 21 20 10 24 18 21 23 22 23 23 23 21 21 22 20 20 21 20 19 20 21 20 20 21 22 21 22 22 21 21 22 21 20 20 21 20 21 20 21 20 17 21 19 18 22 22 26 29 22 22 24 24 24 25 25 25 25 26 26 27 27 27 27 27 28 28 29 30 29 31 33 31 34 33 35 35 35 35 36 37 39 38 38 38 38 38 38 37 35 37 38 42 42 42 47 47 48 47 48 47 46 46 46 45 46 46 47 46 48 49 48 51 51 50 51 52 53 52 54 55 55 56 58 57 58 59 59 59 60 61 59 60 64 66 62 64 64 63 63 65 65 65 67 70 68 69 69 69 68 66 67 62 60 63 61 61 60 0 0 0 0 0
    0 0 0 0 0 0 0 0 0 0 0 0 0 0 0 0 0 0 0 0 0 0 0 0 0 0 0 0 0 0 0 0 0 0 0 0 0 0 0 0 0 0 0 0 0 0 0 0 0 0 0 0 0 0 0 0 0 0 0 0 0 0 0 0 0 0 0 0 0 17 15 16 15 15 15 16 16 13 17 16 14 18 20 19 19 17 20 13 18 18 16 17 19 17 18 17 19 17 17 19 19 15 18 17 18 15 18 18 18 14 19 20 18 17 19 19 17 16 20 16 15 19 16 16 16 17 17 14 19 18 15 20 17 18 18 19 18 14 19 18 16 20 22 22 21 22 18 18 21 18 18 20 18 18 16 20 19 14 21 20 11 23 18 20 22 21 23 22 23 21 21 22 21 21 21 21 20 21 22 21 21 22 22 21 22 22 21 21 21 21 20 20 20 20 21 20 20 19 17 21 18 19 21 21 25 29 22 22 24 25 24 26 26 26 25 26 27 28 27 27 27 27 28 28 29 30 29 31 33 31 33 33 35 35 35 35 36 37 39 38 38 38 38 38 38 37 33 37 38 43 42 42 47 47 48 47 48 47 46 47 47 45 47 47 47 47 49 50 49 51 51 50 51 52 53 52 53 54 54 56 58 57 58 59 60 59 60 60 59 61 64 66 62 63 64 63 63 65 65 65 67 69 68 69 69 69 68 66 67 63 61 65 63 65 63 0 0 0 0 0
    0 0 0 0 0 0 0 0 0 0 0 0 0 0 0 0 0 0 0 0 0 0 0 0 0 0 0 0 0 0 0 0 0 0 0 0 0 0 0 0 0 0 0 0 0 0 0 0 0 0 0 0 0 0 0 0 0 0 0 0 0 0 0 0 0 0 0 0 0 17 15 16 15 14 14 15 15 13 16 16 14 17 19 19 20 17 20 14 18 19 16 17 19 17 18 17 19 17 16 18 19 16 18 17 17 15 18 18 18 14 19 20 19 18 20 20 17 17 20 17 16 19 16 16 15 17 17 14 19 18 15 19 18 18 18 19 18 16 20 19 18 21 22 22 21 23 18 18 21 18 18 20 18 18 16 19 19 14 21 20 12 22 21 20 22 22 22 22 22 21 21 22 21 22 21 22 21 22 22 22 22 22 21 22 21 22 21 20 21 20 19 19 19 19 19 19 18 17 16 20 17 20 21 21 25 29 23 22 24 26 25 27 26 26 26 27 28 29 27 28 27 28 29 29 30 30 30 32 33 31 33 33 35 35 35 35 36 38 39 38 38 38 38 38 38 37 32 37 39 43 42 43 47 47 48 47 48 47 46 47 47 46 47 48 47 47 49 50 49 51 51 50 51 52 53 52 53 54 54 56 58 57 58 59 60 60 60 60 59 61 64 66 62 63 64 63 63 64 64 64 66 69 68 68 69 69 68 66 66 63 62 65 63 65 65 0 0 0 0 0
    0 0 0 0 0 0 0 0 0 0 0 0 0 0 0 0 0 0 0 0 0 0 0 0 0 0 0 0 0 0 0 0 0 0 0 0 0 0 0 0 0 0 0 0 0 0 0 0 0 0 0 0 0 0 0 0 0 0 0 0 0 0 0 0 0 0 0 0 0 17 16 15 14 14 14 15 15 13 16 15 14 15 18 18 20 16 21 14 18 19 16 17 19 17 18 17 19 17 16 18 19 16 18 17 17 15 18 17 18 15 20 19 19 19 19 20 18 17 20 17 17 19 16 16 15 17 17 14 19 18 16 20 19 19 20 20 20 19 21 20 21 22 23 23 22 23 18 18 21 17 18 19 18 18 16 19 19 14 20 20 13 21 20 20 22 21 22 22 22 21 21 21 21 23 21 22 22 22 23 22 23 22 22 22 21 22 21 20 21 17 18 17 17 18 17 17 16 17 18 21 21 22 21 23 24 28 22 22 24 28 26 27 27 27 27 28 28 29 27 28 28 28 29 29 30 30 30 31 33 31 32 32 35 35 35 35 36 38 38 38 38 37 38 38 38 37 32 38 40 44 42 43 47 47 48 47 48 47 45 46 47 46 47 48 47 48 49 50 50 51 51 51 52 52 53 52 53 54 54 56 58 57 58 59 60 60 60 60 59 62 64 67 62 63 64 63 63 64 63 64 65 69 68 68 69 69 68 66 66 63 62 65 63 64 64 0 0 0 0 0
    0 0 0 0 0 0 0 0 0 0 0 0 0 0 0 0 0 0 0 0 0 0 0 0 0 0 0 0 0 0 0 0 0 0 0 0 0 0 0 0 0 0 0 0 0 0 0 0 0 0 0 0 0 0 0 0 0 0 0 0 0 0 0 0 0 0 0 0 0 16 17 14 15 14 14 14 14 14 16 15 14 14 16 17 20 16 21 15 18 19 17 17 19 17 18 16 19 17 16 18 19 16 18 18 17 16 18 18 18 15 20 18 18 20 19 21 18 18 20 17 17 19 16 17 15 17 17 14 19 18 16 20 19 20 20 20 20 21 21 21 22 22 22 23 22 23 19 18 21 17 18 19 18 18 16 18 19 14 20 20 15 21 20 21 21 21 21 21 21 21 21 20 21 22 21 22 22 22 23 22 23 22 22 22 22 22 22 20 22 19 20 19 20 20 19 19 18 19 20 21 21 21 20 21 22 24 21 21 23 27 25 27 27 27 27 28 29 29 27 28 28 28 30 29 30 30 29 30 33 30 32 32 35 35 35 35 37 38 38 38 38 37 38 38 38 38 32 38 40 43 42 43 46 46 47 46 47 47 45 46 47 46 47 48 47 48 49 50 50 51 51 51 52 52 53 52 53 54 54 56 57 57 58 58 60 60 60 60 59 62 64 67 62 63 65 63 63 64 63 64 64 69 67 68 69 70 68 67 67 64 62 65 64 64 65 0 0 0 0 0
    0 0 0 0 0 0 0 0 0 0 0 0 0 0 0 0 0 0 0 0 0 0 0 0 0 0 0 0 0 0 0 0 0 0 0 0 0 0 0 0 0 0 0 0 0 0 0 0 0 0 0 0 0 0 0 0 0 0 0 0 0 0 0 0 0 0 0 0 0 16 17 14 15 15 14 15 14 15 16 15 15 14 17 16 19 17 20 16 18 19 17 17 19 17 18 16 19 17 16 18 19 16 18 18 18 17 18 18 18 16 20 18 18 20 19 21 18 18 20 17 17 18 16 16 15 17 18 14 19 19 17 21 20 21 21 20 20 21 21 21 22 21 21 22 21 22 19 19 21 18 18 20 18 19 16 18 19 15 20 20 16 20 19 20 20 20 21 21 20 21 21 20 21 22 21 22 21 22 23 22 23 22 21 22 22 22 23 21 22 21 22 21 22 22 21 20 20 20 21 22 22 21 19 21 21 23 21 21 22 26 25 27 27 27 27 28 29 29 28 28 28 28 30 29 30 29 30 30 32 30 32 31 35 35 34 35 36 39 38 38 38 37 38 38 38 38 33 38 40 43 41 42 45 45 46 45 46 46 45 46 47 46 47 47 47 48 49 50 50 50 51 51 52 52 53 52 52 53 54 55 57 -193 57 58 59 60 60 60 59 62 64 67 63 63 65 63 63 64 63 64 63 68 67 67 68 69 68 66 66 63 62 66 64 64 65 0 0 0 0 0
    0 0 0 0 0 0 0 0 0 0 0 0 0 0 0 0 0 0 0 0 0 0 0 0 0 0 0 0 0 0 0 0 0 0 0 0 0 0 0 0 0 0 0 0 0 0 0 0 0 0 0 0 0 0 0 0 0 0 0 0 0 0 0 0 0 0 0 0 0 16 16 14 15 15 14 16 15 15 17 16 16 16 18 17 19 18 20 16 18 19 17 17 19 17 18 17 19 18 17 19 19 16 19 19 19 18 18 18 19 17 19 19 19 20 19 21 19 18 20 17 18 19 17 17 15 18 19 16 20 20 18 21 21 22 21 20 20 22 22 21 22 20 20 21 21 21 19 19 21 17 19 19 18 18 17 18 19 15 19 19 17 20 19 20 20 19 21 21 20 20 21 20 20 22 21 21 21 22 22 22 23 22 21 22 22 23 23 21 22 22 23 22 23 24 22 21 21 21 21 22 23 22 19 21 21 23 21 21 22 25 25 27 27 27 27 28 29 29 28 28 28 29 30 29 30 30 30 30 32 31 32 32 35 34 34 35 36 39 38 38 38 37 38 38 37 37 33 38 40 42 41 42 45 44 45 45 45 45 44 45 47 46 46 48 47 48 49 49 50 50 51 51 52 52 53 51 52 52 53 55 56 56 57 57 59 60 60 60 59 62 63 67 63 63 65 63 63 63 62 63 62 67 66 66 68 69 68 67 66 63 63 67 67 67 68 0 0 0 0 0
    0 0 0 0 0 0 0 0 0 0 0 0 0 0 0 0 0 0 0 0 0 0 0 0 0 0 0 0 0 0 0 0 0 0 0 0 0 0 0 0 0 0 0 0 0 0 0 0 0 0 0 0 0 0 0 0 0 0 0 0 0 0 0 0 0 0 0 0 0 16 16 14 16 15 15 16 16 15 18 17 16 16 19 17 18 19 20 17 19 20 18 17 19 17 18 17 19 18 18 19 19 17 19 20 20 19 19 18 19 18 19 19 19 19 20 21 19 18 20 18 18 19 17 17 16 18 19 18 20 20 19 22 21 22 21 21 20 22 22 21 22 20 19 21 20 21 19 19 21 18 19 19 18 19 17 17 19 15 19 18 18 19 19 20 20 19 21 21 19 20 21 20 20 22 21 21 21 22 22 21 23 22 21 23 23 23 23 21 22 22 23 23 23 24 23 22 22 22 22 23 23 22 20 21 21 23 21 21 22 25 26 28 27 27 27 28 30 29 28 29 28 29 30 30 31 30 31 30 33 31 32 32 36 34 34 35 36 38 37 37 38 36 38 38 37 37 34 39 40 43 42 42 45 44 44 44 45 45 44 45 46 45 46 48 47 48 49 49 50 50 51 51 51 51 53 51 51 52 52 54 56 55 56 56 59 60 59 60 59 62 63 67 63 63 64 63 63 63 62 63 61 65 65 65 68 69 68 67 67 63 64 67 68 -209 -209 0 0 0 0 0
    0 0 0 0 0 0 0 0 0 0 0 0 0 0 0 0 0 0 0 0 0 0 0 0 0 0 0 0 0 0 0 0 0 0 0 0 0 0 0 0 0 0 0 0 0 0 0 0 0 0 0 0 0 0 0 0 0 0 0 0 0 0 0 0 0 0 0 0 0 16 16 14 16 16 16 17 16 15 18 18 16 16 19 17 18 19 20 17 19 20 18 18 19 17 18 17 19 19 19 20 20 19 21 21 21 20 19 19 20 19 19 19 18 19 19 21 19 18 20 18 18 19 17 17 17 18 19 19 21 20 20 22 22 22 21 21 20 22 22 21 22 20 20 21 20 21 20 19 21 18 20 19 18 19 18 17 19 15 19 18 19 20 19 20 20 19 21 21 20 20 21 20 20 22 21 21 21 22 23 22 23 22 22 23 23 23 23 21 22 22 23 23 23 24 23 22 22 22 22 23 23 22 20 21 21 23 21 21 22 25 26 27 27 27 27 28 30 29 28 28 28 29 30 30 31 30 32 30 33 31 32 32 35 34 34 34 36 38 37 37 37 36 37 37 37 37 36 39 41 43 42 42 44 43 44 43 44 44 43 45 47 45 46 49 48 48 49 49 50 50 51 51 50 51 53 50 51 51 52 54 55 55 55 55 58 59 59 59 59 61 63 66 63 63 64 63 62 62 61 62 60 63 63 63 66 69 69 68 67 65 67 -193 -209 -209 -209 0 0 0 0 0
    0 0 0 0 0 0 0 0 0 0 0 0 0 0 0 0 0 0 0 0 0 0 0 0 0 0 0 0 0 0 0 0 0 0 0 0 0 0 0 0 0 0 0 0 0 0 0 0 0 0 0 0 0 0 0 0 0 0 0 0 0 0 0 0 0 0 0 0 0 16 16 14 17 16 16 17 16 15 17 18 16 16 19 17 18 19 20 18 18 20 18 18 19 18 18 18 20 19 19 21 20 20 21 22 22 20 19 19 20 19 19 19 18 18 19 20 19 18 20 18 18 19 17 18 18 19 20 20 21 21 21 22 22 22 21 21 20 22 22 21 22 20 20 20 20 20 20 19 21 17 20 19 18 19 18 17 19 16 19 19 20 20 19 21 20 19 21 21 20 20 21 20 20 22 21 21 21 23 23 23 24 23 23 24 24 24 24 21 22 22 23 22 22 24 22 22 23 23 22 23 -193 23 20 22 21 23 21 21 22 25 25 27 27 27 27 28 30 29 28 29 29 29 30 30 31 30 33 30 33 32 33 32 34 34 34 34 36 37 36 36 37 36 37 37 37 37 38 40 41 42 42 42 43 43 43 42 44 44 43 45 47 46 46 49 48 48 48 49 50 49 50 50 50 51 53 50 50 51 52 53 54 54 55 54 58 59 59 59 59 61 63 66 63 63 64 63 62 62 61 61 59 61 61 61 66 69 70 71 70 73 74 -209 -209 -209 -193 0 0 0 0 0
    0 0 0 0 0 0 0 0 0 0 0 0 0 0 0 0 0 0 0 0 0 0 0 0 0 0 0 0 0 0 0 0 0 0 0 0 0 0 0 0 0 0 0 0 0 0 0 0 0 0 0 0 0 0 0 0 0 0 0 0 0 0 0 0 0 0 0 0 0 16 16 14 17 16 16 17 16 15 17 18 16 16 19 17 18 19 19 18 18 20 18 18 19 17 19 18 20 20 20 21 20 21 22 22 22 20 19 19 20 18 18 19 18 18 19 20 19 18 20 18 18 20 18 19 19 20 21 21 22 22 22 -193 22 23 22 21 21 23 22 21 22 20 20 20 20 20 20 19 21 18 20 19 19 19 19 17 19 16 19 18 20 20 19 21 20 19 21 21 19 20 21 20 20 22 21 21 21 22 23 23 24 23 23 24 24 24 23 21 22 22 22 22 22 23 22 22 22 23 22 23 23 23 20 22 21 23 22 21 22 25 26 28 27 28 28 28 30 29 29 29 29 29 30 31 31 31 34 31 33 33 34 33 34 34 34 34 36 37 35 36 37 35 36 37 37 38 40 41 41 43 42 42 43 42 43 41 43 43 43 45 46 46 46 49 48 47 48 49 49 49 50 50 50 51 53 50 50 51 51 53 54 54 54 54 58 58 58 59 59 61 62 66 63 63 64 63 62 62 61 61 58 59 60 60 64 68 70 71 71 74 74 -209 83 -209 -193 0 0 0 0 0
    0 0 0 0 0 0 0 0 0 0 0 0 0 0 0 0 0 0 0 0 0 0 0 0 0 0 0 0 0 0 0 0 0 0 0 0 0 0 0 0 0 0 0 0 0 0 0 0 0 0 0 0 0 0 0 0 0 0 0 0 0 0 0 0 0 0 0 0 0 16 16 14 18 16 16 17 16 14 17 18 15 15 19 17 17 19 19 18 18 20 18 18 19 17 19 18 20 20 20 21 20 21 22 22 22 20 19 19 20 19 18 19 18 18 19 20 19 19 21 18 18 20 18 19 19 20 21 21 22 22 22 23 23 23 22 21 21 22 22 21 22 20 -193 20 20 20 20 20 21 18 21 19 19 19 19 17 19 16 19 18 20 20 19 21 20 19 21 21 19 19 21 20 20 22 21 21 21 22 23 23 23 22 23 24 24 23 23 21 21 21 22 22 22 23 22 22 22 23 22 23 23 22 20 22 21 23 22 22 23 26 26 28 27 28 28 28 30 29 29 29 29 30 30 31 31 31 34 31 33 33 34 33 34 34 34 33 36 36 35 35 37 35 37 38 38 38 41 41 42 42 42 42 43 42 42 41 43 43 43 45 46 46 46 49 48 47 48 48 48 49 49 50 49 51 53 50 50 51 51 53 54 54 54 53 57 58 58 59 59 60 61 65 63 63 64 63 62 62 61 61 58 59 59 60 64 67 69 70 71 74 74 76 83 87 86 0 0 0 0 0
    0 0 0 0 0 0 0 0 0 0 0 0 0 0 0 0 0 0 0 0 0 0 0 0 0 0 0 0 0 0 0 0 0 0 0 0 0 0 0 0 0 0 0 0 0 0 0 0 0 0 0 0 0 0 0 0 0 0 0 0 0 0 0 0 0 0 0 0 0 16 17 14 18 17 16 18 16 15 18 18 16 16 19 17 17 18 19 17 18 19 18 18 19 17 18 18 20 20 20 21 20 21 22 22 22 20 19 20 20 19 18 19 18 18 19 20 20 19 21 19 19 21 18 19 20 20 21 21 22 22 21 23 22 23 22 21 21 22 21 20 21 -193 -193 20 20 20 20 20 21 18 21 19 19 19 19 17 19 16 19 19 21 21 20 21 20 19 21 21 19 19 21 20 20 22 21 21 21 23 -193 23 24 23 24 25 25 25 24 22 22 22 23 22 22 23 22 22 23 23 -193 -193 -193 23 21 22 22 23 23 23 23 26 26 28 28 28 28 28 30 29 29 29 29 30 30 31 32 31 34 31 34 34 34 33 34 34 34 33 36 36 35 35 37 36 37 38 38 39 42 41 42 42 42 42 42 42 42 41 43 42 43 45 46 46 46 49 48 46 48 48 48 49 49 50 49 50 53 50 50 51 51 53 53 54 54 53 57 -193 58 58 59 60 61 64 62 62 63 62 62 61 60 60 58 58 58 58 61 64 68 71 73 76 77 79 83 86 85 0 0 0 0 0
    0 0 0 0 0 0 0 0 0 0 0 0 0 0 0 0 0 0 0 0 0 0 0 0 0 0 0 0 0 0 0 0 0 0 0 0 0 0 0 0 0 0 0 0 0 0 0 0 0 0 0 0 0 0 0 0 0 0 0 0 0 0 0 0 0 0 0 0 0 16 17 15 18 17 17 18 17 15 18 18 16 16 19 18 16 18 18 17 18 19 17 17 19 17 18 19 20 20 20 21 21 22 23 22 23 21 20 20 21 19 18 19 19 18 20 20 20 20 22 20 20 22 19 20 21 21 21 21 22 22 22 23 23 23 22 22 21 22 22 21 22 20 -193 20 20 20 21 20 22 18 21 19 19 20 20 17 20 17 20 19 22 21 21 22 21 20 21 21 19 19 21 21 20 22 21 21 22 23 -193 23 24 24 25 25 25 25 24 22 22 22 23 22 23 24 23 23 23 24 24 -193 25 24 22 23 23 24 24 24 24 26 27 28 28 28 28 28 30 29 29 30 29 30 30 31 32 31 35 31 34 34 35 34 34 34 34 33 36 36 35 35 37 36 36 38 38 40 42 41 42 42 42 42 42 42 42 41 43 42 43 45 45 46 45 49 48 46 48 48 48 49 49 50 49 50 52 50 50 51 50 53 53 54 54 53 57 -193 58 -193 59 59 61 63 62 61 63 62 61 60 60 60 58 58 57 57 59 61 66 70 73 -225 77 80 83 86 85 0 0 0 0 0
    0 0 0 0 0 0 0 0 0 0 0 0 0 0 0 0 0 0 0 0 0 0 0 0 0 0 0 0 0 0 0 0 0 0 0 0 0 0 0 0 0 0 0 0 0 0 0 0 0 0 0 0 0 0 0 0 0 0 0 0 0 0 0 0 0 0 0 0 0 16 17 15 18 17 17 18 17 15 18 18 16 16 19 18 16 18 18 17 18 20 17 18 19 17 18 19 20 20 20 21 21 22 23 23 23 21 20 21 21 20 19 20 19 19 21 21 21 21 23 21 21 22 21 22 22 21 22 22 23 23 22 23 23 23 22 22 21 23 22 21 22 21 20 21 21 21 21 20 22 18 21 19 19 20 19 18 20 18 20 20 23 23 22 23 22 21 22 22 20 20 21 21 21 22 22 22 22 23 25 23 25 24 25 25 25 25 23 21 22 21 22 21 22 24 22 23 24 24 24 24 25 24 23 24 24 25 25 25 25 27 27 28 28 29 28 28 30 29 29 30 30 30 30 32 32 31 35 32 34 34 35 34 34 34 35 34 35 35 34 35 37 36 36 38 38 40 42 41 42 43 42 42 42 42 42 41 43 42 43 45 45 47 45 49 47 46 48 48 48 49 49 50 49 50 52 50 50 51 50 53 53 54 54 53 57 -193 -193 -193 59 59 60 62 61 61 62 61 60 60 59 59 58 58 56 56 59 -193 -193 -193 -193 -225 77 79 82 85 85 0 0 0 0 0
    0 0 0 0 0 0 0 0 0 0 0 0 0 0 0 0 0 0 0 0 0 0 0 0 0 0 0 0 0 0 0 0 0 0 0 0 0 0 0 0 0 0 0 0 0 0 0 0 0 0 0 0 0 0 0 0 0 0 0 0 0 0 0 0 0 0 0 0 0 17 17 15 19 17 17 18 17 15 18 18 16 16 19 18 16 18 18 17 18 20 18 18 19 17 19 20 21 21 20 21 21 23 23 23 23 21 21 21 22 20 19 21 20 20 -193 22 22 22 23 22 22 23 21 22 22 21 22 22 23 -193 23 24 23 23 23 22 22 23 22 22 23 21 -193 21 21 21 21 21 22 19 21 19 19 20 20 18 21 19 21 22 25 24 24 24 23 23 23 23 21 20 21 21 21 22 22 22 22 24 25 24 25 24 25 24 24 24 23 20 21 20 22 21 22 23 22 23 24 25 25 25 26 25 25 26 25 26 26 26 26 28 28 28 28 29 29 29 30 30 30 31 31 31 31 32 32 31 35 32 34 34 35 34 34 35 35 33 36 36 35 35 37 36 36 38 39 40 42 41 42 43 42 42 42 42 42 41 43 42 44 45 45 47 45 49 47 46 48 47 48 50 49 51 49 50 53 50 50 52 50 53 53 54 54 53 57 -177 -193 -193 59 59 59 61 61 60 61 60 59 59 59 59 58 58 57 57 -193 -209 -193 -193 -225 -225 78 81 83 85 85 0 0 0 0 0
    0 0 0 0 0 0 0 0 0 0 0 0 0 0 0 0 0 0 0 0 0 0 0 0 0 0 0 0 0 0 0 0 0 0 0 0 0 0 0 0 0 0 0 0 0 0 0 0 0 0 0 0 0 0 0 0 0 0 0 0 0 0 0 0 0 0 0 0 0 17 17 15 19 18 17 18 17 15 18 18 16 16 19 18 16 18 18 17 18 20 18 18 20 18 19 20 21 21 21 22 22 23 24 24 24 21 22 22 22 21 20 21 20 -193 -193 -193 23 -193 24 -193 -193 24 22 23 22 21 22 22 23 -193 23 24 24 24 23 23 22 23 22 22 23 22 22 21 22 22 22 22 23 20 22 19 20 21 21 20 21 20 23 24 26 26 26 25 24 24 24 23 22 20 21 21 21 22 22 22 23 24 26 25 26 25 25 25 25 24 23 20 21 20 21 20 21 22 21 23 24 25 25 26 27 27 27 27 27 28 28 27 27 29 28 28 29 29 29 29 30 30 30 32 31 31 31 32 31 32 35 31 33 34 35 34 34 35 35 33 36 36 35 36 37 36 37 39 39 40 41 41 41 43 42 42 42 42 42 41 43 43 44 45 46 48 45 49 47 46 48 47 48 50 48 51 49 50 53 50 51 52 50 53 53 54 54 54 58 -177 -193 -193 59 59 59 60 60 59 60 60 58 58 59 59 58 59 59 -193 -193 -193 -177 -193 -225 -225 78 81 82 -193 84 0 0 0 0 0
    0 0 0 0 0 0 0 0 0 0 0 0 0 0 0 0 0 0 0 0 0 0 0 0 0 0 0 0 0 0 0 0 0 0 0 0 0 0 0 0 0 0 0 0 0 0 0 0 0 0 0 0 0 0 0 0 0 0 0 0 0 0 0 0 0 0 0 0 0 18 18 16 20 18 17 19 17 15 18 18 16 16 18 18 16 18 18 18 19 20 19 19 20 19 20 21 22 22 22 23 23 23 24 24 24 22 22 22 22 22 21 22 21 -193 -209 -193 -193 25 25 -193 -193 -193 24 24 24 23 23 -193 25 25 23 25 25 24 24 24 23 23 22 22 23 22 23 22 22 23 23 23 23 21 22 20 21 22 21 21 22 22 25 25 28 27 27 27 26 25 25 24 22 21 21 22 21 23 22 24 24 25 27 26 27 26 25 25 25 25 24 21 22 20 21 21 22 22 22 24 24 27 26 28 29 29 29 29 29 30 32 30 29 30 29 29 30 30 31 30 31 31 32 33 32 32 32 32 31 32 35 31 33 35 35 34 34 35 35 34 37 36 35 36 37 37 37 38 39 39 41 40 41 42 42 42 42 42 42 42 43 43 45 45 46 48 45 48 47 46 48 47 48 50 48 51 49 50 53 51 51 52 50 53 53 55 55 54 58 -193 539 -193 59 59 59 60 60 59 60 59 58 58 60 59 58 60 58 -193 -193 -193 -193 -193 -225 -225 74 75 77 -193 -193 0 0 0 0 0
    0 0 0 0 0 0 0 0 0 0 0 0 0 0 0 0 0 0 0 0 0 0 0 0 0 0 0 0 0 0 0 0 0 0 0 0 0 0 0 0 0 0 0 0 0 0 0 0 0 0 0 0 0 0 0 0 0 0 0 0 0 0 0 0 0 0 0 0 0 19 20 18 21 20 18 20 17 16 18 18 16 16 18 18 16 18 19 18 20 21 20 20 22 20 22 22 23 -193 23 24 24 24 25 25 24 23 23 23 23 23 23 24 23 -209 26 27 27 27 27 26 26 27 25 25 25 24 24 -193 26 27 24 26 26 25 24 24 24 23 21 22 23 23 24 23 23 24 24 25 25 23 23 22 23 23 23 23 24 -193 27 28 30 30 29 29 28 28 26 25 24 23 23 23 23 25 24 26 26 26 28 27 27 27 26 26 25 25 25 23 23 22 23 23 24 24 24 27 27 30 29 31 30 31 31 31 31 32 33 32 31 32 30 30 32 32 32 30 31 32 33 35 34 33 32 32 32 33 36 32 33 35 36 35 36 36 36 36 38 37 37 37 38 37 37 38 38 39 40 40 40 43 42 42 42 43 42 42 44 44 45 45 46 48 45 48 47 46 47 47 48 50 48 51 49 50 53 51 51 52 50 53 53 55 55 55 58 -193 539 -193 59 59 59 60 60 58 59 59 57 59 59 59 58 60 58 55 -193 -193 -193 -193 -225 -225 70 73 76 -209 -209 0 0 0 0 0
    0 0 0 0 0 0 0 0 0 0 0 0 0 0 0 0 0 0 0 0 0 0 0 0 0 0 0 0 0 0 0 0 0 0 0 0 0 0 0 0 0 0 0 0 0 0 0 0 0 0 0 0 0 0 0 0 0 0 0 0 0 0 0 0 0 0 0 0 0 21 21 21 23 22 20 21 19 18 18 17 16 16 17 17 16 18 19 19 21 22 21 22 23 22 23 23 -209 -193 24 25 25 24 26 26 25 24 24 25 25 25 26 26 26 29 30 30 31 30 29 28 27 28 26 25 25 23 23 23 26 27 24 27 27 26 27 26 25 23 21 22 24 24 25 25 24 25 25 25 25 24 24 23 23 24 24 26 28 29 30 33 34 34 34 33 33 32 31 29 28 26 27 27 27 27 26 28 28 29 32 30 31 30 28 28 28 29 27 25 26 -193 26 29 28 28 28 31 31 34 32 33 32 34 33 32 31 32 33 33 32 32 31 30 33 34 34 29 32 33 36 37 36 35 33 32 34 34 36 34 34 36 38 38 39 39 40 40 40 40 40 39 39 38 38 38 38 39 39 39 40 42 42 42 42 43 42 43 44 44 45 45 46 48 45 48 47 46 47 47 48 50 48 51 50 50 53 51 51 52 50 53 53 56 56 56 59 -193 -193 -193 60 59 59 60 60 58 59 59 58 59 60 59 57 60 58 56 57 -193 -193 -193 -225 -225 -209 73 77 -209 -209 0 0 0 0 0
    0 0 0 0 0 0 0 0 0 0 0 0 0 0 0 0 0 0 0 0 0 0 0 0 0 0 0 0 0 0 0 0 0 0 0 0 0 0 0 0 0 0 0 0 0 0 0 0 0 0 0 0 0 0 0 0 0 0 0 0 0 0 0 0 0 0 0 0 0 23 24 25 25 26 23 23 21 -193 17 17 17 18 16 17 15 19 20 22 23 24 23 24 26 25 25 25 26 26 26 27 28 26 27 27 27 27 27 27 27 28 29 29 29 33 33 33 34 32 30 30 29 30 28 27 27 26 26 27 29 34 32 33 36 36 36 36 35 25 22 23 27 28 27 26 25 26 26 27 27 26 26 26 26 27 28 30 34 36 35 36 36 36 35 36 35 35 34 34 34 31 -193 34 33 30 29 29 30 32 35 34 35 34 32 33 35 35 32 30 30 30 30 35 33 32 32 34 33 35 33 34 33 34 33 32 32 33 33 33 32 31 31 31 34 36 35 30 33 36 39 40 38 38 34 33 36 37 39 -193 -193 -193 -193 -193 -193 -209 -193 53 46 44 42 40 39 39 38 38 38 39 39 38 39 42 42 42 42 43 43 44 45 44 45 45 46 48 45 47 47 46 47 47 48 50 48 51 50 50 53 51 51 52 50 54 53 56 56 -193 59 -193 -193 -193 60 59 59 60 60 58 59 59 58 59 60 59 58 61 61 -193 59 -209 0 -193 0 -225 -193 -209 -209 -209 -209 0 0 0 0 0
    0 0 0 0 0 0 0 0 0 0 0 0 0 0 0 0 0 0 0 0 0 0 0 0 0 0 0 0 0 0 0 0 0 0 0 0 0 0 0 0 0 0 0 0 0 0 0 0 0 0 0 0 0 0 0 0 0 0 0 0 0 0 0 0 0 0 0 0 0 24 27 29 28 31 26 -193 -209 -193 18 17 20 21 18 19 21 24 27 28 29 29 29 28 30 29 29 28 29 28 28 29 30 28 29 29 28 28 29 29 29 31 32 32 32 35 35 35 36 34 32 32 31 33 30 29 29 27 28 31 31 35 35 32 34 35 36 37 36 26 22 24 28 30 29 27 26 28 28 29 29 29 29 29 29 31 32 35 37 38 37 37 38 37 36 37 36 36 35 35 35 35 36 36 35 33 33 32 33 35 35 36 36 34 32 32 36 36 31 30 28 30 30 35 32 30 30 32 31 33 32 33 32 34 32 32 31 33 32 33 32 31 30 31 34 36 35 31 34 37 40 41 40 40 36 36 39 40 41 -193 -209 -193 -193 -193 -209 -209 -193 52 44 43 43 40 39 38 38 37 38 38 38 38 39 42 42 42 43 43 43 44 45 45 45 45 46 48 45 47 47 46 47 46 47 50 48 51 50 50 53 51 51 52 50 54 54 57 57 -193 60 60 60 61 60 59 59 60 60 58 59 59 58 59 60 59 58 63 64 63 65 -193 -193 -193 0 0 0 -193 -209 -209 -209 0 0 0 0 0
    0 0 0 0 0 0 0 0 0 0 0 0 0 0 0 0 0 0 0 0 0 0 0 0 0 0 0 0 0 0 0 0 0 0 0 0 0 0 0 0 0 0 0 0 0 0 0 0 0 0 0 0 0 0 0 0 0 0 0 0 0 0 0 0 0 0 0 0 0 28 30 33 32 35 29 -209 -209 -193 -209 -209 -209 22 19 20 24 25 29 31 33 32 33 32 35 32 33 32 31 31 31 33 32 30 31 30 29 30 30 30 29 32 31 32 31 34 36 35 36 35 34 34 33 35 33 30 30 28 29 33 34 36 35 33 33 35 36 37 32 25 22 24 28 31 29 28 26 -193 -193 30 30 31 30 31 31 34 35 38 39 40 40 39 39 38 37 37 37 36 36 35 35 35 35 36 35 33 33 32 33 35 34 37 35 32 30 31 35 35 29 29 26 28 29 34 30 27 28 30 30 32 31 32 32 33 32 33 32 34 33 33 32 31 31 32 34 35 33 30 34 36 38 40 39 40 36 37 41 42 42 -193 -209 -193 -193 -193 -209 -209 -193 51 42 42 42 39 39 38 38 37 38 38 38 37 39 42 42 42 43 44 44 44 45 45 45 45 46 48 45 47 47 46 47 46 47 50 48 51 50 50 53 51 51 52 50 54 54 57 57 -193 60 61 61 62 60 60 59 60 60 58 58 59 58 59 61 59 58 62 64 64 65 65 -193 -193 -193 0 0 -209 -209 -209 -209 0 0 0 0 0
    0 0 0 0 0 0 0 0 0 0 0 0 0 0 0 0 0 0 0 0 0 0 0 0 0 0 0 0 0 0 0 0 0 0 0 0 0 0 0 0 0 0 0 0 0 0 0 0 0 0 0 0 0 0 0 0 0 0 0 0 0 0 0 0 0 0 0 0 0 28 30 32 31 32 29 33 -209 -209 -209 -209 -209 21 19 20 -209 24 28 30 32 31 32 32 34 32 34 32 32 31 33 34 33 31 32 31 31 32 31 31 30 32 31 32 31 33 35 33 34 33 30 30 29 31 30 27 28 27 28 32 -193 34 33 31 31 33 34 36 30 26 22 24 29 34 31 29 -193 -193 31 31 31 33 31 32 32 35 36 39 -193 -193 43 41 42 39 38 38 38 36 36 36 36 36 36 37 36 35 35 34 34 35 35 37 36 33 32 32 35 35 30 29 27 28 28 31 29 27 28 30 31 33 33 33 34 35 33 34 34 35 34 34 34 33 32 35 35 37 34 33 37 36 38 39 37 39 34 36 -193 -193 -193 -193 -209 -193 -193 45 -209 -209 53 52 41 42 41 39 39 38 38 37 37 37 38 37 39 42 42 42 43 44 44 45 45 45 45 45 46 48 45 47 47 46 47 46 47 50 47 51 50 50 53 51 51 52 50 55 54 58 57 57 60 61 61 62 60 60 59 61 60 58 58 59 58 59 61 59 57 60 61 61 61 62 -193 -193 -193 0 0 -209 -209 -209 -209 0 0 0 0 0
    0 0 0 0 0 0 0 0 0 0 0 0 0 0 0 0 0 0 0 0 0 0 0 0 0 0 0 0 0 0 0 0 0 0 0 0 0 0 0 0 0 0 0 0 0 0 0 0 0 0 0 0 0 0 0 0 0 0 0 0 0 0 0 0 0 0 0 0 0 26 29 29 30 31 29 32 -209 -209 -209 -209 -209 -209 -209 -193 -209 26 31 32 33 31 31 32 34 32 33 32 31 30 32 35 32 31 32 31 32 33 32 32 31 34 33 34 32 33 34 32 32 30 28 28 27 29 29 27 28 27 28 31 32 33 30 30 30 33 33 36 31 27 24 29 31 36 34 32 30 32 33 33 33 34 32 33 34 35 37 -193 -193 -193 44 43 43 40 39 39 38 37 37 37 37 37 38 38 37 36 36 36 36 36 35 37 36 34 34 33 34 33 31 31 28 28 27 29 27 27 28 30 31 34 34 35 35 36 34 35 35 36 35 34 35 34 33 37 37 38 36 35 40 36 38 39 36 37 31 36 -193 -193 -193 -193 -209 45 47 48 52 -209 -209 55 42 42 41 39 39 38 38 37 37 37 38 36 39 42 43 42 43 45 45 45 46 46 45 45 46 48 45 46 47 46 46 46 47 49 47 51 49 49 53 51 51 52 50 55 54 58 57 57 60 61 61 61 60 60 59 61 61 58 59 59 58 59 60 58 56 57 58 58 58 59 59 -193 -193 0 0 -209 -209 -209 -209 0 0 0 0 0
    0 0 0 0 0 0 0 0 0 0 0 0 0 0 0 0 0 0 0 0 0 0 0 0 0 0 0 0 0 0 0 0 0 0 0 0 0 0 0 0 0 0 0 0 0 0 0 0 0 0 0 0 0 0 0 0 0 0 0 0 0 0 0 0 0 0 0 0 0 26 29 29 29 31 29 31 -193 -209 -209 -209 -209 -209 -209 -209 -209 28 31 34 33 31 31 31 33 31 32 30 29 28 30 35 31 31 32 32 32 34 33 33 32 35 34 35 32 33 33 31 31 29 -193 28 27 29 29 28 29 28 29 30 31 32 30 30 29 33 34 37 33 29 29 33 33 37 35 34 32 -193 -193 35 35 36 34 35 35 37 39 42 -193 -193 45 43 42 40 38 38 38 37 37 37 37 37 37 38 38 37 37 37 37 36 35 37 35 32 34 33 33 32 32 32 29 29 29 29 27 28 28 30 32 33 34 35 35 36 34 35 35 37 36 35 35 34 33 37 37 37 35 34 38 35 37 38 35 36 31 35 41 42 43 44 43 46 47 47 51 53 53 55 42 41 41 38 38 38 38 37 37 37 37 36 39 43 43 42 43 45 45 45 46 46 45 45 46 48 45 46 47 46 46 46 47 49 47 51 49 49 52 51 50 52 50 55 55 58 57 57 60 60 60 61 60 59 59 60 60 58 58 59 58 59 60 57 54 52 54 55 55 57 57 57 -193 -193 -193 -209 -209 -209 -209 0 0 0 0 0
    0 0 0 0 0 0 0 0 0 0 0 0 0 0 0 0 0 0 0 0 0 0 0 0 0 0 0 0 0 0 0 0 0 0 0 0 0 0 0 0 0 0 0 0 0 0 0 0 0 0 0 0 0 0 0 0 0 0 0 0 0 0 0 0 0 0 0 0 0 25 28 28 29 30 29 30 -193 -209 -209 -209 -209 -209 -209 -209 40 26 31 34 34 -193 30 32 33 31 31 29 28 27 29 34 30 31 33 33 34 34 34 34 34 36 34 35 31 31 32 30 -193 -193 -193 -193 28 -193 29 28 29 28 29 30 32 32 30 30 30 35 35 38 33 30 32 35 35 37 36 36 -193 -193 -193 36 36 37 36 36 36 37 39 41 44 -193 44 42 -193 39 38 37 37 36 36 36 37 37 36 38 38 37 37 38 38 37 36 -193 37 33 35 34 33 32 31 31 29 28 28 28 27 28 28 31 32 33 34 35 36 36 34 35 36 37 36 35 36 35 33 36 36 36 33 32 35 32 37 39 36 37 31 36 41 42 42 43 42 44 44 45 -193 -209 -209 -193 41 41 40 38 38 38 38 37 37 37 37 36 39 43 43 42 43 45 45 45 46 46 45 45 46 48 45 47 47 46 47 46 47 49 47 51 49 49 52 51 50 52 50 55 55 58 57 57 60 60 60 61 60 59 59 60 60 58 58 59 58 58 59 57 55 52 55 55 55 58 57 58 -193 -193 -193 0 0 -193 -209 0 0 0 0 0
    0 0 0 0 0 0 0 0 0 0 0 0 0 0 0 0 0 0 0 0 0 0 0 0 0 0 0 0 0 0 0 0 0 0 0 0 0 0 0 0 0 0 0 0 0 0 0 0 0 0 0 0 0 0 0 0 0 0 0 0 0 0 0 0 0 0 0 0 0 24 26 26 29 30 30 -193 -209 -209 -209 -209 -209 -209 -193 25 30 26 29 33 34 -209 30 33 -209 -209 -209 -209 -209 -209 29 -193 30 31 32 33 33 33 34 33 33 34 33 34 30 31 -193 30 -193 -209 -209 -193 -193 -209 30 29 30 29 31 32 33 33 31 31 31 35 36 38 34 31 34 36 36 37 37 36 35 37 -193 37 37 37 37 36 35 37 37 39 -209 -209 42 40 39 38 36 36 36 34 35 35 36 37 36 37 37 38 38 39 39 38 38 -193 -193 38 37 37 32 32 30 31 29 28 28 27 26 29 28 31 33 34 34 36 36 36 34 36 37 37 36 35 35 34 33 35 34 32 30 -193 30 31 36 39 37 38 33 38 41 42 43 43 42 44 43 -193 -209 -209 -209 -193 41 41 41 38 38 38 38 37 37 37 37 36 39 42 42 42 43 44 45 45 46 46 45 45 46 48 44 46 47 46 46 46 47 49 47 50 49 48 52 51 50 52 50 56 56 59 58 58 61 60 60 61 59 59 58 60 60 58 58 58 58 58 59 58 56 51 -193 -193 56 58 -193 -193 -193 -209 -209 0 0 -193 -209 0 0 0 0 0
    0 0 0 0 0 0 0 0 0 0 0 0 0 0 0 0 0 0 0 0 0 0 0 0 0 0 0 0 0 0 0 0 0 0 0 0 0 0 0 0 0 0 0 0 0 0 0 0 0 0 0 0 0 0 0 0 0 0 0 0 0 0 0 0 0 0 0 0 0 25 -209 -193 -193 -193 -209 -209 -209 -209 -209 -193 33 27 27 28 30 27 29 32 33 -209 -209 -209 -209 -209 -209 -209 -209 -209 -193 -193 31 32 33 33 33 33 33 31 -193 33 32 32 30 -193 -193 -193 -209 -209 -209 -193 29 -209 30 30 30 29 31 32 33 33 32 32 32 36 36 38 35 33 36 37 37 38 38 38 37 38 -193 38 38 37 37 37 36 38 38 37 -209 -209 -193 39 36 37 34 34 34 33 34 34 34 36 35 37 37 37 38 39 40 39 40 -193 41 -193 38 37 28 28 27 28 27 25 27 26 26 31 29 33 34 36 36 37 37 36 35 36 38 38 36 35 35 34 34 35 34 31 30 30 30 30 37 40 36 37 33 38 41 42 43 42 40 43 -193 -209 -209 -209 -209 -209 41 42 41 37 38 38 38 37 37 37 37 36 39 42 42 41 42 44 44 45 45 45 45 44 45 48 44 46 47 46 46 46 47 49 46 50 49 48 52 51 50 52 50 57 57 60 57 58 61 60 60 61 59 58 58 59 59 57 57 58 57 58 59 57 56 48 51 46 -193 -209 -209 -209 -209 -209 -193 0 0 -193 -193 0 0 0 0 0
    0 0 0 0 0 0 0 0 0 0 0 0 0 0 0 0 0 0 0 0 0 0 0 0 0 0 0 0 0 0 0 0 0 0 0 0 0 0 0 0 0 0 0 0 0 0 0 0 0 0 0 0 0 0 0 0 0 0 0 0 0 0 0 0 0 0 0 0 0 -193 -209 -193 -193 -193 -209 -209 -193 -209 -193 35 36 28 29 30 32 28 29 31 32 -193 -209 -209 -209 -209 -209 -209 -209 -209 -209 -193 31 33 33 34 33 32 32 31 -193 33 32 30 -193 -193 -193 -209 -209 -193 -193 30 29 30 30 31 31 29 30 31 32 33 32 32 31 36 36 38 35 35 36 37 37 37 38 38 38 38 -193 39 38 37 38 38 36 38 38 36 -193 38 -193 38 34 35 32 32 33 31 34 33 34 35 34 36 37 37 37 38 40 39 40 41 41 -193 38 40 29 27 27 29 28 27 28 27 29 35 32 35 35 37 37 38 36 35 35 37 39 39 37 36 36 36 35 36 34 31 30 -193 31 31 39 41 37 38 37 41 41 42 43 41 39 43 42 -209 -209 -209 -209 -209 42 42 41 38 38 38 38 37 37 37 37 35 39 41 41 41 42 44 44 45 45 45 45 44 45 48 44 46 47 46 46 46 47 49 46 50 49 48 52 51 51 52 51 57 58 59 57 57 61 60 60 60 59 58 58 59 59 57 57 58 57 58 58 57 52 44 -193 40 35 -193 -209 -209 -209 -209 -193 0 0 0 -193 0 0 0 0 0
    0 0 0 0 0 0 0 0 0 0 0 0 0 0 0 0 0 0 0 0 0 0 0 0 0 0 0 0 0 0 0 0 0 0 0 0 0 0 0 0 0 0 0 0 0 0 0 0 0 0 0 0 0 0 0 0 0 0 0 0 0 0 0 0 0 0 0 0 0 -209 -193 -193 -193 -193 -193 36 38 -193 39 36 38 29 30 31 32 28 27 30 30 -193 -193 -209 -209 -209 -209 -209 -209 -209 -209 -209 -193 32 33 33 34 32 33 32 -193 34 34 33 -193 732 732 -193 -209 -193 -193 30 30 31 32 33 32 32 32 33 33 34 34 34 32 37 37 39 37 36 37 37 37 37 38 38 38 38 38 38 36 36 -193 29 30 31 30 30 -209 35 -193 34 31 32 30 30 30 30 34 32 33 35 35 37 37 37 37 39 41 39 40 41 40 -193 39 39 29 27 28 30 30 29 29 28 31 37 33 36 36 37 37 38 36 35 34 37 39 39 37 36 36 37 36 36 35 31 31 30 32 32 39 41 38 39 39 42 43 43 44 41 40 43 42 -193 -209 -209 -209 -209 43 42 42 38 39 39 39 38 37 37 37 35 38 41 41 41 41 44 44 45 45 45 45 44 46 49 44 46 47 46 46 46 47 49 46 50 49 49 53 52 51 52 51 55 56 58 56 56 60 60 59 60 59 58 58 59 59 57 57 58 58 57 58 56 50 44 40 41 35 -193 -209 -209 -209 -209 -193 0 0 -193 -209 0 0 0 0 0
    0 0 0 0 0 0 0 0 0 0 0 0 0 0 0 0 0 0 0 0 0 0 0 0 0 0 0 0 0 0 0 0 0 0 0 0 0 0 0 0 0 0 0 0 0 0 0 0 0 0 0 0 0 0 0 0 0 0 0 0 0 0 0 0 0 0 0 0 0 -209 -209 -209 -193 -209 -193 -193 -193 -193 -193 34 35 29 30 31 32 30 28 32 32 31 29 31 -209 -209 -209 -209 -209 -209 -193 -209 -193 -193 31 32 33 32 33 32 34 35 36 36 -193 -193 -193 -193 -209 32 32 31 31 32 33 34 34 33 33 34 35 35 35 35 33 38 38 38 37 36 37 37 37 37 37 38 37 36 37 36 34 33 -193 28 29 28 28 29 30 32 34 33 30 31 30 29 29 29 33 32 32 34 35 37 38 38 37 39 41 39 39 39 37 35 37 35 29 27 28 30 30 30 29 28 31 35 32 35 35 37 37 37 35 35 33 37 38 37 36 35 35 37 36 36 34 31 31 29 30 31 37 39 38 38 39 42 42 42 43 40 40 42 42 -193 -209 -209 -209 -209 43 43 42 39 40 39 39 39 37 37 37 36 38 40 41 41 41 44 45 45 45 45 44 44 46 48 44 46 47 46 46 46 47 48 46 50 49 48 53 52 52 52 51 54 56 57 55 56 59 59 58 59 59 58 58 59 59 57 57 58 58 57 57 54 47 43 40 41 34 -193 -209 -193 -209 -209 -193 -193 -209 -209 -209 0 0 0 0 0
    0 0 0 0 0 0 0 0 0 0 0 0 0 0 0 0 0 0 0 0 0 0 0 0 0 0 0 0 0 0 0 0 0 0 0 0 0 0 0 0 0 0 0 0 0 0 0 0 0 0 0 0 0 0 0 0 0 0 0 0 0 0 0 0 0 0 0 0 0 -193 -209 -209 -193 -209 -209 -209 -193 -193 -193 34 33 31 31 33 33 32 31 34 34 34 31 33 -193 -209 -209 -209 -209 -193 31 -193 -193 -193 29 31 31 30 31 30 34 35 36 36 36 -193 -193 32 33 33 33 32 32 33 34 34 34 33 33 33 34 34 35 35 33 39 38 39 37 36 37 36 35 35 36 36 36 35 36 34 34 32 -193 -193 28 28 29 28 29 30 32 33 29 32 30 29 30 30 34 32 32 34 35 36 37 37 37 38 40 39 38 38 36 34 36 35 30 27 29 31 31 31 31 30 32 35 33 36 36 37 38 37 35 35 34 37 36 36 35 34 35 36 35 35 32 30 31 29 30 31 37 39 38 39 40 41 41 42 43 38 38 -193 -193 -209 -209 -209 -209 -209 43 42 41 40 40 39 39 39 37 37 37 36 37 40 40 41 41 44 45 45 45 45 44 44 46 48 45 46 47 46 47 46 48 49 47 50 49 49 53 52 51 52 50 53 56 56 55 56 59 58 58 58 59 58 58 59 59 57 57 58 57 57 57 54 46 42 38 -193 31 -193 -193 -193 -209 -209 -209 -209 -209 -209 -209 0 0 0 0 0
    0 0 0 0 0 0 0 0 0 0 0 0 0 0 0 0 0 0 0 0 0 0 0 0 0 0 0 0 0 0 0 0 0 0 0 0 0 0 0 0 0 0 0 0 0 0 0 0 0 0 0 0 0 0 0 0 0 0 0 0 0 0 0 0 0 0 0 0 0 -209 -209 -209 -209 -209 -209 -209 -209 -193 -193 32 31 31 31 34 34 35 34 35 36 36 34 35 -193 -209 -193 33 30 30 32 31 31 32 30 32 33 31 32 31 35 34 35 35 35 34 35 34 34 35 35 34 34 34 35 35 34 33 32 32 32 33 34 33 31 37 37 38 37 36 37 35 35 34 35 36 35 35 35 34 34 32 -193 -193 28 29 30 29 29 31 32 34 30 34 32 32 33 32 35 32 32 34 34 35 36 36 36 36 40 39 38 38 37 37 38 38 34 30 31 36 35 35 34 33 35 36 35 37 36 37 38 36 35 34 34 36 36 35 35 33 35 36 35 35 31 30 31 29 30 31 -193 40 39 40 41 42 41 42 -193 31 34 -209 36 -209 -209 23 -209 -209 42 41 41 40 40 39 39 39 37 37 37 35 36 39 40 40 40 43 44 45 44 45 44 44 46 48 45 47 47 47 47 47 48 50 48 51 50 51 55 54 55 54 53 55 57 57 56 56 59 58 58 58 59 58 58 59 59 57 58 58 58 57 57 54 44 41 37 35 30 -193 -193 -193 -209 -209 -209 -209 73 -193 -209 0 0 0 0 0
    0 0 0 0 0 0 0 0 0 0 0 0 0 0 0 0 0 0 0 0 0 0 0 0 0 0 0 0 0 0 0 0 0 0 0 0 0 0 0 0 0 0 0 0 0 0 0 0 0 0 0 0 0 0 0 0 0 0 0 0 0 0 0 0 0 0 0 0 0 -209 -209 -209 -209 -209 -209 -209 -209 -193 -193 30 28 29 30 33 33 36 36 36 38 38 38 38 38 38 36 34 33 31 33 31 32 34 32 34 34 33 34 32 35 34 34 34 35 34 35 35 35 36 36 36 36 35 37 36 35 35 33 32 32 32 33 32 30 34 34 35 36 35 36 34 34 34 34 35 35 34 35 33 34 31 -193 -193 28 30 31 30 31 32 34 36 33 36 35 36 35 35 37 33 32 34 34 35 35 36 35 35 39 39 38 37 38 38 39 38 36 33 34 37 37 36 36 36 37 37 36 37 36 37 38 35 33 33 33 36 35 35 34 32 35 36 36 36 32 31 31 31 31 33 -193 40 40 40 42 42 42 43 -193 31 35 -209 -209 -193 -209 -193 -209 -209 42 42 42 41 40 39 39 39 37 37 37 35 36 39 40 39 40 43 44 44 44 44 43 43 45 48 45 46 46 47 47 47 48 51 49 51 51 54 57 55 57 55 55 56 58 58 56 56 59 58 58 58 59 58 58 59 59 58 58 59 58 57 58 55 45 40 34 -193 28 -193 -193 -193 -209 97 85 85 77 77 77 0 0 0 0 0
    0 0 0 0 0 0 0 0 0 0 0 0 0 0 0 0 0 0 0 0 0 0 0 0 0 0 0 0 0 0 0 0 0 0 0 0 0 0 0 0 0 0 0 0 0 0 0 0 0 0 0 0 0 0 0 0 0 0 0 0 0 0 0 0 0 0 0 0 0 -209 -209 -193 -209 -209 -209 -209 -209 -193 -193 31 28 30 29 33 34 36 38 37 40 39 40 40 41 40 39 35 35 32 33 32 32 34 32 33 34 32 33 32 34 34 35 34 36 35 36 35 35 36 36 36 36 36 37 36 35 35 32 32 32 33 33 32 30 33 33 34 36 36 36 34 34 33 34 35 34 33 34 32 33 30 31 31 29 31 33 32 33 34 35 37 36 38 38 38 38 38 38 35 32 34 34 34 34 35 35 35 37 39 37 35 36 37 36 35 34 30 32 37 37 37 37 37 38 38 37 38 38 37 38 34 33 32 33 35 34 34 34 30 35 37 36 36 32 32 32 33 -193 -193 -193 40 41 40 43 43 43 44 45 36 39 -209 -193 -209 -209 -209 -209 -209 43 42 42 42 40 40 39 39 37 37 37 36 35 39 39 39 40 42 44 44 43 43 43 43 45 47 44 45 45 47 47 47 48 51 50 51 53 54 57 56 57 55 -209 56 58 59 57 56 59 58 58 58 59 58 58 59 59 58 58 59 58 57 58 56 47 40 35 -193 28 -193 102 105 95 96 88 86 82 82 83 0 0 0 0 0
    0 0 0 0 0 0 0 0 0 0 0 0 0 0 0 0 0 0 0 0 0 0 0 0 0 0 0 0 0 0 0 0 0 0 0 0 0 0 0 0 0 0 0 0 0 0 0 0 0 0 0 0 0 0 0 0 0 0 0 0 0 0 0 0 0 0 0 0 0 -209 -209 -209 -209 -209 -209 -209 -209 38 38 33 30 32 31 35 36 37 -193 -193 -193 40 40 41 41 39 -193 29 -193 -193 -193 -193 30 32 30 33 36 35 36 36 36 36 36 36 37 36 36 35 35 36 36 36 36 35 36 36 35 34 32 31 31 32 33 32 30 33 33 35 36 36 36 34 34 34 34 35 35 34 34 33 34 32 33 32 31 34 35 35 35 36 36 39 38 39 39 40 39 39 39 36 33 34 34 34 34 35 35 34 37 39 37 33 34 34 31 29 31 27 30 36 38 37 38 38 39 38 38 39 39 38 39 35 34 34 35 36 35 35 35 30 35 37 37 36 31 32 31 32 -193 -193 -193 -193 43 41 44 44 44 45 45 37 39 -209 41 -209 36 -209 -193 -209 43 42 42 43 41 40 40 39 38 37 37 36 35 39 40 39 40 42 43 44 43 43 43 43 45 46 44 45 45 47 48 47 50 52 52 53 55 55 58 57 58 56 -209 56 57 59 58 57 59 58 58 58 59 58 58 59 59 58 59 59 59 57 58 56 50 42 38 -209 -193 -193 102 104 95 96 88 85 78 80 83 0 0 0 0 0
    0 0 0 0 0 0 0 0 0 0 0 0 0 0 0 0 0 0 0 0 0 0 0 0 0 0 0 0 0 0 0 0 0 0 0 0 0 0 0 0 0 0 0 0 0 0 0 0 0 0 0 0 0 0 0 0 0 0 0 0 0 0 0 0 0 0 0 0 0 -209 -209 -209 -209 -209 -209 -209 -193 33 34 31 29 33 32 36 -209 37 39 -209 -209 -193 -209 -209 -209 38 -209 -193 -193 -209 -193 -193 26 29 29 32 37 36 38 39 38 38 38 38 38 37 37 36 36 37 37 37 37 36 37 37 37 36 33 31 31 32 33 31 29 30 30 32 35 36 35 32 34 33 34 35 35 34 34 34 36 35 36 35 33 36 36 36 36 36 36 38 38 39 40 40 39 39 38 37 34 35 36 35 36 36 36 36 38 39 37 34 34 34 33 30 32 28 32 37 38 38 38 38 38 38 38 39 39 38 39 36 36 36 36 37 36 36 36 31 36 37 37 35 30 30 29 -193 -193 -209 -209 -209 -209 -193 44 44 44 47 44 -209 -209 -209 42 -209 38 -193 43 -209 42 42 41 44 41 40 40 39 38 38 38 37 36 39 40 39 40 42 43 43 43 43 43 43 45 46 44 45 45 48 49 47 51 53 53 54 55 55 58 57 58 -209 -209 -193 57 60 59 58 60 58 58 58 59 58 58 59 59 58 59 60 59 57 58 56 51 44 -209 -209 -193 100 100 102 96 95 -193 85 76 79 83 0 0 0 0 0
    0 0 0 0 0 0 0 0 0 0 0 0 0 0 0 0 0 0 0 0 0 0 0 0 0 0 0 0 0 0 0 0 0 0 0 0 0 0 0 0 0 0 0 0 0 0 0 0 0 0 0 0 0 0 0 0 0 0 0 0 0 0 0 0 0 0 0 0 0 -209 -209 -193 -209 -209 -209 -209 37 -209 -193 31 29 34 33 36 35 36 37 36 39 38 38 39 38 38 -209 -209 -209 -209 -193 25 26 28 30 33 38 37 38 39 38 39 39 39 39 38 39 37 37 39 39 39 39 40 40 39 40 38 35 33 32 32 33 32 30 30 28 30 32 34 34 31 33 32 34 36 35 -193 -193 -193 37 -193 -193 -193 -193 37 36 37 36 35 35 38 38 39 40 40 39 39 38 37 35 36 36 35 36 36 36 37 39 39 37 33 34 33 32 30 32 29 33 37 39 39 39 38 39 38 37 38 38 38 39 37 36 37 37 38 37 36 36 31 37 37 37 34 28 27 26 -193 -193 -209 -209 -209 -209 -209 -193 -193 -193 46 -193 -209 -193 38 42 -209 39 -209 43 -209 42 41 41 41 40 39 40 39 38 38 38 37 36 39 40 39 39 41 42 43 42 43 43 43 45 46 44 44 44 48 49 48 52 53 54 54 55 55 58 -193 -209 -209 -209 -209 59 61 60 58 60 58 58 58 59 58 58 59 59 58 59 60 59 57 59 57 54 50 53 -209 -193 -193 93 -193 88 88 81 79 75 77 79 0 0 0 0 0
    0 0 0 0 0 0 0 0 0 0 0 0 0 0 0 0 0 0 0 0 0 0 0 0 0 0 0 0 0 0 0 0 0 0 0 0 0 0 0 0 0 0 0 0 0 0 0 0 0 0 0 0 0 0 0 0 0 0 0 0 0 0 0 0 0 0 0 0 0 35 35 35 -193 -193 -209 35 35 30 32 31 31 33 32 36 34 35 37 36 37 37 38 38 37 38 -209 -193 -209 -209 21 24 24 28 30 33 39 37 39 39 39 39 39 39 39 38 39 38 38 40 41 41 41 42 42 41 43 40 37 34 33 33 33 33 31 30 28 29 31 32 31 30 32 31 34 36 36 36 -193 -193 -209 -209 -209 -209 -193 39 38 38 37 37 37 38 38 39 40 41 39 40 39 38 36 37 37 35 36 36 36 37 38 39 37 33 35 35 35 31 34 32 35 37 39 39 39 39 39 38 38 38 38 38 39 36 36 37 37 37 37 36 36 29 37 37 36 32 26 23 20 22 -209 -209 -209 14 -193 -193 -193 -209 40 47 -193 -209 -209 37 42 -209 41 -209 -193 -193 42 42 44 43 41 40 41 40 39 39 39 38 37 39 40 38 39 41 42 42 42 43 43 43 45 45 44 44 43 48 48 46 51 54 54 53 54 56 59 -209 -209 -209 811 -193 61 63 60 58 60 58 58 58 59 58 58 59 59 58 59 60 60 58 59 58 56 54 56 -193 -209 -193 74 76 80 77 76 76 74 76 78 0 0 0 0 0
    0 0 0 0 0 0 0 0 0 0 0 0 0 0 0 0 0 0 0 0 0 0 0 0 0 0 0 0 0 0 0 0 0 0 0 0 0 0 0 0 0 0 0 0 0 0 0 0 0 0 0 0 0 0 0 0 0 0 0 0 0 0 0 0 0 0 0 0 0 36 36 35 36 32 37 33 33 30 32 31 33 33 32 36 34 35 36 35 36 36 37 38 35 37 37 -209 -209 20 20 23 22 26 29 32 38 37 38 39 39 39 39 39 39 38 39 38 38 39 40 41 41 42 42 42 44 41 36 33 32 32 31 32 31 31 28 29 31 31 31 30 31 30 33 35 36 37 -193 -209 -209 -209 -193 44 43 42 39 40 39 38 37 38 38 39 40 40 40 40 39 39 37 38 37 35 35 36 36 37 38 38 36 34 36 37 37 34 36 34 37 39 40 40 40 40 40 40 39 38 38 39 39 37 37 37 37 37 37 37 36 29 37 37 36 32 -193 14 17 12 -209 -209 -209 14 18 19 -193 -209 -209 50 -193 -209 -209 -209 45 -209 -193 -193 -193 -193 -193 42 44 43 41 41 41 40 39 39 39 38 37 39 40 38 39 40 41 42 42 42 43 43 45 45 44 44 44 48 48 46 51 54 55 53 -209 57 59 -209 -209 -209 -193 -193 61 63 61 59 60 59 58 58 59 58 58 59 59 59 60 61 60 58 60 59 58 56 60 59 63 66 71 72 74 73 73 73 73 74 77 0 0 0 0 0
    0 0 0 0 0 0 0 0 0 0 0 0 0 0 0 0 0 0 0 0 0 0 0 0 0 0 0 0 0 0 0 0 0 0 0 0 0 0 0 0 0 0 0 0 0 0 0 0 0 0 0 0 0 0 0 0 0 0 0 0 0 0 0 0 0 0 0 0 0 36 37 35 36 34 37 33 32 30 32 31 34 33 32 37 34 35 36 35 36 35 36 37 33 36 35 26 -193 20 19 24 22 27 30 33 38 37 39 40 39 40 39 39 39 39 39 38 38 39 40 40 41 41 42 41 44 40 37 34 32 31 30 31 30 31 29 30 31 32 31 31 32 31 33 35 36 37 -193 -209 -209 -209 46 49 46 44 40 41 40 39 38 38 38 39 39 40 38 39 38 38 36 37 37 36 35 35 35 37 37 38 36 34 36 36 38 35 36 35 38 39 41 41 42 42 42 41 40 38 39 39 40 37 37 37 37 38 38 37 36 28 37 37 35 -193 -193 -193 13 13 -209 -193 -209 17 18 19 -209 -209 -209 -209 -209 -193 -209 -209 46 -209 -193 -193 -193 -193 44 42 45 43 41 41 41 40 40 40 39 39 38 39 40 39 39 41 41 42 42 42 43 42 44 45 44 44 44 48 48 45 50 54 53 52 -209 57 58 -209 -193 -209 -209 -193 59 63 62 59 60 60 59 58 60 59 59 59 60 60 60 62 61 59 61 61 60 61 64 64 65 67 70 71 72 71 72 72 72 73 75 0 0 0 0 0
    0 0 0 0 0 0 0 0 0 0 0 0 0 0 0 0 0 0 0 0 0 0 0 0 0 0 0 0 0 0 0 0 0 0 0 0 0 0 0 0 0 0 0 0 0 0 0 0 0 0 0 0 0 0 0 0 0 0 0 0 0 0 0 0 0 0 0 0 0 -193 37 35 37 35 37 32 31 29 -193 31 35 33 32 37 33 34 35 34 35 34 35 36 31 36 35 -209 13 14 18 23 20 25 27 29 34 35 37 38 38 39 39 40 39 39 39 38 38 39 40 40 39 40 41 38 41 39 37 35 32 31 29 30 30 31 30 30 30 32 31 32 33 32 33 34 36 37 36 39 41 45 46 48 44 44 40 40 40 38 37 37 37 38 38 38 36 37 36 37 36 36 36 35 35 35 35 37 37 38 36 34 35 36 37 34 34 32 36 37 40 41 41 42 42 41 41 38 39 40 40 38 38 38 38 38 38 38 36 28 36 36 33 -193 -209 -193 14 17 -209 -193 -209 -209 20 -193 -209 -209 -209 -193 -209 -209 -193 -209 -193 -209 -193 -193 -209 -209 -209 42 46 43 42 42 42 41 40 41 40 39 39 40 40 39 40 41 41 42 42 42 43 42 44 45 44 44 43 47 48 45 49 53 51 50 -193 56 55 -209 49 49 -193 -193 59 64 64 59 61 61 59 59 61 59 59 60 60 60 61 62 62 60 62 62 61 64 67 67 68 68 70 71 71 71 71 71 71 72 73 0 0 0 0 0
    0 0 0 0 0 0 0 0 0 0 0 0 0 0 0 0 0 0 0 0 0 0 0 0 0 0 0 0 0 0 0 0 0 0 0 0 0 0 0 0 0 0 0 0 0 0 0 0 0 0 0 0 0 0 0 0 0 0 0 0 0 0 0 0 0 0 0 0 0 35 37 34 35 33 33 31 31 29 31 33 36 33 32 37 33 33 34 34 33 32 34 35 30 35 34 -209 11 14 19 23 20 24 25 27 29 32 35 37 37 39 40 40 40 39 40 39 38 39 39 39 38 39 37 35 36 36 34 32 30 31 28 30 30 32 32 31 31 33 31 32 33 32 34 35 36 38 36 39 -193 45 41 46 -209 -193 39 39 39 37 36 37 36 37 37 38 36 37 35 37 36 36 36 35 34 35 34 37 37 37 36 35 35 36 37 32 32 31 35 37 39 41 41 41 42 41 41 38 39 41 41 38 38 39 38 38 39 38 35 28 35 35 32 -193 -209 12 18 20 -209 90 -209 -209 21 -209 -209 -209 -209 -209 -209 -209 -193 -209 -193 -209 -209 -209 -209 -209 -209 42 47 43 42 43 42 41 41 41 41 40 39 40 41 40 41 41 42 42 42 42 44 42 44 45 44 44 43 47 48 44 49 52 -193 50 52 55 55 -209 44 42 -209 -209 57 63 65 60 61 61 59 59 61 60 60 60 61 60 61 63 63 61 63 62 62 65 67 68 67 67 68 70 70 69 70 69 70 71 72 0 0 0 0 0
    0 0 0 0 0 0 0 0 0 0 0 0 0 0 0 0 0 0 0 0 0 0 0 0 0 0 0 0 0 0 0 0 0 0 0 0 0 0 0 0 0 0 0 0 0 0 0 0 0 0 0 0 0 0 0 0 0 0 0 0 0 0 0 0 0 0 0 0 0 34 36 31 31 31 30 30 30 28 29 31 35 33 32 37 32 32 34 33 32 31 33 33 29 33 32 -209 -193 11 18 22 21 24 25 27 31 33 36 38 38 40 41 41 41 40 40 39 39 40 40 39 38 39 35 33 34 35 34 32 31 32 28 31 32 34 34 33 33 35 32 33 35 33 34 35 37 39 37 40 -193 45 -209 -209 -209 -209 37 38 38 36 35 36 35 36 36 36 35 36 36 37 37 37 36 36 35 36 34 37 38 36 36 35 36 37 39 34 33 31 35 36 38 40 40 41 41 41 41 38 39 43 41 39 39 39 38 38 39 38 35 28 35 35 29 -209 -209 18 21 23 -209 -209 -209 -209 22 -209 -209 -209 -209 -193 -209 -193 -193 -209 -193 -193 -209 -209 -209 -209 42 42 48 43 43 43 42 41 41 41 41 40 40 40 42 41 41 42 42 -193 42 42 44 42 44 45 44 44 43 48 48 45 51 52 52 50 52 53 50 -209 42 41 -209 40 55 58 65 60 60 62 60 59 61 60 61 60 61 61 61 63 63 62 63 63 62 65 66 67 67 67 68 69 68 68 68 68 68 70 70 0 0 0 0 0
    0 0 0 0 0 0 0 0 0 0 0 0 0 0 0 0 0 0 0 0 0 0 0 0 0 0 0 0 0 0 0 0 0 0 0 0 0 0 0 0 0 0 0 0 0 0 0 0 0 0 0 0 0 0 0 0 0 0 0 0 0 0 0 0 0 0 0 0 0 32 33 30 29 30 29 30 30 28 28 31 34 32 32 37 32 32 34 33 32 31 33 33 29 33 33 -209 -193 -193 20 24 22 26 27 29 32 35 36 37 37 39 40 40 40 40 41 40 40 41 41 40 37 39 33 31 32 33 33 32 31 33 28 32 34 35 35 34 34 36 33 34 35 34 34 35 37 39 37 40 -209 -209 -209 -209 -193 -209 35 36 36 34 33 34 33 35 36 35 34 36 36 37 38 38 37 36 36 37 35 37 37 35 36 36 37 38 40 36 35 33 35 36 37 39 38 39 40 40 40 36 39 44 41 39 39 39 38 38 39 38 34 28 34 34 27 -209 -209 18 21 23 -193 -209 -209 -209 23 -209 -209 -209 -209 -209 -209 -193 -193 -209 -193 -193 -209 -209 -209 -193 40 41 48 43 43 44 42 41 41 42 41 40 41 41 42 42 42 43 43 -193 43 43 44 42 44 45 44 43 43 47 47 44 50 51 53 50 52 52 50 45 44 42 44 43 52 56 64 59 60 62 60 60 62 61 61 61 62 62 61 63 63 62 63 63 62 65 66 67 66 67 67 68 67 67 67 67 68 69 69 0 0 0 0 0
    0 0 0 0 0 0 0 0 0 0 0 0 0 0 0 0 0 0 0 0 0 0 0 0 0 0 0 0 0 0 0 0 0 0 0 0 0 0 0 0 0 0 0 0 0 0 0 0 0 0 0 0 0 0 0 0 0 0 0 0 0 0 0 0 0 0 0 0 0 32 33 31 30 30 30 30 30 29 29 30 33 31 31 37 32 32 33 33 32 31 33 33 29 34 34 -193 -193 -209 28 29 26 28 32 32 34 37 36 37 37 38 39 39 39 39 40 40 41 42 42 42 37 39 33 32 32 33 33 32 30 33 27 32 34 36 35 34 34 35 33 34 35 34 33 33 35 37 35 37 -209 -209 -209 -209 -209 -209 34 35 36 34 34 35 33 35 36 35 34 36 37 38 39 38 37 36 36 37 33 34 35 32 34 35 36 37 38 35 32 33 34 35 35 38 37 38 39 40 39 35 38 44 42 38 38 39 38 38 39 37 33 27 33 33 -193 -209 -209 19 22 22 29 -209 -193 27 23 -209 -209 -209 -209 -209 -209 140 -193 -209 -193 -209 -209 -209 -209 159 40 40 49 43 43 44 42 41 41 42 41 40 41 41 42 42 43 43 43 -193 43 43 45 42 44 45 44 43 43 46 47 43 47 48 -193 49 53 53 52 50 47 44 45 43 49 55 -193 59 59 62 60 61 62 61 62 61 62 62 61 63 63 63 64 63 64 65 67 67 66 67 67 68 67 67 67 68 68 70 70 0 0 0 0 0
    0 0 0 0 0 0 0 0 0 0 0 0 0 0 0 0 0 0 0 0 0 0 0 0 0 0 0 0 0 0 0 0 0 0 0 0 0 0 0 0 0 0 0 0 0 0 0 0 0 0 0 0 0 0 0 0 0 0 0 0 0 0 0 0 0 0 0 0 0 32 32 30 29 30 29 29 29 28 28 29 31 30 30 37 32 32 34 33 33 31 33 33 29 34 34 29 -193 -193 30 30 27 30 33 33 35 38 37 38 37 38 38 38 38 38 38 37 38 40 41 40 35 37 32 32 32 33 32 31 30 32 26 30 32 35 33 31 32 33 31 32 33 31 29 30 32 34 31 32 35 -193 -209 -209 -209 35 35 35 36 35 33 34 33 34 36 35 34 36 38 38 39 38 37 37 37 38 35 34 35 32 35 35 36 37 38 34 31 30 32 32 33 36 36 37 39 39 39 35 38 45 42 38 38 39 38 38 38 37 33 27 33 33 -193 -209 -209 19 -209 -193 31 -193 27 28 -177 24 -209 -209 -209 -209 -209 140 140 -193 141 -193 -209 -209 -209 -193 40 40 50 44 44 46 43 42 42 42 42 40 42 41 43 43 43 -193 44 -193 43 43 45 42 44 45 44 43 43 46 46 42 44 43 -209 46 -193 52 51 -193 48 45 47 43 48 55 -193 59 59 62 60 61 62 61 62 61 63 62 61 63 63 63 64 63 64 65 67 67 66 66 67 67 67 66 66 67 67 69 70 0 0 0 0 0
    0 0 0 0 0 0 0 0 0 0 0 0 0 0 0 0 0 0 0 0 0 0 0 0 0 0 0 0 0 0 0 0 0 0 0 0 0 0 0 0 0 0 0 0 0 0 0 0 0 0 0 0 0 0 0 0 0 0 0 0 0 0 0 0 0 0 0 0 0 30 29 28 27 28 27 27 28 27 26 27 29 29 28 37 31 31 34 33 33 32 33 33 29 33 33 29 27 30 31 32 29 32 35 34 35 38 37 38 36 38 37 37 37 37 35 34 35 38 39 39 33 37 32 32 32 32 32 31 29 32 25 26 29 31 28 26 29 29 29 30 30 28 26 27 30 30 26 27 30 38 -193 44 -193 37 35 35 36 34 32 34 31 33 35 34 33 36 38 39 39 38 38 37 38 39 37 35 35 33 36 36 37 37 37 32 29 28 27 28 29 32 33 35 37 38 37 34 38 47 43 38 39 39 38 38 38 37 33 28 34 34 26 -209 -209 -209 -209 -209 34 29 27 28 -177 -193 -193 -209 -209 -209 -193 140 141 140 143 -193 -209 -209 -209 -193 39 40 -193 43 43 45 42 41 41 41 41 40 42 41 43 43 44 -193 44 -193 44 43 45 42 44 45 44 43 43 45 46 42 42 41 -209 43 -193 -193 49 -209 48 46 50 46 51 54 -209 58 58 61 60 60 61 61 62 61 63 62 61 63 63 63 64 63 63 65 67 67 66 66 66 66 66 66 66 67 66 69 70 0 0 0 0 0
    0 0 0 0 0 0 0 0 0 0 0 0 0 0 0 0 0 0 0 0 0 0 0 0 0 0 0 0 0 0 0 0 0 0 0 0 0 0 0 0 0 0 0 0 0 0 0 0 0 0 0 0 0 0 0 0 0 0 0 0 0 0 0 0 0 0 0 0 0 27 27 27 27 27 27 27 27 26 26 26 28 28 27 36 31 31 33 33 32 32 33 33 28 33 33 28 27 32 33 35 33 35 38 37 37 38 38 38 36 38 38 36 35 36 34 32 32 37 -209 38 33 36 32 32 32 33 32 31 29 31 25 26 26 27 25 24 27 27 28 29 28 26 25 25 27 25 22 22 23 27 34 40 36 34 34 33 33 32 30 32 30 32 35 33 32 36 39 39 40 38 38 38 39 40 39 35 35 33 37 37 38 37 36 30 27 25 23 25 25 27 29 -193 34 36 35 32 38 49 43 39 39 39 38 38 38 37 33 28 34 34 27 38 36 -193 -193 -209 -209 -209 -193 -209 -209 -209 -209 -209 -209 -209 -209 139 139 -193 -209 -209 -209 -209 -209 -209 -193 40 -193 43 43 44 41 41 41 41 41 40 43 42 44 44 44 -193 45 -193 44 43 45 42 44 45 44 43 43 45 46 42 44 43 -209 -193 -209 -209 -209 -209 -193 50 54 51 54 55 59 58 58 60 60 60 61 61 62 61 63 62 61 63 63 63 64 63 63 65 66 68 66 66 66 66 66 67 66 67 66 70 71 0 0 0 0 0
    0 0 0 0 0 0 0 0 0 0 0 0 0 0 0 0 0 0 0 0 0 0 0 0 0 0 0 0 0 0 0 0 0 0 0 0 0 0 0 0 0 0 0 0 0 0 0 0 0 0 0 0 0 0 0 0 0 0 0 0 0 0 0 0 0 0 0 0 0 28 27 29 28 28 28 28 28 26 26 26 27 27 27 36 30 31 33 32 32 31 33 33 28 32 32 27 26 30 31 33 31 35 38 37 37 38 38 38 36 37 37 34 33 34 32 -193 -209 -209 -209 -209 33 36 32 32 33 33 32 31 29 32 25 27 26 25 24 24 27 27 28 29 28 26 25 24 25 20 18 20 21 23 32 36 35 32 32 31 31 30 29 30 29 30 35 32 31 36 40 40 40 39 39 38 40 41 41 35 34 31 37 39 40 38 35 25 26 22 22 24 24 27 28 -193 32 33 32 30 37 48 43 39 39 39 38 38 38 37 33 29 35 35 28 37 35 -193 -193 -209 -209 -209 -209 -209 -209 -209 -209 -209 -209 -209 -209 -193 138 -193 -209 -209 -193 -209 -209 -209 -193 41 -193 42 42 43 40 40 40 40 41 40 43 42 -193 44 45 -193 45 46 44 43 45 42 44 45 44 43 42 45 46 42 45 43 -209 -209 -209 -209 -209 -209 54 52 56 53 55 55 59 58 57 60 59 59 61 61 62 61 63 62 61 63 63 62 64 62 62 63 66 67 65 66 66 66 67 67 67 68 66 70 71 0 0 0 0 0
    0 0 0 0 0 0 0 0 0 0 0 0 0 0 0 0 0 0 0 0 0 0 0 0 0 0 0 0 0 0 0 0 0 0 0 0 0 0 0 0 0 0 0 0 0 0 0 0 0 0 0 0 0 0 0 0 0 0 0 0 0 0 0 0 0 0 0 0 0 29 29 30 29 29 29 29 29 27 27 27 27 27 27 36 30 31 33 33 32 31 32 33 28 32 32 27 25 28 28 30 -193 36 -209 38 40 40 40 40 39 39 39 36 36 36 35 -193 -209 -209 -209 39 33 37 32 32 33 34 32 31 29 33 26 29 26 24 23 23 27 28 28 29 28 27 26 25 25 19 17 19 21 23 34 36 35 33 33 31 30 30 29 28 27 27 34 30 30 36 41 41 41 40 40 39 41 42 42 32 32 29 36 38 40 40 37 31 30 -209 -193 29 27 29 30 -193 32 33 31 29 37 46 43 38 39 39 38 38 38 37 33 29 35 35 28 37 37 -193 36 -209 -209 -209 -193 -209 -193 -193 -209 -209 -209 -209 -209 -193 -193 -193 -209 -209 -209 -209 -209 -209 42 41 -193 42 42 42 40 40 40 40 39 39 43 42 44 44 45 45 45 46 45 43 45 42 44 45 44 43 42 45 46 41 43 43 -209 -209 -209 57 56 58 55 55 58 55 56 56 59 57 57 59 59 58 60 60 61 61 63 62 60 62 62 62 63 61 61 62 65 67 64 66 66 66 67 68 68 69 67 72 72 0 0 0 0 0
    0 0 0 0 0 0 0 0 0 0 0 0 0 0 0 0 0 0 0 0 0 0 0 0 0 0 0 0 0 0 0 0 0 0 0 0 0 0 0 0 0 0 0 0 0 0 0 0 0 0 0 0 0 0 0 0 0 0 0 0 0 0 0 0 0 0 0 0 0 30 29 31 30 30 29 29 29 28 28 27 28 28 27 36 31 31 34 33 32 31 33 33 28 32 32 27 25 28 28 29 -193 -193 -209 -209 43 43 42 43 41 41 41 38 38 38 37 -193 -209 -209 -193 39 33 37 32 33 33 34 33 32 30 34 26 34 29 24 23 23 28 29 29 31 29 29 29 28 28 23 20 20 21 24 36 36 36 34 33 31 31 31 30 27 26 26 32 28 28 36 43 41 42 41 40 40 42 42 42 32 33 31 36 38 39 39 37 34 32 30 28 30 28 30 30 31 32 32 30 29 36 46 42 38 39 39 38 38 38 37 33 29 35 35 28 36 35 36 36 -193 -209 -209 -209 -193 -193 -193 -209 -209 -209 -209 -209 -193 -193 -193 -209 -209 -209 -209 -193 43 43 42 45 41 41 42 39 39 39 39 39 39 42 41 43 44 44 45 45 45 44 43 45 42 44 45 44 43 42 45 46 42 44 44 51 53 56 56 56 58 56 56 60 57 57 57 59 58 57 59 59 58 59 59 60 60 62 61 60 62 61 61 62 61 60 61 65 67 64 66 67 67 68 69 69 70 68 73 74 0 0 0 0 0
    0 0 0 0 0 0 0 0 0 0 0 0 0 0 0 0 0 0 0 0 0 0 0 0 0 0 0 0 0 0 0 0 0 0 0 0 0 0 0 0 0 0 0 0 0 0 0 0 0 0 0 0 0 0 0 0 0 0 0 0 0 0 0 0 0 0 0 0 0 30 29 32 30 30 30 30 30 28 28 28 28 29 28 36 31 31 34 33 33 32 33 33 28 33 33 28 26 30 30 31 33 38 -193 -209 44 44 41 42 40 40 39 36 36 36 35 -209 -209 -209 -193 39 33 37 33 33 34 34 33 32 30 33 26 35 29 24 23 23 28 30 30 32 30 30 30 29 29 25 23 22 23 25 38 36 36 35 33 31 31 30 30 26 26 24 29 26 27 35 42 41 42 40 40 40 41 42 42 31 33 31 36 38 38 37 36 34 32 31 29 29 28 30 30 31 31 31 30 28 36 48 43 39 39 40 38 38 38 37 33 30 35 35 29 35 35 36 36 -209 -209 -193 -209 -193 -209 -209 -209 -209 -209 -209 -209 -193 -193 -193 -209 -209 -209 -209 -209 -193 44 42 44 41 41 41 39 39 39 39 38 39 41 41 43 43 44 44 44 45 44 43 45 43 44 45 44 43 43 45 47 43 45 46 52 55 56 57 57 59 57 57 62 58 58 58 59 58 57 59 58 57 59 59 59 59 61 61 59 61 61 61 62 61 60 61 65 68 65 67 68 69 69 70 70 71 70 74 75 0 0 0 0 0
    0 0 0 0 0 0 0 0 0 0 0 0 0 0 0 0 0 0 0 0 0 0 0 0 0 0 0 0 0 0 0 0 0 0 0 0 0 0 0 0 0 0 0 0 0 0 0 0 0 0 0 0 0 0 0 0 0 0 0 0 0 0 0 0 0 0 0 0 0 29 29 31 30 31 30 30 30 29 29 28 29 29 28 36 31 31 34 33 33 32 33 33 28 34 34 29 27 32 32 33 32 38 43 -209 -193 -209 39 40 39 39 37 35 35 36 34 -193 -193 -209 -209 39 33 37 33 33 34 35 33 32 30 34 27 -193 -193 -193 23 24 30 32 31 33 31 31 31 30 31 27 25 24 25 29 39 36 36 35 33 32 31 30 30 26 25 24 27 25 26 34 42 41 41 41 40 40 41 42 42 30 32 31 34 36 36 35 33 31 32 31 29 29 28 29 30 30 30 30 29 28 36 50 43 39 39 40 38 38 38 37 33 30 34 35 29 35 35 38 37 40 36 34 32 -209 -209 -209 -209 -209 -209 -209 -209 -209 -209 47 46 -193 -193 -193 48 47 47 44 45 40 40 40 39 39 38 38 38 39 41 41 42 43 43 44 44 44 43 42 44 42 43 45 44 44 43 45 47 43 46 48 53 55 56 58 58 60 59 59 64 59 58 59 59 57 57 58 58 57 58 58 59 59 61 61 59 61 61 60 62 60 60 61 65 68 65 68 68 70 71 71 72 73 72 74 77 0 0 0 0 0
    0 0 0 0 0 0 0 0 0 0 0 0 0 0 0 0 0 0 0 0 0 0 0 0 0 0 0 0 0 0 0 0 0 0 0 0 0 0 0 0 0 0 0 0 0 0 0 0 0 0 0 0 0 0 0 0 0 0 0 0 0 0 0 0 0 0 0 0 0 28 29 31 30 31 30 30 31 29 30 29 29 29 28 36 31 31 33 33 33 32 33 34 28 35 35 30 28 36 34 34 29 36 42 -209 -209 -209 38 39 39 40 38 37 37 37 34 -209 -209 -193 -209 38 32 36 33 33 34 35 34 33 30 34 27 -193 -193 -193 25 25 33 34 32 34 32 32 33 31 33 29 27 32 28 32 39 36 36 35 33 32 31 30 30 26 25 23 26 23 24 33 42 41 41 40 40 39 41 42 42 30 32 31 33 36 36 35 34 33 34 34 31 30 29 29 30 30 30 30 29 27 37 51 44 39 39 40 38 38 38 37 33 30 34 34 29 34 34 38 37 40 37 35 33 -209 -209 -209 -209 -209 -209 -193 -209 -209 39 44 44 -193 48 47 49 49 48 45 46 40 40 40 39 39 38 38 38 39 41 41 42 43 43 43 44 44 43 42 44 42 43 44 44 44 44 46 48 45 48 52 55 56 56 57 58 59 58 58 65 59 58 59 59 57 57 58 57 56 58 58 58 59 61 61 59 61 61 60 61 60 59 61 65 68 65 68 69 71 72 72 73 73 71 74 77 0 0 0 0 0
    0 0 0 0 0 0 0 0 0 0 0 0 0 0 0 0 0 0 0 0 0 0 0 0 0 0 0 0 0 0 0 0 0 0 0 0 0 0 0 0 0 0 0 0 0 0 0 0 0 0 0 0 0 0 0 0 0 0 0 0 0 0 0 0 0 0 0 0 0 29 30 32 30 31 30 31 31 30 30 29 30 30 28 36 31 31 33 33 33 31 34 34 28 35 35 30 29 39 37 37 33 37 43 38 -193 -193 37 39 39 41 38 37 37 37 34 -209 -209 -209 -209 38 32 36 32 33 33 35 34 33 31 34 28 -193 -193 -193 28 28 35 36 33 35 33 33 34 32 34 30 29 36 30 33 39 36 36 35 33 32 31 30 30 26 25 22 24 21 23 29 40 39 40 39 39 38 40 -193 41 29 31 30 32 36 36 36 34 35 36 37 34 32 31 30 30 31 30 30 29 27 37 51 43 39 39 40 38 37 38 37 33 29 34 34 28 34 35 40 38 40 -193 -193 -209 -209 -209 -209 -193 -193 -193 -209 -209 -209 39 44 45 -193 49 48 49 49 49 45 46 40 40 41 39 39 39 39 39 40 41 41 42 43 43 43 44 44 43 42 44 42 43 45 44 44 44 46 49 45 49 53 56 56 56 57 57 58 58 58 64 59 58 59 59 57 57 57 57 56 57 57 58 59 61 61 59 61 61 60 62 60 59 61 65 68 66 69 69 71 72 72 73 73 72 73 74 0 0 0 0 0
    0 0 0 0 0 0 0 0 0 0 0 0 0 0 0 0 0 0 0 0 0 0 0 0 0 0 0 0 0 0 0 0 0 0 0 0 0 0 0 0 0 0 0 0 0 0 0 0 0 0 0 0 0 0 0 0 0 0 0 0 0 0 0 0 0 0 0 0 0 30 30 32 31 32 30 31 31 30 31 30 31 30 29 36 32 31 33 33 33 31 34 34 29 35 36 30 -209 -193 39 35 28 30 -209 26 33 35 36 39 39 40 39 38 38 38 36 -209 -209 -209 34 38 32 36 32 33 34 34 34 33 31 34 28 -193 -193 -193 -193 27 35 35 34 35 34 34 34 33 34 29 28 33 29 30 39 35 35 35 33 32 31 30 30 26 25 23 23 21 23 28 37 37 38 38 38 37 38 -193 41 28 29 28 29 32 33 34 32 35 36 39 36 34 34 32 32 34 32 32 30 28 37 51 44 39 39 40 38 37 38 36 33 29 34 34 28 34 35 41 41 -193 -193 -209 -209 -209 -209 -209 -193 -209 -193 -193 -209 -209 40 43 45 -193 48 48 50 50 51 47 49 40 40 41 39 39 40 40 40 40 41 41 42 43 43 43 43 44 43 43 44 43 43 45 45 44 45 47 49 46 51 54 56 56 56 56 56 57 57 58 64 59 58 59 59 57 57 57 -193 55 57 57 58 59 61 61 60 61 62 60 62 60 60 61 65 68 66 70 70 73 74 74 75 73 72 72 71 0 0 0 0 0
    0 0 0 0 0 0 0 0 0 0 0 0 0 0 0 0 0 0 0 0 0 0 0 0 0 0 0 0 0 0 0 0 0 0 0 0 0 0 0 0 0 0 0 0 0 0 0 0 0 0 0 0 0 0 0 0 0 0 0 0 0 0 0 0 0 0 0 0 0 30 31 32 31 32 31 31 32 31 31 31 31 31 29 36 32 31 33 33 33 32 34 34 29 36 36 31 -209 -209 38 31 26 -209 -209 22 28 35 37 39 39 40 39 39 39 39 38 -209 -209 -209 37 39 32 36 33 33 34 34 34 33 30 32 27 -193 -193 -193 -193 25 32 33 33 34 33 33 34 33 34 28 27 29 27 28 38 33 34 35 33 32 31 31 30 26 26 25 23 22 23 28 35 36 37 37 38 36 38 41 41 28 29 28 28 29 32 34 32 37 -193 -193 36 33 33 32 32 35 32 33 31 29 38 51 44 39 39 40 38 37 38 36 33 29 34 34 28 35 37 43 44 43 43 -209 -193 -209 -209 -209 -193 -193 -193 -193 -209 -209 38 -209 -209 -209 -193 -193 -193 -193 -193 45 49 40 40 41 40 40 40 40 40 40 41 41 42 43 43 42 43 43 42 43 44 43 43 45 45 45 45 48 50 47 51 54 55 55 54 54 54 54 56 56 63 58 58 58 59 57 57 57 -193 55 57 57 58 59 60 61 60 61 62 60 62 60 60 62 66 69 67 71 70 73 74 75 77 72 69 -209 62 0 0 0 0 0
    0 0 0 0 0 0 0 0 0 0 0 0 0 0 0 0 0 0 0 0 0 0 0 0 0 0 0 0 0 0 0 0 0 0 0 0 0 0 0 0 0 0 0 0 0 0 0 0 0 0 0 0 0 0 0 0 0 0 0 0 0 0 0 0 0 0 0 0 0 30 31 32 31 32 31 31 32 31 32 31 32 32 30 36 32 32 33 33 33 32 34 34 29 36 36 32 31 40 38 37 29 -209 -209 22 27 -193 36 39 38 39 38 38 39 39 39 -209 -193 37 37 39 33 37 33 33 34 34 34 33 30 32 27 30 29 25 24 24 30 31 32 34 33 32 34 33 33 27 26 26 26 26 35 31 31 34 32 31 31 31 30 26 26 25 23 23 24 28 -193 34 36 36 37 36 37 41 40 29 30 29 29 30 32 34 32 35 -193 37 35 31 32 30 31 35 32 33 31 30 38 51 44 39 39 40 38 38 38 36 33 29 34 34 28 37 -193 46 47 46 45 51 -193 -209 31 -193 31 -193 -193 -193 -193 -209 -193 -209 -209 -209 -193 -193 -193 -209 -209 43 47 40 40 42 40 40 40 41 41 41 41 41 42 42 42 42 42 43 42 43 44 43 44 45 46 45 46 49 51 47 50 52 53 53 53 52 52 53 55 56 61 58 58 58 59 57 57 57 -193 55 57 57 58 59 60 61 60 61 62 61 62 60 60 62 66 68 67 70 69 71 74 76 82 -193 -209 -209 62 0 0 0 0 0
    0 0 0 0 0 0 0 0 0 0 0 0 0 0 0 0 0 0 0 0 0 0 0 0 0 0 0 0 0 0 0 0 0 0 0 0 0 0 0 0 0 0 0 0 0 0 0 0 0 0 0 0 0 0 0 0 0 0 0 0 0 0 0 0 0 0 0 0 0 30 30 32 30 32 30 31 32 32 32 31 32 32 30 36 32 32 33 33 33 32 33 34 29 36 36 31 31 39 37 36 29 26 23 22 25 29 32 35 35 37 36 38 40 38 -209 -209 -209 -209 35 39 33 37 33 33 34 33 33 32 29 30 26 27 26 24 23 23 29 30 31 33 32 32 33 33 32 26 26 24 25 25 33 29 30 33 31 30 31 31 30 26 26 25 23 23 24 27 -193 32 35 35 37 36 36 40 39 29 30 28 28 30 30 31 30 31 33 37 34 31 32 29 32 36 33 32 31 30 39 52 45 39 39 40 38 38 38 37 33 29 34 34 28 -193 -209 -193 48 46 -193 -209 36 -209 30 34 30 -209 -209 -193 -209 -209 -193 -209 -209 -193 44 44 45 -193 -209 42 45 40 41 42 40 40 40 41 41 41 41 41 42 43 42 42 42 43 42 43 45 43 44 46 46 45 46 49 50 47 50 51 52 51 51 51 51 51 54 55 60 58 58 58 59 57 57 58 -193 56 57 57 58 59 60 61 60 61 62 61 62 61 61 63 67 67 66 69 67 70 72 75 85 -209 -209 -209 61 0 0 0 0 0
    0 0 0 0 0 0 0 0 0 0 0 0 0 0 0 0 0 0 0 0 0 0 0 0 0 0 0 0 0 0 0 0 0 0 0 0 0 0 0 0 0 0 0 0 0 0 0 0 0 0 0 0 0 0 0 0 0 0 0 0 0 0 0 0 0 0 0 0 0 30 30 31 30 32 30 31 32 32 33 31 32 32 30 36 32 31 33 32 32 31 32 33 28 34 35 28 -193 -209 36 37 25 24 22 21 23 26 27 28 28 32 30 34 36 -209 -193 -209 269 -209 32 40 33 37 33 33 34 33 33 31 29 29 25 25 25 23 22 23 27 29 30 31 31 31 33 32 30 26 26 24 26 25 31 29 29 32 31 30 31 30 29 26 25 24 22 23 24 27 -177 31 34 35 36 36 35 39 38 28 29 28 27 28 29 31 29 30 31 38 35 32 33 30 35 37 35 32 30 30 39 52 45 40 40 40 38 38 38 37 33 28 34 34 27 -193 -209 -193 -193 -193 -193 -209 33 -209 30 32 30 31 -193 -193 -193 -209 -209 -209 -209 45 46 45 46 -193 -209 41 44 40 40 41 40 40 40 41 41 41 41 41 42 43 43 42 43 43 42 43 45 43 44 46 46 46 46 49 50 46 49 50 51 50 51 50 50 50 53 54 59 57 57 58 58 57 57 58 -193 -193 58 58 58 59 60 61 60 61 63 61 62 61 61 64 67 65 64 66 64 67 69 -193 82 -209 -209 -209 -193 0 0 0 0 0
    0 0 0 0 0 0 0 0 0 0 0 0 0 0 0 0 0 0 0 0 0 0 0 0 0 0 0 0 0 0 0 0 0 0 0 0 0 0 0 0 0 0 0 0 0 0 0 0 0 0 0 0 0 0 0 0 0 0 0 0 0 0 0 0 0 0 0 0 0 30 30 31 29 32 30 31 32 32 33 31 31 31 29 36 31 31 32 32 31 31 32 32 27 33 34 27 -193 35 34 35 26 26 23 22 24 26 27 28 29 33 31 36 38 -209 -209 -209 269 -209 -209 40 33 38 33 34 35 33 33 31 29 28 25 25 24 22 21 22 27 28 29 31 30 31 32 32 29 24 24 23 -193 24 28 28 28 31 30 29 30 30 29 26 25 24 22 24 24 27 -177 31 33 34 36 35 33 39 37 28 29 27 26 28 29 30 29 29 -193 37 34 32 32 28 33 35 32 29 28 28 39 51 44 39 39 40 38 38 38 36 33 28 34 34 27 -193 -193 -193 -193 -209 -209 -209 31 -193 29 32 30 30 29 -193 -193 -193 -193 -193 -193 -193 47 -193 -193 -193 -209 42 44 40 40 41 40 40 41 41 41 41 41 42 43 44 43 42 43 43 43 44 45 43 44 46 46 46 46 49 49 46 48 49 50 49 50 50 49 49 53 54 58 57 57 57 58 58 57 58 -193 -193 58 58 58 59 60 61 60 61 63 61 62 61 61 64 67 63 64 65 63 64 66 70 79 -209 -209 -209 -209 0 0 0 0 0
    0 0 0 0 0 0 0 0 0 0 0 0 0 0 0 0 0 0 0 0 0 0 0 0 0 0 0 0 0 0 0 0 0 0 0 0 0 0 0 0 0 0 0 0 0 0 0 0 0 0 0 0 0 0 0 0 0 0 0 0 0 0 0 0 0 0 0 0 0 31 30 31 29 32 30 30 32 31 32 31 31 30 29 36 31 30 32 31 31 31 32 33 27 33 34 -193 -193 34 34 33 28 27 25 25 27 28 30 31 32 35 35 -193 -193 -209 -209 -209 -209 -209 -193 41 35 38 34 34 35 34 33 31 29 28 24 25 24 22 21 22 27 28 29 31 30 31 32 32 29 23 24 23 -193 24 27 27 28 30 29 29 30 29 29 27 25 24 22 25 25 27 -177 32 34 34 36 35 33 39 37 27 29 28 26 28 29 31 30 -193 -193 -193 -209 -209 -209 -209 36 36 32 28 28 27 39 47 42 39 38 39 38 38 38 36 33 29 34 34 27 37 -193 -209 -193 -193 -209 -209 30 30 29 31 30 30 30 -193 -193 -193 -209 -193 -193 -209 46 -209 -209 -209 -209 41 43 41 40 41 41 41 41 42 42 42 42 42 43 44 43 42 43 44 43 44 45 44 44 46 47 46 46 49 50 46 49 48 49 48 50 49 48 48 52 53 57 56 57 57 58 58 58 58 58 57 58 58 59 59 60 61 60 61 62 61 62 62 62 66 68 63 64 65 63 63 66 -193 -209 -193 -177 -209 -209 0 0 0 0 0
    0 0 0 0 0 0 0 0 0 0 0 0 0 0 0 0 0 0 0 0 0 0 0 0 0 0 0 0 0 0 0 0 0 0 0 0 0 0 0 0 0 0 0 0 0 0 0 0 0 0 0 0 0 0 0 0 0 0 0 0 0 0 0 0 0 0 0 0 0 32 31 31 30 32 30 30 32 31 32 31 31 30 29 36 31 31 32 31 31 31 32 33 27 33 34 -193 -193 -209 33 31 27 25 24 24 27 27 29 30 30 32 34 38 39 -209 -209 -209 -209 -209 -193 42 36 39 34 35 35 33 33 31 28 28 24 24 24 22 21 22 26 27 28 29 29 29 31 31 28 22 23 23 -193 24 27 27 28 30 30 29 30 30 29 27 25 25 23 27 26 28 -177 33 34 35 36 36 33 39 38 27 29 27 26 28 29 31 32 -193 -193 -193 44 -209 -209 -209 -209 40 35 29 28 28 38 43 41 38 38 39 37 37 37 35 33 29 34 34 27 37 -193 -209 -193 -209 -209 -209 32 33 32 32 33 34 35 -193 -193 -209 -209 -209 -209 -209 -209 363 -209 -209 -209 40 41 40 40 40 40 40 40 41 41 42 41 42 44 45 43 42 43 44 43 44 45 44 44 47 47 46 46 49 49 46 48 47 48 48 49 49 47 47 52 53 57 57 57 57 58 59 58 59 58 57 58 59 59 59 59 60 60 61 62 61 61 62 62 65 67 62 64 66 64 -193 -193 -209 -209 -209 142 -209 -209 0 0 0 0 0
    0 0 0 0 0 0 0 0 0 0 0 0 0 0 0 0 0 0 0 0 0 0 0 0 0 0 0 0 0 0 0 0 0 0 0 0 0 0 0 0 0 0 0 0 0 0 0 0 0 0 0 0 0 0 0 0 0 0 0 0 0 0 0 0 0 0 0 0 0 32 31 31 29 32 30 30 32 32 32 31 31 31 29 36 31 30 32 31 31 31 32 33 27 32 33 -193 -193 -209 -209 -209 25 24 23 24 26 27 28 28 28 29 31 -209 -209 -209 -209 -209 -209 -209 -193 45 37 39 35 35 35 33 32 31 28 27 24 24 24 22 22 22 26 26 28 28 28 28 30 30 27 22 24 23 -193 24 27 27 28 30 30 29 31 30 30 28 26 25 23 29 27 29 -177 34 35 36 37 37 34 40 38 27 29 28 26 28 29 32 35 -193 -193 -193 -209 -209 56 54 52 48 38 33 30 30 39 40 40 38 38 39 37 37 37 35 34 29 33 33 27 36 -193 -209 44 46 -209 40 36 38 37 35 35 38 -209 -193 -177 89 92 -209 -209 -209 -209 364 -209 -209 -193 40 40 40 39 39 39 39 39 41 41 42 41 42 44 45 43 42 43 44 43 44 45 44 44 47 48 46 47 50 49 46 49 47 48 48 49 49 47 47 52 53 57 57 57 57 59 60 59 60 59 58 59 59 59 59 59 60 59 60 61 61 60 62 62 64 67 61 67 70 68 -209 -209 -209 -209 -209 -209 -177 -209 0 0 0 0 0
    0 0 0 0 0 0 0 0 0 0 0 0 0 0 0 0 0 0 0 0 0 0 0 0 0 0 0 0 0 0 0 0 0 0 0 0 0 0 0 0 0 0 0 0 0 0 0 0 0 0 0 0 0 0 0 0 0 0 0 0 0 0 0 0 0 0 0 0 0 32 30 31 28 31 30 30 32 32 32 32 31 30 29 36 31 30 31 31 31 31 32 32 27 31 32 -209 -193 -209 30 30 26 25 24 25 27 27 28 27 27 29 -193 -193 -209 -209 -209 -209 -209 -209 -193 46 38 40 36 36 36 35 34 32 29 28 24 24 24 22 22 22 26 26 27 28 28 28 30 29 27 23 24 23 26 25 27 27 28 30 30 29 31 30 30 28 26 25 23 29 27 30 -177 34 35 36 37 37 34 39 38 28 30 29 27 30 30 33 -193 -193 -193 -209 -209 -209 -209 -209 -193 38 36 31 30 30 38 38 39 37 37 38 37 37 37 35 34 29 33 33 27 37 -193 42 51 55 -193 55 -193 -193 -193 -193 39 45 -209 -209 74 82 -209 -209 -209 -209 -209 -209 51 48 43 40 40 39 38 38 38 38 38 39 40 42 41 42 45 45 43 43 44 44 43 44 45 43 44 47 47 46 46 49 49 46 49 46 48 47 49 49 48 48 52 53 56 57 57 58 59 61 59 60 59 58 59 59 59 59 58 59 58 59 60 60 59 61 60 61 64 -225 -193 -225 66 -209 -209 -209 -209 -209 -209 -209 -209 0 0 0 0 0
    0 0 0 0 0 0 0 0 0 0 0 0 0 0 0 0 0 0 0 0 0 0 0 0 0 0 0 0 0 0 0 0 0 0 0 0 0 0 0 0 0 0 0 0 0 0 0 0 0 0 0 0 0 0 0 0 0 0 0 0 0 0 0 0 0 0 0 0 0 29 28 -209 27 27 29 28 30 32 32 32 31 29 28 36 30 30 32 31 31 31 32 32 27 32 32 -193 -209 -209 -193 -193 -209 -209 25 25 26 26 28 27 26 -193 -193 -209 -209 -209 -209 -209 -209 -209 35 45 39 41 37 38 38 36 35 34 30 29 25 25 25 24 24 24 27 27 28 29 29 29 30 30 28 24 26 24 26 25 26 27 28 30 29 28 30 29 29 28 25 24 23 29 27 30 -193 34 34 35 36 36 34 38 37 27 31 30 27 30 30 34 -193 33 35 35 -193 -193 38 37 -193 37 35 32 32 31 38 37 38 37 37 38 37 37 37 35 35 30 34 34 28 40 -193 46 57 57 58 59 60 61 62 -193 43 53 57 -209 70 77 -209 -209 -193 62 -193 53 53 50 45 40 41 40 38 37 38 38 37 38 39 42 41 42 46 46 43 43 44 44 43 44 45 43 44 47 47 46 46 48 49 47 49 46 48 48 50 50 48 49 52 53 56 57 57 57 58 61 59 60 59 58 59 59 58 59 58 58 58 58 59 59 58 60 59 59 61 -225 -225 -225 -225 -209 -209 -209 -209 -209 -209 -209 -209 0 0 0 0 0
    0 0 0 0 0 0 0 0 0 0 0 0 0 0 0 0 0 0 0 0 0 0 0 0 0 0 0 0 0 0 0 0 0 0 0 0 0 0 0 0 0 0 0 0 0 0 0 0 0 0 0 0 0 0 0 0 0 0 0 0 0 0 0 0 0 0 0 0 0 29 28 -209 26 25 26 25 26 29 30 30 30 28 28 36 31 30 32 31 31 31 32 33 27 33 34 -193 -193 -193 -193 -193 -193 28 26 26 -193 -209 -209 -193 -209 -193 -209 -209 -209 -209 -209 -209 -209 -209 36 46 39 42 38 39 39 37 36 36 31 29 25 26 26 26 26 26 28 28 29 29 29 30 31 31 29 26 28 26 28 26 27 28 28 29 29 28 30 28 29 29 25 24 24 32 27 30 37 34 34 35 36 36 33 37 36 27 30 30 26 30 30 35 -193 35 36 35 37 36 36 36 37 36 35 32 33 31 39 35 38 37 37 38 37 37 37 35 36 33 35 35 30 41 46 52 57 58 59 61 61 63 63 62 59 58 61 65 66 75 74 68 70 64 60 -193 56 53 51 43 42 41 38 37 37 37 37 37 39 42 41 42 46 46 43 43 45 45 43 44 45 43 44 46 47 45 46 48 49 47 50 48 50 51 52 53 51 52 54 55 57 58 58 57 57 62 59 60 59 58 58 59 58 58 57 58 57 57 58 58 57 59 58 58 -193 -225 -225 -225 -225 -225 -209 -209 -209 74 -193 -209 -209 0 0 0 0 0
    0 0 0 0 0 0 0 0 0 0 0 0 0 0 0 0 0 0 0 0 0 0 0 0 0 0 0 0 0 0 0 0 0 0 0 0 0 0 0 0 0 0 0 0 0 0 0 0 0 0 0 0 0 0 0 0 0 0 0 0 0 0 0 0 0 0 0 0 0 31 30 30 27 26 26 24 25 29 28 29 30 28 28 36 31 -193 -193 31 31 31 33 33 28 36 36 -193 -193 -209 -209 -209 -209 32 29 -193 -209 -209 -209 -193 29 -193 -193 -193 36 34 -209 35 -209 -209 37 46 40 43 39 39 39 38 37 37 -193 33 27 30 29 28 28 29 29 30 29 30 30 30 31 30 30 27 30 28 30 28 27 29 29 29 29 28 30 28 29 31 26 25 26 36 29 32 38 35 35 36 35 35 33 37 36 27 32 31 26 31 32 35 38 34 35 31 34 32 33 33 35 35 34 31 33 31 39 34 37 37 37 38 37 37 37 35 37 35 35 36 32 42 51 53 57 57 58 61 62 64 64 64 62 61 63 64 62 74 73 68 69 65 61 -193 -193 53 52 43 42 41 38 37 37 37 37 36 39 42 41 43 46 46 44 43 45 45 43 44 45 43 44 46 47 45 46 48 49 48 51 50 52 54 56 56 55 56 57 59 58 59 59 55 56 63 59 60 59 58 58 58 58 58 57 57 57 57 58 58 57 59 57 58 -209 -225 -225 -225 -225 -225 -209 -209 -209 -193 -209 -193 -209 0 0 0 0 0
    0 0 0 0 0 0 0 0 0 0 0 0 0 0 0 0 0 0 0 0 0 0 0 0 0 0 0 0 0 0 0 0 0 0 0 0 0 0 0 0 0 0 0 0 0 0 0 0 0 0 0 0 0 0 0 0 0 0 0 0 0 0 0 0 0 0 0 0 0 34 32 -193 29 29 28 25 26 31 29 29 32 28 28 36 31 -193 -193 32 32 32 33 34 29 37 37 -193 -193 -209 -209 -209 -209 -209 -209 -193 -209 -209 -193 33 33 -193 37 38 39 39 41 39 39 38 38 45 41 43 -193 -193 -193 -193 38 -193 -193 34 28 32 31 29 31 31 31 31 30 30 30 31 31 30 31 29 30 29 31 29 28 29 29 29 28 28 30 28 29 32 29 27 33 37 31 35 39 36 36 37 36 36 35 38 37 27 33 33 27 36 36 37 39 35 36 31 34 32 32 32 34 35 34 32 34 32 39 33 36 37 37 38 37 37 37 34 38 38 36 37 34 44 54 56 57 58 59 61 62 64 64 65 63 62 64 63 61 74 75 69 69 66 65 -193 -193 -193 -193 -193 41 41 38 36 36 36 36 35 39 44 42 44 46 47 44 44 45 45 43 44 44 43 44 46 47 46 46 49 50 49 53 53 55 56 59 59 58 59 60 62 60 61 60 54 55 64 59 60 59 58 58 58 58 58 57 57 57 57 58 58 57 58 57 58 -209 -225 -225 -225 -225 -225 72 -209 -209 -193 -209 72 -209 0 0 0 0 0
    0 0 0 0 0 0 0 0 0 0 0 0 0 0 0 0 0 0 0 0 0 0 0 0 0 0 0 0 0 0 0 0 0 0 0 0 0 0 0 0 0 0 0 0 0 0 0 0 0 0 0 0 0 0 0 0 0 0 0 0 0 0 0 0 0 0 0 0 0 -209 -193 -209 31 -209 35 27 28 33 31 31 34 30 29 36 31 -193 -193 32 32 32 33 34 29 37 37 -193 -209 -209 -209 -209 -209 -209 -209 -209 -209 -209 -209 33 35 36 38 39 40 40 42 40 41 39 38 45 41 43 -193 -193 -193 -193 -193 -193 -193 35 29 33 33 31 33 33 32 32 31 31 30 31 31 30 31 31 31 31 33 32 31 31 31 30 30 29 31 -193 29 35 32 32 37 37 34 36 40 37 37 37 37 37 36 38 37 27 34 34 27 38 39 39 40 37 37 34 -193 34 34 34 35 36 34 33 35 33 39 33 36 37 37 39 37 37 37 35 39 40 37 38 36 47 57 58 59 59 59 61 62 63 63 64 64 62 64 62 59 74 77 -209 -209 65 65 -193 60 -193 -193 -209 40 40 38 36 35 35 36 34 39 46 43 44 47 48 44 44 46 45 43 44 45 44 45 47 47 46 47 50 51 51 54 55 58 59 63 61 60 61 61 63 61 61 60 48 54 62 58 59 59 58 58 58 58 58 57 57 57 57 58 58 58 58 57 57 -209 -225 -225 -225 -225 -209 -209 -209 -209 -209 -209 -209 -209 0 0 0 0 0
    0 0 0 0 0 0 0 0 0 0 0 0 0 0 0 0 0 0 0 0 0 0 0 0 0 0 0 0 0 0 0 0 0 0 0 0 0 0 0 0 0 0 0 0 0 0 0 0 0 0 0 0 0 0 0 0 0 0 0 0 0 0 0 0 0 0 0 0 0 -193 -209 -209 -209 -209 -209 -209 30 35 32 -193 36 31 30 36 31 -193 -193 32 32 31 33 34 29 36 36 -193 -209 -209 -209 479 -209 -209 -209 -209 -209 -209 -209 -193 34 35 37 38 39 39 40 40 40 39 39 46 41 43 -193 -193 -193 -193 -193 -193 -193 34 28 33 32 31 32 32 31 32 30 30 30 30 31 30 31 31 32 32 33 34 33 33 33 32 34 31 35 -193 -193 -193 37 38 38 37 36 37 40 37 37 37 37 36 36 37 36 27 35 36 29 41 43 42 43 39 39 -193 -193 36 36 36 37 37 36 34 35 34 39 33 36 38 38 39 37 37 37 36 40 41 38 39 39 50 58 59 59 59 59 61 62 62 62 63 63 62 63 61 59 73 -193 -209 -193 65 65 61 61 -193 -193 -209 -193 41 38 36 35 35 36 34 40 -193 44 45 48 48 45 45 46 46 43 44 45 44 45 47 47 46 48 51 53 54 56 57 59 62 67 64 63 63 62 63 62 62 59 42 53 -193 58 59 59 58 58 58 58 59 57 58 57 57 58 58 58 59 58 58 -209 -225 -225 -225 -225 -209 -209 -209 -209 71 68 71 72 0 0 0 0 0
    0 0 0 0 0 0 0 0 0 0 0 0 0 0 0 0 0 0 0 0 0 0 0 0 0 0 0 0 0 0 0 0 0 0 0 0 0 0 0 0 0 0 0 0 0 0 0 0 0 0 0 0 0 0 0 0 0 0 0 0 0 0 0 0 0 0 0 0 0 -209 -209 -209 -209 -209 -209 -209 -209 -209 -209 -193 37 32 30 36 31 31 33 32 32 31 33 33 28 35 35 28 35 37 -209 -193 -209 -193 -193 -193 -209 -209 -209 -193 34 35 37 38 39 40 41 40 41 40 39 46 42 43 -193 -193 -193 -193 -193 -193 34 35 28 33 32 31 32 33 32 33 32 32 32 32 32 31 32 32 32 32 34 34 34 33 34 34 37 35 36 -209 31 36 38 38 38 37 36 37 40 37 36 37 37 36 36 36 36 29 37 37 34 38 39 38 40 37 39 36 37 35 36 36 37 37 36 34 36 35 39 34 36 39 39 40 38 38 38 37 41 43 39 40 43 54 59 60 60 60 59 61 62 62 62 62 63 63 63 61 57 71 69 63 -193 63 64 61 61 61 -193 -193 -209 -209 -209 41 39 -193 -209 -209 -209 -209 -193 46 49 48 46 45 46 45 43 44 45 44 45 47 47 47 50 52 55 56 57 59 60 63 67 64 63 63 63 64 62 62 -193 40 52 -209 58 59 60 58 58 59 59 59 58 58 58 57 58 59 58 59 59 58 -209 -225 -225 -225 -225 -225 -209 -209 -209 63 64 66 69 0 0 0 0 0
    0 0 0 0 0 0 0 0 0 0 0 0 0 0 0 0 0 0 0 0 0 0 0 0 0 0 0 0 0 0 0 0 0 0 0 0 0 0 0 0 0 0 0 0 0 0 0 0 0 0 0 0 0 0 0 0 0 0 0 0 0 0 0 0 0 0 0 0 0 -209 -209 -209 -209 -209 -209 -209 -209 -209 -209 -209 37 32 30 36 31 31 34 33 32 31 33 33 28 35 35 28 33 34 34 -193 -209 31 30 -193 -209 -209 -209 -209 -193 36 38 39 40 39 40 40 40 40 39 44 42 43 -193 -193 -193 -193 -193 -193 34 34 28 33 32 30 32 33 32 34 33 34 33 35 35 34 34 34 34 35 36 35 35 34 34 34 35 34 35 31 32 32 36 35 39 37 36 37 40 37 37 37 37 36 36 36 36 31 37 35 35 35 37 35 39 35 38 34 36 34 35 35 37 37 36 33 36 36 39 35 37 40 40 41 39 39 39 39 43 47 42 53 56 57 60 61 61 61 59 61 62 61 62 62 64 64 64 62 56 61 62 -193 -193 -193 -193 -193 61 61 61 60 62 -193 -193 -209 -209 -209 -209 -209 -209 -209 -193 -193 -193 48 46 45 47 46 44 44 45 44 46 48 49 50 53 55 57 58 58 60 61 62 65 63 62 62 62 63 61 61 -193 40 51 -209 58 59 60 59 59 59 59 59 58 59 59 58 59 59 59 60 60 59 -225 -225 -225 -225 -225 -225 -193 -209 -193 58 61 64 -209 0 0 0 0 0
    0 0 0 0 0 0 0 0 0 0 0 0 0 0 0 0 0 0 0 0 0 0 0 0 0 0 0 0 0 0 0 0 0 0 0 0 0 0 0 0 0 0 0 0 0 0 0 0 0 0 0 0 0 0 0 0 0 0 0 0 0 0 0 0 0 0 0 0 0 -209 -209 -209 -209 -209 -209 -209 -209 -209 -209 -209 -209 32 30 36 32 32 34 33 32 31 33 33 28 35 35 29 35 36 -193 -193 -193 36 34 32 -193 -209 -209 -193 -193 37 38 39 40 38 39 38 39 38 38 43 41 42 39 39 -193 -193 -193 -193 33 34 28 33 32 30 33 34 33 34 33 34 34 36 36 36 35 36 35 36 37 36 36 34 35 34 35 34 34 31 32 31 35 32 38 37 36 37 40 38 38 37 37 36 37 36 36 32 36 34 35 33 36 33 37 34 38 33 37 34 36 36 37 37 36 33 36 37 40 35 38 40 41 42 40 40 40 40 45 51 45 57 58 58 60 61 61 61 59 61 62 60 61 61 64 64 64 64 56 -209 -209 -209 -209 -209 -209 -209 -193 59 58 60 62 -193 -193 -193 -209 -209 -193 -193 220 -209 -209 -209 -193 -193 -193 -193 50 -193 -193 -193 -193 -193 -193 -193 54 57 58 61 60 60 60 61 61 61 63 62 60 61 61 62 60 60 -193 39 -209 -209 58 60 60 59 59 60 59 60 58 60 59 59 60 60 59 61 61 61 -225 -225 -225 -225 -225 -225 55 -193 -209 59 63 -209 -209 0 0 0 0 0
    0 0 0 0 0 0 0 0 0 0 0 0 0 0 0 0 0 0 0 0 0 0 0 0 0 0 0 0 0 0 0 0 0 0 0 0 0 0 0 0 0 0 0 0 0 0 0 0 0 0 0 0 0 0 0 0 0 0 0 0 0 0 0 0 0 0 0 0 0 -209 -209 -209 -209 -193 -209 -177 900 -209 -209 -209 -209 31 30 36 32 32 34 33 32 31 33 33 28 35 35 27 34 -193 -209 -209 -209 40 -193 36 37 -193 -209 37 37 38 38 39 40 39 38 38 38 38 38 41 41 41 38 38 38 37 37 37 32 33 28 33 33 30 33 35 34 35 34 35 35 36 36 36 34 36 35 36 37 37 37 35 36 35 35 35 34 31 32 30 34 30 37 37 35 37 40 38 -193 37 -193 36 37 37 37 33 36 34 36 34 37 34 37 33 39 35 39 35 37 38 39 38 38 33 37 37 40 36 38 41 42 43 41 41 41 42 47 53 50 57 59 59 60 61 61 61 59 61 61 59 60 60 62 64 63 64 60 61 63 -193 -209 -193 -193 -193 -209 -177 59 61 61 61 61 62 -193 -193 -193 -209 -193 -193 307 308 307 306 -209 -209 -209 -193 -209 -209 -193 141 -193 -193 60 66 64 67 63 63 62 63 62 62 62 61 59 60 60 61 59 59 -193 -209 -209 -209 59 60 61 60 60 60 60 60 59 60 60 60 61 61 60 64 64 65 -225 -225 -225 -225 -225 -225 55 55 -209 -209 -209 -209 -209 0 0 0 0 0
    0 0 0 0 0 0 0 0 0 0 0 0 0 0 0 0 0 0 0 0 0 0 0 0 0 0 0 0 0 0 0 0 0 0 0 0 0 0 0 0 0 0 0 0 0 0 0 0 0 0 0 0 0 0 0 0 0 0 0 0 0 0 0 0 0 0 0 0 0 -209 -209 -209 -209 -177 -177 -177 -193 -193 -209 -209 -209 31 30 36 31 32 34 33 32 31 33 32 28 34 34 -193 -193 -193 -209 -209 -209 -209 -209 -193 -209 -193 -209 37 38 38 39 40 40 39 39 38 38 38 38 40 40 40 37 37 38 37 36 36 32 33 27 33 34 30 34 36 35 36 35 35 35 36 36 35 33 35 34 36 37 37 38 37 37 37 37 36 35 33 33 29 33 29 36 36 34 37 40 38 -193 37 38 36 37 38 38 34 36 35 36 35 38 36 37 34 39 39 43 -209 -209 -193 41 39 39 33 37 38 40 36 38 43 43 44 43 42 43 44 50 55 54 57 60 59 61 62 61 61 59 61 62 59 60 60 61 63 62 62 60 58 60 59 -193 -193 60 -177 -209 61 62 63 62 62 62 63 63 63 63 64 -193 -193 308 310 -193 -209 -193 -209 -209 -193 -209 -209 -193 143 -193 -193 67 69 66 68 65 63 62 63 62 61 60 60 58 58 59 60 58 58 -193 -209 -209 -209 60 60 61 60 60 61 60 60 59 61 61 60 61 61 61 65 65 66 -225 -225 -225 -225 -225 -225 54 -193 -193 -209 -209 -209 -209 0 0 0 0 0
    0 0 0 0 0 0 0 0 0 0 0 0 0 0 0 0 0 0 0 0 0 0 0 0 0 0 0 0 0 0 0 0 0 0 0 0 0 0 0 0 0 0 0 0 0 0 0 0 0 0 0 0 0 0 0 0 0 0 0 0 0 0 0 0 0 0 0 0 0 -209 -209 -193 -209 -177 -177 895 -193 -209 -209 -209 -209 31 30 36 31 32 34 32 32 31 32 32 27 32 32 -209 -209 0 -209 -209 -209 -209 -209 -209 -209 -209 -209 37 37 38 39 39 39 38 38 38 38 38 38 39 39 40 37 37 37 36 36 35 32 32 27 33 34 30 34 37 35 36 36 36 36 36 36 37 33 36 34 36 37 37 38 37 38 38 37 37 36 35 35 30 34 29 36 37 35 37 42 39 -193 38 39 37 38 38 38 35 36 34 36 34 38 35 37 35 39 42 52 55 53 -193 45 38 40 33 37 38 40 37 39 44 45 46 45 44 45 46 52 56 56 58 61 60 61 62 62 62 60 61 62 58 61 61 62 65 63 63 62 60 60 -193 -193 -193 -193 -193 -193 62 62 64 63 62 62 63 63 63 63 64 61 64 -193 -193 63 61 -193 -193 -193 -193 -209 -209 -193 -193 -193 -193 68 70 67 68 65 63 62 62 61 60 58 58 57 56 56 57 57 57 -193 -209 -209 -209 60 60 61 60 60 61 60 60 59 61 61 60 61 61 60 64 65 66 -225 -225 -225 -225 -225 -225 -225 -225 -225 -225 -225 -225 -225 0 0 0 0 0
    0 0 0 0 0 0 0 0 0 0 0 0 0 0 0 0 0 0 0 0 0 0 0 0 0 0 0 0 0 0 0 0 0 0 0 0 0 0 0 0 0 0 0 0 0 0 0 0 0 0 0 0 0 0 0 0 0 0 0 0 0 0 0 0 0 0 0 0 0 -209 -209 -209 -209 -177 -177 -193 -193 -209 -209 -209 -209 30 29 36 31 32 34 32 32 31 32 32 27 32 32 25 24 -193 -209 -209 -209 -209 -209 -193 -209 -209 -209 -193 37 38 38 39 39 38 38 38 38 38 38 40 40 40 37 37 37 36 36 35 32 32 27 32 35 30 34 37 35 36 36 36 36 36 37 37 34 36 34 36 37 36 38 37 37 37 37 37 36 36 36 31 35 30 36 38 34 37 43 40 -193 38 39 38 38 39 38 36 36 34 37 34 37 33 37 33 38 40 47 52 49 45 43 37 38 34 37 38 40 39 41 45 46 47 47 47 48 48 53 57 57 59 63 61 62 62 62 63 60 62 62 58 61 61 62 66 64 64 63 61 60 -193 -193 59 59 59 59 -193 61 64 62 62 62 62 62 62 62 63 61 63 65 63 63 63 62 -193 -193 -193 -193 -193 -193 -193 -193 69 68 70 67 67 66 62 62 61 60 59 57 57 54 52 53 54 54 54 -209 -209 55 -193 60 60 61 60 61 61 60 60 59 61 61 60 61 60 59 63 63 64 -209 -225 -225 -225 -225 -225 -225 -225 -225 -225 -225 -225 -225 0 0 0 0 0
    0 0 0 0 0 0 0 0 0 0 0 0 0 0 0 0 0 0 0 0 0 0 0 0 0 0 0 0 0 0 0 0 0 0 0 0 0 0 0 0 0 0 0 0 0 0 0 0 0 0 0 0 0 0 0 0 0 0 0 0 0 0 0 0 0 0 0 0 0 -209 -209 -209 -209 -177 -193 -209 -209 -209 -209 -209 -209 31 30 36 31 32 34 33 32 31 33 32 28 32 32 26 27 -209 -209 -209 -209 -209 -209 -209 -209 -209 -209 -209 -193 38 39 39 38 37 37 37 37 37 38 39 39 40 37 37 37 36 36 35 32 33 27 34 35 30 34 37 35 36 36 36 36 36 37 38 34 36 35 36 36 36 38 36 36 37 37 37 36 35 36 31 35 30 36 38 32 36 -209 -193 40 38 -193 38 38 39 39 36 37 35 37 34 37 33 36 32 37 40 -209 -209 52 -193 42 36 37 35 38 40 41 41 43 47 48 49 50 50 51 52 55 58 58 59 64 61 62 62 62 62 60 62 62 58 61 61 61 67 64 65 63 62 61 60 59 60 59 60 59 61 60 63 61 61 61 61 61 61 61 62 60 63 64 63 63 64 62 -193 -193 -193 -193 -193 -193 -193 -193 69 68 70 67 67 66 62 62 61 60 59 56 55 52 49 49 51 49 47 -193 -209 -193 67 62 60 61 60 60 61 60 60 59 60 61 60 61 60 59 63 63 62 -225 -225 -225 -225 -225 -225 -225 -225 -225 -225 -225 -225 -225 0 0 0 0 0
    0 0 0 0 0 0 0 0 0 0 0 0 0 0 0 0 0 0 0 0 0 0 0 0 0 0 0 0 0 0 0 0 0 0 0 0 0 0 0 0 0 0 0 0 0 0 0 0 0 0 0 0 0 0 0 0 0 0 0 0 0 0 0 0 0 0 0 0 0 -209 -209 -209 -209 -209 33 -209 -193 -193 -209 -209 -193 31 30 36 32 32 34 33 32 31 32 32 27 31 31 26 27 -209 -209 -209 -209 -209 -209 -209 -209 -209 -193 -209 -193 40 40 40 38 37 37 37 37 37 37 39 38 39 37 37 38 36 36 35 33 33 28 35 36 31 35 38 35 36 37 36 36 36 37 38 34 36 34 36 37 36 38 36 36 37 37 37 36 35 35 32 35 29 35 38 30 35 -209 -193 40 38 -193 38 38 40 40 36 36 35 37 34 37 33 36 31 37 -193 -209 -209 -209 -193 38 33 36 37 38 40 42 43 45 48 49 51 51 52 53 54 56 59 59 60 65 62 63 62 62 63 61 62 62 59 62 61 62 67 65 65 62 61 61 60 60 60 59 60 60 61 61 63 61 61 61 61 61 61 61 62 60 62 63 62 62 63 61 62 -193 -193 -193 -193 -193 -193 66 68 68 70 67 67 66 62 62 61 59 58 55 54 49 47 47 48 45 44 -193 49 57 68 62 60 60 59 59 60 60 59 59 60 60 59 61 60 58 61 61 61 -225 -225 -225 -225 -225 -225 -225 -225 -225 -225 -225 -225 -225 0 0 0 0 0
    0 0 0 0 0 0 0 0 0 0 0 0 0 0 0 0 0 0 0 0 0 0 0 0 0 0 0 0 0 0 0 0 0 0 0 0 0 0 0 0 0 0 0 0 0 0 0 0 0 0 0 0 0 0 0 0 0 0 0 0 0 0 0 0 0 0 0 0 0 -209 -209 -209 27 29 33 31 30 30 30 31 33 31 30 37 32 32 34 33 32 31 32 32 27 31 31 26 27 -209 -209 -209 -209 -209 -209 -209 -209 -209 -193 -193 -193 41 40 39 36 36 36 36 36 36 37 38 38 39 37 37 38 36 36 34 33 33 28 34 36 30 34 37 35 36 37 36 36 36 37 38 34 36 35 36 36 36 37 36 36 37 37 37 36 35 35 32 35 30 35 37 30 35 41 41 41 39 39 38 38 40 40 36 36 35 36 35 37 33 35 29 33 -209 -209 66 -209 -193 31 30 36 36 38 39 40 43 46 48 51 51 52 54 55 55 56 59 59 59 64 61 62 62 62 63 61 62 62 59 62 61 61 66 64 63 61 61 61 60 60 61 60 60 60 62 61 63 61 61 61 61 61 61 61 62 60 62 62 61 61 63 61 62 62 63 68 68 68 67 66 69 68 70 67 67 66 63 62 60 59 58 54 53 49 47 46 46 45 44 40 48 58 68 62 59 59 58 58 59 59 59 58 59 59 59 60 59 57 59 59 58 -225 -225 -225 -225 -225 -225 -225 -225 -225 -225 -225 -225 -225 0 0 0 0 0
    0 0 0 0 0 0 0 0 0 0 0 0 0 0 0 0 0 0 0 0 0 0 0 0 0 0 0 0 0 0 0 0 0 0 0 0 0 0 0 0 0 0 0 0 0 0 0 0 0 0 0 0 0 0 0 0 0 0 0 0 0 0 0 0 0 0 0 0 0 -193 26 25 27 29 32 30 30 30 30 29 32 29 29 37 32 32 34 33 32 31 32 32 27 31 31 26 26 -209 -209 -209 44 -209 -209 -209 46 -209 -193 41 41 41 40 38 36 36 36 36 36 36 37 37 37 39 36 36 37 35 35 34 33 33 28 34 36 30 34 38 36 37 37 36 36 36 37 38 34 35 34 35 35 36 37 36 35 38 37 37 37 36 36 32 35 32 35 38 31 35 40 41 41 39 39 38 38 40 40 36 36 34 35 35 37 32 34 28 -209 -209 61 62 -209 30 31 30 37 37 38 39 40 43 45 48 50 51 52 54 55 54 56 57 58 58 63 60 62 62 62 62 61 62 62 58 61 60 59 63 62 62 61 60 61 60 60 61 60 61 61 63 61 63 61 62 61 61 61 61 61 62 60 63 62 61 61 63 61 62 62 63 66 67 67 67 66 68 68 69 66 66 65 63 62 60 59 58 54 53 50 48 46 46 45 44 39 46 59 69 62 59 59 58 58 59 58 58 57 58 58 58 59 58 57 58 58 57 -225 -225 -225 -225 -225 -225 -225 -225 -225 -225 -225 -225 -225 0 0 0 0 0</data></disparity>
</opencv_storage>
