<?xml version="1.0"?>
<opencv_storage>
<gps_time_stamp>278320</gps_time_stamp>
<gps_x>-1.3978345870971680e+001</gps_x>
<gps_y>1.1297990798950195e+001</gps_y>
<gps_z>-2.2886180877685547e+000</gps_z>
<image_time_stamp>269159</image_time_stamp>
<disparity type_id="opencv-matrix">
  <rows>93</rows>
  <cols>320</cols>
  <dt>s</dt>
  <data>
    0 0 0 0 0 0 0 0 0 0 0 0 0 0 0 0 0 0 0 0 0 0 0 0 0 0 0 0 0 0 0 0 0 0 0 0 0 0 0 0 0 0 0 0 0 0 0 0 0 0 0 0 0 0 0 0 0 0 0 0 0 0 0 0 0 0 0 0 0 14 14 14 15 14 13 14 14 14 12 14 18 14 15 19 16 18 17 17 16 15 17 16 14 18 15 14 16 16 16 15 16 17 14 17 18 16 19 20 22 18 17 21 17 17 19 16 17 16 18 18 15 21 18 16 20 19 18 18 18 18 16 18 19 18 19 19 18 21 17 17 20 19 19 18 20 20 16 21 21 17 18 18 17 17 15 18 17 15 18 17 19 18 16 19 17 18 19 18 18 18 18 20 16 20 19 13 20 22 20 19 19 20 19 20 19 19 19 18 19 18 19 18 18 20 19 18 19 18 19 18 20 20 17 21 21 21 21 22 21 22 22 23 23 22 24 24 22 22 23 22 23 23 23 23 23 25 25 25 26 26 26 27 29 28 28 32 31 30 30 30 32 31 33 32 31 32 35 37 36 34 37 38 38 38 39 39 38 39 39 39 38 40 40 41 41 42 42 42 45 44 44 46 45 46 46 48 47 48 48 50 50 49 49 52 49 50 50 52 51 51 55 54 52 55 -193 -193 58 58 61 59 60 63 62 61 62 62 65 60 65 67 65 68 68 68 67 0 0 0 0 0
    0 0 0 0 0 0 0 0 0 0 0 0 0 0 0 0 0 0 0 0 0 0 0 0 0 0 0 0 0 0 0 0 0 0 0 0 0 0 0 0 0 0 0 0 0 0 0 0 0 0 0 0 0 0 0 0 0 0 0 0 0 0 0 0 0 0 0 0 0 14 14 14 15 14 13 14 15 14 12 15 18 15 16 19 16 18 18 17 17 15 17 16 14 18 15 14 16 16 15 14 16 16 14 17 17 16 19 20 22 18 18 21 17 17 19 16 17 16 18 18 15 21 18 16 20 19 18 17 18 18 16 18 19 18 19 18 17 20 17 17 19 18 18 18 20 20 15 21 21 17 20 19 19 18 18 19 19 17 19 18 19 18 16 19 18 17 19 18 18 18 18 20 16 20 19 14 20 21 19 19 19 20 19 21 19 19 19 18 19 18 19 18 18 20 19 19 19 18 20 19 21 20 18 20 21 21 21 20 20 21 21 22 22 21 23 23 22 21 22 22 23 23 23 23 24 25 25 26 25 26 26 27 29 29 28 32 32 31 31 30 32 31 33 33 31 31 35 36 36 34 37 39 39 38 39 39 39 40 40 39 38 40 40 41 41 42 42 42 44 44 44 46 45 46 47 48 47 47 48 49 50 49 49 51 49 50 50 51 51 50 54 53 51 55 55 55 57 58 61 58 60 63 62 61 61 62 65 60 64 67 65 68 68 68 67 0 0 0 0 0
    0 0 0 0 0 0 0 0 0 0 0 0 0 0 0 0 0 0 0 0 0 0 0 0 0 0 0 0 0 0 0 0 0 0 0 0 0 0 0 0 0 0 0 0 0 0 0 0 0 0 0 0 0 0 0 0 0 0 0 0 0 0 0 0 0 0 0 0 0 14 14 13 15 14 13 14 15 14 12 15 17 15 16 19 16 18 18 16 17 16 17 16 15 18 15 14 16 15 16 15 16 16 15 18 18 17 19 20 22 18 18 21 17 17 19 16 17 16 18 18 15 20 18 17 19 19 18 17 18 18 16 18 19 18 18 17 16 19 16 16 19 17 18 17 20 19 16 21 21 17 20 19 19 18 19 19 19 17 19 18 18 19 16 19 18 18 20 18 18 19 18 21 17 20 19 15 19 20 18 18 18 19 18 20 18 19 18 18 19 18 19 18 17 20 19 19 20 19 20 19 21 21 19 20 21 21 21 20 19 20 21 21 21 20 22 22 21 21 22 22 22 23 23 23 24 25 26 26 25 26 26 26 29 28 28 31 33 31 31 31 33 31 32 33 31 31 34 36 36 33 37 40 39 39 40 40 39 40 40 40 38 40 40 41 41 41 42 41 44 44 43 46 45 46 47 48 47 47 47 49 50 49 49 51 48 49 49 51 50 50 54 53 51 -193 55 55 -193 58 60 58 60 63 61 61 61 62 65 60 64 67 65 67 67 68 67 0 0 0 0 0
    0 0 0 0 0 0 0 0 0 0 0 0 0 0 0 0 0 0 0 0 0 0 0 0 0 0 0 0 0 0 0 0 0 0 0 0 0 0 0 0 0 0 0 0 0 0 0 0 0 0 0 0 0 0 0 0 0 0 0 0 0 0 0 0 0 0 0 0 0 14 14 13 15 14 13 14 14 15 13 15 17 14 16 18 16 18 18 16 17 16 18 16 15 17 15 14 16 15 16 15 16 15 15 18 17 17 18 19 21 18 18 21 17 17 19 17 17 16 18 18 15 20 19 17 19 19 18 17 18 18 17 17 19 17 18 17 17 19 16 16 18 16 18 16 19 19 15 20 20 17 20 19 19 18 19 18 19 17 19 18 18 19 17 19 18 18 20 19 19 19 18 21 17 20 19 15 18 19 17 18 18 19 18 20 18 19 18 18 19 18 19 18 17 20 19 19 20 19 21 20 21 21 20 20 21 20 21 20 19 19 20 21 21 20 21 21 21 20 21 22 22 23 24 23 24 25 27 26 26 27 26 26 29 28 28 30 33 31 31 31 34 31 32 33 32 30 34 35 35 32 37 40 39 39 40 40 40 40 40 40 39 40 39 41 40 41 42 42 44 44 44 46 45 47 47 47 48 48 47 49 50 49 49 51 48 49 49 51 50 49 53 52 50 54 55 55 -193 58 59 58 60 62 61 60 61 61 65 60 63 66 65 67 67 67 67 0 0 0 0 0
    0 0 0 0 0 0 0 0 0 0 0 0 0 0 0 0 0 0 0 0 0 0 0 0 0 0 0 0 0 0 0 0 0 0 0 0 0 0 0 0 0 0 0 0 0 0 0 0 0 0 0 0 0 0 0 0 0 0 0 0 0 0 0 0 0 0 0 0 0 14 14 13 15 13 13 14 15 15 13 16 17 14 17 18 16 18 17 16 17 16 17 16 15 17 14 14 16 14 15 15 15 15 16 17 16 18 17 18 20 18 18 20 17 17 18 17 17 16 18 18 15 20 19 16 19 19 18 17 18 18 18 17 18 17 18 17 17 18 16 16 18 16 18 16 19 18 16 20 20 18 21 18 19 18 19 18 19 17 19 18 18 19 18 19 19 18 20 19 19 19 18 20 17 20 18 16 17 19 17 18 17 19 18 20 18 19 18 18 19 18 19 18 17 20 19 19 20 19 21 20 21 21 20 20 21 20 21 20 19 19 20 20 21 20 21 21 21 20 21 22 22 23 24 23 25 26 27 27 26 27 26 26 30 28 28 29 33 31 31 31 34 31 32 33 32 30 34 35 36 31 38 40 39 39 40 40 40 40 40 40 39 40 40 41 40 41 42 42 44 44 44 46 45 47 47 47 48 48 47 49 50 49 49 51 48 49 49 51 50 49 53 52 50 54 55 54 56 57 59 57 60 61 60 59 60 61 65 61 62 66 65 67 67 67 67 0 0 0 0 0
    0 0 0 0 0 0 0 0 0 0 0 0 0 0 0 0 0 0 0 0 0 0 0 0 0 0 0 0 0 0 0 0 0 0 0 0 0 0 0 0 0 0 0 0 0 0 0 0 0 0 0 0 0 0 0 0 0 0 0 0 0 0 0 0 0 0 0 0 0 14 14 13 15 13 13 14 14 15 14 16 16 14 17 17 16 18 17 16 17 16 17 16 16 17 14 14 16 15 16 16 15 15 16 17 17 18 17 18 19 18 18 20 17 18 18 18 17 17 18 19 16 20 19 17 19 19 17 18 18 18 18 16 18 17 18 17 17 18 16 16 18 16 17 16 19 18 16 20 19 18 20 18 19 17 19 18 19 17 19 18 18 19 18 19 19 19 20 19 19 20 18 20 17 19 18 16 17 19 17 18 17 19 18 20 18 19 18 18 18 18 19 18 17 20 18 19 20 19 20 20 21 21 20 20 21 20 21 20 19 19 20 20 21 20 21 21 21 20 21 22 22 22 23 23 25 25 27 27 26 27 27 26 30 28 29 29 32 30 31 31 34 30 33 33 33 31 34 36 36 32 38 40 39 39 41 40 40 40 40 39 39 40 39 40 40 42 42 42 44 45 44 46 45 47 47 47 48 48 47 49 50 49 49 52 49 50 49 51 50 49 53 52 49 54 55 54 56 57 58 57 59 61 60 59 59 60 65 61 62 66 66 67 67 67 67 0 0 0 0 0
    0 0 0 0 0 0 0 0 0 0 0 0 0 0 0 0 0 0 0 0 0 0 0 0 0 0 0 0 0 0 0 0 0 0 0 0 0 0 0 0 0 0 0 0 0 0 0 0 0 0 0 0 0 0 0 0 0 0 0 0 0 0 0 0 0 0 0 0 0 13 14 13 15 13 14 14 14 15 14 16 16 14 17 17 16 18 17 16 18 16 17 16 16 18 14 15 17 14 15 17 15 15 16 17 16 18 16 18 18 18 18 19 17 18 18 18 17 18 19 19 16 20 19 17 19 19 17 18 18 18 19 16 18 18 18 17 17 17 16 16 18 16 17 16 19 18 16 19 18 18 20 17 18 17 19 18 18 17 19 17 18 19 18 19 19 19 20 19 19 20 18 20 17 19 18 16 17 19 16 18 17 19 18 20 18 19 17 18 18 18 19 18 17 19 19 20 20 20 20 20 21 21 20 20 21 20 21 20 20 20 21 21 21 20 21 21 21 20 21 22 22 22 23 23 24 25 27 26 25 27 27 27 30 28 29 28 32 31 31 31 34 30 33 33 33 31 34 35 36 32 38 40 39 39 41 40 40 39 40 39 38 40 39 40 40 41 42 42 44 45 44 46 45 47 47 47 49 49 47 49 51 49 50 52 49 50 49 51 50 49 52 52 49 54 54 54 56 57 57 57 59 60 59 58 59 59 65 61 62 67 66 67 67 67 68 0 0 0 0 0
    0 0 0 0 0 0 0 0 0 0 0 0 0 0 0 0 0 0 0 0 0 0 0 0 0 0 0 0 0 0 0 0 0 0 0 0 0 0 0 0 0 0 0 0 0 0 0 0 0 0 0 0 0 0 0 0 0 0 0 0 0 0 0 0 0 0 0 0 0 13 14 13 14 13 14 14 13 14 14 16 16 14 17 16 16 18 16 16 18 15 17 16 16 18 14 15 17 14 16 17 15 15 16 17 16 17 16 18 17 18 18 19 17 18 18 19 17 19 19 20 17 20 20 17 19 19 17 18 18 18 19 16 18 17 18 18 17 17 16 16 18 16 17 16 19 17 16 19 18 18 20 17 18 17 19 18 18 17 19 17 18 19 18 19 19 19 20 19 19 20 18 20 17 18 18 16 17 19 17 18 17 19 18 20 18 19 16 18 17 18 18 18 17 19 19 20 20 20 20 20 21 21 21 20 21 20 21 20 20 20 21 21 22 21 22 21 21 20 21 22 21 21 22 23 24 24 26 26 25 27 27 27 29 28 29 28 32 31 31 32 34 30 33 33 33 31 33 35 36 33 38 40 39 39 41 40 39 39 39 39 38 40 39 40 40 41 42 42 44 45 44 46 46 47 47 47 49 49 47 50 51 50 50 52 49 50 49 51 51 49 52 52 48 54 54 53 56 57 57 57 59 60 59 58 58 58 66 62 61 67 66 67 67 67 68 0 0 0 0 0
    0 0 0 0 0 0 0 0 0 0 0 0 0 0 0 0 0 0 0 0 0 0 0 0 0 0 0 0 0 0 0 0 0 0 0 0 0 0 0 0 0 0 0 0 0 0 0 0 0 0 0 0 0 0 0 0 0 0 0 0 0 0 0 0 0 0 0 0 0 13 13 13 13 13 14 13 13 14 14 15 16 14 17 16 16 18 16 16 18 15 17 16 16 18 15 16 17 14 16 18 15 15 16 17 16 17 16 18 16 18 18 18 17 18 18 19 17 19 19 20 16 20 20 17 19 19 17 18 18 18 19 16 18 17 18 18 17 17 16 17 18 17 18 17 19 18 17 20 19 18 20 17 18 17 19 18 18 17 19 17 18 19 18 19 20 19 20 19 19 20 18 20 17 18 18 16 17 19 17 19 17 19 18 20 18 19 16 18 17 18 18 18 17 18 19 19 20 20 20 21 21 21 22 20 21 21 21 21 21 20 21 21 22 22 22 21 21 20 21 21 21 21 21 22 23 23 26 25 25 27 27 27 29 28 29 28 31 31 31 32 33 30 33 33 33 31 32 35 37 33 38 39 39 39 40 40 39 39 39 39 38 40 39 39 40 41 42 42 44 45 44 46 46 47 46 47 49 50 47 50 52 51 51 53 50 51 50 51 51 49 52 52 48 54 54 53 56 57 57 57 58 59 58 58 58 58 66 62 61 67 67 68 67 67 68 0 0 0 0 0
    0 0 0 0 0 0 0 0 0 0 0 0 0 0 0 0 0 0 0 0 0 0 0 0 0 0 0 0 0 0 0 0 0 0 0 0 0 0 0 0 0 0 0 0 0 0 0 0 0 0 0 0 0 0 0 0 0 0 0 0 0 0 0 0 0 0 0 0 0 13 13 14 13 13 14 13 13 14 14 15 16 14 17 15 16 18 15 16 18 15 17 16 16 18 14 16 18 14 16 18 15 15 16 17 16 17 16 18 16 18 18 18 16 18 18 19 17 19 19 19 17 20 20 17 19 19 17 18 18 18 19 16 18 17 18 18 17 17 17 17 18 18 19 18 19 19 18 21 19 19 20 17 18 17 19 17 18 17 18 17 18 19 18 19 20 19 20 19 19 19 18 20 17 18 17 16 17 19 16 19 17 19 18 20 19 19 16 19 18 18 18 18 16 18 19 19 20 20 20 21 21 21 22 20 22 21 21 21 21 21 22 21 23 -193 22 22 22 21 21 22 21 20 20 22 23 23 26 25 25 26 27 27 28 28 29 28 31 31 31 32 33 30 33 33 33 31 32 35 37 34 38 39 38 39 40 40 39 38 39 39 38 39 39 40 40 41 43 43 44 45 44 45 46 46 46 46 49 51 48 51 52 51 52 53 50 51 50 51 51 49 52 52 48 55 54 54 56 57 57 57 58 58 57 57 57 58 66 63 62 68 68 68 68 68 68 0 0 0 0 0
    0 0 0 0 0 0 0 0 0 0 0 0 0 0 0 0 0 0 0 0 0 0 0 0 0 0 0 0 0 0 0 0 0 0 0 0 0 0 0 0 0 0 0 0 0 0 0 0 0 0 0 0 0 0 0 0 0 0 0 0 0 0 0 0 0 0 0 0 0 12 13 15 13 13 15 13 13 14 15 15 16 15 17 15 16 18 15 16 18 15 16 16 16 18 15 17 18 15 16 19 15 16 16 17 16 17 16 18 16 17 17 17 16 18 18 19 17 19 18 19 17 19 19 17 18 18 17 18 18 18 19 16 18 17 18 18 17 17 17 17 18 19 19 18 19 19 18 21 19 19 20 17 18 17 18 17 18 17 18 16 18 19 18 19 20 19 19 19 19 19 18 20 18 17 17 16 16 19 16 18 17 19 18 20 19 19 16 19 18 19 19 19 17 19 19 19 20 20 20 21 21 21 22 20 22 21 21 21 22 21 22 21 23 -193 -193 -193 22 21 21 22 21 20 20 22 23 22 25 24 25 26 27 27 28 27 29 28 30 31 31 32 32 30 32 32 32 32 32 35 38 35 37 38 38 38 39 39 39 38 38 39 38 39 39 40 40 41 43 43 43 45 44 45 45 46 46 46 49 51 48 52 53 52 52 53 51 52 50 52 52 50 52 52 48 55 54 54 56 57 57 57 57 57 55 57 57 58 67 64 62 68 69 69 69 68 69 0 0 0 0 0
    0 0 0 0 0 0 0 0 0 0 0 0 0 0 0 0 0 0 0 0 0 0 0 0 0 0 0 0 0 0 0 0 0 0 0 0 0 0 0 0 0 0 0 0 0 0 0 0 0 0 0 0 0 0 0 0 0 0 0 0 0 0 0 0 0 0 0 0 0 12 13 15 13 13 15 14 14 14 15 15 16 15 17 15 16 18 15 16 18 15 16 16 16 18 15 17 18 15 16 18 15 16 16 16 16 16 16 18 16 17 17 17 16 18 18 20 17 19 18 19 17 19 19 16 18 18 17 19 18 18 19 16 18 18 18 18 17 17 17 17 18 19 18 18 19 19 18 21 19 19 20 17 19 18 18 17 17 17 18 16 18 19 18 18 20 19 19 19 18 19 17 19 18 17 16 17 16 19 16 19 17 19 19 20 19 19 16 19 18 19 19 18 17 19 20 19 20 20 20 21 22 21 22 20 22 21 22 22 22 21 22 22 23 -177 223 -193 22 21 22 22 21 21 19 22 22 22 25 24 25 26 27 28 28 28 29 28 30 31 31 32 31 30 32 32 32 33 33 35 38 36 37 37 38 38 39 39 38 37 38 39 38 39 39 39 40 41 42 43 43 45 45 45 45 46 46 46 49 52 48 53 54 52 53 54 52 52 51 52 52 50 52 52 48 55 55 54 57 57 57 58 56 58 57 58 59 60 68 66 63 69 70 70 69 69 69 0 0 0 0 0
    0 0 0 0 0 0 0 0 0 0 0 0 0 0 0 0 0 0 0 0 0 0 0 0 0 0 0 0 0 0 0 0 0 0 0 0 0 0 0 0 0 0 0 0 0 0 0 0 0 0 0 0 0 0 0 0 0 0 0 0 0 0 0 0 0 0 0 0 0 13 14 15 13 13 16 14 14 15 15 15 16 15 17 15 16 17 15 16 18 15 16 16 16 18 15 16 18 15 16 18 15 16 16 17 16 17 16 18 16 17 17 17 16 18 19 20 18 20 19 20 18 20 20 17 18 18 17 19 18 17 19 16 18 17 18 18 17 17 17 17 18 19 18 18 19 19 18 21 20 19 20 17 19 18 18 17 17 17 18 16 18 20 17 18 20 19 18 19 18 19 17 19 18 16 16 17 16 20 16 19 17 19 19 20 19 19 16 19 18 20 19 18 18 19 20 20 20 21 20 21 22 21 22 20 22 21 21 22 22 22 23 -193 24 -177 223 -193 23 22 22 22 21 21 19 22 22 22 25 24 24 26 27 28 28 28 30 29 30 31 31 32 31 31 33 33 32 34 34 36 38 36 37 37 38 38 39 38 38 37 38 39 38 38 39 39 40 40 42 42 43 45 45 45 45 46 46 46 48 52 48 53 54 53 54 54 52 53 51 52 52 50 52 52 47 54 53 54 56 57 56 -193 -209 59 -193 59 61 60 69 67 64 69 70 70 70 70 70 0 0 0 0 0
    0 0 0 0 0 0 0 0 0 0 0 0 0 0 0 0 0 0 0 0 0 0 0 0 0 0 0 0 0 0 0 0 0 0 0 0 0 0 0 0 0 0 0 0 0 0 0 0 0 0 0 0 0 0 0 0 0 0 0 0 0 0 0 0 0 0 0 0 0 13 14 16 12 13 16 14 14 15 15 15 16 15 17 15 16 16 15 15 18 15 16 16 16 18 15 16 18 15 16 18 15 17 16 17 16 17 16 18 16 17 17 18 16 18 19 20 18 20 19 20 18 20 20 17 18 18 17 19 18 18 19 16 18 17 18 18 17 18 17 17 19 19 19 18 19 19 18 21 20 19 20 17 19 18 18 18 18 18 19 16 18 20 17 18 20 19 18 19 18 19 17 20 18 17 17 18 17 21 17 20 18 20 20 19 19 19 16 19 18 20 19 18 18 19 21 20 21 21 21 22 22 21 22 20 22 21 22 22 22 22 23 -209 25 -177 224 -193 23 22 22 22 21 21 19 22 22 21 25 24 24 26 26 28 28 28 30 29 30 31 32 32 31 31 34 33 33 35 34 35 38 37 37 37 38 38 38 38 39 38 39 39 38 38 39 39 40 40 42 42 42 45 45 44 45 45 45 46 48 52 48 53 54 53 54 55 53 53 51 52 53 50 52 52 47 53 52 53 57 -193 -193 -209 -209 60 -209 62 66 63 70 68 65 69 71 70 70 70 70 0 0 0 0 0
    0 0 0 0 0 0 0 0 0 0 0 0 0 0 0 0 0 0 0 0 0 0 0 0 0 0 0 0 0 0 0 0 0 0 0 0 0 0 0 0 0 0 0 0 0 0 0 0 0 0 0 0 0 0 0 0 0 0 0 0 0 0 0 0 0 0 0 0 0 13 14 16 12 13 16 14 14 15 15 15 15 15 17 14 16 16 15 15 18 15 16 16 15 18 16 16 18 15 16 18 15 17 16 18 16 17 16 18 16 17 17 18 15 18 19 20 18 20 19 20 18 20 20 17 18 19 17 20 19 18 19 16 18 17 18 18 17 18 17 17 19 19 19 19 20 20 18 22 21 20 20 18 19 18 18 18 18 18 19 16 18 20 16 17 20 19 17 19 18 19 17 20 18 17 18 19 19 22 19 21 19 20 21 20 19 19 16 19 18 20 19 18 19 19 21 19 21 21 21 22 22 22 23 20 23 22 22 23 -193 -193 -193 -193 25 -193 -193 -193 23 23 22 22 21 21 19 22 22 21 25 24 24 26 26 27 27 28 30 29 30 32 32 33 31 31 34 32 33 35 34 35 38 37 37 37 38 38 38 38 39 38 39 40 38 39 40 39 40 40 42 42 42 45 45 44 45 45 45 46 47 52 48 53 54 53 54 55 53 53 51 52 52 50 51 51 46 52 51 51 56 -193 -193 -209 -209 -193 -193 68 69 67 70 69 65 69 71 70 70 70 70 0 0 0 0 0
    0 0 0 0 0 0 0 0 0 0 0 0 0 0 0 0 0 0 0 0 0 0 0 0 0 0 0 0 0 0 0 0 0 0 0 0 0 0 0 0 0 0 0 0 0 0 0 0 0 0 0 0 0 0 0 0 0 0 0 0 0 0 0 0 0 0 0 0 0 13 14 17 12 13 16 14 15 15 15 15 15 16 17 15 15 16 15 15 17 15 16 16 15 17 16 15 18 15 16 18 15 17 16 18 17 18 17 18 17 17 17 18 15 18 19 20 18 19 19 19 18 20 20 17 18 19 17 20 19 18 19 17 18 18 19 18 17 18 18 17 19 20 19 19 20 21 19 24 23 21 21 18 20 18 18 18 18 19 19 18 19 21 17 17 20 19 17 19 18 19 17 20 19 18 19 20 20 23 20 23 20 22 22 20 19 19 17 20 18 20 19 18 18 19 21 19 21 21 21 22 23 22 23 21 23 22 23 23 -193 -193 -193 -193 26 27 -193 -193 24 23 22 23 22 22 19 21 22 22 25 24 24 26 26 28 27 27 29 29 30 32 32 33 31 32 34 33 34 35 34 35 38 37 37 37 38 38 38 39 40 38 39 40 39 39 40 40 40 41 42 42 42 45 45 44 45 45 45 46 47 51 47 53 54 52 54 55 53 53 51 52 52 50 51 50 46 50 48 48 55 -193 -193 -209 -209 -193 -193 69 70 68 71 69 65 68 71 70 70 70 70 0 0 0 0 0
    0 0 0 0 0 0 0 0 0 0 0 0 0 0 0 0 0 0 0 0 0 0 0 0 0 0 0 0 0 0 0 0 0 0 0 0 0 0 0 0 0 0 0 0 0 0 0 0 0 0 0 0 0 0 0 0 0 0 0 0 0 0 0 0 0 0 0 0 0 13 14 17 13 14 17 15 15 16 16 16 15 16 17 15 15 16 16 15 17 15 15 15 15 17 15 15 17 15 16 18 16 17 16 19 17 18 17 18 18 17 17 19 16 18 19 20 18 19 19 19 18 20 20 18 18 19 18 21 20 19 19 18 19 18 19 19 17 19 18 17 20 21 20 20 21 22 21 25 26 23 23 22 22 20 19 19 19 20 19 18 19 21 17 18 20 19 17 19 18 19 17 20 19 18 19 21 21 23 21 23 21 22 22 21 19 20 17 20 19 20 20 18 19 20 22 20 -193 22 22 23 23 23 23 21 23 22 23 24 -193 -193 25 24 26 28 26 26 24 24 23 23 22 22 20 22 23 22 26 25 25 27 26 28 28 27 30 29 30 32 33 33 31 33 34 33 34 36 35 35 38 37 37 37 38 38 39 39 40 39 39 40 39 39 41 40 41 41 42 43 42 45 45 44 45 45 45 46 47 51 47 53 53 52 54 54 54 54 51 52 52 50 52 50 46 48 46 49 -209 -193 -209 -209 -209 -209 -209 68 70 70 71 70 65 68 70 70 70 70 70 0 0 0 0 0
    0 0 0 0 0 0 0 0 0 0 0 0 0 0 0 0 0 0 0 0 0 0 0 0 0 0 0 0 0 0 0 0 0 0 0 0 0 0 0 0 0 0 0 0 0 0 0 0 0 0 0 0 0 0 0 0 0 0 0 0 0 0 0 0 0 0 0 0 0 13 14 17 13 14 17 15 16 16 17 16 16 17 18 16 16 16 17 16 17 15 16 15 15 17 16 15 18 16 17 19 17 18 16 19 17 18 18 18 19 17 17 20 16 19 20 21 19 20 20 20 18 21 20 18 18 19 18 21 20 19 20 18 19 19 20 19 18 19 18 17 20 21 20 21 21 22 21 25 26 24 24 23 24 21 20 20 20 20 19 18 20 21 18 19 21 20 17 20 18 20 18 21 19 19 20 22 22 24 22 24 22 23 23 21 20 20 17 20 19 20 20 18 20 22 23 21 -193 23 23 24 24 23 24 22 24 23 24 24 24 24 25 25 27 29 27 27 25 25 24 24 24 24 21 23 24 23 27 27 26 27 27 29 28 27 30 30 31 33 33 33 31 33 35 34 34 36 35 35 37 37 37 37 38 38 39 39 40 39 39 40 39 39 41 41 41 41 42 43 43 46 45 44 45 46 45 47 46 51 46 52 53 51 53 54 54 53 51 50 51 48 52 48 43 45 45 52 -209 -193 -209 -209 -209 -209 -209 69 71 71 71 70 65 67 70 70 70 70 70 0 0 0 0 0
    0 0 0 0 0 0 0 0 0 0 0 0 0 0 0 0 0 0 0 0 0 0 0 0 0 0 0 0 0 0 0 0 0 0 0 0 0 0 0 0 0 0 0 0 0 0 0 0 0 0 0 0 0 0 0 0 0 0 0 0 0 0 0 0 0 0 0 0 0 12 14 17 13 14 17 16 17 17 17 17 16 18 19 17 17 17 18 16 17 16 16 16 15 18 17 16 18 17 17 19 17 19 16 20 17 18 17 18 18 17 17 20 16 20 21 22 20 21 20 20 19 21 21 19 18 20 19 22 21 20 21 19 20 20 20 20 18 20 19 17 20 20 20 20 21 22 21 25 26 25 25 24 24 21 21 21 22 22 20 20 21 23 20 21 22 21 19 21 19 20 18 21 20 20 21 23 23 25 24 25 24 25 24 22 21 21 18 20 20 20 21 18 21 23 24 23 -193 -193 -193 25 25 24 24 22 24 24 25 25 25 25 26 26 27 30 28 28 26 26 26 26 26 27 23 25 26 25 29 30 28 30 29 30 29 28 31 30 31 34 34 34 33 35 36 34 35 36 35 34 37 37 37 37 38 39 39 39 41 40 39 40 40 39 41 41 41 42 42 44 43 46 46 45 45 46 45 47 46 50 45 52 52 50 52 53 54 54 51 50 50 46 52 46 -209 -193 46 54 -209 -193 -209 -209 -209 -193 -193 -193 -193 71 71 70 64 66 70 69 69 69 70 0 0 0 0 0
    0 0 0 0 0 0 0 0 0 0 0 0 0 0 0 0 0 0 0 0 0 0 0 0 0 0 0 0 0 0 0 0 0 0 0 0 0 0 0 0 0 0 0 0 0 0 0 0 0 0 0 0 0 0 0 0 0 0 0 0 0 0 0 0 0 0 0 0 0 12 14 17 13 13 17 16 17 17 17 17 17 18 19 18 18 17 19 17 18 16 16 16 16 18 17 15 17 17 17 18 17 19 16 20 18 19 18 18 19 17 17 21 17 21 -193 -193 21 22 22 21 20 22 22 20 19 21 20 23 23 22 22 20 21 21 21 21 19 20 19 17 20 20 19 20 21 21 20 26 27 27 27 26 25 22 22 23 23 23 22 23 23 24 22 23 24 22 21 22 20 21 20 23 22 22 23 25 25 27 26 27 26 27 27 23 23 22 20 21 21 21 21 19 22 25 25 24 -193 26 26 27 27 26 25 24 25 25 26 26 27 27 28 28 30 33 30 31 29 29 28 30 29 30 27 30 33 34 36 38 35 35 34 32 30 29 30 30 33 37 38 36 36 37 37 35 36 36 35 34 37 37 37 37 39 39 39 40 41 40 -193 40 -209 40 42 42 42 42 43 44 44 46 46 45 45 46 46 47 46 49 45 51 50 48 51 51 53 53 49 48 45 40 -193 -193 -209 -193 -209 48 -209 -209 -209 -209 -209 72 -209 -193 -193 -193 -209 70 64 66 69 68 68 68 69 0 0 0 0 0
    0 0 0 0 0 0 0 0 0 0 0 0 0 0 0 0 0 0 0 0 0 0 0 0 0 0 0 0 0 0 0 0 0 0 0 0 0 0 0 0 0 0 0 0 0 0 0 0 0 0 0 0 0 0 0 0 0 0 0 0 0 0 0 0 0 0 0 0 0 12 14 17 13 13 16 16 17 17 18 18 18 19 20 19 18 18 20 18 18 17 17 17 16 18 18 16 18 18 17 19 18 19 17 20 18 19 18 19 19 18 19 21 18 22 -193 -209 23 23 23 22 22 24 24 22 21 23 23 25 25 25 24 23 23 23 23 22 21 22 20 18 20 20 19 20 21 21 19 27 31 32 32 30 26 -209 25 25 26 26 24 25 26 28 24 26 27 -193 23 23 22 23 22 -193 24 24 27 27 28 29 29 29 29 29 29 26 25 25 22 23 22 22 22 21 24 28 28 27 29 29 29 30 30 29 27 27 28 29 29 30 30 30 31 31 32 33 31 31 31 30 30 33 33 35 31 38 41 41 41 42 40 40 36 33 28 27 26 -193 -193 -193 39 38 38 39 37 36 36 36 34 34 37 38 37 37 39 39 39 40 41 40 -193 40 -209 40 42 43 42 43 43 45 45 46 46 45 46 46 46 47 46 49 45 50 49 47 50 49 52 51 47 46 41 38 38 37 -209 -209 -209 -209 -209 -209 -209 -209 -209 -193 -209 129 -193 -209 -209 70 63 65 69 68 68 67 68 0 0 0 0 0
    0 0 0 0 0 0 0 0 0 0 0 0 0 0 0 0 0 0 0 0 0 0 0 0 0 0 0 0 0 0 0 0 0 0 0 0 0 0 0 0 0 0 0 0 0 0 0 0 0 0 0 0 0 0 0 0 0 0 0 0 0 0 0 0 0 0 0 0 0 12 13 16 12 13 15 16 16 17 18 19 18 20 21 20 20 20 22 20 19 18 17 18 17 18 19 16 18 19 18 19 18 19 18 20 18 19 18 19 20 20 20 23 20 -193 -209 -209 -193 24 24 -193 23 25 24 24 23 25 25 26 28 28 28 26 26 26 26 25 24 23 21 19 20 20 20 21 23 24 -209 29 35 36 36 35 -193 -209 25 27 27 28 27 28 29 32 30 31 31 29 -193 27 -193 -193 -209 29 29 28 31 30 31 32 32 32 31 31 30 28 28 27 25 24 24 23 24 23 24 30 30 31 34 32 32 33 34 33 31 31 32 33 34 34 35 33 33 33 34 34 31 31 31 30 32 35 35 36 35 41 44 43 42 43 41 42 36 33 -193 27 -193 -209 -209 -209 -193 38 38 39 37 36 36 36 34 34 36 38 36 38 39 39 39 40 41 40 -193 40 -209 40 43 43 43 44 44 45 45 47 47 45 46 46 46 47 46 49 45 49 49 47 49 49 52 51 48 47 43 -193 -209 -209 -209 -209 -209 -209 -209 -209 -209 -209 -209 -209 -209 127 -209 -209 -209 -193 63 64 68 67 67 67 67 0 0 0 0 0
    0 0 0 0 0 0 0 0 0 0 0 0 0 0 0 0 0 0 0 0 0 0 0 0 0 0 0 0 0 0 0 0 0 0 0 0 0 0 0 0 0 0 0 0 0 0 0 0 0 0 0 0 0 0 0 0 0 0 0 0 0 0 0 0 0 0 0 0 0 13 13 15 12 11 14 15 15 17 19 20 20 22 23 23 23 23 24 22 21 20 18 19 17 19 20 17 19 19 19 20 19 19 18 19 19 20 19 21 23 22 23 25 -193 -209 -209 -209 -209 -193 -193 -193 -193 26 25 26 25 27 27 28 30 31 31 30 29 29 29 27 26 25 22 21 21 22 22 24 25 27 30 34 -193 38 -193 36 -193 -209 23 24 26 28 28 29 30 33 32 34 33 32 33 30 32 31 31 33 33 33 34 33 34 34 34 33 33 31 31 30 30 29 28 26 27 26 26 26 26 30 29 31 34 32 33 32 33 32 30 31 31 31 32 33 34 31 33 33 34 34 31 31 31 31 34 36 36 36 37 42 46 43 42 43 41 41 36 -193 -193 -209 -209 -193 -209 -209 50 38 38 39 37 36 36 36 34 33 36 38 36 37 39 39 39 40 41 40 -193 40 -209 41 44 44 43 44 44 45 46 47 47 45 46 47 46 47 46 49 45 49 49 47 49 48 52 51 48 47 40 -209 -209 -209 -209 -209 -209 -209 -209 -209 -209 -209 -209 -209 -209 -193 -209 -209 -209 -193 63 63 68 67 66 66 66 0 0 0 0 0
    0 0 0 0 0 0 0 0 0 0 0 0 0 0 0 0 0 0 0 0 0 0 0 0 0 0 0 0 0 0 0 0 0 0 0 0 0 0 0 0 0 0 0 0 0 0 0 0 0 0 0 0 0 0 0 0 0 0 0 0 0 0 0 0 0 0 0 0 0 12 12 13 10 9 11 14 14 17 20 21 22 23 24 25 25 25 25 25 23 21 20 20 18 19 20 18 18 20 20 20 19 20 19 19 20 21 21 23 27 -193 28 29 28 29 29 29 28 28 28 27 27 27 27 27 28 29 30 30 31 33 32 32 31 30 30 29 29 26 24 24 23 25 -193 -193 -193 29 -193 -193 -193 -193 -193 -193 26 24 24 24 25 26 27 28 30 32 32 34 34 33 33 32 34 33 33 34 34 34 35 34 35 34 35 33 33 31 30 30 28 29 27 26 26 25 25 26 25 29 29 31 34 32 33 33 33 33 30 31 31 31 32 32 32 30 31 32 33 33 30 31 31 30 34 35 36 36 37 42 46 43 41 42 40 38 35 -193 -209 -209 -209 -193 -209 -209 -209 37 37 39 36 36 36 36 34 33 36 38 36 37 38 38 39 40 41 40 -193 40 -209 41 44 44 44 45 45 46 46 47 47 46 46 47 46 47 46 49 45 49 49 47 48 47 51 51 48 46 -209 -193 -193 -209 -209 -209 -209 -209 -209 -209 -209 -209 -209 77 -209 -209 -209 -209 -209 -193 63 63 67 67 66 66 66 0 0 0 0 0
    0 0 0 0 0 0 0 0 0 0 0 0 0 0 0 0 0 0 0 0 0 0 0 0 0 0 0 0 0 0 0 0 0 0 0 0 0 0 0 0 0 0 0 0 0 0 0 0 0 0 0 0 0 0 0 0 0 0 0 0 0 0 0 0 0 0 0 0 0 12 11 11 0 0 0 11 12 16 20 22 24 25 26 27 27 27 27 27 26 23 22 22 20 21 22 21 19 21 21 21 20 21 20 20 21 23 24 26 30 31 32 33 32 33 33 33 32 31 31 30 30 30 29 29 29 31 31 30 31 33 33 32 32 31 30 29 30 26 24 24 23 24 23 -193 -193 -193 -209 -193 -209 -209 -209 -209 -193 24 24 24 24 26 26 27 29 30 31 33 32 31 32 30 32 31 -193 -193 -193 -193 35 34 35 35 35 33 33 31 30 29 28 29 27 26 26 25 25 25 26 29 28 30 33 32 34 33 34 33 30 31 31 30 30 30 30 28 29 30 31 31 29 30 30 30 34 35 35 35 36 43 48 43 41 41 -193 -209 31 -209 -209 -209 -193 -193 -209 -209 -209 36 37 39 36 36 36 36 34 33 36 38 35 36 38 38 38 39 40 39 -193 40 -209 42 44 44 44 45 45 46 46 47 47 46 46 47 47 47 46 48 45 49 49 47 48 47 51 51 48 46 -209 -193 -193 -209 -209 -209 -209 -209 -209 -193 -209 -209 -209 -193 -209 -209 -209 -209 -209 -209 63 63 67 67 66 66 66 0 0 0 0 0
    0 0 0 0 0 0 0 0 0 0 0 0 0 0 0 0 0 0 0 0 0 0 0 0 0 0 0 0 0 0 0 0 0 0 0 0 0 0 0 0 0 0 0 0 0 0 0 0 0 0 0 0 0 0 0 0 0 0 0 0 0 0 0 0 0 0 0 0 0 13 11 10 0 0 0 9 10 14 20 22 25 26 27 29 29 28 29 29 28 26 25 25 23 23 25 23 21 22 22 22 22 23 22 22 23 25 26 27 30 -193 32 33 34 35 34 34 34 34 32 31 30 29 -193 28 29 30 29 30 31 32 33 32 31 30 28 27 26 23 23 22 22 22 21 -193 20 21 -209 -209 -209 -209 -209 -209 -193 23 24 25 25 26 27 28 29 30 30 32 31 30 31 30 30 -193 31 -193 -193 -193 -193 35 35 35 35 33 33 32 31 30 29 30 28 27 27 26 26 26 27 29 28 30 33 31 33 32 32 32 28 29 29 29 29 28 28 27 28 30 32 31 29 29 29 30 33 34 34 32 32 42 52 -209 38 -209 -209 -209 11 -209 -193 -209 -193 -209 -209 -209 -209 36 37 39 37 36 36 36 34 33 35 38 34 36 38 38 38 39 40 39 -193 40 -193 42 44 44 44 45 45 46 47 47 47 46 47 47 47 47 46 48 45 49 49 47 49 47 51 52 49 47 -209 -209 -209 -209 -209 -209 -209 -193 -209 -209 -209 -209 -209 -209 -209 -209 -209 -209 -209 -209 63 63 67 67 66 66 66 0 0 0 0 0
    0 0 0 0 0 0 0 0 0 0 0 0 0 0 0 0 0 0 0 0 0 0 0 0 0 0 0 0 0 0 0 0 0 0 0 0 0 0 0 0 0 0 0 0 0 0 0 0 0 0 0 0 0 0 0 0 0 0 0 0 0 0 0 0 0 0 0 0 0 14 -193 0 0 0 0 10 11 14 19 21 -193 25 27 29 30 29 29 30 29 28 27 27 25 25 27 24 21 22 22 22 22 23 22 22 24 25 -193 26 -193 -193 -193 31 32 33 33 33 33 -193 -193 -193 -209 -209 -209 -193 29 30 29 30 31 32 33 30 30 27 25 -193 21 21 22 20 21 22 20 23 -209 -209 -209 -209 -209 -209 -209 -177 -193 25 26 27 27 28 28 29 30 31 30 32 32 32 31 30 31 -193 -193 -193 -209 -193 -193 35 34 35 35 32 33 31 30 29 29 30 29 27 28 27 27 28 28 30 28 30 32 30 32 31 30 30 28 28 29 29 29 28 28 28 28 31 32 30 29 29 29 30 31 31 31 28 -209 -209 -209 -209 -209 -209 -193 -193 -193 -209 -209 -209 0 -209 -209 -209 57 37 38 39 36 36 36 36 34 33 35 38 34 36 37 37 37 38 39 39 37 40 45 42 44 44 44 45 45 45 47 47 47 46 47 47 47 47 46 48 45 49 48 47 48 47 50 52 49 48 -209 -209 -209 -209 76 -209 -209 -193 -209 -209 -209 -209 -209 -209 -209 -193 -209 -209 -209 -209 64 64 67 68 67 66 67 0 0 0 0 0
    0 0 0 0 0 0 0 0 0 0 0 0 0 0 0 0 0 0 0 0 0 0 0 0 0 0 0 0 0 0 0 0 0 0 0 0 0 0 0 0 0 0 0 0 0 0 0 0 0 0 0 0 0 0 0 0 0 0 0 0 0 0 0 0 0 0 0 0 0 -209 -209 -209 -209 0 -193 -193 -193 15 20 21 -193 25 27 29 30 29 29 31 29 29 27 26 26 26 27 24 21 22 22 23 24 24 23 23 25 26 -193 -193 -193 -193 -193 30 31 31 -193 -193 -209 -209 -193 980 -193 -193 -193 -193 29 29 29 30 30 31 31 29 28 -193 23 -193 20 20 21 22 22 25 28 30 -209 -209 -209 -209 -209 -209 -209 -209 -209 25 25 27 26 28 29 29 30 30 30 32 32 32 31 31 32 -193 -193 -209 -209 -193 -193 -193 35 35 35 32 32 31 31 29 29 30 29 28 29 28 29 30 30 30 29 30 31 29 31 30 29 29 28 29 29 29 31 28 28 28 29 32 32 30 29 29 28 31 30 30 29 -193 -209 -209 -209 -209 -193 33 -209 -209 -209 -209 -209 -193 -193 -209 -193 61 57 36 36 39 36 35 35 36 34 33 35 38 33 35 37 37 36 38 39 39 37 41 45 42 44 44 44 44 45 45 47 47 47 46 47 48 47 48 47 48 45 49 49 48 48 47 50 52 50 51 -209 -209 -209 -209 -209 -209 -209 -209 -209 -209 -209 -209 -209 -209 -193 -209 -209 -209 -209 -209 66 65 68 69 68 67 68 0 0 0 0 0
    0 0 0 0 0 0 0 0 0 0 0 0 0 0 0 0 0 0 0 0 0 0 0 0 0 0 0 0 0 0 0 0 0 0 0 0 0 0 0 0 0 0 0 0 0 0 0 0 0 0 0 0 0 0 0 0 0 0 0 0 0 0 0 0 0 0 0 0 0 -209 -209 -209 -209 0 0 10 -193 17 22 -193 -193 26 28 28 30 28 30 31 30 29 29 28 27 28 29 27 22 23 24 24 25 25 23 24 25 26 -193 -193 -193 -193 -193 29 30 -193 -209 -209 -209 -209 -209 981 983 981 979 -209 -193 28 28 29 29 30 30 -193 -209 22 22 -193 22 -193 -209 -193 25 28 35 35 33 30 28 25 24 24 22 -209 -193 24 24 25 25 27 28 28 28 29 29 31 32 32 31 31 32 31 -193 -209 -209 -193 -193 34 34 35 37 33 33 32 32 30 31 32 31 29 31 30 30 30 31 29 30 31 33 30 33 32 30 30 30 31 31 30 32 29 28 28 28 31 30 29 28 28 28 32 31 30 29 -193 -209 -209 -193 -209 -193 -193 -209 -209 -209 -209 -209 -193 -193 -209 -193 -193 58 34 33 38 36 36 35 36 34 33 35 38 33 35 36 36 36 37 39 38 -193 41 45 43 44 44 44 44 45 45 47 47 47 47 47 48 48 48 47 48 46 49 49 48 48 47 51 53 51 53 57 58 61 65 -209 -209 -209 -209 -209 -209 -209 -209 -209 -209 -209 -209 -209 -209 -209 -209 68 67 69 70 68 68 69 0 0 0 0 0
    0 0 0 0 0 0 0 0 0 0 0 0 0 0 0 0 0 0 0 0 0 0 0 0 0 0 0 0 0 0 0 0 0 0 0 0 0 0 0 0 0 0 0 0 0 0 0 0 0 0 0 0 0 0 0 0 0 0 0 0 0 0 0 0 0 0 0 0 0 16 18 12 -193 0 10 12 -193 18 -193 -193 -193 -193 27 27 28 28 29 30 30 30 31 30 30 -177 31 29 24 23 24 25 25 25 23 24 25 27 -193 -193 -193 -193 -193 -193 -193 -209 -209 -209 396 396 -209 982 -193 981 -209 -209 -209 28 27 29 -193 -193 -193 -209 -209 -193 -209 -209 -209 -209 -209 -193 29 30 36 34 32 28 27 24 23 22 22 22 22 22 23 24 25 26 27 28 28 28 29 31 32 32 32 31 32 31 -193 -209 -209 -193 31 31 33 34 37 33 33 33 34 32 33 32 32 30 32 31 31 30 30 29 30 30 33 30 34 33 31 31 30 31 31 30 34 29 28 29 30 32 29 29 28 27 28 31 29 29 29 -209 -193 -209 -193 -209 -193 -193 122 -193 -193 108 -209 0 -193 -193 -193 -193 -209 33 32 37 36 36 35 36 34 32 35 38 33 34 36 36 36 37 38 38 -193 41 45 42 43 44 44 44 45 45 47 48 47 47 48 49 48 48 47 48 46 49 49 48 48 48 51 53 52 54 57 58 61 67 -209 -209 -209 -209 -209 -209 -209 -209 -209 -209 -209 -209 -209 -209 -209 -209 69 68 69 71 69 69 69 0 0 0 0 0
    0 0 0 0 0 0 0 0 0 0 0 0 0 0 0 0 0 0 0 0 0 0 0 0 0 0 0 0 0 0 0 0 0 0 0 0 0 0 0 0 0 0 0 0 0 0 0 0 0 0 0 0 0 0 0 0 0 0 0 0 0 0 0 0 0 0 0 0 0 18 20 17 17 13 15 18 -193 23 25 25 26 25 26 26 27 27 28 29 29 29 31 30 30 30 32 29 25 23 24 25 25 25 23 25 25 27 -193 -193 -193 -193 -193 29 29 29 -209 -209 -177 -193 -209 980 -193 -193 -209 -209 -209 27 27 28 28 -193 -193 -193 24 22 -193 -209 -209 -209 -209 -193 -193 32 37 32 31 25 23 22 22 20 21 20 21 21 23 23 24 25 26 26 27 28 29 30 33 32 33 32 33 32 32 -193 -193 30 31 31 33 34 36 32 31 32 34 31 33 32 31 30 32 32 31 30 30 28 29 29 31 29 32 31 30 30 29 31 31 30 34 29 29 29 30 32 29 29 29 26 27 29 27 27 -193 -193 -193 -209 -209 -193 -193 -193 122 118 114 112 -209 0 -193 -193 -209 -209 -209 31 31 37 36 36 35 36 34 32 34 37 33 34 35 36 36 37 38 38 37 41 44 42 43 43 44 44 45 45 47 48 48 47 48 49 49 48 47 48 46 48 49 48 48 48 50 53 52 53 -193 -209 -193 -209 -209 -209 -209 -209 -209 -193 -193 -193 -193 -209 -209 -209 -209 -209 71 -209 69 68 69 71 70 69 70 0 0 0 0 0
    0 0 0 0 0 0 0 0 0 0 0 0 0 0 0 0 0 0 0 0 0 0 0 0 0 0 0 0 0 0 0 0 0 0 0 0 0 0 0 0 0 0 0 0 0 0 0 0 0 0 0 0 0 0 0 0 0 0 0 0 0 0 0 0 0 0 0 0 0 21 22 20 20 18 20 22 23 25 26 26 26 26 27 27 26 26 27 27 27 28 29 29 29 29 31 29 26 24 25 25 25 25 24 26 27 28 -193 -193 28 30 31 30 30 29 28 28 -209 -209 -193 -193 981 -193 -209 24 25 26 26 27 27 -193 -193 -193 23 22 -193 -193 -209 -209 -209 -193 -193 32 38 32 30 22 20 20 20 18 19 18 19 20 22 23 24 24 25 26 27 27 28 29 33 32 33 33 33 32 32 31 29 30 32 31 32 34 35 33 31 32 34 31 34 32 32 31 33 32 32 30 31 28 30 30 31 30 33 32 30 30 30 32 32 31 36 30 29 30 31 32 29 29 29 26 27 29 27 26 -193 23 -193 -209 -209 -193 -209 -193 121 118 114 -193 -209 0 -193 -193 -209 -209 -209 30 30 36 36 36 35 36 34 32 34 38 33 34 35 36 36 37 38 38 37 41 43 42 42 43 43 43 44 44 47 48 48 47 48 49 49 48 47 48 46 48 49 48 47 48 50 53 52 53 -193 -209 -193 -209 -209 -193 -209 -193 -193 -193 -193 -193 88 -193 65 66 66 66 67 69 68 66 68 71 70 69 70 0 0 0 0 0
    0 0 0 0 0 0 0 0 0 0 0 0 0 0 0 0 0 0 0 0 0 0 0 0 0 0 0 0 0 0 0 0 0 0 0 0 0 0 0 0 0 0 0 0 0 0 0 0 0 0 0 0 0 0 0 0 0 0 0 0 0 0 0 0 0 0 0 0 0 21 22 22 21 21 22 24 25 26 27 28 27 27 27 27 26 26 27 28 26 28 29 29 29 30 32 30 29 28 27 26 27 27 25 27 28 30 30 28 29 31 31 31 31 30 28 28 -209 -209 -209 -193 -209 -209 -209 25 25 26 25 26 27 25 25 23 21 21 -193 -193 -193 -209 -209 -193 -193 31 37 35 33 -193 21 21 21 20 20 19 19 21 23 24 25 26 26 27 27 28 29 29 33 33 34 32 32 31 31 30 29 29 30 29 31 33 35 34 32 32 35 32 35 33 32 32 33 34 33 31 33 29 33 32 33 31 35 34 32 33 33 34 34 32 36 31 30 31 31 31 30 29 30 26 28 31 29 26 -193 -209 -209 -209 -209 -209 -193 -193 -209 116 111 110 -193 -193 -209 -209 -209 -209 -193 30 30 36 36 36 35 36 35 33 35 38 33 34 36 36 36 37 38 38 37 41 42 41 42 43 43 43 44 44 47 50 48 47 48 50 49 48 47 47 46 48 49 48 47 48 49 53 52 53 -193 -209 -193 -209 -209 78 80 84 85 82 -193 -209 75 64 63 65 64 64 65 67 67 65 68 70 69 69 70 0 0 0 0 0
    0 0 0 0 0 0 0 0 0 0 0 0 0 0 0 0 0 0 0 0 0 0 0 0 0 0 0 0 0 0 0 0 0 0 0 0 0 0 0 0 0 0 0 0 0 0 0 0 0 0 0 0 0 0 0 0 0 0 0 0 0 0 0 0 0 0 0 0 0 22 23 23 23 23 23 29 27 27 27 29 28 28 28 28 27 27 29 29 26 29 30 30 30 31 33 33 32 36 33 32 30 29 24 28 29 31 30 28 28 29 30 31 30 29 28 -193 -209 -209 -209 -193 -209 -209 -209 26 26 27 26 27 28 -193 -209 -193 21 21 -193 -193 -209 -209 -209 -193 -193 31 36 36 35 32 25 23 22 22 23 22 21 23 24 24 26 26 27 27 27 28 28 29 35 34 36 33 33 32 31 30 29 29 29 28 29 30 32 35 32 32 35 32 35 33 32 32 33 34 34 32 34 29 35 34 35 31 34 35 32 33 35 35 35 33 36 32 31 32 32 32 30 30 31 27 30 32 30 27 29 35 38 38 34 -193 -193 -193 -209 114 110 108 109 -209 -209 -209 -209 -209 -209 31 31 37 35 35 35 36 35 33 35 37 33 34 36 37 36 37 38 38 37 41 41 41 41 42 43 43 43 44 47 51 49 47 48 50 49 48 47 47 46 48 49 48 47 47 49 53 52 53 -177 -209 67 73 72 75 75 76 76 74 72 71 71 64 64 65 65 64 65 66 67 64 67 70 68 69 69 0 0 0 0 0
    0 0 0 0 0 0 0 0 0 0 0 0 0 0 0 0 0 0 0 0 0 0 0 0 0 0 0 0 0 0 0 0 0 0 0 0 0 0 0 0 0 0 0 0 0 0 0 0 0 0 0 0 0 0 0 0 0 0 0 0 0 0 0 0 0 0 0 0 0 22 23 23 22 23 23 29 28 27 28 30 29 29 29 28 27 27 28 29 26 29 29 30 31 32 34 33 33 37 32 31 30 27 22 25 26 30 30 28 29 29 30 31 -193 29 -209 -209 -209 -209 -209 -209 -209 -193 -209 28 28 28 28 28 30 -209 -209 -209 22 -209 -209 -209 -209 -209 28 29 29 31 34 35 33 31 29 25 23 23 24 -193 23 24 25 25 26 27 27 27 26 27 28 29 36 35 37 34 34 34 32 30 30 29 29 27 28 30 30 34 31 29 33 30 34 31 30 31 31 31 32 31 33 28 34 33 34 31 34 34 32 33 35 35 36 33 36 32 32 32 33 32 31 30 31 26 31 32 30 26 29 37 39 37 34 -193 -193 -193 -209 -193 -193 107 109 -209 -209 -209 -209 -209 -193 30 33 37 35 36 36 36 36 34 36 38 34 35 36 37 36 36 37 38 37 41 41 40 41 42 43 42 42 44 45 52 49 47 48 51 49 49 47 47 47 48 49 48 46 48 48 53 52 52 -193 -209 69 73 72 73 73 73 73 71 68 69 70 64 64 66 65 64 65 66 67 64 67 69 68 69 70 0 0 0 0 0
    0 0 0 0 0 0 0 0 0 0 0 0 0 0 0 0 0 0 0 0 0 0 0 0 0 0 0 0 0 0 0 0 0 0 0 0 0 0 0 0 0 0 0 0 0 0 0 0 0 0 0 0 0 0 0 0 0 0 0 0 0 0 0 0 0 0 0 0 0 23 24 23 23 24 24 31 31 29 29 31 29 30 30 29 27 27 28 28 25 -193 28 29 30 31 34 32 31 34 26 24 24 25 22 23 24 28 29 28 30 30 31 32 31 29 28 -193 -209 -193 -193 -209 27 27 -193 30 30 29 28 -193 -193 -209 -209 -209 23 -193 -209 -209 27 -193 29 30 29 32 33 34 30 28 28 25 23 23 24 23 22 23 24 24 24 25 26 26 25 26 27 27 31 31 34 30 31 32 30 29 29 28 28 27 29 32 31 35 32 30 34 31 33 31 30 30 30 31 32 30 31 28 34 33 33 30 34 33 33 33 35 35 36 33 36 32 32 32 33 32 31 29 31 26 31 31 30 26 28 37 38 35 33 -193 -209 -209 -209 -209 -209 -193 109 -209 -209 -209 -209 -209 -193 32 35 37 35 36 36 36 36 35 36 37 35 36 36 37 36 37 37 38 37 40 40 40 40 42 43 42 41 43 44 52 50 47 48 51 49 49 47 47 47 47 48 48 46 48 47 52 52 50 -193 57 69 71 71 71 72 71 71 69 65 66 70 64 64 66 65 64 65 66 67 63 67 69 67 69 69 0 0 0 0 0
    0 0 0 0 0 0 0 0 0 0 0 0 0 0 0 0 0 0 0 0 0 0 0 0 0 0 0 0 0 0 0 0 0 0 0 0 0 0 0 0 0 0 0 0 0 0 0 0 0 0 0 0 0 0 0 0 0 0 0 0 0 0 0 0 0 0 0 0 0 22 22 22 23 24 24 29 29 28 28 31 29 29 30 29 27 27 28 28 25 28 28 29 30 31 33 31 30 31 26 24 24 25 21 22 -193 -209 -209 -193 -193 -209 -209 -193 30 29 28 28 -193 27 27 27 28 29 -193 33 34 32 31 28 31 -193 -193 27 25 26 -193 -193 28 28 29 30 29 31 29 30 27 26 26 24 23 23 24 23 22 24 24 24 25 25 26 26 26 26 27 27 31 30 33 30 30 31 30 29 29 28 29 28 29 33 32 35 32 30 34 31 33 31 30 30 30 31 32 29 31 28 34 32 32 30 34 32 34 34 35 34 36 33 36 32 32 32 33 31 31 29 31 26 29 30 28 25 30 37 37 34 34 -193 -209 -209 -209 -209 -209 -193 -193 -209 -209 -209 -209 -209 -193 34 37 37 36 37 37 37 36 36 37 38 35 36 36 37 36 37 37 37 37 40 40 39 39 41 42 41 40 41 42 52 50 46 47 51 49 49 47 47 47 47 48 48 46 48 46 51 51 49 51 57 69 71 70 69 71 70 69 68 65 65 69 64 63 65 64 63 64 65 66 63 66 69 67 69 69 0 0 0 0 0
    0 0 0 0 0 0 0 0 0 0 0 0 0 0 0 0 0 0 0 0 0 0 0 0 0 0 0 0 0 0 0 0 0 0 0 0 0 0 0 0 0 0 0 0 0 0 0 0 0 0 0 0 0 0 0 0 0 0 0 0 0 0 0 0 0 0 0 0 0 24 22 22 23 23 24 28 28 27 27 31 29 30 30 29 27 28 29 29 25 29 28 30 31 32 33 31 31 32 28 27 26 -193 -209 -209 -209 -209 -209 -209 -193 -193 32 30 30 29 28 28 27 27 27 27 28 29 32 35 36 35 35 33 36 37 32 30 27 27 27 -193 28 28 29 29 28 29 27 29 27 27 28 25 24 24 25 25 24 25 26 25 26 26 27 26 27 27 28 27 31 30 32 30 29 30 29 29 29 28 29 28 30 34 31 35 33 31 34 31 32 30 29 31 30 31 32 29 30 28 33 31 30 28 32 30 32 33 35 34 36 33 36 32 33 32 33 31 31 29 32 26 29 30 28 25 33 38 38 35 37 40 -209 -209 -193 -209 -209 -209 -209 -209 -209 -209 -209 -209 -193 35 37 37 36 38 37 37 37 36 37 37 36 36 36 38 36 37 37 37 37 39 39 38 37 40 40 39 38 38 39 50 49 45 46 50 48 49 46 47 47 47 48 48 46 47 46 51 51 49 49 55 65 68 68 67 69 68 67 66 64 64 69 63 63 65 64 64 64 64 66 62 65 68 67 68 69 0 0 0 0 0
    0 0 0 0 0 0 0 0 0 0 0 0 0 0 0 0 0 0 0 0 0 0 0 0 0 0 0 0 0 0 0 0 0 0 0 0 0 0 0 0 0 0 0 0 0 0 0 0 0 0 0 0 0 0 0 0 0 0 0 0 0 0 0 0 0 0 0 0 0 25 23 23 23 24 25 28 28 28 27 31 30 30 31 30 28 28 30 30 25 29 28 29 30 31 32 31 31 32 28 28 27 28 -193 -209 -209 -209 97 -209 30 30 31 29 30 29 28 27 26 26 27 26 26 26 28 32 35 35 35 33 35 36 33 31 27 27 27 28 28 28 28 29 27 28 27 30 27 30 33 30 28 31 30 28 26 28 29 26 26 27 27 27 27 28 27 27 31 31 32 -193 29 30 29 29 30 29 29 28 31 34 31 34 32 30 32 31 31 30 29 30 30 30 31 29 30 28 32 30 28 27 31 29 31 32 35 33 37 33 36 32 33 33 33 31 31 29 32 26 30 30 28 26 33 37 40 36 40 42 45 50 55 -209 -209 -209 -209 -209 -209 -209 -193 -209 -209 36 38 37 37 38 37 37 37 36 38 37 36 37 36 38 36 37 37 37 37 39 39 38 36 40 40 38 37 36 39 -209 50 45 46 51 48 49 46 46 47 47 48 48 46 48 46 51 51 50 51 56 61 65 64 64 66 65 64 62 62 62 68 63 62 65 64 64 64 64 66 62 65 68 66 68 69 0 0 0 0 0
    0 0 0 0 0 0 0 0 0 0 0 0 0 0 0 0 0 0 0 0 0 0 0 0 0 0 0 0 0 0 0 0 0 0 0 0 0 0 0 0 0 0 0 0 0 0 0 0 0 0 0 0 0 0 0 0 0 0 0 0 0 0 0 0 0 0 0 0 0 25 23 22 22 23 24 26 26 27 26 29 29 30 30 29 28 28 30 30 26 30 28 29 29 31 32 31 30 31 28 29 28 29 24 -209 -193 -209 -209 -209 28 28 31 29 29 29 28 27 26 26 27 25 25 26 27 32 35 34 34 32 33 36 34 31 28 28 28 30 29 29 29 29 27 29 28 31 27 30 33 32 31 35 31 32 29 33 34 28 28 29 29 28 28 28 28 27 30 30 30 -193 29 29 29 29 30 28 28 29 30 34 33 34 32 31 32 31 31 30 29 30 29 30 30 29 29 29 32 31 29 28 31 30 31 33 35 32 37 33 36 32 33 33 32 31 32 29 32 26 30 30 28 27 35 38 41 38 41 42 46 46 48 44 -209 -209 -209 -209 -209 -209 -209 -209 -209 37 38 37 37 38 37 37 37 36 38 37 36 37 36 38 36 37 37 37 37 38 38 37 35 40 40 38 37 -193 -193 -209 -209 45 45 50 47 49 46 46 47 46 48 48 46 48 46 51 52 51 53 58 61 64 63 63 64 63 62 61 61 60 68 63 62 66 65 64 64 65 66 62 65 67 65 67 69 0 0 0 0 0
    0 0 0 0 0 0 0 0 0 0 0 0 0 0 0 0 0 0 0 0 0 0 0 0 0 0 0 0 0 0 0 0 0 0 0 0 0 0 0 0 0 0 0 0 0 0 0 0 0 0 0 0 0 0 0 0 0 0 0 0 0 0 0 0 0 0 0 0 0 25 24 21 21 23 24 25 25 26 25 27 28 28 29 28 27 28 29 29 26 31 29 30 30 32 32 31 30 31 28 28 28 28 24 23 22 23 -209 -209 26 25 30 28 29 29 28 27 27 27 27 25 26 25 27 32 35 34 34 32 32 35 34 30 28 29 29 31 30 31 30 29 28 31 29 31 29 31 34 33 34 37 34 36 34 36 36 30 29 30 30 29 -193 -193 28 28 31 30 30 29 29 30 30 30 31 28 28 30 31 34 33 33 30 30 31 31 30 29 29 29 29 30 30 29 29 29 31 30 29 28 31 30 31 33 34 32 37 32 36 32 33 33 32 31 32 29 32 26 30 30 27 28 36 40 41 38 41 41 43 41 40 -193 -193 -209 -209 -209 -209 -209 -209 -193 -209 37 39 37 37 39 37 37 37 36 38 36 36 36 36 37 36 36 37 36 37 37 38 36 35 40 39 37 36 -193 -209 -209 -209 44 45 50 47 49 46 46 47 46 48 47 46 48 46 51 52 51 54 58 61 62 62 61 61 61 60 60 59 59 67 62 62 67 66 65 65 66 66 62 65 68 65 68 70 0 0 0 0 0
    0 0 0 0 0 0 0 0 0 0 0 0 0 0 0 0 0 0 0 0 0 0 0 0 0 0 0 0 0 0 0 0 0 0 0 0 0 0 0 0 0 0 0 0 0 0 0 0 0 0 0 0 0 0 0 0 0 0 0 0 0 0 0 0 0 0 0 0 0 25 24 21 21 23 23 24 25 25 25 26 27 27 28 27 26 27 28 28 27 31 30 30 31 32 32 31 30 30 28 28 28 28 24 23 23 22 -209 24 24 24 29 27 28 28 28 27 27 27 28 25 25 25 27 32 34 32 32 29 29 32 30 28 27 29 29 31 31 31 30 28 28 30 28 29 28 29 32 32 34 36 35 38 36 37 37 30 29 30 30 -193 -193 -193 -193 29 33 -193 32 31 31 31 32 31 32 29 28 33 31 34 33 31 28 29 30 30 29 28 27 28 29 29 29 28 28 28 29 29 28 28 30 30 31 32 34 32 37 33 36 32 33 33 32 31 32 29 32 26 30 30 26 28 37 41 42 38 39 40 42 40 38 39 -193 -193 -209 -209 -209 -209 -209 -209 -209 38 39 37 37 39 37 37 36 36 37 36 36 36 36 37 36 36 37 36 36 37 37 36 34 39 39 36 37 -193 -193 -193 -209 45 45 50 47 49 46 46 47 46 48 48 46 49 47 52 52 51 54 57 59 60 60 59 58 59 58 58 58 57 64 61 62 66 66 65 66 66 66 63 66 68 66 69 71 0 0 0 0 0
    0 0 0 0 0 0 0 0 0 0 0 0 0 0 0 0 0 0 0 0 0 0 0 0 0 0 0 0 0 0 0 0 0 0 0 0 0 0 0 0 0 0 0 0 0 0 0 0 0 0 0 0 0 0 0 0 0 0 0 0 0 0 0 0 0 0 0 0 0 25 24 21 21 23 23 24 25 25 25 25 26 27 27 26 25 25 26 26 27 30 30 30 30 32 31 30 30 29 27 28 27 28 24 24 23 22 24 24 23 24 -193 27 28 28 28 27 27 28 28 25 25 25 27 32 32 30 29 27 27 28 27 27 26 28 29 31 30 30 30 27 28 29 27 28 27 28 30 30 33 35 35 38 38 37 -193 32 30 31 31 -193 -193 -209 -193 29 -193 -193 31 32 31 31 31 30 31 29 28 34 31 34 33 29 27 29 28 29 27 27 26 26 28 29 28 28 27 27 28 28 27 28 30 29 32 33 35 32 37 34 36 32 33 33 32 31 32 29 31 26 30 30 25 27 34 41 -193 37 41 39 43 41 40 41 40 41 -209 -193 -209 -209 -209 -209 -209 38 39 37 37 39 37 37 36 37 38 36 37 36 35 37 36 36 37 35 36 36 37 36 33 39 39 36 38 -193 44 47 -209 45 46 50 47 48 46 46 47 46 48 48 47 49 49 52 53 52 55 57 58 59 58 58 58 58 58 57 57 57 63 61 62 66 66 65 66 67 67 64 67 70 68 71 74 0 0 0 0 0
    0 0 0 0 0 0 0 0 0 0 0 0 0 0 0 0 0 0 0 0 0 0 0 0 0 0 0 0 0 0 0 0 0 0 0 0 0 0 0 0 0 0 0 0 0 0 0 0 0 0 0 0 0 0 0 0 0 0 0 0 0 0 0 0 0 0 0 0 0 25 24 22 22 23 24 24 25 25 25 24 26 26 26 25 25 24 25 25 27 30 30 29 30 31 31 30 29 29 27 27 27 28 25 25 24 23 -193 24 23 23 -193 27 27 28 28 27 28 28 28 25 25 24 26 30 30 29 28 26 26 26 25 26 26 27 27 29 29 30 30 25 28 28 27 28 27 28 29 29 31 31 32 38 -209 35 36 33 32 32 32 32 33 31 31 28 30 31 29 30 29 29 29 29 29 28 26 32 29 32 32 27 26 28 28 29 27 27 26 26 28 29 27 27 25 26 26 27 25 26 28 29 33 33 35 31 37 34 36 32 33 33 32 31 32 29 31 27 30 30 25 28 34 41 42 41 50 -209 51 -209 49 46 48 45 -193 -209 -209 -209 -209 -193 -209 39 39 36 37 39 36 36 36 36 37 36 37 36 35 37 36 37 37 35 36 36 37 36 33 39 38 36 37 -193 -209 -193 -209 45 45 49 46 48 46 46 47 46 48 48 47 50 49 53 53 53 55 57 58 58 58 57 57 58 58 58 57 58 63 62 62 67 67 66 67 68 68 66 69 71 70 73 76 0 0 0 0 0
    0 0 0 0 0 0 0 0 0 0 0 0 0 0 0 0 0 0 0 0 0 0 0 0 0 0 0 0 0 0 0 0 0 0 0 0 0 0 0 0 0 0 0 0 0 0 0 0 0 0 0 0 0 0 0 0 0 0 0 0 0 0 0 0 0 0 0 0 0 26 25 21 22 23 23 24 24 24 24 23 25 25 25 24 24 23 24 23 27 29 30 28 29 30 30 29 29 29 28 28 29 29 27 26 25 24 -193 24 23 23 -193 26 27 27 28 27 27 28 28 24 25 24 25 29 29 28 27 26 25 25 24 25 25 26 27 29 29 30 30 25 29 28 28 28 28 28 29 29 30 29 33 40 38 36 37 34 33 33 33 33 33 31 31 28 30 32 30 30 29 28 29 29 28 27 26 30 28 30 31 26 25 28 27 28 26 26 25 25 28 29 26 26 25 26 26 26 25 25 27 28 34 34 35 31 37 34 36 32 32 33 32 31 32 30 30 27 30 30 25 28 35 40 42 43 56 -209 56 58 56 -193 58 -209 -209 -209 -209 -209 -209 -209 -209 -193 -209 36 37 39 36 36 36 35 37 35 37 36 35 37 36 37 37 35 37 36 37 36 32 38 38 35 35 -193 -193 -193 -193 45 45 49 46 47 46 46 47 46 48 48 47 50 50 53 53 53 55 57 58 58 58 57 57 58 58 58 57 59 63 63 64 68 68 68 69 69 69 69 70 73 73 75 79 0 0 0 0 0
    0 0 0 0 0 0 0 0 0 0 0 0 0 0 0 0 0 0 0 0 0 0 0 0 0 0 0 0 0 0 0 0 0 0 0 0 0 0 0 0 0 0 0 0 0 0 0 0 0 0 0 0 0 0 0 0 0 0 0 0 0 0 0 0 0 0 0 0 0 26 25 21 21 23 23 23 24 24 24 22 25 25 25 24 24 23 23 22 26 28 29 27 27 29 29 29 29 29 29 29 29 29 28 27 26 24 25 24 22 23 28 27 27 28 28 27 28 29 29 24 25 24 25 29 29 28 27 26 26 26 25 25 26 27 28 29 31 32 32 28 30 29 29 28 29 29 29 29 30 29 34 41 38 36 37 33 33 32 32 32 31 30 30 27 29 32 29 30 28 28 28 28 27 27 25 29 27 29 30 24 24 27 26 27 25 25 25 -193 28 29 26 26 25 26 26 26 25 26 27 29 35 34 36 31 37 35 36 32 32 33 32 31 32 30 30 27 30 30 25 27 33 40 42 41 58 61 58 62 58 60 61 -209 -209 -209 -209 -209 -209 -209 -193 -209 -209 35 36 39 36 36 35 35 37 35 36 36 35 37 36 37 37 35 37 36 37 36 32 38 38 34 34 -209 48 -193 52 46 46 49 46 47 46 46 47 46 48 48 47 50 50 53 53 53 56 58 59 60 60 58 58 58 58 58 57 60 63 66 66 70 70 71 71 72 71 71 72 75 74 77 82 0 0 0 0 0
    0 0 0 0 0 0 0 0 0 0 0 0 0 0 0 0 0 0 0 0 0 0 0 0 0 0 0 0 0 0 0 0 0 0 0 0 0 0 0 0 0 0 0 0 0 0 0 0 0 0 0 0 0 0 0 0 0 0 0 0 0 0 0 0 0 0 0 0 0 25 26 21 21 23 23 23 24 24 24 21 24 24 23 23 23 21 21 20 26 27 29 26 27 27 28 29 29 29 29 28 29 29 28 27 26 24 24 23 22 23 -193 -193 -193 -193 -193 -193 29 29 29 24 25 25 25 29 28 28 27 26 25 26 25 25 26 27 28 29 30 32 31 29 31 29 29 29 29 28 29 29 30 28 31 39 35 34 36 32 32 31 31 31 30 29 29 27 28 31 28 29 28 28 28 28 27 27 25 28 27 28 29 24 24 26 26 26 24 24 24 -193 27 28 24 24 24 24 25 25 25 26 28 30 36 36 37 31 37 36 36 32 32 34 32 32 32 31 30 27 30 30 25 26 31 40 42 -193 -209 -209 58 63 58 -193 61 -209 -209 -209 -209 -209 -209 -209 -193 -209 -209 35 35 38 35 35 35 34 36 35 37 36 35 38 37 37 37 36 37 36 37 36 31 38 38 36 36 43 52 50 52 48 47 49 47 47 46 46 47 46 48 48 47 50 50 53 53 54 57 60 63 64 63 61 59 59 59 59 58 62 64 68 68 71 71 72 73 73 73 73 74 77 76 79 83 0 0 0 0 0
    0 0 0 0 0 0 0 0 0 0 0 0 0 0 0 0 0 0 0 0 0 0 0 0 0 0 0 0 0 0 0 0 0 0 0 0 0 0 0 0 0 0 0 0 0 0 0 0 0 0 0 0 0 0 0 0 0 0 0 0 0 0 0 0 0 0 0 0 0 25 26 21 21 23 22 -177 23 23 24 19 23 22 22 22 22 20 20 18 26 27 29 26 27 28 28 29 29 29 29 29 29 29 28 28 27 25 25 24 22 23 -193 -193 -177 -193 658 657 29 29 30 25 27 26 26 29 28 27 27 26 25 25 25 25 26 27 29 29 30 32 31 -193 31 28 28 27 28 28 28 -193 28 26 28 36 32 31 35 31 32 31 30 30 29 29 29 27 27 31 28 29 28 28 28 27 27 26 25 28 26 27 28 23 23 25 25 25 23 23 22 19 26 27 23 23 23 24 24 25 25 26 28 29 38 36 37 30 36 37 36 32 32 34 32 32 32 31 30 27 30 30 26 26 32 42 -193 -193 69 70 65 69 63 -193 66 -209 -209 -209 -209 -209 -209 -209 -209 -209 -209 34 34 38 35 34 34 34 36 35 37 36 35 38 37 37 37 36 37 36 37 37 32 38 39 37 37 43 53 50 52 49 47 48 47 48 47 46 48 46 47 49 48 50 50 53 53 54 58 61 68 67 68 65 63 62 63 64 64 68 68 70 71 74 73 75 75 75 75 75 75 78 77 81 84 0 0 0 0 0
    0 0 0 0 0 0 0 0 0 0 0 0 0 0 0 0 0 0 0 0 0 0 0 0 0 0 0 0 0 0 0 0 0 0 0 0 0 0 0 0 0 0 0 0 0 0 0 0 0 0 0 0 0 0 0 0 0 0 0 0 0 0 0 0 0 0 0 0 0 25 26 21 22 23 23 -177 23 23 24 19 23 23 22 22 22 21 21 19 26 28 30 27 27 28 29 29 29 30 29 29 29 29 28 28 27 25 25 24 23 23 -193 -193 -177 -193 658 657 29 30 30 25 27 27 26 30 28 27 26 26 25 25 25 25 27 28 30 30 31 31 30 -209 -193 27 26 26 27 27 27 -193 27 25 27 34 30 29 34 30 31 30 30 30 28 29 29 27 28 32 29 30 29 28 28 27 27 27 25 27 26 26 27 21 22 23 23 23 21 21 21 18 26 28 23 23 24 24 24 24 24 25 27 30 41 -193 39 33 36 38 36 33 32 34 32 32 32 31 29 27 31 31 26 26 -177 45 59 66 71 72 70 71 69 70 69 67 -209 -209 -209 -209 -193 269 267 -209 -209 34 34 38 34 34 34 34 36 34 37 36 35 38 37 37 37 37 38 36 38 38 35 39 40 40 40 45 52 49 51 50 48 48 48 48 47 46 48 47 47 49 49 50 51 54 54 55 58 61 69 68 70 68 66 65 68 70 71 71 71 72 73 75 75 76 75 76 77 76 77 79 78 81 83 0 0 0 0 0
    0 0 0 0 0 0 0 0 0 0 0 0 0 0 0 0 0 0 0 0 0 0 0 0 0 0 0 0 0 0 0 0 0 0 0 0 0 0 0 0 0 0 0 0 0 0 0 0 0 0 0 0 0 0 0 0 0 0 0 0 0 0 0 0 0 0 0 0 0 26 26 21 21 23 23 -177 23 23 24 19 23 23 22 22 22 21 21 20 26 28 29 27 27 28 28 29 29 29 29 29 29 28 28 28 27 25 25 24 22 23 -193 -193 -177 -193 658 657 29 30 30 25 27 27 27 32 30 28 27 27 -193 26 26 26 27 29 32 31 30 30 29 -209 -193 -193 25 -193 -193 -193 25 -177 26 22 26 30 28 27 33 30 30 30 30 30 28 29 29 26 28 32 30 30 29 29 28 28 27 27 25 27 26 26 26 21 22 23 23 23 21 21 21 17 26 28 23 23 23 23 24 23 22 22 -193 -177 51 47 41 33 35 39 36 33 33 34 32 32 32 32 29 28 31 31 26 26 -193 -209 59 66 71 72 71 71 70 70 68 67 -193 -209 -209 -177 -177 269 267 -209 -209 34 34 38 34 34 34 35 36 34 37 36 35 38 38 37 37 37 38 36 39 39 37 40 41 42 41 46 52 48 50 50 48 48 48 48 47 47 48 47 47 50 49 51 51 54 53 56 58 62 70 68 70 68 67 67 69 71 71 71 72 72 73 75 75 77 75 77 77 77 77 79 78 80 82 0 0 0 0 0
    0 0 0 0 0 0 0 0 0 0 0 0 0 0 0 0 0 0 0 0 0 0 0 0 0 0 0 0 0 0 0 0 0 0 0 0 0 0 0 0 0 0 0 0 0 0 0 0 0 0 0 0 0 0 0 0 0 0 0 0 0 0 0 0 0 0 0 0 0 26 27 21 22 23 23 -177 23 23 24 19 23 23 23 23 23 21 21 21 26 28 29 27 27 27 28 28 28 29 28 29 29 28 28 28 27 25 25 -193 22 23 -193 -193 -177 -193 658 656 29 30 30 25 27 27 26 32 30 29 28 -193 -193 27 28 28 29 30 33 33 32 31 29 -177 -177 -209 -193 24 -193 -193 -193 -177 -193 21 25 29 27 27 32 29 30 30 30 30 28 29 28 25 25 28 27 28 27 28 27 27 27 27 25 27 26 26 26 21 22 23 24 23 21 21 21 16 26 28 23 22 22 22 -193 22 20 20 20 -209 55 -209 39 30 30 39 36 33 32 34 32 32 32 32 29 28 31 31 26 26 -177 -209 60 64 70 71 72 72 71 70 69 67 -193 -193 172 -193 -177 -177 -177 -209 -209 33 34 37 35 34 35 35 36 35 38 36 35 38 38 37 37 38 38 37 40 40 38 41 42 42 42 46 51 48 50 51 48 48 48 48 47 47 48 47 46 49 49 50 50 53 53 55 58 62 69 68 70 68 67 67 69 72 71 71 72 72 74 75 75 77 75 76 77 76 77 79 78 80 82 0 0 0 0 0
    0 0 0 0 0 0 0 0 0 0 0 0 0 0 0 0 0 0 0 0 0 0 0 0 0 0 0 0 0 0 0 0 0 0 0 0 0 0 0 0 0 0 0 0 0 0 0 0 0 0 0 0 0 0 0 0 0 0 0 0 0 0 0 0 0 0 0 0 0 25 27 21 21 23 22 -177 23 23 23 19 23 23 23 23 23 22 22 22 26 27 28 26 27 27 27 28 28 29 28 29 29 28 29 28 27 26 -193 -209 22 23 -193 -193 -177 -193 657 656 29 30 30 25 27 26 26 33 35 33 -193 -193 -209 30 30 30 31 32 35 34 34 32 30 -177 -193 -193 -193 23 -193 24 23 -177 -193 19 24 27 26 26 30 29 29 29 29 29 27 28 27 24 24 27 27 28 28 28 28 28 28 27 26 28 27 27 27 22 22 23 24 23 21 20 21 14 27 30 23 20 -209 -193 -209 -209 18 18 -209 -209 -209 -209 36 28 28 38 36 32 32 34 32 32 32 32 29 28 31 31 26 -193 -193 -209 -193 65 70 71 72 72 70 70 69 67 -209 -193 171 -193 273 -177 -193 -209 39 33 34 37 35 35 35 35 36 35 38 36 35 38 38 37 38 38 39 37 40 40 39 41 43 43 42 46 51 47 48 51 47 48 47 48 47 47 49 48 46 49 49 49 50 53 53 56 60 64 69 68 70 68 68 68 69 72 72 72 72 73 74 75 75 77 75 76 77 76 77 79 78 81 82 0 0 0 0 0
    0 0 0 0 0 0 0 0 0 0 0 0 0 0 0 0 0 0 0 0 0 0 0 0 0 0 0 0 0 0 0 0 0 0 0 0 0 0 0 0 0 0 0 0 0 0 0 0 0 0 0 0 0 0 0 0 0 0 0 0 0 0 0 0 0 0 0 0 0 25 27 22 22 23 23 -177 23 23 23 20 24 24 24 24 24 23 23 23 26 27 28 26 27 27 27 28 28 29 29 29 29 28 28 28 27 26 -193 -193 22 23 -193 -193 -193 -193 658 657 29 30 30 25 27 26 26 36 -193 38 -193 -193 -209 36 33 31 33 33 36 35 34 32 30 -177 -193 22 -193 22 23 23 22 -193 -193 18 24 26 25 24 28 27 28 28 29 28 26 27 26 23 24 26 27 28 28 28 28 29 29 28 27 28 27 28 29 22 23 24 25 24 21 21 21 14 27 33 -193 -209 -209 -209 -209 -209 -193 20 -209 -209 48 -209 37 30 30 39 36 32 32 34 32 32 32 32 29 28 32 32 26 -193 -209 -209 -193 62 68 70 71 72 70 70 68 68 -209 -209 -209 -209 -193 -209 -209 -209 39 33 35 37 35 35 35 36 36 35 38 36 35 38 38 37 38 38 39 37 41 41 40 42 43 43 43 46 50 46 47 51 47 47 48 47 47 47 49 48 45 49 49 49 51 54 55 58 62 66 69 68 69 68 68 67 69 72 71 71 72 73 74 75 75 76 74 76 77 77 77 79 79 81 81 0 0 0 0 0
    0 0 0 0 0 0 0 0 0 0 0 0 0 0 0 0 0 0 0 0 0 0 0 0 0 0 0 0 0 0 0 0 0 0 0 0 0 0 0 0 0 0 0 0 0 0 0 0 0 0 0 0 0 0 0 0 0 0 0 0 0 0 0 0 0 0 0 0 0 25 28 22 22 24 23 24 23 23 24 21 24 24 24 24 24 23 23 24 26 27 28 26 27 27 27 28 28 29 29 29 29 28 28 28 27 26 -193 -193 22 23 -193 27 27 28 -193 658 29 30 30 25 27 26 27 38 41 39 38 -193 39 37 34 33 34 34 36 34 31 29 -193 -193 -193 21 21 21 23 23 22 -193 22 18 23 25 25 24 28 27 28 28 28 28 26 27 26 23 24 25 27 28 28 28 28 29 29 28 27 29 29 29 31 23 23 25 25 25 22 21 22 15 27 32 26 -209 -209 -209 -209 -209 -193 -193 34 27 43 39 37 30 30 39 36 32 32 34 32 32 33 32 29 28 33 32 26 -193 -209 -193 -209 -193 66 70 73 73 70 70 67 -193 -209 -209 -209 -209 -193 -209 -193 -193 39 33 35 37 35 35 36 36 36 35 38 36 35 38 38 37 38 38 39 37 41 41 41 42 44 44 43 46 50 46 46 51 47 47 48 47 47 47 48 48 45 49 50 50 52 55 57 59 64 67 69 69 69 69 68 67 69 71 71 71 71 72 73 74 75 76 74 76 77 77 77 79 79 80 80 0 0 0 0 0
    0 0 0 0 0 0 0 0 0 0 0 0 0 0 0 0 0 0 0 0 0 0 0 0 0 0 0 0 0 0 0 0 0 0 0 0 0 0 0 0 0 0 0 0 0 0 0 0 0 0 0 0 0 0 0 0 0 0 0 0 0 0 0 0 0 0 0 0 0 25 28 23 23 24 23 24 23 23 24 21 24 24 24 24 24 24 24 25 27 28 29 27 28 27 28 28 28 29 28 28 28 28 28 28 26 26 -193 -193 -193 24 29 27 28 29 -193 659 29 30 30 25 26 26 -193 -209 -209 -193 37 -193 38 35 35 33 35 34 37 33 27 26 24 -209 -209 20 20 20 22 22 21 20 21 17 23 25 24 24 27 27 28 28 29 28 26 26 26 23 24 25 27 28 28 28 29 29 29 27 27 29 30 30 32 24 24 -193 26 26 23 22 23 17 27 33 27 -209 -209 -209 29 -193 -193 23 27 -193 39 34 30 28 30 38 36 32 32 34 32 32 33 32 30 28 33 33 26 31 -209 -193 -193 58 64 68 -193 -209 70 67 -209 -209 -209 -209 -209 -209 37 -193 -209 38 38 34 36 37 35 36 36 36 36 35 39 36 35 38 37 37 38 39 39 37 41 42 41 42 44 43 43 46 49 45 45 51 47 47 48 47 47 47 48 48 45 49 50 50 52 55 58 60 64 66 68 68 69 68 67 67 69 71 70 70 71 71 73 74 74 75 74 76 77 77 77 78 78 79 77 0 0 0 0 0
    0 0 0 0 0 0 0 0 0 0 0 0 0 0 0 0 0 0 0 0 0 0 0 0 0 0 0 0 0 0 0 0 0 0 0 0 0 0 0 0 0 0 0 0 0 0 0 0 0 0 0 0 0 0 0 0 0 0 0 0 0 0 0 0 0 0 0 0 0 25 28 23 23 25 24 24 23 23 24 22 25 25 24 25 25 25 26 25 27 28 29 27 28 28 28 28 27 28 28 28 28 28 28 28 26 26 26 -193 23 24 30 28 28 29 -193 -193 29 30 29 24 25 -193 -193 -209 -209 -209 34 -193 36 33 34 34 35 35 39 37 30 26 24 -209 23 19 19 19 21 21 20 19 20 16 23 24 24 24 27 27 28 28 29 29 26 26 25 22 25 25 27 28 28 29 29 29 30 28 28 30 32 31 32 24 -193 -193 -193 -193 23 22 23 18 27 34 28 -193 37 34 30 28 25 23 27 26 36 34 28 28 33 37 36 33 33 34 32 33 33 32 30 28 33 33 26 32 -209 -193 -193 -193 65 69 -209 -193 72 -209 -209 -209 -209 -209 -209 38 38 38 40 37 38 34 36 37 35 36 36 36 35 35 38 35 35 37 37 37 37 39 39 37 41 42 42 42 43 43 43 45 47 45 45 51 47 47 48 47 47 47 49 49 45 49 50 50 52 55 58 60 63 66 67 67 68 68 67 66 69 71 70 70 71 71 73 74 74 75 74 76 77 76 76 77 77 77 75 0 0 0 0 0
    0 0 0 0 0 0 0 0 0 0 0 0 0 0 0 0 0 0 0 0 0 0 0 0 0 0 0 0 0 0 0 0 0 0 0 0 0 0 0 0 0 0 0 0 0 0 0 0 0 0 0 0 0 0 0 0 0 0 0 0 0 0 0 0 0 0 0 0 0 26 30 25 25 26 25 25 24 24 26 23 25 26 25 26 26 26 27 26 27 28 28 27 28 27 27 28 27 28 28 28 28 27 27 27 26 26 26 25 23 24 30 28 28 29 28 -193 29 30 30 24 24 18 -193 -209 43 35 35 35 35 33 33 34 35 34 39 36 35 -209 -193 -209 23 19 19 20 21 22 21 20 21 17 23 24 24 23 26 27 27 27 28 29 26 26 25 22 25 25 28 28 28 29 29 30 31 28 30 31 34 32 34 -193 -193 -193 -193 -193 -193 22 23 17 28 35 29 -209 -209 -209 30 -209 -209 -209 30 30 -209 36 29 30 36 37 36 33 33 34 32 33 33 32 30 28 33 33 26 31 -193 -209 -209 -193 -193 -193 -209 -209 -209 -209 -209 -209 -209 -209 42 39 39 39 40 37 37 33 37 36 35 36 36 35 35 34 38 35 35 36 36 36 37 38 38 37 41 42 42 42 43 43 43 45 45 44 44 51 47 47 48 47 47 48 49 49 45 49 50 49 52 55 58 60 63 65 67 67 67 68 66 66 69 71 70 70 71 71 72 73 73 74 73 75 76 75 75 75 75 75 73 0 0 0 0 0
    0 0 0 0 0 0 0 0 0 0 0 0 0 0 0 0 0 0 0 0 0 0 0 0 0 0 0 0 0 0 0 0 0 0 0 0 0 0 0 0 0 0 0 0 0 0 0 0 0 0 0 0 0 0 0 0 0 0 0 0 0 0 0 0 0 0 0 0 0 26 32 27 26 27 26 26 25 25 26 24 25 26 25 26 26 27 27 26 27 28 28 27 28 27 27 28 27 28 28 28 29 28 28 28 27 27 26 25 23 24 31 28 29 29 28 28 29 30 30 23 22 -177 0 -193 49 -209 37 34 34 32 32 32 33 33 37 33 -209 -209 -209 -209 -193 20 20 21 22 22 21 21 22 18 23 24 24 23 26 27 27 26 28 28 26 25 23 21 24 25 27 27 28 28 28 29 31 27 30 31 36 33 35 -193 -193 -177 -193 -193 -193 22 22 17 27 35 -193 -209 -209 -209 -209 -209 -209 -209 30 30 -193 33 29 30 36 36 36 33 33 34 33 33 33 32 30 28 33 33 26 31 -193 -209 45 53 58 63 55 -193 55 54 -193 -209 -209 -193 41 38 38 38 39 36 35 33 37 35 36 36 36 35 35 35 38 35 35 36 36 36 37 38 38 37 41 42 42 42 43 42 43 44 44 44 44 51 47 47 48 47 48 48 49 49 45 49 50 49 52 54 58 59 62 65 66 66 67 67 66 65 68 70 69 69 70 70 71 72 73 73 72 74 74 74 73 74 74 73 72 0 0 0 0 0
    0 0 0 0 0 0 0 0 0 0 0 0 0 0 0 0 0 0 0 0 0 0 0 0 0 0 0 0 0 0 0 0 0 0 0 0 0 0 0 0 0 0 0 0 0 0 0 0 0 0 0 0 0 0 0 0 0 0 0 0 0 0 0 0 0 0 0 0 0 25 33 28 27 29 27 27 26 26 27 24 26 26 -193 26 26 27 27 26 27 28 28 27 27 27 27 28 27 28 29 29 30 29 29 29 27 27 26 25 24 24 33 29 30 30 29 29 30 31 31 24 23 -177 0 -209 52 -209 -209 33 34 32 33 34 35 33 37 -193 -209 -209 -209 -209 -209 22 21 22 23 23 22 22 23 20 23 24 24 23 25 27 26 26 27 28 26 25 23 21 24 25 26 27 27 28 28 29 31 27 30 31 36 33 35 -193 -193 622 -193 -193 -193 22 22 14 27 34 -193 -193 -209 -209 -209 -209 -209 -209 30 29 32 31 28 29 36 34 36 32 32 34 33 33 33 31 31 28 33 33 26 29 -209 -209 -209 54 56 56 54 54 52 51 -193 40 38 36 38 36 36 36 37 36 33 33 37 34 35 35 35 34 33 34 37 34 35 36 36 36 38 38 38 37 41 41 42 42 42 42 43 44 44 44 44 51 47 47 49 48 48 48 49 49 45 48 49 48 51 54 58 59 62 64 66 66 66 67 66 65 68 69 68 69 70 70 71 72 72 73 72 74 74 73 72 72 73 73 71 0 0 0 0 0
    0 0 0 0 0 0 0 0 0 0 0 0 0 0 0 0 0 0 0 0 0 0 0 0 0 0 0 0 0 0 0 0 0 0 0 0 0 0 0 0 0 0 0 0 0 0 0 0 0 0 0 0 0 0 0 0 0 0 0 0 0 0 0 0 0 0 0 0 0 25 35 29 28 30 28 28 27 27 28 25 26 26 -193 26 26 27 27 25 27 27 28 27 28 27 28 28 28 29 29 29 31 29 28 28 27 27 26 26 25 26 35 30 31 32 30 30 31 32 32 24 -193 -193 0 -209 54 -209 -209 34 35 33 35 37 -193 33 -209 -209 -209 -209 -209 -209 -209 -209 23 23 24 24 24 24 25 22 24 24 24 23 25 26 25 24 25 26 25 24 22 21 25 26 27 28 28 29 29 30 32 27 31 32 37 35 36 -193 -193 -193 -193 -193 -193 21 22 12 27 35 -193 0 -209 -209 -209 -209 -209 -209 27 -209 -193 29 26 27 37 34 36 32 32 34 33 33 33 31 31 28 33 32 26 28 -177 -209 -193 56 55 54 53 51 46 40 38 39 37 36 37 35 35 35 36 35 32 33 36 33 34 34 33 33 32 33 37 35 36 36 36 36 38 39 39 37 41 42 42 42 42 42 43 44 45 44 44 51 47 47 49 48 48 48 49 49 45 49 49 48 51 54 58 59 62 65 67 67 67 68 66 65 68 68 68 68 69 70 71 73 73 73 74 74 75 74 73 73 74 74 72 0 0 0 0 0
    0 0 0 0 0 0 0 0 0 0 0 0 0 0 0 0 0 0 0 0 0 0 0 0 0 0 0 0 0 0 0 0 0 0 0 0 0 0 0 0 0 0 0 0 0 0 0 0 0 0 0 0 0 0 0 0 0 0 0 0 0 0 0 0 0 0 0 0 0 26 36 29 28 31 29 29 28 28 29 25 26 26 -193 -193 25 26 26 25 27 28 28 28 29 28 28 29 28 28 29 27 30 27 26 26 26 27 27 26 25 26 35 31 31 33 31 31 -193 33 32 25 25 -193 -193 -193 -209 -209 -209 32 34 31 34 37 -193 32 -209 -209 -209 -209 -209 -209 -209 -209 24 24 -193 26 25 -193 26 25 26 27 27 25 27 27 25 25 25 26 25 25 22 21 26 26 27 28 28 29 29 30 32 27 32 34 38 35 36 26 -193 -193 26 25 23 21 21 12 26 33 -193 -193 -209 -209 -193 -193 30 28 26 24 -193 28 27 28 37 33 36 32 32 34 33 33 33 31 32 28 33 33 26 31 -209 45 54 55 53 50 51 47 43 38 38 38 37 36 37 35 36 36 36 36 33 33 36 33 34 34 32 33 31 33 37 35 35 36 36 37 38 39 39 38 41 42 42 42 42 42 43 44 45 44 45 52 47 47 50 48 49 48 49 49 45 49 50 49 52 54 58 59 61 65 67 68 68 68 66 65 68 65 63 64 67 67 69 71 71 72 73 74 75 74 73 73 73 73 71 0 0 0 0 0
    0 0 0 0 0 0 0 0 0 0 0 0 0 0 0 0 0 0 0 0 0 0 0 0 0 0 0 0 0 0 0 0 0 0 0 0 0 0 0 0 0 0 0 0 0 0 0 0 0 0 0 0 0 0 0 0 0 0 0 0 0 0 0 0 0 0 0 0 0 28 34 28 27 30 28 28 27 27 29 25 25 26 162 162 -193 25 25 23 27 29 28 27 29 28 28 28 28 26 26 27 -209 -209 -193 25 25 27 28 25 25 27 36 31 31 32 -193 31 32 34 33 25 29 -193 -193 -209 -193 -209 -209 29 31 28 32 35 29 30 -209 -209 -209 -209 -209 263 -209 -209 -193 26 27 27 27 -193 28 28 28 32 31 28 30 30 28 26 26 26 26 26 25 22 26 27 28 29 29 29 28 29 31 26 31 34 38 34 34 24 -193 -193 25 24 22 21 21 12 26 33 -193 -193 42 -209 -193 24 28 26 25 24 28 27 26 28 38 32 36 32 33 34 33 33 33 31 32 29 34 34 28 37 39 43 49 48 48 44 47 45 41 38 38 38 37 36 37 36 36 36 37 36 33 33 36 33 34 33 32 33 31 32 37 35 36 36 37 37 38 39 39 38 39 41 41 41 42 42 42 44 45 45 45 52 48 48 50 49 49 48 48 49 45 48 49 48 50 51 57 57 59 63 67 68 68 68 66 64 66 61 58 59 62 62 67 70 70 72 73 73 74 72 72 71 72 72 69 0 0 0 0 0
    0 0 0 0 0 0 0 0 0 0 0 0 0 0 0 0 0 0 0 0 0 0 0 0 0 0 0 0 0 0 0 0 0 0 0 0 0 0 0 0 0 0 0 0 0 0 0 0 0 0 0 0 0 0 0 0 0 0 0 0 0 0 0 0 0 0 0 0 0 28 32 26 26 28 -177 -177 26 26 28 24 25 -193 161 162 162 -209 -193 21 27 29 27 27 30 30 32 29 27 24 -193 -193 -209 -209 -193 -209 25 28 31 -209 -193 -193 -193 31 32 -193 31 31 32 34 33 25 28 -209 -193 -209 -193 -193 -209 27 32 28 33 35 30 31 -193 29 -193 -209 -209 262 -209 -209 26 27 28 28 28 29 29 32 29 34 34 29 32 31 28 26 26 27 27 26 26 23 27 28 29 30 31 30 29 29 31 27 31 33 37 32 32 -193 -193 -193 24 23 22 20 20 11 26 35 -193 -209 42 -209 -209 24 27 24 24 24 28 27 27 28 39 32 36 33 32 34 33 33 33 30 33 29 35 35 29 39 -193 42 45 44 44 42 45 43 40 38 38 38 37 36 37 36 36 36 37 36 33 34 36 33 34 33 31 33 31 32 36 35 36 37 37 37 38 39 39 38 39 41 41 41 42 42 43 45 46 45 46 53 48 48 51 49 50 48 49 49 46 48 48 47 48 48 53 54 55 60 66 67 66 66 63 59 58 51 50 53 54 -193 60 66 69 70 70 70 72 71 71 69 70 71 68 0 0 0 0 0
    0 0 0 0 0 0 0 0 0 0 0 0 0 0 0 0 0 0 0 0 0 0 0 0 0 0 0 0 0 0 0 0 0 0 0 0 0 0 0 0 0 0 0 0 0 0 0 0 0 0 0 0 0 0 0 0 0 0 0 0 0 0 0 0 0 0 0 0 0 28 30 26 26 28 -177 -177 26 26 27 24 24 -193 162 162 162 -177 -177 -193 26 28 -209 27 -209 -193 -209 -209 30 -209 -193 -209 -193 -209 -193 -209 27 29 -193 -209 -209 -193 -193 -193 -193 -193 -193 -193 32 34 33 25 28 -193 0 -193 58 -193 -193 26 31 28 33 35 31 31 33 30 -193 29 28 -209 -209 -193 27 27 29 29 29 30 30 34 30 35 35 30 33 32 -193 -193 27 27 -193 27 -193 24 28 28 30 30 32 30 29 30 32 28 -193 -209 36 30 30 22 22 22 23 22 21 18 19 11 26 34 -209 -209 -193 -209 27 25 28 25 26 -209 31 30 30 30 39 32 36 33 32 34 33 33 33 30 33 30 35 36 31 41 42 43 45 44 44 42 44 43 40 37 37 38 36 36 37 35 36 36 36 36 32 34 36 33 34 33 31 33 31 31 36 35 36 37 37 38 38 39 39 39 40 41 41 42 43 43 44 46 46 45 46 53 48 48 51 49 50 49 49 49 46 48 48 46 47 45 48 46 42 -209 -209 -209 -209 -209 -209 -193 -193 -193 -193 50 -193 -193 -209 -209 -209 68 67 67 69 70 70 68 70 70 68 0 0 0 0 0
    0 0 0 0 0 0 0 0 0 0 0 0 0 0 0 0 0 0 0 0 0 0 0 0 0 0 0 0 0 0 0 0 0 0 0 0 0 0 0 0 0 0 0 0 0 0 0 0 0 0 0 0 0 0 0 0 0 0 0 0 0 0 0 0 0 0 0 0 0 28 27 -177 25 28 -177 27 26 26 27 24 24 -193 163 163 -193 641 -177 -193 26 29 -209 -209 -209 -209 43 50 38 -209 -209 -209 -209 -209 -209 -209 -193 -193 -209 -209 -209 -193 -193 668 669 -193 -193 -193 -193 34 33 26 32 0 0 -193 58 -209 -209 -209 38 30 36 37 31 32 -193 -193 -193 28 27 -209 -193 30 27 28 29 29 29 30 31 34 29 35 35 30 33 33 -193 -193 -193 28 -209 -209 -209 -209 -193 28 29 29 31 27 27 29 30 27 -193 -209 -193 30 30 22 21 22 22 21 20 18 19 11 26 32 31 28 34 29 30 28 29 28 29 32 32 32 31 33 40 33 36 33 32 34 33 34 34 31 34 32 37 38 34 42 43 45 46 45 45 42 44 43 40 37 37 38 36 36 37 36 36 36 36 36 32 34 36 34 34 33 31 34 31 32 37 36 36 37 37 38 38 39 40 40 40 42 42 43 43 43 44 45 44 44 46 53 48 48 51 49 50 48 48 48 46 47 47 45 46 44 45 44 41 31 29 30 33 -193 -209 -209 -193 -209 -193 -193 -193 -209 -209 -209 -209 69 65 65 67 69 70 68 70 71 68 0 0 0 0 0
    0 0 0 0 0 0 0 0 0 0 0 0 0 0 0 0 0 0 0 0 0 0 0 0 0 0 0 0 0 0 0 0 0 0 0 0 0 0 0 0 0 0 0 0 0 0 0 0 0 0 0 0 0 0 0 0 0 0 0 0 0 0 0 0 0 0 0 0 0 27 24 -177 24 27 25 26 26 26 26 24 -193 -193 163 -193 21 -193 642 -193 26 -193 -193 -209 -209 -209 44 47 42 43 -209 -209 -209 -209 -209 -209 -209 -209 -209 -209 -209 -177 -177 669 669 -193 -193 -193 -193 34 32 26 31 0 0 -193 58 -193 -209 -209 37 30 34 35 29 31 28 27 27 26 26 24 25 29 27 27 29 28 29 30 30 33 29 34 34 30 32 32 30 29 29 29 29 29 32 -209 -209 30 29 29 31 27 27 29 28 28 29 -193 -193 30 30 21 21 22 22 21 21 19 20 12 26 30 28 28 30 29 30 30 30 30 31 33 33 32 32 33 39 33 35 33 33 35 34 35 35 32 36 34 39 40 37 43 44 47 47 47 45 42 44 42 40 37 37 37 36 36 36 35 36 36 36 36 33 35 36 34 35 34 32 35 32 33 37 36 36 38 38 38 39 40 40 41 41 43 43 43 44 44 44 45 43 43 44 52 47 46 50 48 49 48 47 48 45 46 46 44 45 44 44 44 41 38 36 35 38 -193 -209 48 51 -209 -193 -193 -193 -209 -209 -209 -209 -193 63 63 66 68 70 68 69 71 68 0 0 0 0 0
    0 0 0 0 0 0 0 0 0 0 0 0 0 0 0 0 0 0 0 0 0 0 0 0 0 0 0 0 0 0 0 0 0 0 0 0 0 0 0 0 0 0 0 0 0 0 0 0 0 0 0 0 0 0 0 0 0 0 0 0 0 0 0 0 0 0 0 0 0 28 23 22 23 25 24 25 24 24 25 24 722 -193 163 -193 637 640 641 -193 -193 -193 -177 -209 -209 -209 43 45 43 43 -209 -209 -209 -193 -193 -209 -193 -193 -209 -209 -209 668 677 669 668 -177 -193 -193 30 34 31 26 30 -209 -209 -209 57 -209 -209 37 36 32 34 35 29 31 28 28 27 27 27 24 25 29 26 27 29 28 28 29 30 32 29 34 34 30 33 32 30 30 30 30 29 29 31 30 29 33 31 31 31 31 30 31 29 31 29 35 35 30 30 21 21 22 22 22 22 21 22 19 28 31 29 29 31 29 31 30 31 31 33 35 35 34 33 35 40 34 35 34 34 35 35 36 36 33 37 36 41 41 40 44 45 47 47 47 45 41 43 41 39 36 36 37 35 36 37 36 36 36 37 37 34 36 37 35 36 35 32 36 32 34 37 37 36 38 38 39 39 40 41 42 42 44 44 44 44 44 44 44 42 42 42 48 46 45 49 48 49 48 47 48 45 46 46 44 45 44 44 44 42 39 37 36 -225 -193 -209 46 48 46 -193 -193 -193 -209 -209 -209 -193 -209 60 61 63 67 70 67 68 71 68 0 0 0 0 0
    0 0 0 0 0 0 0 0 0 0 0 0 0 0 0 0 0 0 0 0 0 0 0 0 0 0 0 0 0 0 0 0 0 0 0 0 0 0 0 0 0 0 0 0 0 0 0 0 0 0 0 0 0 0 0 0 0 0 0 0 0 0 0 0 0 0 0 0 0 30 22 22 22 24 24 -193 23 23 24 24 722 -193 163 -193 636 639 640 -177 -193 -193 -177 -193 -209 -209 43 44 43 -193 -209 -209 14 17 19 21 -193 -193 -209 -209 -209 664 -193 -177 -177 -193 -193 -193 30 33 30 26 29 -209 -209 45 57 -209 37 36 35 31 32 33 29 31 29 28 28 28 28 25 25 29 26 27 28 28 -193 -193 30 32 28 34 35 31 34 33 31 31 31 30 29 28 29 29 28 32 30 30 30 30 30 31 29 31 28 34 34 30 30 22 22 22 23 23 23 22 23 23 28 30 30 29 31 29 31 30 30 32 34 35 35 36 36 39 40 35 36 36 36 37 37 38 38 37 40 39 42 42 42 45 44 46 47 46 45 42 43 42 39 36 36 37 36 37 38 37 37 38 39 39 36 37 37 37 37 36 33 37 33 33 37 37 36 39 39 39 40 41 42 44 44 46 45 44 45 44 44 44 42 41 41 45 45 45 49 48 49 48 47 48 46 46 46 45 45 44 44 44 42 41 40 -225 -225 -225 46 46 46 44 -209 -193 45 -209 -209 -209 -225 -209 -193 60 62 66 70 67 68 71 68 0 0 0 0 0
    0 0 0 0 0 0 0 0 0 0 0 0 0 0 0 0 0 0 0 0 0 0 0 0 0 0 0 0 0 0 0 0 0 0 0 0 0 0 0 0 0 0 0 0 0 0 0 0 0 0 0 0 0 0 0 0 0 0 0 0 0 0 0 0 0 0 0 0 0 30 21 21 22 23 23 23 22 22 23 24 722 -193 -193 -193 636 639 639 633 -193 -193 -193 -193 -209 -193 43 43 43 43 -209 -209 15 17 19 22 -193 -193 -209 -209 -209 663 -193 -193 -193 -193 -193 -193 29 32 29 26 29 -209 -209 45 55 -209 31 34 33 29 30 30 29 31 29 29 29 29 30 26 25 29 27 27 27 27 -193 -193 29 32 28 34 35 32 34 34 32 31 32 31 29 28 30 29 28 33 30 30 30 30 30 30 29 31 26 31 34 29 30 22 22 22 -193 23 24 23 24 24 28 29 30 29 31 28 31 30 31 34 35 35 36 37 36 39 40 37 38 37 38 39 39 40 40 40 42 42 44 43 44 46 44 46 46 46 45 42 43 44 41 -193 39 39 -193 -209 -193 -193 41 42 43 43 40 40 39 39 39 39 36 38 34 33 37 37 36 40 40 40 42 43 44 47 46 47 47 45 45 44 43 43 41 41 40 43 45 45 48 48 49 47 47 47 46 45 46 44 45 44 44 44 42 41 -225 -225 -225 -225 46 46 46 45 -209 -225 43 -209 -209 -209 -225 -209 -209 -193 62 66 71 68 68 71 68 0 0 0 0 0
    0 0 0 0 0 0 0 0 0 0 0 0 0 0 0 0 0 0 0 0 0 0 0 0 0 0 0 0 0 0 0 0 0 0 0 0 0 0 0 0 0 0 0 0 0 0 0 0 0 0 0 0 0 0 0 0 0 0 0 0 0 0 0 0 0 0 0 0 0 30 20 20 21 23 22 22 21 21 23 25 -193 25 -193 637 637 640 639 634 -193 -193 -209 -193 -193 -193 42 42 42 42 43 -209 -193 -193 19 -209 -193 -193 -193 -209 -193 663 -193 -193 -193 -193 -193 -193 28 31 29 26 29 -209 -209 44 44 34 33 34 33 31 31 31 30 32 30 29 29 28 29 25 24 29 26 26 27 27 -193 -193 29 31 27 33 35 32 33 34 32 31 32 32 30 28 30 30 28 33 30 30 29 30 30 30 29 31 26 30 32 29 29 22 22 22 -193 24 -193 23 24 25 28 29 30 29 31 28 32 31 32 35 35 36 36 38 38 40 41 38 38 39 40 41 40 42 42 42 43 44 46 45 46 47 44 46 45 47 46 43 46 47 45 -193 -193 -209 -209 -193 46 45 45 46 46 46 45 44 42 43 42 50 -193 -209 -209 33 38 39 38 42 44 43 46 46 47 50 47 48 47 45 45 43 43 42 41 40 40 42 45 45 48 47 48 47 47 47 45 45 46 44 44 43 43 43 42 41 -225 -225 -225 -225 -225 -225 -225 -225 -225 -225 -225 -209 -209 -209 -209 -209 -209 -193 62 67 71 68 68 70 68 0 0 0 0 0
    0 0 0 0 0 0 0 0 0 0 0 0 0 0 0 0 0 0 0 0 0 0 0 0 0 0 0 0 0 0 0 0 0 0 0 0 0 0 0 0 0 0 0 0 0 0 0 0 0 0 0 0 0 0 0 0 0 0 0 0 0 0 0 0 0 0 0 0 0 30 20 20 21 22 22 22 20 21 22 25 -193 25 -209 637 637 640 640 634 -193 -193 -193 -193 -193 -193 41 41 41 41 -209 -209 -193 -193 19 -209 -193 -193 34 -209 659 663 -193 -193 -193 -193 -193 -193 28 30 28 26 29 -209 -209 43 43 38 36 36 35 34 33 33 32 32 30 30 30 29 29 27 25 29 27 27 27 27 27 27 28 30 27 32 34 32 33 34 31 31 32 32 29 27 29 29 27 32 29 30 29 30 30 30 30 31 27 31 32 30 30 22 22 22 -193 -193 -193 24 25 25 28 30 30 29 30 28 32 30 32 34 34 35 36 38 38 40 40 39 39 40 43 42 42 44 44 44 45 46 47 45 48 49 44 48 46 49 48 45 48 49 47 -193 47 47 49 46 47 47 47 47 48 47 48 46 50 50 57 58 60 62 61 -209 -193 -209 41 47 51 47 51 50 50 51 50 50 48 45 45 43 43 42 41 40 39 41 45 44 47 47 48 47 47 47 46 45 45 44 44 43 43 43 42 -225 -225 -225 -225 -225 -225 -225 -225 -225 -225 -225 -225 -209 -209 -209 -193 -209 -209 -209 63 66 72 68 68 70 68 0 0 0 0 0
    0 0 0 0 0 0 0 0 0 0 0 0 0 0 0 0 0 0 0 0 0 0 0 0 0 0 0 0 0 0 0 0 0 0 0 0 0 0 0 0 0 0 0 0 0 0 0 0 0 0 0 0 0 0 0 0 0 0 0 0 0 0 0 0 0 0 0 0 0 31 21 21 21 23 22 22 20 21 23 25 25 26 -193 638 637 640 640 634 -193 -193 -193 -193 -193 -193 41 41 42 42 -209 -209 17 -209 16 -209 -193 -209 -193 -209 661 664 -193 -193 -193 -193 27 -193 27 29 27 26 30 -209 -209 42 41 38 36 35 34 34 34 33 32 32 29 30 30 29 29 27 26 29 27 27 27 26 -193 27 28 30 27 31 34 32 33 34 31 31 32 32 29 27 29 29 27 31 29 30 28 30 30 30 30 31 28 31 33 31 31 23 23 -193 621 -193 26 24 25 26 28 30 30 29 30 29 32 30 32 35 34 34 35 38 37 38 39 39 40 41 44 44 44 47 46 46 46 48 49 47 50 50 45 50 48 50 50 48 48 48 46 45 45 44 48 45 47 48 48 48 49 48 50 47 54 53 58 59 61 65 -193 -209 -209 -193 54 52 54 51 53 52 52 52 51 50 49 45 45 43 42 42 40 40 39 41 44 44 46 46 48 48 47 47 46 45 46 44 44 43 43 43 42 -225 -225 -225 -225 -225 -225 -225 -225 -225 -225 -225 -225 -225 -209 -209 108 -209 -193 -209 64 67 72 69 68 70 68 0 0 0 0 0
    0 0 0 0 0 0 0 0 0 0 0 0 0 0 0 0 0 0 0 0 0 0 0 0 0 0 0 0 0 0 0 0 0 0 0 0 0 0 0 0 0 0 0 0 0 0 0 0 0 0 0 0 0 0 0 0 0 0 0 0 0 0 0 0 0 0 0 0 0 31 21 21 21 22 22 23 20 21 23 26 26 27 -193 638 636 639 639 -193 -193 -193 27 -193 32 36 34 37 37 39 36 -209 19 18 16 -193 22 -193 -193 -193 -209 -193 -193 -193 -193 -193 27 -193 27 29 27 26 28 -209 31 40 38 37 35 34 34 34 34 33 33 32 29 31 30 29 30 27 26 29 28 28 27 27 27 27 29 31 27 31 33 32 33 33 31 31 32 32 29 28 28 29 27 31 29 30 28 30 31 30 30 31 28 31 34 32 32 23 23 -193 -177 -193 26 25 26 26 28 30 29 29 31 29 32 30 33 35 34 34 35 38 36 37 38 39 40 42 45 44 44 48 47 48 47 48 49 47 50 50 45 50 49 50 49 50 48 48 47 47 46 45 50 47 48 50 50 49 50 49 50 45 48 45 47 -209 59 -209 -209 -209 -209 54 54 53 54 52 53 53 52 52 51 50 49 45 45 43 42 42 40 40 39 41 44 44 46 46 48 48 47 47 46 45 46 44 45 44 43 43 41 40 -225 -225 -225 -225 -225 -225 -225 -225 -225 -225 -225 -225 -209 -209 -193 -193 106 -209 -193 70 -193 70 68 70 68 0 0 0 0 0
    0 0 0 0 0 0 0 0 0 0 0 0 0 0 0 0 0 0 0 0 0 0 0 0 0 0 0 0 0 0 0 0 0 0 0 0 0 0 0 0 0 0 0 0 0 0 0 0 0 0 0 0 0 0 0 0 0 0 0 0 0 0 0 0 0 0 0 0 0 29 20 20 21 21 21 23 20 22 23 26 27 28 -193 639 636 -193 28 25 26 28 25 26 28 27 28 28 28 28 23 19 19 20 17 20 22 24 -193 -177 -209 -209 -193 27 -193 -193 26 25 27 28 26 25 27 25 30 37 37 36 33 32 31 33 34 33 33 31 29 30 30 29 30 27 26 29 28 28 28 27 28 28 30 31 28 32 34 33 33 33 31 31 31 32 29 28 28 29 27 32 29 30 28 30 31 30 30 32 28 31 34 32 32 24 24 -193 -193 26 27 25 26 26 28 30 29 29 31 29 32 29 34 36 34 33 35 38 35 36 37 39 40 42 46 44 44 48 48 48 48 48 48 47 50 50 45 50 48 49 49 50 48 48 48 47 47 45 52 50 49 52 52 51 52 50 51 45 49 45 47 53 58 60 -209 -209 -209 -193 54 53 54 52 53 53 52 52 51 50 49 45 45 43 42 42 41 41 40 41 44 44 46 46 48 48 47 47 47 45 46 45 45 44 43 43 41 36 -225 -225 -225 -225 -225 -225 -225 -225 -225 -225 -225 -225 -225 -209 -193 -193 104 103 -193 -193 82 70 69 70 69 0 0 0 0 0
    0 0 0 0 0 0 0 0 0 0 0 0 0 0 0 0 0 0 0 0 0 0 0 0 0 0 0 0 0 0 0 0 0 0 0 0 0 0 0 0 0 0 0 0 0 0 0 0 0 0 0 0 0 0 0 0 0 0 0 0 0 0 0 0 0 0 0 0 0 27 20 20 20 20 21 23 20 22 23 26 26 27 638 639 636 -193 27 25 25 28 25 26 26 26 27 26 26 26 22 19 19 21 19 22 24 25 -193 -193 -193 -193 27 26 27 -193 -193 25 27 28 27 25 26 25 30 38 37 36 32 31 31 34 35 35 36 30 29 31 30 30 30 27 26 30 29 29 28 28 28 28 30 31 27 31 34 33 33 33 31 31 31 33 30 28 28 29 27 32 30 30 28 31 31 30 30 31 28 31 34 32 32 24 24 25 -193 26 27 25 26 26 28 30 29 30 31 29 31 27 30 33 31 30 31 37 34 36 37 39 40 42 46 44 44 49 48 49 48 48 48 47 49 49 45 50 48 48 48 50 48 48 48 48 47 46 52 51 49 53 53 52 53 51 52 46 49 45 47 52 56 58 -193 -193 -193 -193 54 53 54 52 53 52 51 51 50 50 49 45 44 43 42 42 41 41 41 41 44 45 46 45 48 48 47 47 47 45 46 45 46 44 43 44 41 29 -225 -225 -225 -225 -225 -225 -225 -225 -225 -225 -225 -225 -225 -209 -193 -209 -209 95 -193 73 85 71 69 71 69 0 0 0 0 0
    0 0 0 0 0 0 0 0 0 0 0 0 0 0 0 0 0 0 0 0 0 0 0 0 0 0 0 0 0 0 0 0 0 0 0 0 0 0 0 0 0 0 0 0 0 0 0 0 0 0 0 0 0 0 0 0 0 0 0 0 0 0 0 0 0 0 0 0 0 24 19 20 19 20 21 23 20 22 22 25 25 26 637 639 636 -193 26 25 26 28 26 27 28 28 28 27 27 26 22 19 20 21 21 23 25 25 24 -193 -193 -193 26 26 26 -209 -193 25 27 29 27 25 27 25 32 40 38 37 32 30 29 34 36 36 35 28 28 30 30 31 30 28 27 31 29 29 29 28 28 28 30 31 27 30 32 32 31 32 30 30 30 32 30 28 28 29 28 32 29 30 28 30 31 30 31 31 28 31 34 31 31 25 24 25 26 26 27 25 26 26 28 30 29 30 31 28 29 26 29 31 29 29 29 36 34 36 37 38 40 43 45 44 44 49 48 49 48 48 48 47 49 49 45 50 48 48 48 50 48 48 48 48 47 46 52 50 49 52 52 52 52 51 52 45 48 44 44 50 54 -193 -193 -209 -193 55 53 52 53 51 52 52 51 50 50 49 48 45 44 42 42 42 41 41 41 41 45 45 46 45 48 48 47 47 47 45 46 45 46 44 43 43 39 26 -225 -225 -225 -225 -225 -225 -225 -225 -225 -225 -225 -225 -225 -209 -193 -209 -209 -193 76 77 84 -193 69 71 70 0 0 0 0 0
    0 0 0 0 0 0 0 0 0 0 0 0 0 0 0 0 0 0 0 0 0 0 0 0 0 0 0 0 0 0 0 0 0 0 0 0 0 0 0 0 0 0 0 0 0 0 0 0 0 0 0 0 0 0 0 0 0 0 0 0 0 0 0 0 0 0 0 0 0 23 18 19 19 20 22 23 21 22 21 25 25 26 636 -193 -193 -193 25 24 25 27 26 27 28 28 29 28 27 27 24 21 21 23 -193 24 26 26 24 21 23 24 25 25 26 -193 -193 26 27 28 27 24 25 23 30 38 37 30 26 26 25 -193 29 31 28 26 26 29 29 31 29 28 27 31 30 30 29 29 28 28 30 31 27 28 31 30 29 30 30 29 29 32 30 29 29 29 29 32 30 31 28 30 31 31 31 31 28 31 35 31 32 27 25 27 27 27 27 26 27 26 29 31 29 30 31 29 28 25 29 30 29 28 29 36 34 35 37 38 39 42 45 44 44 48 47 48 48 49 48 48 49 49 46 50 49 48 49 50 48 48 48 48 47 46 51 50 49 51 51 51 51 50 52 44 47 44 44 50 54 57 -209 55 54 55 53 52 53 51 52 51 50 49 49 48 48 44 44 42 42 41 42 42 41 41 44 44 46 45 47 48 47 47 47 45 46 45 45 44 42 43 39 26 -225 -225 -225 -225 -225 -225 -225 -225 -225 -225 -225 -225 -225 -209 -209 66 -193 78 -193 73 77 -193 68 70 69 0 0 0 0 0
    0 0 0 0 0 0 0 0 0 0 0 0 0 0 0 0 0 0 0 0 0 0 0 0 0 0 0 0 0 0 0 0 0 0 0 0 0 0 0 0 0 0 0 0 0 0 0 0 0 0 0 0 0 0 0 0 0 0 0 0 0 0 0 0 0 0 0 0 0 23 18 19 18 20 22 23 22 22 21 25 25 26 -193 -193 -193 23 23 24 25 27 26 26 27 27 28 28 27 27 24 22 22 -193 -193 25 27 27 24 21 23 24 25 25 25 -193 -193 26 28 28 27 24 25 23 29 39 39 37 31 29 27 31 31 33 26 25 25 26 28 30 28 28 27 32 30 30 30 29 28 29 30 31 26 28 30 30 29 30 30 29 30 33 30 29 29 30 30 31 30 31 29 31 31 31 31 30 29 32 35 31 33 28 26 29 28 28 28 27 28 27 29 32 28 31 31 29 26 24 27 29 28 27 29 35 34 35 37 37 39 41 43 43 43 48 47 48 48 49 48 48 49 49 46 51 49 49 49 50 49 48 49 48 48 46 51 49 49 51 52 52 52 51 53 45 49 46 46 51 52 54 53 53 52 54 53 52 52 50 51 50 49 49 48 48 47 44 44 42 41 41 42 41 41 41 44 44 45 44 47 48 47 46 47 45 46 45 45 44 42 43 41 27 -225 -225 -225 -225 -225 -225 -225 -225 -225 -225 -225 -225 -225 -209 -193 67 70 73 70 71 73 71 67 69 69 0 0 0 0 0
    0 0 0 0 0 0 0 0 0 0 0 0 0 0 0 0 0 0 0 0 0 0 0 0 0 0 0 0 0 0 0 0 0 0 0 0 0 0 0 0 0 0 0 0 0 0 0 0 0 0 0 0 0 0 0 0 0 0 0 0 0 0 0 0 0 0 0 0 0 23 19 19 19 21 23 23 23 23 22 25 25 26 -193 24 23 23 22 24 24 27 26 26 27 27 28 28 26 26 24 22 22 -193 25 26 27 27 24 21 23 24 24 25 25 24 -193 27 28 28 28 24 25 23 30 40 40 -193 36 31 29 32 32 30 25 24 25 27 29 31 29 28 28 33 31 31 30 30 29 29 31 30 26 28 31 30 29 30 31 29 30 33 31 29 29 30 31 31 30 31 29 30 30 31 31 30 29 31 35 31 33 28 27 30 28 28 28 27 28 27 29 32 28 32 31 -193 24 21 24 26 26 25 29 34 35 35 37 37 38 41 43 42 43 47 47 48 48 49 48 47 49 49 45 50 49 48 49 50 48 48 48 48 47 46 51 49 49 51 52 52 52 52 53 45 51 46 47 51 51 53 51 53 52 54 53 52 52 51 51 51 50 49 48 47 46 44 44 42 41 41 42 42 41 41 44 44 45 44 46 48 47 46 47 45 46 45 45 45 43 44 42 29 -209 -225 -225 -225 -225 -225 -225 -225 -225 -225 -225 -225 -225 -193 62 68 69 72 70 70 72 71 67 69 70 0 0 0 0 0
    0 0 0 0 0 0 0 0 0 0 0 0 0 0 0 0 0 0 0 0 0 0 0 0 0 0 0 0 0 0 0 0 0 0 0 0 0 0 0 0 0 0 0 0 0 0 0 0 0 0 0 0 0 0 0 0 0 0 0 0 0 0 0 0 0 0 0 0 0 22 19 20 20 22 24 24 24 24 22 25 25 26 26 24 23 22 21 24 24 27 26 26 27 27 27 27 26 26 24 21 22 24 -193 25 26 26 23 21 22 23 24 25 25 24 -193 27 29 29 29 24 24 22 30 40 40 40 36 31 28 31 28 24 23 23 24 25 28 31 29 28 28 34 31 31 31 30 29 29 31 30 26 27 31 30 29 30 32 30 31 33 31 30 29 30 32 30 30 31 29 30 30 31 31 29 29 30 35 30 33 29 28 30 28 28 28 27 28 -193 29 30 27 -193 -193 -193 23 21 25 28 27 25 32 35 35 35 36 37 38 40 42 41 42 46 47 47 48 48 48 47 49 49 45 50 49 48 49 51 48 48 48 48 48 46 51 50 49 52 52 52 53 52 54 46 51 47 48 52 52 53 52 53 53 54 53 53 51 51 52 51 50 48 48 47 46 44 43 42 41 42 42 42 42 41 44 44 45 44 47 48 47 47 48 45 46 45 46 45 43 44 45 39 -209 -225 -225 -225 -225 -225 -225 -225 -225 -225 -225 -225 -225 -225 -225 -225 67 71 70 71 72 72 69 70 71 0 0 0 0 0
    0 0 0 0 0 0 0 0 0 0 0 0 0 0 0 0 0 0 0 0 0 0 0 0 0 0 0 0 0 0 0 0 0 0 0 0 0 0 0 0 0 0 0 0 0 0 0 0 0 0 0 0 0 0 0 0 0 0 0 0 0 0 0 0 0 0 0 0 0 22 19 20 20 22 25 25 25 25 22 25 25 26 25 23 23 21 20 24 24 27 26 26 27 27 27 27 26 26 24 22 22 24 -193 -193 26 26 23 20 22 23 24 25 25 25 -193 27 29 29 29 23 23 20 28 37 38 33 33 30 28 30 -193 -193 22 22 23 23 27 30 28 28 28 35 31 31 32 30 29 30 31 30 25 27 30 29 28 29 30 29 30 31 31 29 29 31 32 31 31 31 30 30 30 31 30 29 28 30 34 30 33 30 29 30 28 28 29 27 28 -177 28 29 27 -193 -193 -193 22 21 25 27 27 25 35 34 35 35 36 36 37 39 41 41 42 46 46 47 48 48 48 47 49 48 45 49 48 48 48 50 48 48 49 48 48 46 51 50 50 51 52 52 52 51 53 46 49 46 46 51 50 51 50 52 53 54 53 53 51 51 52 51 50 48 48 47 46 44 43 42 41 42 43 42 42 41 44 45 45 45 47 49 47 46 48 45 46 45 46 45 44 45 49 45 51 -193 -209 -209 -225 -225 -225 -225 -225 -225 -225 -225 -225 -225 -225 -225 -193 -209 70 73 -209 -209 69 71 72 0 0 0 0 0
    0 0 0 0 0 0 0 0 0 0 0 0 0 0 0 0 0 0 0 0 0 0 0 0 0 0 0 0 0 0 0 0 0 0 0 0 0 0 0 0 0 0 0 0 0 0 0 0 0 0 0 0 0 0 0 0 0 0 0 0 0 0 0 0 0 0 0 0 0 22 20 21 21 23 26 25 26 26 22 23 24 24 24 22 22 21 19 24 25 28 26 26 28 27 28 28 26 26 25 23 23 25 25 26 26 26 23 20 22 22 25 25 25 -193 -193 28 30 29 30 23 23 21 28 36 36 30 33 29 27 28 -193 -193 23 23 23 23 28 29 28 27 28 35 31 31 32 30 -193 30 31 30 25 27 30 28 27 29 30 29 30 31 31 29 29 31 32 30 31 31 30 30 30 31 30 28 28 30 33 31 33 30 30 31 29 29 29 28 28 -177 -193 28 28 -193 -177 -193 21 22 25 27 26 24 35 33 35 35 36 36 37 39 41 41 42 45 46 47 48 48 48 46 48 48 45 49 48 48 49 50 48 48 49 48 48 47 51 50 50 50 51 51 51 50 51 45 48 46 47 52 52 53 52 54 53 54 53 53 50 50 51 50 50 48 47 46 45 45 44 42 41 42 43 43 43 42 44 46 45 45 49 51 48 46 49 46 46 45 46 45 44 46 51 49 55 60 70 -209 -225 -225 -225 -225 -225 -225 -225 -225 -225 -225 -225 -225 -225 -209 -209 -209 -209 -209 69 70 72 0 0 0 0 0
    0 0 0 0 0 0 0 0 0 0 0 0 0 0 0 0 0 0 0 0 0 0 0 0 0 0 0 0 0 0 0 0 0 0 0 0 0 0 0 0 0 0 0 0 0 0 0 0 0 0 0 0 0 0 0 0 0 0 0 0 0 0 0 0 0 0 0 0 0 22 21 22 22 24 27 25 26 26 22 22 23 23 23 20 21 20 18 24 24 27 26 26 28 27 28 28 26 27 25 24 24 25 26 26 27 27 24 22 23 23 26 26 26 26 -193 28 30 29 30 23 23 22 27 35 36 32 34 31 29 30 -193 25 24 24 24 24 28 29 28 27 28 36 31 31 31 30 29 30 30 29 25 27 29 27 27 29 30 29 31 31 30 29 30 31 31 30 31 30 30 29 30 31 29 28 29 30 33 31 34 31 31 31 30 30 30 29 29 -177 -193 -193 28 -193 -193 -193 24 27 28 30 29 30 35 32 35 34 36 36 37 39 40 41 42 45 46 47 48 49 48 46 48 48 45 49 47 49 50 51 50 49 50 49 49 47 51 49 50 50 50 50 50 49 51 45 48 45 46 51 50 52 50 51 -193 53 52 52 49 49 51 50 50 48 47 46 45 45 44 42 41 42 43 43 43 42 45 46 46 46 51 53 51 48 50 47 47 46 47 46 45 46 52 50 57 63 -193 -209 -209 -225 -225 -225 -225 -225 -225 -225 -225 -225 -225 -225 -225 -209 -193 -209 -209 -193 68 69 71 0 0 0 0 0
    0 0 0 0 0 0 0 0 0 0 0 0 0 0 0 0 0 0 0 0 0 0 0 0 0 0 0 0 0 0 0 0 0 0 0 0 0 0 0 0 0 0 0 0 0 0 0 0 0 0 0 0 0 0 0 0 0 0 0 0 0 0 0 0 0 0 0 0 0 22 22 23 23 25 27 26 26 26 22 22 23 23 22 19 20 20 18 24 24 26 25 26 27 26 28 28 26 26 26 25 25 26 26 26 27 27 24 23 23 23 27 27 27 27 26 28 29 29 29 23 22 20 26 32 34 31 35 32 30 31 29 26 25 25 25 26 29 29 28 28 29 36 32 32 31 29 29 30 30 29 25 28 29 27 27 29 30 29 31 31 30 29 30 32 31 30 31 30 30 29 30 31 28 27 29 29 32 32 35 31 32 32 30 30 31 30 29 -177 -193 -193 28 32 -193 -193 24 30 30 32 32 37 36 33 35 34 36 36 36 38 40 41 43 45 46 47 48 49 48 46 48 48 45 49 47 51 52 53 53 51 51 50 51 47 51 49 50 49 50 50 49 48 50 44 48 45 45 49 48 50 47 49 -193 53 52 52 48 48 51 50 50 48 47 46 45 45 44 42 41 41 43 43 43 42 45 47 46 47 52 54 51 48 51 48 47 47 47 47 46 47 52 51 58 -225 73 -209 -209 -209 -225 -225 -225 -225 -225 -225 -225 -225 -225 -225 -225 -209 -209 -209 -193 -193 68 69 71 0 0 0 0 0
    0 0 0 0 0 0 0 0 0 0 0 0 0 0 0 0 0 0 0 0 0 0 0 0 0 0 0 0 0 0 0 0 0 0 0 0 0 0 0 0 0 0 0 0 0 0 0 0 0 0 0 0 0 0 0 0 0 0 0 0 0 0 0 0 0 0 0 0 0 23 23 24 24 25 28 26 27 26 22 22 23 23 22 19 20 19 17 23 23 25 24 24 26 25 27 27 25 26 26 25 25 26 26 26 26 27 25 23 24 24 28 27 27 28 27 28 30 29 29 23 23 21 25 28 31 29 33 33 31 31 29 25 25 24 24 26 29 28 28 28 29 36 31 32 31 29 -193 30 30 29 25 29 29 27 28 30 31 29 32 31 30 30 30 32 31 30 31 30 29 29 29 30 27 27 28 29 31 33 35 32 33 32 30 31 31 30 29 -193 -193 -193 28 31 30 27 25 34 32 34 35 39 36 33 36 34 36 36 36 38 39 41 43 45 46 47 48 49 48 46 48 48 44 47 46 53 54 56 56 -193 53 52 -193 48 52 49 50 49 49 50 49 47 50 44 47 43 43 47 45 46 -193 -193 -193 -193 52 52 48 48 51 50 50 48 47 46 45 45 45 43 41 41 43 43 43 42 45 46 45 46 52 -209 52 48 51 48 47 47 47 48 48 48 53 52 57 63 71 -209 -209 -209 -225 -225 -225 -225 -225 -225 -225 -225 -225 -225 -225 -225 -209 -209 -209 -193 68 68 71 0 0 0 0 0
    0 0 0 0 0 0 0 0 0 0 0 0 0 0 0 0 0 0 0 0 0 0 0 0 0 0 0 0 0 0 0 0 0 0 0 0 0 0 0 0 0 0 0 0 0 0 0 0 0 0 0 0 0 0 0 0 0 0 0 0 0 0 0 0 0 0 0 0 0 23 24 25 25 26 28 27 27 27 22 22 22 23 22 19 19 20 17 23 23 24 24 24 26 25 26 26 25 25 26 25 25 25 25 25 26 27 25 24 24 24 29 28 28 28 27 28 30 29 29 23 23 23 25 29 32 30 33 34 33 32 30 27 27 25 25 28 29 28 28 28 29 35 31 31 30 29 -193 30 30 29 24 27 28 27 27 30 30 29 31 31 30 29 31 31 30 30 31 29 29 29 29 29 27 27 27 29 30 34 35 32 33 31 30 30 31 30 29 -193 -193 -193 28 31 29 27 25 33 31 33 33 39 36 -193 -193 34 36 36 36 38 39 41 43 45 47 48 48 49 47 45 48 48 43 46 43 55 -193 -209 -209 -193 -209 -209 -209 48 52 50 51 50 49 50 49 48 49 44 46 43 41 44 42 -193 -193 -193 -193 -193 51 52 48 48 51 50 50 48 47 46 45 45 45 43 42 42 43 43 43 43 46 47 45 48 56 -209 55 51 54 51 49 50 50 50 50 50 54 53 58 61 66 -209 -193 -209 -225 -225 -225 -225 -225 -225 -225 -225 -225 -225 -225 -225 -225 -209 -209 -193 70 69 71 0 0 0 0 0
    0 0 0 0 0 0 0 0 0 0 0 0 0 0 0 0 0 0 0 0 0 0 0 0 0 0 0 0 0 0 0 0 0 0 0 0 0 0 0 0 0 0 0 0 0 0 0 0 0 0 0 0 0 0 0 0 0 0 0 0 0 0 0 0 0 0 0 0 0 23 24 -193 25 26 27 26 26 26 22 22 22 23 -193 20 19 20 16 23 23 23 23 23 25 24 25 25 25 25 26 26 25 25 25 24 25 27 26 24 24 24 30 28 28 29 28 28 29 29 29 23 23 22 25 28 30 30 32 33 33 30 29 28 28 26 26 29 29 28 29 29 29 35 31 32 30 29 -193 30 30 29 24 27 26 26 27 29 29 29 31 30 30 29 31 31 30 30 31 29 29 29 30 29 27 27 28 29 30 35 35 32 33 31 30 30 30 29 28 26 27 24 28 30 28 26 26 31 30 32 33 38 35 33 35 34 35 36 36 38 38 41 43 46 47 48 48 49 47 45 47 47 42 -209 -209 -209 -209 -209 -209 124 -209 -209 -209 48 52 50 51 50 49 50 49 48 49 45 46 44 42 44 42 -193 -209 -193 -193 -193 51 52 48 48 51 50 50 48 47 47 45 46 46 43 42 42 44 44 44 44 47 49 46 50 57 57 56 53 55 53 52 53 53 52 52 52 55 55 58 60 64 -209 -193 -209 -193 -225 -225 -225 -225 -225 -225 -225 -225 -225 -225 -225 -225 -209 -209 -209 71 70 72 0 0 0 0 0
    0 0 0 0 0 0 0 0 0 0 0 0 0 0 0 0 0 0 0 0 0 0 0 0 0 0 0 0 0 0 0 0 0 0 0 0 0 0 0 0 0 0 0 0 0 0 0 0 0 0 0 0 0 0 0 0 0 0 0 0 0 0 0 0 0 0 0 0 0 22 23 -193 25 26 27 26 25 26 22 22 22 23 -193 -193 -193 -193 16 22 22 22 22 22 23 23 24 25 25 25 26 26 26 25 25 24 25 27 26 25 25 25 30 29 29 30 28 28 29 29 29 22 22 20 24 27 29 28 30 31 32 29 28 28 28 27 27 29 29 28 28 29 29 34 31 31 29 29 30 30 30 29 25 27 26 26 27 29 28 28 31 30 29 30 31 31 29 30 30 29 29 29 30 29 27 28 28 30 31 36 35 32 33 31 30 30 30 29 28 -193 26 24 27 29 27 26 28 34 32 34 35 39 35 34 35 34 35 35 36 37 37 41 42 46 47 49 49 49 48 46 48 48 42 -209 -209 -209 -209 -209 -209 126 137 -209 -209 48 52 50 51 51 49 50 49 48 49 45 47 45 43 46 43 43 45 -209 -193 -193 51 52 48 48 51 50 49 48 47 47 45 46 46 44 43 43 44 45 46 45 48 49 47 48 53 54 54 51 54 53 52 54 53 52 52 52 55 55 57 59 -193 -193 -193 -193 -193 -193 -225 -225 -225 -225 -225 -225 -225 -225 -225 -225 -209 -209 -209 -193 -193 70 71 0 0 0 0 0
    0 0 0 0 0 0 0 0 0 0 0 0 0 0 0 0 0 0 0 0 0 0 0 0 0 0 0 0 0 0 0 0 0 0 0 0 0 0 0 0 0 0 0 0 0 0 0 0 0 0 0 0 0 0 0 0 0 0 0 0 0 0 0 0 0 0 0 0 0 22 22 22 25 25 -193 25 -193 -193 22 22 22 23 -193 -177 -177 851 16 21 22 21 20 21 22 22 24 25 25 25 26 27 26 26 26 -193 26 -193 -193 26 25 26 31 29 29 30 28 28 29 29 29 22 23 20 23 26 28 28 29 30 31 29 28 28 29 27 28 30 29 28 29 29 29 34 31 31 29 30 31 31 30 30 25 28 25 26 27 29 28 29 31 31 29 30 31 31 29 30 31 29 29 29 30 29 27 30 29 30 31 36 35 33 33 32 30 31 31 30 28 26 27 25 27 29 26 25 28 35 32 35 36 39 34 33 35 34 34 35 35 37 36 41 42 47 47 49 49 50 48 47 48 48 42 45 -209 -209 -209 -209 -209 -193 -209 -209 -209 50 53 51 51 51 49 50 49 48 49 46 47 45 43 46 43 44 49 -209 -193 -193 51 52 48 48 51 50 49 48 47 47 45 47 47 44 43 43 45 46 46 46 47 47 46 46 49 50 50 48 50 51 51 53 54 53 53 52 55 56 57 61 -193 -193 -193 -193 -193 -209 -225 -209 -209 -225 -225 -225 -225 -225 -225 -209 -209 -209 -193 71 72 69 71 0 0 0 0 0
    0 0 0 0 0 0 0 0 0 0 0 0 0 0 0 0 0 0 0 0 0 0 0 0 0 0 0 0 0 0 0 0 0 0 0 0 0 0 0 0 0 0 0 0 0 0 0 0 0 0 0 0 0 0 0 0 0 0 0 0 0 0 0 0 0 0 0 0 0 21 20 21 -193 24 -193 24 23 -193 21 22 22 23 -177 -177 -177 850 17 21 22 21 20 21 22 22 23 24 24 24 27 27 26 26 26 -193 26 -193 -193 27 26 26 31 29 29 30 -193 -193 -193 29 29 23 23 21 24 26 28 28 29 30 31 27 27 28 29 27 29 30 29 28 29 30 29 35 31 32 29 30 31 30 30 29 25 28 25 26 28 30 29 30 32 32 29 30 32 31 29 30 30 28 28 29 29 28 27 29 29 29 31 36 35 33 33 32 31 32 32 31 29 28 28 26 28 30 26 25 27 33 31 34 35 39 33 33 35 34 34 35 35 37 35 41 42 47 47 50 49 50 48 47 48 48 42 47 -209 -209 -193 -209 -209 -193 -209 -209 -209 -193 54 51 51 51 49 50 49 48 49 46 48 46 44 50 -193 45 -209 -209 -209 -209 52 53 48 48 51 50 49 48 47 47 45 47 47 44 43 43 45 46 46 46 45 45 44 44 45 45 46 45 46 49 49 53 54 53 53 52 55 57 58 61 -193 -193 -193 -193 -193 -209 -193 -193 -209 -225 -225 -225 -225 -225 -225 -209 -209 -209 56 69 71 68 70 0 0 0 0 0
    0 0 0 0 0 0 0 0 0 0 0 0 0 0 0 0 0 0 0 0 0 0 0 0 0 0 0 0 0 0 0 0 0 0 0 0 0 0 0 0 0 0 0 0 0 0 0 0 0 0 0 0 0 0 0 0 0 0 0 0 0 0 0 0 0 0 0 0 0 20 19 20 -193 23 -193 -177 22 -193 21 23 23 23 -193 849 849 849 17 20 21 20 19 21 22 22 23 24 24 24 26 26 26 25 -193 295 26 28 28 27 26 27 31 29 29 31 672 670 673 29 29 23 23 22 24 26 29 27 29 29 30 26 26 27 28 27 30 30 28 28 29 30 30 35 32 32 29 30 30 30 29 29 25 27 25 27 28 30 29 30 32 32 29 30 32 30 28 30 30 28 28 29 29 27 27 30 29 30 32 37 35 34 33 33 31 32 31 31 29 28 28 27 28 29 25 24 26 31 30 32 35 40 33 33 35 34 34 35 35 37 34 42 43 48 47 50 50 50 47 48 48 48 42 47 -193 54 -193 65 -209 -193 -209 -209 -209 52 53 50 51 50 49 50 50 49 50 47 49 46 44 53 -209 -209 -209 -209 -209 -209 52 53 48 48 51 50 48 48 47 47 45 47 47 44 43 43 45 46 46 46 45 45 44 44 44 44 45 44 44 46 46 51 54 54 53 51 54 57 -193 -193 -193 17 -193 -209 -209 -209 -193 -209 -209 -225 -225 -225 -225 -225 -209 -209 -209 -209 56 70 72 68 70 0 0 0 0 0
    0 0 0 0 0 0 0 0 0 0 0 0 0 0 0 0 0 0 0 0 0 0 0 0 0 0 0 0 0 0 0 0 0 0 0 0 0 0 0 0 0 0 0 0 0 0 0 0 0 0 0 0 0 0 0 0 0 0 0 0 0 0 0 0 0 0 0 0 0 20 17 -193 -193 23 -177 -177 22 723 -193 24 24 24 -193 849 849 848 18 20 21 20 19 21 22 23 -193 25 25 24 27 26 26 25 -193 295 -193 28 28 27 26 27 31 29 29 31 672 670 673 -193 29 24 24 24 25 27 29 27 28 27 29 25 25 27 28 26 30 29 28 28 29 30 30 35 32 32 30 30 30 30 30 29 25 26 24 27 27 29 28 29 30 31 28 30 31 29 28 29 29 28 27 28 28 26 27 29 28 29 30 35 34 34 32 32 31 31 31 31 29 29 28 27 27 29 23 23 24 26 27 28 35 40 34 34 35 35 34 35 36 38 35 42 43 48 47 50 49 50 47 48 48 49 43 48 43 54 55 59 -193 58 55 -209 -193 52 53 51 51 50 49 50 50 49 50 47 48 46 44 -209 -209 -209 -209 -209 46 -193 51 53 48 48 51 50 49 48 47 47 45 48 48 45 43 44 45 46 46 46 44 44 44 43 43 43 44 43 42 44 44 48 52 52 52 49 52 56 54 -193 -209 17 -193 -193 -209 -209 -225 -209 -209 -225 -225 -225 -225 -225 -209 -193 -209 -209 -193 70 72 69 70 0 0 0 0 0
    0 0 0 0 0 0 0 0 0 0 0 0 0 0 0 0 0 0 0 0 0 0 0 0 0 0 0 0 0 0 0 0 0 0 0 0 0 0 0 0 0 0 0 0 0 0 0 0 0 0 0 0 0 0 0 0 0 0 0 0 0 0 0 0 0 0 0 0 0 19 16 18 22 22 -177 -177 22 -193 485 25 25 26 -193 849 849 848 18 20 21 20 -193 -193 -193 23 -193 -193 26 25 27 26 26 26 -193 295 26 28 28 26 27 27 31 29 29 31 672 670 673 -193 30 24 25 25 26 28 29 27 28 27 28 24 24 26 28 27 29 29 28 28 29 30 30 35 31 32 30 30 30 29 30 29 25 26 22 27 27 28 27 27 28 29 28 29 31 28 27 29 29 28 28 28 28 25 28 29 28 28 30 34 34 35 32 32 31 31 31 30 29 29 27 28 27 28 21 23 24 24 24 24 33 39 34 34 36 35 35 35 36 38 36 41 42 47 46 49 49 49 47 48 48 49 43 47 44 53 54 55 55 58 55 57 56 53 54 52 51 51 48 49 50 49 50 47 49 47 46 57 -209 -209 -193 -209 48 54 51 53 48 48 51 51 48 48 47 47 45 47 47 44 43 44 46 46 46 47 44 44 44 43 44 43 44 44 42 44 44 46 48 49 48 44 48 56 53 -193 -209 -193 -209 -209 -209 -209 -225 -209 -193 -225 -225 -225 -225 -225 -209 -225 -209 -209 -209 69 72 69 70 0 0 0 0 0</data></disparity>
</opencv_storage>
