<?xml version="1.0"?>
<opencv_storage>
<gps_time_stamp>321511</gps_time_stamp>
<gps_x>-1.2430954933166504e+001</gps_x>
<gps_y>1.0717675209045410e+001</gps_y>
<gps_z>-2.0165512561798096e+000</gps_z>
<image_time_stamp>312359</image_time_stamp>
<disparity type_id="opencv-matrix">
  <rows>84</rows>
  <cols>320</cols>
  <dt>s</dt>
  <data>
    0 0 0 0 0 0 0 0 0 0 0 0 0 0 0 0 0 0 0 0 0 0 0 0 0 0 0 0 0 0 0 0 0 0 0 0 0 0 0 0 0 0 0 0 0 0 0 0 0 0 0 0 0 0 0 0 0 0 0 0 0 0 0 0 0 0 0 0 0 52 53 51 50 49 51 50 50 53 57 -209 74 77 80 80 82 83 82 76 67 68 67 67 62 64 -209 -209 -193 -209 -209 -209 -209 -193 -193 -193 20 -209 -209 -209 41 40 41 -193 40 38 28 25 21 19 20 14 13 12 12 12 11 10 11 9 11 11 10 10 9 9 0 0 9 0 0 9 9 10 10 12 13 16 18 18 20 19 20 21 21 22 23 22 22 21 22 22 20 19 15 14 12 12 11 12 11 11 11 11 12 12 12 13 11 12 12 11 13 12 12 11 12 13 15 17 17 15 18 18 18 19 19 18 17 24 52 57 50 54 58 62 58 59 59 62 67 66 67 70 70 71 72 72 73 73 74 74 74 74 76 76 78 80 81 83 87 89 91 90 94 95 94 95 98 102 103 104 104 104 107 107 107 109 109 112 114 117 119 119 122 126 124 125 126 130 129 127 128 127 125 128 128 128 126 125 133 137 143 147 148 151 150 149 149 150 150 151 154 154 155 155 157 158 157 158 158 157 158 160 162 164 165 167 169 171 174 174 174 178 180 182 183 184 184 185 187 190 190 191 193 194 196 0 0 0 0 0
    0 0 0 0 0 0 0 0 0 0 0 0 0 0 0 0 0 0 0 0 0 0 0 0 0 0 0 0 0 0 0 0 0 0 0 0 0 0 0 0 0 0 0 0 0 0 0 0 0 0 0 0 0 0 0 0 0 0 0 0 0 0 0 0 0 0 0 0 0 53 53 51 50 50 53 52 54 56 71 -193 77 79 80 80 81 83 82 77 61 62 59 62 62 64 -209 -209 -209 -209 -209 -209 -209 -193 -193 -209 20 -209 -209 42 42 41 42 41 41 40 34 27 22 19 20 15 13 13 12 12 11 11 11 10 11 11 10 11 9 9 9 9 9 9 9 10 9 10 11 12 13 15 16 17 19 18 20 20 20 22 22 22 22 21 22 21 19 18 14 13 11 11 10 12 11 11 11 11 12 12 13 13 11 13 13 12 13 12 13 11 13 14 17 19 18 16 19 19 19 20 21 19 20 -177 43 54 46 53 56 58 56 57 57 60 66 66 66 70 70 72 73 73 74 74 75 75 75 74 77 76 77 79 81 83 87 89 90 90 93 95 94 95 98 101 103 104 104 104 107 107 107 109 110 113 114 117 119 119 121 126 124 125 126 130 130 127 129 127 125 128 128 129 127 126 134 137 143 145 147 151 150 149 149 150 150 151 154 154 154 155 157 158 157 157 158 157 159 162 163 164 165 167 168 171 174 174 174 180 181 184 185 185 185 186 189 192 192 193 195 195 198 0 0 0 0 0
    0 0 0 0 0 0 0 0 0 0 0 0 0 0 0 0 0 0 0 0 0 0 0 0 0 0 0 0 0 0 0 0 0 0 0 0 0 0 0 0 0 0 0 0 0 0 0 0 0 0 0 0 0 0 0 0 0 0 0 0 0 0 0 0 0 0 0 0 0 55 55 53 52 52 56 57 61 70 75 82 80 81 82 82 83 85 84 80 62 66 62 63 62 65 -209 -209 -209 -209 -209 -209 0 -193 -209 -209 -209 -193 46 44 44 43 43 42 42 41 40 29 22 19 20 15 13 12 12 12 11 11 11 10 11 11 11 12 10 10 10 10 10 9 10 10 10 10 11 12 13 14 15 15 18 17 19 20 20 21 22 22 22 21 21 20 17 16 13 13 11 11 10 12 11 11 11 11 12 12 12 13 11 12 13 11 14 12 13 12 13 16 20 20 19 17 20 20 20 21 22 21 22 29 40 43 42 49 54 55 54 57 56 60 65 65 65 69 71 72 73 73 74 73 75 75 75 74 76 76 78 79 81 84 86 89 90 91 94 96 95 96 99 101 103 104 104 104 107 107 107 110 110 114 115 117 118 118 120 126 124 125 126 129 131 128 129 128 126 129 129 129 129 126 134 136 141 142 144 149 149 149 149 150 150 151 154 154 154 155 157 157 157 157 158 158 160 163 164 164 166 167 169 171 174 175 176 182 183 185 186 186 186 187 190 194 193 195 196 197 199 0 0 0 0 0
    0 0 0 0 0 0 0 0 0 0 0 0 0 0 0 0 0 0 0 0 0 0 0 0 0 0 0 0 0 0 0 0 0 0 0 0 0 0 0 0 0 0 0 0 0 0 0 0 0 0 0 0 0 0 0 0 0 0 0 0 0 0 0 0 0 0 0 0 0 58 57 56 54 56 60 66 71 74 78 85 83 82 83 82 83 85 84 76 62 64 62 63 63 64 67 70 -209 -209 -209 -209 -209 -209 -209 311 -209 43 47 45 45 45 44 43 42 41 41 29 21 19 20 15 13 13 12 12 11 11 11 10 12 12 11 13 11 11 11 11 11 10 10 11 10 10 10 12 13 13 14 14 17 16 19 19 20 21 21 22 21 20 21 20 15 15 12 12 11 11 10 12 11 11 11 12 11 12 12 13 11 13 15 13 18 14 16 15 17 20 23 22 19 17 21 20 20 21 23 22 22 30 41 42 42 47 53 55 54 57 57 61 67 66 66 70 71 72 73 73 73 73 74 74 74 73 75 76 77 78 79 81 84 88 89 90 93 96 95 -193 100 100 -209 -193 103 104 106 106 107 111 111 116 115 117 118 118 120 126 124 125 125 128 131 128 129 128 126 129 130 130 130 127 134 135 139 139 141 147 149 148 149 149 150 151 154 154 154 154 156 156 156 157 158 157 160 163 164 164 166 168 169 172 175 176 177 -193 183 185 186 187 187 187 191 194 193 196 196 197 200 0 0 0 0 0
    0 0 0 0 0 0 0 0 0 0 0 0 0 0 0 0 0 0 0 0 0 0 0 0 0 0 0 0 0 0 0 0 0 0 0 0 0 0 0 0 0 0 0 0 0 0 0 0 0 0 0 0 0 0 0 0 0 0 0 0 0 0 0 0 0 0 0 0 0 61 59 58 59 62 68 74 77 79 84 86 85 84 83 82 83 84 81 69 58 60 60 62 62 63 67 69 73 -209 -209 -209 -209 -177 -193 -209 -193 44 47 46 46 45 45 44 42 41 41 29 22 18 19 14 14 13 12 12 11 11 11 11 12 12 11 13 12 12 12 12 11 11 11 11 11 11 11 13 13 12 13 13 15 15 18 19 20 21 22 22 22 21 21 20 15 15 12 12 11 11 11 12 11 11 11 12 12 12 13 14 11 14 17 14 20 17 20 20 20 22 24 23 19 19 22 21 21 22 23 22 23 30 41 41 42 47 53 55 54 58 58 63 68 67 67 70 71 71 72 72 73 72 73 73 73 71 73 74 74 75 75 77 77 84 86 87 -193 91 -193 -209 96 94 -193 -193 -193 104 106 105 105 112 112 117 115 116 116 116 119 125 123 124 124 126 131 128 128 129 126 130 131 131 131 128 135 136 139 139 141 146 149 148 150 150 151 151 154 154 154 154 155 155 155 156 157 156 159 163 164 164 167 168 169 172 175 176 178 -193 183 186 187 187 187 188 192 194 194 196 197 198 200 0 0 0 0 0
    0 0 0 0 0 0 0 0 0 0 0 0 0 0 0 0 0 0 0 0 0 0 0 0 0 0 0 0 0 0 0 0 0 0 0 0 0 0 0 0 0 0 0 0 0 0 0 0 0 0 0 0 0 0 0 0 0 0 0 0 0 0 0 0 0 0 0 0 0 66 65 62 66 70 72 75 77 77 84 84 83 82 82 80 80 78 77 64 58 60 60 62 62 63 67 69 72 72 -209 -209 -177 -177 -177 -193 -193 45 47 47 46 46 45 45 43 42 42 29 22 17 17 14 15 13 13 13 11 11 12 11 12 12 12 14 12 12 13 12 11 11 11 11 11 11 12 13 14 13 13 13 16 15 19 21 21 22 23 23 23 22 22 22 16 15 12 13 12 12 11 13 11 11 11 12 11 12 12 13 10 13 16 13 19 14 16 19 23 23 26 23 19 19 22 21 21 22 24 23 23 29 39 41 41 47 54 55 55 59 59 63 68 67 67 70 71 71 71 72 72 72 73 73 73 72 73 74 74 74 73 74 74 80 78 79 76 82 76 77 91 -193 -209 -209 -209 101 -209 101 103 109 113 119 115 115 115 115 118 126 123 123 124 126 132 128 128 129 126 130 131 131 132 129 135 135 138 138 140 143 148 147 149 149 150 151 154 154 154 153 154 154 154 155 156 155 159 163 164 164 167 168 169 172 175 174 177 -193 -193 185 186 187 187 187 192 194 193 196 197 197 200 0 0 0 0 0
    0 0 0 0 0 0 0 0 0 0 0 0 0 0 0 0 0 0 0 0 0 0 0 0 0 0 0 0 0 0 0 0 0 0 0 0 0 0 0 0 0 0 0 0 0 0 0 0 0 0 0 0 0 0 0 0 0 0 0 0 0 0 0 0 0 0 0 0 0 70 70 70 71 74 74 76 76 76 83 84 82 82 82 80 79 77 76 60 58 59 59 61 61 63 66 68 71 70 71 -193 -177 -193 -193 -193 45 45 47 47 45 46 45 45 43 42 42 29 21 16 16 15 16 14 13 13 12 12 13 12 13 12 13 15 13 13 14 13 12 12 12 12 11 12 13 14 14 14 14 14 17 16 21 22 23 23 24 24 23 23 23 23 18 17 14 14 13 14 13 14 12 12 12 12 11 11 10 12 10 12 16 14 18 15 17 19 21 24 33 24 20 19 23 21 21 22 24 24 24 30 36 39 41 48 54 55 55 60 60 63 67 66 66 69 70 69 70 71 71 72 73 73 73 73 74 74 74 75 73 74 75 79 78 76 77 79 77 78 87 85 -193 -209 -209 -193 -193 95 99 100 113 120 114 114 114 114 118 126 123 123 123 125 132 128 128 129 127 130 131 132 132 130 135 135 137 138 140 141 145 144 148 148 150 151 153 154 153 153 154 154 154 155 156 155 159 162 164 163 166 167 168 171 174 174 176 -193 -193 -193 185 187 186 187 191 193 192 196 197 198 201 0 0 0 0 0
    0 0 0 0 0 0 0 0 0 0 0 0 0 0 0 0 0 0 0 0 0 0 0 0 0 0 0 0 0 0 0 0 0 0 0 0 0 0 0 0 0 0 0 0 0 0 0 0 0 0 0 0 0 0 0 0 0 0 0 0 0 0 0 0 0 0 0 0 0 71 72 73 74 76 75 76 77 78 85 84 82 83 83 82 79 76 74 59 58 58 58 60 61 63 66 68 70 70 70 67 -209 -209 -193 49 46 45 47 47 45 45 45 46 44 42 42 28 20 15 15 15 17 15 14 13 12 13 14 13 14 13 13 15 14 14 14 13 13 12 12 13 12 12 14 14 15 14 14 15 18 17 22 24 24 25 25 25 25 25 25 25 20 19 16 16 15 15 14 15 13 14 13 13 12 13 12 13 12 13 14 15 17 15 17 19 20 23 34 24 21 21 24 22 23 23 26 25 27 34 36 39 41 47 53 54 55 60 61 64 66 66 66 68 69 69 70 70 71 72 73 73 73 73 74 74 74 75 74 74 74 77 76 75 75 79 77 80 86 85 85 84 86 87 84 -193 88 92 109 120 112 113 113 114 118 127 122 122 122 124 132 127 127 129 127 130 132 132 132 130 135 135 136 137 139 141 144 143 148 148 149 150 153 154 153 153 154 154 155 156 157 156 159 162 163 163 165 166 167 171 173 173 -193 -193 -193 -193 -193 186 186 187 191 193 193 196 197 198 201 0 0 0 0 0
    0 0 0 0 0 0 0 0 0 0 0 0 0 0 0 0 0 0 0 0 0 0 0 0 0 0 0 0 0 0 0 0 0 0 0 0 0 0 0 0 0 0 0 0 0 0 0 0 0 0 0 0 0 0 0 0 0 0 0 0 0 0 0 0 0 0 0 0 0 72 74 75 75 77 76 77 77 80 86 85 84 86 85 85 85 82 77 64 61 61 60 62 63 65 68 69 71 70 68 66 -209 -209 51 49 46 45 46 46 45 45 45 46 44 42 42 24 20 14 14 15 17 15 15 14 13 14 14 15 14 13 14 15 14 14 15 14 13 13 14 14 13 14 15 14 15 15 16 16 19 19 22 25 25 26 26 26 26 26 26 26 21 20 16 17 15 16 15 16 14 16 14 15 14 14 14 13 13 12 13 16 16 14 16 19 19 22 28 23 22 22 24 23 24 24 27 28 31 36 37 39 41 46 52 54 56 61 63 66 67 66 66 68 69 69 69 70 70 71 73 73 73 73 74 75 75 77 76 76 77 79 78 77 76 78 77 80 86 86 86 84 86 85 79 -193 88 94 107 118 111 112 112 112 117 125 121 121 122 124 131 127 127 128 127 130 132 132 132 130 134 135 136 136 139 139 141 141 148 147 148 149 152 153 153 153 153 153 154 156 158 157 161 163 164 164 165 166 167 170 172 173 -193 -193 -193 -193 -193 186 186 187 192 194 194 197 198 199 201 0 0 0 0 0
    0 0 0 0 0 0 0 0 0 0 0 0 0 0 0 0 0 0 0 0 0 0 0 0 0 0 0 0 0 0 0 0 0 0 0 0 0 0 0 0 0 0 0 0 0 0 0 0 0 0 0 0 0 0 0 0 0 0 0 0 0 0 0 0 0 0 0 0 0 72 75 75 76 77 76 77 77 81 87 85 86 88 88 87 89 88 84 69 69 67 64 66 66 68 71 71 72 70 69 68 62 57 51 50 47 46 46 47 44 45 45 48 45 43 43 21 19 14 14 16 18 16 16 15 14 15 16 16 15 14 14 15 14 15 15 15 14 14 15 16 15 15 16 16 17 17 18 18 20 20 23 27 26 27 26 27 27 27 27 27 22 21 18 18 16 17 17 17 16 18 15 16 15 15 14 13 13 12 12 15 17 14 16 18 19 21 24 21 21 19 24 23 24 24 28 31 34 38 39 40 41 46 52 54 56 62 64 67 67 67 67 68 69 69 69 70 70 71 73 73 73 73 74 75 77 79 78 82 83 83 84 84 85 84 84 85 89 89 89 87 89 88 -193 -193 90 98 106 117 110 111 111 111 117 123 121 121 121 123 131 126 126 128 128 130 132 132 133 131 134 135 135 135 138 138 139 139 145 144 145 146 149 149 149 150 150 149 154 156 159 157 162 163 163 164 166 166 167 170 171 -193 -193 -209 -193 -209 -193 186 185 187 191 195 194 198 198 199 201 0 0 0 0 0
    0 0 0 0 0 0 0 0 0 0 0 0 0 0 0 0 0 0 0 0 0 0 0 0 0 0 0 0 0 0 0 0 0 0 0 0 0 0 0 0 0 0 0 0 0 0 0 0 0 0 0 0 0 0 0 0 0 0 0 0 0 0 0 0 0 0 0 0 0 74 76 77 77 78 77 77 78 83 88 86 87 90 90 90 91 92 89 71 77 -193 69 69 69 71 73 72 73 70 69 69 64 59 53 51 48 47 47 47 44 45 45 49 46 43 42 22 19 15 14 16 19 17 16 16 15 16 17 17 15 14 15 16 16 16 17 16 16 17 17 18 18 17 18 17 18 18 19 19 20 20 23 27 26 27 27 27 27 27 27 28 23 23 19 19 18 18 18 18 16 18 16 17 16 16 14 13 13 12 12 13 15 11 14 17 19 21 23 21 20 18 23 22 26 25 29 32 34 37 38 39 40 44 51 55 -193 64 65 67 67 67 67 68 69 69 69 70 70 71 73 73 73 73 73 75 77 81 80 86 86 86 87 86 88 86 87 87 89 90 90 88 89 88 -193 -193 91 100 108 116 110 111 111 111 116 122 120 120 121 123 131 126 126 127 128 130 132 132 133 131 135 135 135 135 138 137 139 138 143 144 143 144 146 146 148 148 149 -193 152 155 158 158 162 162 163 164 166 167 169 172 170 -193 -193 -193 -209 -209 183 185 -193 186 -193 -193 -193 -193 -209 -193 -193 0 0 0 0 0
    0 0 0 0 0 0 0 0 0 0 0 0 0 0 0 0 0 0 0 0 0 0 0 0 0 0 0 0 0 0 0 0 0 0 0 0 0 0 0 0 0 0 0 0 0 0 0 0 0 0 0 0 0 0 0 0 0 0 0 0 0 0 0 0 0 0 0 0 0 77 79 79 80 80 80 79 80 84 88 87 88 91 90 90 92 92 90 81 89 -193 71 -193 72 73 75 75 73 70 69 68 61 59 53 52 50 48 47 47 44 44 45 50 47 43 41 23 20 17 15 18 20 18 17 18 16 17 18 19 17 17 17 19 17 18 19 18 18 19 19 20 20 18 19 18 19 19 20 19 21 20 22 26 25 26 26 26 27 27 27 28 23 23 19 20 18 18 18 18 17 18 17 18 19 18 16 15 16 14 14 14 16 12 16 19 20 20 24 23 24 23 -225 -225 29 27 29 33 32 34 36 37 39 42 50 54 58 65 64 67 65 66 67 68 69 69 69 70 70 72 73 73 73 73 73 74 77 80 80 86 87 87 88 87 89 88 89 89 91 92 93 92 92 91 93 92 96 102 109 115 109 110 110 110 116 121 120 120 120 122 130 126 126 127 127 130 132 133 133 132 135 136 136 135 138 137 139 138 143 143 142 144 146 146 146 147 147 145 148 153 156 157 -209 -193 -193 165 167 167 169 171 167 168 169 172 -193 -193 180 183 -193 -193 -193 -193 -193 -209 -209 -209 -193 0 0 0 0 0
    0 0 0 0 0 0 0 0 0 0 0 0 0 0 0 0 0 0 0 0 0 0 0 0 0 0 0 0 0 0 0 0 0 0 0 0 0 0 0 0 0 0 0 0 0 0 0 0 0 0 0 0 0 0 0 0 0 0 0 0 0 0 0 0 0 0 0 0 0 82 82 82 82 82 82 81 80 84 87 86 87 91 90 90 91 92 90 89 91 92 85 86 84 78 79 80 77 71 70 70 64 62 55 53 50 49 47 47 44 45 45 50 47 43 41 -193 22 20 18 19 20 19 18 18 17 18 19 20 18 18 18 20 19 21 21 21 21 21 21 22 21 20 21 20 21 21 22 21 22 21 23 27 25 26 26 26 27 27 27 28 23 24 19 20 18 18 18 18 19 19 19 19 21 19 18 17 17 15 15 14 15 11 15 19 20 19 22 24 26 27 29 -225 35 30 30 34 33 35 36 38 39 42 50 55 58 64 63 66 64 66 67 67 68 69 68 70 70 72 72 72 72 73 73 74 76 78 79 87 87 86 87 87 89 88 89 90 91 94 97 96 95 94 96 96 101 104 110 114 110 111 111 111 117 121 120 120 121 122 129 126 126 127 127 130 133 133 133 132 135 136 137 -193 139 138 139 139 144 144 142 145 146 146 146 147 147 146 148 154 158 160 -209 -193 167 168 168 168 169 169 166 165 167 169 -193 -193 172 178 183 184 -193 -193 -209 -193 -193 -209 -193 0 0 0 0 0
    0 0 0 0 0 0 0 0 0 0 0 0 0 0 0 0 0 0 0 0 0 0 0 0 0 0 0 0 0 0 0 0 0 0 0 0 0 0 0 0 0 0 0 0 0 0 0 0 0 0 0 0 0 0 0 0 0 0 0 0 0 0 0 0 0 0 0 0 0 85 84 84 84 83 83 82 82 86 88 88 89 93 92 92 93 93 91 90 92 93 86 87 86 84 83 83 82 74 72 71 70 70 60 56 52 51 47 47 43 44 44 48 47 44 41 -193 22 21 20 20 20 20 19 19 18 19 19 20 19 20 19 21 20 22 23 23 23 23 23 23 23 22 23 22 23 23 24 23 23 23 24 27 25 26 26 26 27 27 27 28 24 24 20 20 18 18 18 19 20 20 21 21 22 20 20 19 19 17 17 15 16 12 16 20 21 21 22 24 26 28 31 37 -225 33 34 35 35 36 37 39 39 41 50 55 58 63 62 65 63 65 66 66 68 68 68 70 70 72 72 72 73 73 73 74 76 78 78 85 87 86 87 87 89 88 89 90 92 95 99 98 96 94 96 97 101 104 108 111 110 111 112 112 117 122 121 121 122 123 129 127 126 127 127 130 133 133 133 132 135 136 136 136 138 138 139 139 145 145 143 146 147 147 146 147 147 146 -193 153 157 159 -209 -193 167 167 167 167 -193 167 165 163 165 167 168 168 169 174 -209 -209 -193 -193 -193 -193 -209 -209 -209 0 0 0 0 0
    0 0 0 0 0 0 0 0 0 0 0 0 0 0 0 0 0 0 0 0 0 0 0 0 0 0 0 0 0 0 0 0 0 0 0 0 0 0 0 0 0 0 0 0 0 0 0 0 0 0 0 0 0 0 0 0 0 0 0 0 0 0 0 0 0 0 0 0 0 87 86 85 84 84 84 83 83 87 90 89 90 96 93 93 94 94 92 91 93 93 88 88 87 86 85 84 83 75 73 73 72 73 71 65 58 52 47 46 43 43 42 45 45 43 39 27 23 23 22 21 20 20 20 20 19 19 20 20 20 20 20 21 21 22 23 24 24 24 24 24 24 23 24 23 24 24 25 23 24 23 23 26 25 26 26 26 27 26 27 28 24 25 20 20 18 18 19 21 22 21 23 22 23 21 21 21 20 19 19 16 18 12 18 21 22 21 22 24 25 27 30 37 -225 35 36 37 37 38 38 39 40 41 49 55 57 62 62 65 63 64 66 66 67 68 68 70 70 72 72 72 73 74 74 75 76 78 79 84 86 86 88 88 90 89 90 91 92 96 99 100 98 98 99 99 103 104 107 109 109 111 112 112 118 123 122 122 122 124 129 127 126 127 127 130 132 133 133 132 135 136 136 136 138 138 139 139 146 146 144 146 147 147 145 146 146 -193 -193 153 155 -193 -209 -209 -209 165 -193 167 167 167 164 163 165 167 168 167 -193 -193 -193 -209 -193 -193 -209 -193 -209 -209 -209 0 0 0 0 0
    0 0 0 0 0 0 0 0 0 0 0 0 0 0 0 0 0 0 0 0 0 0 0 0 0 0 0 0 0 0 0 0 0 0 0 0 0 0 0 0 0 0 0 0 0 0 0 0 0 0 0 0 0 0 0 0 0 0 0 0 0 0 0 0 0 0 0 0 0 89 86 85 84 85 85 84 85 88 91 91 92 98 94 94 94 95 93 92 94 94 89 89 87 87 85 84 83 75 75 74 72 72 71 70 64 57 49 47 42 42 42 43 44 43 38 27 24 24 23 22 21 21 22 21 20 21 20 21 20 21 20 21 21 22 24 24 24 24 25 24 24 24 25 24 24 24 24 23 23 22 22 24 24 25 25 26 26 26 27 28 24 25 20 21 19 18 20 21 22 22 23 23 23 22 21 21 21 20 19 16 18 12 18 21 22 21 22 24 25 26 30 37 -225 35 37 37 38 38 39 40 41 40 48 54 57 62 61 64 63 64 67 66 67 68 68 71 70 72 72 73 73 74 74 75 76 78 79 82 85 85 87 88 90 89 91 91 93 96 99 100 100 100 101 101 103 105 108 108 109 112 113 113 118 124 122 122 123 124 129 127 126 127 127 129 132 133 133 132 135 136 136 135 138 138 139 139 145 145 143 145 146 145 144 144 145 145 143 151 -209 -209 -209 -193 -209 -193 -193 -193 -193 166 163 162 164 165 -193 -193 -209 -193 -193 -193 192 193 -193 -193 -209 -209 -193 0 0 0 0 0
    0 0 0 0 0 0 0 0 0 0 0 0 0 0 0 0 0 0 0 0 0 0 0 0 0 0 0 0 0 0 0 0 0 0 0 0 0 0 0 0 0 0 0 0 0 0 0 0 0 0 0 0 0 0 0 0 0 0 0 0 0 0 0 0 0 0 0 0 0 90 86 86 86 86 85 85 87 88 91 91 93 99 94 94 94 95 93 93 95 94 89 89 88 88 86 85 83 76 76 74 72 71 71 70 66 62 52 48 43 42 42 43 44 43 40 29 25 24 24 23 22 22 23 22 21 21 20 21 21 21 20 21 21 22 24 24 24 24 25 25 24 24 25 24 25 24 25 23 23 22 22 24 23 24 24 25 26 25 27 27 24 25 20 21 19 18 20 22 23 23 24 23 24 22 22 21 21 21 20 17 18 12 18 21 23 22 22 24 25 26 30 36 -225 36 37 37 38 38 40 40 42 41 49 55 57 63 61 63 62 64 67 66 67 67 68 71 71 72 72 72 73 74 75 75 75 79 79 82 85 85 87 88 89 90 91 91 92 95 98 100 100 100 102 102 104 106 108 109 110 113 114 115 119 124 122 122 123 124 128 127 126 127 126 129 132 133 133 132 135 136 136 135 138 138 138 139 144 144 142 144 146 145 143 144 144 144 142 150 -209 -209 -193 -193 -209 165 -209 -209 -193 168 165 164 166 166 -193 -209 -209 -193 79 -209 -193 194 194 -193 -209 -193 65 0 0 0 0 0
    0 0 0 0 0 0 0 0 0 0 0 0 0 0 0 0 0 0 0 0 0 0 0 0 0 0 0 0 0 0 0 0 0 0 0 0 0 0 0 0 0 0 0 0 0 0 0 0 0 0 0 0 0 0 0 0 0 0 0 0 0 0 0 0 0 0 0 0 0 91 87 87 88 88 88 88 90 92 92 92 93 98 94 94 93 94 93 93 95 93 88 88 87 87 85 84 81 75 75 73 71 70 70 69 65 63 56 50 43 42 42 42 44 43 40 29 25 25 24 23 22 22 23 22 21 21 21 21 21 22 21 21 22 23 24 24 24 24 25 25 25 25 26 25 26 25 25 24 24 23 23 24 23 24 24 24 25 25 26 26 23 24 20 22 20 19 21 23 24 23 26 24 24 22 22 22 22 21 20 17 18 12 18 22 23 23 23 25 25 26 30 36 -225 37 38 39 39 39 42 43 45 44 51 56 56 62 61 62 62 64 67 66 66 67 68 71 71 72 72 72 73 74 75 75 76 79 79 83 86 86 88 89 90 90 91 92 92 95 97 99 99 100 101 102 105 107 109 109 112 115 116 118 120 124 123 123 123 124 128 127 126 126 126 128 131 133 133 131 135 136 136 136 139 139 138 140 147 147 145 147 148 146 143 144 145 145 142 150 -209 -209 -209 -193 -193 163 -209 -209 -193 169 165 165 167 166 -209 -209 -209 -193 -193 -209 -193 -193 195 -193 -209 68 67 0 0 0 0 0
    0 0 0 0 0 0 0 0 0 0 0 0 0 0 0 0 0 0 0 0 0 0 0 0 0 0 0 0 0 0 0 0 0 0 0 0 0 0 0 0 0 0 0 0 0 0 0 0 0 0 0 0 0 0 0 0 0 0 0 0 0 0 0 0 0 0 0 0 0 93 88 89 90 91 91 91 93 95 93 93 93 97 94 94 93 93 92 92 94 92 87 87 86 86 83 82 79 74 74 73 70 69 69 70 66 63 58 52 43 42 42 42 42 41 38 28 25 25 24 23 22 22 23 22 21 21 21 22 21 22 21 21 22 23 24 25 25 25 25 25 25 25 27 26 27 26 26 25 24 23 23 23 23 23 23 24 25 24 25 25 23 23 19 21 20 18 19 23 25 23 27 25 25 23 22 22 22 21 21 17 18 11 18 22 24 23 24 26 26 28 31 36 -225 -225 40 40 41 41 44 45 47 47 51 55 56 61 60 61 61 63 66 66 66 67 68 71 71 72 72 72 73 75 75 75 76 78 79 81 85 86 87 88 90 90 91 92 93 96 98 100 101 101 103 104 106 108 110 111 114 117 118 120 120 125 124 123 123 124 127 127 126 126 125 127 130 133 132 131 134 136 136 136 139 139 -193 141 148 148 147 148 149 147 144 145 145 145 142 149 -209 -209 -209 -193 165 165 169 -209 -209 172 167 167 169 -193 -209 -209 -209 -209 -193 -193 194 194 195 195 -193 -193 68 0 0 0 0 0
    0 0 0 0 0 0 0 0 0 0 0 0 0 0 0 0 0 0 0 0 0 0 0 0 0 0 0 0 0 0 0 0 0 0 0 0 0 0 0 0 0 0 0 0 0 0 0 0 0 0 0 0 0 0 0 0 0 0 0 0 0 0 0 0 0 0 0 0 0 94 89 90 91 92 93 93 95 97 93 93 94 97 94 93 92 92 91 92 93 91 86 87 86 84 82 81 77 74 73 72 69 69 69 70 66 63 59 55 42 42 41 41 41 39 37 27 25 25 24 23 22 21 23 22 21 21 21 22 21 22 21 21 22 23 24 25 25 25 25 25 25 25 28 26 27 26 26 26 24 24 23 23 22 22 23 23 24 23 24 23 22 21 18 20 18 17 18 22 26 24 28 26 25 23 23 23 23 22 21 18 19 13 19 23 24 24 25 27 28 30 36 39 -225 -225 42 42 43 43 46 47 48 49 52 55 56 61 60 61 61 63 66 66 66 67 68 71 72 72 72 72 74 75 76 76 76 79 80 81 84 86 87 88 90 90 91 92 93 96 98 100 101 102 103 105 107 109 110 111 115 118 119 120 121 125 124 124 124 124 126 128 126 126 126 127 130 133 131 130 132 135 135 135 138 139 -209 140 147 148 146 147 148 147 144 145 145 145 -193 -193 -209 -209 -209 -193 167 169 173 179 173 175 171 169 171 -209 -209 -209 -209 -209 -209 -193 192 194 194 -193 -193 -193 -193 0 0 0 0 0
    0 0 0 0 0 0 0 0 0 0 0 0 0 0 0 0 0 0 0 0 0 0 0 0 0 0 0 0 0 0 0 0 0 0 0 0 0 0 0 0 0 0 0 0 0 0 0 0 0 0 0 0 0 0 0 0 0 0 0 0 0 0 0 0 0 0 0 0 0 97 94 94 96 101 101 99 101 101 97 96 96 99 95 94 93 92 90 92 92 89 85 86 84 83 81 78 75 73 72 72 69 69 69 69 66 63 59 57 43 42 41 40 40 39 37 27 25 25 24 22 21 21 24 22 22 22 21 21 21 22 21 21 22 22 24 25 -193 25 25 26 25 25 28 27 27 27 27 26 25 25 24 23 23 23 24 25 24 23 23 22 22 21 16 19 17 17 18 23 27 24 29 26 25 22 22 22 22 22 22 18 19 13 20 23 26 25 23 25 28 34 39 44 -225 47 45 46 46 46 48 50 49 51 52 56 57 62 61 61 61 63 66 66 66 66 67 71 72 72 72 73 74 75 76 76 77 80 81 82 85 86 87 88 89 89 90 91 91 94 96 98 101 101 103 105 107 109 110 111 116 119 120 121 121 125 125 124 124 125 126 128 127 127 126 127 129 133 131 129 131 134 134 134 137 137 -209 139 146 147 146 147 148 147 144 145 145 145 143 -193 -209 -209 -209 -193 159 165 169 176 -209 176 174 171 173 -209 -209 -209 -177 -209 -209 -193 191 193 193 192 -193 -193 -193 0 0 0 0 0
    0 0 0 0 0 0 0 0 0 0 0 0 0 0 0 0 0 0 0 0 0 0 0 0 0 0 0 0 0 0 0 0 0 0 0 0 0 0 0 0 0 0 0 0 0 0 0 0 0 0 0 0 0 0 0 0 0 0 0 0 0 0 0 0 0 0 0 0 0 99 100 101 102 104 104 103 103 102 100 99 99 99 96 95 94 92 91 91 91 87 84 85 83 82 80 78 75 73 72 72 69 68 68 69 65 63 60 58 43 43 42 40 40 39 38 29 28 28 26 23 23 22 26 23 23 24 22 -193 22 23 23 22 23 23 24 26 26 26 26 26 26 26 28 27 27 26 26 25 23 24 -193 22 23 22 25 30 -193 24 23 22 23 20 14 18 16 16 19 -193 -209 24 29 26 25 23 23 23 23 23 23 19 19 12 18 23 27 25 23 24 28 36 40 48 49 51 48 48 48 48 49 51 49 51 51 55 56 63 61 61 62 64 65 66 66 66 67 70 71 72 72 73 74 76 76 77 77 81 81 82 85 86 87 88 89 89 90 90 91 93 95 96 100 101 102 105 107 108 109 110 115 119 120 121 121 124 125 124 124 125 126 128 127 127 126 126 129 132 130 128 130 133 133 133 135 136 133 138 142 145 144 147 147 146 143 145 145 145 143 149 151 -193 -209 -209 -193 158 165 -209 -209 178 179 173 177 -209 -209 -209 -193 -209 -193 -193 -193 194 194 -193 195 -193 -209 0 0 0 0 0
    0 0 0 0 0 0 0 0 0 0 0 0 0 0 0 0 0 0 0 0 0 0 0 0 0 0 0 0 0 0 0 0 0 0 0 0 0 0 0 0 0 0 0 0 0 0 0 0 0 0 0 0 0 0 0 0 0 0 0 0 0 0 0 0 0 0 0 0 0 102 101 101 102 104 103 102 103 102 101 99 99 99 95 94 93 91 90 89 90 86 84 85 83 82 80 77 74 72 72 71 68 67 67 68 63 62 59 58 45 44 43 41 40 40 39 34 33 33 29 26 25 24 29 27 24 27 23 -193 -193 24 25 24 27 -209 25 30 31 28 29 28 27 27 29 28 27 24 24 22 20 21 19 19 20 16 23 28 -193 -193 24 23 -225 -225 -225 -225 17 15 19 -193 -193 22 28 27 25 24 23 23 23 24 24 20 21 -225 14 22 26 -225 -225 -225 -225 -225 41 51 50 53 49 49 49 48 48 50 48 51 49 54 56 61 60 61 62 64 65 66 66 66 67 70 71 71 72 73 74 75 76 76 78 81 82 83 85 86 87 89 90 90 90 91 92 93 96 97 101 101 103 105 107 108 109 110 114 118 119 121 121 123 126 124 124 124 126 128 126 126 126 125 128 131 129 128 129 132 133 133 135 136 134 138 139 142 143 145 145 143 142 144 145 145 143 148 150 149 151 -209 -209 -209 -209 -209 -209 179 -193 177 180 -209 -209 -193 -193 -209 -209 -209 192 194 194 194 194 194 -193 0 0 0 0 0
    0 0 0 0 0 0 0 0 0 0 0 0 0 0 0 0 0 0 0 0 0 0 0 0 0 0 0 0 0 0 0 0 0 0 0 0 0 0 0 0 0 0 0 0 0 0 0 0 0 0 0 0 0 0 0 0 0 0 0 0 0 0 0 0 0 0 0 0 0 109 107 105 104 106 104 103 103 102 101 100 99 98 95 94 92 90 90 89 89 86 84 85 83 82 80 77 74 72 72 71 68 67 66 67 63 61 60 59 47 45 45 42 41 41 41 39 38 37 35 29 29 33 39 41 34 40 -209 -209 -209 -209 36 42 44 46 43 41 41 37 38 38 28 27 30 30 28 24 23 20 18 18 16 16 -225 -225 -225 -225 -225 -225 -225 -225 -225 -225 -225 -225 -225 -225 -225 -225 -225 -225 -225 -225 -225 -225 -225 -225 -225 -225 -225 -225 -225 -225 -225 -225 -225 -225 -225 -225 -225 -225 -225 53 52 54 51 51 51 51 50 52 51 52 51 55 56 60 60 61 62 64 65 66 66 66 67 70 71 71 72 73 74 75 76 76 78 81 83 84 85 86 87 88 89 90 90 91 92 93 96 97 100 101 103 105 107 108 109 110 114 117 118 120 120 121 126 124 124 124 125 128 126 126 127 125 128 131 129 128 127 132 133 133 135 136 133 138 139 142 144 145 145 143 142 144 146 146 144 148 150 150 152 153 153 -209 -209 -193 -209 174 -209 -193 178 -193 -209 -209 -193 -209 -209 -209 188 192 193 192 191 190 191 0 0 0 0 0
    0 0 0 0 0 0 0 0 0 0 0 0 0 0 0 0 0 0 0 0 0 0 0 0 0 0 0 0 0 0 0 0 0 0 0 0 0 0 0 0 0 0 0 0 0 0 0 0 0 0 0 0 0 0 0 0 0 0 0 0 0 0 0 0 0 0 0 0 0 118 116 109 107 108 105 103 104 103 102 101 99 97 94 93 91 90 89 88 89 87 85 84 83 82 80 78 74 73 71 71 68 66 66 67 62 61 59 59 49 47 47 43 42 42 42 41 41 41 40 -193 -193 50 52 53 53 53 55 56 58 53 52 55 52 50 48 46 45 42 41 -193 30 28 31 34 32 33 41 -225 -225 -225 -225 -225 -225 -225 -225 -225 -225 -225 -225 -225 -225 -225 -225 -225 -225 -225 -225 -225 -225 -225 -225 -225 -225 -225 -225 -225 -225 -225 -225 -225 -225 -225 -225 -225 -225 -225 -225 -225 -225 -225 -225 53 52 54 51 52 51 52 51 54 52 53 51 55 56 60 59 60 61 63 64 65 65 66 66 69 71 70 71 72 73 74 75 76 78 81 83 84 85 86 87 88 89 89 91 91 91 93 96 96 101 101 103 105 106 107 108 109 113 117 118 120 119 121 126 124 124 124 125 129 127 127 127 124 127 131 129 129 126 132 133 133 135 137 134 138 140 143 144 145 146 145 144 145 146 147 144 148 149 149 152 151 153 153 -209 -193 -209 -193 -209 -209 -209 -209 -209 -193 113 -209 117 -209 -209 -193 -193 -193 189 187 187 0 0 0 0 0
    0 0 0 0 0 0 0 0 0 0 0 0 0 0 0 0 0 0 0 0 0 0 0 0 0 0 0 0 0 0 0 0 0 0 0 0 0 0 0 0 0 0 0 0 0 0 0 0 0 0 0 0 0 0 0 0 0 0 0 0 0 0 0 0 0 0 0 0 0 121 121 109 107 108 105 104 104 103 103 101 100 97 93 93 91 90 89 89 88 88 86 85 82 81 79 76 73 73 70 71 68 66 65 66 62 61 60 59 51 49 49 44 42 42 43 42 41 40 38 -193 42 50 50 51 51 52 54 55 57 53 56 57 54 52 51 49 48 43 42 -193 30 28 31 34 32 33 -225 -225 -225 -225 -225 -225 -225 -225 -225 -225 -225 -225 -225 -225 -225 -225 -225 -225 -225 -225 -225 -225 -225 -225 -225 -225 -225 -225 -225 -225 -225 -225 -225 -225 -225 -225 -225 -225 -225 -225 -225 -225 -225 -225 -225 53 52 54 52 52 52 52 51 54 52 53 51 54 56 58 58 59 60 63 63 65 65 65 66 69 71 70 72 72 73 74 75 76 77 79 82 83 84 86 87 88 90 90 91 91 92 93 96 95 101 101 103 105 106 107 108 109 113 116 118 120 119 120 127 124 124 124 125 129 127 127 127 125 127 130 129 129 126 132 133 132 134 136 134 138 140 144 145 146 146 145 145 146 146 147 145 148 148 149 150 150 150 153 150 148 -209 -209 -209 -209 -209 -209 -209 -193 114 -193 117 -209 -209 -209 -193 -193 187 -193 -193 0 0 0 0 0
    0 0 0 0 0 0 0 0 0 0 0 0 0 0 0 0 0 0 0 0 0 0 0 0 0 0 0 0 0 0 0 0 0 0 0 0 0 0 0 0 0 0 0 0 0 0 0 0 0 0 0 0 0 0 0 0 0 0 0 0 0 0 0 0 0 0 0 0 0 124 127 108 106 108 105 105 104 104 104 103 102 99 94 94 92 91 90 89 89 88 86 85 83 82 82 77 74 73 72 73 69 66 64 66 63 61 60 59 53 50 51 45 42 43 43 42 41 40 38 34 43 49 49 49 49 52 53 55 56 55 58 58 56 54 54 52 52 45 42 -193 30 28 31 34 33 33 -225 -225 -225 -225 -225 -225 -225 -225 -225 -225 -225 -225 -225 -225 -225 -225 -225 -225 -225 -225 -225 -225 -225 -225 -225 -225 -225 -225 -225 -225 -225 -225 -225 -225 -225 -225 -225 -225 -225 -225 -225 -225 -225 -225 -225 53 53 54 52 52 52 52 51 54 52 53 52 54 56 58 57 58 59 62 62 63 64 64 64 68 70 70 72 73 73 74 74 76 77 78 80 81 82 85 87 88 89 90 91 91 92 93 96 96 101 101 104 105 106 107 108 108 111 115 117 118 118 120 127 124 124 124 125 129 127 127 128 125 128 130 129 129 126 132 132 132 133 136 134 137 138 141 143 144 144 144 144 146 147 147 146 147 147 147 148 148 147 148 147 143 145 148 -209 -209 -209 -209 -209 -209 -209 -209 119 -209 -209 -209 -209 -193 -193 -209 -209 0 0 0 0 0
    0 0 0 0 0 0 0 0 0 0 0 0 0 0 0 0 0 0 0 0 0 0 0 0 0 0 0 0 0 0 0 0 0 0 0 0 0 0 0 0 0 0 0 0 0 0 0 0 0 0 0 0 0 0 0 0 0 0 0 0 0 0 0 0 0 0 0 0 0 119 -193 107 106 108 107 105 105 105 104 104 103 100 96 95 93 91 91 89 88 87 86 84 83 82 82 77 73 73 72 73 69 65 63 65 62 61 60 59 55 52 52 48 43 44 44 44 41 40 39 37 44 50 50 50 49 51 53 55 56 55 58 58 56 55 54 54 54 47 44 42 31 29 31 35 34 35 -225 -225 -225 -225 -225 -225 -225 -225 -225 -225 -225 -225 -225 -225 -225 -225 -225 -225 -225 -225 -225 -225 -225 -225 -225 -225 -225 -225 -225 -225 -225 -225 -225 -225 -225 -225 -225 -225 -225 -225 -225 -225 -225 -225 -225 53 53 54 52 52 52 53 52 54 52 53 53 55 56 57 57 57 58 60 61 61 62 62 63 68 70 70 72 73 73 74 74 75 76 77 78 80 81 85 86 88 89 89 90 90 91 92 95 95 100 101 103 104 105 106 106 106 108 112 116 117 117 119 126 124 124 124 125 129 127 127 128 125 128 130 129 129 126 131 132 132 131 135 134 136 137 138 140 140 141 141 142 145 146 147 146 147 147 147 147 148 146 148 148 143 145 151 151 150 -209 148 -193 147 -209 -209 -209 -193 -193 -209 -193 -209 -209 -209 -209 0 0 0 0 0
    0 0 0 0 0 0 0 0 0 0 0 0 0 0 0 0 0 0 0 0 0 0 0 0 0 0 0 0 0 0 0 0 0 0 0 0 0 0 0 0 0 0 0 0 0 0 0 0 0 0 0 0 0 0 0 0 0 0 0 0 0 0 0 0 0 0 0 0 0 116 110 106 106 107 107 106 106 105 105 104 103 100 96 95 93 92 92 89 87 87 85 82 80 80 80 75 73 73 71 74 70 64 62 64 62 61 60 59 56 53 53 51 45 46 47 47 41 41 39 38 45 50 50 50 50 52 53 55 58 57 59 59 57 56 56 55 55 52 51 46 -209 -209 34 37 -225 -225 -225 -225 -225 -225 -225 -225 -225 -225 -225 -225 -225 -225 -225 -225 -225 -225 -225 -225 -225 -225 -225 -225 -225 -225 -225 -225 -225 -225 -225 -225 -225 -225 -225 -225 -225 -225 -225 -225 -225 -225 -225 -225 -225 -225 -225 53 52 54 53 53 53 54 53 56 55 56 57 58 58 59 59 59 59 61 61 61 61 61 63 66 68 69 71 73 73 73 74 74 75 75 76 77 79 82 84 86 87 88 90 90 92 92 94 95 99 99 101 102 103 104 105 105 106 109 114 116 117 119 127 124 124 124 125 129 127 127 127 125 128 130 130 130 126 132 132 132 131 135 134 135 136 137 139 139 140 141 141 144 145 146 145 145 144 145 145 147 146 147 150 151 150 153 154 154 156 155 157 155 160 -193 -209 -193 -193 -193 -209 -209 -209 -209 -209 0 0 0 0 0
    0 0 0 0 0 0 0 0 0 0 0 0 0 0 0 0 0 0 0 0 0 0 0 0 0 0 0 0 0 0 0 0 0 0 0 0 0 0 0 0 0 0 0 0 0 0 0 0 0 0 0 0 0 0 0 0 0 0 0 0 0 0 0 0 0 0 0 0 0 115 111 107 107 108 107 106 106 105 105 104 103 100 95 96 93 92 92 89 88 87 86 81 79 78 78 74 73 73 73 77 72 66 63 65 63 62 61 59 57 53 54 52 46 47 50 49 42 -193 -193 -193 52 52 53 52 52 54 54 56 59 58 59 60 58 57 57 57 56 53 53 49 -225 -225 -225 -225 -225 -225 -225 -225 -225 -225 -225 -225 -225 -225 -225 -225 -225 -225 -225 -225 -225 -225 -225 -225 -225 -225 -225 -225 -225 -225 -225 -225 -225 -225 -225 -225 -225 -225 -225 -225 -225 -225 -225 -225 -225 -225 -225 -225 -225 -225 -225 52 53 54 53 53 53 54 54 57 57 57 58 59 60 61 60 61 61 62 62 62 62 62 62 66 66 70 72 74 73 73 74 75 75 75 76 77 79 81 82 85 87 88 90 91 92 92 94 95 99 99 101 102 103 104 104 104 105 108 -193 115 116 119 126 123 123 124 124 128 126 126 127 125 128 130 130 130 126 132 133 133 132 135 135 136 136 139 142 144 143 143 143 144 145 145 145 145 144 143 145 146 146 148 151 152 151 153 153 154 156 156 160 159 167 171 172 173 176 176 178 178 -209 -209 -209 0 0 0 0 0
    0 0 0 0 0 0 0 0 0 0 0 0 0 0 0 0 0 0 0 0 0 0 0 0 0 0 0 0 0 0 0 0 0 0 0 0 0 0 0 0 0 0 0 0 0 0 0 0 0 0 0 0 0 0 0 0 0 0 0 0 0 0 0 0 0 0 0 0 0 114 111 107 108 109 107 107 106 106 106 104 103 100 95 96 94 93 92 88 87 88 86 82 78 77 78 75 74 74 74 79 76 67 65 67 64 63 62 59 58 54 55 54 48 49 52 52 48 58 60 -193 59 55 56 54 55 56 56 58 60 60 61 61 61 59 59 58 57 57 54 -225 -225 -225 -225 -225 -225 -225 -225 -225 -225 -225 -225 -225 -225 -225 -225 -225 -225 -225 -225 -225 -225 -225 -225 -225 -225 -225 -225 -225 -225 -225 -225 -225 -225 -225 -225 -225 -225 -225 -225 -225 -225 -225 -225 -225 -225 -225 -225 -225 -225 -225 -225 -225 53 53 52 53 54 55 56 58 58 58 59 60 61 63 61 63 63 64 65 64 63 64 62 67 66 71 72 73 73 73 74 74 75 76 76 77 79 81 83 85 87 88 90 91 92 92 93 94 98 98 100 102 102 103 104 104 104 107 -209 113 114 119 126 123 123 123 124 127 126 126 126 125 128 130 130 130 126 133 133 134 132 136 137 136 138 -193 145 147 146 145 145 146 146 146 146 146 146 146 148 149 151 152 154 155 153 154 155 157 161 161 163 164 168 171 172 173 176 176 178 178 181 -193 -193 0 0 0 0 0
    0 0 0 0 0 0 0 0 0 0 0 0 0 0 0 0 0 0 0 0 0 0 0 0 0 0 0 0 0 0 0 0 0 0 0 0 0 0 0 0 0 0 0 0 0 0 0 0 0 0 0 0 0 0 0 0 0 0 0 0 0 0 0 0 0 0 0 0 0 113 111 108 108 110 108 107 107 107 107 105 103 99 95 97 95 93 93 89 89 89 88 84 78 77 78 77 75 75 76 80 78 70 68 68 67 66 64 59 59 56 56 57 53 53 55 56 57 61 62 61 61 58 57 54 55 57 58 59 61 61 62 62 62 61 60 59 58 58 -225 -225 -225 -225 -225 -225 -225 -225 -225 -225 -225 -225 -225 -225 -225 -225 -225 -225 -225 -225 -225 -225 -225 -225 -225 -225 -225 -225 -225 -225 -225 -225 -225 -225 -225 -225 -225 -225 -225 -225 -225 -225 -225 -225 -225 -225 -225 -225 -225 -225 -225 -225 -225 -225 -225 -225 53 54 55 58 59 60 60 60 61 63 63 66 63 65 65 65 66 66 64 65 61 67 64 71 73 73 73 72 74 74 76 76 76 77 79 81 83 84 86 87 90 90 91 91 91 92 96 97 99 100 101 103 103 103 103 -209 -209 112 113 119 126 122 122 123 123 127 126 126 126 125 128 130 130 130 126 132 133 133 132 136 137 136 138 141 145 147 147 146 146 146 146 146 146 147 147 146 150 152 154 156 159 159 156 157 159 160 164 163 164 164 167 170 171 172 175 176 179 180 182 -193 -193 0 0 0 0 0
    0 0 0 0 0 0 0 0 0 0 0 0 0 0 0 0 0 0 0 0 0 0 0 0 0 0 0 0 0 0 0 0 0 0 0 0 0 0 0 0 0 0 0 0 0 0 0 0 0 0 0 0 0 0 0 0 0 0 0 0 0 0 0 0 0 0 0 0 0 114 113 108 109 110 109 108 108 108 108 105 104 100 96 97 95 93 93 90 90 0 -256 -1 880 78 81 78 76 76 76 79 76 71 68 69 68 67 65 60 60 57 58 60 57 56 59 61 61 64 64 64 62 60 59 54 54 59 60 61 63 63 63 64 63 63 62 61 60 59 -225 -225 -225 -225 -225 -225 -225 -225 -225 -225 -225 -225 -225 -225 -225 -225 -225 -225 -225 -225 -225 -225 -225 -225 -225 -225 -225 -225 -225 -225 -225 -225 -225 -225 -225 -225 -225 -225 -225 -225 -225 -225 -225 -225 -225 -225 -225 -225 -225 -225 -225 -225 -225 -225 -225 -225 -225 54 55 59 62 61 62 61 63 65 66 68 66 67 67 67 68 67 66 66 62 66 63 71 72 72 72 72 74 74 76 76 76 77 80 81 83 84 86 86 89 89 90 90 90 91 95 95 98 99 101 102 102 103 103 -209 -209 112 114 119 125 122 122 122 123 126 125 125 125 124 128 129 130 130 126 132 132 132 131 134 135 136 137 141 144 147 147 147 146 146 145 145 146 147 147 147 150 153 154 158 163 163 160 160 163 163 165 164 164 164 166 169 171 173 175 176 179 181 182 184 184 0 0 0 0 0
    0 0 0 0 0 0 0 0 0 0 0 0 0 0 0 0 0 0 0 0 0 0 0 0 0 0 0 0 0 0 0 0 0 0 0 0 0 0 0 0 0 0 0 0 0 0 0 0 0 0 0 0 0 0 0 0 0 0 0 0 0 0 0 0 0 0 0 0 0 113 112 109 109 110 109 109 108 109 108 105 103 101 98 99 97 95 94 91 91 90 90 89 85 81 82 79 77 78 76 78 76 71 70 70 69 69 67 62 63 60 65 69 66 63 67 69 65 65 65 64 62 61 61 57 57 62 64 63 66 66 65 65 64 64 62 61 60 -225 -225 -225 -225 -225 -225 -225 -225 -225 -225 -225 -225 -225 -225 -225 -225 -225 -225 -225 -225 -225 -225 -225 -225 -225 -225 -225 -225 -225 -225 -225 -225 -225 -225 -225 -225 -225 -225 -225 -225 -225 -225 -225 -225 -225 -225 -225 -225 -225 -225 -225 -225 -225 -225 -225 -225 -225 -225 -225 56 61 63 62 63 63 66 68 69 70 69 69 69 69 69 69 67 67 63 67 63 70 72 71 72 72 73 74 77 76 76 77 80 82 83 84 85 85 88 89 90 90 90 91 95 96 98 100 101 102 102 103 102 -209 -209 -209 115 120 126 122 122 122 123 126 125 125 125 124 128 129 130 130 126 132 133 132 131 134 135 136 137 140 143 145 145 145 145 146 145 146 146 147 148 149 152 154 156 161 164 164 161 161 163 164 165 164 163 163 164 167 170 172 174 175 177 180 182 182 184 0 0 0 0 0
    0 0 0 0 0 0 0 0 0 0 0 0 0 0 0 0 0 0 0 0 0 0 0 0 0 0 0 0 0 0 0 0 0 0 0 0 0 0 0 0 0 0 0 0 0 0 0 0 0 0 0 0 0 0 0 0 0 0 0 0 0 0 0 0 0 0 0 0 0 112 111 110 110 110 109 109 109 110 108 105 102 101 99 100 98 95 94 91 91 91 91 90 88 82 83 80 79 79 76 78 75 72 71 70 69 69 68 65 65 63 70 71 70 69 70 70 67 66 66 65 64 62 63 60 61 65 66 66 67 67 65 65 65 64 62 61 -225 -225 -225 -225 -225 -225 -225 -225 -225 -225 -225 -225 -225 -225 -225 -225 -225 -225 -225 -225 -225 -225 -225 -225 -225 -225 -225 -225 -225 -225 -225 -225 -225 -225 -225 -225 -225 -225 -225 -225 -225 -225 -225 -225 -225 -225 -225 -225 -225 -225 -225 -225 -225 -225 -225 -225 -225 -225 -225 -225 -225 -225 68 65 67 68 69 70 71 72 71 71 71 70 70 70 69 67 64 66 61 68 70 69 70 71 74 74 78 77 77 79 82 83 84 84 85 86 88 89 90 90 90 92 96 96 100 101 102 102 102 103 103 -209 -209 -209 116 120 126 123 122 122 123 126 125 125 125 124 127 129 130 130 125 132 133 133 132 134 136 136 136 139 141 142 143 144 145 146 147 148 148 149 150 151 154 156 156 162 163 163 161 160 163 163 164 163 163 164 165 168 170 172 173 173 176 179 181 182 184 0 0 0 0 0
    0 0 0 0 0 0 0 0 0 0 0 0 0 0 0 0 0 0 0 0 0 0 0 0 0 0 0 0 0 0 0 0 0 0 0 0 0 0 0 0 0 0 0 0 0 0 0 0 0 0 0 0 0 0 0 0 0 0 0 0 0 0 0 0 0 0 0 0 0 112 112 111 111 111 110 111 110 111 108 104 101 99 98 98 95 94 93 91 90 91 91 91 89 85 84 83 80 80 76 77 75 72 72 72 70 70 68 67 67 65 71 71 70 70 70 70 68 68 67 66 66 65 66 64 65 67 68 67 68 67 66 65 64 64 62 -225 -225 -225 -225 -225 -225 -225 -225 -225 -225 -225 -225 -225 -225 -225 -225 -225 -225 -225 -225 -225 -225 -225 -225 -225 -225 -225 -225 -225 -225 -225 -225 -225 -225 -225 -225 -225 -225 -225 -225 -225 -225 -225 -225 -225 -225 -225 -225 -225 -225 -225 -225 -225 -225 -225 -225 -225 -225 -225 -225 -225 -225 -225 -225 67 69 69 69 71 72 72 72 72 72 71 71 71 70 70 68 70 66 71 72 71 72 71 74 74 77 77 78 80 83 83 84 84 86 86 89 89 90 90 90 92 96 96 99 100 101 101 101 102 102 -209 -209 -209 117 121 127 123 122 123 123 126 124 124 124 123 127 129 129 129 125 132 133 133 132 133 136 135 136 138 141 142 143 143 146 147 148 149 149 151 152 -193 156 159 159 165 165 165 163 162 164 165 166 165 165 166 167 169 170 172 173 173 175 179 -209 -209 185 0 0 0 0 0
    0 0 0 0 0 0 0 0 0 0 0 0 0 0 0 0 0 0 0 0 0 0 0 0 0 0 0 0 0 0 0 0 0 0 0 0 0 0 0 0 0 0 0 0 0 0 0 0 0 0 0 0 0 0 0 0 0 0 0 0 0 0 0 0 0 0 0 0 0 112 113 114 112 111 111 114 113 115 111 106 101 98 97 97 95 93 93 91 91 92 92 92 90 87 86 85 82 80 76 76 75 74 73 72 71 70 68 68 67 66 71 71 70 70 70 70 69 69 68 67 67 66 69 67 68 68 68 68 68 67 67 66 65 65 63 -225 -225 -225 -225 -225 -225 -225 -225 -225 -225 -225 -225 -225 -225 -225 -225 -225 -225 -225 -225 -225 -225 -225 -225 -225 -225 -225 -225 -225 -225 -225 -225 -225 -225 -225 -225 -225 -225 -225 -225 -225 -225 -225 -225 -225 -225 -225 -225 -225 -225 -225 -225 -225 -225 -225 -225 -225 -225 -225 -225 -225 -225 -225 -225 68 70 70 70 71 73 73 72 72 72 72 72 72 72 71 70 72 72 74 74 74 75 73 75 75 78 78 78 81 83 84 84 84 86 86 88 89 90 90 91 92 96 95 98 99 100 100 101 102 102 -209 -209 -209 119 122 128 123 123 123 123 125 124 124 124 123 126 128 129 129 124 131 133 132 132 132 135 136 137 139 142 143 144 145 147 148 149 150 151 152 153 -193 157 158 158 163 163 164 163 163 164 165 167 166 166 168 169 170 170 173 174 175 178 181 -209 -209 -193 0 0 0 0 0
    0 0 0 0 0 0 0 0 0 0 0 0 0 0 0 0 0 0 0 0 0 0 0 0 0 0 0 0 0 0 0 0 0 0 0 0 0 0 0 0 0 0 0 0 0 0 0 0 0 0 0 0 0 0 0 0 0 0 0 0 0 0 0 0 0 0 0 0 0 115 118 117 113 112 112 114 113 114 109 105 102 99 97 97 94 93 93 92 92 92 93 92 90 89 87 86 83 81 78 77 76 75 74 73 72 71 70 71 71 70 72 71 71 70 71 70 69 69 69 67 68 67 69 68 68 69 69 68 68 68 67 66 66 65 -225 -225 -225 -225 -225 -225 -225 -225 -225 -225 -225 -225 -225 -225 -225 -225 -225 -225 -225 -225 -225 -225 -225 -225 -225 -225 -225 -225 -225 -225 -225 -225 -225 -225 -225 -225 -225 -225 -225 -225 -225 -225 -225 -225 -225 -225 -225 -225 -225 -225 -225 -225 -225 -225 -225 -225 -225 -225 -225 -225 -225 -225 -225 -225 -225 -225 70 70 70 72 74 75 72 73 73 73 72 73 73 72 72 74 75 75 75 76 76 75 76 76 78 78 78 81 84 84 84 85 86 86 88 89 90 90 91 92 95 95 98 99 100 101 102 102 102 -209 -209 -209 121 123 128 124 123 123 123 125 124 124 124 123 126 127 128 128 124 129 132 131 131 132 135 136 137 141 143 144 145 145 147 149 149 151 151 153 154 155 157 159 158 162 162 163 163 163 165 166 167 167 167 169 169 169 170 174 174 177 179 182 182 181 184 0 0 0 0 0
    0 0 0 0 0 0 0 0 0 0 0 0 0 0 0 0 0 0 0 0 0 0 0 0 0 0 0 0 0 0 0 0 0 0 0 0 0 0 0 0 0 0 0 0 0 0 0 0 0 0 0 0 0 0 0 0 0 0 0 0 0 0 0 0 0 0 0 0 0 116 121 117 110 109 113 113 112 113 108 105 103 100 99 97 94 93 92 92 92 92 93 93 90 89 88 87 84 83 79 77 76 75 75 74 72 71 69 72 74 74 75 72 72 71 71 71 69 69 68 67 68 68 70 69 69 70 69 69 69 69 68 67 66 -225 -225 -225 -225 -225 -225 -225 -225 -225 -225 -225 -225 -225 -225 -225 -225 -225 -225 -225 -225 -225 -225 -225 -225 -225 -225 -225 -225 -225 -225 -225 -225 -225 -225 -225 -225 -225 -225 -225 -225 -225 -225 -225 -225 -225 -225 -225 -225 -225 -225 -225 -225 -225 -225 -225 -225 -225 -225 -225 -225 -225 -225 -225 -225 -225 -225 -225 69 70 70 72 75 76 74 74 75 74 73 74 74 73 73 75 75 74 75 75 76 74 75 74 77 77 77 80 83 84 85 85 87 87 88 89 89 90 91 92 94 94 97 99 100 101 102 103 103 -209 -209 -209 122 123 127 124 123 123 124 124 124 124 124 123 125 126 127 127 124 127 131 130 131 133 136 137 138 141 142 143 144 144 147 149 149 151 152 153 155 155 158 159 159 163 162 163 163 163 164 165 166 166 166 168 168 169 170 173 173 176 178 181 178 177 182 0 0 0 0 0
    0 0 0 0 0 0 0 0 0 0 0 0 0 0 0 0 0 0 0 0 0 0 0 0 0 0 0 0 0 0 0 0 0 0 0 0 0 0 0 0 0 0 0 0 0 0 0 0 0 0 0 0 0 0 0 0 0 0 0 0 0 0 0 0 0 0 0 0 0 115 120 113 109 108 113 112 111 112 108 105 103 100 99 97 94 92 92 92 92 91 93 93 90 89 89 88 86 85 80 77 76 75 75 74 72 70 66 71 76 75 74 72 72 71 71 71 69 69 68 67 69 69 71 71 70 71 70 70 70 69 68 67 67 -225 -225 -225 -225 -225 -225 -225 -225 -225 -225 -225 -225 -225 -225 -225 -225 -225 -225 -225 -225 -225 -225 -225 -225 -225 -225 -225 -225 -225 -225 -225 -225 -225 -225 -225 -225 -225 -225 -225 -225 -225 -225 -225 -225 -225 -225 -225 -225 -225 -225 -225 -225 -225 -225 -225 -225 -225 -225 -225 -225 -225 -225 -225 -225 -225 -225 -225 -225 -225 70 72 76 76 75 74 76 75 74 75 75 75 75 76 77 76 76 77 77 76 75 74 76 76 77 79 82 84 86 85 87 87 88 88 89 90 91 92 94 94 96 99 100 100 102 104 104 -193 -209 121 121 122 126 124 123 123 124 124 125 124 124 123 124 126 126 127 124 126 131 129 130 133 136 138 138 140 140 141 142 142 146 149 150 152 152 154 156 156 158 159 159 163 162 163 163 163 164 165 166 166 166 168 168 168 170 173 173 175 176 179 175 174 180 0 0 0 0 0
    0 0 0 0 0 0 0 0 0 0 0 0 0 0 0 0 0 0 0 0 0 0 0 0 0 0 0 0 0 0 0 0 0 0 0 0 0 0 0 0 0 0 0 0 0 0 0 0 0 0 0 0 0 0 0 0 0 0 0 0 0 0 0 0 0 0 0 0 0 115 118 110 108 107 112 111 111 111 107 105 104 101 100 98 94 93 93 93 92 91 92 92 90 90 90 88 87 86 80 77 76 75 74 73 72 69 63 73 76 74 74 72 72 70 71 71 69 69 69 69 71 71 73 72 72 72 71 71 70 69 68 66 -225 -225 -225 -225 -225 -225 -225 -225 -225 -225 -225 -225 -225 -225 -225 -225 -225 -225 -225 -225 -225 -225 -225 -225 -225 -225 -225 -225 -225 -225 -225 -225 -225 -225 -225 -225 -225 -225 -225 -225 -225 -225 -225 -225 -225 -225 -225 -225 -225 -225 -225 -225 -225 -225 -225 -225 -225 -225 -225 -225 -225 -225 -225 -225 -225 -225 -225 -225 -225 -225 73 73 80 79 77 77 78 78 76 76 77 76 78 79 80 78 78 79 78 78 76 74 75 75 76 78 80 84 86 85 87 88 88 89 89 90 91 92 95 95 97 99 100 101 103 104 104 111 -209 120 121 122 125 125 123 124 124 124 126 124 125 124 124 126 126 127 124 125 131 129 130 133 136 139 138 140 139 140 141 142 146 149 150 153 153 154 156 156 158 159 159 162 160 161 162 162 163 165 166 166 166 168 169 169 170 174 171 173 174 175 174 174 178 0 0 0 0 0
    0 0 0 0 0 0 0 0 0 0 0 0 0 0 0 0 0 0 0 0 0 0 0 0 0 0 0 0 0 0 0 0 0 0 0 0 0 0 0 0 0 0 0 0 0 0 0 0 0 0 0 0 0 0 0 0 0 0 0 0 0 0 0 0 0 0 0 0 0 112 116 109 107 107 112 110 110 110 107 105 104 101 100 98 94 93 93 93 93 91 93 92 90 90 90 89 87 86 81 79 77 76 76 74 74 72 70 78 83 78 77 75 73 71 71 71 70 70 70 71 72 73 74 73 73 72 72 72 70 69 68 -225 -225 -225 -225 -225 -225 -225 -225 -225 -225 -225 -225 -225 -225 -225 -225 -225 -225 -225 -225 -225 -225 -225 -225 -225 -225 -225 -225 -225 -225 -225 -225 -225 -225 -225 -225 -225 -225 -225 -225 -225 -225 -225 -225 -225 -225 -225 -225 -225 -225 -225 -225 -225 -225 -225 -225 -225 -225 -225 -225 -225 -225 -225 -225 -225 -225 -225 -225 -225 -225 -225 -225 74 84 79 78 77 79 78 76 77 78 77 80 81 82 80 80 82 81 81 78 77 76 76 77 78 80 83 85 86 88 89 90 90 91 92 93 94 96 97 98 100 101 101 102 104 104 110 -209 118 120 120 124 125 123 124 124 124 127 125 125 124 124 126 126 127 125 124 132 130 131 135 137 139 138 138 138 138 139 140 145 148 149 152 153 154 156 156 157 158 157 160 159 159 161 160 162 164 165 165 166 168 169 169 169 172 170 171 172 173 173 174 178 0 0 0 0 0
    0 0 0 0 0 0 0 0 0 0 0 0 0 0 0 0 0 0 0 0 0 0 0 0 0 0 0 0 0 0 0 0 0 0 0 0 0 0 0 0 0 0 0 0 0 0 0 0 0 0 0 0 0 0 0 0 0 0 0 0 0 0 0 0 0 0 0 0 0 111 114 108 107 107 111 110 109 109 107 104 104 101 100 98 94 93 93 94 94 91 93 92 90 90 90 89 87 85 81 80 78 78 77 75 75 73 75 85 84 80 79 77 75 72 72 71 71 71 72 73 74 74 75 75 74 74 73 73 71 69 -225 -225 -225 -225 -225 -225 -225 -225 -225 -225 -225 -225 -225 -225 -225 -225 -225 -225 -225 -225 -225 -225 -225 -225 -225 -225 -225 -225 -225 -225 -225 -225 -225 -225 -225 -225 -225 -225 -225 -225 -225 -225 -225 -225 -225 -225 -225 -225 -225 -225 -225 -225 -225 -225 -225 -225 -225 -225 -225 -225 -225 -225 -225 -225 -225 -225 -225 -225 -225 -225 -225 -225 -225 -225 81 79 78 77 80 79 76 78 78 79 81 82 83 81 82 83 83 83 81 79 78 77 79 79 80 84 87 87 90 91 91 91 92 93 94 94 96 96 98 99 101 101 102 104 104 109 -209 116 118 118 121 124 123 123 124 124 127 125 126 125 124 126 126 127 126 124 131 129 130 136 138 139 138 137 138 139 139 140 145 149 150 152 153 154 155 156 156 156 156 159 158 159 160 160 161 164 166 166 166 168 169 170 170 172 170 171 172 174 174 175 180 0 0 0 0 0
    0 0 0 0 0 0 0 0 0 0 0 0 0 0 0 0 0 0 0 0 0 0 0 0 0 0 0 0 0 0 0 0 0 0 0 0 0 0 0 0 0 0 0 0 0 0 0 0 0 0 0 0 0 0 0 0 0 0 0 0 0 0 0 0 0 0 0 0 0 112 113 107 107 107 111 109 109 109 106 104 104 101 99 97 95 94 93 94 94 91 93 92 90 90 90 88 86 85 83 82 80 80 79 76 75 73 76 83 85 80 80 78 75 73 73 73 72 73 73 74 75 75 76 76 75 75 74 73 72 70 -225 -225 -225 -225 -225 -225 -225 -225 -225 -225 -225 -225 -225 -225 -225 -225 -225 -225 -225 -225 -225 -225 -225 -225 -225 -225 -225 -225 -225 -225 -225 -225 -225 -225 -225 -225 -225 -225 -225 -225 -225 -225 -225 -225 -225 -225 -225 -225 -225 -225 -225 -225 -225 -225 -225 -225 -225 -225 -225 -225 -225 -225 -225 -225 -225 -225 -225 -225 -225 -225 -225 -225 -225 -225 -225 -225 78 76 81 79 76 77 78 79 81 82 83 81 82 84 85 85 85 83 81 80 83 83 83 87 88 88 91 92 92 92 93 93 94 94 96 95 97 98 99 100 101 103 103 108 -209 114 116 117 119 123 123 123 124 123 128 126 126 126 124 126 126 127 126 123 130 129 129 135 137 138 137 137 138 139 139 140 144 148 148 150 151 152 154 154 155 156 156 158 158 159 161 161 163 165 167 167 168 169 170 170 170 172 170 171 172 174 174 176 180 0 0 0 0 0
    0 0 0 0 0 0 0 0 0 0 0 0 0 0 0 0 0 0 0 0 0 0 0 0 0 0 0 0 0 0 0 0 0 0 0 0 0 0 0 0 0 0 0 0 0 0 0 0 0 0 0 0 0 0 0 0 0 0 0 0 0 0 0 0 0 0 0 0 0 113 113 108 107 109 112 109 110 109 107 104 105 102 99 98 95 94 94 94 95 91 93 92 90 90 90 89 87 86 85 84 83 83 84 78 86 83 85 92 88 83 82 80 77 74 74 74 74 75 75 75 76 76 77 77 76 76 75 74 73 -225 -225 -225 -225 -225 -225 -225 -225 -225 -225 -225 -225 -225 -225 -225 -225 -225 -225 -225 -225 -225 -225 -225 -225 -225 -225 -225 -225 -225 -225 -225 -225 -225 -225 -225 -225 -225 -225 -225 -225 -225 -225 -225 -225 -225 -225 -225 -225 -225 -225 -225 -225 -225 -225 -225 -225 -225 -225 -225 -225 -225 -225 -225 -225 -225 -225 -225 -225 -225 -225 -225 -225 -225 -225 -225 -225 -225 -225 76 83 79 76 77 77 79 81 82 83 81 83 85 85 86 86 84 84 83 86 86 85 88 88 89 92 92 92 92 93 93 93 94 97 94 97 98 99 100 101 102 104 107 114 114 115 116 119 123 123 123 124 123 129 126 127 127 124 126 126 127 127 123 129 129 128 134 135 137 136 137 137 139 139 141 143 147 147 148 148 150 151 152 154 155 155 157 158 158 160 161 162 165 167 167 168 169 169 170 170 170 170 170 171 173 174 177 181 0 0 0 0 0
    0 0 0 0 0 0 0 0 0 0 0 0 0 0 0 0 0 0 0 0 0 0 0 0 0 0 0 0 0 0 0 0 0 0 0 0 0 0 0 0 0 0 0 0 0 0 0 0 0 0 0 0 0 0 0 0 0 0 0 0 0 0 0 0 0 0 0 0 0 115 115 109 108 111 112 110 109 109 107 105 105 102 100 98 95 94 94 94 95 92 93 92 90 90 90 89 88 88 87 85 84 86 89 91 94 92 91 93 90 86 86 84 80 76 77 76 77 77 78 77 78 78 78 78 77 76 75 74 -225 -225 -225 -225 -225 -225 -225 -225 -225 -225 -225 -225 -225 -225 -225 -225 -225 -225 -225 -225 -225 -225 -225 -225 -225 -225 -225 -225 -225 -225 -225 -225 -225 -225 -225 -225 -225 -225 -225 -225 -225 -225 -225 -225 -225 -225 -225 -225 -225 -225 -225 -225 -225 -225 -225 -225 -225 -225 -225 -225 -225 -225 -225 -225 -225 -225 -225 -225 -225 -225 -225 -225 -225 -225 -225 -225 -225 -225 -225 -225 82 79 77 79 78 80 83 83 85 84 85 87 87 88 88 86 86 85 88 88 87 89 89 90 92 93 93 93 93 94 95 95 98 96 99 100 100 102 102 103 104 108 113 113 114 114 118 123 122 123 123 123 130 127 127 127 124 127 127 128 128 123 130 130 129 133 134 135 134 135 135 136 137 139 141 145 145 147 146 148 150 151 152 154 154 156 156 157 159 160 162 165 167 167 167 168 169 170 169 170 169 169 171 172 173 177 181 0 0 0 0 0
    0 0 0 0 0 0 0 0 0 0 0 0 0 0 0 0 0 0 0 0 0 0 0 0 0 0 0 0 0 0 0 0 0 0 0 0 0 0 0 0 0 0 0 0 0 0 0 0 0 0 0 0 0 0 0 0 0 0 0 0 0 0 0 0 0 0 0 0 0 116 115 110 110 113 112 110 110 109 107 105 105 103 100 99 95 94 94 95 95 92 93 93 91 91 91 89 89 89 88 85 84 89 92 96 101 94 93 95 91 87 87 85 82 78 79 80 81 81 81 80 80 80 80 80 79 77 76 -225 -225 -225 -225 -225 -225 -225 -225 -225 -225 -225 -225 -225 -225 -225 -225 -225 -225 -225 -225 -225 -225 -225 -225 -225 -225 -225 -225 -225 -225 -225 -225 -225 -225 -225 -225 -225 -225 -225 -225 -225 -225 -225 -225 -225 -225 -225 -225 -225 -225 -225 -225 -225 -225 -225 -225 -225 -225 -225 -225 -225 -225 -225 -225 -225 -225 -225 -225 -225 -225 -225 -225 -225 -225 -225 -225 -225 -225 -225 -225 -225 79 80 77 80 78 81 85 84 86 85 86 88 88 89 89 88 88 88 89 90 89 91 91 91 93 93 94 94 95 97 96 97 99 98 100 101 101 102 102 103 104 107 113 112 113 113 117 123 122 123 123 123 130 128 128 128 125 128 128 129 129 123 130 131 129 133 134 134 133 134 134 135 134 137 139 143 145 147 146 148 150 151 152 153 154 155 156 157 160 161 162 165 167 168 168 168 169 170 169 169 169 169 170 172 173 179 182 0 0 0 0 0
    0 0 0 0 0 0 0 0 0 0 0 0 0 0 0 0 0 0 0 0 0 0 0 0 0 0 0 0 0 0 0 0 0 0 0 0 0 0 0 0 0 0 0 0 0 0 0 0 0 0 0 0 0 0 0 0 0 0 0 0 0 0 0 0 0 0 0 0 0 117 115 111 111 113 112 111 110 110 108 106 106 104 101 99 95 94 94 95 95 93 93 92 91 91 91 90 90 89 89 89 89 94 96 100 100 94 94 95 92 89 88 86 84 81 83 83 84 83 83 82 82 82 83 82 80 78 76 -225 -225 -225 -225 -225 -225 -225 -225 -225 -225 -225 -225 -225 -225 -225 -225 -225 -225 -225 -225 -225 -225 -225 -225 -225 -225 -225 -225 -225 -225 -225 -225 -225 -225 -225 -225 -225 -225 -225 -225 -225 -225 -225 -225 -225 -225 -225 -225 -225 -225 -225 -225 -225 -225 -225 -225 -225 -225 -225 -225 -225 -225 -225 -225 -225 -225 -225 -225 -225 -225 -225 -225 -225 -225 -225 -225 -225 -225 -225 -225 -225 -225 -225 77 83 80 83 87 86 86 86 87 88 89 90 91 89 90 90 91 93 91 93 93 92 94 94 95 96 96 99 98 98 100 99 100 100 100 101 101 101 103 106 112 112 112 112 117 123 122 123 123 123 130 128 128 129 125 128 129 129 129 124 130 131 128 132 133 132 132 133 134 134 133 136 139 143 144 146 146 148 150 152 152 153 154 155 156 157 160 161 162 165 168 169 169 169 169 169 169 169 169 168 170 173 174 180 183 0 0 0 0 0
    0 0 0 0 0 0 0 0 0 0 0 0 0 0 0 0 0 0 0 0 0 0 0 0 0 0 0 0 0 0 0 0 0 0 0 0 0 0 0 0 0 0 0 0 0 0 0 0 0 0 0 0 0 0 0 0 0 0 0 0 0 0 0 0 0 0 0 0 0 117 114 111 113 113 111 111 110 109 107 106 107 104 101 99 96 95 94 95 96 93 93 93 91 91 92 90 90 89 89 96 91 95 95 97 97 92 92 93 91 90 89 87 85 84 86 86 86 85 85 84 83 84 84 82 80 78 -225 -225 -225 -225 -225 -225 -225 -225 -225 -225 -225 -225 -225 -225 -225 -225 -225 -225 -225 -225 -225 -225 -225 -225 -225 -225 -225 -225 -225 -225 -225 -225 -225 -225 -225 -225 -225 -225 -225 -225 -225 -225 -225 -225 -225 -225 -225 -225 -225 -225 -225 -225 -225 -225 -225 -225 -225 -225 -225 -225 -225 -225 -225 -225 -225 -225 -225 -225 -225 -225 -225 -225 -225 -225 -225 -225 -225 -225 -225 -225 -225 -225 -225 -225 -225 -225 80 84 88 86 86 86 87 89 89 91 93 91 92 93 94 96 93 96 95 93 97 97 98 99 98 100 100 99 101 99 100 99 98 100 100 100 102 105 112 111 112 112 117 123 123 123 124 124 130 128 128 129 125 128 129 129 129 124 130 131 127 131 132 132 131 132 134 134 134 135 138 141 143 146 146 147 150 151 151 153 153 154 155 156 159 160 162 165 168 169 169 169 169 169 168 168 169 168 170 172 174 180 184 0 0 0 0 0
    0 0 0 0 0 0 0 0 0 0 0 0 0 0 0 0 0 0 0 0 0 0 0 0 0 0 0 0 0 0 0 0 0 0 0 0 0 0 0 0 0 0 0 0 0 0 0 0 0 0 0 0 0 0 0 0 0 0 0 0 0 0 0 0 0 0 0 0 0 118 115 113 115 114 111 111 110 109 107 107 107 103 101 99 95 95 95 96 96 93 93 93 92 92 92 90 89 90 88 109 93 96 95 98 97 93 92 92 91 90 89 88 86 86 88 88 88 86 86 85 85 86 85 83 81 -225 -225 -225 -225 -225 -225 -225 -225 -225 -225 -225 -225 -225 -225 -225 -225 -225 -225 -225 -225 -225 -225 -225 -225 -225 -225 -225 -225 -225 -225 -225 -225 -225 -225 -225 -225 -225 -225 -225 -225 -225 -225 -225 -225 -225 -225 -225 -225 -225 -225 -225 -225 -225 -225 -225 -225 -225 -225 -225 -225 -225 -225 -225 -225 -225 -225 -225 -225 -225 -225 -225 -225 -225 -225 -225 -225 -225 -225 -225 -225 -225 -225 -225 -225 -225 -225 -225 -225 86 97 88 87 88 88 90 90 92 94 92 93 95 96 98 95 98 98 95 99 98 99 100 100 102 101 101 102 99 101 100 100 101 100 100 101 105 111 111 111 111 117 123 123 123 124 124 130 128 128 129 125 128 129 129 129 124 129 130 127 131 132 131 131 132 133 134 133 134 136 140 143 146 146 148 150 151 151 152 153 153 155 156 158 162 163 165 169 170 169 169 169 169 168 167 168 167 169 170 172 179 184 0 0 0 0 0
    0 0 0 0 0 0 0 0 0 0 0 0 0 0 0 0 0 0 0 0 0 0 0 0 0 0 0 0 0 0 0 0 0 0 0 0 0 0 0 0 0 0 0 0 0 0 0 0 0 0 0 0 0 0 0 0 0 0 0 0 0 0 0 0 0 0 0 0 0 119 117 115 117 115 111 112 110 108 107 107 107 103 101 99 96 95 95 96 96 93 93 92 92 91 91 88 87 93 -193 119 96 99 97 100 99 94 94 93 92 91 90 89 87 88 90 90 90 88 87 87 87 88 86 84 82 -225 -225 -225 -225 -225 -225 -225 -225 -225 -225 -225 -225 -225 -225 -225 -225 -225 -225 -225 -225 -225 -225 -225 -225 -225 -225 -225 -225 -225 -225 -225 -225 -225 -225 -225 -225 -225 -225 -225 -225 -225 -225 -225 -225 -225 -225 -225 -225 -225 -225 -225 -225 -225 -225 -225 -225 -225 -225 -225 -225 -225 -225 -225 -225 -225 -225 -225 -225 -225 -225 -225 -225 -225 -225 -225 -225 -225 -225 -225 -225 -225 -225 -225 -225 -225 -225 -225 -225 -225 -225 88 87 88 88 91 90 92 96 94 96 99 99 99 97 100 100 98 101 100 99 100 100 102 102 101 101 99 102 102 101 102 102 101 102 104 110 109 110 111 117 124 123 123 124 124 130 128 128 130 125 128 128 128 128 123 128 129 125 130 132 131 131 132 133 133 132 133 135 139 142 146 147 149 151 152 152 153 153 154 156 157 161 165 166 167 169 170 170 170 169 169 168 167 168 167 168 170 171 179 185 0 0 0 0 0
    0 0 0 0 0 0 0 0 0 0 0 0 0 0 0 0 0 0 0 0 0 0 0 0 0 0 0 0 0 0 0 0 0 0 0 0 0 0 0 0 0 0 0 0 0 0 0 0 0 0 0 0 0 0 0 0 0 0 0 0 0 0 0 0 0 0 0 0 0 119 118 117 118 116 112 112 110 109 107 107 107 104 102 100 97 95 96 97 96 93 92 91 92 90 88 87 87 94 -209 -209 95 97 94 98 98 94 95 94 93 92 92 91 90 91 92 92 92 90 89 89 89 89 87 85 -225 -225 -225 -225 -225 -225 -225 -225 -225 -225 -225 -225 -225 -225 -225 -225 -225 -225 -225 -225 -225 -225 -225 -225 -225 -225 -225 -225 -225 -225 -225 -225 -225 -225 -225 -225 -225 -225 -225 -225 -225 -225 -225 -225 -225 -225 -225 -225 -225 -225 -225 -225 -225 -225 -225 -225 -225 -225 -225 -225 -225 -225 -225 -225 -225 -225 -225 -225 -225 -225 -225 -225 -225 -225 -225 -225 -225 -225 -225 -225 -225 -225 -225 -225 -225 -225 -225 -225 -225 -225 -225 -225 86 87 88 89 89 91 94 93 96 99 99 99 97 100 101 99 102 101 100 101 101 103 104 102 102 101 103 104 103 104 103 102 103 105 111 109 111 111 118 125 123 124 124 125 130 128 128 130 125 128 128 128 128 123 127 128 125 129 132 131 131 132 133 133 132 133 135 138 141 145 146 148 150 152 153 154 155 155 158 159 163 166 167 168 170 171 170 170 169 169 168 168 169 168 168 170 171 179 184 0 0 0 0 0
    0 0 0 0 0 0 0 0 0 0 0 0 0 0 0 0 0 0 0 0 0 0 0 0 0 0 0 0 0 0 0 0 0 0 0 0 0 0 0 0 0 0 0 0 0 0 0 0 0 0 0 0 0 0 0 0 0 0 0 0 0 0 0 0 0 0 0 0 0 120 119 118 119 116 112 113 111 109 108 108 108 104 103 102 98 96 97 98 95 93 91 91 92 90 89 88 88 94 91 -193 93 94 93 96 96 94 95 94 93 94 93 94 93 94 94 93 94 92 92 92 91 90 89 -225 -225 -225 -225 -225 -225 -225 -225 -225 -225 -225 -225 -225 -225 -225 -225 -225 -225 -225 -225 -225 -225 -225 -225 -225 -225 -225 -225 -225 -225 -225 -225 -225 -225 -225 -225 -225 -225 -225 -225 -225 -225 -225 -225 -225 -225 -225 -225 -225 -225 -225 -225 -225 -225 -225 -225 -225 -225 -225 -225 -225 -225 -225 -225 -225 -225 -225 -225 -225 -225 -225 -225 -225 -225 -225 -225 -225 -225 -225 -225 -225 -225 -225 -225 -225 -225 -225 -225 -225 -225 -225 -225 -225 86 88 88 87 88 89 92 92 94 97 97 98 97 100 101 99 102 101 101 101 102 104 105 102 103 103 104 104 104 104 104 103 104 105 110 109 111 113 119 127 124 125 125 126 130 128 128 130 125 128 128 128 128 123 127 128 125 128 132 131 132 133 134 134 133 135 136 139 141 145 146 148 150 153 154 155 156 156 159 160 163 167 167 168 170 171 170 170 169 168 167 168 168 167 167 169 172 179 183 0 0 0 0 0
    0 0 0 0 0 0 0 0 0 0 0 0 0 0 0 0 0 0 0 0 0 0 0 0 0 0 0 0 0 0 0 0 0 0 0 0 0 0 0 0 0 0 0 0 0 0 0 0 0 0 0 0 0 0 0 0 0 0 0 0 0 0 0 0 0 0 0 0 0 120 120 119 119 115 111 112 110 108 107 107 107 104 103 102 99 97 98 98 96 93 90 90 91 92 93 95 99 97 95 101 94 96 96 99 99 97 97 95 95 95 95 97 95 95 95 94 95 93 94 94 92 91 90 -225 -225 -225 -225 -225 -225 -225 -225 -225 -225 -225 -225 -225 -225 -225 -225 -225 -225 -225 -225 -225 -225 -225 -225 -225 -225 -225 -225 -225 -225 -225 -225 -225 -225 -225 -225 -225 -225 -225 -225 -225 -225 -225 -225 -225 -225 -225 -225 -225 -225 -225 -225 -225 -225 -225 -225 -225 -225 -225 -225 -225 -225 -225 -225 -225 -225 -225 -225 -225 -225 -225 -225 -225 -225 -225 -225 -225 -225 -225 -225 -225 -225 -225 -225 -225 -225 -225 -225 -225 -225 -225 -225 -225 -225 87 87 86 87 88 91 91 93 96 96 98 98 100 101 101 104 103 103 103 104 106 106 105 105 104 105 105 105 105 104 103 103 104 109 108 110 112 119 126 124 125 126 126 129 128 128 130 125 127 128 128 127 123 126 127 124 128 132 -193 133 134 135 135 135 136 136 139 141 144 146 148 150 153 154 155 156 156 159 161 163 166 167 168 170 171 171 170 169 168 168 168 169 168 167 169 172 177 181 0 0 0 0 0
    0 0 0 0 0 0 0 0 0 0 0 0 0 0 0 0 0 0 0 0 0 0 0 0 0 0 0 0 0 0 0 0 0 0 0 0 0 0 0 0 0 0 0 0 0 0 0 0 0 0 0 0 0 0 0 0 0 0 0 0 0 0 0 0 0 0 0 0 0 121 120 120 119 114 110 111 109 107 107 107 106 103 103 103 100 99 100 98 96 93 91 90 93 97 100 100 102 99 96 101 96 98 99 101 102 100 99 97 97 97 97 97 96 95 95 95 95 94 95 94 93 92 -225 -225 -225 -225 -225 -225 -225 -225 -225 -225 -225 -225 -225 -225 -225 -225 -225 -225 -225 -225 -225 -225 -225 -225 -225 -225 -225 -225 -225 -225 -225 -225 -225 -225 -225 -225 -225 -225 -225 -225 -225 -225 -225 -225 -225 -225 -225 -225 -225 -225 -225 -225 -225 -225 -225 -225 -225 -225 -225 -225 -225 -225 -225 -225 -225 -225 -225 -225 -225 -225 -225 -225 -225 -225 -225 -225 -225 -225 -225 -225 -225 -225 -225 -225 -225 -225 -225 -225 -225 -225 -225 -225 -225 -225 -225 -225 85 83 84 87 90 91 92 97 98 99 99 102 104 103 106 105 105 105 105 107 107 106 105 105 106 105 105 105 104 104 104 105 108 109 111 113 119 126 124 126 126 127 129 128 128 130 125 127 128 127 127 123 126 127 123 128 -193 -193 133 135 136 -193 135 136 137 139 141 143 145 147 149 152 153 155 155 156 159 161 163 166 167 168 170 172 171 170 169 169 169 169 169 169 167 168 172 175 179 0 0 0 0 0
    0 0 0 0 0 0 0 0 0 0 0 0 0 0 0 0 0 0 0 0 0 0 0 0 0 0 0 0 0 0 0 0 0 0 0 0 0 0 0 0 0 0 0 0 0 0 0 0 0 0 0 0 0 0 0 0 0 0 0 0 0 0 0 0 0 0 0 0 0 121 121 120 120 114 110 110 108 106 106 106 105 102 103 103 100 101 101 100 97 94 95 97 101 103 102 102 103 101 99 101 99 100 100 102 101 99 98 97 96 96 99 98 96 96 97 96 96 96 97 95 93 93 -225 -225 -225 -225 -225 -225 -225 -225 -225 -225 -225 -225 -225 -225 -225 -225 -225 -225 -225 -225 -225 -225 -225 -225 -225 -225 -225 -225 -225 -225 -225 -225 -225 -225 -225 -225 -225 -225 -225 -225 -225 -225 -225 -225 -225 -225 -225 -225 -225 -225 -225 -225 -225 -225 -225 -225 -225 -225 -225 -225 -225 -225 -225 -225 -225 -225 -225 -225 -225 -225 -225 -225 -225 -225 -225 -225 -225 -225 -225 -225 -225 -225 -225 -225 -225 -225 -225 -225 -225 -225 -225 -225 -225 -225 -225 -225 85 80 82 86 90 92 92 99 102 101 102 103 105 105 107 106 106 105 106 108 107 106 106 106 107 106 106 106 105 105 105 106 109 110 112 114 119 125 124 126 127 127 130 129 129 130 125 127 127 127 127 123 126 126 -209 129 -193 -193 135 136 137 138 137 138 139 140 142 143 145 147 148 151 153 154 155 155 158 160 163 166 167 169 170 171 171 170 169 169 168 169 168 169 167 169 172 173 177 0 0 0 0 0
    0 0 0 0 0 0 0 0 0 0 0 0 0 0 0 0 0 0 0 0 0 0 0 0 0 0 0 0 0 0 0 0 0 0 0 0 0 0 0 0 0 0 0 0 0 0 0 0 0 0 0 0 0 0 0 0 0 0 0 0 0 0 0 0 0 0 0 0 0 122 122 122 120 116 111 110 108 106 106 105 105 102 102 102 101 101 102 100 98 96 102 105 106 107 105 104 105 103 101 102 100 101 101 102 102 100 99 98 98 99 100 99 98 98 98 97 98 98 97 95 94 -225 -225 -225 -225 -225 -225 -225 -225 -225 -225 -225 -225 -225 -225 -225 -225 -225 -225 -225 -225 -225 -225 -225 -225 -225 -225 -225 -225 -225 -225 -225 -225 -225 -225 -225 -225 -225 -225 -225 -225 -225 -225 -225 -225 -225 -225 -225 -225 -225 -225 -225 -225 -225 -225 -225 -225 -225 -225 -225 -225 -225 -225 -225 -225 -225 -225 -225 -225 -225 -225 -225 -225 -225 -225 -225 -225 -225 -225 -225 -225 -225 -225 -225 -225 -225 -225 -225 -225 -225 -225 -225 -225 -225 -225 -225 -225 -225 -225 80 83 86 89 92 91 98 102 101 102 103 105 105 107 106 107 105 107 108 108 107 107 107 108 108 108 107 106 106 106 107 109 110 113 116 120 125 125 126 127 127 130 129 128 130 125 127 127 127 127 122 126 126 -209 128 -193 -193 -193 137 138 138 138 140 141 142 144 144 145 147 147 150 151 152 154 153 156 159 162 167 168 169 170 172 171 171 170 169 169 169 168 169 167 169 171 173 177 0 0 0 0 0
    0 0 0 0 0 0 0 0 0 0 0 0 0 0 0 0 0 0 0 0 0 0 0 0 0 0 0 0 0 0 0 0 0 0 0 0 0 0 0 0 0 0 0 0 0 0 0 0 0 0 0 0 0 0 0 0 0 0 0 0 0 0 0 0 0 0 0 0 0 124 125 124 123 117 112 110 108 105 105 105 105 102 103 103 102 101 102 100 98 98 104 106 106 107 106 105 106 103 101 101 100 101 103 103 104 101 101 101 101 103 102 100 99 98 98 98 98 99 97 95 -225 -225 -225 -225 -225 -225 -225 -225 -225 -225 -225 -225 -225 -225 -225 -225 -225 -225 -225 -225 -225 -225 -225 -225 -225 -225 -225 -225 -225 -225 -225 -225 -225 -225 -225 -225 -225 -225 -225 -225 -225 -225 -225 -225 -225 -225 -225 -225 -225 -225 -225 -225 -225 -225 -225 -225 -225 -225 -225 -225 -225 -225 -225 -225 -225 -225 -225 -225 -225 -225 -225 -225 -225 -225 -225 -225 -225 -225 -225 -225 -225 -225 -225 -225 -225 -225 -225 -225 -225 -225 -225 -225 -225 -225 -225 -225 -225 -225 -225 -225 87 92 92 94 92 98 103 101 102 104 105 105 106 105 106 105 106 108 108 108 108 108 110 109 110 108 107 107 106 107 110 110 115 118 121 126 125 126 127 127 130 129 128 130 125 127 127 127 127 123 126 127 124 130 133 134 -193 137 137 138 138 142 143 144 146 145 145 147 147 150 150 151 153 153 156 160 162 167 168 170 170 172 171 171 170 170 170 171 169 169 168 169 171 173 176 0 0 0 0 0
    0 0 0 0 0 0 0 0 0 0 0 0 0 0 0 0 0 0 0 0 0 0 0 0 0 0 0 0 0 0 0 0 0 0 0 0 0 0 0 0 0 0 0 0 0 0 0 0 0 0 0 0 0 0 0 0 0 0 0 0 0 0 0 0 0 0 0 0 0 126 127 126 124 118 112 109 108 105 105 105 105 103 103 104 103 102 103 100 97 101 105 106 106 106 105 104 105 102 100 99 100 101 103 104 105 102 103 103 104 105 103 101 100 99 99 100 100 100 97 96 -225 -225 -225 -225 -225 -225 -225 -225 -225 -225 -225 -225 -225 -225 -225 -225 -225 -225 -225 -225 -225 -225 -225 -225 -225 -225 -225 -225 -225 -225 -225 -225 -225 -225 -225 -225 -225 -225 -225 -225 -225 -225 -225 -225 -225 -225 -225 -225 -225 -225 -225 -225 -225 -225 -225 -225 -225 -225 -225 -225 -225 -225 -225 -225 -225 -225 -225 -225 -225 -225 -225 -225 -225 -225 -225 -225 -225 -225 -225 -225 -225 -225 -225 -225 -225 -225 -225 -225 -225 -225 -225 -225 -225 -225 -225 -225 -225 -225 -225 -225 -225 100 102 100 100 101 104 103 103 104 105 105 107 106 107 106 107 109 109 109 109 109 112 111 111 109 108 108 107 108 111 111 115 119 121 125 125 126 127 126 130 129 127 130 126 128 127 127 127 123 127 128 125 128 132 134 135 137 137 139 139 142 145 145 146 146 146 146 147 149 149 149 151 152 156 161 163 166 167 169 170 171 171 171 170 170 171 172 171 171 170 171 172 174 177 0 0 0 0 0
    0 0 0 0 0 0 0 0 0 0 0 0 0 0 0 0 0 0 0 0 0 0 0 0 0 0 0 0 0 0 0 0 0 0 0 0 0 0 0 0 0 0 0 0 0 0 0 0 0 0 0 0 0 0 0 0 0 0 0 0 0 0 0 0 0 0 0 0 0 130 129 127 124 119 112 108 108 106 106 105 105 103 104 104 103 103 104 101 97 106 107 107 107 107 106 105 105 102 99 98 99 100 103 104 105 102 103 104 105 106 104 102 102 100 101 101 101 100 96 -225 -225 -225 -225 -225 -225 -225 -225 -225 -225 -225 -225 -225 -225 -225 -225 -225 -225 -225 -225 -225 -225 -225 -225 -225 -225 -225 -225 -225 -225 -225 -225 -225 -225 -225 -225 -225 -225 -225 -225 -225 -225 -225 -225 -225 -225 -225 -225 -225 -225 -225 -225 -225 -225 -225 -225 -225 -225 -225 -225 -225 -225 -225 -225 -225 -225 -225 -225 -225 -225 -225 -225 -225 -225 -225 -225 -225 -225 -225 -225 -225 -225 -225 -225 -225 -225 -225 -225 -225 -225 -225 -225 -225 -225 -225 -225 -225 -225 -225 -225 -225 -225 102 105 103 104 103 106 106 105 105 106 105 107 106 108 106 107 110 110 110 110 110 112 110 111 110 108 108 107 109 113 113 116 120 121 124 124 125 126 125 130 129 127 130 127 128 128 128 127 123 128 128 125 128 131 133 135 137 137 139 140 142 145 146 146 146 146 147 146 148 148 147 149 151 154 158 160 164 165 168 168 170 170 171 170 170 171 172 171 172 171 172 173 174 175 0 0 0 0 0
    0 0 0 0 0 0 0 0 0 0 0 0 0 0 0 0 0 0 0 0 0 0 0 0 0 0 0 0 0 0 0 0 0 0 0 0 0 0 0 0 0 0 0 0 0 0 0 0 0 0 0 0 0 0 0 0 0 0 0 0 0 0 0 0 0 0 0 0 0 134 133 131 127 120 114 110 108 106 106 105 105 103 104 104 104 105 105 101 101 108 109 109 110 109 107 107 107 105 103 103 102 102 105 105 105 104 105 106 107 108 106 104 103 102 103 103 102 101 96 -225 -225 -225 -225 -225 -225 -225 -225 -225 -225 -225 -225 -225 -225 -225 -225 -225 -225 -225 -225 -225 -225 -225 -225 -225 -225 -225 -225 -225 -225 -225 -225 -225 -225 -225 -225 -225 -225 -225 -225 -225 -225 -225 -225 -225 -225 -225 -225 -225 -225 -225 -225 -225 -225 -225 -225 -225 -225 -225 -225 -225 -225 -225 -225 -225 -225 -225 -225 -225 -225 -225 -225 -225 -225 -225 -225 -225 -225 -225 -225 -225 -225 -225 -225 -225 -225 -225 -225 -225 -225 -225 -225 -225 -225 -225 -225 -225 -225 -225 -225 -225 -225 -225 108 104 105 105 109 108 107 107 107 106 107 107 109 107 109 110 111 112 111 111 112 111 111 110 108 108 108 111 115 116 118 121 122 124 124 126 127 126 131 129 127 130 127 128 128 128 127 123 127 128 -209 -209 130 132 134 136 136 138 139 141 144 145 146 146 146 147 147 147 147 146 148 149 153 156 158 163 165 168 168 170 170 171 170 170 170 172 171 172 171 172 173 173 174 0 0 0 0 0
    0 0 0 0 0 0 0 0 0 0 0 0 0 0 0 0 0 0 0 0 0 0 0 0 0 0 0 0 0 0 0 0 0 0 0 0 0 0 0 0 0 0 0 0 0 0 0 0 0 0 0 0 0 0 0 0 0 0 0 0 0 0 0 0 0 0 0 0 0 136 134 131 128 123 118 113 105 105 105 104 104 103 104 104 104 106 106 104 106 109 110 110 111 110 108 108 108 108 106 106 106 105 107 107 107 106 108 109 109 109 108 105 104 105 105 103 103 102 -225 -225 -225 -225 -225 -225 -225 -225 -225 -225 -225 -225 -225 -225 -225 -225 -225 -225 -225 -225 -225 -225 -225 -225 -225 -225 -225 -225 -225 -225 -225 -225 -225 -225 -225 -225 -225 -225 -225 -225 -225 -225 -225 -225 -225 -225 -225 -225 -225 -225 -225 -225 -225 -225 -225 -225 -225 -225 -225 -225 -225 -225 -225 -225 -225 -225 -225 -225 -225 -225 -225 -225 -225 -225 -225 -225 -225 -225 -225 -225 -225 -225 -225 -225 -225 -225 -225 -225 -225 -225 -225 -225 -225 -225 -225 -225 -225 -225 -225 -225 -225 -225 -225 -225 108 104 106 106 110 109 108 108 108 107 109 110 111 109 112 114 114 115 114 114 114 114 115 113 111 112 110 114 117 119 120 122 123 124 124 126 128 127 132 130 127 131 128 129 129 128 127 123 127 128 -209 -209 -209 132 133 135 134 136 138 140 143 144 145 145 146 147 148 148 148 146 148 149 152 156 156 162 165 168 168 169 170 171 170 170 170 172 171 173 171 172 172 172 173 0 0 0 0 0
    0 0 0 0 0 0 0 0 0 0 0 0 0 0 0 0 0 0 0 0 0 0 0 0 0 0 0 0 0 0 0 0 0 0 0 0 0 0 0 0 0 0 0 0 0 0 0 0 0 0 0 0 0 0 0 0 0 0 0 0 0 0 0 0 0 0 0 0 0 136 133 131 127 125 122 117 106 106 106 104 104 103 104 104 104 106 106 102 105 107 109 109 111 111 109 109 109 109 108 108 108 107 107 108 108 107 110 111 111 111 109 105 105 105 105 103 102 101 -225 -225 -225 -225 -225 -225 -225 -225 -225 -225 -225 -225 -225 -225 -225 -225 -225 -225 -225 -225 -225 -225 -225 -225 -225 -225 -225 -225 -225 -225 -225 -225 -225 -225 -225 -225 -225 -225 -225 -225 -225 -225 -225 -225 -225 -225 -225 -225 -225 -225 -225 -225 -225 -225 -225 -225 -225 -225 -225 -225 -225 -225 -225 -225 -225 -225 -225 -225 -225 -225 -225 -225 -225 -225 -225 -225 -225 -225 -225 -225 -225 -225 -225 -225 -225 -225 -225 -225 -225 -225 -225 -225 -225 -225 -225 -225 -225 -225 -225 -225 -225 -225 -225 -225 109 105 106 106 108 108 107 107 108 106 108 110 111 111 116 116 117 117 116 117 116 116 117 116 116 116 115 117 120 121 122 124 124 125 125 127 129 127 132 131 128 132 130 130 129 129 127 124 130 130 -209 -209 130 132 133 134 133 136 137 139 144 144 145 146 146 148 148 149 149 145 148 149 152 156 157 162 165 167 167 169 169 171 170 170 170 171 171 172 171 171 171 171 172 0 0 0 0 0
    0 0 0 0 0 0 0 0 0 0 0 0 0 0 0 0 0 0 0 0 0 0 0 0 0 0 0 0 0 0 0 0 0 0 0 0 0 0 0 0 0 0 0 0 0 0 0 0 0 0 0 0 0 0 0 0 0 0 0 0 0 0 0 0 0 0 0 0 0 137 134 132 130 128 125 121 116 112 107 105 105 104 105 105 104 106 104 -193 -193 108 110 110 112 114 111 111 111 111 109 109 110 108 107 110 109 110 114 114 114 114 111 108 107 107 106 104 103 -225 -225 -225 -225 -225 -225 -225 -225 -225 -225 -225 -225 -225 -225 -225 -225 -225 -225 -225 -225 -225 -225 -225 -225 -225 -225 -225 -225 -225 -225 -225 -225 -225 -225 -225 -225 -225 -225 -225 -225 -225 -225 -225 -225 -225 -225 -225 -225 -225 -225 -225 -225 -225 -225 -225 -225 -225 -225 -225 -225 -225 -225 -225 -225 -225 -225 -225 -225 -225 -225 -225 -225 -225 -225 -225 -225 -225 -225 -225 -225 -225 -225 -225 -225 -225 -225 -225 -225 -225 -225 -225 -225 -225 -225 -225 -225 -225 -225 -225 -225 -225 -225 -225 -225 -225 109 106 106 106 107 107 106 105 106 105 107 111 114 115 119 118 119 119 119 118 119 118 118 117 118 118 118 119 121 121 123 124 124 125 125 128 129 128 132 130 127 131 129 128 127 127 126 123 127 129 126 125 127 129 131 133 132 135 137 139 144 144 145 146 147 148 149 149 150 146 149 150 153 156 156 161 164 166 167 168 169 170 169 169 169 170 170 171 170 171 171 172 173 0 0 0 0 0
    0 0 0 0 0 0 0 0 0 0 0 0 0 0 0 0 0 0 0 0 0 0 0 0 0 0 0 0 0 0 0 0 0 0 0 0 0 0 0 0 0 0 0 0 0 0 0 0 0 0 0 0 0 0 0 0 0 0 0 0 0 0 0 0 0 0 0 0 0 135 133 132 131 130 128 124 120 120 117 112 111 108 107 106 106 -193 90 -209 -193 -193 113 112 115 116 114 113 113 113 111 112 112 110 111 114 114 116 117 117 116 117 114 109 108 108 106 104 103 -225 -225 -225 -225 -225 -225 -225 -225 -225 -225 -225 -225 -225 -225 -225 -225 -225 -225 -225 -225 -225 -225 -225 -225 -225 -225 -225 -225 -225 -225 -225 -225 -225 -225 -225 -225 -225 -225 -225 -225 -225 -225 -225 -225 -225 -225 -225 -225 -225 -225 -225 -225 -225 -225 -225 -225 -225 -225 -225 -225 -225 -225 -225 -225 -225 -225 -225 -225 -225 -225 -225 -225 -225 -225 -225 -225 -225 -225 -225 -225 -225 -225 -225 -225 -225 -225 -225 -225 -225 -225 -225 -225 -225 -225 -225 -225 -225 -225 -225 -225 -225 -225 -225 -225 -225 110 107 107 106 106 106 104 103 105 103 106 114 119 120 122 121 122 122 121 121 122 120 120 120 121 121 121 121 125 123 124 127 127 127 126 128 130 128 132 131 127 130 131 129 128 127 126 124 127 129 127 125 128 129 129 132 133 135 137 138 143 143 144 145 146 148 148 148 149 146 149 150 153 155 155 158 162 164 165 167 169 170 169 168 168 169 170 170 170 170 169 170 172 0 0 0 0 0
    0 0 0 0 0 0 0 0 0 0 0 0 0 0 0 0 0 0 0 0 0 0 0 0 0 0 0 0 0 0 0 0 0 0 0 0 0 0 0 0 0 0 0 0 0 0 0 0 0 0 0 0 0 0 0 0 0 0 0 0 0 0 0 0 0 0 0 0 0 134 133 131 130 130 127 123 119 119 118 115 114 109 108 106 105 99 90 -193 -193 107 111 110 113 115 114 114 113 113 111 112 114 114 115 116 117 119 119 119 118 118 117 112 111 110 108 105 -225 -225 -225 -225 -225 -225 -225 -225 -225 -225 -225 -225 -225 -225 -225 -225 -225 -225 -225 -225 -225 -225 -225 -225 -225 -225 -225 -225 -225 -225 -225 -225 -225 -225 -225 -225 -225 -225 -225 -225 -225 -225 -225 -225 -225 -225 -225 -225 -225 -225 -225 -225 -225 -225 -225 -225 -225 -225 -225 -225 -225 -225 -225 -225 -225 -225 -225 -225 -225 -225 -225 -225 -225 -225 -225 -225 -225 -225 -225 -225 -225 -225 -225 -225 -225 -225 -225 -225 -225 -225 -225 -225 -225 -225 -225 -225 -225 -225 -225 -225 -225 -225 -225 -225 -225 -225 109 107 108 107 107 106 106 105 108 107 111 117 121 121 123 123 123 125 123 123 124 122 124 122 123 124 122 123 126 124 125 127 127 127 127 129 131 130 134 133 130 133 134 132 131 131 129 127 129 131 129 126 129 129 127 131 132 135 136 137 142 142 144 145 146 148 148 149 149 147 150 151 153 156 156 158 161 163 164 167 168 169 168 167 168 169 170 170 169 169 168 170 171 0 0 0 0 0
    0 0 0 0 0 0 0 0 0 0 0 0 0 0 0 0 0 0 0 0 0 0 0 0 0 0 0 0 0 0 0 0 0 0 0 0 0 0 0 0 0 0 0 0 0 0 0 0 0 0 0 0 0 0 0 0 0 0 0 0 0 0 0 0 0 0 0 0 0 133 131 129 128 128 125 123 119 120 119 115 114 110 108 107 106 104 102 98 101 108 111 109 112 113 114 114 113 114 112 114 117 118 118 119 119 121 120 120 120 119 118 116 115 113 111 -225 -225 -225 -225 -225 -225 -225 -225 -225 -225 -225 -225 -225 -225 -225 -225 -225 -225 -225 -225 -225 -225 -225 -225 -225 -225 -225 -225 -225 -225 -225 -225 -225 -225 -225 -225 -225 -225 -225 -225 -225 -225 -225 -225 -225 -225 -225 -225 -225 -225 -225 -225 -225 -225 -225 -225 -225 -225 -225 -225 -225 -225 -225 -225 -225 -225 -225 -225 -225 -225 -225 -225 -225 -225 -225 -225 -225 -225 -225 -225 -225 -225 -225 -225 -225 -225 -225 -225 -225 -225 -225 -225 -225 -225 -225 -225 -225 -225 -225 -225 -225 -225 -225 -225 -225 -225 -225 109 108 110 108 108 108 107 106 109 110 117 119 122 122 124 123 125 126 124 124 124 123 126 124 126 126 124 124 126 125 125 126 127 126 127 129 132 132 135 134 132 134 134 133 132 131 129 128 128 131 128 126 128 128 126 130 132 135 136 137 141 142 144 145 146 147 148 149 150 147 150 151 153 155 156 158 161 162 164 166 167 167 166 166 167 167 169 170 168 168 167 169 170 0 0 0 0 0
    0 0 0 0 0 0 0 0 0 0 0 0 0 0 0 0 0 0 0 0 0 0 0 0 0 0 0 0 0 0 0 0 0 0 0 0 0 0 0 0 0 0 0 0 0 0 0 0 0 0 0 0 0 0 0 0 0 0 0 0 0 0 0 0 0 0 0 0 0 129 130 128 127 126 125 126 120 120 120 112 111 108 107 107 107 106 105 105 106 112 111 110 112 113 114 114 114 115 113 116 119 120 120 120 121 122 122 121 121 119 119 117 117 115 -225 -225 -225 -225 -225 -225 -225 -225 -225 -225 -225 -225 -225 -225 -225 -225 -225 -225 -225 -225 -225 -225 -225 -225 -225 -225 -225 -225 -225 -225 -225 -225 -225 -225 -225 -225 -225 -225 -225 -225 -225 -225 -225 -225 -225 -225 -225 -225 -225 -225 -225 -225 -225 -225 -225 -225 -225 -225 -225 -225 -225 -225 -225 -225 -225 -225 -225 -225 -225 -225 -225 -225 -225 -225 -225 -225 -225 -225 -225 -225 -225 -225 -225 -225 -225 -225 -225 -225 -225 -225 -225 -225 -225 -225 -225 -225 -225 -225 -225 -225 -225 -225 -225 -225 -225 -225 -225 -225 -225 111 111 109 109 108 107 107 110 113 117 121 125 124 126 124 125 128 125 125 125 124 127 126 128 128 126 126 127 126 127 128 128 127 128 131 133 133 135 135 133 135 135 134 132 131 128 129 129 132 130 128 130 130 128 132 133 135 136 137 140 142 143 144 146 147 148 149 150 148 151 151 153 155 156 158 162 163 164 166 166 166 166 166 166 166 168 169 167 167 167 169 170 0 0 0 0 0
    0 0 0 0 0 0 0 0 0 0 0 0 0 0 0 0 0 0 0 0 0 0 0 0 0 0 0 0 0 0 0 0 0 0 0 0 0 0 0 0 0 0 0 0 0 0 0 0 0 0 0 0 0 0 0 0 0 0 0 0 0 0 0 0 0 0 0 0 0 129 130 129 127 125 126 126 118 118 114 107 107 107 106 107 107 106 104 103 105 113 111 110 112 113 114 115 115 116 114 118 122 122 122 122 122 123 123 122 121 120 120 118 118 -225 -225 -225 -225 -225 -225 -225 -225 -225 -225 -225 -225 -225 -225 -225 -225 -225 -225 -225 -225 -225 -225 -225 -225 -225 -225 -225 -225 -225 -225 -225 -225 -225 -225 -225 -225 -225 -225 -225 -225 -225 -225 -225 -225 -225 -225 -225 -225 -225 -225 -225 -225 -225 -225 -225 -225 -225 -225 -225 -225 -225 -225 -225 -225 -225 -225 -225 -225 -225 -225 -225 -225 -225 -225 -225 -225 -225 -225 -225 -225 -225 -225 -225 -225 -225 -225 -225 -225 -225 -225 -225 -225 -225 -225 -225 -225 -225 -225 -225 -225 -225 -225 -225 -225 -225 -225 -225 -225 -225 -225 -193 110 108 108 105 105 106 112 119 121 124 129 127 129 127 127 130 126 126 127 125 128 127 130 131 128 129 130 129 129 130 130 130 130 132 134 134 135 135 133 134 135 134 132 131 128 131 131 135 134 131 133 134 132 135 134 134 134 136 139 140 142 144 146 148 149 150 150 148 150 150 153 154 155 157 161 162 164 166 167 167 166 166 166 166 168 168 166 165 165 168 168 0 0 0 0 0
    0 0 0 0 0 0 0 0 0 0 0 0 0 0 0 0 0 0 0 0 0 0 0 0 0 0 0 0 0 0 0 0 0 0 0 0 0 0 0 0 0 0 0 0 0 0 0 0 0 0 0 0 0 0 0 0 0 0 0 0 0 0 0 0 0 0 0 0 0 130 131 129 128 126 126 127 117 117 110 107 109 109 107 109 108 107 106 -209 108 -193 113 111 113 114 116 116 116 118 117 121 127 126 126 126 126 126 125 123 122 121 120 119 -225 -225 -225 -225 -225 -225 -225 -225 -225 -225 -225 -225 -225 -225 -225 -225 -225 -225 -225 -225 -225 -225 -225 -225 -225 -225 -225 -225 -225 -225 -225 -225 -225 -225 -225 -225 -225 -225 -225 -225 -225 -225 -225 -225 -225 -225 -225 -225 -225 -225 -225 -225 -225 -225 -225 -225 -225 -225 -225 -225 -225 -225 -225 -225 -225 -225 -225 -225 -225 -225 -225 -225 -225 -225 -225 -225 -225 -225 -225 -225 -225 -225 -225 -225 -225 -225 -225 -225 -225 -225 -225 -225 -225 -225 -225 -225 -225 -225 -225 -225 -225 -225 -225 -225 -225 -225 -225 -225 -225 -225 -225 -225 -225 92 93 93 96 99 103 114 121 124 133 130 132 129 128 131 127 127 128 125 128 126 130 131 130 131 131 131 131 132 132 131 132 133 134 135 135 135 134 134 136 134 133 133 132 133 134 137 137 135 136 137 135 136 136 135 133 135 138 140 142 143 146 147 149 150 150 148 150 149 152 154 154 155 157 159 162 165 166 167 166 166 166 166 168 167 166 165 165 167 168 0 0 0 0 0
    0 0 0 0 0 0 0 0 0 0 0 0 0 0 0 0 0 0 0 0 0 0 0 0 0 0 0 0 0 0 0 0 0 0 0 0 0 0 0 0 0 0 0 0 0 0 0 0 0 0 0 0 0 0 0 0 0 0 0 0 0 0 0 0 0 0 0 0 0 127 129 127 126 124 124 123 114 114 108 107 108 110 107 111 111 -209 118 -193 -209 -209 117 115 116 117 117 118 118 119 120 124 132 131 130 130 130 127 125 123 123 121 121 -225 -225 -225 -225 -225 -225 -225 -225 -225 -225 -225 -225 -225 -225 -225 -225 -225 -225 -225 -225 -225 -225 -225 -225 -225 -225 -225 -225 -225 -225 -225 -225 -225 -225 -225 -225 -225 -225 -225 -225 -225 -225 -225 -225 -225 -225 -225 -225 -225 -225 -225 -225 -225 -225 -225 -225 -225 -225 -225 -225 -225 -225 -225 -225 -225 -225 -225 -225 -225 -225 -225 -225 -225 -225 -225 -225 -225 -225 -225 -225 -225 -225 -225 -225 -225 -225 -225 -225 -225 -225 -225 -225 -225 -225 -225 -225 -225 -225 -225 -225 -225 -225 -225 -225 -225 -225 -225 -225 -225 -225 -225 -225 -225 -225 95 95 95 98 101 103 113 121 124 133 132 133 130 129 132 127 126 128 126 127 127 131 131 131 132 132 131 131 133 133 132 133 134 135 135 135 136 134 135 136 134 134 134 133 135 135 138 137 137 137 138 135 137 137 136 133 134 138 140 142 143 145 146 148 149 149 147 149 148 151 153 154 155 156 158 162 165 166 166 166 166 166 166 168 167 166 166 166 169 170 0 0 0 0 0
    0 0 0 0 0 0 0 0 0 0 0 0 0 0 0 0 0 0 0 0 0 0 0 0 0 0 0 0 0 0 0 0 0 0 0 0 0 0 0 0 0 0 0 0 0 0 0 0 0 0 0 0 0 0 0 0 0 0 0 0 0 0 0 0 0 0 0 0 0 125 127 125 123 122 123 123 114 115 108 107 109 114 111 116 116 122 122 124 125 124 119 118 118 118 118 119 119 121 122 127 135 133 133 132 130 126 126 125 124 122 -225 -225 -225 -225 -225 -225 -225 -225 -225 -225 -225 -225 -225 -225 -225 -225 -225 -225 -225 -225 -225 -225 -225 -225 -225 -225 -225 -225 -225 -225 -225 -225 -225 -225 -225 -225 -225 -225 -225 -225 -225 -225 -225 -225 -225 -225 -225 -225 -225 -225 -225 -225 -225 -225 -225 -225 -225 -225 -225 -225 -225 -225 -225 -225 -225 -225 -225 -225 -225 -225 -225 -225 -225 -225 -225 -225 -225 -225 -225 -225 -225 -225 -225 -225 -225 -225 -225 -225 -225 -225 -225 -225 -225 -225 -225 -225 -225 -225 -225 -225 -225 -225 -225 -225 -225 -225 -225 -225 -225 -225 -225 -225 -225 -225 -225 -225 -225 100 102 104 105 118 125 125 132 132 132 131 130 132 127 126 128 127 127 128 131 132 132 133 133 132 132 134 135 134 135 135 136 136 136 136 135 135 136 134 134 135 133 134 134 137 137 136 137 138 134 138 138 137 132 133 137 139 141 142 143 142 145 147 147 146 147 146 150 153 154 155 157 159 162 166 166 167 166 166 166 167 168 167 166 166 167 170 172 0 0 0 0 0
    0 0 0 0 0 0 0 0 0 0 0 0 0 0 0 0 0 0 0 0 0 0 0 0 0 0 0 0 0 0 0 0 0 0 0 0 0 0 0 0 0 0 0 0 0 0 0 0 0 0 0 0 0 0 0 0 0 0 0 0 0 0 0 0 0 0 0 0 0 123 124 123 121 121 122 124 116 118 110 110 115 119 119 120 121 123 124 125 126 125 121 119 120 119 120 121 122 124 127 134 138 136 135 134 130 127 127 125 124 -225 -225 -225 -225 -225 -225 -225 -225 -225 -225 -225 -225 -225 -225 -225 -225 -225 -225 -225 -225 -225 -225 -225 -225 -225 -225 -225 -225 -225 -225 -225 -225 -225 -225 -225 -225 -225 -225 -225 -225 -225 -225 -225 -225 -225 -225 -225 -225 -225 -225 -225 -225 -225 -225 -225 -225 -225 -225 -225 -225 -225 -225 -225 -225 -225 -225 -225 -225 -225 -225 -225 -225 -225 -225 -225 -225 -225 -225 -225 -225 -225 -225 -225 -225 -225 -225 -225 -225 -225 -225 -225 -225 -225 -225 -225 -225 -225 -225 -225 -225 -225 -225 -225 -225 -225 -225 -225 -225 -225 -225 -225 -225 -225 -225 -225 -225 -225 -225 -225 -225 106 112 120 123 122 130 125 124 123 123 124 122 123 123 124 125 127 132 132 133 133 133 133 132 134 135 134 135 135 136 137 137 137 136 136 137 136 137 137 136 137 137 140 140 139 139 140 139 142 141 141 137 138 141 142 144 144 143 143 144 147 147 145 147 147 152 154 156 156 157 159 162 166 167 167 166 167 167 168 169 168 167 167 168 170 172 0 0 0 0 0
    0 0 0 0 0 0 0 0 0 0 0 0 0 0 0 0 0 0 0 0 0 0 0 0 0 0 0 0 0 0 0 0 0 0 0 0 0 0 0 0 0 0 0 0 0 0 0 0 0 0 0 0 0 0 0 0 0 0 0 0 0 0 0 0 0 0 0 0 0 123 124 124 122 122 122 125 117 120 -209 112 117 -193 -193 -193 122 123 124 125 126 125 122 119 119 119 122 129 127 128 132 136 139 138 137 134 131 128 128 126 -225 -225 -225 -225 -225 -225 -225 -225 -225 -225 -225 -225 -225 -225 -225 -225 -225 -225 -225 -225 -225 -225 -225 -225 -225 -225 -225 -225 -225 -225 -225 -225 -225 -225 -225 -225 -225 -225 -225 -225 -225 -225 -225 -225 -225 -225 -225 -225 -225 -225 -225 -225 -225 -225 -225 -225 -225 -225 -225 -225 -225 -225 -225 -225 -225 -225 -225 -225 -225 -225 -225 -225 -225 -225 -225 -225 -225 -225 -225 -225 -225 -225 -225 -225 -225 -225 -225 -225 -225 -225 -225 -225 -225 -225 -225 -225 -225 -225 -225 -225 -225 -225 -225 -225 -225 -225 -225 -225 -225 -225 -225 -225 -225 -225 -225 -225 -225 -225 -225 -225 -225 -225 -225 -225 -225 -225 -225 119 115 110 108 102 102 103 107 -193 -209 123 129 130 132 132 132 133 133 135 137 135 137 137 138 139 138 138 138 137 139 138 138 138 137 139 139 141 141 140 140 141 142 144 142 145 139 141 144 144 146 145 144 144 144 149 148 147 149 151 154 156 157 156 157 159 162 165 166 167 167 168 168 169 169 169 168 168 169 171 172 0 0 0 0 0
    0 0 0 0 0 0 0 0 0 0 0 0 0 0 0 0 0 0 0 0 0 0 0 0 0 0 0 0 0 0 0 0 0 0 0 0 0 0 0 0 0 0 0 0 0 0 0 0 0 0 0 0 0 0 0 0 0 0 0 0 0 0 0 0 0 0 0 0 0 124 125 125 -193 121 122 126 -209 -209 -209 -209 -209 -209 -193 -209 -193 124 124 125 125 125 122 119 120 122 135 138 137 135 137 138 140 139 137 135 133 131 130 127 -225 -225 -225 -225 -225 -225 -225 -225 -225 -225 -225 -225 -225 -225 -225 -225 -225 -225 -225 -225 -225 -225 -225 -225 -225 -225 -225 -225 -225 -225 -225 -225 -225 -225 -225 -225 -225 -225 -225 -225 -225 -225 -225 -225 -225 -225 -225 -225 -225 -225 -225 -225 -225 -225 -225 -225 -225 -225 -225 -225 -225 -225 -225 -225 -225 -225 -225 -225 -225 -225 -225 -225 -225 -225 -225 -225 -225 -225 -225 -225 -225 -225 -225 -225 -225 -225 -225 -225 -225 -225 -225 -225 -225 -225 -225 -225 -225 -225 -225 -225 -225 -225 -225 -225 -225 -225 -225 -225 -225 -225 -225 -225 -225 -225 -225 -225 -225 -225 -225 -225 -225 -225 -225 -225 -225 -225 -225 -225 -225 -225 96 95 97 101 105 92 92 -209 -193 -193 129 131 131 132 132 136 141 138 140 139 139 140 139 138 139 138 139 137 138 138 137 141 140 143 142 143 143 145 146 148 146 148 142 144 145 145 145 144 143 143 144 149 149 148 149 151 154 155 157 156 157 160 162 165 165 166 167 168 168 168 169 168 169 169 170 172 173 0 0 0 0 0
    0 0 0 0 0 0 0 0 0 0 0 0 0 0 0 0 0 0 0 0 0 0 0 0 0 0 0 0 0 0 0 0 0 0 0 0 0 0 0 0 0 0 0 0 0 0 0 0 0 0 0 0 0 0 0 0 0 0 0 0 0 0 0 0 0 0 0 0 0 126 126 126 -193 -209 123 125 -209 -209 -209 -209 -209 -209 -209 -209 -209 127 126 127 127 127 125 122 126 132 138 139 138 138 139 139 141 140 138 137 135 133 133 -225 -225 -225 -225 -225 -225 -225 -225 -225 -225 -225 -225 -225 -225 -225 -225 -225 -225 -225 -225 -225 -225 -225 -225 -225 -225 -225 -225 -225 -225 -225 -225 -225 -225 -225 -225 -225 -225 -225 -225 -225 -225 -225 -225 -225 -225 -225 -225 -225 -225 -225 -225 -225 -225 -225 -225 -225 -225 -225 -225 -225 -225 -225 -225 -225 -225 -225 -225 -225 -225 -225 -225 -225 -225 -225 -225 -225 -225 -225 -225 -225 -225 -225 -225 -225 -225 -225 -225 -225 -225 -225 -225 -225 -225 -225 -225 -225 -225 -225 -225 -225 -225 -225 -225 -225 -225 -225 -225 -225 -225 -225 -225 -225 -225 -225 -225 -225 -225 -225 -225 -225 -225 -225 -225 -225 -225 -225 -225 -225 -225 -225 -225 93 95 100 102 89 88 89 84 83 -193 -193 -193 -193 133 137 144 139 141 140 139 140 139 139 139 138 139 138 138 139 138 143 143 146 145 146 148 150 150 151 150 152 148 150 148 147 146 144 143 143 143 147 148 148 149 151 154 155 157 156 156 161 163 165 165 167 168 169 169 169 169 167 169 169 170 172 174 0 0 0 0 0
    0 0 0 0 0 0 0 0 0 0 0 0 0 0 0 0 0 0 0 0 0 0 0 0 0 0 0 0 0 0 0 0 0 0 0 0 0 0 0 0 0 0 0 0 0 0 0 0 0 0 0 0 0 0 0 0 0 0 0 0 0 0 0 0 0 0 0 0 0 126 126 126 -193 -209 123 125 -209 -193 -193 -209 139 137 -193 -209 -209 132 131 131 132 131 132 129 135 138 140 142 141 140 141 141 142 140 139 138 137 137 -225 -225 -225 -225 -225 -225 -225 -225 -225 -225 -225 -225 -225 -225 -225 -225 -225 -225 -225 -225 -225 -225 -225 -225 -225 -225 -225 -225 -225 -225 -225 -225 -225 -225 -225 -225 -225 -225 -225 -225 -225 -225 -225 -225 -225 -225 -225 -225 -225 -225 -225 -225 -225 -225 -225 -225 -225 -225 -225 -225 -225 -225 -225 -225 -225 -225 -225 -225 -225 -225 -225 -225 -225 -225 -225 -225 -225 -225 -225 -225 -225 -225 -225 -225 -225 -225 -225 -225 -225 -225 -225 -225 -225 -225 -225 -225 -225 -225 -225 -225 -225 -225 -225 -225 -225 -225 -225 -225 -225 -225 -225 -225 -225 -225 -225 -225 -225 -225 -225 -225 -225 -225 -225 -225 -225 -225 -225 -225 -225 -225 -225 -225 -225 -225 92 95 88 88 89 90 86 86 85 83 -177 -193 130 136 143 140 142 141 140 142 141 141 141 139 141 138 139 140 139 144 145 147 146 -193 -193 151 151 151 151 153 149 151 149 147 146 144 143 143 141 146 147 147 149 151 154 154 155 154 155 159 162 165 164 167 169 170 169 169 168 166 168 168 169 171 173 0 0 0 0 0
    0 0 0 0 0 0 0 0 0 0 0 0 0 0 0 0 0 0 0 0 0 0 0 0 0 0 0 0 0 0 0 0 0 0 0 0 0 0 0 0 0 0 0 0 0 0 0 0 0 0 0 0 0 0 0 0 0 0 0 0 0 0 0 0 0 0 0 0 0 126 126 126 -193 -193 124 126 -209 135 -193 -209 -193 -193 -193 -209 -209 133 133 132 133 133 134 135 138 140 142 144 143 142 142 142 141 141 140 139 138 -225 -225 -225 -225 -225 -225 -225 -225 -225 -225 -225 -225 -225 -225 -225 -225 -225 -225 -225 -225 -225 -225 -225 -225 -225 -225 -225 -225 -225 -225 -225 -225 -225 -225 -225 -225 -225 -225 -225 -225 -225 -225 -225 -225 -225 -225 -225 -225 -225 -225 -225 -225 -225 -225 -225 -225 -225 -225 -225 -225 -225 -225 -225 -225 -225 -225 -225 -225 -225 -225 -225 -225 -225 -225 -225 -225 -225 -225 -225 -225 -225 -225 -225 -225 -225 -225 -225 -225 -225 -225 -225 -225 -225 -225 -225 -225 -225 -225 -225 -225 -225 -225 -225 -225 -225 -225 -225 -225 -225 -225 -225 -225 -225 -225 -225 -225 -225 -225 -225 -225 -225 -225 -225 -225 -225 -225 -225 -225 -225 -225 -225 -225 -225 -225 -225 -225 93 89 89 90 92 89 89 88 88 88 100 -177 -177 -177 141 144 143 143 145 144 144 145 142 145 141 141 143 142 147 146 147 146 -193 149 151 152 152 151 154 152 153 150 149 148 147 145 144 141 146 147 147 149 152 154 154 155 154 154 157 161 163 162 165 167 169 168 169 166 165 167 167 169 170 172 0 0 0 0 0
    0 0 0 0 0 0 0 0 0 0 0 0 0 0 0 0 0 0 0 0 0 0 0 0 0 0 0 0 0 0 0 0 0 0 0 0 0 0 0 0 0 0 0 0 0 0 0 0 0 0 0 0 0 0 0 0 0 0 0 0 0 0 0 0 0 0 0 0 0 126 125 125 124 -193 -193 -193 -209 -209 -193 -209 -209 -209 -209 -209 -209 133 133 132 133 133 136 137 139 142 143 145 144 142 142 139 138 138 137 135 133 132 -225 -225 -225 -225 -225 -225 -225 -225 -225 -225 -225 -225 -225 -225 -225 -225 -225 -225 -225 -225 -225 -225 -225 -225 -225 -225 -225 -225 -225 -225 -225 -225 -225 -225 -225 -225 -225 -225 -225 -225 -225 -225 -225 -225 -225 -225 -225 -225 -225 -225 -225 -225 -225 -225 -225 -225 -225 -225 -225 -225 -225 -225 -225 -225 -225 -225 -225 -225 -225 -225 -225 -225 -225 -225 -225 -225 -225 -225 -225 -225 -225 -225 -225 -225 -225 -225 -225 -225 -225 -225 -225 -225 -225 -225 -225 -225 -225 -225 -225 -225 -225 -225 -225 -225 -225 -225 -225 -225 -225 -225 -225 -225 -225 -225 -225 -225 -225 -225 -225 -225 -225 -225 -225 -225 -225 -225 -225 -225 -225 -225 -225 -225 -225 -225 -225 -225 88 88 90 90 90 89 88 88 89 100 114 -177 -177 140 145 143 144 146 145 146 147 144 148 146 145 146 144 148 147 147 146 147 148 150 151 152 152 154 153 154 152 151 149 148 146 145 142 146 147 147 148 151 154 154 155 154 154 157 160 162 162 164 165 167 167 168 166 166 168 168 170 171 173 0 0 0 0 0
    0 0 0 0 0 0 0 0 0 0 0 0 0 0 0 0 0 0 0 0 0 0 0 0 0 0 0 0 0 0 0 0 0 0 0 0 0 0 0 0 0 0 0 0 0 0 0 0 0 0 0 0 0 0 0 0 0 0 0 0 0 0 0 0 0 0 0 0 0 127 127 126 125 -193 -193 -209 -209 -209 -209 -209 -209 -209 -193 -209 138 135 135 133 134 135 138 139 141 145 145 146 144 142 142 138 138 137 136 135 133 134 136 135 -225 -225 -225 -225 -225 -225 -225 -225 -225 -225 -225 -225 -225 -225 -225 -225 -225 -225 -225 -225 -225 -225 -225 -225 -225 -225 -225 -225 -225 -225 -225 -225 -225 -225 -225 -225 -225 -225 -225 -225 -225 -225 -225 -225 -225 -225 -225 -225 -225 -225 -225 -225 -225 -225 -225 -225 -225 -225 -225 -225 -225 -225 -225 -225 -225 -225 -225 -225 -225 -225 -225 -225 -225 -225 -225 -225 -225 -225 -225 -225 -225 -225 -225 -225 -225 -225 -225 -225 -225 -225 -225 -225 -225 -225 -225 -225 -225 -225 -225 -225 -225 -225 -225 -225 -225 -225 -225 -225 -225 -225 -225 -225 -225 -225 -225 -225 -225 -225 -225 -225 -225 -225 -225 -225 -225 -225 -225 -225 -225 -225 -225 -225 -225 -225 -225 87 88 89 90 89 88 88 88 100 111 127 143 140 144 144 144 147 147 148 149 148 151 150 149 149 149 150 149 149 148 148 149 151 151 152 152 154 153 154 153 152 150 149 148 148 145 149 149 149 149 152 154 154 154 153 154 156 159 161 161 164 165 166 167 168 166 166 168 168 169 170 172 0 0 0 0 0
    0 0 0 0 0 0 0 0 0 0 0 0 0 0 0 0 0 0 0 0 0 0 0 0 0 0 0 0 0 0 0 0 0 0 0 0 0 0 0 0 0 0 0 0 0 0 0 0 0 0 0 0 0 0 0 0 0 0 0 0 0 0 0 0 0 0 0 0 0 129 129 129 126 -193 -193 -209 -209 -209 -209 -209 -209 -209 -193 -193 140 137 137 135 135 137 141 142 143 146 146 146 145 142 142 137 137 137 136 135 134 135 137 136 -225 -225 -225 -225 -225 -225 -225 -225 -225 -225 -225 -225 -225 -225 -225 -225 -225 -225 -225 -225 -225 -225 -225 -225 -225 -225 -225 -225 -225 -225 -225 -225 -225 -225 -225 -225 -225 -225 -225 -225 -225 -225 -225 -225 -225 -225 -225 -225 -225 -225 -225 -225 -225 -225 -225 -225 -225 -225 -225 -225 -225 -225 -225 -225 -225 -225 -225 -225 -225 -225 -225 -225 -225 -225 -225 -225 -225 -225 -225 -225 -225 -225 -225 -225 -225 -225 -225 -225 -225 -225 -225 -225 -225 -225 -225 -225 -225 -225 -225 -225 -225 -225 -225 -225 -225 -225 -225 -225 -225 -225 -225 -225 -225 -225 -225 -225 -225 -225 -225 -225 -225 -225 -225 -225 -225 -225 -225 -225 -225 -225 -225 -225 -225 -225 -225 -225 88 89 90 89 88 88 89 98 108 124 140 138 143 144 145 147 148 149 150 149 152 151 150 151 151 151 150 150 148 149 149 151 151 152 151 153 152 154 153 152 151 150 149 150 148 152 152 152 152 154 155 155 154 153 153 155 157 159 158 162 164 167 168 169 167 167 168 167 168 169 170 0 0 0 0 0
    0 0 0 0 0 0 0 0 0 0 0 0 0 0 0 0 0 0 0 0 0 0 0 0 0 0 0 0 0 0 0 0 0 0 0 0 0 0 0 0 0 0 0 0 0 0 0 0 0 0 0 0 0 0 0 0 0 0 0 0 0 0 0 0 0 0 0 0 0 131 131 130 127 -193 -193 -209 -209 -209 -209 -209 -209 -193 147 148 146 142 142 141 140 144 149 148 147 148 148 147 146 142 141 137 137 137 135 134 134 135 137 136 -225 -225 -225 -225 -225 -225 -225 -225 -225 -225 -225 -225 -225 -225 -225 -225 -225 -225 -225 -225 -225 -225 -225 -225 -225 -225 -225 -225 -225 -225 -225 -225 -225 -225 -225 -225 -225 -225 -225 -225 -225 -225 -225 -225 -225 -225 -225 -225 -225 -225 -225 -225 -225 -225 -225 -225 -225 -225 -225 -225 -225 -225 -225 -225 -225 -225 -225 -225 -225 -225 -225 -225 -225 -225 -225 -225 -225 -225 -225 -225 -225 -225 -225 -225 -225 -225 -225 -225 -225 -225 -225 -225 -225 -225 -225 -225 -225 -225 -225 -225 -225 -225 -225 -225 -225 -225 -225 -225 -225 -225 -225 -225 -225 -225 -225 -225 -225 -225 -225 -225 -225 -225 -225 -225 -225 -225 -225 -225 -225 -225 -225 -225 -225 -225 -225 -225 -225 92 92 90 89 89 90 98 107 122 139 138 143 145 146 148 149 150 151 152 154 153 153 152 153 153 152 151 150 151 152 153 153 153 152 154 153 154 153 153 152 152 151 153 152 153 153 154 153 154 155 155 153 153 152 154 156 157 156 159 161 166 168 169 166 167 168 168 169 169 169 0 0 0 0 0
    0 0 0 0 0 0 0 0 0 0 0 0 0 0 0 0 0 0 0 0 0 0 0 0 0 0 0 0 0 0 0 0 0 0 0 0 0 0 0 0 0 0 0 0 0 0 0 0 0 0 0 0 0 0 0 0 0 0 0 0 0 0 0 0 0 0 0 0 0 132 132 132 -193 -193 -209 -209 -209 -209 -209 -209 -209 142 147 149 147 145 146 147 146 151 153 151 150 150 149 149 147 142 141 136 136 136 135 134 134 135 137 136 -225 -225 -225 -225 -225 -225 -225 -225 -225 -225 -225 -225 -225 -225 -225 -225 -225 -225 -225 -225 -225 -225 -225 -225 -225 -225 -225 -225 -225 -225 -225 -225 -225 -225 -225 -225 -225 -225 -225 -225 -225 -225 -225 -225 -225 -225 -225 -225 -225 -225 -225 -225 -225 -225 -225 -225 -225 -225 -225 -225 -225 -225 -225 -225 -225 -225 -225 -225 -225 -225 -225 -225 -225 -225 -225 -225 -225 -225 -225 -225 -225 -225 -225 -225 -225 -225 -225 -225 -225 -225 -225 -225 -225 -225 -225 -225 -225 -225 -225 -225 -225 -225 -225 -225 -225 -225 -225 -225 -225 -225 -225 -225 -225 -225 -225 -225 -225 -225 -225 -225 -225 -225 -225 -225 -225 -225 -225 -225 -225 -225 -225 -225 -225 -225 -225 -225 -225 -225 93 91 89 89 90 97 105 118 -209 137 141 143 144 148 149 151 152 152 156 155 154 154 155 154 154 153 152 152 153 154 154 154 153 154 155 156 154 154 154 153 153 155 154 155 155 154 154 154 154 154 151 151 150 153 155 156 156 160 161 165 167 168 167 167 168 168 169 169 170 0 0 0 0 0
    0 0 0 0 0 0 0 0 0 0 0 0 0 0 0 0 0 0 0 0 0 0 0 0 0 0 0 0 0 0 0 0 0 0 0 0 0 0 0 0 0 0 0 0 0 0 0 0 0 0 0 0 0 0 0 0 0 0 0 0 0 0 0 0 0 0 0 0 0 132 131 -193 -209 -209 -209 -209 -209 -209 -209 -209 -209 141 146 149 147 147 149 150 151 153 154 153 152 152 150 150 147 142 140 135 136 136 134 134 134 135 137 136 -225 -225 -225 -225 -225 -225 -225 -225 -225 -225 -225 -225 -225 -225 -225 -225 -225 -225 -225 -225 -225 -225 -225 -225 -225 -225 -225 -225 -225 -225 -225 -225 -225 -225 -225 -225 -225 -225 -225 -225 -225 -225 -225 -225 -225 -225 -225 -225 -225 -225 -225 -225 -225 -225 -225 -225 -225 -225 -225 -225 -225 -225 -225 -225 -225 -225 -225 -225 -225 -225 -225 -225 -225 -225 -225 -225 -225 -225 -225 -225 -225 -225 -225 -225 -225 -225 -225 -225 -225 -225 -225 -225 -225 -225 -225 -225 -225 -225 -225 -225 -225 -225 -225 -225 -225 -225 -225 -225 -225 -225 -225 -225 -225 -225 -225 -225 -225 -225 -225 -225 -225 -225 -225 -225 -225 -225 -225 -225 -225 -225 -225 -225 -225 -225 -225 -225 -225 -225 -225 93 90 90 91 97 103 103 99 -177 -177 141 142 147 151 152 154 154 157 156 154 155 156 155 155 153 153 153 154 155 155 155 155 157 158 159 157 157 156 155 155 157 155 156 156 156 156 155 156 155 152 152 151 153 156 156 157 161 162 164 166 167 166 167 167 168 168 169 169 0 0 0 0 0</data></disparity>
</opencv_storage>
