<?xml version="1.0"?>
<opencv_storage>
<gps_time_stamp>320326</gps_time_stamp>
<gps_x>-1.2427091598510742e+001</gps_x>
<gps_y>1.0837179183959961e+001</gps_y>
<gps_z>-1.9890942573547363e+000</gps_z>
<image_time_stamp>311159</image_time_stamp>
<disparity type_id="opencv-matrix">
  <rows>89</rows>
  <cols>320</cols>
  <dt>s</dt>
  <data>
    0 0 0 0 0 0 0 0 0 0 0 0 0 0 0 0 0 0 0 0 0 0 0 0 0 0 0 0 0 0 0 0 0 0 0 0 0 0 0 0 0 0 0 0 0 0 0 0 0 0 0 0 0 0 0 0 0 0 0 0 0 0 0 0 0 0 0 0 0 53 55 54 53 52 50 50 50 48 49 47 47 48 47 48 46 45 48 44 43 41 -193 -209 0 0 0 0 0 0 0 0 0 0 0 0 0 0 0 0 0 0 0 0 0 9 10 10 0 10 10 9 9 9 0 0 0 9 0 0 10 12 11 12 15 11 11 10 10 10 0 0 0 0 0 9 23 14 17 14 14 13 13 14 13 11 13 11 12 11 11 11 10 11 11 12 12 11 13 13 13 13 13 13 13 12 14 13 13 13 13 11 12 11 12 11 12 11 11 11 11 11 12 11 11 11 11 12 13 14 20 -209 -209 -209 45 48 51 52 52 54 55 52 55 56 52 53 52 52 54 57 56 53 49 57 67 -177 76 -209 -177 -177 -193 84 88 -193 85 92 89 86 87 88 90 89 89 91 -193 92 101 102 102 103 104 103 107 108 108 112 109 111 113 113 115 116 117 116 115 121 -177 -177 124 127 -193 125 130 128 -193 129 130 -193 128 132 -193 -193 895 -193 -209 -193 -193 117 115 -193 -193 115 114 -193 -209 -193 -209 -209 -193 -209 -193 18 19 -193 184 184 185 186 186 191 195 -209 -193 -209 -209 -209 -209 0 0 0 0 0
    0 0 0 0 0 0 0 0 0 0 0 0 0 0 0 0 0 0 0 0 0 0 0 0 0 0 0 0 0 0 0 0 0 0 0 0 0 0 0 0 0 0 0 0 0 0 0 0 0 0 0 0 0 0 0 0 0 0 0 0 0 0 0 0 0 0 0 0 0 53 54 54 52 51 49 50 50 48 49 48 47 48 47 48 46 44 46 43 42 41 -193 -209 -193 0 0 0 0 0 0 0 0 0 0 0 0 0 0 0 0 0 0 0 0 10 11 12 9 11 11 9 9 10 9 9 9 9 9 9 10 13 11 12 14 10 11 10 10 10 0 0 0 0 9 8 23 13 18 14 14 13 13 14 13 11 13 11 12 11 12 12 11 12 12 12 13 12 13 14 13 13 13 13 12 12 14 13 12 14 13 12 13 12 12 12 12 11 11 11 11 11 11 10 10 10 9 10 11 12 19 -209 -177 -209 45 50 53 54 54 55 56 53 57 57 54 54 53 53 54 58 -193 54 51 57 65 -193 72 -209 343 347 358 83 -193 -209 84 91 88 85 87 87 90 89 89 91 -193 92 101 102 102 103 105 104 107 107 107 111 108 110 113 113 115 116 118 116 -193 120 -177 -177 -193 -193 -193 124 130 128 -193 129 130 129 127 132 -193 -193 895 -193 -193 -209 -193 -209 115 -193 -193 114 113 115 -193 -193 -209 -209 26 -193 -193 17 16 -193 -193 183 183 184 185 188 191 -193 202 -209 -209 -209 -209 0 0 0 0 0
    0 0 0 0 0 0 0 0 0 0 0 0 0 0 0 0 0 0 0 0 0 0 0 0 0 0 0 0 0 0 0 0 0 0 0 0 0 0 0 0 0 0 0 0 0 0 0 0 0 0 0 0 0 0 0 0 0 0 0 0 0 0 0 0 0 0 0 0 0 53 55 54 52 51 49 49 51 49 50 48 48 48 48 48 47 44 45 41 41 41 -193 -209 -209 0 0 0 0 0 0 0 0 0 0 0 0 0 0 0 0 0 10 10 11 12 13 13 11 12 11 9 10 10 9 9 9 10 9 0 9 11 10 10 11 0 9 0 9 9 0 0 0 0 9 0 21 14 18 14 15 14 14 14 14 12 13 11 12 12 12 12 11 12 12 12 14 12 13 14 12 13 12 12 12 12 13 13 12 14 13 12 14 13 12 12 12 11 11 11 11 11 11 10 10 10 9 10 10 11 18 -209 -177 -193 47 52 54 56 55 56 57 52 57 57 55 55 54 55 55 60 -193 55 54 57 -177 -193 71 -193 343 346 356 -193 -193 -209 -193 -209 -193 84 86 87 89 89 89 91 -177 93 101 102 102 103 105 104 108 108 108 111 108 110 113 114 116 116 118 116 706 120 -177 -193 -209 -193 791 123 129 128 -193 129 130 129 127 132 -193 891 895 -193 899 109 -193 -209 115 115 -193 114 113 -193 -193 -209 -177 -209 23 -193 23 17 15 -193 180 182 182 183 183 186 188 -193 -193 -209 -209 -209 -209 0 0 0 0 0
    0 0 0 0 0 0 0 0 0 0 0 0 0 0 0 0 0 0 0 0 0 0 0 0 0 0 0 0 0 0 0 0 0 0 0 0 0 0 0 0 0 0 0 0 0 0 0 0 0 0 0 0 0 0 0 0 0 0 0 0 0 0 0 0 0 0 0 0 0 54 55 54 53 51 50 50 52 49 50 49 48 48 48 49 47 44 45 42 42 42 -193 -209 -209 0 0 0 0 0 0 0 0 0 0 0 0 0 0 0 0 0 11 10 12 12 13 13 11 12 12 10 10 9 9 9 9 10 9 0 0 10 9 0 9 0 0 0 9 9 0 0 0 0 10 11 19 14 18 15 15 15 14 14 14 12 13 11 13 12 11 12 12 12 12 13 14 12 13 14 12 13 13 13 12 12 13 13 12 14 14 12 13 13 12 12 12 12 11 11 12 11 11 11 10 10 9 9 9 0 15 -209 -177 48 51 53 55 57 56 56 57 52 57 57 56 57 55 -193 56 61 60 56 56 57 -177 -193 69 -193 343 345 354 -193 -209 -209 -193 -209 -193 82 85 86 89 89 89 91 -177 93 101 103 103 103 106 105 108 108 108 112 108 110 113 114 116 116 118 115 706 -193 -177 -209 -193 -193 791 -193 129 128 -193 129 129 129 126 131 -193 -193 894 -193 898 110 -193 -209 116 -193 -193 -193 113 -193 -193 -193 -177 -193 22 22 -193 16 14 -193 179 181 181 182 182 -177 187 -193 -193 -193 -209 -209 -209 0 0 0 0 0
    0 0 0 0 0 0 0 0 0 0 0 0 0 0 0 0 0 0 0 0 0 0 0 0 0 0 0 0 0 0 0 0 0 0 0 0 0 0 0 0 0 0 0 0 0 0 0 0 0 0 0 0 0 0 0 0 0 0 0 0 0 0 0 0 0 0 0 0 0 53 54 54 53 51 50 50 52 50 51 49 48 48 48 49 48 45 46 43 44 44 -193 -193 -193 -209 0 0 0 0 0 0 0 0 0 9 0 0 0 9 9 10 12 12 13 13 13 14 12 13 13 11 11 10 10 10 9 11 10 0 9 10 9 0 9 0 0 9 9 9 9 9 9 9 10 11 17 14 18 14 15 15 14 14 14 12 13 11 12 12 11 12 12 12 13 14 14 13 13 15 13 13 13 13 13 12 14 14 12 14 14 12 14 14 12 12 12 12 12 12 12 12 12 12 10 10 9 0 0 0 10 -209 -193 -193 52 54 55 57 56 56 57 52 57 57 58 58 -193 -193 -193 63 62 -193 57 57 -177 -193 67 -193 343 -193 -177 -209 -209 -209 -209 -193 -193 82 84 86 89 89 89 91 -193 93 101 103 103 103 106 105 108 108 108 112 108 110 113 115 116 116 -193 -193 705 -193 -193 708 -193 -193 791 -209 128 128 -193 129 130 129 -193 132 132 -193 894 -193 -193 115 -209 -209 -193 -193 -193 -193 -193 -193 21 -177 -177 -177 21 22 -193 16 14 -193 178 179 180 181 180 -177 -209 -209 -193 -193 -209 -209 -209 0 0 0 0 0
    0 0 0 0 0 0 0 0 0 0 0 0 0 0 0 0 0 0 0 0 0 0 0 0 0 0 0 0 0 0 0 0 0 0 0 0 0 0 0 0 0 0 0 0 0 0 0 0 0 0 0 0 0 0 0 0 0 0 0 0 0 0 0 0 0 0 0 0 0 52 54 53 53 51 50 50 52 50 51 49 48 48 48 49 48 45 47 44 45 45 -193 -193 45 -193 -193 -193 0 0 0 0 0 0 9 10 10 10 10 11 10 12 15 14 15 14 14 15 13 14 14 12 12 11 11 11 10 11 10 8 9 9 0 0 9 0 0 0 9 9 0 0 9 9 10 10 15 14 16 14 14 15 14 14 14 12 13 12 12 12 11 12 12 12 13 14 14 13 13 15 13 13 14 13 13 13 14 14 12 14 13 12 13 14 11 12 11 12 12 12 13 13 12 12 11 10 9 9 0 0 11 -209 -193 -193 49 52 54 56 55 56 56 52 57 58 61 59 57 58 59 64 63 58 58 57 -177 -193 -177 -193 343 21 -193 -209 -209 -209 -209 -193 -209 81 84 86 -193 88 89 91 -193 92 101 103 103 103 105 105 108 108 108 111 108 110 113 115 116 116 -193 -193 705 707 708 707 707 711 -193 -209 128 128 -193 130 130 130 -193 133 133 -193 -193 143 -209 -209 -209 -209 -209 -193 -193 18 -193 -193 -177 -177 -177 -177 21 21 -193 15 -193 173 177 178 179 180 179 -177 -209 -209 -193 -193 -209 -209 -209 0 0 0 0 0
    0 0 0 0 0 0 0 0 0 0 0 0 0 0 0 0 0 0 0 0 0 0 0 0 0 0 0 0 0 0 0 0 0 0 0 0 0 0 0 0 0 0 0 0 0 0 0 0 0 0 0 0 0 0 0 0 0 0 0 0 0 0 0 0 0 0 0 0 0 52 53 53 52 51 49 50 52 50 51 49 49 48 48 49 48 45 47 45 46 46 -193 46 46 -193 -193 -177 -193 0 0 0 0 9 9 10 10 10 10 12 11 13 16 15 16 16 15 16 14 16 15 13 13 13 12 12 11 12 11 10 10 10 0 0 0 0 0 0 0 0 9 9 9 9 10 10 14 13 15 14 14 14 13 13 13 12 12 11 11 11 10 12 12 11 13 14 14 14 14 15 13 13 14 13 13 13 14 14 12 14 13 11 12 13 10 10 11 11 11 12 12 12 11 12 10 10 9 0 0 0 11 -177 -193 46 47 50 53 55 54 55 55 52 58 58 63 60 58 60 60 65 64 60 58 57 -177 -193 -177 14 -193 21 -193 -209 -209 -209 -193 -193 -209 81 83 86 -209 88 89 91 92 92 101 103 102 102 104 104 107 107 107 111 108 110 113 116 117 116 -193 -193 705 707 707 707 707 710 708 -193 127 128 129 130 131 130 -193 133 133 -193 -193 143 -209 -209 -193 -209 -209 -193 -193 19 -193 -193 -193 -193 -177 -177 21 21 -193 14 -193 172 175 176 178 179 178 -177 -209 -193 -193 -193 -209 -209 -209 0 0 0 0 0
    0 0 0 0 0 0 0 0 0 0 0 0 0 0 0 0 0 0 0 0 0 0 0 0 0 0 0 0 0 0 0 0 0 0 0 0 0 0 0 0 0 0 0 0 0 0 0 0 0 0 0 0 0 0 0 0 0 0 0 0 0 0 0 0 0 0 0 0 0 50 53 52 51 50 49 50 52 49 51 49 49 48 48 49 48 46 48 45 46 46 -193 47 46 -193 -177 -177 -177 -193 0 0 0 9 10 11 12 11 12 13 12 13 17 16 17 17 16 16 15 16 15 14 13 14 13 13 13 14 13 13 12 11 0 0 0 0 0 0 0 0 0 0 9 9 11 11 13 12 13 13 13 14 12 12 12 11 12 11 11 11 10 11 11 11 13 14 14 15 14 15 13 14 14 13 13 13 13 13 12 13 12 11 11 12 10 10 11 11 11 12 11 11 11 12 10 9 0 0 0 0 11 -177 -209 45 46 49 52 54 54 54 55 51 57 58 64 60 59 61 62 66 65 61 59 56 -177 -193 -177 14 -193 20 21 18 -209 -209 -193 -193 -209 80 83 85 -209 88 89 91 92 92 100 102 101 101 103 104 106 106 107 110 108 111 114 117 117 117 -193 -193 704 706 707 706 706 710 707 711 127 128 130 131 131 131 -193 134 134 -209 -193 143 -193 -193 14 -209 -193 -193 -193 19 21 -193 -177 -177 -177 -177 -177 20 -193 13 -193 172 174 175 176 178 176 179 -209 -193 -193 -193 -209 -193 -209 0 0 0 0 0
    0 0 0 0 0 0 0 0 0 0 0 0 0 0 0 0 0 0 0 0 0 0 0 0 0 0 0 0 0 0 0 0 0 0 0 0 0 0 0 0 0 0 0 0 0 0 0 0 0 0 0 0 0 0 0 0 0 0 0 0 0 0 0 0 0 0 0 0 0 50 52 52 51 51 49 50 52 49 51 50 49 49 48 49 48 46 48 46 47 46 46 48 47 48 -193 -177 -193 -209 0 0 0 10 11 12 13 12 13 14 13 14 17 16 18 18 17 18 15 16 15 15 14 13 14 14 13 16 14 17 13 13 9 0 9 0 0 0 0 0 0 0 9 9 11 11 12 12 12 12 12 13 12 12 12 11 11 11 11 11 10 11 11 11 13 14 14 15 14 15 13 14 14 13 13 13 13 13 12 13 12 11 11 12 10 10 10 11 11 12 11 11 11 11 11 9 9 0 0 0 12 -209 -209 46 45 48 51 54 53 53 54 49 57 58 65 61 60 61 63 66 66 62 60 56 -177 -193 -209 14 20 20 20 18 -209 -209 -177 -193 -209 79 82 85 -209 88 89 92 92 92 100 101 100 100 102 103 105 106 106 109 108 111 115 -193 118 117 118 115 704 706 706 706 705 709 707 -177 127 128 131 -193 -193 132 -193 135 -193 -209 139 143 -193 13 15 -193 -193 -193 -193 19 21 23 -177 -177 -177 -177 20 19 -193 12 -193 172 174 174 176 177 -177 -177 -209 -193 -209 -209 -209 -193 -209 0 0 0 0 0
    0 0 0 0 0 0 0 0 0 0 0 0 0 0 0 0 0 0 0 0 0 0 0 0 0 0 0 0 0 0 0 0 0 0 0 0 0 0 0 0 0 0 0 0 0 0 0 0 0 0 0 0 0 0 0 0 0 0 0 0 0 0 0 0 0 0 0 0 0 51 53 52 52 51 50 51 52 49 51 50 50 49 48 49 48 47 49 47 47 46 46 50 47 48 47 -193 -193 -209 -193 0 0 10 11 13 14 14 15 15 15 15 18 17 19 19 19 18 15 16 15 16 15 14 15 15 15 18 17 20 15 15 10 -193 9 9 0 0 0 0 9 9 10 10 11 11 12 13 12 13 13 14 12 12 12 11 11 11 10 11 10 11 11 11 13 14 14 15 14 15 14 14 14 13 13 13 12 13 12 12 12 11 11 11 9 10 10 10 10 11 11 11 10 11 11 10 9 9 0 0 12 -209 -209 46 45 47 51 53 53 53 53 48 57 57 66 61 60 62 64 67 66 63 60 56 -177 -193 -209 14 19 19 20 18 -209 -193 -193 -193 -209 79 82 85 -209 -209 89 92 92 92 100 102 99 100 101 102 104 106 106 109 108 112 115 -193 118 117 118 116 703 705 706 706 705 709 707 -177 127 129 -193 -193 276 -193 -193 136 -193 -209 139 142 -193 14 15 -193 -193 -193 -193 19 21 22 -177 -177 22 21 20 19 12 12 -193 171 173 174 -177 -177 -177 -177 -209 -193 -209 -209 -209 -193 -193 0 0 0 0 0
    0 0 0 0 0 0 0 0 0 0 0 0 0 0 0 0 0 0 0 0 0 0 0 0 0 0 0 0 0 0 0 0 0 0 0 0 0 0 0 0 0 0 0 0 0 0 0 0 0 0 0 0 0 0 0 0 0 0 0 0 0 0 0 0 0 0 0 0 0 51 53 52 52 52 50 51 53 49 50 50 50 49 48 49 48 47 50 48 48 46 47 51 48 49 47 49 50 50 53 -193 10 11 12 14 15 15 17 17 17 17 19 19 20 21 21 19 17 16 16 16 16 14 15 16 15 18 18 20 17 15 11 9 10 11 -193 0 0 0 10 10 11 11 11 12 13 13 12 13 13 14 12 11 12 11 10 11 10 10 9 11 11 11 13 14 14 15 14 15 14 14 14 13 13 13 12 13 12 12 11 10 11 11 9 9 9 10 10 11 11 10 10 11 12 10 10 10 9 9 14 -209 -209 48 45 47 50 53 52 52 53 47 57 57 66 61 61 62 64 67 66 64 61 56 57 -193 -193 14 19 19 19 17 -209 -193 -193 -193 -209 80 82 85 -209 -209 89 92 92 92 99 102 99 100 101 102 103 105 106 109 -193 112 116 118 118 118 118 117 702 -193 -193 -193 -193 710 707 -193 127 130 -193 -193 -193 -193 -193 -193 137 -193 138 141 -193 14 -193 -209 -209 -193 -193 17 20 21 -177 -177 21 20 20 18 12 12 -209 171 173 175 178 -177 -177 -209 -209 -209 -209 -209 -193 -209 -209 0 0 0 0 0
    0 0 0 0 0 0 0 0 0 0 0 0 0 0 0 0 0 0 0 0 0 0 0 0 0 0 0 0 0 0 0 0 0 0 0 0 0 0 0 0 0 0 0 0 0 0 0 0 0 0 0 0 0 0 0 0 0 0 0 0 0 0 0 0 0 0 0 0 0 50 53 52 52 52 50 51 52 49 50 50 50 49 48 49 48 47 50 48 49 47 47 51 49 49 48 49 49 -193 52 -193 13 13 14 15 16 15 17 17 17 18 20 20 21 22 22 20 19 17 17 17 16 14 15 16 16 17 19 20 18 18 15 13 13 14 13 12 10 11 11 12 13 13 12 13 13 13 12 13 12 13 11 11 11 10 10 11 10 10 9 11 11 12 14 15 13 15 14 15 14 14 14 13 13 14 12 13 12 12 11 10 11 10 0 9 9 10 10 10 10 10 9 11 12 10 10 11 10 10 15 -193 -209 48 46 47 49 52 52 52 53 46 57 58 66 62 61 63 64 66 67 65 61 57 57 -193 -177 14 18 18 18 16 -193 -193 -177 -177 -209 81 83 85 -193 -209 89 93 92 92 98 102 99 100 100 101 102 105 105 108 -193 112 116 119 118 118 118 117 -193 110 111 -209 109 710 -193 -193 127 131 132 -193 -193 -193 -209 -193 138 -193 138 140 -193 -193 -193 -209 -209 -193 -193 14 17 19 -177 -177 20 20 20 19 13 12 -209 171 175 178 181 -177 -209 -209 -209 -209 -193 -193 -193 -209 -209 0 0 0 0 0
    0 0 0 0 0 0 0 0 0 0 0 0 0 0 0 0 0 0 0 0 0 0 0 0 0 0 0 0 0 0 0 0 0 0 0 0 0 0 0 0 0 0 0 0 0 0 0 0 0 0 0 0 0 0 0 0 0 0 0 0 0 0 0 0 0 0 0 0 0 50 52 52 52 51 50 50 52 49 50 50 49 49 47 49 48 47 50 49 49 47 47 51 48 49 47 48 -193 -193 46 15 17 15 16 16 17 15 18 18 18 18 20 20 22 22 23 21 20 18 19 18 16 15 16 16 16 15 19 19 19 19 17 16 16 17 18 14 12 12 12 12 12 12 12 12 12 12 11 12 12 13 11 11 10 10 10 10 9 10 9 11 11 12 14 14 13 15 14 14 14 14 14 13 13 14 12 12 12 12 11 10 10 10 0 9 9 10 10 10 10 10 9 10 11 10 10 10 10 11 15 -177 -177 49 46 47 49 51 51 51 52 46 57 58 66 62 61 63 64 66 67 65 62 57 58 -193 -193 14 18 17 18 15 -209 -193 -177 -193 -209 -193 83 85 88 -209 90 93 92 92 97 101 98 99 99 100 101 104 104 107 -177 112 117 119 118 118 117 117 113 111 111 111 110 -209 -209 -193 127 131 -193 -193 -193 -209 -209 -193 138 139 138 140 -193 -193 -193 -209 -209 -193 -193 12 -193 -209 -209 -177 19 21 21 21 17 13 -193 -193 177 182 185 194 -209 -209 -209 -209 -193 -193 -193 -209 -209 0 0 0 0 0
    0 0 0 0 0 0 0 0 0 0 0 0 0 0 0 0 0 0 0 0 0 0 0 0 0 0 0 0 0 0 0 0 0 0 0 0 0 0 0 0 0 0 0 0 0 0 0 0 0 0 0 0 0 0 0 0 0 0 0 0 0 0 0 0 0 0 0 0 0 50 52 52 52 51 50 50 52 49 50 50 49 49 47 48 48 48 49 48 49 46 47 50 48 48 46 47 -193 -193 45 17 18 17 17 16 18 16 19 18 19 19 20 21 22 23 23 21 21 19 19 19 18 15 16 17 17 16 19 19 19 20 19 18 18 19 20 15 14 13 12 12 12 12 11 12 12 12 11 12 11 13 11 11 10 10 9 10 9 10 0 10 11 12 14 14 14 15 14 14 14 14 14 13 13 14 12 12 11 11 10 10 10 10 0 9 10 10 9 10 10 9 9 9 10 9 10 10 10 10 14 -177 -177 48 46 47 48 50 50 51 52 45 57 58 66 62 61 63 65 65 67 66 63 58 60 -193 -177 15 18 18 18 16 -209 -209 -193 -193 -193 -193 80 82 86 -209 89 93 92 92 96 101 97 98 98 99 100 103 103 -193 -177 111 117 118 117 118 117 117 115 111 112 112 111 -209 -209 -193 128 -193 -193 -193 -193 -209 -193 -193 138 139 138 139 -193 -209 -209 -209 -193 -193 -193 -193 -193 -193 -209 14 17 20 21 21 20 13 -209 -193 178 -209 195 200 -177 -193 -193 -193 -193 -209 -193 -193 -193 0 0 0 0 0
    0 0 0 0 0 0 0 0 0 0 0 0 0 0 0 0 0 0 0 0 0 0 0 0 0 0 0 0 0 0 0 0 0 0 0 0 0 0 0 0 0 0 0 0 0 0 0 0 0 0 0 0 0 0 0 0 0 0 0 0 0 0 0 0 0 0 0 0 0 50 52 52 52 51 49 50 52 49 50 50 49 49 47 48 48 48 49 48 48 46 46 50 47 48 46 46 46 -193 43 -193 20 19 17 16 19 16 19 19 19 20 21 22 -193 24 25 23 23 20 20 20 18 17 17 18 18 17 20 20 19 20 19 19 18 19 20 15 14 14 12 12 12 12 12 13 12 12 11 12 11 13 11 11 10 10 9 10 10 10 9 10 11 12 14 14 14 16 15 14 15 14 14 13 14 14 12 12 11 11 11 11 10 9 9 9 10 10 9 10 9 9 8 8 9 9 9 9 9 9 12 -177 -177 48 46 47 48 49 49 50 51 44 57 57 65 61 61 63 64 64 67 66 63 -177 61 93 100 15 19 18 19 -193 -209 -193 -193 -193 -209 -193 78 79 84 -209 89 93 91 91 95 100 96 98 97 99 100 102 103 -193 353 111 116 118 117 118 117 118 116 113 113 114 113 -193 121 122 128 -193 -193 -193 135 -193 -177 -193 -193 139 -193 139 -193 -209 -209 -209 -193 -193 -193 -193 -193 -193 -193 -209 15 -193 20 20 21 14 10 -193 -209 -209 201 201 203 -193 -193 -193 -193 -209 -193 598 598 0 0 0 0 0
    0 0 0 0 0 0 0 0 0 0 0 0 0 0 0 0 0 0 0 0 0 0 0 0 0 0 0 0 0 0 0 0 0 0 0 0 0 0 0 0 0 0 0 0 0 0 0 0 0 0 0 0 0 0 0 0 0 0 0 0 0 0 0 0 0 0 0 0 0 50 53 52 52 51 49 50 53 49 50 50 49 49 47 48 48 47 49 48 48 46 47 50 47 48 46 45 45 -193 42 -193 21 20 16 16 18 16 19 18 19 21 21 23 -193 24 25 24 23 20 20 20 18 18 17 19 18 17 19 19 19 19 18 18 17 19 19 15 14 14 12 12 12 12 12 13 12 12 12 12 12 13 12 12 10 11 10 10 10 11 10 11 12 12 15 15 15 16 15 15 15 15 15 14 14 14 12 13 12 12 11 11 11 10 10 11 11 11 10 10 10 10 9 0 9 9 9 9 9 9 11 -193 -177 47 46 47 48 48 48 49 51 43 57 57 64 60 60 63 64 63 67 67 64 -177 63 93 99 -193 -193 19 20 -193 -209 -193 -193 -193 -209 -193 77 77 82 -193 88 92 91 91 94 100 96 98 97 99 99 102 103 -193 352 110 115 118 116 118 117 118 117 114 115 115 115 122 121 122 128 -193 -193 -193 135 -177 -177 -193 -193 -193 -193 140 -193 -209 -209 -209 -193 -209 -193 -193 -177 -193 -193 -193 13 -193 17 19 20 13 9 0 -209 -209 201 201 -193 -193 400 399 -193 -193 -209 598 598 0 0 0 0 0
    0 0 0 0 0 0 0 0 0 0 0 0 0 0 0 0 0 0 0 0 0 0 0 0 0 0 0 0 0 0 0 0 0 0 0 0 0 0 0 0 0 0 0 0 0 0 0 0 0 0 0 0 0 0 0 0 0 0 0 0 0 0 0 0 0 0 0 0 0 51 53 53 52 52 50 50 53 49 50 50 49 49 47 48 48 46 50 48 48 46 47 50 48 48 46 45 45 -193 41 23 21 19 14 13 17 14 17 16 18 21 22 -193 -209 24 25 23 23 20 20 20 18 19 18 19 18 18 20 19 19 20 18 18 17 18 18 15 15 14 13 12 12 12 12 13 12 13 12 13 13 13 13 12 11 11 10 11 11 12 11 11 12 13 15 15 15 15 15 15 15 15 15 14 15 15 13 13 13 12 12 12 11 11 11 11 11 11 11 10 11 10 10 9 9 9 10 9 10 9 11 21 -177 46 46 47 48 48 48 49 50 43 56 56 63 60 60 61 62 62 66 67 63 -177 -177 92 97 97 -193 -193 -193 -209 -209 -193 -193 -193 -209 -209 76 75 79 -193 88 92 91 91 94 100 96 98 97 99 99 102 102 -193 351 109 113 117 116 117 116 118 117 114 116 116 116 122 121 121 127 -193 -193 -193 134 -177 -177 -193 -193 -193 -209 140 -193 -193 -209 -209 -193 -209 -193 -193 -193 -209 -209 0 11 13 16 19 20 14 11 0 -209 -209 200 200 -193 -193 -193 -193 -193 -193 -209 -209 -193 0 0 0 0 0
    0 0 0 0 0 0 0 0 0 0 0 0 0 0 0 0 0 0 0 0 0 0 0 0 0 0 0 0 0 0 0 0 0 0 0 0 0 0 0 0 0 0 0 0 0 0 0 0 0 0 0 0 0 0 0 0 0 0 0 0 0 0 0 0 0 0 0 0 0 51 53 53 52 52 50 50 53 49 50 51 49 49 47 48 48 46 50 48 48 46 47 50 47 47 46 45 45 -193 41 22 20 16 12 11 13 12 14 13 15 20 -193 -209 23 23 24 22 23 20 20 19 18 19 18 20 19 18 20 20 20 20 18 18 16 18 17 14 14 14 12 12 12 12 12 13 13 13 12 13 13 13 14 13 11 12 11 12 12 13 12 12 14 14 16 16 16 16 15 15 16 15 16 14 15 15 14 14 13 13 13 12 11 11 11 12 11 11 11 10 11 11 10 9 9 10 9 9 9 9 10 21 -177 45 46 47 48 47 47 48 50 42 55 56 62 59 59 60 -193 60 65 66 62 -177 -177 92 96 96 96 -193 -193 -209 -209 -193 -209 -209 -209 -193 75 74 77 -193 87 91 90 90 94 101 96 98 97 99 99 102 102 104 350 108 112 116 115 116 116 117 117 115 117 117 -193 -177 121 121 126 -193 -193 -193 133 1008 -177 -209 304 306 -193 140 139 -193 -209 -209 141 -193 11 -209 -209 -209 -209 0 11 12 15 18 19 13 10 0 -209 -209 -209 199 -209 -209 -193 -209 -193 -193 -209 -209 -193 0 0 0 0 0
    0 0 0 0 0 0 0 0 0 0 0 0 0 0 0 0 0 0 0 0 0 0 0 0 0 0 0 0 0 0 0 0 0 0 0 0 0 0 0 0 0 0 0 0 0 0 0 0 0 0 0 0 0 0 0 0 0 0 0 0 0 0 0 0 0 0 0 0 0 50 53 53 52 52 50 50 53 49 50 51 49 49 47 48 48 45 50 48 49 47 48 50 47 48 46 45 45 -193 -209 22 20 14 11 9 11 10 11 12 13 18 19 -209 22 22 23 22 23 20 20 19 18 19 18 20 19 18 20 19 20 20 18 18 16 16 15 13 13 13 12 12 12 11 12 13 12 13 12 12 12 13 13 13 11 13 12 13 13 14 13 13 16 16 17 17 17 17 16 16 16 15 16 15 15 15 14 14 13 13 13 12 11 12 11 12 11 11 11 11 11 11 10 10 10 10 10 10 9 9 10 23 47 44 45 47 48 46 46 47 49 42 53 55 61 57 58 59 -193 58 64 64 61 -177 -177 91 95 96 96 -193 -193 -209 -209 -193 -209 -209 -209 -209 74 73 76 -193 86 90 90 90 94 101 97 98 97 99 99 102 102 103 349 108 110 115 114 116 116 117 117 115 118 118 -193 -177 121 121 126 -193 -193 -193 132 -193 -177 -193 305 307 -177 140 139 -193 -209 -209 -193 12 11 -209 -209 -193 -193 0 11 12 15 17 20 13 11 0 -209 -209 -209 193 -209 -209 -209 -209 -209 -209 -209 -193 594 0 0 0 0 0
    0 0 0 0 0 0 0 0 0 0 0 0 0 0 0 0 0 0 0 0 0 0 0 0 0 0 0 0 0 0 0 0 0 0 0 0 0 0 0 0 0 0 0 0 0 0 0 0 0 0 0 0 0 0 0 0 0 0 0 0 0 0 0 0 0 0 0 0 0 50 53 52 52 52 50 50 53 49 50 51 49 49 47 48 48 45 51 48 49 47 48 50 48 48 47 45 45 -193 -209 -193 20 12 10 9 10 10 10 11 12 16 17 -193 20 22 22 23 23 21 20 20 19 20 19 20 19 18 20 19 19 19 17 17 16 15 14 13 12 12 11 11 11 11 11 12 11 12 11 12 12 13 13 12 12 13 12 13 13 14 13 14 18 17 19 19 18 18 16 18 17 15 17 15 15 15 14 14 13 12 13 12 11 12 11 12 11 11 11 11 12 12 11 11 10 10 11 10 10 9 10 17 45 43 45 47 -177 46 46 47 48 42 50 54 59 56 57 58 244 57 63 62 59 -177 -177 91 95 97 96 98 95 -209 -193 66 68 -193 -209 -193 73 72 74 -193 85 90 89 90 93 101 97 99 98 99 100 102 102 103 349 108 109 114 113 115 116 117 117 116 119 119 -193 -177 122 121 126 133 -193 -193 -193 -193 -193 -193 305 307 -177 140 139 -193 -209 -209 -193 12 -193 -209 -193 -193 10 10 13 14 16 16 19 11 -193 0 -209 -209 -209 -209 -209 -209 -209 -209 -209 -209 -209 595 592 0 0 0 0 0
    0 0 0 0 0 0 0 0 0 0 0 0 0 0 0 0 0 0 0 0 0 0 0 0 0 0 0 0 0 0 0 0 0 0 0 0 0 0 0 0 0 0 0 0 0 0 0 0 0 0 0 0 0 0 0 0 0 0 0 0 0 0 0 0 0 0 0 0 0 51 53 53 52 52 50 50 53 49 50 51 49 49 47 48 48 45 51 48 49 47 48 50 48 48 47 45 45 -193 -193 -209 19 10 9 0 9 10 10 11 12 15 16 -193 20 21 21 23 24 22 21 21 20 22 20 21 20 19 20 19 19 19 16 17 15 14 13 13 12 12 11 11 11 10 10 11 10 12 11 11 12 12 13 12 12 13 12 13 14 14 14 15 19 19 20 20 20 20 18 19 19 16 17 15 15 15 14 15 13 12 13 11 11 12 12 12 11 11 11 11 12 12 11 11 11 11 11 11 11 10 11 13 -209 43 44 47 47 45 45 46 48 42 48 54 58 54 57 -193 244 56 61 60 58 -177 -177 91 94 97 97 98 -193 -209 -209 -193 -193 70 -209 -193 73 71 73 -193 83 89 88 89 93 101 97 99 98 100 100 102 102 103 349 108 109 113 112 115 116 117 117 116 120 -193 -177 124 123 121 125 133 130 -193 -193 -193 -177 -193 305 307 -177 139 138 -193 -209 -209 -193 -193 -193 -209 -193 -193 15 18 19 19 19 14 14 9 -193 0 -193 -209 -209 -209 -193 -193 -209 -209 -209 -209 -209 593 590 0 0 0 0 0
    0 0 0 0 0 0 0 0 0 0 0 0 0 0 0 0 0 0 0 0 0 0 0 0 0 0 0 0 0 0 0 0 0 0 0 0 0 0 0 0 0 0 0 0 0 0 0 0 0 0 0 0 0 0 0 0 0 0 0 0 0 0 0 0 0 0 0 0 0 51 53 53 52 52 50 50 53 49 50 51 49 50 47 48 48 44 52 48 50 47 48 50 48 48 47 45 46 -193 -193 -209 17 0 9 0 9 9 9 10 11 13 15 16 18 21 21 22 23 22 21 22 21 23 21 22 21 21 21 20 19 19 15 17 15 14 12 13 12 12 11 11 11 10 11 11 10 12 11 11 12 12 12 12 12 13 12 13 14 14 14 16 19 20 21 22 21 22 20 20 20 16 17 15 15 15 14 15 14 12 13 12 11 13 12 12 11 12 12 11 12 13 11 11 11 11 11 11 11 10 11 13 -209 -193 44 46 47 45 45 46 47 42 47 53 57 53 56 55 -193 55 60 59 56 53 -177 -193 93 97 96 -193 -209 -209 -193 63 66 70 -209 70 72 71 73 -193 82 88 88 -193 93 102 98 99 99 100 101 102 103 103 349 108 109 112 112 114 116 117 117 116 121 -209 -177 125 124 122 125 132 129 -193 -193 -193 996 -193 305 -177 -177 -193 137 -193 -209 -209 -193 11 -193 -209 -193 -209 22 24 24 24 23 16 14 9 -193 0 -209 -209 -209 -209 -193 85 -193 -209 -209 -209 -209 -193 589 0 0 0 0 0
    0 0 0 0 0 0 0 0 0 0 0 0 0 0 0 0 0 0 0 0 0 0 0 0 0 0 0 0 0 0 0 0 0 0 0 0 0 0 0 0 0 0 0 0 0 0 0 0 0 0 0 0 0 0 0 0 0 0 0 0 0 0 0 0 0 0 0 0 0 51 53 53 52 52 51 50 53 49 50 51 49 50 47 48 48 44 52 48 50 47 48 50 48 48 47 45 46 43 -193 -209 17 0 9 0 9 9 9 10 10 12 14 14 16 20 20 21 22 21 21 22 20 22 20 21 20 21 20 19 18 18 14 16 15 13 12 12 12 12 12 11 11 10 11 11 11 12 11 11 12 12 13 12 12 13 12 13 14 14 15 17 20 21 21 23 22 23 21 21 21 18 18 16 15 15 14 15 14 12 13 11 11 13 12 13 11 12 13 12 13 13 12 12 12 12 12 11 12 11 12 12 -193 -193 43 46 46 45 45 45 47 42 50 53 57 52 54 54 54 55 58 57 55 52 -193 -193 92 96 96 -209 -209 -193 -193 62 66 70 70 70 72 70 73 -193 82 88 -193 -209 93 102 99 100 100 101 102 103 103 104 -193 108 109 112 111 114 -193 118 118 117 121 -193 -209 126 126 122 126 133 130 -209 -193 -193 -177 -193 305 -177 -177 -193 -209 -209 -209 -209 -193 -193 -193 -193 15 22 25 26 26 26 25 19 17 10 -193 -193 -209 169 -209 -209 -193 85 -193 -209 -193 -209 -209 -209 -193 0 0 0 0 0
    0 0 0 0 0 0 0 0 0 0 0 0 0 0 0 0 0 0 0 0 0 0 0 0 0 0 0 0 0 0 0 0 0 0 0 0 0 0 0 0 0 0 0 0 0 0 0 0 0 0 0 0 0 0 0 0 0 0 0 0 0 0 0 0 0 0 0 0 0 51 53 53 52 52 50 50 53 49 50 51 49 50 47 48 48 44 52 49 50 48 48 51 48 48 48 45 46 -193 -193 -209 18 9 10 9 9 9 9 10 11 12 13 12 14 18 16 18 19 19 19 19 19 21 19 19 19 20 20 17 17 17 13 15 15 13 12 12 12 12 12 11 11 11 12 11 11 12 11 11 12 12 12 11 12 13 12 14 14 15 16 18 21 21 22 23 23 24 22 22 21 19 18 17 16 16 14 15 14 12 12 11 10 13 12 13 11 12 13 12 13 13 12 12 12 12 12 12 13 12 12 11 -193 -209 43 46 47 45 45 45 48 43 50 54 56 51 54 54 54 54 56 56 54 51 -193 67 92 -193 -193 -209 -209 -193 -193 -193 65 70 71 71 72 71 73 -193 82 87 -193 -209 94 103 100 101 101 102 103 104 104 104 107 108 109 112 111 114 116 118 118 117 121 -193 -209 126 126 123 126 132 130 -209 -193 -193 -177 -193 306 -193 -193 -193 -209 -209 -209 -209 138 -193 -193 11 19 24 25 26 26 25 23 19 15 11 -193 -193 -209 -193 169 -209 -177 -193 -209 -209 -209 -209 -209 -209 -193 0 0 0 0 0
    0 0 0 0 0 0 0 0 0 0 0 0 0 0 0 0 0 0 0 0 0 0 0 0 0 0 0 0 0 0 0 0 0 0 0 0 0 0 0 0 0 0 0 0 0 0 0 0 0 0 0 0 0 0 0 0 0 0 0 0 0 0 0 0 0 0 0 0 0 51 52 52 52 52 50 50 53 49 50 51 49 50 47 48 48 45 52 49 50 48 48 51 48 48 48 45 47 43 -193 -193 -193 -193 10 9 0 9 10 10 11 12 12 11 12 15 14 14 14 14 16 17 17 20 19 18 19 20 19 16 16 16 12 13 14 12 12 12 12 12 12 11 11 11 11 11 11 12 11 10 12 11 11 11 12 13 12 14 14 16 16 19 21 21 22 23 23 24 22 22 21 20 19 18 17 16 15 16 14 13 12 11 10 12 12 12 11 11 12 12 13 13 12 13 13 12 13 13 13 12 13 11 -193 -209 43 45 47 45 45 46 49 45 51 55 56 52 54 54 54 54 56 55 55 52 61 65 -193 -193 -193 -209 -209 -193 -193 -193 66 -193 -193 72 73 71 73 75 82 87 -193 -209 94 103 101 102 102 103 104 104 104 104 108 108 110 113 111 114 116 118 118 117 121 122 -193 127 127 123 126 132 130 -193 131 -193 -177 -193 -193 -193 -209 -193 -193 -209 137 -193 -193 -193 -193 12 21 23 24 24 24 23 21 19 16 12 -193 -193 -209 -193 -193 -193 -177 -177 -193 -193 170 -193 173 173 -209 0 0 0 0 0
    0 0 0 0 0 0 0 0 0 0 0 0 0 0 0 0 0 0 0 0 0 0 0 0 0 0 0 0 0 0 0 0 0 0 0 0 0 0 0 0 0 0 0 0 0 0 0 0 0 0 0 0 0 0 0 0 0 0 0 0 0 0 0 0 0 0 0 0 0 51 52 53 52 53 51 50 53 49 50 51 50 51 48 49 49 45 53 50 51 48 48 51 48 48 47 45 47 -193 -193 -209 -209 -193 10 9 0 9 10 11 12 11 12 11 12 14 13 12 12 13 17 18 19 21 19 19 19 20 19 15 15 14 11 12 13 11 11 11 12 11 11 11 11 11 11 10 10 11 10 10 11 11 11 10 11 13 12 13 14 16 16 19 21 21 22 24 23 24 22 23 22 21 20 19 18 16 15 16 15 13 12 11 10 12 11 11 10 10 11 11 12 12 12 13 13 12 13 13 13 12 13 11 -209 -209 43 46 48 46 -193 48 51 49 55 57 59 54 56 56 56 56 57 57 56 54 61 63 63 63 64 59 -193 -209 -193 -193 -193 -209 -209 -193 73 72 74 77 83 88 -193 89 94 103 102 103 103 104 105 105 105 105 109 108 110 113 112 115 117 118 118 118 122 123 -177 127 127 124 127 131 129 129 130 -193 -177 -193 -193 -193 -193 137 135 -209 137 -193 -193 -209 16 15 22 23 23 23 23 22 20 19 16 12 -193 -193 -193 -193 -193 -193 -177 -193 -193 -193 172 171 174 -193 -209 0 0 0 0 0
    0 0 0 0 0 0 0 0 0 0 0 0 0 0 0 0 0 0 0 0 0 0 0 0 0 0 0 0 0 0 0 0 0 0 0 0 0 0 0 0 0 0 0 0 0 0 0 0 0 0 0 0 0 0 0 0 0 0 0 0 0 0 0 0 0 0 0 0 0 53 54 54 53 53 52 51 53 50 50 52 50 52 49 50 50 46 53 51 51 49 48 52 49 48 47 46 47 -193 -193 -193 -209 -209 11 10 9 9 12 13 13 12 12 11 13 16 14 11 11 14 20 21 21 22 20 20 19 20 18 15 14 13 11 12 12 11 11 11 12 11 12 11 11 11 11 10 10 10 9 9 10 10 10 10 10 12 11 13 14 17 16 19 21 21 22 24 24 24 23 24 23 22 21 20 18 17 16 16 15 12 11 11 10 11 10 11 10 10 11 11 12 12 12 13 13 13 13 14 14 13 14 11 -193 -209 -209 45 47 46 47 48 51 51 55 57 59 54 57 57 57 57 58 58 58 56 62 62 63 62 63 59 62 59 65 -193 -193 -209 -209 -209 74 73 75 79 85 89 -193 90 94 103 103 104 104 105 105 106 106 106 110 108 110 112 112 115 117 118 118 118 121 -193 -177 126 127 125 128 130 129 129 130 131 -193 -193 -193 -193 -193 -193 135 -193 136 -193 -193 -209 20 19 24 24 23 23 23 22 20 18 16 12 13 12 -193 -193 -193 -193 -177 -193 -193 -177 -177 172 176 -193 -193 0 0 0 0 0
    0 0 0 0 0 0 0 0 0 0 0 0 0 0 0 0 0 0 0 0 0 0 0 0 0 0 0 0 0 0 0 0 0 0 0 0 0 0 0 0 0 0 0 0 0 0 0 0 0 0 0 0 0 0 0 0 0 0 0 0 0 0 0 0 0 0 0 0 0 57 56 56 54 54 52 52 53 50 51 52 51 52 49 50 50 47 53 51 51 49 47 52 49 48 47 46 47 44 46 48 -193 -193 -193 -193 11 11 16 16 15 13 14 12 16 20 -209 -209 -209 -193 -193 23 23 23 21 21 19 20 18 15 14 13 11 12 11 11 11 12 13 12 12 12 12 12 11 11 10 10 9 9 10 10 10 10 10 11 11 13 14 17 16 20 21 21 22 24 24 25 23 25 24 22 21 20 19 17 16 15 14 12 11 11 10 11 10 11 11 11 12 11 12 12 12 13 13 13 13 14 14 14 14 11 -209 -209 -209 44 45 45 46 47 51 52 55 57 58 55 57 57 58 58 59 59 59 58 63 63 64 63 64 60 62 60 65 -193 -209 -193 -209 -209 78 77 79 84 86 89 89 90 94 103 105 105 105 105 106 107 107 107 111 108 110 112 112 115 117 118 118 118 122 123 -193 126 127 125 128 129 128 129 129 131 -193 132 132 133 -193 -193 134 -209 -209 -209 -193 -209 22 21 24 24 23 23 22 21 19 18 15 12 13 12 12 11 -193 -193 -193 -209 -193 -177 -177 -177 -177 -177 179 0 0 0 0 0
    0 0 0 0 0 0 0 0 0 0 0 0 0 0 0 0 0 0 0 0 0 0 0 0 0 0 0 0 0 0 0 0 0 0 0 0 0 0 0 0 0 0 0 0 0 0 0 0 0 0 0 0 0 0 0 0 0 0 0 0 0 0 0 0 0 0 0 0 0 61 59 57 56 55 53 52 53 50 50 52 51 52 50 50 51 47 53 51 51 49 47 52 49 48 47 46 47 44 45 48 -193 57 68 66 -193 -193 -193 -193 -193 -193 -193 -193 -193 -209 -209 -209 -209 -209 -193 -193 24 24 21 21 20 20 19 16 14 13 11 11 11 11 11 11 13 11 12 12 12 12 11 11 11 10 10 9 10 10 10 10 10 11 10 13 13 16 16 20 20 21 22 23 24 25 23 25 24 22 21 20 19 17 16 14 14 12 11 11 10 10 10 11 11 11 12 11 12 12 12 13 13 13 13 14 15 15 15 11 12 -177 -209 43 44 44 44 46 51 53 54 56 58 55 57 58 59 58 60 60 60 59 63 63 64 63 64 61 63 62 65 -193 -209 -193 -193 -193 81 80 81 85 87 89 90 90 94 103 106 105 106 106 106 107 107 108 111 108 110 112 113 115 117 118 119 118 122 123 -193 126 127 125 128 129 128 -193 129 -193 -193 -193 -193 -193 -193 -193 -193 -209 -193 -209 -193 -209 22 -193 24 23 22 22 21 21 19 17 15 12 12 12 12 12 -193 10 -209 -209 -193 -177 -177 -177 -177 -177 180 0 0 0 0 0
    0 0 0 0 0 0 0 0 0 0 0 0 0 0 0 0 0 0 0 0 0 0 0 0 0 0 0 0 0 0 0 0 0 0 0 0 0 0 0 0 0 0 0 0 0 0 0 0 0 0 0 0 0 0 0 0 0 0 0 0 0 0 0 0 0 0 0 0 0 66 62 61 57 56 53 52 54 50 51 52 51 52 50 51 51 47 54 51 52 49 47 52 49 48 47 45 47 44 45 48 41 58 69 66 66 65 66 66 67 66 61 58 57 58 -193 -209 -209 -193 43 -209 29 -193 22 22 20 20 20 16 14 13 11 11 10 11 11 11 12 12 12 12 12 13 12 12 11 10 10 9 10 9 9 10 9 11 10 13 13 16 16 18 19 20 20 22 22 24 23 24 24 22 21 21 20 17 16 14 13 12 11 11 10 10 10 11 11 11 12 11 12 12 12 13 13 13 13 13 14 17 17 12 16 -177 -209 41 42 43 43 45 51 54 54 57 58 55 57 59 60 59 60 61 61 60 64 63 64 64 65 62 63 63 66 68 74 80 81 82 83 83 84 87 88 90 92 91 95 102 107 106 106 106 106 107 108 108 112 108 110 112 112 115 116 118 119 118 121 123 123 126 127 125 127 128 128 -193 -193 -193 -193 -193 -193 -193 34 -193 -193 -209 -193 -193 -193 144 -193 -193 24 23 22 22 21 20 18 16 15 12 12 12 12 12 10 10 10 -193 -193 -177 -177 -177 -177 -177 -177 0 0 0 0 0
    0 0 0 0 0 0 0 0 0 0 0 0 0 0 0 0 0 0 0 0 0 0 0 0 0 0 0 0 0 0 0 0 0 0 0 0 0 0 0 0 0 0 0 0 0 0 0 0 0 0 0 0 0 0 0 0 0 0 0 0 0 0 0 0 0 0 0 0 0 69 67 67 61 58 55 53 54 51 51 52 51 52 51 51 52 48 54 52 52 50 48 52 49 48 47 45 47 44 46 50 48 59 70 68 67 67 67 68 68 68 62 58 58 59 59 -209 -209 -193 -193 -209 -193 29 -193 23 21 21 20 16 14 13 12 11 10 11 11 11 12 11 12 12 12 13 11 12 11 11 10 9 10 10 9 10 9 11 10 14 13 17 15 17 18 19 19 20 21 23 22 24 23 22 22 21 20 17 16 13 13 12 11 11 10 10 10 11 11 11 12 11 12 12 12 13 13 13 13 13 14 17 18 13 21 20 28 37 40 41 42 43 51 54 54 57 58 56 57 60 60 59 61 62 62 61 64 64 63 64 66 63 63 64 66 70 75 81 82 84 85 85 85 88 89 90 94 92 95 102 107 106 106 106 106 107 108 109 112 108 110 111 113 115 117 118 119 118 121 123 123 125 126 125 127 127 128 128 -193 -193 -193 -193 -193 -193 33 34 -193 -193 -193 -193 -193 145 -193 149 -193 -193 22 22 21 20 17 16 15 13 12 12 12 12 10 10 10 -193 0 -177 -177 -177 -177 -177 -177 0 0 0 0 0
    0 0 0 0 0 0 0 0 0 0 0 0 0 0 0 0 0 0 0 0 0 0 0 0 0 0 0 0 0 0 0 0 0 0 0 0 0 0 0 0 0 0 0 0 0 0 0 0 0 0 0 0 0 0 0 0 0 0 0 0 0 0 0 0 0 0 0 0 0 70 69 70 67 62 58 55 55 51 52 53 52 53 52 52 53 50 55 54 54 51 50 53 51 48 48 47 50 48 50 53 56 62 71 69 68 67 68 68 69 69 63 59 59 60 59 55 53 52 46 -193 39 34 27 26 23 22 21 18 16 13 12 11 10 12 10 11 12 11 12 12 13 13 11 13 11 11 10 10 10 10 10 10 9 11 10 14 13 16 14 16 17 18 18 19 20 22 22 23 23 22 22 21 21 17 16 13 13 11 11 10 10 10 10 10 10 10 11 10 11 11 12 13 13 13 13 13 14 18 19 17 25 26 29 33 36 38 40 41 50 55 53 56 58 56 58 61 61 60 62 63 62 62 64 64 63 65 66 64 63 67 67 73 77 82 83 86 86 87 87 89 90 91 96 93 95 101 106 105 106 105 105 106 108 108 111 108 110 111 113 116 117 119 119 119 121 123 124 125 126 124 126 126 127 127 128 130 131 132 -193 -193 -193 -193 -193 -193 -193 -193 -193 -193 -193 150 -209 -193 -193 -193 -193 -193 -193 15 14 12 -193 -193 11 12 10 10 -193 -193 -193 174 179 177 180 -177 -177 0 0 0 0 0
    0 0 0 0 0 0 0 0 0 0 0 0 0 0 0 0 0 0 0 0 0 0 0 0 0 0 0 0 0 0 0 0 0 0 0 0 0 0 0 0 0 0 0 0 0 0 0 0 0 0 0 0 0 0 0 0 0 0 0 0 0 0 0 0 0 0 0 0 0 71 70 70 69 66 62 58 57 53 53 54 54 55 54 54 55 54 56 57 57 55 55 55 54 50 49 52 55 54 55 57 62 67 72 71 70 69 69 69 69 69 64 59 59 59 58 54 54 52 48 44 42 38 30 28 24 22 21 19 17 13 12 11 10 12 10 11 12 11 12 12 13 14 11 13 11 11 10 10 10 10 10 11 9 11 10 13 13 16 14 16 17 18 18 19 20 21 22 23 23 22 22 20 20 16 15 12 13 11 12 10 11 9 10 10 10 10 11 9 11 11 12 13 13 13 12 13 14 19 20 20 25 26 27 29 32 35 37 38 48 55 54 56 57 56 58 62 62 61 62 63 62 63 65 64 62 65 67 66 65 70 70 74 79 83 85 88 88 88 89 90 91 92 99 94 95 101 -209 104 105 104 104 106 107 108 110 108 109 110 113 116 -193 119 120 119 121 124 124 125 125 125 126 126 127 127 127 129 131 131 133 -193 -193 -193 -193 -193 -193 -193 -193 -193 -193 151 152 151 -193 153 154 155 157 -193 -193 -193 -193 -193 -177 12 -193 -193 -193 -193 -193 177 180 179 181 181 183 0 0 0 0 0
    0 0 0 0 0 0 0 0 0 0 0 0 0 0 0 0 0 0 0 0 0 0 0 0 0 0 0 0 0 0 0 0 0 0 0 0 0 0 0 0 0 0 0 0 0 0 0 0 0 0 0 0 0 0 0 0 0 0 0 0 0 0 0 0 0 0 0 0 0 71 71 70 70 68 65 62 60 57 55 56 57 57 58 57 59 58 58 60 60 58 58 56 58 54 54 58 63 66 61 63 67 69 73 71 70 70 70 69 69 69 65 58 58 58 57 54 54 53 49 45 43 38 29 27 23 22 21 20 17 14 13 11 10 12 11 11 12 11 12 12 13 14 12 13 11 11 10 11 11 10 10 11 10 11 11 14 13 15 14 16 16 18 18 19 20 21 22 23 22 21 21 19 19 15 14 12 12 11 12 10 11 9 9 10 10 10 11 9 11 11 12 13 12 13 12 13 14 21 21 22 25 26 27 28 32 34 35 37 46 54 52 54 56 56 58 62 62 61 63 63 62 63 65 64 62 66 68 66 66 71 71 74 80 84 86 89 89 90 91 92 92 93 100 95 96 100 -193 103 104 104 104 105 107 108 110 108 109 110 114 116 117 119 120 119 121 124 124 125 125 125 127 126 128 128 129 130 132 131 134 133 -193 -193 -193 -193 -193 -193 -193 -193 150 151 152 152 151 153 154 156 158 162 -193 165 166 168 -193 -193 -193 -193 174 174 -193 179 181 180 182 182 184 0 0 0 0 0
    0 0 0 0 0 0 0 0 0 0 0 0 0 0 0 0 0 0 0 0 0 0 0 0 0 0 0 0 0 0 0 0 0 0 0 0 0 0 0 0 0 0 0 0 0 0 0 0 0 0 0 0 0 0 0 0 0 0 0 0 0 0 0 0 0 0 0 0 0 71 71 70 69 67 64 62 61 59 55 56 59 60 60 60 63 59 59 59 59 58 58 57 58 57 58 62 67 67 63 65 66 70 72 70 69 70 70 69 69 69 65 59 59 59 57 54 54 52 49 45 43 37 27 25 22 21 21 19 16 13 13 11 11 13 11 12 12 12 12 12 14 14 12 15 12 12 12 12 12 11 12 12 11 12 11 14 12 13 13 15 15 17 18 19 19 21 21 22 21 20 20 17 17 14 13 11 12 11 12 10 11 10 10 10 11 11 12 10 12 13 13 14 12 13 12 12 16 21 22 23 24 25 26 27 29 30 31 34 43 49 49 52 53 53 56 61 61 61 62 63 62 63 65 64 62 66 67 65 65 70 71 74 79 81 82 88 88 89 91 91 92 92 100 95 96 100 -193 103 104 103 103 104 107 107 109 107 109 109 113 115 115 118 119 118 121 123 123 124 125 125 127 126 128 130 131 132 133 133 135 134 135 -193 136 -193 -193 -193 -193 149 150 151 151 152 152 154 155 156 158 163 163 165 166 168 -193 170 172 173 175 175 -193 179 180 180 182 182 184 0 0 0 0 0
    0 0 0 0 0 0 0 0 0 0 0 0 0 0 0 0 0 0 0 0 0 0 0 0 0 0 0 0 0 0 0 0 0 0 0 0 0 0 0 0 0 0 0 0 0 0 0 0 0 0 0 0 0 0 0 0 0 0 0 0 0 0 0 0 0 0 0 0 0 71 70 70 68 66 62 60 59 57 52 54 59 60 59 59 62 57 57 58 59 57 57 57 59 58 61 64 68 68 65 66 66 70 71 69 70 69 69 69 69 69 66 60 60 59 58 55 55 54 51 46 43 35 26 24 21 21 20 18 15 13 13 11 11 13 12 12 12 12 13 13 14 14 12 15 12 13 13 13 13 12 12 13 12 13 13 14 13 12 12 14 14 17 18 19 19 21 22 22 21 20 20 15 16 13 13 11 11 11 12 10 11 10 10 10 11 11 12 9 12 14 13 15 13 14 12 12 17 22 23 23 24 26 27 27 29 29 29 32 42 46 46 50 52 52 55 61 60 60 62 63 62 64 65 64 61 67 67 65 64 69 70 73 76 79 -193 87 87 89 91 91 92 93 101 95 96 99 -193 102 103 102 102 103 106 107 108 107 108 109 113 115 114 117 119 118 120 122 123 124 124 125 126 126 129 131 133 133 134 134 136 136 136 137 137 140 -193 144 147 149 151 151 151 153 153 154 155 156 158 163 163 166 167 169 -193 171 173 174 175 175 176 179 181 180 183 183 185 0 0 0 0 0
    0 0 0 0 0 0 0 0 0 0 0 0 0 0 0 0 0 0 0 0 0 0 0 0 0 0 0 0 0 0 0 0 0 0 0 0 0 0 0 0 0 0 0 0 0 0 0 0 0 0 0 0 0 0 0 0 0 0 0 0 0 0 0 0 0 0 0 0 0 71 70 69 67 64 61 60 59 57 54 55 61 62 62 64 65 58 58 58 59 57 58 57 60 60 64 67 69 69 67 68 67 71 70 69 70 70 70 71 71 70 70 65 64 62 62 57 57 57 55 49 44 -193 26 24 21 21 20 18 15 13 13 11 12 14 12 12 12 12 13 13 14 14 13 16 13 14 14 14 13 13 13 14 12 14 14 14 13 12 12 14 14 17 18 19 20 21 22 22 21 21 21 16 16 13 13 12 12 11 12 10 11 10 10 10 11 11 12 9 13 16 14 16 13 14 11 12 19 23 24 24 25 27 28 28 30 30 30 31 42 45 45 49 52 53 56 61 60 60 62 62 62 63 64 64 60 66 66 63 64 70 70 69 73 71 -193 76 81 87 92 92 93 94 102 96 96 99 102 101 102 102 102 102 106 106 107 106 108 109 112 115 114 117 119 119 120 122 122 123 124 125 126 127 130 132 135 135 135 136 137 137 137 138 138 141 142 145 147 150 151 151 151 153 153 154 156 156 158 164 164 168 169 170 -193 172 174 175 175 175 177 180 182 182 185 185 187 0 0 0 0 0
    0 0 0 0 0 0 0 0 0 0 0 0 0 0 0 0 0 0 0 0 0 0 0 0 0 0 0 0 0 0 0 0 0 0 0 0 0 0 0 0 0 0 0 0 0 0 0 0 0 0 0 0 0 0 0 0 0 0 0 0 0 0 0 0 0 0 0 0 0 71 70 69 66 63 61 60 60 58 57 56 63 63 63 64 66 60 60 59 60 58 59 60 62 64 66 68 70 69 69 69 68 71 70 70 71 71 71 72 72 72 72 71 70 67 67 60 59 59 58 56 52 35 26 25 21 21 20 18 15 13 13 12 13 14 13 13 13 12 14 14 15 14 14 16 13 14 15 14 14 14 14 15 13 15 15 14 13 12 13 14 14 18 19 20 22 22 23 22 22 22 22 18 17 14 14 13 13 12 12 10 11 10 10 10 10 10 10 9 14 18 15 16 13 13 11 13 21 23 24 25 25 28 29 30 31 32 32 34 42 44 45 50 53 54 56 61 60 60 61 62 61 62 64 64 60 64 64 61 61 70 71 70 73 70 63 72 78 87 94 92 93 94 101 96 96 99 101 100 102 102 101 101 105 106 106 105 107 108 111 114 114 117 118 118 119 121 122 123 123 124 125 127 130 133 135 136 136 137 138 138 137 138 139 141 143 146 147 150 152 152 152 154 154 155 157 157 159 165 165 168 169 171 172 172 175 175 175 175 176 180 182 182 186 186 188 0 0 0 0 0
    0 0 0 0 0 0 0 0 0 0 0 0 0 0 0 0 0 0 0 0 0 0 0 0 0 0 0 0 0 0 0 0 0 0 0 0 0 0 0 0 0 0 0 0 0 0 0 0 0 0 0 0 0 0 0 0 0 0 0 0 0 0 0 0 0 0 0 0 0 70 69 68 65 63 61 60 61 59 58 56 64 65 64 66 68 62 62 61 62 60 61 62 65 66 68 69 70 70 70 71 70 72 70 71 73 72 72 73 72 72 73 73 72 69 69 64 62 63 61 60 59 -209 25 24 21 20 19 18 16 13 13 12 14 15 13 13 13 13 14 14 15 14 14 17 14 15 15 15 15 14 14 16 13 16 16 14 14 12 13 15 14 19 21 22 23 23 23 23 23 23 23 19 18 14 14 13 13 13 13 10 11 10 10 9 9 10 9 9 14 20 18 18 15 16 11 13 21 23 25 25 26 29 31 32 33 33 34 36 41 44 44 49 53 55 56 60 60 60 61 62 61 62 63 63 59 61 61 59 58 67 70 71 74 69 68 71 77 87 93 91 92 93 101 95 95 98 101 99 101 101 101 100 105 104 105 104 107 108 111 114 114 117 118 118 120 122 122 123 123 125 126 128 131 134 135 136 136 137 139 139 137 139 139 142 144 147 148 150 153 153 153 155 154 155 157 157 159 165 164 168 169 170 172 172 175 175 175 175 176 180 183 183 186 186 187 0 0 0 0 0
    0 0 0 0 0 0 0 0 0 0 0 0 0 0 0 0 0 0 0 0 0 0 0 0 0 0 0 0 0 0 0 0 0 0 0 0 0 0 0 0 0 0 0 0 0 0 0 0 0 0 0 0 0 0 0 0 0 0 0 0 0 0 0 0 0 0 0 0 0 69 68 67 64 62 61 60 59 59 61 58 66 65 65 66 68 65 65 64 65 63 64 66 67 67 69 69 70 70 71 72 71 73 71 71 74 73 73 74 73 73 73 73 74 71 71 66 63 64 62 61 62 -209 24 23 20 20 19 19 17 14 14 12 14 15 15 14 14 14 15 15 16 14 14 17 14 15 16 15 16 15 15 17 15 17 17 14 14 13 13 17 15 20 22 23 24 23 24 23 23 24 24 19 19 15 15 14 14 13 13 12 12 11 11 11 11 12 11 13 15 20 20 19 17 18 15 18 22 23 28 27 28 32 35 35 35 36 36 37 40 43 43 50 54 56 57 60 60 60 61 61 61 61 62 63 60 60 61 59 60 65 70 71 74 73 -193 75 80 87 93 91 91 92 100 95 95 97 100 97 100 100 100 98 103 103 104 102 106 107 110 112 113 117 119 118 120 122 122 122 123 125 126 128 131 134 136 137 137 137 139 139 137 139 139 145 146 149 150 151 153 153 154 155 155 156 157 157 159 165 164 168 169 170 172 172 175 176 176 176 177 180 183 183 186 187 187 0 0 0 0 0
    0 0 0 0 0 0 0 0 0 0 0 0 0 0 0 0 0 0 0 0 0 0 0 0 0 0 0 0 0 0 0 0 0 0 0 0 0 0 0 0 0 0 0 0 0 0 0 0 0 0 0 0 0 0 0 0 0 0 0 0 0 0 0 0 0 0 0 0 0 69 68 66 65 63 61 61 -209 63 70 -209 69 68 67 68 69 66 -193 -193 66 64 65 68 67 68 69 70 70 70 71 71 71 74 71 71 74 73 73 74 73 73 73 74 74 71 72 69 66 67 65 62 65 -193 24 23 21 21 20 20 18 14 15 13 15 16 15 15 16 15 16 17 17 15 16 18 15 15 16 16 17 17 16 18 16 18 17 15 16 14 14 18 15 20 23 23 24 24 24 24 24 25 25 20 20 16 16 14 14 14 14 13 13 12 12 11 12 13 11 14 14 20 19 18 17 18 16 18 22 23 28 29 32 36 38 37 37 38 37 40 41 43 43 51 55 56 58 59 60 60 61 61 60 60 62 62 60 60 61 60 63 68 73 74 75 75 76 75 79 86 90 91 91 92 100 94 95 96 100 97 99 100 99 97 102 102 103 99 105 106 108 110 110 114 117 117 118 120 120 121 123 125 127 130 132 136 137 138 138 138 139 139 137 140 139 145 145 148 150 151 153 153 154 156 156 156 158 157 158 164 164 168 169 170 172 172 175 176 176 175 177 180 183 183 186 187 187 0 0 0 0 0
    0 0 0 0 0 0 0 0 0 0 0 0 0 0 0 0 0 0 0 0 0 0 0 0 0 0 0 0 0 0 0 0 0 0 0 0 0 0 0 0 0 0 0 0 0 0 0 0 0 0 0 0 0 0 0 0 0 0 0 0 0 0 0 0 0 0 0 0 0 70 69 67 66 64 63 61 64 67 70 70 70 68 68 68 69 65 66 65 67 67 68 70 69 70 71 71 71 70 71 71 72 74 70 71 74 73 72 73 73 73 73 74 74 72 73 71 69 69 67 64 66 67 24 24 22 22 21 21 18 15 15 13 16 17 16 16 16 16 17 18 18 17 18 19 17 16 18 18 19 18 17 19 17 18 18 16 17 15 15 19 15 20 24 24 25 24 24 24 24 25 25 21 21 18 19 17 16 16 15 14 13 12 12 10 10 11 10 12 12 17 18 18 16 19 18 20 22 23 27 31 34 38 40 39 39 40 39 42 41 43 43 49 54 56 57 59 60 60 60 61 61 60 62 62 61 60 62 61 66 72 74 76 76 76 76 75 79 86 88 90 90 91 99 94 94 96 99 96 99 100 99 97 102 102 102 96 105 105 107 108 108 110 113 111 113 114 113 106 121 122 125 -193 133 137 138 139 139 138 139 139 137 140 -193 -193 -193 -193 150 -209 -209 -193 -193 157 157 157 158 157 158 163 163 167 168 170 171 171 174 175 175 175 176 180 184 184 187 187 187 0 0 0 0 0
    0 0 0 0 0 0 0 0 0 0 0 0 0 0 0 0 0 0 0 0 0 0 0 0 0 0 0 0 0 0 0 0 0 0 0 0 0 0 0 0 0 0 0 0 0 0 0 0 0 0 0 0 0 0 0 0 0 0 0 0 0 0 0 0 0 0 0 0 0 70 67 62 60 60 59 59 63 66 70 70 70 68 68 68 69 64 67 67 69 70 72 73 72 72 72 72 72 71 72 73 73 76 71 71 75 73 72 73 73 73 73 74 75 73 74 72 70 69 66 62 63 62 28 28 24 24 22 22 20 17 17 15 18 19 18 18 18 17 19 20 20 19 19 21 19 19 20 19 20 20 18 20 17 19 18 17 17 16 16 19 15 21 24 24 25 24 24 24 24 26 26 22 22 20 21 18 18 17 16 16 14 13 13 12 12 15 12 13 13 17 18 16 17 18 16 21 22 22 25 31 36 39 41 40 39 41 40 42 42 44 45 51 55 57 58 58 60 60 61 61 61 61 62 62 62 61 63 62 70 75 76 77 77 76 77 76 79 86 88 89 90 91 99 94 94 96 99 96 99 100 99 97 101 101 101 96 104 104 105 106 107 109 110 110 110 111 111 -209 117 120 -209 -209 129 132 134 135 135 136 137 137 137 140 -193 -193 -193 -193 -193 -209 91 96 101 -193 -177 -177 158 157 157 163 162 167 168 170 171 171 174 175 175 175 176 180 185 185 187 187 188 0 0 0 0 0
    0 0 0 0 0 0 0 0 0 0 0 0 0 0 0 0 0 0 0 0 0 0 0 0 0 0 0 0 0 0 0 0 0 0 0 0 0 0 0 0 0 0 0 0 0 0 0 0 0 0 0 0 0 0 0 0 0 0 0 0 0 0 0 0 0 0 0 0 0 66 -193 54 54 56 55 56 61 62 69 69 69 68 69 69 70 67 69 70 71 73 75 77 73 73 74 72 72 72 74 73 74 76 72 72 77 74 73 74 73 74 74 75 76 74 75 73 71 69 65 62 62 60 32 32 26 26 24 24 22 19 18 17 19 19 19 19 18 18 20 21 21 20 21 22 20 20 21 20 21 21 19 20 18 20 19 18 19 18 19 21 17 21 25 24 25 24 24 24 24 26 26 22 23 21 21 19 18 18 18 18 17 15 17 15 16 18 16 15 14 16 17 15 17 18 17 18 21 23 28 37 41 41 42 41 40 42 42 43 42 46 49 53 55 57 57 58 60 60 61 61 62 61 62 63 63 62 64 64 71 75 76 78 77 76 77 76 79 86 88 89 90 91 99 94 95 96 99 96 99 100 100 97 101 101 101 96 104 104 105 106 107 111 110 110 111 112 112 -193 117 118 -209 -209 124 126 127 130 130 133 133 134 -193 -193 -209 -193 -209 -193 -193 94 94 98 102 -193 -177 -177 158 157 157 162 162 166 168 169 170 171 174 175 175 175 177 180 186 185 188 188 188 0 0 0 0 0
    0 0 0 0 0 0 0 0 0 0 0 0 0 0 0 0 0 0 0 0 0 0 0 0 0 0 0 0 0 0 0 0 0 0 0 0 0 0 0 0 0 0 0 0 0 0 0 0 0 0 0 0 0 0 0 0 0 0 0 0 0 0 0 0 0 0 0 0 0 -209 47 50 52 54 53 56 59 60 66 67 68 68 70 71 71 69 72 74 75 76 80 82 76 74 75 73 72 72 76 75 75 77 75 74 78 76 75 74 74 75 75 75 76 74 74 72 70 68 63 62 62 60 -193 -193 33 30 25 25 23 20 19 18 19 19 19 19 19 19 20 21 22 22 22 23 21 21 21 21 22 21 20 21 19 20 20 19 22 20 22 22 20 22 25 24 25 24 24 24 24 25 26 22 23 22 22 20 19 20 19 18 18 16 18 17 17 18 16 15 15 15 16 13 16 18 16 17 18 22 28 37 41 41 42 42 41 43 42 44 43 48 51 53 55 56 57 58 60 60 60 61 62 62 62 63 64 62 64 65 72 76 76 77 77 77 78 77 79 86 88 89 90 92 99 94 95 96 99 95 98 99 100 97 101 101 101 96 105 105 105 106 107 112 110 110 111 113 114 -209 121 121 -209 -209 124 125 126 127 128 132 -193 -193 -193 -193 -209 -209 -209 -209 -209 -209 93 97 -193 -193 -177 156 158 159 158 163 163 166 167 169 169 170 173 174 175 174 177 181 186 186 188 188 188 0 0 0 0 0
    0 0 0 0 0 0 0 0 0 0 0 0 0 0 0 0 0 0 0 0 0 0 0 0 0 0 0 0 0 0 0 0 0 0 0 0 0 0 0 0 0 0 0 0 0 0 0 0 0 0 0 0 0 0 0 0 0 0 0 0 0 0 0 0 0 0 0 0 0 -209 -193 48 52 55 55 57 59 60 64 66 68 68 70 71 74 71 78 87 82 80 84 85 80 77 77 73 72 72 81 76 77 79 78 77 80 77 76 75 74 75 74 74 75 73 73 71 70 68 63 63 63 60 58 57 -193 36 26 25 23 21 19 19 19 19 19 20 19 20 20 22 22 23 23 23 22 22 22 21 22 21 20 21 19 21 20 20 23 22 23 23 21 23 25 25 25 24 24 24 24 25 26 23 24 23 22 21 20 20 19 18 18 16 18 17 17 18 16 16 16 15 16 13 17 19 17 18 18 21 26 36 40 41 41 42 41 44 43 45 43 50 52 54 55 57 58 58 60 60 60 61 62 62 63 63 64 62 64 67 72 76 77 78 77 77 79 78 81 86 -193 90 90 92 99 95 95 96 99 95 98 99 99 96 100 101 101 96 105 105 106 106 108 113 111 110 112 113 115 -209 122 124 -193 -193 126 126 127 128 130 133 134 136 -193 -193 -209 -193 -209 -209 -209 -209 -177 -177 -177 -209 156 157 159 161 160 162 162 164 166 168 168 169 171 172 173 173 175 180 186 186 187 188 188 0 0 0 0 0
    0 0 0 0 0 0 0 0 0 0 0 0 0 0 0 0 0 0 0 0 0 0 0 0 0 0 0 0 0 0 0 0 0 0 0 0 0 0 0 0 0 0 0 0 0 0 0 0 0 0 0 0 0 0 0 0 0 0 0 0 0 0 0 0 0 0 0 0 0 -209 -209 -193 -193 56 56 59 60 61 63 66 68 68 70 -193 78 -193 84 90 87 85 87 88 86 82 85 77 75 76 86 79 79 80 80 78 81 78 77 75 74 74 74 73 73 71 72 70 69 67 63 63 63 61 59 58 -193 -193 29 25 23 22 20 20 20 20 19 21 20 21 21 23 23 23 23 23 22 23 22 21 22 21 20 21 19 21 19 20 23 22 24 24 21 23 25 24 25 23 23 23 23 25 25 23 25 23 23 22 21 22 20 19 19 16 19 17 17 18 17 17 17 15 17 14 18 20 18 18 18 21 25 35 39 40 41 42 42 44 43 44 43 50 53 54 55 57 58 58 59 60 60 61 62 62 63 63 64 63 65 69 73 75 77 77 76 77 79 79 82 87 -193 91 91 93 99 95 95 96 99 95 97 99 100 97 101 101 101 97 105 106 107 106 108 112 110 111 112 114 116 -193 122 126 -193 -193 126 125 125 125 126 129 -193 -193 -193 -193 -209 -193 192 -209 -209 -209 -209 -193 -193 -193 156 157 158 159 157 158 158 159 161 164 165 167 168 168 -209 171 177 180 -209 -193 -193 189 188 0 0 0 0 0
    0 0 0 0 0 0 0 0 0 0 0 0 0 0 0 0 0 0 0 0 0 0 0 0 0 0 0 0 0 0 0 0 0 0 0 0 0 0 0 0 0 0 0 0 0 0 0 0 0 0 0 0 0 0 0 0 0 0 0 0 0 0 0 0 0 0 0 0 0 -209 -209 -209 -209 -193 57 60 61 62 63 65 68 68 71 -193 76 74 86 92 89 88 89 90 90 89 89 89 86 85 87 83 81 82 82 80 80 78 77 75 75 75 74 73 73 72 72 70 69 66 62 63 63 61 59 58 58 -193 35 27 24 23 21 21 21 20 20 21 21 22 22 24 24 24 24 24 23 23 23 21 22 21 20 21 19 21 19 20 24 23 25 25 22 23 25 24 25 23 22 22 23 25 25 23 25 24 25 24 22 23 21 20 20 17 20 18 18 18 17 17 17 15 16 13 18 19 18 18 18 20 24 34 39 40 41 42 42 44 44 45 44 50 53 53 54 55 57 57 59 60 60 61 63 63 63 63 65 64 66 69 73 75 76 76 76 77 79 79 82 87 -193 91 92 93 99 95 95 96 99 95 97 99 100 97 101 101 -193 98 105 106 107 106 108 111 109 109 110 111 113 -209 121 123 -193 -193 125 125 126 127 128 131 -193 -209 -193 -193 -209 -209 -209 -209 -177 -209 -209 -209 -209 156 157 159 159 160 158 158 158 159 161 162 162 165 162 -193 -209 -209 -209 -209 -209 -209 -193 -193 189 0 0 0 0 0
    0 0 0 0 0 0 0 0 0 0 0 0 0 0 0 0 0 0 0 0 0 0 0 0 0 0 0 0 0 0 0 0 0 0 0 0 0 0 0 0 0 0 0 0 0 0 0 0 0 0 0 0 0 0 0 0 0 0 0 0 0 0 0 0 0 0 0 0 0 -209 -209 -209 -209 -209 -193 -193 -193 63 64 62 65 66 70 -193 83 83 89 94 92 92 93 96 95 94 94 95 93 87 88 85 82 82 82 81 80 77 77 75 74 75 74 73 73 72 72 70 69 67 62 62 63 61 59 59 58 59 39 31 24 23 21 22 21 21 20 21 21 22 22 24 25 25 25 25 24 24 23 22 22 21 21 21 19 21 20 21 -193 24 26 26 23 24 25 24 25 22 22 22 23 25 25 24 26 25 26 26 24 24 21 19 21 18 20 18 18 19 18 17 18 15 16 13 17 20 18 18 19 20 24 34 39 40 41 43 43 45 45 45 45 50 52 52 53 54 56 56 58 59 59 61 63 63 63 63 66 64 66 70 73 76 77 77 76 77 81 81 83 87 -193 92 92 94 99 96 96 97 100 95 97 99 100 97 101 101 -193 98 105 106 107 106 108 111 108 108 108 109 110 -209 118 119 122 121 123 124 126 128 129 -209 -193 -209 -193 -209 -209 -209 -193 -209 -177 -209 -209 -209 -209 154 155 157 158 158 157 157 158 158 160 161 161 164 -193 -209 -193 -209 -209 -209 127 130 125 126 -177 0 0 0 0 0
    0 0 0 0 0 0 0 0 0 0 0 0 0 0 0 0 0 0 0 0 0 0 0 0 0 0 0 0 0 0 0 0 0 0 0 0 0 0 0 0 0 0 0 0 0 0 0 0 0 0 0 0 0 0 0 0 0 0 0 0 0 0 0 0 0 0 0 0 0 -209 -209 -209 -209 -209 -209 -193 -209 -193 -209 60 64 66 70 -193 86 86 88 94 92 92 93 96 95 95 96 99 99 90 90 86 84 83 83 82 80 78 78 76 75 76 75 74 73 73 72 70 69 68 63 63 63 61 60 60 60 60 45 37 23 23 21 22 21 20 19 20 20 22 22 24 25 25 25 25 24 24 24 22 22 22 21 21 19 22 20 21 25 25 27 27 25 25 26 25 26 22 22 22 23 25 26 24 26 25 27 28 25 25 22 19 21 19 21 19 19 19 19 18 18 15 16 13 18 20 19 19 20 21 24 35 39 40 41 42 43 45 45 45 45 49 51 51 52 54 55 55 58 60 60 62 64 64 64 64 67 65 67 71 74 77 78 78 77 79 82 83 84 88 93 92 92 94 99 97 97 98 100 96 98 100 101 98 101 102 -193 99 106 106 108 105 107 110 107 107 107 108 108 105 109 114 117 118 119 121 122 124 126 -193 -209 -209 -193 -209 -209 -209 -209 -209 38 -209 -209 -209 -209 -193 -193 -193 157 158 158 158 158 159 161 162 162 164 -193 -193 -209 -209 -193 78 -209 -209 -193 -209 -193 0 0 0 0 0
    0 0 0 0 0 0 0 0 0 0 0 0 0 0 0 0 0 0 0 0 0 0 0 0 0 0 0 0 0 0 0 0 0 0 0 0 0 0 0 0 0 0 0 0 0 0 0 0 0 0 0 0 0 0 0 0 0 0 0 0 0 0 0 0 0 0 0 0 0 102 -209 -209 -209 -209 -209 -209 -209 -209 -209 -209 69 -209 77 82 86 86 88 92 91 92 95 97 99 98 98 100 101 92 90 86 84 83 84 83 81 79 80 77 75 77 76 74 73 73 71 69 68 68 63 62 63 61 60 60 61 61 45 35 23 23 21 22 20 19 19 20 20 22 22 24 24 25 26 26 26 25 25 23 24 23 23 22 20 22 21 21 26 25 27 28 25 26 26 26 26 21 21 22 22 24 25 24 25 25 27 27 23 24 23 19 22 19 22 20 20 20 19 18 19 16 17 13 18 20 19 20 21 23 26 37 40 41 41 42 44 44 45 44 45 50 52 52 53 54 56 56 58 60 60 62 64 64 65 65 67 66 67 72 73 76 77 77 76 79 82 84 85 88 94 93 93 95 100 98 98 99 101 97 99 100 102 99 102 102 -177 100 106 108 109 106 108 110 108 108 108 109 108 106 108 115 117 117 117 120 120 122 122 -209 -209 -209 -209 -209 -209 -209 -209 -209 -209 -209 -209 -209 -209 -209 -193 -193 157 157 158 160 159 160 162 163 163 -193 -193 -193 -209 -209 -209 76 -193 -209 -193 -209 -193 0 0 0 0 0
    0 0 0 0 0 0 0 0 0 0 0 0 0 0 0 0 0 0 0 0 0 0 0 0 0 0 0 0 0 0 0 0 0 0 0 0 0 0 0 0 0 0 0 0 0 0 0 0 0 0 0 0 0 0 0 0 0 0 0 0 0 0 0 0 0 0 0 0 0 100 -193 -209 -209 -209 -209 -209 -209 -193 -209 -209 -209 -209 -193 88 89 89 91 92 92 93 94 95 97 96 95 98 96 90 89 87 84 84 85 83 81 80 81 78 76 77 76 73 72 72 71 69 68 68 63 62 63 62 61 61 61 61 52 -193 28 27 22 23 21 19 19 21 22 23 22 25 26 25 28 29 27 27 26 25 25 24 24 23 20 23 20 21 27 26 27 27 26 27 26 27 28 15 18 21 21 22 24 23 23 24 27 26 22 23 22 17 21 18 21 19 19 19 19 19 20 16 18 13 18 21 21 21 23 26 30 39 42 42 42 43 44 44 45 44 44 50 52 52 53 54 56 56 58 60 60 62 64 64 65 65 67 66 66 71 72 74 76 75 75 77 82 85 85 89 94 94 94 96 100 99 99 100 102 98 99 100 102 100 102 102 -177 101 106 108 108 106 108 109 107 107 107 107 106 105 105 111 115 115 116 118 119 122 122 -209 -209 -209 -209 -209 -209 -209 -209 -209 -209 -209 -209 -209 -209 148 -193 -193 154 156 158 160 160 162 163 164 164 165 -193 -193 -209 -193 -193 -193 -193 -209 -193 -193 -193 0 0 0 0 0
    0 0 0 0 0 0 0 0 0 0 0 0 0 0 0 0 0 0 0 0 0 0 0 0 0 0 0 0 0 0 0 0 0 0 0 0 0 0 0 0 0 0 0 0 0 0 0 0 0 0 0 0 0 0 0 0 0 0 0 0 0 0 0 0 0 0 0 0 0 93 91 91 93 -193 86 87 86 85 -193 91 91 -209 91 91 91 91 93 93 92 93 94 95 96 96 95 97 95 90 89 87 85 84 85 83 81 80 82 78 76 77 76 73 72 72 70 68 67 69 62 61 62 60 59 59 59 59 51 56 52 42 25 27 25 24 22 24 24 25 24 26 27 26 31 36 30 30 29 28 28 27 26 24 -225 -225 -225 21 28 25 25 26 26 26 25 27 28 13 21 26 -209 -193 33 33 31 -193 37 40 24 24 17 14 19 16 19 17 17 17 17 19 20 16 17 13 18 22 22 25 24 29 35 41 44 44 44 44 45 45 46 44 44 49 50 51 53 54 56 56 58 60 60 62 64 64 65 65 67 66 67 71 72 74 75 75 75 77 81 85 85 88 93 94 94 95 100 100 99 101 102 98 99 101 102 100 102 102 -193 100 106 107 107 105 107 107 106 107 106 106 105 105 103 108 112 112 116 119 120 122 122 119 -209 -209 -209 -209 -209 -209 -209 -209 130 135 -193 139 142 147 151 152 154 155 158 160 160 162 163 164 165 165 165 -193 -209 -209 -209 -209 -193 -193 -193 -193 -193 0 0 0 0 0
    0 0 0 0 0 0 0 0 0 0 0 0 0 0 0 0 0 0 0 0 0 0 0 0 0 0 0 0 0 0 0 0 0 0 0 0 0 0 0 0 0 0 0 0 0 0 0 0 0 0 0 0 0 0 0 0 0 0 0 0 0 0 0 0 0 0 0 0 0 89 88 87 90 87 87 88 88 87 93 92 93 93 92 91 92 92 94 93 93 94 94 95 97 96 95 96 95 91 89 88 86 85 86 84 82 81 82 79 77 77 76 73 72 72 71 69 68 70 63 60 61 60 59 58 59 59 51 56 55 45 39 38 37 34 30 29 29 31 28 30 34 39 44 47 38 38 39 39 39 38 36 -225 -225 -225 -225 -225 -225 -225 23 25 24 25 24 27 29 10 -209 -209 -209 -209 -209 -225 -225 -225 -225 -225 -225 -225 -225 0 15 12 16 15 15 16 17 20 20 18 18 14 19 23 23 31 30 36 40 42 45 45 46 46 47 46 48 45 45 50 50 51 53 54 56 56 58 60 60 61 64 64 65 65 67 66 67 71 72 73 75 75 75 77 79 84 85 88 93 94 94 95 100 101 100 102 103 100 100 102 103 101 102 102 102 99 105 106 106 103 105 105 105 105 105 105 104 105 103 107 112 113 118 121 122 124 124 123 123 124 128 -209 -209 -209 -209 -209 128 133 -193 139 142 149 153 154 155 155 159 161 161 163 163 164 165 165 164 -193 -209 -209 -209 -209 -209 -209 -209 -209 -193 0 0 0 0 0
    0 0 0 0 0 0 0 0 0 0 0 0 0 0 0 0 0 0 0 0 0 0 0 0 0 0 0 0 0 0 0 0 0 0 0 0 0 0 0 0 0 0 0 0 0 0 0 0 0 0 0 0 0 0 0 0 0 0 0 0 0 0 0 0 0 0 0 0 0 85 86 86 89 89 89 89 89 90 93 93 93 93 92 91 91 93 94 93 94 95 95 96 97 97 94 96 95 91 89 88 86 85 86 84 82 81 82 80 77 77 77 73 72 72 71 69 67 70 62 60 60 59 58 58 58 58 49 55 54 46 41 42 40 39 38 38 39 40 39 42 44 49 53 51 44 42 42 42 43 42 41 -225 -225 -225 -225 -225 -225 -225 -225 -225 -225 -225 -225 -225 -225 -225 -225 -225 -225 -225 -225 -225 -225 -225 -225 -225 -225 -225 -225 -225 -225 -225 -225 -225 -225 -225 -225 -225 -225 -225 -225 -225 -225 -225 -225 -225 -225 39 44 45 49 47 48 47 47 47 48 46 46 49 50 50 52 54 55 56 58 59 59 61 64 64 65 65 67 67 69 72 72 73 74 75 75 76 78 82 84 87 92 93 94 94 100 102 101 103 103 101 102 102 104 103 102 102 102 100 105 106 106 104 106 106 105 106 105 106 104 106 105 108 115 115 118 121 122 125 125 125 125 126 126 -209 -209 117 119 115 123 128 132 -193 139 145 151 153 154 153 157 160 161 163 162 164 164 164 164 164 162 167 -209 -193 -209 -209 -209 -209 -193 0 0 0 0 0
    0 0 0 0 0 0 0 0 0 0 0 0 0 0 0 0 0 0 0 0 0 0 0 0 0 0 0 0 0 0 0 0 0 0 0 0 0 0 0 0 0 0 0 0 0 0 0 0 0 0 0 0 0 0 0 0 0 0 0 0 0 0 0 0 0 0 0 0 0 83 85 87 90 90 90 90 90 91 93 93 94 94 92 92 92 94 94 93 94 95 95 96 97 96 94 95 95 92 89 88 86 86 87 85 82 81 81 80 76 77 76 73 73 74 72 70 69 71 61 59 59 58 57 57 57 57 48 54 54 46 42 43 41 40 39 39 39 40 41 43 46 53 54 52 46 43 43 44 44 43 41 -225 -225 -225 -225 -225 -225 -225 -225 -225 -225 -225 -225 -225 -225 -225 -225 -225 -225 -225 -225 -225 -225 -225 -225 -225 -225 -225 -225 -225 -225 -225 -225 -225 -225 -225 -225 -225 -225 -225 -225 -225 -225 -225 -225 -225 -225 40 46 47 51 48 49 47 48 47 48 46 46 48 49 49 51 53 55 56 58 59 59 61 64 64 66 66 68 68 70 72 72 74 74 75 75 77 79 80 83 86 90 92 93 93 100 103 103 104 104 102 103 103 104 104 103 103 103 102 105 107 106 105 107 107 107 108 108 108 106 107 105 108 115 116 118 121 122 125 124 124 124 124 123 -209 107 114 119 105 -193 126 130 134 -193 141 145 -193 151 152 156 161 161 164 164 165 165 165 164 164 -209 166 -209 161 -209 -209 -209 -209 -193 0 0 0 0 0
    0 0 0 0 0 0 0 0 0 0 0 0 0 0 0 0 0 0 0 0 0 0 0 0 0 0 0 0 0 0 0 0 0 0 0 0 0 0 0 0 0 0 0 0 0 0 0 0 0 0 0 0 0 0 0 0 0 0 0 0 0 0 0 0 0 0 0 0 0 81 83 86 89 89 89 89 90 90 93 93 94 94 93 93 93 94 94 94 95 95 95 96 98 97 95 97 96 95 91 90 87 87 87 85 82 81 81 79 75 75 75 73 73 73 72 70 70 71 61 59 59 58 58 57 58 56 49 55 55 49 44 45 44 42 41 40 40 41 42 45 53 53 54 52 48 45 45 45 45 43 41 -225 -225 -225 -225 -225 -225 -225 -225 -225 -225 -225 -225 -225 -225 -225 -225 -225 -225 -225 -225 -225 -225 -225 -225 -225 -225 -225 -225 -225 -225 -225 -225 -225 -225 -225 -225 -225 -225 -225 -225 -225 -225 -225 -225 -225 -225 40 46 47 50 49 50 48 48 47 49 46 46 48 48 48 51 52 54 56 58 59 60 61 65 65 66 67 68 69 70 72 72 73 74 75 75 76 78 79 82 85 90 92 93 93 100 104 104 105 105 104 104 104 106 105 103 103 103 102 105 107 107 106 107 108 108 109 109 109 107 108 106 109 116 117 119 122 123 125 124 123 123 123 122 122 116 118 120 117 122 124 129 132 135 138 140 -193 144 149 154 159 159 163 163 165 165 165 165 -193 -209 166 -209 164 161 -193 -209 -193 -193 0 0 0 0 0
    0 0 0 0 0 0 0 0 0 0 0 0 0 0 0 0 0 0 0 0 0 0 0 0 0 0 0 0 0 0 0 0 0 0 0 0 0 0 0 0 0 0 0 0 0 0 0 0 0 0 0 0 0 0 0 0 0 0 0 0 0 0 0 0 0 0 0 0 0 80 83 86 88 89 89 89 90 91 93 93 94 94 93 92 93 93 94 94 95 94 94 96 97 96 94 95 95 96 92 90 88 89 88 85 82 81 81 78 75 74 75 72 73 73 72 70 68 69 60 59 59 58 58 58 57 56 50 55 56 52 49 47 47 44 43 41 41 42 43 47 52 53 53 52 48 45 45 45 44 42 41 -225 -225 -225 -225 -225 -225 -225 -225 -225 -225 -225 -225 -225 -225 -225 -225 -225 -225 -225 -225 -225 -225 -225 -225 -225 -225 -225 -225 -225 -225 -225 -225 -225 -225 -225 -225 -225 -225 -225 -225 -225 -225 -225 -225 -225 -225 40 46 47 50 50 51 49 49 48 50 48 49 51 52 51 53 55 56 57 58 60 59 61 65 67 67 68 68 69 71 72 72 73 73 74 75 76 77 78 80 84 90 92 93 93 101 106 105 106 106 105 105 106 107 106 103 104 104 103 105 107 106 106 107 108 108 109 109 109 108 109 107 112 118 121 121 123 124 124 123 122 123 123 122 123 119 119 122 120 122 123 127 130 134 135 138 -209 -209 145 154 158 -193 -209 -209 -193 166 166 165 -193 -209 167 166 167 167 167 -193 -193 172 0 0 0 0 0
    0 0 0 0 0 0 0 0 0 0 0 0 0 0 0 0 0 0 0 0 0 0 0 0 0 0 0 0 0 0 0 0 0 0 0 0 0 0 0 0 0 0 0 0 0 0 0 0 0 0 0 0 0 0 0 0 0 0 0 0 0 0 0 0 0 0 0 0 0 80 82 86 88 89 89 89 90 91 93 93 94 94 93 93 93 94 94 94 95 94 93 96 96 96 93 93 92 95 91 90 88 90 88 85 82 80 81 78 75 74 74 72 73 73 72 68 66 66 60 59 58 58 58 57 57 55 51 56 56 55 53 50 51 46 46 43 42 43 44 48 52 52 52 51 49 47 47 46 44 43 42 -225 -225 -225 -225 -225 -225 -225 -225 -225 -225 -225 -225 -225 -225 -225 -225 -225 -225 -225 -225 -225 -225 -225 -225 -225 -225 -225 -225 -225 -225 -225 -225 -225 -225 -225 -225 -225 -225 -225 -225 -225 -225 -225 -225 -225 -225 -225 47 47 50 50 52 49 50 49 51 50 52 54 54 54 56 57 58 59 59 60 60 62 64 68 68 69 69 70 71 72 72 73 73 74 75 75 78 77 80 84 90 93 94 93 101 108 106 106 106 106 106 107 108 107 104 104 104 104 105 107 107 106 108 109 109 110 110 110 109 111 109 115 121 123 123 126 127 127 125 124 124 124 123 123 120 120 122 121 123 124 128 129 132 133 137 -193 135 141 153 156 -193 -209 -209 -209 -209 -209 -193 -209 -209 168 167 168 168 169 -193 173 173 0 0 0 0 0
    0 0 0 0 0 0 0 0 0 0 0 0 0 0 0 0 0 0 0 0 0 0 0 0 0 0 0 0 0 0 0 0 0 0 0 0 0 0 0 0 0 0 0 0 0 0 0 0 0 0 0 0 0 0 0 0 0 0 0 0 0 0 0 0 0 0 0 0 0 79 82 86 88 89 90 90 91 92 93 93 94 95 94 94 94 95 95 95 96 95 93 97 97 97 95 95 94 96 89 90 90 92 88 86 82 80 81 78 75 74 75 73 73 74 73 68 65 66 61 60 59 59 59 57 57 55 52 56 56 55 54 52 53 49 49 44 43 45 48 51 54 54 54 52 52 51 51 48 47 46 -225 -225 -225 -225 -225 -225 -225 -225 -225 -225 -225 -225 -225 -225 -225 -225 -225 -225 -225 -225 -225 -225 -225 -225 -225 -225 -225 -225 -225 -225 -225 -225 -225 -225 -225 -225 -225 -225 -225 -225 -225 -225 -225 -225 -225 -225 -225 -225 47 48 51 52 53 50 51 50 52 52 53 54 54 54 56 57 57 58 58 59 59 61 63 67 68 69 69 70 71 72 73 73 74 74 75 76 79 78 81 84 90 92 93 92 100 108 106 106 106 108 107 108 108 107 104 105 105 105 105 106 106 106 108 109 110 111 111 111 110 112 111 115 122 124 124 128 128 129 126 125 125 124 123 123 121 121 123 123 124 126 130 131 133 135 137 138 136 139 150 -209 -209 -209 -193 -193 -209 -209 -209 -209 -209 167 166 167 167 167 -209 172 173 0 0 0 0 0
    0 0 0 0 0 0 0 0 0 0 0 0 0 0 0 0 0 0 0 0 0 0 0 0 0 0 0 0 0 0 0 0 0 0 0 0 0 0 0 0 0 0 0 0 0 0 0 0 0 0 0 0 0 0 0 0 0 0 0 0 0 0 0 0 0 0 0 0 0 79 81 85 88 90 90 90 91 93 94 94 95 95 94 94 95 96 95 96 97 95 95 98 98 98 96 98 100 -209 89 88 90 92 88 86 82 79 81 79 76 75 75 74 74 75 74 69 66 66 63 61 61 60 60 58 57 55 53 55 56 55 55 54 55 54 54 50 52 52 56 55 57 56 55 54 54 53 52 50 49 48 -225 -225 -225 -225 -225 -225 -225 -225 -225 -225 -225 -225 -225 -225 -225 -225 -225 -225 -225 -225 -225 -225 -225 -225 -225 -225 -225 -225 -225 -225 -225 -225 -225 -225 -225 -225 -225 -225 -225 -225 -225 -225 -225 -225 -225 -225 -225 -225 -225 50 53 54 55 52 52 51 53 53 55 55 55 55 57 57 58 58 58 58 59 61 62 67 67 69 69 70 72 72 73 73 74 75 76 77 79 78 81 84 89 90 91 91 100 106 105 106 106 108 107 108 109 108 105 105 105 105 105 106 106 106 109 112 112 113 113 113 112 115 116 119 122 126 126 129 129 128 126 126 126 125 123 123 121 121 123 124 125 125 130 134 136 138 139 141 141 142 149 -209 -209 -209 -209 -193 -209 -193 -193 -209 -209 -209 -209 -209 -209 -209 -209 -193 174 0 0 0 0 0
    0 0 0 0 0 0 0 0 0 0 0 0 0 0 0 0 0 0 0 0 0 0 0 0 0 0 0 0 0 0 0 0 0 0 0 0 0 0 0 0 0 0 0 0 0 0 0 0 0 0 0 0 0 0 0 0 0 0 0 0 0 0 0 0 0 0 0 0 0 79 81 86 88 90 91 91 92 93 94 94 96 95 95 95 96 96 95 96 97 0 -256 -1 19331 98 96 100 103 96 90 89 91 92 88 87 83 80 82 80 77 76 76 76 75 76 75 69 67 67 65 64 63 62 61 60 59 57 55 56 59 58 57 56 57 57 57 57 58 58 59 59 59 58 57 55 55 54 53 51 49 -225 -225 -225 -225 -225 -225 -225 -225 -225 -225 -225 -225 -225 -225 -225 -225 -225 -225 -225 -225 -225 -225 -225 -225 -225 -225 -225 -225 -225 -225 -225 -225 -225 -225 -225 -225 -225 -225 -225 -225 -225 -225 -225 -225 -225 -225 -225 -225 -225 -225 -225 -225 55 57 54 54 53 55 57 57 57 58 57 58 58 58 59 58 59 59 61 62 67 68 69 70 71 72 73 73 74 74 75 76 77 80 79 83 85 88 90 91 91 99 104 104 105 105 108 108 108 109 108 105 106 106 106 105 107 107 106 109 112 112 114 115 115 115 117 118 121 124 127 127 129 129 128 127 127 127 126 124 123 122 123 125 128 127 128 133 135 137 138 139 141 142 143 149 150 149 -209 -209 -209 -209 -193 -193 84 -193 -209 -209 -209 -209 -209 -209 -193 -193 0 0 0 0 0
    0 0 0 0 0 0 0 0 0 0 0 0 0 0 0 0 0 0 0 0 0 0 0 0 0 0 0 0 0 0 0 0 0 0 0 0 0 0 0 0 0 0 0 0 0 0 0 0 0 0 0 0 0 0 0 0 0 0 0 0 0 0 0 0 0 0 0 0 0 80 82 86 89 91 91 91 92 94 93 95 96 95 95 96 96 96 95 98 98 97 96 99 99 99 95 100 103 94 90 90 90 91 87 87 82 79 82 80 77 76 76 76 75 76 75 70 69 68 66 65 64 63 62 61 61 59 58 60 62 61 60 59 59 59 59 60 61 60 60 61 60 59 58 57 57 55 54 51 -225 -225 -225 -225 -225 -225 -225 -225 -225 -225 -225 -225 -225 -225 -225 -225 -225 -225 -225 -225 -225 -225 -225 -225 -225 -225 -225 -225 -225 -225 -225 -225 -225 -225 -225 -225 -225 -225 -225 -225 -225 -225 -225 -225 -225 -225 -225 -225 -225 -225 -225 -225 -225 -225 60 54 55 55 57 59 59 59 59 59 60 60 60 61 60 59 59 61 62 67 68 69 69 70 72 73 73 74 74 75 77 77 81 80 83 85 -209 91 92 92 99 104 104 105 105 109 107 108 109 108 105 107 107 107 105 107 107 107 110 113 113 114 115 115 116 117 118 121 123 125 125 126 128 127 127 127 126 125 124 123 123 124 126 128 129 130 134 137 138 139 141 143 145 145 148 150 150 151 151 153 156 159 -193 -193 156 162 159 166 -209 -209 -209 -209 -193 0 0 0 0 0
    0 0 0 0 0 0 0 0 0 0 0 0 0 0 0 0 0 0 0 0 0 0 0 0 0 0 0 0 0 0 0 0 0 0 0 0 0 0 0 0 0 0 0 0 0 0 0 0 0 0 0 0 0 0 0 0 0 0 0 0 0 0 0 0 0 0 0 0 0 83 85 87 91 90 91 92 92 93 94 96 97 96 97 97 97 97 97 99 97 96 95 98 98 96 96 96 100 93 90 90 90 91 86 86 82 80 82 80 78 77 76 77 75 77 75 72 70 68 66 65 64 63 63 61 61 59 64 64 64 63 60 59 60 59 60 61 62 62 62 62 61 60 59 59 57 56 54 51 -225 -225 -225 -225 -225 -225 -225 -225 -225 -225 -225 -225 -225 -225 -225 -225 -225 -225 -225 -225 -225 -225 -225 -225 -225 -225 -225 -225 -225 -225 -225 -225 -225 -225 -225 -225 -225 -225 -225 -225 -225 -225 -225 -225 -225 -225 -225 -225 -225 -225 -225 -225 -225 -225 -225 54 55 57 59 63 61 62 61 62 61 62 62 63 61 62 61 62 62 68 67 68 68 69 71 73 73 74 74 75 77 77 81 80 83 85 88 90 91 91 99 104 103 104 104 108 107 108 109 107 105 107 107 107 105 106 107 107 110 113 113 114 115 115 115 117 118 119 122 124 124 126 128 127 128 127 126 125 124 124 123 125 127 129 131 132 137 141 143 143 144 146 148 148 149 149 149 151 150 153 155 158 158 157 158 164 163 166 167 162 -209 -209 -193 0 0 0 0 0
    0 0 0 0 0 0 0 0 0 0 0 0 0 0 0 0 0 0 0 0 0 0 0 0 0 0 0 0 0 0 0 0 0 0 0 0 0 0 0 0 0 0 0 0 0 0 0 0 0 0 0 0 0 0 0 0 0 0 0 0 0 0 0 0 0 0 0 0 0 86 87 89 90 90 91 92 93 93 94 96 98 97 97 97 97 96 98 99 95 95 95 97 97 96 96 95 98 91 90 91 90 91 87 87 83 82 83 81 79 77 77 78 76 77 76 73 70 68 67 66 64 64 64 62 63 63 71 64 63 63 61 59 59 59 61 62 64 64 64 64 63 61 60 59 58 56 54 -225 -225 -225 -225 -225 -225 -225 -225 -225 -225 -225 -225 -225 -225 -225 -225 -225 -225 -225 -225 -225 -225 -225 -225 -225 -225 -225 -225 -225 -225 -225 -225 -225 -225 -225 -225 -225 -225 -225 -225 -225 -225 -225 -225 -225 -225 -225 -225 -225 -225 -225 -225 -225 -225 -225 -225 -225 56 59 60 67 63 64 63 63 62 63 63 64 62 63 62 63 62 68 66 68 68 69 71 72 73 74 74 75 77 77 81 80 82 84 87 89 90 90 97 103 102 102 104 108 107 107 108 107 105 106 107 107 104 105 106 105 110 113 113 114 115 115 115 116 118 118 121 123 123 124 126 126 128 128 128 127 127 126 126 129 132 133 134 136 139 143 145 145 145 146 148 149 148 148 147 149 150 152 155 158 159 160 162 166 167 168 169 167 165 -193 -193 0 0 0 0 0
    0 0 0 0 0 0 0 0 0 0 0 0 0 0 0 0 0 0 0 0 0 0 0 0 0 0 0 0 0 0 0 0 0 0 0 0 0 0 0 0 0 0 0 0 0 0 0 0 0 0 0 0 0 0 0 0 0 0 0 0 0 0 0 0 0 0 0 0 0 90 91 92 94 98 99 97 96 99 96 98 99 97 98 97 98 98 97 97 95 95 95 95 95 94 94 92 94 88 88 90 90 90 86 87 84 83 84 82 80 78 77 79 77 78 76 73 70 68 67 66 64 64 63 61 61 68 68 62 63 63 61 60 60 61 63 64 66 66 66 66 64 63 61 60 58 57 -225 -225 -225 -225 -225 -225 -225 -225 -225 -225 -225 -225 -225 -225 -225 -225 -225 -225 -225 -225 -225 -225 -225 -225 -225 -225 -225 -225 -225 -225 -225 -225 -225 -225 -225 -225 -225 -225 -225 -225 -225 -225 -225 -225 -225 -225 -225 -225 -225 -225 -225 -225 -225 -225 -225 -225 -225 -225 56 60 61 68 64 65 64 64 63 64 64 65 63 64 64 64 63 67 66 68 67 68 71 72 73 75 75 76 77 78 80 80 81 84 86 88 90 90 96 102 100 100 103 107 106 107 107 106 104 106 107 107 103 105 105 105 110 114 114 115 116 116 116 117 118 118 121 122 122 124 126 126 128 130 129 131 130 130 130 132 133 135 135 138 141 145 147 147 147 148 149 150 149 149 148 150 150 153 156 160 160 161 163 168 169 169 169 167 167 169 169 0 0 0 0 0
    0 0 0 0 0 0 0 0 0 0 0 0 0 0 0 0 0 0 0 0 0 0 0 0 0 0 0 0 0 0 0 0 0 0 0 0 0 0 0 0 0 0 0 0 0 0 0 0 0 0 0 0 0 0 0 0 0 0 0 0 0 0 0 0 0 0 0 0 0 91 90 89 90 93 97 95 93 100 96 97 98 98 98 97 99 98 96 96 94 95 95 94 94 94 93 93 93 89 89 89 89 88 86 86 84 83 84 82 80 79 78 80 77 77 76 73 71 69 68 66 65 64 63 60 68 70 72 66 66 66 64 63 64 65 67 67 68 68 68 67 66 64 63 61 60 -225 -225 -225 -225 -225 -225 -225 -225 -225 -225 -225 -225 -225 -225 -225 -225 -225 -225 -225 -225 -225 -225 -225 -225 -225 -225 -225 -225 -225 -225 -225 -225 -225 -225 -225 -225 -225 -225 -225 -225 -225 -225 -225 -225 -225 -225 -225 -225 -225 -225 -225 -225 -225 -225 -225 -225 -225 -225 -225 -225 63 63 69 65 64 65 65 64 65 65 66 65 66 66 66 65 67 66 67 66 67 70 73 74 76 76 77 79 79 82 82 82 84 86 88 89 89 94 101 98 99 102 106 105 106 106 105 104 106 107 107 103 105 106 106 112 116 116 117 118 117 117 117 119 119 121 122 122 123 126 126 129 131 130 131 131 131 131 133 134 135 136 139 143 146 147 149 149 149 150 151 152 152 151 153 152 155 157 162 162 163 165 169 170 170 170 168 168 169 169 0 0 0 0 0
    0 0 0 0 0 0 0 0 0 0 0 0 0 0 0 0 0 0 0 0 0 0 0 0 0 0 0 0 0 0 0 0 0 0 0 0 0 0 0 0 0 0 0 0 0 0 0 0 0 0 0 0 0 0 0 0 0 0 0 0 0 0 0 0 0 0 0 0 0 89 89 87 87 90 93 92 91 98 93 94 95 95 96 95 97 96 95 96 94 94 95 94 95 94 93 94 93 90 90 89 89 88 86 86 84 83 83 82 80 79 78 80 77 77 76 74 72 71 70 68 66 66 66 67 74 73 75 69 69 68 65 66 68 68 69 69 70 69 69 69 68 66 65 63 61 -225 -225 -225 -225 -225 -225 -225 -225 -225 -225 -225 -225 -225 -225 -225 -225 -225 -225 -225 -225 -225 -225 -225 -225 -225 -225 -225 -225 -225 -225 -225 -225 -225 -225 -225 -225 -225 -225 -225 -225 -225 -225 -225 -225 -225 -225 -225 -225 -225 -225 -225 -225 -225 -225 -225 -225 -225 -225 -225 -225 -225 66 70 67 65 66 66 66 66 66 67 67 68 68 67 67 68 68 67 66 67 70 72 74 76 76 77 79 80 82 82 81 84 85 87 88 88 91 99 95 96 101 104 104 105 105 104 103 106 107 107 103 105 106 107 113 115 116 117 117 117 117 117 118 118 120 121 121 122 124 124 127 129 129 131 132 132 133 134 136 137 138 140 144 147 149 151 151 150 151 153 153 153 153 155 155 156 159 161 161 162 164 168 169 169 170 168 168 169 169 0 0 0 0 0
    0 0 0 0 0 0 0 0 0 0 0 0 0 0 0 0 0 0 0 0 0 0 0 0 0 0 0 0 0 0 0 0 0 0 0 0 0 0 0 0 0 0 0 0 0 0 0 0 0 0 0 0 0 0 0 0 0 0 0 0 0 0 0 0 0 0 0 0 0 90 89 88 88 90 91 91 93 96 93 94 95 95 94 95 96 94 94 94 93 93 94 93 94 94 94 95 94 91 91 90 89 87 86 86 84 83 83 81 80 79 78 80 77 77 76 74 73 72 71 69 67 68 69 72 74 71 73 70 69 68 68 70 71 70 72 71 72 71 70 70 69 67 66 63 -225 -225 -225 -225 -225 -225 -225 -225 -225 -225 -225 -225 -225 -225 -225 -225 -225 -225 -225 -225 -225 -225 -225 -225 -225 -225 -225 -225 -225 -225 -225 -225 -225 -225 -225 -225 -225 -225 -225 -225 -225 -225 -225 -225 -225 -225 -225 -225 -225 -225 -225 -225 -225 -225 -225 -225 -225 -225 -225 -225 -225 -225 -225 72 69 68 69 68 67 67 68 68 68 69 69 68 69 70 70 67 66 66 70 73 75 77 76 77 79 80 82 82 80 83 85 87 87 88 90 97 94 95 99 103 102 104 104 103 102 105 106 106 103 106 107 107 113 115 115 116 117 116 116 117 118 118 120 121 120 122 124 123 127 128 130 132 132 133 134 135 137 138 139 141 142 145 148 150 150 150 151 152 153 154 154 155 155 156 158 160 160 162 164 167 168 169 170 168 167 169 169 0 0 0 0 0
    0 0 0 0 0 0 0 0 0 0 0 0 0 0 0 0 0 0 0 0 0 0 0 0 0 0 0 0 0 0 0 0 0 0 0 0 0 0 0 0 0 0 0 0 0 0 0 0 0 0 0 0 0 0 0 0 0 0 0 0 0 0 0 0 0 0 0 0 0 90 89 88 87 90 90 90 94 95 93 94 95 95 95 94 95 93 94 94 93 93 93 93 94 95 95 95 95 93 92 90 89 87 85 85 84 83 83 80 80 78 78 80 77 76 76 75 75 74 73 71 70 74 79 78 76 71 73 71 70 70 71 73 73 73 74 73 73 73 72 71 70 68 67 -225 -225 -225 -225 -225 -225 -225 -225 -225 -225 -225 -225 -225 -225 -225 -225 -225 -225 -225 -225 -225 -225 -225 -225 -225 -225 -225 -225 -225 -225 -225 -225 -225 -225 -225 -225 -225 -225 -225 -225 -225 -225 -225 -225 -225 -225 -225 -225 -225 -225 -225 -225 -225 -225 -225 -225 -225 -225 -225 -225 -225 -225 -225 -225 -225 69 69 70 68 68 68 68 69 68 70 69 68 69 70 70 66 65 65 69 73 76 77 77 78 80 80 82 82 80 82 85 87 87 88 90 97 94 94 98 102 100 102 102 102 101 105 105 105 103 106 107 107 113 115 115 116 117 116 116 116 117 118 120 121 121 122 125 125 130 130 131 132 133 133 135 135 137 137 139 141 140 143 145 148 147 147 149 151 152 153 153 155 155 156 158 159 160 162 164 168 169 169 170 169 169 169 169 0 0 0 0 0
    0 0 0 0 0 0 0 0 0 0 0 0 0 0 0 0 0 0 0 0 0 0 0 0 0 0 0 0 0 0 0 0 0 0 0 0 0 0 0 0 0 0 0 0 0 0 0 0 0 0 0 0 0 0 0 0 0 0 0 0 0 0 0 0 0 0 0 0 0 89 89 88 87 89 90 90 95 95 93 94 94 94 94 94 95 92 93 94 92 93 93 94 95 95 96 96 94 93 93 90 88 86 85 85 83 83 82 80 80 78 79 80 77 76 76 77 77 76 76 72 85 89 90 82 80 71 73 71 71 71 73 74 74 74 75 74 74 74 74 73 71 69 -225 -225 -225 -225 -225 -225 -225 -225 -225 -225 -225 -225 -225 -225 -225 -225 -225 -225 -225 -225 -225 -225 -225 -225 -225 -225 -225 -225 -225 -225 -225 -225 -225 -225 -225 -225 -225 -225 -225 -225 -225 -225 -225 -225 -225 -225 -225 -225 -225 -225 -225 -225 -225 -225 -225 -225 -225 -225 -225 -225 -225 -225 -225 -225 -225 -225 67 67 70 68 68 68 68 69 69 70 70 69 70 72 72 70 71 70 71 75 76 78 77 78 80 81 82 82 80 81 84 86 87 87 90 98 94 94 97 101 99 101 101 101 99 104 104 104 101 105 107 107 114 115 115 116 117 116 116 116 117 118 120 122 122 123 125 125 129 130 130 131 133 133 134 135 136 137 138 140 139 141 143 146 145 146 148 150 151 152 153 155 155 156 157 158 159 161 163 167 169 169 171 170 171 171 171 0 0 0 0 0
    0 0 0 0 0 0 0 0 0 0 0 0 0 0 0 0 0 0 0 0 0 0 0 0 0 0 0 0 0 0 0 0 0 0 0 0 0 0 0 0 0 0 0 0 0 0 0 0 0 0 0 0 0 0 0 0 0 0 0 0 0 0 0 0 0 0 0 0 0 90 90 89 88 90 90 92 96 95 93 94 94 94 94 94 94 92 94 94 93 94 95 95 98 98 98 98 94 93 92 89 88 86 85 84 83 83 82 80 80 77 79 79 78 76 76 78 77 77 81 81 87 88 89 84 82 76 76 73 73 74 75 76 76 75 76 75 76 76 75 74 72 -225 -225 -225 -225 -225 -225 -225 -225 -225 -225 -225 -225 -225 -225 -225 -225 -225 -225 -225 -225 -225 -225 -225 -225 -225 -225 -225 -225 -225 -225 -225 -225 -225 -225 -225 -225 -225 -225 -225 -225 -225 -225 -225 -225 -225 -225 -225 -225 -225 -225 -225 -225 -225 -225 -225 -225 -225 -225 -225 -225 -225 -225 -225 -225 -225 -225 -225 -225 60 68 66 67 67 67 68 68 69 70 69 70 72 73 72 73 73 73 75 77 78 78 78 81 80 82 82 80 81 84 85 86 86 89 97 93 94 96 100 97 100 100 100 98 103 103 103 100 105 107 108 115 116 116 117 118 117 117 117 118 118 121 122 122 123 125 125 129 130 131 131 133 134 135 135 137 138 139 140 140 141 143 145 145 145 147 149 150 152 153 154 155 156 157 158 158 160 162 166 168 169 171 172 173 173 173 0 0 0 0 0
    0 0 0 0 0 0 0 0 0 0 0 0 0 0 0 0 0 0 0 0 0 0 0 0 0 0 0 0 0 0 0 0 0 0 0 0 0 0 0 0 0 0 0 0 0 0 0 0 0 0 0 0 0 0 0 0 0 0 0 0 0 0 0 0 0 0 0 0 0 90 90 89 88 90 90 93 97 95 93 94 94 95 95 94 94 92 94 95 94 95 95 96 99 99 99 99 96 94 93 88 88 86 85 85 84 83 83 80 81 77 80 80 78 76 77 79 78 84 85 82 85 86 87 80 79 76 75 73 75 76 77 78 79 77 77 76 77 76 75 74 73 -225 -225 -225 -225 -225 -225 -225 -225 -225 -225 -225 -225 -225 -225 -225 -225 -225 -225 -225 -225 -225 -225 -225 -225 -225 -225 -225 -225 -225 -225 -225 -225 -225 -225 -225 -225 -225 -225 -225 -225 -225 -225 -225 -225 -225 -225 -225 -225 -225 -225 -225 -225 -225 -225 -225 -225 -225 -225 -225 -225 -225 -225 -225 -225 -225 -225 -225 -225 -225 67 65 68 67 67 68 67 69 70 70 71 72 74 73 74 74 74 77 78 78 79 78 81 81 82 82 80 81 84 86 87 88 89 97 93 94 95 99 96 100 100 99 96 101 102 102 98 105 -209 108 117 117 117 118 118 118 118 118 118 118 121 122 122 124 125 125 128 130 131 131 133 134 135 136 137 138 140 141 141 141 143 146 145 145 146 148 150 152 153 154 154 156 157 158 158 160 162 166 168 170 172 172 175 175 175 0 0 0 0 0
    0 0 0 0 0 0 0 0 0 0 0 0 0 0 0 0 0 0 0 0 0 0 0 0 0 0 0 0 0 0 0 0 0 0 0 0 0 0 0 0 0 0 0 0 0 0 0 0 0 0 0 0 0 0 0 0 0 0 0 0 0 0 0 0 0 0 0 0 0 89 90 89 88 90 91 93 97 95 93 94 94 95 95 94 93 92 94 95 94 95 96 97 100 100 100 101 99 97 95 88 88 85 85 84 83 83 82 79 81 77 81 79 77 74 78 82 84 87 85 81 84 85 85 79 78 74 74 75 78 79 80 80 81 79 78 78 78 77 76 74 -225 -225 -225 -225 -225 -225 -225 -225 -225 -225 -225 -225 -225 -225 -225 -225 -225 -225 -225 -225 -225 -225 -225 -225 -225 -225 -225 -225 -225 -225 -225 -225 -225 -225 -225 -225 -225 -225 -225 -225 -225 -225 -225 -225 -225 -225 -225 -225 -225 -225 -225 -225 -225 -225 -225 -225 -225 -225 -225 -225 -225 -225 -225 -225 -225 -225 -225 -225 -225 -225 -225 63 70 68 69 69 68 69 70 70 71 73 74 74 74 75 76 78 79 79 79 79 82 82 82 83 82 82 85 87 88 89 90 97 93 94 95 99 95 99 99 99 95 100 101 101 97 105 -209 109 118 118 118 118 119 118 118 118 119 119 121 123 123 124 125 126 128 130 130 130 132 133 134 135 137 138 140 140 141 141 143 146 146 146 147 148 151 153 154 154 155 155 157 158 159 160 162 165 168 170 173 174 177 177 177 0 0 0 0 0
    0 0 0 0 0 0 0 0 0 0 0 0 0 0 0 0 0 0 0 0 0 0 0 0 0 0 0 0 0 0 0 0 0 0 0 0 0 0 0 0 0 0 0 0 0 0 0 0 0 0 0 0 0 0 0 0 0 0 0 0 0 0 0 0 0 0 0 0 0 88 89 88 88 89 90 93 96 94 93 94 94 95 94 93 93 92 94 94 93 96 97 100 104 103 102 102 100 99 98 88 88 85 84 84 82 82 81 79 81 77 81 80 77 74 79 85 83 85 84 80 83 84 83 81 79 77 77 82 85 85 84 84 84 82 82 82 79 78 76 -225 -225 -225 -225 -225 -225 -225 -225 -225 -225 -225 -225 -225 -225 -225 -225 -225 -225 -225 -225 -225 -225 -225 -225 -225 -225 -225 -225 -225 -225 -225 -225 -225 -225 -225 -225 -225 -225 -225 -225 -225 -225 -225 -225 -225 -225 -225 -225 -225 -225 -225 -225 -225 -225 -225 -225 -225 -225 -225 -225 -225 -225 -225 -225 -225 -225 -225 -225 -225 -225 -225 -225 -225 -225 -225 70 70 69 70 71 72 73 75 76 75 76 77 77 79 80 80 80 80 83 83 83 84 83 84 87 89 89 89 90 96 93 94 95 99 95 99 98 98 95 99 100 100 95 105 -209 -209 117 117 117 117 118 117 118 118 119 119 122 123 123 124 125 125 127 127 128 128 130 132 134 134 136 138 140 140 140 140 141 144 144 145 147 148 150 153 154 154 155 155 156 157 158 160 161 164 166 170 173 174 176 177 176 0 0 0 0 0
    0 0 0 0 0 0 0 0 0 0 0 0 0 0 0 0 0 0 0 0 0 0 0 0 0 0 0 0 0 0 0 0 0 0 0 0 0 0 0 0 0 0 0 0 0 0 0 0 0 0 0 0 0 0 0 0 0 0 0 0 0 0 0 0 0 0 0 0 0 91 93 91 90 89 90 93 97 93 93 94 94 95 94 93 92 91 94 95 93 99 102 104 109 114 106 103 101 102 100 88 88 85 84 84 83 82 81 79 81 77 82 80 76 77 84 87 84 86 85 82 84 85 84 82 79 79 81 86 88 87 87 86 86 85 85 85 82 81 78 -225 -225 -225 -225 -225 -225 -225 -225 -225 -225 -225 -225 -225 -225 -225 -225 -225 -225 -225 -225 -225 -225 -225 -225 -225 -225 -225 -225 -225 -225 -225 -225 -225 -225 -225 -225 -225 -225 -225 -225 -225 -225 -225 -225 -225 -225 -225 -225 -225 -225 -225 -225 -225 -225 -225 -225 -225 -225 -225 -225 -225 -225 -225 -225 -225 -225 -225 -225 -225 -225 -225 -225 -225 -225 -225 -225 69 68 69 71 72 73 74 76 76 77 78 78 80 82 81 81 81 84 84 84 85 84 85 87 89 90 89 91 97 94 94 95 99 95 98 98 98 95 99 99 99 95 105 -209 -209 115 116 115 116 116 116 117 117 118 119 122 123 123 124 124 125 126 126 127 127 129 132 135 135 137 138 140 140 140 140 141 143 143 143 146 146 149 151 152 153 154 154 155 156 158 159 160 162 165 -209 -193 -193 -193 177 176 0 0 0 0 0
    0 0 0 0 0 0 0 0 0 0 0 0 0 0 0 0 0 0 0 0 0 0 0 0 0 0 0 0 0 0 0 0 0 0 0 0 0 0 0 0 0 0 0 0 0 0 0 0 0 0 0 0 0 0 0 0 0 0 0 0 0 0 0 0 0 0 0 0 0 101 101 98 92 91 91 95 98 94 94 95 95 96 95 94 93 91 96 96 94 102 105 107 113 119 115 104 104 104 102 88 88 85 84 84 83 82 81 79 82 77 82 79 75 81 84 88 85 86 86 83 84 85 84 83 78 78 83 86 88 88 87 86 86 86 86 85 84 82 -225 -225 -225 -225 -225 -225 -225 -225 -225 -225 -225 -225 -225 -225 -225 -225 -225 -225 -225 -225 -225 -225 -225 -225 -225 -225 -225 -225 -225 -225 -225 -225 -225 -225 -225 -225 -225 -225 -225 -225 -225 -225 -225 -225 -225 -225 -225 -225 -225 -225 -225 -225 -225 -225 -225 -225 -225 -225 -225 -225 -225 -225 -225 -225 -225 -225 -225 -225 -225 -225 -225 -225 -225 -225 -225 -225 -225 68 67 69 70 71 73 76 77 78 79 80 81 82 83 82 83 82 84 84 84 85 85 85 87 89 90 89 91 98 94 95 96 100 96 99 99 98 95 99 99 99 94 104 -209 -209 115 116 115 116 116 116 117 118 118 119 122 124 124 124 124 125 126 127 127 127 130 132 135 135 137 138 140 140 140 140 141 142 142 143 145 144 148 150 151 152 153 153 155 156 157 158 159 162 -193 -193 26 -193 -193 -193 -193 0 0 0 0 0
    0 0 0 0 0 0 0 0 0 0 0 0 0 0 0 0 0 0 0 0 0 0 0 0 0 0 0 0 0 0 0 0 0 0 0 0 0 0 0 0 0 0 0 0 0 0 0 0 0 0 0 0 0 0 0 0 0 0 0 0 0 0 0 0 0 0 0 0 0 -193 -193 103 93 90 91 97 98 94 94 96 95 96 96 94 93 93 99 100 97 105 109 111 115 119 111 104 104 105 102 88 88 85 85 84 83 83 82 80 82 78 82 78 73 84 84 89 86 87 86 85 86 87 86 85 83 87 87 89 90 89 88 87 88 88 87 86 84 -225 -225 -225 -225 -225 -225 -225 -225 -225 -225 -225 -225 -225 -225 -225 -225 -225 -225 -225 -225 -225 -225 -225 -225 -225 -225 -225 -225 -225 -225 -225 -225 -225 -225 -225 -225 -225 -225 -225 -225 -225 -225 -225 -225 -225 -225 -225 -225 -225 -225 -225 -225 -225 -225 -225 -225 -225 -225 -225 -225 -225 -225 -225 -225 -225 -225 -225 -225 -225 -225 -225 -225 -225 -225 -225 -225 -225 -225 -225 68 70 71 72 73 76 77 79 80 81 81 82 83 83 84 83 85 85 85 86 87 87 87 89 90 90 92 98 95 95 96 101 97 99 99 98 96 99 100 99 94 103 -209 -209 114 115 115 116 117 117 118 119 119 121 123 124 125 125 125 126 126 127 126 126 129 132 134 134 136 137 139 139 139 140 140 142 142 143 145 145 148 149 150 152 154 154 155 156 158 158 -193 -193 -193 26 27 26 -193 -193 -193 0 0 0 0 0
    0 0 0 0 0 0 0 0 0 0 0 0 0 0 0 0 0 0 0 0 0 0 0 0 0 0 0 0 0 0 0 0 0 0 0 0 0 0 0 0 0 0 0 0 0 0 0 0 0 0 0 0 0 0 0 0 0 0 0 0 0 0 0 0 0 0 0 0 0 -193 -193 102 93 91 93 98 97 94 95 95 94 96 96 94 93 95 101 103 102 109 114 113 114 116 110 -193 104 106 102 89 88 85 86 85 84 83 82 81 83 79 83 78 75 86 87 91 87 88 87 85 86 86 84 84 85 88 89 91 91 91 90 89 90 89 88 88 -225 -225 -225 -225 -225 -225 -225 -225 -225 -225 -225 -225 -225 -225 -225 -225 -225 -225 -225 -225 -225 -225 -225 -225 -225 -225 -225 -225 -225 -225 -225 -225 -225 -225 -225 -225 -225 -225 -225 -225 -225 -225 -225 -225 -225 -225 -225 -225 -225 -225 -225 -225 -225 -225 -225 -225 -225 -225 -225 -225 -225 -225 -225 -225 -225 -225 -225 -225 -225 -225 -225 -225 -225 -225 -225 -225 -225 -225 -225 -225 -225 70 72 75 75 80 82 81 82 83 83 83 84 85 85 84 86 86 87 88 88 88 87 90 90 91 92 97 95 95 97 101 97 100 100 99 97 100 101 100 95 103 102 -209 111 114 115 116 117 117 118 119 120 121 123 124 124 124 124 125 125 127 125 125 127 132 134 135 136 137 138 138 139 140 140 142 143 144 146 147 150 151 151 152 154 154 155 158 160 159 159 162 -193 26 26 -193 -193 -209 -193 0 0 0 0 0
    0 0 0 0 0 0 0 0 0 0 0 0 0 0 0 0 0 0 0 0 0 0 0 0 0 0 0 0 0 0 0 0 0 0 0 0 0 0 0 0 0 0 0 0 0 0 0 0 0 0 0 0 0 0 0 0 0 0 0 0 0 0 0 0 0 0 0 0 0 -193 100 98 93 92 94 99 96 95 96 95 95 98 98 95 92 101 105 107 109 116 117 116 116 118 118 112 107 107 102 89 88 86 86 85 84 83 82 82 84 80 83 77 86 -193 91 92 89 89 88 86 86 86 87 86 87 90 91 94 94 93 92 90 90 90 88 88 -225 -225 -225 -225 -225 -225 -225 -225 -225 -225 -225 -225 -225 -225 -225 -225 -225 -225 -225 -225 -225 -225 -225 -225 -225 -225 -225 -225 -225 -225 -225 -225 -225 -225 -225 -225 -225 -225 -225 -225 -225 -225 -225 -225 -225 -225 -225 -225 -225 -225 -225 -225 -225 -225 -225 -225 -225 -225 -225 -225 -225 -225 -225 -225 -225 -225 -225 -225 -225 -225 -225 -225 -225 -225 -225 -225 -225 -225 -225 -225 -225 70 72 73 73 76 79 80 81 84 84 84 85 86 86 85 87 87 87 88 88 88 87 90 90 91 92 96 95 95 97 101 97 100 100 99 98 101 101 100 96 103 102 103 110 112 114 115 116 116 117 119 120 121 124 125 125 124 124 125 124 126 124 125 127 132 135 135 136 137 138 138 139 140 140 143 144 145 146 147 151 151 151 152 155 155 156 158 161 159 159 162 165 -209 -209 -193 175 -193 175 0 0 0 0 0
    0 0 0 0 0 0 0 0 0 0 0 0 0 0 0 0 0 0 0 0 0 0 0 0 0 0 0 0 0 0 0 0 0 0 0 0 0 0 0 0 0 0 0 0 0 0 0 0 0 0 0 0 0 0 0 0 0 0 0 0 0 0 0 0 0 0 0 0 0 -193 100 98 93 92 96 98 96 95 95 94 95 100 101 99 99 109 117 117 116 118 117 116 -193 115 105 -193 104 106 103 95 92 88 88 88 87 85 84 85 87 86 88 87 88 88 91 92 90 89 89 86 87 88 90 89 90 95 94 97 95 94 92 91 91 90 88 -225 -225 -225 -225 -225 -225 -225 -225 -225 -225 -225 -225 -225 -225 -225 -225 -225 -225 -225 -225 -225 -225 -225 -225 -225 -225 -225 -225 -225 -225 -225 -225 -225 -225 -225 -225 -225 -225 -225 -225 -225 -225 -225 -225 -225 -225 -225 -225 -225 -225 -225 -225 -225 -225 -225 -225 -225 -225 -225 -225 -225 -225 -225 -225 -225 -225 -225 -225 -225 -225 -225 -225 -225 -225 -225 -225 -225 -225 -225 -225 -225 -225 -225 74 73 74 75 79 81 82 85 86 86 88 88 88 87 89 89 90 89 90 90 89 92 92 93 94 96 96 96 99 101 98 101 100 100 99 101 101 100 98 104 103 104 110 112 113 114 115 115 116 117 118 120 123 124 125 125 125 125 125 126 124 125 128 131 135 135 135 136 138 136 138 139 139 142 143 146 147 147 150 151 151 152 155 155 156 158 161 159 160 163 -209 -209 -209 -193 172 172 172 0 0 0 0 0
    0 0 0 0 0 0 0 0 0 0 0 0 0 0 0 0 0 0 0 0 0 0 0 0 0 0 0 0 0 0 0 0 0 0 0 0 0 0 0 0 0 0 0 0 0 0 0 0 0 0 0 0 0 0 0 0 0 0 0 0 0 0 0 0 0 0 0 0 0 124 -193 -209 -209 98 99 95 93 92 93 -209 93 104 -209 101 108 114 115 117 116 117 115 -209 -209 -209 -209 -193 102 103 100 95 93 93 94 94 91 90 88 89 91 94 91 -193 89 90 91 91 90 89 89 88 90 91 92 92 95 99 97 99 96 94 93 93 92 90 89 -225 -225 -225 -225 -225 -225 -225 -225 -225 -225 -225 -225 -225 -225 -225 -225 -225 -225 -225 -225 -225 -225 -225 -225 -225 -225 -225 -225 -225 -225 -225 -225 -225 -225 -225 -225 -225 -225 -225 -225 -225 -225 -225 -225 -225 -225 -225 -225 -225 -225 -225 -225 -225 -225 -225 -225 -225 -225 -225 -225 -225 -225 -225 -225 -225 -225 -225 -225 -225 -225 -225 -225 -225 -225 -225 -225 -225 -225 -225 -225 -225 -225 -225 79 75 76 77 77 83 83 86 87 88 90 90 91 90 91 91 92 91 92 91 91 92 93 94 95 96 96 96 99 101 99 101 101 101 100 102 102 101 100 104 104 104 110 111 112 114 114 114 115 117 118 120 123 124 124 125 125 125 124 126 124 124 128 131 135 135 135 136 137 135 136 137 137 139 141 145 148 149 151 152 152 153 155 155 156 157 159 157 159 163 -209 -209 -209 170 170 170 170 0 0 0 0 0
    0 0 0 0 0 0 0 0 0 0 0 0 0 0 0 0 0 0 0 0 0 0 0 0 0 0 0 0 0 0 0 0 0 0 0 0 0 0 0 0 0 0 0 0 0 0 0 0 0 0 0 0 0 0 0 0 0 0 0 0 0 0 0 0 0 0 0 0 0 -225 -225 -225 -209 -209 115 -209 -209 103 -193 109 -209 112 -209 -209 -209 -209 -193 -209 -209 -209 -209 -209 -209 92 89 91 93 96 92 92 93 94 94 96 93 92 90 92 91 91 88 -193 90 90 91 92 90 90 90 90 91 92 93 94 97 99 98 99 96 95 95 94 93 91 -225 -225 -225 -225 -225 -225 -225 -225 -225 -225 -225 -225 -225 -225 -225 -225 -225 -225 -225 -225 -225 -225 -225 -225 -225 -225 -225 -225 -225 -225 -225 -225 -225 -225 -225 -225 -225 -225 -225 -225 -225 -225 -225 -225 -225 -225 -225 -225 -225 -225 -225 -225 -225 -225 -225 -225 -225 -225 -225 -225 -225 -225 -225 -225 -225 -225 -225 -225 -225 -225 -225 -225 -225 -225 -225 -225 -225 -225 -225 -225 -225 -225 -225 -225 -225 78 79 81 80 84 85 86 89 89 91 93 93 92 93 92 93 92 93 92 91 92 93 94 95 96 97 96 100 102 100 102 102 102 101 102 102 101 101 104 105 104 110 111 111 113 114 114 115 117 117 119 122 123 124 124 125 125 124 126 124 124 129 131 135 135 134 136 137 135 136 137 138 140 142 147 150 151 -193 152 153 153 155 155 156 156 158 156 159 -193 -209 -209 -209 169 169 169 168 0 0 0 0 0
    0 0 0 0 0 0 0 0 0 0 0 0 0 0 0 0 0 0 0 0 0 0 0 0 0 0 0 0 0 0 0 0 0 0 0 0 0 0 0 0 0 0 0 0 0 0 0 0 0 0 0 0 0 0 0 0 0 0 0 0 0 0 0 0 0 0 0 0 0 -225 -225 -225 -209 -209 110 109 109 106 105 108 -209 112 -209 -209 -209 -193 -209 -209 -209 -209 -209 -209 -209 90 89 89 91 94 92 92 94 96 96 98 95 94 91 93 92 90 89 89 90 90 91 92 91 92 93 93 94 95 96 97 99 100 99 98 96 95 96 95 93 -225 -225 -225 -225 -225 -225 -225 -225 -225 -225 -225 -225 -225 -225 -225 -225 -225 -225 -225 -225 -225 -225 -225 -225 -225 -225 -225 -225 -225 -225 -225 -225 -225 -225 -225 -225 -225 -225 -225 -225 -225 -225 -225 -225 -225 -225 -225 -225 -225 -225 -225 -225 -225 -225 -225 -225 -225 -225 -225 -225 -225 -225 -225 -225 -225 -225 -225 -225 -225 -225 -225 -225 -225 -225 -225 -225 -225 -225 -225 -225 -225 -225 -225 -225 -225 -225 80 80 82 83 85 88 88 91 90 94 97 97 94 95 93 94 92 94 93 91 92 93 95 96 97 100 97 100 102 101 102 102 102 102 102 103 103 103 105 105 105 110 111 111 113 114 114 115 116 117 119 122 123 124 125 125 126 125 127 125 126 131 133 135 135 135 136 137 135 136 138 140 143 145 148 152 -193 155 154 154 155 155 156 156 156 158 157 159 163 -209 -209 -193 169 170 170 169 0 0 0 0 0
    0 0 0 0 0 0 0 0 0 0 0 0 0 0 0 0 0 0 0 0 0 0 0 0 0 0 0 0 0 0 0 0 0 0 0 0 0 0 0 0 0 0 0 0 0 0 0 0 0 0 0 0 0 0 0 0 0 0 0 0 0 0 0 0 0 0 0 0 0 -225 -209 -209 -193 -209 -193 104 104 103 103 105 103 105 -209 -209 -209 -209 -209 -209 -209 -209 -209 -209 -193 91 89 90 89 94 92 93 95 97 96 99 97 97 93 95 96 -193 93 98 93 93 93 94 94 95 96 97 97 98 99 100 101 101 100 99 97 97 97 97 94 -225 -225 -225 -225 -225 -225 -225 -225 -225 -225 -225 -225 -225 -225 -225 -225 -225 -225 -225 -225 -225 -225 -225 -225 -225 -225 -225 -225 -225 -225 -225 -225 -225 -225 -225 -225 -225 -225 -225 -225 -225 -225 -225 -225 -225 -225 -225 -225 -225 -225 -225 -225 -225 -225 -225 -225 -225 -225 -225 -225 -225 -225 -225 -225 -225 -225 -225 -225 -225 -225 -225 -225 -225 -225 -225 -225 -225 -225 -225 -225 -225 -225 -225 -225 -225 -225 81 79 82 84 85 86 87 91 90 93 98 99 95 94 94 94 92 94 93 91 92 93 95 96 96 100 98 101 102 101 103 103 103 103 103 104 104 103 105 105 104 109 110 111 112 113 114 115 117 118 119 121 123 124 125 126 126 126 128 127 127 132 133 135 135 134 135 135 135 136 137 140 145 147 149 151 151 153 154 154 155 156 156 156 156 157 157 160 -193 -209 -209 167 169 170 171 171 0 0 0 0 0
    0 0 0 0 0 0 0 0 0 0 0 0 0 0 0 0 0 0 0 0 0 0 0 0 0 0 0 0 0 0 0 0 0 0 0 0 0 0 0 0 0 0 0 0 0 0 0 0 0 0 0 0 0 0 0 0 0 0 0 0 0 0 0 0 0 0 0 0 0 -209 -209 -209 -193 -193 101 101 102 102 103 103 102 103 101 103 -209 -209 -209 -209 -193 -193 -209 98 95 93 92 92 90 95 94 94 94 97 96 99 97 99 95 97 98 -193 97 101 96 97 94 96 97 97 100 100 99 100 101 102 102 101 101 100 100 99 101 -225 -225 -225 -225 -225 -225 -225 -225 -225 -225 -225 -225 -225 -225 -225 -225 -225 -225 -225 -225 -225 -225 -225 -225 -225 -225 -225 -225 -225 -225 -225 -225 -225 -225 -225 -225 -225 -225 -225 -225 -225 -225 -225 -225 -225 -225 -225 -225 -225 -225 -225 -225 -225 -225 -225 -225 -225 -225 -225 -225 -225 -225 -225 -225 -225 -225 -225 -225 -225 -225 -225 -225 -225 -225 -225 -225 -225 -225 -225 -225 -225 -225 -225 -225 -225 -225 -225 -225 78 76 76 77 78 80 85 89 89 92 95 97 94 95 94 95 93 95 95 93 94 96 98 97 97 101 99 101 101 100 102 102 103 103 103 104 104 105 106 105 105 108 109 110 112 113 113 115 117 118 119 122 124 125 126 127 127 126 128 127 127 131 131 133 133 132 133 132 132 133 135 139 143 147 150 151 151 153 154 154 155 156 157 157 157 159 160 163 165 -193 -193 168 170 170 170 170 0 0 0 0 0
    0 0 0 0 0 0 0 0 0 0 0 0 0 0 0 0 0 0 0 0 0 0 0 0 0 0 0 0 0 0 0 0 0 0 0 0 0 0 0 0 0 0 0 0 0 0 0 0 0 0 0 0 0 0 0 0 0 0 0 0 0 0 0 0 0 0 0 0 0 -193 -209 -209 -193 97 100 100 101 102 103 102 102 102 100 100 99 -209 93 97 94 97 -193 96 94 93 92 93 91 97 96 97 96 102 100 101 99 102 101 100 -209 -193 101 104 100 101 99 100 101 100 102 103 102 102 102 103 103 101 101 100 100 99 -225 -225 -225 -225 -225 -225 -225 -225 -225 -225 -225 -225 -225 -225 -225 -225 -225 -225 -225 -225 -225 -225 -225 -225 -225 -225 -225 -225 -225 -225 -225 -225 -225 -225 -225 -225 -225 -225 -225 -225 -225 -225 -225 -225 -225 -225 -225 -225 -225 -225 -225 -225 -225 -225 -225 -225 -225 -225 -225 -225 -225 -225 -225 -225 -225 -225 -225 -225 -225 -225 -225 -225 -225 -225 -225 -225 -225 -225 -225 -225 -225 -225 -225 -225 -225 -225 -225 -225 -225 76 75 75 75 78 78 87 92 91 94 96 99 96 97 95 96 93 96 95 94 96 98 100 100 100 103 101 103 102 101 103 103 104 103 103 105 105 106 108 107 106 108 110 109 111 113 113 115 117 118 119 122 124 125 126 126 127 126 128 128 127 130 131 132 132 131 133 133 133 134 136 141 144 147 149 150 150 152 154 155 156 156 156 157 157 158 160 163 165 168 169 168 170 170 -193 -193 0 0 0 0 0
    0 0 0 0 0 0 0 0 0 0 0 0 0 0 0 0 0 0 0 0 0 0 0 0 0 0 0 0 0 0 0 0 0 0 0 0 0 0 0 0 0 0 0 0 0 0 0 0 0 0 0 0 0 0 0 0 0 0 0 0 0 0 0 0 0 0 0 0 0 -193 -193 -209 95 95 98 98 99 101 101 100 101 101 98 97 94 97 93 96 93 96 94 96 93 93 93 93 92 98 97 99 98 105 -193 -193 101 -209 -209 -209 -209 -193 103 105 101 102 102 102 103 102 103 104 103 103 103 103 102 102 101 100 100 -225 -225 -225 -225 -225 -225 -225 -225 -225 -225 -225 -225 -225 -225 -225 -225 -225 -225 -225 -225 -225 -225 -225 -225 -225 -225 -225 -225 -225 -225 -225 -225 -225 -225 -225 -225 -225 -225 -225 -225 -225 -225 -225 -225 -225 -225 -225 -225 -225 -225 -225 -225 -225 -225 -225 -225 -225 -225 -225 -225 -225 -225 -225 -225 -225 -225 -225 -225 -225 -225 -225 -225 -225 -225 -225 -225 -225 -225 -225 -225 -225 -225 -225 -225 -225 -225 -225 -225 -225 -225 -225 74 74 76 78 77 86 96 93 96 99 100 97 98 96 96 93 96 95 94 96 99 101 103 105 105 105 105 104 103 103 104 104 104 104 105 105 107 109 108 107 110 110 109 112 113 113 115 117 118 119 122 123 124 125 126 126 126 127 127 127 129 130 131 131 131 133 134 134 135 137 142 144 146 147 148 148 151 153 154 155 156 156 156 157 158 160 163 164 166 168 167 169 169 -193 -193 0 0 0 0 0
    0 0 0 0 0 0 0 0 0 0 0 0 0 0 0 0 0 0 0 0 0 0 0 0 0 0 0 0 0 0 0 0 0 0 0 0 0 0 0 0 0 0 0 0 0 0 0 0 0 0 0 0 0 0 0 0 0 0 0 0 0 0 0 0 0 0 0 0 0 -209 -209 -209 -209 92 94 98 99 101 100 100 101 101 98 98 94 98 94 96 92 94 93 96 94 94 93 93 92 99 98 101 99 104 -193 -209 -193 -193 -209 -209 -209 104 103 104 102 104 103 102 104 103 104 104 104 103 102 102 101 99 98 -225 -225 -225 -225 -225 -225 -225 -225 -225 -225 -225 -225 -225 -225 -225 -225 -225 -225 -225 -225 -225 -225 -225 -225 -225 -225 -225 -225 -225 -225 -225 -225 -225 -225 -225 -225 -225 -225 -225 -225 -225 -225 -225 -225 -225 -225 -225 -225 -225 -225 -225 -225 -225 -225 -225 -225 -225 -225 -225 -225 -225 -225 -225 -225 -225 -225 -225 -225 -225 -225 -225 -225 -225 -225 -225 -225 -225 -225 -225 -225 -225 -225 -225 -225 -225 -225 -225 -225 -225 -225 -225 -225 -225 77 78 80 84 85 87 96 93 98 101 101 97 98 95 96 94 97 96 97 99 102 104 107 108 108 107 107 107 105 105 106 105 105 106 107 107 109 111 112 109 112 111 111 114 114 113 114 116 118 119 121 122 124 124 125 126 126 127 127 127 128 129 128 128 129 132 133 135 136 138 143 145 146 147 148 149 151 153 155 156 156 155 156 158 158 160 163 165 167 -193 167 169 169 168 167 0 0 0 0 0</data></disparity>
</opencv_storage>
