<?xml version="1.0"?>
<opencv_storage>
<gps_time_stamp>279222</gps_time_stamp>
<gps_x>-1.3968884468078613e+001</gps_x>
<gps_y>1.1281635284423828e+001</gps_y>
<gps_z>-2.2927927970886230e+000</gps_z>
<image_time_stamp>270058</image_time_stamp>
<disparity type_id="opencv-matrix">
  <rows>93</rows>
  <cols>320</cols>
  <dt>s</dt>
  <data>
    0 0 0 0 0 0 0 0 0 0 0 0 0 0 0 0 0 0 0 0 0 0 0 0 0 0 0 0 0 0 0 0 0 0 0 0 0 0 0 0 0 0 0 0 0 0 0 0 0 0 0 0 0 0 0 0 0 0 0 0 0 0 0 0 0 0 0 0 0 14 16 14 14 13 15 14 16 15 14 13 14 13 13 12 13 13 12 15 14 15 15 14 15 15 15 16 15 16 15 16 17 16 14 13 13 10 12 0 9 10 14 17 16 19 18 19 18 19 18 17 16 17 16 16 15 14 12 12 13 13 14 13 14 14 12 14 15 17 17 19 17 19 17 19 18 18 18 18 16 19 15 22 20 23 23 23 23 22 19 19 17 17 16 19 18 20 19 19 20 19 20 20 19 19 18 18 19 16 18 16 13 15 14 17 16 20 19 -193 -193 -209 22 22 21 22 21 21 20 20 20 19 19 19 18 18 17 16 19 17 19 18 19 18 19 18 19 17 20 21 22 19 19 22 21 22 23 23 23 23 25 26 26 27 27 28 28 30 30 30 32 31 33 32 32 32 32 33 34 33 35 35 36 38 39 39 40 40 41 41 40 41 40 40 40 41 41 42 42 42 43 43 42 43 42 45 48 47 50 52 52 53 53 54 53 52 52 52 51 52 51 52 52 54 55 56 56 57 57 58 60 59 59 61 63 63 63 62 62 65 64 65 65 63 63 63 64 0 0 0 0 0
    0 0 0 0 0 0 0 0 0 0 0 0 0 0 0 0 0 0 0 0 0 0 0 0 0 0 0 0 0 0 0 0 0 0 0 0 0 0 0 0 0 0 0 0 0 0 0 0 0 0 0 0 0 0 0 0 0 0 0 0 0 0 0 0 0 0 0 0 0 14 16 14 15 13 14 14 15 14 13 12 14 13 13 13 13 14 13 17 14 16 15 15 15 15 15 16 15 16 15 16 17 16 14 12 11 9 10 -225 0 9 14 17 16 19 18 19 18 19 18 17 16 17 15 16 14 14 12 12 14 13 14 14 15 14 14 15 16 18 18 19 17 19 18 18 18 18 17 18 15 18 13 20 18 20 19 18 19 20 19 19 16 17 16 18 18 19 19 19 19 19 19 20 19 19 18 18 18 17 18 18 15 17 15 18 16 19 17 -193 -193 -193 20 21 21 22 20 21 20 20 20 19 20 19 18 19 18 18 20 17 19 19 19 18 20 19 20 18 21 21 22 20 20 22 21 22 23 22 22 23 25 25 26 27 27 28 28 30 30 31 32 31 34 32 32 33 33 33 34 32 35 34 36 37 38 39 39 40 40 40 40 41 40 39 39 41 41 41 41 42 42 43 43 43 41 45 48 47 50 52 52 53 53 53 53 52 52 51 51 51 50 52 53 54 55 55 55 56 57 58 60 59 60 61 63 64 63 62 62 65 64 64 65 63 63 63 64 0 0 0 0 0
    0 0 0 0 0 0 0 0 0 0 0 0 0 0 0 0 0 0 0 0 0 0 0 0 0 0 0 0 0 0 0 0 0 0 0 0 0 0 0 0 0 0 0 0 0 0 0 0 0 0 0 0 0 0 0 0 0 0 0 0 0 0 0 0 0 0 0 0 0 15 17 14 15 13 14 14 15 14 13 12 14 13 13 14 14 16 14 18 15 16 15 15 15 15 15 16 14 16 15 16 18 18 15 13 13 12 13 10 11 12 15 18 17 20 18 19 18 19 18 17 17 17 15 16 14 14 12 13 14 14 15 15 16 15 15 16 17 18 18 19 18 19 18 18 18 18 17 17 15 18 14 18 18 18 17 17 19 19 19 19 18 18 18 19 19 19 20 19 19 19 19 20 19 20 18 18 19 18 18 19 16 17 16 18 16 19 16 18 -193 19 19 20 20 21 20 21 20 20 20 20 20 18 18 19 18 19 20 17 20 19 19 19 20 20 20 18 21 21 22 20 20 22 21 22 22 22 23 23 24 25 26 27 27 28 28 30 30 31 32 32 35 33 33 34 33 34 34 32 35 34 36 37 39 39 39 40 40 41 40 41 40 38 39 41 41 41 41 42 42 43 43 44 41 46 48 47 50 52 52 53 52 53 52 51 52 51 50 51 50 53 53 54 55 56 55 57 58 58 60 60 60 62 63 64 63 62 62 65 64 64 65 63 63 64 64 0 0 0 0 0
    0 0 0 0 0 0 0 0 0 0 0 0 0 0 0 0 0 0 0 0 0 0 0 0 0 0 0 0 0 0 0 0 0 0 0 0 0 0 0 0 0 0 0 0 0 0 0 0 0 0 0 0 0 0 0 0 0 0 0 0 0 0 0 0 0 0 0 0 0 15 16 14 15 13 14 14 15 14 13 12 14 13 13 14 14 16 14 18 15 16 15 15 15 15 15 16 14 16 14 15 17 18 15 16 15 15 16 15 15 16 16 18 17 19 18 19 18 19 18 17 17 17 15 16 14 15 14 14 15 15 16 16 17 16 17 16 17 19 18 19 18 19 18 18 18 18 17 18 16 18 15 18 18 19 18 18 19 19 19 20 19 20 19 20 19 20 20 20 19 19 19 20 19 20 18 18 19 18 18 19 16 18 16 19 17 19 17 18 17 19 19 -193 20 21 19 21 20 20 21 20 21 18 18 19 18 18 20 17 19 18 19 18 20 20 20 18 21 21 22 21 21 22 21 21 22 22 23 23 24 25 26 27 27 28 29 30 30 31 32 32 35 33 33 34 34 34 34 32 35 33 36 37 38 38 39 40 40 41 40 41 40 38 39 41 41 41 41 42 43 43 43 44 42 46 48 47 50 52 52 53 52 53 52 52 52 52 51 51 51 53 53 53 55 56 56 57 58 58 60 60 60 62 63 63 63 62 63 64 64 64 65 63 63 64 64 0 0 0 0 0
    0 0 0 0 0 0 0 0 0 0 0 0 0 0 0 0 0 0 0 0 0 0 0 0 0 0 0 0 0 0 0 0 0 0 0 0 0 0 0 0 0 0 0 0 0 0 0 0 0 0 0 0 0 0 0 0 0 0 0 0 0 0 0 0 0 0 0 0 0 14 16 14 15 13 14 14 15 13 13 12 14 14 13 14 14 14 13 17 14 16 15 14 14 15 14 16 14 15 14 15 16 18 15 16 15 16 17 16 17 18 17 19 18 19 19 19 18 18 18 17 17 17 16 16 15 15 15 15 16 16 16 16 18 16 18 17 18 19 18 19 18 18 18 18 18 18 18 18 16 18 16 18 19 19 18 19 19 19 19 21 20 21 19 20 20 20 21 20 19 19 19 20 19 20 18 17 18 18 18 19 16 18 16 19 17 19 17 18 17 19 -193 -193 20 21 19 21 20 20 21 20 21 18 18 19 18 18 20 17 20 18 19 18 20 20 20 18 21 21 22 22 22 22 21 21 22 22 23 23 24 -209 -193 27 27 28 29 29 30 31 32 32 35 33 34 34 34 34 35 33 35 34 35 37 38 38 39 39 40 40 40 41 41 39 40 40 41 41 41 42 42 43 42 44 42 46 48 47 50 52 52 53 52 53 53 52 53 52 51 52 51 54 53 53 54 55 55 57 58 58 60 60 61 62 63 63 62 63 63 64 64 64 65 64 64 64 64 0 0 0 0 0
    0 0 0 0 0 0 0 0 0 0 0 0 0 0 0 0 0 0 0 0 0 0 0 0 0 0 0 0 0 0 0 0 0 0 0 0 0 0 0 0 0 0 0 0 0 0 0 0 0 0 0 0 0 0 0 0 0 0 0 0 0 0 0 0 0 0 0 0 0 14 16 14 15 13 14 14 16 13 14 12 13 14 13 13 13 12 13 15 13 16 14 14 14 15 14 17 14 15 14 15 16 18 15 16 16 16 17 16 17 19 16 19 18 19 19 19 17 18 17 17 17 18 16 17 16 16 17 16 17 17 17 17 18 16 18 17 18 19 18 18 19 18 18 18 18 19 18 19 17 18 18 19 20 20 19 19 19 19 19 21 21 21 19 20 20 20 21 20 19 19 19 20 19 20 18 17 18 18 18 19 16 18 16 19 17 19 17 18 16 19 18 -193 19 21 19 21 20 21 21 20 21 18 19 19 19 19 20 17 20 18 19 18 20 20 20 18 21 20 22 22 22 22 21 21 22 22 23 22 24 -193 -209 27 28 28 29 29 30 31 32 32 35 33 34 34 34 34 35 33 36 34 35 36 38 38 39 39 40 40 40 41 41 39 40 40 41 41 41 41 42 42 42 43 42 46 48 47 50 53 52 53 53 53 53 52 53 53 51 52 52 54 54 53 54 55 55 57 58 58 60 60 61 62 63 63 62 64 64 65 65 64 65 64 64 64 64 0 0 0 0 0
    0 0 0 0 0 0 0 0 0 0 0 0 0 0 0 0 0 0 0 0 0 0 0 0 0 0 0 0 0 0 0 0 0 0 0 0 0 0 0 0 0 0 0 0 0 0 0 0 0 0 0 0 0 0 0 0 0 0 0 0 0 0 0 0 0 0 0 0 0 14 17 14 15 14 14 15 16 13 14 13 13 14 13 14 14 12 12 14 13 16 14 14 14 16 15 17 14 16 14 15 16 18 14 16 16 16 17 16 17 19 16 18 18 18 19 19 17 18 17 17 18 18 17 17 17 17 18 16 17 17 17 16 18 16 18 17 18 19 18 18 19 18 18 18 18 19 19 20 18 18 19 19 20 20 19 19 19 19 20 21 21 21 20 20 20 20 22 21 19 19 19 20 19 20 18 18 19 19 19 20 17 19 17 20 18 19 17 18 16 19 18 19 19 20 19 21 20 20 21 19 21 18 19 19 19 19 20 17 20 18 19 18 20 20 20 18 21 20 22 22 22 23 20 21 22 22 23 -193 24 -177 -193 27 28 29 29 29 30 31 31 32 34 33 33 34 34 34 35 34 36 34 35 36 38 38 39 39 39 40 40 41 41 40 40 40 41 41 41 42 42 42 41 43 43 47 47 47 50 53 52 53 52 53 53 52 53 53 52 52 53 54 54 54 54 55 55 57 58 57 60 60 61 62 63 63 63 65 64 65 65 64 66 65 64 64 63 0 0 0 0 0
    0 0 0 0 0 0 0 0 0 0 0 0 0 0 0 0 0 0 0 0 0 0 0 0 0 0 0 0 0 0 0 0 0 0 0 0 0 0 0 0 0 0 0 0 0 0 0 0 0 0 0 0 0 0 0 0 0 0 0 0 0 0 0 0 0 0 0 0 0 14 17 15 16 14 14 15 17 13 15 13 14 15 13 14 14 12 13 14 13 17 14 14 14 16 15 18 15 16 15 15 16 18 14 16 16 16 17 16 17 18 16 18 18 17 19 18 17 18 18 18 18 19 18 18 18 18 19 17 17 17 17 16 18 17 18 17 18 19 18 18 20 18 19 18 18 20 19 20 19 19 19 20 21 20 19 19 19 18 19 21 21 21 20 20 20 20 21 21 19 19 19 20 19 20 18 18 18 19 19 20 17 19 17 20 18 19 17 18 16 19 18 19 19 20 19 21 20 21 21 20 21 18 19 19 19 19 20 18 20 18 19 19 20 20 20 18 21 20 22 22 22 23 20 21 21 21 23 22 23 -193 -209 27 28 29 29 29 30 31 30 32 34 33 33 35 34 35 35 34 36 35 35 36 38 38 38 39 39 40 40 41 40 40 40 40 40 41 42 42 42 42 41 43 43 46 46 46 49 53 51 53 52 52 52 52 53 53 52 53 53 54 54 54 54 54 55 56 57 56 59 59 61 61 63 63 64 66 65 65 66 64 66 65 64 64 63 0 0 0 0 0
    0 0 0 0 0 0 0 0 0 0 0 0 0 0 0 0 0 0 0 0 0 0 0 0 0 0 0 0 0 0 0 0 0 0 0 0 0 0 0 0 0 0 0 0 0 0 0 0 0 0 0 0 0 0 0 0 0 0 0 0 0 0 0 0 0 0 0 0 0 15 17 15 16 14 15 15 17 14 15 14 14 15 13 14 14 12 13 14 12 16 14 14 14 16 15 18 15 16 15 16 16 18 15 16 16 17 17 16 17 18 15 18 18 17 19 18 16 18 18 18 19 19 18 18 18 19 20 17 18 18 18 17 19 17 19 17 18 19 18 18 20 17 18 18 18 20 19 20 19 18 19 20 20 20 19 20 20 18 20 21 21 21 20 20 19 19 21 21 18 19 18 20 19 20 18 18 18 20 19 20 17 19 17 20 18 20 17 18 16 19 18 19 19 20 18 21 20 20 21 20 21 18 19 19 19 19 20 18 20 17 20 19 20 20 20 19 21 20 23 22 22 23 20 20 21 21 23 21 23 -193 -193 27 28 28 29 28 29 31 30 31 33 33 34 35 34 35 35 35 36 35 35 36 37 38 38 39 39 40 40 41 40 40 40 40 40 41 42 42 42 42 40 42 43 44 45 45 48 52 51 52 52 52 52 52 53 53 52 53 53 54 54 54 54 54 55 55 56 56 57 58 60 60 62 63 64 67 65 66 66 64 66 65 64 64 63 0 0 0 0 0
    0 0 0 0 0 0 0 0 0 0 0 0 0 0 0 0 0 0 0 0 0 0 0 0 0 0 0 0 0 0 0 0 0 0 0 0 0 0 0 0 0 0 0 0 0 0 0 0 0 0 0 0 0 0 0 0 0 0 0 0 0 0 0 0 0 0 0 0 0 15 17 15 16 14 15 15 17 14 15 14 14 15 13 14 14 12 13 13 12 16 13 14 14 16 15 18 15 17 15 16 16 18 15 16 16 17 17 16 17 18 15 18 18 16 19 18 16 18 18 18 19 19 18 18 19 19 20 17 18 18 18 17 19 17 18 18 18 18 18 17 20 17 18 18 18 19 20 20 20 19 20 20 21 20 20 21 20 19 20 21 21 21 20 20 19 19 21 21 19 20 18 20 19 21 18 19 18 20 19 20 17 19 17 20 18 20 17 18 16 19 18 19 19 20 18 20 21 20 21 20 21 18 19 19 19 19 20 18 20 17 20 19 20 20 20 19 21 20 23 22 22 23 20 21 20 21 23 21 23 -193 -193 27 28 29 29 28 29 31 29 31 33 33 34 35 35 36 36 35 35 35 35 36 37 37 38 39 39 40 40 41 41 41 41 41 40 42 42 42 42 42 39 42 42 42 45 44 46 52 50 52 52 52 52 52 53 53 52 54 54 55 55 54 54 54 55 55 55 55 56 57 59 59 61 62 63 67 65 66 67 65 66 66 65 64 63 0 0 0 0 0
    0 0 0 0 0 0 0 0 0 0 0 0 0 0 0 0 0 0 0 0 0 0 0 0 0 0 0 0 0 0 0 0 0 0 0 0 0 0 0 0 0 0 0 0 0 0 0 0 0 0 0 0 0 0 0 0 0 0 0 0 0 0 0 0 0 0 0 0 0 15 17 15 16 14 15 15 17 14 15 14 14 15 13 14 15 12 13 13 12 16 13 14 14 15 15 18 15 17 15 16 16 18 15 17 16 17 17 16 17 18 16 17 18 16 19 18 17 18 18 18 20 19 19 18 19 19 19 17 18 17 18 17 19 16 18 18 18 18 17 16 20 16 18 18 18 19 20 20 20 19 20 20 21 20 21 21 21 19 20 21 21 21 21 20 19 19 22 21 19 20 18 20 20 21 19 19 18 20 19 20 18 19 18 20 18 20 18 19 17 19 18 19 19 20 17 20 20 20 21 20 21 19 19 20 20 19 20 18 20 17 19 19 20 20 20 19 21 20 23 22 22 23 20 20 20 21 23 21 23 -193 -193 28 29 29 29 28 29 31 29 30 31 32 33 35 35 36 36 35 35 35 35 36 37 37 38 39 39 40 40 41 41 41 41 41 41 42 43 42 42 42 39 42 42 42 45 44 46 52 50 51 51 52 52 52 54 54 53 54 55 55 55 54 54 54 55 55 55 54 55 55 58 58 60 61 63 67 65 66 68 66 67 66 65 64 63 0 0 0 0 0
    0 0 0 0 0 0 0 0 0 0 0 0 0 0 0 0 0 0 0 0 0 0 0 0 0 0 0 0 0 0 0 0 0 0 0 0 0 0 0 0 0 0 0 0 0 0 0 0 0 0 0 0 0 0 0 0 0 0 0 0 0 0 0 0 0 0 0 0 0 15 16 15 16 14 15 15 17 14 15 14 14 15 13 14 15 12 13 13 12 16 13 15 15 15 15 18 15 17 16 16 16 18 15 16 15 16 16 16 17 18 16 17 18 16 19 18 17 19 19 18 20 19 19 18 19 19 19 17 18 17 18 17 19 16 18 18 18 17 17 16 20 16 18 18 18 18 19 20 20 19 21 21 21 21 22 22 21 19 20 21 21 21 21 20 19 19 21 20 19 20 18 20 20 21 19 20 19 21 19 -193 18 20 18 20 19 21 18 19 17 19 19 20 19 20 17 20 21 20 21 20 21 19 19 20 20 19 21 19 20 17 20 19 20 20 20 19 21 19 23 22 22 23 20 20 19 20 22 21 23 -193 -193 28 29 29 29 28 29 30 28 30 30 32 32 34 35 37 36 36 35 35 35 36 37 37 37 39 39 40 40 41 41 41 41 41 41 42 43 43 42 42 39 42 42 42 45 44 45 51 50 51 51 52 52 52 54 54 53 55 55 55 56 55 54 54 54 55 54 54 55 55 57 57 59 60 62 67 65 67 68 66 67 67 66 65 63 0 0 0 0 0
    0 0 0 0 0 0 0 0 0 0 0 0 0 0 0 0 0 0 0 0 0 0 0 0 0 0 0 0 0 0 0 0 0 0 0 0 0 0 0 0 0 0 0 0 0 0 0 0 0 0 0 0 0 0 0 0 0 0 0 0 0 0 0 0 0 0 0 0 0 15 16 15 15 15 16 15 16 14 15 14 14 16 13 14 15 13 13 13 13 17 13 15 15 15 16 18 15 17 16 16 15 18 16 16 15 16 16 15 17 18 16 16 18 16 19 18 18 19 19 18 20 19 19 18 19 19 19 16 18 16 19 17 19 16 18 18 18 17 18 16 20 16 18 19 19 18 20 20 20 20 21 21 21 20 22 22 21 19 20 20 -193 20 21 19 19 18 21 20 19 20 18 20 21 22 19 20 19 -193 -193 -193 18 20 18 20 19 21 18 19 17 20 19 20 19 20 18 20 21 20 21 20 21 19 19 20 20 19 21 19 21 17 20 20 20 20 20 20 20 19 22 21 21 23 19 19 19 20 22 21 22 -193 -193 28 29 29 29 28 29 31 28 30 29 31 31 34 35 36 36 35 35 35 35 36 37 37 38 39 39 40 40 41 41 42 42 42 41 43 43 43 42 42 39 42 43 42 45 44 45 51 50 50 51 52 51 52 54 54 54 55 56 55 56 55 54 54 54 54 54 53 55 54 56 57 59 60 62 67 65 66 69 66 67 67 66 65 63 0 0 0 0 0
    0 0 0 0 0 0 0 0 0 0 0 0 0 0 0 0 0 0 0 0 0 0 0 0 0 0 0 0 0 0 0 0 0 0 0 0 0 0 0 0 0 0 0 0 0 0 0 0 0 0 0 0 0 0 0 0 0 0 0 0 0 0 0 0 0 0 0 0 0 15 16 15 16 15 16 15 16 14 16 14 14 16 14 14 16 13 14 14 13 17 14 16 15 15 16 18 15 17 16 16 15 18 16 16 15 16 16 15 16 17 16 16 18 16 19 18 18 19 19 18 20 18 19 18 18 19 18 16 18 16 19 17 19 16 18 18 18 17 18 16 20 16 19 19 19 19 20 20 21 20 21 21 21 20 22 23 22 19 -193 20 -193 -193 21 19 19 18 20 20 19 20 18 20 21 22 -193 -193 19 -193 -193 -177 18 20 18 20 19 21 18 19 17 20 19 20 19 20 18 20 21 20 21 20 21 20 19 20 20 19 21 20 21 17 20 20 20 20 20 20 20 19 22 21 21 22 19 19 19 19 22 21 22 -193 -209 28 29 29 29 28 29 31 28 30 29 31 31 34 35 36 36 35 35 35 35 36 37 37 38 39 39 40 40 41 41 42 42 42 42 43 44 43 43 43 41 42 43 42 46 45 46 51 49 50 51 51 51 52 54 54 54 55 56 55 56 55 55 54 54 54 54 53 55 54 56 56 58 59 61 65 65 65 69 66 67 67 66 65 64 0 0 0 0 0
    0 0 0 0 0 0 0 0 0 0 0 0 0 0 0 0 0 0 0 0 0 0 0 0 0 0 0 0 0 0 0 0 0 0 0 0 0 0 0 0 0 0 0 0 0 0 0 0 0 0 0 0 0 0 0 0 0 0 0 0 0 0 0 0 0 0 0 0 0 15 16 15 15 15 16 15 16 15 16 14 14 16 14 14 16 13 14 14 14 17 14 17 16 15 16 18 15 18 16 16 15 18 16 17 15 16 16 15 16 17 16 15 18 16 19 18 18 19 19 17 20 18 19 18 18 19 18 16 18 15 18 16 19 16 17 18 18 17 18 17 19 17 19 20 20 19 20 20 21 20 21 21 22 20 23 23 22 19 -193 20 -193 -193 21 19 18 18 20 19 19 20 19 19 21 22 -193 -193 19 -177 -177 -177 19 20 18 20 19 21 18 19 17 20 19 20 20 20 18 20 21 20 21 20 21 20 19 20 20 19 21 20 20 18 20 20 19 20 20 20 20 19 22 20 21 23 19 19 19 19 22 21 22 -177 -177 28 28 29 29 28 29 31 29 30 29 31 31 33 34 35 35 34 34 34 34 36 37 37 37 38 39 40 40 41 42 42 42 42 42 44 44 44 43 43 41 43 44 42 47 46 47 51 49 49 51 50 51 52 54 54 54 55 56 56 56 55 55 54 54 54 54 53 55 54 55 56 57 59 60 64 64 65 69 66 67 67 66 65 64 0 0 0 0 0
    0 0 0 0 0 0 0 0 0 0 0 0 0 0 0 0 0 0 0 0 0 0 0 0 0 0 0 0 0 0 0 0 0 0 0 0 0 0 0 0 0 0 0 0 0 0 0 0 0 0 0 0 0 0 0 0 0 0 0 0 0 0 0 0 0 0 0 0 0 15 15 15 15 15 16 14 16 15 16 14 15 16 14 14 17 14 15 15 14 17 14 17 16 15 16 17 15 18 16 17 15 17 17 16 16 16 16 15 16 16 16 15 18 16 18 18 18 19 19 17 20 17 19 18 18 19 17 15 18 15 18 17 19 16 17 18 18 16 18 17 19 17 19 20 19 18 20 20 20 20 21 21 21 20 -193 -193 22 20 21 19 20 19 20 18 18 18 19 19 19 20 18 19 21 22 -193 21 19 -193 -177 -177 19 20 18 20 19 21 18 19 17 19 20 20 20 20 19 20 22 21 21 20 21 20 19 20 20 19 20 20 20 17 20 20 19 20 20 20 20 20 22 21 21 23 20 20 19 20 22 -193 -193 -177 -177 28 28 29 29 28 29 31 29 31 30 32 31 32 34 34 34 33 32 33 33 35 37 37 37 38 39 40 40 41 42 42 42 43 42 44 44 43 43 43 42 43 45 43 49 47 48 51 50 50 51 50 51 51 54 54 54 55 56 56 56 55 55 55 54 54 54 53 55 54 55 56 57 58 59 63 64 64 69 67 67 67 67 66 64 0 0 0 0 0
    0 0 0 0 0 0 0 0 0 0 0 0 0 0 0 0 0 0 0 0 0 0 0 0 0 0 0 0 0 0 0 0 0 0 0 0 0 0 0 0 0 0 0 0 0 0 0 0 0 0 0 0 0 0 0 0 0 0 0 0 0 0 0 0 0 0 0 0 0 15 14 14 15 15 16 14 15 15 15 13 15 16 14 13 17 14 15 15 15 17 14 17 16 15 16 17 15 18 16 17 15 17 17 16 16 16 16 15 16 16 16 15 18 16 17 18 18 19 19 17 20 17 18 18 17 18 16 15 18 14 18 17 19 16 16 18 17 16 18 17 19 17 19 20 19 18 20 20 20 20 -193 21 21 20 -193 -193 22 20 21 20 20 20 21 18 18 18 19 19 20 20 18 19 21 22 19 21 19 -177 -177 -177 19 20 18 20 19 21 19 19 17 20 21 21 20 20 19 20 21 20 21 20 21 20 19 21 20 19 20 20 19 18 19 20 18 20 20 19 20 20 22 21 21 23 20 20 20 20 22 21 -193 -177 -193 28 28 29 29 28 29 31 29 31 30 32 31 32 33 33 34 33 31 32 32 35 37 36 37 37 39 40 40 42 42 41 42 43 43 43 43 43 43 43 42 43 46 44 50 49 49 51 50 50 51 49 51 51 53 54 54 55 56 56 56 55 55 55 55 54 54 53 55 55 56 56 57 58 58 62 64 63 69 67 67 68 67 66 65 0 0 0 0 0
    0 0 0 0 0 0 0 0 0 0 0 0 0 0 0 0 0 0 0 0 0 0 0 0 0 0 0 0 0 0 0 0 0 0 0 0 0 0 0 0 0 0 0 0 0 0 0 0 0 0 0 0 0 0 0 0 0 0 0 0 0 0 0 0 0 0 0 0 0 15 14 14 15 15 16 14 15 15 15 13 14 17 13 13 18 14 16 15 16 17 14 17 16 14 17 16 15 17 16 17 15 17 17 16 16 16 16 15 16 16 16 15 18 16 17 18 18 19 19 17 20 17 18 18 16 19 16 15 18 14 18 16 19 16 16 19 17 16 18 17 19 17 19 20 19 19 20 20 20 19 -193 21 21 19 23 22 21 20 21 19 20 19 21 18 18 18 19 18 20 20 18 19 21 21 19 21 19 -177 -177 -177 19 20 18 20 19 22 19 20 18 20 22 21 21 21 20 20 22 21 21 20 21 20 20 21 19 19 21 20 19 19 20 20 18 21 20 18 19 20 21 20 21 23 19 20 20 20 22 21 23 -193 -193 28 28 29 29 28 29 31 29 31 30 32 31 31 33 32 34 32 30 31 32 34 37 37 37 37 40 40 41 42 42 41 42 43 43 43 43 43 43 43 43 44 48 46 51 49 49 51 50 50 51 49 52 51 53 54 54 55 56 55 56 55 55 55 55 55 55 54 55 55 56 57 57 57 58 61 63 62 70 67 67 68 67 67 65 0 0 0 0 0
    0 0 0 0 0 0 0 0 0 0 0 0 0 0 0 0 0 0 0 0 0 0 0 0 0 0 0 0 0 0 0 0 0 0 0 0 0 0 0 0 0 0 0 0 0 0 0 0 0 0 0 0 0 0 0 0 0 0 0 0 0 0 0 0 0 0 0 0 0 15 14 14 14 15 15 14 14 15 15 13 14 17 14 13 18 15 16 15 16 17 14 17 17 15 17 16 15 17 16 16 15 17 17 16 16 16 16 15 16 17 16 14 18 16 17 18 18 18 18 17 20 16 19 18 16 18 17 15 18 15 17 16 19 16 16 18 17 16 19 18 19 18 19 20 20 19 20 20 19 19 -193 20 20 18 22 21 20 20 21 19 20 19 21 18 18 18 19 18 19 19 18 18 20 21 18 21 19 -177 -177 -177 20 20 19 20 19 21 19 20 18 20 22 21 22 21 20 21 22 21 21 20 21 19 20 21 19 19 20 20 19 19 19 20 17 20 20 17 17 21 21 20 20 23 19 20 20 20 21 21 23 -193 -193 28 28 29 28 28 30 30 29 31 30 31 30 31 32 31 34 32 30 31 32 35 38 37 37 36 40 40 40 42 42 40 42 42 43 43 43 43 43 43 43 45 49 46 51 50 49 51 51 50 51 49 53 51 53 54 54 55 56 55 55 55 55 55 55 55 55 54 56 56 57 57 57 57 58 60 63 62 69 67 67 68 68 68 66 0 0 0 0 0
    0 0 0 0 0 0 0 0 0 0 0 0 0 0 0 0 0 0 0 0 0 0 0 0 0 0 0 0 0 0 0 0 0 0 0 0 0 0 0 0 0 0 0 0 0 0 0 0 0 0 0 0 0 0 0 0 0 0 0 0 0 0 0 0 0 0 0 0 0 15 13 14 14 15 15 13 14 14 14 13 14 17 14 13 18 15 17 16 17 17 14 17 17 15 17 16 16 17 16 16 15 17 17 15 16 16 16 15 16 17 16 14 18 16 17 18 17 18 18 17 19 16 19 18 15 18 17 15 17 15 17 15 20 16 16 19 17 17 19 18 19 18 19 20 20 19 20 20 19 19 -193 20 19 17 21 20 19 19 20 18 19 19 20 18 18 19 18 17 19 19 18 18 20 20 18 21 19 -193 -193 -193 20 20 19 20 19 21 20 20 18 20 22 21 22 21 21 21 22 21 21 20 21 19 20 21 19 19 20 20 19 19 20 20 17 21 20 16 17 21 21 20 20 23 19 20 20 21 22 22 23 24 -193 28 28 29 29 28 30 30 30 31 30 31 30 31 31 31 34 32 30 31 32 35 38 37 37 36 40 40 40 41 42 40 41 42 42 42 43 43 43 43 44 46 49 47 51 50 50 51 51 51 51 50 53 51 54 54 54 54 55 54 55 55 55 55 55 55 55 54 56 57 57 57 57 57 58 60 63 62 69 67 67 69 68 68 67 0 0 0 0 0
    0 0 0 0 0 0 0 0 0 0 0 0 0 0 0 0 0 0 0 0 0 0 0 0 0 0 0 0 0 0 0 0 0 0 0 0 0 0 0 0 0 0 0 0 0 0 0 0 0 0 0 0 0 0 0 0 0 0 0 0 0 0 0 0 0 0 0 0 0 16 13 14 14 15 15 13 14 14 14 13 14 17 14 13 18 15 18 16 17 17 15 17 16 15 18 15 16 17 16 17 16 17 17 15 17 16 16 15 16 17 16 14 18 15 16 18 17 17 17 17 19 16 19 18 15 19 18 16 17 16 17 15 20 16 17 19 17 17 19 19 20 19 20 20 20 19 20 20 19 19 18 19 19 17 21 20 18 19 20 18 19 19 20 18 18 19 18 17 19 19 18 17 19 20 17 20 19 20 20 22 20 20 19 20 19 21 20 20 19 20 22 21 22 21 21 21 22 22 21 20 21 19 20 21 19 19 20 20 19 19 20 20 17 21 20 16 17 21 22 20 21 23 19 20 21 22 22 22 24 24 25 27 28 29 29 29 30 29 30 32 30 31 30 31 31 31 34 32 30 31 32 35 38 37 37 36 40 40 40 41 41 40 41 42 42 42 43 43 43 43 45 46 48 47 51 50 50 51 51 51 51 50 53 51 54 54 54 54 55 54 55 55 54 54 55 55 55 54 56 57 57 58 57 57 58 60 63 62 69 68 -193 -193 68 69 67 0 0 0 0 0
    0 0 0 0 0 0 0 0 0 0 0 0 0 0 0 0 0 0 0 0 0 0 0 0 0 0 0 0 0 0 0 0 0 0 0 0 0 0 0 0 0 0 0 0 0 0 0 0 0 0 0 0 0 0 0 0 0 0 0 0 0 0 0 0 0 0 0 0 0 17 13 14 14 15 15 13 14 14 13 13 14 17 13 14 19 15 18 16 17 17 15 17 16 15 18 15 16 17 16 17 16 18 17 15 17 16 16 16 16 18 16 14 18 15 16 18 16 17 16 18 19 16 20 18 15 19 18 17 17 16 17 14 20 16 17 19 17 17 19 19 19 19 20 20 20 19 20 20 19 18 17 19 18 17 20 19 17 19 20 18 19 19 20 18 18 20 18 17 19 18 17 17 18 19 16 20 19 18 19 21 20 19 18 20 19 20 20 20 19 20 23 21 23 21 21 21 23 22 22 20 21 19 20 21 19 19 20 20 19 19 19 20 17 21 20 15 15 21 23 20 21 23 19 21 22 22 22 22 24 24 25 27 28 29 29 29 30 29 30 32 30 31 31 31 31 31 34 32 29 31 32 35 38 37 37 37 40 40 40 41 41 40 41 42 42 41 42 43 43 43 45 46 48 46 51 50 50 51 51 51 51 51 54 51 54 54 53 54 55 53 54 54 54 54 55 55 55 54 56 57 57 58 57 57 58 60 63 62 68 68 -193 -193 69 -193 67 0 0 0 0 0
    0 0 0 0 0 0 0 0 0 0 0 0 0 0 0 0 0 0 0 0 0 0 0 0 0 0 0 0 0 0 0 0 0 0 0 0 0 0 0 0 0 0 0 0 0 0 0 0 0 0 0 0 0 0 0 0 0 0 0 0 0 0 0 0 0 0 0 0 0 17 13 14 14 15 15 13 14 14 13 13 14 17 13 14 19 15 18 16 17 17 15 17 16 14 18 14 17 16 16 17 16 18 17 14 17 16 16 16 16 18 16 15 19 15 16 18 16 17 16 18 18 15 20 18 15 20 18 17 16 17 17 14 21 17 17 20 18 18 20 19 19 20 19 20 19 19 19 19 18 18 16 18 17 16 19 18 16 18 19 18 18 18 20 18 18 20 17 17 19 18 17 16 18 19 15 20 19 16 19 20 21 19 18 20 20 20 21 21 20 21 23 22 23 21 21 21 22 22 21 20 21 19 20 21 19 19 20 19 19 19 19 20 17 22 21 15 16 23 23 20 21 23 19 21 22 22 22 22 25 24 25 27 28 28 29 29 30 29 30 32 30 31 30 30 31 31 34 32 29 31 32 35 38 37 37 37 40 40 40 40 41 39 41 41 41 41 42 42 43 43 44 46 47 46 51 50 50 51 51 51 51 51 54 51 54 53 53 53 54 53 54 54 54 54 55 55 54 54 56 57 56 58 57 57 58 60 64 62 68 68 -193 -193 69 -193 -193 0 0 0 0 0
    0 0 0 0 0 0 0 0 0 0 0 0 0 0 0 0 0 0 0 0 0 0 0 0 0 0 0 0 0 0 0 0 0 0 0 0 0 0 0 0 0 0 0 0 0 0 0 0 0 0 0 0 0 0 0 0 0 0 0 0 0 0 0 0 0 0 0 0 0 17 13 14 14 15 15 13 14 14 12 13 14 17 13 14 19 16 19 16 17 16 15 17 16 14 18 14 17 16 16 17 16 17 17 14 17 17 15 16 16 20 15 15 19 16 16 18 16 17 15 18 18 15 20 18 15 19 18 17 16 17 17 14 21 18 18 20 18 18 20 19 19 19 19 19 18 19 19 18 17 17 15 17 16 15 17 17 14 17 18 16 17 17 21 17 17 20 17 16 19 17 17 15 17 18 14 19 18 13 18 19 20 18 18 19 20 20 21 21 21 22 23 22 23 21 21 21 22 21 21 20 20 18 20 21 19 19 20 19 20 19 20 20 18 23 22 17 19 24 23 20 21 23 19 21 22 22 22 23 25 25 25 27 28 28 29 29 30 28 30 32 30 30 30 31 31 31 34 32 29 31 33 35 38 36 37 37 40 40 40 40 40 39 41 41 41 40 41 42 43 43 44 45 47 46 50 50 49 50 51 51 51 51 54 51 54 53 53 53 54 53 54 -193 54 53 55 55 54 54 56 57 57 58 58 57 58 60 63 63 68 68 -193 -193 69 -193 68 0 0 0 0 0
    0 0 0 0 0 0 0 0 0 0 0 0 0 0 0 0 0 0 0 0 0 0 0 0 0 0 0 0 0 0 0 0 0 0 0 0 0 0 0 0 0 0 0 0 0 0 0 0 0 0 0 0 0 0 0 0 0 0 0 0 0 0 0 0 0 0 0 0 0 17 13 13 14 15 15 14 15 14 12 14 14 17 14 15 19 16 19 16 17 16 15 17 16 15 18 14 17 16 17 17 16 17 17 14 17 16 14 15 16 20 15 15 19 16 16 19 16 17 15 18 18 15 20 18 15 20 19 18 16 18 17 14 21 18 18 19 18 18 20 19 18 19 18 19 18 19 19 17 17 17 15 17 15 15 16 16 13 16 16 14 16 16 21 18 17 20 17 17 19 17 17 15 17 17 13 18 18 11 18 19 20 17 19 20 21 21 22 22 22 22 23 22 23 21 21 21 21 21 21 20 20 18 20 21 18 19 20 20 20 20 21 21 20 24 24 20 22 24 23 20 20 23 19 21 22 22 22 23 25 25 25 27 28 28 29 29 30 28 30 33 31 30 31 31 32 30 34 32 29 32 33 35 38 36 37 37 40 39 39 40 40 38 40 41 40 40 41 42 43 43 43 45 46 46 50 50 49 50 51 51 51 52 54 51 54 53 52 53 54 52 53 -193 54 53 55 55 55 54 56 57 57 58 58 58 59 60 63 63 67 68 69 69 69 70 68 0 0 0 0 0
    0 0 0 0 0 0 0 0 0 0 0 0 0 0 0 0 0 0 0 0 0 0 0 0 0 0 0 0 0 0 0 0 0 0 0 0 0 0 0 0 0 0 0 0 0 0 0 0 0 0 0 0 0 0 0 0 0 0 0 0 0 0 0 0 0 0 0 0 0 16 13 13 14 15 15 14 15 15 12 15 15 17 14 15 18 16 19 16 17 17 16 17 16 15 18 14 17 17 16 17 15 18 17 14 17 16 14 15 16 21 16 16 20 16 16 19 16 17 15 19 18 15 21 19 15 20 20 18 16 18 18 14 21 19 19 19 18 18 20 18 18 19 18 18 17 18 18 16 17 18 15 17 15 15 16 15 13 15 15 14 16 16 20 18 17 20 16 17 19 17 17 15 17 17 13 18 18 11 19 20 20 18 20 20 21 21 21 21 22 21 22 22 22 21 21 21 21 21 21 20 20 18 20 21 18 19 20 20 20 20 21 22 22 25 25 22 22 24 23 20 20 22 19 21 22 22 22 23 25 25 25 27 28 28 29 29 31 28 30 33 31 30 31 31 32 30 34 32 29 32 33 35 38 35 36 37 40 39 39 39 40 38 40 40 40 40 41 42 43 43 43 44 45 45 49 50 48 49 51 51 52 53 54 51 54 53 52 53 53 52 53 -193 54 53 55 55 55 54 56 57 -193 58 58 58 59 60 63 63 66 67 68 69 69 70 68 0 0 0 0 0
    0 0 0 0 0 0 0 0 0 0 0 0 0 0 0 0 0 0 0 0 0 0 0 0 0 0 0 0 0 0 0 0 0 0 0 0 0 0 0 0 0 0 0 0 0 0 0 0 0 0 0 0 0 0 0 0 0 0 0 0 0 0 0 0 0 0 0 0 0 16 14 13 14 15 15 14 15 15 12 15 15 16 14 15 18 16 19 16 17 17 16 17 16 15 18 14 17 17 16 17 16 18 17 15 18 17 14 16 17 21 17 16 20 17 17 19 17 17 16 19 18 15 21 19 16 20 19 18 16 18 18 14 20 19 19 20 19 19 20 18 18 19 18 18 17 18 18 15 18 18 15 17 16 15 16 15 14 16 15 14 16 15 20 18 16 20 16 16 19 17 17 16 17 17 14 18 18 13 19 20 20 19 20 20 21 21 21 21 21 20 21 21 22 21 20 21 21 20 21 20 20 19 20 21 18 20 20 20 20 19 21 21 22 23 21 20 19 23 22 20 20 22 19 21 22 22 22 23 25 25 25 27 28 27 28 29 30 28 30 33 30 30 30 30 32 30 34 32 30 32 34 35 37 35 36 37 39 39 39 39 40 39 41 41 41 40 41 43 43 43 43 44 44 45 48 49 48 49 50 52 52 53 54 51 54 52 52 52 53 52 53 -193 54 53 55 55 55 55 56 58 -193 58 58 58 59 60 62 63 65 67 68 69 69 70 68 0 0 0 0 0
    0 0 0 0 0 0 0 0 0 0 0 0 0 0 0 0 0 0 0 0 0 0 0 0 0 0 0 0 0 0 0 0 0 0 0 0 0 0 0 0 0 0 0 0 0 0 0 0 0 0 0 0 0 0 0 0 0 0 0 0 0 0 0 0 0 0 0 0 0 16 14 14 15 16 14 14 15 15 12 15 16 16 15 16 18 16 19 16 16 17 16 17 16 15 17 13 17 17 16 17 16 18 18 16 18 17 16 17 17 21 16 16 20 17 17 19 17 17 16 19 18 15 21 19 17 19 19 18 16 18 18 16 19 19 19 19 18 18 20 18 17 19 17 17 16 18 18 15 18 18 15 17 18 16 17 16 16 17 16 16 17 15 19 17 16 19 16 16 19 16 17 16 17 18 14 19 19 14 20 20 19 19 19 20 20 22 20 20 21 20 21 21 21 20 19 21 20 20 21 19 20 18 19 20 17 19 19 20 20 19 20 21 22 23 22 21 20 22 22 20 20 22 19 21 22 22 22 23 25 25 25 27 28 27 29 30 30 28 30 32 31 30 30 30 32 31 33 32 30 32 34 35 37 33 36 37 39 38 38 39 40 39 41 41 41 40 41 43 43 43 44 45 45 45 48 50 48 49 50 52 52 53 53 51 53 52 52 52 53 52 52 -193 54 53 55 55 55 55 57 58 -209 58 58 58 59 60 62 63 64 66 68 69 68 69 68 0 0 0 0 0
    0 0 0 0 0 0 0 0 0 0 0 0 0 0 0 0 0 0 0 0 0 0 0 0 0 0 0 0 0 0 0 0 0 0 0 0 0 0 0 0 0 0 0 0 0 0 0 0 0 0 0 0 0 0 0 0 0 0 0 0 0 0 0 0 0 0 0 0 0 15 14 14 16 16 14 15 15 15 13 16 16 15 15 16 17 16 19 16 16 17 16 16 16 16 17 13 17 18 16 18 17 18 18 18 18 17 17 17 17 20 17 17 20 17 17 19 17 18 16 19 19 16 21 19 18 20 20 19 17 19 19 17 19 19 19 19 18 18 20 17 17 19 17 17 17 18 19 15 19 19 15 17 19 16 17 16 18 18 17 17 18 16 19 18 16 19 16 16 19 17 18 17 17 19 15 20 19 15 19 20 19 19 19 20 20 21 20 20 20 20 21 20 21 20 18 20 20 19 20 19 19 18 19 19 17 19 19 20 21 20 21 21 22 23 22 21 20 22 22 21 21 22 19 22 22 23 22 23 25 25 25 27 27 27 28 29 31 28 29 32 31 30 30 30 32 31 33 32 31 32 34 35 36 32 35 37 39 38 38 39 40 39 41 41 41 41 41 42 42 43 44 44 45 45 47 49 47 49 49 51 51 52 53 51 53 52 52 52 53 51 52 -193 53 52 55 55 55 55 57 59 -209 58 59 59 59 60 62 63 63 66 67 68 68 69 68 0 0 0 0 0
    0 0 0 0 0 0 0 0 0 0 0 0 0 0 0 0 0 0 0 0 0 0 0 0 0 0 0 0 0 0 0 0 0 0 0 0 0 0 0 0 0 0 0 0 0 0 0 0 0 0 0 0 0 0 0 0 0 0 0 0 0 0 0 0 0 0 0 0 0 15 14 14 15 15 14 14 14 15 13 15 17 15 15 16 16 16 19 16 16 16 17 16 16 16 17 13 17 17 16 18 17 17 17 18 18 17 17 17 18 19 17 17 19 17 17 19 18 18 16 19 19 16 20 19 17 19 20 19 18 19 19 18 19 19 20 19 18 18 20 17 17 19 17 17 16 18 19 15 19 19 16 18 19 17 17 17 18 18 18 17 18 16 19 18 16 19 17 17 19 17 18 17 17 19 15 20 19 16 19 20 18 18 18 19 19 21 19 20 20 20 20 20 20 20 18 20 19 19 20 18 19 18 19 19 18 19 19 21 21 21 21 21 22 23 22 21 20 22 22 21 21 22 20 22 22 23 22 23 24 25 25 26 27 27 27 29 31 28 29 32 32 30 30 30 33 31 33 32 31 31 35 35 36 31 35 37 39 38 38 39 40 39 41 41 41 41 41 42 42 43 43 44 45 45 47 49 47 49 49 51 50 51 53 51 52 51 51 51 52 51 52 53 53 52 55 55 55 56 57 59 -193 59 60 59 59 60 61 63 62 65 67 68 68 69 68 0 0 0 0 0
    0 0 0 0 0 0 0 0 0 0 0 0 0 0 0 0 0 0 0 0 0 0 0 0 0 0 0 0 0 0 0 0 0 0 0 0 0 0 0 0 0 0 0 0 0 0 0 0 0 0 0 0 0 0 0 0 0 0 0 0 0 0 0 0 0 0 0 0 0 14 14 14 15 14 14 14 14 14 13 15 17 14 16 16 16 16 19 16 16 16 16 16 16 16 17 14 17 17 16 17 17 16 17 18 18 17 17 17 18 18 17 17 19 17 18 18 18 17 17 19 19 16 20 19 18 19 20 19 18 19 19 19 18 19 20 19 18 18 19 17 17 19 17 17 16 17 19 15 18 18 16 18 19 17 17 17 18 18 18 17 18 16 19 19 17 20 17 17 19 17 18 18 18 19 16 20 19 17 19 20 18 19 18 19 18 21 19 20 20 19 20 19 20 19 17 20 19 18 20 18 19 18 20 20 19 20 20 22 22 22 21 21 22 23 22 22 20 22 22 22 22 23 20 22 22 23 23 23 24 25 25 26 27 27 27 29 30 28 28 32 32 30 30 31 34 31 33 33 32 31 34 35 36 30 35 37 39 38 39 39 40 39 41 41 41 41 41 42 42 44 43 45 45 45 47 49 47 49 49 51 50 50 52 50 51 51 51 51 52 51 51 53 53 52 -193 55 56 -193 57 59 -193 59 60 59 59 60 61 63 61 65 67 68 67 69 68 0 0 0 0 0
    0 0 0 0 0 0 0 0 0 0 0 0 0 0 0 0 0 0 0 0 0 0 0 0 0 0 0 0 0 0 0 0 0 0 0 0 0 0 0 0 0 0 0 0 0 0 0 0 0 0 0 0 0 0 0 0 0 0 0 0 0 0 0 0 0 0 0 0 0 13 14 14 14 14 14 14 13 14 13 15 17 14 16 15 16 16 18 15 17 16 16 16 17 17 17 14 17 17 16 17 18 16 17 18 17 17 17 17 18 17 17 17 18 17 18 18 18 17 17 19 19 17 20 19 18 20 20 18 19 19 18 19 18 19 20 19 18 18 19 17 17 18 17 17 16 17 19 15 19 18 17 18 19 17 18 17 18 18 18 17 18 16 18 19 17 20 17 17 19 17 19 18 18 19 16 20 19 18 20 20 19 19 18 19 18 20 19 19 19 19 19 19 20 19 17 20 19 18 20 18 20 18 20 20 19 20 20 22 23 22 22 21 22 23 22 22 20 21 22 22 22 23 20 22 23 23 23 24 25 25 25 27 27 27 27 29 30 28 28 31 32 30 31 31 34 31 33 33 32 32 34 34 36 29 34 37 39 38 39 39 40 40 41 41 41 41 42 42 42 43 43 45 46 45 46 49 47 49 49 50 49 50 52 50 51 51 51 51 52 50 51 53 53 52 -193 -193 -193 -193 57 59 57 60 61 59 60 60 61 63 61 65 66 67 67 68 68 0 0 0 0 0
    0 0 0 0 0 0 0 0 0 0 0 0 0 0 0 0 0 0 0 0 0 0 0 0 0 0 0 0 0 0 0 0 0 0 0 0 0 0 0 0 0 0 0 0 0 0 0 0 0 0 0 0 0 0 0 0 0 0 0 0 0 0 0 0 0 0 0 0 0 13 14 14 14 14 14 14 13 14 14 15 17 14 16 15 16 16 17 15 17 15 16 15 17 16 17 15 17 17 16 17 18 16 17 18 17 18 17 17 18 17 18 18 18 17 18 18 18 17 18 19 19 17 20 19 19 20 20 18 19 19 18 20 18 19 19 19 19 18 19 17 17 18 17 16 17 17 19 15 19 18 17 18 19 17 18 18 19 18 19 18 19 16 18 19 17 20 18 18 19 18 19 19 18 20 17 21 19 18 19 20 18 19 18 18 18 20 18 19 18 19 19 19 20 19 17 20 19 19 20 19 20 19 20 20 19 19 20 22 22 22 21 21 22 23 22 21 20 21 22 22 22 23 20 22 23 24 23 24 25 26 25 27 27 27 27 29 29 29 28 31 31 30 31 31 34 31 33 33 33 32 34 34 35 29 34 37 38 38 39 39 40 40 41 42 42 41 42 42 42 43 43 45 46 45 46 49 47 49 49 50 49 49 52 50 50 51 51 51 52 50 51 53 53 52 55 55 -193 -193 57 59 57 59 61 59 59 59 60 62 60 64 65 66 65 67 67 0 0 0 0 0
    0 0 0 0 0 0 0 0 0 0 0 0 0 0 0 0 0 0 0 0 0 0 0 0 0 0 0 0 0 0 0 0 0 0 0 0 0 0 0 0 0 0 0 0 0 0 0 0 0 0 0 0 0 0 0 0 0 0 0 0 0 0 0 0 0 0 0 0 0 14 14 15 14 14 15 14 13 14 14 15 17 14 17 15 16 16 17 15 18 15 17 15 17 16 17 15 17 17 16 17 18 15 17 18 18 18 17 18 18 17 18 18 18 17 18 18 19 17 19 20 19 17 20 20 19 19 19 18 18 19 19 19 17 19 19 19 19 18 18 17 17 18 17 17 17 18 19 16 19 19 17 18 19 17 18 18 19 18 19 18 19 16 19 19 17 20 18 18 19 18 20 19 19 20 18 21 19 19 19 20 18 19 18 19 18 20 19 19 18 19 19 19 19 19 17 20 19 19 21 19 20 19 20 20 20 19 20 22 22 21 21 21 21 23 22 21 20 21 21 22 22 23 20 22 23 23 23 23 24 26 25 26 27 27 27 29 29 29 28 30 31 30 30 31 33 31 33 33 33 31 34 34 35 30 34 36 38 38 39 39 40 40 41 42 42 41 42 42 42 43 43 45 46 45 46 49 47 48 49 50 48 49 51 50 50 50 51 50 52 50 51 53 52 52 55 55 -193 -193 57 58 57 59 61 59 59 59 60 62 60 63 64 64 64 66 66 0 0 0 0 0
    0 0 0 0 0 0 0 0 0 0 0 0 0 0 0 0 0 0 0 0 0 0 0 0 0 0 0 0 0 0 0 0 0 0 0 0 0 0 0 0 0 0 0 0 0 0 0 0 0 0 0 0 0 0 0 0 0 0 0 0 0 0 0 0 0 0 0 0 0 13 14 15 14 14 15 14 13 15 15 15 17 14 17 15 16 17 17 16 18 15 16 15 17 16 17 15 17 16 16 17 18 16 17 18 18 18 17 18 18 17 18 18 17 17 18 18 19 18 19 20 20 18 21 20 19 20 19 18 18 19 18 19 17 19 18 18 18 18 18 17 17 19 18 17 18 18 19 16 19 19 17 18 19 17 18 18 19 18 19 18 19 16 19 19 17 20 18 18 19 19 20 19 20 21 18 21 20 19 20 20 19 19 18 18 18 20 18 19 17 19 18 18 19 19 17 19 19 19 20 19 20 19 20 20 20 20 20 22 22 22 21 21 21 -193 -193 21 20 21 21 22 22 22 20 22 22 23 23 23 24 26 25 26 27 27 27 29 29 29 28 31 31 30 31 32 32 32 33 34 33 31 34 33 35 30 34 36 38 38 39 40 40 40 42 42 42 41 42 42 41 43 43 45 46 46 46 49 47 49 49 49 48 48 51 50 49 50 50 50 52 50 51 53 53 52 55 55 55 -193 57 58 56 59 61 59 59 59 60 62 60 62 63 64 64 66 66 0 0 0 0 0
    0 0 0 0 0 0 0 0 0 0 0 0 0 0 0 0 0 0 0 0 0 0 0 0 0 0 0 0 0 0 0 0 0 0 0 0 0 0 0 0 0 0 0 0 0 0 0 0 0 0 0 0 0 0 0 0 0 0 0 0 0 0 0 0 0 0 0 0 0 13 14 15 13 13 16 14 14 15 15 15 17 15 17 15 16 17 17 16 18 15 17 15 17 16 17 15 17 16 16 17 18 16 17 17 17 17 17 18 18 16 17 17 17 17 18 18 19 18 20 21 20 19 21 20 19 20 19 18 18 19 18 19 17 18 18 18 18 17 18 17 17 19 18 17 18 18 19 16 19 19 17 18 19 17 18 18 19 18 19 18 19 16 19 19 17 20 18 18 19 19 21 19 20 21 19 22 20 20 20 21 20 19 18 18 18 20 18 19 16 19 17 18 19 19 17 19 19 19 20 19 20 19 20 20 21 20 21 22 22 22 22 22 21 -193 -193 -193 20 21 21 22 22 22 21 22 22 23 23 24 24 26 25 26 27 27 27 29 29 30 28 31 32 31 31 32 32 32 33 34 33 31 33 33 35 30 35 36 38 38 39 40 40 40 42 42 42 41 42 41 41 42 43 45 46 46 46 49 47 49 49 49 48 47 51 50 49 50 51 50 52 50 51 53 53 52 55 55 55 54 57 58 55 59 61 58 58 58 60 61 60 61 62 62 61 63 64 0 0 0 0 0
    0 0 0 0 0 0 0 0 0 0 0 0 0 0 0 0 0 0 0 0 0 0 0 0 0 0 0 0 0 0 0 0 0 0 0 0 0 0 0 0 0 0 0 0 0 0 0 0 0 0 0 0 0 0 0 0 0 0 0 0 0 0 0 0 0 0 0 0 0 13 14 15 13 13 16 14 14 15 15 15 17 15 17 15 16 17 16 16 18 15 17 16 17 16 17 15 17 16 16 17 18 16 17 17 17 17 16 17 18 16 17 17 17 17 19 18 20 18 20 21 20 19 21 20 19 20 19 18 19 19 18 19 17 19 18 18 18 17 18 17 17 18 18 18 18 18 19 17 20 19 18 18 19 16 17 17 18 17 19 18 18 16 19 19 18 20 18 19 19 20 21 20 20 22 20 22 21 21 20 21 20 20 19 18 18 20 19 19 16 19 17 18 19 19 18 19 19 19 20 19 20 19 20 21 21 20 21 -193 -193 -193 22 22 21 -193 -193 -193 20 21 21 22 22 23 21 22 22 23 24 24 24 26 25 26 28 28 28 29 29 30 29 31 31 32 32 32 32 32 33 33 33 32 32 33 36 32 36 36 38 38 39 39 40 40 42 42 42 41 41 42 41 42 43 45 47 46 46 49 47 48 49 49 48 47 50 49 49 50 51 50 52 50 51 53 53 52 55 55 54 54 56 57 55 59 61 58 58 57 59 61 59 60 60 59 59 62 64 0 0 0 0 0
    0 0 0 0 0 0 0 0 0 0 0 0 0 0 0 0 0 0 0 0 0 0 0 0 0 0 0 0 0 0 0 0 0 0 0 0 0 0 0 0 0 0 0 0 0 0 0 0 0 0 0 0 0 0 0 0 0 0 0 0 0 0 0 0 0 0 0 0 0 13 14 15 13 13 16 14 14 15 15 15 16 15 17 15 16 16 16 16 18 15 17 16 17 16 17 15 17 16 15 17 18 16 17 17 17 18 17 18 18 16 17 18 17 17 19 18 19 18 21 20 20 19 21 20 19 20 19 18 19 19 18 19 16 18 18 18 18 17 17 17 16 18 18 17 18 17 19 17 19 18 18 18 18 16 17 17 18 17 18 18 18 16 20 19 18 20 19 19 20 20 21 20 21 22 20 22 21 22 21 21 21 21 19 18 18 20 19 19 16 19 17 19 19 19 18 20 20 19 20 19 20 19 20 21 22 20 22 -193 -193 -193 22 22 21 -193 -193 22 21 22 21 22 22 23 21 22 22 23 23 24 24 26 25 27 28 28 28 30 29 30 29 32 31 32 32 32 31 32 33 33 32 32 32 33 36 34 36 37 38 39 39 40 40 40 41 42 42 41 41 42 42 42 44 45 47 46 46 49 48 48 49 48 48 47 50 49 49 50 51 50 52 51 51 52 52 51 55 54 54 53 56 57 54 59 61 58 58 56 59 60 59 59 59 58 60 65 65 0 0 0 0 0
    0 0 0 0 0 0 0 0 0 0 0 0 0 0 0 0 0 0 0 0 0 0 0 0 0 0 0 0 0 0 0 0 0 0 0 0 0 0 0 0 0 0 0 0 0 0 0 0 0 0 0 0 0 0 0 0 0 0 0 0 0 0 0 0 0 0 0 0 0 13 14 16 12 13 16 14 14 15 16 16 16 15 17 15 16 16 17 16 18 16 17 16 17 16 17 15 17 16 15 17 18 16 17 17 18 18 17 18 18 16 17 18 17 17 19 17 19 18 21 20 20 19 21 20 20 20 19 18 18 19 17 19 16 18 17 18 17 17 17 17 16 18 18 17 18 18 19 17 20 19 17 17 18 16 17 17 18 17 18 18 19 17 20 19 18 20 19 19 20 21 22 20 22 22 21 23 22 22 21 22 22 21 19 18 19 20 19 19 16 19 18 19 20 20 19 20 21 20 21 20 20 20 21 21 22 20 22 -193 -193 22 22 22 21 -193 -193 22 21 22 22 23 22 23 22 22 22 23 23 24 24 27 26 27 28 28 28 30 29 31 29 32 31 32 32 32 31 32 33 33 33 33 33 33 36 36 37 37 38 38 39 39 41 41 41 42 42 41 41 42 42 42 44 45 47 46 46 50 47 48 49 48 48 47 50 49 49 51 51 51 52 51 51 52 53 51 54 54 54 54 56 57 53 58 61 58 57 54 57 58 58 57 59 56 59 67 65 0 0 0 0 0
    0 0 0 0 0 0 0 0 0 0 0 0 0 0 0 0 0 0 0 0 0 0 0 0 0 0 0 0 0 0 0 0 0 0 0 0 0 0 0 0 0 0 0 0 0 0 0 0 0 0 0 0 0 0 0 0 0 0 0 0 0 0 0 0 0 0 0 0 0 14 14 17 13 14 17 15 15 16 16 16 16 16 18 15 17 16 17 16 18 16 17 16 16 17 17 15 17 16 15 17 18 17 18 18 18 18 17 18 18 17 16 17 18 16 19 18 19 18 20 20 20 19 21 20 20 20 19 18 18 19 18 19 16 18 17 18 18 17 18 17 16 19 19 18 19 18 19 17 20 19 18 17 18 16 17 17 18 18 19 19 19 18 21 19 18 20 19 19 20 21 22 20 22 23 22 23 23 23 22 22 22 22 20 19 19 20 19 19 17 19 18 20 21 20 20 21 22 21 21 20 20 20 21 21 22 20 22 22 22 22 22 22 22 22 23 23 22 23 22 23 22 23 22 22 22 22 23 23 24 27 25 27 28 28 29 30 29 31 29 32 31 32 32 32 31 33 33 34 34 34 35 34 37 37 37 37 38 39 39 39 41 41 41 42 42 41 41 43 42 42 44 45 46 46 46 50 47 48 49 48 48 47 50 49 48 51 51 51 52 51 52 53 53 52 54 54 54 54 56 57 54 58 60 59 58 57 59 60 59 58 58 54 58 70 65 0 0 0 0 0
    0 0 0 0 0 0 0 0 0 0 0 0 0 0 0 0 0 0 0 0 0 0 0 0 0 0 0 0 0 0 0 0 0 0 0 0 0 0 0 0 0 0 0 0 0 0 0 0 0 0 0 0 0 0 0 0 0 0 0 0 0 0 0 0 0 0 0 0 0 14 15 17 13 15 18 15 16 16 17 17 16 16 18 16 17 17 18 16 18 17 17 16 16 17 17 15 17 17 15 18 18 18 18 18 18 18 17 18 18 17 17 18 19 17 19 18 20 19 21 21 20 19 21 20 20 20 19 18 19 19 18 19 17 18 18 19 18 18 19 18 17 20 20 19 19 19 19 18 21 20 18 18 18 16 17 17 18 18 19 19 19 19 22 20 19 21 19 20 20 22 22 20 23 -193 23 24 24 24 23 23 24 23 21 19 20 20 19 19 17 19 19 21 21 21 21 21 22 21 21 20 20 20 20 21 22 20 22 22 23 22 23 23 22 23 23 -193 22 23 22 24 22 23 22 22 22 22 23 23 23 26 25 26 28 28 29 30 29 31 29 32 31 33 32 32 30 33 33 34 34 35 36 35 37 38 38 38 39 39 39 39 40 41 41 42 42 41 41 43 43 43 44 45 46 47 46 50 47 48 49 47 48 47 49 50 48 51 52 51 53 52 52 53 53 52 54 55 54 54 56 57 55 58 58 58 57 58 59 60 57 56 -193 53 57 -209 -209 0 0 0 0 0
    0 0 0 0 0 0 0 0 0 0 0 0 0 0 0 0 0 0 0 0 0 0 0 0 0 0 0 0 0 0 0 0 0 0 0 0 0 0 0 0 0 0 0 0 0 0 0 0 0 0 0 0 0 0 0 0 0 0 0 0 0 0 0 0 0 0 0 0 0 14 15 18 13 15 18 15 17 16 17 17 16 17 18 16 18 17 19 16 18 18 18 17 17 18 18 16 18 18 16 19 19 19 18 18 19 18 18 19 19 18 17 18 20 18 20 19 21 19 21 21 20 20 21 21 20 19 19 18 19 19 18 20 17 18 18 19 18 18 19 18 17 21 21 20 20 19 20 18 21 20 18 17 17 15 17 17 18 18 19 19 19 21 23 20 20 21 20 21 21 23 23 -193 23 -193 23 25 24 25 23 25 25 25 23 21 20 21 20 19 17 20 19 21 21 21 21 22 22 21 21 20 20 20 20 21 22 20 22 -193 -193 23 -193 -193 22 23 -193 -193 23 23 22 24 23 23 22 23 22 22 23 23 23 26 25 26 28 28 29 30 29 32 30 32 32 33 33 32 30 33 33 34 34 35 36 35 37 39 38 38 39 39 38 39 40 41 40 41 41 41 41 43 43 43 44 45 46 47 46 50 47 48 49 47 48 48 49 50 48 51 52 51 53 52 52 53 54 52 55 55 54 55 57 57 56 58 58 58 58 59 -209 -209 54 55 -209 -209 -209 -209 -209 0 0 0 0 0
    0 0 0 0 0 0 0 0 0 0 0 0 0 0 0 0 0 0 0 0 0 0 0 0 0 0 0 0 0 0 0 0 0 0 0 0 0 0 0 0 0 0 0 0 0 0 0 0 0 0 0 0 0 0 0 0 0 0 0 0 0 0 0 0 0 0 0 0 0 14 16 19 13 15 18 15 17 17 18 17 16 17 18 17 18 17 20 17 18 19 18 18 17 19 19 16 19 19 17 20 21 21 19 19 19 19 18 19 19 18 16 19 21 18 21 20 21 20 22 22 21 20 22 21 21 20 20 19 19 20 18 20 17 18 19 19 19 18 20 19 18 21 21 20 20 19 20 18 21 20 18 17 15 14 17 15 18 18 19 18 20 22 24 21 21 22 21 21 21 23 -193 -193 -193 -193 -193 25 25 26 24 25 26 26 23 21 20 21 19 19 17 19 19 21 22 21 22 23 23 21 22 20 20 20 21 21 22 20 22 -193 -193 24 -193 -193 23 23 -193 -209 23 24 23 24 23 24 23 23 23 22 23 23 23 27 26 27 29 29 29 31 30 32 30 32 32 33 33 33 30 34 34 34 35 36 36 36 37 39 38 38 39 39 38 39 40 40 39 40 41 41 41 43 43 43 44 45 46 47 46 50 47 48 49 47 48 48 48 50 48 51 52 51 52 52 52 53 54 52 55 55 54 55 57 57 57 58 58 -209 -209 -209 -209 -209 -209 -209 -209 -209 -209 -209 -209 0 0 0 0 0
    0 0 0 0 0 0 0 0 0 0 0 0 0 0 0 0 0 0 0 0 0 0 0 0 0 0 0 0 0 0 0 0 0 0 0 0 0 0 0 0 0 0 0 0 0 0 0 0 0 0 0 0 0 0 0 0 0 0 0 0 0 0 0 0 0 0 0 0 0 14 16 19 12 14 17 15 17 17 18 17 16 17 18 17 18 17 20 17 18 19 19 18 18 20 19 17 20 20 18 21 21 22 19 19 20 19 19 19 20 18 17 20 22 20 22 20 22 21 23 -193 -193 21 22 21 21 21 20 19 20 21 19 21 18 19 19 19 19 19 20 19 18 21 21 20 21 19 21 18 21 20 18 17 15 14 17 15 18 18 19 19 21 23 24 22 21 22 22 22 21 23 -193 22 24 -177 -209 26 25 26 25 26 26 26 24 22 21 21 20 19 18 20 20 22 23 22 24 24 24 22 -193 21 21 21 22 22 23 21 23 -193 24 24 -193 -193 23 24 25 25 24 25 24 25 24 24 24 24 24 23 23 24 24 27 26 27 30 29 29 31 29 32 30 32 32 33 34 33 31 34 34 35 36 36 37 36 37 39 38 38 38 38 38 38 40 40 39 40 41 41 41 43 43 44 45 46 46 47 46 50 47 47 48 47 47 48 48 50 47 51 52 51 52 52 52 52 53 52 54 54 53 54 56 57 58 58 -193 71 -209 -209 -209 -209 -209 -209 -209 -209 -209 -209 -209 0 0 0 0 0
    0 0 0 0 0 0 0 0 0 0 0 0 0 0 0 0 0 0 0 0 0 0 0 0 0 0 0 0 0 0 0 0 0 0 0 0 0 0 0 0 0 0 0 0 0 0 0 0 0 0 0 0 0 0 0 0 0 0 0 0 0 0 0 0 0 0 0 0 0 15 16 19 12 15 17 16 18 18 18 18 16 18 19 18 18 18 20 17 18 20 19 18 19 20 20 18 21 21 19 22 22 22 19 20 20 20 20 19 20 19 19 21 22 21 23 21 22 21 23 -193 -193 21 22 21 22 21 21 20 21 21 20 21 20 20 20 20 20 20 21 20 19 22 22 21 21 20 21 18 21 20 18 17 15 14 17 16 18 19 20 21 22 24 26 23 23 24 23 23 23 -193 -193 23 25 -193 26 27 26 27 27 28 27 27 25 23 22 22 21 20 19 21 21 23 25 24 26 26 26 24 -193 22 22 22 23 22 23 22 -193 -209 25 24 -193 -193 24 24 25 26 26 26 26 27 26 26 25 25 25 23 23 24 24 27 27 27 30 29 30 31 29 33 31 33 33 34 34 33 33 35 35 36 36 37 37 36 37 39 37 37 38 38 38 38 39 40 39 40 41 41 41 44 43 44 45 46 46 47 46 50 47 47 48 47 47 48 47 50 47 51 51 50 51 52 51 52 53 51 54 54 54 56 58 59 60 62 -193 75 -209 -209 -193 -193 -209 -209 -209 -209 -209 -193 -193 0 0 0 0 0
    0 0 0 0 0 0 0 0 0 0 0 0 0 0 0 0 0 0 0 0 0 0 0 0 0 0 0 0 0 0 0 0 0 0 0 0 0 0 0 0 0 0 0 0 0 0 0 0 0 0 0 0 0 0 0 0 0 0 0 0 0 0 0 0 0 0 0 0 0 17 17 20 13 16 17 17 18 19 20 19 18 20 20 20 20 20 21 18 18 20 -193 19 20 21 21 19 22 22 22 24 24 23 20 22 21 21 21 21 22 21 21 22 23 22 -193 22 23 22 23 -193 -193 22 24 23 24 23 22 21 22 22 21 22 20 21 21 21 21 21 22 21 20 22 22 22 22 20 21 19 22 20 19 18 17 15 19 19 20 21 23 24 24 27 30 27 27 27 27 26 24 27 -193 25 27 -193 27 29 28 29 29 30 28 28 27 26 24 23 23 22 21 23 -193 26 27 26 28 29 28 25 -193 -193 23 23 24 23 24 23 -193 -209 25 25 25 25 26 25 27 27 28 28 28 29 29 28 28 28 28 25 24 26 25 28 28 27 30 28 29 31 29 33 32 34 35 35 35 34 35 36 36 36 37 37 37 36 37 39 37 37 38 38 37 38 39 40 38 40 40 -193 41 44 43 45 45 46 46 48 46 50 47 47 47 46 47 48 47 50 47 50 51 50 51 52 51 53 54 53 55 55 56 57 58 60 61 62 -193 -193 -209 -209 -193 -193 -193 -209 -209 -193 -209 -209 92 0 0 0 0 0
    0 0 0 0 0 0 0 0 0 0 0 0 0 0 0 0 0 0 0 0 0 0 0 0 0 0 0 0 0 0 0 0 0 0 0 0 0 0 0 0 0 0 0 0 0 0 0 0 0 0 0 0 0 0 0 0 0 0 0 0 0 0 0 0 0 0 0 0 0 19 19 20 13 17 18 18 19 20 21 21 20 22 22 23 22 23 23 20 19 21 20 20 21 22 22 21 23 24 23 25 25 24 22 22 22 21 22 -193 22 23 22 23 24 -193 -209 -209 24 24 25 -193 25 24 26 25 27 26 25 23 24 24 24 -193 -193 -209 -193 -193 24 24 -193 -193 22 -193 25 24 24 23 22 -193 -193 22 21 19 18 14 18 20 21 23 26 28 28 30 32 30 30 30 30 30 27 29 27 28 29 -193 30 32 30 31 31 32 30 30 29 29 27 27 27 25 26 29 -193 29 31 30 31 31 30 28 27 27 26 25 26 24 25 25 -193 26 26 26 27 27 28 28 28 29 31 30 30 31 32 30 32 31 31 28 29 30 31 32 34 30 31 26 24 28 25 33 -209 -193 -193 -193 37 37 37 38 37 37 37 37 37 36 37 39 36 37 37 37 37 37 39 39 38 -209 40 -209 42 44 44 45 45 46 46 48 45 49 47 47 47 46 47 48 47 50 47 50 51 50 51 52 51 54 54 54 56 56 57 57 58 60 60 60 -193 -209 -209 -209 -209 -209 -209 -209 -209 -209 -209 -209 -209 0 0 0 0 0
    0 0 0 0 0 0 0 0 0 0 0 0 0 0 0 0 0 0 0 0 0 0 0 0 0 0 0 0 0 0 0 0 0 0 0 0 0 0 0 0 0 0 0 0 0 0 0 0 0 0 0 0 0 0 0 0 0 0 0 0 0 0 0 0 0 0 0 0 0 22 22 21 16 19 19 19 20 21 23 23 22 23 23 24 24 24 24 21 20 22 21 22 24 24 25 24 25 26 26 27 27 26 24 23 23 22 -193 -209 -209 -209 -209 -209 26 -209 26 -209 26 26 26 26 27 27 28 28 30 29 29 27 28 29 28 28 28 -209 26 28 28 27 -193 -193 -209 -193 -209 27 27 26 -209 -209 -209 26 29 26 22 18 22 22 22 24 27 28 28 31 32 31 32 31 32 32 30 31 29 29 33 -193 33 36 34 33 34 34 32 31 31 30 29 30 31 29 31 36 36 34 37 34 34 33 31 30 28 30 30 29 31 29 30 30 29 30 29 29 30 29 30 29 29 30 32 31 31 32 34 33 35 34 33 31 34 35 36 35 37 33 34 26 -193 -209 -209 -193 -209 -193 -193 -193 37 36 38 38 37 36 37 37 37 37 37 39 36 36 37 37 37 37 38 39 38 40 40 -193 42 44 44 45 45 46 46 49 46 49 47 47 47 47 47 49 47 50 47 50 51 50 51 52 50 54 54 54 56 57 57 56 57 58 58 -193 48 -209 -209 -209 -209 -209 -209 -209 -209 -209 -209 -209 -209 0 0 0 0 0
    0 0 0 0 0 0 0 0 0 0 0 0 0 0 0 0 0 0 0 0 0 0 0 0 0 0 0 0 0 0 0 0 0 0 0 0 0 0 0 0 0 0 0 0 0 0 0 0 0 0 0 0 0 0 0 0 0 0 0 0 0 0 0 0 0 0 0 0 0 25 25 -209 -209 17 17 19 20 23 25 25 24 24 24 25 25 25 25 24 22 24 25 26 27 27 28 27 27 28 28 28 29 26 26 24 24 -209 -209 -209 -209 -193 -209 -193 29 28 28 28 28 29 28 29 30 31 33 32 34 31 31 28 28 28 27 27 26 -209 -193 26 26 27 -193 -209 -193 -177 -193 -193 29 -193 -209 -193 31 27 30 31 26 24 26 26 24 25 27 29 28 30 30 29 31 30 31 32 31 32 32 32 36 37 36 38 36 35 36 35 33 31 31 31 29 30 31 29 32 37 39 36 40 38 35 35 32 30 30 33 35 31 34 34 34 34 33 32 31 30 30 29 29 28 28 30 32 30 31 32 35 35 35 35 34 32 36 36 37 37 37 34 32 26 25 -209 -209 -193 -209 -209 -193 -193 36 35 37 38 37 36 36 36 36 36 37 39 35 36 37 36 36 37 38 38 38 40 40 -193 42 44 44 45 45 46 46 49 45 49 47 47 47 47 47 49 47 50 47 50 51 50 51 52 49 54 54 54 54 56 57 54 55 55 55 -177 44 -193 -193 -193 -209 -209 -209 -209 -209 -209 247 247 245 0 0 0 0 0
    0 0 0 0 0 0 0 0 0 0 0 0 0 0 0 0 0 0 0 0 0 0 0 0 0 0 0 0 0 0 0 0 0 0 0 0 0 0 0 0 0 0 0 0 0 0 0 0 0 0 0 0 0 0 0 0 0 0 0 0 0 0 0 0 0 0 0 0 0 28 27 -209 -209 -209 -209 -209 -193 24 25 25 24 24 24 24 25 25 25 25 23 25 25 26 28 28 28 27 27 28 28 28 27 26 25 24 25 -193 -193 -209 -209 -193 -209 -193 28 27 27 27 28 29 28 29 30 31 33 33 35 33 33 31 30 29 -193 -209 -193 24 23 25 25 26 -193 -209 -209 -177 -193 -193 -193 -209 -209 29 -193 24 29 30 26 27 28 29 29 27 29 31 29 32 30 29 30 30 31 31 30 32 30 31 35 36 35 38 36 35 36 35 33 31 31 31 29 30 31 30 33 36 39 36 39 37 36 35 33 33 33 35 37 34 36 36 35 34 34 32 30 29 30 28 28 27 28 29 31 29 31 33 35 35 36 36 34 33 38 36 38 37 37 34 32 29 28 25 -209 23 -209 -209 -193 -193 33 33 37 37 36 36 36 36 36 36 37 38 35 35 36 36 35 36 38 38 37 -193 40 -193 42 44 44 45 45 46 46 49 45 49 47 48 47 47 47 49 47 50 47 49 51 50 50 51 47 53 53 52 51 53 54 51 53 55 -177 46 -193 -193 -193 -209 -209 -209 -209 -209 -209 -209 249 249 246 0 0 0 0 0
    0 0 0 0 0 0 0 0 0 0 0 0 0 0 0 0 0 0 0 0 0 0 0 0 0 0 0 0 0 0 0 0 0 0 0 0 0 0 0 0 0 0 0 0 0 0 0 0 0 0 0 0 0 0 0 0 0 0 0 0 0 0 0 0 0 0 0 0 0 27 -193 -193 -209 18 19 20 22 24 26 25 25 25 25 24 24 24 -209 24 23 24 24 25 26 26 26 25 25 28 27 27 27 25 26 25 25 -193 22 -209 -209 -209 -209 -193 26 26 26 26 27 28 27 28 30 30 32 32 34 32 32 31 30 30 -193 -209 -193 23 23 -193 -193 -193 -193 -209 -209 -209 -209 -193 -193 -193 26 28 -193 25 29 30 26 29 29 31 29 28 29 30 29 31 30 29 30 30 31 -193 30 31 30 31 35 35 35 37 35 35 36 35 33 31 30 30 29 30 31 31 33 35 37 34 38 36 35 34 31 32 32 35 37 34 36 36 35 34 33 31 30 28 29 27 27 26 27 28 30 29 32 33 35 35 36 36 35 35 39 36 38 36 37 35 32 29 29 -209 -209 -209 -209 -193 -209 -193 32 31 36 37 36 36 36 36 35 36 37 38 35 35 36 35 35 36 37 38 37 -193 40 -193 43 44 44 45 45 47 46 49 45 49 48 48 47 47 47 49 47 50 47 49 50 50 49 50 47 53 52 50 49 -193 52 49 52 55 -209 -209 -209 -193 -209 -209 -209 -209 -209 -209 -209 -209 254 252 247 0 0 0 0 0
    0 0 0 0 0 0 0 0 0 0 0 0 0 0 0 0 0 0 0 0 0 0 0 0 0 0 0 0 0 0 0 0 0 0 0 0 0 0 0 0 0 0 0 0 0 0 0 0 0 0 0 0 0 0 0 0 0 0 0 0 0 0 0 0 0 0 0 0 0 -193 -209 18 21 20 22 22 23 25 27 26 25 25 -193 -209 -209 -209 -209 23 23 23 23 23 25 25 25 25 25 27 27 27 26 25 26 25 26 -193 -193 -209 -209 -209 -193 25 26 25 26 25 25 26 26 27 28 28 30 31 33 31 32 31 30 30 -193 -209 -193 24 -193 -209 -193 -193 -193 -209 -209 -209 -193 28 28 30 28 29 28 28 31 32 30 32 31 33 31 29 30 31 30 31 29 28 30 30 32 32 31 33 30 33 36 36 36 36 35 34 36 35 33 31 30 31 30 31 32 31 32 33 34 31 32 32 31 31 28 30 32 34 36 34 36 36 35 33 32 30 30 27 28 27 26 26 26 27 30 29 32 33 35 35 36 37 35 36 38 36 38 36 37 34 31 27 28 -209 -209 -209 -209 -209 -209 -193 31 29 35 37 36 36 36 36 35 36 37 38 34 34 35 35 35 36 37 37 37 -193 40 -193 43 44 44 45 45 47 46 49 45 50 48 48 48 48 48 50 48 50 48 49 50 50 49 50 46 53 53 50 51 -193 57 -209 -209 -209 -209 -209 -209 -209 -209 -209 -209 -209 -209 -209 -209 -209 264 -209 -209 0 0 0 0 0
    0 0 0 0 0 0 0 0 0 0 0 0 0 0 0 0 0 0 0 0 0 0 0 0 0 0 0 0 0 0 0 0 0 0 0 0 0 0 0 0 0 0 0 0 0 0 0 0 0 0 0 0 0 0 0 0 0 0 0 0 0 0 0 0 0 0 0 0 0 27 26 23 23 23 23 23 23 24 26 -193 25 26 -209 -209 -209 -209 -209 22 23 22 23 23 25 25 25 25 26 27 28 27 26 25 26 25 26 -209 -193 -209 -209 -209 27 -193 -193 -193 26 25 24 24 24 25 26 26 28 30 32 31 32 31 30 31 -193 -193 -209 -193 -209 -209 -209 -209 -209 -209 -209 -209 26 27 28 30 28 31 31 31 33 33 34 35 34 35 33 30 31 32 30 31 29 28 30 30 33 32 31 33 31 34 37 37 36 36 35 34 36 36 35 32 31 32 31 32 33 33 32 33 33 31 31 32 31 31 29 33 34 35 36 35 36 36 35 33 31 30 30 28 29 28 27 27 28 29 31 30 32 34 36 36 37 37 36 37 38 36 37 36 36 35 32 29 31 -209 -209 -209 -209 -209 -209 -193 31 29 34 37 36 35 35 36 35 36 36 38 34 34 35 35 35 35 37 37 37 -193 40 -193 43 44 44 45 45 46 46 49 45 50 48 48 48 48 48 50 48 50 48 49 50 50 49 50 47 53 53 49 -209 60 67 75 79 82 -209 -209 -209 -209 -209 -209 -209 -209 -209 -209 -193 -209 -193 -209 -193 0 0 0 0 0
    0 0 0 0 0 0 0 0 0 0 0 0 0 0 0 0 0 0 0 0 0 0 0 0 0 0 0 0 0 0 0 0 0 0 0 0 0 0 0 0 0 0 0 0 0 0 0 0 0 0 0 0 0 0 0 0 0 0 0 0 0 0 0 0 0 0 0 0 0 29 28 26 25 23 23 23 23 23 26 24 24 25 -193 25 -209 -209 -209 23 24 23 24 24 26 26 26 25 25 27 27 27 26 25 25 25 26 -209 -193 -209 -209 -193 28 -193 -193 -193 27 26 -209 -209 24 24 25 26 28 31 33 30 32 32 31 32 -193 -209 -193 24 -209 -209 -209 -209 -209 -209 -209 -209 27 28 28 30 29 31 31 31 33 32 33 34 35 34 34 31 31 32 31 31 30 28 30 30 33 33 31 33 31 34 -193 -193 36 -209 34 34 35 36 35 32 31 32 32 32 33 33 32 32 32 30 29 31 31 31 31 35 35 35 36 36 37 37 36 33 31 30 31 30 29 28 27 27 29 31 31 31 32 35 37 37 38 38 37 40 40 38 39 38 38 37 35 35 34 -209 -209 -209 -209 -209 -193 -193 30 29 34 37 35 34 35 36 34 36 36 38 34 34 35 35 35 36 37 37 37 -193 40 -193 43 44 44 45 45 47 46 49 45 50 48 48 48 49 49 51 49 51 49 49 50 50 49 50 47 53 53 48 -209 -193 -209 77 -193 -193 -209 -209 -209 -209 -209 -209 -209 -209 -209 -209 269 269 266 -209 -209 0 0 0 0 0
    0 0 0 0 0 0 0 0 0 0 0 0 0 0 0 0 0 0 0 0 0 0 0 0 0 0 0 0 0 0 0 0 0 0 0 0 0 0 0 0 0 0 0 0 0 0 0 0 0 0 0 0 0 0 0 0 0 0 0 0 0 0 0 0 0 0 0 0 0 28 27 26 25 24 23 22 23 23 24 23 24 24 24 24 24 -209 -209 23 24 24 24 25 27 27 27 26 26 27 27 27 26 25 26 25 27 -209 -209 -193 -209 -193 31 -193 -193 -193 28 27 -209 -209 25 25 25 25 27 29 31 30 31 31 31 32 -193 -209 28 25 -193 -193 -209 -209 -209 -209 -209 -209 27 28 28 30 30 32 32 32 34 33 34 35 36 35 34 30 29 30 30 30 30 28 30 30 32 33 31 32 -193 -193 -193 -193 32 -193 30 31 31 35 35 31 30 32 32 33 32 33 31 31 32 30 29 30 31 32 33 36 35 36 37 37 38 38 38 36 33 32 33 32 29 28 27 26 28 30 30 30 31 34 36 36 37 38 39 41 41 39 40 40 39 38 36 36 35 -209 -209 -209 -209 -193 -193 -209 29 28 33 36 35 35 35 36 34 36 36 38 34 34 35 35 35 36 37 38 37 -193 40 44 43 44 44 44 44 46 46 48 45 50 49 49 48 50 49 51 49 51 49 49 51 50 48 50 47 53 53 48 -209 -193 -209 77 -193 -193 -209 30 33 -193 -209 -193 -209 -209 -209 -209 268 268 266 -209 -209 0 0 0 0 0
    0 0 0 0 0 0 0 0 0 0 0 0 0 0 0 0 0 0 0 0 0 0 0 0 0 0 0 0 0 0 0 0 0 0 0 0 0 0 0 0 0 0 0 0 0 0 0 0 0 0 0 0 0 0 0 0 0 0 0 0 0 0 0 0 0 0 0 0 0 28 28 27 27 26 24 23 24 24 25 24 25 25 25 25 25 -209 -209 23 25 24 25 25 27 28 27 27 27 28 28 28 27 26 27 26 29 -193 -193 36 32 35 33 34 32 31 28 -193 -209 -209 26 25 25 25 26 29 30 29 30 29 29 -193 -209 -209 -193 23 -193 -193 -209 -209 -193 -193 -193 26 27 28 28 30 30 32 33 33 34 33 33 35 36 34 33 29 28 29 29 30 29 28 29 29 31 32 30 31 29 -193 -193 29 28 24 27 29 28 34 35 31 30 32 32 33 32 32 30 30 31 30 28 29 30 31 33 36 35 36 36 36 38 37 38 36 32 31 33 30 28 28 27 27 27 28 29 28 30 35 35 36 37 38 39 41 41 41 42 43 -209 39 37 38 -193 -209 -209 -209 -209 -193 -209 -209 29 28 32 36 35 34 34 35 33 35 36 38 34 34 35 35 35 36 38 38 -193 -193 40 43 43 44 43 44 44 46 45 47 44 50 49 49 49 51 49 51 50 51 49 49 50 50 48 50 47 52 53 47 -209 -193 -209 -193 -209 -209 -209 -193 -193 -193 -193 -193 -209 -209 -209 -193 268 269 267 -209 -193 0 0 0 0 0
    0 0 0 0 0 0 0 0 0 0 0 0 0 0 0 0 0 0 0 0 0 0 0 0 0 0 0 0 0 0 0 0 0 0 0 0 0 0 0 0 0 0 0 0 0 0 0 0 0 0 0 0 0 0 0 0 0 0 0 0 0 0 0 0 0 0 0 0 0 29 29 29 29 29 26 25 25 26 27 26 26 26 25 26 26 -193 -209 -193 26 25 26 -193 28 -193 -193 28 27 29 29 29 28 28 29 30 33 32 29 37 33 35 33 33 31 30 28 -193 -209 -209 26 26 25 25 26 28 29 28 29 28 27 -193 -209 -209 -193 22 -193 -193 -193 -209 -209 -193 -193 27 28 28 29 29 30 31 32 31 32 -193 29 31 33 31 31 28 28 28 29 30 29 28 29 29 31 31 30 30 29 30 29 29 29 24 26 28 26 32 34 31 30 33 33 34 33 33 31 31 31 31 29 31 31 31 33 36 36 36 36 36 36 35 36 34 30 30 34 31 29 29 28 28 28 28 29 27 29 34 33 34 35 37 39 40 40 40 43 43 -193 40 -193 40 -209 -209 -209 -209 -209 -193 -209 -209 29 28 32 37 35 34 34 35 33 35 35 38 34 34 35 36 35 36 38 38 -193 -193 40 43 43 43 43 44 44 45 45 47 44 50 49 49 49 51 50 51 50 51 49 49 50 50 47 49 46 50 51 44 -209 -209 -209 -193 -209 -209 -209 -209 -193 -193 -209 -193 -209 -209 -193 -209 269 270 267 -209 -209 0 0 0 0 0
    0 0 0 0 0 0 0 0 0 0 0 0 0 0 0 0 0 0 0 0 0 0 0 0 0 0 0 0 0 0 0 0 0 0 0 0 0 0 0 0 0 0 0 0 0 0 0 0 0 0 0 0 0 0 0 0 0 0 0 0 0 0 0 0 0 0 0 0 0 28 28 28 29 30 26 26 26 27 27 27 27 26 26 27 27 -193 -209 -209 28 27 -193 -193 29 -193 -193 30 -193 -193 -193 30 -193 29 32 35 37 34 32 37 35 36 34 33 31 30 28 -193 -209 -193 26 26 25 24 26 27 28 28 29 29 27 -193 -209 -209 -193 23 -193 21 -193 -209 -209 -209 -193 27 28 28 29 30 31 30 32 31 31 -209 -209 -209 31 29 29 26 27 28 29 29 29 28 29 29 31 31 30 30 30 30 31 30 30 25 26 29 27 30 35 31 30 34 33 34 34 34 31 30 31 31 29 32 32 31 35 37 37 37 37 36 35 35 37 35 31 31 35 31 30 30 30 30 29 29 30 27 30 34 33 34 34 37 40 39 39 39 41 41 -193 39 -193 -193 -193 -209 -209 -209 -209 -209 -209 -209 30 28 31 36 35 34 33 35 32 35 35 38 34 35 36 36 35 37 38 38 -193 -193 40 43 43 43 43 43 43 45 44 47 44 50 50 49 49 52 50 52 50 50 49 49 50 49 47 49 45 49 50 43 -209 -209 -209 -209 -209 -209 -209 -193 -193 -209 -209 -209 111 -193 -193 -193 -209 -193 -193 -209 -209 0 0 0 0 0
    0 0 0 0 0 0 0 0 0 0 0 0 0 0 0 0 0 0 0 0 0 0 0 0 0 0 0 0 0 0 0 0 0 0 0 0 0 0 0 0 0 0 0 0 0 0 0 0 0 0 0 0 0 0 0 0 0 0 0 0 0 0 0 0 0 0 0 0 0 27 26 27 28 29 26 26 25 27 27 27 27 27 26 27 27 -193 -209 -209 29 29 -193 -193 31 -193 -193 31 28 -193 -193 30 29 29 37 39 -193 36 35 38 37 38 37 35 32 32 -193 -193 -193 -193 26 26 25 24 26 28 28 29 29 29 28 -209 -209 -209 -193 23 -193 22 -193 -209 -209 -209 27 27 28 29 30 30 31 31 31 31 30 -209 -209 -209 28 27 28 25 26 27 28 28 29 28 29 29 31 32 31 30 31 31 32 31 31 27 27 29 28 30 35 31 30 34 33 34 35 33 31 30 31 32 29 33 33 31 35 37 36 36 36 35 34 34 36 34 31 31 36 32 30 31 31 31 30 30 31 27 32 36 35 36 36 39 41 41 39 38 -193 -209 -209 -209 -193 -209 -209 -193 -209 -193 -209 -209 -193 -193 30 29 30 36 34 34 33 35 32 34 35 38 34 35 36 37 36 38 38 38 37 40 40 42 42 43 43 43 43 45 44 47 44 51 51 49 50 52 50 52 50 50 49 48 49 49 47 49 45 48 50 44 -193 -193 -209 -209 -209 -209 -209 -193 -193 -209 -193 -193 113 -193 111 116 112 -193 -193 -209 -209 0 0 0 0 0
    0 0 0 0 0 0 0 0 0 0 0 0 0 0 0 0 0 0 0 0 0 0 0 0 0 0 0 0 0 0 0 0 0 0 0 0 0 0 0 0 0 0 0 0 0 0 0 0 0 0 0 0 0 0 0 0 0 0 0 0 0 0 0 0 0 0 0 0 0 28 26 27 28 29 26 26 26 27 27 27 27 27 26 28 29 30 -193 -193 31 31 35 -193 33 -193 -193 31 28 29 -193 -193 27 -193 -209 38 -193 36 35 38 38 39 37 36 33 31 -193 -209 -193 -193 26 -193 24 23 26 28 29 31 31 30 30 29 -193 -209 -193 -193 -209 -193 -209 -209 -193 27 28 27 28 29 30 30 30 30 30 30 29 -209 -209 -209 30 29 29 27 26 27 28 28 29 28 28 28 30 32 30 29 30 30 30 30 30 29 28 29 29 31 35 31 29 34 32 33 34 32 30 30 32 33 30 34 33 31 36 37 36 36 34 34 32 32 34 34 32 30 35 32 31 31 31 31 30 30 31 27 33 36 35 35 36 39 42 41 -193 -209 -209 -209 -209 -209 -209 -209 -209 -193 -209 -193 -193 -209 -193 130 30 29 29 35 34 34 33 35 32 34 35 38 35 36 37 37 37 38 39 38 37 40 40 41 41 42 43 42 43 45 44 46 43 51 51 48 50 52 50 52 50 50 49 48 49 49 47 48 45 48 50 45 -193 0 -209 -209 -209 -209 -209 -177 -209 -209 -193 -193 115 117 112 116 109 110 -209 72 71 0 0 0 0 0
    0 0 0 0 0 0 0 0 0 0 0 0 0 0 0 0 0 0 0 0 0 0 0 0 0 0 0 0 0 0 0 0 0 0 0 0 0 0 0 0 0 0 0 0 0 0 0 0 0 0 0 0 0 0 0 0 0 0 0 0 0 0 0 0 0 0 0 0 0 27 26 27 27 28 26 26 25 27 27 27 28 27 27 28 29 31 26 31 31 32 34 31 33 32 30 31 29 30 -193 -193 27 -193 -209 -193 -193 -209 37 -193 39 38 36 34 31 30 28 26 25 26 27 26 26 25 28 30 33 34 34 32 32 29 -193 -193 23 -193 -193 23 23 -209 26 26 28 28 28 29 30 29 29 29 29 29 29 -193 -209 -209 31 29 30 28 27 28 29 29 29 28 28 28 30 31 30 29 30 29 29 30 30 30 29 30 30 31 35 32 29 33 31 32 33 31 30 30 31 33 31 34 33 31 35 37 35 35 33 33 31 31 34 34 33 31 35 32 31 32 32 32 31 30 32 27 33 36 35 35 36 39 42 41 -209 -209 -209 -209 -209 -209 -209 -209 -209 -209 -209 -209 -193 -193 130 132 29 28 29 36 35 35 34 35 33 34 35 38 36 36 37 38 37 39 39 39 38 40 40 40 41 42 42 42 42 44 43 44 42 48 50 47 48 51 49 51 49 49 49 48 49 49 47 48 45 49 51 46 -193 0 -193 -193 -209 -209 -209 -209 -209 -209 -193 -209 -193 -193 110 114 -209 -209 70 71 71 0 0 0 0 0
    0 0 0 0 0 0 0 0 0 0 0 0 0 0 0 0 0 0 0 0 0 0 0 0 0 0 0 0 0 0 0 0 0 0 0 0 0 0 0 0 0 0 0 0 0 0 0 0 0 0 0 0 0 0 0 0 0 0 0 0 0 0 0 0 0 0 0 0 0 28 27 27 28 29 26 26 25 28 28 28 28 28 28 29 30 31 27 32 31 34 34 32 34 32 31 32 30 31 29 30 28 -193 -209 -193 -193 -209 -209 35 37 33 33 32 30 30 28 27 26 26 29 28 28 28 31 34 36 36 37 35 35 31 31 -193 24 -193 24 23 23 24 -193 -193 27 27 27 29 30 28 28 27 28 28 28 -193 -209 -209 30 29 30 28 27 28 29 29 29 29 29 29 30 31 30 29 30 29 29 30 30 31 30 31 31 31 35 32 29 33 30 31 32 31 30 30 31 33 30 34 32 30 35 36 34 35 33 32 31 31 34 35 35 32 36 32 32 32 33 32 31 30 32 27 34 36 35 34 36 40 42 40 38 -209 -209 -193 -209 -209 -209 -209 -209 -209 -209 -193 -193 129 129 132 29 28 31 37 35 35 35 36 34 35 36 38 36 37 38 38 38 39 39 39 38 40 39 39 40 41 41 41 41 42 41 43 42 48 50 47 47 51 49 51 49 49 49 48 49 49 47 48 45 48 50 47 -193 0 -193 -193 59 -193 58 61 -209 -209 -209 -209 -209 -209 -209 -209 -193 71 70 71 71 0 0 0 0 0
    0 0 0 0 0 0 0 0 0 0 0 0 0 0 0 0 0 0 0 0 0 0 0 0 0 0 0 0 0 0 0 0 0 0 0 0 0 0 0 0 0 0 0 0 0 0 0 0 0 0 0 0 0 0 0 0 0 0 0 0 0 0 0 0 0 0 0 0 0 26 25 26 27 28 26 26 25 28 27 28 27 27 27 28 29 31 27 32 31 34 33 33 34 33 31 33 31 33 31 32 30 -209 -209 -209 19 -209 -193 28 32 31 30 30 30 29 28 28 27 27 28 28 28 29 32 34 36 36 37 35 35 32 32 27 24 -193 24 23 23 24 25 25 27 27 26 29 30 28 29 27 28 28 28 -193 -193 -209 30 28 29 27 26 27 27 28 27 28 28 29 30 32 30 29 30 30 29 30 30 31 30 31 32 31 34 31 28 32 30 31 32 31 30 30 31 33 31 34 32 30 34 35 33 33 31 31 30 31 34 34 36 32 36 32 32 32 33 32 31 30 32 26 34 35 34 32 33 38 39 37 36 -193 -209 -209 -209 -193 -193 -209 -209 -209 -209 -209 -193 -193 129 132 -193 28 34 36 35 36 35 36 35 36 36 38 37 38 38 39 38 39 39 39 38 40 39 39 38 40 40 40 40 40 39 41 40 45 51 46 47 51 49 51 49 49 49 48 49 49 47 47 45 47 49 47 -193 -193 -193 -193 58 58 59 63 64 66 66 67 68 69 69 71 71 70 70 71 71 0 0 0 0 0
    0 0 0 0 0 0 0 0 0 0 0 0 0 0 0 0 0 0 0 0 0 0 0 0 0 0 0 0 0 0 0 0 0 0 0 0 0 0 0 0 0 0 0 0 0 0 0 0 0 0 0 0 0 0 0 0 0 0 0 0 0 0 0 0 0 0 0 0 0 27 26 27 28 28 26 26 26 28 28 28 28 28 28 29 30 30 28 32 31 33 33 33 34 33 32 33 32 32 31 32 29 27 -193 20 19 22 23 24 28 30 29 30 29 29 28 28 28 28 28 29 28 29 31 34 36 35 35 33 32 29 30 26 25 -193 24 23 23 24 26 25 27 28 28 30 32 29 30 27 28 28 28 -193 -193 -209 29 28 28 26 26 27 27 28 27 28 29 30 33 33 32 31 31 31 31 32 32 32 32 32 32 31 34 31 28 31 30 31 32 30 30 30 32 33 31 34 32 30 34 34 31 32 31 30 30 30 32 32 35 32 36 32 32 32 33 32 32 30 32 27 34 35 34 31 33 38 38 38 36 -193 -209 -209 -209 -209 -209 -209 -209 -209 -209 -209 -193 -193 129 133 -209 32 35 36 36 36 35 36 35 36 37 38 38 38 38 39 39 39 39 39 39 39 39 39 38 40 40 40 40 41 40 41 41 46 51 46 47 51 49 51 50 49 49 48 49 49 47 48 45 47 49 47 -193 -209 57 56 58 58 59 62 64 67 68 70 71 71 71 71 72 70 70 71 71 0 0 0 0 0
    0 0 0 0 0 0 0 0 0 0 0 0 0 0 0 0 0 0 0 0 0 0 0 0 0 0 0 0 0 0 0 0 0 0 0 0 0 0 0 0 0 0 0 0 0 0 0 0 0 0 0 0 0 0 0 0 0 0 0 0 0 0 0 0 0 0 0 0 0 27 26 27 28 28 27 27 27 28 28 28 28 28 28 29 30 30 28 32 31 33 33 33 33 33 32 32 31 31 30 30 28 26 24 20 19 22 23 24 27 31 29 30 29 30 29 29 28 28 28 29 28 29 29 30 33 32 31 30 29 28 30 27 26 25 24 24 24 24 26 26 28 30 29 32 33 31 31 28 29 28 27 -193 -209 -209 29 28 28 26 26 27 27 28 28 28 30 32 35 35 34 34 34 34 33 34 34 33 33 33 34 31 34 31 29 31 30 31 32 30 31 30 32 33 32 34 33 32 36 35 32 33 32 31 31 31 33 32 36 33 36 33 33 33 33 33 33 30 33 27 34 35 33 31 33 36 36 36 -209 -193 -209 -209 -209 -209 -209 -209 -209 -209 -209 -193 -209 -209 130 -193 -193 34 35 36 36 37 36 36 36 37 37 38 39 39 39 40 39 40 40 40 39 39 39 39 37 39 40 39 39 40 41 42 40 48 53 47 47 51 50 51 50 49 50 48 49 49 47 48 46 47 50 48 50 57 58 57 59 59 60 62 63 67 68 70 71 71 71 71 71 70 69 70 71 0 0 0 0 0
    0 0 0 0 0 0 0 0 0 0 0 0 0 0 0 0 0 0 0 0 0 0 0 0 0 0 0 0 0 0 0 0 0 0 0 0 0 0 0 0 0 0 0 0 0 0 0 0 0 0 0 0 0 0 0 0 0 0 0 0 0 0 0 0 0 0 0 0 0 27 27 28 27 27 26 27 27 27 27 28 28 28 28 29 30 29 29 31 31 31 32 32 33 32 31 31 30 30 29 28 27 25 24 20 20 22 24 24 27 31 29 31 30 30 29 30 29 29 28 30 28 29 30 30 32 31 31 29 29 29 30 28 28 27 27 26 26 26 28 27 30 31 30 32 33 31 31 29 30 28 28 29 -193 28 30 29 29 28 27 28 28 29 28 28 31 35 37 38 36 35 34 34 33 33 33 33 34 33 34 33 34 32 30 32 31 31 31 30 30 31 32 33 32 34 33 33 36 36 33 34 32 33 33 33 35 33 36 34 36 33 33 33 33 33 33 30 33 27 34 34 32 31 35 36 -209 -209 -209 8 -209 -209 -209 -209 0 -209 -209 -209 -209 -209 -209 -209 -209 -209 -193 36 36 36 36 37 36 36 36 37 38 39 39 39 39 40 40 40 41 40 40 39 39 38 36 38 39 38 38 40 41 42 42 50 54 47 48 51 50 51 50 50 50 48 50 50 48 48 47 48 51 51 54 58 59 59 60 62 64 63 65 68 69 70 72 71 71 71 72 70 69 70 70 0 0 0 0 0
    0 0 0 0 0 0 0 0 0 0 0 0 0 0 0 0 0 0 0 0 0 0 0 0 0 0 0 0 0 0 0 0 0 0 0 0 0 0 0 0 0 0 0 0 0 0 0 0 0 0 0 0 0 0 0 0 0 0 0 0 0 0 0 0 0 0 0 0 0 28 28 28 28 27 27 27 28 27 27 28 28 28 29 30 30 28 29 31 31 30 31 32 32 31 31 30 30 30 29 28 27 25 25 22 21 23 24 25 27 32 29 31 31 31 30 31 31 30 28 31 28 30 32 32 32 31 31 30 30 30 31 29 29 30 29 28 28 28 30 28 32 31 30 32 32 30 30 29 30 27 28 29 28 29 31 30 29 28 28 28 27 29 27 28 31 38 38 39 37 35 31 31 30 31 31 30 33 32 34 35 34 33 31 32 31 30 31 30 29 31 32 33 32 34 32 33 34 34 30 31 31 31 32 33 34 32 37 34 36 33 33 33 33 33 33 30 32 27 34 34 31 30 35 -209 -209 -209 0 0 0 -193 -209 -193 0 -193 -193 -209 -209 -209 -209 -209 -209 -193 -209 36 35 36 37 37 36 37 36 37 38 39 40 40 40 41 40 41 41 40 41 39 39 39 36 38 39 38 37 39 40 41 41 49 54 47 48 52 50 51 50 50 50 48 50 50 48 49 48 -193 -193 52 55 58 60 61 63 65 66 65 67 68 69 70 71 71 71 71 71 70 69 69 70 0 0 0 0 0
    0 0 0 0 0 0 0 0 0 0 0 0 0 0 0 0 0 0 0 0 0 0 0 0 0 0 0 0 0 0 0 0 0 0 0 0 0 0 0 0 0 0 0 0 0 0 0 0 0 0 0 0 0 0 0 0 0 0 0 0 0 0 0 0 0 0 0 0 0 28 29 29 28 28 27 27 29 27 28 28 28 29 29 30 31 28 30 31 31 30 31 32 32 31 31 30 30 30 29 28 27 26 25 23 22 24 24 25 28 -193 -193 -177 -193 32 31 33 32 31 28 31 28 29 30 30 29 28 29 28 28 28 29 28 28 29 29 27 28 28 30 28 32 31 30 31 31 30 30 29 30 26 27 29 27 28 30 29 28 28 27 26 25 25 25 25 28 40 37 39 37 33 29 29 28 29 29 29 33 32 34 35 32 31 30 30 30 29 29 28 28 30 31 31 31 32 31 31 32 31 29 30 29 31 32 32 34 32 37 33 36 33 33 33 33 32 33 29 32 27 32 32 29 29 32 -193 -209 -209 0 0 0 -193 -193 -193 -193 0 -209 -209 -209 -209 -209 -209 -209 -209 -209 37 35 35 37 37 36 36 36 37 38 39 40 40 40 41 41 41 41 40 41 40 40 39 37 39 39 38 36 39 39 40 40 47 54 47 47 52 50 51 51 50 50 48 50 50 48 50 49 50 53 53 55 59 61 64 65 67 68 68 69 69 69 69 70 69 70 70 70 70 68 69 70 0 0 0 0 0
    0 0 0 0 0 0 0 0 0 0 0 0 0 0 0 0 0 0 0 0 0 0 0 0 0 0 0 0 0 0 0 0 0 0 0 0 0 0 0 0 0 0 0 0 0 0 0 0 0 0 0 0 0 0 0 0 0 0 0 0 0 0 0 0 0 0 0 0 0 27 -177 29 28 28 27 27 29 28 29 28 29 29 29 30 31 28 30 32 32 30 31 32 31 31 31 30 30 30 29 29 28 27 26 24 23 24 25 25 28 693 -177 688 687 -193 32 -193 34 32 29 31 27 28 28 28 27 26 27 26 26 26 26 26 25 27 27 26 27 27 31 29 34 31 30 31 31 30 30 29 29 26 26 27 26 27 29 28 27 26 25 25 24 24 24 23 -193 -209 36 37 38 35 29 30 28 29 30 28 34 32 34 35 31 30 31 30 30 29 29 28 27 30 31 30 30 31 30 32 32 31 30 31 30 33 35 35 36 32 38 34 37 33 33 34 33 33 33 30 32 27 32 32 28 29 35 -193 -209 -209 -209 -209 -209 -209 -209 -209 -209 -209 -209 -209 -193 -209 -209 -209 -193 -193 -209 38 35 35 36 37 36 36 36 37 38 39 40 39 40 41 -193 41 41 41 42 40 40 40 38 39 39 38 35 38 38 39 40 46 54 47 47 52 50 51 51 50 50 48 50 50 49 51 50 50 54 54 56 59 61 64 65 67 68 67 69 68 69 68 69 69 69 69 70 69 67 68 70 0 0 0 0 0
    0 0 0 0 0 0 0 0 0 0 0 0 0 0 0 0 0 0 0 0 0 0 0 0 0 0 0 0 0 0 0 0 0 0 0 0 0 0 0 0 0 0 0 0 0 0 0 0 0 0 0 0 0 0 0 0 0 0 0 0 0 0 0 0 0 0 0 0 0 27 28 28 28 28 27 27 30 28 29 28 29 30 30 31 31 27 31 32 32 30 30 31 31 31 31 29 30 29 29 28 27 26 26 24 24 25 24 25 28 -193 -193 -177 -193 -193 33 36 36 34 29 32 27 29 27 27 27 25 26 25 26 26 25 26 25 27 28 26 28 29 33 30 35 32 31 32 32 30 30 28 29 25 25 25 24 25 27 26 26 25 25 24 24 24 24 22 -193 -209 36 36 37 35 30 30 29 30 30 28 34 32 34 35 31 28 31 30 30 29 29 28 28 31 33 30 31 32 32 35 34 33 31 34 33 36 38 36 36 32 38 35 37 33 33 34 33 33 33 30 32 27 32 32 27 -193 34 -193 -209 -209 -209 -209 -209 -209 -209 -209 -209 -209 -193 -193 -193 -209 -193 -193 -193 193 -209 38 35 34 36 37 36 36 35 36 37 38 40 39 -193 -193 -193 41 42 41 42 41 41 41 39 40 40 40 37 40 39 41 44 49 55 48 47 52 50 51 51 50 50 49 51 51 50 51 52 52 55 54 57 60 62 65 65 67 67 66 68 67 68 68 68 68 68 68 69 69 67 68 70 0 0 0 0 0
    0 0 0 0 0 0 0 0 0 0 0 0 0 0 0 0 0 0 0 0 0 0 0 0 0 0 0 0 0 0 0 0 0 0 0 0 0 0 0 0 0 0 0 0 0 0 0 0 0 0 0 0 0 0 0 0 0 0 0 0 0 0 0 0 0 0 0 0 0 26 27 27 27 27 27 27 30 28 29 28 30 30 29 31 31 26 32 32 32 29 29 30 30 30 30 28 28 28 27 27 27 26 25 24 24 -193 24 25 28 -193 -193 -177 -193 -193 33 36 36 34 30 33 27 28 26 26 26 25 26 25 26 26 25 26 25 27 28 27 29 29 34 32 35 32 31 32 32 31 30 28 28 25 23 24 22 24 27 26 26 26 26 26 26 25 25 22 -193 -209 36 35 36 34 30 30 29 28 28 27 33 30 32 34 30 28 31 30 30 28 29 28 28 31 34 31 32 32 33 36 35 33 32 35 34 38 38 36 36 31 37 35 37 33 33 34 33 33 33 30 31 27 31 31 25 -193 -209 -193 -209 -209 -209 -209 -209 -209 -209 -209 -209 -209 -209 -193 -193 -193 -193 -193 -193 -209 -209 39 34 34 36 37 35 36 35 36 37 39 40 -193 -193 -177 -177 -193 42 41 42 41 41 41 40 41 41 41 41 42 42 44 48 50 55 49 48 52 50 51 51 50 51 49 51 51 50 52 53 53 55 55 57 61 63 66 66 67 67 66 68 66 68 67 67 66 66 67 68 68 67 67 70 0 0 0 0 0
    0 0 0 0 0 0 0 0 0 0 0 0 0 0 0 0 0 0 0 0 0 0 0 0 0 0 0 0 0 0 0 0 0 0 0 0 0 0 0 0 0 0 0 0 0 0 0 0 0 0 0 0 0 0 0 0 0 0 0 0 0 0 0 0 0 0 0 0 0 26 27 27 27 27 27 27 31 28 30 29 31 31 30 32 32 27 33 32 31 28 29 29 29 29 29 28 27 27 27 26 27 26 26 25 24 -193 -193 25 28 -193 -193 -193 32 34 33 36 36 34 30 32 26 25 24 24 24 24 25 25 26 26 25 27 26 29 30 31 33 33 36 34 36 33 32 33 32 30 30 28 28 25 23 24 23 25 29 29 28 29 29 30 29 28 28 25 -193 -209 36 34 35 32 30 30 29 28 28 26 32 29 31 34 29 28 30 30 29 28 28 28 27 30 34 30 32 32 34 36 35 34 32 35 33 38 38 35 35 31 37 35 37 33 33 34 33 33 33 30 31 27 31 30 24 -193 -209 -193 -193 -209 -209 -209 -209 -209 -209 -209 -209 -209 -209 -193 -209 -193 -193 195 -193 -209 -209 39 34 34 37 37 36 35 35 36 38 39 40 -193 -193 -177 -177 -193 42 41 42 41 42 42 41 41 42 42 41 42 44 47 52 52 56 50 49 52 51 51 52 51 51 50 52 52 51 53 54 54 56 56 58 61 63 66 66 67 66 65 67 65 67 66 65 65 65 65 67 67 66 66 70 0 0 0 0 0
    0 0 0 0 0 0 0 0 0 0 0 0 0 0 0 0 0 0 0 0 0 0 0 0 0 0 0 0 0 0 0 0 0 0 0 0 0 0 0 0 0 0 0 0 0 0 0 0 0 0 0 0 0 0 0 0 0 0 0 0 0 0 0 0 0 0 0 0 0 25 26 26 26 26 26 26 30 28 30 29 32 31 30 32 32 27 32 31 31 28 28 29 29 29 28 28 27 27 27 27 27 27 27 26 -193 -177 -193 25 28 -193 29 -193 32 34 33 36 36 32 30 31 25 24 24 24 25 24 26 26 27 27 25 28 26 33 35 36 37 36 37 35 37 33 32 33 32 30 30 27 28 24 23 24 24 26 31 30 30 31 30 31 30 29 29 26 -193 27 34 32 33 31 30 30 29 29 28 27 33 29 31 34 30 28 30 29 29 28 28 28 27 29 33 29 31 31 31 33 -193 -193 30 35 31 38 38 36 36 32 38 36 37 33 33 34 33 32 33 31 30 27 30 30 18 0 -209 -193 -193 -209 -209 -209 -209 -209 36 -209 -209 -209 -209 -209 -209 -209 188 -193 -209 -209 -209 40 33 33 37 37 35 35 34 36 38 39 40 39 -193 -193 -177 -193 42 41 42 41 42 42 41 41 42 43 41 42 44 47 51 51 56 51 50 53 51 51 52 51 52 50 52 52 51 53 54 54 56 56 57 61 63 65 66 67 65 64 67 63 67 64 64 63 63 64 66 67 66 66 70 0 0 0 0 0
    0 0 0 0 0 0 0 0 0 0 0 0 0 0 0 0 0 0 0 0 0 0 0 0 0 0 0 0 0 0 0 0 0 0 0 0 0 0 0 0 0 0 0 0 0 0 0 0 0 0 0 0 0 0 0 0 0 0 0 0 0 0 0 0 0 0 0 0 0 24 25 25 25 25 25 25 29 28 30 29 32 31 30 32 32 27 31 31 31 28 29 29 29 29 29 29 27 28 27 27 27 27 27 26 -193 -177 -177 -193 28 29 29 31 31 33 32 36 36 31 31 31 26 25 26 27 27 26 28 28 30 31 27 31 28 37 37 37 38 36 37 36 37 32 32 33 31 29 29 27 27 23 23 24 24 27 33 30 31 31 30 31 30 29 28 25 26 -193 34 30 33 30 30 29 28 28 28 26 32 28 29 33 30 27 30 29 28 27 27 28 27 28 32 27 28 -209 -209 -209 -209 -209 -193 -209 29 -209 38 36 37 34 38 36 36 33 33 34 33 32 32 31 30 27 30 30 16 -177 -209 -193 47 -209 -209 -209 47 -209 -209 -209 -209 -209 -209 -209 -209 -209 -193 -193 -209 -209 -209 -193 33 33 36 37 35 35 34 36 37 38 40 39 39 -193 -177 -193 41 40 42 41 42 42 41 41 43 43 41 42 -193 -193 50 49 55 50 49 52 51 51 51 50 52 50 52 52 51 53 54 54 56 55 57 60 63 65 66 67 66 66 68 64 67 64 63 63 63 64 66 67 67 67 72 0 0 0 0 0
    0 0 0 0 0 0 0 0 0 0 0 0 0 0 0 0 0 0 0 0 0 0 0 0 0 0 0 0 0 0 0 0 0 0 0 0 0 0 0 0 0 0 0 0 0 0 0 0 0 0 0 0 0 0 0 0 0 0 0 0 0 0 0 0 0 0 0 0 0 23 25 24 24 25 24 24 28 28 30 29 32 31 30 31 31 27 29 31 30 28 29 29 29 29 29 29 27 28 27 27 28 27 27 26 -193 -177 -177 -193 29 28 28 -193 31 33 32 36 36 30 32 31 26 26 27 26 26 24 27 28 31 31 26 38 30 40 38 38 38 37 37 36 -193 32 32 32 30 29 29 26 26 22 22 24 24 27 33 30 31 31 31 31 30 29 29 26 27 -193 -193 30 33 30 30 29 28 28 28 25 30 27 28 30 28 26 29 28 28 26 27 27 26 28 31 26 29 -209 -209 -209 -209 -209 -193 36 27 38 37 35 37 34 37 37 36 33 33 34 33 32 32 31 30 27 31 31 23 -177 -209 44 49 -209 -209 -209 48 -209 -193 -209 -209 -209 -209 -209 -209 -209 -193 -209 -209 -209 -209 -193 32 32 36 36 35 35 34 36 37 39 40 39 39 -193 -177 -193 41 40 42 41 42 42 40 41 42 43 41 42 -193 -193 53 50 54 50 49 51 50 50 50 49 51 49 51 52 51 52 54 54 56 55 57 60 63 66 67 68 66 67 68 63 66 63 62 62 62 63 64 67 68 69 74 0 0 0 0 0
    0 0 0 0 0 0 0 0 0 0 0 0 0 0 0 0 0 0 0 0 0 0 0 0 0 0 0 0 0 0 0 0 0 0 0 0 0 0 0 0 0 0 0 0 0 0 0 0 0 0 0 0 0 0 0 0 0 0 0 0 0 0 0 0 0 0 0 0 0 23 25 25 25 -193 25 25 28 29 30 29 31 31 29 31 30 26 28 30 29 27 28 28 28 29 28 29 27 29 28 28 28 28 27 27 -193 -177 -177 -193 29 28 29 -193 31 32 32 35 35 30 33 32 27 27 27 24 23 22 23 24 26 -193 -193 -193 26 34 36 37 37 36 38 35 37 32 32 32 30 29 28 25 25 21 21 23 23 26 33 29 30 30 30 31 30 30 29 26 27 -193 -193 30 33 30 30 30 29 29 28 25 30 26 27 28 27 26 28 28 28 26 26 27 26 27 31 26 30 29 26 -209 -209 -209 -193 38 29 38 39 36 38 35 38 38 37 33 33 35 33 32 33 32 30 27 31 31 25 10 -209 44 -193 33 35 -209 -209 -209 33 -193 30 31 -209 -209 -193 -209 -193 196 -209 -209 -209 -193 32 33 36 37 35 35 34 36 37 39 40 39 39 41 -177 -193 41 41 42 40 42 42 40 41 42 43 41 43 50 53 55 51 54 51 49 50 50 50 50 49 51 49 51 52 51 52 54 55 56 54 57 60 64 67 68 68 65 67 68 63 65 63 62 62 62 63 64 67 69 70 76 0 0 0 0 0
    0 0 0 0 0 0 0 0 0 0 0 0 0 0 0 0 0 0 0 0 0 0 0 0 0 0 0 0 0 0 0 0 0 0 0 0 0 0 0 0 0 0 0 0 0 0 0 0 0 0 0 0 0 0 0 0 0 0 0 0 0 0 0 0 0 0 0 0 0 23 25 25 25 -193 25 25 28 29 30 29 31 31 30 31 30 26 28 30 29 27 28 28 28 29 28 29 27 29 28 28 28 28 28 27 -193 -193 -193 -193 29 28 29 -193 30 31 31 35 35 29 34 34 28 32 32 24 27 -193 -193 -193 -193 -193 -193 -193 -193 -193 40 39 39 37 38 35 37 32 31 32 30 28 28 25 25 21 22 24 24 27 32 29 30 30 31 31 30 29 28 25 27 25 36 30 32 30 30 30 30 30 29 26 31 26 27 29 29 27 29 28 28 27 28 28 27 28 31 26 30 29 25 27 20 -209 -209 36 -209 35 40 36 38 35 37 38 37 33 33 35 33 33 33 32 30 28 32 32 25 11 18 -193 -209 -209 -193 -209 -209 -193 32 -193 -193 31 -209 -209 -193 -209 -193 -209 -209 -209 -209 -209 33 33 37 37 35 35 35 36 37 39 40 39 39 41 -193 41 41 41 42 40 41 41 40 41 43 44 42 44 52 55 56 52 54 52 50 51 51 51 50 49 51 50 51 52 51 52 53 54 55 54 57 61 65 67 69 68 65 68 69 66 67 65 66 66 67 69 69 70 74 74 80 0 0 0 0 0
    0 0 0 0 0 0 0 0 0 0 0 0 0 0 0 0 0 0 0 0 0 0 0 0 0 0 0 0 0 0 0 0 0 0 0 0 0 0 0 0 0 0 0 0 0 0 0 0 0 0 0 0 0 0 0 0 0 0 0 0 0 0 0 0 0 0 0 0 0 24 25 25 25 25 25 25 27 29 30 29 31 30 29 30 30 27 28 30 29 28 28 28 28 29 28 29 27 29 28 29 28 28 28 27 -193 -193 -193 -193 -193 28 28 -193 30 31 31 33 34 28 34 34 28 32 33 -193 -193 -193 -193 -193 48 48 49 47 46 48 45 42 41 38 39 35 37 31 31 31 29 28 27 25 25 22 22 24 25 27 31 29 30 29 30 30 29 28 27 24 26 25 33 28 31 30 30 30 30 29 29 26 30 26 27 29 30 28 30 29 29 28 29 29 28 28 30 25 28 26 23 24 18 22 -209 32 -209 30 35 34 36 34 35 39 36 33 33 35 33 33 33 32 30 28 32 32 26 20 21 -193 -209 36 -193 -209 -209 -193 -193 -209 -193 -209 -209 -209 -209 -209 -209 -209 -209 -209 -209 -209 34 34 37 37 35 36 35 37 37 39 40 39 39 41 -193 41 41 41 41 39 41 41 40 41 43 44 42 46 53 55 56 53 55 53 51 52 52 51 50 49 52 49 50 51 51 51 53 54 55 54 57 60 66 69 70 71 68 72 71 70 70 69 70 70 71 74 74 74 77 78 82 0 0 0 0 0
    0 0 0 0 0 0 0 0 0 0 0 0 0 0 0 0 0 0 0 0 0 0 0 0 0 0 0 0 0 0 0 0 0 0 0 0 0 0 0 0 0 0 0 0 0 0 0 0 0 0 0 0 0 0 0 0 0 0 0 0 0 0 0 0 0 0 0 0 0 24 26 26 26 26 26 26 28 29 30 29 31 30 30 30 30 27 28 30 29 28 28 28 29 29 28 29 27 29 28 29 29 29 28 28 26 27 25 26 -193 28 28 30 30 31 31 33 33 28 33 34 27 28 32 -193 -193 -193 -193 48 51 51 50 49 48 50 47 45 43 39 40 33 36 30 30 30 28 28 27 26 26 22 23 24 24 26 28 27 28 28 29 29 27 26 26 23 24 24 30 27 30 29 30 29 30 29 29 26 30 26 27 29 30 28 30 30 30 28 30 30 28 28 29 25 26 26 23 24 19 23 25 31 35 30 31 33 35 34 34 38 36 32 32 35 33 33 33 32 30 28 32 32 26 26 -209 -193 43 42 42 47 54 -209 -193 -209 -209 -209 -209 -209 -209 -209 -209 -209 -193 -209 -209 -209 35 35 37 37 36 36 36 37 38 39 40 39 39 41 41 41 40 41 41 39 41 41 40 41 43 45 42 46 52 55 57 54 55 54 51 52 52 51 50 49 51 49 49 51 51 51 52 54 54 53 57 59 67 71 72 73 71 74 73 72 72 71 73 73 73 77 75 76 78 79 82 0 0 0 0 0
    0 0 0 0 0 0 0 0 0 0 0 0 0 0 0 0 0 0 0 0 0 0 0 0 0 0 0 0 0 0 0 0 0 0 0 0 0 0 0 0 0 0 0 0 0 0 0 0 0 0 0 0 0 0 0 0 0 0 0 0 0 0 0 0 0 0 0 0 0 25 27 27 26 26 26 27 28 29 30 29 30 30 30 30 29 28 28 30 28 28 28 28 28 29 28 29 27 30 29 30 29 29 29 28 27 27 26 26 29 28 28 30 30 31 31 33 33 28 32 33 26 25 -193 19 -193 -193 -193 -193 48 48 50 49 45 47 45 44 43 38 42 30 35 29 29 29 27 27 26 26 26 23 23 24 24 26 27 26 27 27 28 28 26 25 25 22 24 23 28 27 29 29 29 29 30 29 30 26 30 26 27 29 30 29 31 30 31 29 31 31 28 28 29 25 25 25 24 23 20 23 25 29 30 28 29 32 34 33 35 38 36 32 32 35 33 33 33 32 30 28 32 33 27 27 -209 -193 43 43 42 48 55 -209 -193 -209 -193 -193 -209 -209 -209 -209 -209 -209 -193 -209 -209 -193 34 35 37 37 36 36 37 38 38 39 41 39 39 41 41 40 40 41 41 39 41 41 40 41 43 44 42 46 52 55 56 54 54 54 51 51 52 51 50 49 51 49 48 51 51 50 52 53 54 52 57 59 67 72 73 75 72 75 74 74 73 74 74 75 75 80 77 78 79 80 82 0 0 0 0 0
    0 0 0 0 0 0 0 0 0 0 0 0 0 0 0 0 0 0 0 0 0 0 0 0 0 0 0 0 0 0 0 0 0 0 0 0 0 0 0 0 0 0 0 0 0 0 0 0 0 0 0 0 0 0 0 0 0 0 0 0 0 0 0 0 0 0 0 0 0 26 27 27 27 27 27 28 28 29 30 28 30 30 30 30 28 28 28 30 28 28 28 28 28 29 27 29 27 30 29 30 30 29 29 28 27 27 26 26 30 28 28 30 30 30 31 32 33 27 32 32 25 -193 -193 21 -193 -193 30 -193 39 38 43 -193 42 45 44 43 41 36 -209 27 31 28 28 28 27 26 -193 25 26 23 23 24 24 26 27 26 27 27 27 28 26 25 23 22 23 23 27 26 28 28 28 28 29 29 29 25 30 26 27 30 30 29 31 31 31 29 32 31 28 28 29 25 25 24 24 21 20 23 26 30 31 28 30 32 33 33 36 37 36 32 33 35 33 33 33 32 30 28 33 33 27 28 30 -193 40 42 39 -209 -209 -209 -209 -193 -209 -209 -209 -209 26 -209 -209 -209 -177 -209 -209 38 34 34 37 37 36 37 37 38 38 39 41 39 39 41 41 40 40 41 41 39 41 41 40 41 43 43 43 46 50 53 55 53 54 54 50 51 51 51 50 48 51 49 48 51 51 50 51 53 54 52 57 61 68 72 72 73 71 73 73 73 73 74 75 76 77 83 79 80 81 82 83 0 0 0 0 0
    0 0 0 0 0 0 0 0 0 0 0 0 0 0 0 0 0 0 0 0 0 0 0 0 0 0 0 0 0 0 0 0 0 0 0 0 0 0 0 0 0 0 0 0 0 0 0 0 0 0 0 0 0 0 0 0 0 0 0 0 0 0 0 0 0 0 0 0 0 26 28 27 27 27 27 28 28 28 29 28 28 28 28 29 27 27 27 29 28 28 28 28 28 29 27 30 27 30 29 31 30 30 29 29 27 28 26 26 31 29 29 31 30 31 31 33 33 27 34 35 28 36 37 27 32 29 33 38 36 38 40 37 38 -193 -209 -209 -209 31 -209 -193 -209 26 26 26 26 25 -193 26 26 23 23 24 24 25 26 26 26 26 27 27 25 24 22 21 22 22 26 26 27 27 28 28 29 28 29 24 30 26 27 31 31 30 32 31 32 29 32 32 28 28 29 24 24 24 23 22 22 25 27 30 31 28 29 31 32 31 36 36 36 32 32 34 33 33 33 32 31 29 33 33 27 30 -193 -193 38 42 -193 -209 -209 -209 -209 -209 -209 -209 -209 -209 -193 -209 -209 -209 -209 -209 -193 38 34 35 37 37 36 37 37 38 38 39 41 39 39 41 40 40 40 41 41 39 41 42 41 42 44 44 43 46 48 52 55 52 53 54 50 51 51 51 50 48 51 49 47 51 51 50 52 54 55 53 58 68 69 71 71 71 70 72 72 72 72 74 75 76 77 83 79 80 81 82 83 0 0 0 0 0
    0 0 0 0 0 0 0 0 0 0 0 0 0 0 0 0 0 0 0 0 0 0 0 0 0 0 0 0 0 0 0 0 0 0 0 0 0 0 0 0 0 0 0 0 0 0 0 0 0 0 0 0 0 0 0 0 0 0 0 0 0 0 0 0 0 0 0 0 0 26 28 27 27 27 27 28 27 28 28 27 27 27 27 28 26 27 27 29 27 27 27 27 28 28 27 29 27 30 30 32 31 31 30 30 28 29 27 27 33 29 29 32 31 31 32 33 34 28 35 35 28 30 30 28 30 29 31 34 33 36 38 34 32 -193 -209 -209 -209 -209 -209 -193 -209 25 26 25 25 25 -193 26 26 23 23 24 23 25 24 25 25 25 26 26 24 23 20 20 22 22 -193 26 27 27 28 28 29 28 30 25 31 26 27 32 31 30 33 32 32 30 33 33 28 29 29 23 23 23 22 21 22 25 27 29 -193 27 28 29 30 30 37 35 36 32 32 34 33 33 33 32 31 29 34 34 28 32 30 -193 35 -209 -209 -209 -209 -193 -209 -209 -209 -209 -209 -209 -193 -209 26 -193 -209 -209 28 36 33 35 37 37 36 37 37 38 38 39 41 38 39 40 40 40 40 41 41 39 42 42 41 42 44 44 44 46 47 51 54 52 53 54 50 51 51 51 50 49 51 50 47 52 52 51 53 54 56 56 60 69 68 70 70 70 70 71 71 72 71 74 75 76 77 82 79 80 80 81 82 0 0 0 0 0
    0 0 0 0 0 0 0 0 0 0 0 0 0 0 0 0 0 0 0 0 0 0 0 0 0 0 0 0 0 0 0 0 0 0 0 0 0 0 0 0 0 0 0 0 0 0 0 0 0 0 0 0 0 0 0 0 0 0 0 0 0 0 0 0 0 0 0 0 0 26 28 27 27 27 27 28 27 27 27 26 26 26 27 27 25 27 28 28 27 28 27 27 28 29 27 29 27 30 31 34 32 33 31 32 30 30 28 28 34 31 30 33 31 32 33 34 34 27 34 34 28 27 27 27 29 29 30 31 31 35 35 31 27 -193 -209 -209 -209 -209 -209 22 -209 -193 25 25 25 25 -193 26 27 24 23 24 23 24 23 24 23 24 24 25 23 22 18 20 23 23 -193 26 27 27 28 28 30 28 31 26 33 27 28 34 32 31 34 32 33 30 33 33 28 29 28 22 20 21 22 21 22 25 26 29 -193 28 30 30 30 31 37 35 36 32 32 34 33 33 33 31 32 29 34 34 28 34 30 24 34 -209 -209 -209 -209 -193 -209 -209 -209 -209 -209 -209 -209 -209 26 -193 -209 -193 28 35 34 36 37 37 37 37 37 38 37 38 40 38 39 40 40 39 40 41 41 38 42 43 42 42 44 44 43 46 46 50 53 51 52 55 50 51 52 51 51 49 51 51 48 53 53 52 54 55 57 57 62 70 69 70 71 71 70 71 71 72 71 74 76 76 77 82 79 80 80 81 82 0 0 0 0 0
    0 0 0 0 0 0 0 0 0 0 0 0 0 0 0 0 0 0 0 0 0 0 0 0 0 0 0 0 0 0 0 0 0 0 0 0 0 0 0 0 0 0 0 0 0 0 0 0 0 0 0 0 0 0 0 0 0 0 0 0 0 0 0 0 0 0 0 0 0 25 26 26 26 26 26 27 26 27 27 -193 26 26 27 27 25 28 29 29 28 29 27 27 28 29 26 29 -193 29 31 35 32 34 30 32 30 30 29 29 35 31 31 33 32 33 34 34 34 27 33 34 27 27 27 28 30 29 30 33 31 34 33 28 -193 -193 -209 -209 -209 -209 -209 22 -209 24 24 -193 25 25 -193 26 27 25 24 25 23 24 22 23 22 23 23 24 22 22 17 20 23 23 -193 26 27 27 28 28 30 28 31 26 33 27 28 34 32 31 34 32 33 30 34 33 27 29 28 21 19 20 21 20 22 25 26 29 30 30 32 31 30 32 37 34 35 32 32 34 33 33 33 31 32 29 34 34 28 35 32 28 34 -209 -209 -209 -209 -209 -209 -209 -209 -209 -209 -209 -209 33 29 30 -193 35 31 35 34 37 38 37 37 37 37 38 37 38 40 37 38 39 39 39 40 40 40 38 42 43 42 43 44 44 43 45 45 48 51 50 51 55 50 51 52 51 51 50 51 51 48 53 53 52 54 55 57 58 62 69 69 70 70 70 70 71 71 72 71 74 76 76 77 82 79 80 80 81 81 0 0 0 0 0
    0 0 0 0 0 0 0 0 0 0 0 0 0 0 0 0 0 0 0 0 0 0 0 0 0 0 0 0 0 0 0 0 0 0 0 0 0 0 0 0 0 0 0 0 0 0 0 0 0 0 0 0 0 0 0 0 0 0 0 0 0 0 0 0 0 0 0 0 0 24 25 25 25 25 25 27 26 26 27 164 -193 26 27 27 24 28 29 28 27 28 26 26 27 28 26 29 -209 -209 -193 -193 34 35 30 31 29 29 28 29 36 31 31 34 32 33 34 35 34 27 32 32 26 25 26 27 28 28 29 32 31 34 33 -193 -209 -209 -209 -209 -209 -209 -209 22 -209 24 24 -193 25 25 -193 26 27 25 24 25 23 23 22 23 21 22 22 23 21 22 17 20 23 23 -193 26 27 27 28 28 30 28 31 26 32 28 28 34 32 31 33 32 33 30 34 33 27 29 28 21 19 20 22 20 22 25 26 30 30 31 32 31 30 32 38 33 35 32 32 34 33 33 33 31 33 29 35 34 28 35 35 31 35 -209 -209 -209 -209 -209 -209 -209 -209 -209 -209 -209 -209 35 30 31 30 35 32 34 34 37 38 36 37 37 37 38 37 38 40 37 38 39 39 39 39 40 40 38 42 43 42 43 43 43 43 44 45 46 49 47 50 55 50 51 52 51 51 51 51 51 48 54 53 53 54 55 57 58 61 68 68 69 70 70 70 71 70 71 71 74 76 76 77 82 79 80 80 81 81 0 0 0 0 0
    0 0 0 0 0 0 0 0 0 0 0 0 0 0 0 0 0 0 0 0 0 0 0 0 0 0 0 0 0 0 0 0 0 0 0 0 0 0 0 0 0 0 0 0 0 0 0 0 0 0 0 0 0 0 0 0 0 0 0 0 0 0 0 0 0 0 0 0 0 23 24 24 -193 24 24 26 26 26 -193 163 -193 -193 27 27 23 27 28 27 26 26 22 24 -193 29 -209 -209 -209 -209 -209 -193 37 37 34 32 32 30 29 31 37 32 32 34 33 34 -193 35 34 28 33 33 26 25 26 27 28 28 28 30 30 31 31 28 -193 -209 -209 -209 -209 -193 -209 -193 -209 23 23 24 24 24 25 26 27 26 26 26 23 24 23 24 22 22 22 24 22 23 18 20 23 23 26 26 27 27 27 28 30 28 32 26 33 28 29 35 32 32 33 32 33 30 34 34 27 31 30 22 20 22 24 21 23 26 27 30 30 32 33 31 31 33 38 33 36 32 32 34 33 33 33 31 33 29 35 34 28 36 -209 36 38 -209 -193 -193 -209 -209 -209 -209 -209 40 37 37 35 36 33 33 31 35 33 33 34 37 37 36 37 37 37 37 37 38 40 36 37 38 38 38 39 40 40 37 42 43 42 42 43 43 42 43 44 45 48 46 50 55 49 50 52 51 52 51 51 51 49 54 53 52 54 55 57 58 61 68 68 69 70 70 70 70 70 71 70 73 76 76 77 82 79 80 80 81 81 0 0 0 0 0
    0 0 0 0 0 0 0 0 0 0 0 0 0 0 0 0 0 0 0 0 0 0 0 0 0 0 0 0 0 0 0 0 0 0 0 0 0 0 0 0 0 0 0 0 0 0 0 0 0 0 0 0 0 0 0 0 0 0 0 0 0 0 0 0 0 0 0 0 0 23 23 23 -193 24 24 26 26 26 -193 -193 27 27 27 27 -193 26 27 26 24 21 12 15 -193 -209 -209 -209 -209 -209 -209 -193 -193 40 -193 36 36 32 29 32 37 32 33 34 34 -193 35 36 35 -193 -193 -193 -193 -193 26 28 28 28 28 29 29 30 29 28 26 -209 -209 -209 -209 -193 -209 -209 -209 23 23 24 24 24 24 26 27 26 28 28 25 25 25 26 23 24 24 25 24 26 21 23 25 24 26 27 27 27 27 28 30 28 33 28 35 30 30 36 32 32 33 32 33 30 34 34 27 32 31 21 18 22 24 22 25 26 28 29 29 32 33 32 31 33 39 33 36 32 32 34 33 33 33 30 33 29 35 34 28 35 -209 33 -209 -193 -193 -193 -209 -209 -209 -209 -193 39 37 37 36 36 34 34 32 36 33 33 34 37 36 37 37 37 37 36 37 37 39 36 37 38 38 38 39 40 39 37 42 43 42 42 42 42 42 43 44 44 47 45 50 55 50 51 52 52 52 51 52 52 49 53 53 52 54 54 57 58 60 68 68 69 70 70 70 70 69 70 69 73 75 76 77 82 80 81 81 82 82 0 0 0 0 0
    0 0 0 0 0 0 0 0 0 0 0 0 0 0 0 0 0 0 0 0 0 0 0 0 0 0 0 0 0 0 0 0 0 0 0 0 0 0 0 0 0 0 0 0 0 0 0 0 0 0 0 0 0 0 0 0 0 0 0 0 0 0 0 0 0 0 0 0 0 23 23 23 -193 23 24 25 26 26 27 27 27 27 27 27 -193 27 28 26 25 22 10 -209 -209 -209 -209 -209 -209 -209 -209 -209 -209 38 -193 36 38 36 29 34 37 32 33 -193 -193 -193 34 36 35 -193 -193 -193 -193 -193 28 30 28 27 28 30 30 29 29 28 25 24 27 -209 -209 23 -209 -193 -209 23 24 24 24 24 25 26 27 27 29 30 25 25 26 27 25 25 25 25 26 28 -209 24 27 26 28 28 28 27 27 28 29 27 32 28 35 31 32 37 33 33 34 33 33 31 34 34 26 32 33 18 18 22 24 24 26 28 28 29 29 33 33 32 33 35 39 33 36 33 32 34 33 33 33 31 34 30 35 35 29 38 42 -209 -209 -209 75 -209 -209 -209 -209 -193 -193 40 37 37 37 37 34 35 32 36 34 33 34 36 36 36 36 36 36 35 36 37 39 35 36 37 38 38 39 39 39 36 42 43 43 42 42 42 41 43 43 44 46 45 50 55 50 51 53 52 52 51 52 52 49 53 53 52 54 54 57 58 60 69 68 69 70 70 70 69 69 70 68 73 75 75 77 80 80 81 81 82 83 0 0 0 0 0
    0 0 0 0 0 0 0 0 0 0 0 0 0 0 0 0 0 0 0 0 0 0 0 0 0 0 0 0 0 0 0 0 0 0 0 0 0 0 0 0 0 0 0 0 0 0 0 0 0 0 0 0 0 0 0 0 0 0 0 0 0 0 0 0 0 0 0 0 0 24 -177 23 24 24 24 25 26 26 26 27 28 27 27 28 -193 27 29 27 25 -209 -193 -209 -209 -209 -209 -209 -209 -209 -209 -209 -209 37 38 35 38 -209 27 35 -193 -193 -193 688 688 -193 -193 36 34 -193 -193 -193 -209 -209 29 31 28 27 28 31 31 29 29 29 25 25 29 -209 -209 23 -209 23 -209 24 24 24 25 24 25 27 27 26 29 29 25 25 25 26 24 25 25 25 25 28 -209 -193 29 27 30 29 29 28 28 29 30 28 33 29 35 32 32 37 33 33 34 33 33 31 33 34 26 36 35 10 -209 22 25 24 26 27 28 28 30 34 34 34 34 37 40 34 37 33 32 34 33 34 34 31 34 30 36 36 31 41 45 50 -193 -193 -193 -209 -209 -209 -193 53 -193 40 37 37 36 36 34 35 32 36 34 34 34 36 36 36 35 35 35 35 36 36 39 35 36 37 38 38 39 40 39 37 42 44 44 43 43 43 42 43 44 44 46 45 50 55 50 51 53 52 52 51 51 51 49 53 52 51 53 53 56 58 59 68 68 69 70 70 70 69 69 70 67 73 75 75 75 77 77 79 79 81 82 0 0 0 0 0
    0 0 0 0 0 0 0 0 0 0 0 0 0 0 0 0 0 0 0 0 0 0 0 0 0 0 0 0 0 0 0 0 0 0 0 0 0 0 0 0 0 0 0 0 0 0 0 0 0 0 0 0 0 0 0 0 0 0 0 0 0 0 0 0 0 0 0 0 0 -193 -193 -193 24 25 25 26 27 27 27 28 29 28 29 29 25 28 30 27 25 -209 -209 -209 -209 -209 -209 -209 -209 -209 -193 -193 -209 33 -193 30 37 -209 -193 -193 -193 687 688 689 688 -193 -193 36 33 32 35 -193 -209 -209 -193 30 26 25 27 31 30 28 28 29 26 28 31 -193 -209 23 -209 23 -209 24 24 -193 25 25 25 27 28 27 29 30 26 26 26 27 26 26 26 27 27 29 -209 26 30 28 30 30 30 29 29 30 31 29 34 31 35 34 33 37 33 33 34 33 33 32 32 33 26 39 38 -209 -209 -193 28 27 27 26 27 28 31 35 35 35 36 38 40 34 37 33 33 34 33 34 34 31 35 31 37 37 35 43 46 49 54 -193 56 -209 52 57 -193 54 38 39 37 37 36 36 34 35 32 36 35 34 35 37 36 36 36 35 35 35 36 36 38 36 36 37 38 38 39 40 39 37 42 44 43 43 43 43 42 44 45 44 46 45 51 55 50 51 53 52 52 51 51 51 48 52 51 50 52 51 54 57 57 65 67 70 71 71 71 70 69 70 67 74 76 76 76 77 78 79 78 80 80 0 0 0 0 0
    0 0 0 0 0 0 0 0 0 0 0 0 0 0 0 0 0 0 0 0 0 0 0 0 0 0 0 0 0 0 0 0 0 0 0 0 0 0 0 0 0 0 0 0 0 0 0 0 0 0 0 0 0 0 0 0 0 0 0 0 0 0 0 0 0 0 0 0 0 -177 -177 25 25 26 26 27 28 28 28 30 30 29 30 30 26 29 31 28 26 31 -209 -209 -209 -209 -193 -209 -209 -209 -193 -193 -209 33 31 30 36 -209 -193 -193 691 687 689 689 688 -193 -193 35 31 32 33 -209 -209 -209 -209 -209 23 24 26 29 29 27 29 29 28 30 31 36 32 24 -193 23 -193 24 24 -193 25 25 26 27 28 27 29 30 26 26 27 28 27 27 27 28 28 30 30 29 32 29 30 30 30 29 29 30 31 30 33 33 35 35 33 37 33 33 34 33 33 32 32 33 27 38 37 -193 34 32 32 32 31 28 29 31 34 36 36 36 38 39 40 34 37 33 32 34 33 34 34 31 34 30 37 38 37 44 47 50 53 53 55 53 50 58 58 56 38 39 37 36 36 36 34 35 33 36 36 35 36 37 36 37 36 35 36 36 36 36 38 36 36 37 38 38 38 40 39 38 42 44 44 43 43 43 42 44 45 44 46 45 51 55 51 52 53 51 52 51 50 50 48 50 50 48 50 49 51 55 54 60 67 71 72 73 73 72 70 71 67 74 77 77 -193 -209 83 80 82 81 79 0 0 0 0 0
    0 0 0 0 0 0 0 0 0 0 0 0 0 0 0 0 0 0 0 0 0 0 0 0 0 0 0 0 0 0 0 0 0 0 0 0 0 0 0 0 0 0 0 0 0 0 0 0 0 0 0 0 0 0 0 0 0 0 0 0 0 0 0 0 0 0 0 0 0 -177 -177 26 26 26 26 27 28 29 29 30 30 30 31 32 27 31 31 28 27 -193 -209 -209 -209 -209 -209 -209 -209 -209 -209 -209 -209 -193 -193 30 36 -209 -193 694 690 687 689 689 688 -193 31 35 30 32 33 -209 -193 -209 -209 -209 25 26 27 32 31 29 32 31 31 31 31 34 31 27 24 24 26 25 25 26 26 26 26 27 28 27 31 31 27 28 28 28 27 28 28 28 28 30 31 32 33 33 32 31 31 30 31 30 30 31 31 33 34 35 33 37 33 33 33 33 33 33 32 34 28 38 37 35 37 35 35 33 34 29 30 30 33 35 33 34 37 38 39 34 36 32 32 34 33 34 34 31 35 31 39 39 39 46 50 52 54 54 55 53 51 58 56 56 38 39 37 37 36 36 35 35 33 36 36 36 36 37 36 37 36 35 36 35 35 36 38 36 36 37 38 38 38 40 40 39 42 45 45 44 44 44 43 45 46 45 45 45 51 55 51 52 53 51 52 51 50 50 48 50 49 47 49 48 49 52 47 -225 -225 72 73 76 -209 -209 -209 -209 -209 -209 -209 -193 42 -209 -209 -209 98 -209 -209 0 0 0 0 0</data></disparity>
</opencv_storage>
