<?xml version="1.0"?>
<opencv_storage>
<gps_time_stamp>316501</gps_time_stamp>
<gps_x>-1.2423743247985840e+001</gps_x>
<gps_y>1.0953831672668457e+001</gps_y>
<gps_z>-2.0036339759826660e+000</gps_z>
<image_time_stamp>307360</image_time_stamp>
<disparity type_id="opencv-matrix">
  <rows>85</rows>
  <cols>320</cols>
  <dt>s</dt>
  <data>
    0 0 0 0 0 0 0 0 0 0 0 0 0 0 0 0 0 0 0 0 0 0 0 0 0 0 0 0 0 0 0 0 0 0 0 0 0 0 0 0 0 0 0 0 0 0 0 0 0 0 0 0 0 0 0 0 0 0 0 0 0 0 0 0 0 0 0 0 0 55 54 53 53 54 52 50 52 53 50 49 51 51 44 49 49 48 -193 40 40 40 40 39 39 40 38 38 37 37 37 36 36 34 33 32 30 31 30 29 27 24 24 17 14 18 20 22 23 25 26 32 26 29 25 20 19 17 14 14 12 12 12 11 12 12 11 11 12 11 12 10 10 10 9 11 10 11 11 11 12 13 14 18 16 18 19 19 20 21 20 20 18 19 18 18 18 16 16 15 15 15 14 13 12 12 11 11 10 10 9 9 11 11 10 13 20 27 30 31 33 35 37 39 39 39 39 42 44 46 47 50 56 58 60 59 59 59 60 61 61 58 60 58 62 65 66 69 69 69 71 76 75 75 81 87 86 85 86 87 87 89 93 92 92 93 94 96 94 94 97 93 96 95 98 -193 -209 117 122 119 118 116 116 114 109 107 106 108 -193 -193 -177 -193 -193 118 122 122 124 126 132 -193 136 -193 -209 145 144 147 145 146 147 150 151 -209 -209 156 157 161 164 -193 -193 164 164 166 169 171 172 174 176 178 178 178 181 185 187 189 189 191 195 198 198 198 -193 202 204 204 209 203 202 0 0 0 0 0
    0 0 0 0 0 0 0 0 0 0 0 0 0 0 0 0 0 0 0 0 0 0 0 0 0 0 0 0 0 0 0 0 0 0 0 0 0 0 0 0 0 0 0 0 0 0 0 0 0 0 0 0 0 0 0 0 0 0 0 0 0 0 0 0 0 0 0 0 0 55 54 53 53 54 52 50 52 53 50 48 50 50 43 46 47 47 -193 42 41 41 41 40 40 40 39 39 38 37 37 36 36 34 33 33 31 31 30 29 27 25 25 17 15 19 23 26 28 34 38 36 36 35 -193 -193 -193 19 14 13 12 12 12 11 12 12 11 11 12 11 12 10 11 10 10 11 11 10 11 10 12 13 13 18 15 17 17 18 19 20 19 20 18 19 18 19 18 17 16 16 15 15 14 13 12 12 11 11 10 10 10 9 11 12 11 14 21 28 31 32 34 35 37 39 39 39 40 42 45 46 47 50 56 57 59 58 59 59 59 60 60 58 59 58 61 63 66 69 69 71 72 78 76 77 81 86 85 84 85 86 87 89 93 92 92 93 94 96 95 94 98 94 96 96 99 102 100 119 124 122 120 117 117 115 110 109 108 110 -193 -193 -177 -193 -193 121 123 123 124 125 130 134 135 -193 -209 145 145 148 146 147 148 151 152 -209 -209 156 157 161 164 164 163 165 164 166 169 171 171 173 175 177 176 178 180 185 187 189 189 191 196 198 198 198 -193 202 204 204 208 203 202 0 0 0 0 0
    0 0 0 0 0 0 0 0 0 0 0 0 0 0 0 0 0 0 0 0 0 0 0 0 0 0 0 0 0 0 0 0 0 0 0 0 0 0 0 0 0 0 0 0 0 0 0 0 0 0 0 0 0 0 0 0 0 0 0 0 0 0 0 0 0 0 0 0 0 55 54 53 53 54 52 50 52 53 49 48 50 49 44 45 46 47 -209 44 42 43 42 40 41 40 40 39 38 38 37 36 36 35 34 34 32 32 31 29 27 27 27 16 16 20 25 38 39 40 42 41 41 40 -193 -193 -193 -193 16 14 13 12 13 12 12 12 11 11 13 12 13 11 11 11 10 11 11 10 11 10 11 12 12 17 14 17 16 17 18 20 18 19 18 19 17 19 18 17 16 17 15 15 15 13 11 12 11 11 10 10 9 9 11 12 11 13 21 30 32 33 35 36 38 39 39 39 40 42 44 46 47 51 55 57 59 57 58 58 59 59 59 57 58 57 61 62 65 69 69 71 73 80 77 78 81 86 84 83 84 86 87 89 92 92 92 94 94 97 95 94 98 94 96 97 99 103 -193 121 125 123 121 117 117 115 111 109 108 113 -193 117 -209 -209 122 123 124 124 125 125 129 134 135 -193 -209 146 -193 148 147 147 149 151 152 -209 -193 156 157 161 164 164 163 165 165 167 170 171 171 173 174 176 175 177 181 185 188 189 190 191 196 198 198 198 196 202 204 204 207 203 201 0 0 0 0 0
    0 0 0 0 0 0 0 0 0 0 0 0 0 0 0 0 0 0 0 0 0 0 0 0 0 0 0 0 0 0 0 0 0 0 0 0 0 0 0 0 0 0 0 0 0 0 0 0 0 0 0 0 0 0 0 0 0 0 0 0 0 0 0 0 0 0 0 0 0 55 54 53 53 54 53 50 52 53 49 48 49 49 44 46 46 47 44 45 44 44 43 42 42 41 40 40 39 38 38 37 37 36 35 35 34 34 34 32 32 34 36 -209 -209 -193 40 43 43 42 45 43 43 42 41 -209 -193 -209 17 17 14 13 13 13 12 12 11 12 13 12 13 11 10 11 10 10 11 10 11 10 10 12 11 15 14 17 15 16 17 19 17 19 18 18 17 19 17 17 15 17 16 14 15 14 11 12 11 11 10 9 9 0 10 11 10 11 20 32 32 34 35 36 37 39 39 39 39 41 44 46 47 51 55 57 58 56 58 58 58 58 58 57 58 57 60 60 62 67 68 71 74 81 78 79 82 85 84 83 83 85 87 89 92 92 92 93 94 96 95 94 98 95 96 97 99 103 -209 123 127 125 -193 117 116 115 110 109 109 114 -193 119 122 123 123 124 125 125 125 125 129 133 134 -193 -209 -193 -209 -193 148 148 149 151 152 -209 154 155 156 160 163 164 163 165 165 167 170 171 172 173 173 175 175 178 181 185 188 190 191 191 196 198 198 198 196 202 204 204 206 204 201 0 0 0 0 0
    0 0 0 0 0 0 0 0 0 0 0 0 0 0 0 0 0 0 0 0 0 0 0 0 0 0 0 0 0 0 0 0 0 0 0 0 0 0 0 0 0 0 0 0 0 0 0 0 0 0 0 0 0 0 0 0 0 0 0 0 0 0 0 0 0 0 0 0 0 55 54 53 53 54 53 51 52 52 49 48 49 49 45 46 47 47 45 47 46 46 44 44 43 42 42 41 40 39 39 38 38 38 38 37 37 38 39 39 41 42 43 43 45 48 45 47 46 44 47 45 45 43 42 42 -193 36 22 21 16 15 15 15 14 12 12 13 13 13 14 11 10 11 11 11 11 10 11 10 10 12 11 13 13 16 15 15 15 19 17 18 19 18 16 19 17 17 16 16 16 14 15 14 11 13 11 11 11 10 9 0 11 11 10 13 22 34 33 33 35 35 36 38 38 38 38 40 43 46 46 51 54 56 57 56 57 57 57 58 58 57 58 57 60 59 60 62 62 68 73 82 78 79 82 85 83 82 82 84 86 89 92 92 92 94 95 97 96 95 99 96 96 98 98 103 -209 122 126 125 -209 116 115 114 110 110 110 116 120 121 122 124 124 125 125 125 125 125 128 132 133 -209 -209 -193 -209 -193 -193 -193 -193 151 152 152 154 155 156 160 163 164 163 165 165 167 171 171 172 173 174 176 175 178 181 185 188 191 191 192 196 198 198 198 -193 202 204 204 206 204 202 0 0 0 0 0
    0 0 0 0 0 0 0 0 0 0 0 0 0 0 0 0 0 0 0 0 0 0 0 0 0 0 0 0 0 0 0 0 0 0 0 0 0 0 0 0 0 0 0 0 0 0 0 0 0 0 0 0 0 0 0 0 0 0 0 0 0 0 0 0 0 0 0 0 0 55 54 53 53 54 53 51 51 52 49 48 49 48 46 46 47 48 46 48 47 47 46 46 45 42 43 42 41 41 40 40 38 39 38 37 38 38 39 40 42 43 44 44 46 48 46 49 48 46 49 46 46 44 44 44 42 40 32 25 20 18 17 18 16 14 14 14 15 14 17 13 11 12 13 12 12 11 12 11 11 13 11 12 12 15 15 14 15 18 16 17 19 17 16 18 17 17 15 15 16 14 15 14 11 12 12 12 11 10 10 9 12 14 13 22 24 34 34 33 34 35 36 38 38 39 39 41 43 46 46 51 54 55 57 55 57 57 58 58 58 57 58 57 60 58 58 58 58 59 70 79 76 77 82 85 83 81 81 84 87 89 92 93 92 94 96 98 97 95 100 98 97 100 98 -193 -209 -209 -193 -209 -209 115 115 115 114 113 113 117 121 122 123 124 124 125 125 126 126 125 127 131 131 -209 -193 -193 -209 -193 -193 -193 -193 151 152 152 154 154 156 159 162 163 162 164 165 166 171 171 171 173 173 175 175 177 181 184 188 191 192 192 196 199 199 199 -193 202 203 204 205 205 202 0 0 0 0 0
    0 0 0 0 0 0 0 0 0 0 0 0 0 0 0 0 0 0 0 0 0 0 0 0 0 0 0 0 0 0 0 0 0 0 0 0 0 0 0 0 0 0 0 0 0 0 0 0 0 0 0 0 0 0 0 0 0 0 0 0 0 0 0 0 0 0 0 0 0 55 54 53 53 53 53 51 50 51 48 48 48 48 46 46 47 48 46 49 49 48 47 48 47 44 44 44 42 42 41 41 38 38 38 37 37 38 39 40 41 42 42 43 45 47 46 50 49 47 50 47 47 46 45 45 43 41 39 30 24 20 20 20 18 15 15 16 17 15 19 14 12 14 14 13 13 12 13 11 12 14 11 11 12 14 15 13 14 17 16 17 20 18 17 19 18 18 16 16 17 14 15 14 11 13 12 12 12 10 10 10 13 18 17 26 28 33 34 34 35 35 36 39 39 40 40 41 43 46 46 50 53 54 56 54 -193 57 57 58 58 56 57 57 59 57 58 57 57 57 67 74 75 76 81 84 82 81 81 84 87 89 92 93 92 95 97 98 97 96 100 98 97 100 99 -193 -193 -209 -193 -209 113 116 117 118 117 118 118 119 123 124 124 126 125 127 126 127 127 127 129 132 131 -209 93 -193 -209 -193 -193 -193 -193 152 153 152 155 154 156 159 162 164 163 165 166 167 172 171 172 173 173 175 175 177 180 184 189 192 192 193 197 199 199 199 -193 202 203 204 204 207 202 0 0 0 0 0
    0 0 0 0 0 0 0 0 0 0 0 0 0 0 0 0 0 0 0 0 0 0 0 0 0 0 0 0 0 0 0 0 0 0 0 0 0 0 0 0 0 0 0 0 0 0 0 0 0 0 0 0 0 0 0 0 0 0 0 0 0 0 0 0 0 0 0 0 0 54 53 52 53 53 52 51 49 51 48 48 48 48 47 47 48 49 47 50 50 50 49 50 49 45 46 45 43 43 42 41 38 38 38 36 37 37 38 39 41 41 42 42 44 46 46 50 49 47 50 47 47 46 45 45 43 42 41 35 30 24 24 23 23 20 19 19 20 18 21 16 14 16 16 14 14 12 14 12 13 14 12 12 12 15 16 13 15 18 17 17 20 18 18 20 19 18 17 16 18 14 15 14 11 13 12 11 12 10 9 10 14 20 21 27 28 32 34 34 35 36 37 39 39 40 41 41 44 46 46 50 54 54 56 54 56 57 57 58 58 56 57 57 60 58 58 57 56 56 61 70 73 74 80 84 82 81 81 85 88 89 91 93 92 94 97 97 97 95 99 98 95 99 99 -193 -209 -209 -209 118 112 117 118 119 119 120 121 121 124 125 126 129 127 128 127 128 128 129 130 133 133 138 -193 -193 -193 150 -193 -193 -193 152 154 153 155 154 156 158 163 165 165 167 168 168 174 172 173 173 173 174 174 177 180 183 189 193 193 193 197 199 199 199 198 201 203 -193 -193 208 203 0 0 0 0 0
    0 0 0 0 0 0 0 0 0 0 0 0 0 0 0 0 0 0 0 0 0 0 0 0 0 0 0 0 0 0 0 0 0 0 0 0 0 0 0 0 0 0 0 0 0 0 0 0 0 0 0 0 0 0 0 0 0 0 0 0 0 0 0 0 0 0 0 0 0 54 53 52 53 52 52 51 48 50 48 48 48 48 47 48 48 50 48 51 51 51 50 51 50 46 47 46 44 43 43 42 38 38 38 35 36 36 37 38 40 41 42 42 45 47 48 50 50 47 50 47 48 46 45 44 43 42 40 36 33 28 26 26 25 22 21 21 21 18 21 16 14 17 16 15 14 13 15 12 14 14 13 13 14 16 17 14 16 19 19 19 20 19 19 20 19 19 17 17 18 15 16 15 12 14 13 12 13 11 11 12 15 21 22 28 28 30 34 34 35 37 38 39 40 41 42 42 44 47 47 50 54 54 56 54 56 57 57 57 58 56 57 57 59 57 58 58 57 57 60 66 70 72 79 83 81 80 81 85 87 88 90 92 92 94 97 97 96 95 99 97 93 98 99 93 98 104 104 113 111 116 118 119 119 121 122 122 124 126 127 130 128 130 128 128 129 131 132 -193 -193 139 -193 147 -193 150 -193 150 -209 -193 155 154 156 155 157 157 161 164 165 167 167 168 174 172 173 173 173 174 174 177 180 183 190 194 194 194 197 199 199 199 198 201 203 -193 -193 -193 203 0 0 0 0 0
    0 0 0 0 0 0 0 0 0 0 0 0 0 0 0 0 0 0 0 0 0 0 0 0 0 0 0 0 0 0 0 0 0 0 0 0 0 0 0 0 0 0 0 0 0 0 0 0 0 0 0 0 0 0 0 0 0 0 0 0 0 0 0 0 0 0 0 0 0 53 53 52 52 52 51 51 47 49 47 47 48 48 48 48 48 50 49 51 52 51 51 51 50 46 47 45 44 43 42 41 39 39 38 36 36 35 37 38 40 40 40 41 44 47 48 50 51 48 51 49 49 46 45 45 44 42 41 37 35 32 31 31 28 25 24 24 23 20 21 17 14 17 17 15 14 13 15 13 14 15 14 14 15 18 18 15 18 20 20 20 20 19 19 20 20 19 18 18 18 16 16 16 12 15 14 13 14 11 12 14 17 21 23 28 28 28 34 34 35 37 39 40 41 42 42 42 44 48 47 50 55 55 56 55 57 57 57 58 58 56 57 57 59 56 58 59 58 57 61 65 70 72 77 81 79 78 80 85 87 87 89 91 92 93 97 97 96 95 98 97 94 98 99 94 98 104 105 113 114 118 118 119 119 120 120 121 123 125 125 130 129 131 129 129 131 133 135 -193 -193 141 -193 148 150 150 -193 150 -209 -193 155 154 156 156 158 157 161 164 165 168 168 169 174 172 173 173 173 174 174 177 180 183 190 193 193 194 197 199 199 199 198 201 203 204 -193 -193 203 0 0 0 0 0
    0 0 0 0 0 0 0 0 0 0 0 0 0 0 0 0 0 0 0 0 0 0 0 0 0 0 0 0 0 0 0 0 0 0 0 0 0 0 0 0 0 0 0 0 0 0 0 0 0 0 0 0 0 0 0 0 0 0 0 0 0 0 0 0 0 0 0 0 0 52 53 51 52 51 50 51 47 49 47 47 48 48 48 49 49 51 49 52 52 52 51 52 50 45 47 46 44 43 42 41 39 40 39 37 37 36 38 39 40 40 40 41 46 48 50 51 51 49 52 50 50 47 46 45 45 43 42 38 37 34 34 33 29 26 -193 25 24 22 22 19 15 19 18 17 16 15 16 15 16 16 15 15 16 19 19 16 18 19 20 20 20 19 18 20 20 20 19 19 19 18 18 18 15 17 16 15 14 12 12 14 14 16 21 25 26 26 32 33 34 36 38 39 40 41 42 41 43 47 47 50 -193 55 57 56 58 58 57 58 59 56 57 57 58 53 57 59 59 59 63 65 69 71 75 80 78 77 80 85 86 87 88 91 91 93 96 96 95 95 97 97 94 98 99 94 97 104 106 113 113 117 117 117 118 119 119 119 121 124 124 130 131 132 131 131 133 135 137 -193 -193 142 -193 149 150 150 -193 150 -193 -193 155 155 157 156 158 158 161 164 165 168 168 169 174 172 173 173 174 174 175 177 180 182 190 193 193 193 197 199 199 199 199 201 204 205 205 211 204 0 0 0 0 0
    0 0 0 0 0 0 0 0 0 0 0 0 0 0 0 0 0 0 0 0 0 0 0 0 0 0 0 0 0 0 0 0 0 0 0 0 0 0 0 0 0 0 0 0 0 0 0 0 0 0 0 0 0 0 0 0 0 0 0 0 0 0 0 0 0 0 0 0 0 51 52 50 51 50 48 51 47 49 47 47 47 48 48 49 49 50 48 52 52 52 52 52 50 45 47 48 45 44 44 42 41 43 44 43 41 43 45 45 45 44 43 44 48 49 50 50 51 49 52 50 49 47 46 45 45 43 42 39 37 35 34 32 27 25 23 23 23 22 22 21 18 21 20 19 19 19 19 17 18 17 17 18 18 20 20 16 19 19 20 20 20 20 19 20 21 20 20 19 19 19 18 19 17 18 17 16 16 14 13 15 14 14 20 24 25 25 29 33 34 36 38 38 40 41 42 42 43 46 46 49 -193 56 57 57 59 58 58 59 59 57 57 57 58 51 57 59 59 59 64 67 70 71 75 79 78 78 81 85 85 87 88 89 90 92 96 96 94 95 97 97 95 97 98 94 94 100 104 109 110 113 113 114 114 116 116 117 119 123 123 130 131 131 132 132 134 136 137 139 140 142 146 148 149 150 -193 151 153 154 156 156 157 158 160 158 161 163 165 166 166 168 173 172 173 173 173 174 175 177 180 182 191 193 193 193 196 199 199 199 199 201 204 205 205 211 204 0 0 0 0 0
    0 0 0 0 0 0 0 0 0 0 0 0 0 0 0 0 0 0 0 0 0 0 0 0 0 0 0 0 0 0 0 0 0 0 0 0 0 0 0 0 0 0 0 0 0 0 0 0 0 0 0 0 0 0 0 0 0 0 0 0 0 0 0 0 0 0 0 0 0 49 50 48 49 48 47 50 46 48 47 47 47 47 48 49 49 51 49 52 53 53 53 52 51 47 47 51 48 47 48 44 49 48 52 50 48 51 48 49 48 46 47 45 48 50 50 51 52 51 53 50 50 48 47 46 46 44 43 39 38 36 34 32 27 25 23 23 23 22 21 21 18 22 20 19 19 19 19 18 18 18 19 19 20 20 20 17 20 19 21 21 20 20 19 20 21 20 21 19 19 19 18 20 18 18 17 16 17 15 14 15 14 13 20 24 24 25 28 32 35 36 38 38 41 42 42 43 43 45 46 49 -193 56 58 59 60 59 59 59 59 57 58 58 57 51 58 60 60 62 68 69 70 71 73 79 76 76 81 85 85 86 87 88 89 92 97 97 93 96 97 98 96 98 98 93 94 98 104 108 109 112 112 113 114 116 116 117 120 123 123 128 131 131 133 133 135 137 138 140 141 143 145 148 148 150 -193 151 153 154 156 157 158 158 160 157 159 161 164 164 163 167 173 172 173 173 174 173 176 177 180 182 192 192 192 192 196 199 199 199 199 200 203 205 205 211 205 0 0 0 0 0
    0 0 0 0 0 0 0 0 0 0 0 0 0 0 0 0 0 0 0 0 0 0 0 0 0 0 0 0 0 0 0 0 0 0 0 0 0 0 0 0 0 0 0 0 0 0 0 0 0 0 0 0 0 0 0 0 0 0 0 0 0 0 0 0 0 0 0 0 0 48 49 46 46 47 46 49 45 48 46 46 47 47 49 50 50 52 50 53 53 54 54 52 51 48 47 50 50 52 53 51 55 52 55 52 52 54 52 52 52 51 51 48 51 51 51 53 53 52 54 51 51 50 48 47 46 44 43 40 39 37 35 32 26 25 23 23 23 22 21 21 18 22 20 18 19 19 19 18 19 19 20 20 21 21 21 18 20 20 21 21 20 21 19 20 21 21 21 19 19 20 18 20 19 19 17 16 18 16 14 15 14 14 20 24 23 24 26 30 34 36 38 39 41 42 43 44 44 45 46 49 56 56 58 60 60 59 59 59 59 57 58 58 57 52 58 60 60 65 70 70 72 72 75 80 77 77 81 86 85 86 87 87 89 91 95 95 91 94 95 96 96 97 97 94 94 97 102 106 106 108 109 110 113 115 117 118 121 124 124 129 132 131 133 133 135 137 138 140 140 143 144 147 147 149 -193 151 153 154 155 156 156 157 158 156 158 160 164 165 162 167 174 172 173 173 173 172 175 176 179 181 192 192 192 192 196 199 199 199 199 199 203 205 205 211 205 0 0 0 0 0
    0 0 0 0 0 0 0 0 0 0 0 0 0 0 0 0 0 0 0 0 0 0 0 0 0 0 0 0 0 0 0 0 0 0 0 0 0 0 0 0 0 0 0 0 0 0 0 0 0 0 0 0 0 0 0 0 0 0 0 0 0 0 0 0 0 0 0 0 0 48 48 46 46 46 46 47 44 47 46 46 46 46 49 50 50 53 52 53 54 55 55 52 51 49 47 49 51 52 53 53 56 55 55 53 53 54 52 53 53 53 52 50 53 53 53 55 54 52 53 51 51 51 49 47 45 45 43 40 39 37 36 32 25 25 23 23 23 21 19 20 18 23 21 20 19 19 19 18 19 19 21 21 22 21 21 18 21 20 21 21 21 21 20 21 22 21 22 20 20 21 19 21 20 19 18 15 18 16 14 14 14 13 20 23 22 23 26 29 35 36 39 39 42 42 43 44 44 44 45 48 56 55 57 60 59 59 58 59 59 57 58 58 56 54 58 61 61 65 68 68 70 70 72 79 76 77 82 86 85 86 87 87 88 91 93 94 90 93 95 95 97 97 97 94 93 96 102 103 104 103 104 106 107 113 116 118 122 127 125 132 134 133 134 134 136 138 138 140 141 142 143 147 147 149 -193 151 153 154 155 156 156 157 157 155 156 158 163 164 161 167 174 172 172 172 172 172 175 176 178 181 191 190 0 -193 196 199 -193 200 200 200 203 205 205 211 205 0 0 0 0 0
    0 0 0 0 0 0 0 0 0 0 0 0 0 0 0 0 0 0 0 0 0 0 0 0 0 0 0 0 0 0 0 0 0 0 0 0 0 0 0 0 0 0 0 0 0 0 0 0 0 0 0 0 0 0 0 0 0 0 0 0 0 0 0 0 0 0 0 0 0 48 48 46 45 46 46 46 44 47 46 46 46 46 50 51 51 53 53 54 55 55 55 51 49 48 46 46 49 51 52 50 56 56 55 53 54 54 53 53 54 54 53 52 54 53 55 55 54 53 53 51 52 51 49 48 46 45 44 41 39 36 35 32 25 25 23 23 23 21 19 20 17 23 22 21 20 19 20 19 20 20 21 21 22 22 21 19 21 20 21 21 21 21 20 20 21 20 22 20 19 21 19 21 20 20 19 15 18 16 15 15 14 14 20 23 22 22 24 28 34 34 38 39 42 42 43 44 44 44 45 48 55 53 56 59 58 58 57 58 58 56 58 58 55 56 59 63 62 66 68 67 69 69 71 78 76 78 83 86 85 86 87 87 87 90 92 93 90 93 94 95 98 97 97 96 93 98 102 102 101 100 102 104 104 108 113 116 122 124 124 128 134 134 135 134 136 139 139 141 141 142 142 146 146 149 -193 150 152 -193 154 156 156 157 157 156 157 159 163 165 162 167 173 172 172 172 171 172 174 175 178 181 190 189 -193 190 195 199 -193 200 200 200 204 205 205 211 204 0 0 0 0 0
    0 0 0 0 0 0 0 0 0 0 0 0 0 0 0 0 0 0 0 0 0 0 0 0 0 0 0 0 0 0 0 0 0 0 0 0 0 0 0 0 0 0 0 0 0 0 0 0 0 0 0 0 0 0 0 0 0 0 0 0 0 0 0 0 0 0 0 0 0 48 48 46 45 46 47 46 45 47 46 46 46 46 50 52 52 53 53 53 54 55 54 50 47 48 46 47 50 51 51 50 55 56 55 53 54 54 53 54 54 54 53 53 54 54 55 55 54 53 53 51 52 51 49 48 46 45 43 41 40 36 34 31 24 24 22 22 23 21 19 21 17 25 23 22 21 21 21 20 21 21 21 22 23 22 21 20 22 20 21 21 20 21 20 20 21 20 22 20 20 21 19 22 21 20 19 16 18 17 16 16 15 14 20 23 22 22 24 26 32 32 37 38 41 42 43 44 44 44 45 48 55 52 55 59 57 57 56 57 57 55 57 57 54 57 60 64 62 67 68 68 69 70 71 77 76 78 83 86 86 87 87 87 88 91 93 94 90 93 94 95 99 98 98 97 94 100 104 103 102 101 102 105 105 107 110 112 117 119 120 123 128 132 136 135 137 138 140 139 140 140 140 143 143 147 -193 148 151 -193 153 155 155 156 156 155 157 158 159 162 159 165 170 170 170 170 170 172 174 175 178 181 189 188 188 189 195 199 -193 201 201 201 204 206 206 211 204 0 0 0 0 0
    0 0 0 0 0 0 0 0 0 0 0 0 0 0 0 0 0 0 0 0 0 0 0 0 0 0 0 0 0 0 0 0 0 0 0 0 0 0 0 0 0 0 0 0 0 0 0 0 0 0 0 0 0 0 0 0 0 0 0 0 0 0 0 0 0 0 0 0 0 47 46 45 45 46 47 45 45 47 45 46 45 45 50 52 52 52 51 52 53 53 53 49 46 46 46 47 49 50 51 49 54 55 55 53 55 54 53 54 54 53 53 53 54 53 55 55 54 53 53 51 52 51 49 48 46 45 43 41 40 37 35 32 24 24 23 23 24 22 20 22 19 26 25 24 23 21 22 21 22 22 21 22 23 22 21 19 22 19 20 20 19 21 19 20 21 20 23 21 20 22 20 23 22 21 20 16 19 18 15 16 15 14 20 23 21 23 24 26 32 31 36 37 41 42 42 44 44 44 45 48 55 52 54 58 55 55 55 56 56 54 57 57 53 57 60 63 62 67 68 68 70 71 72 78 77 78 84 86 86 87 87 87 88 91 93 94 91 94 95 95 99 99 99 98 95 102 106 105 104 103 104 106 106 109 111 113 117 119 121 123 128 133 138 138 138 138 139 138 139 138 138 138 139 139 140 140 144 147 148 151 151 152 152 154 156 159 158 162 159 164 168 169 169 168 169 172 174 175 178 181 187 187 187 188 194 199 201 201 201 201 204 206 206 211 204 0 0 0 0 0
    0 0 0 0 0 0 0 0 0 0 0 0 0 0 0 0 0 0 0 0 0 0 0 0 0 0 0 0 0 0 0 0 0 0 0 0 0 0 0 0 0 0 0 0 0 0 0 0 0 0 0 0 0 0 0 0 0 0 0 0 0 0 0 0 0 0 0 0 0 46 45 45 44 46 47 45 45 47 46 46 46 46 51 52 53 53 51 51 52 53 53 49 47 47 46 47 49 50 50 49 54 55 55 53 55 54 53 54 54 54 54 53 54 53 55 54 53 53 52 51 52 50 49 48 46 44 43 42 41 37 35 31 23 23 22 22 23 22 20 23 21 27 26 26 25 23 24 23 24 24 22 22 24 23 22 20 22 18 20 20 19 21 19 19 20 19 23 20 20 22 19 22 22 21 20 17 19 18 16 16 16 14 20 23 21 23 24 26 32 30 35 35 40 41 42 44 44 44 45 47 54 51 53 56 54 54 54 55 55 54 57 56 53 58 60 63 61 66 68 69 70 72 72 79 77 79 84 86 85 87 87 87 88 91 92 94 91 94 95 94 98 99 99 99 96 104 107 106 106 104 105 107 108 111 114 116 120 121 122 124 128 133 138 138 138 138 137 137 138 136 137 137 137 136 137 138 140 141 141 141 146 149 149 153 155 158 158 160 159 163 166 167 168 168 169 173 175 176 178 181 186 186 186 187 193 199 202 202 202 202 204 206 206 210 204 0 0 0 0 0
    0 0 0 0 0 0 0 0 0 0 0 0 0 0 0 0 0 0 0 0 0 0 0 0 0 0 0 0 0 0 0 0 0 0 0 0 0 0 0 0 0 0 0 0 0 0 0 0 0 0 0 0 0 0 0 0 0 0 0 0 0 0 0 0 0 0 0 0 0 46 44 45 44 47 48 45 46 48 48 48 47 47 51 52 53 53 51 51 52 53 53 50 48 48 47 49 50 49 50 49 53 54 54 53 55 55 54 54 55 54 54 53 55 53 54 53 52 53 51 50 51 50 50 48 46 44 43 42 41 38 35 30 23 23 22 21 23 22 21 24 23 28 28 28 27 25 26 25 25 25 23 23 26 25 23 22 24 19 21 20 20 21 20 20 20 19 23 19 19 21 18 21 21 20 19 16 20 19 17 18 17 16 22 24 22 23 25 27 34 32 36 36 40 41 42 44 44 44 45 47 53 51 52 55 53 53 54 55 55 54 56 56 54 59 61 63 61 67 68 70 71 73 73 79 77 80 84 86 85 86 87 86 87 90 92 94 91 94 95 94 98 98 98 97 95 103 106 105 104 104 105 109 110 114 116 117 119 119 121 123 -193 130 -209 -193 140 138 136 136 137 136 136 136 136 136 138 138 140 141 141 143 146 150 150 154 156 157 157 159 157 161 164 165 166 167 169 176 176 177 178 180 184 185 185 186 191 200 203 202 202 202 204 205 205 209 204 0 0 0 0 0
    0 0 0 0 0 0 0 0 0 0 0 0 0 0 0 0 0 0 0 0 0 0 0 0 0 0 0 0 0 0 0 0 0 0 0 0 0 0 0 0 0 0 0 0 0 0 0 0 0 0 0 0 0 0 0 0 0 0 0 0 0 0 0 0 0 0 0 0 0 46 44 45 44 47 48 45 48 49 49 50 49 49 52 53 54 53 51 52 52 53 54 50 49 49 48 50 50 49 49 48 52 53 54 53 55 54 54 55 55 54 54 54 55 54 55 53 52 54 52 51 52 51 50 48 46 44 43 42 41 38 35 31 24 24 23 22 25 23 22 25 24 30 30 30 29 26 28 27 26 26 -225 -225 -225 -225 23 22 24 19 21 19 21 22 20 20 20 18 22 18 20 20 17 19 20 19 19 16 21 20 18 19 19 18 22 25 23 24 25 27 35 33 37 37 41 41 42 44 45 45 45 46 53 51 52 55 52 52 54 55 55 54 56 55 54 59 62 64 61 67 68 69 71 73 73 78 78 80 84 85 85 86 87 86 87 90 92 94 91 95 95 94 97 98 96 96 96 104 105 105 104 104 106 109 111 115 116 118 119 119 121 122 -193 127 135 136 140 -193 -193 136 138 -193 138 138 137 136 138 138 140 142 141 144 147 152 151 154 156 157 157 159 157 162 164 167 167 168 171 178 176 177 178 179 183 183 184 185 189 200 204 203 203 202 204 205 205 208 203 0 0 0 0 0
    0 0 0 0 0 0 0 0 0 0 0 0 0 0 0 0 0 0 0 0 0 0 0 0 0 0 0 0 0 0 0 0 0 0 0 0 0 0 0 0 0 0 0 0 0 0 0 0 0 0 0 0 0 0 0 0 0 0 0 0 0 0 0 0 0 0 0 0 0 47 44 46 44 47 48 45 48 50 49 51 50 50 53 53 54 53 52 52 53 53 54 50 49 50 49 50 50 50 50 48 51 53 53 53 55 54 54 56 55 55 54 55 56 55 57 54 52 54 52 52 53 51 50 47 46 45 43 42 41 37 34 31 24 24 23 22 25 24 23 26 25 33 35 35 34 31 31 31 29 -225 -225 -225 -225 -225 -225 -225 -225 -225 21 19 20 22 21 21 20 19 23 18 21 21 18 20 20 20 20 16 21 -225 -225 -225 -225 21 23 26 23 26 26 28 34 33 37 38 40 41 42 44 45 45 45 46 52 52 52 55 52 52 53 55 55 54 55 55 54 59 63 64 62 67 68 70 71 73 73 78 78 81 84 85 86 87 87 87 87 91 93 97 93 97 96 95 97 97 94 95 94 105 106 106 103 104 104 108 110 114 115 117 118 118 120 122 122 127 131 134 137 136 135 135 136 136 136 136 135 134 136 136 139 140 141 144 148 153 151 154 156 157 157 159 160 163 164 166 167 167 172 179 177 178 178 179 181 181 182 184 187 200 206 203 204 203 204 204 204 207 204 0 0 0 0 0
    0 0 0 0 0 0 0 0 0 0 0 0 0 0 0 0 0 0 0 0 0 0 0 0 0 0 0 0 0 0 0 0 0 0 0 0 0 0 0 0 0 0 0 0 0 0 0 0 0 0 0 0 0 0 0 0 0 0 0 0 0 0 0 0 0 0 0 0 0 51 45 48 45 49 50 45 49 50 49 51 51 51 53 53 54 53 52 53 53 53 53 50 50 50 49 50 51 49 49 47 49 52 50 52 55 52 53 55 55 54 54 55 55 54 57 54 52 54 52 52 52 51 50 47 46 45 43 43 41 36 32 29 24 24 24 22 27 26 26 30 31 38 38 38 38 36 33 34 31 -225 -225 -225 -225 -225 -225 -225 -225 -225 -225 -225 -225 23 22 22 22 21 24 22 23 -193 -225 -225 -225 -225 -225 -225 -225 -225 -225 -225 -225 -225 -225 -225 23 30 29 32 37 34 36 38 39 40 41 42 44 44 45 45 52 52 53 55 52 52 54 55 55 55 55 55 54 59 63 64 62 67 68 70 71 73 74 78 79 82 84 85 85 86 87 87 88 91 93 98 95 97 97 95 97 96 93 94 -193 -209 105 105 105 105 105 107 109 111 113 116 118 117 120 121 122 126 128 132 134 134 132 133 134 134 133 134 134 133 135 135 139 143 145 149 151 155 153 155 156 157 157 159 159 162 161 165 166 168 175 181 179 180 180 180 180 180 181 182 185 200 209 204 204 204 204 205 205 206 204 0 0 0 0 0
    0 0 0 0 0 0 0 0 0 0 0 0 0 0 0 0 0 0 0 0 0 0 0 0 0 0 0 0 0 0 0 0 0 0 0 0 0 0 0 0 0 0 0 0 0 0 0 0 0 0 0 0 0 0 0 0 0 0 0 0 0 0 0 0 0 0 0 0 0 55 48 51 48 51 51 46 50 50 49 51 51 51 53 53 54 53 52 53 53 53 53 49 50 50 49 51 51 49 49 47 48 49 49 52 56 52 53 55 54 54 53 54 54 53 57 53 51 54 52 52 52 50 49 46 46 45 44 43 42 37 33 30 25 26 25 25 31 34 35 37 38 41 39 39 39 38 35 35 33 -225 -225 -225 -225 -225 -225 -225 -225 -225 -225 -225 -225 -225 -225 -225 -225 -225 -225 -225 -225 -225 -225 -225 -225 -225 -225 -225 -225 -225 -225 -225 -225 -225 -225 -225 -225 35 30 35 37 35 36 38 39 40 40 42 44 45 45 46 53 54 54 56 53 53 54 56 56 56 55 55 55 59 63 64 61 67 68 70 71 74 76 79 80 83 83 85 85 86 87 87 88 91 93 99 97 98 98 97 97 96 94 95 -193 -209 105 105 104 105 105 108 110 111 112 115 116 116 118 120 121 125 125 130 132 132 130 131 133 132 131 133 134 134 136 137 146 150 150 154 154 159 156 157 158 159 158 160 159 162 161 165 167 169 180 183 180 181 181 181 181 181 181 181 184 200 210 205 205 205 205 205 205 206 206 0 0 0 0 0
    0 0 0 0 0 0 0 0 0 0 0 0 0 0 0 0 0 0 0 0 0 0 0 0 0 0 0 0 0 0 0 0 0 0 0 0 0 0 0 0 0 0 0 0 0 0 0 0 0 0 0 0 0 0 0 0 0 0 0 0 0 0 0 0 0 0 0 0 0 55 49 52 50 52 52 47 50 51 50 51 51 51 53 52 53 52 51 52 52 52 53 50 51 52 51 52 52 51 50 49 50 48 48 51 55 52 54 55 54 53 54 54 55 54 57 53 52 54 53 53 52 51 50 47 47 46 45 44 42 39 37 33 28 31 32 33 37 39 40 42 42 43 41 41 41 40 38 36 -225 -225 -225 -225 -225 -225 -225 -225 -225 -225 -225 -225 -225 -225 -225 -225 -225 -225 -225 -225 -225 -225 -225 -225 -225 -225 -225 -225 -225 -225 -225 -225 -225 -225 -225 -225 -225 -225 35 39 40 39 39 40 40 41 41 42 44 44 45 47 53 55 55 57 53 53 55 57 56 56 55 56 56 60 63 63 61 66 67 70 72 75 78 80 81 83 83 84 85 86 87 87 88 92 93 99 98 98 98 97 98 97 96 96 91 95 -193 105 104 106 106 108 110 110 111 115 115 116 117 119 121 125 124 128 130 130 127 131 133 133 133 135 137 137 141 143 149 150 152 154 155 160 157 158 160 160 159 161 159 162 160 165 168 170 181 -193 181 182 182 181 181 182 181 181 184 200 211 204 204 204 204 204 204 205 207 0 0 0 0 0
    0 0 0 0 0 0 0 0 0 0 0 0 0 0 0 0 0 0 0 0 0 0 0 0 0 0 0 0 0 0 0 0 0 0 0 0 0 0 0 0 0 0 0 0 0 0 0 0 0 0 0 0 0 0 0 0 0 0 0 0 0 0 0 0 0 0 0 0 0 54 48 51 50 52 52 47 51 51 50 52 51 51 53 52 53 52 51 52 52 52 53 49 52 52 51 53 53 51 51 50 51 49 48 51 55 52 54 55 54 53 54 55 55 54 57 54 53 55 54 53 53 51 50 47 47 47 46 45 43 42 40 36 33 36 38 40 42 43 44 44 44 44 43 43 42 41 40 -225 -225 -225 -225 -225 -225 -225 -225 -225 -225 -225 -225 -225 -225 -225 -225 -225 -225 -225 -225 -225 -225 -225 -225 -225 -225 -225 -225 -225 -225 -225 -225 -225 -225 -225 -225 -225 -225 -225 -225 41 45 43 40 44 44 44 43 43 45 44 46 47 53 56 57 57 54 54 56 58 57 57 56 57 57 60 63 63 61 66 67 70 72 74 78 81 83 85 83 85 86 86 87 87 88 91 93 100 99 99 99 99 99 99 98 99 93 101 103 106 106 107 107 107 109 107 108 111 114 115 115 115 120 123 122 127 128 127 126 129 132 132 131 134 135 136 139 144 -193 -209 -193 -193 157 162 159 159 160 160 159 160 158 161 158 165 168 170 181 183 181 181 181 181 182 182 182 181 184 199 211 204 204 204 204 204 204 205 208 0 0 0 0 0
    0 0 0 0 0 0 0 0 0 0 0 0 0 0 0 0 0 0 0 0 0 0 0 0 0 0 0 0 0 0 0 0 0 0 0 0 0 0 0 0 0 0 0 0 0 0 0 0 0 0 0 0 0 0 0 0 0 0 0 0 0 0 0 0 0 0 0 0 0 53 50 52 51 52 53 48 52 52 50 52 51 52 53 52 53 52 51 53 53 53 53 50 53 53 52 53 53 51 51 50 52 50 48 50 55 52 54 55 54 54 54 55 55 55 58 55 54 55 55 54 53 52 51 47 47 47 46 45 43 42 40 34 36 38 41 43 44 45 45 45 44 44 44 43 42 42 41 -225 -225 -225 -225 -225 -225 -225 -225 -225 -225 -225 -225 -225 -225 -225 -225 -225 -225 -225 -225 -225 -225 -225 -225 -225 -225 -225 -225 -225 -225 -225 -225 -225 -225 -225 -225 -225 -225 -225 -225 -225 -225 47 43 49 47 46 45 45 47 45 47 49 53 57 57 58 56 56 57 59 58 58 57 58 58 61 64 64 62 67 68 70 71 74 77 79 83 85 83 85 86 86 87 87 89 91 92 100 99 100 100 100 100 100 99 100 95 102 102 105 104 107 107 106 108 106 108 109 112 115 112 110 116 121 121 125 124 124 123 125 126 128 126 129 131 133 -193 -209 -209 -209 -209 -193 -193 -193 158 159 160 159 159 160 158 163 161 168 170 173 181 182 181 181 181 181 182 182 182 180 184 199 212 204 204 204 204 205 205 205 210 0 0 0 0 0
    0 0 0 0 0 0 0 0 0 0 0 0 0 0 0 0 0 0 0 0 0 0 0 0 0 0 0 0 0 0 0 0 0 0 0 0 0 0 0 0 0 0 0 0 0 0 0 0 0 0 0 0 0 0 0 0 0 0 0 0 0 0 0 0 0 0 0 0 0 53 51 52 52 52 54 50 53 53 51 52 52 52 54 52 53 52 51 53 53 53 54 49 54 54 53 54 54 52 51 51 53 51 48 50 55 52 54 55 54 53 54 55 55 55 58 57 56 57 57 56 54 54 52 48 49 49 49 47 45 46 43 40 38 41 46 47 46 46 46 46 45 45 45 43 43 42 -225 -225 -225 -225 -225 -225 -225 -225 -225 -225 -225 -225 -225 -225 -225 -225 -225 -225 -225 -225 -225 -225 -225 -225 -225 -225 -225 -225 -225 -225 -225 -225 -225 -225 -225 -225 -225 -225 -225 -225 -225 -225 -225 49 45 51 50 49 48 47 50 47 49 50 53 57 57 58 56 56 57 59 59 59 58 59 58 62 65 65 63 67 68 69 71 73 75 78 83 85 83 85 86 86 87 88 89 91 92 99 99 99 99 100 100 99 99 100 96 101 101 105 104 106 106 106 107 106 108 109 110 113 111 111 116 121 121 124 123 122 122 123 124 125 125 128 129 132 134 -209 -209 -209 -209 -193 -193 -193 -209 158 158 158 160 161 160 166 -193 171 174 176 182 182 181 181 181 181 182 182 182 181 184 198 212 204 204 205 205 205 205 205 211 0 0 0 0 0
    0 0 0 0 0 0 0 0 0 0 0 0 0 0 0 0 0 0 0 0 0 0 0 0 0 0 0 0 0 0 0 0 0 0 0 0 0 0 0 0 0 0 0 0 0 0 0 0 0 0 0 0 0 0 0 0 0 0 0 0 0 0 0 0 0 0 0 0 0 54 52 52 52 53 56 52 54 53 51 52 52 52 54 52 53 52 52 53 53 0 -256 -1 -20499 53 53 54 54 52 50 49 52 51 48 50 54 51 53 54 53 53 54 55 55 55 59 58 57 58 59 58 56 56 54 50 50 50 50 48 46 46 41 43 46 54 54 52 51 50 49 48 47 47 45 44 44 -225 -225 -225 -225 -225 -225 -225 -225 -225 -225 -225 -225 -225 -225 -225 -225 -225 -225 -225 -225 -225 -225 -225 -225 -225 -225 -225 -225 -225 -225 -225 -225 -225 -225 -225 -225 -225 -225 -225 -225 -225 -225 -225 -225 -225 48 53 52 51 50 48 51 47 51 51 53 57 57 58 56 56 58 60 59 59 58 59 59 62 65 65 63 66 68 68 69 71 74 78 82 84 83 84 86 86 87 87 89 91 92 99 98 99 99 100 100 99 99 99 96 101 101 104 104 106 106 106 107 106 107 109 111 114 112 111 115 120 121 123 123 121 120 122 123 124 122 125 126 129 130 133 -209 -209 -193 101 -193 -193 -209 157 158 158 161 163 164 -193 172 173 177 176 181 182 181 181 182 181 182 183 183 182 184 198 213 204 204 205 205 206 206 206 211 0 0 0 0 0
    0 0 0 0 0 0 0 0 0 0 0 0 0 0 0 0 0 0 0 0 0 0 0 0 0 0 0 0 0 0 0 0 0 0 0 0 0 0 0 0 0 0 0 0 0 0 0 0 0 0 0 0 0 0 0 0 0 0 0 0 0 0 0 0 0 0 0 0 0 53 52 52 53 52 57 52 54 54 50 52 53 52 54 51 52 52 52 53 53 52 52 48 52 52 50 51 52 50 50 45 51 50 47 49 54 50 52 53 53 53 54 55 55 55 59 59 58 60 60 59 57 56 55 53 52 52 52 50 47 51 53 55 54 56 56 54 53 52 51 50 49 48 46 45 -225 -225 -225 -225 -225 -225 -225 -225 -225 -225 -225 -225 -225 -225 -225 -225 -225 -225 -225 -225 -225 -225 -225 -225 -225 -225 -225 -225 -225 -225 -225 -225 -225 -225 -225 -225 -225 -225 -225 -225 -225 -225 -225 -225 -225 -225 50 53 53 52 51 49 52 49 52 53 55 57 58 58 57 57 58 60 59 59 59 60 59 63 65 65 63 66 68 68 70 72 74 78 82 83 82 84 85 86 86 87 89 91 92 99 98 98 98 100 100 100 99 100 97 100 102 104 104 106 107 107 107 106 107 109 111 113 111 114 117 121 122 123 122 120 120 121 121 121 121 124 126 129 129 131 130 130 -193 -209 -209 -209 -209 155 154 154 159 164 167 170 172 174 177 177 181 181 181 181 182 181 183 183 183 182 184 197 -193 204 204 205 206 207 207 207 212 0 0 0 0 0
    0 0 0 0 0 0 0 0 0 0 0 0 0 0 0 0 0 0 0 0 0 0 0 0 0 0 0 0 0 0 0 0 0 0 0 0 0 0 0 0 0 0 0 0 0 0 0 0 0 0 0 0 0 0 0 0 0 0 0 0 0 0 0 0 0 0 0 0 0 53 53 52 54 52 58 54 54 55 51 52 52 52 53 50 51 52 51 53 53 52 52 48 52 53 49 49 48 42 -193 39 51 50 48 51 55 51 53 53 53 52 54 55 55 55 58 58 58 59 60 58 55 55 54 53 52 51 51 48 44 57 63 60 59 60 58 56 55 54 52 51 50 49 46 -225 -225 -225 -225 -225 -225 -225 -225 -225 -225 -225 -225 -225 -225 -225 -225 -225 -225 -225 -225 -225 -225 -225 -225 -225 -225 -225 -225 -225 -225 -225 -225 -225 -225 -225 -225 -225 -225 -225 -225 -225 -225 -225 -225 -225 -225 -225 50 53 53 52 51 49 52 50 54 55 56 57 58 59 58 58 58 60 59 59 59 60 60 63 65 65 64 67 68 68 70 72 74 77 81 82 81 83 85 86 86 87 89 90 92 97 98 98 98 99 100 100 100 100 98 100 101 105 105 108 108 109 109 108 109 111 111 113 110 113 117 122 123 124 123 121 120 121 121 120 120 123 124 126 127 131 128 128 130 -209 -209 -209 147 153 151 152 159 164 168 171 173 175 178 177 181 180 180 180 181 180 182 182 182 181 184 196 -193 204 203 205 206 207 207 207 212 0 0 0 0 0
    0 0 0 0 0 0 0 0 0 0 0 0 0 0 0 0 0 0 0 0 0 0 0 0 0 0 0 0 0 0 0 0 0 0 0 0 0 0 0 0 0 0 0 0 0 0 0 0 0 0 0 0 0 0 0 0 0 0 0 0 0 0 0 0 0 0 0 0 0 53 53 52 56 56 60 57 57 57 54 53 52 51 53 48 47 49 50 53 55 54 55 54 55 56 55 54 53 44 47 39 47 49 48 52 55 52 54 53 53 53 54 56 56 56 58 58 59 60 60 58 57 56 56 55 54 55 53 50 57 67 66 62 62 63 60 58 56 54 53 52 51 49 46 -225 -225 -225 -225 -225 -225 -225 -225 -225 -225 -225 -225 -225 -225 -225 -225 -225 -225 -225 -225 -225 -225 -225 -225 -225 -225 -225 -225 -225 -225 -225 -225 -225 -225 -225 -225 -225 -225 -225 -225 -225 -225 -225 -225 -225 -225 -225 50 53 53 52 51 49 52 52 55 55 57 58 58 59 59 59 59 60 60 59 60 61 60 64 65 65 64 67 68 67 69 71 73 76 80 82 81 83 85 86 86 87 88 90 91 96 98 97 97 99 100 100 100 100 98 99 101 104 105 108 108 109 109 108 110 112 112 114 111 113 118 122 124 126 125 123 123 123 125 122 122 125 125 127 128 132 127 126 129 126 127 -209 140 148 146 150 156 162 166 170 173 175 178 177 181 179 179 179 181 180 182 182 182 180 184 195 -193 -193 203 205 206 207 207 207 212 0 0 0 0 0
    0 0 0 0 0 0 0 0 0 0 0 0 0 0 0 0 0 0 0 0 0 0 0 0 0 0 0 0 0 0 0 0 0 0 0 0 0 0 0 0 0 0 0 0 0 0 0 0 0 0 0 0 0 0 0 0 0 0 0 0 0 0 0 0 0 0 0 0 0 54 53 52 56 -193 59 59 59 57 56 57 55 53 52 49 44 48 52 56 58 57 58 57 57 57 57 56 55 46 53 36 39 47 46 52 55 54 56 54 55 55 57 59 59 59 61 61 60 61 61 60 59 59 60 58 58 60 58 61 68 68 67 64 63 64 61 59 57 55 54 52 51 50 -225 -225 -225 -225 -225 -225 -225 -225 -225 -225 -225 -225 -225 -225 -225 -225 -225 -225 -225 -225 -225 -225 -225 -225 -225 -225 -225 -225 -225 -225 -225 -225 -225 -225 -225 -225 -225 -225 -225 -225 -225 -225 -225 -225 -225 -225 -225 -225 49 53 53 52 52 50 52 52 55 56 57 58 58 59 59 60 60 61 60 59 61 62 61 64 65 65 65 67 69 68 70 71 72 75 79 81 80 82 85 86 86 87 88 90 91 95 97 96 96 98 99 99 99 100 99 99 101 104 105 107 108 108 109 108 110 113 114 116 115 116 119 123 126 130 129 126 125 125 127 125 125 127 125 126 126 130 127 126 128 128 129 133 137 140 139 144 150 155 163 168 171 173 177 177 181 178 178 178 180 179 181 181 182 180 184 194 -209 -193 202 205 206 207 207 207 212 0 0 0 0 0
    0 0 0 0 0 0 0 0 0 0 0 0 0 0 0 0 0 0 0 0 0 0 0 0 0 0 0 0 0 0 0 0 0 0 0 0 0 0 0 0 0 0 0 0 0 0 0 0 0 0 0 0 0 0 0 0 0 0 0 0 0 0 0 0 0 0 0 0 0 63 58 56 58 58 59 58 58 56 55 57 55 54 52 48 39 46 53 57 61 58 58 58 58 58 57 57 57 49 57 28 33 -209 -193 51 54 54 56 54 55 56 57 59 61 62 64 64 60 61 61 61 61 61 61 59 59 67 69 71 71 69 68 65 65 65 63 59 58 57 55 54 53 52 -225 -225 -225 -225 -225 -225 -225 -225 -225 -225 -225 -225 -225 -225 -225 -225 -225 -225 -225 -225 -225 -225 -225 -225 -225 -225 -225 -225 -225 -225 -225 -225 -225 -225 -225 -225 -225 -225 -225 -225 -225 -225 -225 -225 -225 -225 -225 -225 48 53 53 52 52 50 53 53 56 57 58 58 58 59 60 60 60 61 61 60 61 62 62 64 65 65 65 68 70 69 71 72 72 75 78 79 79 80 84 86 86 87 88 90 91 94 97 96 96 98 99 100 100 100 100 100 102 105 106 108 109 109 109 109 111 114 115 116 116 117 121 125 128 131 131 128 127 126 127 125 125 126 124 124 124 125 125 125 127 127 126 131 136 139 139 142 143 152 158 165 169 171 174 174 180 177 177 177 180 179 181 181 181 180 184 193 -209 -193 202 205 206 208 208 208 212 0 0 0 0 0
    0 0 0 0 0 0 0 0 0 0 0 0 0 0 0 0 0 0 0 0 0 0 0 0 0 0 0 0 0 0 0 0 0 0 0 0 0 0 0 0 0 0 0 0 0 0 0 0 0 0 0 0 0 0 0 0 0 0 0 0 0 0 0 0 0 0 0 0 0 70 68 63 63 62 62 58 57 56 56 57 56 55 56 54 45 52 57 58 62 59 59 58 58 58 58 57 57 50 57 -209 34 -209 -209 -209 -209 -209 -193 -193 56 58 59 60 63 64 67 67 63 66 64 65 64 65 67 62 63 70 70 72 72 70 69 67 67 67 63 60 59 58 57 55 54 -225 -225 -225 -225 -225 -225 -225 -225 -225 -225 -225 -225 -225 -225 -225 -225 -225 -225 -225 -225 -225 -225 -225 -225 -225 -225 -225 -225 -225 -225 -225 -225 -225 -225 -225 -225 -225 -225 -225 -225 -225 -225 -225 -225 -225 -225 -225 -225 -225 48 52 53 52 52 50 53 54 57 57 58 58 59 59 60 61 61 62 63 61 62 63 63 65 66 65 66 67 69 69 72 73 73 75 76 77 77 78 82 84 85 87 88 90 91 93 96 95 95 97 99 100 100 100 100 100 102 105 106 108 109 110 110 110 112 115 115 116 116 119 123 126 130 133 133 130 129 127 129 126 127 131 129 131 132 133 134 134 135 136 132 134 136 137 138 141 139 149 -209 162 169 171 173 174 180 177 177 177 180 179 181 181 181 179 184 193 -209 -193 203 205 206 208 208 208 211 0 0 0 0 0
    0 0 0 0 0 0 0 0 0 0 0 0 0 0 0 0 0 0 0 0 0 0 0 0 0 0 0 0 0 0 0 0 0 0 0 0 0 0 0 0 0 0 0 0 0 0 0 0 0 0 0 0 0 0 0 0 0 0 0 0 0 0 0 0 0 0 0 0 0 72 72 68 64 61 61 59 57 57 58 59 59 58 59 58 -193 55 59 60 63 59 59 59 58 58 58 57 57 51 57 -193 -193 -209 -209 -209 -209 -209 61 -193 57 59 60 60 63 64 66 67 66 68 66 66 66 67 70 67 68 69 69 71 71 70 69 67 67 66 62 61 60 58 57 56 -225 -225 -225 -225 -225 -225 -225 -225 -225 -225 -225 -225 -225 -225 -225 -225 -225 -225 -225 -225 -225 -225 -225 -225 -225 -225 -225 -225 -225 -225 -225 -225 -225 -225 -225 -225 -225 -225 -225 -225 -225 -225 -225 -225 -225 -225 -225 -225 -225 -225 -225 51 53 51 50 48 53 54 57 58 59 59 59 59 60 61 61 62 64 62 63 64 64 66 66 65 66 66 68 69 72 73 73 75 76 77 76 78 81 83 85 86 88 89 91 92 95 95 95 96 98 100 100 100 100 99 102 105 106 109 109 110 111 112 114 116 116 117 117 120 124 126 130 132 134 132 131 131 132 131 132 135 134 135 135 136 136 136 137 138 135 137 137 137 139 142 142 151 156 157 164 169 171 172 180 176 176 177 179 179 181 181 182 180 185 194 -209 -193 202 204 205 207 207 207 210 0 0 0 0 0
    0 0 0 0 0 0 0 0 0 0 0 0 0 0 0 0 0 0 0 0 0 0 0 0 0 0 0 0 0 0 0 0 0 0 0 0 0 0 0 0 0 0 0 0 0 0 0 0 0 0 0 0 0 0 0 0 0 0 0 0 0 0 0 0 0 0 0 0 0 71 70 66 65 62 61 59 57 56 58 60 59 59 60 59 60 56 60 61 65 60 60 59 59 59 59 57 58 53 58 58 -193 63 -209 60 62 61 61 61 58 60 59 60 64 63 67 69 68 70 68 69 69 69 73 71 69 70 70 71 71 70 69 68 67 66 64 63 62 61 59 -225 -225 -225 -225 -225 -225 -225 -225 -225 -225 -225 -225 -225 -225 -225 -225 -225 -225 -225 -225 -225 -225 -225 -225 -225 -225 -225 -225 -225 -225 -225 -225 -225 -225 -225 -225 -225 -225 -225 -225 -225 -225 -225 -225 -225 -225 -225 -225 -225 -225 -225 -225 -225 50 45 45 44 51 55 59 59 60 60 60 60 62 64 64 64 67 65 66 66 65 66 66 64 66 65 67 68 71 73 74 75 76 77 77 78 81 83 84 86 88 89 91 93 96 95 96 97 99 100 100 101 101 99 104 106 107 112 112 113 113 115 115 118 118 119 119 121 126 127 130 133 133 132 132 132 134 133 133 137 137 138 139 138 139 138 138 140 138 138 139 138 140 146 152 154 156 157 159 166 169 170 178 174 175 176 178 179 181 181 181 180 185 194 -193 -193 201 203 204 205 205 205 209 0 0 0 0 0
    0 0 0 0 0 0 0 0 0 0 0 0 0 0 0 0 0 0 0 0 0 0 0 0 0 0 0 0 0 0 0 0 0 0 0 0 0 0 0 0 0 0 0 0 0 0 0 0 0 0 0 0 0 0 0 0 0 0 0 0 0 0 0 0 0 0 0 0 0 71 69 67 66 64 61 59 57 56 57 59 59 59 59 60 -193 55 60 61 66 60 60 59 59 59 60 58 59 55 59 60 61 66 66 61 64 64 63 64 59 61 60 61 66 65 70 72 71 72 71 72 72 72 75 73 71 71 71 72 72 71 70 68 67 66 65 64 62 61 -225 -225 -225 -225 -225 -225 -225 -225 -225 -225 -225 -225 -225 -225 -225 -225 -225 -225 -225 -225 -225 -225 -225 -225 -225 -225 -225 -225 -225 -225 -225 -225 -225 -225 -225 -225 -225 -225 -225 -225 -225 -225 -225 -225 -225 -225 -225 -225 -225 -225 -225 -225 -225 -225 -225 -225 43 43 51 59 61 61 62 62 61 62 65 66 65 65 68 66 67 68 67 67 67 65 66 65 68 69 71 73 74 75 77 79 78 79 81 84 85 86 89 90 92 93 97 96 97 98 100 101 101 102 102 99 104 106 107 112 112 114 115 116 117 118 119 120 121 122 128 129 131 133 133 133 133 133 134 133 134 137 137 139 141 140 141 140 141 142 140 140 140 138 141 145 151 154 156 156 158 163 166 169 177 173 173 175 177 178 180 181 181 179 186 193 199 -193 201 202 204 205 205 205 207 0 0 0 0 0
    0 0 0 0 0 0 0 0 0 0 0 0 0 0 0 0 0 0 0 0 0 0 0 0 0 0 0 0 0 0 0 0 0 0 0 0 0 0 0 0 0 0 0 0 0 0 0 0 0 0 0 0 0 0 0 0 0 0 0 0 0 0 0 0 0 0 0 0 0 70 69 68 68 66 63 60 58 57 58 60 60 60 62 64 -209 57 62 63 69 62 62 61 60 61 62 60 60 -193 60 -193 62 67 66 62 65 65 64 67 62 65 62 64 68 68 72 74 72 72 71 73 73 74 76 74 73 72 73 74 74 73 71 68 67 67 67 66 -225 -225 -225 -225 -225 -225 -225 -225 -225 -225 -225 -225 -225 -225 -225 -225 -225 -225 -225 -225 -225 -225 -225 -225 -225 -225 -225 -225 -225 -225 -225 -225 -225 -225 -225 -225 -225 -225 -225 -225 -225 -225 -225 -225 -225 -225 -225 -225 -225 -225 -225 -225 -225 -225 -225 -225 -225 -225 -225 -225 50 58 61 60 61 61 61 62 66 66 66 66 69 68 68 70 68 68 69 68 68 67 69 70 71 73 74 75 77 79 79 80 82 84 86 87 89 91 92 93 98 97 97 98 100 101 102 102 102 100 103 106 107 112 112 114 115 117 117 118 119 120 120 122 127 129 131 133 134 134 134 133 134 134 134 137 138 139 142 141 142 141 141 143 141 141 141 138 143 149 153 155 157 157 157 159 161 167 176 172 172 175 177 178 180 181 181 179 186 193 199 200 201 202 204 205 205 205 207 0 0 0 0 0
    0 0 0 0 0 0 0 0 0 0 0 0 0 0 0 0 0 0 0 0 0 0 0 0 0 0 0 0 0 0 0 0 0 0 0 0 0 0 0 0 0 0 0 0 0 0 0 0 0 0 0 0 0 0 0 0 0 0 0 0 0 0 0 0 0 0 0 0 0 70 69 69 69 66 63 61 58 57 58 60 60 63 67 67 -209 63 65 64 69 64 64 62 62 62 63 62 63 58 61 -193 63 67 67 64 66 66 66 68 65 67 64 67 70 70 73 75 74 73 72 74 75 75 77 75 74 73 74 75 74 73 70 69 68 68 68 -225 -225 -225 -225 -225 -225 -225 -225 -225 -225 -225 -225 -225 -225 -225 -225 -225 -225 -225 -225 -225 -225 -225 -225 -225 -225 -225 -225 -225 -225 -225 -225 -225 -225 -225 -225 -225 -225 -225 -225 -225 -225 -225 -225 -225 -225 -225 -225 -225 -225 -225 -225 -225 -225 -225 -225 -225 -225 -225 -225 -225 -225 56 62 61 62 62 61 62 67 67 67 67 70 68 69 70 69 69 70 69 69 67 70 70 71 73 73 74 76 79 80 81 83 85 87 88 90 92 93 94 98 98 99 98 101 101 102 103 103 100 102 104 105 110 111 113 115 116 117 119 119 120 121 122 126 127 130 133 133 133 133 133 134 133 133 137 138 140 143 142 143 142 143 144 143 142 143 140 148 152 155 156 158 157 158 158 158 166 173 170 171 174 176 179 181 182 182 181 186 193 199 200 202 202 204 205 205 205 206 0 0 0 0 0
    0 0 0 0 0 0 0 0 0 0 0 0 0 0 0 0 0 0 0 0 0 0 0 0 0 0 0 0 0 0 0 0 0 0 0 0 0 0 0 0 0 0 0 0 0 0 0 0 0 0 0 0 0 0 0 0 0 0 0 0 0 0 0 0 0 0 0 0 0 70 68 68 68 65 61 60 56 55 57 -209 -209 67 70 71 -209 70 68 67 69 67 66 66 65 65 65 66 66 61 64 67 66 68 68 66 68 68 68 70 69 70 68 70 72 71 74 76 76 74 75 76 77 77 78 76 75 74 75 75 74 72 71 70 69 69 -225 -225 -225 -225 -225 -225 -225 -225 -225 -225 -225 -225 -225 -225 -225 -225 -225 -225 -225 -225 -225 -225 -225 -225 -225 -225 -225 -225 -225 -225 -225 -225 -225 -225 -225 -225 -225 -225 -225 -225 -225 -225 -225 -225 -225 -225 -225 -225 -225 -225 -225 -225 -225 -225 -225 -225 -225 -225 -225 -225 -225 -225 -225 -225 -225 -225 61 60 63 64 69 68 68 69 71 69 70 71 70 70 71 71 72 70 74 73 73 75 76 75 77 79 81 80 81 85 87 88 91 92 94 95 99 99 99 99 101 102 103 103 103 102 104 105 106 109 111 113 114 116 117 119 119 121 -209 122 126 126 130 131 132 132 132 131 133 132 133 135 138 139 143 142 144 143 144 146 145 144 147 145 152 154 156 158 159 158 159 159 159 166 172 170 171 174 176 179 182 182 183 182 187 195 199 201 202 202 203 204 205 205 205 0 0 0 0 0
    0 0 0 0 0 0 0 0 0 0 0 0 0 0 0 0 0 0 0 0 0 0 0 0 0 0 0 0 0 0 0 0 0 0 0 0 0 0 0 0 0 0 0 0 0 0 0 0 0 0 0 0 0 0 0 0 0 0 0 0 0 0 0 0 0 0 0 0 0 69 68 68 68 66 62 60 56 57 58 -209 -209 -209 74 74 -209 71 70 70 71 70 70 71 70 71 71 72 71 70 68 69 68 69 69 67 69 69 69 71 72 73 72 72 74 73 76 77 78 77 76 77 79 78 79 78 77 76 75 75 74 73 72 70 69 -225 -225 -225 -225 -225 -225 -225 -225 -225 -225 -225 -225 -225 -225 -225 -225 -225 -225 -225 -225 -225 -225 -225 -225 -225 -225 -225 -225 -225 -225 -225 -225 -225 -225 -225 -225 -225 -225 -225 -225 -225 -225 -225 -225 -225 -225 -225 -225 -225 -225 -225 -225 -225 -225 -225 -225 -225 -225 -225 -225 -225 -225 -225 -225 -225 -225 -225 -225 -225 65 -209 72 72 71 71 74 71 72 72 72 72 73 73 73 72 76 75 76 77 78 77 78 80 81 80 81 84 87 88 92 94 94 96 100 99 100 99 101 102 103 104 104 -209 106 108 108 112 112 113 114 116 116 118 119 120 -193 122 125 125 129 130 131 131 131 131 132 131 132 134 -193 139 143 142 144 143 145 147 147 147 150 151 154 157 159 160 160 160 162 161 161 166 169 170 170 173 174 179 182 183 183 184 188 196 200 200 202 202 203 204 204 204 204 0 0 0 0 0
    0 0 0 0 0 0 0 0 0 0 0 0 0 0 0 0 0 0 0 0 0 0 0 0 0 0 0 0 0 0 0 0 0 0 0 0 0 0 0 0 0 0 0 0 0 0 0 0 0 0 0 0 0 0 0 0 0 0 0 0 0 0 0 0 0 0 0 0 0 70 69 71 71 68 64 62 59 59 62 -209 -209 -209 -193 74 -209 71 71 71 71 72 72 73 73 74 74 76 -193 74 68 -193 68 68 68 68 69 70 70 72 73 74 73 74 76 74 77 78 80 78 77 78 79 79 79 79 78 75 75 75 74 74 72 70 -225 -225 -225 -225 -225 -225 -225 -225 -225 -225 -225 -225 -225 -225 -225 -225 -225 -225 -225 -225 -225 -225 -225 -225 -225 -225 -225 -225 -225 -225 -225 -225 -225 -225 -225 -225 -225 -225 -225 -225 -225 -225 -225 -225 -225 -225 -225 -225 -225 -225 -225 -225 -225 -225 -225 -225 -225 -225 -225 -225 -225 -225 -225 -225 -225 -225 -225 -225 -225 -225 -225 77 74 78 73 74 79 75 75 74 74 73 74 74 74 73 75 75 76 77 78 77 78 80 81 79 81 83 88 89 92 94 95 97 100 100 101 100 101 102 104 105 -209 -209 -209 110 110 113 113 113 114 116 116 118 118 120 120 121 124 125 129 130 131 132 131 131 132 131 132 134 137 140 144 143 145 144 146 147 147 148 151 152 155 159 160 162 161 161 163 162 162 165 168 168 169 172 172 177 182 184 184 185 189 195 199 200 201 201 202 203 203 203 203 0 0 0 0 0
    0 0 0 0 0 0 0 0 0 0 0 0 0 0 0 0 0 0 0 0 0 0 0 0 0 0 0 0 0 0 0 0 0 0 0 0 0 0 0 0 0 0 0 0 0 0 0 0 0 0 0 0 0 0 0 0 0 0 0 0 0 0 0 0 0 0 0 0 0 70 69 71 70 -193 -209 -209 -209 -209 -193 -209 -209 -209 -209 74 -193 71 71 71 71 71 72 72 73 73 75 77 75 75 69 69 69 68 68 68 70 70 70 73 75 76 77 77 78 77 81 82 81 80 79 80 81 81 81 80 78 76 75 75 75 74 -225 -225 -225 -225 -225 -225 -225 -225 -225 -225 -225 -225 -225 -225 -225 -225 -225 -225 -225 -225 -225 -225 -225 -225 -225 -225 -225 -225 -225 -225 -225 -225 -225 -225 -225 -225 -225 -225 -225 -225 -225 -225 -225 -225 -225 -225 -225 -225 -225 -225 -225 -225 -225 -225 -225 -225 -225 -225 -225 -225 -225 -225 -225 -225 -225 -225 -225 -225 -225 -225 -225 -225 -225 -225 74 82 74 76 82 78 77 76 75 75 75 76 75 74 76 76 77 78 80 79 80 81 82 80 82 84 88 89 91 93 95 98 100 100 101 100 101 101 104 104 -209 -209 -193 108 108 111 111 112 114 115 115 117 118 119 120 121 124 125 129 130 131 131 132 132 133 132 133 135 138 141 146 144 145 145 147 148 147 149 151 152 155 159 160 162 162 163 164 164 164 166 168 168 169 171 171 175 181 184 184 185 189 195 199 199 200 200 201 202 202 202 203 0 0 0 0 0
    0 0 0 0 0 0 0 0 0 0 0 0 0 0 0 0 0 0 0 0 0 0 0 0 0 0 0 0 0 0 0 0 0 0 0 0 0 0 0 0 0 0 0 0 0 0 0 0 0 0 0 0 0 0 0 0 0 0 0 0 0 0 0 0 0 0 0 0 0 69 67 69 -209 -193 -177 -209 -209 -209 -209 -209 -209 -209 -193 76 -193 -193 72 72 72 72 73 73 74 75 77 80 76 76 69 -193 68 67 67 67 69 70 71 73 76 78 80 80 80 82 85 85 84 83 83 83 84 84 83 81 79 77 77 76 76 -225 -225 -225 -225 -225 -225 -225 -225 -225 -225 -225 -225 -225 -225 -225 -225 -225 -225 -225 -225 -225 -225 -225 -225 -225 -225 -225 -225 -225 -225 -225 -225 -225 -225 -225 -225 -225 -225 -225 -225 -225 -225 -225 -225 -225 -225 -225 -225 -225 -225 -225 -225 -225 -225 -225 -225 -225 -225 -225 -225 -225 -225 -225 -225 -225 -225 -225 -225 -225 -225 -225 -225 -225 -225 -225 73 84 73 77 83 80 78 78 77 77 76 78 77 75 78 78 79 79 82 81 82 83 84 82 84 85 88 88 91 93 95 99 100 100 100 100 100 100 103 102 103 -209 104 105 106 107 108 109 111 113 114 117 118 119 121 122 124 124 128 128 129 131 131 131 133 132 133 136 140 142 147 145 146 146 147 147 147 148 151 152 155 159 160 162 162 163 164 165 165 166 168 168 169 171 171 174 180 182 184 185 188 194 199 199 200 200 201 202 202 202 203 0 0 0 0 0
    0 0 0 0 0 0 0 0 0 0 0 0 0 0 0 0 0 0 0 0 0 0 0 0 0 0 0 0 0 0 0 0 0 0 0 0 0 0 0 0 0 0 0 0 0 0 0 0 0 0 0 0 0 0 0 0 0 0 0 0 0 0 0 0 0 0 0 0 0 70 69 70 -209 -209 -209 -209 -209 -209 -209 -209 -209 -209 -193 -193 -209 -209 -209 74 73 73 74 74 76 77 79 83 79 78 -193 -209 -193 68 68 69 71 71 72 75 78 81 82 81 83 83 86 86 85 85 85 85 85 85 83 81 80 79 79 78 -225 -225 -225 -225 -225 -225 -225 -225 -225 -225 -225 -225 -225 -225 -225 -225 -225 -225 -225 -225 -225 -225 -225 -225 -225 -225 -225 -225 -225 -225 -225 -225 -225 -225 -225 -225 -225 -225 -225 -225 -225 -225 -225 -225 -225 -225 -225 -225 -225 -225 -225 -225 -225 -225 -225 -225 -225 -225 -225 -225 -225 -225 -225 -225 -225 -225 -225 -225 -225 -225 -225 -225 -225 -225 -225 -225 -225 -225 74 79 85 83 81 80 79 79 78 80 78 77 79 79 80 81 83 82 83 84 85 82 84 85 88 87 90 91 93 96 98 100 99 99 -209 -209 -209 104 -209 -209 105 106 106 107 107 108 109 111 113 116 116 118 119 121 123 124 128 127 128 130 130 130 132 132 134 137 140 143 147 145 146 146 146 147 146 148 150 151 154 159 159 161 161 162 163 164 165 166 167 168 168 170 170 173 178 181 183 185 187 191 198 199 200 200 201 203 203 203 203 0 0 0 0 0
    0 0 0 0 0 0 0 0 0 0 0 0 0 0 0 0 0 0 0 0 0 0 0 0 0 0 0 0 0 0 0 0 0 0 0 0 0 0 0 0 0 0 0 0 0 0 0 0 0 0 0 0 0 0 0 0 0 0 0 0 0 0 0 0 0 0 0 0 0 -193 -193 -209 -209 -209 -209 63 -209 60 -193 -209 -209 -209 -209 -209 -209 -209 -209 75 74 74 75 74 76 78 80 84 80 82 74 -209 -209 -209 70 71 74 72 74 76 79 82 84 84 84 85 87 88 87 87 86 86 86 85 83 82 81 80 79 -225 -225 -225 -225 -225 -225 -225 -225 -225 -225 -225 -225 -225 -225 -225 -225 -225 -225 -225 -225 -225 -225 -225 -225 -225 -225 -225 -225 -225 -225 -225 -225 -225 -225 -225 -225 -225 -225 -225 -225 -225 -225 -225 -225 -225 -225 -225 -225 -225 -225 -225 -225 -225 -225 -225 -225 -225 -225 -225 -225 -225 -225 -225 -225 -225 -225 -225 -225 -225 -225 -225 -225 -225 -225 -225 -225 -225 -225 -225 75 81 86 85 82 82 80 80 79 81 80 79 81 80 82 83 84 85 85 85 85 84 86 86 88 87 88 89 91 94 94 98 98 97 -209 -209 -209 -209 -209 -209 106 107 108 108 108 108 108 109 111 113 114 115 118 120 122 123 127 127 129 131 131 131 133 133 135 138 142 144 148 147 147 147 147 147 146 148 151 152 154 158 159 161 161 161 163 164 165 165 166 167 168 169 169 172 176 -209 182 185 186 190 197 199 199 199 201 202 203 203 203 0 0 0 0 0
    0 0 0 0 0 0 0 0 0 0 0 0 0 0 0 0 0 0 0 0 0 0 0 0 0 0 0 0 0 0 0 0 0 0 0 0 0 0 0 0 0 0 0 0 0 0 0 0 0 0 0 0 0 0 0 0 0 0 0 0 0 0 0 0 0 0 0 0 0 -209 -209 -209 -209 -209 -209 -193 -209 -193 -193 -209 -209 -209 -193 -209 -209 -209 -209 -193 74 74 75 74 76 78 81 86 80 86 -209 -209 -209 -209 71 71 75 73 76 78 82 84 86 86 86 87 89 90 89 89 88 87 87 85 84 83 81 80 -225 -225 -225 -225 -225 -225 -225 -225 -225 -225 -225 -225 -225 -225 -225 -225 -225 -225 -225 -225 -225 -225 -225 -225 -225 -225 -225 -225 -225 -225 -225 -225 -225 -225 -225 -225 -225 -225 -225 -225 -225 -225 -225 -225 -225 -225 -225 -225 -225 -225 -225 -225 -225 -225 -225 -225 -225 -225 -225 -225 -225 -225 -225 -225 -225 -225 -225 -225 -225 -225 -225 -225 -225 -225 -225 -225 -225 -225 -225 -225 76 83 87 87 84 83 82 81 80 82 80 80 82 82 83 84 85 86 87 86 86 84 86 86 87 85 86 87 89 92 92 95 95 96 96 98 -209 -209 -209 -209 106 107 108 108 108 108 108 110 111 113 113 115 118 120 122 123 127 127 129 131 132 132 134 134 135 139 143 145 147 147 147 148 147 148 147 149 152 154 154 158 158 161 161 161 163 164 164 165 165 166 167 167 168 171 -209 -209 183 185 187 190 198 199 199 199 200 202 202 202 202 0 0 0 0 0
    0 0 0 0 0 0 0 0 0 0 0 0 0 0 0 0 0 0 0 0 0 0 0 0 0 0 0 0 0 0 0 0 0 0 0 0 0 0 0 0 0 0 0 0 0 0 0 0 0 0 0 0 0 0 0 0 0 0 0 0 0 0 0 0 0 0 0 0 0 -209 -209 -209 -209 -209 -209 -193 -193 62 68 -209 -209 -209 -193 -209 -209 -193 -209 76 75 74 76 75 78 79 -193 -209 -209 -209 -209 -209 -209 -209 -209 71 76 75 79 82 85 88 89 88 88 89 90 90 89 89 88 87 86 86 86 84 82 -225 -225 -225 -225 -225 -225 -225 -225 -225 -225 -225 -225 -225 -225 -225 -225 -225 -225 -225 -225 -225 -225 -225 -225 -225 -225 -225 -225 -225 -225 -225 -225 -225 -225 -225 -225 -225 -225 -225 -225 -225 -225 -225 -225 -225 -225 -225 -225 -225 -225 -225 -225 -225 -225 -225 -225 -225 -225 -225 -225 -225 -225 -225 -225 -225 -225 -225 -225 -225 -225 -225 -225 -225 -225 -225 -225 -225 -225 -225 -225 -225 -225 84 87 87 84 84 82 81 80 82 81 81 83 83 84 84 86 87 87 86 86 84 87 87 87 86 87 88 90 92 93 94 94 95 96 98 -193 102 102 105 106 108 109 109 109 110 110 111 112 114 113 115 118 120 121 123 127 128 129 132 132 133 134 134 135 138 141 144 147 147 148 148 147 149 148 150 152 154 154 158 158 160 160 160 162 162 163 164 164 166 166 167 168 170 -193 -209 183 185 187 189 197 198 198 198 199 201 201 201 202 0 0 0 0 0
    0 0 0 0 0 0 0 0 0 0 0 0 0 0 0 0 0 0 0 0 0 0 0 0 0 0 0 0 0 0 0 0 0 0 0 0 0 0 0 0 0 0 0 0 0 0 0 0 0 0 0 0 0 0 0 0 0 0 0 0 0 0 0 0 0 0 0 0 0 -209 -209 -209 -209 -209 -209 -193 -193 65 -193 -209 79 77 83 -193 -209 -209 -209 -193 75 75 77 75 78 81 -193 -209 -209 -209 -209 -209 -209 -209 -209 -193 80 81 86 87 88 90 90 90 90 90 91 91 90 90 89 88 88 88 87 -225 -225 -225 -225 -225 -225 -225 -225 -225 -225 -225 -225 -225 -225 -225 -225 -225 -225 -225 -225 -225 -225 -225 -225 -225 -225 -225 -225 -225 -225 -225 -225 -225 -225 -225 -225 -225 -225 -225 -225 -225 -225 -225 -225 -225 -225 -225 -225 -225 -225 -225 -225 -225 -225 -225 -225 -225 -225 -225 -225 -225 -225 -225 -225 -225 -225 -225 -225 -225 -225 -225 -225 -225 -225 -225 -225 -225 -225 -225 -225 -225 -225 -225 -225 85 88 88 85 85 84 83 81 84 82 82 83 83 84 85 87 87 87 87 87 86 88 88 89 88 88 89 90 92 93 94 93 94 95 98 100 102 102 105 106 108 109 108 108 109 110 111 112 113 113 115 117 119 121 122 126 127 128 132 133 134 135 135 136 140 142 144 147 147 147 148 147 148 147 150 152 154 155 158 158 160 159 159 161 161 162 163 163 165 165 166 167 170 174 -209 183 185 186 188 197 198 198 198 199 201 201 201 201 0 0 0 0 0
    0 0 0 0 0 0 0 0 0 0 0 0 0 0 0 0 0 0 0 0 0 0 0 0 0 0 0 0 0 0 0 0 0 0 0 0 0 0 0 0 0 0 0 0 0 0 0 0 0 0 0 0 0 0 0 0 0 0 0 0 0 0 0 0 0 0 0 0 0 -209 -209 -209 -209 -209 -209 -209 -209 -209 -209 -193 84 81 83 83 -209 -209 -193 -193 -193 77 79 78 81 83 86 91 -209 -209 -209 -209 -209 -209 91 -193 84 87 89 91 91 92 91 91 91 91 92 92 90 90 89 89 89 89 -225 -225 -225 -225 -225 -225 -225 -225 -225 -225 -225 -225 -225 -225 -225 -225 -225 -225 -225 -225 -225 -225 -225 -225 -225 -225 -225 -225 -225 -225 -225 -225 -225 -225 -225 -225 -225 -225 -225 -225 -225 -225 -225 -225 -225 -225 -225 -225 -225 -225 -225 -225 -225 -225 -225 -225 -225 -225 -225 -225 -225 -225 -225 -225 -225 -225 -225 -225 -225 -225 -225 -225 -225 -225 -225 -225 -225 -225 -225 -225 -225 -225 -225 -225 -225 -225 89 89 85 85 84 83 81 84 82 83 84 83 85 86 88 89 88 88 88 89 89 90 90 89 89 90 92 94 94 95 95 95 96 99 100 101 100 103 104 106 107 107 107 108 109 109 110 112 113 114 117 119 120 122 126 127 129 132 135 136 137 138 139 142 143 144 146 147 147 147 146 147 146 149 152 154 155 158 158 160 160 159 160 160 162 163 163 165 165 166 167 169 174 -193 184 185 186 188 197 198 198 198 199 201 202 202 202 0 0 0 0 0
    0 0 0 0 0 0 0 0 0 0 0 0 0 0 0 0 0 0 0 0 0 0 0 0 0 0 0 0 0 0 0 0 0 0 0 0 0 0 0 0 0 0 0 0 0 0 0 0 0 0 0 0 0 0 0 0 0 0 0 0 0 0 0 0 0 0 0 0 0 -177 -209 -209 -209 -209 -209 -209 -209 -209 -209 -193 89 89 88 89 88 91 87 87 83 81 82 81 82 -193 82 -209 -209 -209 -209 -209 -209 92 89 89 87 89 91 92 92 93 92 92 92 92 92 92 91 91 91 90 90 -225 -225 -225 -225 -225 -225 -225 -225 -225 -225 -225 -225 -225 -225 -225 -225 -225 -225 -225 -225 -225 -225 -225 -225 -225 -225 -225 -225 -225 -225 -225 -225 -225 -225 -225 -225 -225 -225 -225 -225 -225 -225 -225 -225 -225 -225 -225 -225 -225 -225 -225 -225 -225 -225 -225 -225 -225 -225 -225 -225 -225 -225 -225 -225 -225 -225 -225 -225 -225 -225 -225 -225 -225 -225 -225 -225 -225 -225 -225 -225 -225 -225 -225 -225 -225 -225 -225 -225 -225 84 85 84 84 83 85 84 85 86 86 87 88 90 91 90 90 90 91 91 91 92 90 91 92 93 98 97 97 96 96 97 99 99 100 98 102 103 104 106 106 107 108 109 109 111 112 113 115 118 120 121 123 126 127 129 133 136 137 138 139 140 143 144 144 146 147 146 147 146 147 147 149 152 155 155 158 158 160 160 159 160 160 162 162 162 164 164 165 167 168 173 -193 183 185 186 188 197 199 199 199 200 202 202 202 202 0 0 0 0 0
    0 0 0 0 0 0 0 0 0 0 0 0 0 0 0 0 0 0 0 0 0 0 0 0 0 0 0 0 0 0 0 0 0 0 0 0 0 0 0 0 0 0 0 0 0 0 0 0 0 0 0 0 0 0 0 0 0 0 0 0 0 0 0 0 0 0 0 0 0 -209 -209 -209 -209 -209 -209 -193 -209 -209 -209 91 91 92 91 91 92 94 90 91 87 84 84 83 83 -193 80 -193 -209 -209 -209 90 91 92 90 91 90 91 92 92 93 93 93 93 93 92 92 92 92 91 91 90 -225 -225 -225 -225 -225 -225 -225 -225 -225 -225 -225 -225 -225 -225 -225 -225 -225 -225 -225 -225 -225 -225 -225 -225 -225 -225 -225 -225 -225 -225 -225 -225 -225 -225 -225 -225 -225 -225 -225 -225 -225 -225 -225 -225 -225 -225 -225 -225 -225 -225 -225 -225 -225 -225 -225 -225 -225 -225 -225 -225 -225 -225 -225 -225 -225 -225 -225 -225 -225 -225 -225 -225 -225 -225 -225 -225 -225 -225 -225 -225 -225 -225 -225 -225 -225 -225 -225 -225 -225 -225 -225 86 86 86 84 86 86 87 87 88 89 90 93 92 92 92 91 92 92 92 93 91 92 93 94 99 99 99 97 96 98 100 100 100 99 101 102 105 106 107 107 108 110 111 112 114 114 116 118 120 121 123 125 126 128 133 136 137 138 138 139 142 143 143 146 146 147 148 147 148 149 151 154 156 156 158 158 160 159 159 159 159 160 160 160 162 163 164 166 168 172 -193 182 185 186 187 196 199 200 200 201 202 203 203 203 0 0 0 0 0
    0 0 0 0 0 0 0 0 0 0 0 0 0 0 0 0 0 0 0 0 0 0 0 0 0 0 0 0 0 0 0 0 0 0 0 0 0 0 0 0 0 0 0 0 0 0 0 0 0 0 0 0 0 0 0 0 0 0 0 0 0 0 0 0 0 0 0 0 0 -209 -209 -209 -209 -193 -209 -193 -193 -193 -193 92 92 93 92 92 92 93 91 92 89 86 87 87 86 -193 85 90 -209 96 -209 92 92 94 92 93 93 92 92 92 93 94 93 94 93 92 91 92 91 91 90 -225 -225 -225 -225 -225 -225 -225 -225 -225 -225 -225 -225 -225 -225 -225 -225 -225 -225 -225 -225 -225 -225 -225 -225 -225 -225 -225 -225 -225 -225 -225 -225 -225 -225 -225 -225 -225 -225 -225 -225 -225 -225 -225 -225 -225 -225 -225 -225 -225 -225 -225 -225 -225 -225 -225 -225 -225 -225 -225 -225 -225 -225 -225 -225 -225 -225 -225 -225 -225 -225 -225 -225 -225 -225 -225 -225 -225 -225 -225 -225 -225 -225 -225 -225 -225 -225 -225 -225 -225 -225 -225 -225 -225 87 85 83 87 88 88 89 92 91 92 94 93 93 93 92 93 93 94 94 92 95 96 96 100 100 101 100 100 101 102 102 102 101 103 104 106 107 108 108 109 110 111 112 113 114 116 118 120 121 123 126 127 130 134 137 138 138 138 138 141 142 142 145 146 147 149 148 150 151 152 155 157 157 158 159 160 160 159 160 159 159 159 158 160 161 162 165 167 173 -209 183 185 186 187 196 199 200 201 202 203 204 204 204 0 0 0 0 0
    0 0 0 0 0 0 0 0 0 0 0 0 0 0 0 0 0 0 0 0 0 0 0 0 0 0 0 0 0 0 0 0 0 0 0 0 0 0 0 0 0 0 0 0 0 0 0 0 0 0 0 0 0 0 0 0 0 0 0 0 0 0 0 0 0 0 0 0 0 -209 -193 -209 -209 -209 -209 -193 -193 -193 92 93 92 93 92 91 91 92 90 91 88 87 -193 90 -193 -209 -209 104 -193 105 106 94 93 95 96 97 94 93 93 93 95 95 95 94 93 92 92 92 92 91 -225 -225 -225 -225 -225 -225 -225 -225 -225 -225 -225 -225 -225 -225 -225 -225 -225 -225 -225 -225 -225 -225 -225 -225 -225 -225 -225 -225 -225 -225 -225 -225 -225 -225 -225 -225 -225 -225 -225 -225 -225 -225 -225 -225 -225 -225 -225 -225 -225 -225 -225 -225 -225 -225 -225 -225 -225 -225 -225 -225 -225 -225 -225 -225 -225 -225 -225 -225 -225 -225 -225 -225 -225 -225 -225 -225 -225 -225 -225 -225 -225 -225 -225 -225 -225 -225 -225 -225 -225 -225 -225 -225 -225 -225 -225 79 77 88 92 90 90 92 92 93 94 93 93 93 93 94 94 95 96 94 99 99 99 102 102 101 101 101 102 102 102 102 102 103 105 106 107 108 108 109 110 111 111 113 113 116 118 119 120 123 127 129 132 134 137 138 138 137 138 139 141 141 143 145 148 150 150 151 153 153 156 158 158 159 159 161 160 160 161 160 160 159 159 159 159 160 164 167 175 -209 -193 187 188 189 197 200 201 201 202 203 205 205 205 0 0 0 0 0
    0 0 0 0 0 0 0 0 0 0 0 0 0 0 0 0 0 0 0 0 0 0 0 0 0 0 0 0 0 0 0 0 0 0 0 0 0 0 0 0 0 0 0 0 0 0 0 0 0 0 0 0 0 0 0 0 0 0 0 0 0 0 0 0 0 0 0 0 0 -209 -209 -209 -209 -209 -209 -193 -193 -193 93 94 93 93 93 92 92 92 90 91 89 89 95 95 -209 -209 -209 -193 -193 104 106 97 95 99 99 99 97 95 95 95 97 97 95 94 94 93 92 92 -225 -225 -225 -225 -225 -225 -225 -225 -225 -225 -225 -225 -225 -225 -225 -225 -225 -225 -225 -225 -225 -225 -225 -225 -225 -225 -225 -225 -225 -225 -225 -225 -225 -225 -225 -225 -225 -225 -225 -225 -225 -225 -225 -225 -225 -225 -225 -225 -225 -225 -225 -225 -225 -225 -225 -225 -225 -225 -225 -225 -225 -225 -225 -225 -225 -225 -225 -225 -225 -225 -225 -225 -225 -225 -225 -225 -225 -225 -225 -225 -225 -225 -225 -225 -225 -225 -225 -225 -225 -225 -225 -225 -225 -225 -225 -225 -225 -193 -193 96 97 92 92 94 93 94 97 93 93 94 94 96 95 97 98 96 101 102 101 102 103 102 102 102 103 103 102 102 103 104 105 105 106 106 107 108 110 110 110 112 112 115 117 118 119 122 127 127 130 133 135 136 136 135 136 138 138 138 140 140 143 147 149 151 154 154 157 159 159 159 160 161 161 161 162 160 160 160 160 159 158 161 163 167 177 -193 -193 -193 193 193 198 201 202 202 203 203 205 205 205 0 0 0 0 0
    0 0 0 0 0 0 0 0 0 0 0 0 0 0 0 0 0 0 0 0 0 0 0 0 0 0 0 0 0 0 0 0 0 0 0 0 0 0 0 0 0 0 0 0 0 0 0 0 0 0 0 0 0 0 0 0 0 0 0 0 0 0 0 0 0 0 0 0 0 -209 -209 -209 -209 -209 -209 -193 -193 94 94 94 93 94 93 92 92 93 90 93 92 97 104 -209 -209 -209 -209 106 107 105 106 99 100 101 100 100 99 98 97 97 98 98 95 95 94 93 93 -225 -225 -225 -225 -225 -225 -225 -225 -225 -225 -225 -225 -225 -225 -225 -225 -225 -225 -225 -225 -225 -225 -225 -225 -225 -225 -225 -225 -225 -225 -225 -225 -225 -225 -225 -225 -225 -225 -225 -225 -225 -225 -225 -225 -225 -225 -225 -225 -225 -225 -225 -225 -225 -225 -225 -225 -225 -225 -225 -225 -225 -225 -225 -225 -225 -225 -225 -225 -225 -225 -225 -225 -225 -225 -225 -225 -225 -225 -225 -225 -225 -225 -225 -225 -225 -225 -225 -225 -225 -225 -225 -225 -225 -225 -225 -225 -225 -225 -225 -225 -225 -193 93 92 95 95 96 98 94 95 96 97 99 98 100 102 100 104 104 104 104 104 104 105 103 105 104 104 104 104 105 106 106 107 106 107 107 110 109 109 111 112 114 116 118 120 122 126 127 129 132 133 134 134 134 134 135 136 137 138 139 141 144 147 149 152 153 156 159 159 159 160 162 161 161 162 161 162 162 163 163 163 166 167 168 177 184 -193 -193 192 192 198 201 202 202 203 203 205 205 205 0 0 0 0 0
    0 0 0 0 0 0 0 0 0 0 0 0 0 0 0 0 0 0 0 0 0 0 0 0 0 0 0 0 0 0 0 0 0 0 0 0 0 0 0 0 0 0 0 0 0 0 0 0 0 0 0 0 0 0 0 0 0 0 0 0 0 0 0 0 0 0 0 0 0 -209 -209 -209 -193 -209 -209 -193 94 94 94 95 94 94 94 95 96 98 97 99 100 100 -193 -193 -209 -209 95 101 103 102 105 102 102 102 102 103 102 100 100 98 99 97 96 96 94 93 -225 -225 -225 -225 -225 -225 -225 -225 -225 -225 -225 -225 -225 -225 -225 -225 -225 -225 -225 -225 -225 -225 -225 -225 -225 -225 -225 -225 -225 -225 -225 -225 -225 -225 -225 -225 -225 -225 -225 -225 -225 -225 -225 -225 -225 -225 -225 -225 -225 -225 -225 -225 -225 -225 -225 -225 -225 -225 -225 -225 -225 -225 -225 -225 -225 -225 -225 -225 -225 -225 -225 -225 -225 -225 -225 -225 -225 -225 -225 -225 -225 -225 -225 -225 -225 -225 -225 -225 -225 -225 -225 -225 -225 -225 -225 -225 -225 -225 -225 -225 -225 -225 -225 93 93 98 96 98 100 96 98 99 100 102 101 102 104 103 106 106 106 106 106 106 107 105 106 106 106 106 106 107 107 107 107 106 107 106 108 108 107 109 111 113 116 118 121 122 126 127 129 131 132 133 134 133 134 135 135 136 137 138 140 143 147 149 151 152 155 159 159 159 160 162 162 162 163 163 163 164 165 165 165 167 167 168 177 184 -193 -193 -193 194 198 201 203 203 203 203 205 206 206 0 0 0 0 0
    0 0 0 0 0 0 0 0 0 0 0 0 0 0 0 0 0 0 0 0 0 0 0 0 0 0 0 0 0 0 0 0 0 0 0 0 0 0 0 0 0 0 0 0 0 0 0 0 0 0 0 0 0 0 0 0 0 0 0 0 0 0 0 0 0 0 0 0 0 -193 -209 -209 -193 -209 -209 -209 94 93 93 95 94 95 95 98 99 101 101 102 102 102 -193 -193 -193 102 98 102 105 104 108 106 105 105 105 105 105 103 102 99 99 99 98 96 95 -225 -225 -225 -225 -225 -225 -225 -225 -225 -225 -225 -225 -225 -225 -225 -225 -225 -225 -225 -225 -225 -225 -225 -225 -225 -225 -225 -225 -225 -225 -225 -225 -225 -225 -225 -225 -225 -225 -225 -225 -225 -225 -225 -225 -225 -225 -225 -225 -225 -225 -225 -225 -225 -225 -225 -225 -225 -225 -225 -225 -225 -225 -225 -225 -225 -225 -225 -225 -225 -225 -225 -225 -225 -225 -225 -225 -225 -225 -225 -225 -225 -225 -225 -225 -225 -225 -225 -225 -225 -225 -225 -225 -225 -225 -225 -225 -225 -225 -225 -225 -225 -225 -225 -225 94 93 98 97 99 100 96 99 101 102 103 103 103 105 105 107 108 107 107 107 107 108 106 108 107 108 107 108 109 109 109 109 108 109 107 110 108 108 109 112 115 117 119 122 123 126 128 130 131 131 133 133 133 133 134 134 135 137 137 138 142 146 149 150 152 154 158 159 159 160 163 162 163 164 164 164 164 165 165 165 166 166 167 174 181 -209 -193 -193 194 198 201 204 203 203 203 205 206 206 0 0 0 0 0
    0 0 0 0 0 0 0 0 0 0 0 0 0 0 0 0 0 0 0 0 0 0 0 0 0 0 0 0 0 0 0 0 0 0 0 0 0 0 0 0 0 0 0 0 0 0 0 0 0 0 0 0 0 0 0 0 0 0 0 0 0 0 0 0 0 0 0 0 0 -209 -209 -209 -209 -209 -209 -209 95 94 94 95 96 96 98 -193 101 103 104 103 105 105 -209 -209 106 106 103 105 108 110 110 108 107 107 107 107 107 105 103 100 100 100 99 97 -225 -225 -225 -225 -225 -225 -225 -225 -225 -225 -225 -225 -225 -225 -225 -225 -225 -225 -225 -225 -225 -225 -225 -225 -225 -225 -225 -225 -225 -225 -225 -225 -225 -225 -225 -225 -225 -225 -225 -225 -225 -225 -225 -225 -225 -225 -225 -225 -225 -225 -225 -225 -225 -225 -225 -225 -225 -225 -225 -225 -225 -225 -225 -225 -225 -225 -225 -225 -225 -225 -225 -225 -225 -225 -225 -225 -225 -225 -225 -225 -225 -225 -225 -225 -225 -225 -225 -225 -225 -225 -225 -225 -225 -225 -225 -225 -225 -225 -225 -225 -225 -225 -225 -225 -225 -225 94 98 96 99 101 97 99 102 103 104 104 105 108 108 110 111 110 110 110 110 111 108 109 109 110 108 109 110 110 111 111 109 111 109 112 110 110 110 112 116 118 119 121 123 125 128 129 130 130 131 131 131 131 131 132 133 134 135 136 141 145 149 150 151 153 157 158 158 158 162 162 163 164 163 163 164 164 165 164 165 165 167 173 180 -209 -193 -193 192 198 201 204 203 203 203 206 206 206 0 0 0 0 0
    0 0 0 0 0 0 0 0 0 0 0 0 0 0 0 0 0 0 0 0 0 0 0 0 0 0 0 0 0 0 0 0 0 0 0 0 0 0 0 0 0 0 0 0 0 0 0 0 0 0 0 0 0 0 0 0 0 0 0 0 0 0 0 0 0 0 0 0 0 -209 -209 -209 -209 -209 -209 -209 -193 -193 -193 97 99 99 100 -209 -193 -209 -193 105 108 109 111 115 110 110 106 109 113 113 111 110 108 108 109 109 108 106 104 102 102 101 100 -225 -225 -225 -225 -225 -225 -225 -225 -225 -225 -225 -225 -225 -225 -225 -225 -225 -225 -225 -225 -225 -225 -225 -225 -225 -225 -225 -225 -225 -225 -225 -225 -225 -225 -225 -225 -225 -225 -225 -225 -225 -225 -225 -225 -225 -225 -225 -225 -225 -225 -225 -225 -225 -225 -225 -225 -225 -225 -225 -225 -225 -225 -225 -225 -225 -225 -225 -225 -225 -225 -225 -225 -225 -225 -225 -225 -225 -225 -225 -225 -225 -225 -225 -225 -225 -225 -225 -225 -225 -225 -225 -225 -225 -225 -225 -225 -225 -225 -225 -225 -225 -225 -225 -225 -225 -225 -225 98 98 97 99 102 98 100 102 104 106 105 107 109 109 112 114 113 114 113 114 113 109 110 109 110 109 110 111 111 111 113 112 113 110 113 110 110 110 112 115 115 116 119 122 124 128 128 129 129 130 131 130 130 130 131 133 133 134 -193 139 142 148 148 150 152 155 157 157 157 161 161 162 164 163 164 165 165 165 165 166 166 167 174 181 -209 -193 -193 190 196 200 203 203 203 203 205 206 206 0 0 0 0 0
    0 0 0 0 0 0 0 0 0 0 0 0 0 0 0 0 0 0 0 0 0 0 0 0 0 0 0 0 0 0 0 0 0 0 0 0 0 0 0 0 0 0 0 0 0 0 0 0 0 0 0 0 0 0 0 0 0 0 0 0 0 0 0 0 0 0 0 0 0 -193 -209 -209 -209 -209 -209 -193 -193 -193 -193 98 -209 -193 -209 -209 -209 -209 -209 -209 113 113 114 117 112 111 109 114 114 113 112 112 110 111 111 111 109 107 106 105 103 103 -225 -225 -225 -225 -225 -225 -225 -225 -225 -225 -225 -225 -225 -225 -225 -225 -225 -225 -225 -225 -225 -225 -225 -225 -225 -225 -225 -225 -225 -225 -225 -225 -225 -225 -225 -225 -225 -225 -225 -225 -225 -225 -225 -225 -225 -225 -225 -225 -225 -225 -225 -225 -225 -225 -225 -225 -225 -225 -225 -225 -225 -225 -225 -225 -225 -225 -225 -225 -225 -225 -225 -225 -225 -225 -225 -225 -225 -225 -225 -225 -225 -225 -225 -225 -225 -225 -225 -225 -225 -225 -225 -225 -225 -225 -225 -225 -225 -225 -225 -225 -225 -225 -225 -225 -225 -225 -225 -225 -225 98 96 99 102 100 102 104 105 107 107 108 111 111 114 115 115 115 113 114 113 109 110 108 109 108 109 110 110 111 113 112 114 111 113 110 109 109 111 111 112 114 117 122 126 130 130 130 130 131 132 131 132 132 132 134 135 136 137 139 141 145 145 148 150 154 155 155 156 160 161 162 164 164 165 166 167 166 166 167 167 168 174 180 -209 -193 -193 188 193 199 202 202 202 202 205 206 206 0 0 0 0 0
    0 0 0 0 0 0 0 0 0 0 0 0 0 0 0 0 0 0 0 0 0 0 0 0 0 0 0 0 0 0 0 0 0 0 0 0 0 0 0 0 0 0 0 0 0 0 0 0 0 0 0 0 0 0 0 0 0 0 0 0 0 0 0 0 0 0 0 0 0 -177 -209 -209 -193 -209 -193 398 398 398 398 -209 -209 -209 -209 -209 -209 -193 115 -209 -193 -193 118 120 116 115 116 117 115 114 113 113 111 112 111 110 109 107 106 105 104 -225 -225 -225 -225 -225 -225 -225 -225 -225 -225 -225 -225 -225 -225 -225 -225 -225 -225 -225 -225 -225 -225 -225 -225 -225 -225 -225 -225 -225 -225 -225 -225 -225 -225 -225 -225 -225 -225 -225 -225 -225 -225 -225 -225 -225 -225 -225 -225 -225 -225 -225 -225 -225 -225 -225 -225 -225 -225 -225 -225 -225 -225 -225 -225 -225 -225 -225 -225 -225 -225 -225 -225 -225 -225 -225 -225 -225 -225 -225 -225 -225 -225 -225 -225 -225 -225 -225 -225 -225 -225 -225 -225 -225 -225 -225 -225 -225 -225 -225 -225 -225 -225 -225 -225 -225 -225 -225 -225 -225 -225 -225 96 99 103 101 103 105 106 108 107 108 111 111 114 115 115 117 115 116 116 111 112 110 111 109 110 111 111 112 115 113 115 113 114 111 110 110 111 109 111 114 117 121 125 129 130 130 129 130 132 131 131 132 132 134 135 136 137 139 140 143 143 146 148 152 153 154 155 159 160 162 164 164 165 167 167 167 166 167 167 167 173 179 -209 -193 -193 187 191 198 201 202 202 202 204 205 205 0 0 0 0 0
    0 0 0 0 0 0 0 0 0 0 0 0 0 0 0 0 0 0 0 0 0 0 0 0 0 0 0 0 0 0 0 0 0 0 0 0 0 0 0 0 0 0 0 0 0 0 0 0 0 0 0 0 0 0 0 0 0 0 0 0 0 0 0 0 0 0 0 0 0 -209 -193 -193 -193 -193 -193 399 399 399 400 -209 -209 -193 -209 113 114 115 117 120 120 120 119 121 118 118 117 117 115 115 114 114 112 112 111 110 109 108 107 106 -225 -225 -225 -225 -225 -225 -225 -225 -225 -225 -225 -225 -225 -225 -225 -225 -225 -225 -225 -225 -225 -225 -225 -225 -225 -225 -225 -225 -225 -225 -225 -225 -225 -225 -225 -225 -225 -225 -225 -225 -225 -225 -225 -225 -225 -225 -225 -225 -225 -225 -225 -225 -225 -225 -225 -225 -225 -225 -225 -225 -225 -225 -225 -225 -225 -225 -225 -225 -225 -225 -225 -225 -225 -225 -225 -225 -225 -225 -225 -225 -225 -225 -225 -225 -225 -225 -225 -225 -225 -225 -225 -225 -225 -225 -225 -225 -225 -225 -225 -225 -225 -225 -225 -225 -225 -225 -225 -225 -225 -225 -225 -225 -225 99 104 103 104 107 107 108 107 108 111 112 114 115 116 118 117 118 118 115 115 113 115 112 113 114 114 114 117 115 116 113 114 112 111 111 113 110 112 114 118 121 123 127 128 128 128 129 131 129 130 131 131 133 134 135 137 138 140 142 142 147 149 152 153 154 155 159 160 161 163 163 165 167 167 167 166 167 167 167 172 178 -193 185 185 187 190 198 201 201 201 202 204 204 204 0 0 0 0 0
    0 0 0 0 0 0 0 0 0 0 0 0 0 0 0 0 0 0 0 0 0 0 0 0 0 0 0 0 0 0 0 0 0 0 0 0 0 0 0 0 0 0 0 0 0 0 0 0 0 0 0 0 0 0 0 0 0 0 0 0 0 0 0 0 0 0 0 0 0 -209 -193 404 -193 -193 -193 401 401 402 -193 -209 -209 -209 -209 -209 -209 -193 118 122 120 120 120 121 120 119 119 119 118 117 117 116 114 114 112 112 110 109 108 -225 -225 -225 -225 -225 -225 -225 -225 -225 -225 -225 -225 -225 -225 -225 -225 -225 -225 -225 -225 -225 -225 -225 -225 -225 -225 -225 -225 -225 -225 -225 -225 -225 -225 -225 -225 -225 -225 -225 -225 -225 -225 -225 -225 -225 -225 -225 -225 -225 -225 -225 -225 -225 -225 -225 -225 -225 -225 -225 -225 -225 -225 -225 -225 -225 -225 -225 -225 -225 -225 -225 -225 -225 -225 -225 -225 -225 -225 -225 -225 -225 -225 -225 -225 -225 -225 -225 -225 -225 -225 -225 -225 -225 -225 -225 -225 -225 -225 -225 -225 -225 -225 -225 -225 -225 -225 -225 -225 -225 -225 -225 -225 -225 -225 -225 103 103 104 107 107 108 107 109 111 113 114 116 117 119 119 120 119 117 118 117 118 117 117 117 117 117 118 117 118 115 115 115 114 113 116 115 115 116 118 121 122 126 128 128 128 129 131 130 131 132 132 -209 -209 136 138 139 140 143 144 149 150 152 152 153 154 157 158 159 161 163 165 168 168 168 167 167 168 168 172 177 182 184 185 186 188 197 200 201 201 201 203 204 204 0 0 0 0 0
    0 0 0 0 0 0 0 0 0 0 0 0 0 0 0 0 0 0 0 0 0 0 0 0 0 0 0 0 0 0 0 0 0 0 0 0 0 0 0 0 0 0 0 0 0 0 0 0 0 0 0 0 0 0 0 0 0 0 0 0 0 0 0 0 0 0 0 0 0 -193 -193 -193 -193 -209 -209 -193 -193 -193 -209 -209 -209 -209 -209 -209 -209 -193 119 125 122 121 122 122 121 120 120 120 119 118 118 117 115 114 114 114 112 110 -225 -225 -225 -225 -225 -225 -225 -225 -225 -225 -225 -225 -225 -225 -225 -225 -225 -225 -225 -225 -225 -225 -225 -225 -225 -225 -225 -225 -225 -225 -225 -225 -225 -225 -225 -225 -225 -225 -225 -225 -225 -225 -225 -225 -225 -225 -225 -225 -225 -225 -225 -225 -225 -225 -225 -225 -225 -225 -225 -225 -225 -225 -225 -225 -225 -225 -225 -225 -225 -225 -225 -225 -225 -225 -225 -225 -225 -225 -225 -225 -225 -225 -225 -225 -225 -225 -225 -225 -225 -225 -225 -225 -225 -225 -225 -225 -225 -225 -225 -225 -225 -225 -225 -225 -225 -225 -225 -225 -225 -225 -225 -225 -225 -225 -225 -225 -225 108 105 108 107 109 108 110 112 115 116 116 118 119 120 121 120 119 118 118 119 118 118 117 117 117 117 117 117 116 115 116 115 114 117 116 116 116 118 121 121 124 127 128 129 130 134 -209 134 135 -209 -209 -209 136 138 138 140 143 144 150 151 153 153 154 154 156 156 157 157 160 164 167 168 167 167 167 167 167 171 176 182 185 185 186 188 196 200 200 200 201 203 204 204 0 0 0 0 0
    0 0 0 0 0 0 0 0 0 0 0 0 0 0 0 0 0 0 0 0 0 0 0 0 0 0 0 0 0 0 0 0 0 0 0 0 0 0 0 0 0 0 0 0 0 0 0 0 0 0 0 0 0 0 0 0 0 0 0 0 0 0 0 0 0 0 0 0 0 -209 -209 -209 -209 -193 -209 -193 -193 -209 -209 -209 -209 -209 -209 -209 -193 -193 122 126 125 123 123 122 122 121 122 121 120 119 119 117 117 116 115 115 113 -225 -225 -225 -225 -225 -225 -225 -225 -225 -225 -225 -225 -225 -225 -225 -225 -225 -225 -225 -225 -225 -225 -225 -225 -225 -225 -225 -225 -225 -225 -225 -225 -225 -225 -225 -225 -225 -225 -225 -225 -225 -225 -225 -225 -225 -225 -225 -225 -225 -225 -225 -225 -225 -225 -225 -225 -225 -225 -225 -225 -225 -225 -225 -225 -225 -225 -225 -225 -225 -225 -225 -225 -225 -225 -225 -225 -225 -225 -225 -225 -225 -225 -225 -225 -225 -225 -225 -225 -225 -225 -225 -225 -225 -225 -225 -225 -225 -225 -225 -225 -225 -225 -225 -225 -225 -225 -225 -225 -225 -225 -225 -225 -225 -225 -225 -225 -225 -225 -225 -225 106 104 110 108 110 114 117 118 117 119 120 121 122 121 120 119 119 120 120 121 119 118 118 119 119 119 118 116 116 116 114 116 115 114 113 116 119 119 122 125 127 130 131 134 135 135 136 137 137 138 137 138 138 139 142 144 149 151 153 153 154 155 158 157 159 157 159 163 166 167 167 165 166 166 167 170 176 -193 185 185 186 188 197 200 201 201 201 203 204 204 0 0 0 0 0
    0 0 0 0 0 0 0 0 0 0 0 0 0 0 0 0 0 0 0 0 0 0 0 0 0 0 0 0 0 0 0 0 0 0 0 0 0 0 0 0 0 0 0 0 0 0 0 0 0 0 0 0 0 0 0 0 0 0 0 0 0 0 0 0 0 0 0 0 0 -209 -209 -209 -209 -209 -209 -193 -209 -209 -209 -209 -209 -209 -209 -209 129 -193 125 129 127 126 124 123 123 123 123 122 121 120 119 119 118 117 116 115 -225 -225 -225 -225 -225 -225 -225 -225 -225 -225 -225 -225 -225 -225 -225 -225 -225 -225 -225 -225 -225 -225 -225 -225 -225 -225 -225 -225 -225 -225 -225 -225 -225 -225 -225 -225 -225 -225 -225 -225 -225 -225 -225 -225 -225 -225 -225 -225 -225 -225 -225 -225 -225 -225 -225 -225 -225 -225 -225 -225 -225 -225 -225 -225 -225 -225 -225 -225 -225 -225 -225 -225 -225 -225 -225 -225 -225 -225 -225 -225 -225 -225 -225 -225 -225 -225 -225 -225 -225 -225 -225 -225 -225 -225 -225 -225 -225 -225 -225 -225 -225 -225 -225 -225 -225 -225 -225 -225 -225 -225 -225 -225 -225 -225 -225 -225 -225 -225 -225 -225 -225 -225 102 110 107 111 115 117 118 118 120 119 121 121 121 120 120 121 121 120 121 119 119 119 120 119 119 118 117 117 117 116 116 115 115 114 116 117 119 122 124 128 131 132 135 135 135 136 137 138 138 137 139 139 139 142 144 148 151 153 153 154 155 158 157 160 157 158 163 166 167 166 165 166 164 167 170 176 -193 185 185 186 188 196 199 200 200 201 202 203 203 0 0 0 0 0
    0 0 0 0 0 0 0 0 0 0 0 0 0 0 0 0 0 0 0 0 0 0 0 0 0 0 0 0 0 0 0 0 0 0 0 0 0 0 0 0 0 0 0 0 0 0 0 0 0 0 0 0 0 0 0 0 0 0 0 0 0 0 0 0 0 0 0 0 0 -209 -209 -209 -209 -209 -209 -209 -209 -209 -209 -209 -209 -209 -209 -209 126 120 125 130 128 126 125 124 124 124 124 123 122 121 121 121 121 119 117 115 -225 -225 -225 -225 -225 -225 -225 -225 -225 -225 -225 -225 -225 -225 -225 -225 -225 -225 -225 -225 -225 -225 -225 -225 -225 -225 -225 -225 -225 -225 -225 -225 -225 -225 -225 -225 -225 -225 -225 -225 -225 -225 -225 -225 -225 -225 -225 -225 -225 -225 -225 -225 -225 -225 -225 -225 -225 -225 -225 -225 -225 -225 -225 -225 -225 -225 -225 -225 -225 -225 -225 -225 -225 -225 -225 -225 -225 -225 -225 -225 -225 -225 -225 -225 -225 -225 -225 -225 -225 -225 -225 -225 -225 -225 -225 -225 -225 -225 -225 -225 -225 -225 -225 -225 -225 -225 -225 -225 -225 -225 -225 -225 -225 -225 -225 -225 -225 -225 -225 -225 -225 -225 102 107 105 108 109 112 117 117 119 119 120 121 121 120 121 121 121 121 122 121 121 120 122 121 121 120 118 118 117 117 118 116 116 114 118 121 121 124 125 128 129 131 135 136 136 137 137 138 139 138 139 139 139 142 144 148 151 152 152 153 155 158 156 159 156 158 164 167 168 167 166 166 164 167 170 175 -209 185 185 186 187 195 198 200 200 200 202 203 203 0 0 0 0 0
    0 0 0 0 0 0 0 0 0 0 0 0 0 0 0 0 0 0 0 0 0 0 0 0 0 0 0 0 0 0 0 0 0 0 0 0 0 0 0 0 0 0 0 0 0 0 0 0 0 0 0 0 0 0 0 0 0 0 0 0 0 0 0 0 0 0 0 0 0 -209 -209 -209 -209 -209 -209 -209 -209 -209 -209 -209 -209 -209 -209 -193 124 120 125 127 124 123 122 122 122 123 123 122 122 122 122 122 122 121 118 116 112 111 112 113 113 112 116 -225 -225 -225 -225 -225 -225 -225 -225 -225 -225 -225 -225 -225 -225 -225 -225 -225 -225 -225 -225 -225 -225 -225 -225 -225 -225 -225 -225 -225 -225 -225 -225 -225 -225 -225 -225 -225 -225 -225 -225 -225 -225 -225 -225 -225 -225 -225 -225 -225 -225 -225 -225 -225 -225 -225 -225 -225 -225 -225 -225 -225 -225 -225 -225 -225 -225 -225 -225 -225 -225 -225 -225 -225 -225 -225 -225 -225 -225 -225 -225 -225 -225 -225 -225 -225 -225 -225 -225 -225 -225 -225 -225 -225 -225 -225 -225 -225 -225 -225 -225 -225 -225 -225 -225 -225 -225 -225 -225 -225 -225 -225 -225 -225 -225 118 -209 114 108 110 109 112 117 117 119 119 120 120 121 120 121 122 122 122 122 122 122 122 122 121 122 120 119 119 118 118 119 118 121 118 121 122 123 126 128 131 132 132 135 135 136 137 138 139 139 139 140 141 141 144 146 149 151 152 151 152 154 157 156 160 157 158 163 166 167 166 165 165 163 167 170 176 -209 185 186 186 188 195 198 199 199 200 202 202 202 0 0 0 0 0
    0 0 0 0 0 0 0 0 0 0 0 0 0 0 0 0 0 0 0 0 0 0 0 0 0 0 0 0 0 0 0 0 0 0 0 0 0 0 0 0 0 0 0 0 0 0 0 0 0 0 0 0 0 0 0 0 0 0 0 0 0 0 0 0 0 0 0 0 0 -209 -209 -209 -209 -209 -209 -209 -209 -209 -209 -209 -209 121 -209 119 123 120 127 126 123 123 122 121 122 123 122 121 123 123 122 123 123 121 117 116 113 112 112 114 114 114 117 118 119 123 -225 -225 -225 -225 -225 -225 -225 -225 -225 -225 -225 -225 -225 -225 -225 -225 -225 -225 -225 -225 -225 -225 -225 -225 -225 -225 -225 -225 -225 -225 -225 -225 -225 -225 -225 -225 -225 -225 -225 -225 -225 -225 -225 -225 -225 -225 -225 -225 -225 -225 -225 -225 -225 -225 -225 -225 -225 -225 -225 -225 -225 -225 -225 -225 -225 -225 -225 -225 -225 -225 -225 -225 -225 -225 -225 -225 -225 -225 -225 -225 -225 -225 -225 -225 -225 -225 -225 -225 -225 -225 -225 -225 -225 117 123 125 123 124 123 124 126 124 127 123 122 -193 124 124 124 123 124 -193 127 -193 120 118 120 115 118 119 121 120 121 121 122 122 123 124 124 123 124 123 124 124 123 122 123 121 121 121 121 121 122 122 123 122 124 125 125 128 132 134 135 134 134 135 135 136 137 138 139 139 141 141 143 146 148 150 152 152 152 152 154 157 157 162 158 159 163 166 166 166 164 164 161 168 169 177 -193 187 187 188 189 196 198 200 199 199 201 202 202 0 0 0 0 0
    0 0 0 0 0 0 0 0 0 0 0 0 0 0 0 0 0 0 0 0 0 0 0 0 0 0 0 0 0 0 0 0 0 0 0 0 0 0 0 0 0 0 0 0 0 0 0 0 0 0 0 0 0 0 0 0 0 0 0 0 0 0 0 0 0 0 0 0 0 -209 -209 -209 -209 -209 -209 -209 -209 -209 -209 -209 122 122 -193 119 123 123 129 126 124 124 122 122 122 124 122 121 123 123 122 123 123 121 117 117 113 111 112 114 114 114 117 118 119 124 132 -225 -225 -225 -225 -225 -225 -225 -225 -225 -225 -225 -225 -225 -225 -225 -225 -225 -225 -225 -225 -225 -225 -225 -225 -225 -225 -225 -225 -225 -225 -225 -225 -225 -225 -225 -225 -225 -225 -225 -225 -225 -225 -225 -225 -225 -225 -225 -225 -225 -225 -225 -225 -225 -225 -225 -225 -225 -225 -225 -225 -225 -225 -225 -225 -225 -225 -225 -225 -225 -225 -225 -225 -225 -225 -225 -225 -225 -225 -225 -225 -225 -225 -225 -225 -225 -225 -225 -225 -225 -225 -225 -209 116 123 124 123 123 123 123 125 123 126 123 122 -193 124 123 124 124 125 125 128 128 125 123 125 121 119 121 122 120 121 121 122 122 123 124 124 124 124 124 124 124 123 123 124 122 122 123 124 123 124 126 127 125 128 131 131 133 136 137 138 139 136 137 137 137 136 138 138 137 138 139 141 144 146 149 152 152 151 152 154 158 157 163 159 160 163 165 166 165 164 165 160 169 169 178 187 188 188 189 190 196 199 200 199 199 201 202 202 0 0 0 0 0
    0 0 0 0 0 0 0 0 0 0 0 0 0 0 0 0 0 0 0 0 0 0 0 0 0 0 0 0 0 0 0 0 0 0 0 0 0 0 0 0 0 0 0 0 0 0 0 0 0 0 0 0 0 0 0 0 0 0 0 0 0 0 0 0 0 0 0 0 0 -209 -209 -209 -209 -209 -209 -209 -209 -209 -209 -209 123 124 124 121 125 124 125 124 123 123 121 120 120 121 122 121 122 123 122 123 123 122 119 117 114 113 113 116 115 115 117 119 120 124 133 -225 -225 -225 -225 -225 -225 -225 -225 -225 -225 -225 -225 -225 -225 -225 -225 -225 -225 -225 -225 -225 -225 -225 -225 -225 -225 -225 -225 -225 -225 -225 -225 -225 -225 -225 -225 -225 -225 -225 -225 -225 -225 -225 -225 -225 -225 -225 -225 -225 -225 -225 -225 -225 -225 -225 -225 -225 -225 -225 -225 -225 -225 -225 -225 -225 -225 -225 -225 -225 -225 -225 -225 -225 -225 -225 -225 -225 -225 -225 -225 -225 -225 -225 -225 -225 -225 -225 -225 -225 -225 -225 -209 116 123 124 123 123 123 123 125 123 126 -193 -193 -193 124 123 124 124 125 126 129 128 127 126 127 123 120 122 122 120 122 122 122 122 124 125 125 125 124 124 125 126 124 124 125 124 124 126 128 126 127 131 131 131 133 134 135 137 137 139 140 141 139 139 139 138 138 139 139 138 139 139 140 142 143 146 149 150 149 151 154 158 157 164 160 160 163 165 165 165 164 164 161 169 169 177 186 187 188 189 190 196 199 200 199 199 201 201 201 0 0 0 0 0
    0 0 0 0 0 0 0 0 0 0 0 0 0 0 0 0 0 0 0 0 0 0 0 0 0 0 0 0 0 0 0 0 0 0 0 0 0 0 0 0 0 0 0 0 0 0 0 0 0 0 0 0 0 0 0 0 0 0 0 0 0 0 0 0 0 0 0 0 0 -209 -209 -193 -193 124 -193 -209 -209 -209 -209 128 126 127 127 123 125 122 123 122 121 121 120 120 120 121 122 122 123 123 123 123 123 123 121 119 115 114 115 117 117 116 118 119 120 124 133 -225 -225 -225 -225 -225 -225 -225 -225 -225 -225 -225 -225 -225 -225 -225 -225 -225 -225 -225 -225 -225 -225 -225 -225 -225 -225 -225 -225 -225 -225 -225 -225 -225 -225 -225 -225 -225 -225 -225 -225 -225 -225 -225 -225 -225 -225 -225 -225 -225 -225 -225 -225 -225 -225 -225 -225 -225 -225 -225 -225 -225 -225 -225 -225 -225 -225 -225 -225 -225 -225 -225 -225 -225 -225 -225 -225 -225 -225 -225 -225 -225 -225 -225 -225 -225 -225 -225 -225 -225 -225 -225 -209 116 123 124 123 123 123 123 125 123 126 -193 -193 -193 124 123 124 124 125 126 129 128 128 128 129 124 122 125 123 122 122 122 122 122 124 126 125 125 125 126 129 129 127 126 127 126 127 128 130 129 130 133 133 135 135 137 137 138 138 139 139 141 139 139 139 139 138 139 139 138 139 139 140 141 141 143 146 148 147 149 153 156 156 164 160 160 162 164 164 164 163 164 159 167 168 176 -193 -209 188 189 191 196 199 200 199 199 200 201 201 0 0 0 0 0
    0 0 0 0 0 0 0 0 0 0 0 0 0 0 0 0 0 0 0 0 0 0 0 0 0 0 0 0 0 0 0 0 0 0 0 0 0 0 0 0 0 0 0 0 0 0 0 0 0 0 0 0 0 0 0 0 0 0 0 0 0 0 0 0 0 0 0 0 0 128 128 129 127 129 133 -209 -209 -209 -193 131 128 129 131 125 125 122 120 120 120 121 120 120 120 121 122 123 124 124 123 124 124 124 122 120 117 116 116 118 117 116 118 119 120 124 133 -225 -225 -225 -225 -225 -225 -225 -225 -225 -225 -225 -225 -225 -225 -225 -225 -225 -225 -225 -225 -225 -225 -225 -225 -225 -225 -225 -225 -225 -225 -225 -225 -225 -225 -225 -225 -225 -225 -225 -225 -225 -225 -225 -225 -225 -225 -225 -225 -225 -225 -225 -225 -225 -225 -225 -225 -225 -225 -225 -225 -225 -225 -225 -225 -225 -225 -225 -225 -225 -225 -225 -225 -225 -225 -225 -225 -225 -225 -225 -225 -225 -225 -225 -225 -225 -225 -225 -225 -225 -225 -225 -209 116 123 124 123 123 123 123 125 123 126 -193 -193 -193 124 123 124 124 125 126 129 128 128 129 130 125 123 128 125 124 123 122 123 123 125 128 127 127 127 130 132 133 132 132 132 132 132 133 134 134 133 135 135 136 136 137 138 139 138 139 140 142 140 141 140 139 139 140 140 140 140 140 141 141 142 143 144 146 145 148 151 154 156 163 160 160 162 163 163 163 163 163 158 165 167 175 -209 -193 189 190 192 196 200 200 199 199 199 200 200 0 0 0 0 0
    0 0 0 0 0 0 0 0 0 0 0 0 0 0 0 0 0 0 0 0 0 0 0 0 0 0 0 0 0 0 0 0 0 0 0 0 0 0 0 0 0 0 0 0 0 0 0 0 0 0 0 0 0 0 0 0 0 0 0 0 0 0 0 0 0 0 0 0 0 126 128 130 129 130 133 134 134 135 133 132 130 131 134 130 128 125 124 122 123 123 121 122 121 122 123 124 125 125 124 124 125 125 123 121 117 116 116 118 117 116 118 119 120 124 133 -225 -225 -225 -225 -225 -225 -225 -225 -225 -225 -225 -225 -225 -225 -225 -225 -225 -225 -225 -225 -225 -225 -225 -225 -225 -225 -225 -225 -225 -225 -225 -225 -225 -225 -225 -225 -225 -225 -225 -225 -225 -225 -225 -225 -225 -225 -225 -225 -225 -225 -225 -225 -225 -225 -225 -225 -225 -225 -225 -225 -225 -225 -225 -225 -225 -225 -225 -225 -225 -225 -225 -225 -225 -225 -225 -225 -225 -225 -225 -225 -225 -225 -225 -225 -225 -225 -225 -225 -225 -225 -225 -209 116 123 124 123 123 123 123 125 123 126 -193 -193 -193 124 123 124 124 125 126 129 128 128 130 132 127 124 130 127 126 124 122 123 123 126 131 130 129 128 132 134 135 134 134 134 134 136 137 137 136 135 137 137 138 137 138 138 139 139 141 141 143 141 142 141 140 139 140 140 140 140 140 142 143 143 145 145 146 145 147 149 151 153 159 157 159 161 162 162 162 163 163 159 166 167 174 -193 -209 188 189 190 195 199 199 198 198 198 199 199 0 0 0 0 0
    0 0 0 0 0 0 0 0 0 0 0 0 0 0 0 0 0 0 0 0 0 0 0 0 0 0 0 0 0 0 0 0 0 0 0 0 0 0 0 0 0 0 0 0 0 0 0 0 0 0 0 0 0 0 0 0 0 0 0 0 0 0 0 0 0 0 0 0 0 126 129 133 132 132 134 135 135 135 133 132 130 131 132 130 127 126 125 123 124 124 122 122 121 123 123 124 126 125 125 125 126 126 124 122 118 116 117 119 118 116 118 119 120 125 133 -225 -225 -225 -225 -225 -225 -225 -225 -225 -225 -225 -225 -225 -225 -225 -225 -225 -225 -225 -225 -225 -225 -225 -225 -225 -225 -225 -225 -225 -225 -225 -225 -225 -225 -225 -225 -225 -225 -225 -225 -225 -225 -225 -225 -225 -225 -225 -225 -225 -225 -225 -225 -225 -225 -225 -225 -225 -225 -225 -225 -225 -225 -225 -225 -225 -225 -225 -225 -225 -225 -225 -225 -225 -225 -225 -225 -225 -225 -225 -225 -225 -225 -225 -225 -225 -225 -225 -225 -225 -225 -225 -209 116 123 124 123 123 123 123 125 124 126 -193 -193 -193 124 123 124 124 125 126 129 128 128 131 132 129 126 130 128 127 125 123 124 124 127 133 133 132 132 134 136 136 136 136 137 137 138 139 141 141 137 139 138 139 139 139 140 140 140 142 141 143 141 141 141 140 139 141 141 141 142 141 144 146 145 146 146 146 145 147 149 149 152 158 157 158 161 162 162 162 163 163 162 167 167 175 183 187 188 189 190 194 199 198 198 197 197 198 198 0 0 0 0 0
    0 0 0 0 0 0 0 0 0 0 0 0 0 0 0 0 0 0 0 0 0 0 0 0 0 0 0 0 0 0 0 0 0 0 0 0 0 0 0 0 0 0 0 0 0 0 0 0 0 0 0 0 0 0 0 0 0 0 0 0 0 0 0 0 0 0 0 0 0 127 131 133 133 133 135 135 135 136 135 134 130 132 132 129 126 126 124 122 123 124 122 123 122 124 124 125 127 126 125 126 127 128 125 123 120 118 119 120 119 117 119 120 121 125 134 -225 -225 -225 -225 -225 -225 -225 -225 -225 -225 -225 -225 -225 -225 -225 -225 -225 -225 -225 -225 -225 -225 -225 -225 -225 -225 -225 -225 -225 -225 -225 -225 -225 -225 -225 -225 -225 -225 -225 -225 -225 -225 -225 -225 -225 -225 -225 -225 -225 -225 -225 -225 -225 -225 -225 -225 -225 -225 -225 -225 -225 -225 -225 -225 -225 -225 -225 -225 -225 -225 -225 -225 -225 -225 -225 -225 -225 -225 -225 -225 -225 -225 -225 -225 -225 -225 -225 -225 -225 -225 -225 87 112 122 123 122 122 122 122 124 122 124 -209 -209 -209 123 122 123 124 125 126 128 127 127 130 131 129 127 129 128 127 126 123 123 123 128 133 133 133 134 135 137 137 138 138 139 140 142 141 147 148 140 141 140 141 141 140 142 142 141 144 144 145 142 142 141 141 141 142 142 142 143 143 146 148 147 147 147 146 146 147 149 150 152 158 157 159 161 162 162 162 163 163 162 166 167 174 182 187 188 190 191 195 199 199 198 197 197 197 197 0 0 0 0 0
    0 0 0 0 0 0 0 0 0 0 0 0 0 0 0 0 0 0 0 0 0 0 0 0 0 0 0 0 0 0 0 0 0 0 0 0 0 0 0 0 0 0 0 0 0 0 0 0 0 0 0 0 0 0 0 0 0 0 0 0 0 0 0 0 0 0 0 0 0 129 132 134 135 134 136 136 137 137 136 134 131 132 133 130 126 125 123 123 124 126 123 124 123 125 125 126 128 127 126 127 128 130 127 125 -209 -193 -209 -209 -209 -193 -209 -209 -209 128 137 -225 -225 -225 -225 -225 -225 -225 -225 -225 -225 -225 -225 -225 -225 -225 -225 -225 -225 -225 -225 -225 -225 -225 -225 -225 -225 -225 -225 -225 -225 -225 -225 -225 -225 -225 -225 -225 -225 -225 -225 -225 -225 -225 -225 -225 -225 -225 -225 -225 -225 -225 -225 -225 -225 -225 -225 -225 -225 -225 -225 -225 -225 -225 -225 -225 -225 -225 -225 -225 -225 -225 -225 -225 -225 -225 -225 -225 -225 -225 -225 -225 -225 -225 -225 -225 -225 -225 -225 -225 -225 -225 -225 -209 -209 122 121 121 -193 120 123 120 -193 -209 -209 -209 -193 -193 -193 125 126 127 128 126 127 129 131 129 128 129 128 128 126 124 123 122 126 132 131 133 134 135 137 139 139 140 142 143 145 144 148 148 143 145 143 144 143 142 144 144 143 146 146 146 143 143 142 141 142 143 143 142 144 144 147 148 146 146 146 144 146 148 150 150 152 157 157 158 161 162 161 162 163 163 162 165 167 172 180 186 188 189 191 195 200 199 198 197 196 197 197 0 0 0 0 0
    0 0 0 0 0 0 0 0 0 0 0 0 0 0 0 0 0 0 0 0 0 0 0 0 0 0 0 0 0 0 0 0 0 0 0 0 0 0 0 0 0 0 0 0 0 0 0 0 0 0 0 0 0 0 0 0 0 0 0 0 0 0 0 0 0 0 0 0 0 130 132 135 135 135 137 139 140 139 138 136 135 135 135 132 128 126 122 123 124 126 124 124 124 125 125 128 128 127 126 127 129 131 131 -193 -193 -193 -209 -209 -209 206 212 213 210 217 141 -225 -225 -225 -225 -225 -225 -225 -225 -225 -225 -225 -225 -225 -225 -225 -225 -225 -225 -225 -225 -225 -225 -225 -225 -225 -225 -225 -225 -225 -225 -225 -225 -225 -225 -225 -225 -225 -225 -225 -225 -225 -225 -225 -225 -225 -225 -225 -225 -225 -225 -225 -225 -225 -225 -225 -225 -225 -225 -225 -225 -225 -225 -225 -225 -225 -225 -225 -225 -225 -225 -225 -225 -225 -225 -225 -225 -225 -225 -225 -225 -225 -225 -225 -225 -225 -225 -225 -225 -225 -225 -225 -225 -225 -225 -225 -225 -225 -225 -225 -225 -225 -225 -225 -225 -225 -225 119 124 126 127 131 129 127 128 130 131 128 128 130 127 129 125 123 121 120 124 131 129 132 134 135 137 139 140 143 144 146 148 148 150 150 146 147 145 146 144 144 146 145 143 147 146 146 144 143 142 142 143 144 145 143 145 146 149 150 147 147 146 143 146 149 150 150 152 156 156 158 160 161 160 161 163 163 162 165 167 171 177 185 186 186 188 192 199 198 197 196 195 196 196 0 0 0 0 0
    0 0 0 0 0 0 0 0 0 0 0 0 0 0 0 0 0 0 0 0 0 0 0 0 0 0 0 0 0 0 0 0 0 0 0 0 0 0 0 0 0 0 0 0 0 0 0 0 0 0 0 0 0 0 0 0 0 0 0 0 0 0 0 0 0 0 0 0 0 132 134 135 136 136 138 141 143 142 140 139 138 137 138 134 128 124 121 122 123 125 123 124 123 125 126 128 129 127 126 128 -193 132 -193 -193 -193 444 -193 -209 -209 -209 -209 -209 204 213 -225 -225 -225 -225 -225 -225 -225 -225 -225 -225 -225 -225 -225 -225 -225 -225 -225 -225 -225 -225 -225 -225 -225 -225 -225 -225 -225 -225 -225 -225 -225 -225 -225 -225 -225 -225 -225 -225 -225 -225 -225 -225 -225 -225 -225 -225 -225 -225 -225 -225 -225 -225 -225 -225 -225 -225 -225 -225 -225 -225 -225 -225 -225 -225 -225 -225 -225 -225 -225 -225 -225 -225 -225 -225 -225 -225 -225 -225 -225 -225 -225 -225 -225 -225 -225 -225 -225 -225 -225 -225 -225 -225 -225 -225 -225 -225 -225 -225 -225 -225 -225 -225 -225 -225 -225 -225 -225 -225 -225 -225 -225 -225 -225 -225 -225 -225 -225 -225 129 133 131 134 123 119 119 119 121 128 127 132 134 135 137 139 141 145 146 148 150 149 151 151 148 149 146 147 145 145 146 146 142 148 146 145 143 142 142 142 144 147 147 146 148 149 152 153 151 151 150 148 151 152 152 152 153 156 156 158 159 160 159 160 162 162 162 165 167 170 176 184 185 185 187 189 198 197 196 195 194 195 195 0 0 0 0 0
    0 0 0 0 0 0 0 0 0 0 0 0 0 0 0 0 0 0 0 0 0 0 0 0 0 0 0 0 0 0 0 0 0 0 0 0 0 0 0 0 0 0 0 0 0 0 0 0 0 0 0 0 0 0 0 0 0 0 0 0 0 0 0 0 0 0 0 0 0 135 136 138 139 139 141 143 146 145 142 142 142 140 139 135 -177 124 121 122 124 126 124 125 124 127 127 129 131 130 129 131 -193 -193 -209 -193 442 444 -193 -209 -209 -209 -209 -209 212 -225 -225 -225 -225 -225 -225 -225 -225 -225 -225 -225 -225 -225 -225 -225 -225 -225 -225 -225 -225 -225 -225 -225 -225 -225 -225 -225 -225 -225 -225 -225 -225 -225 -225 -225 -225 -225 -225 -225 -225 -225 -225 -225 -225 -225 -225 -225 -225 -225 -225 -225 -225 -225 -225 -225 -225 -225 -225 -225 -225 -225 -225 -225 -225 -225 -225 -225 -225 -225 -225 -225 -225 -225 -225 -225 -225 -225 -225 -225 -225 -225 -225 -225 -225 -225 -225 -225 -225 -225 -225 -225 -225 -225 -225 -225 -225 -225 -225 -225 -225 -225 -225 -225 -225 -225 -225 -225 -225 -225 -225 -225 -225 -225 -225 -225 -225 -225 -225 -225 -225 -225 -225 -225 -225 -225 115 116 119 125 125 130 134 135 138 140 143 147 148 150 151 151 151 152 149 149 147 148 146 146 147 147 144 150 149 147 146 144 143 143 146 149 149 149 151 152 154 156 154 154 153 152 153 154 153 153 153 155 156 157 158 159 158 159 160 161 160 163 167 170 177 185 185 186 187 189 198 197 196 195 193 195 195 0 0 0 0 0
    0 0 0 0 0 0 0 0 0 0 0 0 0 0 0 0 0 0 0 0 0 0 0 0 0 0 0 0 0 0 0 0 0 0 0 0 0 0 0 0 0 0 0 0 0 0 0 0 0 0 0 0 0 0 0 0 0 0 0 0 0 0 0 0 0 0 0 0 0 135 139 144 146 144 145 148 149 149 149 149 149 145 142 135 126 127 124 124 126 128 125 126 126 129 128 130 132 -193 -209 -209 -209 -209 -209 -209 -209 -193 -209 -193 -193 -209 -209 -225 -225 -225 -225 -225 -225 -225 -225 -225 -225 -225 -225 -225 -225 -225 -225 -225 -225 -225 -225 -225 -225 -225 -225 -225 -225 -225 -225 -225 -225 -225 -225 -225 -225 -225 -225 -225 -225 -225 -225 -225 -225 -225 -225 -225 -225 -225 -225 -225 -225 -225 -225 -225 -225 -225 -225 -225 -225 -225 -225 -225 -225 -225 -225 -225 -225 -225 -225 -225 -225 -225 -225 -225 -225 -225 -225 -225 -225 -225 -225 -225 -225 -225 -225 -225 -225 -225 -225 -225 -225 -225 -225 -225 -225 -225 -225 -225 -225 -225 -225 -225 -225 -225 -225 -225 -225 -225 -225 -225 -225 -225 -225 -225 -225 -225 -225 -225 -225 -225 -225 -225 -225 -225 -225 -225 -225 -225 -225 117 119 124 126 131 135 135 137 140 144 147 149 151 152 151 152 152 150 150 149 149 147 148 148 148 146 151 151 149 148 148 146 146 149 151 152 152 153 155 156 158 157 157 155 155 156 158 154 153 153 156 156 157 156 158 158 158 159 160 161 164 167 170 177 184 184 185 187 188 197 197 195 195 193 195 195 0 0 0 0 0
    0 0 0 0 0 0 0 0 0 0 0 0 0 0 0 0 0 0 0 0 0 0 0 0 0 0 0 0 0 0 0 0 0 0 0 0 0 0 0 0 0 0 0 0 0 0 0 0 0 0 0 0 0 0 0 0 0 0 0 0 0 0 0 0 0 0 0 0 0 140 149 150 150 148 148 150 151 151 150 150 148 143 139 133 126 126 126 126 128 130 126 127 129 132 132 133 134 -209 -209 -209 -193 -209 -209 -209 -209 -193 -209 -209 -209 -209 -225 -225 -225 -225 -225 -225 -225 -225 -225 -225 -225 -225 -225 -225 -225 -225 -225 -225 -225 -225 -225 -225 -225 -225 -225 -225 -225 -225 -225 -225 -225 -225 -225 -225 -225 -225 -225 -225 -225 -225 -225 -225 -225 -225 -225 -225 -225 -225 -225 -225 -225 -225 -225 -225 -225 -225 -225 -225 -225 -225 -225 -225 -225 -225 -225 -225 -225 -225 -225 -225 -225 -225 -225 -225 -225 -225 -225 -225 -225 -225 -225 -225 -225 -225 -225 -225 -225 -225 -225 -225 -225 -225 -225 -225 -225 -225 -225 -225 -225 -225 -225 -225 -225 -225 -225 -225 -225 -225 -225 -225 -225 -225 -225 -225 -225 -225 -225 -225 -225 -225 -225 -225 -225 -225 -225 -225 -225 -225 -225 -225 120 122 124 129 134 135 137 139 143 147 148 151 151 152 152 153 151 151 151 151 149 150 150 150 148 152 152 150 149 150 148 149 151 153 -193 154 156 158 158 161 158 159 157 157 159 160 156 155 154 156 156 157 156 157 158 160 160 161 162 164 167 170 176 183 184 185 186 186 196 196 195 194 193 195 195 0 0 0 0 0
    0 0 0 0 0 0 0 0 0 0 0 0 0 0 0 0 0 0 0 0 0 0 0 0 0 0 0 0 0 0 0 0 0 0 0 0 0 0 0 0 0 0 0 0 0 0 0 0 0 0 0 0 0 0 0 0 0 0 0 0 0 0 0 0 0 0 0 0 0 153 154 152 151 151 151 152 153 152 151 151 149 147 137 130 123 123 122 124 125 129 125 126 129 132 132 133 134 -209 -209 -193 -209 -209 -209 -209 -209 134 133 -193 -225 -225 -225 -225 -225 -225 -225 -225 -225 -225 -225 -225 -225 -225 -225 -225 -225 -225 -225 -225 -225 -225 -225 -225 -225 -225 -225 -225 -225 -225 -225 -225 -225 -225 -225 -225 -225 -225 -225 -225 -225 -225 -225 -225 -225 -225 -225 -225 -225 -225 -225 -225 -225 -225 -225 -225 -225 -225 -225 -225 -225 -225 -225 -225 -225 -225 -225 -225 -225 -225 -225 -225 -225 -225 -225 -225 -225 -225 -225 -225 -225 -225 -225 -225 -225 -225 -225 -225 -225 -225 -225 -225 -225 -225 -225 -225 -225 -225 -225 -225 -225 -225 -225 -225 -225 -225 -225 -225 -225 -225 -225 -225 -225 -225 -225 -225 -225 -225 -225 -225 -225 -225 -225 -225 -225 -225 -225 -225 -225 -225 -225 -225 -225 125 126 132 138 137 139 139 142 146 148 151 151 152 152 153 152 152 152 152 150 151 150 150 149 151 152 150 151 151 151 152 154 155 157 156 157 160 160 162 160 160 159 159 161 162 157 156 154 156 156 157 156 158 159 161 162 163 163 164 167 169 176 182 183 185 186 186 196 195 195 194 193 195 195 0 0 0 0 0</data></disparity>
</opencv_storage>
