<?xml version="1.0"?>
<opencv_storage>
<gps_time_stamp>321210</gps_time_stamp>
<gps_x>-1.2428330421447754e+001</gps_x>
<gps_y>1.0710384368896484e+001</gps_y>
<gps_z>-1.9785468578338623e+000</gps_z>
<image_time_stamp>312061</image_time_stamp>
<disparity type_id="opencv-matrix">
  <rows>83</rows>
  <cols>320</cols>
  <dt>s</dt>
  <data>
    0 0 0 0 0 0 0 0 0 0 0 0 0 0 0 0 0 0 0 0 0 0 0 0 0 0 0 0 0 0 0 0 0 0 0 0 0 0 0 0 0 0 0 0 0 0 0 0 0 0 0 0 0 0 0 0 0 0 0 0 0 0 0 0 0 0 0 0 0 79 76 75 74 74 76 77 76 76 75 76 77 77 76 76 78 85 84 85 87 88 89 89 87 86 80 85 79 73 72 73 72 72 71 69 66 66 65 67 64 44 41 40 40 40 40 40 32 28 26 22 21 15 11 12 16 16 15 15 15 14 16 16 16 14 13 15 14 15 14 15 14 15 15 16 16 15 18 16 15 15 15 16 18 16 20 22 23 24 24 24 24 24 25 25 21 19 15 16 15 15 15 15 14 14 14 13 14 15 17 17 18 19 17 17 18 16 12 12 10 0 13 20 22 26 -193 30 30 37 33 33 36 37 37 35 39 41 46 50 57 62 64 63 65 67 67 67 68 69 69 68 70 70 69 73 72 73 73 75 79 83 85 86 84 87 87 86 89 89 88 -193 87 89 90 94 102 117 109 109 109 109 117 111 112 112 115 121 121 121 121 121 124 127 128 128 124 130 130 131 136 137 138 139 138 139 142 141 142 142 142 145 144 146 149 146 151 151 153 154 158 160 163 165 167 168 168 168 169 171 174 176 177 177 179 180 182 183 182 182 184 185 185 187 188 188 191 0 0 0 0 0
    0 0 0 0 0 0 0 0 0 0 0 0 0 0 0 0 0 0 0 0 0 0 0 0 0 0 0 0 0 0 0 0 0 0 0 0 0 0 0 0 0 0 0 0 0 0 0 0 0 0 0 0 0 0 0 0 0 0 0 0 0 0 0 0 0 0 0 0 0 80 77 77 77 77 79 80 78 78 77 77 78 77 76 76 79 85 83 85 87 88 89 89 87 86 83 87 82 76 74 75 74 74 71 70 67 65 64 66 65 51 41 40 40 40 40 41 35 28 27 22 21 15 11 11 16 16 15 16 16 15 17 17 17 15 15 17 15 16 15 16 15 16 16 18 19 18 20 18 17 17 17 18 19 17 20 23 24 25 24 24 25 25 26 26 21 20 15 17 15 15 15 16 15 16 14 14 14 16 18 18 18 19 17 18 18 17 14 13 12 11 15 18 22 30 -209 36 36 39 36 35 37 38 37 36 39 40 45 50 57 62 64 63 65 67 67 68 68 69 69 69 71 71 71 73 73 74 74 75 79 82 84 85 83 86 85 85 88 89 88 88 88 90 90 91 101 -177 108 108 109 108 117 111 111 112 115 120 120 121 121 120 124 127 128 128 124 130 129 130 135 137 139 140 139 139 142 142 142 142 141 143 143 145 148 146 151 152 153 154 159 160 163 165 166 168 168 168 169 171 173 175 176 176 178 180 183 183 183 183 185 186 186 188 189 189 191 0 0 0 0 0
    0 0 0 0 0 0 0 0 0 0 0 0 0 0 0 0 0 0 0 0 0 0 0 0 0 0 0 0 0 0 0 0 0 0 0 0 0 0 0 0 0 0 0 0 0 0 0 0 0 0 0 0 0 0 0 0 0 0 0 0 0 0 0 0 0 0 0 0 0 81 79 80 81 81 84 84 82 82 80 79 78 78 77 77 82 85 83 85 87 88 89 88 87 86 83 88 83 78 76 77 76 77 73 72 68 67 65 67 67 58 43 41 41 41 41 42 38 30 29 23 22 19 13 12 17 18 16 17 17 17 18 19 19 18 18 19 18 18 18 18 17 18 18 19 21 19 21 19 18 18 17 18 19 17 21 23 24 25 25 25 25 25 27 27 22 21 17 19 17 16 16 16 16 16 14 14 14 15 17 16 16 17 13 16 18 16 13 13 12 11 16 16 20 24 38 37 37 39 37 35 37 39 38 38 39 41 -209 53 58 63 64 63 65 66 67 68 68 69 69 69 71 72 72 74 74 75 76 76 80 83 84 84 82 85 83 84 86 89 89 89 89 89 90 91 102 117 108 108 109 108 117 111 112 112 115 121 121 121 121 120 124 126 127 128 124 129 129 129 134 137 139 140 139 140 142 142 142 141 140 142 141 144 147 145 150 152 153 154 158 160 164 166 167 169 168 168 169 171 173 175 175 175 178 179 183 183 183 183 185 185 185 187 188 188 191 0 0 0 0 0
    0 0 0 0 0 0 0 0 0 0 0 0 0 0 0 0 0 0 0 0 0 0 0 0 0 0 0 0 0 0 0 0 0 0 0 0 0 0 0 0 0 0 0 0 0 0 0 0 0 0 0 0 0 0 0 0 0 0 0 0 0 0 0 0 0 0 0 0 0 83 83 84 84 85 86 86 85 85 83 80 79 79 77 78 84 86 84 86 88 88 88 88 87 86 84 88 83 78 77 78 76 76 73 72 68 67 66 67 66 59 46 43 42 42 42 43 41 34 30 24 23 20 16 14 18 18 17 18 18 18 20 21 21 20 20 21 20 20 20 20 19 20 20 21 22 20 21 20 20 19 19 19 20 18 21 24 24 25 25 25 25 25 27 27 23 21 19 20 18 18 17 17 16 17 15 15 15 17 18 16 15 16 13 15 15 14 13 13 14 15 18 18 20 24 35 36 38 39 37 35 37 39 39 39 41 42 -209 -209 60 64 64 63 65 66 66 67 67 68 68 69 71 72 72 74 74 75 76 77 81 82 83 85 83 85 84 85 86 89 89 89 87 88 89 92 102 115 108 108 108 108 117 111 112 112 115 121 121 121 121 120 124 126 127 128 124 128 128 128 133 136 138 139 138 139 141 141 141 140 140 141 140 143 147 146 150 153 153 154 158 160 164 167 168 169 169 169 169 172 173 175 174 174 176 178 182 183 183 184 184 185 186 188 189 189 191 0 0 0 0 0
    0 0 0 0 0 0 0 0 0 0 0 0 0 0 0 0 0 0 0 0 0 0 0 0 0 0 0 0 0 0 0 0 0 0 0 0 0 0 0 0 0 0 0 0 0 0 0 0 0 0 0 0 0 0 0 0 0 0 0 0 0 0 0 0 0 0 0 0 0 85 86 87 87 88 88 87 87 86 84 82 81 80 79 81 85 86 85 87 89 88 88 88 87 86 86 87 84 80 80 81 78 79 76 73 69 67 66 66 64 58 46 43 41 41 42 43 42 37 34 24 23 21 19 16 18 19 18 18 18 19 20 21 21 21 20 22 21 21 22 22 21 22 22 23 23 23 23 22 22 21 21 21 21 19 21 24 24 25 25 25 25 25 27 27 23 23 21 21 20 19 18 19 18 19 18 19 20 20 21 20 18 18 16 18 16 14 14 14 15 17 20 20 22 24 36 38 39 41 39 37 38 39 41 41 43 -193 -193 -193 62 66 64 64 65 65 66 67 67 68 68 70 71 71 72 73 73 74 75 77 80 82 83 84 83 85 85 86 86 89 89 89 87 87 88 93 103 114 108 108 108 108 116 112 112 112 115 121 121 121 122 121 124 126 127 127 124 127 128 127 131 133 136 138 136 138 139 139 139 138 138 139 139 143 147 148 150 154 154 154 159 159 165 168 169 -193 -193 169 169 171 173 174 173 172 174 177 182 183 183 185 184 185 186 189 190 191 193 0 0 0 0 0
    0 0 0 0 0 0 0 0 0 0 0 0 0 0 0 0 0 0 0 0 0 0 0 0 0 0 0 0 0 0 0 0 0 0 0 0 0 0 0 0 0 0 0 0 0 0 0 0 0 0 0 0 0 0 0 0 0 0 0 0 0 0 0 0 0 0 0 0 0 86 86 87 88 89 89 88 88 87 84 85 85 83 81 84 86 87 87 88 90 88 88 88 87 86 86 86 82 80 81 81 78 78 76 74 70 69 67 66 65 59 47 43 42 41 42 42 42 39 35 25 24 23 22 19 19 20 19 20 20 20 20 22 22 22 21 22 22 22 23 23 23 23 23 24 25 24 24 23 23 22 22 22 22 20 22 24 24 25 25 25 25 25 27 27 24 23 21 22 20 20 19 20 19 20 20 21 23 23 23 22 21 21 19 19 16 13 15 16 16 18 18 22 23 24 -225 38 39 41 41 39 39 41 43 44 46 58 60 63 62 66 64 64 65 64 65 67 66 68 68 70 70 71 72 73 73 74 75 76 79 81 82 83 83 83 85 86 86 89 90 90 88 88 90 94 103 112 108 108 108 108 116 112 112 112 115 121 120 120 121 120 124 126 126 126 124 126 127 125 129 129 133 135 133 135 136 137 136 135 136 136 -209 141 143 144 -193 -209 -209 -193 157 159 164 167 -193 -193 167 168 169 171 172 173 -193 -193 172 175 181 183 182 185 183 184 184 190 190 193 194 0 0 0 0 0
    0 0 0 0 0 0 0 0 0 0 0 0 0 0 0 0 0 0 0 0 0 0 0 0 0 0 0 0 0 0 0 0 0 0 0 0 0 0 0 0 0 0 0 0 0 0 0 0 0 0 0 0 0 0 0 0 0 0 0 0 0 0 0 0 0 0 0 0 0 87 88 89 89 90 90 89 89 88 85 87 87 86 85 86 88 88 89 90 91 89 89 89 88 87 87 87 82 80 80 80 77 77 75 74 70 70 69 67 66 59 50 47 43 42 43 43 42 41 37 30 24 25 24 21 20 20 20 20 20 21 20 22 22 22 21 22 22 23 24 24 24 25 25 25 26 25 27 25 25 23 23 23 23 21 22 24 24 25 25 25 26 25 27 27 24 24 21 22 20 21 20 21 21 21 22 23 24 24 24 24 23 23 22 22 20 15 17 19 19 21 21 23 23 24 35 -225 41 42 43 41 41 43 45 46 48 58 61 64 62 65 63 63 64 63 64 66 66 68 67 70 70 71 72 -193 -193 73 75 76 79 81 82 83 84 84 86 87 88 90 91 91 90 90 92 95 103 111 108 108 108 109 117 112 112 112 115 120 119 119 121 119 123 125 126 126 123 125 126 125 128 127 128 134 131 134 135 135 135 135 136 -193 -193 140 143 -209 -193 -209 -209 -209 -193 156 -193 -193 -193 -193 164 167 168 170 -193 -193 -209 -209 172 176 182 184 184 -193 182 181 182 189 189 192 193 0 0 0 0 0
    0 0 0 0 0 0 0 0 0 0 0 0 0 0 0 0 0 0 0 0 0 0 0 0 0 0 0 0 0 0 0 0 0 0 0 0 0 0 0 0 0 0 0 0 0 0 0 0 0 0 0 0 0 0 0 0 0 0 0 0 0 0 0 0 0 0 0 0 0 88 89 90 89 90 90 89 89 88 86 88 89 87 86 88 89 89 90 90 91 88 88 88 87 86 86 86 80 79 79 77 76 76 74 72 69 70 69 68 67 60 52 49 44 43 43 44 43 42 39 41 25 27 24 23 21 21 21 21 21 22 21 22 22 23 21 22 22 23 24 25 25 25 26 26 27 26 28 25 25 23 23 23 23 21 22 24 24 25 25 25 26 25 27 27 25 25 22 22 21 22 22 22 22 22 23 23 25 25 25 24 23 23 23 23 23 16 19 21 21 22 22 24 24 24 35 -225 41 43 45 43 43 44 46 47 48 58 60 63 61 64 62 63 63 63 63 66 65 68 67 69 69 70 72 -193 -193 73 75 76 79 81 81 82 84 84 87 87 88 90 91 91 91 90 93 97 103 109 108 108 108 110 117 113 114 114 116 121 119 120 121 119 123 125 125 125 123 125 126 124 127 127 124 133 130 133 134 134 134 135 136 -193 75 141 -193 -209 -193 -209 -209 -209 -209 -193 -209 -193 -193 -193 161 165 168 -209 -209 170 172 176 178 181 184 186 187 189 187 186 183 190 189 190 190 0 0 0 0 0
    0 0 0 0 0 0 0 0 0 0 0 0 0 0 0 0 0 0 0 0 0 0 0 0 0 0 0 0 0 0 0 0 0 0 0 0 0 0 0 0 0 0 0 0 0 0 0 0 0 0 0 0 0 0 0 0 0 0 0 0 0 0 0 0 0 0 0 0 0 89 91 92 91 91 90 89 89 89 88 90 92 92 90 91 93 92 91 92 92 89 88 87 86 84 85 84 78 78 78 76 76 76 73 72 70 70 70 68 69 62 53 52 45 44 44 44 43 43 41 42 26 28 26 23 22 21 21 21 22 22 21 22 22 23 21 23 23 24 25 26 26 26 26 27 28 27 29 26 26 24 23 23 23 22 22 24 24 24 25 25 26 25 27 27 24 25 22 23 22 23 23 23 22 23 -193 23 -193 25 25 24 24 24 23 23 23 16 19 21 21 22 22 24 24 24 35 -225 42 44 45 45 44 44 46 46 45 57 59 61 59 62 61 61 62 61 62 64 64 67 67 69 69 71 73 74 74 74 77 78 79 82 82 81 83 83 86 86 87 89 91 91 92 91 94 98 103 108 107 107 108 111 117 114 115 115 117 121 120 120 121 119 122 125 125 125 123 125 126 125 128 128 125 134 131 133 134 134 134 134 135 -193 76 140 -193 -209 -193 -193 -193 -209 -193 -209 -209 -193 81 -193 -209 -209 -209 -193 -193 170 174 180 183 185 185 187 189 191 189 187 186 190 188 189 188 0 0 0 0 0
    0 0 0 0 0 0 0 0 0 0 0 0 0 0 0 0 0 0 0 0 0 0 0 0 0 0 0 0 0 0 0 0 0 0 0 0 0 0 0 0 0 0 0 0 0 0 0 0 0 0 0 0 0 0 0 0 0 0 0 0 0 0 0 0 0 0 0 0 0 91 93 97 96 93 92 91 89 92 92 98 99 101 97 98 98 95 93 93 92 89 88 87 86 84 85 83 77 77 76 74 74 74 72 71 70 70 70 69 70 65 54 53 46 44 45 44 43 43 41 42 26 28 26 24 22 22 21 21 22 22 21 23 23 23 22 23 24 24 26 26 26 26 26 27 27 26 29 26 26 24 24 23 24 22 22 24 24 24 25 25 25 25 27 27 24 25 22 24 23 24 25 24 23 24 -193 -193 -193 26 26 25 25 25 24 23 24 17 20 22 22 22 23 24 24 24 34 -225 42 43 45 45 44 45 45 46 44 56 58 60 58 60 59 60 61 60 61 63 63 67 67 69 70 71 73 74 74 74 77 78 79 81 81 81 83 84 86 86 87 89 91 91 92 92 95 98 102 106 106 106 107 110 117 114 114 114 116 121 120 120 121 118 122 125 125 125 122 125 126 126 128 129 125 134 131 133 134 134 133 134 135 135 -193 140 143 -209 -193 -209 149 -209 147 149 -209 -193 -209 -209 -209 -193 -193 167 168 169 172 175 181 -209 184 186 190 192 189 188 187 189 188 189 188 0 0 0 0 0
    0 0 0 0 0 0 0 0 0 0 0 0 0 0 0 0 0 0 0 0 0 0 0 0 0 0 0 0 0 0 0 0 0 0 0 0 0 0 0 0 0 0 0 0 0 0 0 0 0 0 0 0 0 0 0 0 0 0 0 0 0 0 0 0 0 0 0 0 0 94 98 101 102 100 99 96 92 97 97 101 101 102 98 99 98 98 95 95 94 90 89 88 87 85 85 82 77 77 76 74 73 73 71 70 69 70 70 69 71 -193 -193 -193 47 45 45 44 43 44 41 42 28 30 27 25 23 22 22 22 22 23 21 23 23 23 22 23 25 25 26 27 26 26 26 27 27 26 29 26 26 24 24 24 25 23 23 24 24 24 25 25 26 24 26 27 24 25 23 24 23 24 25 24 23 24 -193 -193 28 27 26 26 25 25 25 24 24 16 20 22 22 23 23 24 24 24 33 -225 41 42 44 44 44 44 45 46 44 54 58 60 57 59 59 60 60 60 60 63 62 66 67 68 69 70 72 73 -209 73 76 77 78 80 80 82 84 84 86 86 87 89 91 91 91 92 94 97 102 105 106 106 107 109 117 114 114 114 116 121 120 120 120 118 122 125 125 125 123 125 127 127 128 129 125 134 131 132 133 133 132 134 134 134 -209 140 146 -193 -193 -193 150 151 149 151 154 -193 156 160 166 167 168 167 -209 170 -193 -209 -209 -209 -209 -193 191 194 190 187 187 187 187 187 -209 0 0 0 0 0
    0 0 0 0 0 0 0 0 0 0 0 0 0 0 0 0 0 0 0 0 0 0 0 0 0 0 0 0 0 0 0 0 0 0 0 0 0 0 0 0 0 0 0 0 0 0 0 0 0 0 0 0 0 0 0 0 0 0 0 0 0 0 0 0 0 0 0 0 0 99 102 105 106 104 105 106 104 105 105 104 103 103 100 99 98 98 95 95 94 90 89 87 86 84 83 80 77 76 76 73 72 72 71 69 69 70 69 69 -193 -193 412 -193 -193 45 45 44 43 44 41 43 29 34 29 25 24 23 23 22 22 23 21 23 23 23 21 23 25 25 27 28 27 27 27 27 28 27 30 27 27 24 24 24 26 24 23 23 23 23 24 25 25 24 25 26 24 24 22 23 22 23 24 25 24 24 29 26 30 28 27 26 26 26 25 24 25 16 20 22 22 23 24 26 25 25 34 -225 39 42 43 43 43 43 45 45 44 53 58 60 57 58 58 59 60 59 59 62 63 66 67 68 68 69 72 73 -193 71 74 75 77 79 80 82 84 85 87 87 88 90 91 91 92 92 94 97 102 104 106 106 107 110 117 114 114 114 116 120 119 120 120 118 122 126 125 125 123 126 128 128 129 129 125 134 131 132 133 133 132 133 134 134 -209 140 -193 -209 -209 -209 151 152 150 152 154 154 155 159 164 166 167 -193 -193 -193 -193 -193 -193 -193 -209 187 190 191 189 188 188 -209 -209 -209 -209 0 0 0 0 0
    0 0 0 0 0 0 0 0 0 0 0 0 0 0 0 0 0 0 0 0 0 0 0 0 0 0 0 0 0 0 0 0 0 0 0 0 0 0 0 0 0 0 0 0 0 0 0 0 0 0 0 0 0 0 0 0 0 0 0 0 0 0 0 0 0 0 0 0 0 103 105 108 108 107 108 110 110 110 105 104 103 102 100 100 98 99 96 95 94 90 89 87 86 85 83 80 77 78 76 74 73 73 72 70 69 71 70 69 -193 -193 412 -193 -193 45 44 44 43 44 41 42 31 37 32 26 25 24 24 23 23 23 21 23 -193 24 22 24 26 26 29 30 30 28 28 29 29 28 32 27 26 23 23 24 25 24 23 23 23 23 25 26 26 24 25 25 24 24 20 21 20 22 23 25 29 26 33 28 32 29 28 28 27 27 27 25 25 19 21 24 22 23 25 27 27 28 38 -225 40 42 43 44 44 43 44 44 43 49 57 58 56 57 57 58 59 59 59 63 64 68 69 69 69 70 72 73 71 71 73 73 75 76 78 79 82 84 87 86 87 89 91 91 92 93 95 98 102 104 106 106 107 110 118 114 115 115 116 120 119 119 119 117 121 125 124 124 122 126 128 128 129 129 125 134 131 131 132 132 131 133 134 134 -209 140 150 -193 150 150 150 150 150 151 153 153 154 159 164 166 168 168 170 172 178 180 -193 -193 -209 186 -193 -209 -209 -209 -209 -209 -209 -209 161 0 0 0 0 0
    0 0 0 0 0 0 0 0 0 0 0 0 0 0 0 0 0 0 0 0 0 0 0 0 0 0 0 0 0 0 0 0 0 0 0 0 0 0 0 0 0 0 0 0 0 0 0 0 0 0 0 0 0 0 0 0 0 0 0 0 0 0 0 0 0 0 0 0 0 111 111 112 111 111 112 116 118 116 103 103 103 102 100 99 98 99 95 95 93 90 89 87 86 86 84 80 77 77 76 73 73 72 71 70 69 71 70 70 72 -193 -209 55 -193 45 44 44 43 44 42 43 34 40 37 28 27 28 28 27 25 25 23 26 -193 -193 25 28 32 32 36 36 36 33 32 31 29 28 33 -193 25 23 23 23 24 24 23 22 23 23 26 27 27 24 26 26 25 25 18 18 18 22 24 27 29 27 34 29 33 29 28 28 28 28 28 25 26 21 23 26 24 24 26 29 32 37 44 53 -209 43 44 45 43 43 44 43 42 47 56 57 55 56 56 57 58 59 59 63 65 69 70 70 70 71 73 73 72 71 73 72 74 75 77 78 80 82 86 84 87 89 91 92 92 94 96 99 102 104 107 107 107 111 118 114 115 115 116 119 118 118 118 116 120 124 123 123 122 125 127 128 128 128 124 134 131 131 132 132 131 133 133 134 -209 140 -193 -209 150 150 149 150 150 150 152 152 154 159 163 165 167 168 169 171 175 177 -193 -209 -209 -209 -209 -209 -209 -193 -209 -193 -209 -209 -209 0 0 0 0 0
    0 0 0 0 0 0 0 0 0 0 0 0 0 0 0 0 0 0 0 0 0 0 0 0 0 0 0 0 0 0 0 0 0 0 0 0 0 0 0 0 0 0 0 0 0 0 0 0 0 0 0 0 0 0 0 0 0 0 0 0 0 0 0 0 0 0 0 0 0 118 118 119 119 117 117 118 117 112 102 102 102 101 100 98 98 100 97 98 95 92 92 88 88 88 84 81 77 76 75 73 72 71 70 69 69 72 70 70 72 -193 -209 -193 -193 46 45 44 43 45 42 44 36 42 41 25 29 -209 -209 -209 27 -193 24 31 37 42 41 -209 41 41 41 41 42 41 40 -209 -209 -209 -209 -209 24 -193 23 23 24 23 22 21 23 25 27 30 29 -225 -225 -225 -225 -225 -225 -225 -225 -225 30 35 -193 30 37 30 34 29 28 27 27 26 27 26 28 24 26 31 27 27 32 -193 -209 42 52 54 46 44 45 45 44 44 43 42 41 46 55 56 55 55 55 57 58 59 59 63 65 69 70 70 70 71 73 73 72 71 73 -209 75 77 77 79 81 83 86 84 87 89 91 92 92 94 96 99 102 104 107 107 108 112 118 115 116 116 117 119 119 119 119 117 120 123 123 123 121 125 128 129 128 129 125 133 130 130 131 131 130 132 133 133 -209 -193 -193 147 147 150 149 149 148 147 151 152 154 158 162 164 166 167 167 170 172 172 -209 -209 -209 -209 -209 -209 -209 -193 -209 -209 -209 -209 -193 0 0 0 0 0
    0 0 0 0 0 0 0 0 0 0 0 0 0 0 0 0 0 0 0 0 0 0 0 0 0 0 0 0 0 0 0 0 0 0 0 0 0 0 0 0 0 0 0 0 0 0 0 0 0 0 0 0 0 0 0 0 0 0 0 0 0 0 0 0 0 0 0 0 0 120 121 121 122 120 117 117 111 107 101 100 102 100 100 98 99 100 97 98 96 92 92 90 89 89 85 81 77 77 76 74 73 72 71 69 69 72 69 70 72 -193 -209 -193 -193 -193 45 43 43 45 42 44 37 44 54 -209 -193 59 56 56 -193 55 -209 44 43 48 53 -193 46 45 45 46 47 46 45 -209 -209 -209 -209 -209 23 -193 21 -225 -225 -225 -225 -225 -225 -225 -225 -225 -225 -225 -225 -225 -225 -225 -225 -225 -225 -225 -225 -225 -225 -225 -225 -225 -225 -225 -225 -225 -225 -225 -225 24 30 22 25 36 28 27 37 -225 -193 48 54 54 49 46 47 46 45 45 44 42 41 46 54 56 55 55 55 57 59 59 60 63 66 69 70 70 70 71 73 73 71 70 72 -209 74 76 77 79 -209 83 86 84 86 89 91 92 92 94 96 99 101 103 107 107 108 111 118 116 117 117 118 120 119 119 119 118 120 123 122 123 122 125 128 130 129 130 126 134 131 130 132 132 130 132 132 133 129 138 141 140 140 145 144 144 145 142 151 152 154 160 162 162 165 166 167 170 171 171 171 -193 -209 166 166 171 168 171 179 -209 -209 -209 -209 0 0 0 0 0
    0 0 0 0 0 0 0 0 0 0 0 0 0 0 0 0 0 0 0 0 0 0 0 0 0 0 0 0 0 0 0 0 0 0 0 0 0 0 0 0 0 0 0 0 0 0 0 0 0 0 0 0 0 0 0 0 0 0 0 0 0 0 0 0 0 0 0 0 0 120 120 121 121 119 114 114 109 105 102 101 102 101 100 99 99 101 98 98 97 93 93 91 90 90 86 82 79 79 77 75 75 72 71 69 71 72 68 69 70 -193 -193 -193 -193 -193 45 42 42 44 41 43 37 44 53 -193 -193 57 55 55 56 55 -209 45 43 50 53 55 47 46 46 47 48 47 44 -209 -209 -209 -209 -209 -209 -209 -225 -225 -225 -225 -225 -225 -225 -225 -225 -225 -225 -225 -225 -225 -225 -225 -225 -225 -225 -225 -225 -225 -225 -225 -225 -225 -225 -225 -225 -225 -225 -225 -225 -225 -225 -225 -225 -225 -225 -225 -225 -225 -225 53 55 54 51 48 48 48 46 48 46 43 43 48 55 56 55 55 55 57 59 59 60 63 66 69 71 70 70 71 72 72 71 70 71 71 73 76 76 79 -209 -193 87 85 88 91 92 94 94 96 98 99 101 103 106 107 107 110 117 116 116 117 117 120 119 119 119 118 119 122 122 122 121 125 128 129 128 130 126 134 131 129 131 132 129 132 132 133 129 137 138 138 137 139 138 -193 -193 138 149 151 154 160 -209 161 163 164 166 -193 169 168 -193 164 162 163 166 170 168 172 180 -209 -209 -209 -209 0 0 0 0 0
    0 0 0 0 0 0 0 0 0 0 0 0 0 0 0 0 0 0 0 0 0 0 0 0 0 0 0 0 0 0 0 0 0 0 0 0 0 0 0 0 0 0 0 0 0 0 0 0 0 0 0 0 0 0 0 0 0 0 0 0 0 0 0 0 0 0 0 0 0 118 119 119 119 116 110 110 108 105 102 102 102 101 100 99 99 101 97 98 96 92 92 91 91 91 86 84 81 81 76 75 74 71 68 68 69 72 66 68 69 -193 -193 61 -209 -193 45 43 42 44 41 43 39 46 53 55 55 55 53 54 54 54 -209 45 46 52 53 55 49 47 47 48 49 47 44 -209 -209 -209 -209 -209 -209 -209 -225 -225 -225 -225 -225 -225 -225 -225 -225 -225 -225 -225 -225 -225 -225 -225 -225 -225 -225 -225 -225 -225 -225 -225 -225 -225 -225 -225 -225 -225 -225 -225 -225 -225 -225 -225 -225 -225 -225 -225 -225 -225 -225 52 55 54 51 49 48 49 47 50 49 45 44 50 55 56 55 55 55 57 59 59 61 64 65 69 71 70 70 70 71 72 70 69 71 70 73 76 76 80 -209 -209 -209 86 88 91 93 95 94 96 98 99 101 103 107 107 107 109 116 116 116 117 117 119 118 118 118 117 118 121 121 121 121 124 127 128 127 128 126 133 131 129 131 132 130 132 132 133 128 135 137 138 137 139 139 137 -209 136 147 147 154 159 -193 158 158 159 161 164 165 -193 -193 162 160 162 165 170 167 172 179 -209 -209 -209 -209 0 0 0 0 0
    0 0 0 0 0 0 0 0 0 0 0 0 0 0 0 0 0 0 0 0 0 0 0 0 0 0 0 0 0 0 0 0 0 0 0 0 0 0 0 0 0 0 0 0 0 0 0 0 0 0 0 0 0 0 0 0 0 0 0 0 0 0 0 0 0 0 0 0 0 117 117 118 117 114 108 109 107 104 102 102 102 101 101 100 100 101 97 97 95 92 92 91 90 90 85 83 81 80 75 75 74 70 68 67 69 71 65 66 67 66 64 61 59 57 45 43 43 44 41 44 40 47 55 57 58 55 54 54 54 54 -209 49 51 53 54 56 51 49 49 50 50 47 44 -209 -209 -209 -209 -209 -209 -209 -225 -225 -225 -225 -225 -225 -225 -225 -225 -225 -225 -225 -225 -225 -225 -225 -225 -225 -225 -225 -225 -225 -225 -225 -225 -225 -225 -225 -225 -225 -225 -225 -225 -225 -225 -225 -225 -225 -225 -225 -225 -225 -225 52 55 54 52 50 50 51 49 52 51 48 47 52 56 57 56 56 56 57 59 60 61 64 66 69 71 70 70 70 71 71 69 69 70 71 73 76 -209 -209 -209 -209 -209 -209 89 93 93 96 95 96 98 100 102 104 108 107 108 109 116 117 117 117 118 119 118 118 118 117 118 120 120 120 120 124 126 127 126 127 125 133 131 128 130 132 130 132 132 133 127 133 135 136 136 138 139 138 -209 -193 147 148 154 158 155 157 154 155 157 157 163 164 -193 -193 -193 165 167 171 169 172 178 -209 -209 -209 -209 0 0 0 0 0
    0 0 0 0 0 0 0 0 0 0 0 0 0 0 0 0 0 0 0 0 0 0 0 0 0 0 0 0 0 0 0 0 0 0 0 0 0 0 0 0 0 0 0 0 0 0 0 0 0 0 0 0 0 0 0 0 0 0 0 0 0 0 0 0 0 0 0 0 0 116 117 117 116 113 108 108 107 104 102 102 102 101 101 100 100 101 97 97 95 91 93 91 90 90 86 83 81 80 75 74 74 71 69 69 71 71 66 66 66 65 63 62 59 57 43 43 43 44 40 43 41 49 56 58 60 55 54 54 54 54 -193 54 53 54 55 56 52 51 51 51 49 47 44 43 -209 -209 -209 -225 -225 -225 -225 -225 -225 -225 -225 -225 -225 -225 -225 -225 -225 -225 -225 -225 -225 -225 -225 -225 -225 -225 -225 -225 -225 -225 -225 -225 -225 -225 -225 -225 -225 -225 -225 -225 -225 -225 -225 -225 -225 -225 -225 -225 -225 52 55 54 52 51 51 52 51 53 52 50 49 52 56 56 56 56 55 57 59 60 62 64 66 69 71 71 71 71 72 72 71 71 72 -209 75 77 -209 -209 -209 -209 -209 -209 89 93 92 95 95 97 100 101 103 104 108 108 108 109 116 117 118 118 118 120 117 117 118 117 117 119 119 119 -193 124 126 127 125 127 125 132 131 127 129 130 128 131 130 132 126 131 135 137 137 138 138 136 133 133 139 140 -193 155 153 155 153 155 158 157 163 -193 -209 -193 -209 -209 170 173 173 175 179 -193 -193 -209 -209 0 0 0 0 0
    0 0 0 0 0 0 0 0 0 0 0 0 0 0 0 0 0 0 0 0 0 0 0 0 0 0 0 0 0 0 0 0 0 0 0 0 0 0 0 0 0 0 0 0 0 0 0 0 0 0 0 0 0 0 0 0 0 0 0 0 0 0 0 0 0 0 0 0 0 116 117 117 116 114 107 107 107 104 102 101 102 101 101 100 100 101 97 96 95 0 -256 -1 21981 90 87 85 83 83 76 75 77 73 71 72 75 74 68 68 68 66 66 63 60 58 44 45 44 44 41 45 44 51 55 57 58 56 54 55 53 54 58 56 55 55 56 57 54 54 53 52 51 49 47 45 -225 -225 -225 -225 -225 -225 -225 -225 -225 -225 -225 -225 -225 -225 -225 -225 -225 -225 -225 -225 -225 -225 -225 -225 -225 -225 -225 -225 -225 -225 -225 -225 -225 -225 -225 -225 -225 -225 -225 -225 -225 -225 -225 -225 -225 -225 -225 -225 -225 50 54 53 52 52 52 53 52 54 54 52 52 54 56 57 56 56 55 57 59 60 62 65 67 70 71 72 72 73 73 73 74 73 74 75 77 78 79 -209 -209 -209 86 86 88 91 91 94 96 99 102 102 103 104 108 108 108 109 116 118 119 119 119 120 118 118 118 118 116 118 118 118 -193 123 125 125 124 126 125 130 129 126 128 129 128 131 130 132 127 130 134 135 137 138 136 134 132 133 138 138 146 153 148 153 151 153 156 156 -193 -209 -209 -209 -209 -209 -209 176 176 177 180 -193 -209 -209 -193 0 0 0 0 0
    0 0 0 0 0 0 0 0 0 0 0 0 0 0 0 0 0 0 0 0 0 0 0 0 0 0 0 0 0 0 0 0 0 0 0 0 0 0 0 0 0 0 0 0 0 0 0 0 0 0 0 0 0 0 0 0 0 0 0 0 0 0 0 0 0 0 0 0 0 116 116 117 116 112 106 106 106 104 102 101 102 101 101 101 100 101 96 95 94 92 93 90 90 89 86 86 85 84 78 77 79 73 71 71 74 72 68 68 68 66 66 64 60 59 47 49 46 45 44 50 51 54 56 57 58 57 56 56 54 55 59 58 58 56 57 58 57 56 56 54 52 50 -225 -225 -225 -225 -225 -225 -225 -225 -225 -225 -225 -225 -225 -225 -225 -225 -225 -225 -225 -225 -225 -225 -225 -225 -225 -225 -225 -225 -225 -225 -225 -225 -225 -225 -225 -225 -225 -225 -225 -225 -225 -225 -225 -225 -225 -225 -225 -225 -225 -225 -225 46 53 52 51 52 52 53 53 55 55 55 56 57 58 59 59 59 57 59 61 62 63 65 66 68 71 71 72 73 73 73 75 74 76 77 79 80 81 84 -209 87 87 88 89 91 91 94 95 98 101 102 102 104 107 107 107 108 115 119 119 120 120 120 118 118 118 118 115 117 118 118 -193 123 125 125 124 126 125 128 128 125 127 128 127 131 129 131 126 128 131 134 136 137 134 132 130 133 138 138 142 145 144 151 148 151 154 154 -209 -209 -209 -209 -209 -209 -209 177 177 177 181 182 -193 -193 187 0 0 0 0 0
    0 0 0 0 0 0 0 0 0 0 0 0 0 0 0 0 0 0 0 0 0 0 0 0 0 0 0 0 0 0 0 0 0 0 0 0 0 0 0 0 0 0 0 0 0 0 0 0 0 0 0 0 0 0 0 0 0 0 0 0 0 0 0 0 0 0 0 0 0 115 115 116 116 111 106 105 106 104 103 102 102 101 102 101 101 101 97 95 95 93 93 90 90 89 85 86 85 85 80 78 80 75 73 73 75 73 69 69 69 68 67 66 62 61 56 56 53 50 51 54 55 55 55 56 57 58 57 58 57 59 64 62 63 61 59 59 59 58 57 55 53 52 -225 -225 -225 -225 -225 -225 -225 -225 -225 -225 -225 -225 -225 -225 -225 -225 -225 -225 -225 -225 -225 -225 -225 -225 -225 -225 -225 -225 -225 -225 -225 -225 -225 -225 -225 -225 -225 -225 -225 -225 -225 -225 -225 -225 -225 -225 -225 -225 -225 -225 -225 44 52 52 50 53 53 54 54 56 56 56 58 59 60 60 60 61 59 61 63 63 63 63 65 65 69 70 71 73 73 73 75 75 77 78 80 81 82 85 -193 88 88 89 89 91 91 93 94 97 100 101 102 103 107 107 107 108 115 120 120 121 121 121 118 118 118 118 115 117 118 118 -193 123 125 125 124 125 125 129 129 125 130 131 131 134 133 134 127 129 130 131 133 135 136 133 131 133 138 139 145 146 145 151 149 151 153 153 -209 -209 -209 -209 -209 -209 -209 173 173 174 176 176 -193 -209 186 0 0 0 0 0
    0 0 0 0 0 0 0 0 0 0 0 0 0 0 0 0 0 0 0 0 0 0 0 0 0 0 0 0 0 0 0 0 0 0 0 0 0 0 0 0 0 0 0 0 0 0 0 0 0 0 0 0 0 0 0 0 0 0 0 0 0 0 0 0 0 0 0 0 0 115 114 114 113 109 105 105 106 104 104 102 102 101 103 102 101 101 97 94 94 93 92 90 89 89 86 85 86 85 81 81 83 78 74 74 75 73 70 70 69 68 67 66 62 61 57 57 55 53 54 55 56 55 55 55 56 57 57 58 58 62 67 66 66 64 62 60 60 58 57 55 53 -225 -225 -225 -225 -225 -225 -225 -225 -225 -225 -225 -225 -225 -225 -225 -225 -225 -225 -225 -225 -225 -225 -225 -225 -225 -225 -225 -225 -225 -225 -225 -225 -225 -225 -225 -225 -225 -225 -225 -225 -225 -225 -225 -225 -225 -225 -225 -225 -225 -225 -225 -225 -225 51 51 51 54 54 56 55 58 57 58 59 59 61 61 61 62 60 63 64 63 63 62 64 64 68 71 72 73 74 74 77 76 78 79 81 81 83 85 86 87 88 89 89 91 90 94 94 98 101 101 102 103 107 107 107 108 115 121 120 121 121 121 118 118 118 118 115 118 118 118 -193 123 125 125 124 125 126 131 132 130 136 136 137 137 137 138 135 133 134 129 132 135 137 138 136 137 141 145 150 150 150 153 153 153 155 154 -209 -209 -209 -209 -209 -209 -209 172 -209 -209 172 -209 -209 -209 -209 0 0 0 0 0
    0 0 0 0 0 0 0 0 0 0 0 0 0 0 0 0 0 0 0 0 0 0 0 0 0 0 0 0 0 0 0 0 0 0 0 0 0 0 0 0 0 0 0 0 0 0 0 0 0 0 0 0 0 0 0 0 0 0 0 0 0 0 0 0 0 0 0 0 0 114 111 111 111 108 105 107 107 106 105 103 103 103 103 103 102 100 97 94 94 93 92 89 89 88 87 85 85 85 81 82 84 81 75 74 75 73 71 71 70 69 67 67 62 61 58 57 56 55 55 56 57 56 56 55 56 57 56 59 60 65 68 67 67 66 63 62 61 59 58 56 -225 -225 -225 -225 -225 -225 -225 -225 -225 -225 -225 -225 -225 -225 -225 -225 -225 -225 -225 -225 -225 -225 -225 -225 -225 -225 -225 -225 -225 -225 -225 -225 -225 -225 -225 -225 -225 -225 -225 -225 -225 -225 -225 -225 -225 -225 -225 -225 -225 -225 -225 -225 -225 -225 -225 -225 52 55 55 59 58 60 59 60 61 61 64 63 63 64 62 64 64 63 64 61 64 63 68 70 72 74 76 75 79 78 79 80 82 82 83 85 86 86 87 88 88 90 89 93 94 98 101 102 102 103 107 106 107 107 115 121 120 121 121 121 118 118 118 118 115 117 118 118 -193 123 125 125 124 125 127 132 133 133 138 138 139 139 139 139 138 137 138 136 138 138 140 141 140 140 144 146 151 152 151 154 155 154 156 156 159 -209 -209 -209 -209 -209 -209 171 -209 -209 -193 -209 -209 -209 -209 0 0 0 0 0
    0 0 0 0 0 0 0 0 0 0 0 0 0 0 0 0 0 0 0 0 0 0 0 0 0 0 0 0 0 0 0 0 0 0 0 0 0 0 0 0 0 0 0 0 0 0 0 0 0 0 0 0 0 0 0 0 0 0 0 0 0 0 0 0 0 0 0 0 0 115 113 112 110 107 104 107 108 106 103 102 102 103 104 103 102 100 98 95 95 94 92 89 89 88 87 85 85 85 81 83 85 82 77 75 75 74 73 72 71 70 68 67 61 60 58 57 56 57 57 58 58 58 58 57 58 58 59 62 65 68 69 68 68 67 65 64 62 61 59 -225 -225 -225 -225 -225 -225 -225 -225 -225 -225 -225 -225 -225 -225 -225 -225 -225 -225 -225 -225 -225 -225 -225 -225 -225 -225 -225 -225 -225 -225 -225 -225 -225 -225 -225 -225 -225 -225 -225 -225 -225 -225 -225 -225 -225 -225 -225 -225 -225 -225 -225 -225 -225 -225 -225 -225 -225 -225 56 56 60 59 62 60 61 62 64 67 66 66 67 65 67 66 66 65 63 64 63 68 70 72 74 76 76 80 78 79 81 82 83 83 85 86 86 87 88 87 87 87 91 92 96 100 102 103 104 107 107 107 108 116 123 120 121 121 121 118 118 118 118 115 118 118 118 -193 123 125 125 124 125 127 131 133 133 137 137 138 138 138 138 138 136 138 136 139 140 143 144 145 145 148 150 153 153 153 155 156 156 156 156 160 163 166 167 163 -193 -193 171 -193 -209 -209 -209 -209 133 135 0 0 0 0 0
    0 0 0 0 0 0 0 0 0 0 0 0 0 0 0 0 0 0 0 0 0 0 0 0 0 0 0 0 0 0 0 0 0 0 0 0 0 0 0 0 0 0 0 0 0 0 0 0 0 0 0 0 0 0 0 0 0 0 0 0 0 0 0 0 0 0 0 0 0 117 115 114 112 109 109 111 110 109 103 101 101 103 104 103 102 100 98 96 96 95 92 89 89 88 87 84 85 85 82 85 85 84 78 76 76 74 74 73 72 70 68 68 60 58 60 58 57 58 59 60 60 61 59 58 59 61 62 66 68 70 70 69 69 68 67 65 63 62 60 -225 -225 -225 -225 -225 -225 -225 -225 -225 -225 -225 -225 -225 -225 -225 -225 -225 -225 -225 -225 -225 -225 -225 -225 -225 -225 -225 -225 -225 -225 -225 -225 -225 -225 -225 -225 -225 -225 -225 -225 -225 -225 -225 -225 -225 -225 -225 -225 -225 -225 -225 -225 -225 -225 -225 -225 -225 -225 58 56 62 59 62 61 62 64 67 69 68 69 69 68 68 68 67 66 64 64 63 67 70 72 74 76 75 80 78 79 81 82 83 83 84 85 85 86 87 85 86 86 90 91 94 98 101 102 103 107 107 107 110 117 124 121 121 122 122 118 118 118 119 115 118 119 119 -193 123 124 125 124 125 127 129 132 133 138 137 138 138 138 139 138 137 138 137 139 140 143 145 146 147 149 150 152 153 154 156 157 157 157 157 161 165 166 166 165 166 169 171 171 170 165 -209 -193 136 138 0 0 0 0 0
    0 0 0 0 0 0 0 0 0 0 0 0 0 0 0 0 0 0 0 0 0 0 0 0 0 0 0 0 0 0 0 0 0 0 0 0 0 0 0 0 0 0 0 0 0 0 0 0 0 0 0 0 0 0 0 0 0 0 0 0 0 0 0 0 0 0 0 0 0 120 118 118 119 -209 116 115 108 108 102 99 101 102 103 102 101 99 98 95 96 94 91 89 89 88 87 84 85 85 82 86 86 84 80 77 76 75 74 73 73 71 68 64 56 58 65 61 60 61 62 63 63 63 61 59 61 64 67 69 71 72 71 71 70 70 68 66 65 63 -225 -225 -225 -225 -225 -225 -225 -225 -225 -225 -225 -225 -225 -225 -225 -225 -225 -225 -225 -225 -225 -225 -225 -225 -225 -225 -225 -225 -225 -225 -225 -225 -225 -225 -225 -225 -225 -225 -225 -225 -225 -225 -225 -225 -225 -225 -225 -225 -225 -225 -225 -225 -225 -225 -225 -225 -225 -225 -225 -225 56 62 59 63 63 63 67 69 70 70 71 71 70 70 70 69 68 67 67 66 68 70 72 74 76 75 79 78 79 82 82 83 83 84 85 85 86 87 85 86 87 90 91 94 97 100 100 102 106 -209 107 110 118 125 121 122 122 122 119 119 119 119 116 118 119 119 -193 122 124 125 124 125 127 129 131 133 138 138 140 140 139 140 140 139 140 139 141 141 144 145 146 147 149 150 152 153 153 155 157 158 157 157 160 162 164 165 162 164 166 170 170 -193 162 160 -193 -209 141 0 0 0 0 0
    0 0 0 0 0 0 0 0 0 0 0 0 0 0 0 0 0 0 0 0 0 0 0 0 0 0 0 0 0 0 0 0 0 0 0 0 0 0 0 0 0 0 0 0 0 0 0 0 0 0 0 0 0 0 0 0 0 0 0 0 0 0 0 0 0 0 0 0 0 121 120 120 -193 120 117 117 110 104 101 98 100 101 102 101 100 97 98 95 96 94 91 89 89 88 88 85 86 86 83 87 87 86 83 78 76 76 75 74 73 72 67 58 60 69 72 69 67 66 67 67 65 65 62 61 65 69 71 72 73 74 73 72 72 71 69 68 66 -225 -225 -225 -225 -225 -225 -225 -225 -225 -225 -225 -225 -225 -225 -225 -225 -225 -225 -225 -225 -225 -225 -225 -225 -225 -225 -225 -225 -225 -225 -225 -225 -225 -225 -225 -225 -225 -225 -225 -225 -225 -225 -225 -225 -225 -225 -225 -225 -225 -225 -225 -225 -225 -225 -225 -225 -225 -225 -225 -225 -225 -225 63 59 63 63 63 68 70 71 71 71 71 71 71 71 70 70 69 69 67 69 70 71 72 74 73 77 77 79 81 82 83 83 84 85 85 86 87 85 87 88 91 91 94 96 99 99 101 -209 -209 105 108 118 126 121 121 122 122 119 119 119 119 116 119 120 120 -193 123 125 125 125 125 127 130 132 133 138 139 141 141 141 141 141 140 140 139 141 141 144 145 147 147 149 150 151 152 153 154 156 157 157 156 160 163 165 166 163 163 164 168 167 165 159 159 156 -209 -193 0 0 0 0 0
    0 0 0 0 0 0 0 0 0 0 0 0 0 0 0 0 0 0 0 0 0 0 0 0 0 0 0 0 0 0 0 0 0 0 0 0 0 0 0 0 0 0 0 0 0 0 0 0 0 0 0 0 0 0 0 0 0 0 0 0 0 0 0 0 0 0 0 0 0 122 120 120 -193 116 115 116 109 103 100 98 101 100 102 101 100 97 98 95 95 93 91 89 89 88 88 85 87 86 84 88 88 86 83 76 75 74 73 72 71 69 62 61 71 73 74 72 71 70 70 69 67 66 65 65 68 71 73 73 74 75 74 74 73 72 70 69 -225 -225 -225 -225 -225 -225 -225 -225 -225 -225 -225 -225 -225 -225 -225 -225 -225 -225 -225 -225 -225 -225 -225 -225 -225 -225 -225 -225 -225 -225 -225 -225 -225 -225 -225 -225 -225 -225 -225 -225 -225 -225 -225 -225 -225 -225 -225 -225 -225 -225 -225 -225 -225 -225 -225 -225 -225 -225 -225 -225 -225 -225 -225 -225 60 63 64 65 69 71 72 71 72 72 71 72 72 72 71 70 70 69 70 71 71 71 72 72 75 75 77 80 82 83 83 84 85 84 86 87 86 88 89 92 92 93 95 97 98 101 -209 -209 104 109 119 127 122 122 122 122 120 120 120 119 117 120 120 121 -193 123 125 126 126 126 128 131 133 134 138 139 141 141 141 142 142 140 141 140 142 142 146 147 149 148 150 151 152 152 154 156 158 160 159 160 162 164 165 165 164 163 164 166 166 165 160 160 158 -209 -193 0 0 0 0 0
    0 0 0 0 0 0 0 0 0 0 0 0 0 0 0 0 0 0 0 0 0 0 0 0 0 0 0 0 0 0 0 0 0 0 0 0 0 0 0 0 0 0 0 0 0 0 0 0 0 0 0 0 0 0 0 0 0 0 0 0 0 0 0 0 0 0 0 0 0 121 118 111 107 103 105 107 105 102 99 98 101 101 102 101 100 97 98 96 95 93 91 90 89 89 89 86 87 86 85 89 88 87 83 78 78 76 75 74 73 72 67 72 72 75 75 73 72 72 71 70 69 69 69 69 72 73 74 75 75 76 75 75 74 73 71 70 -225 -225 -225 -225 -225 -225 -225 -225 -225 -225 -225 -225 -225 -225 -225 -225 -225 -225 -225 -225 -225 -225 -225 -225 -225 -225 -225 -225 -225 -225 -225 -225 -225 -225 -225 -225 -225 -225 -225 -225 -225 -225 -225 -225 -225 -225 -225 -225 -225 -225 -225 -225 -225 -225 -225 -225 -225 -225 -225 -225 -225 -225 -225 -225 -225 65 67 67 71 73 73 72 72 72 72 71 72 72 72 72 73 71 73 73 74 73 74 72 75 75 77 79 82 83 83 84 85 84 86 87 86 89 89 92 91 93 94 96 97 101 -209 -209 106 112 120 128 122 122 122 122 120 120 120 120 118 121 121 121 122 122 125 125 126 126 128 132 134 135 140 140 143 142 142 142 143 142 142 141 144 144 148 148 150 150 151 152 153 154 155 158 161 164 162 163 164 166 165 164 163 163 163 166 167 164 159 161 161 -209 -193 0 0 0 0 0
    0 0 0 0 0 0 0 0 0 0 0 0 0 0 0 0 0 0 0 0 0 0 0 0 0 0 0 0 0 0 0 0 0 0 0 0 0 0 0 0 0 0 0 0 0 0 0 0 0 0 0 0 0 0 0 0 0 0 0 0 0 0 0 0 0 0 0 0 0 118 115 107 105 102 102 106 105 102 99 99 102 102 102 102 101 97 99 97 96 93 91 89 89 89 89 86 88 87 85 89 88 86 83 79 79 77 76 75 74 72 70 74 75 78 79 77 75 74 74 73 72 73 73 73 74 75 76 77 77 77 76 75 74 73 72 -225 -225 -225 -225 -225 -225 -225 -225 -225 -225 -225 -225 -225 -225 -225 -225 -225 -225 -225 -225 -225 -225 -225 -225 -225 -225 -225 -225 -225 -225 -225 -225 -225 -225 -225 -225 -225 -225 -225 -225 -225 -225 -225 -225 -225 -225 -225 -225 -225 -225 -225 -225 -225 -225 -225 -225 -225 -225 -225 -225 -225 -225 -225 -225 -225 -225 -225 -225 69 72 76 75 73 74 73 73 72 73 73 73 73 73 72 72 72 73 72 72 71 73 74 75 78 80 83 84 85 86 85 87 88 87 89 90 92 92 92 95 96 97 101 -209 -209 107 112 120 128 121 121 121 122 121 121 121 121 118 121 122 122 122 122 124 125 125 127 129 132 134 135 139 138 141 142 142 142 142 142 142 142 145 145 148 149 150 150 151 152 153 155 156 158 161 164 163 164 164 166 164 164 163 163 164 166 168 166 161 163 166 170 -193 0 0 0 0 0
    0 0 0 0 0 0 0 0 0 0 0 0 0 0 0 0 0 0 0 0 0 0 0 0 0 0 0 0 0 0 0 0 0 0 0 0 0 0 0 0 0 0 0 0 0 0 0 0 0 0 0 0 0 0 0 0 0 0 0 0 0 0 0 0 0 0 0 0 0 114 111 107 106 103 105 108 108 102 100 100 102 102 102 101 101 97 99 97 95 92 91 89 89 89 89 86 88 87 86 89 88 86 84 83 82 81 79 78 77 74 73 75 76 79 80 79 76 76 75 74 74 75 75 75 76 77 77 77 77 77 76 76 75 74 -225 -225 -225 -225 -225 -225 -225 -225 -225 -225 -225 -225 -225 -225 -225 -225 -225 -225 -225 -225 -225 -225 -225 -225 -225 -225 -225 -225 -225 -225 -225 -225 -225 -225 -225 -225 -225 -225 -225 -225 -225 -225 -225 -225 -225 -225 -225 -225 -225 -225 -225 -225 -225 -225 -225 -225 -225 -225 -225 -225 -225 -225 -225 -225 -225 -225 -225 -225 -225 71 72 80 77 75 75 74 75 73 74 74 74 74 75 74 74 74 74 73 73 71 73 73 74 76 78 83 85 86 87 87 88 89 88 90 90 92 92 92 94 96 96 100 -209 -209 105 111 119 128 120 121 121 122 122 122 122 121 119 122 122 123 123 122 124 124 125 127 129 131 132 134 136 136 140 141 141 141 143 143 143 143 146 146 148 149 150 151 152 152 154 155 156 159 161 164 163 163 164 165 164 165 165 165 167 168 170 169 166 168 169 171 173 0 0 0 0 0
    0 0 0 0 0 0 0 0 0 0 0 0 0 0 0 0 0 0 0 0 0 0 0 0 0 0 0 0 0 0 0 0 0 0 0 0 0 0 0 0 0 0 0 0 0 0 0 0 0 0 0 0 0 0 0 0 0 0 0 0 0 0 0 0 0 0 0 0 0 111 110 108 107 105 107 111 108 102 100 101 102 102 102 101 100 97 99 97 94 92 90 89 89 89 89 86 89 88 87 89 88 87 85 85 83 83 79 79 79 76 75 76 75 78 80 79 76 76 76 75 76 77 77 76 77 78 78 78 78 78 77 77 76 -225 -225 -225 -225 -225 -225 -225 -225 -225 -225 -225 -225 -225 -225 -225 -225 -225 -225 -225 -225 -225 -225 -225 -225 -225 -225 -225 -225 -225 -225 -225 -225 -225 -225 -225 -225 -225 -225 -225 -225 -225 -225 -225 -225 -225 -225 -225 -225 -225 -225 -225 -225 -225 -225 -225 -225 -225 -225 -225 -225 -225 -225 -225 -225 -225 -225 -225 -225 -225 -225 -225 72 83 78 76 76 76 76 75 75 75 76 76 76 75 75 75 75 74 73 71 72 71 73 74 76 82 85 86 88 88 89 90 89 90 91 92 92 92 94 95 96 100 -209 -209 104 110 119 128 120 121 121 121 123 122 122 122 120 123 124 124 124 122 124 124 125 128 129 130 131 133 134 135 138 140 140 140 142 143 143 143 145 146 148 149 150 151 152 153 154 156 157 159 161 164 164 164 165 166 165 165 166 166 169 169 171 170 169 170 170 172 175 0 0 0 0 0
    0 0 0 0 0 0 0 0 0 0 0 0 0 0 0 0 0 0 0 0 0 0 0 0 0 0 0 0 0 0 0 0 0 0 0 0 0 0 0 0 0 0 0 0 0 0 0 0 0 0 0 0 0 0 0 0 0 0 0 0 0 0 0 0 0 0 0 0 0 110 109 109 108 106 110 115 109 102 101 103 103 102 101 101 100 97 99 96 93 91 89 89 88 88 88 87 89 89 88 89 88 87 86 86 83 83 77 80 80 76 76 76 75 78 79 79 76 76 76 77 79 79 78 78 79 80 80 80 79 78 78 78 -225 -225 -225 -225 -225 -225 -225 -225 -225 -225 -225 -225 -225 -225 -225 -225 -225 -225 -225 -225 -225 -225 -225 -225 -225 -225 -225 -225 -225 -225 -225 -225 -225 -225 -225 -225 -225 -225 -225 -225 -225 -225 -225 -225 -225 -225 -225 -225 -225 -225 -225 -225 -225 -225 -225 -225 -225 -225 -225 -225 -225 -225 -225 -225 -225 -225 -225 -225 -225 -225 -225 -225 -225 83 77 76 76 75 76 75 76 76 77 77 78 76 77 76 76 74 74 71 71 70 71 71 74 80 85 87 90 90 90 92 91 92 92 93 93 93 94 95 95 100 103 -209 104 109 119 128 119 120 120 121 124 123 123 123 121 123 125 125 125 122 124 124 125 127 129 131 131 134 135 137 140 141 141 142 144 144 144 144 145 146 148 149 150 150 152 152 154 156 157 159 162 165 164 165 165 166 165 166 167 167 169 169 170 169 169 171 172 174 178 0 0 0 0 0
    0 0 0 0 0 0 0 0 0 0 0 0 0 0 0 0 0 0 0 0 0 0 0 0 0 0 0 0 0 0 0 0 0 0 0 0 0 0 0 0 0 0 0 0 0 0 0 0 0 0 0 0 0 0 0 0 0 0 0 0 0 0 0 0 0 0 0 0 0 110 109 110 108 108 111 116 109 103 102 104 103 102 101 101 100 97 99 96 92 90 89 88 88 89 89 87 89 89 88 89 88 87 86 86 80 80 76 80 79 77 76 76 75 77 77 78 75 75 76 79 80 80 80 79 80 81 81 81 79 78 79 78 -225 -225 -225 -225 -225 -225 -225 -225 -225 -225 -225 -225 -225 -225 -225 -225 -225 -225 -225 -225 -225 -225 -225 -225 -225 -225 -225 -225 -225 -225 -225 -225 -225 -225 -225 -225 -225 -225 -225 -225 -225 -225 -225 -225 -225 -225 -225 -225 -225 -225 -225 -225 -225 -225 -225 -225 -225 -225 -225 -225 -225 -225 -225 -225 -225 -225 -225 -225 -225 -225 -225 -225 -225 -225 76 75 76 76 76 75 76 77 78 78 79 77 77 76 77 76 75 72 71 70 71 70 73 78 85 89 91 92 92 94 93 94 93 94 93 93 95 96 95 99 -209 -209 -209 108 118 129 119 120 120 121 124 123 123 123 121 124 125 125 125 122 124 123 124 126 129 131 131 133 134 137 140 141 142 142 144 144 144 144 145 146 148 149 150 150 152 153 155 157 157 159 162 165 165 166 166 166 165 165 166 166 168 168 169 169 169 171 172 175 179 0 0 0 0 0
    0 0 0 0 0 0 0 0 0 0 0 0 0 0 0 0 0 0 0 0 0 0 0 0 0 0 0 0 0 0 0 0 0 0 0 0 0 0 0 0 0 0 0 0 0 0 0 0 0 0 0 0 0 0 0 0 0 0 0 0 0 0 0 0 0 0 0 0 0 111 110 111 109 110 115 117 112 104 104 106 104 103 102 101 100 98 100 96 92 91 90 89 89 89 89 88 90 90 90 90 89 88 85 85 81 83 77 81 79 78 76 77 76 77 78 78 76 77 79 82 82 82 82 82 82 82 82 81 80 78 78 -225 -225 -225 -225 -225 -225 -225 -225 -225 -225 -225 -225 -225 -225 -225 -225 -225 -225 -225 -225 -225 -225 -225 -225 -225 -225 -225 -225 -225 -225 -225 -225 -225 -225 -225 -225 -225 -225 -225 -225 -225 -225 -225 -225 -225 -225 -225 -225 -225 -225 -225 -225 -225 -225 -225 -225 -225 -225 -225 -225 -225 -225 -225 -225 -225 -225 -225 -225 -225 -225 -225 -225 -225 -225 -225 -225 71 74 74 75 75 76 76 78 78 79 77 78 77 78 77 76 74 73 72 73 71 76 83 87 91 92 92 92 94 93 94 93 95 93 94 95 96 96 99 102 -209 -209 108 118 126 118 119 119 120 124 123 123 123 121 124 125 125 125 121 123 122 123 126 128 131 131 133 134 136 139 140 141 142 143 144 143 143 145 146 148 149 150 151 153 153 155 156 156 159 162 165 165 165 166 166 166 166 166 166 169 168 170 169 170 171 172 175 179 0 0 0 0 0
    0 0 0 0 0 0 0 0 0 0 0 0 0 0 0 0 0 0 0 0 0 0 0 0 0 0 0 0 0 0 0 0 0 0 0 0 0 0 0 0 0 0 0 0 0 0 0 0 0 0 0 0 0 0 0 0 0 0 0 0 0 0 0 0 0 0 0 0 0 111 110 112 110 111 115 115 112 106 105 107 104 104 103 101 100 99 100 97 92 91 90 89 89 89 89 87 89 89 90 90 89 87 84 88 87 -193 83 85 83 81 79 81 78 79 80 80 78 80 82 84 84 84 84 83 83 83 82 81 80 78 -225 -225 -225 -225 -225 -225 -225 -225 -225 -225 -225 -225 -225 -225 -225 -225 -225 -225 -225 -225 -225 -225 -225 -225 -225 -225 -225 -225 -225 -225 -225 -225 -225 -225 -225 -225 -225 -225 -225 -225 -225 -225 -225 -225 -225 -225 -225 -225 -225 -225 -225 -225 -225 -225 -225 -225 -225 -225 -225 -225 -225 -225 -225 -225 -225 -225 -225 -225 -225 -225 -225 -225 -225 -225 -225 -225 -225 -225 72 73 75 75 75 76 78 78 80 79 80 79 79 79 77 75 75 74 74 72 80 87 89 92 93 93 93 94 94 95 94 95 93 94 95 97 97 100 103 -209 106 111 118 124 118 119 119 120 124 123 123 123 121 124 125 125 125 121 122 121 123 126 130 132 132 134 135 137 138 140 140 141 143 144 143 143 145 146 148 149 149 150 152 153 155 -193 156 159 162 164 164 164 165 166 166 166 166 166 169 169 171 171 172 172 173 176 180 0 0 0 0 0
    0 0 0 0 0 0 0 0 0 0 0 0 0 0 0 0 0 0 0 0 0 0 0 0 0 0 0 0 0 0 0 0 0 0 0 0 0 0 0 0 0 0 0 0 0 0 0 0 0 0 0 0 0 0 0 0 0 0 0 0 0 0 0 0 0 0 0 0 0 111 110 113 111 113 116 116 112 108 107 110 105 104 103 101 100 100 100 98 92 92 91 89 89 89 89 87 90 90 91 90 90 91 100 99 94 93 85 85 83 83 79 80 77 79 79 79 79 82 83 86 85 85 85 84 84 84 83 82 80 -225 -225 -225 -225 -225 -225 -225 -225 -225 -225 -225 -225 -225 -225 -225 -225 -225 -225 -225 -225 -225 -225 -225 -225 -225 -225 -225 -225 -225 -225 -225 -225 -225 -225 -225 -225 -225 -225 -225 -225 -225 -225 -225 -225 -225 -225 -225 -225 -225 -225 -225 -225 -225 -225 -225 -225 -225 -225 -225 -225 -225 -225 -225 -225 -225 -225 -225 -225 -225 -225 -225 -225 -225 -225 -225 -225 -225 -225 -225 72 74 74 75 75 76 80 78 80 79 81 80 81 81 79 76 78 77 80 74 84 89 90 93 93 93 94 94 95 95 94 95 94 96 96 98 97 100 103 105 107 110 116 121 117 118 118 119 124 123 123 123 122 124 125 126 125 121 122 121 123 126 130 132 131 134 134 136 138 139 140 142 143 144 144 144 146 147 148 149 149 150 152 153 154 156 155 157 161 163 164 164 165 167 168 168 168 -193 170 170 172 172 173 173 174 176 180 0 0 0 0 0
    0 0 0 0 0 0 0 0 0 0 0 0 0 0 0 0 0 0 0 0 0 0 0 0 0 0 0 0 0 0 0 0 0 0 0 0 0 0 0 0 0 0 0 0 0 0 0 0 0 0 0 0 0 0 0 0 0 0 0 0 0 0 0 0 0 0 0 0 0 113 112 115 114 116 117 117 114 109 108 111 105 104 103 101 100 100 100 98 93 94 91 90 90 90 89 87 89 92 92 91 93 99 103 101 94 92 86 85 83 83 80 81 78 79 80 82 83 86 86 88 87 86 86 85 86 85 83 82 -225 -225 -225 -225 -225 -225 -225 -225 -225 -225 -225 -225 -225 -225 -225 -225 -225 -225 -225 -225 -225 -225 -225 -225 -225 -225 -225 -225 -225 -225 -225 -225 -225 -225 -225 -225 -225 -225 -225 -225 -225 -225 -225 -225 -225 -225 -225 -225 -225 -225 -225 -225 -225 -225 -225 -225 -225 -225 -225 -225 -225 -225 -225 -225 -225 -225 -225 -225 -225 -225 -225 -225 -225 -225 -225 -225 -225 -225 -225 -225 -225 78 76 78 76 79 83 80 81 81 82 82 83 83 82 79 81 83 86 85 89 91 91 93 93 93 94 94 96 96 94 96 96 97 98 99 98 100 103 105 107 109 115 120 116 117 117 118 123 123 123 123 122 124 126 126 126 121 122 122 123 126 130 131 131 133 134 136 138 139 139 141 142 143 143 144 145 146 147 148 148 150 151 152 154 155 155 156 159 161 163 164 165 167 169 170 170 -193 172 171 172 173 173 173 174 177 180 0 0 0 0 0
    0 0 0 0 0 0 0 0 0 0 0 0 0 0 0 0 0 0 0 0 0 0 0 0 0 0 0 0 0 0 0 0 0 0 0 0 0 0 0 0 0 0 0 0 0 0 0 0 0 0 0 0 0 0 0 0 0 0 0 0 0 0 0 0 0 0 0 0 0 115 114 117 116 118 119 117 114 110 110 111 104 104 103 100 100 100 100 97 93 95 92 90 91 90 89 87 89 95 96 99 100 101 102 99 96 93 89 87 85 87 84 84 80 80 82 85 87 89 88 89 89 88 88 87 87 86 84 82 -225 -225 -225 -225 -225 -225 -225 -225 -225 -225 -225 -225 -225 -225 -225 -225 -225 -225 -225 -225 -225 -225 -225 -225 -225 -225 -225 -225 -225 -225 -225 -225 -225 -225 -225 -225 -225 -225 -225 -225 -225 -225 -225 -225 -225 -225 -225 -225 -225 -225 -225 -225 -225 -225 -225 -225 -225 -225 -225 -225 -225 -225 -225 -225 -225 -225 -225 -225 -225 -225 -225 -225 -225 -225 -225 -225 -225 -225 -225 -225 -225 -225 -225 84 80 83 85 82 83 82 84 83 84 85 85 83 87 88 90 89 90 93 91 94 93 94 94 94 97 97 95 96 95 96 95 99 98 99 104 106 107 110 114 119 115 116 117 118 122 122 123 123 122 124 126 126 126 121 123 122 123 126 129 131 131 133 133 135 137 138 139 141 142 143 142 144 144 146 147 148 149 149 152 153 154 155 155 156 158 158 161 162 163 167 170 171 170 170 172 172 172 173 173 173 173 175 177 0 0 0 0 0
    0 0 0 0 0 0 0 0 0 0 0 0 0 0 0 0 0 0 0 0 0 0 0 0 0 0 0 0 0 0 0 0 0 0 0 0 0 0 0 0 0 0 0 0 0 0 0 0 0 0 0 0 0 0 0 0 0 0 0 0 0 0 0 0 0 0 0 0 0 116 116 118 118 120 119 118 114 111 111 112 105 104 103 100 100 100 99 97 93 95 93 91 92 91 89 89 90 98 101 103 101 101 100 99 97 95 93 90 88 89 85 85 82 83 85 87 89 90 89 90 90 89 89 89 88 87 85 -225 -225 -225 -225 -225 -225 -225 -225 -225 -225 -225 -225 -225 -225 -225 -225 -225 -225 -225 -225 -225 -225 -225 -225 -225 -225 -225 -225 -225 -225 -225 -225 -225 -225 -225 -225 -225 -225 -225 -225 -225 -225 -225 -225 -225 -225 -225 -225 -225 -225 -225 -225 -225 -225 -225 -225 -225 -225 -225 -225 -225 -225 -225 -225 -225 -225 -225 -225 -225 -225 -225 -225 -225 -225 -225 -225 -225 -225 -225 -225 -225 -225 -225 -225 -225 82 85 87 83 84 83 84 84 85 87 86 86 90 90 91 91 91 94 93 94 94 94 95 95 98 98 96 97 96 97 96 99 98 99 103 106 108 110 114 119 115 116 116 118 122 122 122 122 121 124 126 126 126 121 122 122 123 125 127 129 129 131 132 134 136 137 138 140 141 142 142 144 144 145 147 149 149 150 152 154 155 155 155 155 156 156 158 158 159 165 170 170 170 170 172 172 172 173 173 173 174 175 177 0 0 0 0 0
    0 0 0 0 0 0 0 0 0 0 0 0 0 0 0 0 0 0 0 0 0 0 0 0 0 0 0 0 0 0 0 0 0 0 0 0 0 0 0 0 0 0 0 0 0 0 0 0 0 0 0 0 0 0 0 0 0 0 0 0 0 0 0 0 0 0 0 0 0 117 117 119 119 121 120 118 116 114 114 114 106 105 103 101 100 100 100 97 94 95 93 91 92 91 90 89 91 100 101 103 101 101 100 99 98 95 95 91 88 90 85 85 83 84 88 89 90 91 90 91 91 91 91 90 89 89 -225 -225 -225 -225 -225 -225 -225 -225 -225 -225 -225 -225 -225 -225 -225 -225 -225 -225 -225 -225 -225 -225 -225 -225 -225 -225 -225 -225 -225 -225 -225 -225 -225 -225 -225 -225 -225 -225 -225 -225 -225 -225 -225 -225 -225 -225 -225 -225 -225 -225 -225 -225 -225 -225 -225 -225 -225 -225 -225 -225 -225 -225 -225 -225 -225 -225 -225 -225 -225 -225 -225 -225 -225 -225 -225 -225 -225 -225 -225 -225 -225 -225 -225 -225 -225 -225 -225 86 87 84 84 84 86 85 86 88 87 89 92 91 92 91 93 94 93 96 95 94 95 96 99 98 97 98 97 98 99 100 100 100 103 107 108 109 111 118 114 115 115 117 121 122 122 122 121 124 126 126 125 121 121 121 122 124 126 127 127 129 130 132 136 137 138 140 140 142 142 144 145 145 147 150 151 151 153 155 156 155 155 155 155 155 156 155 154 161 168 170 171 171 172 174 174 175 176 175 176 176 177 0 0 0 0 0
    0 0 0 0 0 0 0 0 0 0 0 0 0 0 0 0 0 0 0 0 0 0 0 0 0 0 0 0 0 0 0 0 0 0 0 0 0 0 0 0 0 0 0 0 0 0 0 0 0 0 0 0 0 0 0 0 0 0 0 0 0 0 0 0 0 0 0 0 0 120 120 123 122 122 120 119 116 115 115 115 107 105 103 101 100 100 99 96 94 96 94 92 93 92 90 90 96 101 102 102 100 100 101 99 99 95 95 92 89 90 86 86 86 87 91 91 91 92 91 92 92 92 92 90 90 89 -225 -225 -225 -225 -225 -225 -225 -225 -225 -225 -225 -225 -225 -225 -225 -225 -225 -225 -225 -225 -225 -225 -225 -225 -225 -225 -225 -225 -225 -225 -225 -225 -225 -225 -225 -225 -225 -225 -225 -225 -225 -225 -225 -225 -225 -225 -225 -225 -225 -225 -225 -225 -225 -225 -225 -225 -225 -225 -225 -225 -225 -225 -225 -225 -225 -225 -225 -225 -225 -225 -225 -225 -225 -225 -225 -225 -225 -225 -225 -225 -225 -225 -225 -225 -225 -225 -225 -225 87 84 85 86 87 85 86 88 89 89 93 92 92 91 94 95 94 96 95 94 95 96 99 98 98 99 99 100 100 101 101 101 104 107 108 107 108 117 113 114 114 117 120 121 121 121 121 124 126 126 125 120 121 121 122 124 126 127 127 128 128 130 135 136 137 140 140 142 143 145 146 147 148 150 152 152 154 155 156 155 155 155 155 155 156 154 153 159 168 169 171 172 174 174 175 176 177 175 175 176 176 0 0 0 0 0
    0 0 0 0 0 0 0 0 0 0 0 0 0 0 0 0 0 0 0 0 0 0 0 0 0 0 0 0 0 0 0 0 0 0 0 0 0 0 0 0 0 0 0 0 0 0 0 0 0 0 0 0 0 0 0 0 0 0 0 0 0 0 0 0 0 0 0 0 0 136 137 137 131 126 120 119 118 117 117 116 107 105 104 101 101 100 99 97 95 96 95 92 94 92 90 91 99 101 101 101 100 100 100 99 100 97 97 95 91 92 87 87 89 91 93 93 93 93 92 92 92 93 92 91 90 -225 -225 -225 -225 -225 -225 -225 -225 -225 -225 -225 -225 -225 -225 -225 -225 -225 -225 -225 -225 -225 -225 -225 -225 -225 -225 -225 -225 -225 -225 -225 -225 -225 -225 -225 -225 -225 -225 -225 -225 -225 -225 -225 -225 -225 -225 -225 -225 -225 -225 -225 -225 -225 -225 -225 -225 -225 -225 -225 -225 -225 -225 -225 -225 -225 -225 -225 -225 -225 -225 -225 -225 -225 -225 -225 -225 -225 -225 -225 -225 -225 -225 -225 -225 -225 -225 -225 -225 -225 -225 84 84 86 87 85 86 87 89 90 93 92 94 92 94 95 94 96 96 95 96 96 100 99 99 100 101 101 101 102 102 102 104 107 108 107 108 116 113 113 114 116 120 121 121 121 121 124 126 125 125 120 121 121 122 124 127 128 128 128 128 130 134 135 137 140 141 143 145 147 148 149 149 151 152 152 154 156 156 155 155 156 156 156 157 155 154 161 168 169 171 172 174 174 175 176 177 175 175 175 175 0 0 0 0 0
    0 0 0 0 0 0 0 0 0 0 0 0 0 0 0 0 0 0 0 0 0 0 0 0 0 0 0 0 0 0 0 0 0 0 0 0 0 0 0 0 0 0 0 0 0 0 0 0 0 0 0 0 0 0 0 0 0 0 0 0 0 0 0 0 0 0 0 0 0 138 142 143 -193 132 120 119 118 117 117 116 107 105 103 101 101 100 99 97 95 97 96 93 94 92 89 92 96 98 98 99 98 99 99 99 100 98 97 96 94 96 92 90 92 96 96 95 95 95 93 93 94 94 91 91 -225 -225 -225 -225 -225 -225 -225 -225 -225 -225 -225 -225 -225 -225 -225 -225 -225 -225 -225 -225 -225 -225 -225 -225 -225 -225 -225 -225 -225 -225 -225 -225 -225 -225 -225 -225 -225 -225 -225 -225 -225 -225 -225 -225 -225 -225 -225 -225 -225 -225 -225 -225 -225 -225 -225 -225 -225 -225 -225 -225 -225 -225 -225 -225 -225 -225 -225 -225 -225 -225 -225 -225 -225 -225 -225 -225 -225 -225 -225 -225 -225 -225 -225 -225 -225 -225 -225 -225 -225 -225 -225 -225 84 85 85 85 86 87 88 91 93 92 94 94 96 96 96 98 98 97 99 99 101 100 100 101 102 101 101 102 101 101 104 107 107 106 107 115 112 113 113 116 119 121 121 121 120 123 125 125 125 120 120 120 -193 124 127 128 128 127 128 130 133 134 135 138 139 142 144 146 148 149 150 151 152 152 154 156 156 155 155 155 156 156 157 155 155 162 167 168 170 171 172 173 174 176 176 175 175 175 175 0 0 0 0 0
    0 0 0 0 0 0 0 0 0 0 0 0 0 0 0 0 0 0 0 0 0 0 0 0 0 0 0 0 0 0 0 0 0 0 0 0 0 0 0 0 0 0 0 0 0 0 0 0 0 0 0 0 0 0 0 0 0 0 0 0 0 0 0 0 0 0 0 0 0 141 148 150 144 138 132 132 122 119 119 118 109 106 104 102 102 101 99 97 96 98 96 94 94 91 87 89 90 92 95 96 96 99 99 99 100 98 97 96 93 95 89 89 94 100 98 97 96 96 94 95 95 95 92 -225 -225 -225 -225 -225 -225 -225 -225 -225 -225 -225 -225 -225 -225 -225 -225 -225 -225 -225 -225 -225 -225 -225 -225 -225 -225 -225 -225 -225 -225 -225 -225 -225 -225 -225 -225 -225 -225 -225 -225 -225 -225 -225 -225 -225 -225 -225 -225 -225 -225 -225 -225 -225 -225 -225 -225 -225 -225 -225 -225 -225 -225 -225 -225 -225 -225 -225 -225 -225 -225 -225 -225 -225 -225 -225 -225 -225 -225 -225 -225 -225 -225 -225 -225 -225 -225 -225 -225 -225 -225 -225 -225 -225 -225 83 83 84 87 88 89 94 97 95 97 97 99 98 98 100 100 99 101 100 102 101 100 101 102 101 100 101 101 101 103 107 107 106 106 114 111 112 113 116 119 121 121 121 120 123 125 125 125 120 120 120 -193 124 126 126 126 125 126 128 132 132 134 136 138 140 142 145 146 148 149 151 153 153 155 157 157 156 156 156 156 156 157 155 155 160 165 167 169 170 171 172 173 175 175 175 175 175 175 0 0 0 0 0
    0 0 0 0 0 0 0 0 0 0 0 0 0 0 0 0 0 0 0 0 0 0 0 0 0 0 0 0 0 0 0 0 0 0 0 0 0 0 0 0 0 0 0 0 0 0 0 0 0 0 0 0 0 0 0 0 0 0 0 0 0 0 0 0 0 0 0 0 0 144 149 151 149 140 138 139 132 121 120 119 111 107 104 103 102 101 99 98 98 99 97 96 94 89 87 87 87 89 93 95 96 99 100 100 101 99 100 98 95 96 93 95 99 102 100 99 98 97 97 97 96 96 92 -225 -225 -225 -225 -225 -225 -225 -225 -225 -225 -225 -225 -225 -225 -225 -225 -225 -225 -225 -225 -225 -225 -225 -225 -225 -225 -225 -225 -225 -225 -225 -225 -225 -225 -225 -225 -225 -225 -225 -225 -225 -225 -225 -225 -225 -225 -225 -225 -225 -225 -225 -225 -225 -225 -225 -225 -225 -225 -225 -225 -225 -225 -225 -225 -225 -225 -225 -225 -225 -225 -225 -225 -225 -225 -225 -225 -225 -225 -225 -225 -225 -225 -225 -225 -225 -225 -225 -225 -225 -225 -225 -225 -225 -225 -225 82 84 87 89 91 96 100 96 98 98 99 99 99 100 101 99 101 102 103 102 102 103 104 102 102 102 102 102 104 108 107 106 107 113 112 112 114 116 119 121 121 121 121 123 125 125 125 119 120 -209 -209 124 126 126 126 125 125 128 131 133 133 134 136 139 141 143 145 147 149 151 153 153 155 158 157 156 156 156 156 156 157 155 155 158 162 165 167 169 170 172 173 175 175 175 175 175 175 0 0 0 0 0
    0 0 0 0 0 0 0 0 0 0 0 0 0 0 0 0 0 0 0 0 0 0 0 0 0 0 0 0 0 0 0 0 0 0 0 0 0 0 0 0 0 0 0 0 0 0 0 0 0 0 0 0 0 0 0 0 0 0 0 0 0 0 0 0 0 0 0 0 0 145 148 151 148 143 141 139 134 124 122 121 119 112 105 104 103 101 100 99 98 99 98 98 93 88 87 86 87 88 -193 93 94 99 100 101 102 102 102 100 97 100 101 101 103 104 101 100 99 99 98 97 97 96 -225 -225 -225 -225 -225 -225 -225 -225 -225 -225 -225 -225 -225 -225 -225 -225 -225 -225 -225 -225 -225 -225 -225 -225 -225 -225 -225 -225 -225 -225 -225 -225 -225 -225 -225 -225 -225 -225 -225 -225 -225 -225 -225 -225 -225 -225 -225 -225 -225 -225 -225 -225 -225 -225 -225 -225 -225 -225 -225 -225 -225 -225 -225 -225 -225 -225 -225 -225 -225 -225 -225 -225 -225 -225 -225 -225 -225 -225 -225 -225 -225 -225 -225 -225 -225 -225 -225 -225 -225 -225 -225 -225 -225 -225 -225 -225 86 88 92 93 94 98 102 98 99 98 99 97 98 100 101 100 101 102 102 102 102 103 104 102 102 102 102 103 104 107 107 107 108 113 112 113 115 117 120 122 122 122 121 124 125 125 125 119 120 -209 -209 -209 -209 127 128 125 126 130 133 134 134 134 136 139 140 141 142 145 147 150 153 153 155 158 157 156 157 157 157 156 156 154 154 156 158 162 165 167 169 171 173 175 175 175 175 175 175 0 0 0 0 0
    0 0 0 0 0 0 0 0 0 0 0 0 0 0 0 0 0 0 0 0 0 0 0 0 0 0 0 0 0 0 0 0 0 0 0 0 0 0 0 0 0 0 0 0 0 0 0 0 0 0 0 0 0 0 0 0 0 0 0 0 0 0 0 0 0 0 0 0 0 151 152 154 151 146 137 136 131 124 122 122 122 117 114 107 104 102 101 100 99 101 101 102 88 88 87 86 87 88 90 92 93 100 101 102 103 103 105 104 103 106 107 106 106 106 103 102 101 101 99 98 97 96 -225 -225 -225 -225 -225 -225 -225 -225 -225 -225 -225 -225 -225 -225 -225 -225 -225 -225 -225 -225 -225 -225 -225 -225 -225 -225 -225 -225 -225 -225 -225 -225 -225 -225 -225 -225 -225 -225 -225 -225 -225 -225 -225 -225 -225 -225 -225 -225 -225 -225 -225 -225 -225 -225 -225 -225 -225 -225 -225 -225 -225 -225 -225 -225 -225 -225 -225 -225 -225 -225 -225 -225 -225 -225 -225 -225 -225 -225 -225 -225 -225 -225 -225 -225 -225 -225 -225 -225 -225 -225 -225 -225 -225 -225 -225 -225 -225 97 103 100 97 100 102 100 100 99 100 98 98 100 101 100 102 103 103 102 103 104 105 104 103 102 103 103 104 107 107 107 108 114 113 114 115 117 121 122 122 122 121 124 125 125 125 120 120 -209 -209 -209 -209 -209 126 124 126 131 134 135 135 135 137 139 140 141 140 144 145 150 152 153 156 158 158 157 157 157 157 156 156 154 155 156 158 162 165 167 168 170 173 175 174 176 175 175 175 0 0 0 0 0
    0 0 0 0 0 0 0 0 0 0 0 0 0 0 0 0 0 0 0 0 0 0 0 0 0 0 0 0 0 0 0 0 0 0 0 0 0 0 0 0 0 0 0 0 0 0 0 0 0 0 0 0 0 0 0 0 0 0 0 0 0 0 0 0 0 0 0 0 0 150 152 154 147 -209 135 136 127 123 121 123 123 120 120 120 115 110 106 104 104 106 112 -209 88 88 88 87 87 88 90 92 94 100 102 103 104 107 106 109 108 108 108 107 107 107 103 102 101 101 100 99 98 -225 -225 -225 -225 -225 -225 -225 -225 -225 -225 -225 -225 -225 -225 -225 -225 -225 -225 -225 -225 -225 -225 -225 -225 -225 -225 -225 -225 -225 -225 -225 -225 -225 -225 -225 -225 -225 -225 -225 -225 -225 -225 -225 -225 -225 -225 -225 -225 -225 -225 -225 -225 -225 -225 -225 -225 -225 -225 -225 -225 -225 -225 -225 -225 -225 -225 -225 -225 -225 -225 -225 -225 -225 -225 -225 -225 -225 -225 -225 -225 -225 -225 -225 -225 -225 -225 -225 -225 -225 -225 -225 -225 -225 -225 -225 -225 -225 -225 102 107 103 101 103 104 102 101 100 101 99 99 101 102 103 103 105 105 104 105 105 106 104 103 103 102 103 105 107 107 108 109 114 114 115 116 117 121 122 122 122 121 123 124 124 124 120 120 -209 -209 -209 -209 -209 128 -193 130 134 135 136 136 136 138 140 140 140 138 142 143 148 151 152 155 157 157 157 157 157 157 157 157 155 155 156 157 160 163 164 166 168 171 173 172 174 174 175 175 0 0 0 0 0
    0 0 0 0 0 0 0 0 0 0 0 0 0 0 0 0 0 0 0 0 0 0 0 0 0 0 0 0 0 0 0 0 0 0 0 0 0 0 0 0 0 0 0 0 0 0 0 0 0 0 0 0 0 0 0 0 0 0 0 0 0 0 0 0 0 0 0 0 0 147 150 -209 145 -193 134 -193 -193 120 120 122 122 120 119 119 116 116 113 112 110 107 111 -193 90 91 -209 -209 89 90 -193 96 97 102 -193 104 -193 118 113 111 109 109 110 108 108 108 104 103 102 102 101 100 99 -225 -225 -225 -225 -225 -225 -225 -225 -225 -225 -225 -225 -225 -225 -225 -225 -225 -225 -225 -225 -225 -225 -225 -225 -225 -225 -225 -225 -225 -225 -225 -225 -225 -225 -225 -225 -225 -225 -225 -225 -225 -225 -225 -225 -225 -225 -225 -225 -225 -225 -225 -225 -225 -225 -225 -225 -225 -225 -225 -225 -225 -225 -225 -225 -225 -225 -225 -225 -225 -225 -225 -225 -225 -225 -225 -225 -225 -225 -225 -225 -225 -225 -225 -225 -225 -225 -225 -225 -225 -225 -225 -225 -225 -225 -225 -225 -225 -225 -225 110 104 103 104 105 103 103 102 102 100 102 102 104 105 105 106 105 105 105 105 106 104 103 103 103 103 106 107 108 109 111 115 114 116 117 118 122 123 122 122 121 123 124 124 124 121 120 121 -209 124 126 126 129 127 131 135 135 136 136 136 137 139 139 140 138 142 143 146 149 151 153 154 155 155 156 156 157 157 157 156 156 157 157 159 159 160 163 166 169 171 170 172 172 173 175 0 0 0 0 0
    0 0 0 0 0 0 0 0 0 0 0 0 0 0 0 0 0 0 0 0 0 0 0 0 0 0 0 0 0 0 0 0 0 0 0 0 0 0 0 0 0 0 0 0 0 0 0 0 0 0 0 0 0 0 0 0 0 0 0 0 0 0 0 0 0 0 0 0 0 147 149 -209 140 -193 121 133 120 120 120 123 123 120 120 120 118 118 117 118 116 111 114 105 99 97 -209 -209 96 -209 -193 -193 -193 -193 108 105 106 121 115 113 112 111 112 110 110 109 105 104 103 103 101 100 -225 -225 -225 -225 -225 -225 -225 -225 -225 -225 -225 -225 -225 -225 -225 -225 -225 -225 -225 -225 -225 -225 -225 -225 -225 -225 -225 -225 -225 -225 -225 -225 -225 -225 -225 -225 -225 -225 -225 -225 -225 -225 -225 -225 -225 -225 -225 -225 -225 -225 -225 -225 -225 -225 -225 -225 -225 -225 -225 -225 -225 -225 -225 -225 -225 -225 -225 -225 -225 -225 -225 -225 -225 -225 -225 -225 -225 -225 -225 -225 -225 -225 -225 -225 -225 -225 -225 -225 -225 -225 -225 -225 -225 -225 -225 -225 -225 -225 -225 -225 112 104 103 104 105 103 103 103 103 101 104 104 107 107 107 108 107 106 106 105 106 104 103 103 103 104 107 108 109 111 113 116 115 117 118 119 122 124 122 123 122 123 124 123 123 120 120 121 -209 123 125 125 127 127 130 135 135 136 136 136 137 139 139 140 137 141 143 144 148 150 152 153 154 155 155 156 157 156 156 156 157 157 157 159 159 158 160 164 168 170 169 171 171 172 175 0 0 0 0 0
    0 0 0 0 0 0 0 0 0 0 0 0 0 0 0 0 0 0 0 0 0 0 0 0 0 0 0 0 0 0 0 0 0 0 0 0 0 0 0 0 0 0 0 0 0 0 0 0 0 0 0 0 0 0 0 0 0 0 0 0 0 0 0 0 0 0 0 0 0 146 145 -193 -193 -193 -193 128 120 121 121 123 124 121 120 120 118 118 117 118 120 117 118 119 -209 -209 -209 115 107 108 120 111 115 120 -193 108 119 119 115 113 111 111 111 110 109 108 106 105 104 104 103 -225 -225 -225 -225 -225 -225 -225 -225 -225 -225 -225 -225 -225 -225 -225 -225 -225 -225 -225 -225 -225 -225 -225 -225 -225 -225 -225 -225 -225 -225 -225 -225 -225 -225 -225 -225 -225 -225 -225 -225 -225 -225 -225 -225 -225 -225 -225 -225 -225 -225 -225 -225 -225 -225 -225 -225 -225 -225 -225 -225 -225 -225 -225 -225 -225 -225 -225 -225 -225 -225 -225 -225 -225 -225 -225 -225 -225 -225 -225 -225 -225 -225 -225 -225 -225 -225 -225 -225 -225 -225 -225 -225 -225 -225 -225 -225 -225 -225 -225 -225 -225 113 104 103 103 105 104 103 103 104 102 106 106 109 110 110 111 109 108 108 107 107 106 105 105 105 105 109 110 111 113 116 117 116 118 119 120 123 124 123 124 123 124 124 123 123 120 120 121 -209 124 125 126 127 128 131 134 135 135 136 136 137 139 139 139 137 139 141 142 147 150 152 152 154 155 156 156 157 156 156 156 157 156 157 158 159 157 158 161 167 169 169 170 171 173 176 0 0 0 0 0
    0 0 0 0 0 0 0 0 0 0 0 0 0 0 0 0 0 0 0 0 0 0 0 0 0 0 0 0 0 0 0 0 0 0 0 0 0 0 0 0 0 0 0 0 0 0 0 0 0 0 0 0 0 0 0 0 0 0 0 0 0 0 0 0 0 0 0 0 0 140 -193 -193 127 117 119 123 119 121 121 122 125 120 120 120 117 117 118 119 121 120 121 121 114 117 122 119 115 115 119 116 119 121 121 117 122 120 118 116 114 114 114 112 110 108 108 107 106 106 -225 -225 -225 -225 -225 -225 -225 -225 -225 -225 -225 -225 -225 -225 -225 -225 -225 -225 -225 -225 -225 -225 -225 -225 -225 -225 -225 -225 -225 -225 -225 -225 -225 -225 -225 -225 -225 -225 -225 -225 -225 -225 -225 -225 -225 -225 -225 -225 -225 -225 -225 -225 -225 -225 -225 -225 -225 -225 -225 -225 -225 -225 -225 -225 -225 -225 -225 -225 -225 -225 -225 -225 -225 -225 -225 -225 -225 -225 -225 -225 -225 -225 -225 -225 -225 -225 -225 -225 -225 -225 -225 -225 -225 -225 -225 -225 -225 -225 -225 -225 -225 -225 112 104 103 103 104 103 103 102 103 101 106 107 110 112 112 115 112 111 111 109 110 108 107 108 107 107 111 111 112 115 117 118 117 119 120 121 124 125 123 125 123 124 124 123 122 121 122 122 -209 124 125 126 127 127 131 135 136 136 137 137 138 140 140 140 137 140 141 142 147 150 152 153 154 156 157 156 156 156 156 156 156 156 156 158 159 157 157 158 165 167 168 169 171 173 176 0 0 0 0 0
    0 0 0 0 0 0 0 0 0 0 0 0 0 0 0 0 0 0 0 0 0 0 0 0 0 0 0 0 0 0 0 0 0 0 0 0 0 0 0 0 0 0 0 0 0 0 0 0 0 0 0 0 0 0 0 0 0 0 0 0 0 0 0 0 0 0 0 0 0 139 -193 122 130 116 119 121 118 120 120 121 124 119 120 120 117 118 118 120 121 120 121 120 116 117 119 118 115 115 116 116 118 120 122 121 124 124 121 119 118 117 116 113 110 108 108 107 106 -225 -225 -225 -225 -225 -225 -225 -225 -225 -225 -225 -225 -225 -225 -225 -225 -225 -225 -225 -225 -225 -225 -225 -225 -225 -225 -225 -225 -225 -225 -225 -225 -225 -225 -225 -225 -225 -225 -225 -225 -225 -225 -225 -225 -225 -225 -225 -225 -225 -225 -225 -225 -225 -225 -225 -225 -225 -225 -225 -225 -225 -225 -225 -225 -225 -225 -225 -225 -225 -225 -225 -225 -225 -225 -225 -225 -225 -225 -225 -225 -225 -225 -225 -225 -225 -225 -225 -225 -225 -225 -225 -225 -225 -225 -225 -225 -225 -225 -225 -225 -225 -225 -225 112 104 104 103 103 102 102 101 102 101 107 108 115 117 117 118 117 115 115 113 114 110 110 112 109 110 114 113 114 116 118 119 118 120 121 121 124 124 122 124 123 123 123 123 122 121 123 123 122 123 124 125 126 127 131 135 136 137 137 138 139 140 141 141 138 141 143 143 148 150 153 153 154 156 157 156 156 156 156 156 156 156 157 159 159 158 157 159 163 165 166 168 169 172 174 0 0 0 0 0
    0 0 0 0 0 0 0 0 0 0 0 0 0 0 0 0 0 0 0 0 0 0 0 0 0 0 0 0 0 0 0 0 0 0 0 0 0 0 0 0 0 0 0 0 0 0 0 0 0 0 0 0 0 0 0 0 0 0 0 0 0 0 0 0 0 0 0 0 0 140 135 124 128 114 119 120 119 121 121 121 124 120 122 121 119 120 119 121 121 120 121 119 117 116 118 117 114 114 115 116 118 120 123 121 125 124 122 120 119 117 116 113 111 109 108 108 -225 -225 -225 -225 -225 -225 -225 -225 -225 -225 -225 -225 -225 -225 -225 -225 -225 -225 -225 -225 -225 -225 -225 -225 -225 -225 -225 -225 -225 -225 -225 -225 -225 -225 -225 -225 -225 -225 -225 -225 -225 -225 -225 -225 -225 -225 -225 -225 -225 -225 -225 -225 -225 -225 -225 -225 -225 -225 -225 -225 -225 -225 -225 -225 -225 -225 -225 -225 -225 -225 -225 -225 -225 -225 -225 -225 -225 -225 -225 -225 -225 -225 -225 -225 -225 -225 -225 -225 -225 -225 -225 -225 -225 -225 -225 -225 -225 -225 -225 -225 -225 -225 -225 -225 111 105 104 104 103 103 103 102 105 103 111 111 117 118 119 119 118 116 116 113 116 110 110 113 109 111 116 114 115 117 119 119 119 120 121 121 124 123 121 123 122 122 123 122 122 121 124 124 122 123 123 124 126 126 131 135 136 136 137 138 139 140 140 140 138 140 142 142 147 150 152 153 154 157 157 157 157 157 157 157 157 156 157 159 160 158 158 160 164 165 166 168 169 171 173 0 0 0 0 0
    0 0 0 0 0 0 0 0 0 0 0 0 0 0 0 0 0 0 0 0 0 0 0 0 0 0 0 0 0 0 0 0 0 0 0 0 0 0 0 0 0 0 0 0 0 0 0 0 0 0 0 0 0 0 0 0 0 0 0 0 0 0 0 0 0 0 0 0 0 135 129 122 -193 109 117 107 117 120 119 121 124 121 123 122 120 121 121 122 122 120 120 119 118 117 119 117 115 115 116 117 120 121 123 122 124 124 122 120 120 117 116 114 112 110 109 -225 -225 -225 -225 -225 -225 -225 -225 -225 -225 -225 -225 -225 -225 -225 -225 -225 -225 -225 -225 -225 -225 -225 -225 -225 -225 -225 -225 -225 -225 -225 -225 -225 -225 -225 -225 -225 -225 -225 -225 -225 -225 -225 -225 -225 -225 -225 -225 -225 -225 -225 -225 -225 -225 -225 -225 -225 -225 -225 -225 -225 -225 -225 -225 -225 -225 -225 -225 -225 -225 -225 -225 -225 -225 -225 -225 -225 -225 -225 -225 -225 -225 -225 -225 -225 -225 -225 -225 -225 -225 -225 -225 -225 -225 -225 -225 -225 -225 -225 -225 -225 -225 -225 -225 -225 111 104 104 104 104 103 103 103 105 105 116 115 118 119 119 120 120 119 118 115 118 115 115 117 114 115 117 115 116 118 119 120 119 120 121 122 124 123 121 124 122 123 123 123 122 122 124 125 122 123 123 123 125 126 130 134 135 136 137 138 139 140 140 140 138 140 142 142 147 150 152 154 155 157 157 156 157 157 157 158 157 157 157 159 161 159 161 162 165 166 167 170 170 171 173 0 0 0 0 0
    0 0 0 0 0 0 0 0 0 0 0 0 0 0 0 0 0 0 0 0 0 0 0 0 0 0 0 0 0 0 0 0 0 0 0 0 0 0 0 0 0 0 0 0 0 0 0 0 0 0 0 0 0 0 0 0 0 0 0 0 0 0 0 0 0 0 0 0 0 131 126 121 -193 106 113 104 111 111 113 118 123 121 123 123 122 122 122 123 121 120 119 119 118 118 119 118 115 117 118 120 123 123 125 123 127 127 125 122 120 117 116 114 113 -225 -225 -225 -225 -225 -225 -225 -225 -225 -225 -225 -225 -225 -225 -225 -225 -225 -225 -225 -225 -225 -225 -225 -225 -225 -225 -225 -225 -225 -225 -225 -225 -225 -225 -225 -225 -225 -225 -225 -225 -225 -225 -225 -225 -225 -225 -225 -225 -225 -225 -225 -225 -225 -225 -225 -225 -225 -225 -225 -225 -225 -225 -225 -225 -225 -225 -225 -225 -225 -225 -225 -225 -225 -225 -225 -225 -225 -225 -225 -225 -225 -225 -225 -225 -225 -225 -225 -225 -225 -225 -225 -225 -225 -225 -225 -225 -225 -225 -225 -225 -225 -225 -225 -225 -225 -225 -225 -225 104 106 105 105 104 104 104 107 107 118 117 119 120 120 120 121 120 119 118 120 118 118 119 116 117 118 117 117 118 119 120 118 121 122 122 123 123 121 123 122 123 123 122 121 122 123 124 122 123 123 123 125 126 129 134 134 136 137 138 138 140 140 140 138 140 144 143 148 151 152 154 155 156 157 156 157 157 157 159 158 158 157 159 162 161 164 165 166 168 169 171 172 173 175 0 0 0 0 0
    0 0 0 0 0 0 0 0 0 0 0 0 0 0 0 0 0 0 0 0 0 0 0 0 0 0 0 0 0 0 0 0 0 0 0 0 0 0 0 0 0 0 0 0 0 0 0 0 0 0 0 0 0 0 0 0 0 0 0 0 0 0 0 0 0 0 0 0 0 127 125 121 -193 108 113 106 112 109 111 115 -193 121 -209 124 125 124 124 124 122 121 121 121 120 119 119 119 116 119 120 122 124 124 126 125 129 129 126 122 121 119 118 116 114 -225 -225 -225 -225 -225 -225 -225 -225 -225 -225 -225 -225 -225 -225 -225 -225 -225 -225 -225 -225 -225 -225 -225 -225 -225 -225 -225 -225 -225 -225 -225 -225 -225 -225 -225 -225 -225 -225 -225 -225 -225 -225 -225 -225 -225 -225 -225 -225 -225 -225 -225 -225 -225 -225 -225 -225 -225 -225 -225 -225 -225 -225 -225 -225 -225 -225 -225 -225 -225 -225 -225 -225 -225 -225 -225 -225 -225 -225 -225 -225 -225 -225 -225 -225 -225 -225 -225 -225 -225 -225 -225 -225 -225 -225 -225 -225 -225 -225 -225 -225 -225 -225 -225 -225 -225 -225 -225 -225 102 104 102 101 101 101 102 106 108 119 120 120 121 121 121 122 121 121 121 121 120 121 121 120 119 120 119 119 120 121 121 120 121 122 122 123 122 121 123 122 123 123 123 122 123 124 125 123 124 124 124 125 126 128 133 134 135 136 137 138 140 139 140 138 140 143 143 148 150 152 154 154 156 157 156 156 156 157 158 158 159 159 160 163 163 165 167 167 168 169 171 172 173 175 0 0 0 0 0
    0 0 0 0 0 0 0 0 0 0 0 0 0 0 0 0 0 0 0 0 0 0 0 0 0 0 0 0 0 0 0 0 0 0 0 0 0 0 0 0 0 0 0 0 0 0 0 0 0 0 0 0 0 0 0 0 0 0 0 0 0 0 0 0 0 0 0 0 0 125 125 122 122 117 117 110 114 107 109 112 -209 -209 463 -209 127 127 126 126 124 123 123 123 121 120 120 120 118 121 123 124 126 126 128 127 131 130 125 123 122 121 119 116 -225 -225 -225 -225 -225 -225 -225 -225 -225 -225 -225 -225 -225 -225 -225 -225 -225 -225 -225 -225 -225 -225 -225 -225 -225 -225 -225 -225 -225 -225 -225 -225 -225 -225 -225 -225 -225 -225 -225 -225 -225 -225 -225 -225 -225 -225 -225 -225 -225 -225 -225 -225 -225 -225 -225 -225 -225 -225 -225 -225 -225 -225 -225 -225 -225 -225 -225 -225 -225 -225 -225 -225 -225 -225 -225 -225 -225 -225 -225 -225 -225 -225 -225 -225 -225 -225 -225 -225 -225 -225 -225 -225 -225 -225 -225 -225 -225 -225 -225 -225 -225 -225 -225 -225 -225 -225 -225 -225 -225 -225 94 92 92 92 92 98 103 107 119 123 123 124 123 123 123 122 122 122 122 121 122 122 122 121 122 121 121 121 122 123 122 123 124 124 124 123 122 124 122 123 123 123 122 124 125 127 124 125 124 124 124 125 126 132 134 135 137 138 138 140 140 140 138 140 142 142 147 150 152 155 155 157 158 156 157 157 158 159 159 160 160 163 166 165 167 168 167 169 169 171 172 173 174 0 0 0 0 0
    0 0 0 0 0 0 0 0 0 0 0 0 0 0 0 0 0 0 0 0 0 0 0 0 0 0 0 0 0 0 0 0 0 0 0 0 0 0 0 0 0 0 0 0 0 0 0 0 0 0 0 0 0 0 0 0 0 0 0 0 0 0 0 0 0 0 0 0 0 124 125 124 123 120 119 115 115 108 -209 -209 -209 -209 -209 -209 -193 127 126 126 124 123 123 123 122 121 121 121 120 124 127 129 130 129 130 130 132 130 126 125 124 122 121 -225 -225 -225 -225 -225 -225 -225 -225 -225 -225 -225 -225 -225 -225 -225 -225 -225 -225 -225 -225 -225 -225 -225 -225 -225 -225 -225 -225 -225 -225 -225 -225 -225 -225 -225 -225 -225 -225 -225 -225 -225 -225 -225 -225 -225 -225 -225 -225 -225 -225 -225 -225 -225 -225 -225 -225 -225 -225 -225 -225 -225 -225 -225 -225 -225 -225 -225 -225 -225 -225 -225 -225 -225 -225 -225 -225 -225 -225 -225 -225 -225 -225 -225 -225 -225 -225 -225 -225 -225 -225 -225 -225 -225 -225 -225 -225 -225 -225 -225 -225 -225 -225 -225 -225 -225 -225 -225 -225 -225 -225 -225 -225 96 95 95 96 100 104 114 120 124 123 124 122 122 123 122 122 122 122 122 123 124 124 123 124 123 123 123 124 125 124 126 127 126 125 124 123 124 122 124 123 124 123 125 126 127 126 127 125 125 124 125 126 131 134 136 137 137 138 140 140 140 138 139 141 142 147 149 152 155 157 159 160 157 157 158 158 160 159 161 162 164 167 166 167 169 167 169 169 170 172 173 174 0 0 0 0 0
    0 0 0 0 0 0 0 0 0 0 0 0 0 0 0 0 0 0 0 0 0 0 0 0 0 0 0 0 0 0 0 0 0 0 0 0 0 0 0 0 0 0 0 0 0 0 0 0 0 0 0 0 0 0 0 0 0 0 0 0 0 0 0 0 0 0 0 0 0 123 124 123 122 119 117 116 -209 -209 109 113 -193 -193 -193 -209 -193 -193 127 128 124 124 124 124 123 122 122 123 122 128 133 133 134 133 133 133 133 131 129 128 128 125 -225 -225 -225 -225 -225 -225 -225 -225 -225 -225 -225 -225 -225 -225 -225 -225 -225 -225 -225 -225 -225 -225 -225 -225 -225 -225 -225 -225 -225 -225 -225 -225 -225 -225 -225 -225 -225 -225 -225 -225 -225 -225 -225 -225 -225 -225 -225 -225 -225 -225 -225 -225 -225 -225 -225 -225 -225 -225 -225 -225 -225 -225 -225 -225 -225 -225 -225 -225 -225 -225 -225 -225 -225 -225 -225 -225 -225 -225 -225 -225 -225 -225 -225 -225 -225 -225 -225 -225 -225 -225 -225 -225 -225 -225 -225 -225 -225 -225 -225 -225 -225 -225 -225 -225 -225 -225 -225 -225 -225 -225 -225 -225 -225 -225 -225 98 98 102 108 120 121 124 124 124 123 123 124 122 122 123 123 123 126 125 126 124 124 124 124 125 125 126 126 128 128 127 127 124 124 125 123 125 123 124 125 127 127 128 127 128 125 125 125 125 125 131 134 136 136 137 138 138 139 139 138 139 139 141 147 149 152 156 157 159 160 157 158 157 158 159 157 161 160 163 166 165 167 168 167 168 167 -193 -193 171 172 0 0 0 0 0
    0 0 0 0 0 0 0 0 0 0 0 0 0 0 0 0 0 0 0 0 0 0 0 0 0 0 0 0 0 0 0 0 0 0 0 0 0 0 0 0 0 0 0 0 0 0 0 0 0 0 0 0 0 0 0 0 0 0 0 0 0 0 0 0 0 0 0 0 0 -209 123 -209 122 119 118 116 -209 110 110 114 -193 -193 561 -193 -193 128 -193 130 126 125 125 125 124 124 124 125 126 133 136 136 136 134 135 133 133 131 130 129 129 127 -225 -225 -225 -225 -225 -225 -225 -225 -225 -225 -225 -225 -225 -225 -225 -225 -225 -225 -225 -225 -225 -225 -225 -225 -225 -225 -225 -225 -225 -225 -225 -225 -225 -225 -225 -225 -225 -225 -225 -225 -225 -225 -225 -225 -225 -225 -225 -225 -225 -225 -225 -225 -225 -225 -225 -225 -225 -225 -225 -225 -225 -225 -225 -225 -225 -225 -225 -225 -225 -225 -225 -225 -225 -225 -225 -225 -225 -225 -225 -225 -225 -225 -225 -225 -225 -225 -225 -225 -225 -225 -225 -225 -225 -225 -225 -225 -225 -225 -225 -225 -225 -225 -225 -225 -225 -225 -225 -225 -225 -225 -225 -225 -225 -225 -225 -225 -225 103 111 120 119 119 117 116 115 115 110 110 112 -209 -209 122 126 124 125 124 124 124 126 128 127 129 129 131 132 130 130 127 126 127 124 126 124 126 127 129 129 130 129 131 129 129 129 128 127 132 134 136 135 135 136 138 138 138 138 138 139 141 148 -209 -193 157 158 160 160 158 158 158 158 159 158 161 160 164 167 166 167 168 168 169 168 -193 -193 169 170 0 0 0 0 0
    0 0 0 0 0 0 0 0 0 0 0 0 0 0 0 0 0 0 0 0 0 0 0 0 0 0 0 0 0 0 0 0 0 0 0 0 0 0 0 0 0 0 0 0 0 0 0 0 0 0 0 0 0 0 0 0 0 0 0 0 0 0 0 0 0 0 0 0 0 -209 -209 -209 121 120 -209 -209 -209 107 109 -209 -193 -193 559 -209 -209 -193 -193 131 128 127 126 127 126 127 127 131 133 136 138 138 138 135 135 133 131 131 129 129 128 126 128 -225 -225 -225 -225 -225 -225 -225 -225 -225 -225 -225 -225 -225 -225 -225 -225 -225 -225 -225 -225 -225 -225 -225 -225 -225 -225 -225 -225 -225 -225 -225 -225 -225 -225 -225 -225 -225 -225 -225 -225 -225 -225 -225 -225 -225 -225 -225 -225 -225 -225 -225 -225 -225 -225 -225 -225 -225 -225 -225 -225 -225 -225 -225 -225 -225 -225 -225 -225 -225 -225 -225 -225 -225 -225 -225 -225 -225 -225 -225 -225 -225 -225 -225 -225 -225 -225 -225 -225 -225 -225 -225 -225 -225 -225 -225 -225 -225 -225 -225 -225 -225 -225 -225 -225 -225 -225 -225 -225 -225 -225 -225 -225 -225 -225 -225 -225 -225 -225 -225 -225 -225 106 104 103 96 96 94 88 89 85 83 -193 -177 124 124 124 124 127 131 130 132 133 134 133 133 133 132 129 130 126 128 126 127 128 130 129 130 130 133 132 132 134 134 132 135 137 138 137 136 137 138 138 138 138 138 139 142 148 -209 -209 157 157 160 161 159 160 159 159 160 159 162 163 165 169 167 168 169 169 169 169 169 169 169 170 0 0 0 0 0
    0 0 0 0 0 0 0 0 0 0 0 0 0 0 0 0 0 0 0 0 0 0 0 0 0 0 0 0 0 0 0 0 0 0 0 0 0 0 0 0 0 0 0 0 0 0 0 0 0 0 0 0 0 0 0 0 0 0 0 0 0 0 0 0 0 0 0 0 0 -209 -209 -209 -193 120 112 -193 -209 -193 -193 -193 -193 556 -193 -209 -209 -209 133 133 131 129 129 130 131 133 133 136 137 138 140 140 139 136 136 133 132 131 129 128 128 126 128 -225 -225 -225 -225 -225 -225 -225 -225 -225 -225 -225 -225 -225 -225 -225 -225 -225 -225 -225 -225 -225 -225 -225 -225 -225 -225 -225 -225 -225 -225 -225 -225 -225 -225 -225 -225 -225 -225 -225 -225 -225 -225 -225 -225 -225 -225 -225 -225 -225 -225 -225 -225 -225 -225 -225 -225 -225 -225 -225 -225 -225 -225 -225 -225 -225 -225 -225 -225 -225 -225 -225 -225 -225 -225 -225 -225 -225 -225 -225 -225 -225 -225 -225 -225 -225 -225 -225 -225 -225 -225 -225 -225 -225 -225 -225 -225 -225 -225 -225 -225 -225 -225 -225 -225 -225 -225 -225 -225 -225 -225 -225 -225 -225 -225 -225 -225 -225 -225 -225 -225 -225 -225 -225 93 91 91 91 87 88 87 86 76 -209 -177 123 124 124 129 133 133 134 134 135 134 134 134 133 132 132 128 131 128 131 132 133 132 133 133 135 135 135 137 136 135 137 138 138 138 137 138 138 139 139 139 140 141 144 149 149 152 155 156 158 160 158 159 158 158 160 159 163 164 165 168 167 167 168 168 169 168 169 169 169 171 0 0 0 0 0
    0 0 0 0 0 0 0 0 0 0 0 0 0 0 0 0 0 0 0 0 0 0 0 0 0 0 0 0 0 0 0 0 0 0 0 0 0 0 0 0 0 0 0 0 0 0 0 0 0 0 0 0 0 0 0 0 0 0 0 0 0 0 0 0 0 0 0 0 0 -209 -209 -209 -209 -193 -209 -209 -209 -193 -193 -209 -209 -209 -193 -209 -209 -209 133 134 132 131 132 134 135 136 137 139 140 141 143 143 141 137 137 134 132 131 129 128 128 127 128 -225 -225 -225 -225 -225 -225 -225 -225 -225 -225 -225 -225 -225 -225 -225 -225 -225 -225 -225 -225 -225 -225 -225 -225 -225 -225 -225 -225 -225 -225 -225 -225 -225 -225 -225 -225 -225 -225 -225 -225 -225 -225 -225 -225 -225 -225 -225 -225 -225 -225 -225 -225 -225 -225 -225 -225 -225 -225 -225 -225 -225 -225 -225 -225 -225 -225 -225 -225 -225 -225 -225 -225 -225 -225 -225 -225 -225 -225 -225 -225 -225 -225 -225 -225 -225 -225 -225 -225 -225 -225 -225 -225 -225 -225 -225 -225 -225 -225 -225 -225 -225 -225 -225 -225 -225 -225 -225 -225 -225 -225 -225 -225 -225 -225 -225 -225 -225 -225 -225 -225 -225 -225 -225 -225 89 89 88 84 86 86 85 80 80 82 -193 123 124 131 134 134 135 135 136 135 135 135 134 133 133 130 133 130 133 134 135 135 136 136 137 137 137 139 138 137 137 138 138 138 137 138 138 138 139 140 140 142 145 149 149 151 154 155 157 158 157 158 157 157 158 158 162 163 165 167 165 166 167 167 168 167 -193 168 169 170 0 0 0 0 0
    0 0 0 0 0 0 0 0 0 0 0 0 0 0 0 0 0 0 0 0 0 0 0 0 0 0 0 0 0 0 0 0 0 0 0 0 0 0 0 0 0 0 0 0 0 0 0 0 0 0 0 0 0 0 0 0 0 0 0 0 0 0 0 0 0 0 0 0 0 -193 -209 -209 -209 -209 -209 -209 -209 -209 -209 -209 -209 -209 -209 -209 -209 133 133 134 132 133 135 136 138 140 142 144 145 146 146 144 141 138 137 134 132 131 129 128 129 127 128 -225 -225 -225 -225 -225 -225 -225 -225 -225 -225 -225 -225 -225 -225 -225 -225 -225 -225 -225 -225 -225 -225 -225 -225 -225 -225 -225 -225 -225 -225 -225 -225 -225 -225 -225 -225 -225 -225 -225 -225 -225 -225 -225 -225 -225 -225 -225 -225 -225 -225 -225 -225 -225 -225 -225 -225 -225 -225 -225 -225 -225 -225 -225 -225 -225 -225 -225 -225 -225 -225 -225 -225 -225 -225 -225 -225 -225 -225 -225 -225 -225 -225 -225 -225 -225 -225 -225 -225 -225 -225 -225 -225 -225 -225 -225 -225 -225 -225 -225 -225 -225 -225 -225 -225 -225 -225 -225 -225 -225 -225 -225 -225 -225 -225 -225 -225 -225 -225 -225 -225 -225 -225 -225 -225 -225 89 86 83 86 87 86 82 81 84 87 -193 122 130 134 135 135 136 137 136 136 136 136 135 134 133 135 133 134 136 136 136 -193 137 138 138 139 140 139 138 138 139 139 139 138 138 138 139 139 140 141 143 144 148 148 150 153 154 156 158 157 157 156 156 157 156 159 162 165 166 164 165 166 166 168 -193 -193 166 168 169 0 0 0 0 0
    0 0 0 0 0 0 0 0 0 0 0 0 0 0 0 0 0 0 0 0 0 0 0 0 0 0 0 0 0 0 0 0 0 0 0 0 0 0 0 0 0 0 0 0 0 0 0 0 0 0 0 0 0 0 0 0 0 0 0 0 0 0 0 0 0 0 0 0 0 -209 -209 -209 -209 -209 -209 -209 -209 -209 -209 -209 -209 -209 -209 -209 130 132 133 134 133 135 138 140 144 145 148 148 148 148 148 145 143 139 137 133 131 130 128 129 129 127 128 -225 -225 -225 -225 -225 -225 -225 -225 -225 -225 -225 -225 -225 -225 -225 -225 -225 -225 -225 -225 -225 -225 -225 -225 -225 -225 -225 -225 -225 -225 -225 -225 -225 -225 -225 -225 -225 -225 -225 -225 -225 -225 -225 -225 -225 -225 -225 -225 -225 -225 -225 -225 -225 -225 -225 -225 -225 -225 -225 -225 -225 -225 -225 -225 -225 -225 -225 -225 -225 -225 -225 -225 -225 -225 -225 -225 -225 -225 -225 -225 -225 -225 -225 -225 -225 -225 -225 -225 -225 -225 -225 -225 -225 -225 -225 -225 -225 -225 -225 -225 -225 -225 -225 -225 -225 -225 -225 -225 -225 -225 -225 -225 -225 -225 -225 -225 -225 -225 -225 -225 -225 -225 -225 -225 -225 -225 86 83 86 87 87 84 83 85 87 102 -177 -177 135 135 137 137 138 138 138 138 138 137 136 135 136 135 136 136 137 137 137 138 139 139 141 141 140 140 140 140 140 140 139 138 139 139 140 140 142 143 145 148 147 149 152 154 156 157 157 157 156 155 156 155 157 160 165 166 164 165 166 166 168 168 169 167 168 170 0 0 0 0 0
    0 0 0 0 0 0 0 0 0 0 0 0 0 0 0 0 0 0 0 0 0 0 0 0 0 0 0 0 0 0 0 0 0 0 0 0 0 0 0 0 0 0 0 0 0 0 0 0 0 0 0 0 0 0 0 0 0 0 0 0 0 0 0 0 0 0 0 0 0 -209 -209 -209 -209 -209 -209 -209 -209 -209 -209 -209 -209 -209 -209 132 133 134 135 136 136 138 141 147 149 150 151 150 149 149 149 148 146 140 138 133 131 130 129 129 129 127 128 -225 -225 -225 -225 -225 -225 -225 -225 -225 -225 -225 -225 -225 -225 -225 -225 -225 -225 -225 -225 -225 -225 -225 -225 -225 -225 -225 -225 -225 -225 -225 -225 -225 -225 -225 -225 -225 -225 -225 -225 -225 -225 -225 -225 -225 -225 -225 -225 -225 -225 -225 -225 -225 -225 -225 -225 -225 -225 -225 -225 -225 -225 -225 -225 -225 -225 -225 -225 -225 -225 -225 -225 -225 -225 -225 -225 -225 -225 -225 -225 -225 -225 -225 -225 -225 -225 -225 -225 -225 -225 -225 -225 -225 -225 -225 -225 -225 -225 -225 -225 -225 -225 -225 -225 -225 -225 -225 -225 -225 -225 -225 -225 -225 -225 -225 -225 -225 -225 -225 -225 -225 -225 -225 -225 -225 -225 -225 81 84 85 84 84 84 85 88 99 110 127 135 137 138 138 140 139 139 139 140 139 138 137 138 136 137 138 138 137 138 139 140 140 142 142 142 141 142 142 141 141 139 139 139 139 140 140 142 144 145 148 148 150 152 154 155 156 157 157 156 156 156 156 158 161 164 165 164 165 165 165 167 167 168 167 169 170 0 0 0 0 0
    0 0 0 0 0 0 0 0 0 0 0 0 0 0 0 0 0 0 0 0 0 0 0 0 0 0 0 0 0 0 0 0 0 0 0 0 0 0 0 0 0 0 0 0 0 0 0 0 0 0 0 0 0 0 0 0 0 0 0 0 0 0 0 0 0 0 0 0 0 -209 -209 -193 -209 -209 -209 -209 -209 -209 -209 -209 -209 -209 -209 136 137 137 138 139 141 141 144 149 150 151 152 152 151 150 150 149 148 142 138 133 130 130 129 129 129 127 129 -225 -225 -225 -225 -225 -225 -225 -225 -225 -225 -225 -225 -225 -225 -225 -225 -225 -225 -225 -225 -225 -225 -225 -225 -225 -225 -225 -225 -225 -225 -225 -225 -225 -225 -225 -225 -225 -225 -225 -225 -225 -225 -225 -225 -225 -225 -225 -225 -225 -225 -225 -225 -225 -225 -225 -225 -225 -225 -225 -225 -225 -225 -225 -225 -225 -225 -225 -225 -225 -225 -225 -225 -225 -225 -225 -225 -225 -225 -225 -225 -225 -225 -225 -225 -225 -225 -225 -225 -225 -225 -225 -225 -225 -225 -225 -225 -225 -225 -225 -225 -225 -225 -225 -225 -225 -225 -225 -225 -225 -225 -225 -225 -225 -225 -225 -225 -225 -225 -225 -225 -225 -225 -225 -225 -225 -225 -225 -225 84 85 85 84 85 86 88 99 109 124 133 136 137 138 140 140 139 140 141 140 140 139 140 139 139 140 140 139 140 140 141 141 142 142 141 142 143 142 142 142 140 141 141 141 141 141 143 145 145 147 147 150 152 153 155 156 156 156 156 156 156 156 157 160 163 164 164 164 164 164 166 166 167 166 167 169 0 0 0 0 0
    0 0 0 0 0 0 0 0 0 0 0 0 0 0 0 0 0 0 0 0 0 0 0 0 0 0 0 0 0 0 0 0 0 0 0 0 0 0 0 0 0 0 0 0 0 0 0 0 0 0 0 0 0 0 0 0 0 0 0 0 0 0 0 0 0 0 0 0 0 -209 326 333 -209 -209 -209 162 -209 -209 -209 -209 -209 -209 136 138 138 138 140 142 144 144 147 151 152 152 153 153 151 152 152 151 149 142 137 131 128 129 129 129 129 127 130 -225 -225 -225 -225 -225 -225 -225 -225 -225 -225 -225 -225 -225 -225 -225 -225 -225 -225 -225 -225 -225 -225 -225 -225 -225 -225 -225 -225 -225 -225 -225 -225 -225 -225 -225 -225 -225 -225 -225 -225 -225 -225 -225 -225 -225 -225 -225 -225 -225 -225 -225 -225 -225 -225 -225 -225 -225 -225 -225 -225 -225 -225 -225 -225 -225 -225 -225 -225 -225 -225 -225 -225 -225 -225 -225 -225 -225 -225 -225 -225 -225 -225 -225 -225 -225 -225 -225 -225 -225 -225 -225 -225 -225 -225 -225 -225 -225 -225 -225 -225 -225 -225 -225 -225 -225 -225 -225 -225 -225 -225 -225 -225 -225 -225 -225 -225 -225 -225 -225 -225 -225 -225 -225 -225 -225 -225 -225 -225 -225 87 86 85 86 87 90 99 107 -193 130 136 137 138 140 140 141 141 143 142 142 142 143 142 142 143 142 141 141 142 142 143 143 143 142 143 144 142 143 144 142 143 143 144 143 142 146 146 144 147 146 150 151 153 154 155 156 156 155 155 155 155 155 157 161 161 162 163 164 164 166 168 169 168 168 170 0 0 0 0 0
    0 0 0 0 0 0 0 0 0 0 0 0 0 0 0 0 0 0 0 0 0 0 0 0 0 0 0 0 0 0 0 0 0 0 0 0 0 0 0 0 0 0 0 0 0 0 0 0 0 0 0 0 0 0 0 0 0 0 0 0 0 0 0 0 0 0 0 0 0 -209 -209 -209 -209 -209 -209 156 -209 -209 -209 -209 -209 140 138 139 139 140 141 142 145 146 149 152 153 153 153 153 153 153 153 152 150 144 -225 -225 -225 -225 -225 -225 -225 -225 -225 -225 -225 -225 -225 -225 -225 -225 -225 -225 -225 -225 -225 -225 -225 -225 -225 -225 -225 -225 -225 -225 -225 -225 -225 -225 -225 -225 -225 -225 -225 -225 -225 -225 -225 -225 -225 -225 -225 -225 -225 -225 -225 -225 -225 -225 -225 -225 -225 -225 -225 -225 -225 -225 -225 -225 -225 -225 -225 -225 -225 -225 -225 -225 -225 -225 -225 -225 -225 -225 -225 -225 -225 -225 -225 -225 -225 -225 -225 -225 -225 -225 -225 -225 -225 -225 -225 -225 -225 -225 -225 -225 -225 -225 -225 -225 -225 -225 -225 -225 -225 -225 -225 -225 -225 -225 -225 -225 -225 -225 -225 -225 -225 -225 -225 -225 -225 -225 -225 -225 -225 -225 -225 -225 -225 -225 -225 -225 -225 -225 -225 87 86 87 88 92 100 105 -193 125 134 135 137 139 140 141 141 143 142 142 143 144 143 143 144 143 142 143 144 143 144 144 144 142 144 145 143 143 145 144 144 144 144 144 142 146 146 143 146 145 148 151 151 153 154 155 155 154 154 154 154 154 155 157 157 157 159 160 162 165 168 169 169 169 171 0 0 0 0 0
    0 0 0 0 0 0 0 0 0 0 0 0 0 0 0 0 0 0 0 0 0 0 0 0 0 0 0 0 0 0 0 0 0 0 0 0 0 0 0 0 0 0 0 0 0 0 0 0 0 0 0 0 0 0 0 0 0 0 0 0 0 0 0 0 0 0 0 0 0 -209 -209 -209 -209 -193 152 156 154 -209 -209 140 145 142 140 140 140 142 143 144 147 147 150 152 154 154 154 154 154 153 153 150 146 -225 -225 -225 -225 -225 -225 -225 -225 -225 -225 -225 -225 -225 -225 -225 -225 -225 -225 -225 -225 -225 -225 -225 -225 -225 -225 -225 -225 -225 -225 -225 -225 -225 -225 -225 -225 -225 -225 -225 -225 -225 -225 -225 -225 -225 -225 -225 -225 -225 -225 -225 -225 -225 -225 -225 -225 -225 -225 -225 -225 -225 -225 -225 -225 -225 -225 -225 -225 -225 -225 -225 -225 -225 -225 -225 -225 -225 -225 -225 -225 -225 -225 -225 -225 -225 -225 -225 -225 -225 -225 -225 -225 -225 -225 -225 -225 -225 -225 -225 -225 -225 -225 -225 -225 -225 -225 -225 -225 -225 -225 -225 -225 -225 -225 -225 -225 -225 -225 -225 -225 -225 -225 -225 -225 -225 -225 -225 -225 -225 -225 -225 -225 -225 -225 -225 -225 -225 -225 -225 -225 -225 87 88 89 93 100 103 94 -209 -193 132 136 138 139 141 142 143 143 143 146 145 144 145 145 144 145 146 146 144 145 146 145 144 145 146 143 143 147 145 145 145 146 145 143 146 146 143 146 145 147 149 151 153 154 155 155 154 154 155 154 155 155 156 155 156 157 157 160 165 168 170 170 170 171 0 0 0 0 0
    0 0 0 0 0 0 0 0 0 0 0 0 0 0 0 0 0 0 0 0 0 0 0 0 0 0 0 0 0 0 0 0 0 0 0 0 0 0 0 0 0 0 0 0 0 0 0 0 0 0 0 0 0 0 0 0 0 0 0 0 0 0 0 0 0 0 0 0 0 -209 -209 -193 151 153 154 156 153 -193 148 142 146 143 140 141 141 143 145 147 149 149 151 153 154 154 154 154 154 151 145 141 140 139 139 139 139 -225 -225 -225 -225 -225 -225 -225 -225 -225 -225 -225 -225 -225 -225 -225 -225 -225 -225 -225 -225 -225 -225 -225 -225 -225 -225 -225 -225 -225 -225 -225 -225 -225 -225 -225 -225 -225 -225 -225 -225 -225 -225 -225 -225 -225 -225 -225 -225 -225 -225 -225 -225 -225 -225 -225 -225 -225 -225 -225 -225 -225 -225 -225 -225 -225 -225 -225 -225 -225 -225 -225 -225 -225 -225 -225 -225 -225 -225 -225 -225 -225 -225 -225 -225 -225 -225 -225 -225 -225 -225 -225 -225 -225 -225 -225 -225 -225 -225 -225 -225 -225 -225 -225 -225 -225 -225 -225 -225 -225 -225 -225 -225 -225 -225 -225 -225 -225 -225 -225 -225 -225 -225 -225 -225 -225 -225 -225 -225 -225 -225 -225 -225 -225 -225 -225 -225 -225 87 87 89 93 99 95 93 92 87 86 -209 139 -177 143 144 145 145 144 147 146 145 145 145 144 145 146 147 145 146 148 147 146 146 147 144 145 148 147 147 147 147 147 145 148 147 143 144 144 148 149 151 153 153 154 155 154 154 -193 154 155 155 156 155 156 156 157 158 164 167 169 169 169 171 0 0 0 0 0
    0 0 0 0 0 0 0 0 0 0 0 0 0 0 0 0 0 0 0 0 0 0 0 0 0 0 0 0 0 0 0 0 0 0 0 0 0 0 0 0 0 0 0 0 0 0 0 0 0 0 0 0 0 0 0 0 0 0 0 0 0 0 0 0 0 0 0 0 0 -209 -193 160 155 156 158 158 155 154 153 145 148 146 144 143 144 145 147 148 150 150 152 154 154 154 155 155 156 150 -193 138 139 138 138 138 138 140 -225 -225 -225 -225 -225 -225 -225 -225 -225 -225 -225 -225 -225 -225 -225 -225 -225 -225 -225 -225 -225 -225 -225 -225 -225 -225 -225 -225 -225 -225 -225 -225 -225 -225 -225 -225 -225 -225 -225 -225 -225 -225 -225 -225 -225 -225 -225 -225 -225 -225 -225 -225 -225 -225 -225 -225 -225 -225 -225 -225 -225 -225 -225 -225 -225 -225 -225 -225 -225 -225 -225 -225 -225 -225 -225 -225 -225 -225 -225 -225 -225 -225 -225 -225 -225 -225 -225 -225 -225 -225 -225 -225 -225 -225 -225 -225 -225 -225 -225 -225 -225 -225 -225 -225 -225 -225 -225 -225 -225 -225 -225 -225 -225 -225 -225 -225 -225 -225 -225 -225 -225 -225 -225 -225 -225 -225 -225 -225 -225 -225 -225 -225 -225 -225 -225 -225 -225 86 88 90 93 89 92 89 88 87 89 -209 138 141 143 145 145 145 148 146 145 145 145 144 145 147 148 146 148 150 149 149 150 149 145 146 149 148 148 148 148 147 146 149 149 145 145 146 149 152 153 153 153 153 154 -193 -193 -209 -193 154 155 156 156 156 156 157 158 163 166 167 168 169 170 0 0 0 0 0
    0 0 0 0 0 0 0 0 0 0 0 0 0 0 0 0 0 0 0 0 0 0 0 0 0 0 0 0 0 0 0 0 0 0 0 0 0 0 0 0 0 0 0 0 0 0 0 0 0 0 0 0 0 0 0 0 0 0 0 0 0 0 0 0 0 0 0 0 0 -193 -193 160 156 158 160 160 156 155 155 149 151 150 149 148 149 150 151 151 153 152 153 153 154 153 154 154 155 149 -193 140 -193 139 138 138 137 140 140 -225 -225 -225 -225 -225 -225 -225 -225 -225 -225 -225 -225 -225 -225 -225 -225 -225 -225 -225 -225 -225 -225 -225 -225 -225 -225 -225 -225 -225 -225 -225 -225 -225 -225 -225 -225 -225 -225 -225 -225 -225 -225 -225 -225 -225 -225 -225 -225 -225 -225 -225 -225 -225 -225 -225 -225 -225 -225 -225 -225 -225 -225 -225 -225 -225 -225 -225 -225 -225 -225 -225 -225 -225 -225 -225 -225 -225 -225 -225 -225 -225 -225 -225 -225 -225 -225 -225 -225 -225 -225 -225 -225 -225 -225 -225 -225 -225 -225 -225 -225 -225 -225 -225 -225 -225 -225 -225 -225 -225 -225 -225 -225 -225 -225 -225 -225 -225 -225 -225 -225 -225 -225 -225 -225 -225 -225 -225 -225 -225 -225 -225 -225 -225 -225 -225 -225 -225 89 91 91 90 92 93 89 88 96 107 -177 138 141 144 144 145 148 146 146 146 146 145 147 149 149 148 150 152 152 152 153 152 147 148 150 150 150 150 149 149 148 151 151 148 147 148 151 153 154 154 153 153 154 -193 -193 -193 -209 -193 155 156 156 156 156 156 157 161 164 165 167 167 169 0 0 0 0 0
    0 0 0 0 0 0 0 0 0 0 0 0 0 0 0 0 0 0 0 0 0 0 0 0 0 0 0 0 0 0 0 0 0 0 0 0 0 0 0 0 0 0 0 0 0 0 0 0 0 0 0 0 0 0 0 0 0 0 0 0 0 0 0 0 0 0 0 0 0 -209 157 158 157 159 161 161 157 156 156 152 152 152 152 152 153 153 154 154 154 154 154 153 154 153 154 153 155 149 -209 142 143 140 -193 138 138 141 140 145 -225 -225 -225 -225 -225 -225 -225 -225 -225 -225 -225 -225 -225 -225 -225 -225 -225 -225 -225 -225 -225 -225 -225 -225 -225 -225 -225 -225 -225 -225 -225 -225 -225 -225 -225 -225 -225 -225 -225 -225 -225 -225 -225 -225 -225 -225 -225 -225 -225 -225 -225 -225 -225 -225 -225 -225 -225 -225 -225 -225 -225 -225 -225 -225 -225 -225 -225 -225 -225 -225 -225 -225 -225 -225 -225 -225 -225 -225 -225 -225 -225 -225 -225 -225 -225 -225 -225 -225 -225 -225 -225 -225 -225 -225 -225 -225 -225 -225 -225 -225 -225 -225 -225 -225 -225 -225 -225 -225 -225 -225 -225 -225 -225 -225 -225 -225 -225 -225 -225 -225 -225 -225 -225 -225 -225 -225 -225 -225 -225 -225 -225 -225 -225 -225 -225 -225 -225 97 95 92 91 90 87 87 92 99 -177 -177 138 141 141 143 149 147 147 147 147 147 149 150 150 148 151 151 152 152 153 152 148 149 151 152 153 152 151 150 150 152 153 151 149 149 152 154 155 155 154 153 153 -193 -193 -209 -193 -193 -193 154 155 156 155 156 156 161 164 165 166 167 170 0 0 0 0 0
    0 0 0 0 0 0 0 0 0 0 0 0 0 0 0 0 0 0 0 0 0 0 0 0 0 0 0 0 0 0 0 0 0 0 0 0 0 0 0 0 0 0 0 0 0 0 0 0 0 0 0 0 0 0 0 0 0 0 0 0 0 0 0 0 0 0 0 0 0 -209 158 160 160 161 163 163 160 159 158 155 156 155 155 155 155 156 156 156 156 155 155 154 154 153 156 155 158 -193 -209 -193 -209 -193 -209 -193 -209 -193 -209 -193 -225 -225 -225 -225 -225 -225 -225 -225 -225 -225 -225 -225 -225 -225 -225 -225 -225 -225 -225 -225 -225 -225 -225 -225 -225 -225 -225 -225 -225 -225 -225 -225 -225 -225 -225 -225 -225 -225 -225 -225 -225 -225 -225 -225 -225 -225 -225 -225 -225 -225 -225 -225 -225 -225 -225 -225 -225 -225 -225 -225 -225 -225 -225 -225 -225 -225 -225 -225 -225 -225 -225 -225 -225 -225 -225 -225 -225 -225 -225 -225 -225 -225 -225 -225 -225 -225 -225 -225 -225 -225 -225 -225 -225 -225 -225 -225 -225 -225 -225 -225 -225 -225 -225 -225 -225 -225 -225 -225 -225 -225 -225 -225 -225 -225 -225 -225 -225 -225 -225 -225 -225 -225 -225 -225 -225 -225 -225 -225 -225 -225 -225 -225 -225 -225 -225 -225 -225 -209 99 95 88 87 86 86 90 93 104 -209 -209 -193 138 140 148 146 147 147 148 148 150 151 151 149 152 152 153 153 153 152 150 150 152 153 154 153 152 152 153 154 155 153 153 152 154 155 155 154 153 152 152 151 152 153 152 -193 -193 153 154 155 155 156 156 162 167 166 167 168 170 0 0 0 0 0
    0 0 0 0 0 0 0 0 0 0 0 0 0 0 0 0 0 0 0 0 0 0 0 0 0 0 0 0 0 0 0 0 0 0 0 0 0 0 0 0 0 0 0 0 0 0 0 0 0 0 0 0 0 0 0 0 0 0 0 0 0 0 0 0 0 0 0 0 0 -209 159 161 161 162 164 164 162 161 162 163 160 159 158 158 158 159 159 158 158 157 156 154 154 153 155 155 156 153 -209 -209 -209 -209 -193 -209 -209 -209 -193 -193 -193 37 -209 -193 149 147 148 148 153 158 -193 -193 159 163 162 163 162 -193 -193 84 85 -225 -225 -225 -225 -225 -225 -225 -225 -225 -225 -225 -225 -225 -225 -225 -225 -225 -225 -225 -225 -225 -225 -225 -225 -225 -225 -225 -225 -225 -225 -225 -225 -225 -225 -225 -225 -225 -225 -225 -225 -225 -225 -225 -225 -225 -225 -225 -225 -225 -225 -225 -225 -225 -225 -225 -225 -225 -225 -225 -225 -225 -225 -225 -225 -225 -225 -225 -225 -225 -225 -225 -225 -225 -225 -225 -225 -225 -225 -225 -225 -225 -225 -225 -225 -225 -225 -225 -225 -225 -225 -225 -225 -225 -225 -225 -225 -225 -225 -225 -225 -225 -225 -225 -225 -225 -225 -225 -225 -225 -225 -225 -225 -225 -225 -225 -209 -209 -209 -209 87 86 84 85 89 93 90 -209 -177 -209 -193 138 147 146 148 148 149 150 152 153 153 151 153 154 154 155 155 154 152 152 154 155 155 155 154 153 154 155 157 155 156 155 156 156 157 155 154 154 154 152 153 152 152 152 153 153 154 154 154 155 156 163 167 167 168 169 170 0 0 0 0 0
    0 0 0 0 0 0 0 0 0 0 0 0 0 0 0 0 0 0 0 0 0 0 0 0 0 0 0 0 0 0 0 0 0 0 0 0 0 0 0 0 0 0 0 0 0 0 0 0 0 0 0 0 0 0 0 0 0 0 0 0 0 0 0 0 0 0 0 0 0 157 158 159 159 160 161 162 161 161 164 165 163 162 161 161 160 161 160 160 159 159 159 156 155 154 155 154 155 154 -209 -209 -209 -193 -193 -193 -209 -209 156 154 155 155 153 153 152 152 151 151 153 158 157 157 157 161 160 163 162 -193 -193 -193 75 75 74 75 61 59 -225 -225 -225 -225 -225 -225 -225 -225 -225 -225 -225 -225 -225 -225 -225 -225 -225 -225 -225 -225 -225 -225 -225 -225 -225 -225 -225 -225 -225 -225 -225 -225 -225 -225 -225 -225 -225 -225 -225 -225 -225 -225 -225 -225 -225 -225 -225 -225 -225 -225 -225 -225 -225 -225 -225 -225 -225 -225 -225 -225 -225 -225 -225 -225 -225 -225 -225 -225 -225 -225 -225 -225 -225 -225 -225 -225 -225 -225 -225 -225 -225 -225 -225 -225 -225 -225 -225 -225 -225 -225 -225 -225 -225 -225 -225 -225 -225 -225 -225 -225 -225 -225 -225 -225 -225 -225 -225 -225 -209 -209 -209 -209 -209 -209 86 85 81 82 86 90 -193 86 -177 -177 -177 136 142 144 147 149 150 152 157 158 156 155 156 157 158 159 159 157 156 156 158 158 157 157 156 155 156 157 159 158 160 160 160 160 160 158 157 156 157 154 155 154 153 154 154 154 155 155 156 157 160 164 167 167 169 169 170 0 0 0 0 0
    0 0 0 0 0 0 0 0 0 0 0 0 0 0 0 0 0 0 0 0 0 0 0 0 0 0 0 0 0 0 0 0 0 0 0 0 0 0 0 0 0 0 0 0 0 0 0 0 0 0 0 0 0 0 0 0 0 0 0 0 0 0 0 0 0 0 0 0 0 158 160 161 162 163 164 164 163 164 166 166 165 164 163 162 161 162 161 163 162 161 163 158 158 157 158 156 157 156 -209 -209 -209 -177 -193 -193 -209 -193 156 155 155 156 154 153 152 153 153 151 153 156 155 156 157 159 158 160 160 161 159 163 -209 72 71 73 -209 -209 33 37 -209 -209 -209 -225 -225 -225 -225 -225 -225 -225 -225 -225 -225 -225 -225 -225 -225 -225 -225 -225 -225 -225 -225 -225 -225 -225 -225 -225 -225 -225 -225 -225 -225 -225 -225 -225 -225 -225 -225 -225 -225 -225 -225 -225 -225 -225 -225 -225 -225 -225 -225 -225 -225 -225 -225 -225 -225 -225 -225 -225 -225 -225 -225 -225 -225 -225 -225 -225 -225 -225 -225 -225 -225 -225 -225 -225 -225 -225 -225 -225 -225 -225 -225 -225 -225 -225 -225 -225 -225 -225 -225 -225 -225 -225 -225 -225 -225 -225 -225 -225 -225 -225 -225 -225 -225 -209 -209 -209 -209 -209 -209 -209 -209 85 80 77 83 88 87 84 87 -177 -177 132 140 145 150 151 153 155 160 162 158 159 161 161 164 165 164 164 165 167 166 164 163 161 162 163 163 162 164 164 165 166 166 164 162 161 159 157 158 155 156 156 154 155 156 156 158 158 159 162 164 166 167 168 168 169 170 0 0 0 0 0
    0 0 0 0 0 0 0 0 0 0 0 0 0 0 0 0 0 0 0 0 0 0 0 0 0 0 0 0 0 0 0 0 0 0 0 0 0 0 0 0 0 0 0 0 0 0 0 0 0 0 0 0 0 0 0 0 0 0 0 0 0 0 0 0 0 0 0 0 0 160 162 163 163 164 165 166 164 167 168 168 166 165 164 163 163 162 163 163 163 164 164 160 160 159 160 158 159 159 157 -209 -209 -209 157 158 -193 156 156 156 156 156 154 154 153 153 154 152 154 156 155 156 157 158 158 159 158 159 159 163 -193 69 68 70 50 50 46 44 48 45 46 49 60 70 -225 -225 -225 -225 -225 -225 -225 -225 -225 -225 -225 -225 -225 -225 -225 -225 -225 -225 -225 -225 -225 -225 -225 -225 -225 -225 -225 -225 -225 -225 -225 -225 -225 -225 -225 -225 -225 -225 -225 -225 -225 -225 -225 -225 -225 -225 -225 -225 -225 -225 -225 -225 -225 -225 -225 -225 -225 -225 -225 -225 -225 -225 -225 -225 -225 -225 -225 -225 -225 -225 -225 -225 -225 -225 -225 -225 -225 -225 -225 -225 -225 -225 -225 -225 -225 -225 -225 -225 -225 -225 -225 -225 -225 -225 -225 -225 -225 -225 -225 -209 -209 -209 -209 -209 -209 -209 -209 -209 77 74 77 82 85 84 86 -177 -177 126 138 146 151 152 156 157 161 163 160 162 163 163 166 167 167 167 167 169 168 166 166 164 165 166 166 166 166 166 167 167 167 166 164 162 160 159 160 157 157 158 156 158 159 160 160 162 163 165 165 166 167 166 167 167 168 0 0 0 0 0</data></disparity>
</opencv_storage>
