<?xml version="1.0"?>
<opencv_storage>
<gps_time_stamp>321911</gps_time_stamp>
<gps_x>-1.2422369956970215e+001</gps_x>
<gps_y>1.0711404800415039e+001</gps_y>
<gps_z>-2.0067896842956543e+000</gps_z>
<image_time_stamp>312760</image_time_stamp>
<disparity type_id="opencv-matrix">
  <rows>88</rows>
  <cols>320</cols>
  <dt>s</dt>
  <data>
    0 0 0 0 0 0 0 0 0 0 0 0 0 0 0 0 0 0 0 0 0 0 0 0 0 0 0 0 0 0 0 0 0 0 0 0 0 0 0 0 0 0 0 0 0 0 0 0 0 0 0 0 0 0 0 0 0 0 0 0 0 0 0 0 0 0 0 0 0 0 0 0 0 0 0 0 0 0 0 0 0 0 0 0 0 0 0 0 0 0 0 0 0 0 0 0 0 0 0 0 0 0 0 0 0 0 0 0 0 0 0 0 0 0 0 0 0 0 0 0 0 0 0 0 0 0 0 0 0 0 0 0 0 0 0 0 0 0 0 0 0 0 0 0 0 0 0 0 0 0 0 0 0 0 0 0 0 0 0 0 0 0 0 0 0 0 0 0 0 0 0 0 0 0 0 0 0 0 0 0 0 0 0 0 0 0 0 0 0 0 0 0 0 0 0 0 0 0 0 0 0 0 0 0 0 0 0 0 0 0 0 0 0 0 0 0 0 0 0 0 0 0 0 0 0 0 0 0 0 0 0 0 0 0 0 0 0 0 0 0 0 0 0 0 0 0 0 0 0 0 0 0 0 0 0 0 0 0 0 0 0 0 0 0 0 0 0 0 0 0 0 0 0 0 0 0 0 0 0 0 0 0 0 0 0 0 0 0 0 0 0 0 0 0 0 0 0 0 0 0 0 0 0 0 0 0 0 0 0 0 0 0 0 0 0 0 0 0 0 0
    0 0 0 0 0 0 0 0 0 0 0 0 0 0 0 0 0 0 0 0 0 0 0 0 0 0 0 0 0 0 0 0 0 0 0 0 0 0 0 0 0 0 0 0 0 0 0 0 0 0 0 0 0 0 0 0 0 0 0 0 0 0 0 0 0 0 0 0 0 0 0 0 0 0 0 0 0 0 0 0 0 0 0 0 0 0 0 0 0 0 0 0 0 0 0 0 0 0 0 0 0 0 0 0 0 0 0 0 0 0 0 0 0 0 0 0 0 0 0 0 0 0 0 0 0 0 0 0 0 0 0 0 0 0 0 0 0 0 0 0 0 0 0 0 0 0 0 0 0 0 0 0 0 0 0 0 0 0 0 0 0 0 0 0 0 0 0 0 0 0 0 0 0 0 0 0 0 0 0 0 0 0 0 0 0 0 0 0 0 0 0 0 0 0 0 0 0 0 0 0 0 0 0 0 0 0 0 0 0 0 0 0 0 0 0 0 0 0 0 0 0 0 0 0 0 0 0 0 0 0 0 0 0 0 0 0 0 0 0 0 0 0 0 0 0 0 0 0 0 0 0 0 0 0 0 0 0 0 0 0 0 0 0 0 0 0 0 0 0 0 0 0 0 0 0 0 0 0 0 0 0 0 0 0 0 0 0 0 0 0 0 0 0 0 0 0 0 0 0 0 0 0 0 0 0 0 0 0 0 0 0 0 0 0 0 0 0 0 0 0
    0 0 0 0 0 0 0 0 0 0 0 0 0 0 0 0 0 0 0 0 0 0 0 0 0 0 0 0 0 0 0 0 0 0 0 0 0 0 0 0 0 0 0 0 0 0 0 0 0 0 0 0 0 0 0 0 0 0 0 0 0 0 0 0 0 0 0 0 0 0 0 0 0 0 0 0 0 0 0 0 0 0 0 0 0 0 0 0 0 0 0 0 0 0 0 0 0 0 0 0 0 0 0 0 0 0 0 0 0 0 0 0 0 0 0 0 0 0 0 0 0 0 0 0 0 0 0 0 0 0 0 0 0 0 0 0 0 0 0 0 0 0 0 0 0 0 0 0 0 0 0 0 0 0 0 0 0 0 0 0 0 0 0 0 0 0 0 0 0 0 0 0 0 0 0 0 0 0 0 0 0 0 0 0 0 0 0 0 0 0 0 0 0 0 0 0 0 0 0 0 0 0 0 0 0 0 0 0 0 0 0 0 0 0 0 0 0 0 0 0 0 0 0 0 0 0 0 0 0 0 0 0 0 0 0 0 0 0 0 0 0 0 0 0 0 0 0 0 0 0 0 0 0 0 0 0 0 0 0 0 0 0 0 0 0 0 0 0 0 0 0 0 0 0 0 0 0 0 0 0 0 0 0 0 0 0 0 0 0 0 0 0 0 0 0 0 0 0 0 0 0 0 0 0 0 0 0 0 0 0 0 0 0 0 0 0 0 0 0 0
    0 0 0 0 0 0 0 0 0 0 0 0 0 0 0 0 0 0 0 0 0 0 0 0 0 0 0 0 0 0 0 0 0 0 0 0 0 0 0 0 0 0 0 0 0 0 0 0 0 0 0 0 0 0 0 0 0 0 0 0 0 0 0 0 0 0 0 0 0 0 0 0 0 0 0 0 0 0 0 0 0 0 0 0 0 0 0 0 0 0 0 0 0 0 0 0 0 0 0 0 0 0 0 0 0 0 0 0 0 0 0 0 0 0 0 0 0 0 0 0 0 0 0 0 0 0 0 0 0 0 0 0 0 0 0 0 0 0 0 0 0 0 0 0 0 0 0 0 0 0 0 0 0 0 0 0 0 0 0 0 0 0 0 0 0 0 0 0 0 0 0 0 0 0 0 0 0 0 0 0 0 0 0 0 0 0 0 0 0 0 0 0 0 0 0 0 0 0 0 0 0 0 0 0 0 0 0 0 0 0 0 0 0 0 0 0 0 0 0 0 0 0 0 0 0 0 0 0 0 0 0 0 0 0 0 0 0 0 0 0 0 0 0 0 0 0 0 0 0 0 0 0 0 0 0 0 0 0 0 0 0 0 0 0 0 0 0 0 0 0 0 0 0 0 0 0 0 0 0 0 0 0 0 0 0 0 0 0 0 0 0 0 0 0 0 0 0 0 0 0 0 0 0 0 0 0 0 0 0 0 0 0 0 0 0 0 0 0 0 0
    0 0 0 0 0 0 0 0 0 0 0 0 0 0 0 0 0 0 0 0 0 0 0 0 0 0 0 0 0 0 0 0 0 0 0 0 0 0 0 0 0 0 0 0 0 0 0 0 0 0 0 0 0 0 0 0 0 0 0 0 0 0 0 0 0 0 0 0 0 0 0 0 0 0 0 0 0 0 0 0 0 0 0 0 0 0 0 0 0 0 0 0 0 0 0 0 0 0 0 0 0 0 0 0 0 0 0 0 0 0 0 0 0 0 0 0 0 0 0 0 0 0 0 0 0 0 0 0 0 0 0 0 0 0 0 0 0 0 0 0 0 0 0 0 0 0 0 0 0 0 0 0 0 0 0 0 0 0 0 0 0 0 0 0 0 0 0 0 0 0 0 0 0 0 0 0 0 0 0 0 0 0 0 0 0 0 0 0 0 0 0 0 0 0 0 0 0 0 0 0 0 0 0 0 0 0 0 0 0 0 0 0 0 0 0 0 0 0 0 0 0 0 0 0 0 0 0 0 0 0 0 0 0 0 0 0 0 0 0 0 0 0 0 0 0 0 0 0 0 0 0 0 0 0 0 0 0 0 0 0 0 0 0 0 0 0 0 0 0 0 0 0 0 0 0 0 0 0 0 0 0 0 0 0 0 0 0 0 0 0 0 0 0 0 0 0 0 0 0 0 0 0 0 0 0 0 0 0 0 0 0 0 0 0 0 0 0 0 0 0
    0 0 0 0 0 0 0 0 0 0 0 0 0 0 0 0 0 0 0 0 0 0 0 0 0 0 0 0 0 0 0 0 0 0 0 0 0 0 0 0 0 0 0 0 0 0 0 0 0 0 0 0 0 0 0 0 0 0 0 0 0 0 0 0 0 0 0 0 0 -177 -177 -209 -209 -209 -193 -193 118 115 -209 -177 109 -193 -209 -209 -193 -209 -209 -209 83 87 -209 -209 -209 -209 425 425 -209 -193 418 421 -193 -209 -209 -209 -209 -209 -209 -209 -209 -209 -193 -193 -209 -209 12 14 14 14 15 16 18 19 -193 -193 -193 -209 -209 -209 -209 -209 -209 -193 -209 -209 -209 -209 -193 -193 -193 -209 -209 -209 -209 187 -193 -193 -193 -209 -209 -209 -209 -193 -209 -209 -209 -209 -209 -193 -209 -209 -209 -209 -209 -209 -209 -209 -209 -209 -209 -209 -209 -193 -209 100 -193 -209 -209 -209 -209 -193 45 45 46 52 53 55 56 56 56 57 57 57 59 60 59 60 60 62 67 68 69 71 73 76 77 77 77 79 78 80 79 81 81 82 84 83 81 86 87 88 90 92 95 98 99 98 99 100 101 103 103 103 105 105 107 109 114 112 113 117 120 -177 123 123 128 -193 -193 -177 -193 -193 138 140 141 144 142 145 144 143 142 145 145 146 143 141 141 144 153 -193 -193 -193 165 -193 -177 641 637 -177 -177 172 174 174 176 174 174 177 178 -193 0 -193 182 -193 -193 -193 -193 187 186 186 188 -193 -193 -209 -177 -177 204 211 214 215 215 -193 -193 86 87 88 90 93 97 0 0 0 0 0
    0 0 0 0 0 0 0 0 0 0 0 0 0 0 0 0 0 0 0 0 0 0 0 0 0 0 0 0 0 0 0 0 0 0 0 0 0 0 0 0 0 0 0 0 0 0 0 0 0 0 0 0 0 0 0 0 0 0 0 0 0 0 0 0 0 0 0 0 0 26 -193 -209 -209 -209 110 -193 118 -193 -209 -193 110 -193 -209 -209 -209 -209 -209 -193 84 87 -209 -209 -209 -209 -209 -209 -209 -209 415 419 -193 422 -209 -209 -209 -209 -209 -209 -209 -209 -193 -209 -209 -209 10 12 12 13 14 16 -193 19 19 19 19 -209 -209 -209 -209 -209 -209 -209 -209 -209 -209 -209 -209 -209 -209 -209 -209 -209 -209 187 188 -193 -193 -193 -209 -209 -209 -193 -209 -209 -209 -209 -209 -193 -209 -209 -209 -209 -209 -209 -209 -209 -209 -209 -209 -209 -209 -209 -209 99 -193 -209 -209 -209 -209 -193 43 43 44 52 52 54 55 55 55 57 57 57 58 60 59 60 60 62 67 68 69 71 73 77 78 77 78 79 78 80 79 80 81 82 83 83 81 86 87 88 90 92 94 97 98 97 98 100 101 102 102 103 104 105 107 109 114 113 114 117 120 123 123 123 127 133 133 -193 -193 -193 138 139 140 143 142 144 144 143 142 145 145 145 143 141 141 144 153 154 165 -193 166 -193 -177 641 -193 -193 -193 172 174 174 177 174 174 177 178 -193 0 -193 182 -193 -193 -177 -193 -193 186 186 188 -209 -193 -209 -177 -177 204 212 214 216 216 -193 -193 87 -193 88 90 93 97 0 0 0 0 0
    0 0 0 0 0 0 0 0 0 0 0 0 0 0 0 0 0 0 0 0 0 0 0 0 0 0 0 0 0 0 0 0 0 0 0 0 0 0 0 0 0 0 0 0 0 0 0 0 0 0 0 0 0 0 0 0 0 0 0 0 0 0 0 0 0 0 0 0 0 -193 27 -193 -209 -209 -209 -193 -209 -209 -193 -193 109 -193 -209 -209 -209 -209 -209 -193 82 85 -209 -209 -209 -209 -209 -209 -209 -209 -209 -193 -193 424 -193 -209 -209 -209 -209 -209 -209 -209 -209 -209 -209 -209 10 12 11 12 13 15 -193 16 17 -193 -193 -209 -209 -209 -209 -209 -209 -209 -209 -209 -209 -209 -209 -209 -209 -209 -209 -209 -209 188 189 -193 -193 -193 -209 -209 -209 -193 -193 -209 -209 -209 -209 -209 -209 -209 243 -209 -209 -209 -209 -209 -209 -209 -193 -193 -209 -193 -193 -193 -193 -209 -209 -209 -209 -209 40 41 41 51 51 53 54 54 54 56 56 56 59 59 59 60 61 62 68 69 70 71 74 77 79 78 78 80 78 80 80 80 81 81 83 83 81 87 87 89 90 92 95 97 97 97 98 100 100 101 102 102 104 105 107 108 114 113 114 117 120 123 123 123 126 132 131 133 135 -209 137 138 140 142 142 144 144 143 142 145 145 145 143 140 141 143 153 154 165 -193 167 -193 -193 642 -193 -193 -193 172 174 174 177 175 174 177 177 178 -193 -193 181 181 -193 -193 -193 187 186 186 188 -209 -193 -193 -177 -193 -193 212 215 216 216 -193 90 87 -193 89 91 93 95 0 0 0 0 0
    0 0 0 0 0 0 0 0 0 0 0 0 0 0 0 0 0 0 0 0 0 0 0 0 0 0 0 0 0 0 0 0 0 0 0 0 0 0 0 0 0 0 0 0 0 0 0 0 0 0 0 0 0 0 0 0 0 0 0 0 0 0 0 0 0 0 0 0 0 -193 26 -193 -209 -209 -209 -209 -209 -209 -209 -193 110 -193 -209 -209 -209 -209 -209 -193 81 85 -209 -209 -209 -209 186 -209 -209 -209 -209 -209 -193 426 426 -209 -209 -209 -209 -209 -209 -209 -193 -209 -209 10 11 12 11 12 12 15 -193 15 -193 -209 -209 -209 -209 -209 -209 -209 -209 -209 -209 -193 -209 -209 -209 -209 -209 -209 -209 -209 -209 -193 -193 -209 -209 -209 -209 -209 -193 0 0 -193 -209 -209 -209 -209 -209 -209 239 -209 -209 -209 -209 -209 -209 -193 -193 0 -209 -209 -193 -209 -209 -193 -193 -209 -209 -209 38 38 40 48 51 53 54 53 53 55 56 56 59 59 59 60 61 62 67 70 71 72 76 78 79 79 79 80 78 80 80 80 82 81 83 84 81 88 88 89 91 93 95 96 97 96 97 99 100 101 101 101 102 104 106 107 115 114 115 118 121 123 123 123 126 131 129 132 134 -209 137 137 139 140 141 143 145 143 142 145 145 145 144 140 142 143 153 153 164 -193 -193 -193 -193 642 171 171 171 172 174 -193 177 174 174 176 177 178 178 176 180 180 -193 -193 -193 187 186 186 187 -193 -193 -193 -177 -177 -193 212 215 216 216 -193 90 87 -193 89 91 92 -193 0 0 0 0 0
    0 0 0 0 0 0 0 0 0 0 0 0 0 0 0 0 0 0 0 0 0 0 0 0 0 0 0 0 0 0 0 0 0 0 0 0 0 0 0 0 0 0 0 0 0 0 0 0 0 0 0 0 0 0 0 0 0 0 0 0 0 0 0 0 0 0 0 0 0 -209 26 -209 -209 -209 -209 -209 -209 -209 -209 -193 -177 -177 -177 -209 -209 -209 -209 -209 -193 -193 -209 -209 -209 -209 -209 -209 -209 -209 -209 -209 425 427 428 431 -193 433 -209 437 -209 -209 -209 -209 -209 -193 -193 11 12 12 12 14 -193 -193 14 -209 -209 -209 -209 -209 -209 -209 -209 -209 -209 -209 -209 -209 -209 -209 -209 -209 -209 -209 -209 -209 -193 -209 -209 -209 -209 -209 -209 0 0 0 -193 -193 -193 0 -193 -209 -209 -209 -193 309 -209 -209 -209 0 0 0 -209 -209 -209 -209 -209 -209 -209 -209 -209 -209 34 35 38 46 50 52 53 52 52 55 55 56 59 59 59 59 61 61 67 71 72 72 78 79 80 80 80 81 78 80 80 79 82 80 82 84 82 88 88 89 91 92 95 95 96 96 97 99 99 100 100 101 102 103 106 107 116 116 117 -177 -177 124 124 123 125 130 128 131 133 -193 136 137 138 139 141 143 145 144 141 144 145 145 144 140 144 144 153 153 163 -193 -193 639 642 643 171 171 171 172 174 -193 -193 174 174 176 177 177 177 176 180 180 183 -193 -193 186 185 186 187 -193 -193 -193 -177 -177 -177 -193 215 217 217 -193 91 88 89 89 91 92 -209 0 0 0 0 0
    0 0 0 0 0 0 0 0 0 0 0 0 0 0 0 0 0 0 0 0 0 0 0 0 0 0 0 0 0 0 0 0 0 0 0 0 0 0 0 0 0 0 0 0 0 0 0 0 0 0 0 0 0 0 0 0 0 0 0 0 0 0 0 0 0 0 0 0 0 -209 -209 -209 -209 -209 -193 -209 -209 -209 -209 -193 -177 -177 -177 -209 -209 -209 -209 -209 -209 -209 -209 -209 -209 -209 -209 -209 -209 -209 -209 -209 424 427 428 -193 -193 -193 -209 -209 -209 -209 -209 -209 -209 -209 -193 11 13 14 13 16 -193 -193 14 14 -209 -209 -209 -209 -209 -209 -209 -209 -209 -209 -209 -209 -209 -209 -209 -209 -209 -209 -209 -209 -193 -209 -209 -209 -209 -209 0 0 0 0 0 0 0 0 -193 -193 -209 -209 -209 -209 -209 -193 -209 0 0 0 0 -193 -209 -209 -209 -209 -209 -209 -209 -193 32 33 38 44 48 50 51 50 52 55 55 57 59 59 59 60 61 61 67 72 73 73 79 79 81 81 80 81 78 80 81 79 82 80 82 84 82 87 88 89 91 92 94 95 95 95 96 98 99 99 100 100 101 103 107 108 117 118 -177 -177 -177 125 124 123 125 130 127 129 132 135 135 136 138 138 141 142 145 144 141 144 144 144 144 140 144 142 150 152 162 -177 640 640 642 644 171 171 172 172 174 -177 -193 174 174 176 177 177 177 175 179 179 183 -193 -193 186 185 185 186 187 -209 -193 -209 -177 -177 -193 -193 219 218 95 94 91 90 91 -193 93 -209 0 0 0 0 0
    0 0 0 0 0 0 0 0 0 0 0 0 0 0 0 0 0 0 0 0 0 0 0 0 0 0 0 0 0 0 0 0 0 0 0 0 0 0 0 0 0 0 0 0 0 0 0 0 0 0 0 0 0 0 0 0 0 0 0 0 0 0 0 0 0 0 0 0 0 -209 -209 -193 -209 -209 -193 -209 -209 -209 -209 -209 -193 -177 -177 -209 -209 -209 -209 -209 -209 -209 -209 -209 -193 -209 -209 -209 -209 -209 -209 -209 424 427 429 -193 -209 -209 -209 -209 -209 -209 -209 -209 -209 -209 -209 -193 14 15 -193 17 -193 -193 15 -193 -209 -209 -209 -193 247 -209 -209 -209 -209 -209 -209 -209 -209 -209 -209 -209 -209 -209 -209 -209 -209 -209 -209 -193 -209 0 0 0 0 0 0 0 0 0 0 -193 -209 -209 -209 -209 -209 -209 -209 0 0 -193 -193 -209 -209 -209 -209 -209 -209 -209 -209 28 29 30 36 42 45 48 49 48 51 56 55 57 59 59 59 60 61 61 66 72 74 73 80 80 82 82 80 82 78 81 81 79 82 80 81 84 83 87 88 89 91 92 93 94 95 94 95 97 97 99 99 99 99 101 106 107 118 120 121 121 123 125 125 123 124 129 126 128 131 134 134 135 137 138 141 142 145 144 141 144 144 144 144 139 144 141 148 152 162 -177 -177 640 642 644 172 171 172 172 174 -177 -193 175 174 177 177 177 177 175 179 179 182 183 -193 185 184 185 186 186 -209 -193 -209 -209 -177 -193 -209 -193 217 -193 96 -193 -193 -193 -193 -209 -193 0 0 0 0 0
    0 0 0 0 0 0 0 0 0 0 0 0 0 0 0 0 0 0 0 0 0 0 0 0 0 0 0 0 0 0 0 0 0 0 0 0 0 0 0 0 0 0 0 0 0 0 0 0 0 0 0 0 0 0 0 0 0 0 0 0 0 0 0 0 0 0 0 0 0 32 -209 -193 -209 -209 -193 -209 -209 -209 -209 -209 -193 -177 -209 -209 -209 -209 -209 -209 -209 -209 -193 -209 -193 -209 -209 -209 -209 -209 -209 -209 424 426 428 -209 -209 -209 -209 -209 -209 -209 -209 -209 -209 -209 -209 -209 -193 -209 -193 -193 -209 -193 13 -209 -209 -209 -209 245 -193 -209 -209 -209 -209 -209 -209 -209 -209 -209 -209 -209 -209 -209 -209 -209 -209 -209 -209 0 0 0 0 0 0 0 0 0 0 -209 -193 -193 11 -209 -209 -209 -209 -209 -209 -209 -193 -209 -209 -209 -193 -209 -193 -209 -209 -209 -209 25 26 28 33 39 43 44 45 45 50 56 55 57 59 59 59 60 61 61 65 72 74 74 81 80 81 82 80 81 78 81 81 78 82 81 80 85 84 87 88 89 91 92 93 94 95 94 95 97 97 98 98 99 99 101 105 108 119 123 122 123 123 124 126 123 123 129 126 127 131 134 134 134 137 137 141 141 145 144 141 144 144 144 144 140 144 141 147 152 161 -193 -177 -177 -177 -177 171 171 171 172 174 -177 -177 175 174 177 177 177 177 175 179 178 182 182 -193 185 184 185 186 186 -193 -193 -209 -209 -177 -193 -209 -209 216 -193 -193 214 213 212 213 212 212 0 0 0 0 0
    0 0 0 0 0 0 0 0 0 0 0 0 0 0 0 0 0 0 0 0 0 0 0 0 0 0 0 0 0 0 0 0 0 0 0 0 0 0 0 0 0 0 0 0 0 0 0 0 0 0 0 0 0 0 0 0 0 0 0 0 0 0 0 0 0 0 0 0 0 -209 -209 -209 -209 -209 -209 -209 -209 -209 -209 -209 -209 -209 -209 -209 -209 -209 -209 -209 -209 -209 210 -193 -209 -209 -209 -209 -209 -209 -209 -209 -209 -209 -209 -209 -209 -209 -209 -209 -209 -209 -209 -209 -209 -209 -209 -209 -209 -209 -209 -209 -209 -209 -193 -209 -209 -209 -209 -193 -193 -209 -209 -209 -209 -209 -209 -209 -209 -209 -209 -209 -209 -209 -209 -209 -209 -209 0 0 0 0 0 0 0 0 0 0 0 -209 -193 12 14 -209 -209 92 -209 -209 -209 -209 -209 -209 -209 -209 -209 -209 -209 -209 -209 -209 -193 22 24 27 30 35 41 41 42 43 48 55 54 57 59 59 60 61 61 61 64 72 73 73 81 80 81 82 80 81 78 81 81 78 82 81 79 85 85 87 -193 89 91 92 93 93 94 94 95 97 98 99 99 100 101 105 111 115 119 123 122 122 122 123 126 123 123 129 126 128 131 134 134 135 137 138 141 141 145 144 141 143 144 144 144 139 143 141 146 151 159 -209 -193 -177 -177 -177 171 170 170 171 174 -177 -177 -193 174 177 177 177 178 175 178 178 181 182 182 185 184 -193 185 186 -193 -193 -209 -209 -177 -209 -209 -209 214 216 214 213 212 212 212 212 211 0 0 0 0 0
    0 0 0 0 0 0 0 0 0 0 0 0 0 0 0 0 0 0 0 0 0 0 0 0 0 0 0 0 0 0 0 0 0 0 0 0 0 0 0 0 0 0 0 0 0 0 0 0 0 0 0 0 0 0 0 0 0 0 0 0 0 0 0 0 0 0 0 0 0 -209 -209 -209 -209 -209 -193 -209 -209 -209 -209 -209 -209 -209 -209 -209 -209 -209 -209 -209 -209 -209 -209 -209 -209 -209 -209 -209 -209 -209 -209 -209 -209 -193 -193 -209 -209 -209 -209 -209 -209 -209 -209 -209 -209 -209 -209 -209 -209 -209 -209 -209 -209 -209 -209 -209 -209 -209 -209 -209 -209 -209 -209 -193 -209 -209 -209 -209 -209 -209 -209 -209 -209 -209 -209 -209 -209 -209 0 0 0 0 0 0 0 0 0 0 0 -209 -209 -209 -209 -209 -209 93 -209 -209 -209 -193 -193 -193 -209 -193 -209 -209 -209 -209 -209 -209 16 19 23 27 29 33 39 39 40 41 46 54 54 56 59 58 60 61 61 61 64 71 72 72 80 79 80 82 79 80 78 81 81 78 82 82 78 85 84 86 86 88 90 90 91 92 93 94 96 97 98 99 99 100 103 108 112 117 119 122 121 121 122 122 127 123 124 129 128 130 132 135 135 135 138 139 142 141 144 144 141 143 143 143 143 140 143 142 147 151 158 -209 -193 -193 -193 -193 170 170 170 170 173 -177 -177 -193 174 177 177 177 178 175 178 178 180 182 181 184 183 -193 185 -193 -193 -209 -209 -209 -193 -209 -209 -209 211 215 212 211 211 211 211 211 211 0 0 0 0 0
    0 0 0 0 0 0 0 0 0 0 0 0 0 0 0 0 0 0 0 0 0 0 0 0 0 0 0 0 0 0 0 0 0 0 0 0 0 0 0 0 0 0 0 0 0 0 0 0 0 0 0 0 0 0 0 0 0 0 0 0 0 0 0 0 0 0 0 0 0 -209 -209 -209 -209 -209 -193 -209 -209 -209 -209 -209 -209 -209 -209 36 -193 -209 -193 -209 -209 -209 -209 -209 -209 -209 -209 -209 -209 -209 -209 -209 -209 -209 -193 -209 -209 -209 -209 -209 -209 -209 -209 -209 -209 -209 -209 -209 -209 -209 -209 -209 -209 -209 -209 -209 -209 -209 -209 -209 -209 -209 -209 -209 -209 -209 -209 -209 -209 -209 -209 -209 -193 -209 -209 -209 -209 -193 0 0 0 0 0 0 0 0 0 0 9 -209 -193 20 -209 -209 -193 -177 -209 -209 -209 -209 -193 -193 -209 -193 -209 -193 274 -193 -209 -193 13 15 22 28 28 32 37 37 39 40 46 55 54 56 59 58 59 61 61 62 63 71 71 72 78 77 78 81 78 79 77 80 81 78 82 82 78 85 85 85 85 87 90 89 92 93 94 95 97 99 99 100 100 -193 106 116 116 119 119 122 121 121 121 122 128 124 124 130 130 132 133 136 136 136 138 139 142 141 144 143 141 142 144 144 144 140 144 143 147 151 156 -209 163 -193 -193 -193 170 169 169 169 173 -177 -177 -193 174 176 177 177 178 175 178 178 180 181 180 183 183 -193 -193 185 -193 -193 -209 -209 -193 -209 -209 -209 206 213 210 210 210 211 211 211 211 0 0 0 0 0
    0 0 0 0 0 0 0 0 0 0 0 0 0 0 0 0 0 0 0 0 0 0 0 0 0 0 0 0 0 0 0 0 0 0 0 0 0 0 0 0 0 0 0 0 0 0 0 0 0 0 0 0 0 0 0 0 0 0 0 0 0 0 0 0 0 0 0 0 0 -209 -209 -209 -209 -209 -209 -209 -209 -209 -209 -209 -209 -209 36 36 -193 -193 -209 -209 -209 -193 -209 -209 -209 -209 -209 -209 -209 -209 -209 -209 -209 -209 -209 -209 -193 -193 -209 -209 -209 -209 -209 -209 -209 -209 -209 -209 -209 -209 -209 -209 -209 -209 -209 -209 -209 -209 -209 -209 -209 -209 -209 -209 -209 -209 -209 -209 -209 -209 -209 -209 -209 -193 -193 -193 0 0 0 0 0 0 0 0 0 0 0 0 10 -193 -193 20 -209 -209 -193 94 -209 -209 -209 -209 -209 -209 -209 -209 -209 -193 273 -209 -209 -209 12 13 21 28 27 32 37 37 39 40 46 56 54 56 59 58 59 61 61 62 63 71 71 72 77 76 76 80 77 78 76 79 80 77 82 82 78 86 86 86 86 88 90 90 92 93 95 96 98 99 100 100 101 -193 105 118 117 119 119 122 121 121 121 121 128 124 125 130 131 133 134 136 137 137 139 140 143 141 144 143 141 142 143 143 143 141 143 142 145 151 155 -209 162 164 166 -209 169 169 169 169 173 -193 -193 -193 174 176 177 177 178 175 178 178 179 181 180 183 183 -193 -193 184 185 185 -209 -209 -193 -209 -209 -209 204 210 209 210 209 210 210 211 210 0 0 0 0 0
    0 0 0 0 0 0 0 0 0 0 0 0 0 0 0 0 0 0 0 0 0 0 0 0 0 0 0 0 0 0 0 0 0 0 0 0 0 0 0 0 0 0 0 0 0 0 0 0 0 0 0 0 0 0 0 0 0 0 0 0 0 0 0 0 0 0 0 0 0 -193 -209 -209 -209 -209 -209 -209 -193 -193 -209 -209 -209 -209 37 38 34 -193 -209 -209 -193 -209 -209 -209 -193 -209 -209 -209 -209 -209 -209 -209 -209 -209 -209 -209 -193 -209 -209 -209 -209 -209 -209 -209 -209 -209 -209 -209 -209 -209 -209 -193 -209 -209 -209 -209 -209 -209 -209 -209 -193 -209 -209 -209 -209 -209 -193 -209 -209 -209 -209 -209 -193 -209 9 -193 0 0 0 0 0 0 0 0 0 0 0 0 10 -193 -193 16 -209 -209 -209 -209 -209 -209 -209 -209 -209 89 -209 -209 -209 -209 -193 -209 -209 14 10 15 23 32 29 34 39 39 40 42 48 55 53 55 58 58 58 60 61 63 63 71 72 72 77 75 75 79 77 77 76 78 80 77 82 83 78 86 86 86 86 88 90 90 93 94 98 98 99 100 100 100 100 102 105 111 115 117 119 122 121 122 122 122 129 125 125 131 132 134 134 -193 137 137 139 141 143 141 143 143 141 141 143 143 143 141 141 141 144 150 154 -209 161 163 165 168 168 168 169 169 173 -193 -193 176 174 176 177 177 178 175 177 178 179 181 180 183 183 -193 -193 185 186 185 -193 -209 189 196 197 199 203 206 208 209 209 210 209 210 209 0 0 0 0 0
    0 0 0 0 0 0 0 0 0 0 0 0 0 0 0 0 0 0 0 0 0 0 0 0 0 0 0 0 0 0 0 0 0 0 0 0 0 0 0 0 0 0 0 0 0 0 0 0 0 0 0 0 0 0 0 0 0 0 0 0 0 0 0 0 0 0 0 0 0 -193 -209 -193 -193 45 53 -209 44 44 -193 45 45 -193 40 -193 -193 -209 -209 -209 -193 -209 -209 -209 -193 -209 -209 -209 -209 -209 -209 -209 -193 -209 -209 -209 118 -193 -209 -209 -209 -209 -209 -209 -209 -209 -209 -209 -209 -209 -209 -193 -209 -209 -209 -209 -209 -209 -209 -209 205 -209 -209 -209 -209 -209 -209 -209 -209 -209 -209 -209 -193 -193 11 0 0 0 0 0 0 0 0 0 0 0 0 9 10 11 -193 14 -209 -209 -209 -209 -209 -209 -209 -209 -209 -193 -209 -209 -209 -209 -209 -209 -209 9 0 16 24 36 30 36 40 41 42 44 48 54 51 54 57 57 57 60 62 64 64 71 73 73 76 75 75 78 77 77 76 78 80 78 82 83 80 85 86 86 86 88 90 91 94 95 98 99 99 100 101 102 -193 -193 112 115 116 118 119 121 121 122 121 121 128 125 125 130 133 134 135 137 138 137 139 141 143 141 143 143 141 141 142 142 142 141 140 141 142 150 153 -193 161 163 165 168 169 169 169 169 173 172 173 176 174 176 177 177 177 175 177 178 178 182 180 183 -193 -193 186 186 187 186 -193 -193 190 195 197 198 202 203 206 207 208 209 209 210 211 0 0 0 0 0
    0 0 0 0 0 0 0 0 0 0 0 0 0 0 0 0 0 0 0 0 0 0 0 0 0 0 0 0 0 0 0 0 0 0 0 0 0 0 0 0 0 0 0 0 0 0 0 0 0 0 0 0 0 0 0 0 0 0 0 0 0 0 0 0 0 0 0 0 0 -193 -209 -209 -193 45 53 53 48 48 51 50 50 45 48 -193 -209 -209 -209 -209 -209 -209 -209 -209 -209 -209 -209 -209 -209 435 -209 -209 -193 -209 -209 -209 -209 -209 -209 -209 -209 -209 -209 -209 -209 -209 -209 -209 -209 -193 -209 -209 -209 -209 -209 -193 -209 -209 -209 -209 205 -209 -209 -209 -209 -209 -209 -209 -209 -209 -209 -209 13 14 8 0 0 0 0 0 0 0 0 0 0 0 9 10 11 12 12 12 -209 -209 -209 -209 -209 -209 -209 -209 -209 -209 -209 -209 123 -193 -209 188 -209 9 8 18 25 36 30 35 39 41 43 44 47 53 50 53 56 56 57 60 62 65 64 71 73 73 76 75 75 78 76 77 76 77 79 78 81 83 80 84 85 85 85 87 90 91 94 96 99 100 100 101 102 104 106 110 113 114 116 118 119 120 120 121 121 121 127 125 125 129 133 134 135 137 138 138 140 142 143 141 143 143 141 140 142 142 142 141 140 142 143 150 153 163 162 163 165 168 170 169 169 169 173 172 173 176 174 175 177 177 177 175 177 179 178 182 181 184 -193 -193 186 187 188 187 188 -193 192 195 196 198 201 202 205 206 207 208 209 211 212 0 0 0 0 0
    0 0 0 0 0 0 0 0 0 0 0 0 0 0 0 0 0 0 0 0 0 0 0 0 0 0 0 0 0 0 0 0 0 0 0 0 0 0 0 0 0 0 0 0 0 0 0 0 0 0 0 0 0 0 0 0 0 0 0 0 0 0 0 0 0 0 0 0 0 76 75 75 -209 -177 55 -193 50 52 54 53 54 -209 -209 -209 -209 -209 -209 -209 -209 -209 -193 -193 -209 -209 -209 -209 -209 435 -209 -209 -209 -209 -209 -209 -209 -209 -209 -209 -193 -209 -209 -209 -209 -209 -209 -193 -209 -193 -209 -209 -209 -209 -209 -209 -209 -209 -209 -209 -209 -209 -209 -209 -193 -209 -193 -209 -209 -209 -193 -193 14 13 0 0 0 0 0 0 0 0 0 0 0 9 10 11 12 12 12 10 11 -209 -209 -209 -209 -209 -209 -209 -209 -209 -209 123 126 -193 -209 -177 -209 11 10 19 26 34 30 34 39 41 42 43 45 51 48 52 55 55 56 59 62 64 63 70 72 73 75 74 74 77 76 77 77 77 79 78 81 83 80 83 85 86 86 87 90 91 95 98 99 100 100 102 103 -193 107 109 111 114 117 118 119 119 120 121 121 121 127 125 125 129 -193 134 135 -209 -193 138 140 141 143 141 142 143 141 140 142 142 142 142 140 142 142 150 152 162 162 164 165 168 171 170 170 170 173 172 172 176 174 175 176 177 177 175 177 179 178 182 182 184 -193 -193 187 188 188 187 189 -193 194 197 197 198 201 202 205 206 207 209 210 212 -193 0 0 0 0 0
    0 0 0 0 0 0 0 0 0 0 0 0 0 0 0 0 0 0 0 0 0 0 0 0 0 0 0 0 0 0 0 0 0 0 0 0 0 0 0 0 0 0 0 0 0 0 0 0 0 0 0 0 0 0 0 0 0 0 0 0 0 0 0 0 0 0 0 0 0 76 75 -193 -209 49 54 -193 47 47 -209 -209 -209 -209 -209 -209 -209 -209 -209 -209 -209 -209 -193 -193 -209 -193 -209 -209 -209 -209 -209 -209 -209 -209 -209 -209 -209 -209 -209 -209 -177 -193 -209 -209 -209 -209 -209 -209 -209 -193 -209 -209 -209 -209 -209 -209 -209 -209 -193 302 -209 -209 -209 -209 -209 -209 -193 -209 -209 -209 -193 -193 13 12 0 0 0 0 0 0 0 0 0 -193 0 10 11 12 12 13 14 11 14 -209 -209 -209 -209 -209 -209 -209 -209 -209 -193 -193 126 -193 -193 190 11 12 11 20 27 33 29 33 38 42 43 44 45 51 48 52 54 55 55 58 61 63 62 69 72 72 74 74 74 76 76 77 77 77 79 79 80 83 81 81 85 85 85 87 89 91 94 96 99 100 100 101 102 -209 107 109 110 114 116 117 117 118 120 120 121 121 126 125 125 129 -193 132 -193 -193 -193 -193 139 141 142 141 142 143 142 140 142 142 142 142 140 143 141 150 152 162 163 165 166 168 173 170 170 171 173 172 172 176 174 175 176 177 177 175 177 180 179 183 183 185 185 186 187 189 189 188 191 -193 196 198 199 199 202 203 205 206 208 210 211 213 -193 0 0 0 0 0
    0 0 0 0 0 0 0 0 0 0 0 0 0 0 0 0 0 0 0 0 0 0 0 0 0 0 0 0 0 0 0 0 0 0 0 0 0 0 0 0 0 0 0 0 0 0 0 0 0 0 0 0 0 0 0 0 0 0 0 0 0 0 0 0 0 0 0 0 0 76 76 -193 -193 50 51 47 46 44 -209 -209 -209 -209 -193 -209 -193 -209 -209 -209 -209 -209 -193 -209 -209 -209 -209 -209 -209 -209 -209 -209 -209 -209 -209 -209 -209 -193 -209 -209 0 0 -193 -209 -209 -209 -209 -193 -209 -209 -209 -209 -209 -209 -209 -209 -209 -209 301 -177 -193 -209 -209 -209 0 0 0 -193 0 11 13 12 12 11 0 0 0 0 0 0 0 0 -193 9 9 11 12 12 13 14 15 11 15 -209 -209 -209 -209 -209 -209 -209 -209 -209 -209 123 127 127 128 -209 12 13 12 21 27 30 28 32 38 42 43 44 45 52 48 52 55 55 55 57 61 62 61 68 72 72 73 -193 74 76 77 77 77 77 79 79 80 82 81 80 85 85 85 86 88 90 93 95 97 99 100 100 102 -209 107 108 111 114 115 116 117 118 119 120 120 121 125 124 124 127 132 130 -193 -193 -193 -209 138 140 141 141 142 144 142 140 142 142 143 143 139 143 141 151 153 162 -193 165 167 168 175 171 171 171 173 172 172 176 174 174 176 177 178 176 178 180 180 184 185 185 186 186 188 190 190 189 193 -193 198 199 200 201 203 204 206 207 209 211 212 -193 -193 0 0 0 0 0
    0 0 0 0 0 0 0 0 0 0 0 0 0 0 0 0 0 0 0 0 0 0 0 0 0 0 0 0 0 0 0 0 0 0 0 0 0 0 0 0 0 0 0 0 0 0 0 0 0 0 0 0 0 0 0 0 0 0 0 0 0 0 0 0 0 0 0 0 0 76 77 75 -193 -193 -193 -209 45 -209 -209 -209 -209 -193 -193 -193 -209 -209 -209 -209 -209 -209 -209 -209 -209 -209 -209 -193 -209 -209 -209 -209 -209 -209 -209 -209 -209 -193 0 0 0 0 0 -193 -209 -209 -209 -193 -209 -209 -209 -209 -209 -209 -209 -209 -209 -209 -177 -177 -193 -193 -193 0 0 0 0 0 0 0 9 9 9 10 0 0 0 0 0 0 0 0 10 10 10 12 12 13 14 14 15 10 15 19 -209 -209 -209 -209 -209 -209 -209 -193 -209 126 130 129 129 -209 12 14 13 21 26 27 27 29 37 42 44 45 45 52 49 53 55 55 55 57 61 62 61 68 72 72 -193 -193 74 76 77 78 78 77 79 79 79 82 81 79 85 85 85 87 89 91 94 95 98 99 99 101 -193 -193 107 108 112 114 115 116 117 118 119 120 121 121 124 124 124 126 131 -193 963 -193 -193 -193 138 139 140 141 142 144 142 140 142 143 143 143 139 142 141 150 -193 -193 -193 165 167 168 175 171 171 171 173 172 172 176 174 174 176 178 178 177 178 181 181 185 186 186 186 187 188 191 191 190 194 -193 198 200 201 201 203 205 208 209 211 212 213 -193 -193 0 0 0 0 0
    0 0 0 0 0 0 0 0 0 0 0 0 0 0 0 0 0 0 0 0 0 0 0 0 0 0 0 0 0 0 0 0 0 0 0 0 0 0 0 0 0 0 0 0 0 0 0 0 0 0 0 0 0 0 0 0 0 0 0 0 0 0 0 0 0 0 0 0 0 76 76 75 -193 -193 -193 -209 45 -209 -209 -209 -209 21 21 -193 -209 -209 -209 -209 -209 -209 -193 -193 -209 10 -193 11 -193 -209 -209 -209 -209 -209 -209 -209 -209 -193 0 0 0 -193 -193 -193 -209 -209 -209 -209 -209 -209 -209 -209 -209 -209 -209 -209 -209 -209 -209 -193 -209 -193 -193 0 0 0 0 0 0 0 0 0 0 9 9 0 0 0 0 0 0 0 10 10 10 11 12 12 13 13 13 10 14 17 -193 -193 -193 -209 -209 -209 82 -177 -209 -193 131 129 129 14 13 14 14 22 24 25 25 27 36 42 44 44 44 50 -177 -177 54 55 55 56 61 61 61 67 72 72 -193 -193 75 76 78 79 79 77 79 80 78 82 81 78 85 85 85 87 89 91 94 95 97 99 100 101 103 105 107 109 111 113 114 115 117 118 119 120 120 121 124 124 123 125 130 959 963 133 -193 -193 -193 139 139 141 142 144 143 140 142 142 142 142 138 141 140 148 -193 -193 -177 165 166 168 175 171 171 171 173 173 172 176 174 175 177 179 179 178 179 182 182 185 186 186 187 188 190 193 194 193 196 200 199 200 201 201 202 204 208 209 211 212 213 -193 -193 0 0 0 0 0
    0 0 0 0 0 0 0 0 0 0 0 0 0 0 0 0 0 0 0 0 0 0 0 0 0 0 0 0 0 0 0 0 0 0 0 0 0 0 0 0 0 0 0 0 0 0 0 0 0 0 0 0 0 0 0 0 0 0 0 0 0 0 0 0 0 0 0 0 0 74 74 73 68 -193 54 45 44 -193 -209 -209 -209 -193 -193 -193 -209 -209 -209 -209 -209 -193 -193 -209 -209 12 14 14 17 14 -209 -209 -193 -209 -209 -209 -193 -193 0 0 0 -193 -193 -193 -209 -209 -209 -209 -209 -209 -209 -209 -209 -209 -209 -209 -209 -209 -209 -193 -209 -209 -193 0 0 0 0 0 0 0 0 0 0 9 9 0 0 0 0 0 0 0 12 10 11 12 12 12 13 14 13 10 14 17 9 -193 -193 -209 -193 -209 -209 -209 -209 -193 -225 126 125 12 12 12 13 21 23 23 23 24 33 41 44 43 43 49 -177 -177 54 55 55 57 61 61 61 66 72 72 -193 -193 75 76 79 79 79 77 80 80 78 82 81 77 84 84 85 86 -193 91 94 96 97 99 100 102 103 105 108 109 111 112 114 115 117 117 119 120 120 121 124 124 123 125 -193 958 962 132 -193 -193 -193 138 139 141 142 144 143 140 142 142 142 142 138 140 139 147 151 -193 -177 164 166 168 175 171 171 171 172 173 -193 176 174 175 178 180 180 179 179 182 182 185 187 186 187 190 193 196 196 195 197 199 199 199 200 200 200 -209 -193 -193 -209 -209 -193 -209 -193 0 0 0 0 0
    0 0 0 0 0 0 0 0 0 0 0 0 0 0 0 0 0 0 0 0 0 0 0 0 0 0 0 0 0 0 0 0 0 0 0 0 0 0 0 0 0 0 0 0 0 0 0 0 0 0 0 0 0 0 0 0 0 0 0 0 0 0 0 0 0 0 0 0 0 72 73 71 68 61 57 -209 44 -193 -209 -209 -209 21 -193 -209 -209 -209 -209 -193 -209 -193 94 -193 -209 12 14 14 17 15 -193 -209 -209 -209 -209 -209 -209 -193 0 0 0 -193 -193 -193 -193 -209 -193 -193 -209 -209 -209 -209 -209 -209 -209 -209 -209 -209 -209 81 -209 -193 -193 0 0 0 0 0 0 0 0 0 0 9 9 0 0 0 0 0 0 11 13 11 12 13 13 13 14 14 13 12 15 16 11 10 9 0 -193 0 -225 -225 -225 -225 -225 -225 11 10 11 11 14 20 21 21 21 23 29 39 43 42 42 48 -177 53 54 55 56 57 61 61 61 66 71 71 -193 285 75 76 80 79 79 77 80 81 78 81 81 77 83 84 85 86 89 91 94 95 96 98 100 101 103 106 108 109 111 112 114 115 116 117 118 119 120 121 123 123 123 124 128 957 -193 132 -193 134 -193 138 138 141 141 144 143 140 142 142 142 142 138 141 139 146 151 -193 -177 164 166 168 175 171 170 171 172 173 172 -193 175 175 178 181 180 180 179 183 183 185 187 186 187 191 195 197 196 196 198 199 199 199 199 -193 198 -209 -209 -209 -209 -209 -209 -209 -209 0 0 0 0 0
    0 0 0 0 0 0 0 0 0 0 0 0 0 0 0 0 0 0 0 0 0 0 0 0 0 0 0 0 0 0 0 0 0 0 0 0 0 0 0 0 0 0 0 0 0 0 0 0 0 0 0 0 0 0 0 0 0 0 0 0 0 0 0 0 0 0 0 0 0 73 74 73 72 -193 67 -209 -209 -193 78 -209 -209 -193 -193 -209 -209 -209 -209 -209 -209 -209 -193 -209 -209 -193 14 13 15 14 11 -209 -209 -209 -209 -209 -209 -193 0 0 0 0 0 0 0 0 0 0 0 0 0 -209 -209 -193 -177 -193 -209 -209 -209 81 -193 0 0 0 0 0 0 0 0 0 0 0 0 0 9 0 0 0 0 0 0 13 14 12 12 13 14 13 14 15 13 12 15 15 12 11 11 10 10 0 -225 -225 -225 -225 -225 -225 12 11 11 12 16 20 20 20 20 22 26 36 41 41 41 48 49 54 55 56 57 57 61 61 61 65 70 69 -193 283 75 75 80 79 79 77 80 81 78 81 81 76 83 84 85 86 89 91 94 95 97 98 99 101 104 106 108 109 111 112 114 115 116 116 119 119 120 121 122 123 123 124 127 957 128 131 134 134 135 137 137 141 141 143 143 140 142 142 142 142 138 141 139 145 151 159 -193 163 164 167 174 170 170 170 171 172 172 -193 175 175 178 181 180 180 179 183 183 185 187 186 187 192 197 197 197 196 198 198 199 198 198 -193 -193 747 -209 -209 -209 -209 -209 -209 -193 0 0 0 0 0
    0 0 0 0 0 0 0 0 0 0 0 0 0 0 0 0 0 0 0 0 0 0 0 0 0 0 0 0 0 0 0 0 0 0 0 0 0 0 0 0 0 0 0 0 0 0 0 0 0 0 0 0 0 0 0 0 0 0 0 0 0 0 0 0 0 0 0 0 0 75 74 74 73 73 -193 -209 -209 -193 -193 -193 -193 -193 -193 -209 -209 -209 -209 -209 -209 -209 -209 -209 -209 -193 -193 13 14 14 -193 -209 -209 -209 -209 -209 -209 -209 0 0 0 0 0 0 0 0 0 0 0 0 0 -193 -209 -193 -177 -209 -209 -193 -209 80 -193 -193 0 0 0 0 0 0 0 0 0 0 0 9 11 9 9 0 10 0 0 14 14 12 13 13 14 13 14 14 12 12 15 14 12 11 12 10 11 12 -225 -225 -225 -225 -225 20 14 12 12 14 19 20 20 19 20 22 25 33 40 40 41 49 51 55 56 57 58 58 60 61 61 64 69 68 70 281 -193 75 80 79 79 77 80 81 78 81 81 76 84 85 85 86 -193 91 93 96 97 98 100 102 104 105 107 108 110 111 114 114 115 116 118 119 119 120 121 122 123 123 126 -193 128 131 133 134 135 137 137 141 141 143 143 140 141 142 142 142 138 140 139 145 151 157 -193 161 162 166 171 168 168 169 169 172 172 -193 -193 175 -193 182 180 180 180 183 183 185 187 186 187 193 198 197 197 197 197 198 199 198 197 -209 -209 -209 -209 -193 -209 -209 -209 -209 -209 0 0 0 0 0
    0 0 0 0 0 0 0 0 0 0 0 0 0 0 0 0 0 0 0 0 0 0 0 0 0 0 0 0 0 0 0 0 0 0 0 0 0 0 0 0 0 0 0 0 0 0 0 0 0 0 0 0 0 0 0 0 0 0 0 0 0 0 0 0 0 0 0 0 0 76 75 75 73 74 74 78 -209 -193 77 -193 -209 -193 -193 -209 -209 -209 -209 -209 -209 -209 -209 -209 -209 -209 -193 14 14 -193 -193 -209 -209 -209 -209 -209 -209 -209 -193 -193 0 0 0 0 0 0 0 0 0 0 0 0 -209 0 -177 -209 -209 -209 -193 82 -193 -193 0 0 0 0 0 0 0 0 0 0 0 9 12 10 9 0 13 0 0 16 14 12 13 13 14 13 15 15 12 13 15 14 13 12 12 11 12 13 -225 -225 -225 -225 -225 19 13 12 12 15 20 20 19 18 19 21 24 31 40 40 42 51 53 57 58 58 59 59 60 61 61 64 69 67 70 279 -193 74 79 78 78 77 79 81 78 81 81 77 84 85 85 85 -209 91 93 95 96 98 100 102 103 105 106 107 109 111 113 113 114 115 117 118 118 119 120 122 122 123 125 -193 128 131 133 134 135 137 137 140 140 142 142 140 140 141 141 141 137 141 141 146 151 156 160 159 160 164 168 166 166 167 168 171 171 -193 -193 174 -193 182 180 180 179 183 183 185 186 186 186 194 199 198 197 197 197 197 198 197 195 -209 -193 -209 -193 -193 -209 -209 -209 -209 -209 0 0 0 0 0
    0 0 0 0 0 0 0 0 0 0 0 0 0 0 0 0 0 0 0 0 0 0 0 0 0 0 0 0 0 0 0 0 0 0 0 0 0 0 0 0 0 0 0 0 0 0 0 0 0 0 0 0 0 0 0 0 0 0 0 0 0 0 0 0 0 0 0 0 0 78 76 76 74 74 74 -193 63 -193 75 -209 -209 -209 -209 -209 -209 -209 -209 -209 -209 -209 -209 -209 -209 -209 -209 -193 -193 -193 -193 -193 340 -193 -209 -209 -209 -209 0 -193 0 0 0 0 0 0 0 0 0 0 0 0 -209 -193 -177 -209 -209 -209 -209 85 -193 -193 0 0 0 0 0 0 0 0 0 0 0 10 14 11 11 0 21 0 0 -177 13 12 14 13 14 13 15 15 12 13 15 13 13 12 12 12 13 14 -225 -225 -225 -225 -225 16 12 12 12 16 19 19 17 16 17 20 23 28 40 40 43 52 54 57 59 59 60 60 60 62 62 64 69 66 69 278 275 74 78 77 77 76 79 80 77 80 81 77 84 85 85 86 -209 91 93 94 95 98 100 102 103 104 106 107 110 110 112 112 114 116 117 117 117 117 120 121 122 122 125 -193 129 131 133 135 135 137 137 140 140 141 142 140 140 141 141 141 138 140 142 145 151 155 158 157 158 162 167 165 165 166 167 170 171 -193 -193 -193 -193 182 180 180 179 182 183 184 185 185 185 194 200 -193 197 196 196 195 -193 195 190 -209 -209 -209 -209 -193 -209 -209 -209 50 -209 0 0 0 0 0
    0 0 0 0 0 0 0 0 0 0 0 0 0 0 0 0 0 0 0 0 0 0 0 0 0 0 0 0 0 0 0 0 0 0 0 0 0 0 0 0 0 0 0 0 0 0 0 0 0 0 0 0 0 0 0 0 0 0 0 0 0 0 0 0 0 0 0 0 0 80 78 77 75 73 74 69 69 74 74 -193 -209 -209 -209 -209 -209 -209 -209 -209 -209 -209 -193 -193 -209 -209 -209 -209 -209 -209 -209 -193 341 -193 -209 -209 -209 -209 0 0 0 0 0 0 0 0 0 0 0 0 0 0 -193 0 0 -209 -209 -209 -209 -209 -193 -193 -193 0 0 0 0 0 -225 -225 -225 -225 -225 -225 -225 -225 -225 -225 -193 0 0 -177 13 13 15 14 14 14 15 15 12 14 15 13 14 12 13 12 13 15 -225 -225 -225 -225 -225 14 11 11 11 18 19 18 16 16 17 19 22 27 -193 41 44 53 55 57 59 59 60 60 60 62 62 64 69 65 -193 276 274 72 77 76 76 75 78 79 77 80 81 77 84 85 85 86 89 92 94 95 97 100 101 102 103 104 106 107 110 110 111 112 114 115 117 117 117 118 120 122 123 123 126 -193 130 132 134 135 135 137 138 140 139 141 142 140 139 140 140 141 138 140 142 144 150 153 157 157 158 161 166 164 165 166 167 170 171 -193 -193 -193 -193 182 180 180 178 181 182 182 184 184 185 194 201 -193 -193 -193 -193 -193 -193 194 188 -209 -209 -209 -193 340 -209 -209 -209 52 -209 0 0 0 0 0
    0 0 0 0 0 0 0 0 0 0 0 0 0 0 0 0 0 0 0 0 0 0 0 0 0 0 0 0 0 0 0 0 0 0 0 0 0 0 0 0 0 0 0 0 0 0 0 0 0 0 0 0 0 0 0 0 0 0 0 0 0 0 0 0 0 0 0 0 0 81 79 77 76 73 -193 65 68 69 68 71 61 -209 -209 -209 -209 -193 -193 -209 -209 -209 -193 -193 -209 -193 -193 -209 -209 -209 -209 -209 -209 -209 -209 -209 -209 -209 0 0 0 0 0 0 0 0 0 0 0 0 0 0 0 0 -177 -193 -209 -193 -193 -193 93 -225 -225 -225 -225 -225 -225 -225 -225 -225 -225 -225 -225 -225 -225 -225 -225 -225 -225 0 -177 20 14 13 15 13 14 14 15 14 11 14 14 12 14 12 13 13 14 15 -225 -225 -225 -225 -225 11 11 11 12 17 18 17 15 16 18 19 22 27 40 41 45 53 56 58 59 59 59 60 60 62 62 63 68 64 -193 274 -193 72 75 74 74 74 77 78 76 79 81 77 84 85 85 86 90 92 94 97 99 101 102 103 104 105 107 107 109 109 110 110 112 113 115 116 116 118 120 122 123 124 126 -193 131 132 134 135 136 137 138 140 139 140 142 141 139 140 141 141 139 140 142 144 150 153 158 158 158 161 166 164 165 165 167 170 170 171 -193 -193 -193 181 179 179 177 180 182 181 183 183 184 193 -193 -193 391 -193 -177 -193 -177 -193 188 -209 -209 -209 -193 340 -209 -193 -193 55 -209 0 0 0 0 0
    0 0 0 0 0 0 0 0 0 0 0 0 0 0 0 0 0 0 0 0 0 0 0 0 0 0 0 0 0 0 0 0 0 0 0 0 0 0 0 0 0 0 0 0 0 0 0 0 0 0 0 0 0 0 0 0 0 0 0 0 0 0 0 0 0 0 0 0 0 80 79 76 75 73 73 65 68 63 59 57 56 -209 49 -193 -209 -193 -209 -209 -209 -209 -193 -209 -209 -209 -193 -209 -209 -209 -209 -209 -209 -209 -209 -209 -209 -209 -193 -193 0 0 0 0 0 0 0 0 0 0 0 0 -193 -193 0 -225 -225 -225 -225 -225 -225 -225 -225 -225 -225 -225 -225 -225 -225 -225 -225 -225 -225 -225 -225 -225 -225 -225 -225 9 9 20 15 15 16 14 15 14 15 15 12 14 13 12 13 12 12 12 14 15 -225 -225 -225 -225 -225 -193 -193 9 12 16 17 16 15 15 18 19 21 27 40 42 47 54 57 58 59 59 60 60 60 62 62 62 68 64 67 274 70 71 74 74 74 74 76 78 76 79 82 77 83 85 85 -209 90 92 94 97 99 100 101 102 103 105 106 107 108 108 110 110 111 112 115 115 116 117 119 121 124 124 126 -193 131 132 134 136 136 137 138 140 139 141 142 141 140 141 141 142 140 140 144 145 151 154 158 158 158 160 165 164 165 165 167 169 170 171 -193 -193 -193 181 179 179 177 179 181 180 182 182 183 192 -209 385 390 -193 -193 -193 -177 -193 -193 -209 -209 -209 -193 341 -209 67 63 57 58 0 0 0 0 0
    0 0 0 0 0 0 0 0 0 0 0 0 0 0 0 0 0 0 0 0 0 0 0 0 0 0 0 0 0 0 0 0 0 0 0 0 0 0 0 0 0 0 0 0 0 0 0 0 0 0 0 0 0 0 0 0 0 0 0 0 0 0 0 0 0 0 0 0 0 81 80 77 76 74 74 71 71 64 59 57 55 52 49 50 -209 -209 -209 -209 -209 -209 -209 -209 -209 -209 -193 -209 -209 -209 -209 -209 -209 -209 -209 -209 -209 -209 -209 -193 0 0 0 0 0 0 0 0 0 -225 0 -225 -225 -225 -225 -225 -225 -225 -225 -225 -225 -225 -225 -225 -225 -225 -225 -225 -225 -225 -225 -225 -225 -225 -225 -225 -225 -225 -225 9 9 20 15 15 16 14 15 14 15 15 12 14 13 12 14 13 12 12 14 15 -225 -225 -225 -225 -225 -193 -193 0 11 15 16 14 14 15 18 18 21 27 40 43 49 54 57 58 58 59 59 59 59 62 62 62 68 65 67 275 71 71 74 74 74 74 76 78 77 79 82 78 82 85 86 -209 91 92 95 96 98 99 101 102 103 104 105 106 107 108 110 109 110 111 113 114 115 115 118 -209 124 124 125 -193 131 132 133 136 136 136 137 139 139 141 143 142 140 142 142 142 141 141 145 145 151 153 158 158 158 160 165 165 166 166 167 169 171 171 -193 -193 -193 180 179 178 177 178 181 180 182 182 183 190 -209 384 390 -177 -193 -193 -177 -193 -209 -209 -209 -209 -209 -193 -209 70 70 61 68 0 0 0 0 0
    0 0 0 0 0 0 0 0 0 0 0 0 0 0 0 0 0 0 0 0 0 0 0 0 0 0 0 0 0 0 0 0 0 0 0 0 0 0 0 0 0 0 0 0 0 0 0 0 0 0 0 0 0 0 0 0 0 0 0 0 0 0 0 0 0 0 0 0 0 82 82 79 78 75 76 73 74 63 59 58 57 -209 51 -193 -209 -209 -209 -209 -209 -209 -209 -209 -209 -209 -209 -209 -209 -209 -209 -209 -209 -209 -209 59 -209 -209 -209 -193 0 0 0 0 0 0 0 0 0 -225 -225 -225 -225 -225 -225 -225 -225 -225 -225 -225 -225 -225 -225 -225 -225 -225 -225 -225 -225 -225 -225 -225 -225 -225 -225 -225 -225 -225 -225 9 -177 -177 14 14 15 14 14 14 15 14 12 13 13 12 14 13 12 13 15 16 -225 -225 -225 -225 -225 421 423 0 11 15 15 14 13 15 18 17 20 25 -209 -209 50 56 58 59 59 59 60 59 59 62 62 61 68 66 68 276 72 72 74 75 75 75 76 78 77 79 82 79 82 86 87 -209 91 93 95 96 98 99 101 102 104 104 105 106 107 107 109 108 109 110 112 112 113 113 117 119 124 124 -193 -177 131 131 133 136 136 136 137 139 139 141 143 142 140 142 142 142 141 141 146 145 150 153 157 158 158 160 165 166 166 167 168 170 171 171 -193 173 -193 179 179 178 177 177 181 179 181 181 182 188 -209 -193 389 -193 -193 -177 -177 -177 -209 -209 -209 -209 -209 -209 75 73 73 69 73 0 0 0 0 0
    0 0 0 0 0 0 0 0 0 0 0 0 0 0 0 0 0 0 0 0 0 0 0 0 0 0 0 0 0 0 0 0 0 0 0 0 0 0 0 0 0 0 0 0 0 0 0 0 0 0 0 0 0 0 0 0 0 0 0 0 0 0 0 0 0 0 0 0 0 82 83 80 79 76 76 73 74 62 59 63 66 -193 -209 -209 -209 -209 -209 -209 -209 -209 -209 -193 138 142 -209 -209 -209 -209 -209 -209 -209 -193 -209 -193 -209 -209 -193 -193 -193 0 0 0 0 0 0 -225 -225 -225 -225 -225 -225 -225 -225 -225 -225 -225 -225 -225 -225 -225 -225 -225 -225 -225 -225 -225 -225 -225 -225 -225 -225 -225 -225 -225 -225 -225 -225 -177 -177 -177 13 13 14 13 13 14 14 14 12 13 14 12 14 13 12 14 16 16 -225 -225 -225 -225 421 421 423 0 11 15 16 14 14 15 18 17 18 23 -209 -209 51 56 58 59 59 59 59 59 59 61 61 61 68 68 69 -193 72 73 75 75 75 75 76 78 77 78 82 79 81 86 86 87 91 93 94 95 97 99 101 103 103 104 105 106 107 107 107 107 108 109 111 111 112 111 117 119 125 125 126 -193 130 131 133 136 135 135 137 138 140 141 144 143 140 142 142 143 142 141 147 146 150 153 158 159 159 160 165 167 167 167 168 170 171 -193 -193 173 174 178 179 177 177 176 180 178 180 180 181 186 -193 -177 -193 -193 -177 -177 -177 -177 -209 -209 -209 -209 -209 -193 76 75 75 73 75 0 0 0 0 0
    0 0 0 0 0 0 0 0 0 0 0 0 0 0 0 0 0 0 0 0 0 0 0 0 0 0 0 0 0 0 0 0 0 0 0 0 0 0 0 0 0 0 0 0 0 0 0 0 0 0 0 0 0 0 0 0 0 0 0 0 0 0 0 0 0 0 0 0 0 82 83 81 79 77 76 74 73 66 64 66 68 74 -209 -209 -209 -209 -193 -193 31 33 -209 136 138 144 -209 -209 -209 -209 -209 -193 0 0 0 0 0 0 -193 -193 -193 -193 0 0 0 0 -225 -225 -225 -225 -225 -225 -225 -225 -225 -225 -225 -225 -225 -225 -225 -225 -225 -225 -225 -225 -225 -225 -225 -225 -225 -225 -225 -225 -225 -225 -225 -225 -225 0 0 -177 13 13 14 13 14 14 15 14 12 14 14 13 15 13 12 14 15 15 13 -225 -225 -225 -193 0 0 0 10 13 14 13 13 14 16 15 16 20 -209 -209 49 55 57 57 58 58 58 58 59 62 61 61 68 70 71 73 74 73 75 76 76 76 76 78 77 78 82 80 80 86 87 88 91 93 94 95 98 99 101 102 103 103 105 105 106 106 106 106 107 108 110 109 110 110 116 119 126 125 126 133 130 -193 133 135 135 135 137 137 139 141 144 143 140 143 143 143 143 141 146 145 150 153 158 159 160 161 165 167 167 167 168 170 171 -177 -177 173 174 177 178 177 176 176 179 177 179 179 181 184 -193 -177 -193 -177 -177 -177 -177 -177 -177 -209 -209 -209 -209 74 77 76 76 75 76 0 0 0 0 0
    0 0 0 0 0 0 0 0 0 0 0 0 0 0 0 0 0 0 0 0 0 0 0 0 0 0 0 0 0 0 0 0 0 0 0 0 0 0 0 0 0 0 0 0 0 0 0 0 0 0 0 0 0 0 0 0 0 0 0 0 0 0 0 0 0 0 0 0 0 83 84 81 80 77 76 74 74 68 64 66 64 -193 -209 -209 -209 -193 33 35 32 33 -209 -209 -209 -209 -209 -209 -209 -209 -209 -193 0 0 0 0 0 0 0 0 0 0 0 -225 -225 -225 -225 -225 -225 -225 -225 -225 -225 -225 -225 -225 -225 -225 -225 -225 -225 -225 -225 -225 -225 -225 -225 -225 -225 -225 -225 -225 -225 -225 -225 -225 -225 -225 -225 0 0 -177 13 13 13 13 13 14 14 14 12 14 14 13 14 13 12 14 14 14 11 12 -225 -225 -225 0 0 0 9 11 14 12 13 14 15 15 15 17 -209 -177 49 54 57 57 57 57 57 58 59 62 61 61 69 71 73 74 75 74 75 77 76 76 76 78 78 77 82 80 79 86 88 90 92 93 94 96 98 100 101 102 103 104 105 105 106 106 106 105 107 107 108 108 109 109 114 118 127 125 126 133 129 767 132 135 135 134 137 137 140 141 145 144 141 143 144 144 144 140 146 144 149 152 157 160 160 161 166 168 167 168 169 170 171 -177 -177 -193 174 176 178 177 176 175 179 177 179 178 181 182 -193 -177 -177 -177 -177 -177 -177 -177 -177 -177 -209 -193 -193 75 78 78 79 77 78 0 0 0 0 0
    0 0 0 0 0 0 0 0 0 0 0 0 0 0 0 0 0 0 0 0 0 0 0 0 0 0 0 0 0 0 0 0 0 0 0 0 0 0 0 0 0 0 0 0 0 0 0 0 0 0 0 0 0 0 0 0 0 0 0 0 0 0 0 0 0 0 0 0 0 83 84 81 80 78 77 75 74 73 70 69 67 71 -193 -193 -209 -209 -193 -193 -193 -193 -209 -209 -209 -209 -209 -209 -209 -193 -193 -193 0 0 0 0 0 0 -193 0 0 0 -225 -225 -225 -225 -225 -225 -225 -225 -225 -225 -225 -225 -225 -225 -225 -225 -225 -225 -225 -225 -225 -225 -225 -225 -225 -225 -225 -225 -225 -225 -225 -225 -225 -225 -225 -225 -225 0 0 16 13 13 13 12 13 14 14 15 12 14 13 13 14 14 12 14 13 15 12 13 19 -225 -225 0 0 0 9 10 15 12 14 15 15 15 14 15 -193 -177 50 54 56 -193 57 56 56 57 59 61 61 62 69 73 74 75 77 76 76 79 77 77 77 79 79 78 82 82 80 88 90 91 92 94 95 96 99 100 101 102 103 103 104 104 105 105 105 105 105 105 106 106 107 107 112 118 127 125 126 132 128 -193 132 -193 -193 134 137 137 140 141 145 144 141 143 143 144 144 140 145 144 148 152 158 161 161 162 165 169 167 168 168 169 171 -177 -177 -193 -193 175 178 176 176 175 179 176 178 178 180 181 -193 -177 -177 -177 -177 -177 -177 -177 -177 -209 -193 -209 -209 -193 79 81 82 80 80 0 0 0 0 0
    0 0 0 0 0 0 0 0 0 0 0 0 0 0 0 0 0 0 0 0 0 0 0 0 0 0 0 0 0 0 0 0 0 0 0 0 0 0 0 0 0 0 0 0 0 0 0 0 0 0 0 0 0 0 0 0 0 0 0 0 0 0 0 0 0 0 0 0 0 82 83 80 79 78 77 76 75 73 72 69 69 72 -193 -193 -209 -209 -193 -193 -193 -209 -209 -209 -209 -209 -209 -209 -209 -193 -209 -209 0 0 0 0 -193 -209 -209 -225 -225 -225 -225 -225 -225 -225 -225 -225 -225 -225 -225 -225 -225 -225 -225 -225 -225 -225 -225 -225 -225 -225 -225 -225 -225 -225 -225 -225 -225 -225 -225 -225 -225 -225 -225 -225 -225 -225 -225 0 0 16 12 12 12 12 13 14 14 14 12 13 14 13 14 14 12 14 13 15 13 14 19 -225 -225 0 0 0 9 9 15 12 14 15 15 15 14 14 -193 -177 -193 55 -193 -193 57 56 -193 -193 60 62 60 62 69 74 74 75 79 77 77 80 78 78 77 80 80 78 83 83 81 88 89 90 92 93 95 96 97 99 100 101 102 102 103 103 103 104 104 103 104 104 105 106 107 107 110 118 126 124 124 131 127 128 131 -193 -193 133 137 137 140 141 145 144 140 143 143 143 143 140 145 144 149 153 158 162 160 161 165 168 166 167 167 168 171 -177 -177 -193 174 175 179 177 177 175 179 177 177 177 180 179 -193 -177 -177 -177 -177 -177 -193 -177 -209 -209 -209 -209 -209 -193 -193 83 84 83 82 0 0 0 0 0
    0 0 0 0 0 0 0 0 0 0 0 0 0 0 0 0 0 0 0 0 0 0 0 0 0 0 0 0 0 0 0 0 0 0 0 0 0 0 0 0 0 0 0 0 0 0 0 0 0 0 0 0 0 0 0 0 0 0 0 0 0 0 0 0 0 0 0 0 0 82 83 80 79 78 78 77 75 73 73 70 70 72 58 -193 63 -209 -209 -209 -209 -209 -209 -209 -209 -209 -209 -209 -209 -193 -209 -209 0 0 0 0 -209 -225 -225 -225 -225 -225 -225 -225 -225 -225 -225 -225 -225 -225 -225 -225 -225 -225 -225 -225 -225 -225 -225 -225 -225 -225 -225 -225 -225 -225 -225 -225 -225 -225 -225 -225 -225 -225 -225 -225 -225 -225 0 0 0 16 12 11 12 12 13 14 15 15 12 14 15 13 14 13 12 14 13 15 14 13 19 -225 -225 0 0 0 0 0 16 12 15 15 15 15 13 13 -209 -193 -193 -193 -193 -193 -193 57 -193 -193 60 62 60 62 68 75 74 75 79 77 77 81 79 79 77 80 81 78 83 84 81 88 90 90 91 93 95 96 96 97 99 100 101 101 102 102 103 103 103 103 104 104 106 107 108 108 110 118 124 123 123 130 127 128 131 -193 -193 134 137 138 141 141 144 144 140 142 142 143 143 139 144 145 148 153 157 161 160 161 164 168 166 166 167 168 171 -177 -177 -193 174 176 179 177 177 175 179 178 177 178 180 179 -193 -177 -177 -193 -177 -193 -193 -177 -209 -209 195 -209 -209 204 -193 83 85 84 83 0 0 0 0 0
    0 0 0 0 0 0 0 0 0 0 0 0 0 0 0 0 0 0 0 0 0 0 0 0 0 0 0 0 0 0 0 0 0 0 0 0 0 0 0 0 0 0 0 0 0 0 0 0 0 0 0 0 0 0 0 0 0 0 0 0 0 0 0 0 0 0 0 0 0 81 83 81 80 78 78 77 75 73 73 70 70 71 64 57 61 -209 -209 -209 -209 -209 -209 -209 -209 -209 -209 -209 -209 0 0 0 0 0 -225 -225 -225 -225 -225 -225 -225 -225 -225 -225 -225 -225 -225 -225 -225 -225 -225 -225 -225 -225 -225 -225 -225 -225 -225 -225 -225 -225 -225 -225 -225 -225 -225 -225 -225 -225 -225 -225 -225 -225 -225 -225 -225 -225 0 0 0 14 11 11 12 11 13 14 14 14 13 15 16 14 15 13 13 15 14 14 14 13 19 -225 -225 -225 0 0 0 0 -177 13 16 16 15 15 13 -193 -209 -209 -209 55 -193 -193 57 56 -193 -193 60 62 60 62 68 74 73 74 79 77 77 81 79 79 77 81 81 78 83 84 83 89 90 91 91 93 95 95 96 97 99 99 100 100 100 101 102 102 101 100 102 102 105 -209 -193 106 -193 118 123 123 123 129 127 128 132 -193 -193 135 138 -193 141 141 144 143 140 142 142 142 142 139 143 144 146 152 156 162 160 161 164 168 165 166 166 167 170 -177 -177 -193 174 175 179 177 177 175 179 178 177 177 179 179 -193 -177 -177 -193 -193 -193 -193 -177 -209 194 194 -193 199 203 -193 -193 -193 84 84 0 0 0 0 0
    0 0 0 0 0 0 0 0 0 0 0 0 0 0 0 0 0 0 0 0 0 0 0 0 0 0 0 0 0 0 0 0 0 0 0 0 0 0 0 0 0 0 0 0 0 0 0 0 0 0 0 0 0 0 0 0 0 0 0 0 0 0 0 0 0 0 0 0 0 82 82 81 80 78 78 77 75 73 72 71 70 71 68 65 65 70 -209 44 -209 -209 -209 -209 -209 -209 -209 -209 0 0 0 -225 -225 -225 -225 -225 -225 -225 -225 -225 -225 -225 -225 -225 -225 -225 -225 -225 -225 -225 -225 -225 -225 -225 -225 -225 -225 -225 -225 -225 -225 -225 -225 -225 -225 -225 -225 -225 -225 -225 -225 -225 -225 -225 -225 -225 -225 -225 0 0 10 15 11 12 13 12 14 14 15 15 13 15 15 14 14 13 13 15 14 14 14 13 19 -225 -225 -225 0 0 0 0 -177 14 17 18 15 16 13 -209 -177 -209 -209 54 56 56 57 56 57 58 60 63 60 63 69 74 72 73 78 76 76 80 78 78 77 81 82 79 84 85 84 89 91 91 92 94 94 95 96 97 98 99 99 100 100 101 101 102 100 99 101 102 104 -209 -209 -209 -193 118 123 122 123 129 127 129 132 -209 -193 136 138 139 142 141 143 143 139 141 141 141 141 139 142 143 146 152 156 163 161 162 164 167 165 165 165 167 170 -177 -177 -193 173 175 178 177 177 175 178 178 176 177 179 179 -193 -177 -177 -193 -193 -193 -193 -193 199 195 195 199 199 202 -193 -193 -193 84 84 0 0 0 0 0
    0 0 0 0 0 0 0 0 0 0 0 0 0 0 0 0 0 0 0 0 0 0 0 0 0 0 0 0 0 0 0 0 0 0 0 0 0 0 0 0 0 0 0 0 0 0 0 0 0 0 0 0 0 0 0 0 0 0 0 0 0 0 0 0 0 0 0 0 0 82 82 81 80 78 77 76 74 73 72 71 70 70 68 65 63 61 48 46 49 -209 47 -209 -209 -209 -209 0 0 0 -225 -225 -225 -225 -225 -225 -225 -225 -225 -225 -225 -225 -225 -225 -225 -225 -225 -225 -225 -225 -225 -225 -225 -225 -225 -225 -225 -225 -225 -225 -225 -225 -225 -225 -225 -225 -225 -225 -225 -225 -225 -225 -225 -225 -225 -225 -225 -225 0 0 12 16 12 12 13 13 14 15 15 14 13 15 15 14 14 14 13 15 13 14 14 13 19 -225 -225 -225 -225 9 9 9 19 15 18 19 16 18 14 -193 -209 -209 52 54 55 55 57 56 57 58 60 63 61 64 69 72 71 72 76 75 75 79 77 77 77 80 81 79 84 85 84 89 90 91 92 94 94 95 96 97 98 98 98 99 99 100 101 101 100 101 103 103 105 -209 -209 -209 -209 118 122 -209 122 128 128 130 133 -209 -193 137 139 140 142 140 142 142 139 140 140 140 140 138 141 143 145 152 156 162 161 162 163 167 164 165 165 166 -193 -177 -177 -193 173 175 178 177 177 175 179 179 176 178 179 180 -177 -177 -177 -193 -177 -177 -193 -193 197 195 195 198 199 201 -193 -193 -193 85 84 0 0 0 0 0
    0 0 0 0 0 0 0 0 0 0 0 0 0 0 0 0 0 0 0 0 0 0 0 0 0 0 0 0 0 0 0 0 0 0 0 0 0 0 0 0 0 0 0 0 0 0 0 0 0 0 0 0 0 0 0 0 0 0 0 0 0 0 0 0 0 0 0 0 0 82 82 80 80 78 76 76 74 74 73 71 70 69 68 65 62 60 54 51 53 52 51 -193 -209 -209 -209 0 -225 -225 -225 -225 -225 -225 -225 -225 -225 -225 -225 -225 -225 -225 -225 -225 -225 -225 -225 -225 -225 -225 -225 -225 -225 -225 -225 -225 -225 -225 -225 -225 -225 -225 -225 -225 -225 -225 -225 -225 -225 -225 -225 -225 -225 -225 -225 -225 -225 -225 9 9 14 16 13 14 15 13 15 15 15 15 14 15 15 13 14 14 13 14 13 14 14 14 20 -225 -225 -225 -225 9 9 9 18 15 18 19 16 19 18 -193 -193 -209 51 53 54 54 56 55 57 58 59 63 61 65 68 72 70 71 75 74 73 77 76 76 76 79 81 79 84 85 84 89 90 91 92 93 94 95 95 96 97 96 97 99 99 100 100 102 101 103 104 104 106 -209 -209 -209 -209 -193 -209 -209 122 128 128 129 133 -209 -193 137 139 140 142 140 142 142 138 139 139 140 140 138 141 143 144 152 155 162 161 162 163 167 164 165 165 166 170 -193 -193 -193 173 175 178 177 177 175 179 180 177 179 180 181 -177 -177 -177 -177 -177 -177 -193 -193 196 195 194 197 199 200 203 -193 -193 -193 -193 0 0 0 0 0
    0 0 0 0 0 0 0 0 0 0 0 0 0 0 0 0 0 0 0 0 0 0 0 0 0 0 0 0 0 0 0 0 0 0 0 0 0 0 0 0 0 0 0 0 0 0 0 0 0 0 0 0 0 0 0 0 0 0 0 0 0 0 0 0 0 0 0 0 0 82 82 80 79 78 76 76 75 74 73 72 71 69 67 66 62 60 57 56 56 55 54 50 -209 -209 -209 -225 -225 -225 -225 -225 -225 -225 -225 -225 -225 -225 -225 -225 -225 -225 -225 -225 -225 -225 -225 -225 -225 -225 -225 -225 -225 -225 -225 -225 -225 -225 -225 -225 -225 -225 -225 -225 -225 -225 -225 -225 -225 -225 -225 -225 -225 -225 -225 -225 -225 -225 0 0 15 15 13 14 14 13 15 15 15 14 14 15 14 13 14 14 14 14 13 14 14 15 21 -225 -225 -225 -225 11 11 11 19 16 19 20 18 21 20 -193 -193 -193 51 53 53 54 56 54 57 57 58 63 62 66 68 71 69 70 73 72 72 76 75 75 75 78 80 79 84 85 84 89 90 90 91 92 93 94 94 95 96 96 98 99 99 100 101 103 103 104 105 -193 -193 -193 -209 -209 -193 -193 -209 -177 122 127 129 130 133 -209 -193 -193 139 140 141 139 141 142 138 139 139 139 139 138 140 143 143 153 156 162 162 162 163 167 165 165 166 167 170 169 -193 173 173 175 177 177 177 175 179 180 177 180 180 -193 -177 -177 -177 -177 -177 -177 -193 -193 195 193 194 196 198 200 202 204 206 -193 -193 0 0 0 0 0
    0 0 0 0 0 0 0 0 0 0 0 0 0 0 0 0 0 0 0 0 0 0 0 0 0 0 0 0 0 0 0 0 0 0 0 0 0 0 0 0 0 0 0 0 0 0 0 0 0 0 0 0 0 0 0 0 0 0 0 0 0 0 0 0 0 0 0 0 0 81 81 79 78 77 76 76 74 74 73 72 71 69 68 67 64 62 59 58 57 55 53 49 48 47 -193 -225 -225 -225 -225 -225 -225 -225 -225 -225 -225 -225 -225 -225 -225 -225 -225 -225 -225 -225 -225 -225 -225 -225 -225 -225 -225 -225 -225 -225 -225 -225 -225 -225 -225 -225 -225 -225 -225 -225 -225 -225 -225 -225 -225 -225 -225 -225 -225 -225 -225 10 0 0 14 12 12 13 13 13 14 14 15 14 14 15 14 14 15 14 15 14 13 16 19 17 -225 -225 -225 -225 -225 13 13 13 20 18 20 20 19 22 -209 44 -193 50 50 52 53 53 55 54 57 57 58 62 63 66 67 71 68 70 72 71 71 74 74 74 74 77 79 78 83 85 85 88 89 90 91 92 93 93 93 93 95 96 97 99 99 101 102 104 104 105 105 -193 -193 -177 -209 -209 -193 -193 -209 -177 -193 127 130 130 133 -193 -209 -193 139 140 141 138 140 141 138 138 138 138 139 137 140 143 143 153 156 162 162 162 163 166 166 166 166 167 170 169 169 173 173 175 177 177 177 176 179 181 178 181 181 -193 -177 -177 -177 -177 -177 -177 -193 -193 193 192 192 195 197 199 202 204 206 206 -193 0 0 0 0 0
    0 0 0 0 0 0 0 0 0 0 0 0 0 0 0 0 0 0 0 0 0 0 0 0 0 0 0 0 0 0 0 0 0 0 0 0 0 0 0 0 0 0 0 0 0 0 0 0 0 0 0 0 0 0 0 0 0 0 0 0 0 0 0 0 0 0 0 0 0 80 80 78 77 77 75 75 74 73 73 71 70 69 67 66 63 63 60 58 57 54 52 48 48 48 46 -225 -225 -225 -225 -225 -225 -225 -225 -225 -225 -225 -225 -225 -225 -225 -225 -225 -225 -225 -225 -225 -225 -225 -225 -225 -225 -225 -225 -225 -225 -225 -225 -225 -225 -225 -225 -225 -225 -225 -225 -225 -225 -225 -225 -225 -225 -225 -225 -225 -225 10 0 0 12 11 11 12 12 12 13 14 15 13 14 14 14 13 15 13 16 13 14 15 -225 -225 -225 -225 -225 -225 -225 15 14 14 19 19 20 20 20 23 -209 44 48 50 49 51 52 53 55 53 57 57 57 62 64 66 66 70 68 69 71 71 71 73 73 73 74 77 79 78 83 85 85 88 89 90 91 92 92 93 92 93 94 96 97 99 99 101 102 105 104 105 106 106 106 -193 -209 -209 -177 -193 -193 -177 -193 127 132 130 133 -193 -209 137 139 140 141 138 140 141 137 138 138 138 138 137 140 144 142 152 155 162 162 163 163 166 167 167 167 168 170 170 170 174 173 175 177 177 178 177 180 182 -193 -193 -193 -177 -177 -177 -177 -177 -177 -177 -193 -193 192 191 191 194 197 198 201 204 206 206 206 0 0 0 0 0
    0 0 0 0 0 0 0 0 0 0 0 0 0 0 0 0 0 0 0 0 0 0 0 0 0 0 0 0 0 0 0 0 0 0 0 0 0 0 0 0 0 0 0 0 0 0 0 0 0 0 0 0 0 0 0 0 0 0 0 0 0 0 0 0 0 0 0 0 0 79 79 78 77 76 75 75 74 72 72 71 70 69 67 66 64 63 62 60 58 55 52 50 49 48 47 47 -225 -225 -225 -225 -225 -225 -225 -225 -225 -225 -225 -225 -225 -225 -225 -225 -225 -225 -225 -225 -225 -225 -225 -225 -225 -225 -225 -225 -225 -225 -225 -225 -225 -225 -225 -225 -225 -225 -225 -225 -225 -225 -225 -225 -225 -225 -225 149 15 10 10 10 13 11 12 13 13 12 13 13 14 13 14 14 14 14 15 13 15 12 -225 -225 -225 -225 -225 -225 -225 -225 -225 17 15 15 19 19 20 21 21 24 43 44 48 50 48 50 51 52 54 52 55 56 57 62 65 66 66 71 69 69 72 71 72 73 74 73 74 76 79 78 82 86 85 88 89 90 91 92 92 93 92 93 94 95 97 99 100 102 103 106 106 106 106 105 -193 -209 -209 -209 -177 -193 -177 -177 -209 126 133 130 133 -177 -209 137 138 140 141 137 139 141 138 138 138 138 139 137 140 143 141 151 154 161 162 163 163 166 167 167 167 168 170 170 170 174 172 175 176 177 178 177 180 182 -193 -193 -193 -177 -177 -177 -177 -177 -177 -177 -193 -193 192 191 191 193 197 198 201 204 206 206 206 0 0 0 0 0
    0 0 0 0 0 0 0 0 0 0 0 0 0 0 0 0 0 0 0 0 0 0 0 0 0 0 0 0 0 0 0 0 0 0 0 0 0 0 0 0 0 0 0 0 0 0 0 0 0 0 0 0 0 0 0 0 0 0 0 0 0 0 0 0 0 0 0 0 0 79 77 77 76 75 74 74 74 73 72 71 70 69 68 67 65 63 62 60 58 55 53 51 49 49 49 49 47 -225 -225 -225 -225 -225 -225 -225 -225 -225 -225 -225 -225 -225 -225 -225 -225 -225 -225 -225 -225 -225 -225 -225 -225 -225 -225 -225 -225 -225 -225 -225 -225 -225 -225 -225 -225 -225 -225 -225 -225 -225 -225 -225 -209 -209 -193 -193 14 11 12 11 13 12 13 13 13 12 13 13 14 12 14 14 13 14 14 14 15 12 -225 -225 -225 -225 -225 -225 -225 -225 -225 19 16 16 18 20 20 21 21 24 44 44 48 52 49 50 51 52 54 52 55 55 55 61 67 67 67 71 70 71 72 72 72 74 74 74 75 76 79 79 82 85 85 88 89 90 91 92 91 92 92 93 94 95 97 99 100 102 102 106 106 106 106 105 -193 -193 -209 -209 -209 -177 -193 -177 -193 126 132 129 133 -193 136 136 138 139 140 137 139 141 138 139 139 139 139 138 140 144 141 150 154 161 163 163 163 166 168 167 167 168 170 -193 170 174 172 174 175 177 178 177 179 182 -177 -193 -193 -177 -177 -177 -177 -177 -193 -177 -193 -193 191 -193 190 192 197 198 201 204 206 206 206 0 0 0 0 0
    0 0 0 0 0 0 0 0 0 0 0 0 0 0 0 0 0 0 0 0 0 0 0 0 0 0 0 0 0 0 0 0 0 0 0 0 0 0 0 0 0 0 0 0 0 0 0 0 0 0 0 0 0 0 0 0 0 0 0 0 0 0 0 0 0 0 0 0 0 78 76 76 75 75 74 74 74 73 72 71 70 69 68 67 65 63 62 60 59 57 55 54 51 51 51 50 50 49 -225 -225 -225 -225 -225 -225 -225 -225 -225 -225 -225 -225 -225 -225 -225 -225 -225 -225 -225 -225 -225 -225 -225 -225 -225 -225 -225 -225 -225 -225 -225 -225 -225 -225 -225 -225 -225 22 25 24 20 20 20 16 13 15 14 12 12 11 14 12 13 13 13 13 13 13 14 12 14 13 13 14 13 15 14 12 -225 -225 -225 -225 -225 -225 -225 -225 -225 -225 16 16 18 19 20 20 22 23 -177 45 49 54 50 51 52 53 54 53 55 55 54 61 68 68 67 71 71 71 73 73 73 75 75 75 75 76 79 80 81 85 84 87 89 89 91 91 91 92 92 93 94 95 98 99 100 102 103 107 107 107 106 105 -209 -193 -209 -193 -209 -177 -177 -177 -177 125 131 128 132 -193 135 135 137 138 139 138 139 141 138 140 139 139 140 139 140 144 142 149 153 160 163 162 162 166 168 167 167 167 -193 -177 -193 173 172 174 174 177 178 177 179 182 181 182 182 -193 -177 -177 -177 -177 -209 -193 -193 -209 191 -193 190 192 197 198 201 204 207 206 207 0 0 0 0 0
    0 0 0 0 0 0 0 0 0 0 0 0 0 0 0 0 0 0 0 0 0 0 0 0 0 0 0 0 0 0 0 0 0 0 0 0 0 0 0 0 0 0 0 0 0 0 0 0 0 0 0 0 0 0 0 0 0 0 0 0 0 0 0 0 0 0 0 0 0 77 76 76 74 74 73 74 74 73 73 71 70 69 68 68 66 64 63 62 60 59 58 56 54 53 52 51 51 51 51 -225 -225 -225 -225 -225 -225 -225 -225 -225 -225 -225 -225 -225 -225 -225 -225 -225 -225 -225 -225 -225 -225 -225 -225 -225 -225 -225 -225 -225 -225 -225 -225 -225 -225 -225 19 21 23 23 17 15 15 11 10 11 11 10 10 11 13 11 12 12 12 12 12 13 14 12 14 13 14 14 14 16 15 15 18 -225 -225 -225 -225 -225 -225 -225 -225 -225 15 16 18 19 19 19 21 21 -193 46 51 55 51 52 52 53 54 53 54 54 53 60 68 67 65 71 72 72 73 74 74 75 75 75 76 76 79 79 80 84 84 87 88 89 91 91 91 93 92 94 95 96 98 99 100 102 104 108 108 107 107 106 -193 -193 -177 -209 -209 -193 -177 -177 -177 125 129 128 131 133 134 133 136 137 138 137 139 141 139 140 139 140 140 139 139 144 142 148 153 160 163 161 161 165 168 166 167 167 641 641 -177 173 172 173 174 177 178 178 179 182 181 181 182 183 -193 -193 -177 -177 -209 -209 -193 -209 -193 -193 189 191 197 198 201 204 208 207 208 0 0 0 0 0
    0 0 0 0 0 0 0 0 0 0 0 0 0 0 0 0 0 0 0 0 0 0 0 0 0 0 0 0 0 0 0 0 0 0 0 0 0 0 0 0 0 0 0 0 0 0 0 0 0 0 0 0 0 0 0 0 0 0 0 0 0 0 0 0 0 0 0 0 0 76 75 75 73 73 73 73 74 73 72 71 70 69 68 68 66 64 64 63 61 60 59 56 55 54 53 52 52 52 53 -225 -225 -225 -225 -225 -225 -225 -225 -225 -225 -225 -225 -225 -225 -225 -225 -225 -225 -225 -225 -225 -225 -225 -225 -225 -225 -225 -225 -225 -225 -225 -225 -225 -225 -225 20 20 22 22 19 15 15 13 11 12 12 11 11 11 12 11 12 12 12 12 12 13 14 12 14 13 14 14 13 16 14 15 17 17 21 20 20 20 14 -225 -225 -225 15 16 18 18 19 18 21 19 19 -193 -177 56 52 53 53 54 55 54 54 54 52 60 68 66 64 71 74 73 74 76 75 76 76 76 77 76 79 79 79 84 83 86 87 88 90 91 91 93 93 94 95 97 98 99 100 103 103 108 108 106 105 104 -177 -177 -177 -193 -209 -193 -177 -177 -177 125 129 128 130 133 133 133 135 136 137 137 138 140 139 140 139 140 140 139 139 144 142 146 153 160 163 160 161 165 168 166 166 166 640 642 -177 172 172 173 174 177 177 177 178 182 181 181 180 182 182 -209 -193 -193 -209 -209 -177 -209 -209 -209 187 189 195 197 201 204 208 207 208 0 0 0 0 0
    0 0 0 0 0 0 0 0 0 0 0 0 0 0 0 0 0 0 0 0 0 0 0 0 0 0 0 0 0 0 0 0 0 0 0 0 0 0 0 0 0 0 0 0 0 0 0 0 0 0 0 0 0 0 0 0 0 0 0 0 0 0 0 0 0 0 0 0 0 74 73 74 73 72 72 73 73 72 72 71 70 68 68 68 67 65 65 64 62 60 59 57 55 54 53 53 52 52 53 53 -225 -225 -225 -225 -225 -225 -225 -225 -225 -225 -225 -225 -225 -225 -225 -225 -225 -225 -225 -225 -225 -225 -225 -225 -225 -225 -225 -225 -225 -225 -225 -225 -225 -225 20 20 21 21 18 16 15 13 12 13 12 11 11 11 12 11 12 12 11 12 12 13 13 12 14 13 14 15 14 17 15 16 17 18 21 20 20 20 17 20 22 -225 15 17 18 18 19 18 20 18 16 -193 -177 57 54 54 54 55 56 55 55 55 53 59 67 65 62 70 75 74 74 78 76 78 78 77 78 77 79 80 78 83 82 86 87 89 90 92 92 94 94 95 96 97 98 99 100 103 -193 108 -193 104 104 102 -193 -193 -177 -193 -193 -209 -177 -177 -177 125 129 129 131 133 133 133 135 136 137 138 138 140 139 140 140 140 140 140 139 144 144 145 153 159 162 159 160 163 167 165 165 165 639 642 -177 171 171 173 174 177 177 177 177 181 180 180 179 181 181 181 -209 -209 -193 -209 -193 -209 -209 -209 -193 188 194 196 201 204 208 207 208 0 0 0 0 0
    0 0 0 0 0 0 0 0 0 0 0 0 0 0 0 0 0 0 0 0 0 0 0 0 0 0 0 0 0 0 0 0 0 0 0 0 0 0 0 0 0 0 0 0 0 0 0 0 0 0 0 0 0 0 0 0 0 0 0 0 0 0 0 0 0 0 0 0 0 73 72 73 72 72 72 72 72 71 71 71 70 69 69 68 68 66 65 65 62 60 60 58 57 55 54 53 52 52 52 53 52 -225 -225 -225 -225 -225 -225 -225 -225 -225 -225 -225 -225 -225 -225 -225 -225 -225 -225 -225 -225 -225 -225 -225 -225 -225 -225 -225 -225 -225 -225 -225 -225 -225 20 20 21 21 18 18 15 14 13 14 12 12 12 12 13 11 12 12 11 13 12 13 13 12 15 14 16 15 14 16 14 16 16 16 19 18 19 19 17 20 21 -225 15 16 17 17 19 17 20 15 13 -193 -177 59 56 56 56 57 57 57 55 55 54 58 65 63 61 69 76 74 74 79 77 79 78 78 79 77 80 80 78 83 81 85 88 90 91 94 94 95 95 97 97 98 98 99 99 102 -193 -193 -193 102 103 101 -193 -193 -177 95 -193 -209 -193 -177 -177 126 128 129 130 132 133 133 135 136 137 138 -193 140 140 140 140 141 141 140 139 144 145 145 152 158 162 159 159 163 167 164 164 164 -193 -177 -177 -193 171 173 174 177 177 177 176 180 180 179 178 180 179 180 179 178 176 -193 -209 -209 -193 -209 -193 187 193 195 201 204 208 207 207 0 0 0 0 0
    0 0 0 0 0 0 0 0 0 0 0 0 0 0 0 0 0 0 0 0 0 0 0 0 0 0 0 0 0 0 0 0 0 0 0 0 0 0 0 0 0 0 0 0 0 0 0 0 0 0 0 0 0 0 0 0 0 0 0 0 0 0 0 0 0 0 0 0 0 72 72 72 71 71 71 71 71 70 70 70 69 69 69 68 67 66 66 64 62 61 60 58 57 56 54 53 52 52 52 52 52 51 -225 -225 -225 -225 -225 -225 -225 -225 -225 -225 -225 -225 -225 -225 -225 -225 -225 -225 -225 -225 -225 -225 -225 -225 -225 -225 -225 -225 -225 -225 -225 -225 20 20 22 20 17 17 16 13 13 14 12 12 13 13 14 13 13 13 13 14 13 14 14 12 15 14 15 14 14 16 14 16 15 15 16 16 18 18 13 15 17 -225 14 16 16 16 17 16 19 14 12 0 -177 60 60 58 58 59 58 58 56 56 56 58 63 62 61 69 76 73 74 80 77 80 79 79 80 78 81 81 79 83 80 85 88 91 92 95 95 96 96 97 97 96 96 96 97 -193 -193 -193 -193 101 102 100 -193 -193 -193 95 -193 -209 -193 -177 -177 126 127 129 130 131 133 132 134 136 136 138 -193 140 140 140 140 142 142 141 139 144 146 146 153 158 163 159 159 162 166 163 163 164 165 -177 -177 -193 171 173 174 178 177 177 176 180 179 179 177 180 178 178 177 177 175 -193 -209 -209 -177 -209 -209 187 195 -193 201 204 208 207 206 0 0 0 0 0
    0 0 0 0 0 0 0 0 0 0 0 0 0 0 0 0 0 0 0 0 0 0 0 0 0 0 0 0 0 0 0 0 0 0 0 0 0 0 0 0 0 0 0 0 0 0 0 0 0 0 0 0 0 0 0 0 0 0 0 0 0 0 0 0 0 0 0 0 0 71 71 71 70 70 70 70 70 70 69 69 69 68 69 68 68 66 66 65 62 62 61 59 58 57 56 55 53 53 52 52 51 51 49 -225 -225 -225 -225 -225 -225 -225 -225 -225 -225 -225 -225 -225 -225 -225 -225 -225 -225 -225 -225 -225 -225 -225 -225 -225 -225 -225 -225 -225 -225 -225 20 20 22 20 16 17 16 14 13 14 13 13 13 14 15 13 14 14 15 16 14 15 15 13 16 15 16 14 14 17 14 17 15 14 16 16 18 18 15 18 17 22 15 16 16 16 17 16 19 14 11 0 -177 60 63 59 59 59 59 59 56 56 56 57 62 62 61 68 75 73 74 80 77 80 79 79 80 78 81 81 79 83 78 85 -193 91 92 95 95 96 96 97 97 95 94 94 94 -193 -193 -177 -193 100 101 100 -193 -193 -193 96 -193 -193 -193 -177 -177 125 126 129 129 130 132 132 134 136 136 139 -177 139 141 140 140 142 142 142 139 144 148 146 153 157 163 160 160 161 166 163 163 163 165 -177 -193 -193 -193 173 174 178 177 177 176 179 179 178 177 179 176 177 176 176 174 176 -209 -209 -177 -193 -209 -193 -193 -193 201 204 207 207 -193 0 0 0 0 0
    0 0 0 0 0 0 0 0 0 0 0 0 0 0 0 0 0 0 0 0 0 0 0 0 0 0 0 0 0 0 0 0 0 0 0 0 0 0 0 0 0 0 0 0 0 0 0 0 0 0 0 0 0 0 0 0 0 0 0 0 0 0 0 0 0 0 0 0 0 70 69 70 69 68 69 69 69 70 69 69 69 68 69 69 68 67 65 65 63 62 61 59 58 57 56 55 53 53 52 51 51 50 49 48 -225 -225 -225 -225 -225 -225 -225 -225 -225 -225 -225 -225 -225 -225 -225 -225 -225 -225 -225 -225 -225 -225 -225 -225 -225 -225 -225 -225 -225 -225 16 19 20 19 15 15 15 15 14 15 13 13 13 14 16 14 13 14 14 15 14 15 14 12 15 15 15 14 14 17 14 17 15 15 17 16 18 18 17 18 17 21 17 15 16 16 18 16 17 13 11 0 -209 60 64 59 59 59 59 59 56 56 56 57 61 61 61 68 74 72 73 79 77 80 79 79 80 78 81 81 79 82 78 86 -193 90 92 95 95 95 95 96 96 94 93 92 93 97 -193 -193 -209 99 101 101 -193 -193 -193 96 96 101 -193 -193 -193 124 125 129 128 129 132 -193 133 136 136 139 -177 139 141 140 140 141 141 142 138 143 148 145 153 157 162 160 160 161 166 163 163 164 165 -177 -193 -193 -193 -193 174 178 177 177 176 179 179 178 177 178 175 176 175 176 174 176 -193 -209 -177 -193 -209 -193 -193 -193 201 205 207 207 -193 0 0 0 0 0
    0 0 0 0 0 0 0 0 0 0 0 0 0 0 0 0 0 0 0 0 0 0 0 0 0 0 0 0 0 0 0 0 0 0 0 0 0 0 0 0 0 0 0 0 0 0 0 0 0 0 0 0 0 0 0 0 0 0 0 0 0 0 0 0 0 0 0 0 0 68 67 68 68 67 67 68 68 69 69 69 68 68 69 68 68 67 66 65 64 62 61 59 58 57 56 54 53 52 51 50 50 50 49 48 48 -225 -225 -225 -225 -225 -225 -225 -225 -225 -225 -225 -225 -225 -225 -225 -225 -225 -225 -225 -225 -225 -225 -225 -225 -225 -225 -225 -225 -225 -225 16 17 17 13 13 13 14 14 15 14 13 13 13 16 13 12 13 12 13 12 14 13 11 13 14 14 13 13 16 14 18 17 17 17 17 18 18 19 19 16 20 17 17 17 17 18 16 18 13 11 0 -209 59 63 59 59 59 59 59 56 56 57 56 60 61 61 67 72 71 72 77 75 79 78 78 79 77 80 81 79 82 79 87 88 91 92 94 94 94 95 95 95 93 91 91 91 95 -193 -209 -209 98 101 101 -193 -193 -193 97 97 101 -193 -193 -193 124 125 129 128 129 132 -193 133 136 136 138 -177 -193 141 140 139 141 141 142 139 142 148 145 153 156 162 159 159 160 165 163 163 164 165 -193 -193 -177 -193 -193 174 178 177 177 176 179 179 179 177 178 175 175 175 175 174 176 -193 -193 -177 552 -209 -193 197 -193 201 205 207 208 -193 0 0 0 0 0
    0 0 0 0 0 0 0 0 0 0 0 0 0 0 0 0 0 0 0 0 0 0 0 0 0 0 0 0 0 0 0 0 0 0 0 0 0 0 0 0 0 0 0 0 0 0 0 0 0 0 0 0 0 0 0 0 0 0 0 0 0 0 0 0 0 0 0 0 0 66 65 66 67 66 66 66 67 68 68 68 68 68 68 68 68 68 66 66 64 62 61 60 58 57 56 55 53 52 51 50 50 49 49 48 48 47 -225 -225 -225 -225 -225 -225 -225 -225 -225 -225 -225 -225 -225 -225 -225 -225 -225 -225 -225 -225 -225 -225 -225 -225 -225 -225 -225 -225 -225 -225 18 14 12 12 12 13 13 14 13 13 13 13 16 14 13 13 13 13 12 14 13 12 13 14 14 13 14 16 15 17 17 17 17 17 19 18 18 18 16 20 18 18 18 17 19 17 19 14 11 0 -209 58 63 59 59 59 59 59 56 57 57 55 60 62 62 67 71 69 71 75 74 77 76 77 78 76 79 80 79 82 80 88 89 92 92 95 94 94 94 94 94 -193 89 89 -193 -209 -209 -209 -209 98 101 102 -209 -193 -193 99 98 102 118 -193 -193 124 125 130 128 129 132 -193 133 136 136 138 -177 139 142 141 139 141 141 141 139 141 147 145 153 156 162 159 159 160 165 164 163 164 165 -193 -193 -193 -193 641 -193 178 178 177 177 180 180 179 178 178 175 175 175 175 174 176 -193 180 -177 552 -209 -193 197 -193 201 204 207 207 -193 0 0 0 0 0
    0 0 0 0 0 0 0 0 0 0 0 0 0 0 0 0 0 0 0 0 0 0 0 0 0 0 0 0 0 0 0 0 0 0 0 0 0 0 0 0 0 0 0 0 0 0 0 0 0 0 0 0 0 0 0 0 0 0 0 0 0 0 0 0 0 0 0 0 0 65 64 64 65 65 65 65 66 67 67 68 68 67 68 67 68 67 66 65 63 62 61 59 58 57 56 55 53 52 51 50 50 49 48 48 47 47 -225 -225 -225 -225 -225 -225 -225 -225 -225 -225 -225 -225 -225 -225 -225 -225 -225 -225 -225 -225 -225 -225 -225 -225 -225 -225 -225 -225 -225 -225 20 16 16 16 14 15 15 15 14 14 13 13 15 14 13 13 13 13 12 13 14 11 12 13 13 12 14 16 15 15 15 16 17 17 18 17 18 18 16 20 18 17 18 17 19 17 19 15 12 0 -209 -193 -193 58 -193 58 58 58 56 57 57 55 61 62 63 66 70 68 70 73 72 75 75 75 77 76 78 79 78 82 80 87 88 91 91 94 93 93 93 93 92 -193 88 87 -209 -209 -209 -193 -209 100 103 -193 -193 -209 -209 102 101 104 119 124 123 124 125 131 128 129 132 -193 133 136 136 138 -177 140 142 141 140 141 142 142 140 141 147 144 153 155 160 159 158 159 165 164 164 164 165 167 -193 -193 -177 -193 -193 179 178 178 177 180 180 180 179 178 176 175 175 175 174 176 172 179 -177 -177 552 187 196 195 200 204 206 206 -193 0 0 0 0 0
    0 0 0 0 0 0 0 0 0 0 0 0 0 0 0 0 0 0 0 0 0 0 0 0 0 0 0 0 0 0 0 0 0 0 0 0 0 0 0 0 0 0 0 0 0 0 0 0 0 0 0 0 0 0 0 0 0 0 0 0 0 0 0 0 0 0 0 0 0 65 63 63 64 65 65 65 65 66 66 66 67 67 66 66 66 66 65 64 63 61 60 59 58 57 56 54 53 52 51 50 50 49 48 47 47 46 46 -225 -225 -225 -225 -225 -225 -225 -225 -225 -225 -225 -225 -225 -225 -225 -225 -225 -225 -225 -225 -225 -225 -225 -225 -225 -225 -225 -225 -225 19 17 14 16 13 14 15 15 13 14 13 13 15 15 13 13 13 13 12 13 14 12 12 14 14 12 15 16 16 15 15 17 17 16 17 16 18 17 15 19 17 16 18 17 19 18 19 16 13 9 -209 -193 62 -193 -193 -193 57 57 56 56 57 56 61 63 65 66 69 67 69 72 71 74 74 75 76 76 77 79 78 82 80 87 88 90 91 92 91 91 91 91 90 -193 85 85 86 -209 -209 -193 -209 101 104 -193 -193 -193 -193 107 -193 106 118 123 122 124 124 131 128 129 132 -193 133 136 136 138 -177 140 143 142 140 142 142 143 141 141 148 145 153 155 160 159 158 159 164 165 164 165 165 -193 -193 -177 -177 -193 641 179 179 178 178 180 181 181 180 178 176 174 175 175 174 175 172 178 -177 551 551 -193 196 195 200 203 206 206 84 0 0 0 0 0
    0 0 0 0 0 0 0 0 0 0 0 0 0 0 0 0 0 0 0 0 0 0 0 0 0 0 0 0 0 0 0 0 0 0 0 0 0 0 0 0 0 0 0 0 0 0 0 0 0 0 0 0 0 0 0 0 0 0 0 0 0 0 0 0 0 0 0 0 0 65 64 63 63 64 64 64 64 65 65 64 65 65 64 64 64 64 63 63 62 61 60 60 59 58 57 55 54 52 51 50 50 49 48 47 46 47 46 46 -225 -225 -225 -225 -225 -225 -225 -225 -225 -225 -225 -225 -225 -225 -225 -225 -225 -225 -225 -225 -225 -225 -225 -225 -225 -225 10 12 17 16 15 14 12 13 14 15 13 14 13 13 14 14 13 13 13 13 12 13 14 12 12 14 14 12 14 15 15 16 17 17 17 15 17 17 18 17 15 19 17 17 18 17 19 18 20 17 14 12 22 -193 -177 -193 -193 -193 56 56 55 56 57 -193 61 65 67 67 69 69 70 72 71 75 75 74 76 76 77 79 78 82 81 87 88 90 90 91 90 90 90 90 89 -193 83 83 84 -193 -209 -193 -209 -209 106 -193 -193 -193 112 111 110 109 118 123 122 123 124 131 128 128 131 133 -177 136 136 137 -177 141 144 143 140 142 143 143 142 141 148 146 153 155 160 160 159 159 164 165 164 165 165 166 -193 -177 -177 641 640 179 180 179 179 180 181 181 180 178 177 174 175 175 174 175 172 178 -177 -177 551 -193 197 196 199 203 205 -193 83 0 0 0 0 0
    0 0 0 0 0 0 0 0 0 0 0 0 0 0 0 0 0 0 0 0 0 0 0 0 0 0 0 0 0 0 0 0 0 0 0 0 0 0 0 0 0 0 0 0 0 0 0 0 0 0 0 0 0 0 0 0 0 0 0 0 0 0 0 0 0 0 0 0 0 64 63 62 63 63 63 63 63 63 63 63 63 63 62 63 63 63 62 62 62 61 60 60 59 58 57 55 54 52 51 50 49 49 47 47 46 46 47 46 -225 -225 -225 -225 -225 -225 -225 -225 -225 -225 -225 -225 -225 -225 -225 -225 -225 -225 -225 -225 -225 -225 -225 -225 -225 10 9 11 13 14 17 12 11 12 13 13 13 13 12 12 14 14 13 13 13 12 11 12 14 12 12 13 13 12 14 15 17 16 18 18 17 17 18 17 18 16 15 19 18 17 18 17 19 19 20 18 15 14 21 -209 -177 -193 -193 54 55 55 55 55 56 -193 61 66 67 67 69 69 70 72 71 75 75 75 76 76 77 79 79 81 81 87 87 89 90 90 89 88 88 88 86 -193 81 82 84 -209 -209 -193 -193 -209 108 111 115 113 114 112 113 112 118 122 122 123 124 132 128 128 131 134 -177 136 136 137 -177 141 144 143 140 142 143 143 142 140 147 145 152 154 158 161 159 159 164 166 164 164 164 166 -193 -177 -177 642 640 178 180 179 179 180 181 181 181 178 177 173 174 174 174 175 173 178 -177 -177 550 -193 197 197 199 203 205 205 83 0 0 0 0 0
    0 0 0 0 0 0 0 0 0 0 0 0 0 0 0 0 0 0 0 0 0 0 0 0 0 0 0 0 0 0 0 0 0 0 0 0 0 0 0 0 0 0 0 0 0 0 0 0 0 0 0 0 0 0 0 0 0 0 0 0 0 0 0 0 0 0 0 0 0 63 63 62 62 63 63 62 62 63 63 62 62 63 62 62 63 63 62 61 61 61 60 59 58 57 56 55 54 52 50 49 49 49 47 46 46 46 46 46 46 -225 -225 -225 -225 -225 -225 -225 -225 -225 -225 -225 -225 -225 -225 -225 -225 -225 -225 16 16 15 15 14 13 12 9 11 12 13 18 13 11 13 13 13 13 14 12 11 13 14 12 12 13 12 11 12 14 12 12 13 13 13 16 15 17 16 18 18 19 18 18 17 18 17 16 19 18 17 18 17 19 19 19 17 14 14 21 -209 -177 -193 -209 52 55 55 55 56 56 -193 62 67 68 67 69 70 71 72 72 75 75 75 76 76 77 79 79 80 80 86 87 88 89 89 88 87 87 87 86 84 82 82 -193 -209 -209 -209 108 -209 110 113 115 114 115 113 115 113 118 122 122 123 124 132 128 128 131 134 -177 136 137 -193 -177 141 144 143 140 142 143 143 143 139 147 144 151 153 157 160 158 158 163 166 163 164 164 166 -193 -177 -177 643 641 177 180 179 179 180 181 181 181 177 177 173 174 174 174 174 173 178 -177 -177 550 -193 196 196 198 203 205 205 81 0 0 0 0 0
    0 0 0 0 0 0 0 0 0 0 0 0 0 0 0 0 0 0 0 0 0 0 0 0 0 0 0 0 0 0 0 0 0 0 0 0 0 0 0 0 0 0 0 0 0 0 0 0 0 0 0 0 0 0 0 0 0 0 0 0 0 0 0 0 0 0 0 0 0 63 62 62 62 63 63 63 62 62 63 63 63 63 61 62 62 62 61 61 61 60 59 59 58 57 56 55 54 52 51 49 48 49 47 46 46 46 46 47 46 -225 -225 -225 -225 -225 -225 -225 -225 -225 -225 -225 -225 -225 -225 -225 -225 22 16 16 16 15 17 14 14 13 10 12 13 13 19 13 12 13 13 12 12 14 12 11 13 13 12 12 12 12 11 12 14 11 11 13 13 14 15 14 16 16 18 19 19 18 18 17 18 18 16 19 18 17 18 17 19 19 18 17 14 14 20 -193 -209 -193 -209 52 54 55 55 56 56 57 62 67 68 67 69 70 71 72 72 75 75 75 76 77 77 79 79 80 80 85 85 87 87 87 87 86 86 87 86 -193 82 84 -193 -209 -209 -193 109 -193 112 113 115 114 115 113 115 114 118 122 123 125 125 133 128 128 131 134 133 136 136 136 -193 141 145 144 140 143 143 143 143 139 145 142 149 153 156 160 157 158 161 165 162 163 163 165 -193 -177 -177 -193 642 176 180 178 178 179 181 180 180 176 177 173 174 174 174 174 173 176 -177 -177 549 -193 195 196 197 202 205 205 80 0 0 0 0 0
    0 0 0 0 0 0 0 0 0 0 0 0 0 0 0 0 0 0 0 0 0 0 0 0 0 0 0 0 0 0 0 0 0 0 0 0 0 0 0 0 0 0 0 0 0 0 0 0 0 0 0 0 0 0 0 0 0 0 0 0 0 0 0 0 0 0 0 0 0 62 62 61 62 63 63 62 62 61 62 62 62 62 61 61 61 61 61 60 60 60 59 59 58 57 56 55 54 52 51 50 49 49 47 46 46 46 47 47 47 -225 -225 -225 -225 -225 -225 -225 -225 -225 -225 -225 -225 -225 -225 -225 17 21 16 17 15 15 17 14 14 14 12 12 12 13 18 13 13 12 13 12 12 14 12 11 12 13 12 12 12 12 12 13 14 12 12 13 14 15 15 14 17 16 18 19 19 17 18 18 18 17 17 19 17 18 18 17 19 19 18 16 14 -193 -193 -209 -209 -193 -193 53 55 55 55 56 56 57 61 67 67 66 69 71 72 72 73 75 75 75 77 77 77 79 79 79 79 82 84 85 86 86 86 85 85 -193 -193 -193 84 -193 -209 -193 -209 -209 109 -193 112 113 115 114 115 113 116 115 119 123 124 126 126 133 129 129 132 134 133 135 136 136 -193 142 145 144 141 144 144 144 144 139 145 143 147 151 153 158 156 156 159 165 161 161 162 164 -193 -177 -177 -177 644 175 180 177 177 178 180 179 179 176 177 173 174 173 174 173 173 175 -177 -177 549 -193 193 195 196 202 204 205 80 0 0 0 0 0
    0 0 0 0 0 0 0 0 0 0 0 0 0 0 0 0 0 0 0 0 0 0 0 0 0 0 0 0 0 0 0 0 0 0 0 0 0 0 0 0 0 0 0 0 0 0 0 0 0 0 0 0 0 0 0 0 0 0 0 0 0 0 0 0 0 0 0 0 0 61 61 61 61 62 61 62 61 60 61 60 61 61 60 60 61 61 60 59 59 59 58 58 58 57 56 55 54 53 51 51 50 50 47 47 46 46 47 48 47 47 -225 -225 -225 -225 -225 -225 -225 -225 -225 -225 -225 -225 -225 -225 15 20 15 16 13 12 15 13 13 13 11 13 12 14 18 13 13 12 12 12 12 14 12 11 12 13 13 13 13 14 13 14 16 14 13 16 16 15 15 14 17 16 17 18 18 17 18 17 17 17 17 20 17 18 17 16 18 19 17 16 14 -193 -193 -209 -209 -193 -193 53 55 55 56 56 56 57 62 67 67 66 69 71 72 72 74 75 76 76 77 78 77 79 79 78 78 79 81 83 83 84 83 83 84 86 85 -193 86 90 -209 99 -209 -209 -193 -193 -193 -193 115 115 115 113 116 115 118 123 125 127 126 133 129 129 132 134 133 135 136 136 140 142 145 144 141 144 144 144 144 139 146 144 145 151 152 157 155 156 158 164 160 161 161 164 -193 -177 -177 -177 -193 174 179 177 177 177 180 178 178 175 177 173 173 173 174 173 173 174 -177 -177 549 -193 192 196 196 201 204 204 80 0 0 0 0 0
    0 0 0 0 0 0 0 0 0 0 0 0 0 0 0 0 0 0 0 0 0 0 0 0 0 0 0 0 0 0 0 0 0 0 0 0 0 0 0 0 0 0 0 0 0 0 0 0 0 0 0 0 0 0 0 0 0 0 0 0 0 0 0 0 0 0 0 0 0 60 60 60 60 60 60 61 59 59 59 59 59 60 59 59 59 59 60 58 58 58 58 57 57 56 56 55 54 53 52 51 50 51 48 47 46 46 47 48 48 47 -225 -225 -225 -225 -225 -225 -225 -225 -225 -225 -225 -225 -225 16 16 20 16 16 12 11 13 12 12 12 10 11 11 12 16 13 12 12 12 12 12 13 13 11 11 13 12 12 12 13 13 13 15 14 12 15 15 15 14 14 16 15 16 17 17 17 17 18 16 17 17 19 17 17 16 16 16 18 16 17 14 15 -193 -193 -209 -209 -209 55 56 56 57 56 57 57 62 67 67 66 69 72 72 72 74 75 76 77 78 79 77 79 80 77 77 77 78 79 79 80 80 80 83 86 -193 89 89 93 -193 101 -209 -193 -193 -193 -193 -193 114 114 115 113 116 115 118 123 125 128 126 133 129 129 132 134 133 135 136 136 140 141 144 144 141 144 145 144 145 140 146 146 146 150 151 157 155 156 157 165 160 161 162 164 166 -177 -177 -177 -193 174 178 176 176 176 179 177 178 175 177 173 173 173 173 173 174 -193 -177 -177 -177 -193 192 196 196 202 204 205 81 0 0 0 0 0
    0 0 0 0 0 0 0 0 0 0 0 0 0 0 0 0 0 0 0 0 0 0 0 0 0 0 0 0 0 0 0 0 0 0 0 0 0 0 0 0 0 0 0 0 0 0 0 0 0 0 0 0 0 0 0 0 0 0 0 0 0 0 0 0 0 0 0 0 0 59 59 59 59 59 59 60 59 58 59 59 59 59 58 58 58 58 59 57 57 57 57 56 56 55 55 54 54 52 52 51 50 51 48 47 46 46 48 49 49 49 -225 -225 -225 -225 -225 -225 -225 -225 -225 -225 -225 -225 20 13 13 19 16 15 12 11 13 11 11 11 10 11 10 11 15 12 13 12 12 12 12 14 13 11 12 13 13 13 12 13 13 13 15 14 13 16 16 16 15 14 16 16 16 16 15 16 17 16 16 17 16 18 18 18 16 16 16 18 15 17 15 15 14 -209 -193 -209 -209 55 56 57 57 56 57 57 61 67 67 66 69 72 72 72 75 76 77 77 78 79 77 79 80 77 76 75 76 77 77 77 78 77 82 87 -193 91 94 97 100 102 -209 -193 -193 -193 -193 -193 112 112 113 110 114 113 117 122 126 128 127 133 130 130 132 -193 133 135 -193 136 140 141 144 144 140 143 144 144 145 140 146 146 145 150 151 158 156 156 158 165 161 162 162 164 166 -177 -177 -177 -177 173 178 175 175 175 178 177 177 175 176 173 173 173 173 173 175 -209 -177 -177 -177 -193 192 197 196 201 204 205 80 0 0 0 0 0
    0 0 0 0 0 0 0 0 0 0 0 0 0 0 0 0 0 0 0 0 0 0 0 0 0 0 0 0 0 0 0 0 0 0 0 0 0 0 0 0 0 0 0 0 0 0 0 0 0 0 0 0 0 0 0 0 0 0 0 0 0 0 0 0 0 0 0 0 0 58 58 58 58 58 58 58 58 57 58 58 58 58 58 58 58 57 58 57 56 56 56 56 56 55 55 54 53 52 51 50 49 51 48 48 47 47 49 50 50 50 -225 -225 -225 -225 -225 -225 -225 -225 -225 -225 -225 0 15 11 11 18 15 14 13 11 12 11 11 11 10 10 10 10 13 11 12 12 11 12 12 13 13 11 12 13 12 12 12 13 13 13 14 14 13 16 16 15 14 14 15 16 15 15 15 16 17 16 17 17 17 18 18 18 16 15 16 18 15 17 15 15 13 -209 -193 -209 -209 57 58 58 58 56 57 58 61 66 66 66 69 72 71 72 75 75 77 77 78 78 77 78 80 76 75 73 74 75 75 75 77 76 84 89 -193 93 97 98 100 102 -209 -193 -193 -193 -193 -193 110 110 110 108 112 110 116 120 126 128 127 132 131 131 132 -193 134 -193 -193 137 141 -177 143 143 140 143 144 144 145 140 146 147 146 150 151 157 156 156 157 164 161 161 162 164 166 525 528 529 -177 173 177 175 175 175 178 177 177 175 176 174 173 172 173 173 175 -193 -193 -177 -177 -177 192 197 195 200 203 -193 77 0 0 0 0 0
    0 0 0 0 0 0 0 0 0 0 0 0 0 0 0 0 0 0 0 0 0 0 0 0 0 0 0 0 0 0 0 0 0 0 0 0 0 0 0 0 0 0 0 0 0 0 0 0 0 0 0 0 0 0 0 0 0 0 0 0 0 0 0 0 0 0 0 0 0 57 56 57 57 56 56 56 56 56 56 57 57 57 58 57 57 57 57 57 56 55 55 55 55 55 54 53 53 51 51 50 49 51 49 48 47 48 51 52 52 52 -225 -225 -225 -225 -225 -225 -225 -225 -225 -225 0 0 12 11 11 17 14 13 12 11 12 11 11 11 10 10 10 10 12 10 11 11 11 11 12 13 13 12 13 14 13 13 12 13 13 13 14 15 13 16 16 15 14 14 15 15 15 15 15 16 17 16 16 16 17 18 18 18 16 15 15 17 15 17 16 15 12 -209 -177 60 58 58 58 58 58 57 57 58 61 65 64 64 68 71 69 71 -193 74 77 77 78 78 77 78 79 75 75 73 73 74 75 74 77 79 86 91 92 94 98 98 -193 -193 -209 -193 -193 -193 -193 -193 108 108 108 -193 -193 109 113 119 125 128 127 132 131 131 133 -193 134 -193 137 137 141 -177 -177 143 140 142 144 144 144 140 145 146 145 149 151 156 156 156 157 164 161 162 163 164 167 526 528 529 -177 173 177 176 176 175 178 177 178 175 177 174 173 173 173 -193 -193 -193 -193 -177 -177 -177 192 196 195 199 202 -193 75 0 0 0 0 0
    0 0 0 0 0 0 0 0 0 0 0 0 0 0 0 0 0 0 0 0 0 0 0 0 0 0 0 0 0 0 0 0 0 0 0 0 0 0 0 0 0 0 0 0 0 0 0 0 0 0 0 0 0 0 0 0 0 0 0 0 0 0 0 0 0 0 0 0 0 55 55 56 56 55 55 55 55 55 56 56 55 54 56 56 55 55 55 55 55 54 54 54 54 54 54 53 52 51 50 49 49 51 50 50 48 49 53 54 54 54 -225 -225 -225 -225 -225 -225 -225 -225 -225 -225 0 0 10 9 9 15 13 13 12 11 13 11 11 12 10 10 11 11 12 11 12 12 12 12 13 13 13 12 14 14 13 12 12 13 13 13 14 14 13 15 14 15 14 13 14 14 14 14 14 16 17 15 16 17 17 17 18 17 15 15 15 17 15 17 16 15 12 -177 -177 59 57 57 58 58 58 56 57 58 60 64 64 64 67 70 68 70 -193 73 77 77 77 77 76 78 79 75 76 73 74 74 75 74 81 -193 88 92 92 95 98 98 100 -193 -209 -209 -209 -209 -209 -209 108 107 107 107 109 109 112 118 124 127 126 132 132 132 133 -177 134 134 137 137 140 -177 -177 141 139 141 144 143 144 140 145 147 145 149 151 156 155 156 157 164 162 163 163 165 167 525 528 529 -177 173 178 177 176 175 179 178 178 176 177 175 174 173 174 -193 -193 -193 -193 -177 -177 -193 192 196 195 197 201 -193 75 0 0 0 0 0
    0 0 0 0 0 0 0 0 0 0 0 0 0 0 0 0 0 0 0 0 0 0 0 0 0 0 0 0 0 0 0 0 0 0 0 0 0 0 0 0 0 0 0 0 0 0 0 0 0 0 0 0 0 0 0 0 0 0 0 0 0 0 0 0 0 0 0 0 0 54 54 55 56 55 54 55 55 55 55 56 55 53 55 55 55 54 54 55 54 53 53 53 53 54 53 53 52 51 51 50 49 52 51 51 51 51 54 55 55 55 -225 -225 -225 -225 -225 -225 -225 -225 -225 -225 0 0 0 0 0 12 13 12 11 10 12 10 11 12 10 10 11 11 12 10 12 11 11 12 12 12 13 12 13 14 13 12 12 13 12 13 13 14 13 15 14 14 14 14 14 14 14 14 14 16 17 16 17 17 18 17 18 17 15 14 15 16 15 18 17 15 12 -177 -177 58 57 57 57 58 58 55 56 57 60 63 63 63 66 70 67 69 -193 72 76 76 76 76 76 77 78 -193 76 73 74 75 76 75 86 90 89 93 93 95 98 98 100 101 -209 103 -209 -193 -193 -209 108 107 107 107 109 109 111 117 123 126 126 131 132 132 133 -193 133 133 136 136 139 -177 -177 140 139 141 143 143 143 140 144 147 145 149 152 156 156 157 157 165 164 164 164 165 167 525 527 529 -177 -193 178 177 177 176 179 179 179 177 177 176 174 173 173 -193 -193 -193 -193 -177 -177 -193 192 195 195 196 200 -193 75 0 0 0 0 0
    0 0 0 0 0 0 0 0 0 0 0 0 0 0 0 0 0 0 0 0 0 0 0 0 0 0 0 0 0 0 0 0 0 0 0 0 0 0 0 0 0 0 0 0 0 0 0 0 0 0 0 0 0 0 0 0 0 0 0 0 0 0 0 0 0 0 0 0 0 53 53 55 55 54 54 54 54 55 55 55 54 51 54 54 54 54 54 54 53 52 52 52 52 53 52 52 52 51 51 51 51 53 53 53 53 53 56 57 57 57 -225 -225 -225 -225 -225 -225 -225 -225 -225 -225 0 0 0 0 0 10 13 12 11 10 11 10 10 12 11 11 11 11 12 11 12 12 11 12 12 13 13 13 13 14 13 12 12 13 12 13 13 14 12 14 14 13 13 13 13 14 13 13 14 14 17 14 15 16 16 15 18 16 15 14 15 16 15 19 18 15 14 -177 -177 57 56 56 57 57 58 55 56 56 59 63 62 63 64 69 66 68 70 71 75 74 75 75 75 77 78 -193 -193 -193 75 76 77 77 89 90 90 94 94 95 98 98 99 100 100 101 -193 -193 -209 -209 108 -193 107 107 109 109 110 117 121 126 125 130 132 131 132 -193 133 132 135 136 138 -177 -177 140 139 141 143 143 144 142 145 148 147 150 152 156 157 157 157 164 164 164 164 165 167 525 526 528 -177 -193 178 178 177 177 180 179 179 177 177 176 173 173 173 899 -193 -193 -193 -177 -177 547 193 195 195 196 -193 -193 75 0 0 0 0 0
    0 0 0 0 0 0 0 0 0 0 0 0 0 0 0 0 0 0 0 0 0 0 0 0 0 0 0 0 0 0 0 0 0 0 0 0 0 0 0 0 0 0 0 0 0 0 0 0 0 0 0 0 0 0 0 0 0 0 0 0 0 0 0 0 0 0 0 0 0 52 53 54 55 54 54 54 54 55 55 55 54 51 55 54 54 54 54 54 51 51 51 51 52 52 51 52 52 51 51 50 50 52 53 54 54 54 57 58 58 58 -225 -225 -225 -225 -225 -225 -225 -225 -225 -225 0 0 0 0 0 10 12 12 11 11 11 11 11 12 11 11 12 12 11 11 12 11 11 12 12 12 12 13 13 14 13 12 12 13 12 13 13 14 12 14 13 12 12 13 13 13 12 12 12 13 15 13 13 13 13 14 18 15 14 14 15 17 16 19 18 15 15 -177 -177 55 54 55 56 57 57 55 56 57 60 64 63 63 63 68 65 67 70 70 74 74 74 74 75 76 78 146 -193 -193 -193 77 78 77 89 91 91 94 94 95 96 97 99 100 99 100 99 -209 -209 -209 107 -193 106 107 109 110 110 116 120 125 125 129 133 131 132 -193 133 132 135 135 137 -177 -177 140 139 141 143 143 144 142 145 149 148 151 153 158 159 159 159 164 165 164 165 165 166 524 526 528 -177 -177 178 179 178 177 180 179 179 178 177 176 173 173 173 898 -193 -193 -193 -177 -177 546 -193 -193 -193 -193 -193 -193 -209 0 0 0 0 0
    0 0 0 0 0 0 0 0 0 0 0 0 0 0 0 0 0 0 0 0 0 0 0 0 0 0 0 0 0 0 0 0 0 0 0 0 0 0 0 0 0 0 0 0 0 0 0 0 0 0 0 0 0 0 0 0 0 0 0 0 0 0 0 0 0 0 0 0 0 53 54 55 55 54 54 54 55 55 55 55 53 50 54 53 53 52 51 53 50 50 50 51 51 51 51 51 51 50 50 50 49 52 54 54 55 55 58 59 59 59 -225 -225 -225 -225 -225 -225 -225 -225 -225 -225 0 0 0 0 0 10 12 12 12 12 13 11 11 13 12 11 13 12 11 10 12 12 12 12 12 12 12 12 13 13 12 11 11 12 11 12 12 12 12 13 14 11 11 12 12 12 11 10 11 11 13 12 12 11 12 13 17 13 14 14 14 17 17 19 18 15 16 -177 -177 53 52 53 55 56 57 55 56 57 60 63 63 63 63 68 65 67 69 70 74 74 74 -177 76 76 78 145 145 -177 -193 -193 78 78 89 91 91 94 94 94 95 96 98 99 97 99 98 -209 -209 -209 -193 -193 106 107 109 110 109 116 119 125 124 128 133 131 131 134 132 132 135 135 137 137 -177 140 139 141 143 143 144 143 144 149 148 151 153 157 159 158 158 164 165 164 164 164 166 -193 525 528 -177 -177 177 179 178 178 180 180 180 178 176 176 173 172 172 -177 -193 -193 -193 -177 -177 544 -193 -193 -193 294 -177 -177 -193 0 0 0 0 0
    0 0 0 0 0 0 0 0 0 0 0 0 0 0 0 0 0 0 0 0 0 0 0 0 0 0 0 0 0 0 0 0 0 0 0 0 0 0 0 0 0 0 0 0 0 0 0 0 0 0 0 0 0 0 0 0 0 0 0 0 0 0 0 0 0 0 0 0 0 53 53 54 55 54 54 54 54 55 55 55 52 47 53 52 52 52 47 54 51 50 51 51 52 52 50 51 51 49 49 48 48 51 54 55 55 56 58 60 60 60 -225 -225 -225 -225 -225 -225 -225 -225 -225 10 9 0 0 0 0 10 12 11 12 13 13 12 12 14 12 12 14 13 12 11 12 12 12 12 13 12 11 12 13 13 12 11 11 11 11 12 11 11 12 13 14 12 12 12 12 11 11 11 12 11 13 13 13 12 13 13 16 13 13 13 13 16 16 18 18 14 16 -177 -177 50 49 51 53 55 55 54 56 57 60 63 63 62 62 67 66 67 70 70 75 74 75 -177 76 76 78 145 145 -177 -193 -193 -193 78 89 91 90 93 93 93 94 95 97 98 96 99 99 -209 -209 -209 107 105 106 107 109 109 108 116 119 125 125 128 133 130 131 133 133 132 134 135 136 136 -177 140 140 140 143 143 144 143 143 149 148 152 154 158 160 159 159 163 166 164 164 164 166 -193 525 528 -177 -177 177 180 178 178 180 180 180 179 176 176 -177 -193 -193 -177 -193 -193 -193 -177 -177 542 -193 -193 293 293 395 398 398 0 0 0 0 0
    0 0 0 0 0 0 0 0 0 0 0 0 0 0 0 0 0 0 0 0 0 0 0 0 0 0 0 0 0 0 0 0 0 0 0 0 0 0 0 0 0 0 0 0 0 0 0 0 0 0 0 0 0 0 0 0 0 0 0 0 0 0 0 0 0 0 0 0 0 53 53 55 55 54 54 54 53 55 55 55 53 48 55 -193 -209 -209 -209 -209 -209 51 52 52 53 53 50 51 50 49 48 47 47 51 54 55 55 57 59 60 61 61 -225 -225 -225 -225 -225 -225 -225 -225 21 14 14 12 11 10 10 13 12 11 11 12 13 12 12 14 12 12 14 13 12 10 11 11 11 12 12 11 11 12 13 13 13 11 11 11 11 13 12 12 12 12 14 12 12 12 11 11 11 11 11 11 12 13 12 12 13 13 16 13 13 14 13 16 17 18 18 15 15 -177 -177 48 48 51 52 54 55 54 55 57 61 63 63 62 63 68 67 68 70 71 75 75 75 -177 77 76 78 145 145 -177 -193 -193 -193 78 89 91 90 92 92 92 92 94 95 96 94 99 99 106 -193 -209 107 105 106 107 108 109 107 115 119 125 125 127 133 130 130 133 133 131 134 135 136 136 -177 141 140 140 143 143 144 144 142 149 148 152 154 156 159 158 158 162 166 163 164 163 165 -193 525 528 -193 -193 177 180 178 178 179 180 179 179 176 176 -177 -193 68 -193 -193 -209 -209 -177 -177 -193 -193 -193 292 293 395 398 398 0 0 0 0 0
    0 0 0 0 0 0 0 0 0 0 0 0 0 0 0 0 0 0 0 0 0 0 0 0 0 0 0 0 0 0 0 0 0 0 0 0 0 0 0 0 0 0 0 0 0 0 0 0 0 0 0 0 0 0 0 0 0 0 0 0 0 0 0 0 0 0 0 0 0 51 53 54 55 54 54 54 52 54 54 54 52 47 55 -209 -209 -209 -209 -209 -209 -193 54 51 55 -209 43 49 48 45 43 43 43 48 54 54 54 55 58 61 61 61 -225 -225 -225 -225 -225 -225 -225 16 23 20 20 20 17 18 17 19 16 13 12 13 14 13 12 14 12 12 14 13 13 10 11 11 11 12 12 10 10 11 12 12 12 10 11 11 11 13 12 12 12 12 14 12 12 12 11 11 11 11 11 11 12 13 12 11 13 13 17 14 14 14 13 17 17 18 19 16 16 -177 -177 46 46 49 51 53 54 53 55 55 60 63 62 62 62 67 68 69 71 71 76 75 76 77 77 77 78 -177 145 -193 -193 80 78 75 86 89 89 91 91 91 91 93 95 96 95 99 100 106 105 -193 -193 105 106 107 107 108 106 114 120 125 125 126 132 129 129 132 132 131 133 135 135 137 -177 141 141 140 143 143 143 144 141 148 147 151 154 156 159 158 158 161 166 163 163 163 165 -193 525 528 -193 -177 176 180 178 178 179 180 179 179 175 176 -177 -193 68 -193 -193 -209 -193 -177 -177 543 -193 -193 -193 292 394 397 398 0 0 0 0 0
    0 0 0 0 0 0 0 0 0 0 0 0 0 0 0 0 0 0 0 0 0 0 0 0 0 0 0 0 0 0 0 0 0 0 0 0 0 0 0 0 0 0 0 0 0 0 0 0 0 0 0 0 0 0 0 0 0 0 0 0 0 0 0 0 0 0 0 0 0 48 50 54 55 54 54 55 53 52 53 54 50 46 -209 -209 -209 -209 -209 -209 -193 -209 -193 46 -209 21 23 25 -209 -193 21 23 35 43 51 54 54 54 58 61 62 61 -225 -225 -225 -225 -225 -225 11 18 21 20 20 19 18 18 17 18 15 12 11 11 13 12 11 14 12 11 14 13 13 11 12 12 12 12 12 11 10 11 12 11 11 10 11 11 11 13 11 11 12 12 14 12 12 12 11 11 11 11 11 11 12 13 12 12 12 13 16 14 14 14 12 17 17 18 19 16 17 33 -177 45 45 47 49 52 53 53 54 54 61 63 62 62 62 67 69 69 71 72 76 76 76 77 78 77 78 -193 -177 -193 80 80 -193 73 78 86 88 90 90 90 90 93 95 97 96 101 102 107 106 -193 -193 105 106 107 107 108 106 113 120 125 125 125 132 128 128 131 132 131 133 134 135 -193 -177 142 142 141 143 144 144 145 141 149 148 151 154 156 160 158 158 161 166 162 163 162 165 -193 525 528 -193 -177 175 180 177 177 178 179 178 178 175 176 173 -193 -193 -193 -193 -193 -177 -177 -177 543 -193 -209 -193 293 -193 397 -193 0 0 0 0 0
    0 0 0 0 0 0 0 0 0 0 0 0 0 0 0 0 0 0 0 0 0 0 0 0 0 0 0 0 0 0 0 0 0 0 0 0 0 0 0 0 0 0 0 0 0 0 0 0 0 0 0 0 0 0 0 0 0 0 0 0 0 0 0 0 0 0 0 0 0 51 52 57 63 -209 -193 -193 9 -209 -209 10 11 13 17 21 30 -209 -209 -209 -209 -209 -209 32 18 18 20 20 18 15 14 18 20 34 44 49 51 48 57 57 -193 0 0 -225 -225 -225 -225 10 11 17 21 20 20 20 19 19 19 17 14 11 10 11 12 11 10 12 11 10 12 12 11 9 12 11 11 11 12 10 10 11 12 10 11 10 11 11 11 13 12 11 12 13 14 13 13 12 12 12 11 12 11 11 12 13 13 12 13 14 15 14 13 14 13 16 17 17 19 17 17 30 -177 45 45 48 50 52 53 53 54 54 61 63 62 61 61 67 70 70 71 73 76 76 77 78 79 77 78 78 -177 -193 78 78 -193 72 74 82 87 89 90 90 90 93 95 97 97 102 104 108 108 -193 -193 -193 106 107 106 107 105 112 120 124 124 125 131 127 128 131 132 131 133 135 135 138 -177 143 143 141 144 144 145 146 141 149 149 151 154 155 160 158 158 160 166 162 162 162 165 -193 525 529 -177 -193 175 179 177 177 177 179 177 178 174 176 173 -193 -193 -193 -193 -209 -177 -177 -177 544 548 -209 -193 -193 -193 -193 91 0 0 0 0 0
    0 0 0 0 0 0 0 0 0 0 0 0 0 0 0 0 0 0 0 0 0 0 0 0 0 0 0 0 0 0 0 0 0 0 0 0 0 0 0 0 0 0 0 0 0 0 0 0 0 0 0 0 0 0 0 0 0 0 0 0 0 0 0 0 0 0 0 0 0 52 54 60 -193 -193 0 0 0 0 0 0 0 0 8 11 -193 0 11 21 25 23 22 23 17 17 17 15 14 13 12 13 0 -193 -209 9 0 0 0 0 0 0 0 0 0 0 10 11 12 17 20 20 20 20 19 20 20 18 14 12 10 12 13 12 11 12 11 11 12 12 10 9 12 11 10 11 12 10 10 11 12 10 11 10 11 11 11 13 11 11 12 12 13 12 11 11 11 11 11 11 11 11 11 13 12 12 13 13 14 14 13 14 13 16 16 15 19 17 16 25 -177 46 46 48 51 53 53 54 55 54 61 62 62 61 61 66 70 69 71 73 77 77 77 78 79 77 78 77 -177 -193 76 76 -193 71 71 79 86 88 90 90 90 92 94 96 97 102 105 108 108 -209 -177 -209 -193 106 106 105 103 110 120 124 124 124 131 128 128 131 134 133 135 136 136 140 141 144 144 141 144 145 146 146 142 149 149 151 154 154 159 157 157 159 165 162 162 162 165 -193 -177 -177 -177 -193 174 179 177 177 176 179 177 178 174 176 173 172 172 172 -193 -193 -209 -177 -177 544 549 -209 -193 195 -209 -193 90 0 0 0 0 0
    0 0 0 0 0 0 0 0 0 0 0 0 0 0 0 0 0 0 0 0 0 0 0 0 0 0 0 0 0 0 0 0 0 0 0 0 0 0 0 0 0 0 0 0 0 0 0 0 0 0 0 0 0 0 0 0 0 0 0 0 0 0 0 0 0 0 0 0 0 52 53 60 -209 -193 0 0 0 0 0 0 0 0 0 0 0 0 0 11 16 19 18 22 16 16 15 14 13 12 12 13 0 0 0 0 0 0 0 0 0 0 0 0 0 0 11 11 12 16 19 20 20 20 19 20 21 18 14 12 10 11 12 12 11 10 0 10 12 11 10 9 11 10 11 11 12 11 10 11 12 10 11 10 11 11 11 13 11 11 12 12 13 12 12 11 11 11 11 11 11 12 11 13 13 12 13 14 14 14 13 14 13 15 14 15 17 16 15 22 -177 46 46 49 51 53 54 54 55 55 61 62 62 61 61 65 70 69 71 74 77 78 78 79 79 77 77 77 -177 -177 -193 -193 -177 68 69 77 85 88 90 90 90 92 94 96 96 -193 105 107 108 -209 -177 -209 -209 106 105 104 101 109 120 123 124 124 130 128 128 131 -193 133 135 137 137 141 141 144 144 141 144 145 145 146 141 149 149 151 154 154 159 157 158 159 165 162 163 162 165 -193 -177 -177 -177 -193 174 179 176 176 176 179 177 178 174 176 173 173 172 172 172 -193 -209 -177 -177 544 549 -193 -193 194 196 90 91 0 0 0 0 0
    0 0 0 0 0 0 0 0 0 0 0 0 0 0 0 0 0 0 0 0 0 0 0 0 0 0 0 0 0 0 0 0 0 0 0 0 0 0 0 0 0 0 0 0 0 0 0 0 0 0 0 0 0 0 0 0 0 0 0 0 0 0 0 0 0 0 0 0 0 -193 -193 0 0 0 0 0 0 0 0 0 0 0 0 0 0 0 0 0 11 12 11 21 14 13 13 13 12 11 11 12 0 0 0 0 0 0 0 0 0 0 0 0 0 0 11 11 12 15 17 19 20 20 19 20 21 18 14 11 10 11 11 11 10 9 0 9 10 10 10 9 11 11 11 12 12 12 11 11 12 10 12 11 11 11 11 12 12 11 12 12 12 13 12 12 11 12 11 12 12 12 12 14 13 13 14 15 15 14 14 14 13 15 14 14 17 16 16 21 -177 47 47 50 52 53 54 54 54 54 61 62 61 61 61 64 70 68 71 75 77 78 78 79 78 77 77 77 -177 -177 -209 -193 -177 68 67 76 -193 88 90 90 90 92 93 95 95 -193 -209 107 -193 -209 -177 -177 -209 106 105 93 99 108 119 123 123 123 129 127 128 131 -193 133 135 137 137 141 141 144 144 141 144 145 145 146 141 149 149 150 153 153 158 156 157 158 165 163 163 163 165 -193 -177 -177 -177 -193 174 179 176 176 175 179 177 178 175 177 174 173 172 173 172 -193 -193 -177 -177 545 549 -193 -193 193 196 -193 91 0 0 0 0 0
    0 0 0 0 0 0 0 0 0 0 0 0 0 0 0 0 0 0 0 0 0 0 0 0 0 0 0 0 0 0 0 0 0 0 0 0 0 0 0 0 0 0 0 0 0 0 0 0 0 0 0 0 0 0 0 0 0 0 0 0 0 0 0 0 0 0 0 0 0 0 0 0 0 0 0 0 0 0 0 0 0 0 0 0 0 0 0 0 9 10 9 19 13 13 13 12 11 11 11 11 0 0 0 0 0 0 0 0 0 0 0 0 0 0 9 0 9 13 15 18 19 19 19 19 21 18 14 12 11 11 11 11 10 9 0 9 9 9 9 9 10 11 11 12 12 12 11 12 12 11 12 12 12 12 12 13 12 12 12 12 12 13 13 12 12 13 12 13 13 14 13 14 14 14 15 15 15 15 14 15 14 15 15 14 18 17 18 21 -177 46 47 50 52 53 54 54 54 54 60 62 61 61 61 63 71 68 70 74 76 78 77 78 78 76 77 76 -177 -177 71 71 -177 -193 65 75 -193 88 90 90 91 92 93 95 95 -193 -209 106 -193 -209 -177 -177 -209 106 -193 92 97 107 119 122 122 123 128 127 127 131 -177 133 134 136 137 141 140 143 144 141 144 145 146 146 141 149 148 149 152 153 157 156 157 159 165 164 164 164 166 -193 -177 -177 -177 -193 173 178 176 176 175 179 177 178 175 177 174 173 173 173 173 -193 -193 -177 -177 545 549 -193 -193 192 194 -193 92 0 0 0 0 0
    0 0 0 0 0 0 0 0 0 0 0 0 0 0 0 0 0 0 0 0 0 0 0 0 0 0 0 0 0 0 0 0 0 0 0 0 0 0 0 0 0 0 0 0 0 0 0 0 0 0 0 0 0 0 0 0 0 0 0 0 0 0 0 0 0 0 0 0 0 0 0 0 0 0 0 0 0 0 0 0 0 0 0 0 0 0 0 0 0 0 0 16 11 11 12 11 11 11 10 11 0 0 0 0 0 0 0 0 0 9 0 0 0 9 10 0 9 12 13 17 18 19 19 19 21 18 14 13 11 12 11 11 9 9 0 9 9 9 9 10 11 11 11 13 12 13 12 12 12 11 12 12 12 12 12 12 12 12 11 12 11 13 12 12 12 13 11 12 12 14 12 14 14 14 14 15 15 14 14 15 15 15 15 14 18 18 18 21 -193 46 46 50 52 53 54 54 54 53 60 62 61 61 60 62 70 67 70 73 75 77 76 77 77 76 76 -193 -177 -177 71 71 -193 -193 62 -193 -209 87 90 91 91 91 93 96 96 -193 -209 -193 -193 -209 -177 -177 -209 106 -209 94 98 106 117 121 122 -193 127 127 127 130 -177 132 134 136 136 140 140 142 144 141 143 145 145 145 141 148 148 149 152 153 157 156 157 159 165 165 165 166 -193 -193 -193 -177 -177 -193 173 178 176 176 175 179 177 178 175 177 175 174 173 174 173 176 -193 -177 549 546 548 547 548 192 -193 -209 91 0 0 0 0 0</data></disparity>
</opencv_storage>
