<?xml version="1.0"?>
<opencv_storage>
<gps_time_stamp>317320</gps_time_stamp>
<gps_x>-1.2398538589477539e+001</gps_x>
<gps_y>1.0944907188415527e+001</gps_y>
<gps_z>-1.9647738933563232e+000</gps_z>
<image_time_stamp>308160</image_time_stamp>
<disparity type_id="opencv-matrix">
  <rows>87</rows>
  <cols>320</cols>
  <dt>s</dt>
  <data>
    0 0 0 0 0 0 0 0 0 0 0 0 0 0 0 0 0 0 0 0 0 0 0 0 0 0 0 0 0 0 0 0 0 0 0 0 0 0 0 0 0 0 0 0 0 0 0 0 0 0 0 0 0 0 0 0 0 0 0 0 0 0 0 0 0 0 0 0 0 -209 35 37 37 36 36 36 36 35 34 35 33 31 33 32 32 35 32 30 33 34 35 36 35 34 26 -209 -209 -209 -193 -193 31 34 35 36 35 36 39 -193 40 -209 -193 -193 -193 30 32 31 31 -193 -193 8 -225 -225 -225 -225 -225 -225 -225 -225 -225 -225 -225 -225 -225 -225 -225 -225 -225 -225 -225 -225 -225 -225 -225 -225 -225 -225 -225 -225 -225 -225 -225 -225 -225 -225 -225 -225 -225 -225 -225 -225 -225 -225 -225 -225 -225 -225 -225 -225 -225 -225 33 33 33 36 36 38 40 40 44 44 47 46 46 46 47 48 49 46 49 50 50 53 56 56 58 60 61 63 64 66 68 67 70 69 71 73 74 73 76 79 80 82 84 87 90 91 91 92 99 96 97 96 97 96 100 100 100 97 104 112 108 -193 -177 -177 111 116 117 118 117 122 125 126 125 128 127 128 131 132 134 137 139 139 142 143 145 145 -193 -193 -209 -193 -193 -177 -193 -193 -193 -193 -209 26 25 22 21 23 22 21 -177 98 -193 -193 102 102 -193 -193 -209 -193 -177 188 188 191 191 191 191 191 192 193 194 196 -193 -177 -193 -193 209 212 212 213 215 215 215 -209 -209 -209 217 219 220 221 221 0 0 0 0 0
    0 0 0 0 0 0 0 0 0 0 0 0 0 0 0 0 0 0 0 0 0 0 0 0 0 0 0 0 0 0 0 0 0 0 0 0 0 0 0 0 0 0 0 0 0 0 0 0 0 0 0 0 0 0 0 0 0 0 0 0 0 0 0 0 0 0 0 0 0 42 36 37 37 36 36 36 36 -193 35 35 33 31 34 32 33 36 33 30 35 35 35 35 35 33 26 -209 11 13 19 -193 -193 30 31 33 31 34 37 -193 37 32 -193 31 29 30 33 32 31 -225 -225 -225 -225 -225 -225 -225 -225 -225 -225 -225 -225 -225 -225 -225 -225 -225 -225 -225 -225 -225 -225 -225 -225 -225 -225 -225 -225 -225 -225 -225 -225 -225 -225 -225 -225 -225 -225 -225 -225 -225 -225 -225 -225 -225 -225 -225 -225 -225 -225 -225 -225 -225 32 32 32 35 36 37 39 40 44 44 47 46 46 46 47 48 48 46 48 50 51 53 56 56 59 61 61 63 65 65 68 67 70 70 71 73 74 73 76 79 80 82 84 86 90 90 91 91 98 95 96 96 97 96 100 101 101 98 105 112 109 109 -177 -177 112 117 117 118 117 122 124 125 124 127 126 127 -193 -193 -193 -193 -193 140 -209 143 145 145 148 148 -209 -193 -193 -177 -209 -209 -193 -193 -209 27 25 21 21 -177 -177 -177 19 98 100 -193 102 102 -193 -193 -177 185 -177 188 188 191 191 191 192 191 192 193 193 196 196 -193 -193 -193 208 212 213 214 215 215 216 -193 217 217 218 219 221 221 222 0 0 0 0 0
    0 0 0 0 0 0 0 0 0 0 0 0 0 0 0 0 0 0 0 0 0 0 0 0 0 0 0 0 0 0 0 0 0 0 0 0 0 0 0 0 0 0 0 0 0 0 0 0 0 0 0 0 0 0 0 0 0 0 0 0 0 0 0 0 0 0 0 0 0 42 37 38 38 36 36 36 36 -193 -193 36 34 31 35 34 35 38 35 31 37 36 36 36 36 35 28 -209 9 11 14 21 -193 -193 -193 -193 -193 30 32 34 30 -193 -193 -193 27 -225 -225 -225 -225 -225 -225 -225 -225 -225 -225 -225 -225 -225 -225 -225 -225 -225 -225 -225 -225 -225 -225 -225 -225 -225 -225 -225 -225 -225 -225 -225 -225 -225 -225 -225 -225 -225 -225 -225 -225 -225 -225 -225 -225 -225 -225 -225 -225 -225 -225 -225 -225 -225 -225 -225 -225 -225 32 32 32 35 35 36 38 39 43 44 47 46 46 46 47 48 48 46 47 50 52 53 56 57 59 62 62 64 65 65 68 68 70 70 71 73 74 74 77 79 80 82 84 86 91 90 91 91 98 96 96 96 96 95 100 101 101 100 106 112 109 109 109 111 111 116 117 117 117 122 124 124 123 126 126 127 -193 -193 -193 -193 -193 139 -209 142 144 144 -193 148 -209 -193 -193 -177 -209 -209 -193 -193 -209 29 27 21 21 -177 -177 -177 20 98 100 -193 102 102 -193 -193 -177 185 -177 188 188 190 191 191 192 191 192 193 193 196 196 -193 202 203 209 213 213 214 215 216 -193 -193 218 218 219 220 222 222 222 0 0 0 0 0
    0 0 0 0 0 0 0 0 0 0 0 0 0 0 0 0 0 0 0 0 0 0 0 0 0 0 0 0 0 0 0 0 0 0 0 0 0 0 0 0 0 0 0 0 0 0 0 0 0 0 0 0 0 0 0 0 0 0 0 0 0 0 0 0 0 0 0 0 0 42 37 38 38 36 36 36 35 -193 -193 36 34 31 36 35 37 39 36 32 37 36 36 35 36 35 28 -193 9 9 8 -193 -193 -193 -193 -193 -193 28 27 -193 26 17 12 12 -225 -225 -225 -225 -225 -225 -225 -225 -225 -225 -225 -225 -225 -225 -225 -225 -225 -225 -225 -225 -225 -225 -225 -225 -225 -225 -225 -225 -225 -225 -225 -225 -225 -225 -225 -225 -225 -225 -225 -225 -225 16 17 15 14 14 14 12 13 -225 -225 -225 -225 -225 -225 -225 -225 -225 33 32 32 36 35 36 37 38 42 43 46 45 45 46 47 47 47 45 46 49 52 54 56 57 59 63 63 65 66 66 69 68 71 71 71 73 74 73 76 77 78 80 83 86 91 91 91 91 97 96 96 96 96 95 100 102 102 101 106 111 110 110 110 111 111 116 116 116 117 121 123 123 122 -193 -193 126 -193 -193 -193 -193 -193 -193 -209 141 143 143 -193 147 -193 150 -193 -193 -193 -209 -177 -177 -209 31 26 22 21 -177 22 21 20 98 100 -193 101 102 -193 -193 -177 -209 -177 -193 188 190 190 191 192 191 193 193 195 197 197 199 203 204 209 213 213 214 215 216 -193 -193 218 218 219 220 222 222 223 0 0 0 0 0
    0 0 0 0 0 0 0 0 0 0 0 0 0 0 0 0 0 0 0 0 0 0 0 0 0 0 0 0 0 0 0 0 0 0 0 0 0 0 0 0 0 0 0 0 0 0 0 0 0 0 0 0 0 0 0 0 0 0 0 0 0 0 0 0 0 0 0 0 0 42 38 39 39 36 36 36 35 -193 -193 36 35 32 37 37 39 41 37 32 36 35 35 34 34 33 27 -193 0 0 0 0 0 0 -193 -193 -193 27 27 26 26 23 -225 -225 -225 -225 -225 -225 -225 -225 -225 -225 -225 -225 -225 -225 -225 -225 -225 -225 -225 -225 -225 -225 -225 -225 -225 -225 -225 -225 -225 -225 -225 -225 -225 -225 -225 -225 -225 -225 -225 -225 -225 -225 22 16 17 16 14 14 13 13 14 0 -225 -225 -225 -225 -225 -225 -225 -225 34 33 33 36 34 36 36 38 41 42 45 44 44 45 47 46 47 45 46 50 53 54 56 58 60 64 64 66 67 66 69 69 70 72 71 73 74 73 75 76 77 79 83 86 91 91 91 91 96 96 96 96 96 94 100 102 102 102 106 111 110 110 111 111 112 116 117 116 118 121 122 122 -193 -193 -193 -193 -193 -193 -193 -209 -209 139 -193 141 142 142 146 147 -193 150 151 -193 -209 -209 -177 -209 -209 -209 -209 22 21 -177 23 21 20 98 100 -193 101 102 -193 -193 -177 -209 -177 -193 -193 190 190 190 192 191 193 193 195 198 198 200 203 205 209 212 213 214 215 216 -193 -193 218 218 219 220 222 222 223 0 0 0 0 0
    0 0 0 0 0 0 0 0 0 0 0 0 0 0 0 0 0 0 0 0 0 0 0 0 0 0 0 0 0 0 0 0 0 0 0 0 0 0 0 0 0 0 0 0 0 0 0 0 0 0 0 0 0 0 0 0 0 0 0 0 0 0 0 0 0 0 0 0 0 43 39 39 39 37 37 36 36 -193 -177 36 35 31 37 37 40 42 38 32 35 35 34 33 32 31 27 0 0 0 0 0 0 0 0 -177 -193 26 26 23 22 -225 -225 -225 -225 -225 -225 -225 -225 -225 -225 -225 -225 -225 -225 -225 -225 -225 -225 -225 -225 -225 -225 -225 -225 -225 -225 -225 -225 -225 -225 -225 -225 -225 -225 -225 -225 -225 -225 -225 -225 -225 -225 16 20 14 15 14 13 13 12 11 12 9 -225 -225 -225 -225 -225 -225 -225 -225 35 33 33 36 35 37 37 38 40 42 44 44 44 45 47 46 47 45 46 50 54 54 56 58 60 65 65 66 66 66 69 69 70 72 71 73 75 74 76 77 77 79 83 86 90 90 91 91 95 96 95 95 95 95 100 102 102 102 106 110 110 110 111 112 112 116 117 116 119 121 122 -193 -193 -193 -193 -193 0 -193 -193 -209 -209 -193 -193 140 141 141 146 146 -193 -193 -193 -209 -209 -209 -209 -209 -209 -209 -209 22 21 -177 23 21 20 98 100 -193 101 102 -193 -193 -177 -209 -193 -193 -193 189 190 190 192 191 193 193 196 198 198 199 203 205 208 212 213 214 215 216 -193 -193 219 219 219 220 222 223 223 0 0 0 0 0
    0 0 0 0 0 0 0 0 0 0 0 0 0 0 0 0 0 0 0 0 0 0 0 0 0 0 0 0 0 0 0 0 0 0 0 0 0 0 0 0 0 0 0 0 0 0 0 0 0 0 0 0 0 0 0 0 0 0 0 0 0 0 0 0 0 0 0 0 0 42 39 39 39 37 37 36 36 -193 -193 36 35 31 37 37 40 42 39 30 34 34 33 32 30 29 -193 0 0 0 0 0 0 0 0 0 -225 -225 -225 -225 -225 -225 -225 -225 -225 -225 -225 -225 -225 -225 -225 -225 -225 -225 -225 -225 -225 -225 -225 -225 -225 -225 -225 -225 -225 -225 -225 -225 -225 -225 -225 -225 -225 -225 -225 -225 -225 -225 -225 -225 -225 -225 -225 18 19 14 16 14 14 14 12 12 12 10 -225 -225 -225 -225 -225 -225 -225 -225 -225 34 34 36 35 37 37 38 40 41 44 44 44 45 47 46 46 45 46 50 54 54 56 58 60 65 65 65 66 65 68 69 69 71 71 73 75 75 77 77 77 80 83 85 89 90 90 90 94 97 95 95 95 95 100 102 102 103 107 110 110 111 111 112 112 116 117 116 120 121 -193 -193 -193 -193 -193 -193 0 -193 -193 -209 -209 -209 -209 139 140 140 144 -193 -193 -193 -209 -209 -209 -193 -209 -209 -209 -209 -209 -193 21 -177 22 21 20 97 99 -193 100 102 -193 -193 -177 -209 -209 -193 -193 189 190 190 192 191 193 194 196 198 198 199 203 205 208 213 214 214 215 -193 -193 -193 220 220 220 220 222 223 224 0 0 0 0 0
    0 0 0 0 0 0 0 0 0 0 0 0 0 0 0 0 0 0 0 0 0 0 0 0 0 0 0 0 0 0 0 0 0 0 0 0 0 0 0 0 0 0 0 0 0 0 0 0 0 0 0 0 0 0 0 0 0 0 0 0 0 0 0 0 0 0 0 0 0 42 39 39 39 37 37 36 36 -193 -193 36 35 31 38 37 41 42 39 26 29 30 29 29 26 26 18 0 0 0 0 0 0 0 0 -225 -225 -225 -225 -225 -225 -225 -225 -225 -225 -225 -225 -225 -225 -225 -225 -225 -225 -225 -225 -225 -225 -225 -225 -225 -225 -225 -225 -225 -225 -225 -225 -225 -225 -225 -225 -225 -225 -225 -225 -225 -225 -225 -225 -225 -225 -225 -225 19 18 14 16 15 14 14 13 13 12 10 13 -225 -225 -225 -225 -225 -225 -225 -225 34 34 36 36 37 36 37 38 40 43 43 43 44 47 46 46 46 46 50 55 55 56 59 61 65 66 65 66 64 68 68 68 71 71 73 75 75 77 77 77 79 82 85 88 89 89 90 93 97 94 94 95 95 100 102 102 103 107 109 110 111 111 112 112 116 117 115 120 121 -193 -193 -193 -193 -193 -193 0 -193 -193 -209 -209 -209 -209 -193 139 -193 143 -193 -177 -193 -209 -209 -209 -209 -209 -209 -209 -209 -209 -193 21 -177 -177 -177 20 97 99 100 100 101 -193 -193 -177 -193 -209 -209 -209 189 189 189 191 190 193 194 196 198 198 199 202 204 207 212 214 214 215 216 -193 -193 220 220 220 221 223 224 224 0 0 0 0 0
    0 0 0 0 0 0 0 0 0 0 0 0 0 0 0 0 0 0 0 0 0 0 0 0 0 0 0 0 0 0 0 0 0 0 0 0 0 0 0 0 0 0 0 0 0 0 0 0 0 0 0 0 0 0 0 0 0 0 0 0 0 0 0 0 0 0 0 0 0 43 40 39 39 37 37 36 36 -193 -193 37 37 32 39 39 41 43 -193 20 25 27 26 27 24 24 10 0 0 0 0 0 -225 -225 -225 -225 -225 -225 -225 -225 -225 -225 -225 -225 -225 -225 -225 -225 -225 -225 -225 -225 -225 -225 -225 -225 -225 -225 -225 -225 -225 -225 -225 -225 -225 -225 -225 -225 -225 -225 -225 -225 -225 -225 -225 -225 -225 -225 -225 -225 -225 -225 18 20 18 15 16 15 14 14 13 13 11 10 12 -225 -225 -225 -225 -225 -225 -225 -225 34 34 35 37 37 36 37 38 40 44 43 43 44 48 47 47 47 47 50 56 56 57 60 62 66 66 65 65 63 67 68 67 71 70 71 75 76 77 77 77 79 81 84 87 88 88 89 92 98 94 94 94 95 100 103 103 103 107 109 111 111 112 112 112 116 117 115 121 121 122 122 -193 -193 127 -193 -193 -193 133 -209 135 -209 -193 -209 -193 -193 143 -193 -177 -193 -209 -209 -209 -193 -209 -193 -209 -209 -209 -193 21 -177 -177 -177 20 97 99 100 99 101 180 -177 -193 -193 -193 -193 -193 188 189 189 191 190 193 194 196 198 198 199 202 204 205 211 213 213 215 216 -193 -193 -193 220 220 221 223 224 225 0 0 0 0 0
    0 0 0 0 0 0 0 0 0 0 0 0 0 0 0 0 0 0 0 0 0 0 0 0 0 0 0 0 0 0 0 0 0 0 0 0 0 0 0 0 0 0 0 0 0 0 0 0 0 0 0 0 0 0 0 0 0 0 0 0 0 0 0 0 0 0 0 0 0 43 41 40 40 37 37 37 37 -193 -193 -193 -193 33 39 40 42 43 -193 10 20 25 24 25 23 21 0 0 0 0 0 -225 -225 -225 -225 -225 -225 -225 -225 -225 -225 -225 -225 -225 -225 -225 -225 -225 -225 -225 -225 -225 -225 -225 -225 -225 -225 -225 -225 -225 -225 -225 -225 -225 -225 -225 -225 -225 -225 -225 -225 -225 -225 -225 -225 -225 -225 -225 -225 -225 -225 -225 18 20 17 14 16 15 14 13 12 12 11 10 11 0 -225 -225 -225 -225 -225 -225 -225 34 34 36 38 37 37 37 38 40 44 44 44 44 48 47 48 47 47 50 56 55 56 59 61 64 66 65 65 63 67 68 66 71 71 70 75 77 77 77 77 79 81 83 86 86 87 88 89 97 93 94 94 94 100 103 103 103 -193 109 111 111 112 112 112 115 116 113 121 121 121 122 122 -209 127 127 -193 130 132 -193 134 -209 -193 -209 -193 -193 143 -193 -193 -193 -209 -209 -209 -209 -209 -193 -209 -209 -209 -193 22 -177 -177 -177 20 98 99 99 99 101 181 -177 -193 -177 -193 -193 -209 187 188 188 191 190 193 195 197 199 199 200 202 203 205 210 213 212 215 -193 -177 -193 -193 220 220 221 223 224 225 0 0 0 0 0
    0 0 0 0 0 0 0 0 0 0 0 0 0 0 0 0 0 0 0 0 0 0 0 0 0 0 0 0 0 0 0 0 0 0 0 0 0 0 0 0 0 0 0 0 0 0 0 0 0 0 0 0 0 0 0 0 0 0 0 0 0 0 0 0 0 0 0 0 0 44 41 39 40 37 37 37 37 -193 -193 -193 438 -193 40 -209 -193 -193 0 0 14 22 20 20 18 16 0 0 0 0 -225 -225 -225 -225 -225 -225 -225 -225 -225 -225 -225 -225 -225 -225 -225 -225 -225 -225 -225 -225 -225 -225 -225 -225 -225 -225 -225 -225 -225 -225 -225 -225 -225 -225 -225 -225 -225 -225 -225 -225 -225 -225 -225 -225 -225 -225 -225 -225 -225 -225 -225 -225 17 19 15 13 15 13 13 12 11 12 11 10 11 9 9 0 -225 -225 -225 -225 -225 34 34 36 38 38 38 38 38 39 43 44 44 43 48 47 48 48 49 51 55 55 55 58 60 63 66 64 64 62 66 68 65 70 71 69 75 78 78 78 78 80 83 84 86 86 86 87 88 97 93 93 94 94 100 103 103 103 -193 109 111 111 112 112 112 114 116 113 121 121 121 122 123 -209 129 129 -193 131 132 -193 134 -209 -193 -209 -193 -193 142 -193 -209 -209 -209 -209 -209 -193 -209 -193 -193 -209 -193 -193 22 -177 -177 -177 -177 97 98 99 98 100 180 -177 -177 -177 -193 -193 -193 187 188 188 191 191 193 195 198 199 -193 200 202 204 205 210 213 212 -193 -193 -177 116 -193 220 220 221 223 224 -177 0 0 0 0 0
    0 0 0 0 0 0 0 0 0 0 0 0 0 0 0 0 0 0 0 0 0 0 0 0 0 0 0 0 0 0 0 0 0 0 0 0 0 0 0 0 0 0 0 0 0 0 0 0 0 0 0 0 0 0 0 0 0 0 0 0 0 0 0 0 0 0 0 0 0 45 41 40 40 37 37 37 37 -193 -193 -193 436 -209 -209 -209 -193 -193 0 0 13 18 17 16 14 14 0 0 -225 -225 -225 -225 -225 -225 -225 -225 -225 -225 -225 -225 -225 -225 -225 -225 -225 -225 -225 -225 -225 -225 -225 -225 -225 -225 -225 -225 -225 -225 -225 -225 -225 -225 -225 -225 -225 -225 -225 -225 -225 -225 -225 -225 -225 -225 -225 -225 -225 -225 -225 -225 -225 -225 16 17 13 12 13 12 12 11 10 10 10 10 10 9 9 0 11 -225 -225 -225 -225 34 33 35 39 38 38 38 38 38 42 44 43 43 48 47 49 50 51 52 55 55 55 58 60 62 66 63 64 62 66 68 65 70 70 67 75 78 78 78 79 80 82 83 85 85 86 87 88 96 93 93 94 94 99 102 102 103 -193 109 111 111 112 112 112 114 116 113 121 -193 -209 -209 -193 -209 128 -193 -193 -193 132 133 134 -209 -209 -209 -193 -193 142 -193 -209 -193 -209 -193 -193 -193 -209 -209 -209 -209 540 545 -193 -177 -177 -177 -177 97 -177 99 98 99 180 180 182 -177 -193 -193 -193 187 188 188 191 191 194 196 198 199 -193 -193 202 203 205 210 213 212 -193 -193 -177 115 -193 220 220 221 223 224 -177 0 0 0 0 0
    0 0 0 0 0 0 0 0 0 0 0 0 0 0 0 0 0 0 0 0 0 0 0 0 0 0 0 0 0 0 0 0 0 0 0 0 0 0 0 0 0 0 0 0 0 0 0 0 0 0 0 0 0 0 0 0 0 0 0 0 0 0 0 0 0 0 0 0 0 48 43 40 40 38 37 38 -193 -193 -193 -193 435 -209 -209 -177 -209 -209 0 0 14 16 16 14 14 13 0 0 -225 -225 -225 -225 -225 -225 -225 -225 -225 -225 -225 -225 -225 -225 -225 -225 -225 -225 -225 -225 -225 -225 -225 -225 -225 -225 -225 -225 -225 -225 -225 -225 -225 -225 -225 -225 -225 -225 -225 -225 -225 -225 -225 -225 -225 -225 -225 -225 -225 -225 -225 -225 -225 -225 16 16 11 11 12 11 11 10 9 10 10 10 10 9 9 0 12 -225 -225 -225 -225 32 30 34 38 38 39 38 38 37 42 45 44 43 48 47 50 50 51 51 54 55 56 59 60 61 65 62 63 62 65 67 64 69 69 67 75 78 78 79 79 80 82 83 85 85 85 86 88 96 93 93 94 94 99 -193 102 103 -193 109 111 112 113 112 112 114 116 113 121 -193 -193 -209 -193 -209 129 -193 0 -193 133 134 134 -209 -209 -209 39 37 -193 -193 -209 -177 -209 -209 -209 -193 -209 -193 -209 -209 543 547 -193 -177 -177 -177 -193 98 -177 99 98 99 180 180 182 -177 -193 -193 -193 187 188 188 191 191 193 196 197 198 -193 200 201 -193 205 210 213 212 -193 -193 -177 115 -193 -193 220 220 222 224 -177 0 0 0 0 0
    0 0 0 0 0 0 0 0 0 0 0 0 0 0 0 0 0 0 0 0 0 0 0 0 0 0 0 0 0 0 0 0 0 0 0 0 0 0 0 0 0 0 0 0 0 0 0 0 0 0 0 0 0 0 0 0 0 0 0 0 0 0 0 0 0 0 0 0 0 54 47 40 40 37 38 -193 -193 -177 -193 -193 436 -209 -193 -177 -209 -209 0 0 15 18 17 16 15 14 0 -225 -225 -225 -225 -225 -225 -225 -225 -225 -225 -225 -225 -225 -225 -225 -225 -225 -225 -225 -225 -225 -225 -225 -225 -225 -225 -225 -225 -225 -225 -225 -225 -225 -225 -225 -225 -225 -225 -225 -225 -225 -225 -225 -225 -225 -225 -225 -225 -225 -225 -225 -225 -225 -225 19 16 17 11 11 12 11 12 10 9 10 10 11 11 10 10 9 12 -225 -225 -225 -225 -177 363 373 38 37 39 38 38 38 43 46 45 44 49 47 50 51 51 51 54 55 56 -193 60 60 64 62 63 62 64 66 63 69 69 66 75 79 79 79 79 80 82 83 85 85 86 87 88 97 93 93 94 94 99 102 102 103 -193 109 112 112 113 112 113 115 117 114 -193 -193 -193 -209 124 -209 128 -193 0 -193 133 134 134 -209 -209 -209 39 37 -193 -193 -193 -209 -209 -209 -209 -193 -209 -193 -209 -209 -193 -193 -193 -177 -177 -193 -193 98 -177 99 98 99 179 179 181 -177 -177 -193 -193 186 188 188 191 191 193 196 197 198 -193 -193 201 203 205 210 214 213 -193 -193 111 114 -193 -193 -193 220 222 223 -177 0 0 0 0 0
    0 0 0 0 0 0 0 0 0 0 0 0 0 0 0 0 0 0 0 0 0 0 0 0 0 0 0 0 0 0 0 0 0 0 0 0 0 0 0 0 0 0 0 0 0 0 0 0 0 0 0 0 0 0 0 0 0 0 0 0 0 0 0 0 0 0 0 0 0 58 58 -209 -209 36 -193 -193 -177 -177 -177 -209 -209 -209 -193 -177 -209 -209 -193 0 16 19 18 18 17 15 -225 -225 -225 -225 -225 -225 -225 -225 -225 -225 -225 -225 -225 -225 -225 -225 -225 -225 -225 -225 -225 -225 -225 -225 -225 -225 -225 -225 -225 -225 -225 -225 -225 -225 -225 -225 -225 -225 -225 -225 -225 -225 -225 -225 -225 -225 -225 -225 -225 -225 -225 -225 -225 -225 -225 18 16 17 12 13 13 12 12 10 10 11 10 11 10 10 10 9 12 -225 -225 -225 -225 -177 365 373 36 35 39 38 38 38 42 47 45 45 48 47 49 51 51 51 53 55 56 -193 60 60 64 62 63 62 63 66 63 68 68 65 74 78 78 78 79 80 82 84 85 85 86 87 88 97 93 93 93 94 98 101 102 103 -193 109 112 113 114 113 114 115 117 115 -193 -193 -193 -209 124 -209 -177 -193 0 -193 133 134 134 -209 -209 -209 39 -193 -193 -193 148 -209 -209 -209 -209 -209 -209 -193 -209 -209 -193 -193 549 -193 -177 -193 -193 98 -177 -177 98 -193 179 179 181 181 182 -193 -209 186 188 188 191 192 194 196 197 -193 -193 201 202 204 206 210 214 213 215 -193 111 114 -193 -193 -193 220 221 223 -177 0 0 0 0 0
    0 0 0 0 0 0 0 0 0 0 0 0 0 0 0 0 0 0 0 0 0 0 0 0 0 0 0 0 0 0 0 0 0 0 0 0 0 0 0 0 0 0 0 0 0 0 0 0 0 0 0 0 0 0 0 0 0 0 0 0 0 0 0 0 0 0 0 0 0 61 62 62 -193 -193 -193 -193 -193 -193 -193 -209 -209 -209 -209 -209 -209 -209 -209 -177 18 21 20 20 20 18 0 -225 -225 -225 -225 -225 -225 -225 -225 -225 -225 -225 -225 -225 -225 -225 -225 -225 -225 -225 -225 -225 -225 -225 -225 -225 -225 -225 -225 -225 -225 -225 -225 -225 -225 -225 -225 -225 -225 -225 -225 -225 -225 -225 -225 -225 -225 -225 -225 -225 -225 -225 -225 -225 -225 17 16 17 12 13 13 12 12 10 10 11 10 11 10 10 10 9 12 -225 -225 -225 -225 -177 367 373 33 31 38 39 39 39 42 47 46 45 49 47 49 52 52 52 53 -193 56 -193 60 60 63 62 63 63 63 66 62 68 68 62 74 77 77 78 79 80 82 84 85 85 86 87 88 97 93 93 94 94 98 101 102 103 -193 109 112 112 114 113 114 114 117 114 -193 -193 -193 -177 123 -209 127 0 0 0 133 -193 -193 -209 -193 -193 -193 -193 -193 -193 148 -209 -193 -193 -193 -209 -193 -193 -209 -209 547 -193 549 -193 -193 -193 -193 -193 -177 -193 -193 179 179 178 181 181 182 184 -209 186 188 189 191 192 194 197 197 -193 -193 201 202 204 206 210 214 214 -193 -193 111 114 -193 -193 -193 220 221 223 -177 0 0 0 0 0
    0 0 0 0 0 0 0 0 0 0 0 0 0 0 0 0 0 0 0 0 0 0 0 0 0 0 0 0 0 0 0 0 0 0 0 0 0 0 0 0 0 0 0 0 0 0 0 0 0 0 0 0 0 0 0 0 0 0 0 0 0 0 0 0 0 0 0 0 0 63 64 65 65 -193 -193 -193 -177 -193 -193 -193 -193 -209 -209 -193 -193 60 -209 9 22 24 24 24 24 23 0 -225 -225 -225 -225 -225 -225 -225 -225 -225 -225 -225 -225 -225 -225 -225 -225 -225 -225 -225 -225 -225 -225 -225 -225 -225 -225 -225 -225 -225 -225 -225 -225 -225 -225 -225 -225 -225 -225 -225 -225 -225 -225 -225 -225 -225 -225 -225 -225 -225 -225 -225 -225 -225 -225 -177 -177 -177 13 13 12 12 12 10 10 11 10 10 10 10 10 9 12 -225 -225 -225 -225 368 368 373 -193 28 38 40 40 40 42 48 47 46 49 47 49 52 52 52 53 -193 56 -193 60 60 63 62 63 63 62 66 62 67 67 62 73 77 77 78 79 81 83 85 86 86 87 88 88 97 94 94 94 94 98 101 -193 103 105 109 112 112 115 113 114 114 116 114 -193 -193 -193 -177 -193 -209 -209 0 0 0 -193 -193 -209 -209 -193 -193 -193 -193 -193 -193 149 -209 -193 -177 -177 -193 -209 -193 -209 -209 546 -193 -193 -193 -193 -193 -193 -193 -193 -193 176 178 179 178 181 181 182 184 -209 186 188 189 191 192 194 197 198 -193 -193 202 202 205 206 210 214 214 -193 -193 111 113 -193 -193 -193 219 220 223 -177 0 0 0 0 0
    0 0 0 0 0 0 0 0 0 0 0 0 0 0 0 0 0 0 0 0 0 0 0 0 0 0 0 0 0 0 0 0 0 0 0 0 0 0 0 0 0 0 0 0 0 0 0 0 0 0 0 0 0 0 0 0 0 0 0 0 0 0 0 0 0 0 0 0 0 65 66 66 67 -193 -193 177 -177 -177 -193 -193 -193 -209 -193 61 59 60 59 -209 39 29 38 38 38 38 -209 -209 -225 -225 -225 -225 -225 -225 -225 -225 -225 -225 -225 -225 -225 -225 -225 -225 -225 -225 -225 -225 -225 -225 -225 -225 -225 -225 -225 -225 -225 -225 -225 -225 -225 -225 -225 -225 -225 -225 -225 -225 -225 -225 -225 -225 -225 -225 -225 -225 -225 -225 -225 -225 -225 -177 -177 -177 13 13 12 12 12 9 10 11 10 11 10 10 10 10 13 13 -225 -225 -225 368 368 373 -193 24 39 42 41 41 42 49 47 47 49 47 50 53 53 53 53 -193 57 60 60 60 63 62 63 63 62 66 62 67 67 62 73 76 77 78 80 81 83 85 86 87 88 89 89 96 94 94 95 94 98 101 -193 103 -193 110 112 112 115 113 114 114 116 114 -193 -193 -193 -177 -193 -193 -209 0 0 0 -193 -193 -193 -209 -193 44 -209 95 95 -193 -193 -209 -177 -177 -177 -193 -209 -209 -209 -209 -193 -193 -193 -177 -177 -177 -177 -193 -193 176 176 177 178 178 180 181 182 183 -193 186 188 189 191 192 194 197 198 -193 -193 202 202 205 207 211 214 214 -193 -209 110 113 -193 -193 -193 219 220 222 223 0 0 0 0 0
    0 0 0 0 0 0 0 0 0 0 0 0 0 0 0 0 0 0 0 0 0 0 0 0 0 0 0 0 0 0 0 0 0 0 0 0 0 0 0 0 0 0 0 0 0 0 0 0 0 0 0 0 0 0 0 0 0 0 0 0 0 0 0 0 0 0 0 0 0 66 67 67 68 -193 -193 178 177 -193 -193 67 67 66 62 62 60 61 59 59 44 42 42 43 43 43 43 42 -225 -225 -225 -225 -225 -225 -225 -225 -225 -225 -225 -225 -225 -225 -225 -225 -225 -225 -225 -225 -225 -225 -225 -225 -225 -225 -225 -225 -225 -225 -225 -225 -225 -225 -225 -225 -225 -225 -225 -225 -225 -225 -225 -225 -225 -225 -225 -225 -225 -225 -225 -225 -225 16 -177 -177 13 13 12 12 12 10 11 11 10 11 10 12 11 10 11 10 -225 -225 -225 -177 368 373 20 23 38 41 41 41 41 48 47 46 47 47 49 52 53 53 53 58 58 61 60 60 64 62 64 64 62 65 62 67 67 62 73 75 76 78 79 81 84 86 88 88 90 90 91 97 95 95 95 95 98 100 -177 103 -193 110 112 112 115 113 114 114 116 114 -193 -193 -193 -177 -193 -193 -193 0 0 0 -193 -193 -177 -193 -193 45 -209 -193 96 -193 -193 -209 -177 -193 -177 -209 -193 -209 -193 -209 -209 -177 -193 -177 -177 -177 -177 -193 -193 175 175 176 178 177 180 181 182 184 -193 -193 188 189 191 193 194 197 -193 0 -193 -193 202 206 207 210 214 -193 215 -209 109 112 -193 -209 -193 218 219 221 222 0 0 0 0 0
    0 0 0 0 0 0 0 0 0 0 0 0 0 0 0 0 0 0 0 0 0 0 0 0 0 0 0 0 0 0 0 0 0 0 0 0 0 0 0 0 0 0 0 0 0 0 0 0 0 0 0 0 0 0 0 0 0 0 0 0 0 0 0 0 0 0 0 0 0 67 68 68 68 69 -193 179 178 -193 68 68 68 67 63 63 61 61 59 59 49 46 45 47 48 48 48 47 48 -225 -225 -225 -225 -225 -225 -225 -225 -225 -225 -225 -225 -225 -225 -225 -225 -225 -225 -225 -225 -225 -225 -225 -225 -225 -225 -225 -225 -225 -225 -225 -225 -225 -225 -225 -225 -225 -225 -225 -225 -225 -225 -225 -225 -225 -225 -225 -225 -225 -225 -225 -225 17 17 19 14 14 13 13 14 11 12 13 11 12 11 13 12 11 12 10 0 -225 -225 16 -193 374 18 22 36 39 39 39 41 47 46 46 47 48 49 53 53 53 53 59 59 63 61 61 64 63 64 64 62 66 63 67 68 63 73 74 77 77 79 81 86 88 89 89 92 91 92 97 96 95 95 96 99 100 -177 103 -193 110 112 112 115 112 114 114 116 115 -193 -193 -193 -193 123 -193 -193 0 0 0 -193 -193 -177 -193 -193 46 -209 -193 97 -193 -193 -209 -177 -193 -177 -193 -193 -193 -193 -209 -209 -177 -193 -177 -177 -193 20 -193 174 175 175 176 178 177 180 -193 182 184 -193 -193 188 190 191 193 194 197 197 -193 -193 -193 202 205 207 209 213 -193 215 -209 -209 111 -209 -209 -193 -193 219 -193 221 0 0 0 0 0
    0 0 0 0 0 0 0 0 0 0 0 0 0 0 0 0 0 0 0 0 0 0 0 0 0 0 0 0 0 0 0 0 0 0 0 0 0 0 0 0 0 0 0 0 0 0 0 0 0 0 0 0 0 0 0 0 0 0 0 0 0 0 0 0 0 0 0 0 0 67 68 68 68 69 -193 -193 -193 -193 69 69 69 68 65 64 61 62 60 59 54 54 52 52 52 52 52 51 52 54 -225 -225 -225 -225 -225 -225 -225 -225 -225 -225 -225 -225 -225 -225 -225 -225 -225 -225 -225 -225 -225 -225 -225 -225 -225 -225 -225 -225 -225 -225 -225 -225 -225 -225 -225 -225 -225 -225 -225 -225 -225 -225 -225 -225 -225 -225 -225 -225 -225 -225 -225 17 17 19 14 14 14 14 15 12 14 14 12 13 13 14 12 11 12 10 9 10 -225 17 16 19 18 23 36 37 37 38 40 46 45 45 46 46 47 53 52 51 53 60 59 62 61 61 64 64 65 65 62 66 64 68 70 66 73 76 78 78 79 83 86 87 89 89 92 91 92 97 96 95 96 96 99 100 -177 103 -193 110 111 111 114 112 113 114 116 115 114 -193 -193 -209 124 126 -193 0 -193 0 -193 -193 -177 -209 -209 46 -209 -209 96 -193 36 -193 -193 -193 -177 156 156 -193 -193 -209 -209 -177 -209 -193 -177 -193 -193 -193 175 175 175 175 179 178 180 -193 183 184 186 -193 188 190 190 192 193 196 197 -193 -193 203 202 205 -193 208 213 -193 214 -209 -209 110 -209 -193 217 -193 218 -193 220 0 0 0 0 0
    0 0 0 0 0 0 0 0 0 0 0 0 0 0 0 0 0 0 0 0 0 0 0 0 0 0 0 0 0 0 0 0 0 0 0 0 0 0 0 0 0 0 0 0 0 0 0 0 0 0 0 0 0 0 0 0 0 0 0 0 0 0 0 0 0 0 0 0 0 67 68 68 69 70 69 -193 -193 69 69 69 69 68 66 65 62 63 61 60 57 57 57 54 54 54 54 54 54 55 55 -225 -225 -225 -225 -225 -225 -225 -225 -225 -225 -225 -225 -225 -225 -225 -225 -225 -225 -225 -225 -225 -225 -225 -225 -225 -225 -225 -225 -225 -225 -225 -225 -225 -225 -225 -225 -225 -225 -225 -225 -225 -225 -225 -225 -225 -225 -225 -225 -225 -225 16 18 20 15 16 15 16 16 13 15 14 13 14 13 14 12 11 12 10 9 11 22 18 18 20 20 23 36 36 36 37 39 44 43 43 45 45 46 52 51 51 53 59 59 62 61 61 65 65 66 66 63 67 65 68 71 68 73 77 78 79 81 84 86 88 88 89 91 91 91 95 96 96 96 97 99 100 -193 103 -193 109 110 110 113 111 112 113 115 115 114 -193 -193 -209 124 126 -193 -193 -193 0 -193 132 -177 -209 -209 -193 -209 -209 96 -193 35 -193 -209 -209 -177 157 156 158 159 160 -209 -193 -193 -193 -177 -193 -193 -193 175 175 176 175 179 178 180 -193 183 184 186 -193 188 190 190 192 192 196 197 -193 -209 -193 -193 204 -193 -193 211 -193 213 -193 -193 -193 -193 216 217 -193 -193 -193 -193 0 0 0 0 0
    0 0 0 0 0 0 0 0 0 0 0 0 0 0 0 0 0 0 0 0 0 0 0 0 0 0 0 0 0 0 0 0 0 0 0 0 0 0 0 0 0 0 0 0 0 0 0 0 0 0 0 0 0 0 0 0 0 0 0 0 0 0 0 0 0 0 0 0 0 67 68 68 -193 69 -193 -193 -193 69 69 69 69 68 67 66 63 63 62 61 58 59 58 56 56 57 56 56 56 56 56 56 -225 -225 -225 -225 -225 -225 -225 -225 -225 -225 -225 -225 -225 -225 -225 -225 -225 -225 -225 -225 -225 -225 -225 -225 -225 -225 -225 -225 -225 -225 -225 -225 -225 -225 -225 -225 -225 -225 -225 -225 -225 -225 -225 -225 -225 -225 -225 -225 -225 16 19 19 15 14 14 15 14 13 14 13 12 12 13 14 12 11 12 10 10 10 22 20 19 22 22 24 36 36 36 37 38 42 42 43 44 44 45 50 50 50 53 60 59 62 62 62 65 66 66 66 63 68 66 69 71 70 73 77 80 82 83 85 87 88 88 89 91 90 91 94 96 96 96 97 98 100 103 103 -193 108 109 109 112 111 112 113 115 115 114 -193 -209 -209 -193 126 -193 -193 -193 -193 130 131 -193 -209 -209 -193 -209 -209 97 -193 -177 -193 -209 -209 -193 157 156 158 158 159 160 -193 -177 -193 -177 22 19 -193 -193 -193 176 176 180 179 181 -193 183 184 186 -193 188 190 189 191 191 195 196 -193 -209 -193 -193 202 -209 -209 -193 -209 -193 -193 -193 -193 -193 216 217 216 -193 -193 -193 0 0 0 0 0
    0 0 0 0 0 0 0 0 0 0 0 0 0 0 0 0 0 0 0 0 0 0 0 0 0 0 0 0 0 0 0 0 0 0 0 0 0 0 0 0 0 0 0 0 0 0 0 0 0 0 0 0 0 0 0 0 0 0 0 0 0 0 0 0 0 0 0 0 0 67 68 68 68 69 -193 -193 -193 69 70 70 69 69 68 66 64 64 63 62 59 60 59 57 57 57 56 56 55 55 56 55 -225 -225 -225 -225 -225 -225 -225 -225 -225 -225 -225 -225 -225 -225 -225 -225 -225 -225 -225 -225 -225 -225 -225 -225 -225 -225 -225 -225 -225 -225 -225 -225 -225 -225 -225 -225 -225 -225 -225 -225 -225 -225 -225 -225 -225 -225 -225 -225 20 15 19 18 14 14 14 14 14 13 14 13 12 13 13 13 12 11 13 10 10 10 22 20 21 24 24 24 36 34 34 37 37 40 40 41 42 43 45 49 48 50 53 60 59 61 63 62 66 66 66 66 63 68 67 68 72 71 73 77 82 83 83 85 87 87 88 88 90 90 90 94 97 96 97 97 99 100 -193 103 103 107 108 109 111 110 112 113 115 115 114 -193 -209 -209 -193 126 -193 -193 129 -193 129 130 129 -193 -193 -193 -177 -193 -209 -193 -177 -193 -209 -209 -193 157 156 158 158 159 160 162 -193 -193 -177 21 18 -193 -193 -193 -193 176 180 179 181 -193 183 184 185 186 187 189 189 191 190 194 195 196 198 -193 195 201 -209 -193 29 -193 -193 -209 -193 -193 216 215 216 216 216 -193 -193 0 0 0 0 0
    0 0 0 0 0 0 0 0 0 0 0 0 0 0 0 0 0 0 0 0 0 0 0 0 0 0 0 0 0 0 0 0 0 0 0 0 0 0 0 0 0 0 0 0 0 0 0 0 0 0 0 0 0 0 0 0 0 0 0 0 0 0 0 0 0 0 0 0 0 67 68 68 68 69 69 70 70 69 70 70 69 69 69 67 64 64 63 62 60 61 60 58 58 58 57 56 56 56 56 55 55 -225 -225 -225 -225 -225 -225 -225 -225 -225 -225 -225 -225 -225 -225 -225 -225 -225 -225 -225 -225 -225 -225 -225 -225 -225 -225 -225 -225 -225 -225 -225 -225 -225 -225 -225 -225 -225 -225 -225 -225 -225 -225 -225 -225 -225 -225 -225 18 14 18 15 14 14 13 14 14 13 14 13 13 13 13 14 12 12 13 10 10 10 21 21 23 25 25 25 37 34 34 36 36 38 39 40 41 42 44 46 46 48 53 58 58 60 63 62 65 67 66 66 63 68 67 68 72 72 72 77 82 83 83 84 86 87 88 88 90 90 91 94 97 96 97 97 99 100 -193 103 103 107 108 109 112 110 112 113 115 115 114 -193 -209 -193 -193 126 -209 -193 129 131 129 130 128 132 131 -193 -177 -193 -209 147 -193 -209 -193 -193 -193 157 157 158 159 159 160 162 -177 20 -177 21 18 -193 -193 -193 -193 -193 -193 179 180 -193 -193 -193 185 185 187 189 189 191 190 193 195 196 197 -209 190 197 182 179 -193 174 176 179 -209 216 216 214 216 215 216 -193 -209 0 0 0 0 0
    0 0 0 0 0 0 0 0 0 0 0 0 0 0 0 0 0 0 0 0 0 0 0 0 0 0 0 0 0 0 0 0 0 0 0 0 0 0 0 0 0 0 0 0 0 0 0 0 0 0 0 0 0 0 0 0 0 0 0 0 0 0 0 0 0 0 0 0 0 67 68 68 69 69 69 70 70 70 71 70 69 69 69 67 65 64 64 62 60 61 61 58 57 58 57 55 55 56 56 55 55 55 -225 -225 -225 -225 -225 -225 -225 -225 -225 -225 -225 -225 -225 -225 -225 -225 -225 -225 -225 -225 -225 -225 -225 -225 -225 -225 -225 -225 -225 -225 -225 -225 -225 -225 -225 -225 -225 -225 -225 -225 -225 -225 -225 -225 -225 -225 17 14 18 14 14 13 13 13 13 13 14 12 13 13 13 14 12 12 13 10 10 10 21 -225 24 27 27 27 37 33 33 36 35 37 38 39 40 41 43 46 46 48 53 58 58 60 64 62 65 67 66 66 63 68 68 67 72 72 72 77 83 83 84 84 86 87 88 89 91 90 91 93 97 95 96 97 98 99 103 103 103 107 108 109 112 110 112 113 115 116 114 121 -209 -209 -193 -193 -193 130 128 131 128 130 129 131 131 132 -209 -193 -193 145 147 150 -193 -193 -193 -193 157 158 159 159 160 162 -177 -193 20 21 -193 -193 -193 98 -193 -193 -193 -193 181 -193 -193 -193 185 185 187 189 189 190 189 192 194 195 196 -209 186 186 180 177 -193 174 175 178 182 -209 -209 214 216 215 215 214 -193 0 0 0 0 0
    0 0 0 0 0 0 0 0 0 0 0 0 0 0 0 0 0 0 0 0 0 0 0 0 0 0 0 0 0 0 0 0 0 0 0 0 0 0 0 0 0 0 0 0 0 0 0 0 0 0 0 0 0 0 0 0 0 0 0 0 0 0 0 0 0 0 0 0 0 68 68 68 69 69 70 70 70 70 71 70 70 69 70 67 66 65 65 63 62 62 62 58 59 59 58 56 56 56 56 55 55 55 -225 -225 -225 -225 -225 -225 -225 -225 -225 -225 -225 -225 -225 -225 -225 -225 -225 -225 -225 -225 -225 -225 -225 -225 -225 -225 -225 -225 -225 -225 -225 -225 -225 -225 -225 -225 -225 -225 -225 -225 -225 -225 -225 -225 -225 14 14 13 18 12 13 13 12 12 13 13 13 12 13 13 13 14 13 11 13 10 11 12 -225 -225 26 28 29 29 38 33 33 36 34 35 37 39 40 40 43 45 45 47 53 57 57 59 63 62 65 67 66 66 320 68 68 67 72 72 72 77 82 82 83 84 86 87 87 89 90 90 91 93 97 95 95 97 97 99 102 102 103 106 108 109 112 110 112 113 115 116 114 -193 -209 -209 -193 -193 -209 130 128 131 128 130 130 131 131 133 -209 -193 -193 144 145 148 -193 -177 -193 -193 156 158 159 160 161 -193 -177 -193 21 22 -193 -193 -193 99 -177 -193 -193 -193 181 -193 -193 -193 185 -193 187 189 189 190 189 191 194 194 195 -209 185 184 180 176 -193 174 175 177 -193 -209 -209 214 217 215 214 213 214 0 0 0 0 0
    0 0 0 0 0 0 0 0 0 0 0 0 0 0 0 0 0 0 0 0 0 0 0 0 0 0 0 0 0 0 0 0 0 0 0 0 0 0 0 0 0 0 0 0 0 0 0 0 0 0 0 0 0 0 0 0 0 0 0 0 0 0 0 0 0 0 0 0 0 67 68 68 69 69 69 70 70 70 70 70 70 69 70 67 66 65 66 64 63 63 63 59 60 61 59 56 56 55 55 55 54 54 -225 -225 -225 -225 -225 -225 -225 -225 -225 -225 -225 -225 -225 -225 -225 -225 -225 -225 -225 -225 -225 -225 -225 -225 -225 -225 -225 -225 -225 -225 -225 -225 -225 -225 -225 -225 -225 -225 -225 -225 -225 -225 -225 -225 -225 16 14 14 17 12 12 12 12 12 12 12 12 11 13 13 13 14 13 13 15 12 17 17 -225 -225 -225 31 31 31 38 33 33 36 34 35 36 39 39 39 43 45 45 47 54 58 57 59 65 63 65 67 66 66 321 68 68 67 72 72 72 77 80 81 82 83 85 86 86 89 89 89 90 91 96 94 95 96 96 99 102 102 103 -193 108 109 112 111 113 114 116 116 115 -193 -209 -209 -209 -193 -209 -193 128 130 128 130 130 132 132 133 -193 -193 139 143 144 147 148 -193 153 -193 156 157 159 159 160 -209 -177 -193 -177 -177 -193 -193 98 99 100 99 -193 -193 181 -193 -193 -193 185 -193 187 190 189 190 189 191 193 194 194 -193 184 184 181 178 177 176 177 179 -193 -209 -209 215 217 216 214 213 214 0 0 0 0 0
    0 0 0 0 0 0 0 0 0 0 0 0 0 0 0 0 0 0 0 0 0 0 0 0 0 0 0 0 0 0 0 0 0 0 0 0 0 0 0 0 0 0 0 0 0 0 0 0 0 0 0 0 0 0 0 0 0 0 0 0 0 0 0 0 0 0 0 0 0 67 67 68 69 69 69 70 70 70 70 70 70 68 70 67 66 66 66 65 64 63 64 60 61 62 59 57 57 55 55 55 55 54 53 -225 -225 -225 -225 -225 -225 -225 -225 -225 -225 -225 -225 -225 -225 -225 -225 -225 -225 -225 -225 -225 -225 -225 -225 -225 -225 -225 -225 -225 -225 -225 -225 -225 -225 -225 -225 -225 -225 -225 -225 -225 -225 12 17 16 14 14 16 12 12 13 12 12 11 12 12 11 12 12 12 13 12 12 13 12 -225 -225 -225 -225 -225 34 33 33 38 34 34 36 35 35 36 38 39 39 42 44 44 46 53 57 56 58 65 62 64 67 66 66 321 68 68 67 72 72 72 77 80 81 81 82 84 84 85 88 88 88 89 90 96 94 95 95 95 99 102 101 102 -193 108 110 113 111 114 -193 -193 -193 -193 -193 -193 -193 -209 -209 -209 -193 128 131 128 130 131 132 132 133 -177 138 -193 142 -193 147 148 -193 153 -193 156 156 158 158 160 -209 659 -193 -177 -177 -193 -193 99 100 100 -193 -193 -193 181 -193 -193 -193 185 -193 187 -193 -193 -193 -193 191 194 194 193 -193 184 185 182 179 179 178 180 180 -193 -209 -209 -193 218 217 215 213 214 0 0 0 0 0
    0 0 0 0 0 0 0 0 0 0 0 0 0 0 0 0 0 0 0 0 0 0 0 0 0 0 0 0 0 0 0 0 0 0 0 0 0 0 0 0 0 0 0 0 0 0 0 0 0 0 0 0 0 0 0 0 0 0 0 0 0 0 0 0 0 0 0 0 0 67 67 67 69 68 69 70 69 70 70 70 70 68 69 67 66 66 66 65 64 63 64 60 61 63 60 57 57 55 55 55 55 54 53 -225 -225 -225 -225 -225 -225 -225 -225 -225 -225 -225 -225 -225 -225 -225 -225 -225 -225 -225 -225 -225 -225 -225 -225 -225 -225 -225 -225 -225 -225 -225 -225 -225 -225 -225 -225 -225 -225 -225 -225 16 12 14 18 15 13 14 16 12 12 13 12 11 11 12 12 10 12 12 12 13 12 12 13 -225 -225 -225 -225 -225 -225 36 34 34 39 35 35 37 36 36 37 39 39 39 42 44 45 47 53 57 56 58 64 62 63 66 64 64 320 67 68 66 71 72 72 76 79 80 81 81 83 84 85 88 87 87 88 89 96 94 94 95 94 99 101 101 102 254 108 111 -193 112 -193 -177 -177 -177 671 -193 -177 -193 -209 -209 -209 -193 128 131 -193 131 131 132 133 134 -177 139 141 143 -193 148 148 -193 152 -193 155 156 158 158 159 -193 659 -193 23 25 -193 -193 -193 -193 -193 -193 -193 -193 181 -193 -193 -193 186 -193 188 -193 -193 -193 -209 -209 -193 -193 193 196 184 185 183 181 180 180 181 182 -193 -209 426 -193 218 218 215 214 214 0 0 0 0 0
    0 0 0 0 0 0 0 0 0 0 0 0 0 0 0 0 0 0 0 0 0 0 0 0 0 0 0 0 0 0 0 0 0 0 0 0 0 0 0 0 0 0 0 0 0 0 0 0 0 0 0 0 0 0 0 0 0 0 0 0 0 0 0 0 0 0 0 0 0 67 67 67 69 68 68 70 69 70 70 70 70 68 69 68 66 66 66 65 65 63 64 61 61 63 60 57 57 54 54 54 54 54 52 -225 -225 -225 -225 -225 -225 -225 -225 -225 -225 -225 -225 -225 -225 -225 -225 -225 -225 -225 -225 -225 -225 -225 -225 -225 -225 -225 -225 -225 -225 -225 -225 -225 -225 -225 -225 10 15 12 13 13 11 12 15 14 13 13 15 12 12 12 12 11 10 10 11 10 11 10 11 10 12 12 -225 -225 -225 -225 -225 -225 -225 -225 35 34 38 36 35 37 36 36 37 39 39 40 42 45 46 47 53 57 56 58 63 61 62 64 63 63 -193 66 68 66 71 71 72 76 79 80 80 81 83 84 85 87 87 87 87 88 95 92 93 94 94 98 101 101 102 257 109 111 115 113 -177 -177 -177 -177 672 -193 -177 -177 -209 -209 -209 130 129 -193 -193 131 132 133 134 135 -177 139 142 143 147 148 148 150 152 -193 155 156 158 158 159 572 -193 -193 24 -193 -209 -209 -193 -193 -193 -193 814 -193 181 -193 -193 -209 187 189 189 194 -193 -193 -209 -209 -209 -193 -193 196 185 186 184 182 181 181 183 -193 -209 -193 426 -193 219 219 216 214 215 0 0 0 0 0
    0 0 0 0 0 0 0 0 0 0 0 0 0 0 0 0 0 0 0 0 0 0 0 0 0 0 0 0 0 0 0 0 0 0 0 0 0 0 0 0 0 0 0 0 0 0 0 0 0 0 0 0 0 0 0 0 0 0 0 0 0 0 0 0 0 0 0 0 0 66 67 67 69 68 68 70 69 69 70 70 69 67 69 68 65 66 66 65 65 63 63 61 60 62 61 58 57 53 53 53 53 53 53 48 -225 -225 -225 -225 -225 -225 -225 -225 -225 -225 -225 -225 -225 -225 -225 -225 -225 -225 -225 -225 -225 -225 -225 -225 -225 -225 -225 -225 -225 -225 -225 -225 -225 -225 12 11 18 13 14 15 12 12 14 14 13 13 14 11 11 12 12 11 11 11 11 10 12 12 12 10 11 10 11 -225 -225 -225 -225 -225 -225 -225 34 31 38 36 36 37 37 37 38 40 40 41 43 46 48 49 53 57 55 57 62 60 61 63 62 63 62 66 68 66 71 71 72 76 79 78 79 81 82 83 84 87 86 87 87 88 94 92 93 94 93 98 102 101 102 258 109 112 115 -193 674 674 -177 -177 -177 -177 -177 -177 -209 -193 -209 -193 -209 -193 -193 -193 133 134 -193 -209 -193 140 143 144 147 147 148 149 151 -193 155 156 158 159 160 -193 -193 -193 -177 -193 -193 -193 732 -193 -193 -193 -193 -193 180 183 -209 -193 188 192 192 -193 -193 -193 -209 363 -209 -209 -209 -193 185 186 185 183 183 182 185 -193 -209 -193 426 -193 219 220 217 215 215 0 0 0 0 0
    0 0 0 0 0 0 0 0 0 0 0 0 0 0 0 0 0 0 0 0 0 0 0 0 0 0 0 0 0 0 0 0 0 0 0 0 0 0 0 0 0 0 0 0 0 0 0 0 0 0 0 0 0 0 0 0 0 0 0 0 0 0 0 0 0 0 0 0 0 67 67 67 69 68 68 70 68 69 69 69 69 67 68 67 65 66 66 66 66 63 63 61 60 62 61 59 58 53 54 53 53 53 53 49 49 -225 -225 -225 -225 -225 -225 -225 -225 -225 -225 -225 -225 -225 -225 -225 -225 -225 -225 -225 -225 -225 -225 -225 -225 -225 -225 -225 -225 -225 -225 -225 -225 -225 11 11 16 14 13 14 12 12 13 14 13 13 13 11 11 11 12 11 11 11 10 10 12 12 12 10 11 10 10 0 0 0 0 -225 -225 -225 34 31 38 37 36 37 38 38 39 40 41 41 43 47 50 50 53 57 55 57 61 60 61 63 62 62 62 65 67 66 70 71 72 76 78 78 79 81 82 83 84 87 87 87 87 88 94 92 93 93 93 98 102 101 102 -209 109 112 115 114 -177 -177 -177 -177 -177 -193 -193 -177 -209 -193 -209 -193 -193 -209 -209 -193 -193 -193 -209 138 140 140 143 143 147 147 148 149 151 -193 155 157 159 160 161 -193 -193 -193 -193 -193 28 -193 -193 -193 -193 -193 -209 -193 181 -193 -193 -193 191 196 195 -193 -193 113 -193 364 -177 -193 -209 -209 187 187 186 184 184 -193 186 -209 -209 -209 426 -193 219 220 217 215 216 0 0 0 0 0
    0 0 0 0 0 0 0 0 0 0 0 0 0 0 0 0 0 0 0 0 0 0 0 0 0 0 0 0 0 0 0 0 0 0 0 0 0 0 0 0 0 0 0 0 0 0 0 0 0 0 0 0 0 0 0 0 0 0 0 0 0 0 0 0 0 0 0 0 0 66 67 67 69 68 68 69 68 68 68 69 69 66 68 67 65 66 66 66 66 63 63 61 60 61 60 58 57 52 53 53 53 53 52 50 50 49 -225 -225 -225 -225 -225 -225 -225 -225 -225 -225 -225 -225 -225 -225 -225 -225 -225 -225 -225 -225 -225 -225 -225 -225 -225 -225 -225 -225 -225 -225 -225 -225 11 9 14 14 13 13 12 11 12 12 12 13 13 11 11 11 12 11 11 10 10 9 11 13 12 10 11 10 11 0 0 0 0 0 -177 -225 -209 31 37 38 36 37 38 39 39 40 41 42 43 47 51 51 53 58 56 57 61 60 61 63 62 62 62 65 67 66 70 71 72 76 78 78 79 81 82 82 83 87 86 86 87 88 95 93 93 94 92 98 102 102 102 -193 110 112 115 114 -193 -177 -177 -177 -177 -193 -193 -177 -193 -193 -209 129 -177 -193 -209 -193 -193 -209 139 139 141 141 144 144 147 147 148 149 151 154 156 156 159 -193 161 -193 -193 -209 -177 30 29 28 28 -193 -193 28 -193 -193 -177 -193 114 -193 -193 198 198 -193 115 114 -193 366 367 -193 -209 -209 191 188 187 186 186 -193 188 -209 -209 -193 -209 -193 220 220 218 216 216 0 0 0 0 0
    0 0 0 0 0 0 0 0 0 0 0 0 0 0 0 0 0 0 0 0 0 0 0 0 0 0 0 0 0 0 0 0 0 0 0 0 0 0 0 0 0 0 0 0 0 0 0 0 0 0 0 0 0 0 0 0 0 0 0 0 0 0 0 0 0 0 0 0 0 66 66 66 68 67 67 69 67 67 67 68 68 65 67 66 64 66 66 66 66 63 63 61 61 62 60 59 58 52 53 53 53 51 52 50 50 49 49 -225 -225 -225 -225 -225 -225 -225 -225 -225 -225 -225 -225 -225 -225 -225 -225 -225 -225 -225 -225 -225 -225 -225 -225 -225 -225 -225 -225 -225 -225 -225 11 0 12 13 13 13 12 10 11 12 12 13 12 11 10 11 13 12 11 11 10 10 11 13 12 10 11 11 11 9 9 8 0 0 -177 -225 -209 29 37 38 36 37 38 40 40 41 41 42 43 47 51 51 52 58 56 57 61 60 60 62 62 62 62 64 67 66 71 71 72 76 78 78 78 79 80 79 81 85 85 84 85 87 94 93 94 94 93 99 102 102 103 -177 110 112 115 115 -193 -177 -177 -177 -177 -193 -193 -177 -193 -193 -209 128 -177 -193 -177 -177 -193 -209 139 140 141 142 145 144 148 148 149 150 152 155 156 157 160 -193 161 -209 -193 -209 -177 -177 30 29 28 -193 28 29 29 -193 -177 -193 117 -193 -193 -193 -193 115 116 115 -193 368 370 373 -209 -209 -193 189 189 188 189 -193 192 -209 -193 -193 -209 219 220 220 218 216 217 0 0 0 0 0
    0 0 0 0 0 0 0 0 0 0 0 0 0 0 0 0 0 0 0 0 0 0 0 0 0 0 0 0 0 0 0 0 0 0 0 0 0 0 0 0 0 0 0 0 0 0 0 0 0 0 0 0 0 0 0 0 0 0 0 0 0 0 0 0 0 0 0 0 0 65 65 65 68 67 67 69 67 68 67 68 68 65 67 66 64 66 65 65 65 63 63 61 61 62 60 59 58 54 53 53 53 52 51 50 50 50 50 49 -225 -225 -225 -225 -225 -225 -225 -225 -225 -225 -225 -225 -225 -225 -225 -225 -225 -225 -225 -225 -225 -225 -225 -225 -225 -225 -225 -225 -225 -225 11 0 11 12 12 11 11 10 10 11 11 13 12 11 11 12 13 13 12 12 10 10 11 12 10 9 10 10 10 9 9 9 0 0 -177 -209 -209 29 37 40 38 38 39 42 41 41 42 43 43 48 52 51 50 57 57 57 61 60 60 62 62 62 62 64 67 66 71 72 72 75 78 78 78 79 78 79 80 85 84 83 84 87 93 92 93 94 93 99 103 103 103 -177 -193 -193 -193 115 -193 -177 -177 -177 -177 -193 -193 -193 -177 -193 -209 128 -177 -177 -177 -193 -177 -193 140 140 142 143 146 145 149 149 149 151 152 156 156 157 -193 -193 -193 -209 -209 36 -177 -177 31 29 28 -193 27 29 30 -193 -209 -209 119 -193 -193 -193 -193 116 117 116 -193 369 371 374 -209 -209 -209 191 191 191 192 -193 196 -209 -193 -193 -193 218 219 219 217 216 217 0 0 0 0 0
    0 0 0 0 0 0 0 0 0 0 0 0 0 0 0 0 0 0 0 0 0 0 0 0 0 0 0 0 0 0 0 0 0 0 0 0 0 0 0 0 0 0 0 0 0 0 0 0 0 0 0 0 0 0 0 0 0 0 0 0 0 0 0 0 0 0 0 0 0 65 65 65 67 67 66 69 67 68 67 68 68 65 66 66 64 65 64 65 64 62 62 61 60 62 60 60 59 57 55 54 54 53 52 51 50 50 50 49 49 -225 -225 -225 -225 -225 -225 -225 -225 -225 -225 -225 -225 -225 -225 -225 -225 -225 -225 -225 -225 -225 -225 -225 -225 -225 -225 -225 -225 -225 11 0 10 11 12 12 11 10 10 10 11 13 11 10 10 11 12 12 12 11 10 10 11 12 11 9 10 10 11 9 9 9 0 0 14 23 -209 26 36 40 38 38 39 42 42 42 42 43 43 48 52 52 48 57 57 57 60 59 60 62 61 62 62 63 67 66 70 71 71 76 79 78 78 79 79 80 80 84 84 83 84 87 92 92 -193 94 94 99 -193 -193 -193 -177 -193 -193 -193 115 -193 -177 -177 -177 -177 116 118 -209 -177 -193 -209 128 -177 0 -177 -193 -193 -177 140 141 142 144 147 146 150 150 150 152 153 157 157 157 -193 -193 -193 -209 -209 29 -177 29 30 28 28 27 27 29 29 -193 -193 -209 119 -193 -193 -193 -193 -193 -193 -193 -193 369 372 -193 -209 -209 -193 194 194 197 -193 -193 -193 209 -193 -193 -193 218 218 218 217 216 217 0 0 0 0 0
    0 0 0 0 0 0 0 0 0 0 0 0 0 0 0 0 0 0 0 0 0 0 0 0 0 0 0 0 0 0 0 0 0 0 0 0 0 0 0 0 0 0 0 0 0 0 0 0 0 0 0 0 0 0 0 0 0 0 0 0 0 0 0 0 0 0 0 0 0 64 65 64 67 67 66 68 67 67 66 68 68 66 66 67 65 65 64 65 63 62 62 61 60 61 60 60 59 57 55 54 54 52 51 51 50 50 50 49 49 -225 -225 -225 -225 -225 -225 -225 -225 -225 -225 -225 -225 -225 -225 -225 -225 -225 -225 -225 -225 -225 -225 -225 -225 -225 -225 -225 -225 -225 12 0 11 11 12 12 11 10 10 10 10 12 11 10 10 10 12 11 12 11 9 9 10 11 11 9 10 10 11 9 9 9 0 9 13 21 -209 24 32 38 36 36 38 41 41 42 42 43 43 48 52 52 48 57 58 57 60 60 60 63 62 62 63 63 67 66 70 71 70 75 78 77 78 79 79 81 81 85 84 84 86 87 92 92 -193 94 94 99 104 -193 -193 -193 -193 110 112 115 114 -193 -193 -193 -193 114 117 -193 -193 -193 -209 128 -193 -193 0 -193 -193 -177 -193 141 -193 145 148 147 150 149 -193 -193 153 157 157 156 -193 -193 -193 -209 -193 25 24 27 29 28 28 26 27 28 28 -193 -193 -193 119 -193 -193 -193 -177 -193 -193 -193 -193 -193 -193 -209 -193 -193 -193 198 197 201 -193 -193 204 210 213 216 217 218 218 218 217 217 218 0 0 0 0 0
    0 0 0 0 0 0 0 0 0 0 0 0 0 0 0 0 0 0 0 0 0 0 0 0 0 0 0 0 0 0 0 0 0 0 0 0 0 0 0 0 0 0 0 0 0 0 0 0 0 0 0 0 0 0 0 0 0 0 0 0 0 0 0 0 0 0 0 0 0 62 63 62 64 65 64 67 66 66 65 67 67 66 65 67 65 65 64 65 63 62 61 61 60 60 60 60 59 58 55 54 53 52 51 51 51 49 49 49 49 48 -225 -225 -225 -225 -225 -225 -225 -225 -225 -225 -225 -225 -225 -225 -225 -225 -225 -225 -225 -225 -225 -225 -225 -225 -225 -225 -225 -225 10 0 10 10 10 10 11 9 10 10 10 12 12 11 11 11 13 12 13 11 9 9 9 10 10 0 9 9 10 9 9 9 0 9 13 19 22 24 31 36 34 35 38 41 41 42 43 43 44 49 52 52 48 57 60 58 61 61 61 63 63 63 64 63 67 66 69 71 70 75 78 77 78 79 80 82 82 85 86 86 88 89 93 94 -193 95 95 99 104 104 104 -193 109 110 111 115 113 115 114 115 -193 112 116 115 -177 -209 -209 128 -193 -209 0 -193 -193 -193 -209 141 -193 -193 -209 146 -193 -209 -193 -209 -193 158 157 156 -193 -193 159 -209 -193 23 22 25 27 27 -177 25 26 27 -193 -193 174 -193 -177 -193 196 199 203 -177 -177 205 -193 -193 -193 -193 203 202 203 201 200 203 203 206 207 211 213 215 216 217 217 218 217 217 219 0 0 0 0 0
    0 0 0 0 0 0 0 0 0 0 0 0 0 0 0 0 0 0 0 0 0 0 0 0 0 0 0 0 0 0 0 0 0 0 0 0 0 0 0 0 0 0 0 0 0 0 0 0 0 0 0 0 0 0 0 0 0 0 0 0 0 0 0 0 0 0 0 0 0 59 60 60 61 63 62 63 64 64 64 66 66 65 65 66 65 65 64 64 63 62 61 60 60 60 59 60 59 57 55 53 52 51 50 51 50 49 48 47 48 48 47 -225 -225 -225 -225 -225 -225 -225 -225 -225 -225 -225 -225 -225 -225 -225 -225 -225 -225 -225 -225 -225 -225 -225 -225 -225 -225 -225 13 0 10 11 11 11 11 9 10 10 10 12 11 11 11 11 12 12 13 12 10 9 9 10 10 0 9 0 10 9 10 10 9 9 14 20 22 24 30 34 34 35 37 41 41 42 43 44 44 49 52 52 47 56 61 59 61 62 62 63 63 64 64 63 66 65 67 70 70 75 79 77 78 80 81 83 84 86 87 88 90 91 94 96 95 96 96 99 103 -193 -193 -193 -193 109 110 114 112 114 112 114 114 111 115 114 -177 -193 -209 128 -193 -193 -193 0 -193 -193 -209 -209 -177 -209 -209 -209 -209 -209 -193 -209 -209 159 158 156 -193 -193 -193 -193 -193 22 21 24 26 26 26 24 26 26 -193 -193 -177 -177 -177 -193 195 198 -177 -177 205 204 202 201 -193 -193 203 202 203 202 202 204 205 208 209 212 212 214 215 217 217 217 217 217 219 0 0 0 0 0
    0 0 0 0 0 0 0 0 0 0 0 0 0 0 0 0 0 0 0 0 0 0 0 0 0 0 0 0 0 0 0 0 0 0 0 0 0 0 0 0 0 0 0 0 0 0 0 0 0 0 0 0 0 0 0 0 0 0 0 0 0 0 0 0 0 0 0 0 0 57 58 58 59 60 59 60 61 63 63 66 66 65 65 65 65 65 63 64 62 62 61 60 60 60 59 60 59 58 55 53 52 50 50 50 50 47 48 45 46 46 46 45 -225 -225 -225 -225 -225 -225 -225 -225 -225 -225 -225 -225 -225 -225 -225 -225 -225 -225 -225 -225 -225 -225 -225 -225 -225 -225 12 0 9 12 11 10 11 10 11 10 11 12 12 12 12 12 12 12 13 12 10 9 9 10 10 0 9 0 10 9 11 10 9 10 14 18 20 23 29 32 32 33 37 40 41 42 42 43 44 49 52 52 47 56 63 60 61 62 63 64 64 64 64 62 66 65 66 68 69 75 78 77 79 81 81 83 84 -193 -209 -193 91 92 95 98 96 97 97 98 103 -193 -193 -193 -177 109 110 114 111 113 111 112 112 110 113 112 -177 -209 -209 -193 -193 -193 -193 0 0 -209 -209 -193 -177 -209 -209 -209 -209 -209 -193 -209 -209 160 158 157 159 -193 -193 -193 20 21 19 23 24 24 -177 -193 -193 -209 -193 177 -177 -177 -193 188 194 196 199 201 203 202 -193 -193 -193 -193 202 202 203 202 202 204 205 208 209 212 212 213 214 216 216 217 217 217 217 0 0 0 0 0
    0 0 0 0 0 0 0 0 0 0 0 0 0 0 0 0 0 0 0 0 0 0 0 0 0 0 0 0 0 0 0 0 0 0 0 0 0 0 0 0 0 0 0 0 0 0 0 0 0 0 0 0 0 0 0 0 0 0 0 0 0 0 0 0 0 0 0 0 0 56 57 57 58 59 57 58 60 63 63 66 67 64 66 65 64 64 62 62 61 61 60 59 59 59 59 59 58 58 55 54 53 51 49 49 49 46 46 45 44 44 44 44 43 -225 -225 -225 -225 -225 -225 -225 -225 -225 -225 -225 -225 -225 -225 -225 -225 -225 -225 -225 -225 -225 -225 -225 -225 10 10 0 0 9 10 9 10 10 10 10 10 11 11 11 11 11 12 11 13 12 10 9 9 10 9 0 9 9 11 10 11 11 10 12 15 18 19 23 29 31 31 32 36 40 41 42 43 43 44 49 52 51 46 56 63 60 61 63 64 64 64 65 65 63 66 66 66 69 70 75 79 78 79 82 82 85 -193 -193 -209 -193 91 93 94 99 -193 96 97 97 103 -177 -177 -177 -177 109 110 114 111 112 111 111 112 109 112 112 -209 -209 -193 -193 -193 -193 -193 0 0 -209 -209 660 -193 -209 -209 -209 -209 -209 -193 -193 -209 160 158 157 158 158 -193 16 18 20 18 22 23 23 23 -193 -209 -193 -177 -177 -177 -177 -209 -177 -177 -177 198 -193 201 201 -193 -193 -209 -193 -193 201 202 201 -193 204 205 207 209 211 211 211 213 215 215 216 217 217 216 0 0 0 0 0
    0 0 0 0 0 0 0 0 0 0 0 0 0 0 0 0 0 0 0 0 0 0 0 0 0 0 0 0 0 0 0 0 0 0 0 0 0 0 0 0 0 0 0 0 0 0 0 0 0 0 0 0 0 0 0 0 0 0 0 0 0 0 0 0 0 0 0 0 0 57 57 58 58 59 57 57 59 62 63 65 67 64 66 65 64 63 62 62 61 61 61 59 59 59 59 59 58 58 55 53 53 51 48 47 48 45 45 44 43 43 42 42 41 39 -225 -225 -225 -225 -225 -225 -225 -225 -225 -225 -225 -225 -225 -225 -225 -225 -225 -225 -225 -225 -225 10 10 10 10 0 13 9 10 9 10 10 11 10 10 11 11 11 11 11 12 11 12 11 10 9 9 9 9 0 9 9 11 10 12 12 12 13 15 19 19 23 29 30 31 32 36 40 41 42 43 43 44 49 51 51 46 55 63 60 60 63 64 64 65 66 66 63 68 68 67 71 72 76 80 79 81 83 84 86 -193 -177 -177 -193 91 93 93 -193 -193 95 97 96 103 -177 -177 -177 -177 108 110 113 111 112 111 111 112 109 112 112 -209 -209 -193 -209 371 -193 -193 0 0 -209 -209 660 -193 -209 -209 -193 771 -209 -193 -193 -209 158 -193 -193 157 -193 -193 14 16 19 17 21 -193 22 -193 -193 -193 175 177 -177 -177 -177 184 187 190 192 195 -193 200 -193 -193 -193 -193 -209 -209 -209 -193 -209 -193 203 -193 206 208 210 209 210 212 214 214 215 216 217 216 0 0 0 0 0
    0 0 0 0 0 0 0 0 0 0 0 0 0 0 0 0 0 0 0 0 0 0 0 0 0 0 0 0 0 0 0 0 0 0 0 0 0 0 0 0 0 0 0 0 0 0 0 0 0 0 0 0 0 0 0 0 0 0 0 0 0 0 0 0 0 0 0 0 0 56 57 57 58 58 57 56 58 61 62 64 66 64 66 65 65 63 62 63 61 61 61 59 59 58 58 58 57 57 53 52 52 50 49 47 47 45 45 44 43 42 41 41 40 37 34 -225 -225 -225 -225 -225 -225 -225 -225 -225 -225 -225 -225 -225 -225 -225 0 0 9 11 10 9 9 9 9 11 17 12 11 10 11 11 12 11 11 11 12 11 12 11 12 11 11 11 10 9 9 9 10 9 10 9 11 11 12 13 11 12 14 16 17 22 27 30 30 32 36 40 41 42 42 43 44 49 51 51 46 55 63 60 60 64 64 65 66 66 66 64 69 69 68 73 73 78 81 81 82 84 86 88 -193 -177 -177 -209 92 93 93 -193 -177 95 96 95 102 -177 -177 -177 -177 108 110 113 111 112 110 111 112 109 112 112 -177 -193 -193 -209 371 -177 -193 0 0 -209 -193 660 -193 -209 -209 767 771 -209 -193 -193 -209 -209 -193 -193 -193 -193 -193 -193 15 17 16 20 -193 -177 -193 -193 -193 174 -177 -177 -177 -177 183 187 189 191 194 196 199 199 197 197 -193 -193 -193 -193 -209 -193 -177 -193 -193 205 207 209 208 209 211 213 214 214 216 216 215 0 0 0 0 0
    0 0 0 0 0 0 0 0 0 0 0 0 0 0 0 0 0 0 0 0 0 0 0 0 0 0 0 0 0 0 0 0 0 0 0 0 0 0 0 0 0 0 0 0 0 0 0 0 0 0 0 0 0 0 0 0 0 0 0 0 0 0 0 0 0 0 0 0 0 56 55 57 57 58 57 56 57 60 61 63 65 64 65 65 65 64 63 63 61 61 61 59 59 58 58 58 57 56 52 51 51 49 48 47 47 45 44 44 43 42 41 39 38 36 34 -225 -225 -225 -225 -225 -225 -225 -225 -225 -225 -225 -225 -225 -225 17 12 10 10 13 12 11 11 12 11 12 18 14 13 13 13 13 13 12 12 11 12 11 11 10 11 10 11 10 9 9 9 10 11 9 10 10 11 11 12 12 11 13 15 18 20 23 28 30 30 31 36 39 39 41 41 42 44 49 52 52 46 56 63 60 60 64 65 66 67 67 67 65 70 70 -193 74 75 80 82 82 83 85 87 88 -209 -193 -177 -193 93 95 94 -193 -193 95 96 94 101 -177 -177 -177 -177 108 110 114 111 112 110 111 112 109 112 -193 -177 -177 -177 -209 371 -177 -193 0 0 -209 -209 660 -193 -193 -209 -209 771 -209 -193 -193 -209 -209 -193 -193 -193 -193 -193 -193 -193 17 16 20 -193 20 -193 -193 -193 173 175 -177 -177 -177 184 187 189 191 193 195 198 198 197 197 -193 -193 -193 -193 -193 -177 -177 -193 -193 204 207 209 207 208 211 213 214 215 217 216 215 0 0 0 0 0
    0 0 0 0 0 0 0 0 0 0 0 0 0 0 0 0 0 0 0 0 0 0 0 0 0 0 0 0 0 0 0 0 0 0 0 0 0 0 0 0 0 0 0 0 0 0 0 0 0 0 0 0 0 0 0 0 0 0 0 0 0 0 0 0 0 0 0 0 0 56 55 57 57 58 57 56 58 60 61 63 64 63 65 64 66 64 63 64 62 62 61 60 60 58 58 57 57 56 52 51 50 49 47 46 47 45 44 43 43 42 40 39 38 36 34 32 -225 -225 -225 -225 -225 -225 -225 -225 -225 -225 -225 18 18 18 13 10 9 12 11 10 10 11 11 10 15 13 12 12 12 12 13 12 12 11 12 11 12 11 13 11 12 12 11 10 10 11 11 9 10 9 11 11 12 12 12 15 17 21 23 25 28 31 30 31 35 38 39 40 41 43 45 49 52 52 47 56 62 59 59 64 65 66 67 67 68 66 70 70 -193 75 74 80 81 82 83 86 88 89 91 -209 -193 93 94 96 94 -193 96 95 95 94 101 -177 -193 -193 -177 108 110 114 111 113 111 113 113 110 113 -193 -193 -209 -193 -209 370 -193 -193 0 0 -209 -209 -177 -209 -193 -209 -209 -193 -209 -193 -193 -209 -193 -193 -193 -209 -209 -193 -193 -193 -193 -193 -193 21 19 -209 -193 -193 173 175 175 174 178 185 -177 189 190 192 193 197 197 196 196 -193 -193 -193 -193 -193 -177 -177 30 27 203 206 209 207 208 211 213 214 215 217 217 215 0 0 0 0 0
    0 0 0 0 0 0 0 0 0 0 0 0 0 0 0 0 0 0 0 0 0 0 0 0 0 0 0 0 0 0 0 0 0 0 0 0 0 0 0 0 0 0 0 0 0 0 0 0 0 0 0 0 0 0 0 0 0 0 0 0 0 0 0 0 0 0 0 0 0 56 55 57 58 58 57 56 57 59 60 62 63 63 65 64 65 64 64 64 62 63 62 60 60 59 58 57 56 55 52 50 50 49 47 46 46 44 44 43 42 41 39 38 37 35 33 33 32 -225 -225 -225 -225 -225 -225 -225 -225 -225 -225 19 19 19 16 10 10 13 12 11 11 11 11 10 14 12 11 12 12 13 13 12 12 11 13 12 12 11 13 12 13 13 12 10 11 11 11 9 10 10 11 11 12 14 12 14 15 21 24 25 28 31 30 31 36 39 39 40 41 43 44 49 53 53 51 56 61 59 58 63 65 65 66 66 67 65 69 70 70 75 74 79 80 82 83 86 88 89 91 -193 -193 94 94 96 95 100 96 95 95 94 100 -193 102 103 -177 109 111 115 112 114 113 115 116 -193 116 -193 -193 -209 -193 -193 -177 -193 -209 0 0 -209 -177 -193 -209 -193 -209 -193 -209 -193 -193 -193 -209 -193 -193 -209 -209 -209 -193 158 159 159 -193 -193 -193 18 -193 -193 171 173 176 176 175 179 186 189 190 190 191 190 196 196 196 195 -193 -193 -193 -193 -193 -177 -177 29 26 -193 206 208 207 208 211 213 214 215 217 218 215 0 0 0 0 0
    0 0 0 0 0 0 0 0 0 0 0 0 0 0 0 0 0 0 0 0 0 0 0 0 0 0 0 0 0 0 0 0 0 0 0 0 0 0 0 0 0 0 0 0 0 0 0 0 0 0 0 0 0 0 0 0 0 0 0 0 0 0 0 0 0 0 0 0 0 55 55 56 57 57 56 56 57 59 60 62 63 63 65 64 65 64 64 65 63 63 62 61 60 59 59 58 57 55 52 50 49 48 46 45 45 44 43 42 42 40 38 37 37 35 34 33 33 33 -225 -225 -225 -225 -225 -225 -225 -225 24 20 20 20 16 11 10 13 12 12 11 12 12 11 14 13 12 12 12 13 12 12 12 11 13 11 12 11 13 12 12 13 13 11 11 12 12 11 11 12 12 11 13 14 13 15 16 21 25 25 27 31 30 32 35 39 39 39 41 44 44 49 53 53 51 56 59 57 57 62 63 65 66 65 66 65 69 70 70 74 74 77 80 83 83 85 87 89 91 -193 -177 -193 94 96 96 99 96 95 95 94 100 102 102 103 -193 109 111 -193 113 115 114 116 117 -193 -193 -193 -209 -193 -193 -209 -177 -177 -209 0 0 -177 -177 -193 -177 -209 -209 -209 -209 -177 145 144 -209 -193 -209 -209 -209 -209 -193 158 159 159 158 160 -193 -193 -193 -193 -193 -193 176 178 177 180 188 191 190 190 190 189 194 -193 195 194 -193 -193 -193 -193 -193 26 28 28 25 -193 205 -193 -193 -193 211 212 214 215 217 217 215 0 0 0 0 0
    0 0 0 0 0 0 0 0 0 0 0 0 0 0 0 0 0 0 0 0 0 0 0 0 0 0 0 0 0 0 0 0 0 0 0 0 0 0 0 0 0 0 0 0 0 0 0 0 0 0 0 0 0 0 0 0 0 0 0 0 0 0 0 0 0 0 0 0 0 55 54 56 57 57 56 55 57 60 60 63 63 63 66 65 66 64 64 65 63 63 63 61 61 59 59 58 56 55 51 49 49 48 46 45 45 44 44 42 41 40 37 35 36 35 33 32 33 33 34 -225 -225 -225 -225 -225 -225 22 23 20 19 20 17 12 10 13 12 11 11 12 11 11 13 12 11 11 11 13 12 12 12 12 14 12 13 13 12 12 12 13 13 11 12 12 12 12 13 13 14 13 13 15 14 17 19 22 26 25 27 32 31 32 36 39 40 40 42 44 45 48 52 52 50 54 57 56 56 61 62 64 65 65 66 65 68 70 70 74 73 76 79 82 82 84 87 88 90 -193 -177 -193 -193 95 95 99 96 95 95 94 100 102 102 103 105 109 111 115 114 115 115 117 118 -193 -177 -193 -209 -193 129 -209 -177 -193 -209 -177 -209 -193 -177 -193 670 -209 -193 -209 142 146 145 144 146 -193 -209 -209 -209 -193 -193 157 159 159 159 160 163 -193 -193 -193 -193 -193 -193 -193 178 181 188 191 190 190 190 188 192 -193 194 193 190 190 190 -193 -193 -193 -177 26 24 23 204 -193 286 -193 210 212 213 214 216 217 214 0 0 0 0 0
    0 0 0 0 0 0 0 0 0 0 0 0 0 0 0 0 0 0 0 0 0 0 0 0 0 0 0 0 0 0 0 0 0 0 0 0 0 0 0 0 0 0 0 0 0 0 0 0 0 0 0 0 0 0 0 0 0 0 0 0 0 0 0 0 0 0 0 0 0 55 54 55 56 57 57 56 59 61 61 64 64 64 66 65 66 64 64 65 63 63 63 61 61 59 59 57 55 53 50 48 48 47 46 45 45 44 44 43 41 40 36 34 35 34 34 32 33 33 33 33 -225 -225 -225 -225 -225 20 22 19 19 19 17 12 10 13 12 11 12 12 12 12 13 12 12 12 12 13 12 12 12 12 15 12 12 12 11 11 12 12 13 11 11 11 12 12 13 14 14 13 14 17 16 18 19 23 27 26 28 34 32 33 36 39 40 40 42 45 45 48 52 53 51 54 56 56 56 60 62 64 64 65 66 65 68 70 69 74 72 75 77 81 80 84 86 87 89 -193 -193 -193 92 94 94 99 96 95 95 94 99 102 102 103 105 109 111 114 114 115 115 117 118 -193 -177 -193 -209 -193 129 -193 -177 -193 -209 -193 125 -193 -177 -177 -177 139 139 -193 143 146 146 144 146 -193 -209 -209 -209 -193 -193 157 159 159 159 160 162 -193 -193 -177 -193 -177 -193 -193 179 181 187 190 189 189 190 188 191 192 193 192 190 189 189 191 194 -193 -193 -193 22 22 -193 -193 286 -193 -193 211 213 214 215 -193 212 0 0 0 0 0
    0 0 0 0 0 0 0 0 0 0 0 0 0 0 0 0 0 0 0 0 0 0 0 0 0 0 0 0 0 0 0 0 0 0 0 0 0 0 0 0 0 0 0 0 0 0 0 0 0 0 0 0 0 0 0 0 0 0 0 0 0 0 0 0 0 0 0 0 0 54 54 55 56 57 57 57 60 61 62 64 64 65 66 65 66 65 64 65 63 63 63 61 61 60 59 58 55 53 50 48 47 47 46 45 45 44 44 43 42 40 36 34 35 34 33 32 32 32 33 33 32 -225 -225 -225 -225 20 22 18 18 18 15 11 10 12 12 11 12 12 12 12 14 12 12 13 13 14 13 13 13 13 17 13 13 12 12 12 12 12 13 11 11 11 12 13 13 13 13 13 14 17 15 17 19 23 29 27 27 34 33 34 37 40 41 41 43 46 46 47 52 53 52 54 57 57 57 61 62 65 64 64 66 65 67 70 69 73 70 73 75 79 78 82 85 87 89 -193 92 93 92 94 94 98 96 95 95 94 99 102 102 103 104 109 111 114 114 115 115 117 118 -193 -177 -193 -177 -193 129 -193 -193 -193 -193 -193 125 -193 -177 -177 -209 139 139 -193 142 146 146 144 146 149 -193 151 -209 -193 370 157 159 159 159 159 162 -193 -193 13 16 -177 -193 -193 179 181 186 189 188 188 -177 -193 190 192 193 192 189 188 188 190 192 -193 -193 -193 21 22 -193 -193 287 -193 -193 210 212 213 -193 -193 211 0 0 0 0 0
    0 0 0 0 0 0 0 0 0 0 0 0 0 0 0 0 0 0 0 0 0 0 0 0 0 0 0 0 0 0 0 0 0 0 0 0 0 0 0 0 0 0 0 0 0 0 0 0 0 0 0 0 0 0 0 0 0 0 0 0 0 0 0 0 0 0 0 0 0 53 51 53 54 55 56 57 61 62 63 65 65 65 66 65 65 64 63 64 62 62 62 61 61 60 58 57 55 52 50 47 47 46 46 45 45 44 44 43 43 41 40 35 36 34 33 32 32 31 31 31 31 30 -225 -225 -225 20 21 18 18 19 15 11 10 12 11 11 12 12 12 12 13 12 12 12 13 14 13 13 13 13 16 13 13 12 11 11 12 12 12 10 10 11 12 12 12 12 13 12 13 15 14 15 19 22 29 27 27 34 34 36 38 40 42 42 44 47 47 47 52 54 52 54 57 57 57 61 61 64 63 64 65 65 66 69 67 71 67 71 72 76 76 80 82 85 89 89 91 93 92 94 94 98 96 96 96 95 98 102 103 103 104 110 111 114 115 115 116 117 118 -193 -177 -177 -177 -193 129 -193 -193 -193 -209 -193 125 -193 -177 -177 -209 138 139 -193 141 145 146 144 145 148 150 151 -209 -193 -193 157 159 160 159 159 -193 -193 -193 13 15 13 13 -177 178 180 185 -193 -193 187 -177 -193 -177 -177 193 192 188 188 188 189 191 193 -193 -193 20 22 -193 -193 288 -193 -193 209 211 213 -193 -193 211 0 0 0 0 0
    0 0 0 0 0 0 0 0 0 0 0 0 0 0 0 0 0 0 0 0 0 0 0 0 0 0 0 0 0 0 0 0 0 0 0 0 0 0 0 0 0 0 0 0 0 0 0 0 0 0 0 0 0 0 0 0 0 0 0 0 0 0 0 0 0 0 0 0 0 53 50 52 53 55 56 58 62 64 64 66 66 66 66 65 65 64 63 63 61 62 61 60 60 59 58 57 55 52 50 47 46 46 46 44 44 44 43 43 42 42 41 36 36 35 33 33 31 30 29 29 29 28 -225 -225 -225 20 21 18 19 19 18 11 10 12 11 12 12 12 13 11 12 11 11 11 12 13 12 11 12 12 15 12 12 11 9 10 11 11 12 10 10 10 12 12 12 12 12 11 12 13 13 13 16 22 29 27 28 34 36 37 38 41 42 43 44 48 47 47 52 54 53 54 56 57 57 61 61 64 62 63 64 64 64 68 65 69 64 69 70 73 74 78 78 83 87 88 90 93 91 93 94 99 96 96 96 96 98 103 103 103 104 110 111 113 115 115 116 117 118 -193 -177 -177 -177 -193 130 -193 -193 -193 -209 -193 126 130 -177 -193 -209 138 138 -193 140 144 146 144 145 148 150 151 -209 -209 -193 157 159 160 160 -193 -193 13 12 13 15 12 12 -177 178 180 -193 -193 -209 -177 -193 -193 -193 -193 192 192 188 187 187 189 189 191 -193 -193 -193 22 -193 -193 289 -193 -193 -193 211 212 -193 -193 212 0 0 0 0 0
    0 0 0 0 0 0 0 0 0 0 0 0 0 0 0 0 0 0 0 0 0 0 0 0 0 0 0 0 0 0 0 0 0 0 0 0 0 0 0 0 0 0 0 0 0 0 0 0 0 0 0 0 0 0 0 0 0 0 0 0 0 0 0 0 0 0 0 0 0 55 50 50 52 55 56 58 64 65 65 66 66 66 66 64 64 63 62 61 60 60 60 59 59 58 57 57 55 51 50 47 45 45 45 43 43 42 42 41 41 41 41 37 35 34 33 32 32 30 29 29 28 27 26 24 20 19 18 17 17 18 15 10 9 10 10 10 11 11 12 10 10 10 9 9 11 11 11 10 11 12 15 13 13 11 10 10 11 11 12 10 10 10 12 13 12 12 13 12 12 13 13 11 11 19 25 25 25 32 36 37 39 42 44 44 45 48 48 47 52 53 52 54 56 57 57 61 61 63 62 63 64 64 63 67 63 67 62 67 69 71 72 76 77 81 86 87 88 92 90 92 93 99 96 96 96 96 98 103 103 103 104 110 111 113 -193 115 116 117 118 -177 -177 -177 -177 -177 -193 -193 133 -193 -209 -193 127 131 -177 -193 -193 138 -193 -193 140 144 146 144 145 148 -193 151 -209 -193 154 156 159 160 160 -193 -193 13 12 13 15 12 12 13 178 179 -193 -209 -209 -177 -177 -193 -193 -193 -193 191 188 186 187 188 188 190 193 -177 -193 -193 -193 22 289 287 -193 -193 210 212 -193 385 -193 0 0 0 0 0
    0 0 0 0 0 0 0 0 0 0 0 0 0 0 0 0 0 0 0 0 0 0 0 0 0 0 0 0 0 0 0 0 0 0 0 0 0 0 0 0 0 0 0 0 0 0 0 0 0 0 0 0 0 0 0 0 0 0 0 0 0 0 0 0 0 0 0 0 0 53 45 43 45 49 51 57 63 64 65 66 66 66 66 64 63 62 60 59 58 58 58 57 57 57 53 52 53 48 47 45 44 43 43 43 42 42 41 41 40 40 40 38 37 35 34 32 33 30 29 29 27 26 25 23 20 19 16 16 16 18 15 9 0 0 10 10 11 11 12 11 11 10 9 9 11 12 12 10 11 12 14 13 13 11 9 10 11 11 11 10 10 11 13 13 13 13 14 13 13 13 13 10 11 15 19 20 23 30 36 38 40 44 44 44 45 48 48 46 52 53 52 54 56 58 57 62 61 63 62 63 64 64 62 67 62 67 61 67 69 71 72 75 75 80 85 86 88 91 90 91 92 98 96 96 96 97 98 103 -177 104 104 110 111 112 115 114 115 115 117 -177 -193 -177 -177 -177 -209 -209 -193 -193 -209 -193 127 -193 -177 -193 -193 138 -193 -177 -193 143 146 144 145 148 151 150 -209 -193 154 156 159 160 161 -193 -193 13 12 12 15 13 12 14 178 179 182 -209 -193 -193 -177 -193 -177 -193 -209 191 187 -193 -193 187 187 188 -177 -177 -193 -193 -193 22 -177 286 -193 -193 208 211 386 385 -193 0 0 0 0 0
    0 0 0 0 0 0 0 0 0 0 0 0 0 0 0 0 0 0 0 0 0 0 0 0 0 0 0 0 0 0 0 0 0 0 0 0 0 0 0 0 0 0 0 0 0 0 0 0 0 0 0 0 0 0 0 0 0 0 0 0 0 0 0 0 0 0 0 0 0 43 39 39 41 42 44 55 61 63 66 65 66 65 65 63 62 61 59 57 57 56 57 55 55 54 45 43 47 45 44 44 43 42 42 42 42 41 41 40 39 39 40 38 38 36 35 33 34 30 29 28 27 26 25 22 19 17 16 17 17 19 16 11 0 0 10 10 10 10 11 12 11 10 10 9 11 12 11 10 10 10 12 12 12 10 0 9 10 10 11 10 10 11 13 14 13 14 14 13 13 13 13 10 11 14 19 20 23 30 36 38 40 43 44 44 44 46 47 45 51 52 50 53 55 59 58 62 61 64 62 63 64 64 62 67 62 66 61 67 69 71 72 74 74 79 84 86 87 90 89 91 91 97 96 96 96 97 98 103 -177 -193 104 110 110 111 114 112 114 114 116 -193 -177 -177 -177 -193 -193 -209 -193 -193 -209 -193 -209 -193 -177 -177 -193 138 -193 -177 -193 142 146 143 145 148 151 150 -193 -209 -193 155 158 160 161 -193 -193 14 12 13 16 14 13 15 178 180 182 -193 -193 -209 -177 -193 -177 -193 -209 -209 -209 -209 -193 -193 -193 187 -177 191 192 -193 198 23 -193 -193 -193 -193 207 210 385 384 -193 0 0 0 0 0
    0 0 0 0 0 0 0 0 0 0 0 0 0 0 0 0 0 0 0 0 0 0 0 0 0 0 0 0 0 0 0 0 0 0 0 0 0 0 0 0 0 0 0 0 0 0 0 0 0 0 0 0 0 0 0 0 0 0 0 0 0 0 0 0 0 0 0 0 0 35 34 32 38 40 42 54 60 62 64 63 64 63 63 61 60 60 58 56 55 54 54 51 52 50 43 42 44 43 43 43 42 41 41 41 41 40 40 39 38 38 39 38 37 35 35 34 35 30 29 27 26 26 25 22 19 15 15 17 16 18 16 10 8 0 10 9 9 9 11 11 10 10 9 9 11 11 11 9 9 10 11 12 11 10 9 9 10 11 10 10 11 11 12 14 12 13 13 13 12 12 12 11 11 14 18 21 23 30 35 37 39 43 43 43 44 45 46 45 51 52 49 52 55 61 59 63 61 64 62 64 64 64 62 67 63 66 61 67 69 71 72 74 74 78 83 85 86 89 89 90 90 96 96 96 96 97 98 103 -193 104 104 109 110 110 114 111 113 112 114 116 -193 -177 -177 -193 -193 -209 204 -209 -209 -193 -209 -209 -177 -177 -193 -193 -193 -177 -193 141 146 143 144 148 151 150 -193 -209 -193 154 158 160 160 -193 -193 16 13 14 17 15 -193 -193 178 -193 181 -193 274 -193 -193 -193 -209 -209 -209 -177 -209 -193 626 629 -193 187 -177 190 191 -193 197 -193 -209 -193 -193 -193 206 209 384 383 -193 0 0 0 0 0
    0 0 0 0 0 0 0 0 0 0 0 0 0 0 0 0 0 0 0 0 0 0 0 0 0 0 0 0 0 0 0 0 0 0 0 0 0 0 0 0 0 0 0 0 0 0 0 0 0 0 0 0 0 0 0 0 0 0 0 0 0 0 0 0 0 0 0 0 0 28 30 31 38 40 42 48 45 57 60 60 61 60 60 59 58 58 57 53 52 51 49 48 50 47 42 42 43 42 41 41 40 40 39 40 40 38 38 38 37 38 38 37 36 34 34 34 35 30 29 27 25 25 24 21 18 15 14 17 16 17 16 11 11 11 11 11 9 9 10 10 11 10 10 10 12 11 11 9 10 10 10 11 11 10 9 10 10 11 10 11 11 11 12 14 12 12 12 12 12 11 12 11 10 13 17 21 22 28 33 37 40 43 44 43 43 45 46 46 51 53 50 54 56 64 60 63 62 65 63 64 65 65 62 66 63 65 61 68 69 70 71 73 73 76 80 83 85 88 88 90 90 95 96 95 95 97 97 103 104 104 104 109 109 110 114 111 113 111 114 115 -193 -193 -177 -177 -177 -209 204 -193 -209 -193 -209 -209 -177 -177 -177 -193 -193 -193 137 140 145 142 144 148 150 149 -193 -193 -193 154 157 159 160 -193 -193 18 15 16 20 18 -193 -193 178 -193 181 -193 273 -193 -193 -193 -209 -209 -193 -177 -177 -193 629 630 -193 -193 -177 190 191 -193 196 -193 -209 -209 -209 -193 206 208 383 383 -193 0 0 0 0 0
    0 0 0 0 0 0 0 0 0 0 0 0 0 0 0 0 0 0 0 0 0 0 0 0 0 0 0 0 0 0 0 0 0 0 0 0 0 0 0 0 0 0 0 0 0 0 0 0 0 0 0 0 0 0 0 0 0 0 0 0 0 0 0 0 0 0 0 0 0 26 31 34 38 39 42 41 40 48 54 56 57 57 57 55 53 55 53 48 47 46 45 45 47 46 42 42 42 42 40 40 39 39 39 39 39 38 37 37 37 37 38 37 36 34 34 34 36 31 29 27 25 24 24 20 17 14 13 18 16 16 15 11 10 10 10 10 0 0 0 9 0 10 9 9 10 10 10 9 10 11 10 11 11 10 10 10 11 11 11 12 11 10 12 13 12 12 12 12 12 12 12 11 11 13 16 21 23 27 33 37 40 43 43 43 43 45 46 46 51 52 49 55 56 64 60 63 63 65 63 65 65 65 62 66 64 65 61 68 69 70 71 73 73 75 78 82 85 88 89 90 90 95 97 96 96 97 96 103 104 104 104 -177 109 110 114 111 113 111 114 115 -193 -193 -193 -177 -177 -209 204 -193 -193 -193 -193 -209 -193 -177 -193 -193 -209 -193 137 139 144 141 143 148 150 149 -193 -193 -193 -193 156 158 159 -193 17 20 17 19 -193 -193 -193 181 179 -193 -177 -193 273 -193 -177 273 -193 -209 -193 -177 -177 -193 631 632 -209 -193 -193 190 191 193 196 199 -209 -209 -209 -193 -193 -193 383 383 -193 0 0 0 0 0
    0 0 0 0 0 0 0 0 0 0 0 0 0 0 0 0 0 0 0 0 0 0 0 0 0 0 0 0 0 0 0 0 0 0 0 0 0 0 0 0 0 0 0 0 0 0 0 0 0 0 0 0 0 0 0 0 0 0 0 0 0 0 0 0 0 0 0 0 0 26 31 36 38 39 41 40 39 41 42 43 45 48 46 43 43 49 45 45 44 43 43 44 45 46 43 42 42 41 40 39 39 38 37 37 38 37 36 37 36 37 37 37 36 34 34 34 36 32 30 28 26 24 24 21 18 14 14 19 16 15 15 11 11 11 10 10 0 0 0 0 0 9 0 9 10 10 9 0 9 10 9 11 10 10 10 10 11 11 11 12 11 10 12 14 12 12 12 13 12 11 12 12 11 14 17 22 23 28 34 38 40 43 43 43 43 44 45 45 49 51 47 54 56 63 60 62 63 65 63 64 65 65 62 66 64 65 62 69 70 71 72 74 74 76 78 82 84 -193 88 90 90 95 97 95 96 97 96 103 104 104 104 -177 109 110 114 111 113 112 114 115 -177 -177 -193 -193 -177 -193 204 -193 -193 -193 -193 277 -193 -177 -193 -193 -209 -209 136 138 144 140 142 148 -193 -193 -193 -177 -193 -193 156 -193 159 -193 18 21 19 21 -193 -193 -193 -193 -177 180 181 -193 272 271 273 274 -193 -209 -193 -177 630 -193 -209 633 -193 -193 -193 190 191 193 196 199 -209 -209 -193 -193 -193 -193 384 -177 -177 0 0 0 0 0
    0 0 0 0 0 0 0 0 0 0 0 0 0 0 0 0 0 0 0 0 0 0 0 0 0 0 0 0 0 0 0 0 0 0 0 0 0 0 0 0 0 0 0 0 0 0 0 0 0 0 0 0 0 0 0 0 0 0 0 0 0 0 0 0 0 0 0 0 0 -193 31 36 37 38 40 39 39 39 39 40 40 40 40 39 40 43 42 44 43 43 43 44 44 46 44 42 41 41 39 39 38 38 37 37 37 36 34 35 35 35 36 37 37 34 34 34 37 33 31 29 27 25 24 21 19 14 14 18 16 15 14 11 10 10 9 9 0 0 0 0 0 9 9 10 10 10 10 0 10 10 10 11 10 10 11 11 12 11 11 12 12 11 12 15 12 12 12 14 12 12 12 12 12 14 18 22 23 27 32 36 39 42 41 41 41 43 44 44 47 49 45 53 56 63 60 62 63 65 63 65 65 65 62 66 65 65 63 71 71 -193 73 75 76 76 78 82 83 -193 88 89 89 94 98 95 96 97 96 102 103 103 103 -177 109 110 114 111 113 112 114 116 -177 -177 -193 -177 -177 202 204 -209 -177 -177 -209 278 -193 -177 -209 -209 -193 -209 135 137 144 140 143 148 -193 -193 -193 -177 -193 -193 156 -193 -193 -193 18 21 20 21 -193 -193 -193 -193 -177 -177 -177 -193 272 271 274 276 -193 -209 -209 -177 632 -193 634 635 636 -193 -193 190 192 194 196 199 -209 -209 202 -193 -193 -193 384 -177 -177 0 0 0 0 0
    0 0 0 0 0 0 0 0 0 0 0 0 0 0 0 0 0 0 0 0 0 0 0 0 0 0 0 0 0 0 0 0 0 0 0 0 0 0 0 0 0 0 0 0 0 0 0 0 0 0 0 0 0 0 0 0 0 0 0 0 0 0 0 0 0 0 0 0 0 -209 33 37 37 38 40 39 38 38 38 38 38 39 39 37 38 41 40 43 42 42 43 42 42 45 44 41 39 40 37 37 37 37 35 34 36 34 31 32 32 32 31 33 34 31 31 31 36 32 31 29 27 25 24 21 18 14 14 18 16 15 13 10 9 9 0 0 0 0 0 0 0 9 9 10 10 11 10 9 10 10 10 11 11 11 11 12 12 12 12 13 11 10 11 14 11 12 12 14 13 13 13 13 12 14 18 22 23 27 33 36 38 41 40 40 40 41 42 43 45 48 44 51 55 63 60 62 63 65 64 65 65 65 62 66 66 66 65 71 71 -193 73 75 76 76 78 82 -193 -193 -193 90 90 94 99 96 96 97 96 101 103 103 103 -177 109 111 114 112 114 113 116 117 930 -177 -177 -177 -177 203 205 -209 -177 -177 -209 -193 -193 -177 -209 -209 -193 -209 132 -193 -193 -193 -177 -193 -193 -193 -193 -193 -209 -193 155 -193 -193 -193 -193 22 -193 22 -193 27 -193 -193 -193 182 183 -209 273 -193 -193 279 -209 -193 -209 633 634 635 636 636 638 -193 -193 190 192 194 196 199 -209 -193 203 -193 -193 -193 384 -177 -177 0 0 0 0 0
    0 0 0 0 0 0 0 0 0 0 0 0 0 0 0 0 0 0 0 0 0 0 0 0 0 0 0 0 0 0 0 0 0 0 0 0 0 0 0 0 0 0 0 0 0 0 0 0 0 0 0 0 0 0 0 0 0 0 0 0 0 0 0 0 0 0 0 0 0 -209 37 39 38 39 40 39 38 38 38 38 38 38 38 36 35 38 38 41 40 40 41 -209 28 40 40 36 35 36 34 33 34 36 32 31 32 31 27 28 29 28 27 28 30 28 29 29 34 31 31 30 28 25 24 20 17 13 13 17 15 14 12 10 9 9 0 0 0 0 0 0 0 9 9 10 11 12 11 10 11 10 10 11 11 11 11 12 12 11 11 12 10 9 9 11 10 12 12 14 13 14 14 14 13 14 19 23 24 28 34 36 39 40 40 39 39 41 42 42 44 46 43 50 55 62 59 61 62 65 64 65 66 66 62 66 -193 -193 66 71 71 -193 73 75 75 75 77 82 -193 -177 -209 91 91 95 100 96 96 97 96 101 103 103 103 -177 109 112 115 113 115 115 117 118 -193 -177 -177 -177 -177 204 205 -209 -177 -177 -209 -193 -193 -177 -209 -209 -193 -193 -209 -193 -193 -193 -177 -193 -193 -193 -193 -193 -209 -193 155 367 370 -193 -193 -193 -193 -193 29 30 32 -193 -193 -209 -209 -209 -193 -193 -193 281 -193 284 634 634 637 638 637 638 640 -193 -193 190 192 194 196 200 -209 202 203 -193 -193 -193 383 -177 -177 0 0 0 0 0
    0 0 0 0 0 0 0 0 0 0 0 0 0 0 0 0 0 0 0 0 0 0 0 0 0 0 0 0 0 0 0 0 0 0 0 0 0 0 0 0 0 0 0 0 0 0 0 0 0 0 0 0 0 0 0 0 0 0 0 0 0 0 0 0 0 0 0 0 0 -193 -193 -193 39 39 40 39 39 38 38 38 38 37 37 35 33 34 36 40 38 36 -193 14 16 25 -209 26 -193 30 28 29 31 33 28 27 28 27 22 24 -193 -193 -193 25 26 26 27 28 31 29 30 29 28 25 24 19 14 12 12 16 15 13 11 9 9 9 0 0 0 0 0 0 0 9 9 10 10 11 11 10 11 10 10 11 11 11 11 12 12 11 11 11 9 0 0 10 9 10 10 13 12 13 13 14 14 14 19 23 23 29 34 37 39 40 39 39 39 40 41 42 43 44 42 49 55 62 59 61 63 65 65 66 67 66 63 67 -177 132 -193 71 71 -209 73 74 75 75 76 81 -193 -177 -209 91 93 96 101 96 -193 97 95 100 102 103 103 -177 110 112 115 114 116 116 118 119 -193 -193 -177 -177 -177 205 206 -209 -177 -177 -209 -193 -209 -209 -209 -209 -209 -209 -209 -177 967 962 -193 -193 -193 -209 -193 -209 -209 -209 155 366 369 365 -193 -209 -209 -193 33 35 -193 -193 41 45 -209 -209 -209 -193 -193 282 -193 284 636 636 640 640 639 640 642 -193 -193 190 193 194 197 200 203 203 203 205 -193 -193 -193 -177 -177 0 0 0 0 0
    0 0 0 0 0 0 0 0 0 0 0 0 0 0 0 0 0 0 0 0 0 0 0 0 0 0 0 0 0 0 0 0 0 0 0 0 0 0 0 0 0 0 0 0 0 0 0 0 0 0 0 0 0 0 0 0 0 0 0 0 0 0 0 0 0 0 0 0 0 53 43 -209 40 40 41 39 39 38 38 38 37 37 37 35 32 32 35 39 37 31 16 12 13 20 11 19 20 -193 -193 27 30 32 -209 25 24 -193 12 15 -193 242 -193 17 22 23 25 26 28 27 28 28 27 23 23 17 13 12 12 15 14 13 10 0 9 0 0 0 0 0 0 0 0 0 9 10 10 11 11 10 11 11 11 11 12 11 12 12 12 11 11 11 10 0 0 10 9 9 9 12 12 13 13 15 15 16 20 23 23 30 37 39 40 41 40 40 39 40 41 41 43 44 42 48 55 62 59 60 62 64 65 66 66 66 63 66 -177 132 -193 70 71 -209 73 74 75 75 76 80 -193 -177 -209 91 94 96 101 96 -193 97 95 100 102 102 103 -177 110 112 115 115 116 117 119 120 -193 -193 -177 -177 206 -193 -193 -193 -177 -193 -193 -177 -209 -209 -209 -209 -209 -209 -209 964 965 960 959 -177 -177 -209 -209 -193 -193 -193 155 366 369 365 -193 -193 -209 -193 35 -193 -209 42 42 46 -209 -209 -209 -193 -193 283 -209 -193 -193 637 642 642 641 642 643 -193 -193 190 193 195 197 200 203 203 203 205 207 207 -193 -177 -193 0 0 0 0 0
    0 0 0 0 0 0 0 0 0 0 0 0 0 0 0 0 0 0 0 0 0 0 0 0 0 0 0 0 0 0 0 0 0 0 0 0 0 0 0 0 0 0 0 0 0 0 0 0 0 0 0 0 0 0 0 0 0 0 0 0 0 0 0 0 0 0 0 0 0 53 45 -209 39 39 41 39 39 38 38 37 37 37 37 35 31 31 34 37 35 22 11 10 11 12 0 9 14 21 23 26 28 -193 -209 -193 14 0 0 9 -193 -193 0 10 11 14 21 22 25 25 27 27 26 20 21 15 13 11 11 14 13 13 9 0 9 0 0 0 0 0 0 0 0 0 0 9 10 10 11 10 11 11 10 11 11 11 11 12 12 11 11 10 9 0 0 9 0 9 9 12 12 13 14 15 16 17 21 24 -193 32 39 41 41 42 40 40 40 41 42 42 43 44 43 47 55 61 58 59 61 63 64 66 66 66 -177 -177 -177 132 -193 69 -193 -209 73 74 75 75 76 80 -193 -177 -177 91 94 96 101 96 96 97 95 99 102 102 103 -177 109 111 115 115 116 117 119 120 -193 -193 -193 -193 206 -177 703 710 -177 -209 -193 -177 -209 -209 -193 -209 -209 -177 964 962 964 958 -177 -193 -177 365 365 366 365 363 -193 366 368 365 -209 26 -209 -193 37 -193 -209 46 45 49 53 -209 -209 -193 -193 286 -209 -209 -193 637 642 643 642 643 644 -193 -193 190 194 195 197 200 202 202 203 204 206 206 208 -193 -193 0 0 0 0 0
    0 0 0 0 0 0 0 0 0 0 0 0 0 0 0 0 0 0 0 0 0 0 0 0 0 0 0 0 0 0 0 0 0 0 0 0 0 0 0 0 0 0 0 0 0 0 0 0 0 0 0 0 0 0 0 0 0 0 0 0 0 0 0 0 0 0 0 0 0 53 46 -209 39 39 40 39 38 38 38 37 37 37 37 35 30 29 32 34 30 13 9 9 9 0 0 0 10 12 9 11 13 -209 -193 -193 0 0 0 0 0 0 0 0 0 9 12 16 20 22 26 25 23 18 20 14 12 11 11 13 12 12 0 0 0 0 0 0 0 0 0 0 0 0 0 9 10 11 11 10 11 11 11 11 11 11 11 12 12 10 11 10 9 0 0 9 0 9 9 12 12 13 14 15 17 17 21 24 -193 35 39 41 41 41 40 40 40 41 42 41 43 44 43 46 55 59 57 58 61 62 64 65 66 65 -177 -177 -177 132 -193 -193 -193 -209 74 75 76 76 76 81 -193 -177 -177 91 94 96 102 96 97 97 96 99 102 102 102 -177 110 111 115 115 116 117 119 120 -193 -193 -177 -193 205 -177 703 710 -177 -193 -177 -193 -209 -193 -177 -177 -177 -177 963 961 963 958 958 -193 -177 365 365 366 365 363 -193 365 368 365 -193 27 -209 -209 -209 77 -209 52 47 51 -193 -209 -209 -193 290 291 -209 -193 -193 638 643 644 643 643 645 -193 -193 190 194 195 197 199 201 -193 -193 203 -193 205 208 -193 -193 0 0 0 0 0
    0 0 0 0 0 0 0 0 0 0 0 0 0 0 0 0 0 0 0 0 0 0 0 0 0 0 0 0 0 0 0 0 0 0 0 0 0 0 0 0 0 0 0 0 0 0 0 0 0 0 0 0 0 0 0 0 0 0 0 0 0 0 0 0 0 0 0 0 0 54 45 40 39 38 40 39 38 38 37 37 37 37 37 35 30 28 29 29 -193 11 9 0 0 0 0 0 0 0 0 0 0 0 0 0 0 0 0 0 0 0 0 0 0 0 0 10 12 18 24 22 20 16 18 13 11 10 11 11 11 12 0 0 0 0 0 0 0 0 0 0 0 0 0 9 9 11 11 10 11 11 11 11 11 11 11 11 11 10 10 9 9 0 0 9 0 0 9 11 12 13 14 15 17 16 21 25 -193 35 39 40 40 40 40 40 40 41 42 41 43 44 44 46 54 58 57 58 60 62 65 65 66 65 -193 -177 -177 132 131 -193 -193 -193 74 75 76 76 77 81 -193 -177 -177 91 94 96 102 97 97 98 96 99 102 102 103 -177 110 111 114 116 116 118 119 119 -209 -193 -177 -209 -177 -177 703 709 -177 -193 -177 -209 -209 -193 -177 -177 -177 -177 962 960 963 958 958 -193 -177 365 365 366 365 362 -193 365 367 364 -193 29 -209 -193 -193 -193 -209 53 49 52 -193 -193 -209 -209 -209 -193 -209 247 245 638 643 644 643 643 645 -193 188 190 193 195 196 198 -193 -193 -193 202 -193 205 207 -193 -193 0 0 0 0 0
    0 0 0 0 0 0 0 0 0 0 0 0 0 0 0 0 0 0 0 0 0 0 0 0 0 0 0 0 0 0 0 0 0 0 0 0 0 0 0 0 0 0 0 0 0 0 0 0 0 0 0 0 0 0 0 0 0 0 0 0 0 0 0 0 0 0 0 0 0 54 43 40 38 38 40 39 38 38 38 37 37 37 37 36 30 28 30 26 9 11 9 0 0 0 0 0 0 0 0 0 0 0 0 0 0 0 0 0 0 0 0 0 0 0 0 0 0 13 20 17 15 13 15 11 11 10 10 10 10 13 0 0 0 0 0 0 0 0 0 0 0 0 0 0 9 10 11 10 11 11 11 11 11 11 10 11 11 10 10 9 9 0 0 9 0 9 9 11 11 13 14 15 16 16 20 24 25 33 38 38 38 39 40 39 39 41 42 41 44 45 45 45 54 56 56 57 60 62 66 65 66 65 -177 -177 -177 132 131 -193 -193 462 73 74 76 76 76 80 81 -193 -177 90 93 96 101 97 97 98 97 99 102 102 103 -193 -177 111 114 843 116 117 118 119 -193 -209 213 -209 -177 -177 702 709 -177 -209 -177 -209 -209 -177 -177 -177 -177 -177 961 960 962 958 958 -193 626 365 365 365 364 362 -193 -193 -193 -193 -193 29 -193 139 140 -193 -193 54 51 -193 -193 -193 -193 -209 -209 -209 -193 247 246 638 642 644 643 643 645 -193 -193 190 193 194 195 198 -193 -193 -193 -193 -193 204 207 -193 -193 0 0 0 0 0
    0 0 0 0 0 0 0 0 0 0 0 0 0 0 0 0 0 0 0 0 0 0 0 0 0 0 0 0 0 0 0 0 0 0 0 0 0 0 0 0 0 0 0 0 0 0 0 0 0 0 0 0 0 0 0 0 0 0 0 0 0 0 0 0 0 0 0 0 0 55 43 40 39 38 39 39 38 37 37 37 37 37 37 36 32 30 31 23 13 12 10 9 9 0 0 0 0 0 0 0 0 0 0 0 0 0 0 0 0 0 0 0 0 0 0 0 0 11 16 14 13 13 14 11 11 10 10 9 9 14 0 0 0 0 0 0 0 0 0 0 0 0 0 0 9 10 10 10 11 11 11 11 11 11 10 11 11 10 10 9 9 9 9 9 9 9 9 11 11 13 13 14 16 16 20 25 26 34 39 38 38 39 40 40 40 42 43 42 45 46 46 45 53 56 56 57 60 61 66 65 66 65 -177 -177 -177 131 131 -193 -193 -177 -193 73 75 75 75 79 80 -193 -193 89 93 95 101 97 97 98 98 99 102 103 103 -193 -177 111 113 845 115 117 117 118 -193 116 -193 -209 -209 -177 702 708 -177 -193 -193 -209 -209 -177 -177 -177 -177 -177 960 959 962 958 958 -193 626 -193 365 365 364 362 -193 -193 -193 -209 -193 29 -193 140 141 -193 142 54 52 -193 -193 220 220 -209 -209 -209 -193 -193 -193 639 641 644 642 643 644 645 187 189 192 194 195 197 -193 -193 -193 -193 -193 204 207 -193 -193 0 0 0 0 0
    0 0 0 0 0 0 0 0 0 0 0 0 0 0 0 0 0 0 0 0 0 0 0 0 0 0 0 0 0 0 0 0 0 0 0 0 0 0 0 0 0 0 0 0 0 0 0 0 0 0 0 0 0 0 0 0 0 0 0 0 0 0 0 0 0 0 0 0 0 52 44 40 39 37 39 38 37 37 37 37 37 37 37 37 34 32 32 22 14 13 11 10 10 0 0 0 0 0 0 0 0 0 0 0 0 0 0 0 0 0 0 0 0 0 0 0 0 13 16 14 13 13 13 11 11 10 9 9 9 16 0 0 0 0 0 0 0 0 0 0 0 0 0 0 9 11 11 11 12 12 11 12 12 11 10 11 11 10 10 10 10 10 9 10 10 10 10 11 12 13 13 15 17 18 21 26 26 33 38 37 37 39 40 40 41 42 44 43 46 47 47 45 52 55 56 56 60 61 66 65 65 -177 -177 63 -177 131 130 -193 -193 -177 -193 73 75 75 75 78 79 83 -193 88 92 93 100 97 97 98 98 98 102 103 103 103 -177 110 112 845 114 116 115 117 117 114 -193 -193 -193 -177 702 708 -177 -193 -193 -209 -209 -177 -177 -177 -177 -177 -177 -193 -193 957 957 -193 -177 -193 -193 364 363 362 -193 -193 -193 -209 -193 29 -193 141 141 -193 142 -193 52 -193 -193 -193 218 -209 -209 -209 -193 -209 -209 639 641 644 643 643 644 645 187 189 192 194 194 197 -193 -193 -193 -193 -193 204 206 -193 -193 0 0 0 0 0
    0 0 0 0 0 0 0 0 0 0 0 0 0 0 0 0 0 0 0 0 0 0 0 0 0 0 0 0 0 0 0 0 0 0 0 0 0 0 0 0 0 0 0 0 0 0 0 0 0 0 0 0 0 0 0 0 0 0 0 0 0 0 0 0 0 0 0 0 0 51 45 40 38 36 38 38 37 37 37 36 36 36 37 37 36 35 36 21 13 12 11 10 10 9 9 0 0 0 0 0 0 0 0 0 0 0 0 0 0 0 0 0 0 0 0 9 10 14 17 15 13 14 13 12 12 11 9 9 10 17 0 0 0 0 0 0 0 0 0 0 0 9 9 9 9 11 11 12 12 12 12 12 11 12 11 12 11 10 10 10 10 11 10 11 10 11 11 11 11 13 13 15 17 18 21 27 27 32 37 36 37 38 40 40 41 42 44 43 47 48 48 45 52 54 56 56 61 61 65 64 65 -177 -177 62 -193 130 130 -193 68 -177 -177 72 74 74 74 77 78 82 -193 88 91 92 100 96 97 97 98 98 102 103 103 103 -177 109 110 845 112 115 113 115 116 113 -193 -193 -193 -193 701 708 -177 -177 -193 375 -209 -177 -177 -177 -177 -177 -193 -193 -193 -193 957 -193 -177 -193 365 364 363 362 -193 155 155 -209 152 -193 140 142 141 -193 142 -193 53 -193 -193 -209 -209 -209 -209 -209 -193 171 -193 -193 641 645 643 644 645 645 187 189 191 193 193 196 -193 -193 -193 -193 -193 203 205 -193 -193 0 0 0 0 0
    0 0 0 0 0 0 0 0 0 0 0 0 0 0 0 0 0 0 0 0 0 0 0 0 0 0 0 0 0 0 0 0 0 0 0 0 0 0 0 0 0 0 0 0 0 0 0 0 0 0 0 0 0 0 0 0 0 0 0 0 0 0 0 0 0 0 0 0 0 53 47 42 38 36 38 38 36 36 36 36 36 36 37 37 37 37 38 21 13 11 10 9 10 0 9 0 0 0 0 0 0 0 0 0 0 0 0 0 0 0 0 0 0 9 10 11 11 15 18 15 14 14 13 13 12 12 10 10 13 18 10 9 0 0 9 9 9 9 0 9 9 10 10 10 10 11 11 12 12 12 12 12 11 12 11 12 11 10 10 11 10 11 10 11 10 11 11 12 11 12 12 15 16 19 22 28 29 33 37 36 36 38 40 40 41 42 44 44 47 49 49 45 50 54 55 56 60 60 65 63 64 -177 -177 62 65 130 130 -177 67 -177 -177 72 74 74 -193 76 77 81 87 87 91 92 99 96 97 97 98 97 102 -193 103 103 -177 109 110 844 111 114 112 114 114 111 -193 -193 -193 -193 -193 707 -177 -177 -193 374 -193 -209 -177 -193 -193 -193 -193 -193 -193 -193 957 -193 -177 368 365 365 364 -193 -193 155 -193 -193 -193 -193 -193 142 141 -193 142 -209 -209 -209 -209 -209 -209 -193 179 179 172 174 178 -193 -193 645 644 645 645 -193 188 189 191 192 192 195 198 -193 -193 200 -209 202 204 -193 -193 0 0 0 0 0
    0 0 0 0 0 0 0 0 0 0 0 0 0 0 0 0 0 0 0 0 0 0 0 0 0 0 0 0 0 0 0 0 0 0 0 0 0 0 0 0 0 0 0 0 0 0 0 0 0 0 0 0 0 0 0 0 0 0 0 0 0 0 0 0 0 0 0 0 0 56 54 -193 38 35 37 37 36 36 36 36 36 36 37 37 38 38 40 21 13 11 11 0 9 0 9 0 0 0 0 0 0 0 9 0 9 0 0 9 0 0 0 0 0 10 11 12 12 16 18 16 14 14 12 12 11 11 9 9 10 14 11 10 0 9 9 9 10 10 0 10 10 11 11 11 10 12 11 12 13 12 12 12 11 12 11 12 11 10 10 11 11 12 11 12 11 12 12 13 12 13 13 15 16 18 21 27 28 30 36 34 35 37 40 40 -177 42 44 44 47 50 49 45 50 53 56 56 61 61 65 64 64 -177 65 62 65 131 -193 -177 67 462 462 71 -193 -193 -193 -193 77 81 87 -193 91 -193 98 96 96 97 98 97 102 -193 103 103 -177 109 109 844 110 113 111 113 113 110 114 -193 -193 -193 -193 707 -177 -177 -193 373 -177 -209 -209 -193 -193 -209 -193 -193 -193 -193 957 -193 -193 370 365 365 364 -193 -193 155 -193 995 -193 -209 -193 145 142 -193 143 -209 -209 -209 193 184 184 182 181 181 177 176 180 178 -193 646 645 645 646 -193 188 189 191 192 192 195 197 -193 -193 199 -209 -193 204 -193 -193 0 0 0 0 0
    0 0 0 0 0 0 0 0 0 0 0 0 0 0 0 0 0 0 0 0 0 0 0 0 0 0 0 0 0 0 0 0 0 0 0 0 0 0 0 0 0 0 0 0 0 0 0 0 0 0 0 0 0 0 0 0 0 0 0 0 0 0 0 0 0 0 0 0 0 57 -193 -193 37 34 36 37 36 36 36 36 36 36 37 38 39 39 42 -193 13 11 11 9 9 9 9 0 0 0 0 0 9 0 10 9 10 9 9 10 0 0 0 0 0 11 11 13 12 15 17 15 13 14 11 12 11 11 10 10 10 14 11 11 9 9 10 10 10 10 9 10 10 12 12 12 11 12 11 12 13 12 12 13 11 12 11 12 11 10 11 12 11 12 11 12 12 13 13 14 12 13 13 15 16 16 20 26 26 29 35 33 34 36 39 40 39 42 43 43 47 50 49 45 50 53 58 57 62 61 66 64 65 65 65 63 65 -177 -193 -177 67 -193 461 71 -193 -209 -209 75 -193 -177 -209 -209 90 -193 98 97 96 97 98 96 102 -193 -193 -193 -177 109 109 -193 110 113 111 112 112 109 112 -177 109 -193 -193 707 368 369 -193 372 -177 -177 -209 -193 -209 -193 -177 -177 384 -209 957 -193 -193 370 366 365 -193 -193 -193 155 -193 994 995 -209 -193 -193 -193 -193 -193 -209 -209 191 187 183 182 182 182 181 179 177 181 179 181 646 645 645 646 -193 188 189 191 192 192 194 197 -193 -193 200 -209 -193 -193 -193 -193 0 0 0 0 0
    0 0 0 0 0 0 0 0 0 0 0 0 0 0 0 0 0 0 0 0 0 0 0 0 0 0 0 0 0 0 0 0 0 0 0 0 0 0 0 0 0 0 0 0 0 0 0 0 0 0 0 0 0 0 0 0 0 0 0 0 0 0 0 0 0 0 0 0 0 49 52 -193 37 34 36 37 36 36 36 36 36 36 37 38 39 40 44 -193 13 12 12 0 9 9 10 0 9 0 9 9 10 9 11 11 12 10 10 11 9 0 0 10 9 12 12 13 12 15 16 15 13 14 11 12 11 12 11 10 10 13 10 11 9 10 10 10 10 11 10 11 11 12 12 12 11 12 11 12 13 11 11 13 11 12 12 12 11 11 11 12 11 13 11 11 13 13 13 15 12 13 13 15 16 16 20 25 26 28 35 32 33 36 39 39 39 41 42 43 47 50 49 45 50 54 59 58 62 62 67 65 66 66 66 63 65 -193 64 64 67 -193 461 70 -193 73 -209 75 76 79 -193 -193 90 -193 97 97 96 96 98 95 101 -193 -193 103 -177 109 109 -193 110 113 110 111 111 108 111 111 107 117 -193 -177 -177 -177 -177 371 -193 -177 -193 -209 -209 -193 -177 -193 -193 -209 -193 -193 -193 -193 366 -193 -193 151 153 155 -193 -193 994 -209 -209 -209 -193 -193 -193 -193 -193 185 185 183 181 182 181 181 180 178 181 180 181 646 645 645 646 -193 188 189 190 192 192 194 197 -193 -193 200 -209 -193 -193 -193 -193 0 0 0 0 0
    0 0 0 0 0 0 0 0 0 0 0 0 0 0 0 0 0 0 0 0 0 0 0 0 0 0 0 0 0 0 0 0 0 0 0 0 0 0 0 0 0 0 0 0 0 0 0 0 0 0 0 0 0 0 0 0 0 0 0 0 0 0 0 0 0 0 0 0 0 46 53 -193 38 34 36 37 36 36 36 37 36 36 37 38 39 41 44 -193 15 -193 13 9 9 10 10 9 11 10 11 10 11 11 12 12 12 11 11 11 10 0 0 10 10 12 12 13 12 15 16 16 13 14 12 13 12 13 12 11 10 12 10 12 10 10 11 11 11 12 10 11 11 12 12 12 12 12 11 12 12 11 11 12 11 12 11 12 11 11 11 12 11 12 11 11 13 13 12 14 12 13 13 15 16 15 20 25 26 28 35 32 34 35 38 38 38 41 41 42 46 49 49 44 50 54 59 58 62 63 67 65 66 66 66 63 65 65 64 64 67 68 461 70 -193 73 -209 75 76 79 -193 -193 -209 -193 96 96 95 96 97 95 101 -193 103 103 -193 109 110 113 111 112 110 111 111 108 110 110 -193 115 -193 -177 -177 -177 -177 -177 -193 -177 -193 92 92 -193 -193 -193 -193 -209 -209 -193 145 -193 367 -193 150 151 152 -193 -193 -193 -177 -209 -209 -209 -193 -193 -209 188 -193 182 184 182 181 182 182 182 181 179 181 180 181 -193 645 645 -193 -193 188 188 190 191 192 194 197 -193 -193 -209 -209 -193 -193 -193 -193 0 0 0 0 0
    0 0 0 0 0 0 0 0 0 0 0 0 0 0 0 0 0 0 0 0 0 0 0 0 0 0 0 0 0 0 0 0 0 0 0 0 0 0 0 0 0 0 0 0 0 0 0 0 0 0 0 0 0 0 0 0 0 0 0 0 0 0 0 0 0 0 0 0 0 49 54 -193 39 36 37 38 37 37 37 37 37 37 37 38 39 40 43 -209 -193 -209 -193 11 9 11 11 11 13 12 13 12 13 12 13 13 12 11 11 11 10 9 0 11 10 13 12 14 13 15 16 16 14 15 12 14 13 14 13 12 11 12 11 13 11 11 12 12 11 13 11 12 12 12 12 12 11 12 11 12 12 11 11 12 11 12 12 12 11 11 11 12 11 12 11 11 12 12 12 15 12 13 13 15 16 15 21 25 26 28 35 33 34 35 38 38 37 40 40 41 45 49 48 44 49 54 60 58 62 63 67 65 66 67 67 63 66 65 64 64 67 67 461 70 -193 72 -209 74 76 79 -193 -193 -209 -193 95 96 95 96 97 95 101 103 103 104 -193 109 110 114 111 113 111 111 110 -193 109 -193 -193 113 -193 -177 367 -177 -177 -177 -193 -193 -193 92 93 -193 -193 -177 -193 -209 -209 142 144 -193 367 -193 149 150 151 -193 -193 -193 -193 -209 -193 -209 -193 -177 -193 -193 -193 180 183 182 181 182 182 182 182 180 182 181 181 -193 646 646 -193 -193 187 188 190 191 191 194 197 -193 -193 -193 -209 -193 -193 -193 -193 0 0 0 0 0
    0 0 0 0 0 0 0 0 0 0 0 0 0 0 0 0 0 0 0 0 0 0 0 0 0 0 0 0 0 0 0 0 0 0 0 0 0 0 0 0 0 0 0 0 0 0 0 0 0 0 0 0 0 0 0 0 0 0 0 0 0 0 0 0 0 0 0 0 0 49 52 55 40 37 38 38 38 37 37 38 37 37 37 38 39 39 41 -209 -209 -209 -209 -193 10 11 12 12 14 13 14 13 13 12 13 13 12 11 11 11 10 9 9 12 11 14 13 14 13 15 16 16 14 15 12 14 12 14 13 12 11 12 11 12 12 12 12 12 11 13 12 12 12 12 12 12 11 12 11 12 12 11 11 12 11 12 12 12 11 11 11 12 11 12 11 10 12 12 12 14 12 13 13 15 16 15 20 25 26 28 36 33 34 36 38 38 36 39 39 40 44 47 46 43 47 54 60 58 62 63 67 65 66 67 67 64 66 66 64 64 67 67 -177 69 -193 72 -193 74 76 78 -193 -209 -209 -193 95 96 95 96 97 95 102 103 104 104 109 109 110 114 112 113 111 111 111 -193 110 -193 -193 114 -193 -177 -177 -177 -177 -177 -193 -193 -193 92 93 -209 -193 -177 -209 -209 139 141 142 -193 -193 -193 149 149 150 -193 -193 -193 -193 -209 -193 -209 -177 -177 -193 -193 -193 176 181 181 180 182 182 183 183 181 183 182 182 -193 647 -193 -193 -209 187 187 189 191 192 193 197 -193 -193 -209 -209 -193 -193 -193 -193 0 0 0 0 0
    0 0 0 0 0 0 0 0 0 0 0 0 0 0 0 0 0 0 0 0 0 0 0 0 0 0 0 0 0 0 0 0 0 0 0 0 0 0 0 0 0 0 0 0 0 0 0 0 0 0 0 0 0 0 0 0 0 0 0 0 0 0 0 0 0 0 0 0 0 50 53 54 40 38 38 39 38 37 37 38 38 38 38 38 38 39 41 42 -193 -209 -209 -209 -209 13 12 14 17 15 15 14 14 12 13 12 12 11 11 11 11 10 10 12 12 15 13 15 14 15 16 16 14 15 12 14 12 13 13 12 12 11 11 12 12 12 12 12 11 13 12 13 12 12 12 12 11 12 11 12 12 11 11 12 10 11 11 11 11 10 10 11 10 11 10 10 11 11 12 14 12 13 13 14 15 14 20 25 26 28 36 34 35 36 38 38 36 38 39 39 43 46 45 42 46 54 60 58 61 63 67 65 66 68 67 64 66 66 65 65 67 67 -193 69 72 72 71 74 76 78 -193 -209 -209 -193 95 97 96 96 98 95 102 103 104 104 109 110 111 115 113 114 112 -193 -193 -177 -193 -193 -193 115 -193 -177 -177 -177 -177 -177 -193 -209 -193 92 94 -209 -193 -177 135 -193 138 140 141 -193 -193 -193 -193 -193 149 -193 -193 -193 -209 -209 -177 -193 -177 -177 -193 -193 -193 174 179 180 179 182 182 183 183 182 -193 -193 182 -209 647 -193 -193 -209 187 187 189 191 192 193 196 -193 -193 -209 -209 -193 -193 -193 -193 0 0 0 0 0
    0 0 0 0 0 0 0 0 0 0 0 0 0 0 0 0 0 0 0 0 0 0 0 0 0 0 0 0 0 0 0 0 0 0 0 0 0 0 0 0 0 0 0 0 0 0 0 0 0 0 0 0 0 0 0 0 0 0 0 0 0 0 0 0 0 0 0 0 0 -193 53 53 41 38 39 39 39 38 38 39 38 38 38 38 38 39 41 41 36 38 34 36 -209 -193 16 18 19 17 16 14 14 12 13 12 11 11 10 10 11 10 11 13 13 16 14 16 15 16 17 16 14 15 13 14 13 14 14 13 12 11 11 13 12 12 13 12 11 13 12 12 12 12 12 12 11 12 11 12 12 11 11 12 11 11 11 11 10 10 10 11 10 10 10 10 11 11 11 14 12 12 12 14 14 13 19 24 26 28 36 33 34 36 38 37 35 37 38 38 42 44 44 42 46 54 59 58 61 64 67 66 67 68 68 65 67 67 65 65 67 67 67 68 71 72 71 73 76 77 -193 -193 -209 -193 94 98 96 97 98 96 102 103 104 104 108 110 112 115 114 115 113 -177 -193 -177 -193 -193 -193 115 -193 -193 -177 -177 -177 -177 -193 -193 -193 92 95 -193 -193 -193 134 -193 138 140 139 141 -193 -193 -193 146 147 -193 -193 -193 -209 -209 -177 -177 -177 -177 -193 -193 -193 173 176 178 177 181 182 183 183 -193 -193 -209 181 -193 646 -193 -193 -193 -193 187 189 191 192 193 196 -193 -193 -209 -209 117 206 -193 -193 0 0 0 0 0
    0 0 0 0 0 0 0 0 0 0 0 0 0 0 0 0 0 0 0 0 0 0 0 0 0 0 0 0 0 0 0 0 0 0 0 0 0 0 0 0 0 0 0 0 0 0 0 0 0 0 0 0 0 0 0 0 0 0 0 0 0 0 0 0 0 0 0 0 0 -193 53 52 43 39 39 40 40 38 38 40 39 39 39 39 39 39 41 41 36 38 34 36 31 -193 22 22 21 20 18 15 14 12 13 12 11 11 10 10 11 11 11 14 14 18 15 17 16 17 17 17 15 16 13 15 13 14 14 13 11 11 11 12 12 12 13 12 11 13 12 12 12 12 12 12 12 12 11 13 12 12 11 12 11 11 11 11 10 11 10 11 10 10 10 10 11 11 11 14 12 12 13 14 14 12 18 23 25 27 35 33 34 35 38 37 35 37 39 38 41 43 44 42 45 53 59 58 60 64 -193 66 67 69 -193 65 67 68 65 65 67 67 67 68 71 71 -193 73 76 77 -193 -193 -193 90 94 98 96 97 98 96 102 103 104 104 108 110 112 115 115 115 115 -177 -193 -177 -193 -193 -193 -193 -193 -209 -177 -177 -177 -193 -193 -193 -177 -193 -193 -193 -193 -193 134 138 138 139 139 -177 -193 142 -193 144 144 149 -193 151 -209 -209 -177 -177 -177 17 -193 -193 -193 173 174 176 176 179 181 182 -193 341 343 -209 179 -193 645 645 645 -193 -193 187 189 191 193 193 196 -193 -193 -209 -209 116 -193 -193 -193 0 0 0 0 0
    0 0 0 0 0 0 0 0 0 0 0 0 0 0 0 0 0 0 0 0 0 0 0 0 0 0 0 0 0 0 0 0 0 0 0 0 0 0 0 0 0 0 0 0 0 0 0 0 0 0 0 0 0 0 0 0 0 0 0 0 0 0 0 0 0 0 0 0 0 -193 52 52 45 40 40 40 40 39 39 40 39 39 39 39 39 39 40 40 35 38 34 36 33 29 26 25 23 22 19 18 15 14 13 13 12 11 10 10 11 11 11 14 14 17 15 17 16 17 18 18 17 18 15 16 15 16 15 14 11 12 10 11 11 11 12 11 11 13 11 12 12 12 12 12 12 13 11 13 12 12 12 12 11 11 11 11 10 10 9 10 10 10 9 9 11 10 11 13 12 12 12 14 14 12 17 22 25 27 35 33 34 35 38 37 36 37 39 39 41 43 44 42 45 53 59 57 60 64 -193 66 67 69 -193 66 67 68 66 66 67 67 67 68 70 71 -193 -193 75 76 -193 85 87 90 94 99 97 97 99 97 101 103 104 104 107 110 112 115 116 116 -193 -193 -193 -193 -209 -209 -209 -209 -193 -209 -177 -177 -177 -193 -193 -193 -177 -209 -193 -193 -209 133 133 137 138 139 138 -177 -177 -177 143 143 143 147 -193 150 -209 -209 -177 -193 -193 15 -193 -193 173 172 173 175 175 178 180 -193 341 341 343 -209 -193 -193 645 644 644 644 -193 187 189 191 193 193 196 -193 -193 -193 -193 116 -193 -193 -193 0 0 0 0 0
    0 0 0 0 0 0 0 0 0 0 0 0 0 0 0 0 0 0 0 0 0 0 0 0 0 0 0 0 0 0 0 0 0 0 0 0 0 0 0 0 0 0 0 0 0 0 0 0 0 0 0 0 0 0 0 0 0 0 0 0 0 0 0 0 0 0 0 0 0 50 51 51 45 40 40 40 40 38 39 40 39 39 39 39 38 39 40 39 35 37 34 35 34 31 28 27 25 24 20 19 16 14 14 13 12 12 11 10 10 12 12 14 15 18 16 18 18 19 19 19 19 19 17 18 16 17 15 14 12 11 10 10 10 10 11 11 10 12 11 11 12 12 12 12 12 13 12 14 12 13 12 12 11 11 11 10 9 10 9 9 10 10 9 9 10 10 10 12 12 12 12 13 14 12 17 22 26 27 34 34 34 35 38 37 37 37 39 39 41 42 43 42 44 53 57 56 58 62 64 65 67 69 -193 65 67 68 -193 66 67 66 67 67 70 71 -193 -193 75 76 83 85 87 90 94 99 97 98 99 98 102 104 105 105 107 110 112 115 -193 -193 -193 -193 -193 -193 -209 -193 -209 -193 111 -209 -177 -177 -177 -193 -193 -193 -177 -209 -209 -177 -209 133 133 137 138 139 138 -177 -177 -177 -177 143 143 144 -193 149 -209 -209 -193 -193 -193 -193 170 171 172 172 174 175 175 177 -193 -209 342 -177 -177 -193 -209 -193 645 644 644 644 644 -193 189 191 193 193 195 -193 -193 -193 -193 115 -193 -193 116 0 0 0 0 0
    0 0 0 0 0 0 0 0 0 0 0 0 0 0 0 0 0 0 0 0 0 0 0 0 0 0 0 0 0 0 0 0 0 0 0 0 0 0 0 0 0 0 0 0 0 0 0 0 0 0 0 0 0 0 0 0 0 0 0 0 0 0 0 0 0 0 0 0 0 50 51 51 47 40 40 40 40 38 39 41 39 39 39 39 38 38 39 39 34 37 34 35 34 31 29 28 25 25 20 20 16 15 14 13 12 12 11 10 11 12 12 14 17 19 17 18 19 20 20 20 20 20 19 20 17 18 14 14 12 11 10 10 10 10 10 11 10 11 10 11 12 12 12 12 12 13 12 15 12 14 12 12 11 11 11 11 10 10 9 9 10 9 9 9 10 10 10 12 12 11 12 12 14 13 16 22 26 27 34 34 35 35 38 38 37 37 40 40 41 42 43 43 44 52 56 55 57 61 63 -193 67 69 -193 65 67 68 -193 66 67 66 66 67 69 70 -193 -193 75 76 82 85 86 90 93 100 98 98 99 99 102 104 105 105 106 111 112 115 -193 -193 117 116 119 -193 119 -193 -193 118 114 -193 -193 -177 -177 -193 -193 -193 -193 -209 -209 -193 -209 133 133 137 139 139 139 -177 -177 -177 -177 -177 142 143 -209 -193 -209 -209 -193 162 166 -193 170 172 173 173 174 175 175 177 -209 -209 -177 -177 -177 -177 -209 -193 645 645 644 645 644 643 189 192 193 194 195 -193 -193 -193 -209 114 -193 -193 -193 0 0 0 0 0
    0 0 0 0 0 0 0 0 0 0 0 0 0 0 0 0 0 0 0 0 0 0 0 0 0 0 0 0 0 0 0 0 0 0 0 0 0 0 0 0 0 0 0 0 0 0 0 0 0 0 0 0 0 0 0 0 0 0 0 0 0 0 0 0 0 0 0 0 0 48 48 49 47 40 40 41 40 38 39 -193 39 39 39 39 38 38 39 39 34 37 34 34 34 32 29 29 25 26 20 19 15 15 14 13 12 12 11 11 11 13 14 15 19 19 18 19 20 20 20 20 20 19 19 19 16 15 12 12 12 11 11 10 10 10 10 11 11 11 11 11 12 12 12 12 12 13 12 15 13 14 12 12 12 12 11 11 10 11 9 10 10 10 10 10 10 10 11 11 12 12 12 12 15 15 17 22 27 26 33 34 35 36 38 39 38 38 41 41 41 43 44 44 43 51 55 54 56 61 63 -193 67 69 -193 66 67 69 133 66 66 65 66 67 68 69 -193 -193 74 75 81 85 86 90 93 100 98 98 99 99 101 104 105 105 106 110 111 115 846 -193 117 116 119 119 118 -193 -193 117 116 -193 -193 -177 -177 -177 -177 -193 -209 -209 -209 -209 -209 133 133 137 139 139 140 -177 -177 -177 -177 -177 142 -193 -209 -193 -209 -209 -177 166 168 170 171 172 175 175 175 175 174 176 347 -193 -193 -177 -177 -177 -209 -193 646 645 645 645 644 643 -193 192 194 194 196 198 198 200 200 -193 -193 206 -193 0 0 0 0 0
    0 0 0 0 0 0 0 0 0 0 0 0 0 0 0 0 0 0 0 0 0 0 0 0 0 0 0 0 0 0 0 0 0 0 0 0 0 0 0 0 0 0 0 0 0 0 0 0 0 0 0 0 0 0 0 0 0 0 0 0 0 0 0 0 0 0 0 0 0 -193 44 44 45 39 40 40 40 38 38 -193 38 39 39 38 38 38 39 39 34 37 34 34 34 32 29 29 26 26 19 18 14 14 14 13 12 13 12 12 13 15 16 17 20 21 20 20 20 21 21 20 21 19 19 19 15 14 11 11 11 11 11 10 10 11 11 12 11 11 11 11 11 12 12 12 12 12 13 15 13 14 13 13 13 12 12 12 11 12 10 10 10 10 10 10 10 11 11 11 12 12 12 12 16 16 18 22 27 26 32 34 35 36 38 40 39 39 42 42 42 44 45 44 43 51 55 54 56 60 62 65 67 69 -193 66 67 69 132 -193 66 64 65 66 68 69 -193 -193 -193 75 81 86 86 90 92 99 98 98 99 99 100 103 104 104 105 110 111 114 847 -193 116 115 119 118 117 -193 -193 117 117 -193 -193 -177 -177 -177 -193 -193 -193 -193 -193 -209 -209 133 132 137 139 139 139 143 143 142 -177 -177 143 -193 -193 -209 -177 -209 -193 -193 170 171 171 174 177 178 176 175 174 -193 349 -193 -193 -193 -177 -193 -193 -193 -177 645 645 645 644 642 -193 193 195 195 197 199 199 200 201 202 205 206 211 0 0 0 0 0</data></disparity>
</opencv_storage>
