<?xml version="1.0"?>
<opencv_storage>
<gps_time_stamp>301123</gps_time_stamp>
<gps_x>-1.2398440361022949e+001</gps_x>
<gps_y>1.0984817504882812e+001</gps_y>
<gps_z>-2.0515232086181641e+000</gps_z>
<image_time_stamp>291957</image_time_stamp>
<disparity type_id="opencv-matrix">
  <rows>90</rows>
  <cols>320</cols>
  <dt>s</dt>
  <data>
    0 0 0 0 0 0 0 0 0 0 0 0 0 0 0 0 0 0 0 0 0 0 0 0 0 0 0 0 0 0 0 0 0 0 0 0 0 0 0 0 0 0 0 0 0 0 0 0 0 0 0 0 0 0 0 0 0 0 0 0 0 0 0 0 0 0 0 0 0 63 63 63 61 62 62 59 59 58 56 56 55 56 55 55 54 54 54 52 51 53 51 52 53 53 53 51 53 52 47 47 45 43 41 39 36 36 37 36 36 36 36 35 31 36 35 34 36 32 30 30 30 29 32 30 28 26 25 25 25 25 24 22 21 21 21 20 19 19 19 17 15 15 13 12 14 15 16 16 -225 -225 -225 -225 -225 12 15 14 12 12 12 12 15 13 12 10 10 9 10 0 0 0 0 0 0 0 0 0 10 10 10 13 16 14 16 18 16 18 19 19 20 20 22 23 23 26 26 28 28 29 29 29 30 30 28 31 30 32 31 34 35 -177 39 41 41 42 41 52 46 48 51 51 52 51 51 51 49 53 52 50 52 47 56 54 54 56 62 67 65 65 65 68 72 69 69 70 605 605 77 75 75 77 79 79 79 78 81 79 82 82 80 81 85 85 84 84 87 87 90 94 93 96 97 99 99 100 100 102 102 104 105 106 108 111 108 109 111 112 113 114 -193 -193 109 112 113 -193 930 -177 -177 -177 119 121 121 122 122 117 118 118 124 132 134 136 143 139 140 141 143 0 0 0 0 0
    0 0 0 0 0 0 0 0 0 0 0 0 0 0 0 0 0 0 0 0 0 0 0 0 0 0 0 0 0 0 0 0 0 0 0 0 0 0 0 0 0 0 0 0 0 0 0 0 0 0 0 0 0 0 0 0 0 0 0 0 0 0 0 0 0 0 0 0 0 63 63 62 61 61 62 59 59 59 56 56 55 -193 -193 55 55 54 54 53 51 53 51 52 52 52 53 51 52 52 47 46 45 44 42 40 37 36 37 37 36 37 36 36 31 35 35 34 36 32 30 30 30 30 32 30 28 26 26 26 25 25 24 22 21 21 21 20 20 19 19 18 16 15 13 13 13 15 16 17 -225 -225 -225 12 18 11 14 12 11 11 11 11 13 13 12 11 11 10 10 0 0 0 0 0 0 0 0 0 0 0 9 12 14 12 14 16 15 17 18 18 20 20 22 23 23 26 26 27 28 29 28 28 30 30 28 31 30 31 30 35 36 -177 39 40 42 42 42 51 46 47 51 51 52 50 51 51 49 53 52 49 52 51 57 54 54 56 60 65 64 64 63 66 71 68 67 69 605 605 -193 73 73 76 79 78 78 77 80 78 82 82 80 80 85 85 84 84 87 87 90 93 93 96 97 98 99 100 100 102 100 102 101 106 107 110 108 109 109 111 112 -209 -209 -209 -209 111 -193 -193 -177 -177 -177 -177 119 121 121 121 121 115 116 115 122 125 122 135 142 139 140 141 142 0 0 0 0 0
    0 0 0 0 0 0 0 0 0 0 0 0 0 0 0 0 0 0 0 0 0 0 0 0 0 0 0 0 0 0 0 0 0 0 0 0 0 0 0 0 0 0 0 0 0 0 0 0 0 0 0 0 0 0 0 0 0 0 0 0 0 0 0 0 0 0 0 0 0 63 63 62 61 61 62 60 59 59 57 57 55 -193 -193 55 55 54 54 53 51 53 51 51 51 51 52 50 49 51 47 46 46 44 42 40 38 37 37 37 37 37 37 37 32 36 37 35 36 32 30 31 30 30 31 29 29 26 26 26 25 24 23 22 21 21 21 20 20 20 19 19 16 15 13 13 12 14 16 17 -225 -225 14 14 17 12 15 12 11 11 10 10 13 12 11 9 10 9 9 0 0 0 0 0 0 0 0 0 9 9 10 11 13 12 14 15 16 16 17 18 19 20 22 22 23 26 26 -193 27 29 27 28 30 30 28 30 31 31 30 36 37 36 -177 41 42 43 43 51 46 46 51 51 51 50 50 51 49 53 52 50 53 54 57 55 55 56 58 62 63 62 61 63 70 66 66 67 71 606 609 72 72 75 78 78 78 -193 80 78 81 82 80 80 84 84 84 83 86 87 90 93 93 96 96 98 98 99 99 101 96 98 94 -193 106 109 107 108 -193 110 -193 -209 -209 -209 -209 -193 -209 -177 -177 -177 -177 -177 119 120 120 120 120 113 115 115 121 121 120 133 140 138 139 140 141 0 0 0 0 0
    0 0 0 0 0 0 0 0 0 0 0 0 0 0 0 0 0 0 0 0 0 0 0 0 0 0 0 0 0 0 0 0 0 0 0 0 0 0 0 0 0 0 0 0 0 0 0 0 0 0 0 0 0 0 0 0 0 0 0 0 0 0 0 0 0 0 0 0 0 63 63 62 61 61 61 60 59 58 57 57 55 -193 -193 -193 55 54 54 53 50 52 50 50 50 50 51 49 47 50 47 46 45 44 42 40 38 37 37 37 37 37 37 37 33 37 37 35 37 33 30 31 31 30 31 29 29 26 26 26 25 24 23 22 21 21 21 21 21 20 19 20 17 15 13 13 11 13 16 18 -225 -225 15 14 17 13 15 13 10 11 10 11 13 12 12 10 11 10 10 10 10 9 0 0 9 0 9 9 10 10 10 11 12 11 12 13 15 14 16 17 19 20 22 23 24 26 26 27 27 29 27 28 30 30 28 31 32 32 31 37 38 37 41 41 42 43 43 50 46 46 50 50 51 50 50 51 49 53 53 50 54 55 58 56 55 55 57 61 62 61 60 60 70 65 65 66 70 -193 -193 71 72 -193 77 78 77 -177 79 79 80 81 79 80 83 84 84 83 86 87 90 92 93 96 96 97 98 99 98 100 94 95 91 -193 -193 108 106 -193 -193 -193 -209 -209 -209 -209 -209 -209 -209 -177 -177 -177 -177 -177 118 120 120 120 120 112 116 115 121 121 120 130 136 136 138 139 140 0 0 0 0 0
    0 0 0 0 0 0 0 0 0 0 0 0 0 0 0 0 0 0 0 0 0 0 0 0 0 0 0 0 0 0 0 0 0 0 0 0 0 0 0 0 0 0 0 0 0 0 0 0 0 0 0 0 0 0 0 0 0 0 0 0 0 0 0 0 0 0 0 0 0 63 63 62 61 61 61 59 59 58 57 57 56 -193 531 -193 55 54 54 53 50 52 50 49 50 50 51 49 47 49 47 46 45 44 42 40 38 37 38 37 36 37 37 37 34 37 37 35 37 33 31 30 31 30 31 29 29 26 26 26 25 24 23 22 22 21 21 21 21 20 19 20 17 14 13 13 10 13 15 18 -225 16 15 15 17 13 15 13 10 10 9 9 11 11 10 0 10 9 9 10 9 9 9 0 9 0 10 9 10 10 10 10 11 10 12 12 14 15 16 18 20 21 23 23 24 27 26 27 27 29 28 28 30 31 29 33 34 35 33 -193 39 38 41 41 42 44 43 50 47 46 50 50 51 50 50 51 50 53 53 51 56 56 57 55 55 55 56 60 61 60 59 60 69 65 65 66 70 68 71 71 71 -193 76 77 77 -177 79 79 80 81 79 79 81 84 84 82 85 87 90 92 93 96 95 97 97 98 98 99 92 93 89 -209 -193 107 106 -193 -193 -193 -209 -209 -209 -209 -209 -193 -209 -177 -177 -177 -177 -177 -193 119 119 119 119 111 116 115 121 120 120 127 135 135 137 138 139 0 0 0 0 0
    0 0 0 0 0 0 0 0 0 0 0 0 0 0 0 0 0 0 0 0 0 0 0 0 0 0 0 0 0 0 0 0 0 0 0 0 0 0 0 0 0 0 0 0 0 0 0 0 0 0 0 0 0 0 0 0 0 0 0 0 0 0 0 0 0 0 0 0 0 62 62 62 61 60 60 59 58 58 57 57 56 -193 530 -193 -193 55 54 54 51 52 50 49 50 50 50 49 47 48 47 46 45 44 41 40 38 38 38 37 36 37 37 37 34 36 37 34 36 33 31 30 31 30 31 29 28 26 26 26 25 24 22 21 22 21 21 21 21 20 19 20 18 14 12 13 9 12 14 16 -225 12 12 12 14 12 13 12 9 9 0 0 10 10 10 9 10 9 9 10 9 9 9 0 9 0 10 9 10 10 11 10 11 11 12 12 15 15 17 20 21 21 23 24 25 27 27 28 27 29 28 28 30 32 30 34 35 35 34 -193 40 39 41 41 43 44 43 50 48 46 50 50 51 50 50 51 50 53 53 52 56 56 56 55 54 54 56 59 60 60 60 60 69 66 66 66 70 68 70 71 71 -193 76 77 76 -177 78 79 79 81 79 79 80 83 83 82 83 86 89 -193 92 95 94 96 97 98 97 97 -193 -193 88 -193 -193 107 106 -209 -209 -209 -209 -209 -209 -209 -209 -193 -209 -177 -177 -177 -177 -177 116 117 117 118 118 111 118 117 121 121 121 127 134 134 137 138 138 0 0 0 0 0
    0 0 0 0 0 0 0 0 0 0 0 0 0 0 0 0 0 0 0 0 0 0 0 0 0 0 0 0 0 0 0 0 0 0 0 0 0 0 0 0 0 0 0 0 0 0 0 0 0 0 0 0 0 0 0 0 0 0 0 0 0 0 0 0 0 0 0 0 0 62 62 62 61 60 60 59 58 57 57 57 56 -193 -193 -193 -193 -193 54 54 52 53 51 50 51 50 50 49 46 47 47 46 44 43 41 40 39 38 39 38 37 37 37 37 35 36 37 34 36 34 31 30 30 30 31 28 28 26 26 26 25 24 22 21 22 21 20 21 21 20 19 21 18 13 11 12 0 10 11 13 0 9 9 0 0 0 10 9 0 0 0 0 0 9 9 0 9 0 9 11 10 9 10 9 9 9 10 9 9 10 10 9 10 11 12 12 15 17 18 20 21 21 23 25 25 27 26 27 27 29 28 28 30 32 30 34 36 36 35 -193 -193 40 41 41 43 44 44 49 48 46 50 50 51 50 50 51 51 53 54 52 56 56 56 55 54 55 55 58 59 60 60 60 70 68 67 67 71 68 70 -193 71 -193 75 77 76 -177 78 79 78 80 78 79 79 83 82 81 82 85 -209 -193 92 94 93 95 96 96 95 94 83 86 84 -193 86 106 106 -209 -209 -209 -209 -209 -209 -209 -209 -209 -209 -193 -177 -177 -177 -177 -193 116 117 117 117 111 120 119 122 122 122 126 133 133 136 137 137 0 0 0 0 0
    0 0 0 0 0 0 0 0 0 0 0 0 0 0 0 0 0 0 0 0 0 0 0 0 0 0 0 0 0 0 0 0 0 0 0 0 0 0 0 0 0 0 0 0 0 0 0 0 0 0 0 0 0 0 0 0 0 0 0 0 0 0 0 0 0 0 0 0 0 62 62 62 61 60 60 59 58 58 57 58 57 -193 -193 -193 -193 55 55 54 52 53 51 51 51 50 50 49 45 47 47 45 44 43 41 40 39 39 39 38 37 38 38 38 36 36 37 35 35 34 31 31 30 30 31 28 28 26 26 26 24 23 22 20 21 21 20 21 21 20 19 20 19 12 10 12 0 10 11 12 0 9 11 8 10 9 10 9 0 0 0 0 0 9 9 0 10 9 10 11 11 10 10 10 10 9 10 10 9 10 10 9 11 11 12 12 16 18 18 20 21 21 22 24 25 27 26 27 27 29 28 29 30 32 30 35 37 37 36 -193 41 40 41 42 44 44 44 49 49 46 50 50 51 50 50 52 51 53 54 53 57 56 56 55 55 55 56 57 59 60 61 61 70 69 69 68 71 69 70 -193 72 -193 75 77 76 -177 77 80 78 80 78 79 78 82 82 81 81 85 -193 -177 91 93 92 94 95 95 94 92 82 -209 85 90 -193 105 106 -209 -209 -209 -209 -209 -209 -209 -193 -193 -209 -193 -193 -193 -193 -193 -193 116 116 117 117 110 121 121 122 122 122 125 132 132 136 137 137 0 0 0 0 0
    0 0 0 0 0 0 0 0 0 0 0 0 0 0 0 0 0 0 0 0 0 0 0 0 0 0 0 0 0 0 0 0 0 0 0 0 0 0 0 0 0 0 0 0 0 0 0 0 0 0 0 0 0 0 0 0 0 0 0 0 0 0 0 0 0 0 0 0 0 62 62 62 61 60 60 59 58 57 57 57 57 57 -193 -193 56 55 54 54 52 52 51 51 51 50 49 48 44 46 47 45 43 43 41 40 40 39 39 38 38 38 38 38 37 37 37 35 35 35 32 32 31 31 31 29 28 27 26 26 24 23 21 20 21 21 20 21 21 20 19 20 20 12 11 12 0 10 11 12 0 0 0 0 9 0 9 9 0 0 0 0 0 0 0 0 9 9 10 11 11 10 11 10 10 10 11 10 10 10 10 9 10 11 12 12 14 16 17 19 20 20 22 24 25 27 27 28 28 29 29 30 31 33 30 35 38 38 37 -193 41 41 42 42 45 44 44 48 49 46 50 50 51 51 51 52 52 53 55 54 58 56 56 55 55 55 56 57 58 60 61 62 70 70 70 70 72 70 71 736 73 75 75 77 76 -193 77 80 78 80 79 80 78 83 82 81 81 84 -193 -177 90 92 91 93 94 95 93 92 85 -209 88 93 -193 105 105 -209 -209 -209 -209 -209 -209 -209 -209 -193 -193 -193 -193 114 -193 -193 113 116 116 117 118 110 122 122 122 122 122 124 131 132 135 137 137 0 0 0 0 0
    0 0 0 0 0 0 0 0 0 0 0 0 0 0 0 0 0 0 0 0 0 0 0 0 0 0 0 0 0 0 0 0 0 0 0 0 0 0 0 0 0 0 0 0 0 0 0 0 0 0 0 0 0 0 0 0 0 0 0 0 0 0 0 0 0 0 0 0 0 62 62 62 61 60 60 60 59 57 57 57 56 57 57 56 55 55 53 54 52 52 51 51 51 50 49 48 44 45 47 45 43 43 42 40 40 40 40 39 38 38 38 38 38 37 37 36 35 35 33 32 32 31 32 29 28 27 26 26 25 23 22 20 21 21 20 21 21 20 19 20 21 13 11 13 9 11 12 11 0 0 0 0 0 0 0 0 0 0 0 0 0 0 0 0 9 0 9 11 11 10 11 10 10 9 11 10 9 9 10 9 10 10 11 10 13 15 16 18 21 21 22 25 25 28 28 29 28 30 29 31 31 34 31 37 39 39 38 41 41 41 41 42 44 43 44 47 50 46 50 50 51 51 52 53 53 53 56 55 58 56 56 55 55 55 56 57 58 60 61 62 70 72 71 71 73 71 -193 737 74 76 75 78 77 76 78 81 78 80 80 80 79 83 82 82 81 84 -193 -177 90 91 90 92 94 94 92 92 86 -209 91 96 94 104 105 -209 -209 -209 -209 -177 -209 -209 -209 -193 -193 -193 -209 114 -193 -193 -193 117 117 118 119 111 122 122 122 122 122 123 131 132 135 137 137 0 0 0 0 0
    0 0 0 0 0 0 0 0 0 0 0 0 0 0 0 0 0 0 0 0 0 0 0 0 0 0 0 0 0 0 0 0 0 0 0 0 0 0 0 0 0 0 0 0 0 0 0 0 0 0 0 0 0 0 0 0 0 0 0 0 0 0 0 0 0 0 0 0 0 62 62 62 61 60 60 60 59 57 56 57 56 57 -193 55 55 54 53 54 51 52 51 51 51 50 49 49 44 45 47 45 43 42 41 40 40 40 40 38 37 37 38 38 38 37 37 36 35 36 33 33 33 31 32 29 28 27 26 26 25 23 22 19 21 21 20 21 21 20 19 20 22 14 12 14 11 12 13 11 0 0 0 0 0 0 0 0 0 0 0 0 0 0 0 0 0 0 0 11 11 10 11 11 11 10 11 11 10 10 10 9 10 10 11 10 13 15 16 19 21 21 23 26 26 29 28 29 28 30 30 32 31 35 -177 -177 40 39 38 41 41 41 41 41 43 42 44 46 50 46 50 50 52 51 52 53 53 53 56 -193 59 55 55 55 55 55 55 56 57 60 60 61 70 73 73 73 73 72 733 739 75 77 76 79 77 77 78 81 79 81 81 81 79 84 82 82 81 84 86 -177 89 91 90 92 93 93 92 92 -193 -209 94 99 99 104 106 102 -209 101 -209 -193 -209 -209 -209 -193 -193 -193 -209 116 -193 -193 -193 118 118 119 120 116 122 123 123 123 124 125 131 133 135 137 138 0 0 0 0 0
    0 0 0 0 0 0 0 0 0 0 0 0 0 0 0 0 0 0 0 0 0 0 0 0 0 0 0 0 0 0 0 0 0 0 0 0 0 0 0 0 0 0 0 0 0 0 0 0 0 0 0 0 0 0 0 0 0 0 0 0 0 0 0 0 0 0 0 0 0 62 62 62 61 60 60 60 59 56 56 56 55 56 56 55 54 54 53 54 51 52 51 51 51 51 49 49 44 45 48 44 42 42 41 40 40 39 39 38 37 36 36 37 37 37 37 35 34 35 34 33 33 31 32 29 28 27 26 26 25 23 22 19 21 21 20 21 21 20 19 20 23 16 13 15 13 14 15 12 8 0 0 0 0 0 0 0 0 0 0 0 0 0 0 0 0 0 0 11 11 11 12 12 11 10 11 10 9 9 0 0 9 9 10 10 13 15 16 20 22 22 23 27 27 29 28 29 28 31 30 32 31 35 32 37 39 38 38 40 40 39 39 39 41 41 43 44 51 46 50 50 52 51 53 53 53 53 56 -193 58 54 55 55 55 55 55 56 56 60 61 61 70 74 73 73 74 74 -193 78 76 78 76 80 78 78 78 81 79 81 81 81 79 84 83 82 82 84 86 -193 89 91 90 91 93 93 -193 92 -193 -193 95 99 101 104 106 103 -209 103 -209 -193 -209 -209 -209 -193 115 -193 119 117 -193 -193 -193 119 120 120 121 121 122 123 122 124 125 125 132 135 137 138 139 0 0 0 0 0
    0 0 0 0 0 0 0 0 0 0 0 0 0 0 0 0 0 0 0 0 0 0 0 0 0 0 0 0 0 0 0 0 0 0 0 0 0 0 0 0 0 0 0 0 0 0 0 0 0 0 0 0 0 0 0 0 0 0 0 0 0 0 0 0 0 0 0 0 0 62 62 62 61 61 60 60 59 56 55 55 54 55 55 54 54 54 52 54 51 52 52 51 51 51 49 49 44 45 48 44 42 42 41 40 40 39 39 38 37 36 36 37 37 36 36 35 33 34 33 33 33 31 32 29 28 28 26 26 25 23 22 19 21 21 20 21 21 20 19 20 23 17 13 15 15 14 16 14 9 9 10 0 0 0 0 0 0 0 0 0 0 0 0 0 0 0 0 10 10 11 10 11 10 9 9 9 9 9 0 0 0 9 10 10 14 16 16 20 21 22 23 27 27 29 28 29 29 31 30 32 31 35 32 37 39 38 37 39 39 38 38 39 41 39 42 44 51 46 50 50 52 51 53 53 53 52 56 -193 57 53 55 54 54 55 56 55 57 60 60 62 69 75 73 73 74 76 74 79 77 78 77 80 78 78 78 81 79 81 82 81 79 84 83 83 82 83 85 -209 89 90 90 91 92 92 -193 92 -193 -193 97 101 103 104 107 103 -193 105 -209 -193 109 -193 -209 -193 115 -193 119 118 -193 -193 -193 121 121 121 122 122 122 123 121 123 125 125 133 137 138 139 140 0 0 0 0 0
    0 0 0 0 0 0 0 0 0 0 0 0 0 0 0 0 0 0 0 0 0 0 0 0 0 0 0 0 0 0 0 0 0 0 0 0 0 0 0 0 0 0 0 0 0 0 0 0 0 0 0 0 0 0 0 0 0 0 0 0 0 0 0 0 0 0 0 0 0 62 62 62 61 61 60 60 60 55 55 55 54 54 54 54 53 54 53 54 51 52 52 51 51 51 49 48 44 45 47 43 42 41 41 40 40 39 39 38 38 37 36 37 37 36 36 35 33 34 33 34 34 31 31 29 28 28 26 26 26 22 22 19 21 22 21 21 21 20 20 20 23 18 15 17 16 16 17 15 11 11 18 13 11 0 0 0 9 0 0 0 0 0 0 0 0 0 0 10 10 10 9 10 0 0 9 9 9 9 0 9 9 10 10 11 14 16 16 19 21 22 23 26 26 28 27 29 28 31 30 32 30 34 31 36 39 38 37 38 38 37 37 39 40 38 42 43 50 46 49 50 52 50 52 53 52 51 55 -193 57 53 55 55 54 55 56 55 57 61 61 62 68 75 72 73 74 76 75 79 78 78 77 80 79 79 78 81 80 81 82 81 79 84 83 83 82 83 85 -193 -193 90 90 91 92 92 -193 92 -193 -193 -209 101 104 104 107 103 -193 105 -209 -193 110 -193 -209 -193 115 -193 119 -193 -193 -193 -193 122 122 122 123 123 122 123 121 123 125 125 133 138 138 140 141 0 0 0 0 0
    0 0 0 0 0 0 0 0 0 0 0 0 0 0 0 0 0 0 0 0 0 0 0 0 0 0 0 0 0 0 0 0 0 0 0 0 0 0 0 0 0 0 0 0 0 0 0 0 0 0 0 0 0 0 0 0 0 0 0 0 0 0 0 0 0 0 0 0 0 62 61 62 61 61 60 61 60 55 55 55 53 54 54 54 53 54 53 54 51 52 52 51 51 51 49 48 44 45 48 43 41 42 41 40 40 39 39 38 39 37 36 37 37 36 37 36 33 34 33 34 34 31 30 29 28 27 26 26 26 23 22 20 22 22 21 21 21 20 20 20 24 20 18 19 18 18 18 18 16 16 22 20 18 13 12 11 12 9 0 0 0 0 0 0 0 0 0 9 9 10 9 9 0 0 0 0 0 0 0 0 0 9 9 9 14 15 14 18 20 22 23 25 25 28 27 29 29 31 29 31 30 34 31 35 38 37 37 37 38 37 37 39 40 37 42 42 50 45 48 50 51 50 52 52 52 51 55 54 56 53 56 56 55 55 56 55 57 60 60 62 67 72 71 -193 72 75 74 79 78 78 78 80 79 79 77 80 79 81 82 80 78 84 83 83 82 82 85 -193 -193 90 90 92 93 93 92 93 91 -193 99 101 103 104 106 103 -193 105 -209 -193 111 -193 -209 -209 116 -193 -209 -209 121 -193 123 123 123 123 124 124 122 122 120 123 126 125 133 138 138 140 141 0 0 0 0 0
    0 0 0 0 0 0 0 0 0 0 0 0 0 0 0 0 0 0 0 0 0 0 0 0 0 0 0 0 0 0 0 0 0 0 0 0 0 0 0 0 0 0 0 0 0 0 0 0 0 0 0 0 0 0 0 0 0 0 0 0 0 0 0 0 0 0 0 0 0 62 61 61 61 61 60 61 61 56 55 55 53 54 54 54 53 53 53 54 51 52 52 51 50 51 49 47 44 45 48 42 41 42 41 40 40 39 39 38 39 37 36 36 37 36 36 36 33 33 33 34 34 31 30 29 28 28 26 26 26 23 23 21 22 23 22 22 21 21 21 21 24 22 20 21 21 21 21 20 19 19 22 21 20 18 17 14 14 13 9 9 0 0 0 0 9 0 0 9 9 10 10 10 0 0 0 0 0 0 0 0 0 0 9 9 14 16 14 19 20 22 23 25 -193 27 28 29 29 31 29 31 30 34 31 34 38 36 36 37 37 36 37 38 39 37 42 43 50 45 48 50 51 49 51 52 -193 -193 55 54 55 54 57 57 55 55 56 55 57 60 60 61 65 71 69 -193 71 -193 74 79 78 78 78 80 79 79 77 80 80 81 82 80 78 83 83 83 82 82 85 -193 -193 91 90 92 93 93 93 93 -193 -193 100 101 103 104 106 103 -193 106 -193 -193 111 -209 -209 -209 -209 -177 -209 -193 122 123 124 123 123 123 124 124 121 122 119 123 126 126 133 138 138 139 140 0 0 0 0 0
    0 0 0 0 0 0 0 0 0 0 0 0 0 0 0 0 0 0 0 0 0 0 0 0 0 0 0 0 0 0 0 0 0 0 0 0 0 0 0 0 0 0 0 0 0 0 0 0 0 0 0 0 0 0 0 0 0 0 0 0 0 0 0 0 0 0 0 0 0 62 61 62 61 62 60 62 61 57 55 55 53 54 54 54 53 54 53 54 51 53 53 51 51 51 49 47 44 46 49 42 41 42 41 40 40 39 39 37 38 37 35 35 36 35 35 35 33 33 33 34 34 31 30 29 28 28 27 26 27 25 25 24 24 24 23 23 23 22 22 22 24 23 22 22 22 22 22 21 20 20 22 22 21 20 19 15 15 14 9 10 9 0 0 0 9 9 9 9 9 10 10 10 9 0 0 9 0 0 0 0 0 0 9 9 15 15 14 18 19 21 22 -193 -193 -193 26 28 28 30 29 31 29 34 31 33 37 35 36 36 37 36 35 37 39 36 42 43 50 46 47 50 51 49 51 51 -193 -193 54 54 -193 55 57 58 56 55 56 56 57 60 60 61 64 69 67 -193 70 -177 -193 78 77 78 78 80 80 79 77 80 80 82 83 80 79 83 83 83 82 81 85 -193 -209 91 91 92 93 94 93 93 -193 -193 100 101 103 104 106 103 104 106 107 -209 111 -209 -209 -209 -209 -177 -193 -193 123 124 124 122 123 123 123 124 119 121 119 123 125 126 134 138 138 139 140 0 0 0 0 0
    0 0 0 0 0 0 0 0 0 0 0 0 0 0 0 0 0 0 0 0 0 0 0 0 0 0 0 0 0 0 0 0 0 0 0 0 0 0 0 0 0 0 0 0 0 0 0 0 0 0 0 0 0 0 0 0 0 0 0 0 0 0 0 0 0 0 0 0 0 63 62 62 62 63 60 63 62 57 56 55 53 54 54 54 54 54 54 55 52 54 53 52 51 51 50 47 44 46 48 42 41 42 41 40 40 39 39 37 38 37 35 35 36 34 35 35 32 32 32 32 34 31 30 30 29 29 28 27 28 26 26 26 25 25 25 24 24 22 22 23 25 24 23 23 23 23 23 22 21 21 22 22 21 20 20 17 16 15 11 11 9 9 0 9 9 9 9 9 9 10 10 10 0 0 0 9 0 0 0 0 0 0 9 9 17 16 14 19 19 22 22 24 -193 24 25 27 28 29 28 30 29 33 31 32 37 34 36 35 36 36 35 37 39 37 42 43 50 46 47 50 51 48 51 51 -193 -193 54 -193 -193 55 58 59 57 55 56 56 57 60 60 61 62 68 66 66 69 -177 -193 77 77 77 78 80 80 79 77 80 -193 82 83 79 79 82 -193 83 82 -193 -193 -193 -209 91 91 92 93 94 93 93 -193 -193 100 101 103 104 107 104 104 106 107 109 111 111 -209 -209 -193 -177 -177 129 123 123 123 122 122 122 123 123 117 121 119 124 127 129 135 139 138 139 140 0 0 0 0 0
    0 0 0 0 0 0 0 0 0 0 0 0 0 0 0 0 0 0 0 0 0 0 0 0 0 0 0 0 0 0 0 0 0 0 0 0 0 0 0 0 0 0 0 0 0 0 0 0 0 0 0 0 0 0 0 0 0 0 0 0 0 0 0 0 0 0 0 0 0 63 62 62 62 63 60 63 62 58 56 55 54 55 55 55 54 55 55 55 53 55 55 52 52 51 50 47 44 46 48 42 41 41 41 40 40 39 38 37 38 37 36 35 36 35 35 35 32 32 32 31 33 31 29 30 29 29 28 28 29 27 27 27 26 26 26 24 24 22 23 23 24 24 23 23 23 23 23 23 22 22 22 22 21 20 20 18 16 16 12 11 9 9 0 9 9 10 9 9 9 10 10 10 9 0 0 9 0 9 0 0 9 10 11 10 19 18 16 20 20 22 22 24 24 24 25 26 27 28 28 29 28 32 30 31 36 33 35 35 36 36 36 38 40 39 42 44 51 46 47 50 51 48 50 51 -193 -193 54 -193 -193 -193 58 59 57 55 56 56 56 60 60 61 62 67 65 65 68 -177 -193 76 76 75 77 79 80 79 77 80 926 81 83 79 79 81 82 83 82 81 85 -193 -209 91 91 92 94 94 93 93 -193 -193 100 101 102 104 108 104 104 107 107 108 111 111 -209 -193 116 -193 -193 128 122 123 123 122 121 122 122 123 116 122 120 125 130 130 134 139 138 139 139 0 0 0 0 0
    0 0 0 0 0 0 0 0 0 0 0 0 0 0 0 0 0 0 0 0 0 0 0 0 0 0 0 0 0 0 0 0 0 0 0 0 0 0 0 0 0 0 0 0 0 0 0 0 0 0 0 0 0 0 0 0 0 0 0 0 0 0 0 0 0 0 0 0 0 64 63 63 62 63 60 63 62 58 56 56 54 55 55 55 55 55 56 56 54 57 56 53 52 51 50 47 44 45 48 42 41 41 41 40 40 39 39 38 39 38 36 36 36 36 36 36 33 33 33 31 31 30 29 31 29 29 29 28 29 28 28 28 26 26 26 24 24 22 22 22 23 23 22 22 22 21 21 22 21 21 22 22 21 21 21 19 17 17 13 12 10 10 9 9 9 10 9 9 9 9 10 10 9 0 0 9 0 9 0 9 9 10 12 11 20 19 16 20 19 22 22 23 23 24 24 26 28 28 27 29 28 31 30 30 35 33 35 35 36 36 37 39 41 41 42 45 51 47 47 51 51 48 50 51 -193 -193 53 -193 -193 -193 58 59 -193 55 -193 56 57 60 60 61 61 67 64 64 67 -177 -193 75 74 74 77 78 80 78 77 -193 927 81 82 79 79 80 82 83 81 81 -193 -193 -193 91 91 93 94 94 93 93 -193 92 101 101 102 104 108 105 105 107 107 108 111 111 -193 112 115 -209 -193 126 121 -193 -193 121 120 120 121 122 115 123 121 126 131 131 135 140 138 139 139 0 0 0 0 0
    0 0 0 0 0 0 0 0 0 0 0 0 0 0 0 0 0 0 0 0 0 0 0 0 0 0 0 0 0 0 0 0 0 0 0 0 0 0 0 0 0 0 0 0 0 0 0 0 0 0 0 0 0 0 0 0 0 0 0 0 0 0 0 0 0 0 0 0 0 64 63 63 63 63 60 64 63 58 56 56 54 55 55 55 55 55 56 56 55 57 -193 -193 52 51 49 46 44 45 48 42 41 42 42 40 41 40 39 38 40 38 37 37 38 37 37 38 35 35 34 31 31 30 28 32 29 30 30 28 30 29 29 28 26 26 26 24 23 22 22 22 22 22 21 21 21 20 19 21 20 20 20 21 20 20 21 20 17 17 13 12 10 9 0 9 9 10 9 10 9 10 10 10 9 9 9 9 9 9 0 9 10 10 12 12 20 20 18 20 20 22 22 23 23 23 24 25 27 28 27 28 28 30 29 30 35 33 36 36 37 37 38 40 42 42 43 45 52 49 48 52 51 48 50 51 52 49 53 -193 -193 -193 -193 -193 -209 55 -193 57 -193 60 60 61 61 67 64 63 66 622 69 -193 -193 73 -193 77 79 78 76 -193 927 80 82 79 79 79 82 83 81 81 -193 -193 -209 91 92 93 94 94 94 93 -193 92 101 101 102 105 108 106 105 107 107 108 110 111 -193 111 114 -209 -193 125 120 -193 -193 119 119 119 119 121 113 123 125 128 133 133 135 140 138 138 139 0 0 0 0 0
    0 0 0 0 0 0 0 0 0 0 0 0 0 0 0 0 0 0 0 0 0 0 0 0 0 0 0 0 0 0 0 0 0 0 0 0 0 0 0 0 0 0 0 0 0 0 0 0 0 0 0 0 0 0 0 0 0 0 0 0 0 0 0 0 0 0 0 0 0 64 62 63 63 63 61 64 63 59 58 56 54 55 55 55 55 56 56 56 55 57 -193 -193 -193 -193 49 46 44 45 47 42 41 42 42 40 40 40 39 38 40 38 38 38 38 38 38 39 37 36 36 32 31 30 28 33 29 30 31 29 30 29 29 29 26 26 26 23 23 22 21 22 21 22 20 20 20 19 19 20 19 19 20 20 20 20 21 19 16 16 14 13 11 10 9 10 9 10 10 10 10 10 11 10 9 9 9 9 0 8 0 9 10 11 12 13 21 20 19 21 21 23 23 24 24 24 24 25 27 28 27 28 28 29 29 30 35 33 37 37 37 38 40 42 43 43 43 46 52 50 47 52 51 48 50 51 52 50 52 -209 -177 -177 -193 -193 -193 56 57 57 56 60 60 61 61 67 64 64 66 623 68 -193 -177 -193 -193 76 79 -193 -193 -193 928 -193 -193 79 79 79 83 83 81 81 -193 -193 -193 92 92 93 94 94 94 92 -193 91 100 101 102 105 108 107 105 107 107 108 110 111 112 111 112 -193 -193 124 118 -193 -193 118 117 117 118 119 111 122 126 128 132 132 135 140 138 138 139 0 0 0 0 0
    0 0 0 0 0 0 0 0 0 0 0 0 0 0 0 0 0 0 0 0 0 0 0 0 0 0 0 0 0 0 0 0 0 0 0 0 0 0 0 0 0 0 0 0 0 0 0 0 0 0 0 0 0 0 0 0 0 0 0 0 0 0 0 0 0 0 0 0 0 64 63 63 63 64 61 65 63 59 58 56 55 56 55 56 55 56 56 57 55 57 -193 655 -193 -193 48 46 44 45 47 42 42 42 41 40 40 40 39 38 40 38 38 38 39 39 38 39 37 37 37 33 30 30 29 34 30 31 32 29 31 30 30 29 26 26 26 23 23 21 20 21 20 21 19 19 19 18 17 19 19 18 18 19 18 18 20 18 16 15 14 13 11 10 9 9 9 10 9 10 10 10 11 10 9 9 9 9 9 0 0 9 10 10 11 12 20 20 19 21 20 23 23 24 24 24 24 25 27 28 26 28 27 29 28 29 35 33 37 37 38 38 41 43 45 44 43 46 51 50 47 52 51 48 50 51 52 50 52 -193 -193 -193 -193 -193 -193 56 57 57 56 61 60 62 61 67 64 64 66 623 68 72 -177 -193 -177 76 79 -193 -193 79 928 -193 -193 80 81 79 83 83 82 82 -193 -209 91 92 92 93 94 94 94 92 -193 91 100 101 102 105 109 109 106 107 107 108 110 111 112 111 111 -193 118 123 117 117 -193 117 116 116 117 118 110 123 126 127 132 132 135 140 137 138 138 0 0 0 0 0
    0 0 0 0 0 0 0 0 0 0 0 0 0 0 0 0 0 0 0 0 0 0 0 0 0 0 0 0 0 0 0 0 0 0 0 0 0 0 0 0 0 0 0 0 0 0 0 0 0 0 0 0 0 0 0 0 0 0 0 0 0 0 0 0 0 0 0 0 0 64 63 64 63 64 61 65 63 59 58 57 55 56 56 56 56 56 56 57 55 57 658 656 -193 -193 48 45 44 45 46 42 42 42 41 40 40 39 39 39 40 38 38 39 40 40 39 40 38 38 37 33 30 30 29 35 30 31 33 29 31 31 31 30 26 26 26 23 22 20 19 20 19 20 18 17 17 16 16 18 17 16 16 17 16 16 17 16 14 13 12 12 11 10 9 9 9 10 9 10 10 10 11 10 10 10 9 10 9 9 0 10 10 10 11 12 19 19 19 20 20 23 23 25 25 24 24 25 27 28 26 28 -177 -177 28 29 35 33 38 38 38 39 41 43 45 45 43 46 51 51 48 52 52 49 50 51 51 50 51 562 -193 -193 -193 -177 -193 -209 -193 58 -209 61 60 62 61 67 66 66 67 624 68 72 -177 -193 -193 75 79 -193 -193 79 930 927 926 -193 82 79 84 84 83 83 -193 -193 91 -193 92 93 93 93 93 -193 -193 90 100 101 102 105 109 109 106 107 106 107 109 110 111 111 110 -193 117 122 116 117 -193 116 115 116 117 118 110 123 127 127 132 133 135 139 137 137 138 0 0 0 0 0
    0 0 0 0 0 0 0 0 0 0 0 0 0 0 0 0 0 0 0 0 0 0 0 0 0 0 0 0 0 0 0 0 0 0 0 0 0 0 0 0 0 0 0 0 0 0 0 0 0 0 0 0 0 0 0 0 0 0 0 0 0 0 0 0 0 0 0 0 0 65 63 64 63 64 61 65 63 59 58 58 55 56 56 56 56 56 56 56 54 56 -193 -193 -193 50 47 46 45 46 46 43 43 42 41 40 40 39 39 39 40 -193 39 -193 41 41 41 41 39 38 38 34 30 30 29 34 30 30 33 29 31 32 32 31 26 26 26 22 22 19 18 20 18 19 17 16 15 15 14 16 15 14 15 16 14 15 15 14 12 12 11 11 10 9 9 9 9 9 9 9 9 9 10 10 10 10 10 10 9 9 9 10 10 10 11 11 17 18 18 20 20 23 23 25 24 24 24 24 27 -177 26 27 -177 -177 28 29 35 34 38 38 38 39 41 43 45 45 42 45 50 52 48 52 52 49 50 51 51 50 51 562 -193 -193 -193 -177 -193 -209 -193 -193 -209 62 60 63 62 68 67 67 68 624 69 72 -177 73 -193 75 -193 929 928 -193 930 927 927 -177 82 80 84 84 84 84 -193 -193 90 -193 -193 92 93 93 93 -193 691 90 99 101 101 105 108 109 106 106 105 106 107 109 110 110 109 -193 116 121 116 116 -193 116 115 116 117 118 109 124 128 127 132 133 134 138 137 137 138 0 0 0 0 0
    0 0 0 0 0 0 0 0 0 0 0 0 0 0 0 0 0 0 0 0 0 0 0 0 0 0 0 0 0 0 0 0 0 0 0 0 0 0 0 0 0 0 0 0 0 0 0 0 0 0 0 0 0 0 0 0 0 0 0 0 0 0 0 0 0 0 0 0 0 64 63 63 63 63 61 64 63 59 58 57 56 56 56 56 56 56 56 56 53 55 -193 -193 50 49 47 46 45 46 46 44 45 42 41 41 41 40 40 41 -193 -177 -177 995 43 43 42 42 41 39 39 35 30 30 29 34 31 30 33 29 31 32 32 30 26 26 25 21 21 18 17 19 17 18 16 15 14 14 13 14 13 13 13 14 13 14 13 13 11 11 10 10 9 9 0 0 0 9 0 9 9 9 10 9 10 9 9 10 9 9 0 9 10 10 10 11 17 18 19 20 21 24 24 26 25 24 25 25 27 -177 26 27 27 -177 28 29 34 35 38 38 38 39 41 43 45 45 42 44 50 52 48 52 52 49 50 51 51 50 51 562 -193 -193 -193 -177 -193 -209 -193 -193 -209 62 61 63 62 69 68 68 -193 625 -193 72 -177 73 -193 74 -193 929 928 -193 -193 927 927 -177 82 80 85 84 84 84 -193 -193 90 -193 -193 -193 93 -193 93 -193 691 90 99 100 101 104 106 109 106 106 -193 105 106 108 109 110 108 -193 116 120 116 116 -193 117 115 116 117 118 108 124 127 126 132 131 133 136 136 137 137 0 0 0 0 0
    0 0 0 0 0 0 0 0 0 0 0 0 0 0 0 0 0 0 0 0 0 0 0 0 0 0 0 0 0 0 0 0 0 0 0 0 0 0 0 0 0 0 0 0 0 0 0 0 0 0 0 0 0 0 0 0 0 0 0 0 0 0 0 0 0 0 0 0 0 64 62 63 62 62 61 64 63 59 57 56 55 56 56 56 56 56 56 56 52 54 -193 51 49 49 47 46 45 46 46 44 46 43 42 41 42 41 41 42 -193 -177 -177 996 44 44 43 43 42 40 40 37 30 30 29 33 31 29 33 29 30 32 32 30 -193 -193 -193 20 20 17 16 18 16 17 15 13 13 13 12 13 12 12 12 12 12 13 12 13 11 10 10 10 9 9 9 0 0 9 0 9 9 9 9 9 9 9 9 9 0 0 0 9 10 10 10 11 17 19 19 21 20 23 23 -193 24 24 -193 25 27 -177 26 28 28 -177 29 29 34 35 37 37 37 38 40 42 44 44 41 44 49 53 48 53 52 50 50 52 51 51 50 -193 -177 -193 -193 -177 -193 -193 -193 -193 -209 62 61 64 63 69 -193 70 -177 626 -177 72 -177 74 76 75 -193 929 929 78 -193 927 927 -177 82 80 85 84 84 84 -193 -193 90 -193 -193 -193 -193 -193 93 -193 -193 90 98 99 100 103 105 108 105 105 -193 -193 105 -193 108 109 107 -193 115 120 116 116 -193 117 115 117 117 118 108 123 126 125 130 129 132 135 136 136 137 0 0 0 0 0
    0 0 0 0 0 0 0 0 0 0 0 0 0 0 0 0 0 0 0 0 0 0 0 0 0 0 0 0 0 0 0 0 0 0 0 0 0 0 0 0 0 0 0 0 0 0 0 0 0 0 0 0 0 0 0 0 0 0 0 0 0 0 0 0 0 0 0 0 0 64 62 62 62 62 60 63 62 59 57 56 56 56 56 56 56 55 56 55 51 53 53 50 48 48 47 46 46 47 47 45 47 44 42 42 42 42 42 42 44 -177 -177 -193 44 45 43 43 42 41 41 38 31 30 29 33 31 29 33 29 30 32 32 30 -193 -209 -209 19 20 17 16 18 16 16 15 13 12 12 11 12 12 11 11 12 11 12 11 12 10 10 9 10 9 9 9 9 0 9 9 9 9 9 9 9 9 9 9 9 0 0 0 9 9 9 10 11 17 18 19 21 20 23 23 -193 23 23 -193 -193 26 27 26 28 28 -177 29 29 34 35 35 36 36 37 39 41 43 43 41 44 48 53 48 53 52 50 51 52 52 51 50 561 -177 -193 -193 -193 -193 58 -193 -193 -193 62 61 64 63 70 -193 -193 -177 626 -177 73 -193 75 77 75 78 -193 -193 78 82 928 928 -177 82 80 85 84 85 84 -193 -193 -193 683 -193 -193 -193 -193 92 -193 -193 89 98 99 100 102 104 107 105 104 -193 -193 -193 -193 107 -193 106 -193 114 119 116 116 -193 117 116 118 118 119 109 123 125 124 129 128 132 135 136 136 137 0 0 0 0 0
    0 0 0 0 0 0 0 0 0 0 0 0 0 0 0 0 0 0 0 0 0 0 0 0 0 0 0 0 0 0 0 0 0 0 0 0 0 0 0 0 0 0 0 0 0 0 0 0 0 0 0 0 0 0 0 0 0 0 0 0 0 0 0 0 0 0 0 0 0 64 62 62 62 62 60 62 62 60 57 58 56 57 57 56 56 55 55 55 50 52 52 50 48 48 47 46 46 47 47 45 47 45 42 42 42 42 42 42 43 -193 -193 -193 45 45 43 43 42 41 42 39 31 31 30 33 31 29 32 28 29 31 31 29 -193 -193 -209 19 19 16 16 18 15 17 15 13 12 12 11 12 12 11 11 11 11 12 11 12 11 10 9 10 9 10 9 9 9 10 10 10 10 10 10 10 10 10 9 9 0 0 0 9 9 9 9 10 16 18 20 21 20 23 22 -193 22 22 -193 23 -193 27 26 27 28 30 30 29 33 35 33 34 35 35 37 40 41 42 39 44 47 53 47 52 52 51 51 52 -193 51 51 560 112 560 -193 -193 -193 58 -193 -193 -193 62 -193 64 64 70 -193 -193 -193 627 -177 73 -193 76 77 76 79 77 77 78 82 -193 -193 -193 82 80 85 84 85 84 -193 -193 -209 683 684 -193 -193 685 -193 -193 -193 89 97 99 100 103 104 107 104 104 103 -193 -193 -193 -193 -193 106 -193 113 119 117 117 -193 118 117 120 120 120 -193 123 125 124 128 127 131 134 136 136 137 0 0 0 0 0
    0 0 0 0 0 0 0 0 0 0 0 0 0 0 0 0 0 0 0 0 0 0 0 0 0 0 0 0 0 0 0 0 0 0 0 0 0 0 0 0 0 0 0 0 0 0 0 0 0 0 0 0 0 0 0 0 0 0 0 0 0 0 0 0 0 0 0 0 0 64 62 62 62 61 60 62 63 61 58 60 58 58 58 57 57 56 56 55 50 51 51 49 47 48 47 46 46 47 47 45 48 45 42 42 42 42 42 43 43 -193 -193 -193 45 45 44 43 42 41 42 40 32 31 30 32 31 28 31 28 28 30 30 28 23 23 -193 19 20 17 16 18 16 17 16 14 13 12 11 12 12 11 11 11 11 12 11 12 11 10 10 10 10 10 10 10 10 10 11 10 10 10 10 10 10 10 9 9 0 0 0 0 0 0 9 9 15 17 19 21 20 22 22 23 21 21 -193 -177 -193 26 26 27 28 30 30 29 32 34 31 32 33 33 35 39 40 41 38 43 46 53 47 52 51 51 51 52 496 51 51 559 113 560 -193 -193 -193 58 -193 -193 -193 61 -193 64 64 70 -193 -193 -193 627 625 74 79 77 78 76 79 78 78 78 82 -193 -193 -193 82 80 85 84 85 84 -193 -193 -209 683 684 -193 -193 684 -193 -193 -193 89 98 100 101 103 105 106 104 104 103 103 -193 -193 -193 -193 107 110 113 119 118 118 118 119 118 121 121 121 121 123 124 123 126 126 129 133 135 135 137 0 0 0 0 0
    0 0 0 0 0 0 0 0 0 0 0 0 0 0 0 0 0 0 0 0 0 0 0 0 0 0 0 0 0 0 0 0 0 0 0 0 0 0 0 0 0 0 0 0 0 0 0 0 0 0 0 0 0 0 0 0 0 0 0 0 0 0 0 0 0 0 0 0 0 64 62 62 62 61 61 63 63 61 59 61 58 58 58 57 57 56 56 55 49 50 51 48 47 48 47 46 46 48 48 45 48 45 42 42 42 42 43 43 44 -193 -193 -193 45 45 44 43 42 41 42 40 32 31 30 31 30 28 30 27 27 29 28 27 23 23 22 19 20 17 17 19 16 17 16 15 13 13 12 12 11 11 11 11 10 11 10 11 10 10 10 10 10 10 10 10 10 10 11 10 10 10 10 10 10 10 10 9 0 0 0 0 9 0 9 0 14 16 19 21 19 21 21 22 21 21 -177 -177 23 26 26 27 28 30 30 28 31 34 29 31 -177 -177 33 37 39 40 37 43 46 53 47 52 51 52 52 53 496 -193 52 559 114 559 -193 -177 -193 58 -209 -193 -193 61 -193 64 -193 69 -209 -193 -193 627 625 74 79 77 78 76 79 78 78 78 82 80 83 83 82 80 85 84 85 84 -193 -193 -209 683 684 -193 -193 684 -193 -193 91 89 99 100 101 103 104 105 103 104 103 102 104 -193 -193 -193 107 111 114 118 119 119 119 -193 119 122 122 122 122 122 123 123 125 126 127 133 136 135 137 0 0 0 0 0
    0 0 0 0 0 0 0 0 0 0 0 0 0 0 0 0 0 0 0 0 0 0 0 0 0 0 0 0 0 0 0 0 0 0 0 0 0 0 0 0 0 0 0 0 0 0 0 0 0 0 0 0 0 0 0 0 0 0 0 0 0 0 0 0 0 0 0 0 0 64 62 63 62 61 61 63 64 62 59 62 59 59 59 58 57 -193 56 55 48 50 50 48 47 47 47 46 46 48 48 46 48 46 42 42 42 42 42 43 43 37 40 -177 45 45 43 43 42 41 41 40 32 31 30 30 29 27 28 27 27 27 26 26 23 23 22 19 20 18 18 19 16 18 17 16 14 13 13 13 12 12 12 12 11 12 11 11 10 10 9 10 9 10 10 10 10 10 11 10 11 10 10 10 11 10 10 9 9 0 0 0 9 9 9 9 15 17 21 22 20 22 21 22 20 20 -177 -177 22 26 25 27 29 30 31 28 31 33 29 30 -177 31 31 36 38 39 36 43 47 54 47 52 52 52 52 54 496 497 52 -177 115 -177 -193 624 -177 58 -193 -193 -193 -193 -193 64 -193 69 -209 -193 -177 626 625 -193 -193 77 78 77 80 79 79 78 82 80 83 84 81 80 85 84 85 84 -193 -193 -209 683 684 -193 -193 684 -193 -193 91 89 99 100 101 102 103 104 102 103 102 101 103 -193 -193 -193 107 110 114 118 120 119 120 -193 120 122 122 122 122 121 122 122 124 125 126 132 136 136 137 0 0 0 0 0
    0 0 0 0 0 0 0 0 0 0 0 0 0 0 0 0 0 0 0 0 0 0 0 0 0 0 0 0 0 0 0 0 0 0 0 0 0 0 0 0 0 0 0 0 0 0 0 0 0 0 0 0 0 0 0 0 0 0 0 0 0 0 0 0 0 0 0 0 0 65 62 62 62 61 61 63 64 63 60 64 61 60 60 58 58 -193 -193 55 48 49 50 48 47 46 47 46 46 47 47 45 47 46 43 42 42 42 42 43 43 37 39 -193 45 45 43 43 42 41 41 40 33 32 29 29 29 27 28 27 26 27 26 26 23 22 21 20 21 19 19 20 17 18 18 17 16 14 14 13 12 12 12 12 12 12 11 11 10 10 9 10 9 10 10 10 10 11 12 11 12 11 11 10 11 10 10 9 0 0 0 0 9 9 9 9 15 17 23 23 21 22 21 22 20 20 -177 -177 22 25 25 27 29 30 31 28 30 33 28 29 -177 30 30 35 37 38 35 43 47 54 48 52 52 53 53 54 496 497 -193 -177 115 559 -193 624 -177 -193 -193 -193 -209 -193 -193 63 -193 68 72 71 -193 625 625 -177 751 77 77 77 80 79 79 78 82 80 83 84 80 79 85 84 85 84 -193 86 -193 684 684 -193 -193 684 -193 89 90 90 98 100 101 102 103 104 102 103 101 101 103 -193 -193 -193 107 110 113 118 120 119 120 -193 119 121 122 122 122 120 121 122 125 126 127 132 136 136 137 0 0 0 0 0
    0 0 0 0 0 0 0 0 0 0 0 0 0 0 0 0 0 0 0 0 0 0 0 0 0 0 0 0 0 0 0 0 0 0 0 0 0 0 0 0 0 0 0 0 0 0 0 0 0 0 0 0 0 0 0 0 0 0 0 0 0 0 0 0 0 0 0 0 0 65 62 62 62 61 60 62 63 62 60 63 61 60 60 59 58 -209 -193 55 48 49 49 48 46 46 46 46 45 47 47 45 46 46 43 42 42 42 42 43 43 37 39 -193 44 45 43 42 41 41 41 40 33 33 30 30 30 28 28 27 26 26 25 25 23 22 21 20 21 19 20 21 18 19 19 18 17 14 16 14 12 13 13 12 12 12 12 11 11 10 9 10 9 11 11 11 11 11 13 12 13 12 12 11 11 11 10 9 9 0 0 0 9 9 9 9 16 18 25 24 22 23 21 22 21 21 -177 -177 22 -193 26 28 29 30 31 28 29 33 28 29 -177 29 30 34 37 38 35 43 48 54 48 52 52 53 53 54 496 498 -209 -177 115 560 -209 624 -177 -193 -193 -193 -209 -193 -193 63 -193 67 71 70 -193 625 625 -177 751 77 77 78 80 80 79 78 82 80 83 84 80 78 -193 -193 84 83 -193 -193 -193 684 685 -193 -193 -193 -193 90 90 90 97 100 101 103 103 104 102 103 102 101 103 -193 -209 -193 -193 109 112 117 121 119 120 120 120 121 122 122 122 117 121 122 125 127 127 132 136 136 137 0 0 0 0 0
    0 0 0 0 0 0 0 0 0 0 0 0 0 0 0 0 0 0 0 0 0 0 0 0 0 0 0 0 0 0 0 0 0 0 0 0 0 0 0 0 0 0 0 0 0 0 0 0 0 0 0 0 0 0 0 0 0 0 0 0 0 0 0 0 0 0 0 0 0 65 62 62 62 61 60 62 63 62 60 63 62 61 61 59 59 -209 -209 55 48 49 49 48 46 45 46 46 45 46 46 45 46 46 43 42 42 42 42 43 44 37 39 -193 44 44 42 41 41 40 40 39 33 33 29 30 30 28 28 27 26 25 24 25 22 22 21 21 21 20 21 21 19 20 19 20 18 15 18 15 13 13 14 12 12 12 12 12 11 10 10 10 10 11 11 11 11 11 13 13 13 12 12 11 12 12 10 10 9 0 0 9 9 9 9 9 16 18 25 25 22 23 21 22 21 22 -193 -177 -193 -193 -193 28 30 30 30 27 29 33 27 29 -177 29 30 34 37 38 35 43 49 54 48 52 52 53 52 54 497 499 -209 -177 116 561 -193 625 626 -193 -193 -193 -209 -193 -193 62 64 66 70 69 68 625 625 -177 751 77 77 78 81 80 80 78 82 81 83 84 80 78 84 -193 -193 -193 -193 -193 -193 -193 -193 -193 91 -193 -193 90 91 91 97 101 102 103 104 104 103 103 102 102 -193 -193 -209 -193 -193 108 112 117 122 119 120 120 120 121 121 121 122 116 121 122 126 128 128 132 136 136 137 0 0 0 0 0
    0 0 0 0 0 0 0 0 0 0 0 0 0 0 0 0 0 0 0 0 0 0 0 0 0 0 0 0 0 0 0 0 0 0 0 0 0 0 0 0 0 0 0 0 0 0 0 0 0 0 0 0 0 0 0 0 0 0 0 0 0 0 0 0 0 0 0 0 0 66 63 62 62 61 60 62 62 62 60 63 62 61 61 59 59 -209 -193 -193 49 50 50 48 46 46 46 46 45 46 46 45 45 46 42 42 42 42 42 43 44 38 39 -193 43 43 41 41 40 39 40 38 33 32 30 30 30 28 28 27 26 25 24 24 22 22 21 21 22 20 21 22 19 20 19 20 19 16 19 16 13 14 14 12 11 12 12 11 11 10 10 9 10 11 11 11 12 12 13 13 13 13 13 12 12 12 11 10 9 9 0 9 9 9 9 9 16 19 26 25 22 23 21 22 22 22 -193 -177 -193 -193 -193 28 30 30 30 27 29 33 27 28 -177 29 29 33 37 38 35 43 49 54 49 51 52 53 52 54 498 500 -193 -177 116 562 -193 626 627 -193 -193 -193 -209 -193 -193 62 63 65 69 67 67 625 625 -177 750 76 76 78 81 80 80 78 81 81 83 83 79 77 83 -193 -193 -193 -193 -193 86 -209 -193 -193 92 -193 92 90 91 92 -193 102 102 104 105 105 103 103 102 102 -193 -209 -209 -193 -193 108 -193 117 122 119 119 119 119 120 120 120 121 114 120 122 125 128 128 132 136 135 137 0 0 0 0 0
    0 0 0 0 0 0 0 0 0 0 0 0 0 0 0 0 0 0 0 0 0 0 0 0 0 0 0 0 0 0 0 0 0 0 0 0 0 0 0 0 0 0 0 0 0 0 0 0 0 0 0 0 0 0 0 0 0 0 0 0 0 0 0 0 0 0 0 0 0 66 63 62 63 61 60 62 63 63 60 63 62 61 61 -193 59 -193 -193 -209 48 49 50 49 46 45 46 46 45 46 46 45 45 46 42 42 42 42 42 43 43 37 39 -193 42 42 40 40 39 38 39 37 33 32 30 30 30 28 28 27 27 24 23 24 22 23 21 21 22 21 22 22 20 21 19 21 20 16 19 17 13 14 14 12 11 12 11 10 10 9 9 9 9 10 11 11 12 12 13 13 14 13 13 13 13 13 11 10 9 0 0 0 9 9 0 9 15 18 26 25 21 22 21 22 22 23 -193 23 -193 27 -193 29 30 29 30 27 29 33 27 29 29 29 29 33 37 38 35 43 49 54 49 51 52 52 51 53 -193 -193 -193 -193 116 563 -193 -193 -193 -193 -193 -193 -209 -193 -193 62 63 64 68 66 66 -193 624 -193 750 76 76 78 80 80 80 78 81 80 82 83 79 77 81 -193 -193 -193 -193 -193 86 -209 -193 91 92 -193 93 91 92 93 -193 103 103 104 106 105 103 103 102 102 -193 -193 -209 362 363 107 -193 117 122 119 119 -193 119 119 119 119 120 111 120 122 125 127 127 132 136 134 136 0 0 0 0 0
    0 0 0 0 0 0 0 0 0 0 0 0 0 0 0 0 0 0 0 0 0 0 0 0 0 0 0 0 0 0 0 0 0 0 0 0 0 0 0 0 0 0 0 0 0 0 0 0 0 0 0 0 0 0 0 0 0 0 0 0 0 0 0 0 0 0 0 0 0 66 64 63 63 62 60 63 63 62 60 63 62 61 61 -193 59 -193 -193 -209 47 49 50 49 46 45 45 45 44 46 46 44 44 45 42 43 42 42 42 43 43 38 39 -193 41 41 39 39 39 38 38 36 32 32 30 30 30 28 28 27 27 24 23 24 22 23 21 22 22 21 22 23 20 21 20 21 20 17 20 18 13 15 15 13 12 12 12 11 11 10 10 9 9 10 10 11 12 12 13 13 14 13 13 13 13 13 11 9 9 0 0 0 0 0 0 9 14 17 26 25 21 22 21 22 23 -193 -209 -193 -177 28 28 29 31 30 31 27 29 33 27 29 29 29 30 32 37 39 36 44 49 53 49 50 52 52 50 53 53 -193 0 0 -193 -193 -193 59 59 59 -193 -193 -209 -193 -193 62 63 63 68 65 65 66 624 -193 749 -193 74 77 79 79 79 77 80 80 81 82 78 76 80 -193 82 81 -193 -193 -193 -193 -193 92 93 93 93 92 92 95 95 104 103 105 106 106 104 103 103 102 -193 -193 -193 362 362 -193 -193 -193 122 118 118 -193 118 117 117 118 118 109 120 122 125 128 128 133 136 135 137 0 0 0 0 0
    0 0 0 0 0 0 0 0 0 0 0 0 0 0 0 0 0 0 0 0 0 0 0 0 0 0 0 0 0 0 0 0 0 0 0 0 0 0 0 0 0 0 0 0 0 0 0 0 0 0 0 0 0 0 0 0 0 0 0 0 0 0 0 0 0 0 0 0 0 67 64 63 63 62 60 62 62 62 59 62 62 60 60 -193 59 -193 -193 57 49 50 51 50 46 45 45 45 44 46 46 44 43 45 42 43 42 42 42 42 43 38 39 -177 40 40 38 38 38 37 38 35 32 33 30 30 30 29 28 27 27 25 23 24 22 23 22 22 23 21 22 23 21 21 20 22 21 17 20 18 13 16 16 13 12 12 12 11 11 10 10 9 9 10 10 10 11 12 13 13 13 13 13 12 12 12 10 9 9 0 0 0 0 0 0 0 13 14 26 25 21 23 22 23 -193 -193 -209 -193 -193 29 29 30 31 30 31 28 30 34 28 30 30 30 30 32 37 39 36 43 48 53 48 50 52 51 49 52 53 -209 0 -177 -193 -177 -193 59 60 59 59 -193 -193 241 239 62 63 63 68 65 64 66 623 69 749 -193 74 76 78 79 78 77 79 80 80 82 78 76 79 80 81 80 80 -209 -193 -177 91 93 93 94 94 93 93 95 94 104 103 104 106 105 104 103 103 -193 -193 -193 -193 -177 -177 -177 -193 -193 122 -193 117 -193 117 116 116 116 117 108 121 123 127 131 131 133 137 136 137 0 0 0 0 0
    0 0 0 0 0 0 0 0 0 0 0 0 0 0 0 0 0 0 0 0 0 0 0 0 0 0 0 0 0 0 0 0 0 0 0 0 0 0 0 0 0 0 0 0 0 0 0 0 0 0 0 0 0 0 0 0 0 0 0 0 0 0 0 0 0 0 0 0 0 66 64 63 63 62 59 61 61 61 59 61 61 -193 60 -193 59 59 -193 58 49 50 51 50 46 45 45 46 44 46 46 44 43 44 42 42 42 41 41 42 43 38 39 -177 38 39 37 37 37 36 37 34 32 33 31 31 31 30 29 28 28 25 24 24 22 23 21 22 22 21 22 23 21 21 20 22 21 17 20 18 13 15 15 13 12 13 12 12 11 10 10 9 0 9 10 10 10 11 13 13 13 13 13 12 12 12 10 9 0 0 0 0 0 0 0 0 11 11 23 23 20 22 22 23 -193 24 -209 25 -193 29 29 29 31 30 31 28 31 35 28 31 31 31 30 32 37 38 35 43 46 53 48 49 51 50 48 52 52 -193 -193 -177 -177 -177 59 60 61 59 59 -193 -193 241 239 62 63 62 68 64 64 66 623 69 749 -177 73 76 78 79 78 77 79 80 80 81 77 76 78 79 80 79 79 -193 -193 -177 92 93 94 94 94 93 93 96 93 104 103 105 107 106 104 103 103 -193 -193 -193 -193 -177 -177 -177 -193 -193 -193 116 116 117 116 114 115 115 116 108 121 126 129 132 132 134 136 135 136 0 0 0 0 0
    0 0 0 0 0 0 0 0 0 0 0 0 0 0 0 0 0 0 0 0 0 0 0 0 0 0 0 0 0 0 0 0 0 0 0 0 0 0 0 0 0 0 0 0 0 0 0 0 0 0 0 0 0 0 0 0 0 0 0 0 0 0 0 0 0 0 0 0 0 67 64 63 63 62 58 59 59 59 57 58 59 -193 -193 -193 59 58 -193 57 49 49 51 50 46 46 45 46 44 46 46 44 43 44 41 42 41 41 41 42 43 38 39 -177 38 38 37 36 36 35 37 34 32 33 31 31 31 30 30 28 29 25 24 24 22 22 20 21 22 20 21 22 20 21 20 21 21 17 20 18 14 16 16 14 14 13 13 12 12 12 11 10 10 10 11 11 11 12 13 12 13 12 13 12 12 12 10 0 0 0 0 0 0 0 0 0 10 12 14 22 18 22 21 23 25 24 -193 26 -193 29 29 30 31 30 31 28 31 34 29 31 31 31 31 32 36 38 36 42 45 52 47 48 51 50 48 51 52 -193 -177 -177 -177 -177 59 60 61 60 59 -193 -193 240 239 62 63 62 67 64 64 66 622 68 749 -177 73 75 77 79 78 76 78 79 79 80 77 76 77 78 79 78 78 -209 -209 -193 92 94 94 95 95 94 93 97 94 105 105 106 108 108 105 104 104 -193 -177 -177 -177 -177 -177 -177 -209 -193 -193 115 116 117 116 114 114 115 116 108 122 130 131 132 133 134 136 135 136 0 0 0 0 0
    0 0 0 0 0 0 0 0 0 0 0 0 0 0 0 0 0 0 0 0 0 0 0 0 0 0 0 0 0 0 0 0 0 0 0 0 0 0 0 0 0 0 0 0 0 0 0 0 0 0 0 0 0 0 0 0 0 0 0 0 0 0 0 0 0 0 0 0 0 67 64 63 63 62 58 58 58 58 56 56 -209 -193 -209 -193 58 58 -193 57 50 50 51 50 46 46 46 46 45 46 46 44 43 45 42 42 41 41 42 42 43 -193 -193 -193 37 38 36 36 36 34 36 33 32 33 32 31 31 31 31 29 30 26 25 24 22 23 21 21 22 20 21 22 20 21 19 21 20 17 20 18 13 15 16 14 15 14 14 13 13 13 13 11 11 10 12 11 11 12 12 12 12 12 12 11 11 11 9 0 0 0 0 0 0 0 0 9 10 12 12 21 17 21 21 23 25 24 -193 26 26 29 29 30 31 30 31 29 31 34 29 32 31 32 31 32 36 38 35 41 42 50 46 47 51 50 48 50 51 52 50 -193 -177 -193 -193 59 61 60 59 -193 60 -193 238 62 63 62 67 64 64 66 -177 67 749 -177 72 75 77 78 77 76 77 79 78 79 76 76 76 77 78 77 78 -193 88 91 92 94 94 94 95 94 93 97 93 105 105 107 108 107 105 104 104 -209 -193 -177 -177 -177 -177 -177 -209 -193 -193 115 115 117 116 114 114 115 116 107 122 130 129 131 131 133 136 135 136 0 0 0 0 0
    0 0 0 0 0 0 0 0 0 0 0 0 0 0 0 0 0 0 0 0 0 0 0 0 0 0 0 0 0 0 0 0 0 0 0 0 0 0 0 0 0 0 0 0 0 0 0 0 0 0 0 0 0 0 0 0 0 0 0 0 0 0 0 0 0 0 0 0 0 67 64 63 63 62 58 59 58 58 55 56 -209 -193 -209 -209 -193 -193 -193 56 50 50 52 50 46 46 46 46 45 46 46 44 42 46 42 43 42 42 42 42 43 -193 989 993 36 37 36 35 35 33 36 33 32 33 32 31 31 31 31 29 30 26 26 25 22 23 21 21 22 20 21 21 20 21 19 21 20 16 20 18 14 15 16 17 16 15 15 15 15 15 15 13 12 11 13 12 12 12 12 12 12 11 12 11 10 10 9 0 0 0 0 0 0 9 9 10 11 13 12 20 15 20 20 23 25 24 27 26 26 30 30 30 31 30 31 29 31 34 29 33 33 34 32 33 36 38 36 41 41 49 45 46 51 49 48 50 51 52 50 54 -193 -209 58 60 61 60 59 -193 60 -193 -193 62 63 62 68 64 64 66 69 67 -177 -177 72 -193 76 78 77 75 77 79 77 79 77 76 76 78 79 78 79 88 88 91 92 93 94 94 95 94 93 97 93 103 103 105 106 105 103 102 103 -193 -193 -193 -177 -177 -177 -177 109 111 118 115 115 117 116 113 114 115 115 107 121 128 127 130 132 134 136 136 137 0 0 0 0 0
    0 0 0 0 0 0 0 0 0 0 0 0 0 0 0 0 0 0 0 0 0 0 0 0 0 0 0 0 0 0 0 0 0 0 0 0 0 0 0 0 0 0 0 0 0 0 0 0 0 0 0 0 0 0 0 0 0 0 0 0 0 0 0 0 0 0 0 0 0 67 64 63 63 62 59 59 58 58 55 56 -193 -193 -193 -209 -209 -209 56 56 50 50 52 50 46 46 46 46 45 46 46 44 42 46 42 43 42 42 42 42 43 -177 989 993 35 36 36 35 35 33 35 33 32 33 33 31 31 32 31 30 31 27 27 26 23 24 21 21 22 20 21 21 20 21 19 21 20 16 19 18 15 16 18 19 18 17 17 16 17 18 17 15 13 11 13 12 13 11 12 12 12 12 12 12 11 10 9 0 0 0 0 0 0 10 10 10 11 13 13 19 15 19 20 22 24 24 27 26 26 30 30 30 30 30 32 29 32 34 30 35 35 36 34 35 37 38 37 41 40 47 45 45 50 49 48 50 51 52 50 54 -193 55 58 60 62 60 59 60 61 59 65 64 65 63 68 65 65 66 69 66 -193 -177 72 -193 75 77 76 75 77 79 77 79 77 77 76 79 80 79 81 88 88 90 92 93 93 93 94 94 93 96 94 101 101 101 103 103 102 101 103 103 -193 -193 -193 -177 -177 -193 110 110 117 115 116 117 116 113 115 115 116 107 121 127 126 128 131 134 136 137 137 0 0 0 0 0
    0 0 0 0 0 0 0 0 0 0 0 0 0 0 0 0 0 0 0 0 0 0 0 0 0 0 0 0 0 0 0 0 0 0 0 0 0 0 0 0 0 0 0 0 0 0 0 0 0 0 0 0 0 0 0 0 0 0 0 0 0 0 0 0 0 0 0 0 0 66 63 63 63 62 58 58 58 57 54 55 -193 -193 -193 -193 -193 -193 56 56 51 50 52 50 46 46 46 46 45 46 46 43 43 46 42 43 42 42 42 42 44 -193 989 993 35 36 36 35 35 33 35 33 32 33 33 31 32 32 32 30 31 28 28 26 24 25 22 21 22 20 21 20 19 21 19 20 20 17 19 18 17 17 19 20 20 18 18 18 19 19 19 16 14 12 13 13 13 11 11 11 12 12 12 11 10 10 9 0 0 0 0 0 0 10 10 11 12 13 13 19 15 18 20 23 25 24 27 26 27 31 31 30 31 31 32 30 34 35 31 36 36 36 36 36 37 38 38 40 39 45 44 45 50 49 49 51 52 52 51 54 55 55 58 60 62 61 60 60 61 60 66 64 65 64 69 65 66 67 69 66 70 -193 72 -193 75 77 76 75 77 79 77 80 77 78 77 79 81 80 82 89 89 91 91 92 93 93 94 94 93 96 94 100 100 100 101 102 102 100 103 103 103 103 -193 -209 -177 -193 110 110 116 115 116 117 117 114 116 116 117 108 121 125 125 126 132 133 136 138 138 0 0 0 0 0
    0 0 0 0 0 0 0 0 0 0 0 0 0 0 0 0 0 0 0 0 0 0 0 0 0 0 0 0 0 0 0 0 0 0 0 0 0 0 0 0 0 0 0 0 0 0 0 0 0 0 0 0 0 0 0 0 0 0 0 0 0 0 0 0 0 0 0 0 0 66 63 63 62 61 58 57 57 56 54 55 55 -193 -193 55 -193 -193 55 56 52 51 53 50 46 47 46 46 45 45 45 43 43 46 42 42 42 41 42 41 44 -193 989 993 36 36 36 35 35 33 35 33 32 33 33 31 32 32 32 30 31 28 29 27 25 25 22 21 22 20 20 20 19 20 20 20 21 18 19 19 18 19 20 19 20 19 19 19 20 20 19 18 15 14 14 14 13 10 11 11 11 11 11 11 10 9 9 0 0 0 0 9 0 10 11 11 12 13 13 17 14 18 20 22 24 24 26 26 27 31 31 31 32 32 33 31 35 35 31 36 35 36 36 36 37 37 37 39 39 44 43 44 50 49 49 51 52 52 51 54 54 54 57 59 61 61 60 61 62 61 67 65 66 65 70 66 67 67 70 67 70 72 72 73 74 76 76 75 77 80 77 80 77 78 77 80 82 80 83 89 89 91 91 92 93 93 94 94 93 96 94 99 100 100 101 102 102 100 102 104 104 104 103 -193 -209 107 110 110 115 115 117 118 118 116 118 118 118 110 121 126 126 126 132 133 136 139 138 0 0 0 0 0
    0 0 0 0 0 0 0 0 0 0 0 0 0 0 0 0 0 0 0 0 0 0 0 0 0 0 0 0 0 0 0 0 0 0 0 0 0 0 0 0 0 0 0 0 0 0 0 0 0 0 0 0 0 0 0 0 0 0 0 0 0 0 0 0 0 0 0 0 0 66 63 62 62 61 58 57 57 55 53 55 55 55 55 55 55 55 55 55 52 51 53 50 47 47 46 46 45 45 45 43 43 45 42 42 41 41 42 41 43 -193 990 -193 36 37 36 35 35 33 35 33 32 32 32 30 31 32 32 30 31 29 30 28 27 26 23 22 22 21 20 20 19 20 20 20 21 19 19 19 20 19 20 20 21 20 18 19 20 20 20 19 16 16 15 15 15 10 12 12 12 12 12 11 11 10 10 0 0 0 0 10 9 11 12 12 13 14 13 17 15 18 20 22 24 24 26 26 27 31 32 32 32 33 33 32 35 34 31 35 34 36 36 37 37 37 38 39 39 43 43 44 50 49 49 50 51 52 51 53 53 51 56 58 60 60 60 60 62 62 68 66 66 66 70 67 68 68 70 67 70 72 72 73 74 76 75 75 77 80 76 79 77 79 77 81 83 81 84 89 89 91 91 92 92 92 94 94 93 95 95 99 100 100 101 102 102 101 102 104 104 104 104 105 106 107 109 110 115 116 117 118 119 118 119 119 120 117 121 123 124 124 127 129 134 138 138 0 0 0 0 0
    0 0 0 0 0 0 0 0 0 0 0 0 0 0 0 0 0 0 0 0 0 0 0 0 0 0 0 0 0 0 0 0 0 0 0 0 0 0 0 0 0 0 0 0 0 0 0 0 0 0 0 0 0 0 0 0 0 0 0 0 0 0 0 0 0 0 0 0 0 66 63 62 62 61 57 57 57 55 53 54 54 54 54 54 55 55 54 55 52 51 52 49 47 47 46 46 45 45 45 43 44 45 42 42 41 41 42 41 43 -193 -193 -193 36 37 37 36 35 34 36 33 32 32 32 30 31 32 31 30 31 29 30 29 28 26 24 23 22 21 20 19 19 20 21 20 21 19 19 19 20 19 20 19 21 20 18 19 21 21 21 20 19 18 17 19 18 11 13 12 13 12 12 12 12 11 11 9 0 0 0 11 10 12 12 12 13 14 14 17 15 18 19 20 23 23 25 25 27 31 33 33 33 34 33 32 35 34 31 35 33 36 35 37 37 37 38 38 39 42 42 43 49 48 49 49 51 51 51 53 52 49 55 58 58 59 59 59 61 63 68 66 66 67 70 68 68 68 70 68 70 72 73 73 74 75 75 75 77 79 76 77 77 79 78 83 84 82 85 89 89 91 91 91 91 92 94 94 94 96 95 99 99 100 101 102 101 100 102 104 104 105 104 106 107 108 109 110 114 116 118 119 120 119 121 121 122 121 120 121 122 122 125 125 133 137 137 0 0 0 0 0
    0 0 0 0 0 0 0 0 0 0 0 0 0 0 0 0 0 0 0 0 0 0 0 0 0 0 0 0 0 0 0 0 0 0 0 0 0 0 0 0 0 0 0 0 0 0 0 0 0 0 0 0 0 0 0 0 0 0 0 0 0 0 0 0 0 0 0 0 0 67 63 62 62 61 58 57 57 55 53 54 54 54 54 54 55 55 55 55 53 51 52 49 47 47 46 46 45 45 45 43 44 44 42 42 42 42 42 41 43 40 -193 -193 37 38 37 36 36 34 36 34 32 31 32 30 31 31 31 29 31 29 30 29 28 27 25 24 24 22 21 19 19 19 21 19 21 19 19 20 20 20 21 19 21 21 18 19 21 22 22 21 20 19 18 21 20 12 14 13 14 13 13 13 12 11 12 9 0 0 9 13 11 13 14 13 13 15 14 17 14 18 18 20 23 23 25 26 27 33 34 35 34 34 33 33 35 33 31 35 32 36 35 37 37 37 39 38 39 42 41 43 49 47 49 49 51 51 50 53 52 48 55 57 58 58 57 59 60 63 68 66 66 68 71 69 69 69 70 69 70 72 73 72 73 74 74 74 76 78 75 77 77 79 81 85 86 85 87 90 90 91 90 91 91 92 94 95 95 96 96 99 99 100 100 102 102 101 103 105 105 105 105 106 107 108 110 110 114 117 119 119 120 121 122 123 123 123 118 119 120 120 122 122 132 137 137 0 0 0 0 0
    0 0 0 0 0 0 0 0 0 0 0 0 0 0 0 0 0 0 0 0 0 0 0 0 0 0 0 0 0 0 0 0 0 0 0 0 0 0 0 0 0 0 0 0 0 0 0 0 0 0 0 0 0 0 0 0 0 0 0 0 0 0 0 0 0 0 0 0 0 67 63 63 62 61 58 58 58 56 54 55 55 55 55 55 55 55 55 55 53 52 52 49 48 48 47 46 45 45 44 43 45 44 42 42 42 41 42 41 42 39 39 40 38 38 38 37 37 35 36 34 32 31 31 30 31 31 31 29 31 29 30 29 29 27 27 26 25 24 22 20 19 20 21 19 21 20 19 20 20 20 20 18 20 20 18 19 21 22 22 21 20 19 18 22 21 13 15 14 15 14 15 14 13 12 12 10 9 0 10 14 11 13 14 14 14 15 14 17 15 18 19 20 23 24 25 26 27 33 34 35 33 34 34 34 35 34 31 36 33 37 35 37 37 37 38 38 38 41 41 43 49 47 49 49 51 51 51 53 52 49 55 57 57 57 57 59 61 64 68 67 67 69 72 70 70 70 71 70 71 73 73 72 73 74 74 74 76 78 75 77 78 81 84 88 88 87 88 90 90 91 90 91 91 93 94 95 97 97 98 100 100 101 102 103 103 103 104 106 106 106 106 107 108 109 110 110 115 118 120 120 121 121 123 124 125 125 117 117 118 118 119 120 130 137 137 0 0 0 0 0
    0 0 0 0 0 0 0 0 0 0 0 0 0 0 0 0 0 0 0 0 0 0 0 0 0 0 0 0 0 0 0 0 0 0 0 0 0 0 0 0 0 0 0 0 0 0 0 0 0 0 0 0 0 0 0 0 0 0 0 0 0 0 0 0 0 0 0 0 0 67 63 63 62 61 59 59 59 57 -193 56 56 55 -193 -193 55 55 56 55 -193 52 52 50 50 48 48 46 46 45 44 44 45 44 42 41 41 41 42 41 42 39 39 40 39 39 38 37 37 35 37 35 32 31 31 30 31 31 30 29 30 29 29 29 29 28 27 27 26 25 23 21 20 20 22 20 21 21 19 20 20 20 20 18 19 20 17 19 21 21 22 21 20 20 18 22 22 14 17 15 16 15 15 15 15 13 14 11 10 0 11 15 12 13 14 14 14 16 15 16 15 18 19 20 23 24 25 26 28 34 34 36 34 34 34 34 35 34 31 36 33 37 36 37 37 37 39 39 39 40 40 42 47 46 48 49 51 51 52 54 53 51 56 58 57 57 57 59 60 63 66 68 67 69 72 71 72 72 72 71 72 73 73 72 73 73 74 74 75 77 75 77 79 83 85 88 88 88 89 89 90 90 90 91 91 93 95 96 98 98 99 100 100 101 102 102 103 103 105 106 106 106 106 107 109 110 110 110 115 118 120 120 121 121 123 125 126 125 119 119 121 120 122 124 132 137 137 0 0 0 0 0
    0 0 0 0 0 0 0 0 0 0 0 0 0 0 0 0 0 0 0 0 0 0 0 0 0 0 0 0 0 0 0 0 0 0 0 0 0 0 0 0 0 0 0 0 0 0 0 0 0 0 0 0 0 0 0 0 0 0 0 0 0 0 0 0 0 0 0 0 0 67 63 63 62 61 58 59 59 56 -193 56 56 -193 -209 -193 -193 55 -193 56 -193 52 52 50 51 49 48 46 46 44 44 44 45 43 42 41 41 41 42 41 42 39 38 40 39 39 38 37 37 36 37 36 32 32 31 30 31 30 30 29 30 29 29 29 29 28 28 27 27 25 23 22 21 20 22 20 21 21 19 20 20 19 20 16 19 19 16 19 21 21 22 21 20 21 19 23 22 15 18 16 18 16 16 16 16 15 16 12 12 10 15 15 12 12 14 13 13 15 14 16 15 18 20 21 23 25 25 26 29 35 36 37 35 36 35 35 36 35 32 35 32 36 36 37 37 36 39 39 40 40 41 42 45 45 47 48 50 50 51 53 52 49 55 57 56 56 56 59 59 62 63 65 65 69 72 72 72 72 73 72 72 74 74 73 73 73 73 73 74 76 74 75 78 82 85 88 88 88 89 89 90 90 90 91 91 94 96 96 99 98 100 100 101 102 102 102 104 105 105 107 107 107 107 108 109 110 110 110 115 118 119 119 120 121 123 124 126 125 121 121 123 122 123 124 132 136 136 0 0 0 0 0
    0 0 0 0 0 0 0 0 0 0 0 0 0 0 0 0 0 0 0 0 0 0 0 0 0 0 0 0 0 0 0 0 0 0 0 0 0 0 0 0 0 0 0 0 0 0 0 0 0 0 0 0 0 0 0 0 0 0 0 0 0 0 0 0 0 0 0 0 0 66 63 63 62 61 58 59 59 -193 -177 56 -209 -193 -209 -193 56 56 57 56 -193 52 52 50 51 48 48 46 46 44 44 44 44 43 42 41 41 42 42 42 42 39 37 40 40 40 39 38 38 37 37 36 32 32 30 30 31 30 30 28 30 29 29 29 28 27 27 27 27 25 23 22 20 20 22 20 21 21 20 20 20 20 20 16 19 19 15 18 20 20 21 21 21 22 21 24 24 19 21 19 19 17 17 16 17 17 18 14 15 12 19 15 12 11 13 13 13 15 14 15 15 19 21 21 24 25 25 27 30 35 35 37 34 35 34 35 35 34 32 34 31 35 33 37 36 36 38 39 41 41 42 42 45 46 46 47 48 48 50 51 52 49 54 56 56 55 55 57 58 60 59 59 61 68 72 72 71 72 73 72 73 73 74 72 73 73 73 73 73 75 73 73 76 80 85 89 89 90 89 90 91 91 91 92 92 95 97 97 99 98 100 101 101 103 103 103 105 106 106 107 107 107 108 108 109 110 109 110 115 118 119 119 120 121 122 124 125 125 121 123 125 124 124 126 132 135 136 0 0 0 0 0
    0 0 0 0 0 0 0 0 0 0 0 0 0 0 0 0 0 0 0 0 0 0 0 0 0 0 0 0 0 0 0 0 0 0 0 0 0 0 0 0 0 0 0 0 0 0 0 0 0 0 0 0 0 0 0 0 0 0 0 0 0 0 0 0 0 0 0 0 0 67 64 63 63 62 59 60 60 57 -177 -193 -193 -193 -209 -209 56 56 57 56 55 51 51 50 50 48 47 46 46 44 44 44 44 42 42 41 42 42 42 42 42 39 37 40 40 40 39 38 38 37 38 36 33 31 30 30 30 29 29 28 29 28 28 29 28 27 27 27 27 25 24 22 21 20 22 21 21 22 21 21 21 21 21 18 19 19 15 18 20 20 21 22 23 23 23 25 25 21 22 20 19 17 17 17 18 18 20 17 20 18 23 18 12 12 14 13 12 15 14 15 15 19 21 21 24 26 25 27 29 32 32 35 33 35 33 34 34 34 32 33 30 34 32 36 36 36 38 40 42 42 43 43 46 45 46 47 47 48 48 50 50 46 52 54 53 53 52 57 57 59 58 58 61 68 72 71 71 71 73 72 72 73 73 71 72 72 73 72 73 74 73 72 75 78 83 89 89 89 88 89 91 90 91 93 92 96 97 97 99 99 100 101 101 103 103 104 106 107 107 108 108 107 108 109 109 110 109 110 115 118 118 118 119 120 121 122 123 123 121 123 126 124 125 126 130 133 134 0 0 0 0 0
    0 0 0 0 0 0 0 0 0 0 0 0 0 0 0 0 0 0 0 0 0 0 0 0 0 0 0 0 0 0 0 0 0 0 0 0 0 0 0 0 0 0 0 0 0 0 0 0 0 0 0 0 0 0 0 0 0 0 0 0 0 0 0 0 0 0 0 0 0 67 64 64 64 63 60 62 61 59 -193 -193 -193 57 57 57 56 56 56 55 54 50 50 51 51 49 48 47 46 45 45 45 44 42 42 41 42 42 42 42 42 40 38 40 41 40 40 39 39 38 38 37 33 31 30 30 30 29 29 28 29 28 28 28 27 27 27 27 27 26 24 23 22 21 22 22 22 23 21 22 22 22 23 21 20 20 16 18 20 21 22 23 23 24 24 25 25 23 23 21 20 18 17 17 18 19 22 20 22 21 23 20 13 13 15 13 13 16 15 16 16 20 22 22 24 26 26 27 28 31 31 34 32 35 33 34 34 34 32 34 31 35 31 36 36 36 37 40 41 42 43 43 45 45 46 47 47 48 48 50 51 50 54 55 54 54 54 56 57 58 57 57 59 67 71 70 70 70 72 72 72 72 72 70 72 72 72 70 71 73 73 73 75 78 81 89 88 89 88 89 91 90 90 93 92 96 97 98 99 98 101 101 101 102 103 104 106 108 107 108 108 108 108 108 109 110 109 110 116 118 117 117 118 119 120 121 122 122 121 123 126 124 124 126 129 132 133 0 0 0 0 0
    0 0 0 0 0 0 0 0 0 0 0 0 0 0 0 0 0 0 0 0 0 0 0 0 0 0 0 0 0 0 0 0 0 0 0 0 0 0 0 0 0 0 0 0 0 0 0 0 0 0 0 0 0 0 0 0 0 0 0 0 0 0 0 0 0 0 0 0 0 67 65 64 64 63 60 63 63 60 60 -193 -193 58 57 57 57 56 56 55 54 51 51 52 51 49 48 48 47 46 46 46 44 42 42 41 42 42 42 41 42 41 40 41 43 41 40 40 39 38 38 37 33 32 30 30 29 29 29 28 29 28 28 28 27 27 27 27 27 26 25 23 22 21 22 22 21 22 22 23 23 23 23 23 22 21 19 19 20 22 23 25 25 27 27 27 27 25 25 23 22 20 18 17 19 20 22 22 -193 -193 -193 20 14 15 15 13 12 15 15 16 15 20 23 23 25 27 26 27 28 31 30 33 31 34 33 34 34 34 33 35 32 35 32 36 35 35 37 39 40 41 42 43 44 45 46 48 47 49 48 50 52 52 54 54 53 54 54 57 57 58 57 57 59 66 71 69 69 71 72 72 72 72 72 71 73 74 73 71 72 74 74 75 77 78 78 87 88 88 88 89 91 90 90 92 92 96 96 97 99 98 101 101 100 101 102 103 105 107 107 108 108 108 108 108 109 110 109 109 116 117 117 117 118 119 120 121 121 121 121 122 125 123 123 125 127 132 133 0 0 0 0 0
    0 0 0 0 0 0 0 0 0 0 0 0 0 0 0 0 0 0 0 0 0 0 0 0 0 0 0 0 0 0 0 0 0 0 0 0 0 0 0 0 0 0 0 0 0 0 0 0 0 0 0 0 0 0 0 0 0 0 0 0 0 0 0 0 0 0 0 0 0 66 64 64 64 63 61 63 63 61 61 60 61 59 58 57 57 56 56 54 54 51 51 52 51 49 49 48 48 47 46 46 44 42 42 41 42 41 42 41 42 41 41 41 44 41 40 40 39 39 38 37 34 32 31 30 29 29 29 28 29 29 28 27 27 27 27 27 27 26 25 24 22 21 22 21 21 22 22 23 23 24 24 25 23 21 19 15 13 14 19 23 25 27 27 26 26 26 26 26 24 23 -225 -225 -225 -225 -225 -225 -225 -225 -225 -225 -225 -225 -225 -225 -225 -225 17 15 16 21 24 25 25 28 27 28 28 30 29 32 31 34 32 33 33 34 33 35 32 35 32 36 35 35 36 39 39 41 43 44 45 46 48 50 49 51 49 51 53 53 53 53 53 53 54 57 57 58 57 58 60 67 71 69 69 71 72 71 71 71 72 70 73 74 73 71 73 75 75 77 79 78 76 86 88 91 90 90 92 90 92 94 95 97 97 97 99 98 101 101 101 101 102 102 105 107 107 107 108 107 108 107 109 110 109 109 116 117 116 117 118 119 119 120 121 121 121 122 124 122 122 124 125 131 134 0 0 0 0 0
    0 0 0 0 0 0 0 0 0 0 0 0 0 0 0 0 0 0 0 0 0 0 0 0 0 0 0 0 0 0 0 0 0 0 0 0 0 0 0 0 0 0 0 0 0 0 0 0 0 0 0 0 0 0 0 0 0 0 0 0 0 0 0 0 0 0 0 0 0 66 64 64 64 63 61 63 63 60 61 60 61 59 58 58 56 56 56 54 53 51 51 52 50 50 49 47 48 47 47 45 43 42 42 42 42 42 42 42 42 42 41 41 43 41 40 40 39 38 38 37 34 32 31 31 29 30 30 29 30 29 29 28 28 28 28 28 28 26 25 24 22 22 21 21 21 23 23 24 24 25 26 27 25 22 20 16 13 15 19 23 25 27 27 27 27 28 28 27 26 -225 -225 -225 -225 -225 -225 -225 -225 -225 -225 -225 -225 -225 -225 -225 -225 -225 -225 -225 -225 23 27 26 25 29 27 28 28 29 29 32 31 35 32 33 33 34 33 34 32 35 31 35 35 35 36 39 40 42 44 44 45 47 50 52 51 52 51 51 53 53 53 53 52 53 54 56 57 59 59 61 63 67 71 69 68 70 72 71 71 71 72 70 74 75 74 71 73 74 75 76 76 75 73 73 80 90 90 90 93 90 91 92 93 94 97 95 98 97 101 101 101 101 103 100 104 105 106 106 107 107 -193 106 108 110 109 110 116 116 115 116 118 119 119 120 120 120 121 123 124 122 122 124 125 131 135 0 0 0 0 0
    0 0 0 0 0 0 0 0 0 0 0 0 0 0 0 0 0 0 0 0 0 0 0 0 0 0 0 0 0 0 0 0 0 0 0 0 0 0 0 0 0 0 0 0 0 0 0 0 0 0 0 0 0 0 0 0 0 0 0 0 0 0 0 0 0 0 0 0 0 65 64 64 64 63 60 62 62 59 60 60 60 59 58 58 56 56 56 54 53 50 52 52 50 50 49 47 48 47 48 45 43 43 43 43 43 42 42 42 43 43 41 41 42 41 40 40 39 38 37 37 34 31 30 30 29 29 29 29 30 29 29 28 27 28 28 28 27 26 25 24 23 22 21 22 22 25 24 26 27 29 30 30 28 25 22 17 13 17 20 23 25 27 26 26 27 28 28 27 -225 -225 -225 -225 -225 -225 -225 -225 -225 -225 -225 -225 -225 -225 -225 -225 -225 -225 -225 -225 -225 -225 -225 24 24 30 28 30 29 29 29 33 32 35 33 34 33 34 34 34 32 34 30 36 36 36 37 40 41 43 45 45 46 48 50 52 51 53 51 52 54 54 53 53 52 53 54 57 58 60 60 63 65 68 70 68 68 70 72 71 72 72 72 71 74 76 74 72 73 73 74 74 74 74 67 69 71 -209 75 87 83 79 85 90 91 88 94 92 95 94 96 96 94 94 99 93 100 -193 -193 -193 -193 -193 48 -193 107 109 108 109 116 115 114 116 118 118 118 119 119 119 121 123 124 122 122 124 125 131 136 0 0 0 0 0
    0 0 0 0 0 0 0 0 0 0 0 0 0 0 0 0 0 0 0 0 0 0 0 0 0 0 0 0 0 0 0 0 0 0 0 0 0 0 0 0 0 0 0 0 0 0 0 0 0 0 0 0 0 0 0 0 0 0 0 0 0 0 0 0 0 0 0 0 0 65 64 64 64 63 61 62 63 60 60 60 60 59 58 58 56 55 56 54 52 50 52 51 49 50 49 47 48 48 48 45 43 43 43 43 43 43 43 42 43 43 42 42 42 42 41 40 40 39 37 37 35 32 31 30 29 30 29 30 30 30 29 27 27 28 28 29 27 26 25 24 23 24 23 23 24 26 27 29 31 36 35 33 31 27 25 21 15 18 21 23 25 27 28 28 29 30 30 -225 -225 -225 -225 -225 -225 -225 -225 -225 -225 -225 -225 -225 -225 -225 -225 -225 -225 -225 -225 -225 -225 -225 -225 -225 23 31 28 30 29 28 29 33 32 36 32 34 34 34 34 33 31 34 30 36 37 38 39 42 42 45 46 47 48 49 50 52 52 53 52 52 53 54 53 53 52 54 54 57 58 60 61 63 66 68 70 67 68 70 71 71 72 72 73 72 74 76 75 73 73 73 74 74 74 73 63 62 62 57 60 65 64 68 70 -193 -193 77 81 84 88 89 90 89 -193 -193 -193 89 91 -209 -193 -209 -209 -209 50 -209 -193 -193 -193 107 115 114 113 116 118 119 119 120 119 119 120 122 123 121 121 122 123 130 136 0 0 0 0 0
    0 0 0 0 0 0 0 0 0 0 0 0 0 0 0 0 0 0 0 0 0 0 0 0 0 0 0 0 0 0 0 0 0 0 0 0 0 0 0 0 0 0 0 0 0 0 0 0 0 0 0 0 0 0 0 0 0 0 0 0 0 0 0 0 0 0 0 0 0 64 64 64 64 64 62 62 64 61 61 61 61 59 58 58 56 55 56 54 52 50 52 51 48 50 49 47 49 49 49 45 44 44 43 44 43 43 43 42 43 43 42 42 42 43 41 41 40 39 38 37 36 32 31 29 28 29 29 30 31 30 30 27 28 29 29 30 27 26 25 24 24 25 26 27 28 32 36 37 38 39 37 36 33 29 26 22 15 18 20 23 25 26 27 28 30 31 -225 -225 -225 -225 -225 -225 -225 -225 -225 -225 -225 -225 -225 -225 -225 -225 -225 -225 -225 -225 -225 -225 -225 -225 -225 -225 -225 33 27 28 26 25 27 30 30 35 30 32 32 33 35 33 31 33 29 34 36 38 38 42 42 45 46 47 48 50 51 52 52 53 52 52 53 54 54 53 53 54 55 57 58 61 62 65 66 68 69 67 67 69 70 71 72 72 73 73 75 77 75 73 73 73 74 73 73 71 62 61 61 58 58 61 59 62 66 68 70 72 74 74 79 85 87 -209 -193 -193 -209 85 89 -209 -209 -209 -209 91 92 91 94 -193 90 102 112 112 112 117 119 120 119 120 119 119 120 121 122 120 120 121 121 129 136 0 0 0 0 0
    0 0 0 0 0 0 0 0 0 0 0 0 0 0 0 0 0 0 0 0 0 0 0 0 0 0 0 0 0 0 0 0 0 0 0 0 0 0 0 0 0 0 0 0 0 0 0 0 0 0 0 0 0 0 0 0 0 0 0 0 0 0 0 0 0 0 0 0 0 64 65 65 64 64 62 62 65 61 61 61 61 59 58 59 56 55 56 54 52 51 52 51 48 50 49 47 49 49 50 45 45 44 43 44 43 43 43 42 43 43 43 43 42 43 42 42 41 40 38 38 37 34 33 30 29 29 30 32 33 32 31 28 29 30 30 31 28 27 25 27 30 34 39 40 38 38 40 40 40 40 38 37 35 32 30 25 14 19 22 25 24 25 27 27 29 -225 -225 -225 -225 -225 -225 -225 -225 -225 -225 -225 -225 -225 -225 -225 -225 -225 -225 -225 -225 -225 -225 -225 -225 -225 -225 -225 -225 -225 -225 28 26 25 27 30 31 36 32 34 33 35 35 33 31 32 28 31 35 38 38 41 42 45 46 47 49 50 50 52 52 53 52 52 53 53 53 53 52 54 55 57 57 61 62 65 66 67 69 66 67 69 69 71 71 72 73 74 76 78 76 75 74 74 74 73 73 72 66 63 61 59 58 61 57 60 63 69 71 73 74 74 76 80 82 -193 -209 -209 -209 -209 -193 -193 -209 92 -193 93 93 91 92 87 88 99 108 111 112 118 120 121 120 121 120 120 120 121 121 119 119 120 120 128 -193 0 0 0 0 0
    0 0 0 0 0 0 0 0 0 0 0 0 0 0 0 0 0 0 0 0 0 0 0 0 0 0 0 0 0 0 0 0 0 0 0 0 0 0 0 0 0 0 0 0 0 0 0 0 0 0 0 0 0 0 0 0 0 0 0 0 0 0 0 0 0 0 0 0 0 64 65 65 64 64 62 62 65 61 60 61 60 59 58 59 56 55 56 54 52 51 53 51 48 50 50 47 49 50 50 45 45 44 42 44 42 43 43 42 43 43 43 43 42 44 42 42 42 41 40 40 39 37 36 31 31 31 31 33 33 34 33 30 32 33 33 35 33 31 28 38 40 41 42 43 42 41 41 41 41 40 39 37 35 34 34 -193 9 18 23 23 23 24 -225 -225 -225 -225 -225 -225 -225 -225 -225 -225 -225 -225 -225 -225 -225 -225 -225 -225 -225 -225 -225 -225 -225 -225 -225 -225 -225 -225 -225 -225 -225 -225 -225 -225 -225 -225 -225 30 33 38 35 36 35 35 36 33 30 30 27 29 35 39 38 40 41 44 46 46 48 49 49 52 51 53 52 52 53 53 53 53 53 54 55 57 58 62 62 66 67 67 68 66 67 69 68 70 71 71 74 74 76 77 76 75 74 73 74 73 73 74 71 70 72 74 74 75 -209 66 68 72 74 75 74 72 75 79 -209 -209 -209 -209 -209 -209 -193 93 95 98 98 96 96 92 93 89 87 93 103 107 111 119 122 122 121 123 121 121 120 122 121 119 119 119 118 128 -209 0 0 0 0 0
    0 0 0 0 0 0 0 0 0 0 0 0 0 0 0 0 0 0 0 0 0 0 0 0 0 0 0 0 0 0 0 0 0 0 0 0 0 0 0 0 0 0 0 0 0 0 0 0 0 0 0 0 0 0 0 0 0 0 0 0 0 0 0 0 0 0 0 0 0 63 65 64 64 63 62 61 65 60 60 60 59 58 58 58 56 55 56 54 52 51 53 51 47 50 49 47 49 49 50 44 45 44 42 43 42 43 43 42 43 43 43 44 43 45 43 43 43 43 41 42 41 41 38 35 36 34 32 36 36 36 36 35 36 36 36 39 37 38 40 42 43 44 45 45 44 42 43 42 41 40 38 35 34 -225 -225 -225 -225 -225 -225 -225 -225 -225 -225 -225 -225 -225 -225 -225 -225 -225 -225 -225 -225 -225 -225 -225 -225 -225 -225 -225 -225 -225 -225 -225 -225 -225 -225 -225 -225 -225 -225 -225 -225 -225 -225 -225 -225 -225 -225 -225 -225 -225 -225 -225 29 28 29 28 27 28 26 29 36 43 41 43 46 48 50 50 51 51 50 52 51 52 52 52 52 53 53 53 53 55 55 57 58 64 64 67 67 67 68 67 67 69 67 70 71 72 74 75 77 77 76 76 75 74 74 73 74 74 73 74 75 79 82 80 78 70 70 73 74 74 72 71 75 83 85 85 82 88 91 92 93 93 93 98 101 99 99 95 95 90 88 92 100 103 110 119 122 121 121 123 121 121 121 122 121 120 120 120 -193 -193 -193 0 0 0 0 0
    0 0 0 0 0 0 0 0 0 0 0 0 0 0 0 0 0 0 0 0 0 0 0 0 0 0 0 0 0 0 0 0 0 0 0 0 0 0 0 0 0 0 0 0 0 0 0 0 0 0 0 0 0 0 0 0 0 0 0 0 0 0 0 0 0 0 0 0 0 63 65 64 63 63 62 61 64 60 60 60 59 58 57 58 56 54 56 54 52 51 53 51 47 50 49 46 48 49 49 44 46 45 43 44 42 43 43 43 43 43 43 44 43 46 43 44 44 44 43 43 42 42 41 40 41 39 37 39 38 38 37 37 36 36 36 39 39 41 42 44 45 45 46 46 45 43 43 43 42 41 39 -225 -225 -225 -225 -225 -225 -225 -225 -225 -225 -225 -225 -225 -225 -225 -225 -225 -225 -225 -225 -225 -225 -225 -225 -225 -225 -225 -225 -225 -225 -225 -225 -225 -225 -225 -225 -225 -225 -225 -225 -225 -225 -225 -225 -225 -225 -225 -225 -225 -225 -225 -225 -225 -225 -225 -225 23 23 26 27 33 38 47 46 48 51 51 52 52 52 52 51 52 52 52 52 52 52 52 52 54 53 55 56 58 59 65 64 66 67 67 67 67 67 68 67 70 71 72 75 76 77 77 76 76 76 75 76 74 76 75 76 76 77 81 82 82 82 75 71 74 75 74 72 71 75 82 82 84 82 88 -193 90 91 90 91 93 95 95 98 96 99 94 95 100 102 102 -209 -209 121 121 121 124 121 122 121 122 121 121 122 122 -209 130 -209 0 0 0 0 0
    0 0 0 0 0 0 0 0 0 0 0 0 0 0 0 0 0 0 0 0 0 0 0 0 0 0 0 0 0 0 0 0 0 0 0 0 0 0 0 0 0 0 0 0 0 0 0 0 0 0 0 0 0 0 0 0 0 0 0 0 0 0 0 0 0 0 0 0 0 62 66 64 63 63 62 61 63 60 60 60 58 57 57 58 56 54 56 54 52 52 53 51 47 51 49 46 48 49 49 45 46 46 43 44 43 44 43 43 44 43 44 45 44 47 45 46 46 45 44 45 44 44 42 42 43 42 40 40 39 39 39 39 38 37 37 41 41 42 45 47 47 47 48 47 45 44 44 43 43 42 -225 -225 -225 -225 -225 -225 -225 -225 -225 -225 -225 -225 -225 -225 -225 -225 -225 -225 -225 -225 -225 -225 -225 -225 -225 -225 -225 -225 -225 -225 -225 -225 -225 -225 -225 -225 -225 -225 -225 -225 -225 -225 -225 -225 -225 -225 -225 -225 -225 -225 -225 -225 -225 -225 -225 -225 -225 -225 -225 30 30 36 40 51 51 50 52 52 53 53 53 53 51 52 52 52 52 52 52 52 52 54 54 56 57 58 58 64 63 64 66 66 66 66 66 68 66 70 71 71 74 75 76 76 76 76 76 76 77 75 77 77 79 79 79 83 84 83 83 77 71 73 75 73 72 71 74 78 77 82 83 87 86 89 89 89 89 90 91 92 93 94 93 94 96 -209 -209 -193 -209 -209 120 120 120 124 122 122 121 122 121 122 123 123 -209 131 -193 0 0 0 0 0
    0 0 0 0 0 0 0 0 0 0 0 0 0 0 0 0 0 0 0 0 0 0 0 0 0 0 0 0 0 0 0 0 0 0 0 0 0 0 0 0 0 0 0 0 0 0 0 0 0 0 0 0 0 0 0 0 0 0 0 0 0 0 0 0 0 0 0 0 0 62 66 64 63 63 62 61 63 60 60 60 58 57 57 58 56 54 56 54 52 52 53 51 47 51 49 47 47 49 49 45 47 46 43 44 43 43 43 43 44 43 44 45 44 48 46 48 48 46 46 47 46 47 43 44 44 43 42 42 41 41 39 39 38 38 39 42 42 43 46 48 48 48 49 47 46 45 45 45 45 -225 -225 -225 -225 -225 -225 -225 -225 -225 -225 -225 -225 -225 -225 -225 -225 -225 -225 -225 -225 -225 -225 -225 -225 -225 -225 -225 -225 -225 -225 -225 -225 -225 -225 -225 -225 -225 -225 -225 -225 -225 -225 -225 -225 -225 -225 -225 -225 -225 -225 -225 -225 -225 -225 -225 -225 -225 -225 -225 -225 -225 -225 38 42 53 53 51 53 52 53 53 53 53 52 52 51 51 52 51 52 52 52 53 54 56 57 57 57 62 62 63 65 65 65 65 66 67 65 69 70 70 73 74 75 75 76 76 76 75 76 75 78 77 80 78 79 84 84 81 83 75 70 73 76 75 74 75 78 81 79 83 82 85 83 87 87 87 86 88 86 87 85 -193 85 86 86 -209 93 103 -193 -209 119 119 120 124 121 122 121 122 121 123 125 125 -209 133 -193 0 0 0 0 0
    0 0 0 0 0 0 0 0 0 0 0 0 0 0 0 0 0 0 0 0 0 0 0 0 0 0 0 0 0 0 0 0 0 0 0 0 0 0 0 0 0 0 0 0 0 0 0 0 0 0 0 0 0 0 0 0 0 0 0 0 0 0 0 0 0 0 0 0 0 62 67 64 63 63 62 61 63 61 60 59 58 57 57 58 56 54 56 54 52 52 53 51 47 51 49 47 48 49 49 46 48 47 44 45 43 44 43 43 44 44 45 46 45 49 47 49 50 48 48 49 48 50 46 47 47 45 44 44 43 42 40 40 39 39 41 43 44 45 47 49 50 50 49 47 47 47 47 46 -225 -225 -225 -225 -225 -225 -225 -225 -225 -225 -225 -225 -225 -225 -225 -225 -225 -225 -225 -225 -225 -225 -225 -225 -225 -225 -225 -225 -225 -225 -225 -225 -225 -225 -225 -225 -225 -225 -225 -225 -225 -225 -225 -225 -225 -225 -225 -225 -225 -225 -225 -225 -225 -225 -225 -225 -225 -225 -225 -225 -225 -225 -225 -225 52 54 54 53 54 52 54 53 53 53 52 51 51 50 52 50 51 51 51 53 53 55 56 56 56 61 61 62 64 64 64 64 65 66 64 67 68 69 72 73 75 75 76 76 77 76 77 76 80 79 82 79 79 82 83 80 80 74 71 73 76 76 75 75 78 82 79 84 83 -209 -209 -209 87 87 82 85 81 77 76 84 78 78 80 -193 88 101 115 -209 119 119 120 123 121 122 122 122 121 123 125 125 122 134 145 0 0 0 0 0
    0 0 0 0 0 0 0 0 0 0 0 0 0 0 0 0 0 0 0 0 0 0 0 0 0 0 0 0 0 0 0 0 0 0 0 0 0 0 0 0 0 0 0 0 0 0 0 0 0 0 0 0 0 0 0 0 0 0 0 0 0 0 0 0 0 0 0 0 0 62 67 65 63 63 62 61 63 61 60 59 58 57 57 58 56 55 56 55 53 52 53 52 48 51 49 48 48 49 49 47 48 47 44 45 43 44 43 43 45 44 46 48 46 50 49 51 52 50 50 51 52 53 51 51 51 48 46 46 45 43 40 40 41 42 44 46 48 47 49 50 51 50 49 48 48 47 47 -225 -225 -225 -225 -225 -225 -225 -225 -225 -225 -225 -225 -225 -225 -225 -225 -225 -225 -225 -225 -225 -225 -225 -225 -225 -225 -225 -225 -225 -225 -225 -225 -225 -225 -225 -225 -225 -225 -225 -225 -225 -225 -225 -225 -225 -225 -225 -225 -225 -225 -225 -225 -225 -225 -225 -225 -225 -225 -225 -225 -225 -225 -225 -225 -225 -225 -225 57 54 55 53 54 53 53 54 52 52 51 49 52 49 50 50 50 52 53 55 56 56 56 62 61 62 64 64 65 65 66 66 64 67 67 68 72 73 75 75 76 77 77 77 78 77 81 80 82 79 79 82 83 81 82 76 72 74 77 77 75 77 78 80 78 82 83 -209 -209 -209 92 92 89 90 90 -193 82 -193 75 76 77 72 87 101 -177 121 118 118 119 122 121 122 122 122 121 123 125 126 123 135 146 0 0 0 0 0
    0 0 0 0 0 0 0 0 0 0 0 0 0 0 0 0 0 0 0 0 0 0 0 0 0 0 0 0 0 0 0 0 0 0 0 0 0 0 0 0 0 0 0 0 0 0 0 0 0 0 0 0 0 0 0 0 0 0 0 0 0 0 0 0 0 0 0 0 0 62 67 64 62 62 62 61 62 61 60 59 58 57 57 58 56 55 56 55 53 0 -256 -1 -13318 51 49 48 47 49 49 47 48 47 44 44 43 43 43 43 45 44 47 49 48 51 51 52 53 52 52 52 53 54 53 53 53 51 51 51 49 48 45 45 46 45 47 49 51 50 50 51 50 49 49 48 47 47 -225 -225 -225 -225 -225 -225 -225 -225 -225 -225 -225 -225 -225 -225 -225 -225 -225 -225 -225 -225 -225 -225 -225 -225 -225 -225 -225 -225 -225 -225 -225 -225 -225 -225 -225 -225 -225 -225 -225 -225 -225 -225 -225 -225 -225 -225 -225 -225 -225 -225 -225 -225 -225 -225 -225 -225 -225 -225 -225 -225 -225 -225 -225 -225 -225 -225 -225 -225 59 56 56 54 55 54 54 54 52 52 51 48 51 46 48 46 47 51 51 53 55 55 56 62 61 62 64 64 65 65 65 65 64 66 66 67 71 72 74 74 75 76 76 77 78 77 81 81 83 80 80 82 82 81 83 78 75 78 81 81 81 82 84 85 83 86 86 -209 100 103 99 97 92 96 93 93 91 93 79 76 77 77 87 101 -177 120 117 117 119 121 120 121 121 121 121 122 125 125 123 135 144 0 0 0 0 0
    0 0 0 0 0 0 0 0 0 0 0 0 0 0 0 0 0 0 0 0 0 0 0 0 0 0 0 0 0 0 0 0 0 0 0 0 0 0 0 0 0 0 0 0 0 0 0 0 0 0 0 0 0 0 0 0 0 0 0 0 0 0 0 0 0 0 0 0 0 62 66 64 62 62 62 62 62 61 60 59 58 57 57 58 56 55 56 55 54 53 54 53 48 51 50 48 48 49 49 47 49 48 45 44 43 43 42 43 46 45 48 51 50 51 53 53 54 53 53 53 54 55 55 55 55 -193 55 56 54 53 55 54 52 51 52 52 53 52 52 51 49 49 49 48 47 -225 -225 -225 -225 -225 -225 -225 -225 -225 -225 -225 -225 -225 -225 -225 -225 -225 -225 -225 -225 -225 -225 -225 -225 -225 -225 -225 -225 -225 -225 -225 -225 -225 -225 -225 -225 -225 -225 -225 -225 -225 -225 -225 -225 -225 -225 -225 -225 -225 -225 -225 -225 -225 -225 -225 -225 -225 -225 -225 -225 -225 -225 -225 -225 -225 -225 -225 -225 -225 -225 57 58 54 55 54 54 54 53 51 51 48 51 46 47 46 46 52 54 54 58 58 59 64 62 63 65 63 64 63 65 65 64 66 66 67 70 71 73 73 75 75 76 77 78 78 81 81 83 80 81 82 82 80 82 78 76 78 83 82 84 85 86 88 87 89 90 90 -193 104 98 96 -193 93 93 94 91 -193 -209 -193 76 79 88 102 115 119 116 116 119 120 120 120 120 121 120 122 124 124 123 135 143 0 0 0 0 0
    0 0 0 0 0 0 0 0 0 0 0 0 0 0 0 0 0 0 0 0 0 0 0 0 0 0 0 0 0 0 0 0 0 0 0 0 0 0 0 0 0 0 0 0 0 0 0 0 0 0 0 0 0 0 0 0 0 0 0 0 0 0 0 0 0 0 0 0 0 61 66 63 62 62 62 62 62 61 60 59 58 57 57 58 57 56 56 56 54 54 54 53 49 52 50 49 49 49 50 49 50 51 47 46 45 44 43 44 47 46 50 51 51 52 53 54 54 53 53 53 55 56 57 56 57 -193 58 60 58 57 59 58 56 55 55 54 55 54 53 51 50 49 49 48 -225 -225 -225 -225 -225 -225 -225 -225 -225 -225 -225 -225 -225 -225 -225 -225 -225 -225 -225 -225 -225 -225 -225 -225 -225 -225 -225 -225 -225 -225 -225 -225 -225 -225 -225 -225 -225 -225 -225 -225 -225 -225 -225 -225 -225 -225 -225 -225 -225 -225 -225 -225 -225 -225 -225 -225 -225 -225 -225 -225 -225 -225 -225 -225 -225 -225 -225 -225 -225 -225 -225 -225 60 55 56 55 54 55 54 52 52 49 51 47 49 49 48 53 56 56 60 61 61 64 63 63 65 63 64 63 63 63 64 65 66 66 69 72 73 74 76 76 76 77 79 78 81 80 81 78 79 80 79 78 80 78 76 81 86 85 87 87 88 89 87 89 90 89 104 104 100 97 92 95 96 98 93 98 -209 -209 -209 -209 -193 104 115 119 115 116 119 120 119 120 120 120 119 122 124 124 123 135 143 0 0 0 0 0
    0 0 0 0 0 0 0 0 0 0 0 0 0 0 0 0 0 0 0 0 0 0 0 0 0 0 0 0 0 0 0 0 0 0 0 0 0 0 0 0 0 0 0 0 0 0 0 0 0 0 0 0 0 0 0 0 0 0 0 0 0 0 0 0 0 0 0 0 0 62 66 64 62 62 62 62 62 62 60 59 58 57 57 58 57 56 57 57 55 55 55 54 49 52 50 49 49 50 50 50 50 51 49 47 47 45 43 44 49 48 51 52 51 52 53 53 53 53 53 54 -193 -193 -209 58 61 60 61 64 65 62 63 60 59 57 57 56 56 54 52 51 50 50 50 -225 -225 -225 -225 -225 -225 -225 -225 -225 -225 -225 -225 -225 -225 -225 -225 -225 -225 -225 -225 -225 -225 -225 -225 -225 -225 -225 -225 -225 -225 -225 -225 -225 -225 -225 -225 -225 -225 -225 -225 -225 -225 -225 -225 -225 -225 -225 -225 -225 -225 -225 -225 -225 -225 -225 -225 -225 -225 -225 -225 -225 -225 -225 -225 -225 -225 -225 -225 -225 -225 -225 -225 -225 -225 54 55 54 54 55 54 52 53 50 52 48 52 52 49 54 58 58 62 63 63 64 62 63 64 63 63 62 63 62 63 65 65 66 68 71 74 74 76 76 76 77 78 78 80 80 81 78 78 79 78 77 81 80 78 84 -209 87 89 89 90 90 88 90 91 -209 -193 105 104 101 100 100 101 103 98 101 -209 -209 -209 -209 -193 104 113 118 115 116 119 119 119 120 120 120 118 122 124 123 123 135 141 0 0 0 0 0
    0 0 0 0 0 0 0 0 0 0 0 0 0 0 0 0 0 0 0 0 0 0 0 0 0 0 0 0 0 0 0 0 0 0 0 0 0 0 0 0 0 0 0 0 0 0 0 0 0 0 0 0 0 0 0 0 0 0 0 0 0 0 0 0 0 0 0 0 0 62 66 64 63 63 62 62 62 62 60 59 59 58 58 59 58 57 57 57 55 55 55 54 49 52 50 50 50 51 50 51 51 51 50 49 50 46 45 47 52 50 52 52 51 51 52 53 52 51 52 53 -209 -209 -209 -209 69 67 66 67 66 64 64 61 60 58 58 57 56 54 53 52 50 50 -225 -225 -225 -225 -225 -225 -225 -225 -225 -225 -225 -225 -225 -225 -225 -225 -225 -225 -225 -225 -225 -225 -225 -225 -225 -225 -225 -225 -225 -225 -225 -225 -225 -225 -225 -225 -225 -225 -225 -225 -225 -225 -225 -225 -225 -225 -225 -225 -225 -225 -225 -225 -225 -225 -225 -225 -225 -225 -225 -225 -225 -225 -225 -225 -225 -225 -225 -225 -225 -225 -225 -225 -225 -225 -225 -225 -225 -225 54 55 54 53 53 50 53 47 50 56 49 57 63 61 66 67 67 68 67 67 68 65 66 64 64 63 64 65 64 64 67 70 73 73 75 76 76 76 77 77 79 79 79 77 78 79 78 78 82 81 81 86 -209 88 89 90 90 90 90 90 92 94 104 105 105 103 102 100 102 103 100 102 102 -209 -209 -209 90 102 109 117 114 115 119 119 119 120 120 120 118 121 123 122 123 135 140 0 0 0 0 0
    0 0 0 0 0 0 0 0 0 0 0 0 0 0 0 0 0 0 0 0 0 0 0 0 0 0 0 0 0 0 0 0 0 0 0 0 0 0 0 0 0 0 0 0 0 0 0 0 0 0 0 0 0 0 0 0 0 0 0 0 0 0 0 0 0 0 0 0 0 62 67 64 63 63 62 62 62 62 61 60 59 59 58 59 58 58 57 58 56 56 55 54 50 52 50 51 52 52 51 51 52 52 52 52 52 50 49 51 55 52 53 53 52 52 53 52 51 51 51 51 -193 -193 -209 -193 68 63 68 68 67 66 66 63 61 59 59 57 56 54 53 51 49 -225 -225 -225 -225 -225 -225 -225 -225 -225 -225 -225 -225 -225 -225 -225 -225 -225 -225 -225 -225 -225 -225 -225 -225 -225 -225 -225 -225 -225 -225 -225 -225 -225 -225 -225 -225 -225 -225 -225 -225 -225 -225 -225 -225 -225 -225 -225 -225 -225 -225 -225 -225 -225 -225 -225 -225 -225 -225 -225 -225 -225 -225 -225 -225 -225 -225 -225 -225 -225 -225 -225 -225 -225 -225 -225 -225 -225 -225 -225 -225 -225 -225 53 -193 50 52 47 51 58 -193 61 67 65 68 69 70 70 70 69 69 68 69 66 67 64 64 64 64 66 68 70 73 73 75 75 75 76 77 76 77 77 78 76 77 78 77 79 82 84 86 88 90 89 90 91 91 91 91 91 92 92 100 102 102 101 102 100 101 102 99 101 103 104 97 96 94 101 107 115 113 115 118 119 119 120 120 120 118 121 122 121 123 134 138 0 0 0 0 0
    0 0 0 0 0 0 0 0 0 0 0 0 0 0 0 0 0 0 0 0 0 0 0 0 0 0 0 0 0 0 0 0 0 0 0 0 0 0 0 0 0 0 0 0 0 0 0 0 0 0 0 0 0 0 0 0 0 0 0 0 0 0 0 0 0 0 0 0 0 62 67 64 63 63 61 62 62 62 61 60 60 60 59 61 60 59 59 60 59 59 59 59 56 57 54 54 54 54 52 51 52 52 53 53 53 53 54 55 58 56 56 55 55 54 54 53 52 52 52 51 53 54 55 56 63 67 68 68 68 67 67 65 62 61 59 57 56 55 53 51 -225 -225 -225 -225 -225 -225 -225 -225 -225 -225 -225 -225 -225 -225 -225 -225 -225 -225 -225 -225 -225 -225 -225 -225 -225 -225 -225 -225 -225 -225 -225 -225 -225 -225 -225 -225 -225 -225 -225 -225 -225 -225 -225 -225 -225 -225 -225 -225 -225 -225 -225 -225 -225 -225 -225 -225 -225 -225 -225 -225 -225 -225 -225 -225 -225 -225 -225 -225 -225 -225 -225 -225 -225 -225 -225 -225 -225 -225 -225 -225 -225 -225 -225 -225 -225 52 54 51 56 59 60 62 67 66 70 70 70 70 71 70 70 69 70 68 68 66 67 66 67 68 70 71 73 73 74 75 75 76 77 77 77 78 79 77 79 79 78 81 83 87 89 89 90 91 91 92 92 92 92 91 92 92 96 99 100 99 99 100 102 103 101 102 103 104 101 100 97 101 106 114 112 115 118 118 119 119 119 119 117 120 121 -209 123 132 136 0 0 0 0 0
    0 0 0 0 0 0 0 0 0 0 0 0 0 0 0 0 0 0 0 0 0 0 0 0 0 0 0 0 0 0 0 0 0 0 0 0 0 0 0 0 0 0 0 0 0 0 0 0 0 0 0 0 0 0 0 0 0 0 0 0 0 0 0 0 0 0 0 0 0 63 67 65 64 63 61 62 62 62 61 60 60 60 60 62 60 60 60 62 61 62 63 63 61 63 59 58 55 54 52 51 52 53 54 54 56 57 58 60 63 63 67 62 61 57 56 54 53 53 53 53 55 55 57 58 69 68 69 69 69 68 68 66 64 61 60 58 57 55 53 -225 -225 -225 -225 -225 -225 -225 -225 -225 -225 -225 -225 -225 -225 -225 -225 -225 -225 -225 -225 -225 -225 -225 -225 -225 -225 -225 -225 -225 -225 -225 -225 -225 -225 -225 -225 -225 -225 -225 -225 -225 -225 -225 -225 -225 -225 -225 -225 -225 -225 -225 -225 -225 -225 -225 -225 -225 -225 -225 -225 -225 -225 -225 -225 -225 -225 -225 -225 -225 -225 -225 -225 -225 -225 -225 -225 -225 -225 -225 -225 -225 -225 -225 -225 -225 -225 52 55 52 57 60 62 62 67 67 70 70 70 71 72 71 71 71 71 70 70 70 69 68 69 69 71 72 72 73 74 74 74 76 76 76 76 77 79 78 80 82 80 84 85 88 90 90 91 91 92 93 93 93 93 92 94 96 100 103 102 102 101 102 103 104 102 103 104 105 104 104 102 103 107 115 113 115 118 118 119 119 120 119 118 121 122 -193 124 131 135 0 0 0 0 0
    0 0 0 0 0 0 0 0 0 0 0 0 0 0 0 0 0 0 0 0 0 0 0 0 0 0 0 0 0 0 0 0 0 0 0 0 0 0 0 0 0 0 0 0 0 0 0 0 0 0 0 0 0 0 0 0 0 0 0 0 0 0 0 0 0 0 0 0 0 65 68 65 64 63 62 62 62 62 62 60 60 60 60 62 60 60 60 61 61 62 63 64 64 65 -209 -209 57 56 55 54 55 55 56 57 59 61 63 65 67 68 70 69 68 64 62 56 -193 55 54 54 55 55 57 61 69 67 69 69 69 68 68 66 63 62 61 60 59 57 -225 -225 -225 -225 -225 -225 -225 -225 -225 -225 -225 -225 -225 -225 -225 -225 -225 -225 -225 -225 -225 -225 -225 -225 -225 -225 -225 -225 -225 -225 -225 -225 -225 -225 -225 -225 -225 -225 -225 -225 -225 -225 -225 -225 -225 -225 -225 -225 -225 -225 -225 -225 -225 -225 -225 -225 -225 -225 -225 -225 -225 -225 -225 -225 -225 -225 -225 -225 -225 -225 -225 -225 -225 -225 -225 -225 -225 -225 -225 -225 -225 -225 -225 -225 -225 -225 -225 -225 55 51 -193 62 67 64 68 67 70 70 70 71 72 71 72 72 72 71 72 71 71 69 70 70 71 72 72 73 73 73 73 74 75 75 75 76 78 77 81 83 82 85 86 88 91 91 92 92 92 93 93 93 94 92 93 94 99 102 102 102 101 101 102 104 103 103 104 105 105 105 105 104 106 114 112 115 118 118 119 119 120 120 119 122 124 122 124 127 133 0 0 0 0 0
    0 0 0 0 0 0 0 0 0 0 0 0 0 0 0 0 0 0 0 0 0 0 0 0 0 0 0 0 0 0 0 0 0 0 0 0 0 0 0 0 0 0 0 0 0 0 0 0 0 0 0 0 0 0 0 0 0 0 0 0 0 0 0 0 0 0 0 0 0 68 69 67 66 64 62 63 62 62 62 61 61 61 61 62 61 60 59 61 61 62 62 63 65 66 66 66 62 61 59 57 59 59 60 60 62 65 67 69 69 70 72 71 70 68 69 -193 -193 -193 56 56 58 57 68 68 71 68 69 69 69 69 68 66 64 63 63 62 61 -225 -225 -225 -225 -225 -225 -225 -225 -225 -225 -225 -225 -225 -225 -225 -225 -225 -225 -225 -225 -225 -225 -225 -225 -225 -225 -225 -225 -225 -225 -225 -225 -225 -225 -225 -225 -225 -225 -225 -225 -225 -225 -225 -225 -225 -225 -225 -225 -225 -225 -225 -225 -225 -225 -225 -225 -225 -225 -225 -225 -225 -225 -225 -225 -225 -225 -225 -225 -225 -225 -225 -225 -225 -225 -225 -225 -225 -225 -225 -225 -225 -225 -225 -225 -225 -225 -225 -225 -225 56 -193 63 65 70 67 69 68 71 70 70 71 72 71 72 73 73 72 73 74 74 73 74 73 73 73 73 74 73 73 73 73 74 75 74 76 78 78 81 83 83 86 -209 89 92 92 93 93 93 93 92 93 93 91 92 92 95 100 100 101 100 100 102 103 102 102 103 105 104 106 105 105 106 114 112 115 118 119 119 120 121 121 121 123 126 123 124 125 132 0 0 0 0 0
    0 0 0 0 0 0 0 0 0 0 0 0 0 0 0 0 0 0 0 0 0 0 0 0 0 0 0 0 0 0 0 0 0 0 0 0 0 0 0 0 0 0 0 0 0 0 0 0 0 0 0 0 0 0 0 0 0 0 0 0 0 0 0 0 0 0 0 0 0 69 70 69 67 66 63 64 63 63 62 61 61 62 61 63 61 61 60 61 61 61 62 64 66 68 67 66 63 62 60 59 60 60 60 61 63 66 67 69 69 70 71 69 70 68 68 60 -209 59 57 57 62 69 72 71 72 70 70 70 70 69 67 66 65 65 64 64 -225 -225 -225 -225 -225 -225 -225 -225 -225 -225 -225 -225 -225 -225 -225 -225 -225 -225 -225 -225 -225 -225 -225 -225 -225 -225 -225 -225 -225 -225 -225 -225 -225 -225 -225 -225 -225 -225 -225 -225 -225 -225 -225 -225 -225 -225 -225 -225 -225 -225 -225 -225 -225 -225 -225 -225 -225 -225 -225 -225 -225 -225 -225 -225 -225 -225 -225 -225 -225 -225 -225 -225 -225 -225 -225 -225 -225 -225 -225 -225 -225 -225 -225 -225 -225 -225 -225 -225 -225 -225 -225 60 67 69 72 69 69 68 71 71 71 72 73 71 72 73 74 73 74 75 75 75 77 76 75 75 75 75 74 75 73 73 74 74 74 75 78 78 81 83 84 86 -209 90 93 92 93 93 92 92 92 91 92 90 91 91 92 96 98 99 99 99 100 101 101 102 102 104 103 106 105 105 105 112 112 115 118 119 120 121 122 122 122 124 126 124 125 125 131 0 0 0 0 0
    0 0 0 0 0 0 0 0 0 0 0 0 0 0 0 0 0 0 0 0 0 0 0 0 0 0 0 0 0 0 0 0 0 0 0 0 0 0 0 0 0 0 0 0 0 0 0 0 0 0 0 0 0 0 0 0 0 0 0 0 0 0 0 0 0 0 0 0 0 71 71 70 70 68 64 65 64 64 63 62 62 62 61 63 61 60 60 60 61 62 63 67 68 70 70 70 69 67 66 64 63 63 61 62 63 66 68 69 69 70 70 70 70 70 71 65 69 67 63 62 71 74 74 73 74 72 72 71 71 69 68 67 66 66 66 -225 -225 -225 -225 -225 -225 -225 -225 -225 -225 -225 -225 -225 -225 -225 -225 -225 -225 -225 -225 -225 -225 -225 -225 -225 -225 -225 -225 -225 -225 -225 -225 -225 -225 -225 -225 -225 -225 -225 -225 -225 -225 -225 -225 -225 -225 -225 -225 -225 -225 -225 -225 -225 -225 -225 -225 -225 -225 -225 -225 -225 -225 -225 -225 -225 -225 -225 -225 -225 -225 -225 -225 -225 -225 -225 -225 -225 -225 -225 -225 -225 -225 -225 -225 -225 -225 -225 -225 -225 -225 -225 -225 -225 67 69 74 70 69 70 72 71 72 73 73 72 73 74 75 74 75 76 76 76 78 77 77 76 76 76 75 75 73 72 74 73 73 74 77 79 82 84 84 86 -209 89 92 91 92 92 92 92 91 91 92 90 91 91 92 96 98 99 98 98 98 99 100 100 101 103 103 106 105 106 106 109 111 115 117 119 121 121 124 124 125 125 126 125 125 125 130 0 0 0 0 0
    0 0 0 0 0 0 0 0 0 0 0 0 0 0 0 0 0 0 0 0 0 0 0 0 0 0 0 0 0 0 0 0 0 0 0 0 0 0 0 0 0 0 0 0 0 0 0 0 0 0 0 0 0 0 0 0 0 0 0 0 0 0 0 0 0 0 0 0 0 72 71 71 70 69 66 66 65 65 64 64 63 64 62 64 61 61 60 60 61 62 65 68 70 72 71 72 71 70 69 68 68 68 64 64 65 67 69 69 69 70 70 71 72 72 73 69 72 71 71 73 74 75 76 75 75 74 73 72 71 69 68 67 66 66 -225 -225 -225 -225 -225 -225 -225 -225 -225 -225 -225 -225 -225 -225 -225 -225 -225 -225 -225 -225 -225 -225 -225 -225 -225 -225 -225 -225 -225 -225 -225 -225 -225 -225 -225 -225 -225 -225 -225 -225 -225 -225 -225 -225 -225 -225 -225 -225 -225 -225 -225 -225 -225 -225 -225 -225 -225 -225 -225 -225 -225 -225 -225 -225 -225 -225 -225 -225 -225 -225 -225 -225 -225 -225 -225 -225 -225 -225 -225 -225 -225 -225 -225 -225 -225 -225 -225 -225 -225 -225 -225 -225 -225 -225 -225 64 72 69 68 69 72 71 72 73 74 72 74 74 75 74 76 76 77 78 78 78 78 77 77 76 75 75 72 72 73 73 72 72 74 78 83 85 85 87 -193 90 92 92 92 92 92 92 92 92 92 91 91 91 92 96 98 100 98 98 97 100 101 100 101 102 103 105 105 106 106 106 108 113 114 118 120 121 125 127 129 126 127 125 125 126 130 0 0 0 0 0
    0 0 0 0 0 0 0 0 0 0 0 0 0 0 0 0 0 0 0 0 0 0 0 0 0 0 0 0 0 0 0 0 0 0 0 0 0 0 0 0 0 0 0 0 0 0 0 0 0 0 0 0 0 0 0 0 0 0 0 0 0 0 0 0 0 0 0 0 0 72 71 71 70 70 68 68 67 66 65 65 65 66 63 65 62 61 60 61 63 63 67 69 70 72 71 71 71 70 69 68 68 69 65 66 66 69 70 71 71 71 71 73 73 74 73 71 73 72 73 74 75 75 76 75 75 74 74 72 71 70 68 67 65 -225 -225 -225 -225 -225 -225 -225 -225 -225 -225 -225 -225 -225 -225 -225 -225 -225 -225 -225 -225 -225 -225 -225 -225 -225 -225 -225 -225 -225 -225 -225 -225 -225 -225 -225 -225 -225 -225 -225 -225 -225 -225 -225 -225 -225 -225 -225 -225 -225 -225 -225 -225 -225 -225 -225 -225 -225 -225 -225 -225 -225 -225 -225 -225 -225 -225 -225 -225 -225 -225 -225 -225 -225 -225 -225 -225 -225 -225 -225 -225 -225 -225 -225 -225 -225 -225 -225 -225 -225 -225 -225 -225 -225 -225 -225 -225 -225 -225 62 59 66 71 71 71 72 74 72 73 74 74 74 76 76 76 77 78 78 78 78 77 76 77 76 74 74 76 76 74 74 77 78 84 86 86 87 88 90 92 92 92 92 92 92 92 92 92 90 90 90 91 95 96 100 99 101 -209 101 -193 102 103 105 106 107 107 109 109 108 110 114 114 117 119 122 124 127 129 126 126 125 125 126 129 0 0 0 0 0
    0 0 0 0 0 0 0 0 0 0 0 0 0 0 0 0 0 0 0 0 0 0 0 0 0 0 0 0 0 0 0 0 0 0 0 0 0 0 0 0 0 0 0 0 0 0 0 0 0 0 0 0 0 0 0 0 0 0 0 0 0 0 0 0 0 0 0 0 0 72 71 72 71 70 70 70 70 69 68 69 68 69 67 68 63 62 61 62 63 64 68 70 71 72 71 71 71 70 69 68 69 69 66 65 67 69 71 72 73 73 72 73 75 75 75 73 74 75 75 75 76 76 76 76 76 75 74 73 72 70 68 66 -225 -225 -225 -225 -225 -225 -225 -225 -225 -225 -225 -225 -225 -225 -225 -225 -225 -225 -225 -225 -225 -225 -225 -225 -225 -225 -225 -225 -225 -225 -225 -225 -225 -225 -225 -225 -225 -225 -225 -225 -225 -225 -225 -225 -225 -225 -225 -225 -225 -225 -225 -225 -225 -225 -225 -225 -225 -225 -225 -225 -225 -225 -225 -225 -225 -225 -225 -225 -225 -225 -225 -225 -225 -225 -225 -225 -225 -225 -225 -225 -225 -225 -225 -225 -225 -225 -225 -225 -225 -225 -225 -225 -225 -225 -225 -225 -225 -225 -225 -225 55 64 73 73 71 73 75 73 75 75 75 75 77 78 78 79 79 78 78 79 79 78 78 79 76 77 80 81 77 78 80 79 85 86 86 87 88 89 91 91 91 92 91 92 91 92 92 91 90 -193 -209 -209 -209 -193 100 -193 -209 -209 -209 103 104 105 106 108 109 112 112 113 114 117 117 117 118 121 123 125 129 126 126 125 125 126 129 0 0 0 0 0
    0 0 0 0 0 0 0 0 0 0 0 0 0 0 0 0 0 0 0 0 0 0 0 0 0 0 0 0 0 0 0 0 0 0 0 0 0 0 0 0 0 0 0 0 0 0 0 0 0 0 0 0 0 0 0 0 0 0 0 0 0 0 0 0 0 0 0 0 0 72 72 72 71 71 72 72 72 71 71 71 71 73 71 71 65 63 63 65 66 67 69 71 71 72 71 72 71 70 70 69 69 70 67 67 68 70 71 73 73 73 73 74 75 75 75 74 76 76 76 76 77 77 77 77 76 74 74 74 73 71 -225 -225 -225 -225 -225 -225 -225 -225 -225 -225 -225 -225 -225 -225 -225 -225 -225 -225 -225 -225 -225 -225 -225 -225 -225 -225 -225 -225 -225 -225 -225 -225 -225 -225 -225 -225 -225 -225 -225 -225 -225 -225 -225 -225 -225 -225 -225 -225 -225 -225 -225 -225 -225 -225 -225 -225 -225 -225 -225 -225 -225 -225 -225 -225 -225 -225 -225 -225 -225 -225 -225 -225 -225 -225 -225 -225 -225 -225 -225 -225 -225 -225 -225 -225 -225 -225 -225 -225 -225 -225 -225 -225 -225 -225 -225 -225 -225 -225 -225 -225 -225 -225 -225 -225 63 71 72 74 77 75 77 77 77 77 80 80 79 79 79 78 78 79 79 78 78 79 78 81 85 86 85 85 85 87 89 89 88 88 90 90 91 92 91 91 90 91 90 90 91 91 90 -193 -209 -209 -209 101 101 100 101 102 104 103 104 105 107 110 112 116 115 117 117 118 118 118 119 122 123 125 129 126 126 125 125 126 128 0 0 0 0 0
    0 0 0 0 0 0 0 0 0 0 0 0 0 0 0 0 0 0 0 0 0 0 0 0 0 0 0 0 0 0 0 0 0 0 0 0 0 0 0 0 0 0 0 0 0 0 0 0 0 0 0 0 0 0 0 0 0 0 0 0 0 0 0 0 0 0 0 0 0 73 72 72 71 72 72 73 73 72 72 73 74 75 74 74 68 68 67 68 69 69 70 72 72 73 72 72 72 71 71 70 70 71 69 69 69 70 71 74 73 74 73 74 76 76 76 76 77 78 78 78 79 79 79 78 77 76 76 75 74 -225 -225 -225 -225 -225 -225 -225 -225 -225 -225 -225 -225 -225 -225 -225 -225 -225 -225 -225 -225 -225 -225 -225 -225 -225 -225 -225 -225 -225 -225 -225 -225 -225 -225 -225 -225 -225 -225 -225 -225 -225 -225 -225 -225 -225 -225 -225 -225 -225 -225 -225 -225 -225 -225 -225 -225 -225 -225 -225 -225 -225 -225 -225 -225 -225 -225 -225 -225 -225 -225 -225 -225 -225 -225 -225 -225 -225 -225 -225 -225 -225 -225 -225 -225 -225 -225 -225 -225 -225 -225 -225 -225 -225 -225 -225 -225 -225 -225 -225 -225 -225 -225 -225 -225 -225 -225 -225 71 76 79 74 78 78 77 76 80 80 78 80 80 78 78 79 79 78 80 81 81 85 87 88 89 89 88 90 90 91 89 89 90 91 91 92 90 91 89 91 90 90 91 91 89 90 -209 -209 -209 97 98 97 98 100 103 102 102 104 105 108 112 114 113 115 115 117 117 118 119 120 120 123 127 125 125 125 125 126 128 0 0 0 0 0
    0 0 0 0 0 0 0 0 0 0 0 0 0 0 0 0 0 0 0 0 0 0 0 0 0 0 0 0 0 0 0 0 0 0 0 0 0 0 0 0 0 0 0 0 0 0 0 0 0 0 0 0 0 0 0 0 0 0 0 0 0 0 0 0 0 0 0 0 0 73 72 72 71 71 72 73 73 73 73 74 74 76 76 75 73 72 71 71 71 71 72 73 73 73 72 73 73 71 71 71 71 71 70 69 69 70 71 75 74 74 74 75 77 78 79 81 81 82 82 82 81 81 81 79 78 77 77 77 -225 -225 -225 -225 -225 -225 -225 -225 -225 -225 -225 -225 -225 -225 -225 -225 -225 -225 -225 -225 -225 -225 -225 -225 -225 -225 -225 -225 -225 -225 -225 -225 -225 -225 -225 -225 -225 -225 -225 -225 -225 -225 -225 -225 -225 -225 -225 -225 -225 -225 -225 -225 -225 -225 -225 -225 -225 -225 -225 -225 -225 -225 -225 -225 -225 -225 -225 -225 -225 -225 -225 -225 -225 -225 -225 -225 -225 -225 -225 -225 -225 -225 -225 -225 -225 -225 -225 -225 -225 -225 -225 -225 -225 -225 -225 -225 -225 -225 -225 -225 -225 -225 -225 -225 -225 -225 -225 -225 -225 -225 77 72 82 78 76 75 82 80 78 80 79 78 77 79 79 78 80 82 83 85 87 88 88 88 88 89 89 91 90 90 91 91 91 92 90 90 89 90 90 89 90 90 89 89 89 -209 -209 93 96 95 97 98 102 101 102 103 103 107 111 114 113 115 114 116 116 117 118 119 120 122 125 124 125 125 126 127 128 0 0 0 0 0
    0 0 0 0 0 0 0 0 0 0 0 0 0 0 0 0 0 0 0 0 0 0 0 0 0 0 0 0 0 0 0 0 0 0 0 0 0 0 0 0 0 0 0 0 0 0 0 0 0 0 0 0 0 0 0 0 0 0 0 0 0 0 0 0 0 0 0 0 0 73 72 72 71 71 72 74 75 75 75 76 77 79 79 81 78 75 76 74 75 74 75 76 74 74 73 73 73 72 71 71 71 71 69 69 69 70 71 75 74 74 74 76 79 83 84 85 85 85 85 84 84 83 81 80 79 78 78 -225 -225 -225 -225 -225 -225 -225 -225 -225 -225 -225 -225 -225 -225 -225 -225 -225 -225 -225 -225 -225 -225 -225 -225 -225 -225 -225 -225 -225 -225 -225 -225 -225 -225 -225 -225 -225 -225 -225 -225 -225 -225 -225 -225 -225 -225 -225 -225 -225 -225 -225 -225 -225 -225 -225 -225 -225 -225 -225 -225 -225 -225 -225 -225 -225 -225 -225 -225 -225 -225 -225 -225 -225 -225 -225 -225 -225 -225 -225 -225 -225 -225 -225 -225 -225 -225 -225 -225 -225 -225 -225 -225 -225 -225 -225 -225 -225 -225 -225 -225 -225 -225 -225 -225 -225 -225 -225 -225 -225 -225 -225 -225 -225 -209 76 73 73 80 77 77 79 78 77 77 78 80 79 82 84 85 87 89 90 90 90 89 90 90 91 90 90 90 91 91 91 90 91 89 91 90 90 91 90 90 89 90 90 90 92 95 94 96 97 102 102 103 103 104 107 112 113 113 115 113 116 116 117 118 120 120 122 125 124 126 126 127 129 130 0 0 0 0 0
    0 0 0 0 0 0 0 0 0 0 0 0 0 0 0 0 0 0 0 0 0 0 0 0 0 0 0 0 0 0 0 0 0 0 0 0 0 0 0 0 0 0 0 0 0 0 0 0 0 0 0 0 0 0 0 0 0 0 0 0 0 0 0 0 0 0 0 0 0 74 73 73 71 71 73 75 78 81 79 80 84 83 84 85 84 79 81 77 80 77 77 78 75 76 74 74 -193 -193 71 71 71 72 70 70 70 70 71 75 74 74 75 78 83 85 86 87 87 86 86 85 85 83 81 80 79 79 -225 -225 -225 -225 -225 -225 -225 -225 -225 -225 -225 -225 -225 -225 -225 -225 -225 -225 -225 -225 -225 -225 -225 -225 -225 -225 -225 -225 -225 -225 -225 -225 -225 -225 -225 -225 -225 -225 -225 -225 -225 -225 -225 -225 -225 -225 -225 -225 -225 -225 -225 -225 -225 -225 -225 -225 -225 -225 -225 -225 -225 -225 -225 -225 -225 -225 -225 -225 -225 -225 -225 -225 -225 -225 -225 -225 -225 -225 -225 -225 -225 -225 -225 -225 -225 -225 -225 -225 -225 -225 -225 -225 -225 -225 -225 -225 -225 -225 -225 -225 -225 -225 -225 -225 -225 -225 -225 -225 -225 -225 -225 -225 -225 -225 -225 -225 72 72 79 76 76 78 77 76 76 78 80 81 84 86 87 89 91 91 91 92 91 92 91 91 90 91 92 92 92 92 92 92 91 93 92 92 93 92 92 91 92 92 91 93 -193 95 97 98 102 101 103 -193 -193 107 111 113 113 115 114 116 116 116 118 121 119 121 125 124 125 126 128 130 130 0 0 0 0 0
    0 0 0 0 0 0 0 0 0 0 0 0 0 0 0 0 0 0 0 0 0 0 0 0 0 0 0 0 0 0 0 0 0 0 0 0 0 0 0 0 0 0 0 0 0 0 0 0 0 0 0 0 0 0 0 0 0 0 0 0 0 0 0 0 0 0 0 0 0 75 73 74 71 71 73 78 84 85 85 85 87 85 86 87 84 80 83 78 81 77 78 78 75 76 75 74 74 73 72 72 72 73 71 72 72 72 73 77 77 76 78 83 84 86 87 88 88 87 87 86 84 83 82 81 80 -225 -225 -225 -225 -225 -225 -225 -225 -225 -225 -225 -225 -225 -225 -225 -225 -225 -225 -225 -225 -225 -225 -225 -225 -225 -225 -225 -225 -225 -225 -225 -225 -225 -225 -225 -225 -225 -225 -225 -225 -225 -225 -225 -225 -225 -225 -225 -225 -225 -225 -225 -225 -225 -225 -225 -225 -225 -225 -225 -225 -225 -225 -225 -225 -225 -225 -225 -225 -225 -225 -225 -225 -225 -225 -225 -225 -225 -225 -225 -225 -225 -225 -225 -225 -225 -225 -225 -225 -225 -225 -225 -225 -225 -225 -225 -225 -225 -225 -225 -225 -225 -225 -225 -225 -225 -225 -225 -225 -225 -225 -225 -225 -225 -225 -225 -225 -225 -225 71 77 76 76 76 77 76 76 77 80 81 85 86 88 89 91 92 92 93 93 94 94 94 92 93 95 94 94 93 93 92 91 92 91 91 92 91 93 91 93 95 95 97 97 96 100 98 102 101 102 -209 -209 106 110 -193 110 111 109 110 112 114 116 118 115 120 124 123 125 126 128 130 130 0 0 0 0 0</data></disparity>
</opencv_storage>
