<?xml version="1.0"?>
<opencv_storage>
<gps_time_stamp>304310</gps_time_stamp>
<gps_x>-1.2424433708190918e+001</gps_x>
<gps_y>1.0959813117980957e+001</gps_y>
<gps_z>-2.0169148445129395e+000</gps_z>
<image_time_stamp>295160</image_time_stamp>
<disparity type_id="opencv-matrix">
  <rows>90</rows>
  <cols>320</cols>
  <dt>s</dt>
  <data>
    0 0 0 0 0 0 0 0 0 0 0 0 0 0 0 0 0 0 0 0 0 0 0 0 0 0 0 0 0 0 0 0 0 0 0 0 0 0 0 0 0 0 0 0 0 0 0 0 0 0 0 0 0 0 0 0 0 0 0 0 0 0 0 0 0 0 0 0 0 54 54 54 55 54 54 53 52 51 49 51 50 47 47 49 48 47 48 47 46 47 47 46 45 45 44 44 44 43 41 40 40 39 39 37 36 38 38 37 36 37 36 35 36 36 32 32 31 33 27 28 28 27 28 27 29 24 23 24 23 23 23 21 21 16 18 19 21 21 21 20 25 25 28 32 32 -225 -225 -225 -225 -225 -225 -225 -225 -225 -225 -225 -225 -225 -225 -225 0 0 0 0 0 0 0 0 0 0 0 9 0 0 9 0 0 0 0 0 0 13 13 13 16 21 22 23 23 23 -193 26 29 29 28 30 29 31 33 33 37 36 38 38 39 41 -209 43 41 37 -193 37 38 -193 -193 -193 -193 49 56 56 58 60 59 63 66 64 64 66 67 67 68 -193 72 -193 76 76 77 77 80 80 76 77 76 76 77 76 77 75 79 82 81 86 85 -193 86 87 -193 92 91 96 106 105 104 109 107 107 107 107 109 110 109 109 107 109 112 112 113 113 109 120 122 130 125 125 132 134 134 134 135 133 131 133 134 137 136 136 -193 -177 141 144 146 147 142 147 147 -177 -193 -193 152 -193 -193 -193 15 10 9 0 0 0 0 0
    0 0 0 0 0 0 0 0 0 0 0 0 0 0 0 0 0 0 0 0 0 0 0 0 0 0 0 0 0 0 0 0 0 0 0 0 0 0 0 0 0 0 0 0 0 0 0 0 0 0 0 0 0 0 0 0 0 0 0 0 0 0 0 0 0 0 0 0 0 55 54 54 55 54 54 53 51 51 48 50 50 47 48 49 49 48 49 47 47 47 47 46 45 45 44 43 44 43 41 40 40 38 38 36 35 37 37 36 35 36 36 35 36 36 33 32 32 34 27 28 28 27 28 27 28 24 24 24 23 23 23 21 22 17 18 18 20 21 20 18 23 23 27 31 32 -225 -225 -225 -225 -225 -225 -225 -225 -225 -225 -225 -225 -225 -225 9 0 0 0 0 0 0 0 0 0 0 0 9 0 0 0 0 0 0 0 0 0 12 13 13 16 20 21 22 22 23 -193 25 28 28 28 29 29 30 32 33 37 36 38 39 -193 42 -193 44 41 38 -193 38 -193 -193 -209 41 -193 49 55 56 58 60 60 63 66 64 64 65 67 66 68 -177 72 -193 76 76 77 77 80 80 75 77 76 75 76 75 76 74 78 81 80 85 86 -193 87 88 -193 93 99 98 107 106 106 109 107 107 107 107 108 110 109 109 107 109 112 112 113 113 110 121 123 130 125 125 132 135 135 135 136 134 132 134 135 138 136 136 -193 -177 141 144 146 147 142 147 147 -177 -193 -193 -193 -177 -209 10 13 10 9 0 0 0 0 0
    0 0 0 0 0 0 0 0 0 0 0 0 0 0 0 0 0 0 0 0 0 0 0 0 0 0 0 0 0 0 0 0 0 0 0 0 0 0 0 0 0 0 0 0 0 0 0 0 0 0 0 0 0 0 0 0 0 0 0 0 0 0 0 0 0 0 0 0 0 55 54 55 55 55 54 54 51 51 48 49 50 47 48 49 49 49 51 47 47 48 47 46 45 45 44 43 44 43 42 41 40 38 38 36 34 36 37 35 35 36 35 34 35 36 33 31 31 34 27 28 29 27 29 28 28 25 24 24 24 23 23 22 22 17 17 17 19 20 19 16 19 18 26 30 32 -225 -225 -225 -225 -225 -225 -225 -225 -225 -225 -225 -225 -225 0 0 0 0 0 0 0 0 9 9 0 0 0 0 0 0 0 0 0 0 0 9 9 13 14 14 16 20 20 21 22 22 -193 25 28 28 28 30 29 30 32 33 37 37 38 39 -193 42 43 45 42 39 -209 40 -193 -193 -209 42 -193 49 54 56 59 61 60 63 67 64 64 65 67 66 68 -177 -193 -209 76 77 77 77 79 80 75 77 75 74 75 74 75 73 76 78 78 84 85 85 88 90 90 95 101 99 106 105 106 108 107 106 107 107 108 109 108 109 107 109 111 111 113 113 110 121 122 129 125 125 132 136 136 136 -193 135 134 136 136 140 137 137 139 -177 141 144 146 147 143 147 147 339 -193 -193 -193 -177 -209 9 11 9 9 0 0 0 0 0
    0 0 0 0 0 0 0 0 0 0 0 0 0 0 0 0 0 0 0 0 0 0 0 0 0 0 0 0 0 0 0 0 0 0 0 0 0 0 0 0 0 0 0 0 0 0 0 0 0 0 0 0 0 0 0 0 0 0 0 0 0 0 0 0 0 0 0 0 0 55 54 54 55 55 54 54 51 51 47 49 49 47 48 50 50 50 52 48 48 48 48 46 45 44 44 43 44 43 42 40 39 38 37 36 33 35 36 35 34 35 35 34 35 36 34 31 30 34 27 28 29 27 28 27 28 25 25 25 24 24 24 23 22 17 17 16 18 18 17 14 14 11 25 28 31 -225 -225 -225 -225 -225 -225 -225 -225 -225 0 0 0 0 0 0 0 0 0 0 9 9 10 10 9 9 9 9 0 0 0 0 0 0 0 9 9 12 14 14 16 19 20 21 22 22 24 25 28 28 29 30 30 30 32 33 37 37 39 -193 -193 43 44 45 42 39 40 40 -193 -193 41 42 42 48 54 56 59 61 61 62 67 64 64 65 67 66 69 -177 -193 -209 76 78 78 77 79 80 75 76 75 73 74 73 74 72 75 76 77 84 86 86 90 93 93 97 101 100 105 104 105 107 106 106 106 106 108 108 108 108 107 109 111 112 113 114 111 121 123 129 125 125 132 -209 137 137 -193 -193 135 137 137 141 137 138 140 -193 142 144 146 147 143 147 147 339 151 -193 -193 -177 -193 9 10 0 0 0 0 0 0 0
    0 0 0 0 0 0 0 0 0 0 0 0 0 0 0 0 0 0 0 0 0 0 0 0 0 0 0 0 0 0 0 0 0 0 0 0 0 0 0 0 0 0 0 0 0 0 0 0 0 0 0 0 0 0 0 0 0 0 0 0 0 0 0 0 0 0 0 0 0 55 55 55 55 55 54 54 51 51 47 48 49 47 48 50 50 50 52 48 47 48 47 46 45 44 44 43 43 43 42 41 40 38 37 36 33 35 36 35 34 35 35 34 34 36 34 32 31 34 27 28 29 27 28 27 28 26 25 25 24 24 24 23 22 17 16 15 17 17 16 13 11 9 22 27 30 -225 -225 -225 -225 -225 -225 -225 9 10 0 0 0 0 0 0 0 0 0 0 0 0 9 9 9 9 9 9 9 0 0 0 0 0 0 9 9 12 14 15 17 20 21 22 23 23 25 26 29 29 29 30 31 31 33 33 38 37 39 -193 -193 44 45 46 43 40 41 41 41 41 41 42 42 48 54 56 59 61 60 62 67 64 64 65 67 66 69 -177 -193 -193 76 78 78 77 79 80 75 75 74 73 73 72 73 71 74 75 77 84 87 88 93 95 96 97 101 100 104 103 104 106 106 106 106 106 107 108 109 108 107 109 112 113 115 116 113 121 123 129 125 125 132 -209 137 138 -193 -193 136 138 138 142 138 138 140 141 142 145 147 148 144 147 147 340 151 -193 -193 -177 -193 0 9 0 0 0 0 0 0 0
    0 0 0 0 0 0 0 0 0 0 0 0 0 0 0 0 0 0 0 0 0 0 0 0 0 0 0 0 0 0 0 0 0 0 0 0 0 0 0 0 0 0 0 0 0 0 0 0 0 0 0 0 0 0 0 0 0 0 0 0 0 0 0 0 0 0 0 0 0 56 55 55 56 55 55 54 50 51 47 49 48 46 47 50 49 49 52 47 46 47 46 46 45 44 44 43 43 43 41 41 40 38 37 37 34 35 36 35 34 35 34 34 34 36 34 32 30 35 27 28 30 26 28 27 28 26 25 25 24 24 24 23 23 17 16 14 16 16 15 13 10 -177 19 26 28 -225 -225 -225 -225 -225 -225 12 11 11 0 0 0 0 0 0 0 0 0 0 0 0 10 9 9 10 9 10 9 0 0 0 0 0 0 0 0 11 14 15 17 20 22 22 23 23 26 26 29 29 30 30 31 31 33 33 -193 37 39 -193 -193 44 45 46 43 40 41 41 41 41 41 41 42 49 54 55 59 60 60 61 67 63 63 64 68 66 68 431 -193 -193 76 78 77 77 79 79 75 75 74 -193 -193 72 72 71 74 75 77 85 89 90 94 96 97 97 100 100 103 102 103 106 106 106 106 106 107 107 109 108 107 110 113 115 116 118 116 121 123 129 125 125 132 -193 138 138 -193 -193 137 138 139 143 138 139 141 142 142 145 147 148 144 148 148 -177 152 -193 -193 -177 -193 0 0 0 0 0 0 0 0 0
    0 0 0 0 0 0 0 0 0 0 0 0 0 0 0 0 0 0 0 0 0 0 0 0 0 0 0 0 0 0 0 0 0 0 0 0 0 0 0 0 0 0 0 0 0 0 0 0 0 0 0 0 0 0 0 0 0 0 0 0 0 0 0 0 0 0 0 0 0 56 56 56 56 55 55 55 51 52 48 49 49 46 46 49 47 48 50 46 44 45 45 45 44 43 43 42 42 42 41 41 40 38 37 37 34 35 35 35 34 34 34 34 34 35 33 32 30 35 27 27 29 26 27 26 28 25 25 24 24 24 24 24 23 18 16 13 16 15 14 12 9 -177 16 25 27 -225 -225 -225 -225 -225 -225 13 12 12 0 0 0 0 0 0 0 0 0 0 0 0 11 12 11 13 11 12 11 9 10 9 9 10 9 10 10 12 14 16 18 20 22 22 23 23 26 26 29 29 30 30 31 32 33 33 -193 37 38 -193 -193 44 -193 46 43 40 41 41 41 41 40 41 42 49 53 55 59 60 60 60 67 63 63 65 68 66 68 431 -193 -193 76 78 77 77 79 79 75 75 74 -193 -193 72 73 72 74 77 78 87 90 91 94 95 96 96 100 99 103 102 103 106 105 106 106 106 106 107 109 108 107 110 115 116 117 119 119 121 123 129 125 125 132 -193 138 138 -193 -193 138 139 139 143 138 139 142 142 142 145 147 148 145 148 148 -177 153 -193 -193 -177 -177 -193 0 0 0 0 0 0 0 0
    0 0 0 0 0 0 0 0 0 0 0 0 0 0 0 0 0 0 0 0 0 0 0 0 0 0 0 0 0 0 0 0 0 0 0 0 0 0 0 0 0 0 0 0 0 0 0 0 0 0 0 0 0 0 0 0 0 0 0 0 0 0 0 0 0 0 0 0 0 56 56 56 56 55 55 55 51 52 48 49 49 46 46 48 47 47 48 46 44 44 44 45 43 43 42 42 41 41 41 41 39 38 36 36 35 35 35 35 33 34 34 34 33 35 33 32 29 36 28 27 29 25 27 26 28 25 25 24 24 24 24 24 23 17 16 12 15 14 13 11 0 -177 14 25 25 -225 -225 -225 -225 -225 16 14 13 13 9 9 0 0 0 0 0 0 0 0 0 0 10 11 11 12 10 11 12 10 10 10 10 10 10 11 10 12 14 15 17 20 22 22 23 23 27 27 31 30 31 31 31 32 33 33 38 37 38 -193 -193 43 -193 46 42 40 40 40 42 41 40 41 41 48 53 55 59 60 60 60 67 63 63 64 68 66 69 -177 -193 -193 76 78 77 77 78 79 75 76 75 73 -193 73 74 73 75 78 80 87 90 90 93 94 94 95 99 99 103 101 103 106 105 106 106 106 106 106 108 107 105 109 115 117 118 120 120 121 123 129 126 126 133 139 138 139 139 -193 138 139 140 144 139 140 142 143 142 146 148 149 145 149 149 -177 154 158 158 -177 -193 -193 0 0 0 0 0 0 0 0
    0 0 0 0 0 0 0 0 0 0 0 0 0 0 0 0 0 0 0 0 0 0 0 0 0 0 0 0 0 0 0 0 0 0 0 0 0 0 0 0 0 0 0 0 0 0 0 0 0 0 0 0 0 0 0 0 0 0 0 0 0 0 0 0 0 0 0 0 0 57 56 56 56 55 55 55 52 53 48 50 50 46 46 49 47 48 48 46 45 43 44 45 42 42 41 41 41 41 41 40 39 38 37 37 35 35 35 35 33 34 34 34 33 34 32 32 29 36 28 27 28 25 26 26 28 25 25 24 24 24 24 24 23 17 16 11 14 13 12 11 0 0 13 23 22 -225 -225 -225 -225 -225 14 11 11 11 0 0 0 0 0 0 0 0 0 0 0 9 10 10 10 11 9 10 11 10 10 10 10 11 11 13 12 12 14 16 18 20 21 21 22 23 26 26 30 29 30 32 32 33 34 34 38 37 38 -193 -193 43 -193 45 43 41 42 41 42 42 41 41 41 48 53 54 60 59 60 60 68 63 62 64 68 66 69 -177 71 71 75 78 77 76 77 78 75 77 76 74 -193 74 75 74 75 78 80 86 89 89 92 93 94 95 99 99 102 101 102 105 106 106 106 106 106 105 108 106 104 106 115 119 119 121 121 121 124 130 127 127 133 140 138 139 139 -193 139 139 140 144 139 140 143 143 143 146 148 149 146 149 150 -177 154 -193 158 -193 -193 162 0 0 0 0 0 0 0 0
    0 0 0 0 0 0 0 0 0 0 0 0 0 0 0 0 0 0 0 0 0 0 0 0 0 0 0 0 0 0 0 0 0 0 0 0 0 0 0 0 0 0 0 0 0 0 0 0 0 0 0 0 0 0 0 0 0 0 0 0 0 0 0 0 0 0 0 0 0 57 57 57 56 56 56 56 52 54 49 50 51 46 47 49 48 48 48 48 46 43 45 45 43 41 41 41 40 40 41 40 40 38 38 37 36 36 35 35 33 34 34 34 33 34 32 32 29 36 28 26 27 25 25 25 28 25 25 -193 24 23 24 24 23 17 15 11 13 12 12 11 0 0 14 23 22 -225 -225 -225 -225 17 14 11 11 11 0 0 0 0 0 0 0 0 0 0 0 9 11 10 10 11 10 10 11 10 10 10 10 10 11 12 12 12 14 16 18 20 22 22 23 24 27 27 30 29 30 32 31 33 34 34 38 37 38 -193 -193 43 -193 45 44 41 42 42 43 42 41 41 42 47 53 55 61 60 60 60 68 63 62 64 68 67 69 -177 70 70 75 78 76 76 77 78 76 77 77 75 74 74 75 75 75 77 79 85 87 88 91 92 93 94 99 98 102 100 102 105 106 106 106 106 106 105 107 106 104 104 -193 117 119 -193 122 122 124 131 128 128 133 140 138 139 139 141 139 139 140 144 139 140 143 143 142 145 148 149 145 149 150 -177 154 -193 158 -193 -193 162 0 0 0 0 0 0 0 0
    0 0 0 0 0 0 0 0 0 0 0 0 0 0 0 0 0 0 0 0 0 0 0 0 0 0 0 0 0 0 0 0 0 0 0 0 0 0 0 0 0 0 0 0 0 0 0 0 0 0 0 0 0 0 0 0 0 0 0 0 0 0 0 0 0 0 0 0 0 57 57 57 57 56 56 57 54 55 51 51 52 47 48 50 48 48 48 49 47 44 45 46 43 41 41 41 40 40 40 40 39 38 38 38 36 36 35 35 33 34 34 34 33 33 31 32 29 35 28 26 27 24 25 25 28 25 25 -193 23 23 24 24 23 17 16 10 13 12 12 12 0 10 15 22 23 20 24 26 24 21 16 14 11 11 9 0 0 0 0 0 0 0 0 0 9 9 11 11 11 12 11 11 12 10 10 11 10 11 10 12 11 12 13 16 18 20 23 22 23 24 27 27 30 29 30 32 31 33 34 34 38 37 38 -193 -193 43 -193 45 45 42 43 42 43 43 41 42 43 48 56 57 60 60 60 60 67 62 62 63 68 67 69 -193 70 70 75 77 76 76 77 78 76 77 77 75 74 75 75 75 75 77 79 83 85 87 91 92 93 94 98 98 101 99 101 105 106 106 106 106 107 105 107 -193 -193 104 104 106 114 -193 122 122 124 132 128 128 133 139 138 138 139 141 139 139 140 144 139 140 143 142 -193 145 147 149 145 149 -193 -193 154 -193 158 162 159 162 -193 -193 0 0 0 0 0 0
    0 0 0 0 0 0 0 0 0 0 0 0 0 0 0 0 0 0 0 0 0 0 0 0 0 0 0 0 0 0 0 0 0 0 0 0 0 0 0 0 0 0 0 0 0 0 0 0 0 0 0 0 0 0 0 0 0 0 0 0 0 0 0 0 0 0 0 0 0 57 57 57 57 56 56 57 54 55 53 52 53 48 49 50 49 49 48 49 47 44 45 45 43 41 41 40 40 40 40 40 39 38 37 37 37 36 35 35 33 34 34 34 33 33 31 31 29 34 28 26 27 25 25 25 28 25 25 23 23 23 23 24 23 18 17 11 13 13 14 13 10 12 16 21 22 21 24 25 24 22 16 16 11 11 9 0 0 0 0 0 0 0 0 0 9 10 10 10 11 13 11 11 12 10 11 11 10 11 10 12 11 11 13 16 18 20 23 23 24 24 27 27 29 29 29 31 31 32 33 33 37 36 38 -193 -193 43 -193 45 45 42 43 43 44 44 42 43 44 49 57 58 60 59 59 59 67 62 62 63 68 67 69 71 69 69 -193 77 76 76 76 78 76 77 78 75 74 75 75 76 75 77 79 83 84 88 90 92 93 93 97 96 101 99 100 105 106 106 106 106 107 106 107 -193 -193 104 104 108 111 116 121 122 124 132 130 130 134 139 138 138 138 141 138 139 139 143 139 140 142 142 -193 144 147 148 144 149 -193 -193 -193 -193 158 162 159 162 165 163 -193 0 0 0 0 0
    0 0 0 0 0 0 0 0 0 0 0 0 0 0 0 0 0 0 0 0 0 0 0 0 0 0 0 0 0 0 0 0 0 0 0 0 0 0 0 0 0 0 0 0 0 0 0 0 0 0 0 0 0 0 0 0 0 0 0 0 0 0 0 0 0 0 0 0 0 57 58 57 57 57 57 57 54 56 54 53 54 49 50 51 50 49 49 49 47 43 45 45 43 42 41 40 40 40 40 40 39 38 37 37 37 36 35 35 33 34 33 33 33 32 31 31 29 33 28 25 26 25 25 25 28 25 24 23 23 23 23 23 23 18 18 11 15 15 15 15 12 15 18 22 23 23 24 25 24 23 16 16 10 10 9 0 0 0 0 0 0 0 0 0 9 9 10 10 11 14 11 11 13 11 11 12 11 11 11 12 11 11 13 16 18 20 23 23 24 24 27 26 29 28 29 30 30 31 32 32 36 35 37 37 37 42 42 44 46 42 43 43 44 44 43 45 46 49 57 57 59 58 59 59 67 62 61 62 67 67 68 70 68 68 -193 76 75 75 76 77 76 77 78 76 74 75 76 76 75 77 79 82 82 87 89 91 92 92 96 95 100 99 101 105 106 106 106 106 107 106 108 -193 -193 104 104 111 111 112 121 121 124 132 131 131 134 139 137 137 138 140 -193 138 138 142 138 140 142 141 258 144 146 148 144 149 -193 -209 -193 -193 158 162 160 162 165 163 165 0 0 0 0 0
    0 0 0 0 0 0 0 0 0 0 0 0 0 0 0 0 0 0 0 0 0 0 0 0 0 0 0 0 0 0 0 0 0 0 0 0 0 0 0 0 0 0 0 0 0 0 0 0 0 0 0 0 0 0 0 0 0 0 0 0 0 0 0 0 0 0 0 0 0 57 57 57 57 56 56 57 53 56 54 53 54 50 50 51 50 50 49 49 47 43 44 44 43 42 41 40 39 39 39 39 39 38 37 37 37 36 35 35 33 34 33 33 33 32 31 31 29 31 28 25 26 25 25 24 27 24 24 23 23 23 23 23 23 20 20 14 18 18 17 17 15 18 19 22 23 23 24 25 24 23 19 19 12 10 10 0 0 0 0 0 0 9 9 9 11 11 11 11 11 14 12 12 13 11 12 12 12 12 11 12 12 11 12 16 16 18 22 21 22 23 26 25 28 27 27 29 29 30 31 31 35 33 36 37 36 41 41 44 46 43 44 44 45 45 45 48 49 49 57 57 58 58 58 58 66 62 62 62 67 67 68 70 68 68 -193 76 75 75 75 77 76 77 78 76 74 76 76 76 75 77 79 80 79 85 87 90 91 91 95 94 101 99 -193 105 106 106 106 107 107 106 107 -193 -193 104 104 107 108 108 118 122 125 133 133 133 134 139 136 137 137 139 -209 137 137 140 137 139 141 140 257 142 145 147 143 149 -193 -209 -193 -193 157 161 160 162 165 163 165 0 0 0 0 0
    0 0 0 0 0 0 0 0 0 0 0 0 0 0 0 0 0 0 0 0 0 0 0 0 0 0 0 0 0 0 0 0 0 0 0 0 0 0 0 0 0 0 0 0 0 0 0 0 0 0 0 0 0 0 0 0 0 0 0 0 0 0 0 0 0 0 0 0 0 56 57 57 57 56 56 56 53 56 55 54 54 50 51 51 50 51 50 50 47 43 45 44 43 42 41 40 40 39 39 39 39 38 38 37 37 36 35 35 34 34 34 33 33 32 32 32 30 31 29 27 27 27 26 25 27 24 24 23 23 23 23 23 23 20 21 18 20 20 19 19 18 20 20 22 24 24 24 25 24 23 21 20 13 11 10 0 0 0 0 0 0 0 9 9 11 11 11 10 11 13 11 12 13 11 12 13 12 13 12 14 13 12 13 15 15 17 20 19 21 21 24 24 26 26 26 28 28 30 31 30 34 32 36 36 36 40 40 43 47 44 44 44 46 46 46 49 50 48 57 57 58 58 58 58 66 61 62 62 67 68 68 70 67 67 -193 75 74 74 74 76 75 77 78 76 74 76 76 76 75 76 79 79 78 83 84 88 90 90 95 94 101 100 -209 105 106 106 106 107 108 107 107 106 -193 104 104 105 107 105 115 122 127 134 134 134 135 139 136 136 136 138 135 135 136 139 136 138 139 -193 256 -193 144 147 -193 -193 -193 -209 -177 -193 157 161 160 162 165 163 165 0 0 0 0 0
    0 0 0 0 0 0 0 0 0 0 0 0 0 0 0 0 0 0 0 0 0 0 0 0 0 0 0 0 0 0 0 0 0 0 0 0 0 0 0 0 0 0 0 0 0 0 0 0 0 0 0 0 0 0 0 0 0 0 0 0 0 0 0 0 0 0 0 0 0 56 57 57 57 56 56 56 53 56 56 55 55 52 52 52 52 52 51 51 47 43 45 44 43 42 41 40 40 40 39 39 39 39 38 37 37 36 35 35 34 34 34 33 33 33 32 32 32 31 30 28 29 28 27 26 28 24 24 23 23 23 23 23 23 21 22 20 21 21 20 20 20 21 21 23 24 24 24 25 25 24 21 21 14 11 9 0 0 0 0 0 0 9 10 10 12 12 11 11 11 12 11 11 12 11 11 12 11 11 11 11 11 10 12 14 14 17 20 19 21 21 23 23 25 25 25 27 27 29 30 30 33 32 35 35 35 40 39 43 47 44 45 45 46 47 47 50 51 48 56 57 58 58 58 58 65 61 62 62 67 68 68 70 67 67 -193 75 74 74 74 75 75 76 78 76 74 75 76 76 75 76 78 78 77 83 83 87 90 91 96 95 102 101 -193 105 106 106 106 107 108 107 107 106 -193 104 104 106 107 106 115 122 126 134 134 134 135 138 135 135 135 -193 134 134 134 -193 135 137 138 -193 256 -193 143 146 -193 -193 -209 -193 -177 -193 157 160 160 162 164 163 165 0 0 0 0 0
    0 0 0 0 0 0 0 0 0 0 0 0 0 0 0 0 0 0 0 0 0 0 0 0 0 0 0 0 0 0 0 0 0 0 0 0 0 0 0 0 0 0 0 0 0 0 0 0 0 0 0 0 0 0 0 0 0 0 0 0 0 0 0 0 0 0 0 0 0 56 57 57 56 56 56 56 54 56 57 56 56 53 53 53 52 53 52 51 47 43 44 44 43 42 42 41 40 40 39 39 39 39 38 37 37 36 35 36 35 35 35 33 33 33 33 32 33 32 31 29 30 29 28 27 28 24 24 23 23 22 22 22 23 21 22 21 21 22 21 21 22 23 22 24 25 26 25 26 25 24 22 22 -193 11 9 0 0 0 0 0 0 9 10 11 12 12 11 11 11 11 11 11 11 11 11 11 10 10 10 11 11 10 12 15 15 18 21 19 22 20 23 22 24 24 25 26 27 29 30 31 34 33 36 36 36 40 40 43 49 45 46 46 47 47 48 51 52 48 57 57 58 58 58 58 65 61 62 62 66 68 68 70 67 67 -177 75 -193 74 73 75 74 76 77 -193 -193 75 75 75 75 76 78 78 77 83 83 88 90 92 96 95 102 102 -193 105 106 106 107 107 108 107 107 107 -193 105 105 106 108 107 114 121 124 133 134 134 135 137 134 134 134 136 -177 132 133 135 134 137 137 261 256 259 143 146 -193 -193 -209 -193 -177 -193 156 160 160 162 164 163 165 0 0 0 0 0
    0 0 0 0 0 0 0 0 0 0 0 0 0 0 0 0 0 0 0 0 0 0 0 0 0 0 0 0 0 0 0 0 0 0 0 0 0 0 0 0 0 0 0 0 0 0 0 0 0 0 0 0 0 0 0 0 0 0 0 0 0 0 0 0 0 0 0 0 0 56 56 56 56 56 56 56 54 56 57 56 56 54 54 54 53 53 52 51 47 44 44 44 44 43 43 41 40 40 39 39 39 39 38 36 36 36 35 35 35 35 35 33 33 34 34 33 33 33 31 30 31 30 29 27 28 25 24 23 23 22 22 22 22 21 22 21 21 22 21 22 22 24 23 24 26 26 25 26 25 25 22 22 14 11 9 0 0 0 0 0 0 0 9 10 11 11 11 12 11 11 12 11 11 10 10 11 9 9 9 9 10 9 10 15 13 17 21 19 22 20 23 22 24 24 24 26 27 29 31 31 34 34 36 37 37 40 40 42 49 45 46 46 47 48 49 51 52 48 57 57 58 58 58 58 65 61 63 62 67 68 69 70 67 67 -177 74 -193 -193 73 74 -193 75 76 -177 -193 -193 74 75 74 75 78 79 78 84 83 87 90 91 95 95 102 102 105 105 106 107 107 107 109 108 107 107 -193 105 105 107 108 107 111 120 123 133 135 135 135 137 133 133 134 135 132 131 132 134 133 136 137 -177 -177 -177 142 146 -193 -193 -193 -193 -177 -193 156 159 160 162 164 163 -193 0 0 0 0 0
    0 0 0 0 0 0 0 0 0 0 0 0 0 0 0 0 0 0 0 0 0 0 0 0 0 0 0 0 0 0 0 0 0 0 0 0 0 0 0 0 0 0 0 0 0 0 0 0 0 0 0 0 0 0 0 0 0 0 0 0 0 0 0 0 0 0 0 0 0 55 56 56 55 55 55 55 53 56 57 57 57 55 55 54 54 54 53 52 47 45 45 44 44 44 44 42 41 41 39 39 39 38 38 35 36 36 35 35 35 35 36 32 33 34 34 33 34 33 32 30 32 31 29 27 29 26 25 24 24 23 23 22 23 22 23 23 23 23 22 22 22 24 23 24 25 26 25 25 25 25 22 22 14 10 9 0 0 0 0 0 0 0 0 9 10 11 11 12 12 11 12 12 11 11 11 10 9 10 9 9 9 9 10 14 12 17 20 19 22 20 23 22 23 24 24 26 26 28 30 31 34 33 36 37 37 39 39 41 49 45 46 46 47 47 49 52 52 48 57 57 58 58 58 57 65 62 63 62 67 69 69 70 67 67 -193 74 -177 -193 72 -193 -193 74 74 -177 -193 -193 -193 74 74 75 78 79 77 84 83 86 90 91 94 94 102 103 105 105 107 107 107 107 109 108 107 107 -193 105 106 107 108 107 111 119 122 133 136 135 135 136 133 133 133 135 131 129 131 133 132 136 136 -177 -177 -177 142 146 -193 -193 -193 -177 -193 -193 155 158 -193 162 -193 -193 -193 0 0 0 0 0
    0 0 0 0 0 0 0 0 0 0 0 0 0 0 0 0 0 0 0 0 0 0 0 0 0 0 0 0 0 0 0 0 0 0 0 0 0 0 0 0 0 0 0 0 0 0 0 0 0 0 0 0 0 0 0 0 0 0 0 0 0 0 0 0 0 0 0 0 0 55 55 55 54 54 55 54 53 55 56 57 57 56 56 55 54 55 54 52 48 46 45 44 44 45 45 42 41 41 39 39 39 38 38 35 36 35 35 35 36 35 36 32 33 34 35 33 34 33 32 30 32 32 30 27 28 26 25 24 25 23 23 23 23 23 24 23 23 23 23 22 23 24 24 25 25 26 25 25 25 24 22 22 15 11 9 0 0 0 0 0 0 0 0 0 9 11 11 12 12 11 12 12 12 11 11 11 10 10 10 10 10 9 10 12 11 17 19 19 22 20 22 21 23 23 23 26 26 28 30 30 33 33 36 36 36 39 38 40 48 45 45 45 47 47 50 52 53 48 56 56 57 57 57 57 65 62 63 63 68 69 69 70 68 68 -193 -193 -177 -209 72 -193 -177 74 -193 -177 -193 -193 -193 74 74 75 77 79 77 83 82 85 89 91 93 94 103 104 106 106 107 107 107 107 109 108 107 107 107 106 106 108 109 108 111 115 121 133 136 135 135 136 132 132 132 134 130 128 129 132 131 136 136 -177 -177 -177 143 146 144 -193 -193 -177 -209 -193 154 157 -193 -193 85 85 -193 0 0 0 0 0
    0 0 0 0 0 0 0 0 0 0 0 0 0 0 0 0 0 0 0 0 0 0 0 0 0 0 0 0 0 0 0 0 0 0 0 0 0 0 0 0 0 0 0 0 0 0 0 0 0 0 0 0 0 0 0 0 0 0 0 0 0 0 0 0 0 0 0 0 0 55 54 54 54 54 54 54 53 54 55 57 57 57 56 55 54 55 54 52 48 47 45 44 45 45 45 42 41 41 39 39 39 38 38 35 36 35 35 36 36 35 37 32 33 34 35 33 34 33 32 30 33 32 30 27 28 26 25 25 25 23 23 23 24 24 24 23 23 23 23 23 24 25 24 25 25 26 25 25 25 24 22 22 16 12 10 0 0 0 0 0 0 0 0 0 0 10 11 12 11 11 12 11 12 11 11 11 10 10 10 10 10 9 10 11 12 17 18 19 22 20 22 21 23 23 23 26 26 28 30 30 33 33 36 36 36 38 37 39 46 45 45 45 46 47 52 53 53 49 56 56 56 57 56 56 64 63 64 65 69 -193 69 71 68 68 72 73 -193 -209 72 -193 -177 73 -193 -177 70 -193 -209 73 74 74 77 79 77 83 82 84 89 91 92 94 103 -193 106 106 107 107 108 108 109 108 107 107 107 106 106 107 109 108 111 112 120 132 136 135 135 136 131 132 132 134 130 128 129 132 131 135 136 -193 -177 -193 143 146 144 -193 -193 -193 -209 -193 153 156 86 -193 85 85 -193 0 0 0 0 0
    0 0 0 0 0 0 0 0 0 0 0 0 0 0 0 0 0 0 0 0 0 0 0 0 0 0 0 0 0 0 0 0 0 0 0 0 0 0 0 0 0 0 0 0 0 0 0 0 0 0 0 0 0 0 0 0 0 0 0 0 0 0 0 0 0 0 0 0 0 55 54 54 53 54 54 54 54 54 54 57 57 57 56 55 54 54 54 52 48 48 45 44 45 45 46 42 41 41 39 39 39 38 38 35 36 36 35 35 37 36 37 32 33 34 36 34 34 34 33 31 33 33 30 28 29 27 25 25 25 23 23 23 23 23 24 23 23 22 24 24 24 25 25 26 25 26 25 25 25 24 23 22 18 13 11 10 0 0 0 0 0 0 0 0 9 10 11 11 11 10 11 11 11 10 11 10 10 10 10 9 10 9 10 10 11 16 18 18 21 19 22 21 23 24 24 26 27 28 31 30 33 33 36 36 36 38 36 38 45 45 45 45 46 47 52 53 53 50 55 55 56 56 56 56 64 65 66 67 70 -193 70 71 68 68 -193 73 -193 -193 72 -193 -177 73 -193 -193 -193 -193 -209 -209 -193 -193 77 80 78 85 84 86 89 92 92 94 103 -209 106 106 108 107 108 108 109 107 107 107 107 105 105 107 108 107 112 112 120 132 136 134 134 136 132 132 132 134 130 128 129 132 131 135 135 -209 -177 -193 144 147 145 143 147 -193 -193 -193 153 155 86 -193 84 84 -193 0 0 0 0 0
    0 0 0 0 0 0 0 0 0 0 0 0 0 0 0 0 0 0 0 0 0 0 0 0 0 0 0 0 0 0 0 0 0 0 0 0 0 0 0 0 0 0 0 0 0 0 0 0 0 0 0 0 0 0 0 0 0 0 0 0 0 0 0 0 0 0 0 0 0 55 54 54 54 54 54 55 54 55 -193 58 58 58 57 55 55 55 54 52 49 48 46 44 45 45 47 42 41 41 39 39 39 38 38 35 36 36 35 35 36 36 37 32 33 34 36 33 34 34 33 31 34 34 30 28 30 27 25 25 24 22 23 23 23 22 23 23 23 22 23 23 23 24 24 26 25 25 25 25 25 24 22 22 17 13 10 9 0 0 0 0 0 0 0 0 9 11 11 12 11 11 11 11 11 10 11 10 10 10 9 9 9 0 9 9 10 15 18 18 21 20 23 22 24 24 24 27 27 29 32 31 33 33 36 36 36 37 36 37 44 45 44 44 46 48 53 54 54 51 55 55 56 56 56 56 65 68 68 69 71 -193 71 71 69 69 -193 73 -193 72 72 -193 -193 73 -193 -193 -193 -193 -177 -193 -209 -193 77 81 78 87 86 88 90 92 92 94 103 -209 106 106 108 108 109 109 109 107 107 107 107 -193 -193 107 108 108 113 112 119 130 135 132 132 135 132 132 132 134 130 128 129 132 132 135 136 -209 -177 142 145 147 145 143 147 -193 -193 -193 152 155 -193 -193 82 82 -193 0 0 0 0 0
    0 0 0 0 0 0 0 0 0 0 0 0 0 0 0 0 0 0 0 0 0 0 0 0 0 0 0 0 0 0 0 0 0 0 0 0 0 0 0 0 0 0 0 0 0 0 0 0 0 0 0 0 0 0 0 0 0 0 0 0 0 0 0 0 0 0 0 0 0 56 55 55 54 55 55 55 55 55 -193 58 59 59 58 56 55 55 55 52 50 49 46 44 45 46 47 42 41 -193 39 39 39 38 38 35 36 35 35 35 36 35 37 32 33 34 36 33 34 34 33 31 35 34 31 28 30 28 25 24 24 22 23 23 23 21 23 22 22 21 22 22 22 23 24 24 24 24 24 24 24 23 22 21 17 11 0 0 0 0 0 0 0 0 0 0 10 11 11 12 11 12 12 11 11 10 11 10 10 10 9 9 9 9 9 9 11 16 19 20 22 21 24 23 26 25 25 29 28 29 33 32 34 33 37 36 35 37 36 36 43 45 44 44 46 48 53 54 54 51 55 55 56 56 56 56 65 70 70 71 -193 -193 71 72 70 70 -193 73 -193 73 73 74 -193 73 74 -209 -193 -193 -177 -193 -193 -193 77 82 79 89 88 89 90 92 91 93 103 -209 106 107 109 108 109 109 110 108 107 108 107 -193 -193 108 109 109 114 113 119 126 134 130 130 135 132 133 133 134 130 129 130 133 134 136 136 -209 -177 143 146 147 145 143 147 -193 148 -209 152 -193 -209 -193 81 81 -193 0 0 0 0 0
    0 0 0 0 0 0 0 0 0 0 0 0 0 0 0 0 0 0 0 0 0 0 0 0 0 0 0 0 0 0 0 0 0 0 0 0 0 0 0 0 0 0 0 0 0 0 0 0 0 0 0 0 0 0 0 0 0 0 0 0 0 0 0 0 0 0 0 0 0 56 55 54 54 55 55 55 55 55 -193 58 59 59 59 55 55 55 55 53 51 50 47 44 46 46 47 42 41 40 38 38 39 37 38 34 36 35 35 35 36 35 37 31 33 33 36 33 34 35 33 31 35 34 30 28 30 28 25 25 25 22 23 23 23 20 22 21 21 20 22 21 22 21 23 23 24 23 23 22 22 22 21 20 15 10 0 0 0 0 0 0 0 0 0 0 9 10 11 11 11 12 12 12 12 11 11 10 10 10 9 9 9 9 10 10 12 17 19 21 22 22 25 24 27 26 26 30 29 30 34 32 34 33 37 36 35 37 37 35 42 45 44 44 46 48 53 54 54 52 54 54 55 56 56 55 65 -209 72 73 -193 -193 71 -193 71 71 -193 73 -193 73 74 75 75 73 74 -209 -193 -193 -177 -177 -193 -193 78 82 80 89 89 89 89 92 90 92 102 -209 106 107 109 109 109 110 110 108 107 108 107 106 -193 108 110 111 116 116 119 128 135 130 130 135 133 133 134 135 131 130 131 133 135 136 136 -209 -177 143 145 147 145 143 146 147 147 -209 151 -193 -193 -209 80 -193 -193 0 0 0 0 0
    0 0 0 0 0 0 0 0 0 0 0 0 0 0 0 0 0 0 0 0 0 0 0 0 0 0 0 0 0 0 0 0 0 0 0 0 0 0 0 0 0 0 0 0 0 0 0 0 0 0 0 0 0 0 0 0 0 0 0 0 0 0 0 0 0 0 0 0 0 56 54 54 54 55 54 55 55 54 54 57 59 59 60 55 55 55 55 53 51 51 47 45 47 47 48 42 41 40 38 38 39 37 38 34 36 35 35 34 35 34 37 31 33 33 36 33 33 35 33 31 34 34 30 28 30 28 25 25 25 22 23 22 23 20 21 21 21 20 22 20 20 18 22 22 22 21 20 20 20 21 21 19 15 10 0 0 0 0 0 0 0 0 0 0 9 10 11 11 11 13 12 12 12 11 11 10 10 10 9 9 9 9 10 10 13 18 20 21 23 23 26 25 28 27 27 30 29 30 34 31 33 31 36 35 34 36 36 35 42 46 44 44 46 48 53 55 54 52 53 54 54 55 55 55 64 -193 73 74 74 -193 71 -193 -193 -193 -193 73 -193 73 74 75 75 -193 -193 -177 -209 -193 -177 -177 -177 -177 78 83 81 89 90 90 90 92 91 92 102 -209 -193 107 109 109 110 110 110 108 107 109 108 -193 -193 109 114 115 117 119 120 129 135 129 129 134 134 134 134 135 132 131 132 134 135 136 136 -193 -177 143 145 147 144 143 146 147 147 -209 151 -193 -193 -193 -193 -193 -193 0 0 0 0 0
    0 0 0 0 0 0 0 0 0 0 0 0 0 0 0 0 0 0 0 0 0 0 0 0 0 0 0 0 0 0 0 0 0 0 0 0 0 0 0 0 0 0 0 0 0 0 0 0 0 0 0 0 0 0 0 0 0 0 0 0 0 0 0 0 0 0 0 0 0 56 54 54 54 55 54 55 55 54 53 57 60 60 60 56 56 56 55 53 52 51 48 45 47 47 47 42 41 40 38 38 39 37 37 34 36 35 35 34 35 33 37 31 32 33 35 33 33 35 33 31 34 33 30 28 30 28 25 25 25 22 23 22 23 19 20 20 20 20 21 19 19 14 20 19 20 18 17 17 18 19 21 19 15 10 0 0 0 0 0 0 0 0 0 0 9 10 11 11 11 13 12 13 13 11 12 11 11 11 9 9 9 10 10 10 14 18 21 21 23 23 27 27 29 28 27 31 30 30 33 30 32 30 34 34 32 36 36 34 41 46 44 44 46 49 53 55 54 52 52 53 54 55 55 55 61 -193 72 73 -193 -193 70 -193 -193 -193 -193 73 -193 74 74 76 76 -177 -177 -177 -209 -193 -177 -177 -177 -177 78 84 -193 90 91 91 90 93 92 93 101 -209 -193 107 110 109 110 110 110 109 108 111 109 107 112 115 118 119 119 121 120 129 134 128 128 134 134 135 135 136 132 132 134 135 137 136 136 -193 259 143 145 147 145 143 146 147 147 -209 151 -193 -193 -193 -209 -193 -209 0 0 0 0 0
    0 0 0 0 0 0 0 0 0 0 0 0 0 0 0 0 0 0 0 0 0 0 0 0 0 0 0 0 0 0 0 0 0 0 0 0 0 0 0 0 0 0 0 0 0 0 0 0 0 0 0 0 0 0 0 0 0 0 0 0 0 0 0 0 0 0 0 0 0 55 54 54 54 55 55 55 55 54 53 57 59 59 60 55 55 56 55 54 52 51 47 44 46 47 46 42 41 40 38 38 39 36 37 35 36 35 35 34 35 33 36 32 32 33 35 33 33 35 33 31 34 33 30 28 30 28 25 25 25 22 23 22 22 18 20 19 19 19 20 18 18 13 19 18 19 16 14 14 15 17 20 16 13 9 0 0 0 0 0 0 0 0 0 0 9 9 10 11 11 12 12 12 12 12 12 11 11 11 9 9 9 10 10 10 13 18 21 21 23 23 27 27 30 28 28 31 30 30 34 30 32 30 34 34 32 35 35 33 41 46 44 44 46 48 53 54 54 52 51 53 54 55 55 55 59 -177 70 72 -177 -193 70 -193 -177 -193 -193 74 -193 75 75 76 -193 -177 -177 -177 -193 -177 -177 -177 -177 -177 79 85 -177 91 93 92 91 93 92 94 100 -209 -193 107 110 109 110 111 110 109 108 113 111 109 121 121 121 121 121 122 120 127 133 127 127 133 135 136 136 136 -193 133 135 136 138 136 136 -193 -193 144 146 147 145 143 146 147 147 -209 151 -193 -209 155 -193 155 -209 0 0 0 0 0
    0 0 0 0 0 0 0 0 0 0 0 0 0 0 0 0 0 0 0 0 0 0 0 0 0 0 0 0 0 0 0 0 0 0 0 0 0 0 0 0 0 0 0 0 0 0 0 0 0 0 0 0 0 0 0 0 0 0 0 0 0 0 0 0 0 0 0 0 0 55 55 55 55 55 55 55 55 54 53 57 60 59 61 55 55 56 55 54 52 51 47 44 46 47 46 42 41 40 38 38 39 36 37 35 36 35 35 35 35 34 36 32 33 34 35 33 33 35 33 32 34 33 30 28 31 28 25 -193 -193 22 23 22 22 18 19 19 19 19 19 17 16 12 17 16 18 15 13 13 14 16 18 13 10 0 0 0 0 0 0 0 0 0 0 9 9 9 9 10 10 12 11 12 11 12 12 11 10 11 9 9 9 10 10 10 13 18 20 20 -193 23 27 28 31 29 28 32 31 31 34 30 32 30 34 34 32 36 36 33 41 47 44 44 45 48 53 54 54 52 51 54 54 55 55 55 58 -177 68 70 -177 -193 69 -177 -177 -209 -193 74 76 75 75 77 -193 -177 -177 -177 -193 -177 -177 -177 -177 -177 -193 -193 -177 92 95 94 92 94 93 94 100 -209 -193 107 110 109 110 111 110 110 108 115 113 113 121 122 122 122 122 123 121 127 133 127 127 133 -193 137 137 137 -193 -193 136 137 139 137 137 141 -193 144 146 147 145 144 147 147 147 -209 151 -193 -209 154 -193 154 153 0 0 0 0 0
    0 0 0 0 0 0 0 0 0 0 0 0 0 0 0 0 0 0 0 0 0 0 0 0 0 0 0 0 0 0 0 0 0 0 0 0 0 0 0 0 0 0 0 0 0 0 0 0 0 0 0 0 0 0 0 0 0 0 0 0 0 0 0 0 0 0 0 0 0 56 55 55 55 56 56 55 55 55 53 57 60 60 62 56 56 56 56 54 52 51 47 44 45 47 45 42 41 41 39 38 39 37 37 35 36 36 36 36 35 34 36 33 33 34 35 33 32 35 33 32 34 33 30 28 31 28 25 -177 -177 22 23 23 22 18 19 19 18 18 19 16 14 11 15 15 16 14 11 12 12 13 14 11 0 0 0 0 0 0 0 0 0 0 0 9 10 9 10 10 10 12 11 12 11 12 11 11 10 11 9 9 0 10 9 10 13 17 20 20 -193 23 27 27 31 29 28 32 31 31 34 30 32 30 34 34 32 36 36 33 41 48 44 44 45 48 53 54 54 52 51 54 54 56 56 55 57 -193 65 67 -177 70 68 -177 -177 -209 -193 75 76 75 75 77 -193 -177 -177 -177 -193 -177 -177 -177 -177 -177 -193 87 -177 92 95 94 92 94 93 95 101 -209 -193 107 110 109 110 111 110 110 109 116 115 118 122 123 123 123 123 124 121 126 133 127 127 133 -209 137 138 138 16 19 137 138 140 137 137 141 -193 144 145 147 145 144 147 148 147 -209 151 -193 -193 153 -193 154 152 0 0 0 0 0
    0 0 0 0 0 0 0 0 0 0 0 0 0 0 0 0 0 0 0 0 0 0 0 0 0 0 0 0 0 0 0 0 0 0 0 0 0 0 0 0 0 0 0 0 0 0 0 0 0 0 0 0 0 0 0 0 0 0 0 0 0 0 0 0 0 0 0 0 0 56 55 55 55 56 56 56 55 55 55 58 63 61 63 56 56 56 56 54 53 52 47 44 45 47 45 41 41 41 39 39 39 37 36 36 36 36 36 36 35 35 36 34 33 34 35 33 32 34 33 32 33 32 30 28 31 28 26 -193 -193 22 23 23 22 19 19 19 19 18 19 16 14 -193 -193 13 14 13 10 10 10 11 11 9 0 0 0 0 0 0 0 0 0 0 0 9 10 9 10 10 10 12 11 12 11 11 11 11 10 10 0 0 0 10 9 10 13 18 19 20 -193 23 -193 27 31 29 28 32 31 31 34 30 32 30 34 35 -177 -177 36 33 41 48 45 45 45 48 53 54 54 53 51 54 54 56 56 55 56 -193 63 65 -193 69 67 459 461 -209 -193 75 -193 -193 75 76 -193 -177 -177 -177 -177 -177 -177 -177 -177 -177 -193 -193 -177 91 94 93 92 94 93 95 101 -193 -193 107 110 109 110 111 111 110 109 117 117 121 123 124 124 124 124 126 121 126 133 127 127 133 -193 138 138 138 16 19 137 138 141 137 137 141 -193 144 145 146 145 144 147 148 147 -193 150 -193 -193 153 -193 153 152 0 0 0 0 0
    0 0 0 0 0 0 0 0 0 0 0 0 0 0 0 0 0 0 0 0 0 0 0 0 0 0 0 0 0 0 0 0 0 0 0 0 0 0 0 0 0 0 0 0 0 0 0 0 0 0 0 0 0 0 0 0 0 0 0 0 0 0 0 0 0 0 0 0 0 56 55 55 55 55 55 56 56 55 56 59 64 62 64 56 56 57 56 54 53 52 47 44 45 47 44 41 40 40 39 39 39 37 36 36 36 36 36 36 35 35 36 34 34 34 34 33 32 34 33 32 33 32 29 28 31 28 26 26 26 23 24 23 22 19 19 19 19 19 19 16 14 -193 -193 12 12 11 9 9 9 11 10 9 0 0 0 0 0 0 0 0 0 0 0 9 9 9 10 10 10 12 11 12 11 11 11 11 10 10 0 0 0 10 10 10 13 19 20 20 -193 -193 -193 27 30 29 28 32 31 31 34 30 32 30 34 35 33 -177 37 33 41 49 45 45 45 48 53 54 54 53 51 55 55 56 56 55 56 64 61 63 -193 68 66 460 461 -193 -177 75 -193 786 75 76 -193 -177 -193 -177 -177 -193 -177 -177 -177 -177 -193 -193 -177 90 93 93 91 94 92 94 100 -193 104 107 110 109 110 111 111 111 108 117 -193 121 123 124 124 125 124 127 121 128 133 127 127 133 139 138 138 138 -177 -177 138 139 141 137 138 142 141 144 144 146 145 144 147 -193 147 -193 150 -193 -193 152 -193 -193 151 0 0 0 0 0
    0 0 0 0 0 0 0 0 0 0 0 0 0 0 0 0 0 0 0 0 0 0 0 0 0 0 0 0 0 0 0 0 0 0 0 0 0 0 0 0 0 0 0 0 0 0 0 0 0 0 0 0 0 0 0 0 0 0 0 0 0 0 0 0 0 0 0 0 0 56 55 55 55 55 55 56 55 55 56 58 64 62 65 56 56 57 56 54 53 52 47 44 45 47 44 41 40 41 39 39 39 37 36 36 37 37 36 37 35 35 35 34 34 34 34 32 32 34 32 32 33 31 29 28 30 28 26 26 26 23 24 23 22 20 20 20 19 19 19 16 15 12 12 12 12 11 9 9 9 10 9 0 0 0 0 0 0 0 0 0 0 0 0 9 9 9 10 10 10 12 11 11 11 11 11 10 10 10 0 0 0 10 9 10 12 19 19 19 22 23 26 27 30 28 28 32 31 30 34 30 32 30 34 35 33 -177 -177 33 41 49 45 45 45 48 53 54 54 53 52 55 55 56 56 55 55 62 60 61 64 68 65 -193 462 -193 -177 75 -177 785 -193 75 -193 -177 -193 627 -177 -193 -177 -177 750 750 -193 -193 -177 90 93 93 91 94 92 93 99 -209 104 107 109 109 110 111 111 111 108 118 -193 122 124 125 125 125 125 127 122 131 134 128 128 133 140 139 139 139 -193 -177 138 139 142 138 138 142 141 144 144 146 146 143 147 -193 147 -193 150 153 -193 152 -193 -193 151 0 0 0 0 0
    0 0 0 0 0 0 0 0 0 0 0 0 0 0 0 0 0 0 0 0 0 0 0 0 0 0 0 0 0 0 0 0 0 0 0 0 0 0 0 0 0 0 0 0 0 0 0 0 0 0 0 0 0 0 0 0 0 0 0 0 0 0 0 0 0 0 0 0 0 56 55 55 55 55 55 56 55 55 57 58 64 63 65 56 56 56 56 54 53 52 46 44 45 47 44 41 41 41 39 39 39 38 36 36 37 37 37 37 35 36 35 35 34 34 34 32 31 34 32 32 32 31 29 28 30 27 26 25 26 23 24 23 22 21 20 20 19 20 19 16 15 13 12 12 11 11 9 9 9 10 0 0 0 0 0 0 0 0 0 0 0 0 9 9 9 9 10 10 10 11 10 11 10 11 10 10 10 10 0 0 0 10 9 10 11 17 19 19 22 23 26 26 30 28 28 32 31 30 34 30 32 30 34 35 33 -177 -177 33 41 49 45 45 45 48 53 54 54 53 52 55 55 57 57 55 55 61 60 60 63 67 65 -193 462 -193 -177 75 -177 784 -193 75 -193 -177 -177 626 -177 -193 -177 -177 750 750 -193 -193 -177 90 94 94 92 94 92 93 98 -193 103 106 109 108 109 110 110 110 108 118 -193 122 124 125 125 125 125 127 121 127 133 128 128 133 140 139 139 139 -193 -177 139 139 143 138 139 143 141 144 144 146 146 143 147 -193 -193 -209 -193 153 -193 152 -193 -193 151 0 0 0 0 0
    0 0 0 0 0 0 0 0 0 0 0 0 0 0 0 0 0 0 0 0 0 0 0 0 0 0 0 0 0 0 0 0 0 0 0 0 0 0 0 0 0 0 0 0 0 0 0 0 0 0 0 0 0 0 0 0 0 0 0 0 0 0 0 0 0 0 0 0 0 56 55 55 55 55 55 55 55 -193 -193 59 65 64 -193 56 56 56 56 54 53 52 46 43 44 47 43 41 41 41 -193 40 39 38 36 37 37 37 37 37 35 36 35 35 34 34 34 32 31 34 32 32 32 31 29 28 29 27 26 25 25 23 24 23 22 22 21 20 20 20 19 17 16 14 13 13 12 12 10 9 9 10 9 9 0 0 0 0 0 0 0 0 0 0 9 9 9 9 10 10 10 10 10 11 10 11 10 10 9 9 0 0 0 10 9 10 10 16 18 18 21 22 25 26 29 28 28 32 31 31 34 31 32 30 34 35 33 -177 -177 32 41 48 45 45 45 48 53 54 54 53 52 55 55 57 57 55 55 60 60 60 63 67 65 -193 462 -193 -177 75 -177 -177 -193 75 -193 -177 -177 626 -177 -193 -177 -177 750 750 -193 -193 -177 90 94 94 92 95 92 93 95 -193 102 106 108 108 108 109 110 110 108 118 -193 123 124 126 125 125 124 126 120 123 131 127 127 133 140 139 139 139 140 -193 139 140 144 139 140 143 141 143 144 146 146 143 147 -193 -193 -209 -193 153 -193 -193 -193 -193 151 0 0 0 0 0
    0 0 0 0 0 0 0 0 0 0 0 0 0 0 0 0 0 0 0 0 0 0 0 0 0 0 0 0 0 0 0 0 0 0 0 0 0 0 0 0 0 0 0 0 0 0 0 0 0 0 0 0 0 0 0 0 0 0 0 0 0 0 0 0 0 0 0 0 0 56 55 55 55 55 55 56 56 -193 -193 60 67 65 -193 56 56 56 56 54 53 52 46 43 44 47 43 40 41 -193 -193 40 39 39 36 37 37 37 37 37 35 36 35 34 34 33 34 33 31 34 32 32 32 30 29 28 28 26 25 25 25 23 24 23 22 23 22 21 20 21 19 18 17 16 14 14 14 13 11 10 10 11 9 9 0 0 0 0 0 0 0 0 0 0 9 10 10 10 10 10 10 10 10 10 10 11 9 10 9 9 0 0 0 10 9 10 10 15 17 18 21 22 24 26 29 28 28 33 31 31 35 31 33 30 34 35 33 -177 -177 33 41 49 45 45 45 48 53 54 55 53 52 55 55 57 57 55 55 60 59 60 63 67 65 -193 462 -209 -177 75 -177 -193 74 75 -193 -193 -177 626 -177 -193 -177 -177 751 749 -193 -193 -193 90 94 94 92 95 92 93 93 103 100 105 108 -193 -193 108 109 109 107 118 -193 123 125 126 126 126 125 127 120 121 131 127 127 133 140 139 139 139 140 -193 139 140 144 139 140 143 141 143 143 145 146 143 146 -193 -177 -209 -193 153 -193 -193 -193 -193 152 0 0 0 0 0
    0 0 0 0 0 0 0 0 0 0 0 0 0 0 0 0 0 0 0 0 0 0 0 0 0 0 0 0 0 0 0 0 0 0 0 0 0 0 0 0 0 0 0 0 0 0 0 0 0 0 0 0 0 0 0 0 0 0 0 0 0 0 0 0 0 0 0 0 0 57 56 55 55 56 55 56 56 -193 58 61 68 65 -193 56 56 56 56 54 53 52 46 43 44 47 43 41 41 -193 445 40 -193 39 36 37 37 37 37 37 35 36 35 34 34 33 33 33 30 33 31 31 31 29 28 27 26 25 25 24 24 23 23 23 22 23 22 21 21 21 19 18 18 18 14 14 14 13 12 11 10 11 10 10 9 0 0 0 0 0 0 0 0 0 9 10 10 10 11 11 11 11 11 11 10 11 10 9 9 9 0 0 0 10 9 10 10 16 17 18 21 22 25 26 29 28 28 33 31 31 35 31 33 30 34 35 33 -177 -177 33 41 49 45 45 45 48 52 54 54 53 52 55 55 56 56 55 55 60 59 60 62 67 65 461 462 -209 -177 75 -177 -193 74 75 -193 -193 -193 627 -193 -193 -177 -177 -177 -177 -177 -193 -193 90 93 94 92 96 93 93 94 102 99 -209 107 -193 -193 107 108 109 107 118 -193 123 124 126 126 126 125 127 119 121 132 128 128 133 140 138 139 139 140 -193 139 139 143 138 139 142 140 142 143 145 146 143 146 -193 -193 -209 -193 152 -193 -193 153 -193 152 0 0 0 0 0
    0 0 0 0 0 0 0 0 0 0 0 0 0 0 0 0 0 0 0 0 0 0 0 0 0 0 0 0 0 0 0 0 0 0 0 0 0 0 0 0 0 0 0 0 0 0 0 0 0 0 0 0 0 0 0 0 0 0 0 0 0 0 0 0 0 0 0 0 0 57 55 55 55 55 55 55 56 -193 57 61 69 65 -209 -209 -193 -193 56 54 53 52 46 43 44 47 43 41 40 -193 -177 40 -193 39 36 36 37 37 36 37 34 36 35 34 34 33 33 33 30 33 30 31 30 28 27 27 24 24 24 24 24 23 23 22 21 24 22 21 21 21 20 19 19 19 14 15 15 13 12 11 11 11 10 11 10 0 0 0 0 0 0 0 0 0 9 10 10 10 12 12 11 12 11 11 10 11 10 9 9 9 0 0 9 10 10 10 10 16 17 18 21 22 25 26 29 28 28 33 31 31 35 31 33 30 34 35 -177 -177 36 32 40 48 44 44 45 48 52 54 54 53 52 55 55 56 56 54 54 -193 59 59 62 67 66 461 463 -209 -177 75 -177 73 73 74 -193 -193 -193 -177 -193 -193 -177 -177 -177 -177 -177 -193 -193 89 92 93 92 96 95 94 96 101 99 -193 -193 -193 -193 107 108 109 107 117 -193 -193 -193 -193 125 124 124 127 118 122 133 129 129 134 140 138 138 139 140 -193 138 138 142 138 139 142 140 141 142 144 146 142 145 -193 -193 -209 -193 152 -193 -193 153 -193 152 0 0 0 0 0
    0 0 0 0 0 0 0 0 0 0 0 0 0 0 0 0 0 0 0 0 0 0 0 0 0 0 0 0 0 0 0 0 0 0 0 0 0 0 0 0 0 0 0 0 0 0 0 0 0 0 0 0 0 0 0 0 0 0 0 0 0 0 0 0 0 0 0 0 0 56 55 55 55 55 54 55 55 -193 -193 61 69 65 -209 -209 -209 -209 -193 54 53 52 46 43 44 46 43 41 40 -193 -177 40 38 38 36 36 37 37 36 37 34 36 35 34 34 33 33 33 30 32 30 30 29 27 26 26 23 23 24 23 23 23 23 22 -193 24 23 21 21 21 20 19 20 19 15 15 15 14 12 11 11 11 10 11 10 0 0 0 9 0 0 9 0 0 10 11 11 10 12 13 12 12 12 12 11 11 10 10 9 9 0 0 9 10 10 10 10 17 17 18 22 22 25 26 29 28 28 33 31 31 35 31 33 31 34 34 -177 -177 36 32 40 48 44 44 45 47 52 54 54 53 52 54 54 55 55 54 54 -193 59 59 62 67 66 461 463 -193 -193 74 -177 -193 73 74 -193 67 67 -177 -193 -193 -177 -177 -177 -177 -193 -193 77 89 92 92 91 94 94 93 95 100 98 101 -193 -209 -193 106 107 109 107 116 -193 -193 -193 -193 122 121 122 127 117 122 133 131 131 134 140 138 138 138 140 18 138 138 142 138 139 142 140 141 142 144 146 142 145 -193 -193 -209 -193 152 152 -193 153 -209 152 0 0 0 0 0
    0 0 0 0 0 0 0 0 0 0 0 0 0 0 0 0 0 0 0 0 0 0 0 0 0 0 0 0 0 0 0 0 0 0 0 0 0 0 0 0 0 0 0 0 0 0 0 0 0 0 0 0 0 0 0 0 0 0 0 0 0 0 0 0 0 0 0 0 0 56 55 55 55 55 54 55 55 -193 55 59 -193 63 -209 -209 -209 -209 -193 -193 -193 52 46 43 44 47 43 41 40 -193 -177 39 38 38 36 36 37 37 36 37 34 36 35 34 34 33 33 33 30 32 29 29 28 26 26 26 22 23 23 23 23 23 22 22 -193 24 23 21 21 22 20 19 20 18 15 15 16 14 13 11 11 11 11 11 10 9 0 0 10 9 9 9 9 9 10 11 11 11 12 13 12 13 12 12 12 12 11 10 9 9 0 0 9 10 10 10 10 17 17 18 -193 22 24 25 28 28 28 33 31 31 35 31 33 31 34 34 -177 -177 36 32 40 48 44 44 45 47 51 54 54 53 52 54 54 55 55 54 54 -193 58 59 62 67 66 461 463 -193 -193 74 -193 73 73 74 -193 67 67 -177 -193 -193 -177 -177 -177 -177 -177 -193 76 88 91 91 90 92 93 92 93 99 96 99 -209 -209 -193 105 107 108 107 115 -177 -193 -193 -193 119 119 118 126 117 122 134 132 132 135 140 137 137 137 139 18 137 137 141 138 139 142 140 -193 142 143 146 -193 144 -193 -193 -193 -209 151 151 -193 153 -209 151 0 0 0 0 0
    0 0 0 0 0 0 0 0 0 0 0 0 0 0 0 0 0 0 0 0 0 0 0 0 0 0 0 0 0 0 0 0 0 0 0 0 0 0 0 0 0 0 0 0 0 0 0 0 0 0 0 0 0 0 0 0 0 0 0 0 0 0 0 0 0 0 0 0 0 56 54 55 55 55 54 55 55 -193 53 58 -209 62 -177 -193 -193 -193 -193 -193 -193 52 46 43 44 47 43 41 41 -193 -193 39 38 38 36 36 37 37 36 37 34 36 35 34 34 33 33 33 29 31 29 29 28 26 26 25 21 22 23 22 22 22 22 22 -193 24 23 21 21 22 20 19 20 18 16 15 16 15 14 12 12 11 11 12 10 9 0 0 9 9 9 9 9 9 10 11 11 11 13 14 13 13 13 13 12 12 12 10 9 9 0 0 9 10 10 9 10 17 17 18 21 22 24 25 28 28 28 33 31 31 35 31 33 31 33 34 -177 -177 36 31 40 48 44 44 45 47 51 54 54 53 52 54 54 55 55 54 54 -209 58 59 62 -193 66 461 462 -193 -209 74 -193 73 73 74 -193 67 68 -177 -193 71 -177 -177 -177 -177 -177 80 76 88 90 91 -193 91 92 91 92 98 95 97 -193 -193 -193 105 106 108 107 114 -177 -193 -193 -193 117 118 115 124 117 122 134 133 133 135 139 136 136 137 139 18 136 136 140 138 139 141 140 -193 141 143 146 -193 144 -193 -193 -193 -209 151 151 -193 152 -209 151 0 0 0 0 0
    0 0 0 0 0 0 0 0 0 0 0 0 0 0 0 0 0 0 0 0 0 0 0 0 0 0 0 0 0 0 0 0 0 0 0 0 0 0 0 0 0 0 0 0 0 0 0 0 0 0 0 0 0 0 0 0 0 0 0 0 0 0 0 0 0 0 0 0 0 55 54 54 55 55 54 55 55 -193 53 57 -193 61 -177 700 699 699 703 -193 -193 -193 46 43 44 46 43 41 40 -193 -193 39 37 37 35 36 36 36 35 36 34 36 35 34 34 33 33 33 29 31 29 29 27 25 25 25 21 22 22 22 21 22 21 21 -193 24 22 21 21 21 19 19 20 18 15 15 16 15 13 13 13 11 12 12 10 8 0 0 9 0 9 9 9 9 10 12 12 12 14 14 13 14 14 13 12 12 11 10 9 9 0 0 0 10 10 9 10 17 17 18 21 22 24 24 27 28 27 33 31 31 35 31 33 31 33 34 31 36 36 31 40 47 44 44 45 47 50 54 54 53 52 54 54 55 55 54 53 -209 58 59 61 -193 67 -193 462 -193 -209 73 -177 73 73 74 -193 68 68 -177 -209 71 -177 -177 -177 -177 -177 80 76 87 89 90 -193 90 92 91 92 97 95 97 -193 -193 -193 104 106 108 107 113 -177 -193 -193 116 116 116 111 123 116 121 133 133 133 135 138 135 135 136 138 18 135 136 139 137 139 141 -193 254 141 143 145 -193 143 -193 -193 -193 -209 150 150 -193 152 -209 151 0 0 0 0 0
    0 0 0 0 0 0 0 0 0 0 0 0 0 0 0 0 0 0 0 0 0 0 0 0 0 0 0 0 0 0 0 0 0 0 0 0 0 0 0 0 0 0 0 0 0 0 0 0 0 0 0 0 0 0 0 0 0 0 0 0 0 0 0 0 0 0 0 0 0 55 54 54 55 55 54 55 55 -193 52 57 -209 61 -177 -177 700 700 703 701 -177 -193 46 43 44 46 43 41 40 -193 -193 39 37 37 35 36 36 36 35 36 33 35 35 34 34 33 33 34 29 31 29 28 27 25 25 25 21 22 22 22 21 22 21 21 -193 24 22 20 20 21 -193 20 20 18 16 15 17 16 14 13 13 12 13 13 10 9 0 0 9 0 9 9 9 9 10 12 12 12 13 14 13 14 14 14 12 12 11 10 9 9 0 0 0 10 10 9 10 17 17 18 21 22 24 24 27 28 27 33 31 31 35 31 33 32 33 34 31 36 36 31 40 48 44 44 45 47 50 54 54 53 52 54 54 54 54 53 53 -209 58 59 61 -177 67 -193 462 -193 -193 73 -177 73 73 74 -193 68 69 -177 -193 -193 -177 -177 -177 -177 -193 81 77 87 88 89 -193 89 92 91 93 98 95 98 -193 -209 -193 103 106 108 107 112 -177 -193 -193 114 115 115 108 121 116 121 133 134 134 135 138 134 134 135 -193 17 134 135 137 136 138 140 -193 253 141 142 145 -193 142 143 -209 -193 -193 149 150 -193 151 -209 151 0 0 0 0 0
    0 0 0 0 0 0 0 0 0 0 0 0 0 0 0 0 0 0 0 0 0 0 0 0 0 0 0 0 0 0 0 0 0 0 0 0 0 0 0 0 0 0 0 0 0 0 0 0 0 0 0 0 0 0 0 0 0 0 0 0 0 0 0 0 0 0 0 0 0 55 55 55 55 55 54 55 55 51 53 57 -209 -193 847 -177 700 700 703 701 -177 -193 46 43 44 46 43 41 40 40 -193 39 36 36 35 36 36 37 35 36 33 35 35 34 34 34 32 34 29 32 30 28 27 26 25 25 21 23 23 22 21 22 21 21 20 23 22 21 20 21 -193 20 21 19 16 15 17 16 14 14 13 12 13 13 10 9 9 9 9 0 0 9 9 9 11 12 12 13 13 14 13 14 14 13 12 12 12 10 10 9 0 0 9 9 9 9 10 16 17 18 21 22 25 25 28 29 28 34 32 31 35 31 33 32 32 34 31 36 36 32 40 48 44 44 45 48 50 53 54 52 52 54 54 54 54 53 53 -209 58 58 61 -177 -193 -193 461 -209 -193 73 -177 73 -193 74 -193 68 69 -177 -193 -193 -177 -177 -177 -177 78 81 77 87 88 89 -193 89 92 91 95 100 97 100 -193 -193 103 104 106 108 106 111 -177 -177 -193 112 113 113 106 121 118 122 133 135 135 135 137 133 133 134 136 -193 133 134 136 135 138 139 259 254 141 142 145 141 142 143 -209 -193 -193 148 149 -193 150 -209 151 0 0 0 0 0
    0 0 0 0 0 0 0 0 0 0 0 0 0 0 0 0 0 0 0 0 0 0 0 0 0 0 0 0 0 0 0 0 0 0 0 0 0 0 0 0 0 0 0 0 0 0 0 0 0 0 0 0 0 0 0 0 0 0 0 0 0 0 0 0 0 0 0 0 0 56 55 55 55 55 54 55 55 51 53 57 -193 -193 -193 -177 700 700 703 701 -177 -193 -193 44 45 46 43 41 40 40 38 39 36 36 35 36 36 37 34 36 33 35 35 34 34 34 32 34 30 32 31 29 28 26 26 26 22 23 23 22 21 22 21 21 20 23 22 20 20 21 18 20 21 19 17 15 16 16 13 14 14 12 13 12 11 10 10 10 10 9 9 9 10 10 11 12 11 13 13 13 13 14 14 13 12 12 12 10 10 9 9 0 0 9 9 0 10 16 16 18 21 22 26 26 28 29 28 34 32 31 35 31 33 32 32 34 31 37 37 33 41 49 45 45 46 48 49 53 54 52 52 54 54 54 54 53 53 -193 58 58 61 -177 -193 69 -177 -209 -193 -193 -177 73 -193 74 74 68 69 -193 -193 -193 -177 -177 -177 -193 78 81 77 86 87 88 -193 88 92 92 96 101 99 101 102 103 104 104 106 108 106 110 -177 -193 -193 111 112 112 106 118 118 122 133 136 136 136 137 132 132 133 135 -193 132 133 135 134 137 138 -177 254 141 143 146 142 142 144 -209 -193 -193 148 149 -193 150 -209 151 0 0 0 0 0
    0 0 0 0 0 0 0 0 0 0 0 0 0 0 0 0 0 0 0 0 0 0 0 0 0 0 0 0 0 0 0 0 0 0 0 0 0 0 0 0 0 0 0 0 0 0 0 0 0 0 0 0 0 0 0 0 0 0 0 0 0 0 0 0 0 0 0 0 0 56 55 55 56 55 55 55 55 51 53 57 -209 60 -193 -193 -193 -193 -193 701 -177 -193 -193 45 45 47 44 41 40 40 38 39 36 36 35 36 36 37 34 36 33 35 35 34 34 34 32 34 30 33 32 29 28 27 27 26 22 23 23 21 21 22 21 21 20 23 22 20 20 21 18 20 20 18 17 15 16 16 13 14 15 12 13 12 11 11 11 12 11 10 10 11 11 11 12 12 12 13 13 13 13 13 14 13 12 12 11 10 10 9 9 0 0 9 0 0 9 14 15 18 21 22 26 26 28 29 29 33 31 31 35 31 33 33 33 34 32 38 38 34 41 50 45 45 46 49 49 53 54 52 52 54 54 55 54 53 53 -193 58 -193 61 -177 -177 69 -177 -193 -193 72 -177 -193 -193 74 74 68 69 245 -193 -193 -177 -177 -177 -177 78 81 77 85 86 86 86 86 91 90 95 102 99 101 101 103 103 104 105 108 106 109 -177 -193 -193 111 112 111 105 116 117 121 132 137 137 137 137 132 132 133 135 -193 131 132 134 134 137 138 260 255 142 144 146 142 143 144 144 147 -193 148 149 -193 149 -209 151 0 0 0 0 0
    0 0 0 0 0 0 0 0 0 0 0 0 0 0 0 0 0 0 0 0 0 0 0 0 0 0 0 0 0 0 0 0 0 0 0 0 0 0 0 0 0 0 0 0 0 0 0 0 0 0 0 0 0 0 0 0 0 0 0 0 0 0 0 0 0 0 0 0 0 56 55 55 56 55 55 55 55 -193 55 57 -209 60 -209 -193 -193 -193 -193 -193 -177 54 49 45 46 47 44 41 41 40 38 39 36 36 35 37 36 37 35 36 33 35 35 34 34 34 32 34 30 34 34 30 29 27 27 26 22 23 23 21 21 22 21 20 19 22 21 20 20 20 18 19 20 18 17 15 16 16 14 14 16 13 14 13 12 13 12 12 11 11 11 11 11 11 12 12 12 14 12 13 13 13 14 13 12 12 11 10 10 9 9 0 0 0 9 0 9 13 15 18 22 23 27 27 28 30 29 33 31 30 35 31 33 33 33 34 32 38 38 35 41 49 45 45 46 48 49 52 53 52 52 54 55 55 54 53 54 -193 58 -193 60 -177 -177 69 -177 72 72 72 -177 -193 -193 74 75 69 70 245 -193 -193 -209 -177 -177 -177 79 81 77 84 85 85 82 84 88 88 91 101 97 101 101 102 103 103 104 107 105 108 -177 -193 -193 110 111 111 105 116 119 120 132 -193 136 136 136 131 131 132 135 132 131 132 134 133 137 -193 -177 256 -193 144 146 143 143 145 145 147 -193 148 149 -193 149 -209 -193 0 0 0 0 0
    0 0 0 0 0 0 0 0 0 0 0 0 0 0 0 0 0 0 0 0 0 0 0 0 0 0 0 0 0 0 0 0 0 0 0 0 0 0 0 0 0 0 0 0 0 0 0 0 0 0 0 0 0 0 0 0 0 0 0 0 0 0 0 0 0 0 0 0 0 56 56 56 56 56 55 55 55 -193 56 58 -209 60 -209 -193 -193 -193 -193 -193 -193 55 50 46 47 48 44 41 41 41 39 39 37 36 36 37 36 37 35 36 33 34 35 34 34 34 33 35 31 36 35 32 31 29 28 27 22 23 23 22 21 21 21 20 19 22 21 20 20 20 18 19 20 17 18 16 16 16 15 17 19 15 16 16 14 15 14 13 11 10 10 11 11 10 11 11 12 13 12 12 13 13 14 13 12 11 11 10 10 9 9 0 9 9 9 9 10 13 14 18 22 23 28 28 29 30 29 33 31 30 34 31 32 32 33 34 32 38 38 35 41 48 44 44 45 48 48 51 52 51 51 55 55 55 54 53 54 59 58 -193 60 -177 -177 68 -177 72 72 72 -177 74 74 74 75 70 -193 245 -193 -193 -193 -177 -177 -177 79 82 78 85 86 85 82 83 88 86 88 101 96 101 100 102 102 102 104 106 105 107 -177 -177 -177 109 110 110 102 117 121 121 132 136 136 136 136 131 131 132 134 131 130 131 133 133 137 137 -177 257 -193 145 147 144 144 146 146 147 -193 148 149 -193 149 -193 -193 0 0 0 0 0
    0 0 0 0 0 0 0 0 0 0 0 0 0 0 0 0 0 0 0 0 0 0 0 0 0 0 0 0 0 0 0 0 0 0 0 0 0 0 0 0 0 0 0 0 0 0 0 0 0 0 0 0 0 0 0 0 0 0 0 0 0 0 0 0 0 0 0 0 0 57 56 56 56 56 56 55 56 -193 56 58 -209 61 -209 -209 -193 -193 58 -193 -193 55 50 46 47 48 45 42 42 41 39 39 37 37 36 37 36 38 34 36 33 34 35 34 34 34 33 35 32 36 36 33 33 30 29 27 23 23 23 22 21 21 21 20 19 22 21 20 20 20 19 19 20 17 18 16 16 16 18 21 21 17 18 18 17 18 16 13 12 11 11 11 11 11 11 12 12 13 12 13 13 13 14 13 12 12 11 10 10 9 9 0 9 9 10 10 10 13 14 19 22 24 27 28 29 30 29 32 31 30 34 31 32 32 33 34 32 38 38 34 41 46 43 43 45 47 47 49 50 49 50 54 55 56 55 54 55 60 59 59 61 66 -193 68 -177 72 72 73 -177 75 75 75 76 71 -193 244 -193 -193 73 -177 -177 -177 80 83 80 87 88 87 85 87 90 89 93 101 97 101 100 102 102 102 103 106 105 106 -193 108 107 108 109 109 100 116 121 120 131 135 134 134 136 131 131 131 134 130 130 130 132 132 136 136 -193 -177 -193 146 147 146 144 147 146 147 -193 148 149 -193 -193 -209 -209 0 0 0 0 0
    0 0 0 0 0 0 0 0 0 0 0 0 0 0 0 0 0 0 0 0 0 0 0 0 0 0 0 0 0 0 0 0 0 0 0 0 0 0 0 0 0 0 0 0 0 0 0 0 0 0 0 0 0 0 0 0 0 0 0 0 0 0 0 0 0 0 0 0 0 58 56 56 56 56 56 55 56 53 56 58 -209 61 -209 -209 -193 -193 58 -193 -193 55 50 46 47 48 45 42 42 41 40 39 37 37 36 37 36 38 34 36 33 34 35 34 34 34 33 36 32 37 37 33 35 31 29 28 23 24 24 23 22 21 21 20 19 22 21 20 20 21 20 20 20 18 19 18 18 17 20 21 22 20 19 19 19 20 18 14 14 12 12 13 13 12 12 13 13 13 12 13 13 13 14 13 12 12 11 10 10 9 9 9 9 9 10 10 10 12 13 19 22 24 27 28 28 30 29 32 30 30 34 31 32 32 33 34 32 37 37 33 41 45 43 43 44 47 46 48 49 48 49 52 53 55 55 55 55 60 59 60 61 66 67 68 -193 72 72 73 -193 74 74 75 76 71 -193 243 -193 -193 75 -193 -193 -209 81 83 81 87 89 89 88 89 92 91 95 101 97 100 100 101 101 102 103 106 105 106 106 108 107 108 109 109 101 116 121 120 130 135 134 134 136 131 131 131 134 130 129 130 132 132 136 136 -193 -177 144 146 147 146 144 147 147 148 -193 148 150 -193 -193 -209 -209 0 0 0 0 0
    0 0 0 0 0 0 0 0 0 0 0 0 0 0 0 0 0 0 0 0 0 0 0 0 0 0 0 0 0 0 0 0 0 0 0 0 0 0 0 0 0 0 0 0 0 0 0 0 0 0 0 0 0 0 0 0 0 0 0 0 0 0 0 0 0 0 0 0 0 58 56 56 56 56 56 55 56 53 57 59 -209 61 -209 -193 59 59 59 -193 -193 55 51 46 47 48 45 42 42 42 41 39 38 38 36 38 37 38 35 36 33 34 35 34 34 35 34 36 33 37 37 34 35 31 30 28 24 24 24 23 22 21 21 21 19 21 21 21 21 21 21 21 22 20 22 22 21 20 23 23 23 21 20 20 20 21 19 16 15 14 14 15 14 13 13 13 13 13 12 12 13 12 13 12 12 12 11 11 11 10 9 9 9 9 10 10 11 11 12 20 22 24 27 28 29 30 28 32 30 29 34 32 32 33 33 34 32 37 37 32 40 43 43 43 44 47 46 47 48 48 49 51 53 55 54 55 56 62 60 60 61 66 67 68 -193 72 71 73 75 74 74 74 76 72 73 -193 75 74 75 77 77 77 81 83 83 88 90 90 90 91 93 92 96 100 97 100 100 101 101 102 103 106 105 106 107 108 107 109 110 110 103 116 122 121 130 135 134 134 136 131 131 131 134 130 129 129 132 132 136 136 -209 -177 145 147 148 147 145 148 148 148 -193 149 150 -193 -193 -209 154 0 0 0 0 0
    0 0 0 0 0 0 0 0 0 0 0 0 0 0 0 0 0 0 0 0 0 0 0 0 0 0 0 0 0 0 0 0 0 0 0 0 0 0 0 0 0 0 0 0 0 0 0 0 0 0 0 0 0 0 0 0 0 0 0 0 0 0 0 0 0 0 0 0 0 56 56 56 56 56 56 55 56 54 57 58 -209 61 -193 59 59 59 59 57 57 56 52 47 47 49 46 43 43 42 41 39 38 38 37 38 37 38 35 36 33 34 35 34 34 35 34 36 34 38 37 35 36 33 31 29 26 25 25 24 23 21 21 21 19 21 21 21 22 21 21 21 22 21 22 22 21 19 23 24 23 22 21 21 21 22 20 19 18 16 15 16 16 14 13 14 13 13 12 12 12 12 13 12 12 12 11 10 10 10 9 9 9 10 10 10 11 12 11 20 23 24 26 27 27 29 28 31 30 30 35 32 33 34 35 35 33 38 38 34 41 43 43 43 44 47 46 46 47 48 48 49 52 55 54 56 56 62 60 60 61 66 67 68 72 71 71 73 75 74 74 75 76 73 73 75 76 74 76 78 77 78 82 83 83 89 91 91 91 93 95 95 98 100 97 99 100 101 101 101 103 106 105 107 107 108 107 109 110 111 104 115 121 120 129 134 133 133 136 131 131 131 134 130 129 129 131 132 136 136 -193 -193 145 147 148 148 145 148 148 148 -193 149 151 -193 -193 154 155 0 0 0 0 0
    0 0 0 0 0 0 0 0 0 0 0 0 0 0 0 0 0 0 0 0 0 0 0 0 0 0 0 0 0 0 0 0 0 0 0 0 0 0 0 0 0 0 0 0 0 0 0 0 0 0 0 0 0 0 0 0 0 0 0 0 0 0 0 0 0 0 0 0 0 56 55 55 55 55 55 55 56 -193 57 58 71 61 64 59 59 59 59 58 58 56 53 47 47 49 46 43 43 43 41 40 38 38 37 38 37 38 35 36 33 35 34 34 34 35 34 36 35 38 37 36 37 34 32 29 27 25 25 24 23 21 21 21 19 21 21 20 22 22 22 22 22 21 23 23 22 20 23 23 23 23 22 22 23 24 22 20 20 18 16 16 16 15 13 14 14 13 13 13 13 12 13 12 12 12 11 10 10 10 9 9 10 10 11 11 12 14 12 20 22 23 24 25 26 27 27 30 29 29 35 33 33 34 35 36 34 39 39 36 41 43 44 43 44 47 46 46 46 47 47 46 50 54 52 55 56 62 60 60 61 65 66 67 71 71 71 73 74 74 74 75 76 73 74 76 76 75 77 78 78 79 82 84 84 89 92 92 92 95 96 96 98 100 98 99 100 102 102 102 103 106 105 107 108 109 108 110 111 111 105 114 120 120 130 135 133 133 136 132 132 132 134 130 129 129 132 133 137 137 -193 -193 146 147 148 148 146 148 148 148 -193 149 151 -193 151 154 156 0 0 0 0 0
    0 0 0 0 0 0 0 0 0 0 0 0 0 0 0 0 0 0 0 0 0 0 0 0 0 0 0 0 0 0 0 0 0 0 0 0 0 0 0 0 0 0 0 0 0 0 0 0 0 0 0 0 0 0 0 0 0 0 0 0 0 0 0 0 0 0 0 0 0 56 55 55 55 55 55 55 55 -193 57 58 70 61 64 59 59 58 59 57 57 56 53 47 47 49 46 43 43 43 41 40 38 39 37 38 37 38 35 36 33 35 34 34 34 35 34 36 35 38 37 37 37 34 32 29 27 25 25 24 23 20 21 21 19 21 21 21 22 22 23 22 23 22 23 23 23 20 23 23 23 24 23 24 24 24 22 21 21 19 16 17 17 15 13 15 14 13 13 13 12 11 12 12 12 12 10 10 10 10 9 10 10 11 11 11 12 14 12 20 22 23 24 25 25 27 26 29 29 29 36 34 34 35 36 36 35 39 39 35 40 40 43 43 44 47 46 46 45 46 47 45 49 53 51 54 56 62 60 60 61 65 65 66 70 70 70 72 73 74 74 74 76 74 75 76 77 75 77 80 78 80 83 84 86 90 93 94 94 96 97 97 99 101 98 100 101 103 103 103 104 108 106 108 109 109 108 110 112 112 105 115 120 120 130 134 132 132 135 133 133 133 134 130 129 130 132 -193 137 137 -193 -193 146 147 148 148 146 148 149 148 -193 149 151 -193 152 154 156 0 0 0 0 0
    0 0 0 0 0 0 0 0 0 0 0 0 0 0 0 0 0 0 0 0 0 0 0 0 0 0 0 0 0 0 0 0 0 0 0 0 0 0 0 0 0 0 0 0 0 0 0 0 0 0 0 0 0 0 0 0 0 0 0 0 0 0 0 0 0 0 0 0 0 56 55 55 55 55 55 55 56 -193 57 59 70 61 63 58 58 58 58 57 57 55 52 46 47 48 45 43 43 43 42 40 38 39 37 37 36 38 35 35 32 35 34 33 33 34 35 35 35 38 37 37 37 35 33 29 28 26 26 25 23 21 22 21 19 22 22 22 23 23 24 24 24 24 24 24 24 21 24 23 23 28 25 25 25 25 23 22 22 20 16 17 17 15 14 15 14 13 14 14 12 11 12 11 11 11 10 9 9 11 9 10 11 12 13 12 12 16 13 21 22 23 24 25 25 27 26 29 29 30 36 34 35 35 36 36 35 37 37 34 38 39 42 42 44 46 46 46 45 45 47 44 47 52 51 55 56 62 60 61 62 65 66 66 70 70 70 72 73 74 74 74 76 74 75 76 76 75 77 79 78 80 84 85 89 92 96 95 95 97 98 97 99 101 99 100 101 104 105 105 105 109 107 108 110 109 108 110 111 112 106 115 120 120 128 134 131 131 135 133 133 134 135 131 130 131 133 -193 137 137 -193 -193 145 146 147 147 145 148 149 148 -193 150 152 152 153 155 156 0 0 0 0 0
    0 0 0 0 0 0 0 0 0 0 0 0 0 0 0 0 0 0 0 0 0 0 0 0 0 0 0 0 0 0 0 0 0 0 0 0 0 0 0 0 0 0 0 0 0 0 0 0 0 0 0 0 0 0 0 0 0 0 0 0 0 0 0 0 0 0 0 0 0 56 54 54 55 55 55 55 56 55 57 59 70 61 63 58 58 58 58 56 56 55 52 46 47 48 45 43 43 43 42 40 38 39 36 37 36 37 35 35 33 35 33 34 33 34 35 35 35 37 37 37 37 36 34 30 29 26 26 25 24 22 22 22 19 22 22 22 24 24 25 24 24 24 24 24 24 21 24 23 23 28 25 25 25 25 23 22 22 21 17 18 18 16 14 16 15 14 15 14 12 11 12 11 11 11 9 9 9 10 9 9 11 12 12 11 12 16 13 20 21 22 24 25 25 27 27 29 29 30 37 35 37 36 37 37 36 38 37 34 37 38 42 42 44 46 46 46 46 46 46 44 46 51 49 55 57 62 60 63 63 66 66 67 70 70 70 73 73 73 74 74 76 75 76 77 76 75 77 78 77 80 85 86 90 92 97 97 97 98 98 98 99 101 99 100 101 105 106 106 106 110 108 109 110 109 108 109 111 111 105 114 119 120 126 133 129 129 135 134 134 135 135 132 131 131 133 136 137 137 -193 140 145 146 147 147 145 148 148 148 -193 150 152 -193 153 155 157 0 0 0 0 0
    0 0 0 0 0 0 0 0 0 0 0 0 0 0 0 0 0 0 0 0 0 0 0 0 0 0 0 0 0 0 0 0 0 0 0 0 0 0 0 0 0 0 0 0 0 0 0 0 0 0 0 0 0 0 0 0 0 0 0 0 0 0 0 0 0 0 0 0 0 55 54 54 54 54 54 55 56 55 58 59 70 61 63 58 57 57 57 56 56 55 52 46 46 48 45 43 43 43 42 40 39 39 36 36 36 37 36 35 33 35 33 34 34 34 35 35 35 36 36 37 37 36 34 31 30 27 26 26 25 23 23 22 20 23 23 23 25 25 25 25 25 25 24 25 24 22 24 22 22 27 25 25 25 25 23 22 22 21 19 19 20 18 16 18 16 15 16 15 12 11 11 11 10 11 9 9 9 10 9 0 10 12 12 10 10 17 13 20 21 22 23 24 24 26 26 28 28 31 37 36 38 37 37 38 37 38 38 34 37 37 42 43 44 47 46 46 46 46 47 44 46 49 47 54 57 61 60 63 65 67 67 67 69 69 70 72 72 72 73 74 75 74 74 75 74 74 77 79 77 82 85 86 90 91 96 96 97 98 98 98 99 100 99 100 102 106 107 107 107 111 109 109 111 110 108 108 111 110 105 111 118 119 123 132 127 126 134 135 135 135 -193 132 131 133 134 137 137 137 141 140 144 145 147 147 145 147 148 148 -193 -193 152 153 154 155 157 0 0 0 0 0
    0 0 0 0 0 0 0 0 0 0 0 0 0 0 0 0 0 0 0 0 0 0 0 0 0 0 0 0 0 0 0 0 0 0 0 0 0 0 0 0 0 0 0 0 0 0 0 0 0 0 0 0 0 0 0 0 0 0 0 0 0 0 0 0 0 0 0 0 0 55 54 53 53 54 54 54 55 55 58 60 71 61 64 58 57 57 57 56 56 55 52 45 46 48 45 43 43 43 42 41 39 39 36 36 36 37 36 36 33 36 34 35 34 35 35 35 35 36 36 36 36 36 35 32 32 28 27 26 25 23 23 22 20 23 22 23 25 24 25 25 25 25 24 25 24 22 24 22 22 27 25 26 26 26 24 23 23 23 20 20 21 19 17 18 17 16 17 14 12 10 11 10 10 11 9 0 9 10 9 0 9 12 12 9 10 17 14 20 21 22 24 25 25 26 26 28 28 31 38 37 39 38 38 39 38 39 39 35 37 37 43 44 44 47 47 47 47 47 47 44 46 47 44 53 57 60 60 64 66 66 66 66 68 68 69 71 70 70 70 72 73 73 70 71 67 72 75 76 75 77 81 86 89 90 96 96 97 99 99 99 100 101 101 101 105 107 109 108 109 112 109 110 111 110 109 108 111 110 105 110 116 119 122 132 127 126 134 136 136 136 -193 133 132 134 135 139 137 138 141 140 144 145 146 146 145 147 148 -193 -193 -193 152 -193 154 155 157 0 0 0 0 0
    0 0 0 0 0 0 0 0 0 0 0 0 0 0 0 0 0 0 0 0 0 0 0 0 0 0 0 0 0 0 0 0 0 0 0 0 0 0 0 0 0 0 0 0 0 0 0 0 0 0 0 0 0 0 0 0 0 0 0 0 0 0 0 0 0 0 0 0 0 55 54 53 53 53 54 54 55 55 59 62 71 61 65 58 57 57 57 56 55 54 52 45 46 48 45 43 43 43 43 41 40 40 37 36 37 37 37 36 34 36 34 35 34 34 35 34 35 36 36 36 36 37 36 32 32 28 27 26 25 23 23 22 20 23 23 23 25 25 25 26 26 26 25 25 25 23 25 22 22 28 27 27 27 27 25 24 24 24 21 21 21 20 18 19 17 17 16 13 11 9 10 9 9 10 9 0 9 10 9 0 9 13 13 9 10 18 15 19 21 23 24 25 25 27 27 28 29 32 38 37 40 38 39 39 39 40 40 36 37 37 43 44 45 47 47 46 46 47 48 44 45 45 43 53 61 60 60 64 66 66 66 65 67 66 69 70 70 69 69 71 72 69 64 66 61 56 -209 -193 70 74 78 85 89 90 96 96 98 99 100 99 100 102 102 102 106 108 109 109 110 114 110 111 112 110 109 109 111 110 105 108 115 118 121 132 126 125 134 137 137 137 137 134 134 136 136 140 138 139 141 140 144 145 145 146 145 148 149 -193 -193 -193 152 -193 154 155 157 0 0 0 0 0
    0 0 0 0 0 0 0 0 0 0 0 0 0 0 0 0 0 0 0 0 0 0 0 0 0 0 0 0 0 0 0 0 0 0 0 0 0 0 0 0 0 0 0 0 0 0 0 0 0 0 0 0 0 0 0 0 0 0 0 0 0 0 0 0 0 0 0 0 0 55 54 53 53 53 53 54 54 56 59 63 71 61 65 57 57 57 57 56 55 54 52 45 46 48 45 43 43 43 43 41 40 40 37 37 37 37 37 36 34 36 34 35 34 34 35 34 35 36 36 37 37 37 37 34 34 29 27 26 25 24 23 22 21 24 23 24 24 25 26 26 26 26 25 26 25 24 24 21 22 29 28 28 28 28 26 26 26 26 22 22 23 21 20 21 19 18 16 14 10 9 10 9 9 10 9 0 9 11 9 0 9 14 15 9 0 16 15 19 21 23 25 25 25 27 27 28 29 32 38 38 41 39 39 39 40 40 40 37 37 37 43 45 45 47 47 46 46 46 47 44 44 44 42 52 59 59 59 62 64 64 64 64 65 65 68 70 70 69 69 71 73 71 64 66 61 55 56 -193 62 70 74 80 77 88 93 95 96 98 100 99 101 102 103 103 107 109 111 110 111 115 111 111 112 111 110 109 112 110 105 107 112 116 119 128 123 123 133 139 138 138 138 135 135 138 138 142 138 139 141 141 144 144 145 146 145 148 -193 -193 -193 -193 -193 -193 154 -193 157 0 0 0 0 0
    0 0 0 0 0 0 0 0 0 0 0 0 0 0 0 0 0 0 0 0 0 0 0 0 0 0 0 0 0 0 0 0 0 0 0 0 0 0 0 0 0 0 0 0 0 0 0 0 0 0 0 0 0 0 0 0 0 0 0 0 0 0 0 0 0 0 0 0 0 55 54 53 53 53 53 54 54 56 59 64 71 61 64 57 57 57 57 55 55 54 52 46 46 48 45 42 42 42 42 41 40 39 37 36 37 37 37 36 34 36 34 35 34 34 36 34 35 36 36 36 37 38 37 34 34 29 27 26 25 25 24 23 21 25 24 24 25 26 27 27 26 27 26 26 26 24 24 21 21 27 27 27 27 28 27 27 27 27 24 24 25 24 22 23 22 19 20 16 10 9 9 0 9 9 0 0 9 11 9 0 9 13 15 9 0 15 15 19 22 24 25 26 26 28 28 28 29 33 38 38 41 38 39 39 39 39 40 36 37 36 42 44 44 46 47 46 46 45 47 44 43 44 42 52 59 59 60 63 65 64 64 64 65 64 67 69 69 68 69 70 72 70 68 69 65 -193 63 65 63 68 74 76 73 79 90 92 93 95 98 97 100 103 103 104 108 110 112 111 113 116 112 112 113 111 111 109 112 110 105 107 112 115 118 127 123 123 133 139 138 138 138 136 135 139 139 142 138 139 142 141 144 144 144 146 145 148 -193 -193 -193 -193 -209 -193 -193 -193 158 0 0 0 0 0
    0 0 0 0 0 0 0 0 0 0 0 0 0 0 0 0 0 0 0 0 0 0 0 0 0 0 0 0 0 0 0 0 0 0 0 0 0 0 0 0 0 0 0 0 0 0 0 0 0 0 0 0 0 0 0 0 0 0 0 0 0 0 0 0 0 0 0 0 0 55 54 53 54 54 54 54 54 56 59 64 70 61 63 57 57 57 57 55 55 54 52 46 47 47 44 42 42 42 42 40 40 39 37 36 37 36 37 37 35 36 35 35 34 35 36 34 35 36 36 36 36 37 37 35 35 30 28 27 26 26 25 24 22 25 24 25 25 27 28 28 28 28 27 28 27 25 25 21 22 26 26 26 26 27 26 26 27 28 26 26 27 26 25 26 25 23 23 18 0 0 0 0 0 0 0 0 0 10 0 0 0 9 14 0 0 14 16 20 22 25 27 27 27 29 29 29 30 34 38 38 41 38 38 39 39 39 39 36 37 35 41 43 43 46 46 46 48 46 48 46 45 46 44 54 61 59 60 64 66 64 64 64 65 64 68 70 69 67 68 70 72 71 71 71 68 -209 -193 -193 -193 69 74 73 71 74 83 89 91 92 97 95 99 102 104 104 109 111 112 111 113 116 113 113 113 111 111 109 111 109 105 106 108 110 117 125 123 123 131 138 137 137 137 136 135 139 139 142 138 140 142 141 143 144 144 146 146 148 -193 -193 -193 -193 -209 -193 -193 -193 158 0 0 0 0 0
    0 0 0 0 0 0 0 0 0 0 0 0 0 0 0 0 0 0 0 0 0 0 0 0 0 0 0 0 0 0 0 0 0 0 0 0 0 0 0 0 0 0 0 0 0 0 0 0 0 0 0 0 0 0 0 0 0 0 0 0 0 0 0 0 0 0 0 0 0 54 54 53 54 54 53 54 54 56 58 63 70 60 62 57 57 57 57 56 55 54 52 47 47 47 44 42 42 42 42 40 40 38 37 37 37 37 37 37 36 37 36 36 35 35 36 35 35 36 36 36 36 38 37 36 36 31 28 28 27 27 26 25 24 26 26 27 26 28 31 29 29 29 29 29 28 26 26 23 22 25 26 26 27 30 32 32 30 35 34 35 32 31 29 28 26 27 25 22 0 0 0 0 0 0 0 0 -225 -225 -225 -225 0 0 0 0 0 14 20 21 23 25 28 28 28 30 30 30 31 34 37 38 40 38 38 39 39 39 40 37 38 36 42 44 44 47 48 47 49 47 49 48 45 46 45 55 66 60 60 64 66 65 65 65 66 63 68 71 70 67 70 71 73 71 71 72 69 68 73 73 -193 70 74 74 72 75 87 90 91 92 95 93 97 100 102 102 107 109 111 110 112 116 113 113 114 112 112 110 112 110 105 107 107 108 116 123 122 123 131 138 136 136 136 135 135 139 139 142 138 139 142 141 143 144 143 146 146 148 -193 -193 150 -193 -209 -193 -193 -193 158 0 0 0 0 0
    0 0 0 0 0 0 0 0 0 0 0 0 0 0 0 0 0 0 0 0 0 0 0 0 0 0 0 0 0 0 0 0 0 0 0 0 0 0 0 0 0 0 0 0 0 0 0 0 0 0 0 0 0 0 0 0 0 0 0 0 0 0 0 0 0 0 0 0 0 54 54 53 53 53 53 53 54 54 57 62 69 60 62 57 57 57 57 56 55 54 52 47 48 48 45 43 42 42 42 40 41 39 38 38 38 38 38 38 37 37 37 37 36 36 36 36 36 37 36 37 36 37 37 37 37 33 30 30 29 30 28 27 25 27 27 28 28 32 34 32 32 32 32 33 31 28 26 24 22 22 24 25 28 34 38 38 36 41 41 39 36 33 31 30 28 28 26 -225 -225 -225 -225 -225 -225 -225 -225 -225 -225 -225 -225 -225 -225 -225 -225 -225 -225 -225 18 17 22 26 31 29 28 32 31 32 34 35 37 38 40 38 38 40 40 40 41 39 39 38 42 46 44 48 49 48 51 49 50 50 46 46 45 55 67 61 60 63 65 64 64 64 65 62 66 70 69 66 69 71 73 72 73 73 72 73 75 75 75 74 76 75 73 76 88 90 91 91 95 93 97 100 101 101 106 107 109 108 111 116 113 114 114 113 113 111 112 111 107 108 108 109 116 122 122 123 131 137 136 136 135 135 134 138 138 141 138 139 141 142 143 144 143 147 146 149 150 149 150 -193 153 155 155 157 159 0 0 0 0 0
    0 0 0 0 0 0 0 0 0 0 0 0 0 0 0 0 0 0 0 0 0 0 0 0 0 0 0 0 0 0 0 0 0 0 0 0 0 0 0 0 0 0 0 0 0 0 0 0 0 0 0 0 0 0 0 0 0 0 0 0 0 0 0 0 0 0 0 0 0 54 54 53 53 53 52 52 53 53 56 61 68 60 61 57 57 57 57 56 55 54 52 47 48 48 45 43 43 43 43 41 41 39 39 38 39 38 38 39 37 38 38 37 37 37 37 36 36 37 37 37 37 37 37 37 37 35 33 33 33 34 32 30 27 29 29 31 33 35 37 35 35 35 35 35 33 30 27 25 22 24 26 27 31 36 38 38 36 41 41 39 36 34 33 31 28 -225 -225 -225 -225 -225 -225 -225 -225 -225 -225 -225 -225 -225 -225 -225 -225 -225 -225 -225 -225 -225 -225 -225 22 27 30 29 28 32 31 32 34 35 37 38 40 38 39 40 40 40 42 40 40 39 43 46 44 47 48 47 49 48 50 49 46 46 45 54 65 61 61 62 63 63 63 63 64 61 63 67 68 65 67 71 72 71 73 73 73 74 76 76 77 74 78 75 72 79 86 89 91 91 94 93 97 100 101 101 105 106 108 107 110 116 113 115 115 113 114 113 113 113 108 109 108 109 115 120 121 123 131 136 136 135 135 135 134 138 138 140 137 139 140 142 143 144 141 147 146 150 151 150 150 152 153 155 155 157 159 0 0 0 0 0
    0 0 0 0 0 0 0 0 0 0 0 0 0 0 0 0 0 0 0 0 0 0 0 0 0 0 0 0 0 0 0 0 0 0 0 0 0 0 0 0 0 0 0 0 0 0 0 0 0 0 0 0 0 0 0 0 0 0 0 0 0 0 0 0 0 0 0 0 0 54 53 53 53 52 52 52 52 52 55 60 68 60 61 57 57 57 57 56 55 54 52 48 49 48 45 43 42 43 43 41 41 39 39 39 39 38 37 38 37 37 38 37 37 37 37 37 37 38 37 37 37 37 37 37 37 35 33 33 34 35 33 32 29 31 32 34 37 38 39 38 38 38 38 38 38 39 32 31 -193 26 31 32 36 38 39 39 37 41 41 39 38 37 36 35 -225 -225 -225 -225 -225 -225 -225 -225 -225 -225 -225 -225 -225 -225 -225 -225 -225 -225 -225 -225 -225 -225 -225 -225 -225 -225 35 30 29 34 33 34 36 36 38 38 40 38 39 41 41 41 42 41 41 40 44 47 44 47 48 47 48 47 50 49 48 48 49 54 60 61 61 62 62 63 63 63 64 62 63 65 70 68 71 73 74 72 74 75 75 74 75 75 75 73 75 72 70 74 76 85 89 89 93 92 97 100 101 102 104 105 106 106 109 116 113 115 116 115 115 115 114 114 109 110 108 109 114 118 121 123 130 136 136 135 134 134 133 138 138 139 137 138 139 141 142 144 141 146 146 151 152 152 152 153 154 155 156 158 159 0 0 0 0 0
    0 0 0 0 0 0 0 0 0 0 0 0 0 0 0 0 0 0 0 0 0 0 0 0 0 0 0 0 0 0 0 0 0 0 0 0 0 0 0 0 0 0 0 0 0 0 0 0 0 0 0 0 0 0 0 0 0 0 0 0 0 0 0 0 0 0 0 0 0 54 54 53 53 53 52 52 53 52 55 60 66 59 60 57 57 57 57 56 55 54 52 48 49 47 44 43 42 43 42 40 40 38 39 39 39 38 36 36 36 37 38 37 37 37 37 37 38 38 38 37 37 37 37 37 37 36 32 34 35 35 34 35 34 34 36 37 39 40 41 41 41 41 41 41 42 43 -193 42 35 30 37 38 39 39 39 40 38 41 41 40 39 39 39 -225 -225 -225 -225 -225 -225 -225 -225 -225 -225 -225 -225 -225 -225 -225 -225 -225 -225 -225 -225 -225 -225 -225 -225 -225 -225 -225 -225 32 31 36 35 36 37 37 38 39 40 39 39 41 41 41 42 41 42 41 44 46 44 47 48 48 48 47 50 50 50 52 53 55 59 62 62 62 62 63 63 64 65 64 64 67 71 71 73 74 75 74 76 76 77 76 76 76 76 73 75 73 70 73 74 77 80 83 87 88 93 94 95 96 99 100 101 102 107 116 114 117 117 116 116 116 114 114 110 111 109 110 114 117 120 123 130 136 135 134 133 133 132 136 136 137 133 135 137 140 141 143 139 145 146 151 153 153 153 154 155 156 157 159 160 0 0 0 0 0
    0 0 0 0 0 0 0 0 0 0 0 0 0 0 0 0 0 0 0 0 0 0 0 0 0 0 0 0 0 0 0 0 0 0 0 0 0 0 0 0 0 0 0 0 0 0 0 0 0 0 0 0 0 0 0 0 0 0 0 0 0 0 0 0 0 0 0 0 0 55 54 54 54 54 53 53 54 53 55 60 64 59 60 57 57 57 57 56 55 54 52 48 50 48 45 43 43 43 42 40 40 38 39 39 39 38 37 36 37 38 38 38 38 38 38 38 38 39 38 37 37 37 36 37 38 37 34 37 38 38 38 39 38 38 39 40 42 43 44 42 43 43 43 43 45 46 -193 47 -209 39 41 42 40 40 40 41 39 41 42 42 41 -225 -225 -225 -225 -225 -225 -225 -225 -225 -225 -225 -225 -225 -225 -225 -225 -225 -225 -225 -225 -225 -225 -225 -225 -225 -225 -225 -225 -225 -225 -225 35 38 37 37 39 37 39 39 40 39 39 42 41 41 42 42 43 42 44 46 44 46 48 48 48 47 50 50 52 54 56 57 59 62 62 62 61 63 62 64 65 67 68 73 74 74 75 75 76 74 76 75 76 76 77 76 77 74 77 74 72 74 74 77 80 79 80 84 89 90 92 92 94 93 93 94 104 115 114 118 117 116 117 116 114 114 111 111 109 110 114 116 119 123 130 136 135 134 133 132 131 133 134 133 129 131 132 136 138 140 138 143 145 151 153 154 154 155 155 156 157 159 160 0 0 0 0 0
    0 0 0 0 0 0 0 0 0 0 0 0 0 0 0 0 0 0 0 0 0 0 0 0 0 0 0 0 0 0 0 0 0 0 0 0 0 0 0 0 0 0 0 0 0 0 0 0 0 0 0 0 0 0 0 0 0 0 0 0 0 0 0 0 0 0 0 0 0 56 56 56 56 56 55 56 57 54 55 58 61 59 60 57 57 57 57 56 56 54 52 49 51 48 45 44 43 43 43 40 39 38 39 39 40 39 38 38 39 40 40 40 40 41 40 39 39 40 39 38 38 38 37 37 39 39 38 40 41 43 43 43 42 41 43 43 45 45 44 43 43 43 43 43 44 46 -193 47 -209 -209 41 44 41 41 41 41 39 42 43 43 -225 -225 -225 -225 -225 -225 -225 -225 -225 -225 -225 -225 -225 -225 -225 -225 -225 -225 -225 -225 -225 -225 -225 -225 -225 -225 -225 -225 -225 -225 -225 -225 -225 39 38 38 39 37 38 39 40 39 39 42 41 41 42 42 42 41 43 44 43 46 48 48 48 47 50 51 53 55 57 58 59 62 62 62 61 63 62 65 67 69 72 73 75 75 76 75 75 74 75 74 75 75 76 75 76 74 78 76 74 78 79 82 85 84 82 85 89 90 93 94 98 98 97 98 103 111 113 117 116 116 117 115 114 113 111 111 109 110 113 115 118 123 130 135 134 133 132 131 130 131 131 129 126 126 124 123 130 133 131 139 143 151 153 155 155 155 156 157 157 159 160 0 0 0 0 0
    0 0 0 0 0 0 0 0 0 0 0 0 0 0 0 0 0 0 0 0 0 0 0 0 0 0 0 0 0 0 0 0 0 0 0 0 0 0 0 0 0 0 0 0 0 0 0 0 0 0 0 0 0 0 0 0 0 0 0 0 0 0 0 0 0 0 0 0 0 57 57 58 58 58 57 57 58 56 57 58 60 59 59 58 57 57 57 57 56 54 52 49 51 49 47 46 45 45 44 40 40 39 39 40 40 39 39 39 40 42 42 41 42 42 42 41 41 43 41 41 40 40 39 40 43 43 43 49 48 50 50 48 48 44 47 47 46 47 45 43 43 43 44 45 45 47 44 48 48 44 44 47 42 41 40 40 37 41 -225 -225 -225 -225 -225 -225 -225 -225 -225 -225 -225 -225 -225 -225 -225 -225 -225 -225 -225 -225 -225 -225 -225 -225 -225 -225 -225 -225 -225 -225 -225 -225 -225 -225 -225 39 37 37 38 37 37 38 39 39 39 42 41 41 43 43 44 42 44 45 43 46 48 47 47 46 50 51 54 55 57 58 60 62 62 62 62 63 63 64 67 68 71 73 74 74 74 74 75 74 76 74 75 75 77 77 77 76 79 77 76 80 82 84 86 86 84 86 91 93 97 99 101 101 98 98 103 108 112 118 116 116 117 116 114 114 112 112 109 110 113 114 118 123 128 134 134 133 132 130 129 130 130 128 126 126 124 124 126 124 125 122 138 148 153 156 155 156 156 157 158 159 160 0 0 0 0 0
    0 0 0 0 0 0 0 0 0 0 0 0 0 0 0 0 0 0 0 0 0 0 0 0 0 0 0 0 0 0 0 0 0 0 0 0 0 0 0 0 0 0 0 0 0 0 0 0 0 0 0 0 0 0 0 0 0 0 0 0 0 0 0 0 0 0 0 0 0 58 58 58 58 58 58 58 58 57 57 58 60 59 59 58 58 58 57 57 56 55 53 51 53 51 50 49 49 48 47 44 42 41 41 41 41 41 40 41 41 44 45 43 44 45 45 45 47 48 46 47 49 48 47 47 51 49 51 53 50 51 51 50 49 47 48 47 46 48 47 46 46 45 46 45 45 47 -225 -225 -225 -209 -193 46 41 42 41 40 -225 -225 -225 -225 -225 -225 -225 -225 -225 -225 -225 -225 -225 -225 -225 -225 -225 -225 -225 -225 -225 -225 -225 -225 -225 -225 -225 -225 -225 -225 -225 -225 -225 -225 -225 -225 -225 -225 37 36 38 37 37 38 39 39 39 42 42 41 44 44 45 43 45 45 44 46 48 47 47 46 49 51 54 56 57 58 60 62 62 63 63 64 63 64 66 67 69 72 73 73 73 73 75 74 75 74 75 76 78 78 79 78 82 79 78 81 83 84 86 85 83 86 91 95 98 101 102 103 101 101 104 106 112 118 116 116 118 117 115 114 114 113 111 112 114 113 117 122 128 133 135 134 132 130 129 129 130 128 127 126 124 123 124 121 122 119 130 -193 -209 155 155 156 156 157 158 160 160 0 0 0 0 0
    0 0 0 0 0 0 0 0 0 0 0 0 0 0 0 0 0 0 0 0 0 0 0 0 0 0 0 0 0 0 0 0 0 0 0 0 0 0 0 0 0 0 0 0 0 0 0 0 0 0 0 0 0 0 0 0 0 0 0 0 0 0 0 0 0 0 0 0 0 58 59 58 58 59 58 58 58 58 58 58 60 59 59 58 58 57 57 57 57 0 -256 -1 3061 53 52 51 51 51 49 49 45 45 46 50 49 48 43 45 43 50 49 46 46 48 49 51 51 51 49 52 53 53 54 52 54 52 54 54 52 52 52 51 51 47 48 47 46 48 46 46 46 45 47 -225 -225 -225 -225 -225 -225 -225 -225 -225 -225 -225 -225 -225 -225 -225 -225 -225 -225 -225 -225 -225 -225 -225 -225 -225 -225 -225 -225 -225 -225 -225 -225 -225 -225 -225 -225 -225 -225 -225 -225 -225 -225 -225 -225 -225 -225 -225 -225 -225 -225 -225 -225 -225 39 39 39 40 40 41 41 43 43 42 44 44 45 43 44 44 43 45 46 46 46 46 49 51 53 55 57 58 60 62 63 63 62 63 63 64 66 67 69 71 72 73 74 74 75 75 76 75 77 78 79 81 81 79 82 80 78 79 78 78 82 82 80 83 90 93 97 100 102 103 103 102 104 107 112 117 115 116 118 116 115 114 114 113 112 113 114 113 116 122 128 133 136 134 132 130 129 129 129 127 126 126 124 123 123 119 122 118 130 103 -209 155 155 155 156 156 157 158 159 0 0 0 0 0
    0 0 0 0 0 0 0 0 0 0 0 0 0 0 0 0 0 0 0 0 0 0 0 0 0 0 0 0 0 0 0 0 0 0 0 0 0 0 0 0 0 0 0 0 0 0 0 0 0 0 0 0 0 0 0 0 0 0 0 0 0 0 0 0 0 0 0 0 0 58 59 58 59 59 58 58 58 58 58 58 60 59 58 58 57 57 57 57 57 55 54 53 54 53 52 51 50 50 47 49 47 47 47 53 53 54 50 55 52 55 53 51 49 51 51 54 53 52 51 53 55 55 57 57 55 53 54 54 52 52 52 50 50 47 48 47 46 45 45 44 44 -225 -225 -225 -225 -225 -225 -225 -225 -225 -225 -225 -225 -225 -225 -225 -225 -225 -225 -225 -225 -225 -225 -225 -225 -225 -225 -225 -225 -225 -225 -225 -225 -225 -225 -225 -225 -225 -225 -225 -225 -225 -225 -225 -225 -225 -225 -225 -225 -225 -225 -225 -225 -225 -225 -225 -225 38 39 40 40 40 40 42 41 40 41 41 42 41 42 42 42 44 45 45 46 45 48 50 53 56 57 59 60 62 63 63 62 63 62 64 66 68 69 71 72 74 74 74 76 76 77 77 78 80 81 83 83 82 83 82 79 79 77 77 80 78 78 80 86 -209 -193 -209 100 102 102 103 105 107 112 115 114 115 117 116 115 114 114 113 111 112 112 110 114 121 128 135 137 136 134 130 130 130 130 128 127 126 125 123 124 -193 -193 118 -193 -193 -209 155 155 155 156 156 157 158 159 0 0 0 0 0
    0 0 0 0 0 0 0 0 0 0 0 0 0 0 0 0 0 0 0 0 0 0 0 0 0 0 0 0 0 0 0 0 0 0 0 0 0 0 0 0 0 0 0 0 0 0 0 0 0 0 0 0 0 0 0 0 0 0 0 0 0 0 0 0 0 0 0 0 0 58 59 58 58 59 58 58 58 58 58 58 59 58 58 58 57 57 57 57 57 56 54 54 54 54 53 52 51 50 48 50 48 49 48 52 53 54 53 57 56 58 55 55 53 53 53 55 54 53 52 54 55 56 57 57 56 54 54 54 53 53 52 51 51 47 49 47 46 46 45 -225 -225 -225 -225 -225 -225 -225 -225 -225 -225 -225 -225 -225 -225 -225 -225 -225 -225 -225 -225 -225 -225 -225 -225 -225 -225 -225 -225 -225 -225 -225 -225 -225 -225 -225 -225 -225 -225 -225 -225 -225 -225 -225 -225 -225 -225 -225 -225 -225 -225 -225 -225 -225 -225 -225 -225 -225 -225 -225 -225 40 38 39 39 39 39 39 39 39 40 40 41 41 42 43 46 45 46 46 48 51 53 56 57 58 60 62 62 62 62 62 61 63 66 66 69 71 72 74 74 75 77 77 77 78 79 81 81 84 85 84 84 84 82 82 81 82 85 84 82 84 89 -209 -193 -193 -209 102 102 104 106 108 112 114 113 114 117 115 115 114 114 113 111 112 112 109 115 119 124 133 136 135 133 130 130 130 130 128 127 126 125 123 124 123 -193 119 -193 -193 -209 154 154 155 156 156 156 158 159 0 0 0 0 0
    0 0 0 0 0 0 0 0 0 0 0 0 0 0 0 0 0 0 0 0 0 0 0 0 0 0 0 0 0 0 0 0 0 0 0 0 0 0 0 0 0 0 0 0 0 0 0 0 0 0 0 0 0 0 0 0 0 0 0 0 0 0 0 0 0 0 0 0 0 57 58 57 58 58 58 58 58 58 58 58 59 58 58 58 58 58 58 58 58 57 55 55 55 55 54 54 53 52 50 52 50 51 50 52 53 53 53 57 57 60 56 56 55 55 55 56 55 54 52 55 57 57 58 57 56 54 54 54 54 53 52 51 51 48 47 47 45 45 -225 -225 -225 -225 -225 -225 -225 -225 -225 -225 -225 -225 -225 -225 -225 -225 -225 -225 -225 -225 -225 -225 -225 -225 -225 -225 -225 -225 -225 -225 -225 -225 -225 -225 -225 -225 -225 -225 -225 -225 -225 -225 -225 -225 -225 -225 -225 -225 -225 -225 -225 -225 -225 -225 -225 -225 -225 -225 -225 -225 -225 -225 -225 -225 38 38 38 35 36 37 37 37 36 39 42 43 46 46 46 46 48 51 53 57 58 59 61 62 62 62 62 62 61 62 65 65 68 71 72 74 75 75 77 77 78 79 79 81 81 83 85 84 84 84 83 83 84 87 88 90 89 91 95 -193 -193 -193 -209 103 103 102 105 108 112 114 113 114 117 115 115 114 113 112 111 112 113 108 115 120 126 134 136 136 134 131 130 130 129 127 126 126 124 122 122 118 116 117 -209 103 -209 -209 154 154 155 156 156 158 159 0 0 0 0 0
    0 0 0 0 0 0 0 0 0 0 0 0 0 0 0 0 0 0 0 0 0 0 0 0 0 0 0 0 0 0 0 0 0 0 0 0 0 0 0 0 0 0 0 0 0 0 0 0 0 0 0 0 0 0 0 0 0 0 0 0 0 0 0 0 0 0 0 0 0 57 58 57 58 58 58 58 58 58 58 58 58 58 58 58 58 58 58 58 59 58 57 56 56 56 55 54 54 53 52 53 53 54 52 54 54 54 54 57 58 60 56 56 56 56 55 57 56 55 54 57 58 58 59 58 57 56 56 55 54 53 51 50 50 49 48 48 -225 -225 -225 -225 -225 -225 -225 -225 -225 -225 -225 -225 -225 -225 -225 -225 -225 -225 -225 -225 -225 -225 -225 -225 -225 -225 -225 -225 -225 -225 -225 -225 -225 -225 -225 -225 -225 -225 -225 -225 -225 -225 -225 -225 -225 -225 -225 -225 -225 -225 -225 -225 -225 -225 -225 -225 -225 -225 -225 -225 -225 -225 -225 -225 -225 -225 -225 -225 36 33 35 36 37 38 39 48 47 49 49 48 49 49 49 52 53 57 57 58 60 61 62 62 62 62 61 63 65 65 68 71 72 74 75 75 77 78 79 80 79 81 82 84 85 85 85 84 84 84 85 88 89 91 92 97 101 103 104 104 104 105 105 103 105 107 112 113 113 114 117 115 116 115 114 113 113 114 114 109 116 119 121 124 129 134 134 130 128 130 128 127 127 126 125 122 122 -193 112 117 -209 102 -209 150 153 153 154 155 155 157 159 0 0 0 0 0
    0 0 0 0 0 0 0 0 0 0 0 0 0 0 0 0 0 0 0 0 0 0 0 0 0 0 0 0 0 0 0 0 0 0 0 0 0 0 0 0 0 0 0 0 0 0 0 0 0 0 0 0 0 0 0 0 0 0 0 0 0 0 0 0 0 0 0 0 0 57 58 57 57 58 58 58 58 58 58 57 58 58 57 58 58 58 58 59 60 60 58 57 57 57 56 56 56 54 53 54 54 55 54 55 55 55 56 59 60 60 58 57 57 57 56 57 56 56 56 58 60 60 60 59 58 57 56 56 54 53 51 50 50 48 48 -225 -225 -225 -225 -225 -225 -225 -225 -225 -225 -225 -225 -225 -225 -225 -225 -225 -225 -225 -225 -225 -225 -225 -225 -225 -225 -225 -225 -225 -225 -225 -225 -225 -225 -225 -225 -225 -225 -225 -225 -225 -225 -225 -225 -225 -225 -225 -225 -225 -225 -225 -225 -225 -225 -225 -225 -225 -225 -225 -225 -225 -225 -225 -225 -225 -225 -225 -225 -225 -225 -225 -209 37 -193 -209 46 56 55 56 54 54 54 54 53 54 54 57 56 57 59 61 61 62 63 63 63 64 66 66 68 70 72 74 75 76 77 78 79 81 80 81 82 85 86 86 86 85 85 86 86 89 91 93 94 100 102 104 104 104 104 105 105 105 106 106 112 113 113 115 117 116 116 116 116 115 115 116 116 111 119 121 123 124 127 127 133 130 128 130 129 128 128 128 127 122 122 -193 110 117 -209 -209 135 144 151 150 152 -209 154 156 157 0 0 0 0 0
    0 0 0 0 0 0 0 0 0 0 0 0 0 0 0 0 0 0 0 0 0 0 0 0 0 0 0 0 0 0 0 0 0 0 0 0 0 0 0 0 0 0 0 0 0 0 0 0 0 0 0 0 0 0 0 0 0 0 0 0 0 0 0 0 0 0 0 0 0 57 57 56 57 57 57 57 57 58 58 58 59 58 57 58 59 59 58 59 61 62 61 61 61 62 57 57 56 54 54 54 54 55 54 55 56 57 58 61 62 62 62 60 60 59 59 60 59 59 59 61 62 61 61 60 59 57 56 55 53 53 51 51 51 -225 -225 -225 -225 -225 -225 -225 -225 -225 -225 -225 -225 -225 -225 -225 -225 -225 -225 -225 -225 -225 -225 -225 -225 -225 -225 -225 -225 -225 -225 -225 -225 -225 -225 -225 -225 -225 -225 -225 -225 -225 -225 -225 -225 -225 -225 -225 -225 -225 -225 -225 -225 -225 -225 -225 -225 -225 -225 -225 -225 -225 -225 -225 -225 -225 -225 -225 -225 -225 -225 -225 -225 -225 -225 -225 -225 -193 -209 58 59 58 58 58 57 57 56 57 57 57 56 57 58 61 62 64 65 65 65 66 68 67 68 71 72 75 76 76 78 78 79 81 80 82 82 85 86 86 86 86 87 88 88 91 93 96 98 102 104 105 105 104 103 105 105 105 105 106 111 113 113 115 117 116 116 116 116 115 115 117 116 113 119 122 123 124 126 126 132 130 130 131 131 131 132 131 131 124 129 -209 -209 -209 -209 -209 -209 -209 -209 -209 -193 -209 -209 -209 156 0 0 0 0 0
    0 0 0 0 0 0 0 0 0 0 0 0 0 0 0 0 0 0 0 0 0 0 0 0 0 0 0 0 0 0 0 0 0 0 0 0 0 0 0 0 0 0 0 0 0 0 0 0 0 0 0 0 0 0 0 0 0 0 0 0 0 0 0 0 0 0 0 0 0 56 56 56 57 57 57 57 57 59 58 58 59 58 58 59 60 59 58 59 62 65 66 66 66 66 59 58 56 55 54 54 54 55 54 56 55 57 58 60 62 63 63 61 61 63 64 65 63 63 63 65 65 65 63 61 59 57 56 54 53 53 52 51 -225 -225 -225 -225 -225 -225 -225 -225 -225 -225 -225 -225 -225 -225 -225 -225 -225 -225 -225 -225 -225 -225 -225 -225 -225 -225 -225 -225 -225 -225 -225 -225 -225 -225 -225 -225 -225 -225 -225 -225 -225 -225 -225 -225 -225 -225 -225 -225 -225 -225 -225 -225 -225 -225 -225 -225 -225 -225 -225 -225 -225 -225 -225 -225 -225 -225 -225 -225 -225 -225 -225 -225 -225 -225 -225 -225 -225 -225 -225 61 64 60 60 61 60 59 58 57 57 57 57 56 59 62 64 65 66 65 65 66 68 68 68 70 72 76 76 76 78 78 79 81 79 81 80 84 85 86 87 87 88 89 90 92 95 98 99 102 103 104 104 104 102 104 104 105 105 106 111 112 113 115 116 116 116 116 116 116 116 117 116 112 118 122 123 124 124 125 133 130 130 132 132 131 133 133 132 -209 -209 -209 -193 -209 -209 -209 -209 -209 -209 -209 -209 -209 -193 -209 -193 0 0 0 0 0
    0 0 0 0 0 0 0 0 0 0 0 0 0 0 0 0 0 0 0 0 0 0 0 0 0 0 0 0 0 0 0 0 0 0 0 0 0 0 0 0 0 0 0 0 0 0 0 0 0 0 0 0 0 0 0 0 0 0 0 0 0 0 0 0 0 0 0 0 0 56 56 56 57 57 57 58 58 59 59 59 60 59 59 60 60 60 58 60 62 66 66 67 67 66 61 60 56 55 54 54 54 55 54 55 56 57 59 60 62 63 63 62 65 66 69 69 68 69 69 69 68 66 62 60 58 57 56 55 55 55 -225 -225 -225 -225 -225 -225 -225 -225 -225 -225 -225 -225 -225 -225 -225 -225 -225 -225 -225 -225 -225 -225 -225 -225 -225 -225 -225 -225 -225 -225 -225 -225 -225 -225 -225 -225 -225 -225 -225 -225 -225 -225 -225 -225 -225 -225 -225 -225 -225 -225 -225 -225 -225 -225 -225 -225 -225 -225 -225 -225 -225 -225 -225 -225 -225 -225 -225 -225 -225 -225 -225 -225 -225 -225 -225 -225 -225 -225 -225 -225 -225 65 68 62 63 63 64 63 61 61 59 59 59 59 61 63 64 64 65 65 65 66 68 68 68 71 73 77 77 77 78 78 79 81 79 81 79 83 85 86 86 87 87 89 90 93 96 98 99 102 103 105 105 105 103 105 105 105 106 107 111 111 112 115 116 116 116 116 116 116 116 117 116 113 116 121 123 123 124 125 132 130 131 132 132 131 133 133 133 -193 -193 -209 -209 -209 -209 -193 -193 -193 -209 -209 -209 -209 -193 -209 -209 0 0 0 0 0
    0 0 0 0 0 0 0 0 0 0 0 0 0 0 0 0 0 0 0 0 0 0 0 0 0 0 0 0 0 0 0 0 0 0 0 0 0 0 0 0 0 0 0 0 0 0 0 0 0 0 0 0 0 0 0 0 0 0 0 0 0 0 0 0 0 0 0 0 0 56 56 56 57 58 58 58 59 60 60 60 61 59 59 60 61 60 59 61 62 67 66 67 68 68 66 64 59 56 55 54 55 56 55 56 56 58 60 61 62 63 63 63 66 67 70 70 71 72 72 73 70 67 64 61 58 57 56 56 54 -225 -225 -225 -225 -225 -225 -225 -225 -225 -225 -225 -225 -225 -225 -225 -225 -225 -225 -225 -225 -225 -225 -225 -225 -225 -225 -225 -225 -225 -225 -225 -225 -225 -225 -225 -225 -225 -225 -225 -225 -225 -225 -225 -225 -225 -225 -225 -225 -225 -225 -225 -225 -225 -225 -225 -225 -225 -225 -225 -225 -225 -225 -225 -225 -225 -225 -225 -225 -225 -225 -225 -225 -225 -225 -225 -225 -225 -225 -225 -225 -225 -225 64 68 63 65 65 66 67 65 65 63 63 64 61 63 65 65 65 66 66 66 66 68 68 69 70 73 77 77 77 77 77 79 80 79 80 78 82 84 85 86 87 87 89 91 94 97 98 99 102 103 105 106 106 104 105 106 106 106 107 111 111 113 114 116 117 116 117 117 117 117 117 117 116 117 121 123 123 124 125 132 130 131 132 132 131 134 134 134 76 -193 -209 -209 -209 -209 -209 -193 161 -193 159 159 160 156 155 152 0 0 0 0 0
    0 0 0 0 0 0 0 0 0 0 0 0 0 0 0 0 0 0 0 0 0 0 0 0 0 0 0 0 0 0 0 0 0 0 0 0 0 0 0 0 0 0 0 0 0 0 0 0 0 0 0 0 0 0 0 0 0 0 0 0 0 0 0 0 0 0 0 0 0 56 55 56 57 58 58 59 59 61 61 61 62 61 61 61 62 62 62 63 64 67 66 67 69 69 68 67 65 63 61 59 59 60 60 59 59 59 61 61 63 64 66 66 68 70 72 72 73 74 74 73 71 68 64 61 60 59 58 -225 -225 -225 -225 -225 -225 -225 -225 -225 -225 -225 -225 -225 -225 -225 -225 -225 -225 -225 -225 -225 -225 -225 -225 -225 -225 -225 -225 -225 -225 -225 -225 -225 -225 -225 -225 -225 -225 -225 -225 -225 -225 -225 -225 -225 -225 -225 -225 -225 -225 -225 -225 -225 -225 -225 -225 -225 -225 -225 -225 -225 -225 -225 -225 -225 -225 -225 -225 -225 -225 -225 -225 -225 -225 -225 -225 -225 -225 -225 -225 -225 -225 -225 -225 64 67 63 67 66 67 68 67 68 67 66 70 66 67 68 67 67 67 66 66 66 67 67 68 69 72 76 76 77 77 78 79 80 79 79 79 82 83 85 86 87 88 90 91 95 97 99 100 102 103 105 106 106 105 106 106 106 106 106 110 111 113 115 116 117 117 117 117 118 118 118 118 118 117 120 122 123 124 125 131 130 131 132 133 131 134 135 135 -209 -209 -209 -209 100 100 102 -209 -209 -209 -209 -209 -209 -209 159 -209 0 0 0 0 0
    0 0 0 0 0 0 0 0 0 0 0 0 0 0 0 0 0 0 0 0 0 0 0 0 0 0 0 0 0 0 0 0 0 0 0 0 0 0 0 0 0 0 0 0 0 0 0 0 0 0 0 0 0 0 0 0 0 0 0 0 0 0 0 0 0 0 0 0 0 56 55 56 57 58 59 59 60 62 63 64 65 64 65 64 65 64 65 66 65 67 66 67 68 69 69 69 68 69 68 70 70 67 67 65 63 61 64 64 66 67 69 70 71 72 74 74 75 75 74 73 70 68 65 63 60 60 -225 -225 -225 -225 -225 -225 -225 -225 -225 -225 -225 -225 -225 -225 -225 -225 -225 -225 -225 -225 -225 -225 -225 -225 -225 -225 -225 -225 -225 -225 -225 -225 -225 -225 -225 -225 -225 -225 -225 -225 -225 -225 -225 -225 -225 -225 -225 -225 -225 -225 -225 -225 -225 -225 -225 -225 -225 -225 -225 -225 -225 -225 -225 -225 -225 -225 -225 -225 -225 -225 -225 -225 -225 -225 -225 -225 -225 -225 -225 -225 -225 -225 -225 -225 -225 64 67 63 67 67 68 68 67 68 68 68 72 70 69 70 70 70 70 69 70 68 68 69 69 68 72 75 75 76 77 78 79 79 78 78 78 81 81 84 85 87 88 89 90 94 97 99 100 101 103 105 106 107 106 107 107 107 107 106 109 110 112 114 115 117 117 118 117 118 118 118 118 118 116 120 123 123 124 125 132 130 131 132 132 130 133 134 133 -209 -209 -209 -209 98 -193 101 -209 -209 -209 -209 -209 -209 160 161 -209 0 0 0 0 0
    0 0 0 0 0 0 0 0 0 0 0 0 0 0 0 0 0 0 0 0 0 0 0 0 0 0 0 0 0 0 0 0 0 0 0 0 0 0 0 0 0 0 0 0 0 0 0 0 0 0 0 0 0 0 0 0 0 0 0 0 0 0 0 0 0 0 0 0 0 57 54 56 58 61 63 65 67 68 68 69 68 68 67 66 67 66 66 66 65 67 66 67 68 68 68 69 68 69 69 72 71 69 69 67 66 64 68 69 69 70 72 72 74 75 76 76 75 75 74 73 71 69 68 66 -225 -225 -225 -225 -225 -225 -225 -225 -225 -225 -225 -225 -225 -225 -225 -225 -225 -225 -225 -225 -225 -225 -225 -225 -225 -225 -225 -225 -225 -225 -225 -225 -225 -225 -225 -225 -225 -225 -225 -225 -225 -225 -225 -225 -225 -225 -225 -225 -225 -225 -225 -225 -225 -225 -225 -225 -225 -225 -225 -225 -225 -225 -225 -225 -225 -225 -225 -225 -225 -225 -225 -225 -225 -225 -225 -225 -225 -225 -225 -225 -225 -225 -225 -225 -225 -225 -225 64 67 63 66 67 68 68 67 69 69 69 73 71 70 71 72 71 70 70 70 69 69 70 69 68 72 74 74 76 76 77 78 79 78 78 78 81 80 83 85 86 88 89 90 94 97 99 100 101 104 106 108 109 107 108 108 108 108 107 109 109 111 114 114 117 117 118 118 119 118 119 119 119 117 120 123 123 124 124 131 130 131 131 131 129 133 133 133 -209 -209 -209 -209 -209 -209 -209 -193 -193 -193 -209 -209 -209 -209 -209 -209 0 0 0 0 0
    0 0 0 0 0 0 0 0 0 0 0 0 0 0 0 0 0 0 0 0 0 0 0 0 0 0 0 0 0 0 0 0 0 0 0 0 0 0 0 0 0 0 0 0 0 0 0 0 0 0 0 0 0 0 0 0 0 0 0 0 0 0 0 0 0 0 0 0 0 63 57 59 68 71 71 71 71 71 71 71 70 69 68 68 67 67 67 67 65 67 66 67 68 69 69 69 69 70 69 72 71 69 69 69 70 68 71 72 72 72 76 77 78 78 78 77 76 75 74 73 73 72 71 -225 -225 -225 -225 -225 -225 -225 -225 -225 -225 -225 -225 -225 -225 -225 -225 -225 -225 -225 -225 -225 -225 -225 -225 -225 -225 -225 -225 -225 -225 -225 -225 -225 -225 -225 -225 -225 -225 -225 -225 -225 -225 -225 -225 -225 -225 -225 -225 -225 -225 -225 -225 -225 -225 -225 -225 -225 -225 -225 -225 -225 -225 -225 -225 -225 -225 -225 -225 -225 -225 -225 -225 -225 -225 -225 -225 -225 -225 -225 -225 -225 -225 -225 -225 -225 -225 -225 -225 -225 68 64 68 68 69 70 69 70 70 70 73 71 70 71 71 71 70 70 70 69 69 71 69 68 71 74 74 74 75 76 77 78 78 78 77 80 80 83 85 87 89 89 91 94 98 100 101 101 104 106 108 109 108 109 108 108 108 107 108 109 110 112 113 117 117 118 118 119 118 119 118 119 117 120 123 123 123 123 129 128 129 130 130 127 132 133 133 -209 -193 -209 -209 -209 -209 -209 -193 -193 -193 -193 151 149 -193 148 -209 0 0 0 0 0
    0 0 0 0 0 0 0 0 0 0 0 0 0 0 0 0 0 0 0 0 0 0 0 0 0 0 0 0 0 0 0 0 0 0 0 0 0 0 0 0 0 0 0 0 0 0 0 0 0 0 0 0 0 0 0 0 0 0 0 0 0 0 0 0 0 0 0 0 0 68 59 62 70 72 71 72 72 72 72 72 71 70 70 69 69 68 68 67 66 67 66 67 68 69 70 70 71 72 72 74 74 73 73 72 74 -193 75 79 89 86 86 86 82 82 80 78 77 76 75 74 73 -225 -225 -225 -225 -225 -225 -225 -225 -225 -225 -225 -225 -225 -225 -225 -225 -225 -225 -225 -225 -225 -225 -225 -225 -225 -225 -225 -225 -225 -225 -225 -225 -225 -225 -225 -225 -225 -225 -225 -225 -225 -225 -225 -225 -225 -225 -225 -225 -225 -225 -225 -225 -225 -225 -225 -225 -225 -225 -225 -225 -225 -225 -225 -225 -225 -225 -225 -225 -225 -225 -225 -225 -225 -225 -225 -225 -225 -225 -225 -225 -225 -225 -225 -225 -225 -225 -225 -225 -225 -225 -225 -225 67 70 70 71 71 71 71 72 71 74 73 71 72 72 71 70 70 71 68 68 69 68 65 69 72 73 73 74 76 77 78 77 78 77 79 78 81 84 86 88 88 90 94 97 100 101 102 104 106 107 109 107 108 108 108 108 107 108 108 109 112 113 117 118 118 118 119 119 119 118 119 117 119 121 122 122 123 128 127 128 128 129 126 129 130 130 -209 -193 -209 -209 -209 -209 -209 -209 -209 -209 -193 146 145 148 146 -209 0 0 0 0 0
    0 0 0 0 0 0 0 0 0 0 0 0 0 0 0 0 0 0 0 0 0 0 0 0 0 0 0 0 0 0 0 0 0 0 0 0 0 0 0 0 0 0 0 0 0 0 0 0 0 0 0 0 0 0 0 0 0 0 0 0 0 0 0 0 0 0 0 0 0 -193 59 63 71 72 71 72 72 72 71 72 71 70 70 70 69 69 68 68 66 67 67 67 68 70 70 71 72 73 74 75 75 76 77 78 84 89 88 87 91 91 90 89 85 84 81 80 78 77 76 75 -225 -225 -225 -225 -225 -225 -225 -225 -225 -225 -225 -225 -225 -225 -225 -225 -225 -225 -225 -225 -225 -225 -225 -225 -225 -225 -225 -225 -225 -225 -225 -225 -225 -225 -225 -225 -225 -225 -225 -225 -225 -225 -225 -225 -225 -225 -225 -225 -225 -225 -225 -225 -225 -225 -225 -225 -225 -225 -225 -225 -225 -225 -225 -225 -225 -225 -225 -225 -225 -225 -225 -225 -225 -225 -225 -225 -225 -225 -225 -225 -225 -225 -225 -225 -225 -225 -225 -225 -225 -225 -225 -225 -225 -225 -225 72 72 73 71 72 73 72 74 73 72 72 73 72 71 71 72 70 70 70 69 66 70 72 72 73 74 75 77 77 77 77 77 79 78 81 84 85 87 87 89 92 95 98 99 100 102 104 106 107 106 106 106 106 107 107 107 107 108 110 112 118 118 119 119 120 119 119 119 119 118 119 121 122 123 124 129 128 129 128 128 126 128 129 128 119 -193 115 -193 114 120 124 -209 -209 -209 -193 142 142 148 149 -209 0 0 0 0 0
    0 0 0 0 0 0 0 0 0 0 0 0 0 0 0 0 0 0 0 0 0 0 0 0 0 0 0 0 0 0 0 0 0 0 0 0 0 0 0 0 0 0 0 0 0 0 0 0 0 0 0 0 0 0 0 0 0 0 0 0 0 0 0 0 0 0 0 0 0 74 68 67 71 72 71 72 72 72 72 72 72 71 71 71 69 69 69 69 67 67 67 68 69 70 71 71 71 73 74 76 78 79 83 86 89 93 91 91 93 92 91 90 86 85 82 81 80 78 -225 -225 -225 -225 -225 -225 -225 -225 -225 -225 -225 -225 -225 -225 -225 -225 -225 -225 -225 -225 -225 -225 -225 -225 -225 -225 -225 -225 -225 -225 -225 -225 -225 -225 -225 -225 -225 -225 -225 -225 -225 -225 -225 -225 -225 -225 -225 -225 -225 -225 -225 -225 -225 -225 -225 -225 -225 -225 -225 -225 -225 -225 -225 -225 -225 -225 -225 -225 -225 -225 -225 -225 -225 -225 -225 -225 -225 -225 -225 -225 -225 -225 -225 -225 -225 -225 -225 -225 -225 -225 -225 -225 -225 -225 -225 -225 -225 -225 72 74 71 72 73 72 74 73 73 73 74 73 73 72 73 71 71 71 70 68 71 73 74 74 76 77 79 79 79 79 78 79 78 80 83 84 85 84 86 89 91 94 97 99 101 103 105 106 105 106 106 106 107 107 107 107 108 110 112 117 117 118 118 119 118 118 119 119 118 119 121 122 123 125 129 129 129 129 128 127 128 129 128 122 123 -193 108 115 120 123 -209 -193 120 -193 139 139 144 146 -209 0 0 0 0 0
    0 0 0 0 0 0 0 0 0 0 0 0 0 0 0 0 0 0 0 0 0 0 0 0 0 0 0 0 0 0 0 0 0 0 0 0 0 0 0 0 0 0 0 0 0 0 0 0 0 0 0 0 0 0 0 0 0 0 0 0 0 0 0 0 0 0 0 0 0 74 69 70 72 72 71 72 73 73 72 73 73 73 73 73 -193 71 -193 70 68 68 68 69 70 71 72 72 72 75 77 78 82 83 87 89 91 93 93 92 93 92 91 90 87 86 84 83 81 -225 -225 -225 -225 -225 -225 -225 -225 -225 -225 -225 -225 -225 -225 -225 -225 -225 -225 -225 -225 -225 -225 -225 -225 -225 -225 -225 -225 -225 -225 -225 -225 -225 -225 -225 -225 -225 -225 -225 -225 -225 -225 -225 -225 -225 -225 -225 -225 -225 -225 -225 -225 -225 -225 -225 -225 -225 -225 -225 -225 -225 -225 -225 -225 -225 -225 -225 -225 -225 -225 -225 -225 -225 -225 -225 -225 -225 -225 -225 -225 -225 -225 -225 -225 -225 -225 -225 -225 -225 -225 -225 -225 -225 -225 -225 -225 -225 -225 -225 -225 72 70 72 74 73 75 74 76 75 77 76 75 74 75 72 73 72 72 70 73 75 76 77 79 80 81 80 80 79 79 80 78 80 82 82 84 83 85 87 89 91 95 98 101 102 104 105 105 105 106 105 106 106 107 107 108 110 112 116 117 118 118 118 118 118 119 119 118 120 122 122 123 124 128 128 130 130 129 128 129 129 129 123 124 -193 106 111 120 122 -193 114 -209 -209 -193 -193 139 -209 -209 0 0 0 0 0
    0 0 0 0 0 0 0 0 0 0 0 0 0 0 0 0 0 0 0 0 0 0 0 0 0 0 0 0 0 0 0 0 0 0 0 0 0 0 0 0 0 0 0 0 0 0 0 0 0 0 0 0 0 0 0 0 0 0 0 0 0 0 0 0 0 0 0 0 0 75 -193 75 73 72 72 73 73 73 73 73 -193 73 73 74 -193 -193 -193 71 70 70 70 71 72 72 73 73 76 77 80 81 85 86 89 90 92 94 93 93 93 92 91 90 88 88 86 -225 -225 -225 -225 -225 -225 -225 -225 -225 -225 -225 -225 -225 -225 -225 -225 -225 -225 -225 -225 -225 -225 -225 -225 -225 -225 -225 -225 -225 -225 -225 -225 -225 -225 -225 -225 -225 -225 -225 -225 -225 -225 -225 -225 -225 -225 -225 -225 -225 -225 -225 -225 -225 -225 -225 -225 -225 -225 -225 -225 -225 -225 -225 -225 -225 -225 -225 -225 -225 -225 -225 -225 -225 -225 -225 -225 -225 -225 -225 -225 -225 -225 -225 -225 -225 -225 -225 -225 -225 -225 -225 -225 -225 -225 -225 -225 -225 -225 -225 -225 -225 -225 -225 61 70 72 71 74 73 75 75 77 77 76 75 76 74 74 74 73 72 74 75 75 76 78 79 79 80 80 79 78 80 79 81 82 82 84 84 85 86 87 89 93 96 99 101 103 104 104 104 104 104 105 104 106 106 107 110 112 116 117 118 118 118 119 118 119 119 118 120 122 123 124 124 129 129 131 130 130 129 130 129 129 125 127 125 -193 119 124 129 132 -209 -209 -193 -193 137 139 -193 -193 0 0 0 0 0</data></disparity>
</opencv_storage>
