<?xml version="1.0"?>
<opencv_storage>
<gps_time_stamp>300420</gps_time_stamp>
<gps_x>-1.2396033287048340e+001</gps_x>
<gps_y>1.0987392425537109e+001</gps_y>
<gps_z>-2.0532259941101074e+000</gps_z>
<image_time_stamp>291257</image_time_stamp>
<disparity type_id="opencv-matrix">
  <rows>91</rows>
  <cols>320</cols>
  <dt>s</dt>
  <data>
    0 0 0 0 0 0 0 0 0 0 0 0 0 0 0 0 0 0 0 0 0 0 0 0 0 0 0 0 0 0 0 0 0 0 0 0 0 0 0 0 0 0 0 0 0 0 0 0 0 0 0 0 0 0 0 0 0 0 0 0 0 0 0 0 0 0 0 0 0 65 64 64 64 63 64 62 62 61 61 61 61 57 56 56 55 56 56 56 54 53 54 51 49 50 49 49 48 47 49 46 48 47 45 45 46 44 43 42 42 42 42 41 41 40 41 40 40 38 36 33 29 24 21 22 21 22 21 22 20 19 20 22 22 21 21 21 21 23 23 22 20 21 22 24 23 23 -209 -209 -177 -209 -209 -209 -177 -177 -177 -177 -177 -209 -209 -177 -193 -209 -193 57 54 -209 -209 -209 -193 29 32 33 -209 -209 -209 -209 -209 -209 -209 -209 -209 -209 -209 -209 -209 -209 -209 -209 -209 -209 -209 -209 -209 -193 -209 -209 -209 -209 -209 -209 207 -209 208 208 -209 -193 -209 -209 -209 -209 -209 298 -193 47 48 47 49 50 49 50 48 48 49 50 51 50 51 51 52 54 54 56 57 58 59 61 62 63 66 64 65 67 67 68 68 70 69 68 71 71 71 76 76 76 76 77 79 81 80 80 77 81 82 81 84 85 84 86 88 89 90 90 91 93 94 95 96 96 96 99 102 102 102 104 108 108 109 109 109 108 109 109 109 107 107 111 119 120 120 121 124 124 123 123 124 124 945 945 -193 121 121 123 124 123 122 0 0 0 0 0
    0 0 0 0 0 0 0 0 0 0 0 0 0 0 0 0 0 0 0 0 0 0 0 0 0 0 0 0 0 0 0 0 0 0 0 0 0 0 0 0 0 0 0 0 0 0 0 0 0 0 0 0 0 0 0 0 0 0 0 0 0 0 0 0 0 0 0 0 0 66 65 64 64 63 64 62 62 61 61 61 62 57 56 56 55 55 55 55 54 52 53 51 49 50 49 49 48 46 49 46 48 47 45 45 46 44 43 42 41 41 41 41 41 40 41 40 40 39 37 36 31 24 22 21 21 23 21 22 19 19 20 21 21 21 20 21 20 23 23 22 20 20 22 24 23 23 -193 -209 -177 -177 -193 -209 -209 -193 -177 -209 -193 -209 -209 -209 -209 57 53 55 54 -209 -209 -193 -193 -209 -209 -209 -209 -209 -209 215 214 -209 -209 -209 -209 -193 -209 -209 -209 -209 -209 -209 -209 -209 -209 -209 -209 -209 -209 -193 -209 -209 -209 -209 208 -209 -193 208 -209 -209 -209 -209 -193 -193 -209 299 -193 46 47 47 49 50 50 50 49 50 50 51 50 51 51 51 53 54 54 57 57 58 59 62 63 63 67 65 65 68 68 69 69 70 70 68 71 70 70 75 -177 75 76 76 80 81 81 81 78 82 83 82 85 85 85 86 88 89 90 90 92 93 94 95 96 96 97 99 101 102 103 104 108 108 109 109 109 108 109 109 109 107 108 111 119 120 120 121 125 125 123 124 124 124 946 946 -193 -193 120 122 123 122 121 0 0 0 0 0
    0 0 0 0 0 0 0 0 0 0 0 0 0 0 0 0 0 0 0 0 0 0 0 0 0 0 0 0 0 0 0 0 0 0 0 0 0 0 0 0 0 0 0 0 0 0 0 0 0 0 0 0 0 0 0 0 0 0 0 0 0 0 0 0 0 0 0 0 0 66 65 63 63 62 63 62 62 61 61 61 62 57 56 56 55 55 55 55 54 52 53 51 49 50 49 48 49 46 49 46 47 47 45 45 46 43 43 42 41 41 41 41 41 40 41 40 40 39 38 35 32 25 23 22 21 23 21 22 20 19 20 21 22 21 20 21 20 22 23 22 20 20 23 25 25 25 25 -209 -209 -177 -177 -209 -209 -209 -209 -209 -193 -209 -209 -209 -209 57 52 53 52 -193 -209 -209 -209 -209 -209 -209 -209 -209 -209 216 -209 -193 -209 -209 -209 -193 -209 -209 -209 -209 -209 -209 -209 -209 -209 -209 -193 -209 -209 -193 -209 -209 -209 -209 -193 -209 -193 207 -209 -209 21 22 20 21 -209 300 44 44 46 47 48 50 49 49 49 50 50 51 50 51 51 52 53 54 55 57 58 59 60 62 64 63 67 66 66 68 69 69 69 70 71 69 71 71 71 75 -177 75 76 76 79 81 81 81 78 83 83 83 85 85 86 87 88 89 90 91 92 93 94 95 96 96 97 98 101 102 103 104 108 108 109 108 108 108 109 109 108 106 108 110 119 120 120 121 124 -193 123 123 123 -193 946 946 945 -193 119 121 122 122 120 0 0 0 0 0
    0 0 0 0 0 0 0 0 0 0 0 0 0 0 0 0 0 0 0 0 0 0 0 0 0 0 0 0 0 0 0 0 0 0 0 0 0 0 0 0 0 0 0 0 0 0 0 0 0 0 0 0 0 0 0 0 0 0 0 0 0 0 0 0 0 0 0 0 0 66 65 63 63 62 63 62 62 62 61 61 63 56 56 57 55 55 55 55 54 52 53 51 49 50 49 48 49 46 49 46 47 46 45 45 46 43 43 42 41 41 41 41 41 40 40 40 40 39 38 36 34 27 24 23 22 23 21 22 20 19 20 21 22 21 20 21 20 22 23 23 20 19 23 24 25 25 25 -209 -209 -209 -193 -209 -209 -209 -209 -209 -209 -209 -209 -209 -193 55 50 51 51 -193 -193 -209 -209 -209 -209 -209 -209 -209 -209 218 -209 -209 -209 -209 -209 -209 -209 -209 -209 -193 -209 -209 -209 -209 -209 -193 414 -193 -209 -209 -209 -209 -209 -209 -193 -193 -209 -193 -209 -209 21 22 21 22 -209 -209 42 43 45 47 48 49 49 49 49 50 51 51 50 51 51 -193 54 55 56 59 58 59 60 62 64 63 67 66 67 69 70 70 70 71 72 70 71 71 71 74 -177 -177 76 76 79 81 81 81 78 83 83 82 85 85 86 87 87 89 90 92 93 93 94 95 96 97 96 98 101 102 103 104 108 107 108 108 108 107 108 108 108 106 107 109 119 120 120 121 124 -193 123 123 124 -193 946 946 946 -193 119 120 121 121 120 0 0 0 0 0
    0 0 0 0 0 0 0 0 0 0 0 0 0 0 0 0 0 0 0 0 0 0 0 0 0 0 0 0 0 0 0 0 0 0 0 0 0 0 0 0 0 0 0 0 0 0 0 0 0 0 0 0 0 0 0 0 0 0 0 0 0 0 0 0 0 0 0 0 0 66 65 63 63 62 63 62 62 62 62 61 64 57 56 57 56 56 55 55 54 52 53 50 49 49 49 49 49 46 49 46 47 47 46 46 46 44 44 42 42 41 41 41 41 40 40 40 40 39 39 37 36 30 27 24 22 22 21 22 20 19 20 21 22 20 20 21 19 22 23 22 20 17 23 24 25 25 -209 -209 -209 -209 -209 -209 -209 -209 -209 -209 -209 -209 -209 -209 -209 51 48 47 49 -193 46 -209 -209 -209 -209 -209 -209 -209 -209 220 -209 -209 -209 -209 -209 -209 -209 -209 -209 -209 -209 -193 -193 420 -193 416 418 -209 -193 -209 -209 -209 -209 -209 -209 -193 -209 -209 -209 -209 20 21 21 -193 -209 -209 -193 42 45 46 48 48 48 49 49 50 51 52 51 52 -193 -193 55 56 58 59 58 59 60 63 64 63 66 67 67 69 70 70 70 71 72 71 71 71 71 74 -177 -177 75 75 78 80 80 81 78 82 83 83 85 85 86 86 87 89 91 92 93 94 95 96 96 97 96 98 102 103 104 105 108 107 108 107 108 107 107 108 107 106 107 109 119 120 120 -193 -193 -193 124 124 124 -193 946 946 946 -193 119 120 121 121 120 0 0 0 0 0
    0 0 0 0 0 0 0 0 0 0 0 0 0 0 0 0 0 0 0 0 0 0 0 0 0 0 0 0 0 0 0 0 0 0 0 0 0 0 0 0 0 0 0 0 0 0 0 0 0 0 0 0 0 0 0 0 0 0 0 0 0 0 0 0 0 0 0 0 0 66 65 62 62 63 63 62 63 62 63 62 64 58 57 58 56 56 56 55 54 52 53 50 49 49 49 49 50 47 49 47 48 47 47 46 46 44 45 42 41 41 41 41 40 40 40 40 40 39 39 38 36 35 32 27 24 22 20 22 20 19 19 21 22 20 20 21 20 21 23 23 20 16 22 25 25 -193 -193 -177 -209 -209 -209 -209 -209 -209 -209 -209 535 539 -193 -209 -209 -209 -193 -193 -177 -193 47 -209 -209 -209 -209 220 -193 -193 -193 222 -193 -209 -209 -193 -209 -209 -209 -209 -209 -209 -209 -193 -193 -193 -193 -193 -193 -209 -193 -209 -209 -209 -209 -209 -193 -193 -209 -209 -209 -209 -193 -209 -209 -209 -209 -209 39 41 45 45 46 47 47 49 49 51 51 52 52 53 -193 -193 56 56 57 58 58 59 59 62 63 62 66 67 67 69 70 70 69 71 72 71 70 71 71 73 -177 -177 74 75 77 79 80 80 77 81 83 83 85 86 86 87 88 90 92 92 93 94 95 96 96 96 97 98 102 103 104 105 108 107 108 107 107 107 107 108 107 106 108 109 118 120 120 -193 -193 -193 124 124 124 124 946 947 947 -193 119 120 121 121 120 0 0 0 0 0
    0 0 0 0 0 0 0 0 0 0 0 0 0 0 0 0 0 0 0 0 0 0 0 0 0 0 0 0 0 0 0 0 0 0 0 0 0 0 0 0 0 0 0 0 0 0 0 0 0 0 0 0 0 0 0 0 0 0 0 0 0 0 0 0 0 0 0 0 0 66 64 62 61 62 62 62 63 62 63 62 63 59 57 58 56 56 55 54 54 52 53 50 49 50 49 49 50 47 49 47 48 47 47 46 46 44 46 41 41 41 41 41 40 39 39 39 39 39 38 38 37 36 35 32 28 22 18 21 19 18 18 21 22 21 21 21 20 21 22 23 21 15 21 24 24 -193 -177 -177 -177 -193 -193 -209 -177 -177 -193 -209 533 538 -177 -177 -177 -209 -193 -209 -209 -209 -209 -209 -209 -209 -209 -209 -209 -193 -193 223 -193 -209 -209 -193 -209 -209 -209 -209 -209 -209 -209 -193 -193 -193 -193 -193 -209 -209 -209 -193 -209 -209 -209 -209 -209 -193 -209 -209 -209 -209 -209 -209 -209 -209 -209 41 39 42 44 45 46 45 47 48 49 51 51 -193 -193 -209 -209 55 56 57 57 59 58 59 59 63 63 62 65 67 67 69 70 69 68 70 72 70 69 70 70 72 -177 74 74 74 77 79 80 80 77 82 84 85 86 86 87 87 89 91 92 92 93 94 94 95 95 95 96 99 102 104 105 106 108 106 108 107 107 107 107 108 107 107 108 109 118 119 119 119 -193 -193 124 124 124 124 945 947 -193 121 119 120 122 122 121 0 0 0 0 0
    0 0 0 0 0 0 0 0 0 0 0 0 0 0 0 0 0 0 0 0 0 0 0 0 0 0 0 0 0 0 0 0 0 0 0 0 0 0 0 0 0 0 0 0 0 0 0 0 0 0 0 0 0 0 0 0 0 0 0 0 0 0 0 0 0 0 0 0 0 66 65 63 61 61 61 62 64 62 63 62 61 57 57 57 56 55 55 54 54 52 53 50 50 50 50 50 50 47 49 47 48 47 47 46 47 44 47 42 40 40 40 40 40 39 39 39 39 38 38 37 37 36 36 33 30 23 14 18 18 18 17 21 22 21 21 21 21 21 22 22 21 15 18 22 22 22 -193 -177 -177 -193 -177 -209 -209 475 -193 -193 -193 -177 -177 -177 -209 -209 -177 -209 -209 -209 -209 -209 -209 -209 -209 -193 -209 -209 -193 -193 -209 -209 -209 -193 -209 -209 -209 -209 -209 -209 -209 -193 -209 -209 -193 -193 -193 -193 -193 127 -193 -209 -209 -209 -193 -193 -193 -209 -209 -209 -193 -209 -209 -209 -193 41 41 43 44 44 45 44 46 48 48 50 49 -209 -209 -209 -193 54 55 56 57 58 58 58 58 62 63 62 65 68 67 69 70 69 68 70 72 70 69 70 70 71 -177 73 74 74 76 79 80 80 77 82 84 85 85 86 87 88 89 90 91 92 93 93 93 94 94 95 96 99 102 105 106 107 108 107 108 107 107 107 107 108 107 107 108 109 117 119 119 119 121 -193 124 124 125 125 945 947 123 122 120 120 122 122 122 0 0 0 0 0
    0 0 0 0 0 0 0 0 0 0 0 0 0 0 0 0 0 0 0 0 0 0 0 0 0 0 0 0 0 0 0 0 0 0 0 0 0 0 0 0 0 0 0 0 0 0 0 0 0 0 0 0 0 0 0 0 0 0 0 0 0 0 0 0 0 0 0 0 0 65 65 63 62 61 62 63 66 64 64 63 61 57 57 57 56 56 55 54 55 53 54 51 50 51 50 50 51 47 49 47 48 48 47 47 47 44 47 43 41 41 40 40 40 39 39 39 38 38 38 38 37 37 36 35 33 27 17 17 18 19 19 21 23 22 21 21 21 21 22 22 21 15 16 21 22 22 -193 -193 -177 411 416 420 -209 -209 -193 -177 -209 -193 -177 -177 -193 -209 -209 -209 -209 -209 -209 -209 -209 -209 -209 -193 -193 -209 -209 -209 -209 -209 -209 -209 -209 -209 -209 -209 -209 -209 -209 -193 -209 -209 -209 -209 -193 -193 126 126 -193 -209 -209 -193 -193 128 -209 -209 -209 -209 127 -209 -209 -209 -193 39 40 42 43 44 43 43 45 48 48 49 -193 -209 -193 -209 54 55 55 56 57 58 58 58 59 63 62 62 65 69 67 69 70 69 68 70 72 70 68 70 70 70 72 73 73 73 76 79 79 79 77 81 83 83 84 85 86 87 88 90 91 91 92 93 93 93 94 95 96 99 102 105 106 107 108 107 108 107 107 107 107 108 108 107 108 109 117 120 120 120 121 129 125 125 125 125 945 124 124 123 121 121 123 123 123 0 0 0 0 0
    0 0 0 0 0 0 0 0 0 0 0 0 0 0 0 0 0 0 0 0 0 0 0 0 0 0 0 0 0 0 0 0 0 0 0 0 0 0 0 0 0 0 0 0 0 0 0 0 0 0 0 0 0 0 0 0 0 0 0 0 0 0 0 0 0 0 0 0 0 65 65 63 62 62 62 64 66 65 64 62 60 57 57 57 56 56 56 55 55 54 54 51 51 51 51 51 51 48 50 48 48 48 47 47 47 44 47 43 42 40 40 40 39 39 38 38 38 38 38 37 37 37 37 36 34 28 22 18 19 19 20 21 23 22 21 21 21 21 21 22 21 16 16 22 23 23 22 -193 -193 410 413 417 -177 -209 -193 -177 -209 -209 -177 -177 -177 -209 -209 -209 -209 -209 -193 -209 -209 -209 -209 -193 -177 -177 -209 -209 -209 -209 -209 -209 -209 -209 -209 -209 -209 -209 -209 -193 -209 -209 -209 -209 124 -193 126 127 -193 -209 -209 -193 -193 -193 -193 -193 -193 125 127 133 -209 -209 -193 39 40 42 43 43 43 43 45 48 49 49 -193 -209 -209 -193 54 54 55 55 56 58 57 58 59 63 62 62 65 69 67 68 69 68 67 69 71 70 67 69 69 69 72 73 73 73 76 78 78 78 77 81 82 83 83 85 86 87 88 89 90 91 92 92 92 93 94 95 97 99 103 108 107 108 108 108 109 108 108 107 107 108 108 108 108 108 117 120 120 120 121 130 126 126 126 126 944 125 125 124 121 122 124 124 124 0 0 0 0 0
    0 0 0 0 0 0 0 0 0 0 0 0 0 0 0 0 0 0 0 0 0 0 0 0 0 0 0 0 0 0 0 0 0 0 0 0 0 0 0 0 0 0 0 0 0 0 0 0 0 0 0 0 0 0 0 0 0 0 0 0 0 0 0 0 0 0 0 0 0 65 65 64 62 62 62 63 64 64 62 60 59 56 56 56 55 56 56 55 56 54 55 51 51 52 51 51 51 48 50 48 49 48 48 47 46 45 46 44 44 41 40 39 39 38 38 38 38 37 37 37 36 36 36 35 34 28 24 19 19 21 21 21 23 23 22 22 22 22 21 22 21 16 16 21 23 21 22 20 -193 -209 -209 -209 -209 -209 -209 -209 -209 -209 -209 532 -177 -193 -209 -209 -209 -193 -193 -193 -209 -193 -193 -209 -209 -193 -177 -209 -209 -209 -209 -209 -209 -209 -209 -209 -209 -209 -209 -209 -209 -209 -209 -209 -193 -209 -193 -193 -193 -193 -193 -193 -193 -193 -193 125 126 124 125 133 -209 -193 -193 39 40 42 43 42 42 42 45 47 48 -193 -209 -209 -209 54 54 55 55 56 57 57 57 58 59 62 62 62 64 68 66 66 69 66 65 68 70 69 66 69 69 68 72 73 73 73 75 77 78 78 77 80 81 82 83 85 86 87 88 90 91 91 92 92 93 93 94 95 96 99 103 108 107 108 108 109 109 108 108 108 107 109 108 108 108 108 116 120 120 120 121 130 126 126 126 126 -193 125 125 124 121 123 125 125 125 0 0 0 0 0
    0 0 0 0 0 0 0 0 0 0 0 0 0 0 0 0 0 0 0 0 0 0 0 0 0 0 0 0 0 0 0 0 0 0 0 0 0 0 0 0 0 0 0 0 0 0 0 0 0 0 0 0 0 0 0 0 0 0 0 0 0 0 0 0 0 0 0 0 0 65 64 63 62 61 61 62 63 62 62 60 60 56 56 56 55 55 55 55 56 54 55 51 51 52 51 51 51 48 49 47 48 48 47 47 46 45 46 44 44 42 40 39 39 38 38 38 38 37 37 37 37 36 36 35 35 29 26 24 22 23 22 22 23 23 22 22 22 21 21 21 21 17 15 20 20 19 21 19 -193 -193 -193 -209 -209 -209 -209 -209 -209 -209 -209 -209 -209 -209 -209 -193 -193 -193 -193 -193 -209 -193 -193 0 -209 -193 -209 -209 -209 -209 -209 -209 -209 -209 -209 -209 -209 -209 -209 -209 -209 -209 -209 -209 -209 -209 -209 -193 -193 -193 -193 130 -193 -193 -193 127 -193 -209 128 -209 -209 -193 36 39 41 42 43 42 43 42 45 47 47 -193 -209 -209 -209 54 55 55 55 56 56 57 57 58 58 62 62 62 63 68 65 65 68 66 64 67 70 68 66 69 69 68 72 73 74 72 75 78 78 78 78 80 81 82 84 85 86 87 88 90 91 91 91 92 93 94 95 96 98 101 103 109 108 108 108 110 109 108 108 108 108 109 109 109 108 108 116 121 121 121 121 130 126 126 126 126 128 126 126 125 122 123 125 126 126 0 0 0 0 0
    0 0 0 0 0 0 0 0 0 0 0 0 0 0 0 0 0 0 0 0 0 0 0 0 0 0 0 0 0 0 0 0 0 0 0 0 0 0 0 0 0 0 0 0 0 0 0 0 0 0 0 0 0 0 0 0 0 0 0 0 0 0 0 0 0 0 0 0 0 64 64 62 61 60 60 62 63 62 62 60 60 56 56 56 55 55 55 55 55 53 54 52 51 52 51 51 51 48 49 47 48 49 47 47 46 45 45 45 45 43 40 40 39 38 38 38 37 37 37 37 37 36 36 35 34 31 29 28 26 25 24 23 24 23 22 22 22 21 20 20 20 18 16 19 19 18 20 19 18 -193 -209 -209 -193 -209 -193 -209 -209 -209 -209 -209 -209 -209 -209 -193 -193 -209 -209 -209 -209 -193 -193 0 0 -209 -209 -209 -209 -209 -209 -209 -209 -209 -209 -209 -209 -209 -209 -209 -209 -209 -209 -209 -209 -209 -209 -193 0 0 -193 -209 -209 -193 126 126 -193 -209 -209 -209 35 34 35 38 40 42 42 42 43 43 45 46 46 -209 -209 -209 54 53 54 54 54 55 55 56 56 57 57 61 61 61 62 67 63 64 67 65 64 67 69 68 66 69 69 68 73 74 74 72 75 78 78 79 78 80 81 84 84 85 86 87 88 90 90 90 91 91 92 93 94 95 98 101 103 109 107 108 108 111 110 109 109 109 108 110 110 109 108 109 116 121 121 121 121 130 126 125 126 126 128 126 126 125 122 124 126 127 127 0 0 0 0 0
    0 0 0 0 0 0 0 0 0 0 0 0 0 0 0 0 0 0 0 0 0 0 0 0 0 0 0 0 0 0 0 0 0 0 0 0 0 0 0 0 0 0 0 0 0 0 0 0 0 0 0 0 0 0 0 0 0 0 0 0 0 0 0 0 0 0 0 0 0 63 63 62 60 59 60 61 62 62 61 59 60 56 56 56 55 56 56 55 56 54 55 53 52 52 51 51 51 48 49 47 48 48 47 47 46 45 45 45 45 43 41 40 39 39 38 38 37 37 37 37 36 36 35 34 33 32 29 29 27 27 26 24 24 24 22 23 22 22 20 20 20 19 18 20 19 19 19 20 19 17 12 -193 -209 -193 -193 -209 -209 -209 -209 -209 -209 -209 -209 -193 -209 -209 -209 -209 -193 -209 -209 9 11 -209 -209 -209 -209 -209 132 -209 -209 -209 -209 -209 -209 -209 -209 -209 -209 -193 -209 -209 -193 -209 -209 -193 0 0 0 -209 -209 -209 -209 -209 -209 -209 -209 -209 35 35 37 38 40 42 41 42 43 44 45 45 46 -209 -209 51 54 54 54 54 54 55 55 56 56 57 56 60 60 60 60 65 62 62 66 64 63 66 69 68 65 69 69 68 73 74 74 72 76 79 79 79 79 81 83 84 85 86 86 88 89 89 90 90 90 91 92 93 94 95 98 100 103 108 107 107 108 112 110 109 109 109 108 111 110 110 108 109 116 122 121 121 122 130 126 125 126 126 128 126 126 125 122 124 126 128 127 0 0 0 0 0
    0 0 0 0 0 0 0 0 0 0 0 0 0 0 0 0 0 0 0 0 0 0 0 0 0 0 0 0 0 0 0 0 0 0 0 0 0 0 0 0 0 0 0 0 0 0 0 0 0 0 0 0 0 0 0 0 0 0 0 0 0 0 0 0 0 0 0 0 0 63 63 62 60 60 60 60 61 61 60 59 59 56 56 56 55 56 56 56 56 54 55 53 52 52 51 50 51 48 48 46 47 48 46 46 46 45 45 45 45 44 42 41 40 39 38 37 37 37 37 36 36 35 35 33 32 31 30 29 27 27 27 25 24 25 22 23 23 22 20 20 20 20 19 20 20 19 18 21 20 19 14 11 11 10 13 -209 -209 -209 -209 -209 -209 -209 -209 -193 -209 -209 -209 -209 -209 -209 -209 11 17 0 13 -209 -209 -209 131 -193 -193 -209 -209 -209 -209 -209 -209 -209 -209 9 -209 -209 12 -193 -193 9 0 0 0 -209 -209 -209 -209 -209 -209 -209 -209 37 36 37 39 40 42 43 42 43 45 45 46 45 46 48 47 51 52 52 53 53 53 54 55 56 56 57 56 59 59 59 59 63 61 61 64 64 63 66 68 68 65 69 70 68 73 73 74 73 77 81 80 81 81 82 84 85 85 86 86 87 88 89 89 89 90 91 91 92 94 96 97 100 103 109 107 107 108 113 110 110 110 110 109 112 111 111 108 110 116 122 121 121 122 129 125 125 125 125 127 125 126 125 122 124 126 128 127 0 0 0 0 0
    0 0 0 0 0 0 0 0 0 0 0 0 0 0 0 0 0 0 0 0 0 0 0 0 0 0 0 0 0 0 0 0 0 0 0 0 0 0 0 0 0 0 0 0 0 0 0 0 0 0 0 0 0 0 0 0 0 0 0 0 0 0 0 0 0 0 0 0 0 63 63 62 61 61 61 60 60 60 60 59 59 56 56 56 56 56 56 56 56 54 55 53 52 52 51 50 50 48 48 46 47 47 46 46 45 44 44 45 45 44 42 42 40 39 38 38 37 37 36 36 36 35 35 33 32 31 30 29 28 28 28 26 25 26 23 23 24 23 21 21 21 21 21 21 21 19 19 20 21 19 15 11 12 10 13 -193 -209 -209 22 -209 -209 -209 -209 -225 -225 -209 -193 -193 -193 -209 -209 10 -193 9 12 12 -193 -193 -193 -193 132 -209 -209 -209 -209 -209 -209 -209 -209 9 -209 -193 11 -193 -193 10 -193 0 -209 -209 -209 -209 -209 -209 -209 -209 -209 38 37 38 40 40 41 42 41 43 44 44 45 45 47 47 48 52 53 52 53 53 53 53 55 56 56 57 56 58 58 58 58 61 60 60 63 63 64 67 69 68 66 70 71 69 73 74 74 73 77 79 80 80 81 82 84 85 85 86 86 87 87 89 89 89 90 91 92 93 94 95 95 98 102 110 108 107 108 114 110 111 110 111 109 112 111 111 108 110 115 122 121 121 121 128 125 125 125 125 126 125 125 125 122 124 125 127 126 0 0 0 0 0
    0 0 0 0 0 0 0 0 0 0 0 0 0 0 0 0 0 0 0 0 0 0 0 0 0 0 0 0 0 0 0 0 0 0 0 0 0 0 0 0 0 0 0 0 0 0 0 0 0 0 0 0 0 0 0 0 0 0 0 0 0 0 0 0 0 0 0 0 0 63 63 61 61 61 61 60 60 60 60 59 59 56 56 56 56 56 56 56 56 54 55 53 52 52 51 50 50 48 47 46 47 47 45 46 45 44 44 44 45 44 42 43 41 40 38 38 37 37 36 36 36 35 35 33 32 31 31 30 29 28 28 26 26 27 24 24 25 23 22 21 21 21 21 21 20 19 18 19 21 19 16 11 13 11 15 -193 -209 -225 -225 -225 -225 -225 -225 -225 -225 -225 -225 -225 -225 -225 -209 0 -193 0 12 12 11 10 -193 -193 132 12 -209 -209 -209 -209 -209 -209 -193 -193 -209 -209 -193 -209 -209 0 -193 0 -209 -209 -209 -209 -209 -209 -209 -209 34 36 35 37 39 40 41 41 41 42 43 44 44 45 47 47 49 52 52 52 53 53 53 53 55 56 57 57 56 58 57 57 57 60 59 59 63 63 65 67 70 69 68 72 72 72 74 75 75 74 77 79 79 80 81 82 84 85 85 86 86 87 88 89 90 90 90 91 93 94 94 95 95 96 102 -193 107 107 108 114 110 111 111 111 109 112 111 111 107 110 114 122 122 122 -193 128 126 124 125 124 126 124 124 124 122 123 125 127 126 0 0 0 0 0
    0 0 0 0 0 0 0 0 0 0 0 0 0 0 0 0 0 0 0 0 0 0 0 0 0 0 0 0 0 0 0 0 0 0 0 0 0 0 0 0 0 0 0 0 0 0 0 0 0 0 0 0 0 0 0 0 0 0 0 0 0 0 0 0 0 0 0 0 0 62 63 61 61 61 61 60 60 60 60 59 60 57 56 56 56 56 57 57 56 54 54 52 52 51 50 49 49 48 47 46 47 47 45 46 45 44 44 44 44 44 42 43 41 40 38 38 37 36 36 36 36 35 35 33 32 31 31 30 29 28 28 27 27 28 25 25 26 24 23 21 21 22 22 21 20 18 17 17 20 19 16 11 14 13 16 -193 -225 -225 -225 -225 -225 -225 -225 -225 -225 -225 -225 -225 -225 -225 -225 -225 -225 0 11 -225 10 10 -193 -225 -225 15 18 -193 -193 -209 -209 14 -193 10 -209 -193 -209 -209 -209 0 0 0 0 0 -209 -209 -209 -209 -209 -209 33 35 35 36 38 39 40 40 40 42 43 43 44 45 46 48 50 53 53 53 53 53 53 54 56 56 57 56 55 56 -209 57 57 59 58 58 62 63 65 68 70 70 69 73 73 73 75 76 75 75 78 79 78 80 81 82 84 85 85 86 86 87 88 89 90 90 91 93 94 94 95 95 95 96 101 -193 107 107 107 114 110 112 111 111 109 112 111 111 107 110 114 122 122 122 122 127 -193 124 124 124 125 124 124 124 122 123 124 127 126 0 0 0 0 0
    0 0 0 0 0 0 0 0 0 0 0 0 0 0 0 0 0 0 0 0 0 0 0 0 0 0 0 0 0 0 0 0 0 0 0 0 0 0 0 0 0 0 0 0 0 0 0 0 0 0 0 0 0 0 0 0 0 0 0 0 0 0 0 0 0 0 0 0 0 62 63 60 60 61 60 60 60 60 60 60 61 58 57 58 58 58 58 57 56 54 54 52 51 51 50 49 49 48 47 46 47 47 45 46 45 44 44 44 44 43 42 43 41 41 38 37 37 36 36 36 36 35 35 33 32 31 31 30 30 29 28 27 27 28 27 26 27 25 23 22 22 22 22 21 20 18 17 16 20 20 17 11 -225 -225 -225 -225 -225 -225 -225 -225 -225 -225 -225 -225 -225 -225 -225 -225 -225 -225 -225 -225 -225 -225 -225 -225 -225 -225 -225 -225 -225 -225 -225 -225 -225 -225 -225 -225 -193 -193 -225 -225 -225 -225 -225 0 0 0 0 0 -209 -209 -193 310 -209 32 32 34 35 36 37 39 39 40 40 41 42 42 43 45 45 48 49 52 52 52 53 53 53 54 57 58 58 57 55 56 -209 56 56 58 58 58 62 64 66 68 71 70 70 73 74 74 74 76 74 75 78 78 78 80 81 83 84 85 85 86 87 87 88 89 90 90 91 94 95 95 95 96 96 96 101 -193 106 106 107 113 110 111 110 111 109 112 111 111 107 110 113 122 122 122 122 126 -193 124 124 124 125 124 124 124 123 123 124 127 125 0 0 0 0 0
    0 0 0 0 0 0 0 0 0 0 0 0 0 0 0 0 0 0 0 0 0 0 0 0 0 0 0 0 0 0 0 0 0 0 0 0 0 0 0 0 0 0 0 0 0 0 0 0 0 0 0 0 0 0 0 0 0 0 0 0 0 0 0 0 0 0 0 0 0 61 62 60 60 61 60 59 60 60 60 60 61 59 57 59 59 59 58 58 56 54 54 52 51 50 50 49 49 48 47 46 46 47 45 46 45 44 44 44 43 43 42 42 41 41 38 37 37 37 36 35 36 35 35 34 32 32 31 30 30 29 28 27 27 27 26 26 27 25 24 22 22 22 22 21 21 19 17 16 21 21 20 -225 -225 -225 -225 -225 -225 -225 -225 -225 -225 -225 -225 -225 -225 -225 -225 -225 -225 -225 -225 -225 -225 -225 -225 -225 -225 -225 -225 -225 -225 -225 -225 -225 -225 -225 -225 -225 -225 -225 -225 -225 -225 -225 -225 -225 -225 -225 -225 0 -193 -209 -209 -209 -209 35 33 35 36 36 37 39 39 40 40 41 42 42 43 45 45 48 48 51 51 51 52 52 52 54 56 57 57 -193 -193 56 -209 55 56 58 57 58 62 65 67 69 71 71 70 74 74 74 74 75 73 75 77 77 77 79 81 82 84 85 85 85 86 86 87 88 88 89 91 93 94 94 94 96 95 97 100 -193 105 105 106 112 109 111 110 110 109 111 111 111 107 109 111 121 122 122 122 -193 -193 125 125 125 125 125 124 124 123 123 125 127 126 0 0 0 0 0
    0 0 0 0 0 0 0 0 0 0 0 0 0 0 0 0 0 0 0 0 0 0 0 0 0 0 0 0 0 0 0 0 0 0 0 0 0 0 0 0 0 0 0 0 0 0 0 0 0 0 0 0 0 0 0 0 0 0 0 0 0 0 0 0 0 0 0 0 0 61 62 60 60 62 61 60 61 60 61 60 60 59 57 59 59 59 59 58 56 54 54 51 51 50 50 49 48 48 47 46 47 48 46 46 45 44 44 43 43 43 42 42 41 41 38 37 36 36 36 35 35 35 34 34 32 32 31 30 30 29 28 27 26 27 26 26 27 26 24 23 22 22 22 22 21 19 16 14 19 21 20 -225 -225 -225 -225 -225 -225 -225 -225 -225 -225 -225 -225 -225 -225 -225 -225 -225 -225 -225 -225 -225 -225 -225 -225 -225 -225 -225 -225 -225 -225 -225 -225 -225 -225 -225 -225 -225 -225 -225 -225 -225 -225 -225 -225 -225 -225 -225 -225 -225 -225 -225 -209 -209 38 37 35 37 37 37 38 38 38 39 39 40 40 41 42 45 45 48 48 50 50 50 51 51 51 53 56 -193 57 -209 -193 -193 -209 55 56 58 58 58 62 66 68 70 72 72 -193 74 74 74 74 74 73 74 76 77 76 78 81 82 83 84 84 84 86 86 86 87 88 90 91 92 93 94 94 95 96 98 100 105 105 106 106 112 109 111 110 110 109 111 111 110 107 109 109 121 122 122 -193 -193 -193 125 125 125 125 126 125 125 124 123 125 127 126 0 0 0 0 0
    0 0 0 0 0 0 0 0 0 0 0 0 0 0 0 0 0 0 0 0 0 0 0 0 0 0 0 0 0 0 0 0 0 0 0 0 0 0 0 0 0 0 0 0 0 0 0 0 0 0 0 0 0 0 0 0 0 0 0 0 0 0 0 0 0 0 0 0 0 62 63 62 62 63 63 61 62 61 61 61 59 58 57 58 57 58 58 58 56 54 54 51 51 50 49 49 48 48 48 47 47 48 46 47 45 44 44 43 43 43 42 42 41 41 38 37 36 36 36 35 35 34 34 33 32 32 31 30 30 28 27 26 26 26 25 25 26 25 25 23 22 22 23 22 21 19 16 13 17 20 20 -225 -225 -225 -225 -225 -225 -225 -225 -225 -225 -225 -225 -225 -225 -225 -225 -225 -225 -225 -225 -225 -225 -225 -225 -225 -225 -225 -225 -225 -225 -225 -225 -225 -225 -225 -225 -225 -225 -225 -225 -225 -225 -225 -225 -225 -225 -225 -225 -225 -225 -225 -225 -225 37 37 37 38 38 37 38 39 39 39 39 39 39 40 41 46 44 49 48 50 50 50 52 51 51 53 55 -193 58 -209 -193 -209 -209 -209 -193 59 58 58 63 67 69 71 73 73 -193 75 75 74 73 74 73 74 76 76 75 78 81 82 83 83 84 84 85 85 85 86 88 90 92 93 94 94 94 96 96 98 100 105 105 106 106 112 109 111 110 110 109 110 111 110 106 109 108 120 123 122 -193 -193 -193 126 126 126 125 127 125 126 125 123 125 127 127 0 0 0 0 0
    0 0 0 0 0 0 0 0 0 0 0 0 0 0 0 0 0 0 0 0 0 0 0 0 0 0 0 0 0 0 0 0 0 0 0 0 0 0 0 0 0 0 0 0 0 0 0 0 0 0 0 0 0 0 0 0 0 0 0 0 0 0 0 0 0 0 0 0 0 64 64 63 64 65 64 63 63 62 61 61 59 58 56 57 56 57 57 57 55 54 53 50 50 50 49 49 48 47 48 47 47 48 46 48 45 44 44 43 43 43 42 41 41 41 38 36 36 36 36 35 35 34 34 33 32 32 31 30 30 28 27 26 24 25 24 24 25 25 25 24 23 23 23 22 21 19 16 12 14 18 18 -225 -225 -225 -225 -225 -225 -225 -225 -225 -225 -225 -225 -225 -225 -225 -225 -225 -225 -225 -225 -225 -225 -225 -225 -225 -225 -225 -225 -225 -225 -225 -225 -225 -225 -225 -225 -225 -225 -225 -225 -225 -225 -225 -225 -225 -225 -225 -225 -225 -225 -225 -225 -225 37 36 37 38 38 37 38 39 39 40 39 39 39 40 41 47 44 49 48 50 50 50 51 51 50 52 54 -193 -193 -209 -209 -209 -209 -209 -193 60 59 59 64 68 69 71 73 73 73 75 75 75 73 74 73 74 75 75 75 78 80 82 82 83 83 83 84 84 83 86 87 90 92 94 95 95 94 96 97 98 100 104 105 105 106 111 109 111 109 109 108 110 110 110 106 109 108 120 123 122 -193 -193 131 127 127 126 126 128 126 126 125 124 126 128 127 0 0 0 0 0
    0 0 0 0 0 0 0 0 0 0 0 0 0 0 0 0 0 0 0 0 0 0 0 0 0 0 0 0 0 0 0 0 0 0 0 0 0 0 0 0 0 0 0 0 0 0 0 0 0 0 0 0 0 0 0 0 0 0 0 0 0 0 0 0 0 0 0 0 0 66 65 65 65 66 65 64 64 63 62 62 60 58 57 57 56 56 56 56 55 53 53 50 50 50 49 49 48 47 48 47 48 49 47 48 45 44 44 43 43 43 41 41 39 41 37 37 35 36 36 35 35 34 34 34 32 32 31 30 29 28 26 25 23 24 23 23 24 24 25 24 23 23 23 22 22 19 17 12 14 17 19 13 -225 -225 -225 -225 -225 -225 -225 -225 -225 -225 -225 -225 -225 -225 -225 -225 -225 -225 -225 -225 -225 -225 -225 -225 -225 -225 -225 -225 -225 -225 -225 -225 -225 -225 -225 -225 -225 -225 -225 -225 -225 -225 -225 -225 -225 -225 -225 -225 -225 -225 -225 -225 37 36 36 37 38 37 37 38 39 40 39 39 39 40 41 47 44 49 49 50 50 51 52 51 51 53 54 -193 -193 -209 -209 -209 -209 -177 -193 62 60 60 65 69 69 71 74 74 74 75 75 75 73 74 73 73 74 75 74 77 80 80 81 81 82 82 83 82 83 86 88 92 94 96 96 96 95 97 98 99 100 103 104 104 105 111 108 110 109 109 108 109 110 109 106 108 107 119 124 123 -193 -193 132 127 127 127 127 129 126 127 126 124 126 128 128 0 0 0 0 0
    0 0 0 0 0 0 0 0 0 0 0 0 0 0 0 0 0 0 0 0 0 0 0 0 0 0 0 0 0 0 0 0 0 0 0 0 0 0 0 0 0 0 0 0 0 0 0 0 0 0 0 0 0 0 0 0 0 0 0 0 0 0 0 0 0 0 0 0 0 67 66 65 65 66 66 65 65 63 61 62 60 58 57 57 56 56 56 56 54 53 53 51 50 50 49 49 48 48 48 47 48 49 47 48 45 44 44 43 42 42 41 41 39 40 37 37 35 36 36 34 35 34 34 33 32 32 31 30 29 27 25 24 23 23 23 23 23 24 25 24 23 22 22 22 22 20 17 13 14 17 19 15 -225 -225 -225 -225 -225 -225 -225 -225 -225 -225 -225 -225 -225 -225 -225 -225 -225 -225 -225 -225 -225 -225 -225 -225 -225 -225 -225 -225 -225 -225 -225 -225 -225 -225 -225 -225 -225 -225 -225 -225 -225 -225 -225 -225 -225 -225 -225 -225 -225 -225 -225 37 36 35 36 37 37 37 37 39 39 40 40 41 41 43 44 50 45 50 49 49 49 50 51 51 50 53 53 -193 57 -209 -209 -209 -209 -177 -193 65 61 61 65 70 69 71 74 -193 -193 75 74 74 72 73 73 73 74 75 74 77 79 80 80 80 81 81 82 82 83 85 87 91 94 95 96 97 96 98 98 99 100 103 103 104 105 110 108 109 108 108 108 108 109 109 106 107 107 119 125 123 -193 -193 132 128 128 128 127 130 127 128 127 124 127 129 129 0 0 0 0 0
    0 0 0 0 0 0 0 0 0 0 0 0 0 0 0 0 0 0 0 0 0 0 0 0 0 0 0 0 0 0 0 0 0 0 0 0 0 0 0 0 0 0 0 0 0 0 0 0 0 0 0 0 0 0 0 0 0 0 0 0 0 0 0 0 0 0 0 0 0 68 66 66 66 65 65 64 64 62 60 61 59 57 57 57 56 56 56 56 54 52 53 50 50 50 49 49 48 47 48 47 48 49 47 48 45 44 44 43 42 43 41 41 39 41 39 38 36 36 35 34 34 34 33 33 32 32 31 30 29 27 25 24 23 23 23 22 23 24 24 24 23 22 22 23 23 20 17 13 14 17 19 16 -225 -225 -225 -225 -225 -225 -225 -225 -225 -225 -225 -225 -225 -225 -225 -225 -225 -225 -225 -225 -225 -225 -225 -225 -225 -225 -225 -225 -225 -225 -225 -225 -225 -225 -225 -225 -225 -225 -225 -225 -225 -225 -225 -225 -225 -225 -225 -225 -225 -225 -225 37 35 36 36 37 37 36 36 38 39 40 41 42 42 45 45 50 45 50 49 49 49 50 51 50 50 53 53 55 -193 -177 -209 -209 -209 -177 -193 67 63 62 66 70 70 71 73 -193 -209 73 -209 -209 71 72 72 71 74 74 73 76 78 80 81 80 81 81 83 82 83 85 86 90 92 94 95 97 96 98 99 100 100 103 104 104 105 109 107 108 108 108 107 108 109 108 105 107 108 118 125 123 123 -193 132 128 128 129 127 130 128 129 127 125 128 129 130 0 0 0 0 0
    0 0 0 0 0 0 0 0 0 0 0 0 0 0 0 0 0 0 0 0 0 0 0 0 0 0 0 0 0 0 0 0 0 0 0 0 0 0 0 0 0 0 0 0 0 0 0 0 0 0 0 0 0 0 0 0 0 0 0 0 0 0 0 0 0 0 0 0 0 68 66 66 66 65 65 64 64 61 60 60 58 57 57 56 55 56 55 55 54 52 53 50 50 50 49 49 48 47 48 47 47 49 47 48 45 44 44 43 42 43 41 41 40 41 40 40 38 38 36 35 35 34 34 33 32 32 30 29 28 27 25 24 23 22 22 22 23 23 24 24 23 22 23 24 23 20 18 13 14 17 19 17 -225 -225 -225 -225 -225 -225 -225 -225 -225 -225 -225 -225 -225 -225 -225 -225 -225 -225 -225 -225 -225 -225 -225 -225 -225 -225 -225 -225 -225 -225 -225 -225 -225 -225 -225 -225 -225 -225 -225 -225 -225 -225 -225 -225 -225 -225 -225 -225 -225 -225 -225 36 35 35 35 36 36 36 36 38 39 41 42 44 43 47 46 50 46 49 49 48 48 49 51 50 50 52 52 54 -193 -177 -193 -209 -209 -209 -193 68 65 64 66 70 69 71 72 72 -193 72 -193 72 69 72 72 71 73 74 73 76 77 79 80 80 81 81 83 82 83 85 87 89 92 94 96 98 97 99 99 101 101 103 104 105 105 109 107 108 107 107 107 107 108 108 105 107 108 117 124 123 123 -193 132 128 129 129 128 131 128 129 128 125 128 129 130 0 0 0 0 0
    0 0 0 0 0 0 0 0 0 0 0 0 0 0 0 0 0 0 0 0 0 0 0 0 0 0 0 0 0 0 0 0 0 0 0 0 0 0 0 0 0 0 0 0 0 0 0 0 0 0 0 0 0 0 0 0 0 0 0 0 0 0 0 0 0 0 0 0 0 67 65 66 66 66 66 64 64 60 59 60 57 56 56 56 55 55 55 54 54 52 53 50 50 50 49 49 49 47 48 47 47 48 47 48 45 44 44 43 43 43 41 42 40 41 41 41 39 38 36 36 35 34 33 33 32 32 30 29 28 27 25 24 23 22 21 21 23 22 23 23 22 22 22 24 23 19 18 13 13 16 17 17 -225 -225 -225 -225 -225 -225 -225 -225 -225 -225 -225 -225 -225 -225 -225 -225 -225 -225 -225 -225 -225 -225 -225 -225 -225 -225 -225 -225 -225 -225 -225 -225 -225 -225 -225 -225 -225 -225 -225 -225 -225 -225 -225 -225 -225 -225 -225 -225 -225 -225 36 35 35 35 35 36 36 35 36 37 38 40 43 44 43 49 46 50 47 49 50 48 49 49 51 49 50 52 52 53 -193 -193 -193 -209 60 -193 62 68 66 65 66 69 68 70 72 71 71 72 -193 71 70 72 73 71 73 73 73 75 77 79 80 79 81 82 83 84 85 86 87 90 92 94 95 96 96 98 99 100 101 103 104 105 105 109 106 106 106 106 106 106 107 106 102 106 108 117 123 122 122 -193 132 128 128 129 128 131 128 129 128 125 128 130 131 0 0 0 0 0
    0 0 0 0 0 0 0 0 0 0 0 0 0 0 0 0 0 0 0 0 0 0 0 0 0 0 0 0 0 0 0 0 0 0 0 0 0 0 0 0 0 0 0 0 0 0 0 0 0 0 0 0 0 0 0 0 0 0 0 0 0 0 0 0 0 0 0 0 0 66 64 66 66 66 66 64 63 60 59 59 57 56 56 56 55 55 55 54 54 52 53 51 50 50 49 49 49 48 48 47 47 48 47 48 45 44 44 44 43 43 42 42 41 41 41 41 41 39 36 36 34 34 33 32 32 32 30 29 28 27 25 24 23 22 20 21 22 22 23 22 22 22 21 24 23 18 17 12 13 15 17 17 -225 -225 -225 -225 -225 -225 -225 -225 -225 -225 -225 -225 -225 -225 -225 -225 -225 -225 -225 -225 -225 -225 -225 -225 -225 -225 -225 -225 -225 -225 -225 -225 -225 -225 -225 -225 -225 -225 -225 -225 -225 -225 -225 -225 -225 -225 -225 -225 -225 -225 36 34 35 35 35 36 35 35 35 36 38 40 43 44 44 50 46 50 48 49 50 49 49 50 51 50 50 51 52 53 -193 -209 -193 -209 60 62 62 67 66 65 65 69 67 69 71 71 71 71 72 72 70 73 74 71 72 72 72 75 76 78 79 80 83 83 85 85 85 86 87 91 93 95 95 95 96 98 99 100 100 103 105 105 106 109 106 106 106 106 106 105 106 106 100 106 109 116 123 122 122 -193 132 128 128 128 128 131 128 130 129 125 128 129 131 0 0 0 0 0
    0 0 0 0 0 0 0 0 0 0 0 0 0 0 0 0 0 0 0 0 0 0 0 0 0 0 0 0 0 0 0 0 0 0 0 0 0 0 0 0 0 0 0 0 0 0 0 0 0 0 0 0 0 0 0 0 0 0 0 0 0 0 0 0 0 0 0 0 0 66 64 65 66 65 65 64 63 60 58 58 57 55 55 56 55 55 55 54 54 53 53 51 50 50 49 49 49 48 48 47 47 48 47 48 45 44 44 44 43 43 42 42 41 41 41 41 41 39 36 36 34 34 33 32 31 32 30 29 28 28 26 24 23 22 20 21 22 22 22 21 21 21 20 23 23 17 17 12 14 15 17 17 15 -225 -225 -225 -225 -225 -225 -225 -225 -225 -225 -225 -225 -225 -225 -225 -225 -225 -225 -225 -225 -225 -225 -225 -225 -225 -225 -225 -225 -225 -225 -225 -225 -225 -225 -225 -225 -225 -225 -225 -225 -225 -225 -225 -225 -225 -225 -225 -225 -225 35 34 35 35 34 35 34 34 35 36 39 41 43 45 45 51 47 50 48 49 51 49 50 50 51 50 50 51 52 53 56 -209 -193 -209 59 62 62 66 65 64 64 68 66 68 69 70 70 70 71 71 70 73 74 72 72 72 72 75 76 77 79 82 83 84 85 85 85 86 88 91 93 96 95 96 96 97 98 99 99 102 104 105 105 109 105 105 105 105 105 105 106 105 100 106 110 116 122 122 122 -193 131 127 127 128 128 131 128 129 129 125 128 129 130 0 0 0 0 0
    0 0 0 0 0 0 0 0 0 0 0 0 0 0 0 0 0 0 0 0 0 0 0 0 0 0 0 0 0 0 0 0 0 0 0 0 0 0 0 0 0 0 0 0 0 0 0 0 0 0 0 0 0 0 0 0 0 0 0 0 0 0 0 0 0 0 0 0 0 66 64 64 65 64 64 63 62 59 58 58 57 56 56 56 56 55 55 55 55 53 54 51 51 50 50 50 49 48 48 47 47 48 46 48 45 44 44 43 43 43 42 42 41 41 41 41 41 39 36 37 33 34 33 32 32 32 30 30 29 28 27 24 23 23 20 21 23 22 22 20 21 21 20 23 23 17 17 13 16 16 17 17 16 -225 -225 -225 -225 -225 -225 -225 -225 -225 -225 -225 -225 -225 -225 -225 -225 -225 -225 -225 -225 -225 -225 -225 -225 -225 -225 -225 -225 -225 -225 -225 -225 -225 -225 -225 -225 -225 -225 -225 -225 -225 -225 -225 -225 -225 -225 -225 -225 36 34 34 35 34 33 34 33 34 34 36 38 41 44 46 45 51 47 50 49 49 51 50 50 51 51 51 51 52 53 53 56 56 -193 -209 59 62 61 66 65 65 64 68 65 67 68 69 69 69 70 71 69 73 74 73 72 73 73 75 75 76 79 80 83 84 84 84 85 86 88 90 93 95 94 95 96 96 97 99 99 102 104 105 105 108 105 105 106 105 106 105 106 106 101 107 110 115 122 121 121 -193 130 127 127 128 127 130 128 129 129 125 128 129 130 0 0 0 0 0
    0 0 0 0 0 0 0 0 0 0 0 0 0 0 0 0 0 0 0 0 0 0 0 0 0 0 0 0 0 0 0 0 0 0 0 0 0 0 0 0 0 0 0 0 0 0 0 0 0 0 0 0 0 0 0 0 0 0 0 0 0 0 0 0 0 0 0 0 0 65 64 63 64 63 62 62 62 59 58 57 57 56 56 56 56 56 56 55 55 54 54 52 51 51 51 50 50 48 48 47 47 48 47 48 45 44 43 43 43 43 41 42 41 41 41 41 41 39 35 38 33 34 34 32 32 32 31 30 29 29 28 25 23 23 20 21 23 22 22 20 21 21 20 22 22 16 17 13 16 17 18 18 17 -225 -225 -225 -225 -225 -225 -225 -225 -225 -225 -225 -225 -225 -225 -225 -225 -225 -225 -225 -225 -225 -225 -225 -225 -225 -225 -225 -225 -225 -225 -225 -225 -225 -225 -225 -225 -225 -225 -225 -225 -225 -225 -225 -225 -225 -225 -225 -225 35 33 35 35 34 33 33 33 33 34 36 37 40 45 47 45 50 47 49 49 49 51 50 50 50 51 50 51 51 53 53 55 56 56 -193 59 62 61 65 65 64 64 67 65 66 67 69 68 68 70 70 69 73 74 73 72 73 74 75 74 76 79 80 83 85 86 85 87 87 88 90 92 93 92 93 94 95 96 99 99 102 105 105 106 108 104 105 106 106 106 105 106 106 105 107 109 113 121 121 121 -193 129 126 126 127 127 130 128 129 129 126 128 129 130 0 0 0 0 0
    0 0 0 0 0 0 0 0 0 0 0 0 0 0 0 0 0 0 0 0 0 0 0 0 0 0 0 0 0 0 0 0 0 0 0 0 0 0 0 0 0 0 0 0 0 0 0 0 0 0 0 0 0 0 0 0 0 0 0 0 0 0 0 0 0 0 0 0 0 64 63 62 63 62 62 61 61 59 58 57 56 56 56 57 56 57 56 55 56 54 54 52 52 51 51 51 51 49 48 47 48 49 47 48 45 44 44 43 43 43 41 42 41 41 41 41 41 40 35 39 34 35 34 32 32 32 31 30 30 29 28 25 24 23 21 21 23 22 22 20 21 21 19 21 21 15 17 13 15 17 17 17 17 -225 -225 -225 -225 -225 -225 -225 -225 -225 -225 -225 -225 -225 -225 -225 -225 -225 -225 -225 -225 -225 -225 -225 -225 -225 -225 -225 -225 -225 -225 -225 -225 -225 -225 -225 -225 -225 -225 -225 -225 -225 -225 -225 -225 -225 -225 -225 36 34 33 35 35 34 33 33 33 32 34 35 37 40 44 46 45 50 47 49 49 48 50 49 49 50 50 50 50 50 52 53 55 56 56 56 60 62 62 65 66 64 64 67 65 65 67 69 69 67 -193 71 70 74 75 75 72 73 74 75 73 77 81 84 86 87 87 87 88 88 88 90 90 91 91 92 93 94 94 98 99 102 107 106 106 108 104 105 107 106 106 105 107 106 106 108 110 112 -193 120 120 -193 128 126 126 126 126 129 128 129 129 126 127 129 130 0 0 0 0 0
    0 0 0 0 0 0 0 0 0 0 0 0 0 0 0 0 0 0 0 0 0 0 0 0 0 0 0 0 0 0 0 0 0 0 0 0 0 0 0 0 0 0 0 0 0 0 0 0 0 0 0 0 0 0 0 0 0 0 0 0 0 0 0 0 0 0 0 0 0 63 62 62 63 62 61 61 60 59 58 56 56 56 55 57 57 57 57 56 56 54 54 52 52 51 51 52 51 50 49 48 48 50 47 48 45 44 44 43 43 44 41 42 41 41 41 41 40 39 36 38 34 35 35 33 32 32 31 30 30 29 29 25 24 24 22 22 23 21 22 20 20 20 19 20 21 15 17 13 14 16 16 16 16 -225 -225 -225 -225 -225 -225 -225 -225 -225 -225 -225 -225 -225 -225 -225 -225 -225 -225 -225 -225 -225 -225 -225 -225 -225 -225 -225 -225 -225 -225 -225 -225 -225 -225 -225 -225 -225 -225 -225 -225 -225 -225 -225 -225 -225 -225 -225 35 33 34 35 34 34 33 33 33 33 36 36 38 41 44 46 45 49 47 48 49 48 49 50 49 50 50 50 51 50 53 53 55 56 56 57 60 62 62 64 66 64 64 67 65 65 67 70 70 68 -193 72 72 75 76 76 73 75 75 76 74 77 83 85 87 88 88 87 88 88 88 89 89 90 90 91 93 93 93 96 97 102 109 106 106 107 104 106 107 107 107 106 107 107 107 108 110 112 120 119 119 119 126 125 125 125 125 128 128 129 128 126 127 128 130 0 0 0 0 0
    0 0 0 0 0 0 0 0 0 0 0 0 0 0 0 0 0 0 0 0 0 0 0 0 0 0 0 0 0 0 0 0 0 0 0 0 0 0 0 0 0 0 0 0 0 0 0 0 0 0 0 0 0 0 0 0 0 0 0 0 0 0 0 0 0 0 0 0 0 62 62 62 63 62 61 61 61 60 58 56 55 56 55 57 57 57 57 56 56 54 54 53 52 52 52 52 52 50 50 48 48 50 47 48 45 44 43 43 43 43 41 42 41 41 40 41 40 39 36 38 33 35 35 33 32 33 31 30 30 30 29 25 25 24 22 22 23 21 21 20 20 20 18 20 20 14 17 14 13 16 16 16 16 -225 -225 -225 -225 -225 -225 -225 -225 -225 -225 -225 -225 -225 -225 -225 -225 -225 -225 -225 -225 -225 -225 -225 -225 -225 -225 -225 -225 -225 -225 -225 -225 -225 -225 -225 -225 -225 -225 -225 -225 -225 -225 -225 -225 -225 -225 -225 35 33 34 34 34 34 32 33 34 34 36 36 39 42 44 46 45 49 47 48 50 48 49 50 48 50 50 50 51 50 53 54 55 56 57 57 60 62 62 63 66 64 64 67 65 65 67 70 70 69 -193 73 73 76 78 77 73 75 76 77 75 77 83 85 88 89 90 88 89 88 89 90 89 90 90 91 93 92 92 95 95 102 -193 106 106 106 104 106 108 107 107 106 107 107 107 108 110 111 120 118 118 119 -193 125 124 125 125 128 128 128 128 126 126 128 130 0 0 0 0 0
    0 0 0 0 0 0 0 0 0 0 0 0 0 0 0 0 0 0 0 0 0 0 0 0 0 0 0 0 0 0 0 0 0 0 0 0 0 0 0 0 0 0 0 0 0 0 0 0 0 0 0 0 0 0 0 0 0 0 0 0 0 0 0 0 0 0 0 0 0 63 63 63 63 62 61 63 62 61 59 57 56 56 55 57 56 57 56 55 55 54 55 53 53 53 53 53 52 50 50 48 49 50 47 47 45 44 43 43 43 43 41 41 41 40 40 40 40 38 35 37 31 34 34 34 31 33 31 30 30 30 30 26 25 25 22 22 23 21 21 20 20 20 18 19 19 14 17 14 13 16 16 16 16 -225 -225 -225 -225 -225 -225 -225 -225 -225 -225 -225 -225 -225 -225 -225 -225 -225 -225 -225 -225 -225 -225 -225 -225 -225 -225 -225 -225 -225 -225 -225 -225 -225 -225 -225 -225 -225 -225 -225 -225 -225 -225 -225 -225 -225 -225 35 33 33 34 34 35 34 32 35 36 36 37 38 40 42 43 46 45 48 47 47 50 48 49 50 48 50 50 51 52 50 53 54 54 57 57 58 60 62 62 63 66 64 64 67 65 65 67 71 70 69 73 74 74 76 78 78 73 76 77 78 76 78 84 86 89 90 90 89 89 89 90 91 90 90 90 91 93 92 91 93 93 101 -209 105 105 105 104 106 107 107 107 106 107 108 107 108 110 110 119 118 118 119 -193 125 124 125 125 127 128 128 128 126 126 128 130 0 0 0 0 0
    0 0 0 0 0 0 0 0 0 0 0 0 0 0 0 0 0 0 0 0 0 0 0 0 0 0 0 0 0 0 0 0 0 0 0 0 0 0 0 0 0 0 0 0 0 0 0 0 0 0 0 0 0 0 0 0 0 0 0 0 0 0 0 0 0 0 0 0 0 63 63 63 63 62 61 63 63 63 60 57 56 56 56 57 56 56 55 55 55 54 55 53 53 53 53 53 53 51 51 49 49 50 48 48 45 44 43 43 43 43 41 41 41 40 -209 -193 -209 38 35 36 31 34 34 34 31 33 31 30 30 30 30 26 25 25 23 22 23 21 21 20 20 19 17 18 19 14 17 15 12 16 16 16 16 -225 -225 -225 -225 -225 -225 -225 -225 -225 -225 -225 -225 -225 -225 -225 -225 -225 -225 -225 -225 -225 -225 -225 -225 -225 -225 -225 -225 -225 -225 -225 -225 -225 -225 -225 -225 -225 -225 -225 -225 -225 -225 -225 -225 -225 -225 34 32 33 34 34 34 34 33 35 36 36 37 38 40 42 43 46 45 47 47 47 49 48 48 50 48 49 50 50 52 50 53 54 54 57 58 58 60 62 62 63 67 64 64 67 66 66 68 71 71 70 73 74 74 76 78 78 73 77 78 79 77 79 84 88 89 89 90 88 89 89 90 90 89 90 91 93 94 93 92 96 98 102 109 106 105 106 104 106 108 107 107 106 108 108 108 109 110 110 119 118 118 118 -193 125 124 124 124 126 129 128 128 127 126 128 130 0 0 0 0 0
    0 0 0 0 0 0 0 0 0 0 0 0 0 0 0 0 0 0 0 0 0 0 0 0 0 0 0 0 0 0 0 0 0 0 0 0 0 0 0 0 0 0 0 0 0 0 0 0 0 0 0 0 0 0 0 0 0 0 0 0 0 0 0 0 0 0 0 0 0 64 64 63 63 62 61 64 64 64 60 58 57 57 57 57 57 57 56 56 56 54 55 54 54 53 53 53 53 51 51 49 50 51 48 48 45 44 43 43 43 43 41 41 -193 40 -209 -193 -209 38 36 36 32 34 34 34 32 34 31 30 30 30 30 26 25 25 23 23 24 21 21 20 20 19 17 17 18 13 16 15 12 15 16 16 16 -225 -225 -225 -225 -225 -225 -225 -225 -225 -225 -225 -225 -225 -225 -225 -225 -225 -225 -225 -225 -225 -225 -225 -225 -225 -225 -225 -225 -225 -225 -225 -225 -225 -225 -225 -225 -225 -225 -225 -225 -225 -225 -225 -225 -225 34 33 32 32 33 34 34 33 33 36 36 36 38 38 40 42 42 46 44 46 47 47 49 47 48 50 47 49 50 50 52 50 54 54 54 57 58 58 60 61 61 62 66 63 63 67 67 67 69 71 71 70 73 74 74 75 77 77 73 77 79 80 78 79 84 87 89 89 89 87 89 88 90 90 89 90 91 94 95 93 93 97 99 103 108 105 105 105 104 107 108 108 107 107 108 108 108 109 110 110 119 117 117 118 121 125 124 124 124 125 129 128 128 127 125 128 130 0 0 0 0 0
    0 0 0 0 0 0 0 0 0 0 0 0 0 0 0 0 0 0 0 0 0 0 0 0 0 0 0 0 0 0 0 0 0 0 0 0 0 0 0 0 0 0 0 0 0 0 0 0 0 0 0 0 0 0 0 0 0 0 0 0 0 0 0 0 0 0 0 0 0 65 65 64 63 62 61 64 64 64 61 58 58 59 58 58 58 58 57 57 57 55 55 54 54 53 53 53 53 51 51 49 50 51 48 48 45 44 43 43 42 43 41 41 40 40 -193 -193 -193 38 36 36 32 34 33 35 31 33 31 29 30 29 29 27 25 25 24 23 24 21 21 20 20 19 17 16 18 13 16 15 12 15 16 16 16 -225 -225 -225 -225 -225 -225 -225 -225 -225 -225 -225 -225 -225 -225 -225 -225 -225 -225 -225 -225 -225 -225 -225 -225 -225 -225 -225 -225 -225 -225 -225 -225 -225 -225 -225 -225 -225 -225 -225 -225 -225 -225 -225 -225 -225 33 31 33 32 33 33 33 33 33 36 36 36 38 39 40 41 42 45 43 45 47 46 49 47 47 50 47 49 50 49 51 49 54 54 54 57 58 58 60 60 61 61 67 63 63 68 68 68 70 72 71 70 73 74 74 74 76 76 73 77 80 80 78 80 83 87 88 88 89 87 89 87 90 90 89 90 92 95 97 95 93 97 98 103 106 105 105 105 105 108 109 108 108 107 109 109 109 109 110 109 119 117 117 117 120 126 124 124 124 125 129 128 129 128 125 128 130 0 0 0 0 0
    0 0 0 0 0 0 0 0 0 0 0 0 0 0 0 0 0 0 0 0 0 0 0 0 0 0 0 0 0 0 0 0 0 0 0 0 0 0 0 0 0 0 0 0 0 0 0 0 0 0 0 0 0 0 0 0 0 0 0 0 0 0 0 0 0 0 0 0 0 65 66 65 64 63 62 64 65 65 62 59 59 60 59 59 59 59 57 57 57 55 55 53 53 53 53 53 52 50 51 49 49 51 47 47 45 43 43 43 42 42 41 41 40 40 -193 -193 -193 38 36 37 32 35 32 35 31 32 30 29 30 29 29 27 26 26 25 24 24 21 21 20 19 19 16 15 18 13 16 15 11 14 16 16 16 -225 -225 -225 -225 -225 -225 -225 -225 -225 -225 -225 -225 -225 -225 -225 -225 -225 -225 -225 -225 -225 -225 -225 -225 -225 -225 -225 -225 -225 -225 -225 -225 -225 -225 -225 -225 -225 -225 -225 -225 -225 -225 -225 -225 -225 33 31 33 32 33 32 32 32 32 36 35 36 37 38 39 40 41 44 43 45 47 46 49 47 47 49 47 48 49 48 51 49 54 54 54 58 59 59 60 60 60 60 67 62 63 67 69 68 70 72 71 70 73 -193 75 74 75 75 72 77 81 81 80 80 84 88 89 88 89 87 89 88 90 90 89 91 94 99 99 98 95 98 99 103 106 105 107 107 107 108 109 108 108 108 109 108 109 109 110 109 119 117 117 117 120 126 124 124 124 125 129 128 129 128 125 128 130 0 0 0 0 0
    0 0 0 0 0 0 0 0 0 0 0 0 0 0 0 0 0 0 0 0 0 0 0 0 0 0 0 0 0 0 0 0 0 0 0 0 0 0 0 0 0 0 0 0 0 0 0 0 0 0 0 0 0 0 0 0 0 0 0 0 0 0 0 0 0 0 0 0 0 66 67 66 65 64 63 66 66 66 62 60 59 59 59 59 -193 59 57 57 -193 54 55 53 53 53 53 53 52 50 50 48 49 50 47 47 45 43 43 43 42 42 41 41 40 40 -209 -209 -193 38 36 37 32 35 32 34 30 32 30 29 29 28 28 27 26 26 25 24 24 21 21 21 20 19 17 15 18 13 15 15 11 14 16 16 16 -225 -225 -225 -225 -225 -225 -225 -225 -225 -225 -225 -225 -225 -225 -225 -225 -225 -225 -225 -225 -225 -225 -225 -225 -225 -225 -225 -225 -225 -225 -225 -225 -225 -225 -225 -225 -225 -225 -225 -225 -225 -225 -225 -225 33 32 32 33 32 32 31 31 32 32 37 35 36 37 37 39 40 40 42 41 43 46 45 48 47 47 49 47 48 49 48 51 49 54 55 54 58 59 60 60 60 60 60 67 63 63 67 69 69 71 72 71 70 73 -177 74 73 74 74 70 76 82 82 81 80 83 88 88 87 88 86 88 86 89 90 88 92 94 98 99 98 95 99 98 101 103 104 105 105 106 107 108 108 108 107 108 108 109 108 110 109 119 117 117 117 119 126 124 124 124 124 130 128 129 128 125 128 129 0 0 0 0 0
    0 0 0 0 0 0 0 0 0 0 0 0 0 0 0 0 0 0 0 0 0 0 0 0 0 0 0 0 0 0 0 0 0 0 0 0 0 0 0 0 0 0 0 0 0 0 0 0 0 0 0 0 0 0 0 0 0 0 0 0 0 0 0 0 0 0 0 0 0 67 68 67 66 65 64 67 67 67 63 60 58 -193 -209 -209 -193 -193 56 57 57 55 55 53 53 53 53 53 52 49 50 47 48 49 46 47 44 42 43 42 42 42 41 41 40 41 -193 -209 -209 38 36 36 32 35 32 34 31 31 30 29 29 28 28 27 26 26 24 24 24 22 22 22 20 19 18 16 18 13 15 15 12 14 16 16 16 -225 -225 -225 -225 -225 -225 -225 -225 -225 -225 -225 -225 -225 -225 -225 -225 -225 -225 -225 -225 -225 -225 -225 -225 -225 -225 -225 -225 -225 -225 -225 -225 -225 -225 -225 -225 -225 -225 -225 -225 -225 -225 -225 -225 32 30 32 32 31 31 30 31 31 32 37 35 36 37 38 40 40 40 42 41 43 46 45 49 47 47 50 47 49 49 48 51 50 55 55 54 58 60 60 59 60 59 59 67 63 63 67 70 70 70 72 70 -193 73 -177 -177 72 72 73 68 76 82 82 81 78 81 88 87 -209 88 84 87 85 88 89 88 91 93 97 96 98 97 100 99 101 103 105 105 105 106 106 108 107 107 107 108 108 109 108 110 108 118 117 117 117 119 127 124 124 124 124 130 128 129 128 125 129 130 0 0 0 0 0
    0 0 0 0 0 0 0 0 0 0 0 0 0 0 0 0 0 0 0 0 0 0 0 0 0 0 0 0 0 0 0 0 0 0 0 0 0 0 0 0 0 0 0 0 0 0 0 0 0 0 0 0 0 0 0 0 0 0 0 0 0 0 0 0 0 0 0 0 0 67 68 67 66 65 66 68 69 68 65 61 -209 -209 -193 -193 -193 -193 56 57 57 55 56 54 54 53 53 53 52 49 50 46 47 48 46 47 44 42 42 42 42 42 41 41 40 41 41 -193 -209 38 36 36 33 35 32 35 31 31 30 29 29 28 27 27 26 25 24 24 24 22 22 22 20 19 18 16 18 13 15 15 12 13 16 16 16 -225 -225 -225 -225 -225 -225 -225 -225 -225 -225 -225 -225 -225 -225 -225 -225 -225 -225 -225 -225 -225 -225 -225 -225 -225 -225 -225 -225 -225 -225 -225 -225 -225 -225 -225 -225 -225 -225 -225 -225 -225 -225 -225 33 31 30 33 32 32 31 30 31 32 32 37 35 36 37 38 39 40 40 41 41 42 46 45 48 46 47 50 48 49 49 48 52 50 54 55 53 58 59 59 58 59 59 60 67 63 63 67 70 70 70 72 70 -193 72 -177 -177 70 71 71 66 76 82 81 80 76 79 -193 -209 -209 -209 82 87 86 89 90 89 92 93 98 99 99 99 100 100 102 103 105 105 105 106 106 107 107 107 106 107 107 108 107 109 108 118 118 118 118 119 127 124 124 124 125 130 128 129 129 126 129 130 0 0 0 0 0
    0 0 0 0 0 0 0 0 0 0 0 0 0 0 0 0 0 0 0 0 0 0 0 0 0 0 0 0 0 0 0 0 0 0 0 0 0 0 0 0 0 0 0 0 0 0 0 0 0 0 0 0 0 0 0 0 0 0 0 0 0 0 0 0 0 0 0 0 0 67 68 68 66 66 67 69 69 69 66 64 -193 -209 -193 -193 -193 57 56 56 57 55 56 53 54 54 53 53 52 49 50 46 48 49 46 47 44 42 43 42 42 42 41 42 40 41 41 -193 -193 38 36 36 33 35 32 35 31 31 30 30 29 29 27 27 26 26 24 24 24 22 22 22 20 19 18 16 18 14 15 15 12 13 16 16 16 -225 -225 -225 -225 -225 -225 -225 -225 -225 -225 -225 -225 -225 -225 -225 -225 -225 -225 -225 -225 -225 -225 -225 -225 -225 -225 -225 -225 -225 -225 -225 -225 -225 -225 -225 -225 -225 -225 -225 -225 -225 -225 -225 30 28 29 32 31 31 31 30 31 32 33 36 34 36 36 37 38 38 39 40 39 41 45 44 48 46 47 50 48 49 50 48 51 49 54 54 54 58 59 59 59 60 60 60 67 63 63 67 70 69 70 71 69 67 71 -177 -177 68 70 70 63 75 81 81 80 75 79 -193 -209 -209 -193 81 88 87 89 90 90 92 94 99 99 98 98 100 100 102 103 104 105 105 106 105 107 106 106 106 106 106 107 107 109 108 117 118 118 118 119 126 124 124 124 125 130 128 129 129 126 129 130 0 0 0 0 0
    0 0 0 0 0 0 0 0 0 0 0 0 0 0 0 0 0 0 0 0 0 0 0 0 0 0 0 0 0 0 0 0 0 0 0 0 0 0 0 0 0 0 0 0 0 0 0 0 0 0 0 0 0 0 0 0 0 0 0 0 0 0 0 0 0 0 0 0 0 67 67 67 66 66 67 69 69 69 67 67 -193 -193 -193 -193 -193 57 56 56 56 55 56 53 54 53 53 52 52 49 50 46 47 48 46 47 45 42 43 42 43 43 41 42 40 41 41 41 -193 37 36 37 34 36 32 35 32 31 31 30 29 29 27 27 25 25 24 24 24 22 21 22 21 18 18 16 18 14 14 15 13 12 16 16 16 -225 -225 -225 -225 -225 -225 -225 -225 -225 -225 -225 -225 -225 -225 -225 -225 -225 -225 -225 -225 -225 -225 -225 -225 -225 -225 -225 -225 -225 -225 -225 -225 -225 -225 -225 -225 -225 -225 -225 -225 -225 -225 27 28 27 28 32 31 31 30 30 31 31 33 35 33 35 36 36 38 38 38 39 38 41 45 44 48 46 47 49 48 49 50 47 51 48 53 53 53 57 59 59 60 61 61 61 67 63 64 67 70 69 69 71 68 66 70 -193 -193 67 69 70 62 75 82 81 80 76 -209 -209 -209 -209 -193 -209 91 90 90 92 93 96 96 99 99 99 99 101 101 103 104 106 106 106 107 106 107 106 106 106 106 106 107 107 108 107 117 118 118 118 119 126 124 124 124 124 129 127 128 128 126 128 130 0 0 0 0 0
    0 0 0 0 0 0 0 0 0 0 0 0 0 0 0 0 0 0 0 0 0 0 0 0 0 0 0 0 0 0 0 0 0 0 0 0 0 0 0 0 0 0 0 0 0 0 0 0 0 0 0 0 0 0 0 0 0 0 0 0 0 0 0 0 0 0 0 0 0 67 67 67 66 66 68 69 69 69 68 68 60 59 60 -193 56 56 56 56 56 55 56 52 53 53 52 52 52 48 49 45 47 48 46 47 45 42 43 42 43 43 41 41 40 40 40 40 40 37 36 37 34 36 32 35 32 31 31 30 29 29 27 27 25 25 24 24 24 23 22 22 21 19 19 17 18 14 14 15 13 12 16 16 16 -225 -225 -225 -225 -225 -225 -225 -225 -225 -225 -225 -225 -225 -225 -225 -225 -225 -225 -225 -225 -225 -225 -225 -225 -225 -225 -225 -225 -225 -225 -225 -225 -225 -225 -225 -225 -225 -225 -225 -225 -225 -225 25 26 26 27 31 31 30 30 31 31 31 34 34 32 34 35 35 37 37 37 37 37 40 44 43 47 45 47 49 49 50 50 48 51 48 53 53 54 57 58 59 60 61 61 61 67 64 65 67 70 69 69 71 68 66 69 70 69 66 68 69 61 75 81 80 80 75 -209 -193 -193 105 99 95 93 93 92 96 95 97 96 98 99 99 100 100 101 102 103 105 106 106 107 107 108 107 107 107 106 106 107 107 107 106 116 119 119 119 120 126 124 123 124 124 129 127 128 128 126 128 130 0 0 0 0 0
    0 0 0 0 0 0 0 0 0 0 0 0 0 0 0 0 0 0 0 0 0 0 0 0 0 0 0 0 0 0 0 0 0 0 0 0 0 0 0 0 0 0 0 0 0 0 0 0 0 0 0 0 0 0 0 0 0 0 0 0 0 0 0 0 0 0 0 0 0 68 67 67 66 66 68 69 69 69 68 69 59 58 59 56 56 56 56 56 56 55 55 52 53 53 52 52 52 48 49 45 47 48 46 47 45 43 43 43 44 43 41 41 40 40 40 40 39 37 35 36 34 36 32 35 32 31 31 30 30 29 27 27 25 25 24 24 24 23 22 22 21 19 18 17 18 14 13 14 13 11 15 16 16 -225 -225 -225 -225 -225 -225 -225 -225 -225 -225 -225 -225 -225 -225 -225 -225 -225 -225 -225 -225 -225 -225 -225 -225 -225 -225 -225 -225 -225 -225 -225 -225 -225 -225 -225 -225 -225 -225 -225 -225 -225 23 25 25 25 26 30 29 30 30 31 31 32 34 34 32 34 34 35 37 36 37 36 36 39 43 42 47 45 47 49 49 50 50 47 51 48 53 52 53 57 57 59 60 61 61 61 67 66 65 67 70 69 69 71 68 66 68 69 68 64 68 68 61 74 80 80 79 76 89 96 103 103 98 94 93 96 97 97 96 97 97 99 100 100 100 101 102 103 104 106 106 106 107 107 108 107 107 106 106 106 107 106 107 105 114 119 119 119 120 126 124 124 124 124 129 127 128 128 126 128 130 0 0 0 0 0
    0 0 0 0 0 0 0 0 0 0 0 0 0 0 0 0 0 0 0 0 0 0 0 0 0 0 0 0 0 0 0 0 0 0 0 0 0 0 0 0 0 0 0 0 0 0 0 0 0 0 0 0 0 0 0 0 0 0 0 0 0 0 0 0 0 0 0 0 0 67 67 67 66 66 68 69 70 70 68 69 59 57 57 56 56 56 55 55 55 55 55 52 53 53 52 52 52 48 50 46 47 48 47 47 46 43 43 43 45 43 41 41 40 40 40 40 39 37 35 36 34 35 33 35 32 31 31 31 30 30 27 28 25 25 24 24 24 23 22 22 22 19 19 17 18 14 13 14 13 11 15 16 16 -225 -225 -225 -225 -225 -225 -225 -225 -225 -225 -225 -225 -225 -225 -225 -225 -225 -225 -225 -225 -225 -225 -225 -225 -225 -225 -225 -225 -225 -225 -225 -225 -225 -225 -225 -225 -225 -225 -225 -225 -225 24 25 25 25 27 30 29 29 30 30 31 31 33 33 32 34 33 34 37 36 36 35 35 39 43 43 47 45 48 49 49 50 50 47 50 48 52 51 53 56 56 58 60 61 61 61 67 66 65 67 70 68 68 70 68 66 67 68 68 64 67 68 60 74 79 79 78 75 89 95 99 96 95 94 94 95 96 96 96 97 97 99 100 101 101 102 102 103 104 105 106 106 106 106 107 106 106 106 105 106 107 106 106 104 113 -193 120 120 120 126 124 124 124 124 128 126 127 128 126 128 130 0 0 0 0 0
    0 0 0 0 0 0 0 0 0 0 0 0 0 0 0 0 0 0 0 0 0 0 0 0 0 0 0 0 0 0 0 0 0 0 0 0 0 0 0 0 0 0 0 0 0 0 0 0 0 0 0 0 0 0 0 0 0 0 0 0 0 0 0 0 0 0 0 0 0 67 67 67 66 66 69 69 70 70 68 69 58 57 57 56 56 56 55 55 55 55 56 53 53 52 52 52 52 49 50 46 47 47 47 47 47 44 44 44 46 45 42 41 40 40 40 39 39 37 35 36 34 35 33 35 32 31 31 31 30 30 27 27 24 24 24 24 25 25 23 23 23 20 20 18 18 13 12 13 12 10 14 16 16 -225 -225 -225 -225 -225 -225 -225 -225 -225 -225 -225 -225 -225 -225 -225 -225 -225 -225 -225 -225 -225 -225 -225 -225 -225 -225 -225 -225 -225 -225 -225 -225 -225 -225 -225 -225 -225 -225 -225 -225 -225 24 25 25 25 27 30 29 29 30 31 32 32 34 34 32 34 33 35 37 35 35 34 34 38 42 42 46 44 48 50 49 50 50 48 51 49 53 51 54 56 56 58 60 61 61 62 67 66 65 67 70 67 67 70 68 66 66 68 68 63 68 68 61 74 79 79 79 77 87 91 92 91 94 93 93 94 95 96 96 97 97 98 99 100 101 101 102 102 103 105 104 104 105 106 106 106 106 106 105 107 107 107 106 104 112 -193 120 120 120 126 124 123 124 124 128 126 127 128 126 128 131 0 0 0 0 0
    0 0 0 0 0 0 0 0 0 0 0 0 0 0 0 0 0 0 0 0 0 0 0 0 0 0 0 0 0 0 0 0 0 0 0 0 0 0 0 0 0 0 0 0 0 0 0 0 0 0 0 0 0 0 0 0 0 0 0 0 0 0 0 0 0 0 0 0 0 67 66 66 65 65 68 69 69 69 68 68 58 57 58 57 57 56 56 56 55 55 56 53 53 52 52 52 52 49 50 47 48 48 47 48 47 44 45 44 46 45 42 41 -193 39 39 39 39 37 35 36 35 36 33 36 33 31 31 31 29 31 27 28 24 24 23 24 24 25 23 23 23 21 19 17 17 12 11 12 12 9 13 16 16 -225 -225 -225 -225 -225 -225 -225 -225 -225 -225 -225 -225 -225 -225 -225 -225 -225 -225 -225 -225 -225 -225 -225 -225 -225 -225 -225 -225 -225 -225 -225 -225 -225 -225 -225 -225 -225 -225 -225 -225 24 24 24 25 25 27 29 29 29 30 32 33 33 35 35 33 34 34 36 38 36 35 34 34 39 43 42 46 44 48 50 49 50 50 48 51 49 53 51 53 55 56 58 60 61 61 62 66 67 65 66 69 67 67 69 68 66 66 68 68 64 69 69 61 73 78 80 78 77 86 89 90 91 92 92 93 94 95 97 96 97 96 98 99 100 101 101 102 102 103 105 104 104 105 106 107 106 106 106 105 107 107 107 106 105 112 -193 120 120 120 126 123 123 123 124 127 126 127 127 126 128 131 0 0 0 0 0
    0 0 0 0 0 0 0 0 0 0 0 0 0 0 0 0 0 0 0 0 0 0 0 0 0 0 0 0 0 0 0 0 0 0 0 0 0 0 0 0 0 0 0 0 0 0 0 0 0 0 0 0 0 0 0 0 0 0 0 0 0 0 0 0 0 0 0 0 0 66 66 66 65 64 68 69 69 69 68 69 59 58 58 57 57 56 56 56 55 55 55 52 52 51 51 51 52 49 50 47 48 48 48 48 48 45 45 44 46 45 42 41 40 39 38 38 38 36 35 36 34 35 33 36 33 32 31 31 30 31 28 28 24 24 -193 24 25 26 23 23 23 21 18 16 15 11 10 11 11 9 12 16 16 -225 -225 -225 -225 -225 -225 -225 -225 -225 -225 -225 -225 -225 -225 -225 -225 -225 -225 -225 -225 -225 9 9 0 0 0 0 0 0 -225 -225 -225 -225 -225 -225 -225 -225 -225 -225 -225 24 24 24 25 25 27 28 29 30 30 33 34 34 35 35 33 35 35 36 38 34 33 32 32 38 41 41 45 43 48 50 50 51 50 48 51 49 53 51 54 56 56 58 60 62 62 62 66 67 65 66 69 66 66 69 68 67 66 68 68 64 70 70 64 73 78 78 77 77 84 88 88 88 91 91 92 93 94 95 94 96 97 98 99 100 100 100 101 102 103 104 104 104 104 107 107 106 106 106 105 108 108 108 105 105 111 -193 120 120 120 125 123 123 123 123 126 126 126 127 126 128 131 0 0 0 0 0
    0 0 0 0 0 0 0 0 0 0 0 0 0 0 0 0 0 0 0 0 0 0 0 0 0 0 0 0 0 0 0 0 0 0 0 0 0 0 0 0 0 0 0 0 0 0 0 0 0 0 0 0 0 0 0 0 0 0 0 0 0 0 0 0 0 0 0 0 0 66 66 66 64 64 68 68 69 69 68 68 59 58 58 58 57 57 56 56 55 55 55 52 51 51 51 50 52 49 49 47 48 48 48 47 48 45 45 44 45 44 41 41 39 38 38 37 37 36 34 35 34 35 33 35 32 32 31 31 29 32 28 28 24 24 -193 25 25 26 23 24 24 21 17 15 14 10 9 10 10 0 12 15 15 -225 -225 -225 -225 -225 -225 -225 -225 -225 -225 -225 -225 -225 -225 -225 -225 -225 -225 -225 -225 16 10 9 0 0 0 0 0 0 0 -225 -225 -225 -225 -225 -225 -225 -225 -225 -225 24 23 23 24 24 26 27 28 29 30 32 33 34 35 35 33 35 34 36 38 34 33 31 32 37 40 41 44 43 48 50 49 50 50 48 51 49 52 51 53 56 56 58 60 61 60 61 64 67 65 66 69 66 66 69 68 67 66 68 69 65 71 72 69 73 79 79 79 81 85 88 88 88 90 90 92 93 93 94 95 97 97 98 99 99 99 100 101 101 102 104 103 103 104 108 107 107 107 107 106 108 109 108 106 106 111 121 120 120 120 125 123 123 123 123 126 126 126 127 126 127 130 0 0 0 0 0
    0 0 0 0 0 0 0 0 0 0 0 0 0 0 0 0 0 0 0 0 0 0 0 0 0 0 0 0 0 0 0 0 0 0 0 0 0 0 0 0 0 0 0 0 0 0 0 0 0 0 0 0 0 0 0 0 0 0 0 0 0 0 0 0 0 0 0 0 0 66 67 66 65 64 68 67 69 69 68 67 60 59 58 59 58 57 57 56 55 56 55 53 51 49 50 50 51 49 49 47 48 48 48 47 48 44 44 44 44 43 41 40 39 37 38 37 36 36 34 35 33 34 33 35 32 32 31 31 29 32 28 28 24 23 23 24 25 26 24 24 24 22 17 14 14 9 0 9 9 0 11 14 14 -225 -225 -225 -225 -225 -225 -225 -225 -225 -225 -225 -225 -225 -225 -225 -225 -225 -225 -225 0 16 10 10 0 0 0 0 0 0 0 0 -225 -225 -225 -225 -225 -225 -225 -225 -193 23 23 23 24 24 25 28 28 29 30 32 32 34 35 36 34 36 36 37 38 35 33 32 32 37 40 41 44 43 48 50 49 50 50 48 51 49 52 52 53 56 56 58 60 60 60 60 63 68 65 66 69 66 66 69 69 68 66 69 69 67 73 73 73 73 78 79 81 81 83 87 87 87 89 90 91 91 93 94 95 97 96 97 98 99 99 99 100 101 101 104 103 103 104 108 107 108 -193 107 106 109 109 109 106 107 111 121 119 119 120 124 123 123 123 123 126 126 126 127 126 127 130 0 0 0 0 0
    0 0 0 0 0 0 0 0 0 0 0 0 0 0 0 0 0 0 0 0 0 0 0 0 0 0 0 0 0 0 0 0 0 0 0 0 0 0 0 0 0 0 0 0 0 0 0 0 0 0 0 0 0 0 0 0 0 0 0 0 0 0 0 0 0 0 0 0 0 67 67 67 66 66 68 68 69 69 68 67 61 59 59 61 59 58 58 57 56 56 56 54 49 47 48 48 51 49 49 47 48 47 48 46 47 44 43 43 43 42 40 40 39 37 38 37 36 35 34 35 33 34 33 35 32 32 31 30 28 31 28 28 24 23 23 24 25 27 25 25 25 -193 17 12 13 0 0 0 0 0 11 13 13 -225 -225 -225 -225 -225 -225 -225 -225 -225 -225 -225 -225 -225 -225 -225 -225 -225 -225 -225 0 15 10 11 9 9 9 9 9 9 0 0 -225 -225 -225 -225 -225 -225 -225 -225 -193 23 23 23 25 24 25 28 28 29 30 31 32 33 35 36 33 37 36 37 38 35 34 34 34 38 40 41 44 44 47 50 49 50 49 47 51 49 52 52 52 55 55 58 59 60 60 60 63 68 65 66 69 66 66 69 69 69 67 70 71 69 74 75 75 73 80 80 81 80 82 86 86 87 89 89 91 91 93 94 94 96 95 96 97 98 98 98 99 100 101 103 101 101 102 106 106 107 -193 107 106 109 110 109 107 108 111 120 119 119 120 124 124 123 123 123 126 127 126 128 126 127 130 0 0 0 0 0
    0 0 0 0 0 0 0 0 0 0 0 0 0 0 0 0 0 0 0 0 0 0 0 0 0 0 0 0 0 0 0 0 0 0 0 0 0 0 0 0 0 0 0 0 0 0 0 0 0 0 0 0 0 0 0 0 0 0 0 0 0 0 0 0 0 0 0 0 0 67 68 67 67 67 69 68 69 69 68 68 62 60 59 62 60 59 58 57 56 57 56 54 48 45 46 46 49 49 48 47 47 47 47 46 46 44 43 42 42 42 40 40 39 37 38 37 36 35 34 35 33 33 33 35 32 32 30 30 28 31 28 28 24 23 23 24 24 26 24 24 24 19 13 9 11 0 0 0 0 0 10 12 12 -225 -225 -225 -225 -225 -225 -225 -225 -225 -225 -225 -225 -225 -225 -225 -225 -225 -225 -225 0 15 10 11 10 9 9 9 10 10 0 0 0 -225 -225 -225 -225 -225 -225 23 24 23 23 23 25 24 25 29 28 29 30 31 32 33 34 36 33 37 36 36 38 34 34 35 35 38 41 42 44 45 47 50 49 49 49 47 50 50 51 52 51 55 55 57 59 60 60 60 62 68 65 65 68 66 66 69 70 70 68 72 -193 72 75 76 77 74 81 81 82 80 83 86 86 87 88 89 91 91 93 93 93 95 95 96 96 97 96 97 99 100 100 102 101 101 102 105 -193 -193 -177 106 106 108 109 109 107 108 110 120 119 119 119 122 124 123 124 123 126 127 127 128 127 127 130 0 0 0 0 0
    0 0 0 0 0 0 0 0 0 0 0 0 0 0 0 0 0 0 0 0 0 0 0 0 0 0 0 0 0 0 0 0 0 0 0 0 0 0 0 0 0 0 0 0 0 0 0 0 0 0 0 0 0 0 0 0 0 0 0 0 0 0 0 0 0 0 0 0 0 67 68 67 67 67 68 68 68 69 68 67 62 60 60 62 61 59 59 58 56 57 56 55 47 44 44 45 47 47 47 47 47 46 46 45 46 43 43 42 42 41 40 41 39 37 38 37 36 35 33 35 32 33 32 35 32 32 30 30 28 30 28 28 24 24 23 26 25 27 25 25 25 -209 -209 0 9 0 0 0 0 0 9 10 10 -225 -225 -225 -225 -225 -225 -225 -225 -225 -225 -225 -225 -225 -225 -225 -225 -225 -225 -225 0 14 9 10 9 9 9 0 9 9 0 0 0 0 -225 -225 -225 -225 -225 22 22 22 22 23 25 24 25 29 28 29 30 30 32 33 34 35 32 38 36 37 38 35 35 36 37 39 42 42 45 45 47 51 49 49 49 48 51 50 51 53 51 55 55 57 58 60 60 61 62 69 64 65 68 66 66 69 71 70 69 73 74 74 75 78 78 75 80 80 81 80 83 86 85 87 88 89 90 91 92 92 93 95 95 95 94 95 95 96 97 99 100 102 100 100 101 105 -177 -177 -177 106 105 108 109 109 107 109 110 120 118 118 118 121 124 123 123 123 125 128 127 128 127 127 130 0 0 0 0 0
    0 0 0 0 0 0 0 0 0 0 0 0 0 0 0 0 0 0 0 0 0 0 0 0 0 0 0 0 0 0 0 0 0 0 0 0 0 0 0 0 0 0 0 0 0 0 0 0 0 0 0 0 0 0 0 0 0 0 0 0 0 0 0 0 0 0 0 0 0 68 68 68 67 67 68 67 68 69 68 66 62 61 60 62 61 60 59 58 57 57 57 56 47 44 43 44 45 46 45 46 46 46 46 45 45 43 42 42 42 41 40 40 39 37 37 37 36 35 33 35 32 32 32 34 32 32 30 30 28 30 28 28 25 24 23 26 24 26 24 24 24 -209 -209 0 9 0 0 0 0 0 0 0 0 -225 -225 -225 -225 -225 -225 -225 -225 -225 -225 -225 -225 -225 -225 -225 -225 -225 -225 0 0 12 0 9 0 0 0 0 9 9 0 0 0 0 -225 -225 -225 -225 21 21 21 21 20 22 24 23 24 30 28 29 30 30 33 33 34 35 32 38 37 38 39 35 36 38 39 40 43 43 45 46 47 51 48 48 49 48 51 51 51 53 51 56 56 57 58 61 61 61 62 69 64 64 68 67 66 69 71 71 -193 74 76 75 76 79 79 76 81 81 81 81 83 85 86 87 88 89 90 90 91 92 92 95 94 93 93 94 93 94 96 99 98 102 100 100 101 104 -193 -177 -177 105 -193 107 108 108 107 109 110 119 117 117 118 120 124 123 123 123 -193 129 127 129 128 126 130 0 0 0 0 0
    0 0 0 0 0 0 0 0 0 0 0 0 0 0 0 0 0 0 0 0 0 0 0 0 0 0 0 0 0 0 0 0 0 0 0 0 0 0 0 0 0 0 0 0 0 0 0 0 0 0 0 0 0 0 0 0 0 0 0 0 0 0 0 0 0 0 0 0 0 68 69 68 67 67 68 67 67 68 67 66 61 60 59 62 61 60 60 58 57 58 57 57 48 44 44 44 45 45 45 46 47 46 46 44 45 43 42 41 41 40 40 40 39 37 37 37 36 35 33 34 32 32 32 34 31 31 29 30 28 29 28 28 25 25 24 26 23 24 23 23 23 -193 12 10 10 0 0 0 0 0 0 0 0 -225 -225 -225 -225 -225 -225 -225 -225 -225 -225 -225 -225 -225 -225 -225 -225 -225 -225 0 0 13 0 9 0 0 0 0 9 9 0 0 0 0 -225 -225 -225 -225 21 21 20 21 20 22 24 23 24 30 28 29 29 30 33 32 34 35 32 38 37 37 38 35 37 39 40 40 43 43 45 47 47 50 48 48 49 47 50 50 50 53 51 56 56 57 57 61 61 61 62 69 64 64 68 68 67 69 -193 72 -177 75 77 77 77 80 80 76 81 81 80 80 83 85 86 87 87 88 89 89 90 91 91 92 92 92 91 93 92 93 94 98 99 102 101 100 102 105 -193 -193 -177 105 99 106 107 108 107 109 110 119 117 117 117 119 124 123 123 -193 -193 129 127 129 128 126 129 0 0 0 0 0
    0 0 0 0 0 0 0 0 0 0 0 0 0 0 0 0 0 0 0 0 0 0 0 0 0 0 0 0 0 0 0 0 0 0 0 0 0 0 0 0 0 0 0 0 0 0 0 0 0 0 0 0 0 0 0 0 0 0 0 0 0 0 0 0 0 0 0 0 0 68 69 68 67 67 67 67 67 68 67 66 61 60 59 62 61 60 60 59 57 59 58 58 51 46 46 46 46 46 45 46 47 46 46 44 44 42 41 41 41 40 39 40 39 37 38 37 36 35 33 34 32 32 32 34 31 31 29 30 28 29 28 28 25 25 24 26 24 24 22 22 23 -193 13 10 12 0 0 0 0 0 0 0 0 -225 -225 -225 -225 -225 -225 -225 -225 -225 -225 -225 -225 -225 -225 -225 -225 -225 -225 0 0 14 9 10 10 9 9 0 10 10 0 0 0 0 -225 -225 -225 -225 20 19 19 20 20 21 23 22 24 30 29 29 29 30 33 32 33 34 31 37 36 36 37 34 38 39 40 41 44 44 45 48 47 50 48 48 49 48 51 51 50 54 51 56 56 56 57 60 61 61 62 69 65 64 68 68 68 70 -193 73 -193 76 78 77 77 80 80 76 81 81 80 81 84 86 86 87 87 87 89 88 90 89 90 91 91 91 90 91 91 91 93 98 99 102 101 101 102 105 104 -193 -177 103 94 105 106 107 106 108 110 118 116 116 117 119 125 123 123 123 -193 130 128 129 128 126 129 0 0 0 0 0
    0 0 0 0 0 0 0 0 0 0 0 0 0 0 0 0 0 0 0 0 0 0 0 0 0 0 0 0 0 0 0 0 0 0 0 0 0 0 0 0 0 0 0 0 0 0 0 0 0 0 0 0 0 0 0 0 0 0 0 0 0 0 0 0 0 0 0 0 0 68 69 69 68 67 67 67 67 68 67 66 61 60 59 62 61 60 60 59 58 59 59 58 52 49 47 49 48 46 45 46 48 46 46 44 44 42 41 41 41 40 40 40 39 37 38 37 37 36 34 35 32 32 32 34 31 31 29 30 27 29 28 27 25 25 24 26 23 23 22 22 22 19 15 12 14 8 0 0 0 0 0 0 0 -225 -225 -225 -225 -225 -225 -225 -225 -225 -225 -225 -225 -225 -225 -225 -225 -225 -225 0 0 14 9 10 10 10 9 10 11 11 0 9 0 0 0 -225 -225 20 18 18 18 19 20 21 22 22 24 30 29 30 29 30 33 32 33 34 30 35 34 35 36 34 38 39 40 41 45 44 46 48 47 50 49 48 50 49 51 52 50 54 52 56 56 56 56 60 62 62 64 70 65 65 68 69 69 70 73 73 -193 76 78 77 77 80 80 76 81 82 81 82 85 86 87 87 87 87 89 88 89 89 89 90 91 90 88 90 90 92 94 98 99 102 101 101 102 104 103 -193 -177 101 94 103 105 105 105 107 109 118 116 116 117 119 126 124 124 124 125 130 128 129 128 126 129 0 0 0 0 0
    0 0 0 0 0 0 0 0 0 0 0 0 0 0 0 0 0 0 0 0 0 0 0 0 0 0 0 0 0 0 0 0 0 0 0 0 0 0 0 0 0 0 0 0 0 0 0 0 0 0 0 0 0 0 0 0 0 0 0 0 0 0 0 0 0 0 0 0 0 69 69 69 68 68 67 67 66 67 67 66 61 60 60 62 61 60 60 59 58 60 59 59 53 51 50 51 48 47 45 46 48 46 46 44 43 42 41 41 41 40 40 40 39 38 38 38 37 36 34 35 33 33 34 34 32 32 29 30 27 28 27 27 25 25 24 26 23 22 21 21 21 19 16 12 14 0 0 0 0 0 0 0 0 -225 -225 -225 -225 -225 -225 -225 -225 -225 -225 -225 -225 -225 -225 -225 -225 -225 -225 0 0 14 9 10 10 10 10 11 11 12 9 10 10 9 9 13 14 19 18 18 19 20 21 21 22 22 24 30 29 30 29 29 33 32 33 34 31 35 34 35 36 33 38 39 40 41 45 44 46 49 47 50 49 49 50 49 52 52 50 54 53 55 55 56 55 61 65 65 66 70 65 65 68 70 69 70 -193 73 -193 76 78 78 77 79 80 76 81 82 81 81 84 85 86 87 86 87 88 87 88 88 88 89 90 90 88 92 91 93 95 99 99 102 101 101 102 104 102 -193 -193 100 94 101 103 104 104 107 109 118 117 117 117 119 127 124 124 124 125 130 128 129 129 126 128 0 0 0 0 0
    0 0 0 0 0 0 0 0 0 0 0 0 0 0 0 0 0 0 0 0 0 0 0 0 0 0 0 0 0 0 0 0 0 0 0 0 0 0 0 0 0 0 0 0 0 0 0 0 0 0 0 0 0 0 0 0 0 0 0 0 0 0 0 0 0 0 0 0 0 69 69 69 68 68 67 67 65 67 66 66 61 60 59 62 61 60 59 59 57 59 59 58 54 53 52 53 50 47 46 46 48 46 46 45 43 42 42 42 42 41 40 40 39 38 38 38 37 36 34 36 34 33 34 35 32 32 29 30 27 28 27 27 25 25 24 26 23 22 21 21 20 18 15 11 13 0 0 0 0 0 0 0 0 -225 -225 -225 -225 -225 -225 -225 -225 -225 -225 -225 -225 -225 -225 -225 -225 -225 -225 0 0 12 9 10 10 10 9 10 11 11 9 10 9 0 10 14 14 18 17 17 19 20 21 21 21 21 23 29 28 30 29 29 33 32 33 34 31 34 32 34 35 32 39 39 40 42 46 45 46 49 47 49 49 49 50 49 51 52 50 54 53 54 55 55 55 61 67 65 66 70 65 65 68 70 70 70 -209 72 -209 76 78 77 76 78 79 76 82 82 81 82 85 85 86 86 86 86 87 87 87 87 87 88 90 91 90 94 93 94 96 98 99 101 101 101 101 104 102 -193 -193 100 94 100 102 103 103 106 108 118 117 117 117 119 128 124 125 125 125 130 128 129 129 125 128 0 0 0 0 0
    0 0 0 0 0 0 0 0 0 0 0 0 0 0 0 0 0 0 0 0 0 0 0 0 0 0 0 0 0 0 0 0 0 0 0 0 0 0 0 0 0 0 0 0 0 0 0 0 0 0 0 0 0 0 0 0 0 0 0 0 0 0 0 0 0 0 0 0 0 69 69 68 67 67 66 66 64 66 65 65 60 59 59 62 60 60 59 58 57 58 58 58 54 53 53 54 51 48 46 47 49 46 47 45 44 42 42 43 43 41 40 40 39 38 38 37 37 36 34 36 34 34 35 35 33 32 29 30 28 28 27 27 25 25 25 26 23 22 21 20 20 19 16 11 13 0 0 0 0 0 0 0 0 -225 -225 -225 -225 -225 -225 -225 -225 -225 -225 -225 -225 -225 -225 -225 -225 -225 -225 0 0 12 10 10 10 10 10 11 11 11 9 10 10 9 11 15 14 17 17 18 20 21 22 21 22 23 25 29 28 30 30 30 34 32 33 35 31 34 33 35 35 32 38 39 39 42 47 44 45 49 47 49 49 49 50 49 51 52 49 54 53 53 55 55 54 60 67 65 66 70 65 65 68 71 70 70 72 72 71 75 77 76 75 77 78 76 81 82 80 81 85 84 86 85 84 85 86 86 86 85 86 86 91 92 91 95 94 95 96 97 98 100 100 101 100 104 103 -193 -193 101 96 101 102 103 103 106 108 118 118 118 118 119 129 125 125 125 126 131 129 130 129 125 128 0 0 0 0 0
    0 0 0 0 0 0 0 0 0 0 0 0 0 0 0 0 0 0 0 0 0 0 0 0 0 0 0 0 0 0 0 0 0 0 0 0 0 0 0 0 0 0 0 0 0 0 0 0 0 0 0 0 0 0 0 0 0 0 0 0 0 0 0 0 0 0 0 0 0 68 68 68 67 67 65 65 62 65 64 64 60 58 58 61 60 59 58 58 56 57 57 57 54 54 53 54 52 49 47 48 50 47 47 46 44 42 43 43 43 40 40 40 39 38 38 37 37 36 34 36 34 34 35 36 33 33 29 30 28 28 27 27 25 25 -209 25 22 22 21 21 20 20 17 12 14 0 0 0 0 0 0 0 0 -225 -225 -225 -225 -225 -225 -225 -225 -225 -225 -225 -225 -225 -225 -225 -225 -225 0 0 0 12 10 11 11 11 10 12 12 11 10 11 10 10 12 16 15 18 18 19 21 22 23 22 23 25 26 29 28 30 30 29 34 32 33 35 32 34 33 35 35 32 38 39 38 41 46 43 43 48 46 48 49 49 49 48 51 52 49 54 53 51 55 55 54 59 67 64 66 70 65 66 68 71 69 70 71 71 71 74 75 75 74 76 77 75 79 79 78 80 83 81 84 83 84 84 85 85 85 85 87 86 91 92 90 96 94 95 95 96 97 99 100 101 99 104 104 -193 -193 103 99 102 103 103 104 105 108 117 119 119 119 120 129 125 125 126 126 131 128 129 129 125 128 0 0 0 0 0
    0 0 0 0 0 0 0 0 0 0 0 0 0 0 0 0 0 0 0 0 0 0 0 0 0 0 0 0 0 0 0 0 0 0 0 0 0 0 0 0 0 0 0 0 0 0 0 0 0 0 0 0 0 0 0 0 0 0 0 0 0 0 0 0 0 0 0 0 0 67 68 67 66 66 64 65 61 65 64 65 60 59 58 60 59 59 58 57 56 57 56 56 54 53 53 54 52 49 48 49 50 48 48 46 44 42 43 43 43 40 40 40 39 38 38 37 37 37 35 36 34 35 36 36 33 33 28 30 27 28 27 27 25 26 -209 -193 23 22 21 21 20 20 18 12 16 0 0 0 0 0 0 0 0 -225 -225 -225 -225 -225 -225 -225 -225 -225 -225 -225 -225 -225 -225 -225 -225 -225 0 0 0 11 11 11 11 11 11 12 12 12 11 11 10 10 13 17 15 18 18 19 22 22 24 22 23 26 26 28 28 30 30 30 34 32 32 35 32 33 32 34 34 32 37 38 36 41 44 42 42 47 45 47 49 48 49 48 51 52 49 54 53 50 55 55 55 59 65 63 64 70 65 65 67 70 69 69 70 70 69 73 -193 74 73 75 75 74 77 78 77 78 80 78 85 83 84 84 85 85 85 86 87 86 90 91 90 96 94 95 95 94 96 98 99 100 98 104 104 -193 -193 104 101 103 103 104 105 105 108 117 120 120 120 120 129 125 126 126 126 130 128 129 129 125 128 0 0 0 0 0
    0 0 0 0 0 0 0 0 0 0 0 0 0 0 0 0 0 0 0 0 0 0 0 0 0 0 0 0 0 0 0 0 0 0 0 0 0 0 0 0 0 0 0 0 0 0 0 0 0 0 0 0 0 0 0 0 0 0 0 0 0 0 0 0 0 0 0 0 0 66 67 67 66 66 64 65 61 65 66 66 61 60 60 61 60 59 58 57 55 56 55 54 53 53 53 54 51 49 48 49 51 48 48 47 44 42 43 43 43 41 40 40 39 38 39 38 38 37 34 36 35 35 36 36 34 33 28 30 27 28 27 27 25 26 -193 25 23 22 21 21 20 20 18 13 18 9 0 0 0 0 0 0 0 -225 -225 -225 -225 -225 -225 -225 -225 -225 -225 -225 -225 -225 -225 -225 -225 -225 0 0 9 10 11 12 12 11 11 13 13 12 11 11 10 11 13 17 15 18 19 20 23 23 24 22 23 26 26 27 28 29 30 29 34 33 33 35 33 33 32 34 34 32 36 37 34 39 43 41 41 46 45 46 49 48 48 -193 50 52 48 54 53 48 55 55 55 59 65 64 65 70 65 65 67 70 68 69 69 69 68 71 -193 71 70 73 72 72 74 75 75 76 79 78 85 83 84 85 86 86 86 87 88 86 90 90 88 95 93 94 95 93 -193 -193 98 100 96 103 -193 -209 104 105 102 104 104 105 105 105 108 117 121 120 120 120 129 125 125 126 126 130 128 129 128 125 127 0 0 0 0 0
    0 0 0 0 0 0 0 0 0 0 0 0 0 0 0 0 0 0 0 0 0 0 0 0 0 0 0 0 0 0 0 0 0 0 0 0 0 0 0 0 0 0 0 0 0 0 0 0 0 0 0 0 0 0 0 0 0 0 0 0 0 0 0 0 0 0 0 0 0 66 67 67 66 65 64 65 62 66 68 67 62 61 61 62 60 59 58 57 55 55 53 53 52 52 52 53 51 49 48 49 51 48 48 47 44 42 43 43 43 41 40 40 39 38 39 38 38 37 34 36 35 35 36 36 34 34 29 30 27 28 27 27 26 26 25 25 23 22 21 21 19 19 18 13 17 9 0 0 0 0 0 0 0 -225 -225 -225 -225 -225 -225 -225 -225 -225 -225 -225 -225 -225 -225 -225 -225 -225 0 0 9 9 10 11 11 11 11 12 12 11 11 11 11 12 14 17 16 20 20 22 23 23 24 22 22 26 26 26 27 29 30 29 33 33 33 36 34 34 33 34 35 34 37 37 34 39 42 40 40 45 44 45 -193 48 -193 -193 50 51 48 53 53 47 55 55 56 59 66 65 66 70 66 66 67 70 67 69 68 68 66 69 69 69 67 71 68 70 71 71 73 76 78 78 84 83 85 86 87 87 87 88 88 87 90 89 88 95 93 94 95 93 -193 -177 97 99 -193 103 -193 -209 -193 105 104 105 106 106 106 105 108 117 122 121 121 121 128 125 125 126 126 129 128 129 128 125 127 0 0 0 0 0
    0 0 0 0 0 0 0 0 0 0 0 0 0 0 0 0 0 0 0 0 0 0 0 0 0 0 0 0 0 0 0 0 0 0 0 0 0 0 0 0 0 0 0 0 0 0 0 0 0 0 0 0 0 0 0 0 0 0 0 0 0 0 0 0 0 0 0 0 0 66 67 66 66 65 65 65 62 65 68 67 63 62 62 62 60 59 58 56 54 54 52 52 51 51 51 52 50 48 47 48 50 48 48 47 44 43 43 43 43 41 40 40 39 39 39 38 38 37 33 36 34 35 35 36 33 33 29 30 27 28 27 27 26 26 25 25 23 22 21 21 19 19 18 14 17 10 9 0 0 0 0 0 0 -225 -225 -225 -225 -225 -225 -225 -225 -225 -225 -225 -225 -225 -225 -225 -225 0 0 0 9 0 9 10 10 11 10 12 12 11 12 11 11 13 15 17 18 22 22 23 25 24 25 23 23 26 26 26 26 28 30 28 32 33 32 36 35 35 34 34 36 35 36 37 35 39 41 40 40 45 44 45 49 47 47 47 49 51 47 52 52 47 56 56 56 59 64 65 64 69 66 65 66 69 66 68 67 67 65 68 68 68 66 70 67 70 71 71 72 75 78 78 83 84 85 87 87 87 87 88 89 87 89 88 87 95 93 94 95 -193 -193 -193 -193 99 -193 102 -193 -193 105 106 105 106 107 107 107 105 108 118 123 122 122 122 128 126 125 126 126 128 128 128 128 125 126 0 0 0 0 0
    0 0 0 0 0 0 0 0 0 0 0 0 0 0 0 0 0 0 0 0 0 0 0 0 0 0 0 0 0 0 0 0 0 0 0 0 0 0 0 0 0 0 0 0 0 0 0 0 0 0 0 0 0 0 0 0 0 0 0 0 0 0 0 0 0 0 0 0 0 66 67 66 66 65 65 65 63 65 68 67 64 62 62 62 59 58 57 55 54 53 51 51 50 51 51 52 49 47 47 47 50 48 48 47 45 43 44 44 44 42 41 40 39 38 39 37 37 37 33 34 32 33 34 35 32 32 28 30 27 28 27 27 26 26 26 25 23 23 22 22 19 19 18 14 17 11 10 0 0 0 0 0 0 -225 -225 -225 -225 -225 -225 -225 -225 -225 -225 -225 -225 -225 -225 -225 0 0 0 0 10 0 9 10 11 10 10 11 11 10 11 11 11 -193 17 18 21 23 23 25 25 25 25 24 24 27 26 26 26 27 29 28 31 33 31 36 35 36 35 35 36 35 36 37 36 38 40 39 40 44 44 45 48 46 46 46 48 50 47 51 51 46 56 57 57 60 64 66 65 69 67 66 66 69 66 68 66 66 65 67 67 67 66 69 67 70 71 71 73 75 77 77 82 83 85 86 86 87 87 89 89 88 90 87 86 -193 -193 -193 95 -193 -193 -193 -177 98 -193 101 -209 105 106 107 106 108 109 109 109 105 109 118 123 122 122 122 128 125 125 125 126 127 128 128 128 125 126 0 0 0 0 0
    0 0 0 0 0 0 0 0 0 0 0 0 0 0 0 0 0 0 0 0 0 0 0 0 0 0 0 0 0 0 0 0 0 0 0 0 0 0 0 0 0 0 0 0 0 0 0 0 0 0 0 0 0 0 0 0 0 0 0 0 0 0 0 0 0 0 0 0 0 66 67 66 66 65 65 65 64 65 68 68 66 63 63 62 60 57 57 55 54 53 51 50 50 50 51 52 49 47 47 47 49 48 47 47 45 44 44 44 44 42 41 40 39 38 38 37 37 37 33 33 31 32 32 35 31 31 28 30 27 29 27 28 26 26 26 26 23 23 22 22 20 19 18 15 17 12 11 9 0 0 0 0 0 -225 -225 -225 -225 -225 -225 -225 -225 -225 -225 -225 -225 -225 -225 0 0 0 0 0 10 0 0 9 9 9 10 10 10 9 11 11 11 -193 18 18 22 22 22 25 25 26 26 24 25 27 27 27 26 27 29 28 31 33 32 36 36 36 37 36 37 36 37 38 37 39 40 40 40 45 44 44 48 46 46 46 47 50 46 51 52 48 57 59 59 60 64 67 66 69 67 66 66 69 66 68 65 66 64 65 65 66 65 68 66 70 70 71 72 75 77 76 81 83 84 86 86 87 87 89 90 88 89 -209 -193 -193 -177 -177 -193 -193 -193 -193 -177 97 93 100 -193 104 106 107 106 108 110 110 110 105 109 118 123 121 121 121 127 125 124 125 125 127 128 127 128 125 126 0 0 0 0 0
    0 0 0 0 0 0 0 0 0 0 0 0 0 0 0 0 0 0 0 0 0 0 0 0 0 0 0 0 0 0 0 0 0 0 0 0 0 0 0 0 0 0 0 0 0 0 0 0 0 0 0 0 0 0 0 0 0 0 0 0 0 0 0 0 0 0 0 0 0 67 66 67 66 66 66 66 65 65 68 69 67 65 64 61 60 58 58 56 56 54 51 51 50 51 50 51 50 47 46 47 48 47 47 47 45 44 44 44 43 42 42 41 39 38 38 37 37 37 34 33 30 32 31 34 30 30 28 30 27 29 28 28 26 27 26 26 24 23 22 22 20 19 19 17 18 13 11 10 0 0 0 0 0 -225 -225 -225 -225 -225 -225 -225 -225 -225 -225 -225 -225 0 0 0 0 0 0 0 0 0 0 0 9 10 10 11 10 10 12 12 15 19 20 20 23 22 22 24 24 25 25 25 25 26 27 27 27 28 29 28 31 33 32 35 36 37 37 36 37 37 38 39 38 40 40 40 40 45 44 44 48 46 46 47 47 50 47 52 53 50 57 59 59 61 65 67 66 68 68 66 66 69 66 67 65 65 65 65 65 66 66 68 66 70 70 70 72 75 76 76 81 83 85 87 87 88 88 90 90 88 -209 -177 -209 -177 -177 -177 -209 -209 -209 -193 -193 98 94 100 104 104 105 106 106 108 110 110 110 105 108 118 123 121 121 121 126 125 124 125 125 126 128 127 128 125 126 0 0 0 0 0
    0 0 0 0 0 0 0 0 0 0 0 0 0 0 0 0 0 0 0 0 0 0 0 0 0 0 0 0 0 0 0 0 0 0 0 0 0 0 0 0 0 0 0 0 0 0 0 0 0 0 0 0 0 0 0 0 0 0 0 0 0 0 0 0 0 0 0 0 0 68 66 67 67 66 66 66 66 65 68 69 67 66 64 61 60 58 58 57 57 55 51 52 50 51 50 50 50 48 46 47 47 47 46 47 45 44 44 43 43 42 42 41 38 37 38 37 37 37 34 33 30 32 31 34 30 30 28 29 27 29 28 28 26 27 26 26 24 24 22 23 21 20 19 18 18 13 11 10 0 0 0 0 0 -225 -225 -225 -225 -225 -225 -225 -225 -225 -225 -225 0 0 0 0 0 0 0 0 0 0 0 0 0 0 0 9 0 0 10 10 14 20 19 19 23 21 22 23 23 25 25 24 24 26 27 27 27 27 28 28 29 31 31 32 36 36 37 36 38 38 39 40 40 41 40 42 41 46 44 45 48 46 47 48 47 50 48 52 53 51 57 59 59 61 65 67 66 68 68 66 66 68 65 67 65 65 65 64 65 66 66 68 66 70 70 70 72 74 75 75 80 83 85 87 87 88 87 90 90 -193 -209 -177 -209 -177 -177 -177 -193 -209 -209 -193 -193 98 95 100 104 103 105 106 105 108 109 110 109 104 108 118 122 121 121 121 124 126 124 125 125 126 129 127 128 126 126 0 0 0 0 0
    0 0 0 0 0 0 0 0 0 0 0 0 0 0 0 0 0 0 0 0 0 0 0 0 0 0 0 0 0 0 0 0 0 0 0 0 0 0 0 0 0 0 0 0 0 0 0 0 0 0 0 0 0 0 0 0 0 0 0 0 0 0 0 0 0 0 0 0 0 68 66 67 67 66 66 66 66 65 67 69 66 66 65 61 60 59 59 58 57 56 51 53 50 52 50 50 50 48 46 47 46 47 46 47 46 44 44 44 43 42 42 41 38 37 37 37 37 37 34 33 30 32 31 34 29 29 28 29 27 29 28 28 26 27 26 26 24 24 22 23 21 19 19 18 18 13 11 11 0 0 0 0 0 -225 -225 -225 -225 -225 -225 -225 -225 -225 -225 -225 0 0 0 0 0 0 0 0 0 0 0 0 0 0 0 0 0 0 9 9 15 20 19 19 22 21 22 22 23 24 23 23 24 24 26 26 27 27 27 28 29 31 30 31 36 36 38 37 38 39 39 40 41 41 41 44 42 47 45 45 49 47 47 48 47 50 48 52 53 51 57 59 59 61 65 66 65 67 68 66 65 68 65 67 64 65 65 64 65 66 65 68 66 70 70 70 72 74 75 75 79 83 84 87 87 87 87 89 90 -193 -209 -177 -209 -193 -177 -177 -193 -193 -209 -193 96 98 96 100 104 103 105 105 105 107 108 109 109 103 108 117 121 120 120 120 123 126 124 124 124 125 129 127 128 126 125 0 0 0 0 0
    0 0 0 0 0 0 0 0 0 0 0 0 0 0 0 0 0 0 0 0 0 0 0 0 0 0 0 0 0 0 0 0 0 0 0 0 0 0 0 0 0 0 0 0 0 0 0 0 0 0 0 0 0 0 0 0 0 0 0 0 0 0 0 0 0 0 0 0 0 68 66 67 67 66 66 66 67 64 66 68 65 64 63 61 59 58 59 57 57 56 52 53 51 52 50 50 50 48 47 47 46 47 46 47 47 45 45 44 44 43 42 41 38 37 37 37 36 37 34 34 30 32 31 34 29 29 28 29 27 29 28 28 26 27 26 26 24 25 22 22 21 19 19 18 18 12 11 11 0 0 0 0 0 -225 -225 -225 -225 -225 -225 -225 -225 -225 -225 -225 0 0 0 0 0 0 0 0 0 0 0 0 0 0 0 0 0 0 9 9 16 20 18 19 22 21 22 22 22 23 23 23 23 24 26 26 26 27 27 28 28 29 29 29 35 36 38 37 39 40 40 41 42 42 41 47 44 47 45 46 49 47 48 49 47 50 48 52 53 51 57 59 59 62 66 66 66 67 69 66 65 68 65 67 64 65 65 64 65 66 65 68 66 71 70 70 72 74 75 75 78 83 84 86 86 87 87 89 90 87 -193 -193 -209 -193 -193 -193 -193 -193 -193 -193 96 98 96 100 104 102 104 104 104 106 107 108 108 101 107 117 121 120 120 120 121 126 124 124 124 -193 129 127 128 127 125 0 0 0 0 0
    0 0 0 0 0 0 0 0 0 0 0 0 0 0 0 0 0 0 0 0 0 0 0 0 0 0 0 0 0 0 0 0 0 0 0 0 0 0 0 0 0 0 0 0 0 0 0 0 0 0 0 0 0 0 0 0 0 0 0 0 0 0 0 0 0 0 0 0 0 68 66 67 67 66 66 66 67 63 65 67 63 62 61 59 59 58 58 57 57 56 52 54 51 52 50 50 50 48 47 47 46 47 46 47 47 45 45 44 44 43 43 41 38 37 36 36 36 36 35 34 31 32 31 34 29 29 29 29 28 29 29 29 26 27 26 26 25 25 22 22 21 19 19 18 18 12 10 10 0 0 0 0 0 -225 -225 -225 -225 -225 -225 -225 -225 -225 -225 -225 0 0 0 0 0 0 0 0 0 0 0 0 0 0 0 0 0 0 9 9 15 19 18 19 22 20 21 22 22 23 22 22 23 23 26 26 26 27 27 28 29 29 29 28 34 36 38 37 38 39 40 41 43 42 41 48 45 48 46 46 50 47 48 49 47 50 48 51 53 50 57 59 59 63 66 66 65 66 69 66 65 68 65 67 65 66 66 64 66 67 66 68 66 71 70 71 72 74 74 75 77 82 82 85 85 86 86 -193 90 88 -193 -193 -209 -209 -209 -209 -209 95 96 97 97 98 97 99 103 101 102 103 102 105 105 107 107 101 107 117 120 119 119 119 121 126 124 124 124 124 130 127 128 127 125 0 0 0 0 0
    0 0 0 0 0 0 0 0 0 0 0 0 0 0 0 0 0 0 0 0 0 0 0 0 0 0 0 0 0 0 0 0 0 0 0 0 0 0 0 0 0 0 0 0 0 0 0 0 0 0 0 0 0 0 0 0 0 0 0 0 0 0 0 0 0 0 0 0 0 68 66 67 67 66 66 66 67 63 65 67 62 61 -193 59 -193 -193 58 57 57 56 53 55 52 52 51 50 50 49 47 47 45 46 45 47 47 45 45 44 44 43 43 42 39 36 36 36 35 36 35 34 31 31 32 35 29 29 29 29 28 29 29 29 25 26 26 26 25 26 23 22 22 20 19 19 18 13 10 10 9 0 0 0 0 -225 -225 -225 -225 -225 -225 -225 -225 -225 -225 0 0 0 0 0 0 0 0 0 0 0 0 0 0 0 0 0 0 9 9 10 15 18 17 19 21 19 20 21 21 23 22 23 24 24 27 27 27 28 28 29 29 29 29 27 34 35 37 36 37 38 39 41 43 42 41 49 46 48 47 47 50 47 48 49 47 50 48 51 53 50 57 59 59 63 66 66 65 64 68 65 65 67 65 68 66 67 67 65 68 68 68 68 67 71 70 71 72 73 73 74 75 79 79 83 84 84 85 -193 90 -193 -193 69 -209 100 -209 -209 -193 97 97 98 97 99 97 99 102 100 102 101 101 103 104 -193 106 100 107 116 120 119 119 119 120 127 124 124 124 124 130 128 128 128 125 0 0 0 0 0
    0 0 0 0 0 0 0 0 0 0 0 0 0 0 0 0 0 0 0 0 0 0 0 0 0 0 0 0 0 0 0 0 0 0 0 0 0 0 0 0 0 0 0 0 0 0 0 0 0 0 0 0 0 0 0 0 0 0 0 0 0 0 0 0 0 0 0 0 0 68 66 67 67 66 66 66 67 63 64 66 62 60 -193 -193 -193 -193 -193 -193 57 -193 54 55 52 52 51 51 51 49 48 48 45 46 45 46 46 44 44 43 43 42 42 41 38 35 35 35 35 35 35 34 32 32 33 35 30 30 29 29 28 30 29 29 25 26 26 26 26 26 23 22 22 20 19 19 18 13 10 11 9 0 0 0 0 -225 -225 -225 -225 -225 -225 -225 -225 -225 0 0 0 0 0 0 0 0 0 9 0 9 9 0 0 0 0 0 0 9 9 9 15 17 16 18 20 18 19 20 21 22 22 23 24 24 27 27 28 28 28 29 30 29 30 28 34 36 37 36 36 38 38 40 42 42 41 49 46 48 48 47 50 48 49 49 47 50 49 51 53 50 57 59 60 63 66 65 64 64 69 65 65 67 66 68 67 68 68 66 69 69 69 69 68 71 71 71 72 73 73 73 75 78 76 81 83 83 85 89 91 89 -209 -209 -209 101 -209 -209 -193 98 99 98 98 99 98 99 102 99 101 100 100 101 103 721 105 99 106 115 119 118 118 118 120 127 124 125 125 -193 130 128 128 128 125 0 0 0 0 0
    0 0 0 0 0 0 0 0 0 0 0 0 0 0 0 0 0 0 0 0 0 0 0 0 0 0 0 0 0 0 0 0 0 0 0 0 0 0 0 0 0 0 0 0 0 0 0 0 0 0 0 0 0 0 0 0 0 0 0 0 0 0 0 0 0 0 0 0 0 68 66 67 67 66 66 66 67 63 65 66 61 60 -177 -177 -177 -177 -193 -193 -193 -193 55 56 53 52 51 51 51 50 48 48 45 46 45 45 46 43 43 42 42 41 41 40 38 35 35 35 35 36 35 35 33 32 34 36 31 31 30 29 28 30 30 29 26 26 26 25 26 27 23 22 22 20 19 19 19 15 11 11 10 0 0 0 0 -225 -225 -225 -225 -225 -225 -225 -225 0 0 0 0 0 0 9 0 9 9 9 0 9 0 0 0 0 0 0 0 9 9 9 14 16 15 16 18 16 18 19 20 22 22 23 24 -193 28 27 28 28 28 29 30 29 30 28 33 35 36 35 35 37 37 40 41 41 40 49 46 48 48 47 50 48 49 49 47 50 49 50 53 51 57 58 59 62 65 64 64 63 68 64 65 67 67 69 69 69 69 68 71 71 71 70 69 72 71 71 72 73 72 73 74 77 75 81 84 84 86 89 92 91 95 -209 -209 100 103 102 -193 99 100 100 99 99 99 99 102 99 100 100 99 100 102 -193 104 98 106 113 119 118 118 118 120 127 125 125 125 125 130 128 128 128 125 0 0 0 0 0
    0 0 0 0 0 0 0 0 0 0 0 0 0 0 0 0 0 0 0 0 0 0 0 0 0 0 0 0 0 0 0 0 0 0 0 0 0 0 0 0 0 0 0 0 0 0 0 0 0 0 0 0 0 0 0 0 0 0 0 0 0 0 0 0 0 0 0 0 0 68 66 67 67 66 66 66 66 63 65 66 60 60 -177 -177 -193 -193 -193 -193 58 58 57 56 53 53 52 52 51 51 49 49 45 46 45 45 46 43 42 42 42 41 41 40 39 35 35 36 35 36 36 36 34 33 35 36 32 31 30 30 29 31 30 29 26 26 26 25 26 27 23 23 22 20 19 19 19 16 11 12 10 0 0 0 0 -225 -225 -225 -225 -225 0 0 0 0 0 0 0 0 0 9 0 9 9 10 9 9 9 0 0 0 0 9 0 9 9 9 13 15 14 16 17 16 18 18 19 21 21 23 23 24 27 27 28 28 29 29 29 29 29 27 32 35 34 32 33 35 36 39 40 40 40 48 46 48 48 48 50 48 49 49 47 49 49 49 52 49 57 57 58 62 65 62 62 61 68 64 64 67 67 69 70 70 70 69 -193 73 73 71 70 72 71 71 72 72 72 73 74 78 75 82 85 85 87 90 92 92 95 94 94 100 103 102 -193 100 102 101 101 100 100 99 102 100 100 99 99 99 102 -193 103 99 106 112 118 118 118 118 119 128 125 126 126 126 130 128 128 129 125 0 0 0 0 0
    0 0 0 0 0 0 0 0 0 0 0 0 0 0 0 0 0 0 0 0 0 0 0 0 0 0 0 0 0 0 0 0 0 0 0 0 0 0 0 0 0 0 0 0 0 0 0 0 0 0 0 0 0 0 0 0 0 0 0 0 0 0 0 0 0 0 0 0 0 68 66 67 67 66 66 66 65 63 65 65 60 59 -193 -193 -193 -193 -193 -193 58 58 57 57 53 53 52 52 51 51 50 49 45 47 45 45 46 44 43 42 42 41 41 40 39 36 36 36 36 37 36 36 35 33 35 36 33 31 31 31 29 31 30 29 26 26 26 25 25 28 23 23 22 20 19 19 19 17 11 12 10 0 9 9 9 -225 -225 -225 9 0 0 0 0 0 0 0 0 0 10 11 10 11 11 11 10 10 10 0 0 0 0 0 0 0 0 0 11 13 13 15 15 15 18 18 19 20 21 23 24 25 27 27 27 27 29 29 28 28 28 27 31 35 33 31 32 35 35 39 40 40 39 48 46 47 49 48 50 48 49 49 46 49 49 47 49 47 55 55 56 61 63 61 61 61 68 63 64 67 68 70 -193 71 71 71 -193 74 74 72 71 71 71 71 71 72 72 73 74 77 75 81 84 85 88 90 92 92 95 95 96 99 103 102 102 101 102 102 102 100 100 98 102 100 101 99 99 99 102 104 104 101 105 111 118 119 119 119 120 128 125 125 126 125 130 128 128 129 125 0 0 0 0 0
    0 0 0 0 0 0 0 0 0 0 0 0 0 0 0 0 0 0 0 0 0 0 0 0 0 0 0 0 0 0 0 0 0 0 0 0 0 0 0 0 0 0 0 0 0 0 0 0 0 0 0 0 0 0 0 0 0 0 0 0 0 0 0 0 0 0 0 0 0 67 66 67 67 66 66 66 65 62 65 64 59 58 -193 59 59 59 58 58 58 58 57 57 53 53 53 52 52 51 51 49 46 48 46 45 46 44 43 42 42 41 40 39 40 37 36 37 37 37 36 36 36 33 35 36 33 31 31 31 29 31 30 30 27 26 26 25 24 27 23 23 21 20 19 19 19 19 12 13 10 0 10 11 12 11 -225 12 11 10 0 0 0 0 0 0 0 0 10 11 10 11 10 11 11 10 10 0 0 0 0 9 0 0 9 9 11 13 12 15 15 16 17 18 19 20 21 23 -193 25 27 27 28 27 30 29 29 29 29 28 32 35 33 31 33 35 35 39 40 39 39 48 46 47 49 49 49 48 49 49 46 49 49 46 47 45 53 53 55 60 61 61 60 60 68 63 63 67 69 71 -193 72 72 -193 -193 75 75 72 72 71 70 70 71 72 72 73 74 77 75 82 85 86 89 91 93 94 96 95 97 98 103 101 101 100 102 101 101 99 99 96 101 100 100 99 100 99 103 104 104 103 105 110 118 119 119 119 120 128 125 125 125 -193 130 128 128 129 124 0 0 0 0 0
    0 0 0 0 0 0 0 0 0 0 0 0 0 0 0 0 0 0 0 0 0 0 0 0 0 0 0 0 0 0 0 0 0 0 0 0 0 0 0 0 0 0 0 0 0 0 0 0 0 0 0 0 0 0 0 0 0 0 0 0 0 0 0 0 0 0 0 0 0 67 67 68 67 66 65 65 64 61 65 63 58 57 -193 59 59 58 58 57 58 58 58 57 54 53 53 53 52 51 51 50 46 48 46 45 46 43 43 41 42 41 40 39 40 37 37 37 37 37 36 36 36 33 35 36 33 31 31 31 30 31 31 30 27 26 26 24 24 27 23 23 21 21 20 20 19 20 13 13 11 10 12 13 15 13 -225 13 12 11 0 0 0 0 0 0 0 0 10 11 11 13 12 12 13 12 11 10 9 10 9 10 9 9 10 10 11 13 12 14 14 16 16 17 19 20 21 23 24 25 27 27 28 28 30 29 29 30 30 29 33 35 33 30 33 35 34 39 39 39 39 46 45 45 48 48 48 47 48 48 46 49 49 46 47 49 54 54 56 59 60 60 59 59 67 62 63 66 69 -193 -193 73 73 -193 75 76 76 73 73 71 70 70 71 72 72 73 74 77 75 82 85 86 89 91 93 95 97 96 97 97 102 100 100 99 101 99 100 97 97 94 100 100 100 98 100 99 104 105 105 105 105 109 118 119 119 119 120 128 125 125 125 125 129 128 127 128 124 0 0 0 0 0
    0 0 0 0 0 0 0 0 0 0 0 0 0 0 0 0 0 0 0 0 0 0 0 0 0 0 0 0 0 0 0 0 0 0 0 0 0 0 0 0 0 0 0 0 0 0 0 0 0 0 0 0 0 0 0 0 0 0 0 0 0 0 0 0 0 0 0 0 0 68 67 68 67 66 65 66 63 61 66 64 58 57 59 59 59 59 58 58 58 58 58 57 54 53 53 53 52 52 52 50 46 48 46 45 45 43 43 41 41 41 40 39 40 37 37 38 37 37 36 36 36 33 35 36 34 31 31 31 30 31 31 30 28 26 26 24 24 27 23 23 22 21 21 20 20 21 14 15 11 11 13 14 17 15 11 14 14 13 0 9 0 0 0 0 0 0 10 10 10 11 10 11 12 11 10 9 9 9 9 10 10 9 10 10 11 12 12 14 14 16 15 17 19 20 21 23 24 25 27 27 28 28 31 29 30 32 31 30 34 36 33 30 34 35 33 38 39 40 39 46 46 45 49 49 48 48 48 48 47 49 50 46 47 52 55 54 55 58 59 59 58 58 67 62 63 66 70 -193 -177 74 74 74 76 77 77 74 74 72 72 72 72 73 73 73 75 77 76 81 84 86 89 91 94 95 97 97 97 96 102 99 99 98 100 98 99 95 95 93 99 100 100 98 100 100 105 105 105 105 104 108 117 120 120 120 120 127 125 125 125 125 129 127 127 128 124 0 0 0 0 0
    0 0 0 0 0 0 0 0 0 0 0 0 0 0 0 0 0 0 0 0 0 0 0 0 0 0 0 0 0 0 0 0 0 0 0 0 0 0 0 0 0 0 0 0 0 0 0 0 0 0 0 0 0 0 0 0 0 0 0 0 0 0 0 0 0 0 0 0 0 68 68 68 67 66 66 66 63 62 65 64 58 58 60 60 60 59 59 58 58 58 58 57 54 53 53 54 53 52 52 50 47 47 47 46 45 43 43 41 41 41 40 39 39 37 37 38 37 36 36 36 36 34 35 35 34 31 31 30 30 32 31 30 28 25 26 24 24 27 23 23 22 22 21 21 20 22 16 16 12 12 14 14 17 14 10 11 9 0 0 0 0 0 0 0 0 0 10 10 11 11 11 11 11 11 10 10 9 9 9 10 9 9 10 10 11 12 13 14 14 16 16 17 20 20 21 23 -193 25 27 27 28 28 31 29 30 32 31 30 34 36 33 30 34 35 33 38 39 40 39 45 47 46 49 49 48 48 47 48 47 49 50 46 46 54 55 55 55 57 58 58 58 57 66 62 63 66 70 -193 -177 74 74 74 77 77 77 75 75 73 73 73 73 73 73 74 75 77 77 81 82 86 89 92 94 96 97 97 96 94 101 97 97 97 98 96 97 94 95 92 98 101 -193 -193 -193 101 105 106 106 106 103 107 117 120 120 120 120 127 125 125 125 -193 -193 127 126 127 124 0 0 0 0 0
    0 0 0 0 0 0 0 0 0 0 0 0 0 0 0 0 0 0 0 0 0 0 0 0 0 0 0 0 0 0 0 0 0 0 0 0 0 0 0 0 0 0 0 0 0 0 0 0 0 0 0 0 0 0 0 0 0 0 0 0 0 0 0 0 0 0 0 0 0 69 68 69 67 66 66 66 63 62 65 64 58 58 60 60 60 59 59 59 58 59 59 58 55 54 54 54 53 52 51 51 47 47 47 46 45 43 43 42 41 41 40 39 39 38 37 38 37 36 36 36 36 34 34 35 34 31 31 30 29 31 30 29 28 25 26 24 24 26 23 23 22 22 22 21 21 22 17 17 12 13 14 14 16 14 10 13 10 0 0 0 0 0 0 0 0 0 10 11 11 12 11 11 12 11 10 10 9 9 9 10 9 9 10 10 11 12 13 14 14 16 17 18 19 20 20 22 24 25 26 26 28 27 30 29 30 32 31 30 34 36 34 31 35 35 33 38 39 40 39 45 47 46 49 50 48 48 47 48 47 48 50 47 46 54 55 54 55 56 57 57 57 56 66 62 63 66 70 -193 -177 74 74 75 76 77 77 75 76 73 74 75 73 74 74 74 75 77 78 82 81 87 89 92 95 96 98 97 97 94 101 97 96 96 97 95 -193 94 94 91 97 102 -177 -177 -177 102 105 106 106 106 102 106 117 121 121 121 121 126 124 124 124 -193 364 127 126 127 124 0 0 0 0 0
    0 0 0 0 0 0 0 0 0 0 0 0 0 0 0 0 0 0 0 0 0 0 0 0 0 0 0 0 0 0 0 0 0 0 0 0 0 0 0 0 0 0 0 0 0 0 0 0 0 0 0 0 0 0 0 0 0 0 0 0 0 0 0 0 0 0 0 0 0 69 69 69 67 66 66 66 63 62 64 64 58 58 60 60 60 59 59 59 58 59 59 57 55 54 54 54 53 52 51 51 47 47 47 46 46 43 43 42 42 41 40 39 39 38 38 39 38 36 36 36 36 34 34 34 33 31 30 30 29 30 30 29 28 25 25 24 24 25 23 23 21 22 22 21 21 22 18 18 12 15 14 14 16 14 10 9 0 0 0 0 0 0 0 0 0 0 10 11 11 12 11 11 12 11 10 10 9 9 9 9 9 9 10 10 10 12 13 14 14 16 17 17 19 20 20 22 24 25 26 26 28 27 30 29 30 32 31 30 34 36 33 31 35 35 33 38 39 40 40 45 48 46 49 50 47 47 47 48 47 48 50 46 46 54 55 54 55 55 56 55 57 56 66 62 64 67 70 70 -177 74 74 75 76 76 76 75 76 -193 74 75 74 74 74 74 75 77 79 82 81 87 90 92 95 97 98 97 98 95 101 98 96 96 96 -193 -177 -193 94 90 97 -209 -177 -177 -177 103 106 107 107 107 102 107 117 121 120 120 120 125 124 124 124 -193 364 127 125 126 124 0 0 0 0 0
    0 0 0 0 0 0 0 0 0 0 0 0 0 0 0 0 0 0 0 0 0 0 0 0 0 0 0 0 0 0 0 0 0 0 0 0 0 0 0 0 0 0 0 0 0 0 0 0 0 0 0 0 0 0 0 0 0 0 0 0 0 0 0 0 0 0 0 0 0 70 69 69 67 66 66 66 63 61 64 64 58 -193 -193 60 59 59 59 58 58 59 59 57 55 54 54 54 53 51 51 50 47 47 47 46 46 44 44 43 42 42 41 40 39 39 39 39 38 35 36 36 36 34 33 34 32 30 31 30 29 30 30 29 28 25 26 24 24 25 23 24 21 22 22 21 21 22 19 19 13 16 15 15 16 14 10 0 0 0 0 0 0 0 0 0 0 0 10 10 11 12 11 11 12 11 10 10 10 9 9 9 0 9 9 9 10 12 13 14 15 17 17 17 19 20 20 22 23 24 26 27 28 28 31 29 30 31 31 29 33 34 33 30 34 35 32 38 39 40 41 45 49 46 49 50 48 47 47 48 48 48 50 47 46 54 54 54 54 55 55 54 56 56 64 63 64 67 70 70 -177 -193 73 74 75 75 75 -193 76 -193 74 76 74 74 74 74 75 77 80 82 80 87 89 91 94 95 98 97 98 95 102 98 97 96 95 -177 -177 -177 -193 90 96 -209 -177 -177 -177 104 106 108 108 108 103 107 117 121 120 120 120 124 124 123 123 123 365 127 125 126 125 0 0 0 0 0
    0 0 0 0 0 0 0 0 0 0 0 0 0 0 0 0 0 0 0 0 0 0 0 0 0 0 0 0 0 0 0 0 0 0 0 0 0 0 0 0 0 0 0 0 0 0 0 0 0 0 0 0 0 0 0 0 0 0 0 0 0 0 0 0 0 0 0 0 0 70 70 70 67 66 66 66 63 61 63 63 -193 -193 -193 59 59 59 58 58 57 58 58 57 55 54 54 54 52 51 50 49 46 47 47 47 46 44 44 42 42 42 41 40 39 39 39 39 38 34 36 35 35 34 33 33 32 30 31 30 29 29 30 29 28 26 26 24 24 25 23 -193 21 22 22 21 21 22 20 19 13 17 16 16 17 13 10 0 0 0 0 0 0 0 0 0 0 0 9 10 11 11 10 11 12 11 10 10 9 9 9 9 0 0 9 0 9 11 12 13 14 16 17 17 19 21 21 22 -193 25 27 27 29 28 31 30 31 31 31 28 32 33 32 30 33 34 32 38 39 41 41 45 49 46 49 50 48 47 47 48 48 48 51 47 47 54 54 54 54 55 54 54 56 56 63 63 64 66 70 69 684 72 72 -193 -193 75 75 -177 75 -193 74 76 74 73 74 74 74 76 80 82 79 86 -193 89 93 94 97 96 99 95 102 99 97 95 94 -177 -177 -177 -177 -209 -193 187 -193 -177 -177 104 106 107 108 108 102 108 117 121 120 120 120 123 124 123 123 123 365 127 125 126 125 0 0 0 0 0
    0 0 0 0 0 0 0 0 0 0 0 0 0 0 0 0 0 0 0 0 0 0 0 0 0 0 0 0 0 0 0 0 0 0 0 0 0 0 0 0 0 0 0 0 0 0 0 0 0 0 0 0 0 0 0 0 0 0 0 0 0 0 0 0 0 0 0 0 0 70 70 70 67 66 66 66 63 61 62 63 -193 -193 -193 59 58 58 58 58 57 58 58 57 55 55 54 54 52 51 51 50 47 47 47 47 46 44 44 42 43 42 41 40 39 39 39 39 38 34 35 34 34 33 33 33 32 30 31 30 29 29 30 29 29 26 26 25 24 24 23 -193 21 21 21 21 21 22 21 19 14 17 17 17 17 15 11 0 0 0 0 0 0 0 0 0 0 0 0 9 10 10 10 10 11 10 10 10 10 10 10 10 9 9 10 0 9 12 12 13 14 16 16 17 19 21 21 22 25 25 28 28 30 29 31 30 32 30 31 28 32 33 32 30 34 35 33 38 40 42 42 45 50 46 50 50 48 47 48 48 49 49 51 48 48 53 54 54 54 55 54 54 57 57 63 65 65 66 69 68 684 70 71 -193 -209 74 -193 -193 75 -193 75 77 74 73 74 74 74 76 80 82 78 86 -193 88 92 93 95 94 97 94 102 99 96 95 93 -177 -177 -177 -177 -193 -209 187 -193 -177 -193 103 105 106 107 107 101 108 117 120 119 119 119 121 124 123 123 123 366 128 125 126 125 0 0 0 0 0
    0 0 0 0 0 0 0 0 0 0 0 0 0 0 0 0 0 0 0 0 0 0 0 0 0 0 0 0 0 0 0 0 0 0 0 0 0 0 0 0 0 0 0 0 0 0 0 0 0 0 0 0 0 0 0 0 0 0 0 0 0 0 0 0 0 0 0 0 0 70 70 70 68 67 66 66 63 61 63 64 58 -193 -193 59 58 58 58 58 57 58 58 57 56 55 54 55 53 52 51 50 47 47 47 47 46 44 44 43 43 42 41 40 39 39 39 39 38 33 35 34 34 33 33 33 32 30 31 31 29 29 30 29 29 27 26 25 24 24 23 24 21 22 22 21 21 22 21 20 15 18 19 18 18 16 13 11 9 0 0 0 0 0 0 0 0 0 0 0 9 9 9 9 10 9 10 9 9 9 9 9 9 9 9 9 10 12 13 13 14 16 16 17 19 21 21 23 25 25 28 28 30 29 31 30 31 30 31 28 32 33 32 31 35 35 34 37 40 42 41 44 50 46 49 50 48 48 48 49 50 49 52 49 49 54 55 55 55 55 54 55 58 58 63 66 65 66 69 67 -177 69 70 -193 -193 -193 -193 -193 75 -193 75 77 74 73 74 74 74 76 79 81 77 85 -193 87 91 92 94 92 95 94 102 98 96 94 -193 430 434 -177 -177 -193 -193 186 188 -177 -193 103 104 105 106 106 101 108 117 120 119 119 119 121 124 123 123 123 366 128 126 127 126 0 0 0 0 0
    0 0 0 0 0 0 0 0 0 0 0 0 0 0 0 0 0 0 0 0 0 0 0 0 0 0 0 0 0 0 0 0 0 0 0 0 0 0 0 0 0 0 0 0 0 0 0 0 0 0 0 0 0 0 0 0 0 0 0 0 0 0 0 0 0 0 0 0 0 70 70 70 68 67 67 67 63 62 63 64 58 57 58 58 58 58 58 58 57 58 59 58 56 55 -193 55 53 53 51 50 47 48 48 47 46 44 44 43 44 42 41 40 40 39 39 39 38 33 35 33 34 33 32 32 31 29 31 31 30 29 30 29 29 27 27 26 25 25 23 24 21 22 22 21 21 22 21 20 15 18 19 18 18 17 14 12 11 0 0 0 0 0 0 0 0 0 0 0 0 0 0 0 9 0 9 0 0 0 0 0 0 0 0 0 9 11 12 13 14 16 17 17 20 22 22 23 26 26 29 29 30 29 31 30 31 30 32 28 33 34 33 32 35 36 35 37 40 41 41 44 52 47 50 50 49 48 49 50 50 50 52 50 51 54 55 55 55 55 55 56 58 59 63 67 65 66 69 67 69 69 69 0 -193 -209 -193 -193 -193 -193 74 77 74 -193 74 74 75 75 79 81 77 85 -193 87 91 91 -193 92 95 95 102 99 96 95 93 430 433 -177 -177 -193 -177 186 188 -177 -193 103 104 104 105 106 101 108 117 120 119 119 119 120 124 123 123 123 -193 129 126 127 127 0 0 0 0 0</data></disparity>
</opencv_storage>
