<?xml version="1.0"?>
<opencv_storage>
<gps_time_stamp>314122</gps_time_stamp>
<gps_x>-1.2397655487060547e+001</gps_x>
<gps_y>1.0945349693298340e+001</gps_y>
<gps_z>-1.9585206508636475e+000</gps_z>
<image_time_stamp>304960</image_time_stamp>
<disparity type_id="opencv-matrix">
  <rows>87</rows>
  <cols>320</cols>
  <dt>s</dt>
  <data>
    0 0 0 0 0 0 0 0 0 0 0 0 0 0 0 0 0 0 0 0 0 0 0 0 0 0 0 0 0 0 0 0 0 0 0 0 0 0 0 0 0 0 0 0 0 0 0 0 0 0 0 0 0 0 0 0 0 0 0 0 0 0 0 0 0 0 0 0 0 47 48 49 46 44 45 44 43 44 43 42 41 39 39 39 40 40 40 44 43 44 43 43 43 42 41 41 38 37 32 37 34 31 33 32 32 30 30 30 28 28 29 28 27 22 20 16 16 15 13 12 11 12 11 10 10 11 10 11 13 13 13 13 14 14 12 13 14 12 11 12 12 11 12 12 13 12 12 12 12 13 12 12 13 10 11 11 11 11 10 11 11 10 11 11 10 11 11 12 12 12 12 12 12 12 12 12 11 10 14 21 22 27 27 30 31 32 34 37 35 36 37 43 43 43 44 45 44 49 -177 51 46 55 55 55 60 57 57 58 59 -193 256 256 -193 57 64 66 65 65 62 64 63 64 64 -193 -193 -193 -177 -209 -209 -193 -177 101 99 99 101 98 96 102 107 106 107 108 108 108 112 113 113 113 -193 122 123 127 125 126 127 128 129 -193 129 129 -193 130 129 127 128 131 -193 -193 -209 140 141 142 145 144 144 140 146 89 -193 87 88 -209 167 166 -193 -209 -193 -193 18 -193 -193 17 -193 -209 -209 -209 172 175 -193 0 0 0 0 0 0 0 0 0 -193 -193 413 -193 212 -177 -177 0 0 0 0 0
    0 0 0 0 0 0 0 0 0 0 0 0 0 0 0 0 0 0 0 0 0 0 0 0 0 0 0 0 0 0 0 0 0 0 0 0 0 0 0 0 0 0 0 0 0 0 0 0 0 0 0 0 0 0 0 0 0 0 0 0 0 0 0 0 0 0 0 0 0 47 48 49 46 44 45 43 43 44 42 42 41 38 38 39 40 40 -193 -193 44 44 44 43 43 42 42 42 38 37 32 37 34 31 33 31 32 30 30 30 28 29 29 28 27 24 23 -193 19 17 14 13 12 12 12 12 11 13 11 13 14 15 15 14 16 14 13 14 14 13 12 12 11 10 12 11 13 12 12 12 12 13 13 13 13 11 11 11 11 11 10 11 10 10 10 11 10 11 11 11 11 12 11 11 12 11 12 11 11 11 14 21 23 28 27 30 32 32 34 36 35 35 37 42 42 42 44 44 44 49 51 51 46 54 54 55 59 56 56 57 58 -193 256 -177 -193 57 63 66 65 65 63 64 62 63 64 62 -193 -193 -177 -177 -193 -193 -177 101 99 99 101 97 95 101 106 105 107 108 108 108 111 113 113 113 -193 -209 122 127 125 126 127 -193 129 -193 130 130 -193 131 130 128 128 131 -193 -193 -209 140 141 142 145 144 144 140 146 90 -209 -193 89 -193 167 -193 -193 -193 -193 -193 18 -193 19 19 -193 -209 -209 -209 172 -193 -193 0 0 0 0 0 0 0 0 0 -193 -193 412 -193 212 -177 -177 0 0 0 0 0
    0 0 0 0 0 0 0 0 0 0 0 0 0 0 0 0 0 0 0 0 0 0 0 0 0 0 0 0 0 0 0 0 0 0 0 0 0 0 0 0 0 0 0 0 0 0 0 0 0 0 0 0 0 0 0 0 0 0 0 0 0 0 0 0 0 0 0 0 0 47 48 49 46 44 44 43 43 44 42 41 41 38 38 39 40 -193 -177 -193 44 44 44 43 43 42 42 42 38 37 32 37 34 30 32 31 32 29 30 29 28 28 29 28 28 25 26 -209 -193 21 17 15 13 13 13 14 13 14 12 14 15 15 15 14 15 14 13 14 13 12 12 11 11 10 11 11 12 12 12 12 12 12 13 13 12 11 10 11 10 10 10 10 10 10 10 10 10 11 10 11 11 11 11 11 11 11 11 11 12 11 14 22 24 29 28 30 33 32 33 36 35 35 37 42 42 41 43 44 -177 -177 51 51 46 54 54 55 58 55 55 56 56 253 256 -177 -193 57 63 66 65 65 63 64 62 63 63 62 -193 -177 -193 -177 -193 -193 -177 101 99 98 101 97 95 101 105 105 106 107 107 107 111 113 113 113 -193 -209 122 127 125 126 127 -193 129 -193 130 130 -209 132 131 127 128 131 -193 -209 -209 140 141 142 145 144 145 140 146 91 -193 91 91 -193 167 -193 -193 -193 -193 15 18 19 19 19 -193 -193 -209 -209 -193 -193 0 0 0 0 0 0 0 0 0 0 -193 -193 411 -209 -193 -193 -193 0 0 0 0 0
    0 0 0 0 0 0 0 0 0 0 0 0 0 0 0 0 0 0 0 0 0 0 0 0 0 0 0 0 0 0 0 0 0 0 0 0 0 0 0 0 0 0 0 0 0 0 0 0 0 0 0 0 0 0 0 0 0 0 0 0 0 0 0 0 0 0 0 0 0 46 47 48 46 44 44 43 43 44 42 41 40 38 38 39 39 -193 -177 -177 44 44 44 43 43 43 42 43 38 37 33 37 35 30 33 31 32 29 30 30 28 29 29 28 28 26 27 -209 -209 23 19 16 14 15 14 15 14 15 14 15 16 16 15 15 14 15 13 14 13 12 12 11 11 10 11 12 12 12 12 11 12 12 13 12 12 11 9 10 9 11 10 10 10 10 10 10 10 11 10 10 11 11 10 10 11 11 10 10 12 12 14 22 26 30 29 30 33 32 33 36 34 34 36 42 42 41 43 43 43 48 51 51 46 54 54 55 57 53 54 54 55 -193 -177 -177 -193 57 63 66 66 66 64 64 62 63 63 62 60 -177 -193 -177 -193 -193 -177 100 98 97 100 97 94 100 105 105 106 107 107 107 111 113 113 113 -193 -193 122 127 125 126 127 -193 129 -177 129 130 -209 -193 131 127 128 131 -209 -209 -193 140 141 142 146 144 145 141 -193 92 -193 93 95 -193 166 -193 -193 -193 15 13 17 19 19 18 -193 -193 -193 21 -193 0 0 0 0 0 0 0 0 0 0 -193 -193 -193 -209 -209 -193 -193 -193 0 0 0 0 0
    0 0 0 0 0 0 0 0 0 0 0 0 0 0 0 0 0 0 0 0 0 0 0 0 0 0 0 0 0 0 0 0 0 0 0 0 0 0 0 0 0 0 0 0 0 0 0 0 0 0 0 0 0 0 0 0 0 0 0 0 0 0 0 0 0 0 0 0 0 46 47 48 46 44 44 44 44 45 42 41 40 38 38 38 39 -193 -193 -177 44 44 44 43 44 43 42 43 39 37 33 38 35 30 33 31 32 29 30 30 29 30 30 29 29 27 28 -209 25 23 19 17 15 16 16 17 15 16 14 16 16 15 15 14 13 14 12 14 12 11 12 11 11 10 11 12 12 12 12 11 11 11 12 12 11 10 9 10 9 11 11 11 11 11 11 11 11 11 11 11 11 11 10 10 10 10 10 10 12 13 13 22 27 31 29 30 34 32 33 36 34 33 36 41 41 40 42 43 43 47 51 50 46 54 54 54 56 52 52 52 53 54 -177 -177 -193 57 63 66 66 66 64 64 62 63 63 62 60 -177 -193 -177 -193 -193 -193 99 98 97 100 96 94 100 105 105 106 107 107 107 111 113 113 113 -193 -193 122 127 125 126 127 129 130 -193 130 130 -193 -193 131 -193 127 131 -193 -209 -193 140 141 142 146 145 146 141 149 93 -193 -193 -193 -193 164 -193 -193 -193 13 12 16 18 18 18 -193 -193 22 -193 -193 0 0 0 0 0 0 0 0 0 -193 -193 -209 -193 -177 92 95 94 93 0 0 0 0 0
    0 0 0 0 0 0 0 0 0 0 0 0 0 0 0 0 0 0 0 0 0 0 0 0 0 0 0 0 0 0 0 0 0 0 0 0 0 0 0 0 0 0 0 0 0 0 0 0 0 0 0 0 0 0 0 0 0 0 0 0 0 0 0 0 0 0 0 0 0 46 46 48 46 44 44 44 44 45 42 41 40 38 38 39 39 -193 -193 -193 44 45 44 43 44 43 42 43 39 37 33 37 35 30 33 30 32 29 30 30 29 30 30 29 30 28 29 27 27 25 20 18 15 17 18 18 15 16 14 15 15 15 15 14 12 13 11 13 11 10 10 10 11 10 11 12 12 12 11 11 12 11 12 12 12 11 10 12 10 12 12 12 12 12 11 12 11 12 12 12 12 12 11 11 11 10 10 10 12 13 14 22 28 31 29 30 33 32 32 35 34 32 35 40 40 39 42 42 42 46 50 50 45 53 53 53 55 51 51 51 52 53 -177 -177 -193 57 63 67 66 66 64 64 62 63 63 62 60 -177 -193 -177 -193 -193 -193 98 97 96 100 97 94 100 105 105 106 107 107 107 111 113 113 113 -209 -193 122 127 125 126 128 129 130 -193 131 131 -193 -193 132 -193 -193 132 -193 -193 -193 140 141 142 146 145 146 141 -193 -209 -193 -193 -193 158 164 164 -193 -193 -193 11 16 19 18 18 -193 -193 23 -209 -209 0 0 0 0 0 0 0 0 0 -193 -193 -193 -193 -177 92 96 95 93 0 0 0 0 0
    0 0 0 0 0 0 0 0 0 0 0 0 0 0 0 0 0 0 0 0 0 0 0 0 0 0 0 0 0 0 0 0 0 0 0 0 0 0 0 0 0 0 0 0 0 0 0 0 0 0 0 0 0 0 0 0 0 0 0 0 0 0 0 0 0 0 0 0 0 46 46 48 45 44 44 43 44 45 43 42 41 38 38 39 40 -193 -193 -193 45 45 44 43 43 43 42 42 38 37 32 37 35 30 34 30 32 29 30 30 30 31 31 30 31 29 31 28 28 25 21 18 15 16 18 17 15 15 14 15 15 15 14 13 12 12 10 11 10 9 9 10 10 10 11 12 12 12 12 12 12 12 13 13 12 12 10 13 10 12 11 12 12 12 11 12 11 13 12 12 12 12 11 11 11 11 10 10 13 14 14 22 29 31 29 30 33 32 32 35 33 31 34 39 39 38 41 42 42 46 50 50 45 52 52 53 55 50 51 50 51 53 -177 -177 -193 58 63 67 66 67 65 64 62 63 63 62 60 -193 -193 -177 -193 -193 -177 98 97 96 100 97 94 101 105 105 106 107 107 107 110 113 112 112 -209 -193 122 127 126 126 129 129 130 -193 131 132 -193 -193 132 -193 -193 132 -193 -193 -193 -193 -193 143 147 144 147 142 -193 -193 -193 -193 -193 159 163 163 -193 -209 -209 10 14 19 18 17 -193 -193 -193 -209 -209 -193 0 0 0 0 0 0 0 0 -193 -193 -193 -193 -177 93 96 96 94 0 0 0 0 0
    0 0 0 0 0 0 0 0 0 0 0 0 0 0 0 0 0 0 0 0 0 0 0 0 0 0 0 0 0 0 0 0 0 0 0 0 0 0 0 0 0 0 0 0 0 0 0 0 0 0 0 0 0 0 0 0 0 0 0 0 0 0 0 0 0 0 0 0 0 45 46 47 45 44 44 43 43 45 43 42 41 39 39 39 40 41 -193 -193 45 45 43 43 43 42 42 42 38 37 31 37 35 30 33 30 32 29 30 30 30 31 31 30 32 29 31 28 28 25 22 19 15 15 17 17 14 15 14 15 15 15 14 13 11 11 10 11 9 9 9 10 10 10 11 12 12 12 12 13 12 12 13 14 12 13 11 14 10 12 12 12 12 12 12 12 11 13 12 12 12 12 11 10 11 11 10 10 13 16 15 22 29 31 29 30 33 31 31 35 33 31 33 38 38 37 41 41 42 46 50 50 45 53 53 53 55 50 51 50 50 52 -177 -177 -193 58 63 67 66 67 65 -193 62 63 63 61 60 -193 -193 -177 -193 -193 -177 97 97 96 100 98 94 101 106 105 105 107 107 107 110 113 112 112 -209 -193 122 127 126 127 129 129 130 127 131 132 -193 -193 131 -209 -209 -209 -209 -193 -209 -193 -193 143 147 144 147 142 863 -193 -193 -193 -193 158 161 160 165 -209 -209 0 12 18 17 -193 -193 -193 -193 111 -193 -193 0 0 0 0 0 0 0 0 -193 -193 -193 -193 -193 -193 96 96 94 0 0 0 0 0
    0 0 0 0 0 0 0 0 0 0 0 0 0 0 0 0 0 0 0 0 0 0 0 0 0 0 0 0 0 0 0 0 0 0 0 0 0 0 0 0 0 0 0 0 0 0 0 0 0 0 0 0 0 0 0 0 0 0 0 0 0 0 0 0 0 0 0 0 0 45 46 47 45 43 44 43 43 45 43 42 41 39 39 40 40 41 -193 -193 45 45 43 43 43 42 42 42 38 37 31 38 36 30 33 30 32 29 30 30 30 30 31 31 32 29 30 28 27 25 22 20 14 15 17 17 14 14 14 15 14 14 13 12 11 10 9 10 0 0 9 10 10 10 10 12 12 12 12 13 12 12 13 14 13 14 13 15 12 14 13 13 14 13 12 12 11 13 12 12 12 11 11 10 11 11 10 10 13 17 16 22 28 30 29 30 33 31 31 34 33 31 33 38 38 37 41 41 42 45 50 50 45 53 53 53 55 50 50 49 50 52 -177 -177 -193 57 63 67 66 67 65 -193 62 63 63 61 60 -193 -193 -177 -193 -193 -193 97 97 96 100 98 95 101 106 105 105 107 107 107 109 113 112 112 -209 -193 122 127 126 126 129 128 129 126 131 131 -193 -193 -193 -193 -209 -209 -209 -209 -193 -193 -193 143 147 144 -193 -209 863 -193 -177 -193 -193 157 159 157 163 -209 -209 -177 -177 -177 -177 -193 -193 -193 112 112 111 -193 0 0 0 0 0 0 0 0 -193 -193 193 -193 -193 -193 96 96 94 0 0 0 0 0
    0 0 0 0 0 0 0 0 0 0 0 0 0 0 0 0 0 0 0 0 0 0 0 0 0 0 0 0 0 0 0 0 0 0 0 0 0 0 0 0 0 0 0 0 0 0 0 0 0 0 0 0 0 0 0 0 0 0 0 0 0 0 0 0 0 0 0 0 0 46 46 47 45 43 44 43 43 44 43 42 41 39 39 40 40 41 -193 46 45 45 43 42 43 42 42 42 38 36 31 38 36 30 33 30 32 29 30 30 30 31 31 31 32 29 30 28 -193 25 22 20 14 14 16 16 13 13 13 14 14 13 12 11 10 10 9 9 0 0 9 10 10 10 11 12 12 12 12 13 12 12 13 14 13 14 14 16 13 16 14 15 15 14 13 13 12 13 12 12 12 12 11 10 11 11 11 10 13 17 15 21 -193 30 29 30 33 31 31 34 33 31 33 38 38 37 41 41 42 45 50 50 44 53 53 53 55 50 51 50 49 51 -177 -177 -193 57 63 67 66 66 64 465 62 63 63 62 60 164 -193 -177 -193 -193 -193 98 97 96 99 98 96 102 106 105 105 107 107 108 109 113 112 112 121 121 121 126 125 126 128 127 128 125 130 131 -193 848 -193 102 -193 -209 -209 -193 -193 -193 -209 -193 -193 -193 -193 -209 -193 -193 -177 -193 -193 156 157 155 160 -209 -209 -193 -177 -177 -177 -193 -193 111 112 112 111 -193 -193 0 0 0 0 0 0 0 -193 -193 192 192 -193 -193 -193 96 94 0 0 0 0 0
    0 0 0 0 0 0 0 0 0 0 0 0 0 0 0 0 0 0 0 0 0 0 0 0 0 0 0 0 0 0 0 0 0 0 0 0 0 0 0 0 0 0 0 0 0 0 0 0 0 0 0 0 0 0 0 0 0 0 0 0 0 0 0 0 0 0 0 0 0 46 46 47 45 43 44 43 43 44 43 42 41 39 39 40 40 41 -193 46 45 45 43 42 43 42 42 42 38 36 31 38 36 30 34 30 32 30 30 30 30 30 31 30 32 28 30 -193 -193 24 21 18 13 14 15 14 13 12 13 13 13 12 11 11 10 10 9 9 0 0 9 10 10 10 11 12 12 12 12 13 12 11 12 14 13 15 15 16 15 18 16 16 16 15 14 14 13 13 13 13 12 12 12 11 11 12 11 10 12 15 14 20 -193 29 29 29 33 31 31 34 33 31 33 39 39 38 41 42 42 45 49 50 44 53 53 53 55 50 51 50 49 51 -177 -177 -193 57 63 67 65 66 64 465 62 63 63 -193 -193 -193 -193 -177 93 -193 94 99 97 96 100 98 97 102 107 105 105 107 108 108 109 113 111 112 -193 121 121 126 125 125 127 127 127 125 129 -193 -193 848 -209 -193 -193 -209 -209 -193 -193 -209 -209 -193 -209 -193 -193 -193 -209 -177 -209 -209 -209 155 156 154 158 -209 -193 -193 -193 -177 -177 -193 -193 111 111 111 108 103 -193 0 0 0 0 0 0 0 -193 -193 191 191 -193 -177 -193 -193 94 0 0 0 0 0
    0 0 0 0 0 0 0 0 0 0 0 0 0 0 0 0 0 0 0 0 0 0 0 0 0 0 0 0 0 0 0 0 0 0 0 0 0 0 0 0 0 0 0 0 0 0 0 0 0 0 0 0 0 0 0 0 0 0 0 0 0 0 0 0 0 0 0 0 0 46 46 47 45 43 44 43 43 44 43 42 41 39 39 39 40 41 -193 46 45 45 42 42 43 42 41 42 37 36 31 38 36 30 34 31 32 30 30 30 30 30 31 30 32 28 29 -193 -193 22 20 17 14 14 16 15 13 13 14 14 13 12 11 11 10 10 9 9 9 0 10 10 10 10 10 12 12 11 11 13 12 11 12 15 14 16 16 17 16 18 17 17 16 16 14 14 13 13 13 13 13 12 12 12 11 12 11 11 12 14 14 19 23 28 28 29 33 31 31 34 34 32 34 39 39 38 42 42 43 44 49 49 44 52 52 52 55 51 52 51 51 52 -177 -177 -193 57 62 67 65 66 63 465 -193 64 64 -193 -177 -193 -177 -209 94 -193 95 99 97 96 99 98 98 102 107 104 104 107 108 108 108 112 111 112 -193 -193 121 125 124 124 126 126 127 124 128 -193 -193 848 -209 -193 -193 -209 -193 -193 -193 -209 -209 -193 -193 -193 -193 -193 -193 -209 -209 -209 -209 154 155 154 156 -209 -193 -193 -193 -209 -209 115 -193 110 -193 107 -193 102 -193 -193 0 0 0 0 0 0 -193 -193 190 190 190 190 -193 -193 94 0 0 0 0 0
    0 0 0 0 0 0 0 0 0 0 0 0 0 0 0 0 0 0 0 0 0 0 0 0 0 0 0 0 0 0 0 0 0 0 0 0 0 0 0 0 0 0 0 0 0 0 0 0 0 0 0 0 0 0 0 0 0 0 0 0 0 0 0 0 0 0 0 0 0 46 45 47 45 44 44 43 44 45 43 42 41 39 39 39 40 41 -193 45 44 44 42 42 42 42 41 41 37 36 31 37 36 31 34 31 33 30 30 31 30 30 31 30 31 27 28 25 24 21 20 17 15 16 18 16 14 14 16 14 13 11 11 10 10 10 9 0 0 0 9 10 10 10 10 11 12 11 11 12 12 11 12 16 14 17 17 18 17 18 18 17 16 17 14 15 14 14 14 13 13 12 12 12 11 12 11 11 12 13 13 18 19 27 27 28 33 31 31 34 34 32 35 39 40 39 42 43 44 44 49 49 44 52 52 52 55 52 53 53 52 53 -177 -177 58 58 62 66 64 65 63 465 -193 64 -193 -177 -177 -177 -177 -193 -193 -193 96 99 97 97 99 99 99 103 107 104 104 107 108 108 108 112 110 112 -193 -193 -193 -193 123 123 125 125 126 123 127 -193 -193 848 -209 -193 -193 -209 -193 -177 -177 -209 -209 -193 -193 -193 -193 -209 -193 92 -209 -193 -209 -209 154 153 155 -209 -209 -193 -193 -193 -193 112 107 108 -193 103 102 100 99 -193 -193 0 0 0 0 0 -193 -193 190 -193 190 190 -193 -193 -193 0 0 0 0 0
    0 0 0 0 0 0 0 0 0 0 0 0 0 0 0 0 0 0 0 0 0 0 0 0 0 0 0 0 0 0 0 0 0 0 0 0 0 0 0 0 0 0 0 0 0 0 0 0 0 0 0 0 0 0 0 0 0 0 0 0 0 0 0 0 0 0 0 0 0 46 45 47 45 44 44 43 44 44 43 42 41 39 38 39 40 40 -193 -193 44 44 42 42 42 41 41 41 37 36 31 37 35 31 34 31 33 30 30 31 30 30 30 30 31 27 27 25 23 21 20 17 15 17 20 17 -193 17 18 16 -193 11 9 9 9 10 9 0 0 0 9 10 11 10 10 11 11 10 11 12 12 11 12 16 14 17 17 18 17 18 18 17 16 16 14 15 14 14 14 13 13 12 12 13 11 13 12 11 12 13 13 17 17 26 26 27 32 31 31 35 34 33 35 39 40 39 42 43 44 44 48 49 44 54 54 54 56 54 55 55 55 55 -177 -193 59 59 62 66 64 65 62 464 61 -193 -193 -193 -177 -177 -177 -193 -193 -193 96 100 97 97 99 99 101 103 107 104 104 107 107 107 107 111 109 111 -193 -193 -193 -193 122 122 125 125 126 123 126 -193 -193 -177 -209 805 -193 -193 -193 -193 -193 -209 -209 -193 -193 -193 -193 -209 -193 92 -209 -209 -193 -209 153 151 154 -193 -209 106 -193 -193 109 110 106 -193 -193 100 100 99 97 97 -193 0 0 0 0 0 -193 -193 -193 -193 -193 190 -193 -193 -193 0 0 0 0 0
    0 0 0 0 0 0 0 0 0 0 0 0 0 0 0 0 0 0 0 0 0 0 0 0 0 0 0 0 0 0 0 0 0 0 0 0 0 0 0 0 0 0 0 0 0 0 0 0 0 0 0 0 0 0 0 0 0 0 0 0 0 0 0 0 0 0 0 0 0 46 45 47 45 44 44 43 44 45 43 42 41 38 38 39 40 -193 -193 -193 43 43 42 42 42 41 41 41 37 36 30 36 35 30 33 31 33 30 30 31 30 30 30 29 30 26 26 24 23 21 20 18 16 18 22 21 -193 -193 -193 -193 -193 11 9 9 9 9 9 9 0 9 9 10 11 10 10 11 11 10 10 11 11 11 12 16 14 17 17 18 17 18 18 16 16 16 14 15 14 13 14 13 13 13 13 13 12 13 12 11 12 13 12 15 14 -209 26 27 31 31 31 34 34 33 35 39 40 39 42 43 43 44 47 48 44 54 54 55 57 56 56 57 57 57 58 60 59 59 61 66 63 -177 61 -209 60 -193 -209 -209 -209 -193 -177 -209 -193 -193 96 100 97 97 99 100 102 104 107 103 103 107 107 107 106 -193 109 111 118 -193 -209 -193 122 122 124 125 125 123 126 -193 -177 -177 -209 805 -193 -177 799 -209 -209 -209 -209 -193 -193 143 -193 90 91 92 -209 -209 84 -193 152 150 -209 -193 -209 106 -193 -193 108 109 -193 -193 -193 97 97 97 96 96 97 0 0 0 0 0 -193 -193 -193 -193 -193 190 -193 -193 -193 0 0 0 0 0
    0 0 0 0 0 0 0 0 0 0 0 0 0 0 0 0 0 0 0 0 0 0 0 0 0 0 0 0 0 0 0 0 0 0 0 0 0 0 0 0 0 0 0 0 0 0 0 0 0 0 0 0 0 0 0 0 0 0 0 0 0 0 0 0 0 0 0 0 0 47 46 48 46 44 44 44 44 45 43 42 41 38 38 39 39 -193 -193 -193 43 43 42 42 42 41 41 41 37 37 30 36 34 31 33 31 33 30 30 31 31 30 31 29 29 26 27 24 23 21 20 19 17 20 -193 -193 -193 -193 -193 -193 -193 13 9 9 9 10 10 9 9 10 11 11 11 10 10 11 11 9 10 10 11 10 12 16 15 18 17 17 18 18 18 17 16 16 15 16 14 13 14 13 13 13 13 14 12 13 12 11 11 12 11 13 13 -209 -193 27 31 31 31 35 34 34 35 39 40 40 42 43 44 44 47 47 45 52 52 54 57 57 57 58 58 58 59 61 60 60 60 65 63 63 61 -193 59 -193 -209 -209 -209 -209 -209 92 -193 -193 96 100 97 97 99 100 103 104 106 102 102 106 107 106 106 -193 108 111 118 -193 -193 -193 -193 122 124 125 125 -193 126 -193 -177 -177 -209 -177 -193 -177 -193 -209 -209 -209 -209 145 -193 144 -193 -193 -193 -193 -209 -193 84 -209 -193 149 -209 -209 -209 105 -193 -193 -193 -193 -193 -177 18 -193 -193 95 95 95 96 -193 -193 0 0 0 -193 93 -193 -193 -193 190 194 195 196 0 0 0 0 0
    0 0 0 0 0 0 0 0 0 0 0 0 0 0 0 0 0 0 0 0 0 0 0 0 0 0 0 0 0 0 0 0 0 0 0 0 0 0 0 0 0 0 0 0 0 0 0 0 0 0 0 0 0 0 0 0 0 0 0 0 0 0 0 0 0 0 0 0 0 47 46 48 46 44 44 44 44 45 43 42 41 38 38 39 39 40 -193 -193 43 43 42 42 42 41 41 41 37 37 31 36 34 31 34 32 33 31 30 32 31 31 31 29 29 27 28 25 24 21 20 18 18 22 -193 -193 -193 -193 28 26 -193 21 13 12 11 11 11 10 10 11 11 12 12 11 11 11 11 9 9 10 10 10 11 16 16 17 17 17 18 18 18 17 16 16 15 16 14 13 14 13 13 14 13 14 12 13 12 12 11 12 10 12 13 -209 25 28 31 32 32 35 35 35 36 40 41 41 42 44 45 44 47 47 45 51 51 53 56 57 58 58 59 59 60 62 61 61 61 65 63 62 60 60 59 -193 -193 -209 -209 -209 127 92 95 94 96 100 96 96 99 99 103 104 106 102 102 106 106 106 105 -193 108 110 117 -193 -193 -193 -193 121 124 125 125 -193 127 128 -193 -177 -209 -193 -209 -177 -209 -209 -209 -193 -193 145 146 144 147 -193 -193 -193 -193 -193 85 -209 -209 150 -209 -209 -209 104 -193 -193 -193 20 -193 -177 17 -193 -193 94 94 94 96 -193 -193 0 0 0 -193 93 94 -177 -193 189 193 195 195 0 0 0 0 0
    0 0 0 0 0 0 0 0 0 0 0 0 0 0 0 0 0 0 0 0 0 0 0 0 0 0 0 0 0 0 0 0 0 0 0 0 0 0 0 0 0 0 0 0 0 0 0 0 0 0 0 0 0 0 0 0 0 0 0 0 0 0 0 0 0 0 0 0 0 47 46 48 46 44 45 44 44 45 43 42 41 38 38 39 40 40 -193 44 43 43 42 42 42 41 41 40 37 37 32 35 34 32 34 33 33 31 30 32 32 32 32 29 30 27 29 27 26 23 22 22 23 24 35 31 35 32 34 31 -193 -209 20 13 12 13 12 11 11 12 12 12 13 12 11 11 12 9 9 9 10 9 10 16 17 17 17 17 18 17 18 17 15 16 14 15 15 14 14 13 13 14 12 14 11 12 12 12 11 11 10 12 13 -209 25 28 32 33 32 35 36 36 37 40 41 42 43 44 46 44 46 47 44 50 51 52 56 57 58 59 61 61 61 64 63 63 62 66 64 61 60 59 58 -193 -193 -209 -209 -209 -193 93 95 94 95 99 95 95 98 99 103 104 105 101 101 105 106 106 -193 -193 107 -193 117 119 -193 -193 -193 121 124 125 126 -193 128 131 -193 -193 -209 -193 -209 -177 -193 143 -193 143 -193 145 146 145 147 145 -193 -193 -193 -193 -193 -209 -209 150 -209 -209 -209 -209 16 19 20 19 18 18 16 -177 -193 -193 94 93 95 -193 0 0 0 0 -193 -177 -177 -177 -193 190 192 195 195 0 0 0 0 0
    0 0 0 0 0 0 0 0 0 0 0 0 0 0 0 0 0 0 0 0 0 0 0 0 0 0 0 0 0 0 0 0 0 0 0 0 0 0 0 0 0 0 0 0 0 0 0 0 0 0 0 0 0 0 0 0 0 0 0 0 0 0 0 0 0 0 0 0 0 48 46 49 47 45 45 44 44 45 43 42 41 39 38 39 40 40 39 43 43 43 42 42 41 41 41 40 37 38 32 35 34 33 35 33 34 32 30 33 33 32 32 28 28 27 29 29 30 26 26 27 32 36 39 37 38 36 37 35 -193 -209 -209 15 14 14 12 11 12 12 12 13 14 13 12 12 12 9 10 10 10 10 11 16 17 17 17 17 17 17 18 17 15 15 14 15 15 14 14 13 13 14 13 14 11 12 12 12 11 11 9 10 13 -193 25 28 31 32 32 35 37 36 37 40 41 42 43 44 46 44 46 47 44 49 49 51 55 58 59 60 63 62 63 66 65 65 63 66 65 61 61 59 58 -193 -209 -193 -209 -209 -209 92 93 92 94 98 94 94 98 99 103 104 105 101 101 105 106 106 -193 -177 107 109 117 119 -193 -193 -193 121 123 125 125 313 -193 133 -193 -193 -209 -177 -209 -193 145 142 144 142 144 144 145 144 145 144 -193 144 -193 -209 -193 -193 -193 -193 -209 -209 13 16 16 18 19 18 18 18 16 16 13 12 -193 -193 -193 -177 0 0 0 0 0 -177 -177 -177 -193 190 192 195 195 0 0 0 0 0
    0 0 0 0 0 0 0 0 0 0 0 0 0 0 0 0 0 0 0 0 0 0 0 0 0 0 0 0 0 0 0 0 0 0 0 0 0 0 0 0 0 0 0 0 0 0 0 0 0 0 0 0 0 0 0 0 0 0 0 0 0 0 0 0 0 0 0 0 0 48 46 49 47 45 46 45 45 45 44 43 42 40 39 40 40 41 40 43 42 42 42 41 41 41 40 40 38 38 34 35 35 35 35 34 35 34 31 35 34 33 33 29 29 29 31 34 35 32 33 34 37 39 40 38 39 37 38 36 35 29 -209 18 17 15 13 12 12 13 12 13 14 14 12 13 13 9 10 11 11 10 11 17 18 18 18 17 18 17 18 17 16 15 15 14 15 14 14 13 13 14 13 13 12 12 12 12 12 12 9 11 14 -193 26 29 30 32 32 35 37 36 37 40 41 42 43 44 46 44 46 47 44 48 50 52 55 59 60 62 65 63 64 67 66 66 64 66 64 61 62 59 58 63 -209 -209 70 -209 -209 91 92 91 93 97 94 94 98 100 103 104 105 101 101 105 105 -193 -193 -177 106 108 116 117 117 -193 -193 120 122 125 125 313 -193 134 -209 -193 138 -193 141 141 144 141 143 140 143 143 144 143 144 143 146 143 145 -209 -209 147 149 150 -209 -193 16 19 16 17 18 17 17 17 15 15 12 12 -193 -193 -177 -177 0 0 0 0 0 -193 -193 -193 190 190 193 195 195 0 0 0 0 0
    0 0 0 0 0 0 0 0 0 0 0 0 0 0 0 0 0 0 0 0 0 0 0 0 0 0 0 0 0 0 0 0 0 0 0 0 0 0 0 0 0 0 0 0 0 0 0 0 0 0 0 0 0 0 0 0 0 0 0 0 0 0 0 0 0 0 0 0 0 48 46 49 47 45 46 45 45 45 44 43 42 40 40 40 41 41 41 42 42 42 41 41 41 41 40 40 38 39 35 36 35 35 36 35 35 35 32 36 35 34 33 29 30 30 32 35 36 34 35 36 38 39 41 39 39 38 39 37 36 32 -193 20 18 16 14 13 14 14 13 14 16 15 13 13 12 9 11 11 11 11 11 16 18 17 18 17 18 18 18 18 17 15 16 14 16 14 14 13 13 14 13 13 12 12 12 12 12 13 10 13 18 25 28 29 30 32 31 35 36 36 37 40 41 42 43 44 45 44 46 46 43 48 50 53 56 59 60 64 65 64 65 67 66 66 65 66 64 62 63 61 58 61 58 -193 69 78 -193 89 91 90 92 97 93 93 98 101 104 105 105 101 101 104 105 104 103 -193 105 107 114 117 116 119 -193 120 122 125 125 -193 130 135 137 137 138 138 141 141 142 140 142 -193 -193 -193 -193 142 142 142 144 141 143 -193 142 147 149 -193 -209 -193 20 22 17 16 18 17 17 16 14 14 11 11 -193 -177 -177 -177 0 0 0 0 0 0 0 -193 191 191 193 195 195 0 0 0 0 0
    0 0 0 0 0 0 0 0 0 0 0 0 0 0 0 0 0 0 0 0 0 0 0 0 0 0 0 0 0 0 0 0 0 0 0 0 0 0 0 0 0 0 0 0 0 0 0 0 0 0 0 0 0 0 0 0 0 0 0 0 0 0 0 0 0 0 0 0 0 48 46 49 47 45 46 45 44 45 44 43 42 41 40 41 41 42 41 42 41 41 41 41 41 41 40 40 39 39 36 36 36 36 36 35 36 35 32 36 36 35 33 30 31 31 33 35 36 35 36 37 38 40 41 39 39 38 39 38 37 34 -193 22 21 18 16 15 15 15 14 15 17 16 14 14 13 10 12 11 11 11 10 14 18 17 18 17 18 18 18 18 17 15 16 14 16 13 13 13 12 14 12 13 12 12 12 13 13 14 11 17 21 26 30 30 30 32 31 34 35 35 37 39 41 41 42 43 45 44 45 45 43 47 50 53 56 58 60 65 66 64 65 66 66 66 65 66 64 63 65 62 57 58 54 55 65 72 76 85 88 88 90 95 93 93 98 102 104 105 106 101 101 104 104 104 103 104 104 106 114 116 115 118 -193 120 122 125 126 125 131 136 138 138 139 139 142 141 142 140 142 -193 -193 -193 -193 141 141 141 142 140 142 -193 -193 -193 -193 -193 -209 -193 22 23 17 16 18 17 16 15 14 14 10 11 -193 -177 -177 -177 0 0 0 0 0 0 0 -193 191 191 193 195 195 0 0 0 0 0
    0 0 0 0 0 0 0 0 0 0 0 0 0 0 0 0 0 0 0 0 0 0 0 0 0 0 0 0 0 0 0 0 0 0 0 0 0 0 0 0 0 0 0 0 0 0 0 0 0 0 0 0 0 0 0 0 0 0 0 0 0 0 0 0 0 0 0 0 0 47 45 48 47 45 46 45 44 44 43 43 42 41 40 41 41 42 41 42 41 41 41 40 40 40 40 40 39 40 37 36 36 36 36 35 36 35 33 36 36 35 33 30 32 31 33 35 37 36 38 38 39 41 41 39 40 38 39 38 37 34 30 23 22 19 18 16 17 16 15 16 17 17 15 14 14 11 13 11 11 11 10 14 17 17 17 16 18 18 18 18 17 16 15 14 16 13 13 12 11 13 12 12 11 11 12 12 13 14 12 20 23 27 31 30 30 32 31 34 35 35 37 38 40 41 42 43 45 44 45 44 43 46 49 52 56 57 60 67 66 65 66 67 65 66 65 66 62 62 66 63 57 58 54 56 68 74 78 84 86 86 89 93 92 92 98 103 104 105 106 101 101 104 104 104 103 104 104 105 113 116 115 118 120 120 122 125 126 -193 131 136 139 138 140 140 142 141 141 140 142 -193 -193 -193 -193 140 140 141 -193 140 141 -193 -193 -209 -209 -209 -209 -209 23 -193 18 -193 19 -193 -193 15 14 -193 10 -193 -193 -177 -177 0 0 0 0 0 0 0 0 -193 191 191 193 196 -177 0 0 0 0 0
    0 0 0 0 0 0 0 0 0 0 0 0 0 0 0 0 0 0 0 0 0 0 0 0 0 0 0 0 0 0 0 0 0 0 0 0 0 0 0 0 0 0 0 0 0 0 0 0 0 0 0 0 0 0 0 0 0 0 0 0 0 0 0 0 0 0 0 0 0 46 45 48 46 45 46 45 44 44 43 43 42 41 41 41 41 42 42 41 41 40 40 40 40 40 40 40 40 40 38 37 37 37 36 35 36 35 32 35 36 34 32 31 33 33 36 38 39 39 41 42 42 42 42 41 40 39 40 38 36 35 30 -193 22 20 19 17 18 17 16 18 18 19 16 17 17 12 17 12 12 11 11 14 18 18 18 16 18 18 18 18 17 16 15 14 17 14 13 13 12 13 12 12 11 11 12 13 13 14 14 23 25 28 31 31 30 32 31 34 35 35 37 38 40 42 43 44 45 44 45 44 43 45 47 52 55 56 59 68 66 65 66 67 65 66 66 66 62 63 67 66 64 69 72 69 73 77 82 86 87 87 89 92 91 92 99 103 104 105 106 101 102 104 104 104 103 104 104 105 112 116 114 118 119 120 121 124 125 -193 -193 137 139 139 140 141 142 142 141 140 141 -193 139 -193 -193 -193 139 141 -193 139 141 -193 -209 -209 -209 -209 -209 -209 -209 -209 -193 168 169 170 169 170 169 170 -193 173 178 -193 -177 -177 0 0 0 0 0 0 0 -193 192 192 193 196 196 0 0 0 0 0
    0 0 0 0 0 0 0 0 0 0 0 0 0 0 0 0 0 0 0 0 0 0 0 0 0 0 0 0 0 0 0 0 0 0 0 0 0 0 0 0 0 0 0 0 0 0 0 0 0 0 0 0 0 0 0 0 0 0 0 0 0 0 0 0 0 0 0 0 0 46 45 47 46 45 46 45 44 44 44 44 42 41 41 41 42 42 42 41 40 40 40 39 40 40 40 40 40 40 39 38 38 37 37 36 36 36 31 34 34 31 32 35 37 39 40 43 42 42 43 44 43 44 43 43 41 41 41 39 38 37 34 -193 -193 21 19 18 18 18 17 18 19 20 17 18 17 13 17 12 12 11 13 14 18 18 18 16 18 18 18 17 17 16 15 15 18 15 14 14 13 13 11 11 11 11 12 13 13 14 17 24 26 27 31 30 30 31 31 33 35 36 38 38 40 42 43 44 44 43 43 43 43 45 46 52 55 56 59 67 65 64 65 66 64 65 66 66 62 64 68 67 66 72 74 73 74 79 83 87 88 88 90 92 91 91 99 103 104 105 106 102 102 104 104 104 103 104 104 104 111 115 113 117 118 119 119 123 123 -193 -193 136 139 139 140 141 142 142 141 140 140 138 138 139 -193 -193 -193 140 -193 139 140 142 144 -209 -209 -209 -209 -209 -209 -193 168 168 169 170 169 170 170 171 171 173 180 -193 -177 -177 0 0 0 0 0 0 0 -193 192 192 193 196 196 0 0 0 0 0
    0 0 0 0 0 0 0 0 0 0 0 0 0 0 0 0 0 0 0 0 0 0 0 0 0 0 0 0 0 0 0 0 0 0 0 0 0 0 0 0 0 0 0 0 0 0 0 0 0 0 0 0 0 0 0 0 0 0 0 0 0 0 0 0 0 0 0 0 0 46 45 47 46 45 46 45 44 44 44 44 42 41 41 41 42 42 42 40 39 40 40 39 40 39 40 40 40 41 39 38 38 38 37 36 36 36 30 34 33 30 33 37 40 42 42 45 44 44 45 45 44 45 44 45 42 43 43 40 39 39 39 -209 -209 21 20 18 19 18 18 19 19 20 18 18 18 13 17 12 12 11 14 15 18 18 18 17 18 18 18 17 17 16 15 15 19 16 15 15 14 13 13 12 13 13 13 14 13 15 19 23 25 26 30 30 29 30 30 32 33 34 38 36 38 41 42 43 43 42 43 42 43 45 45 52 56 57 59 67 65 64 65 66 64 65 66 66 61 65 67 66 64 72 74 73 74 77 82 87 89 89 91 93 92 93 100 103 104 105 106 102 103 105 104 104 103 104 104 104 110 114 112 116 117 118 116 121 122 118 -193 -193 139 139 140 141 141 140 140 139 140 137 136 138 134 136 137 139 138 138 139 141 142 -193 -209 -209 -209 -209 -193 168 168 168 169 169 169 170 170 171 171 174 181 -193 -177 -177 0 0 0 0 0 0 -193 -193 192 192 193 196 195 0 0 0 0 0
    0 0 0 0 0 0 0 0 0 0 0 0 0 0 0 0 0 0 0 0 0 0 0 0 0 0 0 0 0 0 0 0 0 0 0 0 0 0 0 0 0 0 0 0 0 0 0 0 0 0 0 0 0 0 0 0 0 0 0 0 0 0 0 0 0 0 0 0 0 46 45 47 46 45 46 45 44 44 44 44 42 42 41 41 42 42 41 40 38 39 39 39 39 40 40 40 41 42 40 38 38 38 37 36 36 36 30 34 33 31 35 38 40 43 42 46 44 45 45 45 44 45 45 45 42 44 43 40 39 39 40 -209 -209 22 21 19 19 18 18 18 19 20 18 18 18 14 18 12 13 12 17 16 19 19 18 17 19 19 19 17 18 16 15 15 18 16 15 16 16 15 17 15 16 16 16 16 14 14 19 22 25 25 28 29 29 30 30 31 31 34 37 35 37 40 41 42 42 42 42 42 44 46 45 53 56 58 60 68 64 64 65 66 64 64 65 65 60 64 66 65 64 73 75 76 78 81 82 87 88 88 92 93 92 93 101 104 104 104 105 103 103 105 104 104 103 105 105 105 109 114 112 117 117 117 115 120 120 118 -193 126 136 138 139 141 140 139 139 138 139 138 136 137 133 135 136 139 138 138 140 142 143 146 150 -209 161 -193 167 167 167 168 169 169 169 170 170 172 172 176 182 181 -193 -193 0 0 0 0 0 -193 -193 -193 193 192 194 196 195 0 0 0 0 0
    0 0 0 0 0 0 0 0 0 0 0 0 0 0 0 0 0 0 0 0 0 0 0 0 0 0 0 0 0 0 0 0 0 0 0 0 0 0 0 0 0 0 0 0 0 0 0 0 0 0 0 0 0 0 0 0 0 0 0 0 0 0 0 0 0 0 0 0 0 45 45 47 46 45 45 45 44 44 44 44 42 41 41 40 41 41 41 39 38 39 40 39 40 40 40 41 42 43 41 39 39 38 38 38 37 37 32 35 35 34 36 39 41 42 43 47 45 45 45 45 44 45 46 45 42 44 43 40 39 39 40 39 -209 -193 -193 20 20 18 18 18 19 20 18 18 18 15 18 13 13 12 18 17 19 19 19 18 19 19 19 18 19 17 15 15 18 15 16 17 18 17 19 16 18 18 17 16 14 14 18 21 24 24 26 28 29 30 30 31 30 33 37 34 36 39 40 41 42 42 42 42 44 47 46 54 57 59 61 68 64 64 65 66 64 63 65 65 59 66 67 67 64 72 74 74 78 80 82 86 87 88 92 92 93 93 101 104 104 104 105 103 104 106 105 105 104 105 105 105 108 114 111 117 118 118 117 120 120 119 119 121 127 135 137 139 139 139 139 139 140 139 138 139 136 138 139 142 141 140 142 146 146 149 152 154 161 166 166 168 168 169 170 170 170 171 171 174 174 177 182 181 183 182 -193 -193 -193 -193 -193 -193 -193 190 193 193 195 196 196 0 0 0 0 0
    0 0 0 0 0 0 0 0 0 0 0 0 0 0 0 0 0 0 0 0 0 0 0 0 0 0 0 0 0 0 0 0 0 0 0 0 0 0 0 0 0 0 0 0 0 0 0 0 0 0 0 0 0 0 0 0 0 0 0 0 0 0 0 0 0 0 0 0 0 45 45 47 46 44 45 44 44 44 43 44 41 41 41 40 41 41 41 39 38 39 41 40 41 41 41 42 42 44 42 40 39 38 38 38 38 37 32 35 34 35 37 40 41 42 43 48 45 46 46 45 44 45 46 45 43 46 44 41 40 40 41 41 40 -209 -193 21 20 18 19 19 19 20 19 18 18 16 18 13 14 13 19 16 19 20 19 18 20 20 20 18 19 17 15 16 18 14 15 17 19 18 20 17 18 18 17 16 14 13 18 21 23 23 25 27 28 29 30 30 29 32 37 33 35 38 39 41 42 42 42 41 45 47 45 54 57 59 61 67 64 64 65 66 64 63 64 65 59 67 68 68 67 72 74 74 77 78 79 83 86 87 90 91 92 92 101 103 103 103 104 104 105 106 105 105 104 106 106 106 108 114 111 118 119 119 118 120 120 120 119 120 123 131 135 138 138 138 138 139 141 141 140 142 140 144 145 147 146 144 147 149 149 150 154 156 162 166 167 168 169 170 171 171 171 173 173 176 176 177 180 180 182 182 -193 -193 -193 -193 186 187 189 190 193 194 195 196 197 0 0 0 0 0
    0 0 0 0 0 0 0 0 0 0 0 0 0 0 0 0 0 0 0 0 0 0 0 0 0 0 0 0 0 0 0 0 0 0 0 0 0 0 0 0 0 0 0 0 0 0 0 0 0 0 0 0 0 0 0 0 0 0 0 0 0 0 0 0 0 0 0 0 0 45 44 47 45 44 44 44 43 44 43 44 41 41 41 41 41 41 41 40 39 40 42 41 42 42 42 41 42 43 41 40 39 38 38 38 39 38 34 36 35 37 39 41 41 43 43 49 46 47 46 46 45 45 46 46 43 46 44 41 39 40 40 39 39 -209 -193 21 19 18 19 18 18 19 19 18 19 17 19 13 14 13 20 16 19 20 18 18 19 19 19 17 18 16 14 16 17 13 14 16 18 18 20 17 18 18 17 16 13 13 17 19 21 22 25 27 28 29 31 31 29 32 37 33 36 39 40 41 42 42 42 42 45 48 45 54 57 59 61 66 64 64 65 65 63 62 64 64 59 67 66 67 68 73 75 75 78 78 80 83 85 87 90 90 92 92 101 102 102 102 104 104 105 106 105 105 105 107 107 107 107 113 110 118 119 119 118 119 120 120 119 118 121 127 133 138 138 139 139 141 143 144 142 145 145 149 150 150 150 149 150 151 151 152 156 160 164 167 167 169 171 171 171 173 172 175 175 178 178 177 179 180 182 183 -193 -193 -209 185 186 188 -193 191 194 195 196 197 197 0 0 0 0 0
    0 0 0 0 0 0 0 0 0 0 0 0 0 0 0 0 0 0 0 0 0 0 0 0 0 0 0 0 0 0 0 0 0 0 0 0 0 0 0 0 0 0 0 0 0 0 0 0 0 0 0 0 0 0 0 0 0 0 0 0 0 0 0 0 0 0 0 0 0 45 45 47 45 44 44 45 44 44 43 44 42 42 42 42 41 42 41 41 41 41 43 42 43 42 41 41 41 43 41 39 39 38 39 39 39 39 36 37 37 38 39 40 41 42 43 49 46 47 46 46 45 45 47 46 44 46 44 41 39 40 40 39 39 34 27 22 19 18 19 18 18 20 20 19 20 19 20 15 16 15 21 16 20 20 19 18 19 19 19 17 19 16 14 15 17 13 15 17 20 19 21 18 19 18 18 15 13 12 16 18 21 21 24 26 27 28 30 31 29 32 37 34 36 40 41 42 42 43 43 43 45 48 45 53 55 58 60 65 63 63 64 64 62 61 61 62 58 62 62 64 63 72 75 75 78 79 80 83 85 87 90 90 92 92 100 101 101 101 103 105 105 106 106 105 105 107 107 108 107 111 108 116 119 118 118 118 118 119 119 118 121 127 133 138 138 139 139 141 143 144 142 145 146 150 151 151 151 151 151 153 155 155 159 164 165 167 167 168 172 172 172 173 173 175 176 179 179 177 178 179 181 -193 -193 -193 -193 -193 -193 -193 -193 -193 -193 196 197 198 198 0 0 0 0 0
    0 0 0 0 0 0 0 0 0 0 0 0 0 0 0 0 0 0 0 0 0 0 0 0 0 0 0 0 0 0 0 0 0 0 0 0 0 0 0 0 0 0 0 0 0 0 0 0 0 0 0 0 0 0 0 0 0 0 0 0 0 0 0 0 0 0 0 0 0 45 45 47 46 45 45 45 44 45 44 44 43 44 44 43 42 42 41 41 41 41 44 43 43 42 42 42 41 44 42 40 40 39 40 40 40 40 36 38 37 39 39 40 41 42 42 48 45 46 45 46 45 45 48 47 44 46 44 42 40 40 40 39 39 38 31 23 20 18 20 19 19 21 21 20 21 21 21 17 19 18 21 16 21 20 20 19 20 19 20 17 19 15 14 14 16 13 16 19 20 21 22 19 20 19 18 16 13 13 16 17 21 21 23 26 26 27 30 31 30 33 37 36 37 41 41 42 43 43 43 43 45 47 44 52 54 58 60 64 63 62 63 64 62 61 61 62 59 62 62 63 62 72 75 75 78 78 81 84 86 88 91 91 92 93 100 101 100 100 102 105 105 107 106 105 106 107 108 108 106 108 106 113 119 118 117 118 118 119 119 119 121 126 132 138 138 139 139 141 143 144 142 145 146 150 150 150 150 149 150 152 153 153 159 164 165 167 166 168 171 171 172 174 173 175 176 179 179 177 178 178 180 -193 -193 -193 -193 187 -193 -193 -193 -193 -193 197 198 198 199 0 0 0 0 0
    0 0 0 0 0 0 0 0 0 0 0 0 0 0 0 0 0 0 0 0 0 0 0 0 0 0 0 0 0 0 0 0 0 0 0 0 0 0 0 0 0 0 0 0 0 0 0 0 0 0 0 0 0 0 0 0 0 0 0 0 0 0 0 0 0 0 0 0 0 45 45 47 45 45 45 45 44 45 44 45 44 45 45 43 43 43 42 41 41 41 45 43 43 42 41 42 41 43 41 40 40 40 40 41 40 41 37 39 38 39 39 40 40 41 41 47 44 45 44 44 44 44 47 46 44 47 45 43 41 41 41 40 40 39 35 26 21 18 20 18 18 20 21 20 20 20 20 18 22 20 22 16 22 21 21 20 21 20 21 19 20 17 15 14 16 13 17 19 20 21 23 19 20 20 18 16 14 13 16 17 21 20 22 25 26 27 29 31 30 33 37 36 38 42 42 42 43 43 43 44 45 47 43 51 53 57 60 63 63 62 64 64 63 61 61 63 61 63 64 64 65 72 74 74 76 76 78 82 85 88 92 91 93 93 100 101 100 100 102 106 106 107 106 106 106 108 108 108 106 107 105 110 119 118 118 118 119 120 120 120 122 126 131 137 138 138 139 141 143 144 142 145 146 149 149 149 149 148 148 150 152 152 157 162 164 165 165 167 170 171 171 173 174 175 176 179 180 178 179 179 180 184 -193 -193 187 188 189 192 195 196 196 198 200 200 200 0 0 0 0 0
    0 0 0 0 0 0 0 0 0 0 0 0 0 0 0 0 0 0 0 0 0 0 0 0 0 0 0 0 0 0 0 0 0 0 0 0 0 0 0 0 0 0 0 0 0 0 0 0 0 0 0 0 0 0 0 0 0 0 0 0 0 0 0 0 0 0 0 0 0 45 44 46 45 44 44 45 44 45 44 45 44 45 45 43 43 42 41 41 41 41 44 42 42 41 41 41 41 43 41 40 40 40 41 41 41 41 38 40 39 40 40 40 39 37 40 46 43 44 43 43 43 44 47 45 44 46 45 43 41 40 40 39 39 38 34 28 23 18 20 17 18 21 23 20 22 22 23 23 25 23 23 18 23 23 23 22 22 21 22 20 21 18 16 12 14 11 13 19 21 22 23 20 21 21 19 17 14 13 17 16 20 19 22 25 26 27 29 30 31 32 37 36 37 41 41 42 43 43 43 44 45 47 44 51 52 57 60 62 63 62 64 64 63 62 62 64 63 64 67 67 69 72 73 73 74 75 76 78 83 87 91 92 93 94 100 101 100 101 102 107 107 108 107 107 107 108 109 109 106 107 106 109 118 118 118 119 119 120 120 120 122 125 129 136 137 138 139 141 144 145 143 146 146 149 149 149 148 146 148 150 152 152 157 162 163 164 163 166 169 170 171 172 173 175 176 179 179 178 179 180 180 185 186 187 188 189 191 194 196 197 197 200 201 201 201 0 0 0 0 0
    0 0 0 0 0 0 0 0 0 0 0 0 0 0 0 0 0 0 0 0 0 0 0 0 0 0 0 0 0 0 0 0 0 0 0 0 0 0 0 0 0 0 0 0 0 0 0 0 0 0 0 0 0 0 0 0 0 0 0 0 0 0 0 0 0 0 0 0 0 44 43 45 44 43 43 44 44 45 44 45 44 45 44 43 43 42 40 40 40 40 43 42 43 41 40 41 40 42 41 40 40 40 41 42 41 42 39 41 40 41 40 40 35 31 39 44 42 43 42 42 43 44 47 45 45 47 45 43 41 40 40 37 37 36 33 28 23 19 19 -193 -193 22 25 23 25 27 28 28 27 25 25 21 26 28 25 25 25 23 25 22 23 22 16 13 14 9 -193 21 25 23 24 21 22 22 21 17 15 13 16 16 20 20 21 24 26 27 30 31 33 33 38 37 38 41 41 42 43 43 44 44 46 48 44 52 53 -209 60 62 64 62 64 64 63 63 62 66 65 65 68 68 70 73 73 73 73 74 74 76 79 86 89 92 93 94 100 102 101 101 103 107 107 108 108 108 107 109 109 110 105 107 106 109 118 118 118 119 119 120 120 120 121 123 126 136 137 138 139 141 145 146 143 145 144 147 147 146 146 142 147 150 152 154 160 163 163 164 163 166 169 170 170 172 173 175 176 179 180 178 179 180 180 184 186 187 188 189 191 194 197 198 199 201 202 202 203 0 0 0 0 0
    0 0 0 0 0 0 0 0 0 0 0 0 0 0 0 0 0 0 0 0 0 0 0 0 0 0 0 0 0 0 0 0 0 0 0 0 0 0 0 0 0 0 0 0 0 0 0 0 0 0 0 0 0 0 0 0 0 0 0 0 0 0 0 0 0 0 0 0 0 44 43 44 44 43 43 44 44 45 44 45 44 45 44 43 44 42 41 40 40 40 43 42 42 40 40 40 40 42 41 40 40 40 41 42 42 43 41 41 41 42 41 41 34 26 39 43 42 43 42 42 43 44 47 46 45 47 45 44 42 41 40 37 37 36 33 28 21 -193 -209 75 -209 31 36 30 30 32 31 30 27 26 25 -225 27 40 32 26 27 24 25 23 24 24 18 15 -225 -225 -225 -225 -225 -225 24 21 22 22 21 18 15 14 17 18 21 22 23 25 27 29 34 34 36 36 38 38 39 42 42 43 43 44 45 45 46 48 45 53 -193 -209 60 62 64 62 64 64 63 63 63 66 66 66 69 69 71 74 74 75 74 74 75 76 80 86 90 93 94 95 100 102 102 102 103 107 107 108 109 108 107 109 110 110 105 106 106 107 117 116 117 118 118 119 119 119 120 118 121 132 136 139 140 143 148 146 145 145 144 144 143 143 142 139 146 150 153 154 163 164 163 164 162 166 169 170 171 172 173 174 176 179 180 178 179 181 180 184 186 187 187 189 191 194 197 198 199 201 202 203 203 0 0 0 0 0
    0 0 0 0 0 0 0 0 0 0 0 0 0 0 0 0 0 0 0 0 0 0 0 0 0 0 0 0 0 0 0 0 0 0 0 0 0 0 0 0 0 0 0 0 0 0 0 0 0 0 0 0 0 0 0 0 0 0 0 0 0 0 0 0 0 0 0 0 0 43 44 44 44 44 44 44 45 45 45 45 45 45 44 43 44 42 40 40 39 40 43 42 42 40 40 40 40 41 41 40 40 40 41 42 42 43 40 41 41 42 41 41 33 26 38 42 42 43 42 42 43 45 48 46 45 48 46 46 43 42 41 38 38 37 33 29 25 38 -193 39 38 35 37 36 33 33 31 29 27 26 -225 -225 -225 -225 -225 -225 25 26 24 23 -225 -225 -225 -225 -225 -225 -225 -225 -225 -225 -225 -225 -225 -225 -225 -225 -225 -225 -225 -225 -225 25 25 32 38 37 38 38 38 37 39 39 40 42 42 43 44 44 45 46 46 49 45 53 -209 -209 61 62 64 63 64 64 63 63 63 66 66 66 69 69 70 74 74 76 76 75 77 80 83 87 90 94 94 94 100 102 101 102 103 107 107 108 109 108 107 109 110 110 105 106 106 106 116 114 116 117 117 119 119 119 119 117 121 124 -209 -209 -209 143 150 147 146 144 142 142 140 140 141 138 145 148 151 153 158 163 160 162 160 165 169 170 170 172 173 174 175 179 180 178 180 181 181 184 186 187 187 188 190 192 196 198 198 200 201 202 202 0 0 0 0 0
    0 0 0 0 0 0 0 0 0 0 0 0 0 0 0 0 0 0 0 0 0 0 0 0 0 0 0 0 0 0 0 0 0 0 0 0 0 0 0 0 0 0 0 0 0 0 0 0 0 0 0 0 0 0 0 0 0 0 0 0 0 0 0 0 0 0 0 0 0 44 44 44 45 45 44 45 45 46 45 46 45 45 44 43 43 42 39 38 38 39 42 42 42 40 39 40 39 41 40 40 40 40 41 42 42 44 40 42 42 43 41 40 32 27 38 42 42 43 42 43 43 45 48 46 45 48 47 47 45 43 42 39 38 37 33 29 26 41 47 44 42 40 39 38 37 36 34 32 29 -225 -225 -225 -225 -225 -225 -225 -225 -225 -225 -225 -225 -225 -225 -225 -225 -225 -225 -225 -225 -225 -225 -225 -225 -225 -225 -225 -225 -225 -225 -225 -225 -225 37 39 42 40 40 39 39 38 39 40 40 43 42 43 44 44 46 47 47 50 47 54 -209 -209 60 62 64 62 63 64 63 63 63 66 66 65 69 69 70 74 75 77 77 77 80 84 85 88 90 94 94 94 99 101 100 101 103 107 106 108 109 108 107 110 110 110 105 107 107 106 115 114 116 117 117 119 118 118 118 116 120 -209 -209 -209 -209 -209 151 147 146 142 141 142 141 142 141 139 143 144 148 150 152 159 158 161 158 164 169 170 170 172 172 173 174 178 179 178 180 182 181 184 186 186 187 188 189 191 195 197 197 199 201 202 202 0 0 0 0 0
    0 0 0 0 0 0 0 0 0 0 0 0 0 0 0 0 0 0 0 0 0 0 0 0 0 0 0 0 0 0 0 0 0 0 0 0 0 0 0 0 0 0 0 0 0 0 0 0 0 0 0 0 0 0 0 0 0 0 0 0 0 0 0 0 0 0 0 0 0 44 44 44 45 45 45 46 46 47 46 46 46 45 44 43 43 41 38 38 37 38 41 41 41 39 39 40 40 42 41 40 40 41 41 43 41 43 40 42 42 42 37 38 34 31 38 41 41 42 42 42 43 45 47 46 45 47 47 48 45 44 42 39 37 37 35 34 37 51 56 51 48 44 41 40 39 38 36 35 32 -225 -225 -225 -225 -225 -225 -225 -225 -225 -225 -225 -225 -225 -225 -225 -225 -225 -225 -225 -225 -225 -225 -225 -225 -225 -225 -225 -225 -225 -225 -225 -225 -225 -225 40 43 41 40 40 40 39 39 40 40 42 42 43 44 44 46 47 48 50 47 53 55 -209 59 62 63 62 63 64 64 63 63 66 66 66 70 71 71 74 76 78 79 80 84 88 88 90 92 95 95 95 99 101 100 101 103 107 106 108 109 108 108 110 111 111 106 108 108 105 114 114 116 116 116 119 119 119 118 117 119 -193 -209 -209 -209 -209 -209 -209 -209 -193 140 142 142 143 140 139 142 142 145 147 148 153 154 159 156 162 168 169 169 170 171 172 173 176 179 178 180 181 181 183 185 186 186 187 188 190 192 194 195 197 199 200 201 0 0 0 0 0
    0 0 0 0 0 0 0 0 0 0 0 0 0 0 0 0 0 0 0 0 0 0 0 0 0 0 0 0 0 0 0 0 0 0 0 0 0 0 0 0 0 0 0 0 0 0 0 0 0 0 0 0 0 0 0 0 0 0 0 0 0 0 0 0 0 0 0 0 0 44 45 45 46 46 45 46 46 47 46 46 46 45 44 44 44 41 39 39 38 39 41 41 41 40 39 41 40 42 41 41 41 41 42 43 42 43 41 42 43 42 41 40 34 32 38 38 40 39 40 41 42 44 45 45 45 46 47 47 46 45 43 41 39 40 40 41 48 57 55 51 48 45 42 41 40 39 37 36 -225 -225 -225 -225 -225 -225 -225 -225 -225 -225 -225 -225 -225 -225 -225 -225 -225 -225 -225 -225 -225 -225 -225 -225 -225 -225 -225 -225 -225 -225 -225 -225 -225 -225 -225 42 45 41 40 41 41 40 40 40 40 42 43 44 44 44 46 47 48 50 48 54 55 -209 59 62 63 62 63 64 64 64 64 67 67 68 72 72 73 75 77 78 80 82 85 88 88 90 91 94 94 95 98 101 100 102 103 107 107 107 109 109 108 110 111 111 106 108 108 105 113 114 115 116 116 118 119 119 118 -193 -193 -193 119 -193 113 111 -193 -209 -209 -209 139 141 142 143 141 141 144 142 146 149 149 153 155 160 156 161 168 170 170 170 171 172 173 176 179 179 181 183 182 183 185 186 186 186 188 189 189 191 194 196 198 199 200 0 0 0 0 0
    0 0 0 0 0 0 0 0 0 0 0 0 0 0 0 0 0 0 0 0 0 0 0 0 0 0 0 0 0 0 0 0 0 0 0 0 0 0 0 0 0 0 0 0 0 0 0 0 0 0 0 0 0 0 0 0 0 0 0 0 0 0 0 0 0 0 0 0 0 44 45 46 47 47 46 46 47 47 46 46 46 45 44 44 45 42 40 40 40 40 42 42 41 40 39 41 40 41 40 39 41 41 42 43 42 42 42 43 44 43 43 41 38 36 39 38 40 39 40 41 42 44 45 45 45 47 49 47 47 46 43 42 41 43 44 46 57 59 57 54 51 47 43 42 41 40 39 -225 -225 -225 -225 -225 -225 -225 -225 -225 -225 -225 -225 -225 -225 -225 -225 -225 -225 -225 -225 -225 -225 -225 -225 -225 -225 -225 -225 -225 -225 -225 -225 -225 -225 -225 -225 43 48 42 41 41 42 40 41 40 40 42 42 43 43 44 46 47 48 51 50 54 55 58 59 62 63 62 62 63 63 63 64 67 67 68 72 72 73 76 77 78 81 83 85 88 88 89 90 92 93 94 97 101 99 101 103 107 107 107 109 109 108 110 111 111 106 109 109 105 113 113 115 115 115 118 118 118 117 -193 -193 -209 -209 -193 117 118 -209 -209 -209 139 142 144 146 147 147 147 150 148 150 153 152 156 157 156 154 152 159 167 167 168 168 172 174 177 179 182 183 184 183 183 185 185 185 186 188 188 188 189 193 194 196 197 198 0 0 0 0 0
    0 0 0 0 0 0 0 0 0 0 0 0 0 0 0 0 0 0 0 0 0 0 0 0 0 0 0 0 0 0 0 0 0 0 0 0 0 0 0 0 0 0 0 0 0 0 0 0 0 0 0 0 0 0 0 0 0 0 0 0 0 0 0 0 0 0 0 0 0 45 46 46 47 47 46 46 47 47 46 46 46 45 44 45 47 44 43 43 45 44 46 44 44 42 41 42 42 41 40 39 40 41 43 43 43 43 43 43 45 44 44 41 39 38 39 -193 41 40 43 44 46 50 49 50 50 53 52 50 49 47 43 45 45 50 50 55 59 60 58 55 53 47 45 44 42 41 40 -225 -225 -225 -225 -225 -225 -225 -225 -225 -225 -225 -225 -225 -225 -225 -225 -225 -225 -225 -225 -225 -225 -225 -225 -225 -225 -225 -225 -225 -225 -225 -225 -225 -225 -225 -225 -225 49 43 42 42 42 40 41 40 41 42 42 43 44 45 46 47 49 51 51 55 56 58 58 61 62 61 62 63 62 63 63 66 66 67 71 72 73 76 78 78 82 84 85 87 87 89 90 92 92 93 96 100 98 100 102 107 106 107 109 108 107 110 111 111 106 108 108 104 111 112 114 114 114 116 117 116 116 113 116 118 118 118 116 118 119 -209 141 142 145 148 148 148 150 150 152 150 152 154 155 158 160 157 155 153 158 163 162 160 155 166 -193 168 171 176 180 183 181 181 181 181 181 184 187 187 187 186 190 191 192 193 196 0 0 0 0 0
    0 0 0 0 0 0 0 0 0 0 0 0 0 0 0 0 0 0 0 0 0 0 0 0 0 0 0 0 0 0 0 0 0 0 0 0 0 0 0 0 0 0 0 0 0 0 0 0 0 0 0 0 0 0 0 0 0 0 0 0 0 0 0 0 0 0 0 0 0 46 48 47 48 48 46 47 47 47 46 46 47 45 44 47 49 47 49 48 51 51 51 49 47 47 45 46 46 43 43 42 43 44 46 46 45 44 45 44 46 45 44 -193 39 38 38 34 34 39 45 48 51 52 52 53 55 56 56 55 55 55 54 57 59 59 60 59 60 59 58 55 52 49 47 45 43 42 -225 -225 -225 -225 -225 -225 -225 -225 -225 -225 -225 -225 -225 -225 -225 -225 -225 -225 -225 -225 -225 -225 -225 -225 -225 -225 -225 -225 -225 -225 -225 -225 -225 -225 -225 -225 -225 -225 49 43 43 43 42 42 42 42 42 43 43 44 46 47 48 49 50 51 52 55 56 57 58 61 61 61 61 62 62 62 62 65 65 66 70 71 72 75 78 78 82 84 85 87 87 89 90 91 92 92 94 99 96 100 102 106 106 106 108 108 107 109 111 111 106 109 109 105 112 113 114 114 114 115 116 116 115 112 116 118 118 118 117 118 120 127 -193 141 146 146 147 149 150 151 154 153 154 155 156 159 160 155 154 150 155 156 158 155 154 162 166 167 171 176 178 182 181 181 181 181 182 184 186 186 186 185 188 189 189 189 192 0 0 0 0 0
    0 0 0 0 0 0 0 0 0 0 0 0 0 0 0 0 0 0 0 0 0 0 0 0 0 0 0 0 0 0 0 0 0 0 0 0 0 0 0 0 0 0 0 0 0 0 0 0 0 0 0 0 0 0 0 0 0 0 0 0 0 0 0 0 0 0 0 0 0 48 50 49 50 49 47 48 48 48 47 47 47 46 46 49 51 50 53 52 53 53 53 50 49 49 47 48 48 44 45 44 47 48 50 48 47 46 46 46 47 45 45 42 42 43 -209 -209 -209 52 52 50 52 51 52 51 53 54 53 53 56 59 57 59 62 62 62 61 61 60 58 55 53 51 49 46 44 -225 -225 -225 -225 -225 -225 -225 -225 -225 -225 -225 -225 -225 -225 -225 -225 -225 -225 -225 -225 -225 -225 -225 -225 -225 -225 -225 -225 -225 -225 -225 -225 -225 -225 -225 -225 -225 -225 -225 47 43 43 43 43 43 43 43 43 43 44 45 46 48 48 50 50 51 52 55 55 57 57 60 60 61 61 62 61 61 61 64 64 65 69 70 72 75 79 79 83 84 86 87 87 89 90 91 92 92 93 98 95 99 101 106 106 106 108 107 107 109 111 111 107 110 110 106 114 115 114 112 112 113 115 114 114 111 115 117 118 118 118 119 120 125 134 139 144 145 148 149 152 152 155 154 -193 156 156 158 159 -193 -193 148 153 153 155 151 155 160 165 166 170 175 178 181 180 181 180 181 182 184 185 186 186 185 186 187 188 187 189 0 0 0 0 0
    0 0 0 0 0 0 0 0 0 0 0 0 0 0 0 0 0 0 0 0 0 0 0 0 0 0 0 0 0 0 0 0 0 0 0 0 0 0 0 0 0 0 0 0 0 0 0 0 0 0 0 0 0 0 0 0 0 0 0 0 0 0 0 0 0 0 0 0 0 50 51 51 51 50 49 49 49 49 48 47 48 47 47 50 52 52 54 53 54 55 53 52 51 51 51 51 52 48 48 48 52 51 52 49 47 46 47 46 47 45 44 41 42 45 46 46 50 54 53 53 55 55 54 56 58 59 58 58 65 62 60 62 64 62 62 61 61 60 58 55 55 53 51 48 -225 -225 -225 -225 -225 -225 -225 -225 -225 -225 -225 -225 -225 -225 -225 -225 -225 -225 -225 -225 -225 -225 -225 -225 -225 -225 -225 -225 -225 -225 -225 -225 -225 -225 -225 -225 -225 -225 -225 -225 43 41 41 43 43 43 43 43 43 44 44 46 45 47 48 49 50 51 52 54 54 56 56 58 59 60 60 60 60 61 61 62 62 63 67 70 -209 75 79 79 82 84 85 86 87 88 89 90 91 91 93 97 94 97 100 105 105 105 107 106 106 109 111 112 107 111 112 107 115 116 115 112 112 113 115 115 115 113 114 115 118 118 118 118 119 121 121 135 -193 139 146 149 152 152 155 -193 -193 155 155 157 158 -193 -193 151 155 157 160 156 157 163 164 166 169 172 176 180 179 180 179 179 181 183 185 185 185 185 185 187 188 187 188 0 0 0 0 0
    0 0 0 0 0 0 0 0 0 0 0 0 0 0 0 0 0 0 0 0 0 0 0 0 0 0 0 0 0 0 0 0 0 0 0 0 0 0 0 0 0 0 0 0 0 0 0 0 0 0 0 0 0 0 0 0 0 0 0 0 0 0 0 0 0 0 0 0 0 50 51 51 51 50 50 50 50 50 48 48 49 49 49 51 53 54 55 54 55 56 54 53 52 53 52 52 53 49 50 50 53 53 53 51 48 47 47 47 48 45 45 42 43 47 49 51 51 54 53 53 55 55 55 57 64 65 64 65 67 63 62 62 63 62 62 60 60 60 58 57 57 56 54 -225 -225 -225 -225 -225 -225 -225 -225 -225 -225 -225 -225 -225 -225 -225 -225 -225 -225 -225 -225 -225 -225 -225 -225 -225 -225 -225 -225 -225 -225 -225 -225 -225 -225 -225 -225 -225 -225 -225 -225 -225 -225 38 39 42 45 44 44 44 44 45 45 47 46 47 47 48 49 50 52 52 53 54 54 57 57 59 59 59 59 60 60 62 62 63 66 71 -209 76 79 78 82 84 85 86 86 88 89 89 91 91 92 96 94 97 99 105 105 104 106 106 106 109 111 111 107 110 111 107 112 116 113 111 111 112 116 116 116 115 114 115 117 117 118 118 119 121 123 132 -193 135 144 148 -193 -193 156 157 -209 156 157 158 159 157 158 154 159 162 165 162 162 166 167 166 168 172 176 180 178 180 179 180 182 183 185 185 186 185 185 187 187 186 187 0 0 0 0 0
    0 0 0 0 0 0 0 0 0 0 0 0 0 0 0 0 0 0 0 0 0 0 0 0 0 0 0 0 0 0 0 0 0 0 0 0 0 0 0 0 0 0 0 0 0 0 0 0 0 0 0 0 0 0 0 0 0 0 0 0 0 0 0 0 0 0 0 0 0 52 53 51 52 51 51 50 50 50 48 47 50 50 50 52 54 55 57 55 56 57 55 54 53 54 52 51 51 48 49 49 53 52 53 51 50 49 50 50 51 49 50 45 51 54 54 55 54 55 53 53 55 54 54 56 61 67 63 63 66 63 62 62 63 62 61 60 60 60 59 59 58 58 -225 -225 -225 -225 -225 -225 -225 -225 -225 -225 -225 -225 -225 -225 -225 -225 -225 -225 -225 -225 -225 -225 -225 -225 -225 -225 -225 -225 -225 -225 -225 -225 -225 -225 -225 -225 -225 -225 -225 -225 -225 -225 -225 -225 -225 42 48 47 47 46 45 46 47 47 46 45 45 46 47 50 53 52 54 54 54 56 57 58 58 58 58 59 60 62 62 64 65 70 -209 75 79 78 82 83 85 85 86 88 -193 89 90 91 92 97 95 97 99 105 104 104 105 105 105 108 110 110 107 110 111 108 111 115 114 112 113 114 117 118 117 117 116 116 118 117 118 118 119 121 122 127 128 131 136 142 149 -209 -209 -209 -209 155 157 157 158 156 157 156 158 161 164 160 162 165 166 167 168 172 176 179 177 179 179 180 182 184 186 186 187 188 188 190 189 188 190 0 0 0 0 0
    0 0 0 0 0 0 0 0 0 0 0 0 0 0 0 0 0 0 0 0 0 0 0 0 0 0 0 0 0 0 0 0 0 0 0 0 0 0 0 0 0 0 0 0 0 0 0 0 0 0 0 0 0 0 0 0 0 0 0 0 0 0 0 0 0 0 0 0 0 -193 -193 50 51 49 50 48 49 48 46 46 50 51 52 53 55 56 57 57 57 58 57 56 55 55 53 52 51 49 48 48 52 51 53 52 51 51 52 53 54 54 54 52 56 56 56 55 55 55 54 54 55 55 56 67 71 69 65 65 66 63 62 63 62 61 61 60 60 59 58 58 58 -225 -225 -225 -225 -225 -225 -225 -225 -225 -225 -225 -225 -225 -225 -225 -225 -225 -225 -225 -225 -225 -225 -225 -225 -225 -225 -225 -225 -225 -225 -225 -225 -225 -225 -225 -225 -225 -225 -225 -225 -225 -225 -225 -225 -225 -225 -225 -225 -225 51 50 47 48 49 48 49 47 45 43 44 47 53 52 54 55 56 57 57 59 58 58 59 59 60 61 62 63 64 69 -209 75 78 77 81 82 84 84 85 87 88 88 90 90 91 97 95 97 98 104 103 103 105 104 104 107 109 109 106 109 111 108 112 116 115 113 115 115 118 119 118 119 118 118 118 117 118 119 120 121 121 124 124 128 131 136 -209 -209 -209 130 -193 -193 155 156 157 156 156 157 160 161 163 160 161 164 166 167 168 172 175 178 176 177 177 179 181 183 185 186 188 190 191 194 193 192 195 0 0 0 0 0
    0 0 0 0 0 0 0 0 0 0 0 0 0 0 0 0 0 0 0 0 0 0 0 0 0 0 0 0 0 0 0 0 0 0 0 0 0 0 0 0 0 0 0 0 0 0 0 0 0 0 0 0 0 0 0 0 0 0 0 0 0 0 0 0 0 0 0 0 0 -209 -209 49 50 48 50 47 48 48 47 47 51 52 53 54 56 57 58 59 59 59 59 59 59 58 58 56 54 52 50 48 52 53 55 54 54 55 57 58 60 -193 59 -193 61 61 56 54 54 55 54 55 56 56 59 65 67 66 63 63 63 62 62 62 62 61 61 60 61 60 60 -225 -225 -225 -225 -225 -225 -225 -225 -225 -225 -225 -225 -225 -225 -225 -225 -225 -225 -225 -225 -225 -225 -225 -225 -225 -225 -225 -225 -225 -225 -225 -225 -225 -225 -225 -225 -225 -225 -225 -225 -225 -225 -225 -225 -225 -225 -225 -225 -225 -225 -225 -225 -225 -225 -225 -209 48 53 -209 51 52 50 53 54 53 57 57 59 59 59 60 60 60 59 59 60 60 61 62 62 69 -209 74 77 77 80 81 83 83 84 86 87 87 89 89 91 96 95 96 98 104 103 103 104 104 103 106 108 108 106 109 112 109 113 116 115 113 115 114 116 118 118 119 119 121 121 121 121 122 122 123 122 123 121 124 123 128 -209 -193 130 130 132 142 152 154 154 154 155 158 162 162 163 162 163 164 167 167 168 170 173 176 176 176 177 178 180 182 183 185 186 189 190 193 192 191 194 0 0 0 0 0
    0 0 0 0 0 0 0 0 0 0 0 0 0 0 0 0 0 0 0 0 0 0 0 0 0 0 0 0 0 0 0 0 0 0 0 0 0 0 0 0 0 0 0 0 0 0 0 0 0 0 0 0 0 0 0 0 0 0 0 0 0 0 0 0 0 0 0 0 0 -209 -209 -193 51 47 49 46 47 48 47 47 51 53 54 55 56 56 58 59 59 60 60 62 63 61 62 59 58 56 52 51 52 54 56 -193 58 60 62 65 68 -193 -193 -193 -193 70 58 55 55 55 54 55 56 59 60 61 63 63 61 61 62 61 61 61 62 61 60 60 61 60 -225 -225 -225 -225 -225 -225 -225 -225 -225 -225 -225 -225 -225 -225 -225 -225 -225 -225 -225 -225 -225 -225 -225 -225 -225 -225 -225 -225 -225 -225 -225 -225 -225 -225 -225 -225 -225 -225 -225 -225 -225 -225 -225 -225 -225 -225 -225 -225 -225 -225 -225 -225 -225 -225 -225 -225 -225 -209 -209 -209 55 57 55 55 56 56 59 59 62 61 61 62 62 61 61 60 61 61 62 63 63 69 -209 74 77 77 79 80 82 83 84 86 87 87 89 89 91 97 96 97 98 103 102 102 104 103 102 105 107 107 105 109 112 109 112 115 114 112 115 114 116 119 120 122 123 124 125 129 125 126 126 126 123 121 120 122 121 120 120 120 126 125 127 135 -209 144 -193 -193 154 157 161 162 164 163 164 164 167 166 167 168 173 175 175 175 176 176 179 181 182 185 185 188 188 191 192 -193 -193 0 0 0 0 0
    0 0 0 0 0 0 0 0 0 0 0 0 0 0 0 0 0 0 0 0 0 0 0 0 0 0 0 0 0 0 0 0 0 0 0 0 0 0 0 0 0 0 0 0 0 0 0 0 0 0 0 0 0 0 0 0 0 0 0 0 0 0 0 0 0 0 0 0 0 -209 -209 -209 -209 -209 -209 -209 -209 -193 52 -193 53 -193 55 56 56 57 59 60 60 60 61 63 66 65 64 60 -209 -209 -209 -209 52 55 -209 -209 -193 62 64 66 -193 -209 -193 -209 -193 -209 -193 -193 -193 -193 54 56 60 61 60 61 62 61 60 61 61 60 60 61 61 60 60 60 61 -225 -225 -225 -225 -225 -225 -225 -225 -225 -225 -225 -225 -225 -225 -225 -225 -225 -225 -225 -225 -225 -225 -225 -225 -225 -225 -225 -225 -225 -225 -225 -225 -225 -225 -225 -225 -225 -225 -225 -225 -225 -225 -225 -225 -225 -225 -225 -225 -225 -225 -225 -225 -225 -225 -225 -225 -225 -225 -225 -209 -209 -209 66 63 60 61 62 65 63 65 62 61 63 62 61 61 61 61 61 63 65 64 70 73 75 77 78 79 80 82 82 84 85 87 87 89 89 92 98 96 97 98 103 101 102 103 103 102 105 106 106 105 109 112 109 114 116 116 114 117 117 118 121 122 123 124 126 130 135 129 128 128 127 121 119 119 120 119 119 120 121 123 123 128 135 139 139 150 -193 154 156 158 159 162 160 162 162 -209 -209 -193 -193 173 173 174 175 175 175 177 179 180 184 184 186 187 190 -193 -193 193 0 0 0 0 0
    0 0 0 0 0 0 0 0 0 0 0 0 0 0 0 0 0 0 0 0 0 0 0 0 0 0 0 0 0 0 0 0 0 0 0 0 0 0 0 0 0 0 0 0 0 0 0 0 0 0 0 0 0 0 0 0 0 0 0 0 0 0 0 0 0 0 0 0 0 -209 -209 -209 -209 -209 -209 -209 90 -193 -193 95 -209 -209 59 59 59 61 63 62 62 0 -256 -1 16250 68 66 -209 -209 -193 -209 -209 -209 -209 -209 -209 -193 65 -193 65 68 -193 -193 -209 -209 -209 59 -193 -193 -193 -193 65 66 64 63 63 63 63 61 62 61 60 60 60 61 61 61 -225 -225 -225 -225 -225 -225 -225 -225 -225 -225 -225 -225 -225 -225 -225 -225 -225 -225 -225 -225 -225 -225 -225 -225 -225 -225 -225 -225 -225 -225 -225 -225 -225 -225 -225 -225 -225 -225 -225 -225 -225 -225 -225 -225 -225 -225 -225 -225 -225 -225 -225 -225 -225 -225 -225 -225 -225 -225 -225 -225 -225 -225 -225 -209 69 70 66 67 67 68 66 66 63 62 63 63 62 61 61 62 61 64 65 64 70 74 75 77 78 80 80 82 83 84 85 87 87 89 89 92 99 97 98 99 103 100 101 103 102 101 104 104 105 104 108 112 109 115 118 118 118 120 121 121 122 123 124 126 128 133 137 131 130 125 126 -193 118 118 120 120 120 123 123 126 125 130 137 140 138 147 150 154 155 156 157 159 156 158 157 -209 -193 -209 -193 172 173 174 176 175 174 175 178 180 183 185 -193 186 189 -193 -193 194 0 0 0 0 0
    0 0 0 0 0 0 0 0 0 0 0 0 0 0 0 0 0 0 0 0 0 0 0 0 0 0 0 0 0 0 0 0 0 0 0 0 0 0 0 0 0 0 0 0 0 0 0 0 0 0 0 0 0 0 0 0 0 0 0 0 0 0 0 0 0 0 0 0 0 -209 -209 -209 -209 -209 -209 88 88 89 -193 93 -193 -209 60 60 60 62 64 64 63 64 64 69 71 70 69 67 -209 -209 -209 -209 -209 -209 -209 -209 -209 -209 -193 65 67 -209 -209 -209 -209 71 62 60 68 -193 73 72 70 68 66 66 66 65 63 62 61 59 59 60 60 60 -225 -225 -225 -225 -225 -225 -225 -225 -225 -225 -225 -225 -225 -225 -225 -225 -225 -225 -225 -225 -225 -225 -225 -225 -225 -225 -225 -225 -225 -225 -225 -225 -225 -225 -225 -225 -225 -225 -225 -225 -225 -225 -225 -225 -225 -225 -225 -225 -225 -225 -225 -225 -225 -225 -225 -225 -225 -225 -225 -225 -225 -225 -225 -225 -225 70 71 68 69 70 70 68 68 65 64 63 64 62 62 61 62 62 65 66 66 70 74 75 77 78 79 80 82 83 84 85 86 87 89 90 93 101 98 98 99 103 100 100 102 101 100 103 103 103 102 108 111 109 116 119 119 120 121 122 122 124 124 124 127 130 135 136 131 131 129 131 131 124 121 123 125 130 134 134 135 134 133 137 140 139 145 148 152 153 154 155 157 154 155 -193 -209 -209 -209 -209 173 174 175 177 176 175 176 179 180 183 -193 -193 -209 -193 -193 -193 -193 0 0 0 0 0
    0 0 0 0 0 0 0 0 0 0 0 0 0 0 0 0 0 0 0 0 0 0 0 0 0 0 0 0 0 0 0 0 0 0 0 0 0 0 0 0 0 0 0 0 0 0 0 0 0 0 0 0 0 0 0 0 0 0 0 0 0 0 0 0 0 0 0 0 0 -193 74 82 -193 -193 87 88 88 89 -193 93 -209 -209 62 62 63 64 66 66 65 66 67 71 73 72 71 70 -209 -193 -209 -209 -193 -209 -209 -209 -209 -209 62 65 68 -193 -209 -193 70 71 67 -193 73 72 73 71 70 69 68 67 66 65 63 62 60 59 58 59 60 -225 -225 -225 -225 -225 -225 -225 -225 -225 -225 -225 -225 -225 -225 -225 -225 -225 -225 -225 -225 -225 -225 -225 -225 -225 -225 -225 -225 -225 -225 -225 -225 -225 -225 -225 -225 -225 -225 -225 -225 -225 -225 -225 -225 -225 -225 -225 -225 -225 -225 -225 -225 -225 -225 -225 -225 -225 -225 -225 -225 -225 -225 -225 -225 -225 -225 70 71 70 71 72 71 69 69 67 66 66 66 64 63 62 64 64 68 68 68 70 74 75 77 78 79 79 82 83 84 85 86 88 89 90 93 101 99 99 99 103 99 100 101 101 99 102 102 102 100 107 110 109 117 120 120 120 121 122 123 124 124 124 128 132 136 137 135 134 134 135 136 136 130 130 131 136 138 138 139 139 138 141 146 147 151 152 151 152 153 154 154 -193 155 152 -193 -209 -209 -209 -193 173 176 178 -193 175 177 179 180 -193 -193 -193 -193 -209 -193 -193 -193 0 0 0 0 0
    0 0 0 0 0 0 0 0 0 0 0 0 0 0 0 0 0 0 0 0 0 0 0 0 0 0 0 0 0 0 0 0 0 0 0 0 0 0 0 0 0 0 0 0 0 0 0 0 0 0 0 0 0 0 0 0 0 0 0 0 0 0 0 0 0 0 0 0 0 -209 74 79 83 85 85 87 87 89 90 94 97 -209 -193 63 64 66 -193 67 65 67 68 72 74 74 72 71 74 -193 -209 -209 -209 -209 -209 -209 -209 -209 59 63 68 68 69 74 72 72 70 74 74 72 72 71 70 69 68 67 65 64 62 60 60 59 58 -225 -225 -225 -225 -225 -225 -225 -225 -225 -225 -225 -225 -225 -225 -225 -225 -225 -225 -225 -225 -225 -225 -225 -225 -225 -225 -225 -225 -225 -225 -225 -225 -225 -225 -225 -225 -225 -225 -225 -225 -225 -225 -225 -225 -225 -225 -225 -225 -225 -225 -225 -225 -225 -225 -225 -225 -225 -225 -225 -225 -225 -225 -225 -225 -225 -225 -225 -225 70 71 70 71 72 72 70 70 68 68 67 68 66 64 62 65 66 71 71 70 71 73 75 76 77 78 78 81 83 84 85 87 89 89 91 92 101 98 99 99 102 99 100 101 101 98 101 102 102 99 107 110 110 118 120 120 120 122 123 123 124 125 125 128 132 135 138 136 136 136 136 137 137 136 133 135 137 139 140 140 141 139 141 147 149 152 151 150 151 151 151 151 149 152 150 150 152 154 161 -209 171 174 -193 -193 -193 177 179 179 182 -193 -193 -209 184 -193 -193 -193 0 0 0 0 0
    0 0 0 0 0 0 0 0 0 0 0 0 0 0 0 0 0 0 0 0 0 0 0 0 0 0 0 0 0 0 0 0 0 0 0 0 0 0 0 0 0 0 0 0 0 0 0 0 0 0 0 0 0 0 0 0 0 0 0 0 0 0 0 0 0 0 0 0 0 85 78 82 85 86 85 86 86 88 89 92 -209 -209 -193 63 -193 -193 -193 65 64 66 67 72 74 74 72 71 73 -193 -209 -209 -209 -209 -209 -209 -209 55 57 60 65 66 68 -209 -209 75 74 78 78 76 75 74 72 71 70 68 66 63 62 61 59 58 -225 -225 -225 -225 -225 -225 -225 -225 -225 -225 -225 -225 -225 -225 -225 -225 -225 -225 -225 -225 -225 -225 -225 -225 -225 -225 -225 -225 -225 -225 -225 -225 -225 -225 -225 -225 -225 -225 -225 -225 -225 -225 -225 -225 -225 -225 -225 -225 -225 -225 -225 -225 -225 -225 -225 -225 -225 -225 -225 -225 -225 -225 -225 -225 -225 -225 -225 -225 -225 69 71 71 72 73 73 71 71 70 69 69 69 69 68 67 69 71 74 75 75 74 75 76 76 78 78 78 81 83 85 86 87 89 89 90 91 101 98 99 99 102 99 100 101 101 98 101 101 101 98 107 110 111 119 121 122 122 123 124 124 124 125 125 129 132 135 138 137 138 138 138 139 138 138 136 137 138 139 140 140 140 139 139 148 151 153 -193 150 153 153 153 151 150 151 149 151 152 153 154 159 -193 171 -209 -209 -209 -209 177 177 181 -209 -209 -209 183 187 189 194 0 0 0 0 0
    0 0 0 0 0 0 0 0 0 0 0 0 0 0 0 0 0 0 0 0 0 0 0 0 0 0 0 0 0 0 0 0 0 0 0 0 0 0 0 0 0 0 0 0 0 0 0 0 0 0 0 0 0 0 0 0 0 0 0 0 0 0 0 0 0 0 0 0 0 89 81 84 87 87 86 87 87 88 89 -209 -209 -209 -193 62 64 -193 -193 66 67 69 -209 75 77 76 74 72 74 -193 -209 -209 -209 -209 57 57 -193 54 56 59 62 65 67 -193 74 77 76 79 80 77 76 74 73 71 70 67 63 63 62 60 -225 -225 -225 -225 -225 -225 -225 -225 -225 -225 -225 -225 -225 -225 -225 -225 -225 -225 -225 -225 -225 -225 -225 -225 -225 -225 -225 -225 -225 -225 -225 -225 -225 -225 -225 -225 -225 -225 -225 -225 -225 -225 -225 -225 -225 -225 -225 -225 -225 -225 -225 -225 -225 -225 -225 -225 -225 -225 -225 -225 -225 -225 -225 -225 -225 -225 -225 -225 -225 -225 -225 69 71 71 72 73 73 71 71 70 70 70 71 72 71 71 73 74 78 78 79 76 76 77 77 78 78 78 81 83 85 86 88 89 89 90 90 100 97 99 99 102 99 100 101 101 99 101 101 101 98 107 110 -209 -209 122 124 123 124 125 124 125 125 125 130 132 137 139 138 138 138 139 139 139 139 137 138 139 140 142 142 143 142 142 150 153 154 154 151 152 153 -193 150 147 146 148 151 153 153 153 155 165 -193 -209 -209 -209 -209 -209 -209 179 -209 -209 -209 182 187 189 192 0 0 0 0 0
    0 0 0 0 0 0 0 0 0 0 0 0 0 0 0 0 0 0 0 0 0 0 0 0 0 0 0 0 0 0 0 0 0 0 0 0 0 0 0 0 0 0 0 0 0 0 0 0 0 0 0 0 0 0 0 0 0 0 0 0 0 0 0 0 0 0 0 0 0 89 84 86 88 88 87 89 89 89 -209 -209 -193 -193 61 63 66 67 68 69 71 -209 -209 79 82 -193 -193 73 -193 -209 -193 -209 -209 -209 56 -193 -209 -193 56 58 60 62 64 73 76 77 77 78 79 78 77 76 74 72 70 68 66 65 65 -225 -225 -225 -225 -225 -225 -225 -225 -225 -225 -225 -225 -225 -225 -225 -225 -225 -225 -225 -225 -225 -225 -225 -225 -225 -225 -225 -225 -225 -225 -225 -225 -225 -225 -225 -225 -225 -225 -225 -225 -225 -225 -225 -225 -225 -225 -225 -225 -225 -225 -225 -225 -225 -225 -225 -225 -225 -225 -225 -225 -225 -225 -225 -225 -225 -225 -225 -225 -225 -225 -225 -225 -225 72 72 72 73 73 72 72 71 71 71 72 74 74 76 76 78 81 80 81 78 78 80 79 81 80 79 82 84 87 87 88 89 88 90 90 99 97 98 99 102 99 100 102 101 99 101 101 101 99 106 109 -193 -209 121 124 123 124 125 125 126 126 126 130 131 136 138 137 137 137 138 138 138 139 138 139 140 141 144 144 145 145 147 152 153 154 154 151 150 151 151 145 142 142 145 149 151 151 149 147 -209 -209 140 -209 133 134 -193 -209 -209 -209 -209 -209 -193 186 -209 190 0 0 0 0 0
    0 0 0 0 0 0 0 0 0 0 0 0 0 0 0 0 0 0 0 0 0 0 0 0 0 0 0 0 0 0 0 0 0 0 0 0 0 0 0 0 0 0 0 0 0 0 0 0 0 0 0 0 0 0 0 0 0 0 0 0 0 0 0 0 0 0 0 0 0 88 86 87 88 88 88 91 92 91 95 -209 -193 -193 -193 64 67 68 69 70 72 -193 -209 81 -193 -193 -193 74 -193 -193 74 -209 -209 -209 57 -209 -209 -193 56 58 59 61 70 78 77 77 77 78 78 77 77 76 74 72 71 69 68 68 68 -225 -225 -225 -225 -225 -225 -225 -225 -225 -225 -225 -225 -225 -225 -225 -225 -225 -225 -225 -225 -225 -225 -225 -225 -225 -225 -225 -225 -225 -225 -225 -225 -225 -225 -225 -225 -225 -225 -225 -225 -225 -225 -225 -225 -225 -225 -225 -225 -225 -225 -225 -225 -225 -225 -225 -225 -225 -225 -225 -225 -225 -225 -225 -225 -225 -225 -225 -225 -225 -225 -225 -225 -225 74 72 73 74 73 73 -193 73 74 74 76 78 77 82 80 81 83 81 82 79 79 82 80 83 81 80 82 83 86 87 87 89 88 90 91 100 98 99 99 102 99 100 102 101 100 101 102 102 99 106 109 -193 -209 122 124 124 124 125 125 126 126 125 128 129 135 137 136 136 136 137 137 137 138 137 139 140 141 144 146 148 149 151 153 155 155 154 152 151 151 151 148 147 147 148 152 154 158 164 -209 162 -193 140 144 -193 136 139 139 143 138 141 -209 -193 -209 -209 -209 0 0 0 0 0
    0 0 0 0 0 0 0 0 0 0 0 0 0 0 0 0 0 0 0 0 0 0 0 0 0 0 0 0 0 0 0 0 0 0 0 0 0 0 0 0 0 0 0 0 0 0 0 0 0 0 0 0 0 0 0 0 0 0 0 0 0 0 0 0 0 0 0 0 0 88 86 88 89 90 90 93 95 96 -209 -209 -209 -209 -193 64 67 68 70 71 -193 -193 -193 80 81 80 79 76 78 76 74 74 -209 -193 59 -209 -193 55 56 58 59 64 74 85 81 79 79 79 79 78 78 76 74 73 72 70 69 70 -225 -225 -225 -225 -225 -225 -225 -225 -225 -225 -225 -225 -225 -225 -225 -225 -225 -225 -225 -225 -225 -225 -225 -225 -225 -225 -225 -225 -225 -225 -225 -225 -225 -225 -225 -225 -225 -225 -225 -225 -225 -225 -225 -225 -225 -225 -225 -225 -225 -225 -225 -225 -225 -225 -225 -225 -225 -225 -225 -225 -225 -225 -225 -225 -225 -225 -225 -225 -225 -225 -225 -225 -225 -225 -225 74 74 73 73 -209 -209 75 77 78 79 82 82 86 84 85 86 84 85 82 83 85 83 86 83 82 84 84 87 87 87 89 88 91 91 100 99 99 99 102 99 100 102 101 100 101 102 102 100 106 108 -209 -209 121 123 123 123 125 125 125 126 126 129 130 134 136 136 137 137 137 137 137 138 138 140 141 142 145 147 150 152 153 155 156 156 155 154 153 153 153 151 152 153 153 156 158 161 163 158 157 159 143 147 140 139 143 144 146 144 145 151 -193 -193 -209 -209 0 0 0 0 0
    0 0 0 0 0 0 0 0 0 0 0 0 0 0 0 0 0 0 0 0 0 0 0 0 0 0 0 0 0 0 0 0 0 0 0 0 0 0 0 0 0 0 0 0 0 0 0 0 0 0 0 0 0 0 0 0 0 0 0 0 0 0 0 0 0 0 0 0 0 88 86 87 89 90 89 92 -193 -209 -177 -177 -193 -209 -209 64 68 69 -193 -193 -209 -193 -209 -193 -193 -193 78 75 77 76 75 74 -209 60 61 -193 -193 56 57 59 63 70 79 88 84 82 82 82 82 80 78 76 74 74 73 71 69 -225 -225 -225 -225 -225 -225 -225 -225 -225 -225 -225 -225 -225 -225 -225 -225 -225 -225 -225 -225 -225 -225 -225 -225 -225 -225 -225 -225 -225 -225 -225 -225 -225 -225 -225 -225 -225 -225 -225 -225 -225 -225 -225 -225 -225 -225 -225 -225 -225 -225 -225 -225 -225 -225 -225 -225 -225 -225 -225 -225 -225 -225 -225 -225 -225 -225 -225 -225 -225 -225 -225 -225 -225 -225 -225 -225 -225 -225 -225 75 -209 -209 77 81 83 83 84 84 86 85 86 87 86 86 84 85 86 85 87 84 83 84 84 87 87 87 89 88 91 91 99 99 99 99 102 99 101 102 102 101 102 102 102 101 106 107 -193 -209 119 122 122 123 124 124 125 126 126 129 131 134 136 136 137 137 138 137 138 139 139 139 141 142 146 148 150 152 154 155 156 155 155 154 153 153 153 153 153 154 155 157 158 159 159 156 156 156 150 151 149 146 148 148 148 149 149 153 -193 -193 161 162 0 0 0 0 0
    0 0 0 0 0 0 0 0 0 0 0 0 0 0 0 0 0 0 0 0 0 0 0 0 0 0 0 0 0 0 0 0 0 0 0 0 0 0 0 0 0 0 0 0 0 0 0 0 0 0 0 0 0 0 0 0 0 0 0 0 0 0 0 0 0 0 0 0 0 89 87 88 89 91 91 -193 -209 -193 -177 -177 -177 -209 -209 -209 -209 71 -209 -209 -209 -209 -209 -193 -193 -193 79 76 77 75 74 73 -209 61 62 -193 -193 59 61 64 69 73 85 90 87 85 84 84 83 80 78 76 75 74 73 70 -225 -225 -225 -225 -225 -225 -225 -225 -225 -225 -225 -225 -225 -225 -225 -225 -225 -225 -225 -225 -225 -225 -225 -225 -225 -225 -225 -225 -225 -225 -225 -225 -225 -225 -225 -225 -225 -225 -225 -225 -225 -225 -225 -225 -225 -225 -225 -225 -225 -225 -225 -225 -225 -225 -225 -225 -225 -225 -225 -225 -225 -225 -225 -225 -225 -225 -225 -225 -225 -225 -225 -225 -225 -225 -225 -225 -225 -225 -225 -225 75 -209 -209 80 84 85 84 85 85 86 85 86 87 86 86 84 85 85 85 87 85 84 84 85 88 88 87 89 89 91 92 99 99 100 99 102 100 101 103 103 102 102 103 103 102 106 107 -209 -209 117 120 120 121 123 123 124 125 125 129 131 134 136 137 137 138 138 138 138 139 138 139 141 142 145 148 151 154 154 155 156 155 155 154 154 153 153 153 154 155 157 159 160 161 160 157 157 158 153 154 154 153 152 153 152 153 152 158 -193 163 164 165 0 0 0 0 0
    0 0 0 0 0 0 0 0 0 0 0 0 0 0 0 0 0 0 0 0 0 0 0 0 0 0 0 0 0 0 0 0 0 0 0 0 0 0 0 0 0 0 0 0 0 0 0 0 0 0 0 0 0 0 0 0 0 0 0 0 0 0 0 0 0 0 0 0 0 88 88 88 -193 91 -193 -209 -209 -209 -193 -177 -193 -193 -209 -209 -193 -193 -209 -209 -209 -209 -209 -209 -209 81 79 76 76 74 74 74 -209 65 65 61 64 67 -209 -209 73 86 88 91 90 87 86 84 83 81 80 78 76 75 74 72 -225 -225 -225 -225 -225 -225 -225 -225 -225 -225 -225 -225 -225 -225 -225 -225 -225 -225 -225 -225 -225 -225 -225 -225 -225 -225 -225 -225 -225 -225 -225 -225 -225 -225 -225 -225 -225 -225 -225 -225 -225 -225 -225 -225 -225 -225 -225 -225 -225 -225 -225 -225 -225 -225 -225 -225 -225 -225 -225 -225 -225 -225 -225 -225 -225 -225 -225 -225 -225 -225 -225 -225 -225 -225 -225 -225 -225 -225 -225 -225 -225 -225 -209 87 88 87 87 86 86 87 86 86 86 85 86 84 85 85 86 87 85 86 86 86 89 90 90 91 91 93 94 99 100 100 100 102 101 102 104 103 103 103 103 103 103 105 107 -209 109 116 119 120 121 122 122 123 124 125 128 130 133 135 136 137 138 138 137 137 138 137 138 139 140 142 144 150 152 152 154 155 154 154 154 154 153 154 155 155 156 159 161 161 161 161 158 157 158 155 154 154 153 152 154 -193 155 154 160 168 164 165 167 0 0 0 0 0
    0 0 0 0 0 0 0 0 0 0 0 0 0 0 0 0 0 0 0 0 0 0 0 0 0 0 0 0 0 0 0 0 0 0 0 0 0 0 0 0 0 0 0 0 0 0 0 0 0 0 0 0 0 0 0 0 0 0 0 0 0 0 0 0 0 0 0 0 0 90 88 -193 -209 -209 -209 -209 -209 -209 -209 -177 -193 -193 -209 -209 -209 -209 -209 -209 -193 -193 -193 -193 -193 -193 78 76 75 75 74 76 74 69 69 69 -193 -209 95 96 93 91 92 94 92 88 86 84 83 83 82 80 77 76 76 -225 -225 -225 -225 -225 -225 -225 -225 -225 -225 -225 -225 -225 -225 -225 -225 -225 -225 -225 -225 -225 -225 -225 -225 -225 -225 -225 -225 -225 -225 -225 -225 -225 -225 -225 -225 -225 -225 -225 -225 -225 -225 -225 -225 -225 -225 -225 -225 -225 -225 -225 -225 -225 -225 -225 -225 -225 -225 -225 -225 -225 -225 -225 -225 -225 -225 -225 -225 -225 -225 -225 -225 -225 -225 -225 -225 -225 -225 -225 -225 -225 -225 -225 -225 91 92 89 88 86 87 87 86 86 86 86 87 86 87 87 87 89 87 87 88 88 90 91 92 93 94 96 97 100 101 101 100 102 102 103 105 104 103 103 103 104 103 105 105 -209 108 114 118 119 119 121 122 122 124 124 126 129 132 135 135 137 137 138 137 137 137 135 137 139 139 142 142 149 151 151 152 153 153 154 154 155 154 154 156 157 157 160 162 162 161 162 160 158 159 160 155 155 154 154 157 155 159 160 162 167 165 166 168 0 0 0 0 0
    0 0 0 0 0 0 0 0 0 0 0 0 0 0 0 0 0 0 0 0 0 0 0 0 0 0 0 0 0 0 0 0 0 0 0 0 0 0 0 0 0 0 0 0 0 0 0 0 0 0 0 0 0 0 0 0 0 0 0 0 0 0 0 0 0 0 0 0 0 -209 -209 -209 -209 -209 -209 -209 -209 -209 -193 -177 -193 -193 -209 -209 -209 -209 -209 -209 -193 -193 -193 -193 -193 -193 77 76 76 77 75 79 86 -193 78 -193 93 97 97 98 99 96 98 99 94 89 87 86 85 84 83 81 77 77 -193 -225 -225 -225 -225 -225 -225 -225 -225 -225 -225 -225 -225 -225 -225 -225 -225 -225 -225 -225 -225 -225 -225 -225 -225 -225 -225 -225 -225 -225 -225 -225 -225 -225 -225 -225 -225 -225 -225 -225 -225 -225 -225 -225 -225 -225 -225 -225 -225 -225 -225 -225 -225 -225 -225 -225 -225 -225 -225 -225 -225 -225 -225 -225 -225 -225 -225 -225 -225 -225 -225 -225 -225 -225 -225 -225 -225 -225 -225 -225 -225 -225 -225 -225 -225 90 92 89 88 86 87 87 87 87 87 87 88 87 89 89 89 90 89 89 89 90 92 95 95 97 98 98 100 102 102 101 101 102 103 105 106 104 104 104 103 104 104 103 104 -209 -209 114 117 119 119 121 121 122 124 125 127 130 132 133 134 135 136 137 136 137 137 137 138 140 142 144 145 149 151 150 151 152 152 153 153 154 154 154 157 159 160 163 164 164 163 164 161 158 158 160 155 156 154 154 157 162 164 165 165 168 166 167 170 0 0 0 0 0
    0 0 0 0 0 0 0 0 0 0 0 0 0 0 0 0 0 0 0 0 0 0 0 0 0 0 0 0 0 0 0 0 0 0 0 0 0 0 0 0 0 0 0 0 0 0 0 0 0 0 0 0 0 0 0 0 0 0 0 0 0 0 0 0 0 0 0 0 0 103 102 -193 -193 94 97 100 -209 -209 -209 -209 -209 -193 -193 -209 -209 -193 -209 -209 -193 -193 -209 78 -193 77 76 76 76 77 77 81 86 85 88 92 94 97 98 99 101 100 101 100 96 91 89 88 87 85 84 82 76 -193 -209 -225 -225 -225 -225 -225 -225 -225 -225 -225 -225 -225 -225 -225 -225 -225 -225 -225 -225 -225 -225 -225 -225 -225 -225 -225 -225 -225 -225 -225 -225 -225 -225 -225 -225 -225 -225 -225 -225 -225 -225 -225 -225 -225 -225 -225 -225 -225 -225 -225 -225 -225 -225 -225 -225 -225 -225 -225 -225 -225 -225 -225 -225 -225 -225 -225 -225 -225 -225 -225 -225 -225 -225 -225 -225 -225 -225 -225 -225 -225 -225 -225 -225 -225 -225 90 93 89 90 88 87 87 87 87 88 88 89 88 89 90 90 91 91 90 90 91 93 94 95 97 99 100 101 102 103 102 102 103 105 105 106 104 104 104 104 104 104 103 103 -209 -209 -209 116 119 118 120 121 122 125 125 127 130 131 133 134 135 136 136 136 137 137 137 139 141 142 145 146 148 150 150 151 151 151 151 152 154 154 155 159 162 163 165 166 165 164 165 162 159 158 160 155 156 156 158 161 167 167 168 167 169 167 168 170 0 0 0 0 0
    0 0 0 0 0 0 0 0 0 0 0 0 0 0 0 0 0 0 0 0 0 0 0 0 0 0 0 0 0 0 0 0 0 0 0 0 0 0 0 0 0 0 0 0 0 0 0 0 0 0 0 0 0 0 0 0 0 0 0 0 0 0 0 0 0 0 0 0 0 106 107 108 -193 105 105 106 -209 -209 -209 -209 -209 -209 -209 -209 -209 -209 -209 -209 -209 -209 76 77 77 76 75 76 77 77 77 79 83 86 89 91 93 95 98 100 102 102 102 101 98 95 92 91 89 86 86 81 -209 -209 -225 -225 -225 -225 -225 -225 -225 -225 -225 -225 -225 -225 -225 -225 -225 -225 -225 -225 -225 -225 -225 -225 -225 -225 -225 -225 -225 -225 -225 -225 -225 -225 -225 -225 -225 -225 -225 -225 -225 -225 -225 -225 -225 -225 -225 -225 -225 -225 -225 -225 -225 -225 -225 -225 -225 -225 -225 -225 -225 -225 -225 -225 -225 -225 -225 -225 -225 -225 -225 -225 -225 -225 -225 -225 -225 -225 -225 -225 -225 -225 -225 -225 -225 -225 -225 -225 93 88 93 88 88 88 88 88 89 89 90 89 90 92 91 92 91 91 92 92 95 96 97 99 100 101 101 102 102 102 102 103 105 105 106 104 104 103 103 104 104 102 103 -209 -209 -209 116 -209 118 120 121 122 124 125 127 130 132 133 134 135 136 137 137 137 138 138 139 141 142 144 146 148 150 149 151 152 151 152 153 155 155 156 161 164 165 165 166 166 164 166 163 161 160 163 155 159 166 -193 -193 170 171 172 169 170 168 167 169 0 0 0 0 0
    0 0 0 0 0 0 0 0 0 0 0 0 0 0 0 0 0 0 0 0 0 0 0 0 0 0 0 0 0 0 0 0 0 0 0 0 0 0 0 0 0 0 0 0 0 0 0 0 0 0 0 0 0 0 0 0 0 0 0 0 0 0 0 0 0 0 0 0 0 109 110 111 114 110 109 109 -209 -209 -209 87 -209 -209 -209 -209 -209 -209 -209 -209 -209 -209 75 79 80 79 76 78 78 80 80 81 84 87 89 93 93 96 100 102 103 103 103 102 99 99 97 96 96 91 90 -225 -225 -225 -225 -225 -225 -225 -225 -225 -225 -225 -225 -225 -225 -225 -225 -225 -225 -225 -225 -225 -225 -225 -225 -225 -225 -225 -225 -225 -225 -225 -225 -225 -225 -225 -225 -225 -225 -225 -225 -225 -225 -225 -225 -225 -225 -225 -225 -225 -225 -225 -225 -225 -225 -225 -225 -225 -225 -225 -225 -225 -225 -225 -225 -225 -225 -225 -225 -225 -225 -225 -225 -225 -225 -225 -225 -225 -225 -225 -225 -225 -225 -225 -225 -225 -225 -225 -225 -225 -225 -225 -209 90 89 88 88 89 90 90 91 90 91 93 92 93 93 93 94 95 98 99 99 100 101 101 101 102 102 102 102 103 106 106 106 105 105 104 105 105 105 103 104 -209 -209 117 117 119 119 120 121 122 124 124 126 129 131 133 134 135 136 137 137 138 138 138 139 141 143 144 146 148 150 149 151 152 151 152 153 155 156 158 163 165 165 165 166 165 163 164 160 159 158 162 -193 158 -193 172 173 173 174 177 171 172 170 168 169 0 0 0 0 0
    0 0 0 0 0 0 0 0 0 0 0 0 0 0 0 0 0 0 0 0 0 0 0 0 0 0 0 0 0 0 0 0 0 0 0 0 0 0 0 0 0 0 0 0 0 0 0 0 0 0 0 0 0 0 0 0 0 0 0 0 0 0 0 0 0 0 0 0 0 111 112 113 115 112 111 110 -193 -193 -209 87 -209 -209 -209 -209 -209 -209 -209 -209 -209 86 74 82 83 80 77 78 79 80 81 83 84 87 90 94 95 97 100 102 103 103 103 102 101 101 100 100 -225 -225 -225 -225 -225 -225 -225 -225 -225 -225 -225 -225 -225 -225 -225 -225 -225 -225 -225 -225 -225 -225 -225 -225 -225 -225 -225 -225 -225 -225 -225 -225 -225 -225 -225 -225 -225 -225 -225 -225 -225 -225 -225 -225 -225 -225 -225 -225 -225 -225 -225 -225 -225 -225 -225 -225 -225 -225 -225 -225 -225 -225 -225 -225 -225 -225 -225 -225 -225 -225 -225 -225 -225 -225 -225 -225 -225 -225 -225 -225 -225 -225 -225 -225 -225 -225 -225 -225 -225 -225 -225 -225 -225 -225 -225 90 89 87 87 88 89 89 91 90 91 92 93 93 93 94 97 98 101 101 102 101 102 103 103 103 103 103 104 104 107 107 107 107 106 106 106 106 106 104 105 -209 110 117 117 119 119 120 121 122 123 124 126 128 130 132 133 134 135 136 136 137 137 136 138 139 141 143 144 146 148 147 149 150 150 151 152 154 156 158 163 165 165 165 166 165 163 164 162 161 159 165 -193 165 171 175 177 178 178 180 175 174 174 172 176 0 0 0 0 0
    0 0 0 0 0 0 0 0 0 0 0 0 0 0 0 0 0 0 0 0 0 0 0 0 0 0 0 0 0 0 0 0 0 0 0 0 0 0 0 0 0 0 0 0 0 0 0 0 0 0 0 0 0 0 0 0 0 0 0 0 0 0 0 0 0 0 0 0 0 111 111 112 114 110 109 109 -193 -193 -193 -193 93 -209 -209 -209 -209 -209 94 -209 90 86 80 85 85 84 79 81 82 -193 85 86 86 89 92 95 96 97 100 102 102 103 103 103 103 103 -225 -225 -225 -225 -225 -225 -225 -225 -225 -225 -225 -225 -225 -225 -225 -225 -225 -225 -225 -225 -225 -225 -225 -225 -225 -225 -225 -225 -225 -225 -225 -225 -225 -225 -225 -225 -225 -225 -225 -225 -225 -225 -225 -225 -225 -225 -225 -225 -225 -225 -225 -225 -225 -225 -225 -225 -225 -225 -225 -225 -225 -225 -225 -225 -225 -225 -225 -225 -225 -225 -225 -225 -225 -225 -225 -225 -225 -225 -225 -225 -225 -225 -225 -225 -225 -225 -225 -225 -225 -225 -225 -225 -225 -225 -225 -225 -225 90 89 87 88 88 89 89 92 91 92 95 95 95 96 98 102 102 104 104 104 103 104 104 104 104 104 104 104 105 108 107 108 107 107 107 107 107 106 105 105 -209 110 116 117 119 119 120 121 122 123 124 125 127 129 131 132 133 134 135 135 136 137 136 137 139 140 142 144 145 147 147 149 151 151 151 152 154 156 158 163 165 165 165 166 165 164 165 163 163 162 166 -193 166 173 179 181 181 181 182 179 177 179 180 183 0 0 0 0 0
    0 0 0 0 0 0 0 0 0 0 0 0 0 0 0 0 0 0 0 0 0 0 0 0 0 0 0 0 0 0 0 0 0 0 0 0 0 0 0 0 0 0 0 0 0 0 0 0 0 0 0 0 0 0 0 0 0 0 0 0 0 0 0 0 0 0 0 0 0 111 112 111 113 110 109 109 -193 -193 -193 90 97 -193 -193 -209 -209 -209 97 -209 -193 83 78 82 81 82 78 82 84 -193 88 89 88 91 92 95 96 97 100 101 101 102 101 100 -225 -225 -225 -225 -225 -225 -225 -225 -225 -225 -225 -225 -225 -225 -225 -225 -225 -225 -225 -225 -225 -225 -225 -225 -225 -225 -225 -225 -225 -225 -225 -225 -225 -225 -225 -225 -225 -225 -225 -225 -225 -225 -225 -225 -225 -225 -225 -225 -225 -225 -225 -225 -225 -225 -225 -225 -225 -225 -225 -225 -225 -225 -225 -225 -225 -225 -225 -225 -225 -225 -225 -225 -225 -225 -225 -225 -225 -225 -225 -225 -225 -225 -225 -225 -225 -225 -225 -225 -225 -225 -225 -225 -225 -225 -225 -225 -225 -225 -225 -225 91 91 92 94 94 92 97 94 97 100 99 99 100 102 105 105 107 107 106 105 106 106 106 106 105 105 106 106 109 108 108 108 107 108 108 107 107 105 106 107 110 115 117 118 118 119 120 122 123 124 125 127 129 131 132 133 134 135 135 136 136 136 137 138 140 142 144 145 147 148 150 151 151 151 153 155 157 159 163 164 164 164 165 165 164 166 165 165 164 168 -209 -209 -209 182 185 184 183 184 181 179 180 182 185 0 0 0 0 0
    0 0 0 0 0 0 0 0 0 0 0 0 0 0 0 0 0 0 0 0 0 0 0 0 0 0 0 0 0 0 0 0 0 0 0 0 0 0 0 0 0 0 0 0 0 0 0 0 0 0 0 0 0 0 0 0 0 0 0 0 0 0 0 0 0 0 0 0 0 111 112 112 114 111 110 109 106 -193 -193 94 98 -193 -193 -209 -209 -209 94 -209 87 83 79 84 80 84 80 85 86 -193 88 88 87 91 92 95 96 98 100 102 103 103 102 -225 -225 -225 -225 -225 -225 -225 -225 -225 -225 -225 -225 -225 -225 -225 -225 -225 -225 -225 -225 -225 -225 -225 -225 -225 -225 -225 -225 -225 -225 -225 -225 -225 -225 -225 -225 -225 -225 -225 -225 -225 -225 -225 -225 -225 -225 -225 -225 -225 -225 -225 -225 -225 -225 -225 -225 -225 -225 -225 -225 -225 -225 -225 -225 -225 -225 -225 -225 -225 -225 -225 -225 -225 -225 -225 -225 -225 -225 -225 -225 -225 -225 -225 -225 -225 -225 -225 -225 -225 -225 -225 -225 -225 -225 -225 -225 -225 -225 -225 -225 -225 94 94 94 96 95 94 98 96 98 101 100 101 102 103 106 106 108 108 108 107 108 107 107 107 106 106 107 107 110 108 109 109 108 109 110 108 108 107 107 108 110 113 117 118 119 119 120 122 123 125 126 128 130 132 133 134 134 135 135 136 136 136 137 138 139 141 144 145 148 149 151 151 152 152 153 155 157 158 162 164 165 164 165 165 165 167 166 164 162 166 -209 -209 -209 -209 185 184 184 184 182 182 183 184 186 0 0 0 0 0
    0 0 0 0 0 0 0 0 0 0 0 0 0 0 0 0 0 0 0 0 0 0 0 0 0 0 0 0 0 0 0 0 0 0 0 0 0 0 0 0 0 0 0 0 0 0 0 0 0 0 0 0 0 0 0 0 0 0 0 0 0 0 0 0 0 0 0 0 0 111 111 111 112 110 109 108 106 -193 102 100 102 -193 -193 -193 -193 -209 98 -209 -193 86 80 86 82 -193 -209 89 -193 -193 87 87 87 91 92 96 97 96 101 104 103 103 -225 -225 -225 -225 -225 -225 -225 -225 -225 -225 -225 -225 -225 -225 -225 -225 -225 -225 -225 -225 -225 -225 -225 -225 -225 -225 -225 -225 -225 -225 -225 -225 -225 -225 -225 -225 -225 -225 -225 -225 -225 -225 -225 -225 -225 -225 -225 -225 -225 -225 -225 -225 -225 -225 -225 -225 -225 -225 -225 -225 -225 -225 -225 -225 -225 -225 -225 -225 -225 -225 -225 -225 -225 -225 -225 -225 -225 -225 -225 -225 -225 -225 -225 -225 -225 -225 -225 -225 -225 -225 -225 -225 -225 -225 -225 -225 -225 -225 -225 -225 -225 -225 97 97 98 100 97 95 99 98 100 102 101 102 103 104 107 107 108 107 108 107 109 107 107 107 107 106 107 108 109 107 109 109 109 109 109 109 108 107 109 108 110 112 117 118 119 119 120 121 123 124 126 128 130 131 132 133 134 135 135 136 136 137 138 138 139 140 143 146 148 149 153 152 153 152 154 154 156 158 162 164 165 165 166 166 165 166 165 163 159 163 -209 -209 -209 -209 -209 -193 184 184 182 181 183 184 186 0 0 0 0 0
    0 0 0 0 0 0 0 0 0 0 0 0 0 0 0 0 0 0 0 0 0 0 0 0 0 0 0 0 0 0 0 0 0 0 0 0 0 0 0 0 0 0 0 0 0 0 0 0 0 0 0 0 0 0 0 0 0 0 0 0 0 0 0 0 0 0 0 0 0 111 111 111 111 110 109 109 -225 -225 -225 -225 -225 -225 -225 108 107 106 104 -209 92 -209 86 90 -193 89 88 91 -193 -193 85 85 85 88 91 93 92 93 101 104 103 -225 -225 -225 -225 -225 -225 -225 -225 -225 -225 -225 -225 -225 -225 -225 -225 -225 -225 -225 -225 -225 -225 -225 -225 -225 -225 -225 -225 -225 -225 -225 -225 -225 -225 -225 -225 -225 -225 -225 -225 -225 -225 -225 -225 -225 -225 -225 -225 -225 -225 -225 -225 -225 -225 -225 -225 -225 -225 -225 -225 -225 -225 -225 -225 -225 -225 -225 -225 -225 -225 -225 -225 -225 -225 -225 -225 -225 -225 -225 -225 -225 -225 -225 -225 -225 -225 -225 -225 -225 -225 -225 -225 -225 -225 -225 -225 -225 -225 -225 -225 -225 -225 -225 -225 101 101 102 99 98 102 100 102 104 103 104 105 106 108 109 108 109 109 109 111 109 109 108 107 107 108 109 109 107 109 109 110 110 111 110 109 109 110 109 112 112 116 116 118 118 118 120 121 123 124 126 129 130 131 132 133 134 134 135 136 136 137 137 138 138 141 145 149 151 154 154 154 154 154 155 156 157 161 163 165 165 166 166 166 166 166 165 163 166 -209 -209 -209 -193 -193 -193 -193 -193 -193 180 181 181 185 0 0 0 0 0
    0 0 0 0 0 0 0 0 0 0 0 0 0 0 0 0 0 0 0 0 0 0 0 0 0 0 0 0 0 0 0 0 0 0 0 0 0 0 0 0 0 0 0 0 0 0 0 0 0 0 0 0 0 0 0 0 0 0 0 0 0 0 0 0 0 0 0 0 0 112 112 112 112 111 110 -225 -225 -225 -225 -225 -225 -225 -225 -225 -225 -225 -225 -209 -209 -209 86 93 91 -209 -209 91 88 -193 86 85 85 89 88 91 88 93 101 -225 -225 -225 -225 -225 -225 -225 -225 -225 -225 -225 -225 -225 -225 -225 -225 -225 -225 -225 -225 -225 -225 -225 -225 -225 -225 -225 -225 -225 -225 -225 -225 -225 -225 -225 -225 -225 -225 -225 -225 -225 -225 -225 -225 -225 -225 -225 -225 -225 -225 -225 -225 -225 -225 -225 -225 -225 -225 -225 -225 -225 -225 -225 -225 -225 -225 -225 -225 -225 -225 -225 -225 -225 -225 -225 -225 -225 -225 -225 -225 -225 -225 -225 -225 -225 -225 -225 -225 -225 -225 -225 -225 -225 -225 -225 -225 -225 -225 -225 -225 -225 -225 -225 -225 -225 -225 101 101 102 99 99 103 102 104 105 105 106 108 107 110 111 110 111 111 111 112 111 111 110 109 109 109 110 109 108 110 109 110 110 111 110 109 110 110 109 111 112 115 114 117 117 117 119 119 121 123 124 127 128 129 131 133 134 134 134 135 135 135 136 136 136 138 142 148 152 155 155 155 155 155 155 156 156 159 161 163 164 166 166 166 167 166 166 166 168 -209 -209 -193 -193 -193 182 182 182 181 180 181 182 185 0 0 0 0 0
    0 0 0 0 0 0 0 0 0 0 0 0 0 0 0 0 0 0 0 0 0 0 0 0 0 0 0 0 0 0 0 0 0 0 0 0 0 0 0 0 0 0 0 0 0 0 0 0 0 0 0 0 0 0 0 0 0 0 0 0 0 0 0 0 0 0 0 0 0 113 113 112 112 -225 -225 -225 -225 -225 -225 -225 -225 -225 -225 -225 -225 -225 -225 -225 -225 -225 -225 -225 -225 -225 -225 -225 -225 -225 -225 -225 -225 -225 -225 -225 -225 -225 -225 -225 -225 -225 -225 -225 -225 -225 -225 -225 -225 -225 -225 -225 -225 -225 -225 -225 -225 -225 -225 -225 -225 -225 -225 -225 -225 -225 -225 -225 -225 -225 -225 -225 -225 -225 -225 -225 -225 -225 -225 -225 -225 -225 -225 -225 -225 -225 -225 -225 -225 -225 -225 -225 -225 -225 -225 -225 -225 -225 -225 -225 -225 -225 -225 -225 -225 -225 -225 -225 -225 -225 -225 -225 -225 -225 -225 -225 -225 -225 -225 -225 -225 -225 -225 -225 -225 -225 -225 -225 -225 -225 -225 -225 -225 -225 -225 -225 -225 -225 -225 -225 -225 -225 -225 -225 -225 -225 97 101 97 98 103 101 103 104 105 106 108 108 110 112 111 112 112 113 114 112 113 112 111 112 112 112 111 110 111 110 111 110 113 111 110 110 110 109 111 111 113 111 115 116 116 118 119 121 122 124 126 128 129 132 133 134 134 134 134 134 134 134 135 134 -193 -193 146 152 155 155 155 155 155 155 155 155 158 159 160 163 165 166 166 166 167 167 166 -193 -209 -193 179 179 181 181 181 182 -193 181 -193 182 184 0 0 0 0 0
    0 0 0 0 0 0 0 0 0 0 0 0 0 0 0 0 0 0 0 0 0 0 0 0 0 0 0 0 0 0 0 0 0 0 0 0 0 0 0 0 0 0 0 0 0 0 0 0 0 0 0 0 0 0 0 0 0 0 0 0 0 0 0 0 0 0 0 0 0 112 112 111 -225 -225 -225 -225 -225 -225 -225 -225 -225 -225 -225 -225 -225 -225 -225 -225 -225 -225 -225 -225 -225 -225 -225 -225 -225 -225 -225 -225 -225 -225 -225 -225 -225 -225 -225 -225 -225 -225 -225 -225 -225 -225 -225 -225 -225 -225 -225 -225 -225 -225 -225 -225 -225 -225 -225 -225 -225 -225 -225 -225 -225 -225 -225 -225 -225 -225 -225 -225 -225 -225 -225 -225 -225 -225 -225 -225 -225 -225 -225 -225 -225 -225 -225 -225 -225 -225 -225 -225 -225 -225 -225 -225 -225 -225 -225 -225 -225 -225 -225 -225 -225 -225 -225 -225 -225 -225 -225 -225 -225 -225 -225 -225 -225 -225 -225 -225 -225 -225 -225 -225 -225 -225 -225 -225 -225 -225 -225 -225 -225 -225 -225 -225 -225 -225 -225 -225 -225 -225 -225 -225 -225 -225 -225 -225 98 99 103 101 103 104 104 105 108 108 110 111 111 112 112 113 115 113 114 113 112 112 112 112 111 109 112 110 111 111 113 112 111 111 111 109 112 110 112 110 111 114 115 117 118 120 122 124 128 130 130 133 134 134 134 135 135 135 135 135 135 -193 -193 -193 -193 151 155 156 156 155 155 154 154 155 156 157 158 160 163 164 165 166 166 166 165 167 -209 -209 176 -193 -193 180 180 180 180 180 -193 -193 182 0 0 0 0 0
    0 0 0 0 0 0 0 0 0 0 0 0 0 0 0 0 0 0 0 0 0 0 0 0 0 0 0 0 0 0 0 0 0 0 0 0 0 0 0 0 0 0 0 0 0 0 0 0 0 0 0 0 0 0 0 0 0 0 0 0 0 0 0 0 0 0 0 0 0 111 -225 -225 -225 -225 -225 -225 -225 -225 -225 -225 -225 -225 -225 -225 -225 -225 -225 -225 -225 -225 -225 -225 -225 -225 -225 -225 -225 -225 -225 -225 -225 -225 -225 -225 -225 -225 -225 -225 -225 -225 -225 -225 -225 -225 -225 -225 -225 -225 -225 -225 -225 -225 -225 -225 -225 -225 -225 -225 -225 -225 -225 -225 -225 -225 -225 -225 -225 -225 -225 -225 -225 -225 -225 -225 -225 -225 -225 -225 -225 -225 -225 -225 -225 -225 -225 -225 -225 -225 -225 -225 -225 -225 -225 -225 -225 -225 -225 -225 -225 -225 -225 -225 -225 -225 -225 -225 -225 -225 -225 -225 -225 -225 -225 -225 -225 -225 -225 -225 -225 -225 -225 -225 -225 -225 -225 -225 -225 -225 -225 -225 -225 -225 -225 -225 -225 -225 -225 -225 -225 -225 -225 -225 -225 -225 -225 -225 -225 106 109 104 106 107 106 106 110 109 111 112 112 112 112 113 115 113 114 113 112 111 112 111 111 109 111 109 111 111 113 112 112 111 112 110 113 111 111 109 108 111 112 113 114 115 120 124 127 129 130 133 135 135 135 135 136 136 135 136 136 -193 139 -193 -193 151 154 154 154 154 154 154 154 155 156 157 158 161 164 165 166 167 166 167 167 167 -209 -209 175 177 179 180 180 180 181 -193 -209 -193 -193 0 0 0 0 0
    0 0 0 0 0 0 0 0 0 0 0 0 0 0 0 0 0 0 0 0 0 0 0 0 0 0 0 0 0 0 0 0 0 0 0 0 0 0 0 0 0 0 0 0 0 0 0 0 0 0 0 0 0 0 0 0 0 0 0 0 0 0 0 0 0 0 0 0 0 -225 -225 -225 -225 -225 -225 -225 -225 -225 -225 -225 -225 -225 -225 -225 -225 -225 -225 -225 -225 -225 -225 -225 -225 -225 -225 -225 -225 -225 -225 -225 -225 -225 -225 -225 -225 -225 -225 -225 -225 -225 -225 -225 -225 -225 -225 -225 -225 -225 -225 -225 -225 -225 -225 -225 -225 -225 -225 -225 -225 -225 -225 -225 -225 -225 -225 -225 -225 -225 -225 -225 -225 -225 -225 -225 -225 -225 -225 -225 -225 -225 -225 -225 -225 -225 -225 -225 -225 -225 -225 -225 -225 -225 -225 -225 -225 -225 -225 -225 -225 -225 -225 -225 -225 -225 -225 -225 -225 -225 -225 -225 -225 -225 -225 -225 -225 -225 -225 -225 -225 -225 -225 -225 -225 -225 -225 -225 -225 -225 -225 -225 -225 -225 -225 -225 -225 -225 -225 -225 -225 -225 -225 -225 -225 -225 -225 -225 114 113 114 111 112 113 109 110 115 112 113 113 113 112 111 112 113 112 113 112 111 110 111 112 112 109 112 110 111 111 113 112 112 111 113 111 114 112 112 111 111 114 113 113 113 114 119 123 125 126 -209 132 135 135 135 135 136 136 136 137 137 138 141 -193 146 149 151 151 152 152 153 153 154 155 157 157 159 162 164 165 165 166 165 165 165 165 168 171 175 -193 -193 179 179 179 179 180 -193 -193 -193 0 0 0 0 0
    0 0 0 0 0 0 0 0 0 0 0 0 0 0 0 0 0 0 0 0 0 0 0 0 0 0 0 0 0 0 0 0 0 0 0 0 0 0 0 0 0 0 0 0 0 0 0 0 0 0 0 0 0 0 0 0 0 0 0 0 0 0 0 0 0 0 0 0 0 -225 -225 -225 -225 -225 -225 -225 -225 -225 -225 -225 -225 -225 -225 -225 -225 -225 -225 -225 -225 -225 -225 -225 -225 -225 -225 -225 -225 -225 -225 -225 -225 -225 -225 -225 -225 -225 -225 -225 -225 -225 -225 -225 -225 -225 -225 -225 -225 -225 -225 -225 -225 -225 -225 -225 -225 -225 -225 -225 -225 -225 -225 -225 -225 -225 -225 -225 -225 -225 -225 -225 -225 -225 -225 -225 -225 -225 -225 -225 -225 -225 -225 -225 -225 -225 -225 -225 -225 -225 -225 -225 -225 -225 -225 -225 -225 -225 -225 -225 -225 -225 -225 -225 -225 -225 -225 -225 -225 -225 -225 -225 -225 -225 -225 -225 -225 -225 -225 -225 -225 -225 -225 -225 -225 -225 -225 -225 -225 -225 -225 -225 -225 -225 -225 -225 -225 -225 -225 -225 -225 -225 -225 -225 -225 -225 -225 112 115 115 115 115 116 114 110 111 116 112 111 113 112 112 111 112 112 111 112 111 110 110 109 111 111 109 112 111 112 112 114 114 114 114 115 115 117 117 117 117 118 120 118 117 117 117 120 122 124 125 124 128 132 133 134 135 137 136 137 138 138 -193 142 -193 146 148 150 150 151 151 152 152 154 155 157 158 161 163 164 165 164 164 164 163 161 161 165 169 172 -193 175 176 176 177 178 178 179 179 -193 0 0 0 0 0
    0 0 0 0 0 0 0 0 0 0 0 0 0 0 0 0 0 0 0 0 0 0 0 0 0 0 0 0 0 0 0 0 0 0 0 0 0 0 0 0 0 0 0 0 0 0 0 0 0 0 0 0 0 0 0 0 0 0 0 0 0 0 0 0 0 0 0 0 0 -225 -225 -225 -225 -225 -225 -225 -225 -225 -225 -225 -225 -225 -225 -225 -225 -225 -225 -225 -225 -225 -225 -225 -225 -225 -225 -225 -225 -225 -225 -225 -225 -225 -225 -225 -225 -225 -225 -225 -225 -225 -225 -225 -225 -225 -225 -225 -225 -225 -225 -225 -225 -225 -225 -225 -225 -225 -225 -225 -225 -225 -225 -225 -225 -225 -225 -225 -225 -225 -225 -225 -225 -225 -225 -225 -225 -225 -225 -225 -225 -225 -225 -225 -225 -225 -225 -225 -225 -225 -225 -225 -225 -225 -225 -225 -225 -225 -225 -225 -225 -225 -225 -225 -225 -225 -225 -225 -225 -225 -225 -225 -225 -225 -225 -225 -225 -225 -225 -225 -225 -225 -225 -225 -225 -225 -225 -225 -225 -225 -225 -225 -225 -225 -225 -225 -225 -225 -225 -225 -225 -225 -225 -225 -225 -225 -225 112 115 115 115 116 116 115 111 113 116 114 109 114 111 113 111 112 112 111 113 112 111 111 109 112 114 112 114 112 114 114 116 116 115 115 117 117 119 119 119 119 121 122 120 120 120 120 122 123 124 125 124 126 -193 -209 -193 -209 -193 137 137 138 139 140 142 -193 -193 146 149 149 149 149 151 151 154 157 158 160 163 165 165 165 164 164 164 165 164 162 165 169 172 172 174 174 175 174 175 175 176 -193 -193 0 0 0 0 0
    0 0 0 0 0 0 0 0 0 0 0 0 0 0 0 0 0 0 0 0 0 0 0 0 0 0 0 0 0 0 0 0 0 0 0 0 0 0 0 0 0 0 0 0 0 0 0 0 0 0 0 0 0 0 0 0 0 0 0 0 0 0 0 0 0 0 0 0 0 -225 -225 -225 -225 -225 -225 -225 -225 -225 -225 -225 -225 -225 -225 -225 -225 -225 -225 -225 -225 -225 -225 -225 -225 -225 -225 -225 -225 -225 -225 -225 -225 -225 -225 -225 -225 -225 -225 -225 -225 -225 -225 -225 -225 -225 -225 -225 -225 -225 -225 -225 -225 -225 -225 -225 -225 -225 -225 -225 -225 -225 -225 -225 -225 -225 -225 -225 -225 -225 -225 -225 -225 -225 -225 -225 -225 -225 -225 -225 -225 -225 -225 -225 -225 -225 -225 -225 -225 -225 -225 -225 -225 -225 -225 -225 -225 -225 -225 -225 -225 -225 -225 -225 -225 -225 -225 -225 -225 -225 -225 -225 -225 -225 -225 -225 -225 -225 -225 -225 -225 -225 -225 -225 -225 -225 -225 -225 -225 -225 -225 -225 -225 -225 -225 -225 -225 -225 -225 -225 -225 -225 -225 -225 -225 -225 -225 112 115 115 115 116 116 115 112 115 116 117 109 114 111 113 112 112 112 112 114 114 113 114 113 115 117 116 116 114 114 115 116 116 116 116 117 118 119 120 120 121 121 123 121 122 122 122 123 125 125 128 126 129 -193 -209 -193 -193 -193 136 136 137 139 141 143 -193 145 147 148 150 150 150 152 151 155 157 157 159 163 165 165 165 165 166 166 167 169 165 167 170 172 173 174 174 175 175 177 177 178 -193 -193 0 0 0 0 0
    0 0 0 0 0 0 0 0 0 0 0 0 0 0 0 0 0 0 0 0 0 0 0 0 0 0 0 0 0 0 0 0 0 0 0 0 0 0 0 0 0 0 0 0 0 0 0 0 0 0 0 0 0 0 0 0 0 0 0 0 0 0 0 0 0 0 0 0 0 -225 -225 -225 -225 -225 -225 -225 -225 -225 -225 -225 -225 -225 -225 -225 -225 -225 -225 -225 -225 -225 -225 -225 -225 -225 -225 -225 -225 -225 -225 -225 -225 -225 -225 -225 -225 -225 -225 -225 -225 -225 -225 -225 -225 -225 -225 -225 -225 -225 -225 -225 -225 -225 -225 -225 -225 -225 -225 -225 -225 -225 -225 -225 -225 -225 -225 -225 -225 -225 -225 -225 -225 -225 -225 -225 -225 -225 -225 -225 -225 -225 -225 -225 -225 -225 -225 -225 -225 -225 -225 -225 -225 -225 -225 -225 -225 -225 -225 -225 -225 -225 -225 -225 -225 -225 -225 -225 -225 -225 -225 -225 -225 -225 -225 -225 -225 -225 -225 -225 -225 -225 -225 -225 -225 -225 -225 -225 -225 -225 -225 -225 -225 -225 -225 -225 -225 -225 -225 -225 -225 -225 -225 -225 -225 -225 -225 112 115 115 115 115 115 115 112 115 117 118 108 111 111 112 111 111 110 110 112 114 114 114 114 115 117 116 116 114 113 114 115 115 116 116 117 118 119 121 120 121 121 123 122 123 124 123 124 127 127 132 130 130 131 131 133 134 -193 136 136 138 140 142 145 145 145 147 148 149 150 150 152 152 155 157 158 159 162 163 165 164 165 165 167 168 169 165 167 169 171 172 175 174 175 176 178 179 180 -193 -209 0 0 0 0 0
    0 0 0 0 0 0 0 0 0 0 0 0 0 0 0 0 0 0 0 0 0 0 0 0 0 0 0 0 0 0 0 0 0 0 0 0 0 0 0 0 0 0 0 0 0 0 0 0 0 0 0 0 0 0 0 0 0 0 0 0 0 0 0 0 0 0 0 0 0 -225 -225 -225 -225 -225 -225 -225 -225 -225 -225 -225 -225 -225 -225 -225 -225 -225 -225 -225 -225 -225 -225 -225 -225 -225 -225 -225 -225 -225 -225 -225 -225 -225 -225 -225 -225 -225 -225 -225 -225 -225 -225 -225 -225 -225 -225 -225 -225 -225 -225 -225 -225 -225 -225 -225 -225 -225 -225 -225 -225 -225 -225 -225 -225 -225 -225 -225 -225 -225 -225 -225 -225 -225 -225 -225 -225 -225 -225 -225 -225 -225 -225 -225 -225 -225 -225 -225 -225 -225 -225 -225 -225 -225 -225 -225 -225 -225 -225 -225 -225 -225 -225 -225 -225 -225 -225 -225 -225 -225 -225 -225 -225 -225 -225 -225 -225 -225 -225 -225 -225 -225 -225 -225 -225 -225 -225 -225 -225 -225 -225 -225 -225 -225 -225 -225 -225 -225 -225 -225 -225 -225 -225 -225 -225 -225 -225 112 115 115 115 115 114 116 114 115 116 114 106 108 109 110 109 109 109 109 111 115 114 115 115 116 118 116 116 115 115 116 116 117 118 118 119 120 121 122 120 121 122 123 122 125 126 125 126 129 130 133 131 129 130 128 132 133 134 135 136 138 140 143 146 146 146 147 148 149 150 149 152 151 155 157 158 159 163 164 165 165 165 166 167 168 169 165 166 168 170 173 176 176 177 180 181 182 -193 -209 -193 0 0 0 0 0
    0 0 0 0 0 0 0 0 0 0 0 0 0 0 0 0 0 0 0 0 0 0 0 0 0 0 0 0 0 0 0 0 0 0 0 0 0 0 0 0 0 0 0 0 0 0 0 0 0 0 0 0 0 0 0 0 0 0 0 0 0 0 0 0 0 0 0 0 0 -225 -225 -225 -225 -225 -225 -225 -225 -225 -225 -225 -225 -225 -225 -225 -225 -225 -225 -225 -225 -225 -225 -225 -225 -225 -225 -225 -225 -225 -225 -225 -225 -225 -225 -225 -225 -225 -225 -225 -225 -225 -225 -225 -225 -225 -225 -225 -225 -225 -225 -225 -225 -225 -225 -225 -225 -225 -225 -225 -225 -225 -225 -225 -225 -225 -225 -225 -225 -225 -225 -225 -225 -225 -225 -225 -225 -225 -225 -225 -225 -225 -225 -225 -225 -225 -225 -225 -225 -225 -225 -225 -225 -225 -225 -225 -225 -225 -225 -225 -225 -225 -225 -225 -225 -225 -225 -225 -225 -225 -225 -225 -225 -225 -225 -225 -225 -225 -225 -225 -225 -225 -225 -225 -225 -225 -225 -225 -225 -225 -225 -225 -225 -225 -225 -225 -225 -225 -225 -225 -225 -225 -225 -225 -225 -225 -225 112 115 115 115 115 114 116 -225 119 116 104 104 104 108 108 108 107 107 107 110 114 115 116 117 118 121 120 119 118 117 119 119 119 120 120 121 -193 123 123 122 123 123 124 123 126 128 126 127 129 130 132 130 128 128 125 131 133 134 136 137 139 141 144 146 146 145 146 146 147 149 149 151 150 154 157 158 161 164 166 166 167 166 166 168 169 169 167 167 169 170 174 178 177 177 179 180 181 182 -209 -193 0 0 0 0 0
    0 0 0 0 0 0 0 0 0 0 0 0 0 0 0 0 0 0 0 0 0 0 0 0 0 0 0 0 0 0 0 0 0 0 0 0 0 0 0 0 0 0 0 0 0 0 0 0 0 0 0 0 0 0 0 0 0 0 0 0 0 0 0 0 0 0 0 0 0 -225 -225 -225 -225 -225 -225 -225 -225 -225 -225 -225 -225 -225 -225 -225 -225 -225 -225 -225 -225 -225 -225 -225 -225 -225 -225 -225 -225 -225 -225 -225 -225 -225 -225 -225 -225 -225 -225 -225 -225 -225 -225 -225 -225 -225 -225 -225 -225 -225 -225 -225 -225 -225 -225 -225 -225 -225 -225 -225 -225 -225 -225 -225 -225 -225 -225 -225 -225 -225 -225 -225 -225 -225 -225 -225 -225 -225 -225 -225 -225 -225 -225 -225 -225 -225 -225 -225 -225 -225 -225 -225 -225 -225 -225 -225 -225 -225 -225 -225 -225 -225 -225 -225 -225 -225 -225 -225 -225 -225 -225 -225 -225 -225 -225 -225 -225 -225 -225 -225 -225 -225 -225 -225 -225 -225 -225 -225 -225 -225 -225 -225 -225 -225 -225 -225 -225 -225 -225 -225 -225 -225 -225 -225 -225 -225 -225 112 114 115 115 115 114 116 -225 -225 118 -193 104 103 106 108 108 107 107 107 111 116 116 117 118 119 121 121 121 120 118 120 120 120 121 121 121 122 123 124 123 124 124 124 125 128 128 127 128 129 129 130 129 126 126 122 126 128 132 135 136 -193 141 144 145 145 144 145 144 145 146 147 149 149 153 156 159 163 166 167 168 -193 168 168 169 170 170 169 169 171 171 174 178 177 178 181 180 181 182 183 -193 0 0 0 0 0
    0 0 0 0 0 0 0 0 0 0 0 0 0 0 0 0 0 0 0 0 0 0 0 0 0 0 0 0 0 0 0 0 0 0 0 0 0 0 0 0 0 0 0 0 0 0 0 0 0 0 0 0 0 0 0 0 0 0 0 0 0 0 0 0 0 0 0 0 0 -225 -225 -225 -225 -225 -225 -225 -225 -225 -225 -225 -225 -225 -225 -225 -225 -225 -225 -225 -225 -225 -225 -225 -225 -225 -225 -225 -225 -225 -225 -225 -225 -225 -225 -225 -225 -225 -225 -225 -225 -225 -225 -225 -225 -225 -225 -225 -225 -225 -225 -225 -225 -225 -225 -225 -225 -225 -225 -225 -225 -225 -225 -225 -225 -225 -225 -225 -225 -225 -225 -225 -225 -225 -225 -225 -225 -225 -225 -225 -225 -225 -225 -225 -225 -225 -225 -225 -225 -225 -225 -225 -225 -225 -225 -225 -225 -225 -225 -225 -225 -225 -225 -225 -225 -225 -225 -225 -225 -225 -225 -225 -225 -225 -225 -225 -225 -225 -225 -225 -225 -225 -225 -225 -225 -225 -225 -225 -225 -225 -225 -225 -225 -225 -225 -225 -225 -225 -225 -225 -225 -225 -225 -225 -225 -225 -225 -225 -225 115 115 115 114 -225 -225 -225 -225 -225 103 102 104 109 109 108 108 108 112 117 118 119 120 121 122 123 122 122 120 122 123 122 124 124 123 125 125 126 125 126 126 125 126 128 128 129 130 129 131 130 130 127 127 124 126 128 131 133 136 138 140 142 143 144 143 143 143 143 145 145 147 148 150 153 158 162 166 167 167 168 168 169 169 170 170 169 170 173 175 177 180 177 177 179 178 178 178 178 178 0 0 0 0 0</data></disparity>
</opencv_storage>
