<?xml version="1.0"?>
<opencv_storage>
<image type_id="opencv-matrix">
  <rows>28</rows>
  <cols>313</cols>
  <dt>f</dt>
  <data>
    0. 0. 0. 0. 0. 0. 0. 0. 0. 0. 0. 0. 0. 0. 0. 0. 0. 0. 0. 0. 0. 0. 0. 0. 0. 0. 0. 0. 0. 0. 0. 0. 0. 0. 0. 0. 0. 0. 0. 0. 0. 0. 0. 0. 0. 0. 0. 0. 0. 0. 0. 6.53381119e+01 6.65480804e+01 6.41713638e+01 6.41713638e+01 6.53381119e+01 6.41713638e+01 6.30455475e+01 6.30455475e+01 6.30455475e+01 0. 0. 6.78037033e+01 6.78037033e+01 6.65480804e+01 7.18719254e+01 7.33386993e+01 7.18719254e+01 7.33386993e+01 7.81216583e+01 7.81216583e+01 7.64594955e+01 7.81216583e+01 7.81216583e+01 7.81216583e+01 7.33386993e+01 7.98576965e+01 7.81216583e+01 8.55618134e+01 8.55618134e+01 8.76486893e+01 8.76486893e+01 8.76486893e+01 8.76486893e+01 8.98399048e+01 8.98399048e+01 9.71242218e+01 9.21434937e+01 9.71242218e+01 9.45683212e+01 9.45683212e+01 9.45683212e+01 9.45683212e+01 9.45683212e+01 9.71242218e+01 9.98221207e+01 9.71242218e+01 9.98221207e+01 1.05694008e+02 1.05694008e+02 1.05694008e+02 1.12299881e+02 1.15922462e+02 1.15922462e+02 1.19786545e+02 1.08896858e+02 1.19786545e+02 1.15922462e+02 1.15922462e+02 1.23917114e+02 1.23917114e+02 1.23917114e+02 1.28342728e+02 1.23917114e+02 1.43743851e+02 1.38215240e+02 1.49733185e+02 1.56243317e+02 1.63345291e+02 1.63345291e+02 1.71123627e+02 1.63345291e+02 1.79679810e+02 1.79679810e+02 1.89136642e+02 1.99644241e+02 2.11388016e+02 1.79679810e+02 1.89136642e+02 2.11388016e+02 2.76430481e+02 0. 0. 0. 0. 0. 0. 0. 0. 0. 0. 0. 0. 0. 0. 0. 0. 0. 0. 0. 0. 0. 0. 0. 0. 0. 0. 0. 0. 0. 0. 0. 0. 0. 0. 0. 0. 0. 0. 0. 0. 0. 0. 0. 0. 0. 0. 0. 0. 0. 0. 0. 0. 0. 0. 0. 0. 0. 0. 0. 0. 9.21434937e+01 8.98399048e+01 8.76486893e+01 8.16726456e+01 7.98576965e+01 8.16726456e+01 7.98576965e+01 7.98576965e+01 7.98576965e+01 7.81216583e+01 7.33386993e+01 7.18719254e+01 7.04626694e+01 6.53381119e+01 6.19585571e+01 5.89114151e+01 5.89114151e+01 5.70412102e+01 5.28470039e+01 5.52860985e+01 5.28470039e+01 5.52860985e+01 5.44484291e+01 5.28470039e+01 5.28470039e+01 5.28470039e+01 5.28470039e+01 5.52860985e+01 5.13370895e+01 5.13370895e+01 4.92273445e+01 4.92273445e+01 4.85621109e+01 4.72841606e+01 4.54885597e+01 4.49199524e+01 4.43653870e+01 4.38243446e+01 4.43653870e+01 4.13057060e+01 4.08363228e+01 4.03774872e+01 3.99288483e+01 3.94900703e+01 3.90608292e+01 3.86408195e+01 3.82297478e+01 3.78273277e+01 3.70473862e+01 3.70473862e+01 3.66693497e+01 3.59359627e+01 3.48892860e+01 3.42247276e+01 3.42247276e+01 3.39018517e+01 3.39018517e+01 3.39018517e+01 3.35850105e+01 3.35850105e+01 3.35850105e+01 3.39018517e+01 3.42247276e+01 3.35850105e+01 3.35850105e+01 3.35850105e+01 0. 2.94557076e+01 2.80749702e+01 2.74320335e+01 2.72242146e+01 2.64235020e+01 2.62306290e+01 2.62306290e+01 2.62306290e+01 2.56685448e+01 2.62306290e+01 2.60405521e+01 2.54864979e+01 2.56685448e+01 2.58532104e+01 2.58532104e+01 2.53070164e+01 2.54864979e+01 2.56685448e+01 2.54864979e+01 2.53070164e+01 2.56685448e+01 2.49555302e+01 2.46136723e+01 2.42810555e+01 2.44462337e+01 2.33350410e+01 2.27442799e+01 2.21826935e+01 2.20466022e+01 2.20466022e+01 2.19121723e+01 2.19121723e+01 2.17793713e+01 2.17793713e+01 2.17793713e+01 2.16481705e+01 2.16481705e+01 2.15185413e+01 2.12638836e+01 2.11388016e+01 2.10151825e+01 2.10151825e+01 2.08930016e+01 2.07722321e+01 2.06528530e+01 2.05348358e+01 2.06528530e+01 2.05348358e+01 2.06528530e+01 2.05348358e+01 2.03028030e+01 2.03028030e+01 2.01887436e+01 2.00759563e+01 1.97450352e+01
    0. 0. 0. 0. 0. 0. 0. 0. 0. 0. 0. 0. 0. 0. 0. 0. 0. 0. 0. 0. 0. 0. 0. 0. 0. 0. 0. 0. 0. 0. 0. 0. 0. 0. 0. 0. 0. 0. 0. 0. 0. 0. 0. 0. 0. 0. 0. 0. 0. 0. 0. 6.53381119e+01 6.65480804e+01 6.41713638e+01 6.53381119e+01 6.53381119e+01 6.41713638e+01 6.30455475e+01 6.30455475e+01 6.41713638e+01 6.41713638e+01 6.53381119e+01 6.78037033e+01 6.91076202e+01 6.78037033e+01 7.18719254e+01 7.33386993e+01 7.33386993e+01 7.33386993e+01 7.81216583e+01 7.81216583e+01 7.81216583e+01 7.81216583e+01 7.98576965e+01 7.98576965e+01 7.33386993e+01 7.98576965e+01 7.81216583e+01 8.55618134e+01 8.55618134e+01 8.76486893e+01 8.76486893e+01 8.76486893e+01 8.76486893e+01 8.98399048e+01 8.98399048e+01 9.71242218e+01 9.21434937e+01 9.71242218e+01 9.21434937e+01 9.45683212e+01 9.21434937e+01 9.45683212e+01 9.45683212e+01 9.71242218e+01 9.98221207e+01 9.71242218e+01 1.02674179e+02 1.08896858e+02 1.05694008e+02 1.05694008e+02 1.12299881e+02 1.15922462e+02 1.19786545e+02 1.19786545e+02 1.08896858e+02 1.19786545e+02 1.15922462e+02 1.15922462e+02 1.23917114e+02 1.23917114e+02 1.23917114e+02 1.28342728e+02 1.28342728e+02 1.43743851e+02 1.43743851e+02 0. 1.56243317e+02 1.63345291e+02 1.63345291e+02 1.71123627e+02 1.63345291e+02 1.71123627e+02 1.79679810e+02 1.79679810e+02 1.99644241e+02 2.11388016e+02 1.79679810e+02 1.79679810e+02 1.99644241e+02 2.76430481e+02 0. 0. 0. 0. 0. 0. 0. 0. 0. 0. 0. 0. 0. 0. 0. 0. 0. 0. 0. 0. 0. 0. 0. 0. 0. 0. 0. 0. 0. 0. 0. 0. 0. 0. 0. 0. 0. 0. 0. 0. 0. 0. 0. 0. 0. 0. 0. 0. 0. 0. 0. 0. 0. 0. 0. 0. 0. 0. 0. 0. 8.98399048e+01 8.76486893e+01 8.55618134e+01 7.98576965e+01 7.98576965e+01 8.16726456e+01 7.98576965e+01 7.98576965e+01 7.81216583e+01 7.64594955e+01 7.18719254e+01 7.04626694e+01 6.78037033e+01 6.41713638e+01 6.09084129e+01 5.79612312e+01 5.89114151e+01 5.79612312e+01 5.28470039e+01 5.61499405e+01 5.36357651e+01 5.52860985e+01 5.52860985e+01 5.28470039e+01 5.36357651e+01 5.28470039e+01 5.28470039e+01 5.52860985e+01 5.13370895e+01 5.20811043e+01 4.99110603e+01 4.92273445e+01 4.85621109e+01 4.72841606e+01 4.60717468e+01 4.49199524e+01 4.49199524e+01 4.43653870e+01 4.43653870e+01 4.17860031e+01 4.13057060e+01 4.08363228e+01 4.03774872e+01 3.99288483e+01 3.94900703e+01 3.90608292e+01 3.82297478e+01 3.82297478e+01 3.70473862e+01 3.70473862e+01 3.66693497e+01 3.59359627e+01 3.48892860e+01 3.42247276e+01 3.42247276e+01 3.39018517e+01 3.39018517e+01 3.39018517e+01 3.35850105e+01 3.35850105e+01 3.35850105e+01 3.35850105e+01 3.42247276e+01 3.35850105e+01 3.32740402e+01 3.32740402e+01 3.29687729e+01 2.96991425e+01 2.85206051e+01 2.76430492e+01 2.74320335e+01 2.66192322e+01 2.60405521e+01 2.62306290e+01 2.62306290e+01 2.56685448e+01 2.62306290e+01 2.60405521e+01 2.54864979e+01 2.56685448e+01 2.56685448e+01 2.58532104e+01 2.53070164e+01 2.54864979e+01 2.56685448e+01 2.54864979e+01 2.51300430e+01 2.56685448e+01 2.47834225e+01 2.42810555e+01 2.41180954e+01 2.41180954e+01 2.33350410e+01 2.28891487e+01 2.23204746e+01 2.21826935e+01 2.21826935e+01 2.20466022e+01 2.19121723e+01 2.19121723e+01 2.17793713e+01 2.17793713e+01 2.16481705e+01 2.16481705e+01 2.15185413e+01 2.13904533e+01 2.11388016e+01 2.10151825e+01 2.10151825e+01 2.08930016e+01 2.08930016e+01 2.06528530e+01 2.06528530e+01 2.06528530e+01 2.06528530e+01 2.07722321e+01 2.06528530e+01 2.04181614e+01 2.04181614e+01 2.01887436e+01 2.00759563e+01 1.97450352e+01
    0. 0. 0. 0. 0. 0. 0. 0. 0. 0. 0. 0. 0. 0. 0. 0. 0. 0. 0. 0. 0. 0. 0. 0. 0. 0. 0. 0. 0. 0. 0. 0. 0. 0. 0. 0. 0. 0. 0. 0. 0. 0. 0. 0. 0. 0. 0. 0. 0. 0. 0. 6.65480804e+01 6.91076202e+01 6.53381119e+01 6.65480804e+01 6.65480804e+01 6.53381119e+01 6.30455475e+01 6.30455475e+01 6.41713638e+01 6.41713638e+01 6.53381119e+01 6.91076202e+01 6.91076202e+01 6.91076202e+01 7.18719254e+01 7.33386993e+01 7.33386993e+01 7.48665924e+01 7.81216583e+01 7.98576965e+01 7.81216583e+01 7.81216583e+01 7.98576965e+01 7.98576965e+01 7.33386993e+01 7.98576965e+01 7.64594955e+01 8.55618134e+01 8.35720062e+01 8.76486893e+01 8.76486893e+01 8.76486893e+01 8.76486893e+01 8.98399048e+01 8.98399048e+01 9.71242218e+01 9.21434937e+01 9.71242218e+01 9.21434937e+01 9.45683212e+01 9.21434937e+01 9.21434937e+01 9.45683212e+01 9.71242218e+01 9.98221207e+01 9.71242218e+01 1.02674179e+02 1.08896858e+02 1.08896858e+02 1.08896858e+02 1.12299881e+02 1.15922462e+02 1.19786545e+02 1.19786545e+02 1.08896858e+02 1.19786545e+02 1.15922462e+02 1.15922462e+02 1.23917114e+02 1.23917114e+02 1.23917114e+02 1.23917114e+02 1.28342728e+02 1.43743851e+02 1.43743851e+02 0. 1.56243317e+02 1.63345291e+02 1.63345291e+02 1.71123627e+02 1.63345291e+02 1.71123627e+02 1.79679810e+02 1.79679810e+02 1.89136642e+02 1.99644241e+02 1.79679810e+02 1.71123627e+02 1.89136642e+02 2.76430481e+02 0. 0. 0. 0. 0. 0. 0. 0. 0. 0. 0. 0. 0. 0. 0. 0. 0. 0. 0. 0. 0. 0. 0. 0. 0. 0. 0. 0. 0. 0. 0. 0. 0. 0. 0. 0. 0. 0. 0. 0. 0. 0. 0. 0. 0. 0. 0. 0. 0. 0. 0. 0. 0. 0. 0. 0. 0. 0. 0. 0. 9.21434937e+01 8.98399048e+01 8.55618134e+01 7.98576965e+01 8.16726456e+01 8.16726456e+01 8.16726456e+01 7.98576965e+01 7.81216583e+01 7.48665924e+01 7.18719254e+01 7.04626694e+01 6.65480804e+01 6.30455475e+01 5.98932724e+01 5.79612312e+01 5.79612312e+01 5.79612312e+01 5.36357651e+01 5.61499405e+01 5.36357651e+01 5.52860985e+01 5.52860985e+01 5.28470039e+01 5.36357651e+01 5.28470039e+01 5.28470039e+01 5.52860985e+01 5.13370895e+01 5.20811043e+01 4.99110603e+01 4.92273445e+01 4.85621109e+01 4.72841606e+01 4.60717468e+01 4.54885597e+01 4.49199524e+01 4.43653870e+01 4.43653870e+01 4.13057060e+01 4.13057060e+01 4.03774872e+01 3.99288483e+01 3.94900703e+01 3.90608292e+01 3.86408195e+01 3.82297478e+01 3.82297478e+01 3.66693497e+01 3.66693497e+01 3.66693497e+01 3.59359627e+01 3.48892860e+01 3.42247276e+01 3.42247276e+01 3.39018517e+01 3.39018517e+01 3.39018517e+01 3.35850105e+01 3.32740402e+01 3.32740402e+01 3.35850105e+01 3.39018517e+01 3.29687729e+01 3.29687729e+01 3.26690559e+01 3.26690559e+01 2.96991425e+01 2.87487698e+01 2.78573360e+01 2.78573360e+01 2.66192322e+01 2.58532104e+01 2.62306290e+01 2.62306290e+01 2.56685448e+01 2.62306290e+01 2.60405521e+01 2.54864979e+01 2.56685448e+01 2.58532104e+01 2.58532104e+01 2.53070164e+01 2.54864979e+01 2.56685448e+01 2.54864979e+01 2.51300430e+01 2.56685448e+01 2.46136723e+01 2.41180954e+01 2.39573078e+01 2.37986507e+01 2.33350410e+01 2.28891487e+01 2.24599762e+01 2.23204746e+01 2.21826935e+01 2.20466022e+01 2.20466022e+01 2.19121723e+01 2.17793713e+01 2.17793713e+01 2.16481705e+01 2.16481705e+01 2.15185413e+01 2.13904533e+01 2.11388016e+01 2.10151825e+01 2.11388016e+01 2.10151825e+01 2.10151825e+01 2.07722321e+01 2.06528530e+01 2.07722321e+01 2.07722321e+01 2.07722321e+01 2.07722321e+01 2.04181614e+01 2.04181614e+01 2.01887436e+01 2.00759563e+01 1.96371384e+01
    0. 0. 0. 0. 0. 0. 0. 0. 0. 0. 0. 0. 0. 0. 0. 0. 0. 0. 0. 0. 0. 0. 0. 0. 0. 0. 0. 0. 0. 0. 0. 0. 0. 0. 0. 0. 0. 0. 0. 0. 0. 0. 0. 0. 0. 0. 0. 0. 0. 0. 0. 6.53381119e+01 6.78037033e+01 6.53381119e+01 6.65480804e+01 6.65480804e+01 6.53381119e+01 6.41713638e+01 6.41713638e+01 6.53381119e+01 6.65480804e+01 6.65480804e+01 7.04626694e+01 7.04626694e+01 6.91076202e+01 7.18719254e+01 7.33386993e+01 7.33386993e+01 7.48665924e+01 7.81216583e+01 7.98576965e+01 7.81216583e+01 7.98576965e+01 7.98576965e+01 7.98576965e+01 7.33386993e+01 7.98576965e+01 7.64594955e+01 8.35720062e+01 8.35720062e+01 8.55618134e+01 8.76486893e+01 8.76486893e+01 8.76486893e+01 8.98399048e+01 8.98399048e+01 9.98221207e+01 9.21434937e+01 9.71242218e+01 9.21434937e+01 9.21434937e+01 9.21434937e+01 9.21434937e+01 9.45683212e+01 9.71242218e+01 9.98221207e+01 9.71242218e+01 9.98221207e+01 1.08896858e+02 1.08896858e+02 1.08896858e+02 1.12299881e+02 1.15922462e+02 1.19786545e+02 1.19786545e+02 1.08896858e+02 1.19786545e+02 1.15922462e+02 1.15922462e+02 1.23917114e+02 1.23917114e+02 1.23917114e+02 1.23917114e+02 1.28342728e+02 1.43743851e+02 1.43743851e+02 0. 1.56243317e+02 1.63345291e+02 1.63345291e+02 1.71123627e+02 1.71123627e+02 1.71123627e+02 1.89136642e+02 1.89136642e+02 1.99644241e+02 2.11388016e+02 1.89136642e+02 1.71123627e+02 1.79679810e+02 2.76430481e+02 0. 0. 0. 0. 0. 0. 0. 0. 0. 0. 0. 0. 0. 0. 0. 0. 0. 0. 0. 0. 0. 0. 0. 0. 0. 0. 0. 0. 0. 0. 0. 0. 0. 0. 0. 0. 0. 0. 0. 0. 0. 0. 0. 0. 0. 0. 0. 0. 0. 0. 0. 0. 0. 0. 0. 0. 0. 0. 0. 8.98399048e+01 9.21434937e+01 8.98399048e+01 8.55618134e+01 8.16726456e+01 8.35720062e+01 8.16726456e+01 8.16726456e+01 8.16726456e+01 7.98576965e+01 7.48665924e+01 7.18719254e+01 6.91076202e+01 6.53381119e+01 6.19585571e+01 5.98932724e+01 5.79612312e+01 5.79612312e+01 5.79612312e+01 5.36357651e+01 5.70412102e+01 5.36357651e+01 5.52860985e+01 5.44484291e+01 5.28470039e+01 5.36357651e+01 5.28470039e+01 5.28470039e+01 5.52860985e+01 5.13370895e+01 5.13370895e+01 4.99110603e+01 4.92273445e+01 4.85621109e+01 4.72841606e+01 4.66700821e+01 4.54885597e+01 4.54885597e+01 4.49199524e+01 4.43653870e+01 4.17860031e+01 4.13057060e+01 4.08363228e+01 4.03774872e+01 3.99288483e+01 3.90608292e+01 3.90608292e+01 3.86408195e+01 3.82297478e+01 3.66693497e+01 3.66693497e+01 3.66693497e+01 3.59359627e+01 3.48892860e+01 3.39018517e+01 3.39018517e+01 3.39018517e+01 3.39018517e+01 3.35850105e+01 3.35850105e+01 3.32740402e+01 3.32740402e+01 3.35850105e+01 3.39018517e+01 3.26690559e+01 3.26690559e+01 3.23747406e+01 3.29687729e+01 2.96991425e+01 2.87487698e+01 2.85206051e+01 2.85206051e+01 2.66192322e+01 2.56685448e+01 2.62306290e+01 2.62306290e+01 2.56685448e+01 2.62306290e+01 2.60405521e+01 2.54864979e+01 2.58532104e+01 2.58532104e+01 2.58532104e+01 2.53070164e+01 2.54864979e+01 2.56685448e+01 2.53070164e+01 2.49555302e+01 2.54864979e+01 2.44462337e+01 2.41180954e+01 2.37986507e+01 2.37986507e+01 2.33350410e+01 2.28891487e+01 2.26012344e+01 2.23204746e+01 2.21826935e+01 2.21826935e+01 2.20466022e+01 2.19121723e+01 2.17793713e+01 2.16481705e+01 2.16481705e+01 2.16481705e+01 2.15185413e+01 2.13904533e+01 2.12638836e+01 2.11388016e+01 2.11388016e+01 2.10151825e+01 2.10151825e+01 2.08930016e+01 2.07722321e+01 2.08930016e+01 2.07722321e+01 2.08930016e+01 2.08930016e+01 2.05348358e+01 2.04181614e+01 2.01887436e+01 1.99644241e+01 0.
    0. 0. 0. 0. 0. 0. 0. 0. 0. 0. 0. 0. 0. 0. 0. 0. 0. 0. 0. 0. 0. 0. 0. 0. 0. 0. 0. 0. 0. 0. 0. 0. 0. 0. 0. 0. 0. 0. 0. 0. 0. 0. 0. 0. 0. 0. 0. 0. 0. 0. 0. 6.41713638e+01 6.53381119e+01 6.41713638e+01 6.41713638e+01 6.53381119e+01 6.53381119e+01 6.53381119e+01 6.65480804e+01 6.65480804e+01 6.78037033e+01 6.78037033e+01 7.04626694e+01 7.04626694e+01 7.04626694e+01 7.18719254e+01 7.18719254e+01 7.18719254e+01 7.33386993e+01 7.64594955e+01 7.98576965e+01 7.81216583e+01 7.81216583e+01 7.98576965e+01 7.98576965e+01 7.33386993e+01 7.98576965e+01 7.48665924e+01 8.35720062e+01 8.35720062e+01 8.55618134e+01 8.76486893e+01 8.76486893e+01 8.76486893e+01 8.98399048e+01 8.98399048e+01 9.98221207e+01 9.21434937e+01 9.71242218e+01 9.45683212e+01 9.21434937e+01 9.21434937e+01 9.45683212e+01 9.45683212e+01 9.71242218e+01 9.98221207e+01 9.71242218e+01 9.98221207e+01 1.08896858e+02 1.08896858e+02 1.08896858e+02 1.12299881e+02 1.15922462e+02 1.19786545e+02 1.23917114e+02 1.08896858e+02 1.19786545e+02 1.15922462e+02 1.15922462e+02 1.23917114e+02 1.23917114e+02 1.23917114e+02 1.23917114e+02 1.28342728e+02 1.43743851e+02 1.43743851e+02 1.49733185e+02 1.56243317e+02 1.63345291e+02 1.63345291e+02 1.71123627e+02 1.71123627e+02 1.71123627e+02 1.89136642e+02 1.89136642e+02 1.99644241e+02 2.24599762e+02 1.89136642e+02 1.71123627e+02 1.79679810e+02 2.56685455e+02 0. 0. 0. 0. 0. 0. 0. 0. 0. 0. 0. 0. 0. 0. 0. 0. 0. 0. 0. 0. 0. 0. 0. 0. 0. 0. 0. 0. 0. 0. 0. 0. 0. 0. 0. 0. 0. 0. 0. 0. 0. 0. 0. 0. 0. 0. 0. 0. 0. 0. 0. 0. 0. 0. 0. 0. 0. 0. 0. 8.76486893e+01 8.98399048e+01 8.76486893e+01 8.55618134e+01 8.16726456e+01 8.16726456e+01 8.16726456e+01 8.16726456e+01 8.16726456e+01 7.81216583e+01 7.18719254e+01 7.04626694e+01 6.78037033e+01 6.53381119e+01 6.19585571e+01 5.98932724e+01 5.79612312e+01 5.79612312e+01 5.70412102e+01 5.36357651e+01 5.61499405e+01 5.36357651e+01 5.44484291e+01 5.36357651e+01 5.20811043e+01 5.28470039e+01 5.28470039e+01 5.28470039e+01 5.44484291e+01 5.06140327e+01 5.13370895e+01 4.99110603e+01 4.92273445e+01 4.92273445e+01 4.72841606e+01 4.66700821e+01 4.54885597e+01 4.49199524e+01 4.43653870e+01 4.38243446e+01 4.17860031e+01 4.13057060e+01 4.08363228e+01 3.99288483e+01 3.94900703e+01 3.90608292e+01 3.90608292e+01 3.90608292e+01 3.86408195e+01 3.66693497e+01 3.66693497e+01 3.66693497e+01 3.59359627e+01 3.48892860e+01 3.39018517e+01 3.39018517e+01 3.39018517e+01 3.39018517e+01 3.35850105e+01 3.35850105e+01 3.32740402e+01 3.32740402e+01 3.35850105e+01 3.39018517e+01 3.26690559e+01 3.26690559e+01 3.23747406e+01 3.29687729e+01 2.99466362e+01 2.89806156e+01 2.87487698e+01 2.89806156e+01 2.66192322e+01 0. 2.62306290e+01 2.62306290e+01 2.56685448e+01 2.62306290e+01 2.60405521e+01 2.54864979e+01 2.58532104e+01 2.58532104e+01 2.60405521e+01 2.53070164e+01 2.54864979e+01 2.56685448e+01 2.53070164e+01 2.49555302e+01 2.53070164e+01 2.42810555e+01 2.39573078e+01 2.37986507e+01 2.37986507e+01 2.33350410e+01 2.30358734e+01 2.26012344e+01 2.24599762e+01 2.23204746e+01 2.21826935e+01 2.21826935e+01 2.19121723e+01 2.17793713e+01 2.16481705e+01 2.16481705e+01 2.17793713e+01 2.16481705e+01 2.15185413e+01 2.12638836e+01 2.11388016e+01 2.12638836e+01 2.11388016e+01 2.11388016e+01 2.10151825e+01 2.08930016e+01 2.10151825e+01 2.08930016e+01 2.10151825e+01 2.10151825e+01 2.06528530e+01 2.05348358e+01 2.01887436e+01 1.99644241e+01 0.
    0. 0. 0. 0. 0. 0. 0. 0. 0. 0. 0. 0. 0. 0. 0. 0. 0. 0. 0. 0. 0. 0. 0. 0. 0. 0. 0. 0. 0. 0. 0. 0. 0. 0. 0. 0. 0. 0. 0. 0. 0. 0. 0. 0. 0. 0. 0. 0. 0. 0. 0. 6.30455475e+01 6.41713638e+01 6.30455475e+01 6.41713638e+01 6.53381119e+01 6.65480804e+01 6.78037033e+01 6.91076202e+01 6.91076202e+01 6.91076202e+01 6.91076202e+01 7.18719254e+01 7.18719254e+01 7.04626694e+01 7.18719254e+01 7.18719254e+01 7.18719254e+01 7.33386993e+01 7.48665924e+01 7.98576965e+01 7.64594955e+01 7.98576965e+01 7.98576965e+01 7.98576965e+01 7.18719254e+01 7.98576965e+01 7.48665924e+01 8.35720062e+01 8.35720062e+01 8.55618134e+01 8.55618134e+01 8.55618134e+01 8.76486893e+01 8.98399048e+01 8.98399048e+01 9.98221207e+01 9.21434937e+01 9.98221207e+01 9.45683212e+01 9.21434937e+01 9.21434937e+01 9.45683212e+01 9.45683212e+01 9.71242218e+01 9.71242218e+01 9.98221207e+01 1.02674179e+02 1.08896858e+02 1.08896858e+02 1.08896858e+02 1.12299881e+02 1.15922462e+02 1.19786545e+02 1.23917114e+02 1.08896858e+02 1.19786545e+02 1.15922462e+02 1.15922462e+02 1.23917114e+02 1.23917114e+02 1.23917114e+02 1.23917114e+02 1.28342728e+02 1.43743851e+02 1.43743851e+02 1.49733185e+02 1.56243317e+02 1.63345291e+02 1.63345291e+02 1.71123627e+02 1.63345291e+02 1.71123627e+02 1.89136642e+02 1.89136642e+02 1.89136642e+02 2.24599762e+02 1.99644241e+02 1.71123627e+02 1.71123627e+02 2.56685455e+02 0. 0. 0. 0. 0. 0. 0. 0. 0. 0. 0. 0. 0. 0. 0. 0. 0. 0. 0. 0. 0. 0. 0. 0. 0. 0. 0. 0. 0. 0. 0. 0. 0. 0. 0. 0. 0. 0. 0. 0. 0. 0. 0. 0. 0. 0. 0. 0. 0. 0. 0. 0. 0. 0. 0. 0. 0. 0. 8.98399048e+01 8.98399048e+01 8.98399048e+01 8.55618134e+01 8.35720062e+01 8.16726456e+01 8.16726456e+01 8.16726456e+01 8.16726456e+01 7.98576965e+01 7.48665924e+01 7.04626694e+01 6.91076202e+01 6.65480804e+01 6.41713638e+01 6.19585571e+01 5.98932724e+01 5.79612312e+01 5.70412102e+01 5.70412102e+01 5.36357651e+01 5.61499405e+01 5.44484291e+01 5.36357651e+01 5.28470039e+01 5.20811043e+01 5.28470039e+01 5.20811043e+01 5.20811043e+01 5.36357651e+01 5.06140327e+01 5.06140327e+01 5.06140327e+01 4.99110603e+01 4.92273445e+01 4.72841606e+01 4.66700821e+01 4.54885597e+01 4.49199524e+01 4.43653870e+01 4.38243446e+01 4.17860031e+01 4.17860031e+01 4.08363228e+01 4.03774872e+01 3.99288483e+01 3.94900703e+01 3.90608292e+01 3.90608292e+01 3.86408195e+01 3.62989540e+01 3.66693497e+01 3.62989540e+01 3.55801620e+01 3.45538101e+01 3.35850105e+01 3.39018517e+01 3.39018517e+01 3.39018517e+01 3.35850105e+01 3.35850105e+01 3.32740402e+01 3.32740402e+01 3.32740402e+01 3.39018517e+01 3.26690559e+01 3.26690559e+01 3.23747406e+01 3.29687729e+01 3.01982880e+01 2.92162304e+01 2.92162304e+01 2.92162304e+01 2.68178825e+01 0. 2.60405521e+01 2.60405521e+01 2.56685448e+01 0. 2.60405521e+01 2.54864979e+01 2.58532104e+01 2.58532104e+01 2.60405521e+01 2.53070164e+01 2.53070164e+01 2.54864979e+01 2.51300430e+01 2.47834225e+01 2.49555302e+01 2.42810555e+01 2.39573078e+01 2.37986507e+01 2.37986507e+01 2.33350410e+01 2.30358734e+01 2.27442799e+01 2.26012344e+01 2.24599762e+01 2.21826935e+01 2.21826935e+01 2.19121723e+01 2.17793713e+01 2.16481705e+01 2.16481705e+01 2.17793713e+01 2.16481705e+01 2.15185413e+01 2.13904533e+01 2.12638836e+01 2.12638836e+01 2.12638836e+01 2.12638836e+01 2.11388016e+01 2.10151825e+01 2.11388016e+01 2.10151825e+01 2.10151825e+01 2.11388016e+01 2.07722321e+01 2.05348358e+01 2.01887436e+01 1.99644241e+01 0.
    0. 0. 0. 0. 0. 0. 0. 0. 0. 0. 0. 0. 0. 0. 0. 0. 0. 0. 0. 0. 0. 0. 0. 0. 0. 0. 0. 0. 0. 0. 0. 0. 0. 0. 0. 0. 0. 0. 0. 0. 0. 0. 0. 0. 0. 0. 0. 0. 0. 0. 0. 6.30455475e+01 6.41713638e+01 6.41713638e+01 6.41713638e+01 6.53381119e+01 6.65480804e+01 6.91076202e+01 7.04626694e+01 6.91076202e+01 7.04626694e+01 6.91076202e+01 7.18719254e+01 7.18719254e+01 7.04626694e+01 7.18719254e+01 7.04626694e+01 7.18719254e+01 7.33386993e+01 7.33386993e+01 7.98576965e+01 7.81216583e+01 7.98576965e+01 8.16726456e+01 8.16726456e+01 7.18719254e+01 8.16726456e+01 7.48665924e+01 8.35720062e+01 8.35720062e+01 8.55618134e+01 8.55618134e+01 8.55618134e+01 8.55618134e+01 8.76486893e+01 8.76486893e+01 9.98221207e+01 9.21434937e+01 9.98221207e+01 9.45683212e+01 9.21434937e+01 9.21434937e+01 9.45683212e+01 9.45683212e+01 9.45683212e+01 9.71242218e+01 9.98221207e+01 1.02674179e+02 1.08896858e+02 1.08896858e+02 1.08896858e+02 1.12299881e+02 1.12299881e+02 1.19786545e+02 1.23917114e+02 1.05694008e+02 1.19786545e+02 1.15922462e+02 1.15922462e+02 1.23917114e+02 1.23917114e+02 1.23917114e+02 1.23917114e+02 1.28342728e+02 1.43743851e+02 1.43743851e+02 1.49733185e+02 1.49733185e+02 1.56243317e+02 1.63345291e+02 1.71123627e+02 1.71123627e+02 1.71123627e+02 1.89136642e+02 1.99644241e+02 1.89136642e+02 2.24599762e+02 2.11388016e+02 1.71123627e+02 1.79679810e+02 2.56685455e+02 0. 0. 0. 0. 0. 0. 0. 0. 0. 0. 0. 0. 0. 0. 0. 0. 0. 0. 0. 0. 0. 0. 0. 0. 0. 0. 0. 0. 0. 0. 0. 0. 0. 0. 0. 0. 0. 0. 0. 0. 0. 0. 0. 0. 0. 0. 0. 0. 0. 0. 0. 0. 0. 0. 0. 0. 0. 0. 9.21434937e+01 9.45683212e+01 9.21434937e+01 8.76486893e+01 8.55618134e+01 8.35720062e+01 8.35720062e+01 8.16726456e+01 8.16726456e+01 7.98576965e+01 7.33386993e+01 7.04626694e+01 6.91076202e+01 6.53381119e+01 6.30455475e+01 6.19585571e+01 6.09084129e+01 5.79612312e+01 5.70412102e+01 5.79612312e+01 5.44484291e+01 5.61499405e+01 5.44484291e+01 5.36357651e+01 5.28470039e+01 5.20811043e+01 5.28470039e+01 5.20811043e+01 5.20811043e+01 5.28470039e+01 4.99110603e+01 4.99110603e+01 5.06140327e+01 4.92273445e+01 4.85621109e+01 4.72841606e+01 4.66700821e+01 4.54885597e+01 4.43653870e+01 4.43653870e+01 4.38243446e+01 4.17860031e+01 4.17860031e+01 4.08363228e+01 4.03774872e+01 3.99288483e+01 3.94900703e+01 3.94900703e+01 3.90608292e+01 3.82297478e+01 3.62989540e+01 3.66693497e+01 3.59359627e+01 3.55801620e+01 3.45538101e+01 3.35850105e+01 3.39018517e+01 3.35850105e+01 3.35850105e+01 3.35850105e+01 3.35850105e+01 3.29687729e+01 3.29687729e+01 3.32740402e+01 3.35850105e+01 3.23747406e+01 3.23747406e+01 3.23747406e+01 3.29687729e+01 3.07144985e+01 2.96991425e+01 2.99466362e+01 2.99466362e+01 2.68178825e+01 0. 2.60405521e+01 2.60405521e+01 2.54864979e+01 0. 2.58532104e+01 2.56685448e+01 2.58532104e+01 2.58532104e+01 2.60405521e+01 2.53070164e+01 2.53070164e+01 2.54864979e+01 2.51300430e+01 2.46136723e+01 2.47834225e+01 2.41180954e+01 2.39573078e+01 2.37986507e+01 2.37986507e+01 2.34875584e+01 2.31844921e+01 2.28891487e+01 2.27442799e+01 2.24599762e+01 2.21826935e+01 2.21826935e+01 2.19121723e+01 2.17793713e+01 2.17793713e+01 2.17793713e+01 2.17793713e+01 2.16481705e+01 2.16481705e+01 2.15185413e+01 2.12638836e+01 2.13904533e+01 2.13904533e+01 2.13904533e+01 2.12638836e+01 2.11388016e+01 2.12638836e+01 2.11388016e+01 2.11388016e+01 2.11388016e+01 2.08930016e+01 2.05348358e+01 2.00759563e+01 1.99644241e+01 0.
    0. 0. 0. 0. 0. 0. 0. 0. 0. 0. 0. 0. 0. 0. 0. 0. 0. 0. 0. 0. 0. 0. 0. 0. 0. 0. 0. 0. 0. 0. 0. 0. 0. 0. 0. 0. 0. 0. 0. 0. 0. 0. 0. 0. 0. 0. 0. 0. 0. 0. 0. 6.30455475e+01 6.30455475e+01 6.41713638e+01 6.41713638e+01 6.53381119e+01 6.65480804e+01 6.78037033e+01 6.91076202e+01 6.91076202e+01 6.91076202e+01 6.91076202e+01 7.18719254e+01 7.04626694e+01 7.04626694e+01 7.04626694e+01 7.04626694e+01 7.18719254e+01 7.18719254e+01 7.33386993e+01 7.98576965e+01 7.81216583e+01 8.16726456e+01 8.16726456e+01 8.35720062e+01 7.18719254e+01 8.16726456e+01 7.48665924e+01 8.35720062e+01 8.35720062e+01 8.55618134e+01 8.55618134e+01 8.55618134e+01 8.55618134e+01 8.76486893e+01 8.76486893e+01 9.98221207e+01 9.21434937e+01 9.98221207e+01 9.45683212e+01 9.21434937e+01 9.21434937e+01 9.45683212e+01 9.45683212e+01 9.45683212e+01 9.71242218e+01 9.98221207e+01 1.02674179e+02 1.05694008e+02 1.08896858e+02 1.08896858e+02 1.12299881e+02 1.12299881e+02 1.19786545e+02 1.23917114e+02 1.05694008e+02 1.19786545e+02 1.15922462e+02 1.15922462e+02 1.23917114e+02 1.23917114e+02 1.23917114e+02 1.23917114e+02 1.28342728e+02 1.43743851e+02 1.43743851e+02 1.49733185e+02 1.56243317e+02 1.56243317e+02 1.63345291e+02 1.71123627e+02 1.71123627e+02 1.71123627e+02 1.79679810e+02 1.99644241e+02 1.99644241e+02 2.24599762e+02 2.11388016e+02 1.79679810e+02 1.79679810e+02 2.39573090e+02 0. 0. 0. 0. 0. 0. 0. 0. 0. 0. 0. 0. 0. 0. 0. 0. 0. 0. 0. 0. 0. 0. 0. 0. 0. 0. 0. 0. 0. 0. 0. 0. 0. 0. 0. 0. 0. 0. 0. 0. 0. 0. 0. 0. 0. 0. 0. 0. 0. 0. 0. 0. 0. 0. 0. 0. 0. 9.45683212e+01 9.21434937e+01 9.45683212e+01 9.21434937e+01 8.98399048e+01 8.55618134e+01 8.55618134e+01 8.35720062e+01 8.35720062e+01 8.35720062e+01 7.98576965e+01 7.33386993e+01 7.04626694e+01 6.78037033e+01 6.53381119e+01 6.30455475e+01 6.19585571e+01 6.09084129e+01 5.89114151e+01 5.70412102e+01 5.79612312e+01 5.44484291e+01 5.70412102e+01 5.44484291e+01 5.28470039e+01 5.20811043e+01 5.13370895e+01 5.20811043e+01 5.20811043e+01 5.13370895e+01 5.20811043e+01 4.92273445e+01 4.99110603e+01 5.06140327e+01 4.92273445e+01 4.85621109e+01 4.72841606e+01 4.66700821e+01 4.54885597e+01 4.43653870e+01 4.38243446e+01 4.32963409e+01 4.17860031e+01 4.17860031e+01 4.08363228e+01 4.03774872e+01 3.99288483e+01 3.94900703e+01 3.94900703e+01 3.90608292e+01 3.86408195e+01 3.62989540e+01 3.62989540e+01 3.59359627e+01 3.52313347e+01 3.45538101e+01 3.32740402e+01 3.35850105e+01 3.35850105e+01 3.35850105e+01 3.35850105e+01 3.32740402e+01 3.29687729e+01 3.29687729e+01 3.32740402e+01 3.35850105e+01 3.23747406e+01 3.20856819e+01 3.20856819e+01 3.29687729e+01 3.12486629e+01 2.99466362e+01 3.01982880e+01 2.99466362e+01 2.70195217e+01 0. 2.62306290e+01 2.60405521e+01 2.56685448e+01 0. 2.58532104e+01 2.56685448e+01 2.58532104e+01 2.58532104e+01 2.60405521e+01 2.53070164e+01 2.54864979e+01 2.54864979e+01 2.51300430e+01 2.46136723e+01 2.46136723e+01 2.41180954e+01 2.39573078e+01 2.37986507e+01 2.37986507e+01 2.34875584e+01 2.31844921e+01 2.30358734e+01 2.28891487e+01 2.24599762e+01 2.21826935e+01 2.21826935e+01 2.20466022e+01 2.19121723e+01 2.17793713e+01 2.17793713e+01 2.17793713e+01 2.17793713e+01 2.16481705e+01 2.15185413e+01 2.13904533e+01 2.15185413e+01 2.15185413e+01 2.15185413e+01 2.13904533e+01 2.12638836e+01 2.12638836e+01 2.12638836e+01 2.12638836e+01 2.11388016e+01 2.07722321e+01 2.04181614e+01 1.99644241e+01 1.98541241e+01 0.
    0. 0. 0. 0. 0. 0. 0. 0. 0. 0. 0. 0. 0. 0. 0. 0. 0. 0. 0. 0. 0. 0. 0. 0. 0. 0. 0. 0. 0. 0. 0. 0. 0. 0. 0. 0. 0. 0. 0. 0. 0. 0. 0. 0. 0. 0. 0. 0. 0. 0. 0. 6.30455475e+01 6.30455475e+01 6.41713638e+01 6.30455475e+01 6.41713638e+01 6.41713638e+01 6.65480804e+01 6.78037033e+01 6.78037033e+01 6.91076202e+01 6.91076202e+01 7.18719254e+01 7.04626694e+01 7.04626694e+01 7.18719254e+01 7.04626694e+01 7.18719254e+01 7.33386993e+01 7.18719254e+01 7.98576965e+01 7.98576965e+01 8.16726456e+01 8.35720062e+01 8.35720062e+01 7.18719254e+01 8.16726456e+01 7.33386993e+01 8.35720062e+01 8.35720062e+01 8.55618134e+01 8.55618134e+01 8.55618134e+01 8.55618134e+01 8.76486893e+01 8.76486893e+01 9.98221207e+01 9.21434937e+01 9.98221207e+01 9.21434937e+01 9.45683212e+01 9.45683212e+01 9.45683212e+01 9.45683212e+01 9.71242218e+01 9.71242218e+01 9.98221207e+01 1.02674179e+02 1.05694008e+02 1.05694008e+02 1.08896858e+02 1.12299881e+02 1.12299881e+02 1.15922462e+02 1.23917114e+02 1.05694008e+02 1.19786545e+02 1.15922462e+02 1.19786545e+02 1.23917114e+02 1.23917114e+02 1.28342728e+02 1.28342728e+02 1.28342728e+02 1.43743851e+02 1.43743851e+02 1.56243317e+02 1.56243317e+02 1.56243317e+02 1.71123627e+02 1.71123627e+02 1.71123627e+02 1.71123627e+02 1.89136642e+02 1.99644241e+02 1.99644241e+02 2.24599762e+02 2.24599762e+02 1.79679810e+02 1.89136642e+02 2.39573090e+02 0. 0. 0. 0. 0. 0. 0. 0. 0. 0. 0. 0. 0. 0. 0. 0. 0. 0. 0. 0. 0. 0. 0. 0. 0. 0. 0. 0. 0. 0. 0. 0. 0. 0. 0. 0. 0. 0. 0. 0. 0. 0. 0. 0. 0. 0. 0. 0. 0. 0. 0. 0. 0. 0. 0. 0. 0. 9.21434937e+01 9.21434937e+01 9.21434937e+01 8.98399048e+01 8.76486893e+01 8.55618134e+01 8.35720062e+01 8.35720062e+01 8.16726456e+01 8.16726456e+01 7.81216583e+01 7.18719254e+01 6.91076202e+01 6.65480804e+01 6.53381119e+01 6.30455475e+01 6.19585571e+01 6.09084129e+01 5.89114151e+01 5.70412102e+01 5.79612312e+01 5.44484291e+01 5.70412102e+01 5.44484291e+01 5.20811043e+01 5.20811043e+01 5.13370895e+01 5.20811043e+01 5.13370895e+01 5.13370895e+01 5.20811043e+01 4.92273445e+01 4.92273445e+01 5.06140327e+01 4.92273445e+01 4.92273445e+01 4.72841606e+01 4.66700821e+01 4.49199524e+01 4.43653870e+01 4.38243446e+01 4.32963409e+01 4.17860031e+01 4.17860031e+01 4.08363228e+01 4.03774872e+01 3.99288483e+01 3.99288483e+01 3.94900703e+01 3.90608292e+01 3.86408195e+01 3.62989540e+01 3.59359627e+01 3.55801620e+01 3.52313347e+01 3.42247276e+01 3.32740402e+01 3.35850105e+01 3.35850105e+01 3.35850105e+01 3.35850105e+01 3.32740402e+01 3.29687729e+01 3.29687729e+01 3.32740402e+01 3.35850105e+01 3.20856819e+01 3.20856819e+01 3.18017368e+01 3.26690559e+01 3.09792786e+01 2.96991425e+01 2.99466362e+01 2.99466362e+01 2.70195217e+01 0. 2.62306290e+01 2.62306290e+01 0. 0. 2.58532104e+01 2.58532104e+01 2.58532104e+01 2.58532104e+01 2.60405521e+01 2.53070164e+01 2.54864979e+01 2.54864979e+01 2.51300430e+01 2.44462337e+01 2.46136723e+01 2.41180954e+01 2.39573078e+01 2.37986507e+01 2.37986507e+01 2.34875584e+01 2.33350410e+01 2.30358734e+01 2.28891487e+01 2.24599762e+01 2.23204746e+01 2.23204746e+01 2.20466022e+01 2.19121723e+01 2.17793713e+01 2.17793713e+01 2.17793713e+01 2.17793713e+01 2.17793713e+01 2.16481705e+01 2.15185413e+01 2.16481705e+01 2.15185413e+01 2.16481705e+01 2.15185413e+01 2.12638836e+01 2.13904533e+01 2.12638836e+01 2.11388016e+01 2.10151825e+01 2.06528530e+01 2.01887436e+01 0. 1.97450352e+01 0.
    0. 0. 0. 0. 0. 0. 0. 0. 0. 0. 0. 0. 0. 0. 0. 0. 0. 0. 0. 0. 0. 0. 0. 0. 0. 0. 0. 0. 0. 0. 0. 0. 0. 0. 0. 0. 0. 0. 0. 0. 0. 0. 0. 0. 0. 0. 0. 0. 0. 0. 0. 6.30455475e+01 6.30455475e+01 6.30455475e+01 6.19585571e+01 6.30455475e+01 6.30455475e+01 6.53381119e+01 6.53381119e+01 6.65480804e+01 6.78037033e+01 6.78037033e+01 7.04626694e+01 7.04626694e+01 7.04626694e+01 7.04626694e+01 7.04626694e+01 7.18719254e+01 7.33386993e+01 7.18719254e+01 8.16726456e+01 8.16726456e+01 8.35720062e+01 8.35720062e+01 8.35720062e+01 7.04626694e+01 8.16726456e+01 7.33386993e+01 8.35720062e+01 8.35720062e+01 8.55618134e+01 8.55618134e+01 8.55618134e+01 8.55618134e+01 8.76486893e+01 8.76486893e+01 1.02674179e+02 9.21434937e+01 1.02674179e+02 9.21434937e+01 9.45683212e+01 9.45683212e+01 9.45683212e+01 9.45683212e+01 9.71242218e+01 9.71242218e+01 9.98221207e+01 1.02674179e+02 1.05694008e+02 1.05694008e+02 1.08896858e+02 1.12299881e+02 1.12299881e+02 1.15922462e+02 1.19786545e+02 1.05694008e+02 1.19786545e+02 1.15922462e+02 1.19786545e+02 1.23917114e+02 1.23917114e+02 1.28342728e+02 1.28342728e+02 1.28342728e+02 1.43743851e+02 1.43743851e+02 1.56243317e+02 1.56243317e+02 1.56243317e+02 1.71123627e+02 1.63345291e+02 1.71123627e+02 1.63345291e+02 1.89136642e+02 1.89136642e+02 1.99644241e+02 2.24599762e+02 2.39573090e+02 1.79679810e+02 1.89136642e+02 2.39573090e+02 0. 0. 0. 0. 0. 0. 0. 0. 0. 0. 0. 0. 0. 0. 0. 0. 0. 0. 0. 0. 0. 0. 0. 0. 0. 0. 0. 0. 0. 0. 0. 0. 0. 0. 0. 0. 0. 0. 0. 0. 0. 0. 0. 0. 0. 0. 0. 0. 0. 0. 0. 0. 0. 0. 0. 0. 0. 9.45683212e+01 9.45683212e+01 9.45683212e+01 8.98399048e+01 8.76486893e+01 8.76486893e+01 8.55618134e+01 8.35720062e+01 8.35720062e+01 8.16726456e+01 7.81216583e+01 7.18719254e+01 6.91076202e+01 6.78037033e+01 6.53381119e+01 6.30455475e+01 6.30455475e+01 6.19585571e+01 5.89114151e+01 5.79612312e+01 5.89114151e+01 5.44484291e+01 5.70412102e+01 5.44484291e+01 5.20811043e+01 5.13370895e+01 5.13370895e+01 5.13370895e+01 5.13370895e+01 5.06140327e+01 5.13370895e+01 4.92273445e+01 4.92273445e+01 5.06140327e+01 4.92273445e+01 4.92273445e+01 4.72841606e+01 4.60717468e+01 4.49199524e+01 4.38243446e+01 4.32963409e+01 4.27809067e+01 4.17860031e+01 4.13057060e+01 4.08363228e+01 4.03774872e+01 4.03774872e+01 3.99288483e+01 3.94900703e+01 3.90608292e+01 3.86408195e+01 3.59359627e+01 3.55801620e+01 3.52313347e+01 3.48892860e+01 3.42247276e+01 3.32740402e+01 3.39018517e+01 3.39018517e+01 3.39018517e+01 3.35850105e+01 3.35850105e+01 3.29687729e+01 3.29687729e+01 3.32740402e+01 3.35850105e+01 3.20856819e+01 3.18017368e+01 3.18017368e+01 3.26690559e+01 3.07144985e+01 2.96991425e+01 2.99466362e+01 2.99466362e+01 2.70195217e+01 2.60405521e+01 2.62306290e+01 2.62306290e+01 2.56685448e+01 0. 2.60405521e+01 2.58532104e+01 2.58532104e+01 2.58532104e+01 2.60405521e+01 2.54864979e+01 2.54864979e+01 2.54864979e+01 2.51300430e+01 2.44462337e+01 2.46136723e+01 2.41180954e+01 2.39573078e+01 2.37986507e+01 2.37986507e+01 2.33350410e+01 2.33350410e+01 2.30358734e+01 2.28891487e+01 2.26012344e+01 2.23204746e+01 2.24599762e+01 2.21826935e+01 2.20466022e+01 2.19121723e+01 2.17793713e+01 2.19121723e+01 2.17793713e+01 2.19121723e+01 2.17793713e+01 2.16481705e+01 2.16481705e+01 2.15185413e+01 2.16481705e+01 2.15185413e+01 2.12638836e+01 2.12638836e+01 2.11388016e+01 2.08930016e+01 2.08930016e+01 2.01887436e+01 0. 0. 0. 1.91148739e+01
    0. 0. 0. 0. 0. 0. 0. 0. 0. 0. 0. 0. 0. 0. 0. 0. 0. 0. 0. 0. 0. 0. 0. 0. 0. 0. 0. 0. 0. 0. 0. 0. 0. 0. 0. 0. 0. 0. 0. 0. 0. 0. 0. 0. 0. 0. 0. 0. 0. 0. 0. 6.30455475e+01 6.30455475e+01 6.30455475e+01 6.19585571e+01 6.30455475e+01 6.30455475e+01 6.53381119e+01 6.65480804e+01 6.65480804e+01 6.78037033e+01 6.78037033e+01 7.04626694e+01 6.91076202e+01 6.91076202e+01 7.04626694e+01 6.91076202e+01 7.04626694e+01 7.33386993e+01 7.18719254e+01 8.16726456e+01 8.55618134e+01 8.55618134e+01 8.55618134e+01 8.55618134e+01 7.04626694e+01 8.35720062e+01 7.33386993e+01 8.35720062e+01 8.35720062e+01 8.55618134e+01 8.55618134e+01 8.55618134e+01 8.55618134e+01 8.76486893e+01 8.76486893e+01 1.02674179e+02 9.21434937e+01 1.02674179e+02 9.21434937e+01 9.45683212e+01 9.45683212e+01 9.45683212e+01 9.45683212e+01 9.71242218e+01 9.71242218e+01 9.98221207e+01 1.02674179e+02 1.05694008e+02 1.05694008e+02 1.08896858e+02 1.08896858e+02 1.12299881e+02 1.15922462e+02 1.19786545e+02 1.05694008e+02 1.19786545e+02 1.15922462e+02 1.19786545e+02 1.23917114e+02 1.23917114e+02 1.28342728e+02 1.28342728e+02 1.28342728e+02 1.43743851e+02 1.43743851e+02 1.56243317e+02 1.56243317e+02 1.56243317e+02 1.63345291e+02 1.63345291e+02 1.71123627e+02 1.63345291e+02 1.89136642e+02 1.89136642e+02 1.99644241e+02 2.24599762e+02 2.39573090e+02 1.89136642e+02 1.99644241e+02 2.39573090e+02 0. 0. 0. 0. 0. 0. 0. 0. 0. 0. 0. 0. 0. 0. 0. 0. 0. 0. 0. 0. 0. 0. 0. 0. 0. 0. 0. 0. 0. 0. 0. 0. 0. 0. 0. 0. 0. 0. 0. 0. 0. 0. 0. 0. 0. 0. 0. 0. 0. 0. 0. 0. 0. 0. 0. 0. 9.45683212e+01 9.45683212e+01 9.71242218e+01 9.45683212e+01 9.21434937e+01 8.98399048e+01 8.98399048e+01 8.76486893e+01 8.76486893e+01 8.35720062e+01 8.16726456e+01 7.81216583e+01 7.33386993e+01 6.91076202e+01 6.65480804e+01 6.53381119e+01 6.30455475e+01 6.30455475e+01 6.19585571e+01 5.98932724e+01 5.79612312e+01 5.89114151e+01 5.44484291e+01 5.70412102e+01 5.44484291e+01 5.13370895e+01 5.13370895e+01 5.06140327e+01 5.13370895e+01 5.13370895e+01 5.06140327e+01 5.13370895e+01 4.85621109e+01 4.92273445e+01 5.06140327e+01 4.92273445e+01 4.85621109e+01 4.72841606e+01 4.54885597e+01 4.38243446e+01 4.32963409e+01 4.27809067e+01 4.22776031e+01 4.17860031e+01 4.13057060e+01 4.08363228e+01 4.08363228e+01 4.03774872e+01 3.99288483e+01 3.94900703e+01 3.90608292e+01 3.86408195e+01 3.59359627e+01 3.52313347e+01 3.48892860e+01 3.45538101e+01 3.39018517e+01 3.32740402e+01 3.39018517e+01 3.39018517e+01 3.39018517e+01 3.35850105e+01 3.35850105e+01 3.32740402e+01 3.32740402e+01 3.32740402e+01 3.35850105e+01 3.20856819e+01 3.20856819e+01 3.18017368e+01 3.23747406e+01 3.07144985e+01 2.96991425e+01 3.01982880e+01 2.99466362e+01 2.70195217e+01 2.60405521e+01 2.62306290e+01 2.62306290e+01 2.56685448e+01 0. 2.58532104e+01 2.58532104e+01 2.58532104e+01 2.58532104e+01 2.60405521e+01 2.54864979e+01 2.54864979e+01 2.54864979e+01 2.53070164e+01 2.44462337e+01 2.44462337e+01 2.41180954e+01 2.39573078e+01 2.37986507e+01 2.37986507e+01 2.33350410e+01 2.33350410e+01 2.30358734e+01 2.30358734e+01 2.26012344e+01 2.24599762e+01 2.24599762e+01 2.23204746e+01 2.21826935e+01 2.20466022e+01 2.19121723e+01 2.19121723e+01 2.19121723e+01 2.19121723e+01 2.17793713e+01 2.16481705e+01 2.16481705e+01 2.15185413e+01 2.16481705e+01 2.13904533e+01 2.12638836e+01 2.12638836e+01 2.10151825e+01 2.07722321e+01 2.06528530e+01 0. 0. 0. 1.93204098e+01 1.90137367e+01
    0. 0. 0. 0. 0. 0. 0. 0. 0. 0. 0. 0. 0. 0. 0. 0. 0. 0. 0. 0. 0. 0. 0. 0. 0. 0. 0. 0. 0. 0. 0. 0. 0. 0. 0. 0. 0. 0. 0. 0. 0. 0. 0. 0. 0. 0. 0. 0. 0. 0. 0. 6.19585571e+01 6.19585571e+01 6.30455475e+01 6.19585571e+01 6.30455475e+01 6.41713638e+01 6.53381119e+01 6.65480804e+01 6.65480804e+01 6.78037033e+01 6.78037033e+01 7.04626694e+01 7.04626694e+01 7.04626694e+01 7.04626694e+01 6.91076202e+01 7.04626694e+01 7.33386993e+01 7.33386993e+01 8.35720062e+01 8.55618134e+01 8.55618134e+01 8.55618134e+01 8.55618134e+01 7.04626694e+01 8.16726456e+01 7.18719254e+01 8.35720062e+01 8.16726456e+01 8.55618134e+01 8.55618134e+01 8.55618134e+01 8.55618134e+01 8.76486893e+01 8.55618134e+01 1.02674179e+02 9.21434937e+01 1.05694008e+02 9.45683212e+01 9.45683212e+01 9.45683212e+01 9.71242218e+01 9.71242218e+01 9.71242218e+01 9.71242218e+01 9.98221207e+01 9.98221207e+01 1.02674179e+02 1.02674179e+02 1.05694008e+02 1.08896858e+02 1.12299881e+02 1.12299881e+02 1.19786545e+02 1.05694008e+02 1.15922462e+02 1.15922462e+02 1.19786545e+02 1.23917114e+02 1.23917114e+02 1.28342728e+02 1.28342728e+02 1.28342728e+02 1.43743851e+02 1.43743851e+02 1.49733185e+02 1.56243317e+02 1.56243317e+02 1.63345291e+02 1.63345291e+02 1.63345291e+02 1.63345291e+02 1.89136642e+02 1.89136642e+02 1.99644241e+02 2.24599762e+02 2.56685455e+02 1.89136642e+02 1.99644241e+02 2.24599762e+02 3.99288483e+02 0. 0. 0. 0. 0. 0. 0. 0. 0. 0. 0. 0. 0. 0. 0. 0. 0. 0. 0. 0. 0. 0. 0. 0. 0. 0. 0. 0. 0. 0. 0. 0. 0. 0. 0. 0. 0. 0. 0. 0. 0. 0. 0. 0. 0. 0. 0. 0. 0. 0. 0. 0. 0. 0. 0. 9.45683212e+01 9.45683212e+01 9.45683212e+01 9.21434937e+01 9.21434937e+01 8.98399048e+01 8.98399048e+01 8.76486893e+01 8.76486893e+01 8.55618134e+01 8.16726456e+01 7.81216583e+01 7.18719254e+01 6.78037033e+01 6.65480804e+01 6.53381119e+01 6.41713638e+01 6.30455475e+01 6.30455475e+01 6.09084129e+01 5.89114151e+01 5.98932724e+01 5.52860985e+01 5.70412102e+01 5.44484291e+01 5.13370895e+01 5.13370895e+01 5.13370895e+01 5.13370895e+01 5.13370895e+01 5.06140327e+01 5.13370895e+01 4.92273445e+01 4.85621109e+01 5.06140327e+01 4.92273445e+01 4.85621109e+01 4.66700821e+01 4.43653870e+01 4.32963409e+01 4.27809067e+01 4.22776031e+01 4.22776031e+01 4.17860031e+01 4.13057060e+01 4.13057060e+01 4.08363228e+01 4.03774872e+01 3.99288483e+01 3.94900703e+01 3.94900703e+01 3.86408195e+01 3.59359627e+01 3.52313347e+01 3.48892860e+01 3.45538101e+01 3.39018517e+01 3.32740402e+01 3.39018517e+01 3.39018517e+01 3.35850105e+01 3.35850105e+01 3.35850105e+01 3.32740402e+01 3.32740402e+01 3.32740402e+01 3.35850105e+01 3.26690559e+01 3.23747406e+01 3.20856819e+01 3.26690559e+01 3.12486629e+01 2.99466362e+01 3.01982880e+01 2.96991425e+01 2.70195217e+01 2.60405521e+01 2.62306290e+01 2.60405521e+01 2.56685448e+01 2.56685448e+01 2.58532104e+01 2.58532104e+01 2.58532104e+01 2.58532104e+01 2.60405521e+01 2.54864979e+01 2.54864979e+01 2.54864979e+01 2.53070164e+01 2.44462337e+01 2.44462337e+01 2.42810555e+01 2.39573078e+01 2.37986507e+01 2.37986507e+01 2.33350410e+01 2.33350410e+01 2.31844921e+01 2.30358734e+01 2.27442799e+01 2.24599762e+01 2.24599762e+01 2.24599762e+01 2.23204746e+01 2.21826935e+01 2.20466022e+01 2.19121723e+01 2.19121723e+01 2.20466022e+01 2.17793713e+01 2.15185413e+01 2.16481705e+01 2.15185413e+01 2.13904533e+01 2.12638836e+01 2.11388016e+01 2.11388016e+01 2.08930016e+01 0. 0. 0. 0. 0. 1.92170925e+01 1.90137367e+01
    0. 0. 0. 0. 0. 0. 0. 0. 0. 0. 0. 0. 0. 0. 0. 0. 0. 0. 0. 0. 0. 0. 0. 0. 0. 0. 0. 0. 0. 0. 0. 0. 0. 0. 0. 0. 0. 0. 0. 0. 0. 0. 0. 0. 0. 0. 0. 0. 0. 0. 0. 6.09084129e+01 6.19585571e+01 6.30455475e+01 6.30455475e+01 6.41713638e+01 6.53381119e+01 6.65480804e+01 6.65480804e+01 6.78037033e+01 6.78037033e+01 6.91076202e+01 7.04626694e+01 7.04626694e+01 7.04626694e+01 7.04626694e+01 6.91076202e+01 7.18719254e+01 7.33386993e+01 7.33386993e+01 8.35720062e+01 8.55618134e+01 8.55618134e+01 8.35720062e+01 8.35720062e+01 6.91076202e+01 8.16726456e+01 7.18719254e+01 8.16726456e+01 8.16726456e+01 8.35720062e+01 8.55618134e+01 8.55618134e+01 8.55618134e+01 8.76486893e+01 8.55618134e+01 1.02674179e+02 8.98399048e+01 1.08896858e+02 9.45683212e+01 9.45683212e+01 9.71242218e+01 9.71242218e+01 9.71242218e+01 9.71242218e+01 9.71242218e+01 9.98221207e+01 9.98221207e+01 9.98221207e+01 1.02674179e+02 1.05694008e+02 1.08896858e+02 1.08896858e+02 1.12299881e+02 1.15922462e+02 1.05694008e+02 1.15922462e+02 1.15922462e+02 1.19786545e+02 1.23917114e+02 1.23917114e+02 1.28342728e+02 1.33096161e+02 1.33096161e+02 1.43743851e+02 1.43743851e+02 1.49733185e+02 1.49733185e+02 1.49733185e+02 1.63345291e+02 1.63345291e+02 1.63345291e+02 1.63345291e+02 1.89136642e+02 1.89136642e+02 1.99644241e+02 2.24599762e+02 2.56685455e+02 1.99644241e+02 2.11388016e+02 2.39573090e+02 3.99288483e+02 0. 0. 0. 0. 0. 0. 0. 0. 0. 0. 0. 0. 0. 0. 0. 0. 0. 0. 0. 0. 0. 0. 0. 0. 0. 0. 0. 0. 0. 0. 0. 0. 0. 0. 0. 0. 0. 0. 0. 0. 0. 0. 0. 0. 0. 0. 0. 0. 0. 0. 0. 0. 0. 0. 0. 9.45683212e+01 9.45683212e+01 9.45683212e+01 9.21434937e+01 9.21434937e+01 8.98399048e+01 8.98399048e+01 8.76486893e+01 8.55618134e+01 8.35720062e+01 7.98576965e+01 7.64594955e+01 7.04626694e+01 6.78037033e+01 6.65480804e+01 6.53381119e+01 6.41713638e+01 6.41713638e+01 6.30455475e+01 6.09084129e+01 5.98932724e+01 5.98932724e+01 5.61499405e+01 5.70412102e+01 5.44484291e+01 5.13370895e+01 5.20811043e+01 5.13370895e+01 5.20811043e+01 5.13370895e+01 5.13370895e+01 5.13370895e+01 4.92273445e+01 4.92273445e+01 5.06140327e+01 4.92273445e+01 4.79146156e+01 4.66700821e+01 4.38243446e+01 4.27809067e+01 4.22776031e+01 4.22776031e+01 4.22776031e+01 4.17860031e+01 4.13057060e+01 4.13057060e+01 4.08363228e+01 4.03774872e+01 3.99288483e+01 3.94900703e+01 3.90608292e+01 3.86408195e+01 3.55801620e+01 3.48892860e+01 3.45538101e+01 3.45538101e+01 3.42247276e+01 3.35850105e+01 3.39018517e+01 3.39018517e+01 3.35850105e+01 3.35850105e+01 3.35850105e+01 3.32740402e+01 3.32740402e+01 3.32740402e+01 3.35850105e+01 3.26690559e+01 3.23747406e+01 3.23747406e+01 3.26690559e+01 3.18017368e+01 3.04542065e+01 3.01982880e+01 2.99466362e+01 2.72242146e+01 2.60405521e+01 2.62306290e+01 2.62306290e+01 2.56685448e+01 2.56685448e+01 2.60405521e+01 2.58532104e+01 2.58532104e+01 2.58532104e+01 2.60405521e+01 2.56685448e+01 2.56685448e+01 2.56685448e+01 2.54864979e+01 2.44462337e+01 2.44462337e+01 2.42810555e+01 2.39573078e+01 2.37986507e+01 2.37986507e+01 2.33350410e+01 2.33350410e+01 2.31844921e+01 2.31844921e+01 2.27442799e+01 2.26012344e+01 2.26012344e+01 2.26012344e+01 2.24599762e+01 2.24599762e+01 2.21826935e+01 2.21826935e+01 2.20466022e+01 2.21826935e+01 2.19121723e+01 2.16481705e+01 2.16481705e+01 0. 2.12638836e+01 2.11388016e+01 2.08930016e+01 2.08930016e+01 0. 0. 0. 0. 0. 0. 1.92170925e+01 1.90137367e+01
    0. 0. 0. 0. 0. 0. 0. 0. 0. 0. 0. 0. 0. 0. 0. 0. 0. 0. 0. 0. 0. 0. 0. 0. 0. 0. 0. 0. 0. 0. 0. 0. 0. 0. 0. 0. 0. 0. 0. 0. 0. 0. 0. 0. 0. 0. 0. 0. 0. 0. 0. 6.09084129e+01 6.19585571e+01 6.41713638e+01 6.41713638e+01 6.41713638e+01 6.53381119e+01 6.65480804e+01 6.65480804e+01 6.78037033e+01 6.91076202e+01 6.91076202e+01 7.04626694e+01 7.04626694e+01 7.04626694e+01 7.18719254e+01 7.04626694e+01 7.33386993e+01 7.33386993e+01 7.48665924e+01 8.35720062e+01 8.55618134e+01 8.76486893e+01 8.55618134e+01 8.35720062e+01 6.91076202e+01 8.16726456e+01 7.18719254e+01 8.16726456e+01 8.16726456e+01 8.35720062e+01 8.55618134e+01 8.55618134e+01 8.55618134e+01 8.76486893e+01 8.55618134e+01 1.02674179e+02 8.98399048e+01 1.12299881e+02 9.45683212e+01 9.71242218e+01 9.71242218e+01 9.71242218e+01 9.71242218e+01 9.71242218e+01 9.71242218e+01 9.98221207e+01 9.98221207e+01 9.98221207e+01 9.98221207e+01 1.02674179e+02 1.05694008e+02 1.08896858e+02 1.08896858e+02 1.15922462e+02 1.05694008e+02 1.15922462e+02 1.15922462e+02 1.19786545e+02 1.23917114e+02 1.23917114e+02 1.28342728e+02 1.33096161e+02 1.33096161e+02 1.43743851e+02 1.43743851e+02 1.49733185e+02 1.49733185e+02 1.49733185e+02 1.63345291e+02 1.63345291e+02 1.63345291e+02 1.63345291e+02 1.89136642e+02 1.89136642e+02 1.99644241e+02 2.24599762e+02 2.39573090e+02 1.99644241e+02 2.11388016e+02 2.24599762e+02 3.99288483e+02 0. 0. 0. 0. 0. 0. 0. 0. 0. 0. 0. 0. 0. 0. 0. 0. 0. 0. 0. 0. 0. 0. 0. 0. 0. 0. 2.99466370e+02 3.59359619e+02 0. 0. 0. 0. 0. 0. 0. 0. 0. 0. 0. 0. 0. 0. 0. 0. 0. 0. 0. 0. 0. 0. 0. 0. 0. 0. 0. 9.45683212e+01 9.98221207e+01 9.71242218e+01 9.45683212e+01 9.21434937e+01 9.21434937e+01 9.21434937e+01 8.98399048e+01 8.76486893e+01 8.35720062e+01 7.98576965e+01 7.48665924e+01 7.04626694e+01 6.78037033e+01 6.65480804e+01 6.53381119e+01 6.53381119e+01 6.41713638e+01 6.41713638e+01 6.19585571e+01 6.09084129e+01 6.09084129e+01 5.61499405e+01 5.70412102e+01 5.44484291e+01 5.20811043e+01 5.28470039e+01 5.20811043e+01 5.20811043e+01 5.20811043e+01 5.13370895e+01 5.20811043e+01 4.99110603e+01 4.99110603e+01 5.13370895e+01 4.92273445e+01 4.85621109e+01 4.66700821e+01 4.38243446e+01 4.27809067e+01 4.27809067e+01 4.27809067e+01 4.22776031e+01 4.17860031e+01 4.17860031e+01 4.13057060e+01 4.08363228e+01 4.03774872e+01 4.03774872e+01 3.99288483e+01 3.90608292e+01 3.82297478e+01 3.55801620e+01 3.48892860e+01 3.45538101e+01 3.45538101e+01 3.42247276e+01 3.35850105e+01 3.35850105e+01 3.35850105e+01 3.35850105e+01 3.35850105e+01 3.35850105e+01 3.32740402e+01 3.32740402e+01 3.32740402e+01 3.35850105e+01 3.26690559e+01 3.23747406e+01 3.23747406e+01 3.26690559e+01 3.20856819e+01 3.04542065e+01 3.01982880e+01 2.99466362e+01 2.72242146e+01 2.60405521e+01 2.62306290e+01 2.62306290e+01 2.58532104e+01 2.56685448e+01 2.60405521e+01 2.60405521e+01 2.58532104e+01 2.58532104e+01 2.60405521e+01 2.58532104e+01 2.58532104e+01 2.56685448e+01 2.54864979e+01 2.42810555e+01 2.42810555e+01 2.41180954e+01 2.39573078e+01 2.37986507e+01 2.37986507e+01 2.33350410e+01 2.33350410e+01 2.33350410e+01 2.33350410e+01 2.28891487e+01 2.27442799e+01 2.27442799e+01 2.27442799e+01 2.26012344e+01 2.26012344e+01 2.21826935e+01 2.21826935e+01 2.19121723e+01 2.21826935e+01 2.19121723e+01 2.15185413e+01 0. 0. 2.10151825e+01 2.10151825e+01 2.06528530e+01 0. 0. 0. 0. 0. 0. 1.93204098e+01 1.92170925e+01 1.90137367e+01
    0. 0. 0. 0. 0. 0. 0. 0. 0. 0. 0. 0. 0. 0. 0. 0. 0. 0. 0. 0. 0. 0. 0. 0. 0. 0. 0. 0. 0. 0. 0. 0. 0. 0. 0. 0. 0. 0. 0. 0. 0. 0. 0. 0. 0. 0. 0. 0. 0. 0. 0. 6.19585571e+01 6.19585571e+01 6.41713638e+01 6.41713638e+01 6.41713638e+01 6.53381119e+01 6.65480804e+01 6.65480804e+01 6.78037033e+01 6.91076202e+01 6.91076202e+01 7.04626694e+01 7.04626694e+01 7.18719254e+01 7.33386993e+01 7.18719254e+01 7.48665924e+01 7.48665924e+01 7.64594955e+01 8.35720062e+01 8.55618134e+01 8.55618134e+01 8.35720062e+01 8.35720062e+01 6.91076202e+01 8.16726456e+01 7.18719254e+01 8.16726456e+01 8.16726456e+01 8.35720062e+01 8.55618134e+01 8.55618134e+01 8.55618134e+01 8.76486893e+01 8.55618134e+01 1.02674179e+02 8.98399048e+01 1.15922462e+02 9.45683212e+01 9.71242218e+01 9.71242218e+01 9.71242218e+01 9.98221207e+01 9.98221207e+01 9.71242218e+01 9.98221207e+01 9.98221207e+01 9.98221207e+01 9.98221207e+01 1.02674179e+02 1.05694008e+02 1.08896858e+02 1.08896858e+02 1.12299881e+02 1.05694008e+02 1.15922462e+02 1.15922462e+02 1.19786545e+02 1.23917114e+02 1.23917114e+02 1.28342728e+02 1.33096161e+02 1.33096161e+02 1.43743851e+02 1.43743851e+02 1.49733185e+02 1.49733185e+02 1.49733185e+02 1.56243317e+02 1.63345291e+02 1.63345291e+02 1.56243317e+02 1.99644241e+02 1.89136642e+02 1.99644241e+02 2.24599762e+02 2.39573090e+02 1.99644241e+02 1.99644241e+02 2.11388016e+02 3.59359619e+02 0. 0. 0. 0. 0. 0. 0. 0. 0. 0. 0. 0. 0. 0. 0. 0. 0. 0. 0. 0. 0. 0. 0. 0. 0. 0. 3.59359619e+02 3.99288483e+02 0. 0. 0. 0. 0. 0. 0. 0. 0. 0. 0. 0. 0. 0. 0. 0. 0. 0. 0. 0. 0. 0. 0. 0. 0. 0. 0. 9.45683212e+01 9.71242218e+01 9.71242218e+01 9.45683212e+01 9.45683212e+01 9.45683212e+01 9.21434937e+01 9.21434937e+01 8.76486893e+01 8.35720062e+01 7.98576965e+01 7.48665924e+01 7.04626694e+01 6.78037033e+01 6.65480804e+01 6.65480804e+01 6.53381119e+01 6.53381119e+01 6.41713638e+01 6.30455475e+01 6.19585571e+01 6.19585571e+01 5.70412102e+01 5.70412102e+01 5.44484291e+01 5.20811043e+01 5.28470039e+01 5.20811043e+01 5.20811043e+01 5.13370895e+01 5.13370895e+01 5.20811043e+01 5.06140327e+01 4.99110603e+01 5.06140327e+01 4.85621109e+01 4.79146156e+01 4.66700821e+01 4.38243446e+01 4.32963409e+01 4.27809067e+01 4.27809067e+01 4.27809067e+01 4.22776031e+01 4.17860031e+01 4.13057060e+01 4.08363228e+01 4.03774872e+01 4.03774872e+01 3.99288483e+01 3.90608292e+01 3.86408195e+01 3.55801620e+01 3.45538101e+01 3.45538101e+01 3.45538101e+01 3.42247276e+01 3.32740402e+01 3.35850105e+01 3.35850105e+01 3.35850105e+01 3.32740402e+01 3.35850105e+01 3.32740402e+01 3.32740402e+01 3.32740402e+01 3.35850105e+01 3.26690559e+01 3.23747406e+01 3.20856819e+01 3.26690559e+01 3.18017368e+01 3.04542065e+01 2.99466362e+01 2.96991425e+01 2.72242146e+01 2.62306290e+01 2.62306290e+01 2.62306290e+01 2.58532104e+01 2.56685448e+01 2.60405521e+01 2.60405521e+01 2.60405521e+01 2.60405521e+01 2.62306290e+01 2.58532104e+01 2.58532104e+01 2.56685448e+01 2.54864979e+01 2.44462337e+01 2.42810555e+01 2.41180954e+01 2.39573078e+01 2.37986507e+01 2.37986507e+01 2.34875584e+01 2.34875584e+01 2.33350410e+01 2.33350410e+01 2.30358734e+01 2.28891487e+01 2.27442799e+01 2.28891487e+01 2.27442799e+01 2.27442799e+01 2.23204746e+01 2.21826935e+01 2.19121723e+01 2.21826935e+01 2.17793713e+01 0. 0. 2.10151825e+01 2.08930016e+01 2.07722321e+01 2.04181614e+01 0. 0. 0. 0. 0. 0. 1.93204098e+01 1.91148739e+01 1.90137367e+01
    0. 0. 0. 0. 0. 0. 0. 0. 0. 0. 0. 0. 0. 0. 0. 0. 0. 0. 0. 0. 0. 0. 0. 0. 0. 0. 0. 0. 0. 0. 0. 0. 0. 0. 0. 0. 0. 0. 0. 0. 0. 0. 0. 0. 0. 0. 0. 0. 0. 0. 0. 6.30455475e+01 6.30455475e+01 6.41713638e+01 6.41713638e+01 6.53381119e+01 6.53381119e+01 6.65480804e+01 6.65480804e+01 6.78037033e+01 6.91076202e+01 7.04626694e+01 7.18719254e+01 7.04626694e+01 7.33386993e+01 7.48665924e+01 7.33386993e+01 7.81216583e+01 7.64594955e+01 7.98576965e+01 8.16726456e+01 8.35720062e+01 8.35720062e+01 8.16726456e+01 8.16726456e+01 6.78037033e+01 7.98576965e+01 7.18719254e+01 8.16726456e+01 8.16726456e+01 8.35720062e+01 8.35720062e+01 8.35720062e+01 8.35720062e+01 8.55618134e+01 8.55618134e+01 9.98221207e+01 8.98399048e+01 1.19786545e+02 8.98399048e+01 9.45683212e+01 9.71242218e+01 9.71242218e+01 9.71242218e+01 9.98221207e+01 9.98221207e+01 9.71242218e+01 9.98221207e+01 9.98221207e+01 9.98221207e+01 1.02674179e+02 1.05694008e+02 1.08896858e+02 1.08896858e+02 1.12299881e+02 1.05694008e+02 1.15922462e+02 1.15922462e+02 1.19786545e+02 1.23917114e+02 1.23917114e+02 1.28342728e+02 1.28342728e+02 1.33096161e+02 1.38215240e+02 1.43743851e+02 1.49733185e+02 1.49733185e+02 1.56243317e+02 1.63345291e+02 1.63345291e+02 1.63345291e+02 1.56243317e+02 2.11388016e+02 1.89136642e+02 2.11388016e+02 2.39573090e+02 2.39573090e+02 1.99644241e+02 1.99644241e+02 2.11388016e+02 3.59359619e+02 0. 0. 0. 0. 0. 0. 0. 0. 0. 0. 0. 0. 0. 0. 0. 0. 0. 0. 0. 0. 0. 3.26690582e+02 3.99288483e+02 0. 0. 0. 3.59359619e+02 3.99288483e+02 0. 0. 0. 3.99288483e+02 3.26690582e+02 2.99466370e+02 0. 0. 0. 0. 0. 0. 0. 0. 0. 0. 0. 0. 0. 0. 0. 0. 0. 0. 0. 0. 0. 9.45683212e+01 9.45683212e+01 9.21434937e+01 9.21434937e+01 9.21434937e+01 9.21434937e+01 9.21434937e+01 9.21434937e+01 8.76486893e+01 8.16726456e+01 7.81216583e+01 7.33386993e+01 7.04626694e+01 6.78037033e+01 6.65480804e+01 6.65480804e+01 6.65480804e+01 6.53381119e+01 6.41713638e+01 6.30455475e+01 6.19585571e+01 6.19585571e+01 5.70412102e+01 5.70412102e+01 5.44484291e+01 5.20811043e+01 5.36357651e+01 5.13370895e+01 5.20811043e+01 5.13370895e+01 5.13370895e+01 5.13370895e+01 5.06140327e+01 4.99110603e+01 5.06140327e+01 4.85621109e+01 4.79146156e+01 4.66700821e+01 4.38243446e+01 4.32963409e+01 4.32963409e+01 4.32963409e+01 4.27809067e+01 4.27809067e+01 4.22776031e+01 4.17860031e+01 4.13057060e+01 4.08363228e+01 4.03774872e+01 3.99288483e+01 3.94900703e+01 3.86408195e+01 3.52313347e+01 3.45538101e+01 3.45538101e+01 3.45538101e+01 3.42247276e+01 3.35850105e+01 3.35850105e+01 3.35850105e+01 3.35850105e+01 3.32740402e+01 3.35850105e+01 3.29687729e+01 3.29687729e+01 3.29687729e+01 3.32740402e+01 3.26690559e+01 3.20856819e+01 3.20856819e+01 3.23747406e+01 3.15227737e+01 3.01982880e+01 2.96991425e+01 2.94557076e+01 2.72242146e+01 2.64235020e+01 2.64235020e+01 2.62306290e+01 2.60405521e+01 2.56685448e+01 2.60405521e+01 2.60405521e+01 2.60405521e+01 2.60405521e+01 2.62306290e+01 2.58532104e+01 2.58532104e+01 2.56685448e+01 2.56685448e+01 2.44462337e+01 2.42810555e+01 2.42810555e+01 2.41180954e+01 2.39573078e+01 2.37986507e+01 2.34875584e+01 2.34875584e+01 2.34875584e+01 2.34875584e+01 2.31844921e+01 2.31844921e+01 2.28891487e+01 2.30358734e+01 2.28891487e+01 2.28891487e+01 2.23204746e+01 2.21826935e+01 2.19121723e+01 2.20466022e+01 2.15185413e+01 0. 0. 2.08930016e+01 0. 0. 0. 0. 0. 0. 0. 0. 0. 1.93204098e+01 0. 0.
    0. 0. 0. 0. 0. 0. 0. 0. 0. 0. 0. 0. 0. 0. 0. 0. 0. 0. 0. 0. 0. 0. 0. 0. 0. 0. 0. 0. 0. 0. 0. 0. 0. 0. 0. 0. 0. 0. 0. 0. 0. 0. 0. 0. 0. 0. 0. 0. 0. 0. 0. 6.30455475e+01 6.30455475e+01 6.41713638e+01 6.41713638e+01 6.53381119e+01 6.53381119e+01 6.65480804e+01 6.78037033e+01 6.91076202e+01 6.91076202e+01 7.04626694e+01 7.18719254e+01 7.18719254e+01 7.33386993e+01 7.48665924e+01 7.33386993e+01 7.81216583e+01 7.64594955e+01 7.98576965e+01 7.98576965e+01 8.16726456e+01 8.16726456e+01 7.98576965e+01 7.98576965e+01 6.78037033e+01 7.98576965e+01 7.18719254e+01 8.16726456e+01 8.16726456e+01 8.35720062e+01 8.35720062e+01 8.35720062e+01 8.35720062e+01 8.55618134e+01 8.35720062e+01 9.98221207e+01 8.98399048e+01 1.28342728e+02 8.76486893e+01 9.45683212e+01 9.98221207e+01 9.98221207e+01 9.98221207e+01 9.98221207e+01 1.02674179e+02 9.98221207e+01 9.98221207e+01 1.02674179e+02 9.98221207e+01 1.02674179e+02 1.05694008e+02 1.08896858e+02 1.08896858e+02 1.12299881e+02 1.08896858e+02 1.15922462e+02 1.15922462e+02 1.19786545e+02 1.23917114e+02 1.23917114e+02 1.28342728e+02 1.28342728e+02 1.33096161e+02 1.38215240e+02 1.43743851e+02 1.49733185e+02 1.49733185e+02 1.56243317e+02 1.56243317e+02 1.63345291e+02 1.63345291e+02 1.63345291e+02 2.11388016e+02 1.89136642e+02 2.11388016e+02 2.39573090e+02 2.24599762e+02 1.99644241e+02 1.99644241e+02 2.11388016e+02 3.59359619e+02 0. 0. 0. 0. 0. 0. 0. 0. 0. 0. 0. 0. 0. 0. 0. 0. 0. 0. 0. 0. 0. 3.99288483e+02 0. 0. 0. 0. 3.59359619e+02 3.99288483e+02 3.99288483e+02 0. 3.99288483e+02 3.99288483e+02 3.26690582e+02 2.99466370e+02 3.99288483e+02 0. 0. 0. 0. 0. 0. 0. 0. 0. 0. 0. 0. 0. 0. 0. 0. 0. 0. 0. 9.21434937e+01 9.71242218e+01 9.71242218e+01 9.45683212e+01 9.45683212e+01 9.45683212e+01 9.45683212e+01 9.45683212e+01 9.21434937e+01 8.55618134e+01 8.16726456e+01 7.64594955e+01 7.18719254e+01 7.04626694e+01 6.78037033e+01 6.78037033e+01 6.65480804e+01 6.65480804e+01 6.53381119e+01 6.53381119e+01 6.30455475e+01 6.30455475e+01 6.30455475e+01 5.70412102e+01 5.61499405e+01 5.44484291e+01 5.20811043e+01 5.36357651e+01 5.13370895e+01 5.20811043e+01 5.13370895e+01 5.13370895e+01 5.13370895e+01 5.06140327e+01 4.99110603e+01 5.06140327e+01 4.79146156e+01 4.79146156e+01 4.60717468e+01 4.38243446e+01 4.38243446e+01 4.38243446e+01 4.32963409e+01 4.32963409e+01 4.27809067e+01 4.22776031e+01 4.17860031e+01 4.17860031e+01 4.08363228e+01 4.03774872e+01 3.99288483e+01 3.94900703e+01 3.78273277e+01 3.52313347e+01 3.45538101e+01 3.45538101e+01 3.45538101e+01 3.42247276e+01 3.35850105e+01 3.35850105e+01 3.35850105e+01 3.35850105e+01 3.32740402e+01 3.35850105e+01 3.29687729e+01 3.29687729e+01 3.29687729e+01 3.32740402e+01 3.26690559e+01 3.20856819e+01 3.18017368e+01 3.23747406e+01 3.12486629e+01 2.99466362e+01 2.96991425e+01 2.94557076e+01 2.74320335e+01 2.64235020e+01 2.64235020e+01 2.62306290e+01 2.60405521e+01 2.58532104e+01 2.60405521e+01 2.60405521e+01 2.60405521e+01 2.60405521e+01 2.62306290e+01 2.60405521e+01 2.58532104e+01 2.58532104e+01 2.58532104e+01 2.46136723e+01 2.44462337e+01 2.42810555e+01 2.42810555e+01 2.41180954e+01 2.39573078e+01 2.36420803e+01 2.36420803e+01 2.34875584e+01 2.34875584e+01 2.33350410e+01 2.31844921e+01 2.30358734e+01 2.31844921e+01 2.30358734e+01 2.30358734e+01 2.26012344e+01 2.21826935e+01 2.17793713e+01 2.17793713e+01 0. 0. 0. 0. 0. 0. 0. 0. 0. 0. 0. 0. 0. 1.93204098e+01 1.91148739e+01 1.90137367e+01
    0. 0. 0. 0. 0. 0. 0. 0. 0. 0. 0. 0. 0. 0. 0. 0. 0. 0. 0. 0. 0. 0. 0. 0. 0. 0. 0. 0. 0. 0. 0. 0. 0. 0. 0. 0. 0. 0. 0. 0. 0. 0. 0. 0. 0. 0. 0. 0. 0. 0. 0. 6.30455475e+01 6.30455475e+01 6.41713638e+01 6.53381119e+01 6.53381119e+01 6.65480804e+01 6.78037033e+01 6.78037033e+01 6.91076202e+01 6.91076202e+01 7.04626694e+01 7.18719254e+01 7.18719254e+01 7.33386993e+01 7.33386993e+01 7.33386993e+01 7.64594955e+01 7.33386993e+01 7.81216583e+01 7.64594955e+01 7.98576965e+01 7.98576965e+01 7.81216583e+01 7.98576965e+01 6.91076202e+01 7.98576965e+01 7.18719254e+01 8.16726456e+01 8.16726456e+01 8.35720062e+01 8.35720062e+01 8.35720062e+01 8.35720062e+01 8.55618134e+01 8.35720062e+01 9.71242218e+01 8.98399048e+01 1.38215240e+02 8.76486893e+01 9.21434937e+01 9.71242218e+01 1.02674179e+02 9.98221207e+01 9.98221207e+01 1.02674179e+02 9.98221207e+01 9.98221207e+01 9.98221207e+01 9.98221207e+01 1.02674179e+02 1.05694008e+02 1.05694008e+02 1.08896858e+02 1.12299881e+02 1.08896858e+02 1.12299881e+02 1.15922462e+02 1.19786545e+02 1.19786545e+02 1.23917114e+02 1.28342728e+02 1.28342728e+02 1.33096161e+02 1.38215240e+02 1.43743851e+02 1.43743851e+02 1.49733185e+02 1.56243317e+02 1.56243317e+02 1.63345291e+02 1.63345291e+02 1.56243317e+02 2.11388016e+02 1.89136642e+02 2.11388016e+02 2.56685455e+02 2.11388016e+02 1.89136642e+02 1.89136642e+02 1.99644241e+02 3.59359619e+02 0. 0. 0. 0. 0. 0. 0. 0. 0. 0. 0. 0. 0. 0. 0. 0. 0. 0. 0. 0. 0. 0. 0. 0. 0. 0. 3.99288483e+02 3.99288483e+02 0. 0. 0. 0. 3.59359619e+02 3.26690582e+02 0. 0. 0. 0. 0. 0. 0. 0. 0. 0. 0. 0. 0. 0. 0. 0. 0. 0. 0. 0. 9.71242218e+01 9.98221207e+01 9.71242218e+01 9.45683212e+01 9.45683212e+01 9.71242218e+01 9.45683212e+01 9.71242218e+01 9.21434937e+01 8.76486893e+01 8.16726456e+01 7.64594955e+01 7.33386993e+01 7.04626694e+01 6.78037033e+01 6.78037033e+01 6.78037033e+01 6.65480804e+01 6.53381119e+01 6.53381119e+01 6.41713638e+01 6.41713638e+01 6.30455475e+01 5.79612312e+01 5.52860985e+01 5.44484291e+01 5.20811043e+01 5.36357651e+01 5.20811043e+01 5.20811043e+01 5.13370895e+01 5.13370895e+01 5.13370895e+01 5.13370895e+01 5.06140327e+01 0. 4.79146156e+01 4.79146156e+01 4.60717468e+01 4.43653870e+01 4.43653870e+01 4.38243446e+01 4.38243446e+01 4.32963409e+01 4.32963409e+01 4.22776031e+01 4.22776031e+01 4.13057060e+01 4.08363228e+01 3.99288483e+01 3.99288483e+01 3.86408195e+01 3.74332962e+01 3.52313347e+01 3.45538101e+01 3.45538101e+01 3.42247276e+01 3.42247276e+01 3.35850105e+01 3.32740402e+01 3.35850105e+01 3.32740402e+01 3.29687729e+01 3.32740402e+01 3.29687729e+01 3.29687729e+01 3.26690559e+01 3.29687729e+01 3.26690559e+01 3.20856819e+01 3.18017368e+01 3.23747406e+01 3.15227737e+01 3.01982880e+01 2.96991425e+01 2.96991425e+01 2.76430492e+01 2.64235020e+01 2.64235020e+01 2.62306290e+01 2.62306290e+01 0. 2.62306290e+01 2.62306290e+01 2.60405521e+01 2.60405521e+01 2.62306290e+01 2.60405521e+01 2.58532104e+01 2.58532104e+01 2.58532104e+01 2.47834225e+01 2.44462337e+01 2.44462337e+01 2.44462337e+01 2.42810555e+01 2.39573078e+01 2.37986507e+01 2.36420803e+01 2.34875584e+01 2.36420803e+01 2.34875584e+01 2.33350410e+01 2.31844921e+01 2.31844921e+01 2.30358734e+01 2.30358734e+01 2.24599762e+01 2.20466022e+01 2.16481705e+01 2.15185413e+01 2.11388016e+01 2.08930016e+01 0. 2.07722321e+01 0. 2.04181614e+01 2.01887436e+01 2.01887436e+01 1.99644241e+01 1.98541241e+01 1.97450352e+01 1.96371384e+01 1.94248447e+01 1.93204098e+01 1.91148739e+01 1.90137367e+01
    0. 0. 0. 0. 0. 0. 0. 0. 0. 0. 0. 0. 0. 0. 0. 0. 0. 0. 0. 0. 0. 0. 0. 0. 0. 0. 0. 0. 0. 0. 0. 0. 0. 0. 0. 0. 0. 0. 0. 0. 0. 0. 0. 0. 0. 0. 0. 0. 0. 0. 0. 6.30455475e+01 6.41713638e+01 6.53381119e+01 6.53381119e+01 6.65480804e+01 6.65480804e+01 6.91076202e+01 6.78037033e+01 7.04626694e+01 7.04626694e+01 7.18719254e+01 7.18719254e+01 7.33386993e+01 7.33386993e+01 7.48665924e+01 7.33386993e+01 7.64594955e+01 7.33386993e+01 7.81216583e+01 7.64594955e+01 7.81216583e+01 7.98576965e+01 7.81216583e+01 8.16726456e+01 6.91076202e+01 8.16726456e+01 7.18719254e+01 7.98576965e+01 8.16726456e+01 8.35720062e+01 8.35720062e+01 8.35720062e+01 8.35720062e+01 8.55618134e+01 8.35720062e+01 9.71242218e+01 8.98399048e+01 1.38215240e+02 8.76486893e+01 8.98399048e+01 9.45683212e+01 1.02674179e+02 9.98221207e+01 9.98221207e+01 1.02674179e+02 1.02674179e+02 9.98221207e+01 1.02674179e+02 9.98221207e+01 1.02674179e+02 1.05694008e+02 1.05694008e+02 1.08896858e+02 1.12299881e+02 1.08896858e+02 1.12299881e+02 1.15922462e+02 1.19786545e+02 1.19786545e+02 1.23917114e+02 1.23917114e+02 1.28342728e+02 1.28342728e+02 1.38215240e+02 1.43743851e+02 1.43743851e+02 1.43743851e+02 1.56243317e+02 1.56243317e+02 1.63345291e+02 1.63345291e+02 1.63345291e+02 1.99644241e+02 1.89136642e+02 1.99644241e+02 2.56685455e+02 1.99644241e+02 1.89136642e+02 1.79679810e+02 1.89136642e+02 3.59359619e+02 0. 0. 0. 0. 0. 0. 0. 0. 0. 0. 0. 0. 0. 0. 0. 0. 0. 0. 0. 0. 0. 0. 0. 0. 0. 0. 0. 3.99288483e+02 0. 0. 0. 0. 3.99288483e+02 3.59359619e+02 0. 0. 0. 0. 0. 0. 0. 0. 0. 0. 0. 0. 0. 0. 0. 0. 0. 0. 0. 9.45683212e+01 9.71242218e+01 9.98221207e+01 9.71242218e+01 9.45683212e+01 9.45683212e+01 9.45683212e+01 9.45683212e+01 9.45683212e+01 8.98399048e+01 8.35720062e+01 7.98576965e+01 7.64594955e+01 7.33386993e+01 7.04626694e+01 6.78037033e+01 6.78037033e+01 6.78037033e+01 6.65480804e+01 6.53381119e+01 6.53381119e+01 6.53381119e+01 6.53381119e+01 6.41713638e+01 5.89114151e+01 5.52860985e+01 5.52860985e+01 5.20811043e+01 5.36357651e+01 5.20811043e+01 5.20811043e+01 5.13370895e+01 5.13370895e+01 5.13370895e+01 5.13370895e+01 5.06140327e+01 0. 4.79146156e+01 4.79146156e+01 4.60717468e+01 4.49199524e+01 4.49199524e+01 4.43653870e+01 4.43653870e+01 4.38243446e+01 4.38243446e+01 4.27809067e+01 4.27809067e+01 4.17860031e+01 4.08363228e+01 4.03774872e+01 3.99288483e+01 3.86408195e+01 3.74332962e+01 3.52313347e+01 3.45538101e+01 3.45538101e+01 3.42247276e+01 3.42247276e+01 3.35850105e+01 3.29687729e+01 3.32740402e+01 3.32740402e+01 3.26690559e+01 3.32740402e+01 3.26690559e+01 3.26690559e+01 3.23747406e+01 3.29687729e+01 3.29687729e+01 3.20856819e+01 3.18017368e+01 3.20856819e+01 3.12486629e+01 3.01982880e+01 2.96991425e+01 2.96991425e+01 2.78573360e+01 0. 2.66192322e+01 2.64235020e+01 0. 0. 2.62306290e+01 0. 0. 2.60405521e+01 2.62306290e+01 2.60405521e+01 2.60405521e+01 2.58532104e+01 2.56685448e+01 2.46136723e+01 2.44462337e+01 2.44462337e+01 2.44462337e+01 2.42810555e+01 2.41180954e+01 2.37986507e+01 2.37986507e+01 2.37986507e+01 2.37986507e+01 2.34875584e+01 2.33350410e+01 2.31844921e+01 2.30358734e+01 2.30358734e+01 2.28891487e+01 2.21826935e+01 2.20466022e+01 2.15185413e+01 0. 2.11388016e+01 2.08930016e+01 2.07722321e+01 2.06528530e+01 2.04181614e+01 2.04181614e+01 2.01887436e+01 2.01887436e+01 2.00759563e+01 1.98541241e+01 1.97450352e+01 1.96371384e+01 1.95304146e+01 1.94248447e+01 1.91148739e+01 1.90137367e+01
    0. 0. 0. 0. 0. 0. 0. 0. 0. 0. 0. 0. 0. 0. 0. 0. 0. 0. 0. 0. 0. 0. 0. 0. 0. 0. 0. 0. 0. 0. 0. 0. 0. 0. 0. 0. 0. 0. 0. 0. 0. 0. 0. 0. 0. 0. 0. 0. 0. 0. 0. 6.30455475e+01 6.41713638e+01 6.53381119e+01 6.65480804e+01 6.65480804e+01 6.65480804e+01 6.91076202e+01 6.91076202e+01 7.04626694e+01 7.04626694e+01 7.18719254e+01 7.33386993e+01 7.33386993e+01 7.33386993e+01 7.48665924e+01 7.33386993e+01 7.64594955e+01 7.48665924e+01 7.81216583e+01 7.64594955e+01 7.64594955e+01 7.81216583e+01 7.64594955e+01 8.16726456e+01 6.91076202e+01 8.16726456e+01 7.18719254e+01 7.98576965e+01 7.98576965e+01 8.16726456e+01 8.35720062e+01 8.35720062e+01 8.35720062e+01 8.55618134e+01 8.35720062e+01 9.71242218e+01 8.98399048e+01 1.33096161e+02 8.76486893e+01 0. 9.21434937e+01 9.98221207e+01 1.02674179e+02 9.98221207e+01 1.02674179e+02 1.02674179e+02 1.02674179e+02 1.02674179e+02 1.02674179e+02 1.02674179e+02 1.05694008e+02 1.05694008e+02 1.08896858e+02 1.12299881e+02 1.08896858e+02 1.12299881e+02 1.15922462e+02 1.19786545e+02 1.19786545e+02 1.19786545e+02 1.23917114e+02 1.28342728e+02 1.28342728e+02 1.33096161e+02 1.43743851e+02 1.43743851e+02 1.43743851e+02 1.56243317e+02 1.56243317e+02 1.63345291e+02 1.63345291e+02 1.63345291e+02 1.99644241e+02 1.79679810e+02 2.11388016e+02 2.56685455e+02 1.89136642e+02 1.79679810e+02 1.79679810e+02 1.89136642e+02 3.59359619e+02 0. 0. 0. 0. 0. 0. 0. 0. 0. 0. 0. 0. 0. 0. 0. 0. 0. 0. 0. 0. 0. 0. 0. 0. 0. 0. 0. 0. 0. 0. 0. 0. 3.59359619e+02 3.26690582e+02 0. 0. 0. 0. 0. 0. 0. 0. 0. 0. 0. 0. 0. 0. 0. 0. 0. 0. 0. 9.21434937e+01 9.71242218e+01 9.71242218e+01 9.21434937e+01 9.21434937e+01 9.21434937e+01 9.21434937e+01 9.21434937e+01 9.21434937e+01 8.55618134e+01 8.16726456e+01 7.98576965e+01 7.64594955e+01 7.33386993e+01 7.04626694e+01 6.91076202e+01 6.78037033e+01 6.78037033e+01 6.78037033e+01 6.65480804e+01 6.53381119e+01 6.65480804e+01 6.65480804e+01 6.53381119e+01 5.98932724e+01 5.44484291e+01 5.61499405e+01 5.20811043e+01 5.36357651e+01 5.13370895e+01 5.13370895e+01 5.13370895e+01 5.06140327e+01 5.06140327e+01 5.13370895e+01 5.06140327e+01 0. 4.79146156e+01 4.79146156e+01 4.60717468e+01 4.49199524e+01 4.54885597e+01 4.49199524e+01 4.49199524e+01 4.43653870e+01 4.38243446e+01 4.32963409e+01 4.27809067e+01 4.13057060e+01 4.03774872e+01 3.99288483e+01 3.94900703e+01 3.78273277e+01 3.74332962e+01 3.55801620e+01 3.45538101e+01 3.42247276e+01 3.42247276e+01 3.42247276e+01 3.35850105e+01 3.29687729e+01 3.29687729e+01 3.29687729e+01 3.26690559e+01 3.32740402e+01 3.26690559e+01 3.26690559e+01 3.23747406e+01 3.26690559e+01 3.29687729e+01 3.18017368e+01 3.18017368e+01 3.20856819e+01 3.12486629e+01 2.99466362e+01 2.96991425e+01 2.96991425e+01 2.78573360e+01 0. 2.66192322e+01 2.66192322e+01 0. 2.64235020e+01 2.64235020e+01 0. 0. 2.62306290e+01 2.64235020e+01 2.60405521e+01 2.60405521e+01 2.58532104e+01 2.56685448e+01 2.46136723e+01 2.44462337e+01 2.44462337e+01 2.46136723e+01 2.44462337e+01 2.42810555e+01 2.41180954e+01 2.41180954e+01 2.39573078e+01 2.41180954e+01 2.37986507e+01 0. 0. 2.30358734e+01 2.30358734e+01 2.27442799e+01 2.20466022e+01 2.19121723e+01 0. 0. 2.10151825e+01 2.08930016e+01 2.07722321e+01 2.06528530e+01 2.04181614e+01 2.04181614e+01 2.01887436e+01 2.01887436e+01 2.00759563e+01 1.98541241e+01 1.97450352e+01 1.96371384e+01 1.95304146e+01 1.94248447e+01 1.92170925e+01 1.90137367e+01
    0. 0. 0. 0. 0. 0. 0. 0. 0. 0. 0. 0. 0. 0. 0. 0. 0. 0. 0. 0. 0. 0. 0. 0. 0. 0. 0. 0. 0. 0. 0. 0. 0. 0. 0. 0. 0. 0. 0. 0. 0. 0. 0. 0. 0. 0. 0. 0. 0. 0. 0. 6.30455475e+01 6.41713638e+01 6.53381119e+01 6.65480804e+01 6.78037033e+01 6.65480804e+01 6.91076202e+01 6.91076202e+01 7.04626694e+01 7.04626694e+01 7.18719254e+01 7.18719254e+01 7.18719254e+01 7.33386993e+01 7.33386993e+01 7.33386993e+01 7.64594955e+01 7.33386993e+01 7.64594955e+01 7.48665924e+01 7.48665924e+01 7.81216583e+01 7.64594955e+01 8.16726456e+01 6.91076202e+01 8.16726456e+01 7.18719254e+01 7.98576965e+01 7.98576965e+01 8.16726456e+01 8.35720062e+01 8.35720062e+01 8.35720062e+01 8.55618134e+01 8.35720062e+01 9.71242218e+01 8.98399048e+01 1.33096161e+02 8.76486893e+01 0. 9.21434937e+01 9.71242218e+01 9.98221207e+01 1.02674179e+02 1.02674179e+02 1.02674179e+02 1.02674179e+02 1.02674179e+02 1.02674179e+02 1.02674179e+02 1.05694008e+02 1.08896858e+02 1.08896858e+02 1.12299881e+02 1.12299881e+02 1.12299881e+02 1.15922462e+02 1.19786545e+02 1.19786545e+02 1.19786545e+02 1.23917114e+02 1.28342728e+02 1.28342728e+02 1.33096161e+02 1.43743851e+02 1.43743851e+02 1.49733185e+02 1.56243317e+02 1.63345291e+02 1.63345291e+02 1.71123627e+02 1.63345291e+02 1.89136642e+02 1.79679810e+02 1.99644241e+02 2.56685455e+02 1.79679810e+02 1.79679810e+02 1.79679810e+02 1.89136642e+02 3.99288483e+02 0. 0. 0. 0. 0. 0. 0. 0. 0. 0. 0. 0. 0. 0. 0. 0. 0. 0. 0. 0. 0. 0. 0. 0. 0. 0. 0. 0. 0. 3.99288483e+02 3.99288483e+02 3.59359619e+02 3.26690582e+02 2.76430481e+02 3.99288483e+02 0. 0. 0. 0. 0. 0. 0. 0. 0. 0. 0. 0. 0. 0. 0. 0. 0. 0. 9.45683212e+01 9.71242218e+01 9.71242218e+01 9.45683212e+01 9.45683212e+01 9.21434937e+01 9.21434937e+01 9.21434937e+01 8.98399048e+01 8.55618134e+01 7.98576965e+01 7.81216583e+01 7.64594955e+01 7.33386993e+01 7.18719254e+01 7.04626694e+01 6.91076202e+01 6.91076202e+01 6.78037033e+01 6.65480804e+01 6.65480804e+01 6.65480804e+01 6.65480804e+01 6.53381119e+01 5.98932724e+01 5.44484291e+01 5.61499405e+01 5.20811043e+01 5.36357651e+01 5.13370895e+01 5.13370895e+01 5.13370895e+01 5.06140327e+01 5.06140327e+01 5.13370895e+01 4.99110603e+01 0. 4.79146156e+01 4.79146156e+01 4.60717468e+01 4.54885597e+01 4.54885597e+01 4.54885597e+01 4.49199524e+01 4.43653870e+01 4.43653870e+01 4.32963409e+01 4.27809067e+01 4.17860031e+01 4.08363228e+01 3.99288483e+01 3.90608292e+01 3.82297478e+01 3.78273277e+01 3.55801620e+01 3.42247276e+01 3.42247276e+01 3.42247276e+01 3.42247276e+01 3.35850105e+01 3.26690559e+01 3.29687729e+01 3.29687729e+01 3.26690559e+01 3.32740402e+01 3.26690559e+01 3.26690559e+01 3.23747406e+01 3.23747406e+01 3.29687729e+01 3.18017368e+01 3.18017368e+01 3.18017368e+01 3.12486629e+01 2.99466362e+01 2.96991425e+01 2.96991425e+01 2.80749702e+01 0. 2.68178825e+01 2.66192322e+01 0. 0. 0. 0. 0. 0. 2.64235020e+01 2.62306290e+01 2.60405521e+01 2.58532104e+01 2.56685448e+01 2.46136723e+01 2.46136723e+01 2.44462337e+01 2.46136723e+01 2.44462337e+01 2.42810555e+01 2.41180954e+01 2.42810555e+01 2.41180954e+01 2.42810555e+01 0. 0. 0. 0. 2.30358734e+01 2.24599762e+01 2.19121723e+01 2.17793713e+01 0. 0. 2.10151825e+01 2.08930016e+01 2.07722321e+01 2.07722321e+01 2.05348358e+01 2.05348358e+01 2.01887436e+01 2.01887436e+01 2.00759563e+01 1.98541241e+01 1.98541241e+01 1.97450352e+01 1.95304146e+01 1.94248447e+01 1.92170925e+01 1.90137367e+01
    0. 0. 0. 0. 0. 0. 0. 0. 0. 0. 0. 0. 0. 0. 0. 0. 0. 0. 0. 0. 0. 0. 0. 0. 0. 0. 0. 0. 0. 0. 0. 0. 0. 0. 0. 0. 0. 0. 0. 0. 0. 0. 0. 0. 0. 0. 0. 0. 0. 0. 0. 6.41713638e+01 6.41713638e+01 6.53381119e+01 6.65480804e+01 6.78037033e+01 6.78037033e+01 6.91076202e+01 6.91076202e+01 7.04626694e+01 7.04626694e+01 7.18719254e+01 7.18719254e+01 7.18719254e+01 7.18719254e+01 7.33386993e+01 7.33386993e+01 7.48665924e+01 7.33386993e+01 7.64594955e+01 7.48665924e+01 7.48665924e+01 7.81216583e+01 7.64594955e+01 8.16726456e+01 6.91076202e+01 8.16726456e+01 7.18719254e+01 7.98576965e+01 7.98576965e+01 8.16726456e+01 8.35720062e+01 8.35720062e+01 8.35720062e+01 8.55618134e+01 8.35720062e+01 9.71242218e+01 9.21434937e+01 1.33096161e+02 0. 0. 9.45683212e+01 9.71242218e+01 9.98221207e+01 1.02674179e+02 1.05694008e+02 1.02674179e+02 1.05694008e+02 1.05694008e+02 1.02674179e+02 1.02674179e+02 1.05694008e+02 1.08896858e+02 1.08896858e+02 1.12299881e+02 1.12299881e+02 1.12299881e+02 1.15922462e+02 1.19786545e+02 1.19786545e+02 1.19786545e+02 1.23917114e+02 1.28342728e+02 1.28342728e+02 1.33096161e+02 1.43743851e+02 1.43743851e+02 1.49733185e+02 1.63345291e+02 1.63345291e+02 1.71123627e+02 1.71123627e+02 1.63345291e+02 1.89136642e+02 1.79679810e+02 1.99644241e+02 2.56685455e+02 1.79679810e+02 1.79679810e+02 1.79679810e+02 1.79679810e+02 3.99288483e+02 0. 0. 0. 0. 0. 0. 0. 0. 0. 0. 0. 0. 0. 0. 0. 0. 0. 0. 0. 0. 0. 0. 0. 0. 0. 0. 0. 0. 0. 3.99288483e+02 3.99288483e+02 3.26690582e+02 3.26690582e+02 2.76430481e+02 3.99288483e+02 0. 3.59359619e+02 0. 0. 0. 0. 0. 0. 0. 0. 0. 0. 0. 0. 0. 0. 0. 0. 9.71242218e+01 9.98221207e+01 9.71242218e+01 9.45683212e+01 9.45683212e+01 9.45683212e+01 9.21434937e+01 9.21434937e+01 8.76486893e+01 8.35720062e+01 7.81216583e+01 7.81216583e+01 7.64594955e+01 7.33386993e+01 7.33386993e+01 7.04626694e+01 6.91076202e+01 7.04626694e+01 6.91076202e+01 6.78037033e+01 6.78037033e+01 6.78037033e+01 6.91076202e+01 6.65480804e+01 6.19585571e+01 5.52860985e+01 5.70412102e+01 5.20811043e+01 5.36357651e+01 5.13370895e+01 5.13370895e+01 5.13370895e+01 5.06140327e+01 5.06140327e+01 5.13370895e+01 4.99110603e+01 4.99110603e+01 4.79146156e+01 4.79146156e+01 4.60717468e+01 4.54885597e+01 4.60717468e+01 4.60717468e+01 4.49199524e+01 4.49199524e+01 4.43653870e+01 4.32963409e+01 4.32963409e+01 4.22776031e+01 4.08363228e+01 3.99288483e+01 3.90608292e+01 3.86408195e+01 3.78273277e+01 3.55801620e+01 3.45538101e+01 3.45538101e+01 3.42247276e+01 3.42247276e+01 3.39018517e+01 3.26690559e+01 3.29687729e+01 3.29687729e+01 3.26690559e+01 3.32740402e+01 3.26690559e+01 3.23747406e+01 3.23747406e+01 3.23747406e+01 3.29687729e+01 3.15227737e+01 3.15227737e+01 3.15227737e+01 3.09792786e+01 2.96991425e+01 2.96991425e+01 2.96991425e+01 2.80749702e+01 0. 2.68178825e+01 2.68178825e+01 0. 0. 0. 0. 0. 0. 0. 2.60405521e+01 2.58532104e+01 2.56685448e+01 2.56685448e+01 2.47834225e+01 2.46136723e+01 2.46136723e+01 2.47834225e+01 2.44462337e+01 2.44462337e+01 2.42810555e+01 2.44462337e+01 2.42810555e+01 2.42810555e+01 2.42810555e+01 2.47834225e+01 0. 0. 2.28891487e+01 2.19121723e+01 2.16481705e+01 2.15185413e+01 0. 2.10151825e+01 2.10151825e+01 2.08930016e+01 2.07722321e+01 2.07722321e+01 2.05348358e+01 2.05348358e+01 2.03028030e+01 2.03028030e+01 2.00759563e+01 1.99644241e+01 1.98541241e+01 1.97450352e+01 1.95304146e+01 1.94248447e+01 1.91148739e+01 1.90137367e+01
    0. 0. 0. 0. 0. 0. 0. 0. 0. 0. 0. 0. 0. 0. 0. 0. 0. 0. 0. 0. 0. 0. 0. 0. 0. 0. 0. 0. 0. 0. 0. 0. 0. 0. 0. 0. 0. 0. 0. 0. 0. 0. 0. 0. 0. 0. 0. 0. 0. 0. 0. 6.53381119e+01 6.53381119e+01 6.53381119e+01 6.65480804e+01 6.78037033e+01 6.78037033e+01 6.91076202e+01 6.91076202e+01 7.04626694e+01 7.04626694e+01 7.04626694e+01 7.18719254e+01 7.18719254e+01 7.18719254e+01 7.18719254e+01 7.18719254e+01 7.48665924e+01 7.33386993e+01 7.48665924e+01 7.48665924e+01 7.48665924e+01 7.64594955e+01 7.64594955e+01 7.98576965e+01 6.91076202e+01 8.16726456e+01 7.18719254e+01 7.98576965e+01 7.98576965e+01 8.16726456e+01 8.35720062e+01 8.35720062e+01 8.35720062e+01 8.55618134e+01 8.35720062e+01 9.71242218e+01 9.21434937e+01 1.38215240e+02 0. 1.49733185e+02 9.71242218e+01 1.05694008e+02 9.98221207e+01 1.02674179e+02 1.05694008e+02 1.05694008e+02 1.05694008e+02 1.05694008e+02 1.05694008e+02 1.02674179e+02 1.05694008e+02 1.12299881e+02 1.08896858e+02 1.12299881e+02 1.12299881e+02 1.12299881e+02 1.15922462e+02 1.19786545e+02 1.19786545e+02 1.23917114e+02 1.23917114e+02 1.28342728e+02 1.28342728e+02 1.33096161e+02 1.43743851e+02 1.43743851e+02 0. 1.63345291e+02 1.63345291e+02 1.63345291e+02 1.71123627e+02 1.63345291e+02 1.79679810e+02 1.79679810e+02 1.99644241e+02 2.56685455e+02 1.79679810e+02 1.71123627e+02 1.71123627e+02 1.79679810e+02 0. 0. 0. 0. 0. 0. 0. 0. 0. 0. 0. 0. 0. 0. 0. 0. 0. 0. 0. 0. 0. 0. 0. 0. 0. 0. 0. 0. 0. 0. 0. 0. 2.99466370e+02 2.56685455e+02 2.56685455e+02 2.99466370e+02 4.49199524e+02 0. 0. 0. 0. 0. 0. 0. 0. 0. 0. 0. 0. 0. 0. 0. 0. 9.21434937e+01 9.71242218e+01 9.71242218e+01 9.45683212e+01 9.45683212e+01 9.45683212e+01 9.21434937e+01 9.21434937e+01 9.21434937e+01 8.55618134e+01 8.16726456e+01 7.64594955e+01 7.64594955e+01 7.64594955e+01 7.33386993e+01 7.33386993e+01 7.18719254e+01 6.91076202e+01 7.18719254e+01 6.91076202e+01 6.91076202e+01 6.91076202e+01 6.91076202e+01 6.91076202e+01 6.65480804e+01 6.41713638e+01 5.52860985e+01 5.79612312e+01 5.20811043e+01 5.36357651e+01 5.13370895e+01 5.20811043e+01 5.13370895e+01 5.06140327e+01 5.06140327e+01 5.13370895e+01 4.99110603e+01 4.99110603e+01 4.79146156e+01 4.79146156e+01 4.60717468e+01 4.54885597e+01 4.66700821e+01 4.60717468e+01 4.54885597e+01 4.49199524e+01 4.49199524e+01 4.32963409e+01 4.32963409e+01 4.17860031e+01 4.03774872e+01 3.94900703e+01 3.90608292e+01 3.82297478e+01 3.78273277e+01 3.55801620e+01 3.45538101e+01 3.45538101e+01 3.42247276e+01 3.42247276e+01 3.39018517e+01 3.23747406e+01 3.29687729e+01 3.29687729e+01 3.26690559e+01 3.32740402e+01 3.26690559e+01 3.23747406e+01 3.20856819e+01 3.23747406e+01 3.32740402e+01 3.18017368e+01 3.15227737e+01 3.15227737e+01 3.09792786e+01 2.96991425e+01 2.96991425e+01 2.96991425e+01 2.80749702e+01 0. 2.68178825e+01 2.68178825e+01 0. 0. 0. 0. 0. 2.60405521e+01 0. 2.60405521e+01 2.58532104e+01 2.56685448e+01 2.56685448e+01 2.49555302e+01 2.49555302e+01 2.47834225e+01 2.51300430e+01 2.47834225e+01 2.47834225e+01 2.46136723e+01 2.49555302e+01 2.46136723e+01 2.46136723e+01 2.46136723e+01 0. 0. 0. 2.26012344e+01 2.16481705e+01 2.13904533e+01 0. 0. 2.08930016e+01 2.10151825e+01 2.08930016e+01 2.08930016e+01 2.07722321e+01 2.06528530e+01 2.06528530e+01 2.03028030e+01 2.03028030e+01 2.01887436e+01 1.99644241e+01 1.98541241e+01 1.96371384e+01 1.95304146e+01 1.93204098e+01 1.91148739e+01 1.89136639e+01
    0. 0. 0. 0. 0. 0. 0. 0. 0. 0. 0. 0. 0. 0. 0. 0. 0. 0. 0. 0. 0. 0. 0. 0. 0. 0. 0. 0. 0. 0. 0. 0. 0. 0. 0. 0. 0. 0. 0. 0. 0. 0. 0. 0. 0. 0. 0. 0. 0. 0. 0. 6.53381119e+01 6.53381119e+01 6.53381119e+01 6.65480804e+01 6.78037033e+01 6.65480804e+01 6.91076202e+01 6.91076202e+01 7.04626694e+01 7.04626694e+01 7.04626694e+01 7.04626694e+01 7.04626694e+01 7.18719254e+01 7.18719254e+01 7.18719254e+01 7.33386993e+01 7.33386993e+01 7.48665924e+01 7.48665924e+01 7.48665924e+01 7.64594955e+01 7.64594955e+01 7.98576965e+01 6.91076202e+01 8.16726456e+01 7.18719254e+01 7.98576965e+01 7.98576965e+01 8.16726456e+01 8.35720062e+01 8.35720062e+01 8.35720062e+01 8.55618134e+01 8.35720062e+01 9.71242218e+01 9.21434937e+01 1.33096161e+02 8.98399048e+01 1.12299881e+02 9.98221207e+01 0. 1.02674179e+02 1.02674179e+02 1.08896858e+02 1.05694008e+02 1.05694008e+02 1.08896858e+02 1.05694008e+02 1.05694008e+02 1.05694008e+02 1.12299881e+02 1.08896858e+02 1.15922462e+02 1.15922462e+02 1.12299881e+02 1.15922462e+02 1.19786545e+02 1.19786545e+02 1.23917114e+02 1.23917114e+02 1.28342728e+02 1.28342728e+02 1.33096161e+02 1.43743851e+02 1.38215240e+02 0. 1.63345291e+02 1.63345291e+02 1.71123627e+02 1.71123627e+02 1.63345291e+02 1.79679810e+02 1.71123627e+02 1.99644241e+02 2.56685455e+02 1.71123627e+02 1.71123627e+02 1.71123627e+02 1.79679810e+02 0. 0. 0. 0. 0. 0. 0. 0. 0. 0. 0. 0. 0. 0. 0. 0. 0. 0. 0. 0. 0. 0. 0. 0. 0. 0. 0. 0. 0. 0. 0. 0. 0. 0. 0. 0. 0. 0. 0. 0. 0. 0. 0. 0. 0. 0. 0. 0. 0. 0. 0. 0. 0. 8.98399048e+01 9.71242218e+01 9.45683212e+01 9.21434937e+01 9.21434937e+01 9.21434937e+01 8.98399048e+01 8.98399048e+01 8.98399048e+01 8.35720062e+01 7.98576965e+01 7.48665924e+01 7.64594955e+01 7.48665924e+01 7.33386993e+01 7.33386993e+01 7.18719254e+01 6.91076202e+01 7.18719254e+01 6.91076202e+01 7.04626694e+01 6.91076202e+01 6.91076202e+01 0. 6.65480804e+01 6.41713638e+01 5.70412102e+01 5.79612312e+01 5.28470039e+01 5.36357651e+01 5.13370895e+01 5.20811043e+01 5.20811043e+01 5.13370895e+01 5.13370895e+01 5.20811043e+01 5.06140327e+01 5.06140327e+01 4.85621109e+01 4.85621109e+01 4.66700821e+01 4.60717468e+01 4.72841606e+01 4.60717468e+01 4.49199524e+01 4.49199524e+01 4.43653870e+01 4.32963409e+01 4.27809067e+01 4.08363228e+01 3.99288483e+01 3.94900703e+01 3.90608292e+01 3.82297478e+01 3.78273277e+01 3.55801620e+01 3.45538101e+01 3.45538101e+01 3.42247276e+01 3.42247276e+01 3.39018517e+01 3.23747406e+01 3.29687729e+01 3.29687729e+01 3.26690559e+01 3.29687729e+01 3.26690559e+01 3.23747406e+01 3.23747406e+01 3.23747406e+01 3.32740402e+01 3.20856819e+01 3.20856819e+01 3.18017368e+01 3.12486629e+01 2.99466362e+01 2.96991425e+01 2.96991425e+01 2.80749702e+01 0. 2.68178825e+01 2.68178825e+01 0. 0. 0. 0. 0. 2.60405521e+01 0. 2.58532104e+01 2.58532104e+01 2.54864979e+01 2.56685448e+01 2.51300430e+01 2.51300430e+01 2.49555302e+01 2.53070164e+01 2.49555302e+01 2.49555302e+01 2.49555302e+01 2.54864979e+01 2.51300430e+01 2.51300430e+01 2.47834225e+01 0. 0. 0. 0. 0. 0. 0. 0. 2.08930016e+01 2.10151825e+01 2.08930016e+01 2.08930016e+01 2.08930016e+01 2.06528530e+01 2.06528530e+01 2.04181614e+01 2.03028030e+01 2.01887436e+01 1.99644241e+01 1.97450352e+01 1.96371384e+01 1.94248447e+01 1.93204098e+01 1.90137367e+01 1.88146400e+01
    0. 0. 0. 0. 0. 0. 0. 0. 0. 0. 0. 0. 0. 0. 0. 0. 0. 0. 0. 0. 0. 0. 0. 0. 0. 0. 0. 0. 0. 0. 0. 0. 0. 0. 0. 0. 0. 0. 0. 0. 0. 0. 0. 0. 0. 0. 0. 0. 0. 0. 0. 6.41713638e+01 6.41713638e+01 6.41713638e+01 6.53381119e+01 6.53381119e+01 6.53381119e+01 6.65480804e+01 6.65480804e+01 6.91076202e+01 6.91076202e+01 6.91076202e+01 7.04626694e+01 7.04626694e+01 7.04626694e+01 7.04626694e+01 7.18719254e+01 7.18719254e+01 7.33386993e+01 7.33386993e+01 7.48665924e+01 7.48665924e+01 7.64594955e+01 7.64594955e+01 7.98576965e+01 6.91076202e+01 8.16726456e+01 7.18719254e+01 7.98576965e+01 7.98576965e+01 8.16726456e+01 8.35720062e+01 8.35720062e+01 8.35720062e+01 8.55618134e+01 8.35720062e+01 9.45683212e+01 9.21434937e+01 1.33096161e+02 1.02674179e+02 1.08896858e+02 1.02674179e+02 0. 0. 1.02674179e+02 1.05694008e+02 1.08896858e+02 1.08896858e+02 1.08896858e+02 1.08896858e+02 1.05694008e+02 1.08896858e+02 1.08896858e+02 1.08896858e+02 1.12299881e+02 1.15922462e+02 1.12299881e+02 1.15922462e+02 1.19786545e+02 1.19786545e+02 1.23917114e+02 1.23917114e+02 1.28342728e+02 1.28342728e+02 1.33096161e+02 1.43743851e+02 1.38215240e+02 0. 1.63345291e+02 1.63345291e+02 1.63345291e+02 1.63345291e+02 1.56243317e+02 1.79679810e+02 1.71123627e+02 1.89136642e+02 2.39573090e+02 1.71123627e+02 1.71123627e+02 1.71123627e+02 1.79679810e+02 0. 0. 0. 0. 0. 0. 0. 0. 0. 0. 0. 0. 0. 0. 0. 0. 0. 0. 0. 0. 0. 0. 0. 0. 0. 0. 0. 0. 0. 0. 0. 0. 0. 0. 0. 0. 0. 0. 0. 0. 0. 0. 0. 0. 0. 0. 0. 0. 0. 0. 0. 0. 0. 8.98399048e+01 9.45683212e+01 9.45683212e+01 9.21434937e+01 9.21434937e+01 9.45683212e+01 8.98399048e+01 8.98399048e+01 8.98399048e+01 8.16726456e+01 7.98576965e+01 7.48665924e+01 7.64594955e+01 7.33386993e+01 7.33386993e+01 7.33386993e+01 7.18719254e+01 6.91076202e+01 7.18719254e+01 6.91076202e+01 7.18719254e+01 6.91076202e+01 7.04626694e+01 0. 6.78037033e+01 6.53381119e+01 5.98932724e+01 5.89114151e+01 5.28470039e+01 5.44484291e+01 5.20811043e+01 5.28470039e+01 5.20811043e+01 5.13370895e+01 5.13370895e+01 5.20811043e+01 5.06140327e+01 5.06140327e+01 4.85621109e+01 4.85621109e+01 4.72841606e+01 4.60717468e+01 4.72841606e+01 4.66700821e+01 4.49199524e+01 4.49199524e+01 4.43653870e+01 4.27809067e+01 4.17860031e+01 3.99288483e+01 3.94900703e+01 3.94900703e+01 3.90608292e+01 3.82297478e+01 3.82297478e+01 3.59359627e+01 0. 3.42247276e+01 3.42247276e+01 3.42247276e+01 3.35850105e+01 3.20856819e+01 3.29687729e+01 3.26690559e+01 3.26690559e+01 3.29687729e+01 3.26690559e+01 3.23747406e+01 3.23747406e+01 3.26690559e+01 3.35850105e+01 3.23747406e+01 3.20856819e+01 3.20856819e+01 3.18017368e+01 3.01982880e+01 2.99466362e+01 2.99466362e+01 2.82960339e+01 0. 2.70195217e+01 2.70195217e+01 0. 0. 0. 0. 0. 2.60405521e+01 0. 2.58532104e+01 2.56685448e+01 2.54864979e+01 2.56685448e+01 2.51300430e+01 2.51300430e+01 2.49555302e+01 2.53070164e+01 2.47834225e+01 2.47834225e+01 2.47834225e+01 2.54864979e+01 2.53070164e+01 2.51300430e+01 2.46136723e+01 0. 0. 0. 2.16481705e+01 0. 0. 0. 2.11388016e+01 2.10151825e+01 2.10151825e+01 2.08930016e+01 2.08930016e+01 2.08930016e+01 2.06528530e+01 2.06528530e+01 2.04181614e+01 2.03028030e+01 2.00759563e+01 1.99644241e+01 1.97450352e+01 1.95304146e+01 1.94248447e+01 1.92170925e+01 1.90137367e+01 1.88146400e+01
    0. 0. 0. 0. 0. 0. 0. 0. 0. 0. 0. 0. 0. 0. 0. 0. 0. 0. 0. 0. 0. 0. 0. 0. 0. 0. 0. 0. 0. 0. 0. 0. 0. 0. 0. 0. 0. 0. 0. 0. 0. 0. 0. 0. 0. 0. 0. 0. 0. 0. 0. 6.41713638e+01 6.41713638e+01 6.41713638e+01 6.41713638e+01 6.41713638e+01 6.41713638e+01 6.53381119e+01 6.53381119e+01 6.65480804e+01 6.91076202e+01 6.91076202e+01 7.04626694e+01 7.04626694e+01 7.04626694e+01 7.04626694e+01 7.18719254e+01 7.33386993e+01 7.48665924e+01 7.48665924e+01 7.64594955e+01 7.64594955e+01 7.64594955e+01 7.64594955e+01 8.16726456e+01 6.91076202e+01 8.35720062e+01 7.18719254e+01 7.98576965e+01 7.98576965e+01 8.16726456e+01 8.35720062e+01 8.35720062e+01 8.16726456e+01 8.55618134e+01 8.16726456e+01 9.45683212e+01 9.21434937e+01 0. 1.02674179e+02 9.45683212e+01 9.98221207e+01 0. 0. 0. 1.02674179e+02 1.05694008e+02 1.08896858e+02 1.12299881e+02 1.08896858e+02 1.05694008e+02 1.08896858e+02 1.08896858e+02 1.08896858e+02 1.12299881e+02 1.15922462e+02 1.12299881e+02 1.15922462e+02 1.19786545e+02 1.19786545e+02 1.23917114e+02 1.23917114e+02 1.28342728e+02 1.28342728e+02 1.33096161e+02 1.43743851e+02 1.38215240e+02 1.49733185e+02 1.63345291e+02 1.63345291e+02 1.63345291e+02 1.63345291e+02 1.56243317e+02 1.71123627e+02 1.71123627e+02 1.89136642e+02 2.39573090e+02 1.71123627e+02 1.71123627e+02 1.71123627e+02 1.79679810e+02 0. 0. 0. 0. 0. 0. 0. 0. 0. 0. 0. 0. 0. 0. 0. 0. 0. 0. 0. 0. 0. 0. 0. 0. 0. 0. 0. 0. 0. 0. 0. 0. 0. 0. 0. 0. 0. 0. 0. 0. 0. 0. 0. 0. 0. 0. 0. 0. 0. 0. 0. 0. 0. 9.21434937e+01 9.45683212e+01 9.45683212e+01 9.45683212e+01 9.21434937e+01 9.45683212e+01 8.98399048e+01 8.98399048e+01 8.98399048e+01 7.81216583e+01 7.98576965e+01 7.48665924e+01 7.64594955e+01 7.33386993e+01 7.33386993e+01 7.33386993e+01 7.18719254e+01 6.91076202e+01 7.33386993e+01 7.04626694e+01 7.18719254e+01 7.04626694e+01 7.18719254e+01 0. 6.78037033e+01 6.53381119e+01 5.98932724e+01 5.89114151e+01 5.28470039e+01 5.44484291e+01 5.20811043e+01 5.28470039e+01 5.20811043e+01 5.13370895e+01 5.13370895e+01 5.20811043e+01 5.06140327e+01 5.06140327e+01 4.85621109e+01 4.85621109e+01 4.72841606e+01 4.60717468e+01 4.79146156e+01 4.66700821e+01 4.49199524e+01 4.43653870e+01 4.38243446e+01 4.22776031e+01 4.03774872e+01 3.94900703e+01 3.94900703e+01 3.90608292e+01 3.86408195e+01 3.82297478e+01 3.82297478e+01 3.59359627e+01 0. 3.45538101e+01 3.42247276e+01 3.42247276e+01 3.35850105e+01 3.20856819e+01 3.29687729e+01 3.26690559e+01 3.26690559e+01 3.29687729e+01 3.23747406e+01 3.23747406e+01 3.23747406e+01 3.26690559e+01 3.35850105e+01 3.23747406e+01 3.23747406e+01 3.20856819e+01 3.20856819e+01 3.04542065e+01 3.01982880e+01 3.01982880e+01 2.85206051e+01 0. 2.72242146e+01 2.72242146e+01 2.66192322e+01 0. 2.62306290e+01 2.62306290e+01 2.60405521e+01 2.58532104e+01 0. 2.58532104e+01 2.56685448e+01 2.54864979e+01 2.56685448e+01 2.49555302e+01 2.51300430e+01 2.49555302e+01 2.51300430e+01 2.44462337e+01 2.44462337e+01 2.46136723e+01 2.54864979e+01 2.51300430e+01 2.51300430e+01 2.46136723e+01 0. 2.33350410e+01 2.17793713e+01 2.13904533e+01 2.12638836e+01 2.15185413e+01 2.13904533e+01 2.11388016e+01 2.10151825e+01 2.10151825e+01 2.08930016e+01 2.08930016e+01 2.08930016e+01 2.06528530e+01 2.05348358e+01 2.03028030e+01 2.01887436e+01 2.00759563e+01 1.98541241e+01 1.96371384e+01 1.94248447e+01 1.93204098e+01 1.92170925e+01 1.89136639e+01 1.87166481e+01
    0. 0. 0. 0. 0. 0. 0. 0. 0. 0. 0. 0. 0. 0. 0. 0. 0. 0. 0. 0. 0. 0. 0. 0. 0. 0. 0. 0. 0. 0. 0. 0. 0. 0. 0. 0. 0. 0. 0. 0. 0. 0. 0. 0. 0. 0. 0. 0. 0. 0. 0. 6.53381119e+01 6.53381119e+01 6.41713638e+01 6.30455475e+01 6.19585571e+01 6.19585571e+01 6.19585571e+01 6.41713638e+01 6.53381119e+01 6.78037033e+01 6.78037033e+01 6.91076202e+01 6.91076202e+01 7.04626694e+01 7.04626694e+01 7.33386993e+01 7.33386993e+01 7.64594955e+01 7.48665924e+01 7.81216583e+01 7.64594955e+01 7.81216583e+01 7.64594955e+01 7.98576965e+01 6.91076202e+01 8.16726456e+01 7.04626694e+01 7.98576965e+01 7.98576965e+01 8.16726456e+01 8.16726456e+01 8.35720062e+01 8.16726456e+01 8.55618134e+01 8.16726456e+01 9.45683212e+01 9.21434937e+01 0. 9.71242218e+01 8.76486893e+01 9.45683212e+01 0. 0. 0. 9.98221207e+01 1.02674179e+02 1.05694008e+02 1.12299881e+02 1.12299881e+02 1.05694008e+02 1.08896858e+02 1.08896858e+02 1.08896858e+02 1.12299881e+02 1.15922462e+02 1.12299881e+02 1.15922462e+02 1.19786545e+02 1.19786545e+02 1.23917114e+02 1.23917114e+02 1.28342728e+02 1.33096161e+02 1.33096161e+02 1.43743851e+02 1.43743851e+02 1.49733185e+02 1.63345291e+02 1.63345291e+02 1.63345291e+02 1.63345291e+02 1.56243317e+02 1.71123627e+02 1.71123627e+02 1.79679810e+02 2.24599762e+02 1.71123627e+02 1.71123627e+02 1.71123627e+02 1.79679810e+02 4.49199524e+02 0. 0. 0. 0. 0. 0. 0. 0. 0. 0. 0. 0. 0. 0. 0. 0. 0. 0. 0. 0. 0. 0. 0. 0. 0. 0. 0. 0. 0. 0. 0. 0. 0. 0. 0. 0. 0. 0. 0. 0. 0. 0. 0. 0. 0. 0. 0. 0. 0. 0. 0. 8.98399048e+01 9.21434937e+01 9.45683212e+01 9.21434937e+01 9.21434937e+01 9.21434937e+01 9.45683212e+01 8.98399048e+01 8.76486893e+01 8.76486893e+01 7.64594955e+01 7.81216583e+01 7.48665924e+01 7.48665924e+01 7.33386993e+01 7.33386993e+01 7.48665924e+01 7.33386993e+01 6.91076202e+01 7.33386993e+01 7.04626694e+01 7.33386993e+01 7.04626694e+01 7.18719254e+01 6.91076202e+01 6.78037033e+01 6.53381119e+01 6.09084129e+01 5.79612312e+01 5.28470039e+01 5.44484291e+01 5.20811043e+01 5.20811043e+01 5.20811043e+01 5.13370895e+01 5.13370895e+01 5.20811043e+01 5.06140327e+01 5.06140327e+01 4.85621109e+01 4.79146156e+01 4.79146156e+01 4.66700821e+01 4.79146156e+01 4.66700821e+01 4.43653870e+01 4.38243446e+01 4.32963409e+01 4.13057060e+01 4.03774872e+01 3.94900703e+01 3.94900703e+01 3.94900703e+01 3.86408195e+01 3.82297478e+01 3.82297478e+01 3.59359627e+01 0. 3.45538101e+01 3.42247276e+01 3.42247276e+01 3.32740402e+01 3.20856819e+01 3.29687729e+01 3.26690559e+01 3.26690559e+01 3.29687729e+01 3.23747406e+01 3.23747406e+01 3.23747406e+01 3.26690559e+01 3.35850105e+01 3.23747406e+01 3.23747406e+01 3.20856819e+01 3.23747406e+01 3.07144985e+01 3.01982880e+01 2.99466362e+01 2.80749702e+01 0. 2.70195217e+01 2.70195217e+01 2.66192322e+01 0. 2.60405521e+01 2.60405521e+01 2.58532104e+01 2.58532104e+01 2.60405521e+01 2.56685448e+01 2.54864979e+01 2.53070164e+01 2.56685448e+01 2.49555302e+01 2.51300430e+01 2.49555302e+01 2.51300430e+01 2.44462337e+01 2.44462337e+01 2.44462337e+01 2.54864979e+01 2.49555302e+01 2.51300430e+01 2.44462337e+01 2.54864979e+01 2.33350410e+01 2.16481705e+01 2.12638836e+01 2.12638836e+01 2.13904533e+01 2.13904533e+01 2.11388016e+01 2.10151825e+01 2.10151825e+01 2.08930016e+01 2.08930016e+01 2.08930016e+01 2.05348358e+01 2.05348358e+01 2.03028030e+01 2.01887436e+01 1.99644241e+01 1.98541241e+01 0. 1.94248447e+01 1.93204098e+01 1.92170925e+01 1.89136639e+01 1.87166481e+01
    0. 0. 0. 0. 0. 0. 0. 0. 0. 0. 0. 0. 0. 0. 0. 0. 0. 0. 0. 0. 0. 0. 0. 0. 0. 0. 0. 0. 0. 0. 0. 0. 0. 0. 0. 0. 0. 0. 0. 0. 0. 0. 0. 0. 0. 0. 0. 0. 0. 0. 0. 6.53381119e+01 6.53381119e+01 6.41713638e+01 6.30455475e+01 6.19585571e+01 6.19585571e+01 6.19585571e+01 6.30455475e+01 6.30455475e+01 6.53381119e+01 6.65480804e+01 6.78037033e+01 6.91076202e+01 7.04626694e+01 7.04626694e+01 7.33386993e+01 7.33386993e+01 7.81216583e+01 7.48665924e+01 7.81216583e+01 7.81216583e+01 7.81216583e+01 7.64594955e+01 7.98576965e+01 6.91076202e+01 8.16726456e+01 7.04626694e+01 7.98576965e+01 7.98576965e+01 8.16726456e+01 8.16726456e+01 8.16726456e+01 8.16726456e+01 8.55618134e+01 8.16726456e+01 9.45683212e+01 9.21434937e+01 0. 9.71242218e+01 8.76486893e+01 9.45683212e+01 0. 0. 1.02674179e+02 9.98221207e+01 9.98221207e+01 1.05694008e+02 1.08896858e+02 1.15922462e+02 1.05694008e+02 1.08896858e+02 1.12299881e+02 1.08896858e+02 1.12299881e+02 1.15922462e+02 1.15922462e+02 1.19786545e+02 1.19786545e+02 1.19786545e+02 1.23917114e+02 1.23917114e+02 1.28342728e+02 1.33096161e+02 1.28342728e+02 1.43743851e+02 1.43743851e+02 1.49733185e+02 1.63345291e+02 1.63345291e+02 1.63345291e+02 1.63345291e+02 1.56243317e+02 1.71123627e+02 1.71123627e+02 1.79679810e+02 2.24599762e+02 1.71123627e+02 1.71123627e+02 1.71123627e+02 1.89136642e+02 4.49199524e+02 0. 0. 0. 0. 0. 0. 0. 0. 0. 0. 0. 0. 0. 0. 0. 0. 0. 0. 0. 0. 0. 0. 0. 0. 0. 0. 0. 0. 0. 0. 0. 0. 0. 0. 0. 0. 0. 0. 0. 0. 0. 0. 0. 0. 0. 0. 0. 0. 0. 0. 0. 8.98399048e+01 9.21434937e+01 9.21434937e+01 9.21434937e+01 9.21434937e+01 9.21434937e+01 9.21434937e+01 8.76486893e+01 8.76486893e+01 8.76486893e+01 7.48665924e+01 7.81216583e+01 7.33386993e+01 7.48665924e+01 7.33386993e+01 7.33386993e+01 7.48665924e+01 7.33386993e+01 7.04626694e+01 7.48665924e+01 7.04626694e+01 7.33386993e+01 7.04626694e+01 7.18719254e+01 6.78037033e+01 6.78037033e+01 6.53381119e+01 6.09084129e+01 5.79612312e+01 5.28470039e+01 5.52860985e+01 5.20811043e+01 5.20811043e+01 5.20811043e+01 5.13370895e+01 5.13370895e+01 5.20811043e+01 5.06140327e+01 5.06140327e+01 4.85621109e+01 4.79146156e+01 4.79146156e+01 4.66700821e+01 4.79146156e+01 4.66700821e+01 4.43653870e+01 4.38243446e+01 4.27809067e+01 4.03774872e+01 3.99288483e+01 3.94900703e+01 3.94900703e+01 3.94900703e+01 3.90608292e+01 3.82297478e+01 3.82297478e+01 3.59359627e+01 0. 3.45538101e+01 3.45538101e+01 3.42247276e+01 3.32740402e+01 3.20856819e+01 3.29687729e+01 3.26690559e+01 3.26690559e+01 3.26690559e+01 3.23747406e+01 3.23747406e+01 3.23747406e+01 3.26690559e+01 3.35850105e+01 3.23747406e+01 3.20856819e+01 3.20856819e+01 3.29687729e+01 3.12486629e+01 2.99466362e+01 0. 2.78573360e+01 2.66192322e+01 2.70195217e+01 2.70195217e+01 2.66192322e+01 0. 2.58532104e+01 2.58532104e+01 2.58532104e+01 2.56685448e+01 2.58532104e+01 2.56685448e+01 2.53070164e+01 2.51300430e+01 2.58532104e+01 2.51300430e+01 2.53070164e+01 2.49555302e+01 2.51300430e+01 2.44462337e+01 2.46136723e+01 2.46136723e+01 2.54864979e+01 2.49555302e+01 2.51300430e+01 2.46136723e+01 2.54864979e+01 2.33350410e+01 2.17793713e+01 2.10151825e+01 2.11388016e+01 0. 2.12638836e+01 2.11388016e+01 2.10151825e+01 2.10151825e+01 2.08930016e+01 2.07722321e+01 2.08930016e+01 2.05348358e+01 2.05348358e+01 2.03028030e+01 0. 0. 0. 0. 0. 0. 0. 1.89136639e+01 1.87166481e+01</data></image>
</opencv_storage>
