# .PCD v0.7 - Point Cloud Data file format
VERSION 0.7
FIELDS x y z rgba
SIZE 4 4 4 4
TYPE F F F U
COUNT 1 1 1 1
WIDTH 1058
HEIGHT 1
VIEWPOINT 0 0 0 1 0 0 0
POINTS 1058
DATA ascii
0.14033039 -0.07755322 0.4713572 4278250495
0.14230497 -0.077525973 0.47136638 4278250495
0.14427955 -0.077498719 0.47137555 4278250495
0.14448616 -0.076524734 0.46524498 4278250495
0.1464351 -0.076497838 0.46525404 4278250495
0.13565943 -0.068922736 0.416437 4278244095
0.12657161 -0.0634242 0.38088596 4278238975
0.13073435 -0.064681038 0.38920355 4278240255
0.13508213 -0.065993749 0.39789081 4278241535
0.13535801 -0.065296046 0.39351094 4278240255
0.13562788 -0.064613499 0.38922626 4278240255
0.13589197 -0.063945644 0.38503376 4278240255
0.13750561 -0.063923374 0.38504124 4278240255
0.13633052 -0.059099376 0.35447541 4278236415
0.13909331 -0.059623916 0.35804087 4278236415
0.13950692 -0.058503889 0.35100716 4278235135
0.13146116 -0.05456287 0.32538572 4278232575
0.1400978 -0.056903858 0.34095904 4278233855
0.13907078 -0.055906363 0.33456677 4278233855
0.13926631 -0.055411886 0.33146268 4278232575
0.14065583 -0.055392709 0.33146912 4278232575
0.140835 -0.054907475 0.32842189 4278232575
0.14343487 -0.055354353 0.33148202 4278232575
0.14482439 -0.055335175 0.33148846 4278232575
0.15010233 -0.05676578 0.3410055 4278233855
0.1463421 -0.054831468 0.32844746 4278232575
0.1416838 -0.052609019 0.3139877 4278231295
0.14184469 -0.052173305 0.31125146 4278230015
0.14314963 -0.052155297 0.31125751 4278230015
0.14683218 -0.052979123 0.31679699 4278231295
0.13903354 -0.049761653 0.29576662 4278228735
0.13815744 -0.04901005 0.2909407 4278227455
0.13937752 -0.048993211 0.29094639 4278227455
0.13262942 -0.046264768 0.27310005 4278224895
0.13191549 -0.045622259 0.26897785 4278224895
0.13397509 -0.045917545 0.27103126 4278224895
0.13324639 -0.045285013 0.26697066 4278224895
0.13076493 -0.044089966 0.25919756 4278223615
0.13642883 -0.045559969 0.2689988 4278224895
0.13755716 -0.045544393 0.26900402 4278224895
0.13772604 -0.045223184 0.26699147 4278224895
0.13996586 -0.045192271 0.26700187 4278224895
0.14108577 -0.045176815 0.26700705 4278224895
0.14122726 -0.044860713 0.26502421 4278224895
0.13853399 -0.043686476 0.25736308 4278223615
0.14150405 -0.044242345 0.26114535 4278223615
0.13793465 -0.042830981 0.2519066 4278222335
0.1354607 -0.041768651 0.24497214 4278222335
0.13478087 -0.041252021 0.24164784 4278221055
0.13767067 -0.041473355 0.24331056 4278221055
0.13696574 -0.04096416 0.24003085 4278221055
0.13797289 -0.040950257 0.24003552 4278221055
0.14073329 -0.041431088 0.24332477 4278221055
0.13912144 -0.040680133 0.2384354 4278221055
0.14277501 -0.041402906 0.24333425 4278221055
0.14471148 -0.041640975 0.24501508 4278222335
0.14390664 -0.041126072 0.2416902 4278221055
0.14224243 -0.040386152 0.23686571 4278221055
-0.26913935 -0.10549692 0.62685823 4278255555
-0.27144632 -0.10726213 0.63808906 4278255550
-0.26876655 -0.10722514 0.63810152 4278255550
-0.26124102 -0.10538791 0.62689489 4278255555
-0.26340696 -0.10715117 0.63812643 4278255550
-0.26565164 -0.10897855 0.64976633 4278255545
-0.25334269 -0.1052789 0.62693155 4278255555
-0.25536758 -0.10704021 0.63816375 4278255550
-0.25268781 -0.10700323 0.6381762 4278255550
-0.25000802 -0.10696624 0.6381886 4278255550
-0.24281162 -0.10513356 0.62698042 4278255555
-0.24464844 -0.10689227 0.63821352 4278255550
-0.24196866 -0.10685529 0.63822591 4278255550
-0.24852622 -0.11060514 0.66192776 4278255535
-0.24574716 -0.11056678 0.66194063 4278255535
-0.25270227 -0.11460361 0.6874662 4278255525
-0.26021376 -0.11896338 0.71503371 4278255510
-0.25197059 -0.11667982 0.70100015 4278255520
-0.27108318 -0.1261767 0.7607916 4278255490
-0.25654289 -0.12117105 0.72969699 4278255505
-0.25897196 -0.12355702 0.74494219 4278255495
-0.26740918 -0.12868516 0.77740586 4278255480
-0.26414686 -0.12864015 0.777421 4278255480
-0.26088452 -0.12859511 0.77743614 4278255480
-0.25192553 -0.12591229 0.76088053 4278255490
-0.2487326 -0.12586823 0.76089537 4278255490
-0.24553967 -0.12582417 0.76091021 4278255490
-0.2478351 -0.12841502 0.7774967 4278255480
-0.24457274 -0.12836999 0.77751184 4278255480
-0.2413104 -0.12832496 0.77752697 4278255480
-0.23804806 -0.12827994 0.77754217 4278255480
-0.23478571 -0.12823491 0.77755731 4278255480
-0.23152335 -0.12818989 0.77757245 4278255480
-0.23355834 -0.13089089 0.79489785 4278255470
-0.23022351 -0.13084486 0.79491335 4278255470
-0.23791228 -0.13666975 0.83196622 4278255450
-0.22886455 -0.13362052 0.81304252 4278255460
-0.24269097 -0.14301243 0.87265098 4278255430
-0.31940171 -0.18760325 1.1546172 4282842880
-0.32538348 -0.19363521 1.1931735 4284153600
-0.34398836 -0.20706561 1.2785232 4286775040
-0.35154539 -0.2144886 1.3259526 4288413440
-0.33326921 -0.20691767 1.278573 4286775040
-0.31625348 -0.19986887 1.2344609 4285464320
-0.31107873 -0.19979745 1.2344849 4285464320
-0.28551537 -0.18713556 1.1547745 4282842880
-0.28067446 -0.18706876 1.1547971 4282842880
-0.27583355 -0.18700194 1.1548195 4282842880
-0.24618867 -0.17084442 1.0528228 4279566080
-0.24940808 -0.17582017 1.0847894 4280549120
-0.24486054 -0.17575741 1.0848105 4280549120
-0.24031304 -0.17569464 1.0848316 4280549120
-0.24344939 -0.18097745 1.1187973 4281532160
-0.23121801 -0.17556912 1.0848738 4280549120
-0.22667049 -0.17550635 1.0848949 4280549120
-0.22938052 -0.18078327 1.1188625 4281532160
-0.2403449 -0.19246154 1.1935683 4284153600
-0.23534264 -0.1923925 1.1935916 4284153600
-0.23034036 -0.19232346 1.1936148 4284153600
-0.22533809 -0.19225442 1.193638 4284153600
-0.22828254 -0.19865474 1.2348694 4285464320
-0.22310777 -0.19858332 1.2348933 4285464320
-0.21033129 -0.1920473 1.1937077 4284153600
-0.22071815 -0.20536427 1.2790955 4286775040
-0.21535857 -0.2052903 1.2791204 4286775040
-0.209999 -0.20521633 1.2791452 4286775040
-0.21259345 -0.21257083 1.3265977 4288413440
-0.19927986 -0.20506839 1.2791951 4286775040
-0.20961562 -0.2204114 1.3777273 4290051840
-0.20384377 -0.22033174 1.377754 4290051840
-0.19807193 -0.22025208 1.3777808 4290051840
-0.21870257 -0.24829398 1.5577009 4294964992
-0.21217787 -0.24820393 1.5577312 4294964992
-0.21546102 -0.25918388 1.6286314 4294960640
-0.20863974 -0.25908974 1.6286631 4294960640
-0.22301221 -0.28443778 1.7917016 4294949632
-0.22738399 -0.29905847 1.8861108 4294944000
-0.19761851 -0.27091366 1.7063832 4294955520
-0.19047241 -0.27081501 1.7064165 4294955520
-0.39611635 -0.56347328 3.5850565 4294901760
-0.059952009 -0.43115073 2.758544 4294901760
-0.0077235824 -0.61958981 3.9855616 4294901760
0.10899604 -0.61797893 3.9861035 4294901760
0.11411516 -0.55643129 3.5874252 4294901760
0.12912197 -0.55622417 3.5874949 4294901760
0.1319461 -0.50588584 3.2612975 4294901760
0.13429953 -0.46393725 2.9894662 4294901760
0.1468052 -0.46376464 2.9895244 4294901760
0.14783457 -0.42828295 2.7595086 4294901760
0.15937828 -0.42812362 2.7595623 4294901760
0.15943606 -0.3977221 2.5624022 4294901760
0.18246567 -0.42780498 2.7596695 4294901760
0.15074109 -0.32809931 2.1100528 4294929920
0.1371512 -0.27946693 1.7933736 4294949632
0.13242412 -0.25438252 1.6302464 4294960640
0.12848487 -0.23347881 1.494307 4293984000
0.12515166 -0.21579108 1.3792814 4290051840
0.13092351 -0.21571141 1.3793081 4290051840
0.13200735 -0.20781478 1.3281975 4288413440
0.13756543 -0.20773807 1.3282233 4288413440
0.13837335 -0.20040824 1.2807626 4286775040
0.13482535 -0.18728358 1.19531 4284153600
0.1490925 -0.2002603 1.2808124 4286775040
0.14048436 -0.18125607 1.1567522 4282842880
0.15464984 -0.19336964 1.236647 4285464320
0.15016618 -0.18112245 1.1567972 4282842880
0.15047933 -0.17554058 1.1206261 4281532160
0.15984799 -0.18098883 1.1568421 4282842880
0.15105039 -0.16536187 1.054667 4279566080
0.15546416 -0.16530095 1.0546875 4279566080
0.15987793 -0.16524003 1.054708 4279566080
0.15988675 -0.1605904 1.024554 4278583040
0.15989512 -0.15619907 0.99607545 4278255370
0.14866921 -0.14098477 0.89634782 4278255420
0.14895014 -0.13760716 0.87446916 4278255430
0.14289504 -0.12848963 0.81476837 4278255460
0.14327931 -0.12568991 0.79664731 4278255470
0.13808322 -0.11807701 0.74678552 4278255495
0.14399879 -0.1204479 0.76271862 4278255490
0.14719173 -0.12040383 0.7627334 4278255490
0.14746247 -0.11794756 0.74682903 4278255495
0.14772215 -0.11559153 0.73157376 4278255505
0.15677056 -0.12027163 0.76277786 4278255490
0.15384738 -0.115507 0.73160219 4278255505
0.16315642 -0.12018349 0.76280755 4278255490
0.14866291 -0.10705652 0.67630947 4278255530
0.15421315 -0.10898751 0.68935525 4278255525
0.14189425 -0.09815038 0.61791247 4278255560
0.14000289 -0.094996646 0.59728116 4278255570
0.14250402 -0.094962128 0.59729278 4278255570
0.13091259 -0.085487649 0.53475583 4278255600
0.13891959 -0.089248128 0.55989784 4278255590
0.13729031 -0.086650856 0.54290015 4278255600
0.13956407 -0.086619474 0.5429107 4278255600
0.14183782 -0.086588092 0.54292125 4278255600
0.14411159 -0.08655671 0.5429318 4278255600
0.13976565 -0.077553742 0.48413488 4278253055
0.14179359 -0.07752575 0.4841443 4278253055
0.14203884 -0.076525442 0.47768003 4278251775
0.14403975 -0.07649783 0.4776893 4278251775
0.14425223 -0.075524211 0.47139502 4278250495
0.14445917 -0.074575879 0.4652642 4278250495
0.14820138 -0.07546971 0.47141334 4278250495
0.13563526 -0.067177825 0.4164542 4278244095
0.12412388 -0.060635 0.37293762 4278237695
0.13071176 -0.063049927 0.38921961 4278240255
0.13505903 -0.064326383 0.39790726 4278241535
0.13533516 -0.063647009 0.39352721 4278240255
0.13560531 -0.062982388 0.38924235 4278240255
0.13586962 -0.062332071 0.38504967 4278240255
0.13748327 -0.062309802 0.38505715 4278240255
0.13757186 -0.058144007 0.35804871 4278236415
0.13907252 -0.058123294 0.35805568 4278236415
0.14189094 -0.058643281 0.36169335 4278236415
0.13948654 -0.057032689 0.35102168 4278235135
0.13144226 -0.053198669 0.32539919 4278232575
0.13864878 -0.055494417 0.34096652 4278233855
0.13885197 -0.054994494 0.33774343 4278233855
0.13905136 -0.054503914 0.33458063 4278233855
0.13924707 -0.05402242 0.33147636 4278232575
0.14063659 -0.054003242 0.33148283 4278232575
0.14081594 -0.053530756 0.32843545 4278232575
0.14341563 -0.053964887 0.33149573 4278232575
0.14480515 -0.053945709 0.33150217 4278232575
0.15008254 -0.055336613 0.3410196 4278233855
0.14758419 -0.053907353 0.33151507 4278232575
0.14282969 -0.051706124 0.31679159 4278231295
0.14298195 -0.051274516 0.31400681 4278231295
0.14429834 -0.051256347 0.31401291 4278231295
0.14927676 -0.052499376 0.32254314 4278231295
0.14118271 -0.049260084 0.30077302 4278228735
0.13918991 -0.048144262 0.29334888 4278227455
0.14041997 -0.048127286 0.29335457 4278227455
0.13355583 -0.045431137 0.27522278 4278226175
0.13099106 -0.044196062 0.26697132 4278224895
0.13395934 -0.044780705 0.27104247 4278224895
0.13415654 -0.044462826 0.26899946 4278224895
0.13252386 -0.043567691 0.26304042 4278223615
0.13736998 -0.044733636 0.27105829 4278224895
0.13754155 -0.044416107 0.26901516 4278224895
0.13771053 -0.044103321 0.26700252 4278224895
0.13995035 -0.044072408 0.26701289 4278224895
0.14205486 -0.044353817 0.26903611 4278224895
0.14121187 -0.043749139 0.26503518 4278224895
0.13792002 -0.041774202 0.25191703 4278222335
0.13459392 -0.040494792 0.2433064 4278221055
0.13679478 -0.040210098 0.24166726 4278221055
0.13695179 -0.039957028 0.24004078 4278221055
0.13795896 -0.039943125 0.24004546 4278221055
0.1398367 -0.040168114 0.24168137 4278221055
0.13910758 -0.039679714 0.23844527 4278221055
0.14186464 -0.040140122 0.24169078 4278221055
0.14469725 -0.040613152 0.24502523 4278222335
0.14480263 -0.040353898 0.2433538 4278221055
0.14135954 -0.039163291 0.2353081 4278221055
-0.2691758 -0.10286424 0.62688416 4278255555
-0.26654303 -0.10282791 0.62689638 4278255555
-0.26391026 -0.10279157 0.6269086 4278255555
-0.26127747 -0.10275523 0.62692088 4278255555
-0.26344407 -0.10447149 0.63815284 4278255550
-0.2656894 -0.10625015 0.64979327 4278255545
-0.25808448 -0.10439751 0.63817775 4278255550
-0.25540471 -0.10436053 0.63819015 4278255550
-0.25272492 -0.10432354 0.63820261 4278255550
-0.25477538 -0.10609952 0.64984393 4278255545
-0.24736533 -0.10424957 0.63822746 4278255550
-0.24468555 -0.10421259 0.63823992 4278255550
-0.24200577 -0.1041756 0.63825238 4278255550
-0.24386132 -0.10594889 0.6498946 4278255545
-0.24578565 -0.10778785 0.66196805 4278255535
-0.24778259 -0.10969621 0.67449713 4278255530
-0.24985629 -0.11167797 0.68750805 4278255525
-0.25201133 -0.11373743 0.70102918 4278255520
-0.2711274 -0.1229839 0.76082313 4278255490
-0.26214167 -0.12047387 0.74495852 4278255495
-0.25901523 -0.12043072 0.74497306 4278255495
-0.26745436 -0.12542294 0.77743804 4278255480
-0.26419204 -0.12537791 0.77745318 4278255480
-0.26695299 -0.12801643 0.79477596 4278255470
-0.25196975 -0.12271949 0.76091206 4278255490
-0.25440499 -0.12524284 0.7774986 4278255480
-0.24558388 -0.12263135 0.76094168 4278255490
-0.24788028 -0.12515278 0.77752888 4278255480
-0.24461792 -0.12510777 0.77754402 4278255480
-0.24694389 -0.12774028 0.79486883 4278255470
-0.24360907 -0.12769425 0.79488432 4278255470
-0.24027422 -0.12764822 0.79489982 4278255470
-0.23693939 -0.12760219 0.79491532 4278255470
-0.23360452 -0.12755616 0.79493076 4278255470
-0.23573306 -0.13030414 0.81304449 4278255460
-0.24386723 -0.13624199 0.85184288 4278255440
-0.22891179 -0.13021 0.81307614 4278255460
-0.24274164 -0.13935238 0.8726871 4278255430
-0.30916914 -0.17719415 1.1185387 4281532160
-0.30447948 -0.17712942 1.1185604 4281532160
-0.35718045 -0.20900746 1.3259817 4288413440
-0.35162237 -0.20893075 1.3260075 4288413440
-0.34606427 -0.20885403 1.3260334 4288413440
-0.30544367 -0.18835698 1.1933157 4284153600
-0.3226243 -0.20141035 1.2786757 4286775040
-0.27634171 -0.17674106 1.1186911 4281532160
-0.29043686 -0.18814985 1.1933855 4284153600
-0.2759006 -0.18216123 1.1548673 4282842880
-0.24624979 -0.16643083 1.0528663 4279566080
-0.24947105 -0.17127283 1.0848342 4280549120
-0.2528936 -0.17641744 1.1187999 4281532160
-0.24820398 -0.17635272 1.1188217 4281532160
-0.25169608 -0.18182716 1.1549796 4282842880
-0.23882471 -0.17622328 1.1188653 4281532160
-0.23413508 -0.17615855 1.1188871 4281532160
-0.23717335 -0.18162672 1.1550471 4282842880
-0.24041416 -0.18745947 1.1936177 4284153600
-0.2354119 -0.18739043 1.1936409 4284153600
-0.23870373 -0.19362302 1.2348723 4285464320
-0.22540735 -0.18725234 1.1936873 4284153600
-0.22835419 -0.19348018 1.2349204 4285464320
-0.22317943 -0.19340876 1.2349443 4285464320
-0.21040055 -0.18704523 1.1937571 4284153600
-0.2128299 -0.19326591 1.2349924 4285464320
-0.20765513 -0.19319449 1.2350165 4285464320
-0.21007322 -0.19985697 1.2791982 4286775040
-0.21267042 -0.20701298 1.3266525 4288413440
-0.20711233 -0.20693627 1.3266784 4288413440
-0.20969555 -0.21463978 1.3777841 4290051840
-0.2039237 -0.21456012 1.377811 4290051840
-0.19815186 -0.21448046 1.3778378 4290051840
-0.21879292 -0.24176952 1.5577652 4294964992
-0.22237675 -0.25245702 1.628667 4294960640
-0.22630186 -0.26416233 1.7063211 4294955520
-0.2087342 -0.25226873 1.6287303 4294960640
-0.23539166 -0.29126945 1.886152 4294944000
-0.24069405 -0.30708191 1.9910533 4294936832
-0.2081093 -0.27672756 1.7918452 4294949632
-0.2006059 -0.27662399 1.7918801 4294949632
-0.39632413 -0.5484671 3.5852046 4294901760
-0.056322798 -0.34191811 2.2411082 4294920960
-0.043586913 -0.32195249 2.1092384 4294929920
-0.059238575 -0.49487984 3.2605453 4294901760
-0.057977166 -0.60360664 3.9854939 4294901760
-0.041302934 -0.60337651 3.9855714 4294901760
-0.021153916 -0.54328912 3.5869462 4294901760
-0.0061471062 -0.543082 3.5870159 4294901760
0.0087197637 -0.60268611 3.9858036 4294901760
0.025393996 -0.60245597 3.9858811 4294901760
0.042068232 -0.60222584 3.9859583 4294901760
0.075416699 -0.60176557 3.9861133 4294901760
0.092090935 -0.60153544 3.9861906 4294901760
0.098900557 -0.54163218 3.5875037 4294901760
0.11390737 -0.54142505 3.5875733 4294901760
0.11811463 -0.49243209 3.2613688 4294901760
0.13175718 -0.4922438 3.2614322 4294901760
0.13412637 -0.45143205 2.9895897 4294901760
0.14663203 -0.45125946 2.9896476 4294901760
0.15913771 -0.45108685 2.9897058 4294901760
0.15921843 -0.41658038 2.7596762 4294901760
0.15928763 -0.38700336 2.5625079 4294901760
0.19665474 -0.45056906 2.9898798 4294901760
0.15061885 -0.31927213 2.1101401 4294929920
0.13704729 -0.27196383 1.7934476 4294949632
0.1381492 -0.25913233 1.7080131 4294955520
0.12839828 -0.22722623 1.4943687 4293984000
0.12507173 -0.21001945 1.3793383 4290051840
0.13084358 -0.20993979 1.3793651 4290051840
0.12757999 -0.19519681 1.2807657 4286775040
0.13748847 -0.20218022 1.3282782 4288413440
0.13829914 -0.19504887 1.2808155 4286775040
0.13475607 -0.18228151 1.1953593 4284153600
0.14901829 -0.19490093 1.2808652 4286775040
0.13634552 -0.17104532 1.120607 4281532160
0.15457818 -0.18819508 1.2366982 4285464320
0.15009916 -0.17628174 1.156845 4282842880
0.15041439 -0.17085114 1.1206723 4281532160
0.15978096 -0.17614812 1.1568899 4282842880
0.15098926 -0.16094828 1.0547105 4279566080
0.15980558 -0.16562414 1.0867343 4280549120
0.1598168 -0.16082644 1.0547515 4279566080
0.15982738 -0.1563029 1.0245963 4278583040
0.16411504 -0.15624373 1.0246162 4278583040
0.14861725 -0.13723321 0.89638484 4278255420
0.15236898 -0.13718143 0.89640224 4278255420
0.14284781 -0.12507911 0.81480199 4278255460
0.14323314 -0.12235519 0.79668021 4278255470
0.13803993 -0.11495071 0.74681634 4278255495
0.14395458 -0.11725508 0.76275009 4278255490
0.14714752 -0.11721102 0.76276493 4278255490
0.14741918 -0.11482126 0.74685991 4278255495
0.14492853 -0.11036993 0.7169444 4278255510
0.15672635 -0.11707882 0.7628094 4278255490
0.15093125 -0.11028709 0.71697223 4278255510
0.15992485 -0.11464866 0.74691796 4278255495
0.1486237 -0.10422516 0.67633742 4278255530
0.15145518 -0.10418608 0.67635053 4278255530
0.13962555 -0.094020911 0.60744119 4278255565
0.13996825 -0.092495613 0.59730583 4278255570
0.14246939 -0.092461094 0.59731746 4278255570
0.13271131 -0.084439948 0.54290146 4278255600
0.13888712 -0.086903401 0.55992097 4278255590
0.13921481 -0.085604928 0.55129635 4278255595
0.14152355 -0.085573062 0.55130708 4278255595
0.14180633 -0.084314421 0.54294372 4278255600
0.1440801 -0.084283039 0.54295427 4278255600
0.14234696 -0.081908189 0.52695477 4278255605
0.13973756 -0.075525872 0.48415491 4278253055
0.14176552 -0.075497881 0.48416433 4278253055
0.14201114 -0.074524611 0.47769976 4278251775
0.14401205 -0.074496992 0.47770905 4278251775
0.14601295 -0.07446938 0.47771832 4278251775
0.14801386 -0.074441761 0.47772762 4278251775
0.13708748 -0.066148907 0.42138726 4278244095
0.12292715 -0.058510013 0.36909401 4278237695
0.13068919 -0.061418816 0.38923571 4278240255
0.13503595 -0.062659025 0.39792371 4278241535
0.13696143 -0.061975211 0.39355114 4278240255
0.13905175 -0.056622669 0.35807049 4278236415
0.14055243 -0.05660196 0.35807747 4278236415
0.13821039 -0.055066474 0.34761477 4278235135
0.13033055 -0.051408693 0.32246861 4278231295
0.13741663 -0.053598352 0.33775085 4278233855
0.13883236 -0.053578813 0.33775741 4278233855
0.13903195 -0.053101461 0.33459446 4278233855
0.13922782 -0.052632958 0.33149007 4278232575
0.14061734 -0.05261378 0.33149654 4278232575
0.14079687 -0.052154038 0.32844904 4278232575
0.14339639 -0.052575424 0.33150944 4278232575
0.14355043 -0.052116033 0.32846183 4278232575
0.15006275 -0.053907447 0.3410337 4278233855
0.14756495 -0.052517891 0.33152878 4278232575
0.14399606 -0.050787106 0.31964558 4278231295
0.14413933 -0.050359808 0.31681088 4278231295
0.14546737 -0.050341479 0.31681705 4278231295
0.15052295 -0.051570863 0.32550132 4278232575
0.14340536 -0.04874137 0.30595061 4278230015
0.14023943 -0.047264166 0.29579684 4278228735
0.14040294 -0.046897266 0.29336673 4278227455
0.1344966 -0.044584591 0.27737841 4278226175
0.13188425 -0.043365683 0.26900008 4278224895
0.13488883 -0.043942116 0.27313328 4278224895
0.13508049 -0.043628182 0.27105895 4278224895
0.13250858 -0.04246429 0.2630513 4278223615
0.13735422 -0.0435968 0.27106953 4278224895
0.13849111 -0.043581109 0.2710748 4278224895
0.13865425 -0.043272246 0.26903152 4278224895
0.14091091 -0.043241102 0.26904202 4278224895
0.14203924 -0.043225531 0.26904723 4278224895
0.14217466 -0.042921625 0.26703435 4278224895
0.14037833 -0.042066775 0.26116189 4278223615
0.13790539 -0.040717427 0.25192747 4278222335
0.13593066 -0.038963798 0.24004604 4278221055
0.13609236 -0.038720723 0.23844121 4278221055
0.13709283 -0.038706914 0.23844585 4278221055
0.13895217 -0.038922098 0.24006008 4278221055
0.13909374 -0.038679298 0.23845515 4278221055
0.14185061 -0.039126191 0.24170078 4278221055
0.14468302 -0.039585326 0.24503537 4278222335
0.14478849 -0.039333064 0.24336387 4278221055
0.14134587 -0.038176041 0.23531783 4278221055
-0.26921228 -0.10023157 0.62691015 4278255555
-0.26657948 -0.10019524 0.62692237 4278255555
-0.26884076 -0.10186578 0.63815439 4278255550
-0.26131395 -0.10012256 0.62694681 4278255555
-0.26348117 -0.10179181 0.6381793 4278255550
-0.26572719 -0.10352174 0.64982015 4278255545
-0.25812158 -0.10171783 0.63820416 4278255550
-0.26027018 -0.10344642 0.64984548 4278255545
-0.25754166 -0.10340877 0.64985818 4278255545
-0.25481316 -0.10337111 0.64987081 4278255545
-0.24740243 -0.10156989 0.63825393 4278255550
-0.24472265 -0.10153291 0.63826638 4278255550
-0.24204288 -0.10149592 0.63827878 4278255550
-0.24389909 -0.10322048 0.64992154 4278255545
-0.2411706 -0.10318282 0.64993417 4278255545
-0.24304509 -0.10497057 0.6620084 4278255535
-0.2449903 -0.10682576 0.6745382 4278255530
-0.24701032 -0.10875232 0.68754995 4278255525
-0.2711716 -0.11979108 0.7608546 4278255490
-0.26797867 -0.11974701 0.76086944 4278255490
-0.26478571 -0.11970294 0.76088423 4278255490
-0.27366886 -0.12477376 0.79477787 4278255470
-0.27033404 -0.12472774 0.79479337 4278255470
-0.26699916 -0.12468171 0.79480886 4278255470
-0.25771251 -0.12202564 0.77751565 4278255480
-0.25445014 -0.12198061 0.77753079 4278255480
-0.24562809 -0.11943853 0.76097322 4278255490
-0.24792545 -0.12189056 0.77756107 4278255480
-0.25032493 -0.12445158 0.79488623 4278255470
-0.24699007 -0.12440556 0.79490173 4278255470
-0.24365525 -0.12435953 0.79491723 4278255470
-0.2403204 -0.1243135 0.79493272 4278255470
-0.23698555 -0.12426747 0.79494816 4278255470
-0.23919092 -0.12694071 0.81306231 4278255460
-0.23578028 -0.12689364 0.81307811 4278255460
-0.24391671 -0.13266908 0.85187811 4278255440
-0.23451898 -0.12964195 0.83205128 4278255450
-0.24279232 -0.13569233 0.87272316 4278255430
-0.2995567 -0.16741589 1.0846468 4280549120
-0.2950092 -0.16735312 1.084668 4280549120
-0.3572574 -0.20344959 1.3260366 4288413440
-0.33877724 -0.19627291 1.2786539 4286775040
-0.33341765 -0.19619894 1.2786788 4286775040
-0.30551296 -0.18335488 1.1933651 4284153600
-0.31122205 -0.18944834 1.2345871 4285464320
-0.27640665 -0.17205162 1.1187373 4281532160
-0.29050612 -0.18314777 1.1934348 4284153600
-0.27596763 -0.17732051 1.154915 4282842880
-0.25408152 -0.16678825 1.0848579 4280549120
-0.25764814 -0.17179273 1.1188245 4281532160
-0.26144493 -0.17712007 1.1549824 4282842880
-0.24826892 -0.17166327 1.118868 4281532160
-0.25176311 -0.17698644 1.1550274 4282842880
-0.23888963 -0.17153382 1.1189115 4281532160
-0.23420002 -0.17146911 1.1189333 4281532160
-0.23724037 -0.17678601 1.1550947 4282842880
-0.24048343 -0.18245737 1.1936671 4284153600
-0.23548116 -0.18238834 1.1936903 4284153600
-0.23877537 -0.18844846 1.2349234 4285464320
-0.22547662 -0.18225026 1.1937367 4284153600
-0.22842585 -0.18830562 1.2349714 4285464320
-0.22325109 -0.1882342 1.2349955 4285464320
-0.21046981 -0.18204314 1.1938064 4284153600
-0.21290155 -0.18809135 1.2350435 4285464320
-0.20772679 -0.18801993 1.2350675 4285464320
-0.21014743 -0.1944976 1.279251 4286775040
-0.20478785 -0.19442363 1.2792759 4286775040
-0.20718929 -0.20137841 1.3267332 4288413440
-0.20977546 -0.20886815 1.3778411 4290051840
-0.20400362 -0.20878848 1.3778679 4290051840
-0.19823177 -0.20870882 1.3778946 4290051840
-0.21888326 -0.23524508 1.5578296 4294964992
-0.22247119 -0.245636 1.6287342 4294960640
-0.22640082 -0.25701651 1.7063916 4294955520
-0.21925472 -0.25691789 1.7064247 4294955520
-0.2491466 -0.29886019 1.9910969 4294936832
-0.25556999 -0.31604931 2.1083419 4294929920
-0.20821321 -0.26922444 1.7919192 4294949632
-0.20070979 -0.26912087 1.7919542 4294949632
-0.35956368 -0.4853802 3.2592866 4294901760
-0.049241081 -0.23290373 1.5586171 4294964992
-0.045118 -0.24318825 1.6295576 4294960640
-0.065962933 -0.3793914 2.5615687 4294901760
-0.047073413 -0.33240977 2.2412443 4294920960
-0.059427481 -0.48123783 3.26068 4294901760
-0.058208052 -0.58693308 3.9856584 4294901760
-0.04153382 -0.58670294 3.9857359 4294901760
-0.018499818 -0.48067299 3.26087 4294901760
-0.0063549043 -0.52807575 3.5871639 4294901760
0.0086519048 -0.52786863 3.5872335 4294901760
0.023658713 -0.5276615 3.5873032 4294901760
0.038665522 -0.52745438 3.587373 4294901760
0.058511578 -0.58532214 3.9862003 4294901760
0.068679139 -0.52704018 3.5875123 4294901760
0.083685942 -0.52683306 3.5875819 4294901760
0.090640612 -0.47916666 3.2613766 4294901760
0.10428317 -0.47897837 3.26144 4294901760
0.11792572 -0.47879007 3.2615032 4294901760
0.12144752 -0.43909946 2.989655 4294901760
0.1339532 -0.43892688 2.989713 4294901760
0.14645886 -0.43875426 2.9897711 4294901760
0.15896454 -0.43858168 2.9898291 4294901760
0.14842007 -0.37643257 2.5625639 4294901760
0.1591392 -0.37628463 2.5626137 4294901760
0.18214598 -0.40471846 2.7598972 4294901760
0.15049662 -0.31044495 2.1102271 4294929920
0.14361836 -0.27813897 1.8879899 4294944000
0.13805024 -0.2519865 1.7080835 4294955520
0.12831171 -0.22097363 1.4944304 4293984000
0.12958673 -0.21223477 1.434626 4292017920
0.13076366 -0.20416816 1.3794221 4290051840
0.13185343 -0.19669907 1.3283072 4288413440
0.1374115 -0.19662236 1.328333 4288413440
0.14296958 -0.19654565 1.3283588 4288413440
0.13898224 -0.18323478 1.2366771 4285464320
0.14894406 -0.18954156 1.2809181 4286775040
0.1403503 -0.17157464 1.1568477 4282842880
0.15450653 -0.18302053 1.2367492 4285464320
0.1546959 -0.17700326 1.1955016 4284153600
0.15034945 -0.16616169 1.1207186 4281532160
0.15971394 -0.1713074 1.1569376 4282842880
0.1551951 -0.16113956 1.086758 4280549120
0.15534192 -0.15647377 1.0547745 4279566080
0.15975569 -0.15641285 1.054795 4279566080
0.15976802 -0.15201542 1.0246387 4278583040
0.15977968 -0.14786229 0.99615771 4278255370
0.14280058 -0.12166861 0.81483567 4278255460
0.14318696 -0.11902048 0.79671311 4278255470
0.13538688 -0.10963561 0.73157728 4278255505
0.14391036 -0.11406226 0.76278162 4278255490
0.14710331 -0.1140182 0.7627964 4278255490
0.14457472 -0.1095088 0.73161995 4278255505
0.14488697 -0.10736869 0.71697396 4278255510
0.15362872 -0.11160867 0.74691975 4278255495
0.15088969 -0.10728583 0.71700186 4278255510
0.15682518 -0.10933973 0.73167682 4278255505
0.14602032 -0.099600829 0.6638146 4278255535
0.15141597 -0.10135471 0.67637849 4278255530
0.13959034 -0.091477484 0.60746628 4278255565
0.13993362 -0.089994565 0.59733051 4278255570
0.14243475 -0.089960046 0.59734213 4278255570
0.13267982 -0.082166277 0.54292393 4278255600
0.13885465 -0.084558681 0.55994409 4278255590
0.14119947 -0.084526315 0.55995494 4278255590
0.14149158 -0.083264418 0.55132985 4278255595
0.14380033 -0.083232552 0.55134058 4278255595
0.14610906 -0.083200686 0.55135131 4278255595
0.14428949 -0.080822699 0.5348624 4278255600
0.14148469 -0.074442171 0.49082628 4278253055
0.14173743 -0.073470019 0.48418432 4278253055
0.14376538 -0.073442027 0.48419374 4278253055
0.14579332 -0.073414035 0.48420316 4278253055
0.14782126 -0.073386051 0.48421255 4278253055
0.13706304 -0.06438347 0.42140469 4278244095
0.12290573 -0.056962978 0.36910927 4278237695
0.13199131 -0.060394455 0.39354444 4278240255
0.13641617 -0.061625578 0.40242684 4278241535
0.13797455 -0.054110598 0.35104388 4278235135
0.13819021 -0.053609554 0.34762913 4278235135
0.12923868 -0.049650684 0.31959039 4278231295
0.13620751 -0.051737726 0.33459526 4278233855
0.13881277 -0.052163128 0.33777139 4278233855
0.13781907 -0.051262666 0.33149734 4278232575
0.13802429 -0.050815325 0.32844985 4278232575
0.13940105 -0.050796323 0.32845622 4278232575
0.14077781 -0.05077732 0.32846263 4278232575
0.14215459 -0.050758317 0.32846901 4278232575
0.14353135 -0.050739318 0.32847542 4278232575
0.14872292 -0.05202635 0.33781737 4278233855
0.14754571 -0.051128425 0.33154249 4278232575
0.14279291 -0.049050152 0.31681779 4278231295
0.1429455 -0.048641842 0.31403276 4278231295
0.14426188 -0.048623674 0.31403887 4278231295
0.14923933 -0.049795549 0.32256982 4278231295
0.1433876 -0.047458787 0.30596328 4278230015
0.14022227 -0.046023984 0.29580909 4278228735
0.14038591 -0.04566725 0.29337886 4278227455
0.13545206 -0.043724813 0.27956772 4278226175
0.13186863 -0.042237397 0.26901123 4278224895
0.13487296 -0.042796604 0.27314457 4278224895
0.13506474 -0.042491347 0.27107018 4278224895
0.13339978 -0.04163339 0.265021 4278224895
0.13733849 -0.042459965 0.27108073 4278224895
0.13847537 -0.042444274 0.27108601 4278224895
0.13863863 -0.04214396 0.26904267 4278224895
0.13784625 -0.041572023 0.26504162 4278224895
0.14089528 -0.042112816 0.26905313 4278224895
0.14302289 -0.04238151 0.27110711 4278224895
0.14215916 -0.041801754 0.26704541 4278224895
0.14036317 -0.040971428 0.26117268 4278223615
0.13789076 -0.039660651 0.2519379 4278222335
0.13591671 -0.03795667 0.24005598 4278221055
0.13524435 -0.037500795 0.23686284 4278221055
0.13623819 -0.037487078 0.23686744 4278221055
0.13807942 -0.037692696 0.23846036 4278221055
0.13907988 -0.037678886 0.23846501 4278221055
0.14183657 -0.038112257 0.2417108 4278221055
0.14466877 -0.0385575 0.24504551 4278222335
0.14477436 -0.038312234 0.24337393 4278221055
0.14133219 -0.037188787 0.23532757 4278221055
-0.26924872 -0.097598903 0.62693614 4278255555
-0.26661593 -0.097562566 0.62694836 4278255555
-0.26887786 -0.099186093 0.63818085 4278255550
-0.25666991 -0.095887884 0.61613923 4278255560
-0.26351827 -0.099112123 0.63820571 4278255550
-0.26083851 -0.099075131 0.63821816 4278255550
-0.25815868 -0.099038146 0.63823062 4278255550
-0.26030794 -0.10071802 0.64987242 4278255545
-0.25757945 -0.10068036 0.64988512 4278255545
-0.25485095 -0.1006427 0.64989775 4278255545
-0.24743955 -0.098890208 0.63828033 4278255550
-0.24475977 -0.098853223 0.63829279 4278255550
-0.24666542 -0.10052973 0.64993578 4278255545
-0.24393688 -0.10049208 0.64994842 4278255545
-0.24586262 -0.10222999 0.66202289 4278255535
-0.24308357 -0.10219163 0.66203582 4278255535
-0.24030453 -0.10215328 0.6620487 4278255535
-0.24705029 -0.10586651 0.68757838 4278255525
-0.27121583 -0.11659826 0.76088607 4278255490
-0.26802287 -0.11655419 0.76090091 4278255490
-0.27080706 -0.11894352 0.77748722 4278255480
-0.27371502 -0.12143905 0.79481077 4278255470
-0.2703802 -0.12139302 0.79482627 4278255470
-0.27334455 -0.12400093 0.81293762 4278255460
-0.25775769 -0.11876342 0.77754784 4278255480
-0.25449532 -0.11871839 0.77756298 4278255480
-0.2456723 -0.11624572 0.76100469 4278255490
-0.25370595 -0.12116289 0.7949037 4278255470
-0.2503711 -0.12111686 0.79491913 4278255470
-0.24703625 -0.12107084 0.79493463 4278255470
-0.24370143 -0.12102481 0.79495013 4278255470
-0.24036658 -0.12097878 0.79496562 4278255470
-0.23703173 -0.12093276 0.79498106 4278255470
-0.23923816 -0.12353021 0.81309593 4278255460
-0.23582752 -0.12348314 0.81311178 4278255460
-0.24396619 -0.12909617 0.85191333 4278255440
-0.2345673 -0.12615213 0.83208567 4278255450
-0.2368201 -0.12899753 0.85194653 4278255440
-0.31960282 -0.1730811 1.1547605 4282842880
-0.31476191 -0.17301428 1.154783 4282842880
-0.35733438 -0.19789173 1.3260914 4288413440
-0.35177627 -0.19781502 1.3261172 4288413440
-0.3462182 -0.1977383 1.3261429 4288413440
-0.29539827 -0.17274705 1.1548729 4282842880
-0.30057997 -0.17828378 1.1934377 4284153600
-0.26778707 -0.1624292 1.0848395 4280549120
-0.28087556 -0.1725466 1.1549402 4282842880
-0.27603465 -0.17247979 1.1549628 4282842880
-0.25414449 -0.16224091 1.0849029 4280549120
-0.25771308 -0.16710328 1.1188707 4281532160
-0.26151195 -0.17227936 1.1550301 4282842880
-0.25667104 -0.17221254 1.1550527 4282842880
-0.25183013 -0.17214572 1.1550751 4282842880
-0.23895457 -0.16684438 1.1189578 4281532160
-0.23426495 -0.16677965 1.1189796 4281532160
-0.23730741 -0.17194529 1.1551425 4282842880
-0.24055269 -0.17745531 1.1937164 4284153600
-0.23555043 -0.17738627 1.1937397 4284153600
-0.23054816 -0.17731722 1.1937628 4284153600
-0.22554588 -0.17724818 1.193786 4284153600
-0.22849751 -0.18313104 1.2350224 4285464320
-0.22332273 -0.18305962 1.2350465 4285464320
-0.21053909 -0.17704107 1.1938558 4284153600
-0.21297321 -0.18291678 1.2350945 4285464320
-0.20779845 -0.18284535 1.2351185 4285464320
-0.2026237 -0.18277395 1.2351426 4285464320
-0.20486207 -0.18906426 1.2793288 4286775040
-0.20726626 -0.19582054 1.3267881 4288413440
-0.20985539 -0.20309652 1.377898 4290051840
-0.20408355 -0.20301686 1.3779248 4290051840
-0.1983117 -0.2029372 1.3779516 4290051840
-0.21897361 -0.22872064 1.557894 4294964992
-0.22256565 -0.23881499 1.6288016 4294960640
-0.23833072 -0.26213554 1.7918539 4294949632
-0.21935366 -0.24977207 1.7064953 4294955520
-0.28168467 -0.32626709 2.2402482 4294920960
-0.29113373 -0.34757525 2.3897364 4294911232
-0.21981375 -0.27525538 1.8863811 4294944000
-0.21191543 -0.27514639 1.8864177 4294944000
-0.39673972 -0.51845461 3.5855007 4294901760
-0.058249012 -0.25965014 1.7926899 4294949632
-0.053949021 -0.27296618 1.8871511 4294944000
-0.078816444 -0.42935583 2.9888494 4294901760
-0.051024787 -0.34426135 2.390851 4294911232
-0.059616387 -0.46759582 3.2608144 4294901760
-0.058438938 -0.57025945 3.9858229 4294901760
-0.041764706 -0.57002932 3.9859004 4294901760
-0.021569511 -0.51327664 3.5872424 4294901760
-0.008416241 -0.56956911 3.9860551 4294901760
0.0082579916 -0.56933898 3.9861326 4294901760
0.024932224 -0.56910884 3.9862099 4294901760
0.04160646 -0.56887871 3.9862874 4294901760
0.058280692 -0.56864858 3.9863648 4294901760
0.074954927 -0.56841844 3.9864421 4294901760
0.091629162 -0.56818831 3.9865196 4294901760
0.098484963 -0.51161969 3.5877995 4294901760
0.11349177 -0.51141256 3.5878694 4294901760
0.11773681 -0.46514803 3.2616379 4294901760
0.13137938 -0.46495974 3.2617011 4294901760
0.13378003 -0.42642167 2.9898365 4294901760
0.1462857 -0.42624906 2.9898944 4294901760
0.15879138 -0.42607647 2.9899526 4294901760
0.13906147 -0.34163785 2.3917334 4294911232
0.149066 -0.34149978 2.3917799 4294911232
0.18198614 -0.39317521 2.760011 4294901760
0.15037438 -0.30161774 2.1103141 4294929920
0.15091954 -0.28500023 1.9930369 4294936832
0.1379513 -0.24484068 1.708154 4294955520
0.12822512 -0.21472102 1.4944921 4293984000
0.12950361 -0.20623228 1.4346852 4292017920
0.13068374 -0.19839653 1.3794789 4290051840
0.13177647 -0.1911412 1.328362 4288413440
0.14222744 -0.19823721 1.3795326 4290051840
0.14289261 -0.19098778 1.3284136 4288413440
0.13891059 -0.17806022 1.2367281 4285464320
0.14886986 -0.1841822 1.2809709 4286775040
0.14028327 -0.16673392 1.1568955 4282842880
0.15958901 -0.18403424 1.2810208 4286775040
0.15960963 -0.17777453 1.2368243 4285464320
0.15028451 -0.16147225 1.1207649 4281532160
0.16463116 -0.17186311 1.1955974 4284153600
0.15513213 -0.15659222 1.0868028 4280549120
0.15528081 -0.15206017 1.054818 4279566080
0.15542099 -0.14778708 1.0246611 4278583040
0.1555534 -0.14375143 0.99617946 4278255370
0.15972196 -0.14369389 0.99619877 4278255370
0.14314078 -0.11568576 0.79674602 4278255470
0.13283996 -0.10453314 0.71694785 4278255510
0.14386615 -0.11086945 0.76281309 4278255490
0.1470591 -0.11082539 0.76282793 4278255490
0.14453231 -0.10644632 0.73165017 4278255505
0.14484541 -0.10436744 0.71700358 4278255510
0.15065755 -0.10636178 0.73167861 4278255505
0.14808874 -0.10232947 0.70294505 4278255520
0.1538495 -0.10424317 0.71704537 4278255510
0.14598185 -0.096821897 0.66384202 4278255535
0.14876089 -0.096783541 0.6638549 4278255535
0.13955511 -0.088934049 0.60749131 4278255565
0.13989899 -0.087493531 0.59735519 4278255570
0.14240012 -0.087459013 0.59736681 4278255570
0.13264833 -0.079892606 0.54294634 4278255600
0.13882218 -0.082213953 0.55996722 4278255590
0.141167 -0.082181595 0.55997807 4278255590
0.14145961 -0.080955766 0.55135262 4278255595
0.14376836 -0.0809239 0.55136335 4278255595
0.1460771 -0.080892034 0.55137408 4278255595
0.14629088 -0.079704322 0.54300964 4278255600
0.1396814 -0.071470134 0.4841949 4278253055
0.14170936 -0.071442142 0.48420432 4278253055
0.14373729 -0.07141415 0.48421374 4278253055
0.14576524 -0.071386166 0.48422316 4278253055
0.14779317 -0.071358174 0.48423257 4278253055
0.14982113 -0.07133019 0.48424199 4278253055
0.15578604 -0.073155776 0.49774104 4278254335
0.13854952 -0.063309029 0.42645535 4278245375
0.12648319 -0.057038568 0.38094896 4278238975
0.13332234 -0.05934732 0.39794886 4278241535
0.13795416 -0.052639395 0.35105839 4278235135
0.13693878 -0.051695146 0.34428754 4278235135
0.12922013 -0.048310842 0.31960359 4278231295
0.13502079 -0.049911555 0.33149815 4278232575
0.1375906 -0.050315917 0.33461562 4278233855
0.13779983 -0.049873199 0.33151105 4278232575
0.13800521 -0.049438607 0.32846344 4278232575
0.13938197 -0.049419604 0.32846981 4278232575
0.13957112 -0.048993085 0.32547757 4278232575
0.14213553 -0.049381603 0.3284826 4278232575
0.14351229 -0.0493626 0.32848898 4278232575
0.14740813 -0.05018042 0.33466119 4278233855
0.14752647 -0.049738958 0.3315562 4278232575
0.14161089 -0.047343675 0.31403965 4278231295
0.1417724 -0.046953749 0.31130293 4278230015
0.14307734 -0.046935737 0.31130901 4278230015
0.14797863 -0.048051946 0.3196907 4278231295
0.14336984 -0.046176203 0.30597591 4278230015
0.14020509 -0.044783797 0.29582131 4278228735
0.13930994 -0.044113137 0.29099452 4278227455
0.13446438 -0.042258043 0.27740136 4278226175
0.13094454 -0.040836453 0.26700446 4278224895
0.1348571 -0.041651089 0.27315587 4278224895
0.13600266 -0.041635279 0.2731612 4278224895
0.13338439 -0.040521815 0.26503196 4278224895
0.13636634 -0.041046817 0.2690433 4278224895
0.13749467 -0.041031241 0.26904854 4278224895
0.13766401 -0.040743712 0.26703566 4278224895
0.1368918 -0.040196575 0.26309356 4278223615
0.14087966 -0.040984523 0.26906428 4278224895
0.14200799 -0.040968951 0.26906949 4278224895
0.14214365 -0.040681887 0.26705644 4278224895
0.1394043 -0.039620265 0.25928086 4278223615
0.13698269 -0.038365897 0.25017679 4278222335
0.13590276 -0.036949538 0.24006592 4278221055
0.13523059 -0.036507007 0.23687264 4278221055
0.13622442 -0.03649329 0.23687725 4278221055
0.13721825 -0.036479574 0.23688187 4278221055
0.13906603 -0.036678471 0.23847488 4278221055
0.14182253 -0.037098318 0.2417208 4278221055
0.14465454 -0.037529677 0.24505565 4278222335
0.14476022 -0.0372914 0.243384 4278221055
0.14131853 -0.036201537 0.23533732 4278221055
0.14144185 -0.035981283 0.23379473 4278219775
-0.26446787 -0.093407735 0.61612868 4278255560
-0.26665238 -0.094929889 0.62697434 4278255555
-0.26401964 -0.094893552 0.62698656 4278255555
-0.25670573 -0.093300603 0.61616474 4278255560
-0.2587541 -0.094820879 0.627011 4278255555
-0.25612131 -0.094784543 0.62702322 4278255555
-0.25348851 -0.094748206 0.62703544 4278255555
-0.25551602 -0.096321478 0.63826948 4278255550
-0.25761724 -0.097951956 0.649912 4278255545
-0.25488871 -0.097914301 0.6499247 4278255545
-0.24747665 -0.096210524 0.6383068 4278255550
-0.24479687 -0.09617354 0.63831925 4278255550
-0.24670319 -0.097801328 0.64996266 4278255545
-0.24397466 -0.097763672 0.64997536 4278255545
-0.24590109 -0.099451058 0.66205031 4278255535
-0.2479002 -0.10120212 0.67458093 4278255530
-0.24506871 -0.10116304 0.67459404 4278255530
-0.24709025 -0.1029807 0.68760687 4278255525
-0.27126002 -0.11340545 0.7609176 4278255490
-0.27411458 -0.11572631 0.77750427 4278255480
-0.27085224 -0.11568129 0.7775194 4278255480
-0.28021303 -0.12068456 0.81293958 4278255460
-0.27680239 -0.12063749 0.81295538 4278255460
-0.27339178 -0.12059042 0.81297123 4278255460
-0.25780284 -0.11550119 0.77758002 4278255480
-0.26042181 -0.11792022 0.7949056 4278255470
-0.24571651 -0.1130529 0.76103616 4278255490
-0.25375214 -0.11782817 0.7949366 4278255470
-0.25041729 -0.11778215 0.79495203 4278255470
-0.24708243 -0.11773612 0.79496753 4278255470
-0.24374761 -0.11769009 0.79498303 4278255470
-0.24041276 -0.11764406 0.79499853 4278255470
-0.23707791 -0.11759804 0.79501396 4278255470
-0.23928538 -0.1201197 0.8131296 4278255460
-0.23587474 -0.12007263 0.8131454 4278255460
-0.24401566 -0.12552325 0.85194862 4278255440
-0.23461562 -0.12266231 0.83212012 4278255450
-0.23686957 -0.12542462 0.85198176 4278255440
-0.35500437 -0.18577608 1.278685 4286775040
-0.36296937 -0.19241056 1.3261204 4288413440
-0.38681376 -0.20735466 1.4323478 4292017920
-0.36577526 -0.19947575 1.3772315 4290051840
-0.34629518 -0.19218044 1.3261977 4288413440
-0.30565149 -0.17335074 1.1934638 4284153600
-0.31136537 -0.1790992 1.2346891 4285464320
-0.26785001 -0.15788186 1.0848844 4280549120
-0.28094259 -0.16770588 1.1549881 4282842880
-0.27610168 -0.16763908 1.1550105 4282842880
-0.25420746 -0.15769356 1.0849477 4280549120
-0.25777802 -0.16241382 1.118917 4281532160
-0.26157898 -0.16743864 1.1550779 4282842880
-0.25673807 -0.16737182 1.1551003 4282842880
-0.25189716 -0.16730501 1.1551229 4282842880
-0.23901951 -0.16215493 1.119004 4281532160
-0.23432989 -0.16209021 1.1190258 4281532160
-0.23737444 -0.16710457 1.1551903 4282842880
-0.24062197 -0.17245322 1.1937658 4284153600
-0.22769263 -0.16697095 1.1552353 4282842880
-0.23061743 -0.17231515 1.1938121 4284153600
-0.22561514 -0.17224611 1.1938354 4284153600
-0.22856915 -0.17795648 1.2350734 4285464320
-0.22339439 -0.17788506 1.2350975 4285464320
-0.21060835 -0.17203899 1.193905 4284153600
-0.21304487 -0.17774223 1.2351456 4285464320
-0.2078701 -0.17767081 1.2351696 4285464320
-0.20269534 -0.17759939 1.2351936 4285464320
-0.20493628 -0.1837049 1.2793816 4286775040
-0.20734322 -0.19026268 1.3268429 4288413440
-0.20993531 -0.1973249 1.377955 4290051840
-0.20416346 -0.19724524 1.3779818 4290051840
-0.19839162 -0.19716558 1.3780086 4290051840
-0.21906395 -0.22219618 1.5579584 4294964992
-0.23374481 -0.2428235 1.7064993 4294955520
-0.25151643 -0.26779342 1.8863124 4294944000
-0.23093122 -0.25452885 1.7919629 4294949632
-0.30127683 -0.33770919 2.3897886 4294911232
-0.3128002 -0.36135662 2.5606356 4294901760
-0.24698693 -0.29827309 2.108557 4294929920
-0.23815939 -0.29815125 2.108598 4294929920
-0.44217721 -0.5588789 3.9842069 4294901760
-0.075470932 -0.31404033 2.2412987 4294920960
-0.071172394 -0.33453336 2.3908567 4294911232
-0.087090403 -0.45433035 3.2608225 4294901760
-0.055540632 -0.357806 2.5618298 4294901760
-0.049047686 -0.3848184 2.7590532 4294901760
-0.046162739 -0.45376548 3.2610123 4294901760
-0.036784116 -0.49847752 3.5873206 4294901760
-0.018877631 -0.4533889 3.2611392 4294901760
-0.0086471271 -0.55289549 3.9862196 4294901760
0.0082363095 -0.49785617 3.5875297 4294901760
0.024701338 -0.55243522 3.9863744 4294901760
0.04137557 -0.55220509 3.9864519 4294901760
0.098277166 -0.49661344 3.5879476 4294901760
0.11328397 -0.49640632 3.5880175 4294901760
0.12829079 -0.49619922 3.5880871 4294901760
0.14329758 -0.49599209 3.5881567 4294901760
0.14483301 -0.45112944 3.2618992 4294901760
0.15847556 -0.45094115 3.2619624 4294901760
0.15861821 -0.41357127 2.9900758 4294901760
0.13892294 -0.33163372 2.3918321 4294911232
0.14892748 -0.33149561 2.3918786 4294911232
0.19613524 -0.41305348 2.9902501 4294901760
0.15025215 -0.29279053 2.1104012 4294929920
0.1508041 -0.27666345 1.9931191 4294936832
0.14423901 -0.24935091 1.7937045 4294949632
0.12813854 -0.20846844 1.4945538 4293984000
0.12942049 -0.20022979 1.4347444 4292017920
0.1354232 -0.20014694 1.4347723 4292017920
0.13637567 -0.19254525 1.3795627 4290051840
0.14742865 -0.19998124 1.434828 4292017920
0.14791937 -0.19238593 1.3796163 4290051840
0.14837372 -0.1853532 1.3284942 4288413440
0.15393181 -0.18527649 1.3285201 4288413440
0.14455281 -0.16713719 1.1955539 4284153600
0.16504797 -0.18512307 1.3285717 4288413440
0.16487436 -0.17860091 1.2810985 4286775040
0.15473896 -0.16169277 1.1570107 4282842880
0.1645619 -0.16686103 1.1956468 4284153600
0.15959884 -0.15665334 1.1208546 4281532160
0.15961668 -0.15198211 1.0868689 4280549120
0.15536162 -0.1434996 1.0247033 4278583040
0.15964927 -0.14344043 1.0247232 4278583040
0.15966423 -0.13952549 0.9962399 4278255370
0.14846142 -0.12597853 0.89649582 4278255420
0.1430946 -0.11235104 0.79677892 4278255470
0.1327984 -0.10153189 0.71697748 4278255510
0.14103647 -0.10552867 0.74692339 4278255495
0.14701489 -0.10763258 0.7628594 4278255490
0.14448991 -0.10338382 0.73168039 4278255505
0.14216298 -0.099468298 0.70294672 4278255520
0.15061514 -0.10329928 0.73170882 4278255505
0.148048 -0.099387072 0.70297408 4278255520
0.15380794 -0.10124192 0.71707499 4278255510
0.14594336 -0.094042964 0.66386944 4278255535
0.14872241 -0.094004609 0.66388232 4278255535
0.13736323 -0.085027009 0.59736824 4278255570
0.13773736 -0.083674148 0.58756417 4278255575
0.1401975 -0.083640195 0.58757561 4278255575
0.13261685 -0.077618934 0.54296875 4278255600
0.13878971 -0.079869233 0.55999035 4278255590
0.14113453 -0.079836868 0.56000125 4278255590
0.14142764 -0.078647107 0.55137539 4278255595
0.14373639 -0.078615248 0.55138612 4278255595
0.14604513 -0.078583382 0.55139685 4278255595
0.1462594 -0.077430651 0.54303211 4278255600
0.14142776 -0.070330881 0.49086684 4278253055
0.14348349 -0.070302509 0.49087638 4278253055
0.14370921 -0.069386289 0.48423374 4278253055
0.14573716 -0.069358297 0.48424315 4278253055
0.1477651 -0.069330312 0.48425257 4278253055
0.14979304 -0.06930232 0.48426199 4278253055
0.15575717 -0.071071573 0.49776161 4278254335
0.14007184 -0.062208705 0.43162778 4278245375
0.12899025 -0.056547992 0.38927642 4278240255
0.13609882 -0.058886919 0.40704122 4278242815
0.13780414 -0.058863383 0.40704915 4278242815
0.13793379 -0.051168196 0.35107291 4278235135
0.1369188 -0.05025224 0.34430179 4278235135
0.13027439 -0.047352955 0.32250863 4278231295
0.13385583 -0.048118893 0.32845783 4278232575
0.13757119 -0.048913464 0.33462945 4278233855
0.13778059 -0.048483733 0.33152476 4278232575
0.13682373 -0.047666542 0.32547835 4278232575
0.13936292 -0.048042886 0.3284834 4278232575
0.13955222 -0.047628883 0.32549101 4278232575
0.14091648 -0.047610056 0.32549736 4278232575
0.14228074 -0.047591224 0.32550368 4278232575
0.14738871 -0.048777968 0.33467501 4278233855
0.14750722 -0.048349492 0.33156991 4278232575
0.14275613 -0.046394184 0.31684402 4278231295
0.14175434 -0.045648858 0.3113158 4278230015
0.14305928 -0.04563085 0.31132188 4278230015
0.14674024 -0.046339199 0.31686249 4278231295
0.14335208 -0.044893619 0.30598858 4278230015
0.14018792 -0.043543611 0.29583356 4278228735
0.13929304 -0.042893119 0.29100657 4278227455
0.13541959 -0.041380089 0.27959085 4278226175
0.13092904 -0.039716586 0.26701552 4278224895
0.13484123 -0.040505573 0.27316716 4278224895
0.13598679 -0.040489763 0.2731725 4278224895
0.133369 -0.039410241 0.26504293 4278224895
0.13635072 -0.039918527 0.26905444 4278224895
0.13652858 -0.039639305 0.2670415 4278224895
0.13764849 -0.039623849 0.26704669 4278224895
0.14086403 -0.039856236 0.26907539 4278224895
0.14199236 -0.039840665 0.26908064 4278224895
0.1411503 -0.039302848 0.26507905 4278224895
0.13938923 -0.038532861 0.25929159 4278223615
0.13696817 -0.037316512 0.25018713 4278222335
0.13505036 -0.035733286 0.23846617 4278221055
0.13439383 -0.035309665 0.23531497 4278221055
0.13538112 -0.035296042 0.23531955 4278221055
0.1372045 -0.035485782 0.23689167 4278221055
0.13905218 -0.035678055 0.23848476 4278221055
0.14180848 -0.036084387 0.24173079 4278221055
0.14464031 -0.036501855 0.24506579 4278222335
0.14566818 -0.036487669 0.24507056 4278222335
0.14130487 -0.035214283 0.23534705 4278221055
0.14142828 -0.035000484 0.23380442 4278219775
-0.26450369 -0.090820454 0.61615425 4278255560
-0.26191631 -0.090784743 0.61616623 4278255560
-0.25932893 -0.090749033 0.61617827 4278255560
-0.25221848 -0.089253336 0.60572308 4278255565
