0,0,0,0,0,0,0,0,0,0,0,0,0,0,0,0,0,0,0,0,0,0,0,0,0,0,0,0,0,0,0,0,0,0,0,0,0,0,0,0,0,0,0,0,0,0,0,0,0,0,0,63,65,65,67,68,67,68,68,69,69,69,70,75,73,75,75,76,80,80,82,84,82,88,88,84,69,82,69,80,76,80,82,82,82,84,82,88,88,133,106,106,106,103,103,103,106,103,103,103,103,106,106,109,112,112,112,120,120,124,124,128,128,133,133,144,144,144,150,156,163,163,156,200,189,189,240,225,200,189,180,359,0,86,0,86,0,0,0,0,0,0,0,0,0,0,0,0,0,0,0,0,0,0,0,0,0,0,0,0,0,0,0,0,0,0,0,0,0,0,0,0,0,0,0,0,0,0,0,0,0,0,0,0,0,0,92,95,92,92,92,95,92,95,90,84,80,75,73,70,69,68,68,67,67,65,64,64,61,57,57,54,56,54,54,53,53,53,54,51,52,49,49,47,44,44,44,44,44,43,43,42,42,42,41,40,39,35,35,35,35,35,34,34,34,34,34,34,34,34,34,34,33,33,33,33,32,31,30,29,27,27,27,27,27,27,27,27,27,27,26,26,26,26,25,25,25,24,24,24,24,24,24,24,24,24,23,23,23,23,23,23,23,22,22,0,0,0,0,0,0,0,0,20,20,20,20,19,19,19,19,19,19,19,19,19,0,0,0,0
0,0,0,0,0,0,0,0,0,0,0,0,0,0,0,0,0,0,0,0,0,0,0,0,0,0,0,0,0,0,0,0,0,0,0,0,0,0,0,0,0,0,0,0,0,0,0,0,0,0,0,63,65,65,67,67,67,68,68,68,69,69,70,73,73,73,75,75,78,78,80,84,80,86,88,84,69,82,69,80,76,80,82,82,82,84,82,88,88,133,112,100,103,103,103,103,106,103,103,103,103,106,109,109,112,116,112,120,120,124,124,128,128,133,133,144,144,150,150,156,156,163,156,189,180,189,240,211,189,189,180,359,0,86,0,82,0,0,0,0,0,0,0,0,0,0,0,0,0,0,0,0,0,0,0,0,0,0,0,0,0,0,0,0,0,0,0,0,0,0,0,0,0,0,0,0,0,0,0,0,0,0,0,0,0,90,95,92,90,90,92,92,90,92,88,82,78,75,73,70,70,69,68,67,67,65,65,64,62,56,58,54,56,54,54,54,53,53,54,51,52,49,49,47,45,45,45,44,44,43,43,42,42,41,40,39,37,35,35,35,35,35,34,34,34,34,34,34,34,34,34,34,33,33,33,33,32,31,30,29,27,27,27,27,27,27,27,27,27,27,26,26,26,26,25,25,25,25,24,24,24,24,24,24,24,24,24,23,23,23,23,23,23,22,22,0,0,0,0,0,0,0,0,20,20,20,20,19,19,19,19,19,19,19,19,19,0,0,0,0
0,0,0,0,0,0,0,0,0,0,0,0,0,0,0,0,0,0,0,0,0,0,0,0,0,0,0,0,0,0,0,0,0,0,0,0,0,0,0,0,0,0,0,0,0,0,0,0,0,0,0,63,64,65,65,67,67,68,68,68,69,69,70,73,73,73,73,73,76,76,78,82,78,84,84,82,69,82,69,80,76,80,82,82,82,84,82,88,88,133,124,95,97,100,103,103,103,106,103,103,103,109,109,109,112,116,109,120,120,124,124,128,128,133,133,144,144,150,150,156,156,163,156,180,171,189,225,200,189,180,180,399,0,86,80,80,0,0,0,0,0,0,0,0,0,0,0,0,0,0,0,0,0,0,0,0,0,0,0,0,0,0,0,0,0,0,0,0,0,0,0,0,0,0,0,0,0,0,0,0,0,0,0,0,0,92,97,95,92,92,92,92,92,90,86,80,78,75,73,72,70,69,69,67,67,67,65,65,63,56,59,54,56,54,54,53,53,53,54,51,51,49,49,47,45,45,45,45,44,44,43,42,42,41,39,38,36,35,35,35,35,35,34,34,34,34,34,34,34,34,33,34,33,33,33,33,32,31,30,29,27,27,27,27,27,27,27,27,27,27,27,26,26,26,25,25,25,25,25,24,25,24,24,24,24,24,24,24,23,23,23,22,22,22,22,0,0,0,0,0,0,0,21,20,20,20,20,19,19,19,19,19,19,19,19,19,0,0,0,0
0,0,0,0,0,0,0,0,0,0,0,0,0,0,0,0,0,0,0,0,0,0,0,0,0,0,0,0,0,0,0,0,0,0,0,0,0,0,0,0,0,0,0,0,0,0,0,0,0,0,0,64,64,65,65,67,67,68,69,68,69,70,70,73,73,73,73,73,76,76,78,82,78,82,82,82,69,82,69,80,76,80,82,82,82,84,82,88,88,133,120,95,95,100,103,103,103,106,106,103,103,106,109,109,112,116,109,120,120,124,124,128,128,133,133,144,144,144,150,150,150,156,150,171,171,180,211,189,189,189,180,399,0,88,82,82,76,0,0,0,0,0,0,0,0,0,0,0,0,0,0,0,0,0,0,0,0,0,0,0,0,0,0,0,0,0,0,0,0,0,0,0,0,0,0,0,0,0,0,0,0,0,0,0,92,95,97,95,95,92,92,92,92,86,84,80,78,76,73,72,70,69,69,67,67,67,67,65,63,55,59,54,56,54,54,53,53,52,53,51,51,49,49,47,45,46,45,45,45,44,43,43,42,41,39,37,36,35,35,35,35,35,34,34,34,34,34,34,34,33,33,34,33,33,33,33,32,31,30,29,27,28,27,27,27,27,27,27,27,27,27,26,26,26,25,25,25,25,25,25,25,25,25,24,25,24,24,24,23,23,23,22,22,22,22,22,0,0,0,21,21,21,21,20,20,20,20,19,19,19,19,19,19,19,19,19,0,0,0,0
0,0,0,0,0,0,0,0,0,0,0,0,0,0,0,0,0,0,0,0,0,0,0,0,0,0,0,0,0,0,0,0,0,0,0,0,0,0,0,0,0,0,0,0,0,0,0,0,0,0,0,65,65,65,65,68,68,69,69,69,69,70,70,73,73,73,73,73,76,76,76,80,78,82,80,80,69,82,69,80,76,80,82,82,82,86,82,88,88,133,112,95,95,97,103,103,103,106,106,103,103,106,112,109,112,116,112,120,120,124,124,124,128,133,133,144,138,144,150,150,150,156,150,171,171,189,211,200,189,189,189,399,144,88,84,82,80,0,0,0,0,0,0,0,0,0,0,0,0,0,0,0,0,0,0,0,0,0,0,0,0,0,0,0,0,0,0,0,0,0,0,0,0,0,0,0,0,0,0,0,0,0,0,0,92,97,97,95,92,92,92,90,90,86,82,78,78,76,75,75,72,72,70,68,68,67,67,65,63,55,59,54,56,54,54,53,52,52,53,51,51,49,49,47,46,47,46,45,45,44,43,43,42,41,39,37,37,35,35,35,35,35,34,34,34,34,33,34,33,33,33,33,33,33,33,32,32,31,30,29,27,28,28,27,27,27,27,27,27,27,27,27,26,26,25,25,25,25,25,25,25,25,25,25,25,24,24,24,23,23,23,22,22,22,22,21,0,21,21,21,21,21,21,20,20,20,20,19,19,19,19,19,19,19,19,19,0,0,0,0
0,0,0,0,0,0,0,0,0,0,0,0,0,0,0,0,0,0,0,0,0,0,0,0,0,0,0,0,0,0,0,0,0,0,0,0,0,0,0,0,0,0,0,0,0,0,0,0,0,0,0,65,65,65,65,67,68,69,69,68,69,70,70,73,73,73,73,73,75,76,75,80,76,80,78,78,69,82,69,80,78,80,82,82,82,86,82,88,88,133,120,103,106,97,103,106,106,106,106,106,103,106,112,109,112,116,112,120,120,124,124,124,128,133,128,144,138,144,144,150,150,150,150,171,171,189,211,200,200,200,200,399,144,0,84,82,0,0,0,0,0,0,0,0,0,0,0,0,0,0,0,0,0,0,0,0,0,0,0,0,0,0,0,0,0,0,0,0,0,0,0,0,0,0,0,0,0,0,0,0,0,0,0,0,90,97,95,92,92,92,90,90,88,84,82,78,78,76,75,75,72,73,72,68,69,69,68,67,64,56,59,54,56,54,54,53,52,52,53,51,51,49,49,47,46,47,46,45,45,44,43,43,42,41,39,37,37,36,35,35,35,35,34,33,34,34,33,34,33,33,33,33,33,32,32,32,32,31,30,29,27,28,28,27,27,27,27,27,27,27,27,27,26,26,25,25,25,25,25,25,25,25,25,25,25,25,24,24,23,23,22,22,22,22,0,21,0,21,21,21,21,21,21,20,20,20,20,19,19,19,19,19,19,19,19,0,0,0,0,0
0,0,0,0,0,0,0,0,0,0,0,0,0,0,0,0,0,0,0,0,0,0,0,0,0,0,0,0,0,0,0,0,0,0,0,0,0,0,0,0,0,0,0,0,0,0,0,0,0,0,0,65,65,65,64,65,67,69,69,68,69,70,70,73,73,73,72,72,75,75,73,78,76,76,75,76,69,80,70,80,78,80,82,82,82,86,82,88,88,133,116,103,112,100,100,103,106,106,106,106,103,106,109,112,112,116,112,120,120,124,124,124,128,133,128,138,133,144,0,0,150,150,150,163,171,189,211,211,200,200,200,399,144,0,0,0,0,0,0,0,0,0,0,0,0,0,0,0,0,0,0,0,0,0,0,0,0,0,0,0,0,0,0,0,0,0,0,0,0,0,0,0,0,0,0,0,0,0,0,0,0,0,0,0,92,97,97,95,95,95,92,90,88,86,82,80,78,78,76,76,73,75,73,70,70,70,68,67,64,57,59,54,56,53,54,53,52,52,53,51,51,49,49,47,47,48,47,45,44,43,43,42,41,40,39,38,38,36,35,35,35,35,34,33,34,33,33,34,33,33,33,33,33,32,32,32,32,30,30,29,27,28,28,27,27,27,27,27,27,27,27,26,26,26,25,25,25,25,25,25,25,25,25,25,26,0,0,24,23,23,22,22,22,22,0,21,0,21,21,21,21,21,21,20,20,20,20,19,19,19,19,19,19,19,19,0,0,0,0,0
0,0,0,0,0,0,0,0,0,0,0,0,0,0,0,0,0,0,0,0,0,0,0,0,0,0,0,0,0,0,0,0,0,0,0,0,0,0,0,0,0,0,0,0,0,0,0,0,0,0,0,63,63,64,64,65,65,68,69,68,69,70,69,72,72,72,70,72,73,73,72,76,75,75,73,76,69,80,70,80,78,80,82,82,82,86,82,88,88,128,106,97,100,100,97,97,103,106,106,106,103,106,109,112,112,116,112,120,116,120,124,124,124,128,124,138,133,144,0,0,150,150,150,163,171,189,211,211,211,211,211,399,144,0,0,0,0,0,0,0,0,0,0,0,0,0,0,0,0,0,0,0,0,0,0,0,0,0,0,0,0,0,0,0,0,0,0,0,0,0,0,0,0,0,0,0,0,0,0,0,0,0,0,92,95,97,97,95,95,95,92,90,88,84,80,80,78,78,76,78,73,75,75,72,70,72,68,65,64,56,59,54,55,53,54,54,52,53,54,51,51,49,49,47,47,48,47,45,45,44,43,42,41,40,39,39,39,36,35,35,35,35,34,33,34,33,33,33,33,33,33,33,33,32,32,32,32,30,30,29,27,28,28,27,27,27,27,27,27,27,27,26,26,26,25,25,25,25,25,25,25,26,26,26,26,0,0,24,23,22,22,22,22,22,21,21,0,21,21,21,21,21,21,20,20,20,20,20,19,19,0,19,19,19,19,0,0,0,0,0
0,0,0,0,0,0,0,0,0,0,0,0,0,0,0,0,0,0,0,0,0,0,0,0,0,0,0,0,0,0,0,0,0,0,0,0,0,0,0,0,0,0,0,0,0,0,0,0,0,0,0,63,63,63,63,65,65,68,69,68,69,70,70,72,72,72,70,72,73,73,72,76,75,75,73,76,69,80,70,80,78,80,82,82,82,86,82,88,88,128,100,95,97,100,97,95,100,106,106,106,106,106,109,109,109,116,112,116,116,120,120,124,124,128,124,138,128,144,0,150,150,150,150,163,171,189,211,225,211,211,211,399,0,0,0,0,0,0,0,0,0,0,0,0,0,0,0,0,0,0,0,0,0,0,0,0,0,0,0,0,0,0,0,0,0,0,0,0,0,0,0,0,0,0,0,0,0,0,0,0,0,0,0,92,97,97,95,95,95,95,90,90,86,82,80,80,76,78,76,78,73,75,75,73,72,75,0,67,65,57,59,54,55,54,54,54,53,53,54,51,51,49,49,48,47,49,47,45,45,44,43,42,40,40,39,39,39,36,35,36,35,35,34,33,33,33,33,33,33,33,33,33,34,32,32,32,32,30,30,29,27,28,28,27,27,27,27,27,27,27,26,26,26,26,26,26,26,26,25,26,26,26,26,26,26,0,0,24,22,22,22,22,22,22,21,21,21,21,21,21,21,21,21,21,20,20,20,20,19,19,0,19,19,19,19,0,0,0,0,0
0,0,0,0,0,0,0,0,0,0,0,0,0,0,0,0,0,0,0,0,0,0,0,0,0,0,0,0,0,0,0,0,0,0,0,0,0,0,0,0,0,0,0,0,0,0,0,0,0,0,0,62,62,62,63,65,65,68,70,69,69,75,72,73,73,73,72,72,73,75,73,76,76,76,73,78,69,80,72,80,78,80,82,82,82,86,82,88,88,128,95,92,95,100,100,95,97,106,106,109,106,106,109,109,109,116,112,116,116,120,120,120,124,128,124,138,128,144,0,150,150,150,150,163,171,180,211,225,211,211,211,399,0,0,0,0,0,0,0,0,0,0,0,0,0,0,0,0,0,0,0,0,0,0,0,0,0,0,0,0,0,0,0,0,0,0,0,0,0,0,0,0,0,0,0,0,0,0,0,0,0,0,0,92,97,95,95,95,95,92,90,90,86,80,80,80,76,78,76,78,73,76,76,75,73,78,0,69,65,58,59,53,55,54,54,54,52,53,54,51,51,49,49,49,47,49,47,45,45,44,43,41,40,40,39,39,39,37,35,35,35,35,34,33,33,33,33,33,33,33,33,33,34,33,32,32,32,31,30,29,27,28,28,27,27,27,27,27,27,27,26,26,26,26,26,26,26,26,26,26,26,0,27,26,28,0,0,23,22,22,22,22,22,22,22,21,21,21,21,21,21,21,21,21,20,20,20,20,19,19,19,19,19,19,19,0,0,0,0,0
0,0,0,0,0,0,0,0,0,0,0,0,0,0,0,0,0,0,0,0,0,0,0,0,0,0,0,0,0,0,0,0,0,0,0,0,0,0,0,0,0,0,0,0,0,0,0,0,0,0,0,60,61,61,63,65,64,67,0,0,0,78,75,75,75,75,72,73,75,76,73,76,76,76,75,78,69,80,72,80,78,80,82,82,82,84,82,88,86,128,95,92,97,103,106,103,100,106,106,109,106,106,109,109,109,116,112,116,116,120,120,120,120,128,124,133,128,144,144,150,150,150,150,171,171,189,211,225,211,211,211,0,0,0,0,0,0,0,0,0,0,0,0,0,0,0,0,0,0,0,0,0,0,0,0,0,0,0,0,0,0,0,0,0,0,0,0,0,0,0,0,0,0,0,0,0,0,0,0,0,0,0,90,95,100,100,97,97,97,95,90,90,86,80,80,80,76,78,76,78,73,75,76,75,73,78,0,69,67,59,59,53,55,53,54,53,52,52,54,51,51,49,49,49,48,49,47,46,45,44,43,41,40,40,39,39,39,37,35,35,35,35,34,32,33,33,33,33,33,33,33,33,34,33,32,32,33,31,30,29,27,28,28,27,27,27,27,27,27,27,26,26,26,26,26,26,26,26,25,25,0,0,28,27,0,0,0,23,22,22,22,22,22,22,22,22,21,21,21,21,21,21,21,20,20,20,20,20,19,19,19,19,19,19,19,0,0,0,0,0
0,0,0,0,0,0,0,0,0,0,0,0,0,0,0,0,0,0,0,0,0,0,0,0,0,0,0,0,0,0,0,0,0,0,0,0,0,0,0,0,0,0,0,0,0,0,0,0,0,0,0,57,60,60,62,64,63,65,68,0,0,0,78,78,76,76,73,75,75,76,72,76,76,76,75,78,69,80,72,80,78,80,82,82,82,84,82,88,86,128,97,95,100,106,109,109,109,106,106,109,112,103,109,112,109,116,112,116,116,116,120,120,120,124,120,133,128,144,150,150,150,150,150,171,171,189,225,240,225,225,225,0,0,0,0,0,0,0,0,0,0,0,0,0,0,0,0,0,0,0,0,0,0,0,0,0,0,0,0,0,0,0,0,0,0,0,0,0,0,0,0,0,0,0,0,0,0,0,0,0,0,0,92,97,100,97,97,97,97,95,92,90,86,82,80,80,76,76,76,78,73,75,76,75,73,76,0,69,67,59,59,53,56,54,54,53,53,53,54,51,51,49,49,49,48,49,47,46,45,44,42,41,40,40,40,39,39,37,35,36,35,35,34,32,33,33,33,33,33,33,33,33,34,33,32,32,33,32,30,29,27,28,28,27,27,27,27,0,0,0,26,26,26,26,25,26,26,26,25,25,0,0,28,0,0,0,0,23,22,22,22,22,22,22,22,22,21,21,21,21,21,21,21,20,20,20,20,0,19,19,19,19,19,0,19,0,0,0,0,0
0,0,0,0,0,0,0,0,0,0,0,0,0,0,0,0,0,0,0,0,0,0,0,0,0,0,0,0,0,0,0,0,0,0,0,0,0,0,0,0,0,0,0,0,0,0,0,0,0,0,0,55,59,58,62,63,62,63,67,0,0,0,0,78,75,76,72,75,73,75,70,75,75,75,75,78,69,80,72,80,78,80,82,82,82,84,82,88,86,133,103,100,106,112,116,112,116,112,103,109,116,106,106,112,109,116,109,116,116,116,120,120,120,124,120,133,133,144,150,156,156,156,150,171,180,189,225,240,225,225,225,0,0,0,0,0,0,0,0,0,0,0,0,0,0,0,0,0,0,0,0,0,0,0,0,0,0,0,0,0,0,0,0,0,0,0,0,0,0,0,0,0,0,0,0,0,0,0,0,0,0,0,95,97,100,97,97,97,97,95,92,90,84,84,80,80,76,76,78,78,73,76,76,75,75,76,72,69,67,0,60,53,56,54,54,54,53,53,54,51,52,49,49,49,49,49,47,47,45,43,42,41,40,40,40,39,39,37,0,35,35,35,34,32,33,33,33,33,33,33,33,33,34,33,32,32,33,32,30,29,27,28,28,27,0,0,0,0,0,0,26,26,26,26,25,26,26,25,25,25,0,0,29,0,0,0,0,23,22,22,22,22,22,22,22,22,0,0,21,21,21,21,21,20,20,20,0,0,0,19,0,0,0,0,19,0,0,0,0,0
0,0,0,0,0,0,0,0,0,0,0,0,0,0,0,0,0,0,0,0,0,0,0,0,0,0,0,0,0,0,0,0,0,0,0,0,0,0,0,0,0,0,0,0,0,0,0,0,0,0,0,56,60,59,62,63,62,63,65,68,72,0,0,0,72,75,70,75,73,75,70,73,75,75,75,78,70,80,72,80,78,80,82,82,82,84,82,88,86,138,116,109,112,116,116,116,116,120,103,106,112,112,106,112,109,116,112,116,116,120,120,120,120,124,120,133,133,150,150,156,156,156,156,180,180,189,225,240,225,225,225,0,0,0,0,0,0,0,0,0,0,0,0,0,0,0,0,0,0,0,0,0,0,0,0,0,0,0,0,0,0,0,0,0,0,0,0,0,0,0,0,0,0,0,0,0,0,0,0,0,0,0,95,97,97,97,97,97,97,95,92,90,84,82,80,80,76,76,76,78,73,76,76,76,73,75,70,67,65,0,59,54,56,54,54,54,54,53,54,51,52,49,49,49,49,49,47,47,45,43,42,41,41,40,40,39,39,37,35,35,35,35,34,32,33,33,33,33,33,33,33,33,34,33,33,33,34,33,31,29,27,28,28,27,0,0,0,0,0,0,26,26,25,26,25,26,25,25,25,25,0,0,29,0,0,0,0,23,22,22,22,22,22,22,22,0,0,0,21,21,21,21,21,20,20,20,0,0,0,0,0,0,0,0,19,0,0,0,0,0
0,0,0,0,0,0,0,0,0,0,0,0,0,0,0,0,0,0,0,0,0,0,0,0,0,0,0,0,0,0,0,0,0,0,0,0,0,0,0,0,0,0,0,0,0,0,0,0,0,0,0,58,61,61,63,64,63,63,65,68,70,0,0,0,72,73,0,75,72,75,72,73,76,75,76,80,70,82,72,80,78,80,82,82,82,84,82,88,84,138,120,112,116,116,116,116,116,120,106,103,109,116,106,112,112,116,112,116,116,120,120,120,120,124,120,128,133,150,150,156,156,156,156,180,180,189,240,240,225,225,225,0,0,0,0,0,0,0,0,0,0,0,0,0,0,0,0,0,0,0,0,0,0,0,0,0,0,0,0,0,0,0,0,0,0,0,0,0,0,0,0,0,0,0,0,0,0,0,0,0,0,92,95,103,100,100,100,100,100,95,92,90,84,82,80,80,76,76,76,78,73,76,76,75,72,72,69,65,64,59,59,54,56,54,54,54,54,53,54,51,52,49,49,51,49,49,48,47,45,44,43,42,41,41,40,39,39,37,35,35,35,35,34,32,34,34,33,33,33,33,33,33,34,34,34,34,34,34,31,30,27,28,28,27,0,0,0,0,0,0,26,26,25,26,25,25,25,25,25,25,0,0,29,27,0,0,0,23,22,22,22,22,22,22,22,0,0,0,0,0,0,21,21,20,20,0,0,0,0,0,0,0,0,0,19,0,0,0,0,0
0,0,0,0,0,0,0,0,0,0,0,0,0,0,0,0,0,0,0,0,0,0,0,0,0,0,0,0,0,0,0,0,0,0,0,0,0,0,0,0,0,0,0,0,0,0,0,0,0,0,0,60,62,62,63,65,63,63,65,68,70,0,0,0,75,0,72,75,73,76,72,75,76,75,76,80,70,82,72,80,78,80,82,82,82,84,82,88,84,138,124,112,120,120,120,124,120,120,112,106,109,116,109,109,112,116,112,116,120,120,120,120,120,124,120,128,138,150,150,156,156,156,156,180,180,189,225,257,225,225,225,0,0,0,0,0,0,0,0,0,0,0,0,0,0,0,0,0,0,0,0,0,0,0,0,0,0,0,0,0,0,0,0,0,0,0,0,0,0,0,0,0,0,0,0,0,0,0,0,0,0,95,97,103,100,103,100,100,100,97,92,90,84,82,80,78,76,75,76,78,73,76,76,75,73,70,69,64,64,60,59,54,56,54,54,54,54,53,54,51,53,49,49,52,49,49,49,48,45,45,43,42,42,41,41,40,39,37,35,35,35,35,34,32,34,34,33,33,33,33,33,34,34,34,34,34,34,34,32,30,27,28,28,27,0,0,0,0,0,0,26,26,25,26,25,25,25,25,25,25,25,0,29,27,0,0,0,23,22,22,22,22,22,22,22,0,0,0,0,0,21,21,21,20,20,20,0,0,0,0,0,0,0,0,19,19,0,0,0,0
0,0,0,0,0,0,0,0,0,0,0,0,0,0,0,0,0,0,0,0,0,0,0,0,0,0,0,0,0,0,0,0,0,0,0,0,0,0,0,0,0,0,0,0,0,0,0,0,0,0,0,60,62,62,63,65,64,64,67,69,70,0,73,75,75,75,72,75,73,76,73,73,76,75,76,80,70,80,72,80,78,80,82,82,80,84,80,88,84,144,144,128,133,133,133,138,133,124,116,112,106,120,116,109,116,120,116,116,120,124,120,120,124,124,120,128,138,150,150,156,156,156,156,180,189,189,225,257,225,225,225,0,0,0,0,0,0,0,0,0,0,0,0,0,0,0,0,0,0,0,0,0,0,0,0,0,0,0,0,0,0,0,0,0,0,0,0,0,0,0,0,0,0,0,0,0,0,0,0,0,90,95,100,103,100,103,103,100,97,97,92,90,84,82,78,76,76,75,76,76,72,75,75,73,72,69,68,64,64,60,59,54,56,54,53,54,54,52,54,51,52,49,49,53,49,49,49,48,46,45,44,43,42,42,41,39,39,37,35,35,35,34,34,32,34,34,33,33,33,33,33,34,34,34,33,33,34,33,31,30,27,28,28,27,0,0,0,0,0,0,26,26,25,26,25,25,25,25,25,25,25,0,0,0,0,0,23,23,22,22,22,22,22,22,22,0,0,0,21,21,21,21,20,20,20,20,0,0,0,0,0,0,0,0,19,19,0,0,0,0
0,0,0,0,0,0,0,0,0,0,0,0,0,0,0,0,0,0,0,0,0,0,0,0,0,0,0,0,0,0,0,0,0,0,0,0,0,0,0,0,0,0,0,0,0,0,0,0,0,0,0,61,62,62,63,64,63,63,65,68,69,70,72,73,73,73,72,75,73,75,72,73,76,73,76,78,70,80,70,80,76,80,82,80,80,84,80,88,84,150,150,138,156,144,150,150,138,128,116,120,103,116,116,112,112,120,116,116,120,124,120,120,124,124,120,128,138,150,150,156,156,163,156,180,189,189,225,257,225,225,225,0,0,0,0,0,0,0,0,0,0,0,0,0,0,0,0,0,0,0,0,0,0,0,0,0,0,0,0,0,0,0,0,0,0,0,0,0,0,0,0,0,0,0,0,0,0,0,0,0,92,97,103,103,100,106,106,100,100,97,95,90,86,82,80,76,78,73,76,76,72,75,75,73,73,69,68,64,64,60,59,54,56,54,53,54,54,53,54,51,53,51,51,54,49,49,49,48,46,45,44,43,43,42,41,40,39,37,35,35,34,34,34,32,34,34,34,33,33,33,33,34,34,33,33,33,33,32,30,29,27,28,28,27,0,0,0,0,0,0,0,26,25,26,25,25,25,25,25,25,25,0,0,0,0,0,23,23,22,22,22,22,22,22,22,22,0,0,21,21,21,21,20,20,20,20,0,0,0,0,0,0,0,0,19,19,0,0,0,0
0,0,0,0,0,0,0,0,0,0,0,0,0,0,0,0,0,0,0,0,0,0,0,0,0,0,0,0,0,0,0,0,0,0,0,0,0,0,0,0,0,0,0,0,0,0,0,0,0,0,0,61,62,62,62,63,63,62,64,68,69,70,70,73,73,72,72,73,72,75,70,72,76,72,76,78,70,80,70,80,76,78,80,80,80,84,80,86,82,163,156,144,180,150,150,144,133,124,109,116,103,116,112,116,116,124,120,120,120,124,124,124,124,124,120,124,133,144,144,156,156,156,156,180,189,189,225,276,225,225,225,0,0,0,0,0,0,0,0,0,0,0,0,0,0,0,0,0,0,0,0,0,0,0,0,0,0,0,0,0,0,0,0,0,0,0,0,0,0,0,0,0,0,0,0,0,0,0,0,0,95,100,106,103,103,109,106,103,100,97,95,90,86,82,80,76,78,73,76,76,72,75,75,72,72,68,68,63,63,60,59,55,56,54,53,54,54,53,54,52,53,51,51,55,49,49,49,48,45,45,44,43,43,43,41,40,39,37,0,35,34,34,34,32,34,34,34,33,34,33,34,34,34,33,33,32,33,32,30,30,28,28,28,27,0,0,0,0,0,0,0,26,25,26,25,25,25,25,25,25,25,0,0,0,0,0,23,23,22,22,22,22,22,22,22,0,0,0,21,21,21,21,20,0,20,20,0,0,0,0,0,0,19,0,19,19,0,0,0,0
0,0,0,0,0,0,0,0,0,0,0,0,0,0,0,0,0,0,0,0,0,0,0,0,0,0,0,0,0,0,0,0,0,0,0,0,0,0,0,0,0,0,0,0,0,0,0,0,0,0,0,62,63,62,63,63,63,63,65,68,68,70,70,73,73,72,70,73,70,73,70,72,75,72,75,76,70,80,70,80,76,78,80,80,80,84,80,86,82,156,150,0,299,156,0,144,124,116,106,116,103,116,112,120,112,124,120,120,120,124,124,124,124,128,120,124,133,144,138,156,156,156,156,180,189,189,225,276,225,225,225,0,0,0,0,0,0,0,0,0,0,0,0,0,0,0,0,0,0,0,0,0,0,0,0,0,0,0,0,0,0,0,0,0,0,0,0,0,0,0,0,0,0,0,0,0,0,0,0,0,97,103,106,103,103,109,106,103,100,95,92,90,86,80,80,76,78,73,76,76,73,75,75,72,73,68,68,63,63,60,59,55,55,54,53,54,54,53,54,52,53,52,52,56,49,49,49,48,45,44,43,43,43,43,42,40,39,37,0,35,34,34,34,32,34,34,34,34,34,34,34,34,34,33,32,32,33,32,30,30,29,28,28,27,0,27,0,0,0,0,0,26,26,26,25,25,25,25,25,25,25,0,0,0,0,0,0,23,22,22,22,22,22,22,0,0,0,0,0,21,21,21,20,20,20,20,0,0,0,0,0,0,19,19,19,19,0,0,0,0
0,0,0,0,0,0,0,0,0,0,0,0,0,0,0,0,0,0,0,0,0,0,0,0,0,0,0,0,0,0,0,0,0,0,0,0,0,0,0,0,0,0,0,0,0,0,0,0,0,0,0,63,64,63,64,65,65,65,67,69,69,70,70,73,73,72,70,73,70,73,70,72,75,70,75,76,69,78,70,80,76,78,80,80,80,82,80,86,82,138,120,0,0,0,0,144,109,112,103,116,100,116,109,116,112,124,120,120,120,124,124,128,124,128,124,124,133,138,138,156,156,156,156,180,189,189,225,276,225,225,225,0,0,0,0,0,0,0,0,0,0,0,0,0,0,0,0,0,0,0,0,0,0,0,0,0,0,0,0,0,0,0,0,0,0,0,0,0,0,0,0,0,0,0,0,0,0,0,0,90,100,106,106,103,103,106,103,103,100,95,92,88,86,80,80,76,78,73,76,75,73,75,75,73,73,68,68,63,63,59,59,55,55,54,53,54,54,53,54,51,53,52,52,57,49,49,49,48,45,45,43,43,43,43,42,40,39,37,35,35,34,34,34,32,34,34,34,34,34,34,34,34,34,33,32,32,33,32,30,30,29,28,29,28,0,27,27,27,0,0,0,26,26,26,25,25,25,25,25,25,25,0,0,0,0,0,0,0,22,22,22,22,22,22,0,0,0,0,0,0,0,0,0,20,20,20,0,0,0,0,0,0,19,19,19,19,0,0,0,0
0,0,0,0,0,0,0,0,0,0,0,0,0,0,0,0,0,0,0,0,0,0,0,0,0,0,0,0,0,0,0,0,0,0,0,0,0,0,0,0,0,0,0,0,0,0,0,0,0,0,0,64,65,65,65,67,67,67,68,69,69,70,70,73,75,73,70,73,70,73,70,72,73,70,73,76,69,78,70,78,76,78,80,80,80,82,78,86,82,128,100,103,0,0,0,133,100,103,97,112,97,116,109,112,112,120,120,120,120,124,124,128,124,128,124,128,133,138,138,156,156,156,156,180,189,189,225,276,225,225,225,0,0,0,0,0,0,0,0,0,0,0,0,0,0,0,0,0,0,0,0,0,0,0,0,0,0,0,0,0,0,0,0,0,0,0,0,0,0,0,0,0,0,0,0,0,0,0,0,95,100,109,106,103,106,106,100,100,97,95,92,88,86,80,80,76,78,75,76,75,73,75,75,72,73,68,67,63,62,59,59,55,54,54,52,54,53,52,54,51,52,53,53,58,49,49,49,48,45,44,43,43,43,43,42,40,39,36,35,35,34,34,34,33,34,34,34,34,34,34,34,34,34,33,32,32,32,32,30,30,29,28,28,28,27,27,27,27,0,27,0,26,26,26,25,24,25,25,25,25,25,0,0,0,0,0,0,0,23,0,22,22,22,22,0,0,0,0,0,0,0,0,0,0,0,0,0,0,0,0,0,19,19,0,19,19,0,0,0,0
0,0,0,0,0,0,0,0,0,0,0,0,0,0,0,0,0,0,0,0,0,0,0,0,0,0,0,0,0,0,0,0,0,0,0,0,0,0,0,0,0,0,0,0,0,0,0,0,0,0,0,64,64,64,65,67,67,67,68,69,69,72,72,75,75,75,72,73,72,73,70,72,73,70,73,75,69,78,70,78,76,78,80,80,80,82,78,86,82,124,97,97,0,0,0,124,103,106,100,116,100,116,109,112,112,120,120,120,120,124,124,128,124,128,124,128,133,138,138,156,163,163,156,189,189,200,225,276,225,225,225,0,0,0,0,0,0,0,0,0,0,0,0,0,0,0,0,0,0,0,0,0,0,0,0,0,0,0,0,0,0,0,0,0,0,0,0,0,0,0,0,0,0,0,0,0,0,0,0,97,103,109,109,106,106,103,100,100,95,92,90,88,86,80,80,76,78,75,76,75,73,75,75,70,73,68,67,63,63,59,59,55,54,54,52,54,53,52,54,51,52,54,54,59,50,50,49,49,45,44,42,42,43,43,41,39,37,36,35,35,34,35,34,33,34,34,34,34,34,34,34,34,34,33,32,32,32,32,30,30,29,28,28,28,27,28,28,27,27,27,0,26,26,26,25,24,25,25,25,25,25,0,0,0,0,0,0,0,0,0,22,22,22,22,0,0,0,0,0,0,0,0,0,0,0,0,0,0,0,0,0,19,19,19,19,19,0,0,0,0
0,0,0,0,0,0,0,0,0,0,0,0,0,0,0,0,0,0,0,0,0,0,0,0,0,0,0,0,0,0,0,0,0,0,0,0,0,0,0,0,0,0,0,0,0,0,0,0,0,0,0,64,64,64,65,65,65,65,68,69,69,72,72,75,76,75,72,75,72,73,70,70,73,70,73,75,69,78,70,78,76,78,80,78,80,82,78,86,80,120,92,95,0,0,90,109,100,103,97,116,100,116,109,116,112,120,120,120,120,124,124,128,124,128,124,128,133,138,138,163,163,163,163,189,200,200,225,276,240,240,240,0,0,0,0,0,0,0,0,0,0,0,0,0,0,0,0,0,0,0,0,0,0,0,0,0,0,0,0,0,0,0,0,0,0,0,0,0,0,0,0,0,0,0,0,0,0,0,0,97,106,109,109,106,109,103,100,100,95,92,92,88,88,80,82,76,78,75,75,75,75,73,75,70,73,68,67,63,63,59,59,56,54,54,52,54,53,52,54,0,52,54,54,59,50,50,49,49,45,43,41,41,42,41,39,38,37,36,35,35,35,35,34,33,34,34,34,34,34,34,34,34,34,33,32,32,32,32,30,30,29,28,29,28,27,28,28,27,27,27,27,26,26,26,25,24,25,25,25,25,25,0,0,0,0,0,0,0,0,0,22,22,22,22,0,0,0,0,0,0,0,0,0,0,0,0,0,0,0,0,19,19,19,19,19,19,0,0,0,0
0,0,0,0,0,0,0,0,0,0,0,0,0,0,0,0,0,0,0,0,0,0,0,0,0,0,0,0,0,0,0,0,0,0,0,0,0,0,0,0,0,0,0,0,0,0,0,0,0,0,0,65,65,64,65,65,65,65,68,68,69,73,73,75,76,75,72,75,72,73,70,70,73,70,73,75,69,78,70,78,76,78,80,78,78,82,78,86,80,116,95,95,92,88,92,106,95,95,95,116,97,116,109,116,116,120,120,120,120,124,124,128,128,128,128,133,133,138,138,163,163,171,163,200,200,211,240,299,257,257,257,0,0,0,0,0,0,0,0,0,0,0,0,0,0,0,0,0,0,0,0,0,0,0,0,0,0,0,0,0,0,163,116,200,0,0,0,0,0,0,0,0,0,0,0,0,0,0,0,100,109,112,109,106,109,100,100,100,95,92,92,88,88,82,82,78,78,75,76,75,75,73,75,70,73,67,67,63,63,58,59,56,54,53,51,54,53,52,54,0,52,54,54,60,50,50,49,49,44,42,40,40,41,39,37,36,36,35,35,35,35,35,35,33,34,34,34,34,34,34,34,34,34,33,32,32,32,32,30,30,29,28,29,28,27,28,28,27,27,27,27,27,26,26,25,24,25,25,25,25,0,0,0,0,0,0,0,0,0,0,0,22,22,22,0,0,0,0,0,0,0,0,0,0,0,0,0,0,0,0,19,0,19,19,19,19,0,0,0,0
0,0,0,0,0,0,0,0,0,0,0,0,0,0,0,0,0,0,0,0,0,0,0,0,0,0,0,0,0,0,0,0,0,0,0,0,0,0,0,0,0,0,0,0,0,0,0,0,0,0,0,67,65,65,68,67,65,65,68,68,69,73,73,75,76,75,73,75,73,73,70,70,73,70,73,76,69,78,70,78,76,78,80,78,78,82,78,86,80,112,97,95,92,88,92,100,88,88,90,109,97,116,109,116,116,120,116,120,120,124,124,128,128,128,128,133,133,138,138,163,171,171,163,211,211,211,257,299,257,257,257,0,0,0,0,0,0,0,0,0,0,0,0,0,0,0,0,0,0,0,0,0,0,0,0,0,0,0,0,0,0,189,163,257,225,276,276,276,276,299,276,359,299,0,0,0,0,0,95,103,112,109,112,106,109,100,100,97,95,92,92,90,88,82,84,78,80,76,76,75,75,73,75,70,73,68,68,64,63,57,59,56,54,53,51,53,53,52,53,0,52,54,54,60,49,49,49,49,44,41,40,39,39,37,37,36,35,35,35,35,34,35,34,33,34,34,34,34,34,34,34,34,34,33,32,32,32,32,30,30,29,28,29,29,27,28,28,27,27,27,27,27,26,26,25,24,25,25,25,25,0,0,0,0,0,0,0,0,0,0,0,22,22,22,0,0,22,0,0,0,0,0,0,0,0,0,0,0,0,0,19,19,19,19,19,19,0,0,0,0
0,0,0,0,0,0,0,0,0,0,0,0,0,0,0,0,0,0,0,0,0,0,0,0,0,0,0,0,0,0,0,0,0,0,0,0,0,0,0,0,0,0,0,0,0,0,0,0,0,0,0,68,67,67,69,67,65,65,68,68,70,75,75,75,76,75,73,75,73,72,70,70,73,70,73,76,69,78,70,78,76,78,80,78,78,82,78,86,82,112,97,95,92,88,92,97,88,86,90,109,100,120,109,116,116,120,116,124,120,124,124,128,128,128,128,133,133,144,144,163,180,180,171,211,225,225,257,299,276,276,276,0,0,0,0,0,0,0,0,0,0,0,0,0,0,0,0,0,0,0,0,0,0,0,0,0,0,0,0,0,150,240,171,240,211,257,257,257,257,276,257,327,276,0,0,0,0,0,97,106,112,109,112,109,109,97,100,97,92,92,90,88,88,82,84,78,80,76,76,76,76,72,0,70,73,67,68,63,62,56,59,56,53,53,51,53,53,53,54,0,52,54,54,60,49,49,49,49,45,42,41,39,39,38,37,36,35,35,35,35,34,34,34,33,34,34,34,34,34,34,0,34,34,33,32,32,32,32,31,30,30,28,29,29,27,28,28,27,27,27,27,27,26,26,25,24,25,25,25,25,0,0,0,0,0,0,0,0,0,0,0,22,22,22,0,0,22,22,0,0,0,0,0,0,0,0,0,0,0,0,19,19,19,19,19,19,0,0,0,0
0,0,0,0,0,0,0,0,0,0,0,0,0,0,0,0,0,0,0,0,0,0,0,0,0,0,0,0,0,0,0,0,0,0,0,0,0,0,0,0,0,0,0,0,0,0,0,0,0,0,0,68,67,67,69,68,67,65,68,68,70,75,75,75,76,75,73,73,72,72,70,70,73,70,73,76,69,78,70,78,76,78,80,80,80,82,78,86,82,0,97,97,95,90,95,97,92,90,90,109,103,120,112,116,120,120,116,124,120,124,124,128,128,128,128,133,133,144,144,163,180,180,171,225,225,225,257,327,276,276,276,0,0,0,0,0,0,0,0,0,0,0,0,0,0,0,0,0,0,0,0,0,0,0,0,0,0,0,0,0,180,299,180,257,225,257,257,257,276,276,257,327,257,0,0,0,0,0,97,109,112,109,112,112,109,97,100,97,92,92,90,88,88,82,84,78,80,75,76,75,75,72,75,70,72,67,69,63,62,55,59,56,53,54,51,53,53,53,54,0,52,55,54,59,49,49,49,51,46,42,41,40,40,39,37,36,36,35,35,35,35,35,35,34,34,34,34,34,34,34,0,34,34,34,33,33,33,33,31,30,30,28,29,29,27,28,28,27,27,27,27,27,26,26,25,24,25,25,25,25,0,0,0,0,0,0,0,0,0,0,0,23,23,23,0,0,22,22,0,21,21,0,0,0,0,0,0,0,0,0,0,19,19,19,19,19,0,0,0,0
0,0,0,0,0,0,0,0,0,0,0,0,0,0,0,0,0,0,0,0,0,0,0,0,0,0,0,0,0,0,0,0,0,0,0,0,0,0,0,0,0,0,0,0,0,0,0,0,0,0,0,67,65,67,68,67,65,65,68,68,70,73,75,75,76,73,72,73,72,72,69,69,73,70,73,76,69,78,70,78,76,78,80,80,80,82,80,86,82,120,100,97,100,92,95,100,95,92,92,112,103,120,112,116,120,120,116,124,120,124,124,128,128,128,128,133,133,138,144,163,180,180,180,225,240,240,276,327,299,299,299,0,0,0,0,0,0,0,0,0,0,0,0,0,0,0,0,0,0,0,0,0,0,0,0,0,0,0,0,0,200,257,200,299,257,299,299,299,299,299,299,327,240,0,0,0,0,0,103,116,116,116,120,112,112,100,103,97,95,95,92,90,88,82,84,80,80,76,76,76,75,72,75,69,72,67,68,63,63,55,59,56,53,54,52,54,53,53,54,52,52,55,54,59,50,50,50,51,47,43,41,40,40,38,37,37,36,36,36,35,35,35,35,34,34,34,34,34,34,34,0,34,34,34,33,33,33,33,30,30,29,27,29,28,27,28,28,27,27,27,27,26,26,26,25,24,25,25,25,25,25,0,0,0,0,0,0,0,0,0,0,23,23,0,0,0,22,22,0,21,21,0,0,0,0,0,0,0,0,0,0,0,19,19,19,19,0,0,0,0
0,0,0,0,0,0,0,0,0,0,0,0,0,0,0,0,0,0,0,0,0,0,0,0,0,0,0,0,0,0,0,0,0,0,0,0,0,0,0,0,0,0,0,0,0,0,0,0,0,0,0,67,64,64,65,65,63,64,67,67,69,73,73,73,75,73,72,72,72,72,69,70,75,72,73,76,69,80,70,80,76,78,80,80,80,82,80,86,82,128,109,103,106,97,97,100,97,95,95,112,106,120,109,116,116,120,112,124,116,124,124,124,124,128,128,133,133,138,138,163,180,189,180,240,257,257,276,359,327,327,327,0,0,0,0,0,0,0,0,0,0,0,0,0,0,0,0,0,0,0,0,0,0,0,0,0,0,0,0,0,200,257,257,359,276,299,299,299,327,327,327,327,225,399,200,163,0,0,106,116,116,112,116,112,112,100,103,97,95,95,92,90,90,84,84,80,80,76,76,76,73,72,75,69,72,67,68,63,63,56,59,57,53,54,52,54,54,54,54,52,53,55,53,59,51,51,50,50,46,43,41,40,39,38,37,37,36,36,36,35,35,35,35,34,34,34,34,34,34,34,0,34,34,34,33,33,33,33,30,30,29,27,29,28,27,28,28,27,27,27,27,26,26,26,25,25,25,25,25,25,25,0,0,0,0,0,0,0,0,0,0,0,0,0,0,0,22,21,21,21,21,0,0,0,20,20,0,0,0,0,19,19,19,19,19,19,0,0,0,0
0,0,0,0,0,0,0,0,0,0,0,0,0,0,0,0,0,0,0,0,0,0,0,0,0,0,0,0,0,0,0,0,0,0,0,0,0,0,0,0,0,0,0,0,0,0,0,0,0,0,0,64,63,63,64,63,61,61,64,65,68,72,73,73,75,73,72,72,72,72,70,70,75,72,75,78,70,80,70,80,76,78,80,80,80,84,80,86,82,128,116,103,112,97,0,0,95,92,92,109,103,120,109,116,116,120,112,120,116,124,124,124,124,128,128,133,128,138,138,163,180,189,180,257,257,257,276,359,327,327,327,0,0,0,0,0,0,0,0,0,0,0,0,0,0,0,0,0,0,0,0,0,0,0,0,0,0,0,0,150,211,225,257,327,257,299,276,299,327,299,327,327,257,359,299,240,0,0,112,116,112,116,116,112,112,103,103,100,97,97,92,90,90,84,86,80,78,76,76,76,73,72,75,69,72,68,68,64,64,57,59,57,54,54,53,54,54,54,55,53,53,56,53,58,51,51,50,50,46,43,41,39,39,38,37,37,37,36,36,36,35,35,35,34,34,34,34,34,34,34,34,34,34,34,33,32,32,33,30,30,30,27,29,28,27,27,27,27,27,27,27,26,25,26,25,25,25,25,25,25,25,0,0,0,0,0,0,0,0,0,0,0,0,0,0,0,22,21,21,21,21,21,20,20,20,20,0,0,0,19,19,19,19,19,19,19,0,0,0,0
0,0,0,0,0,0,0,0,0,0,0,0,0,0,0,0,0,0,0,0,0,0,0,0,0,0,0,0,0,0,0,0,0,0,0,0,0,0,0,0,0,0,0,0,0,0,0,0,0,0,0,64,62,63,63,63,62,62,65,65,69,72,73,75,75,73,72,72,70,72,70,72,76,73,76,78,70,80,72,80,78,78,80,80,80,84,80,86,82,128,112,100,106,95,0,0,92,88,92,106,103,120,106,116,112,116,112,124,112,124,120,124,124,128,128,133,128,138,138,163,180,189,180,240,276,276,276,359,327,327,327,0,0,0,0,0,0,0,0,0,0,0,0,0,0,0,0,0,0,0,0,0,0,0,0,0,0,0,0,156,257,225,276,327,276,276,276,299,299,299,327,299,257,359,359,240,0,0,0,120,116,116,116,112,112,106,103,103,103,97,92,92,92,84,86,80,78,76,76,76,73,72,75,69,73,69,68,64,64,57,59,57,54,55,53,54,54,54,55,53,54,56,53,58,51,51,50,49,46,42,40,39,38,38,37,37,37,36,36,36,35,35,35,34,34,34,34,34,34,34,34,34,34,34,32,32,32,33,31,30,30,27,29,29,27,27,27,27,27,27,27,26,25,26,25,25,25,25,25,25,25,0,0,0,0,0,0,0,0,0,0,0,0,0,0,22,22,21,21,21,20,20,20,20,20,20,20,20,20,20,20,19,0,0,19,19,0,0,0,0
0,0,0,0,0,0,0,0,0,0,0,0,0,0,0,0,0,0,0,0,0,0,0,0,0,0,0,0,0,0,0,0,0,0,0,0,0,0,0,0,0,0,0,0,0,0,0,0,0,0,0,64,63,64,64,64,63,64,67,68,69,73,75,75,76,75,72,73,70,73,70,72,76,75,76,78,70,80,72,80,78,80,80,80,80,84,80,88,84,128,112,103,109,95,0,0,95,86,92,106,100,116,106,112,112,116,112,120,112,120,120,124,120,128,128,133,128,138,138,163,180,189,180,240,276,276,276,359,327,327,327,0,0,0,0,0,0,0,0,0,0,0,0,0,0,0,0,0,0,0,0,0,0,0,0,0,0,0,0,163,276,240,327,359,299,299,299,299,327,327,359,299,276,359,359,225,0,0,0,124,120,116,116,116,116,109,103,103,106,100,92,95,92,86,86,82,80,75,76,76,73,72,75,70,73,69,68,64,64,57,58,57,54,55,53,54,54,54,55,53,54,56,52,56,51,50,50,49,45,42,40,39,39,38,38,37,37,36,36,36,35,35,35,34,34,34,34,34,34,34,34,34,34,34,32,32,32,33,31,30,30,27,29,29,27,27,27,27,27,27,27,26,25,26,25,25,25,25,25,25,25,0,0,0,0,0,0,0,0,0,0,0,0,0,0,0,21,21,21,21,20,20,20,20,20,20,0,0,0,0,0,0,0,0,19,19,0,0,0,0
0,0,0,0,0,0,0,0,0,0,0,0,0,0,0,0,0,0,0,0,0,0,0,0,0,0,0,0,0,0,0,0,0,0,0,0,0,0,0,0,0,0,0,0,0,0,0,0,0,0,0,63,63,63,63,64,62,64,68,69,72,76,76,76,78,76,72,73,70,73,70,72,76,73,75,78,70,80,72,80,78,80,82,82,82,84,82,88,86,128,120,120,124,109,0,0,100,92,92,106,103,116,106,112,112,116,109,120,112,120,120,124,120,124,124,133,128,138,138,163,171,189,180,257,276,276,276,359,327,327,327,0,0,0,0,0,0,0,0,0,0,0,0,0,0,0,0,0,0,0,0,0,0,0,0,0,0,0,0,171,299,257,299,359,299,299,299,299,327,327,327,327,276,359,327,200,0,0,128,124,120,116,116,116,116,112,100,106,106,100,95,95,92,86,86,82,78,75,76,76,73,72,75,70,73,69,68,64,64,58,58,57,53,55,54,54,54,54,55,54,54,56,52,54,50,50,49,48,44,42,40,40,39,39,38,38,37,37,36,36,35,35,35,34,34,34,34,34,34,34,34,33,34,34,32,32,32,33,31,30,30,27,29,29,27,27,27,27,0,27,27,26,25,26,25,25,25,25,25,25,25,0,0,0,0,0,0,0,0,0,0,0,0,0,0,0,21,21,21,21,20,20,20,20,20,0,0,0,0,0,0,0,0,0,0,0,0,0,0,0
0,0,0,0,0,0,0,0,0,0,0,0,0,0,0,0,0,0,0,0,0,0,0,0,0,0,0,0,0,0,0,0,0,0,0,0,0,0,0,0,0,0,0,0,0,0,0,0,0,0,0,63,62,62,61,61,58,62,0,0,0,76,76,76,78,76,72,72,70,72,70,70,75,73,73,76,70,80,72,80,78,80,82,82,82,86,82,88,86,133,124,128,128,124,138,124,116,109,97,109,103,116,106,112,112,116,109,120,112,120,116,120,120,124,124,133,128,138,138,163,171,189,180,257,276,276,299,359,327,327,327,0,0,0,0,0,0,0,0,0,0,0,0,0,0,0,0,0,0,0,0,0,0,0,0,0,0,0,0,189,299,257,299,327,299,299,299,299,327,299,327,327,276,359,299,189,0,0,0,124,120,116,116,116,120,116,100,106,106,100,92,95,92,84,86,82,78,75,76,76,73,72,75,70,73,69,68,64,64,58,57,56,53,55,54,54,54,54,54,54,54,55,51,53,50,49,48,47,44,41,41,40,39,39,39,38,38,37,37,36,36,36,35,35,34,34,34,34,34,34,34,33,34,34,32,32,32,33,31,30,30,27,29,29,27,27,27,27,0,27,27,26,25,26,26,25,25,26,25,25,25,0,0,0,0,0,0,0,0,0,0,0,0,23,0,0,21,21,21,21,20,20,20,20,20,20,0,0,0,0,0,0,0,0,0,0,0,0,0,0
0,0,0,0,0,0,0,0,0,0,0,0,0,0,0,0,0,0,0,0,0,0,0,0,0,0,0,0,0,0,0,0,0,0,0,0,0,0,0,0,0,0,0,0,0,0,0,0,0,0,0,62,61,61,60,61,59,62,0,73,0,0,0,78,78,78,72,72,70,72,69,70,75,73,73,76,70,80,72,80,78,80,82,82,82,86,82,88,86,133,124,128,133,124,133,120,116,116,103,109,103,112,106,112,112,116,109,120,112,116,116,120,120,124,124,133,128,138,138,163,171,189,180,276,276,299,299,359,327,327,327,0,0,0,0,0,0,0,0,0,0,0,0,0,0,0,0,0,0,0,0,0,0,0,0,0,0,0,0,200,299,257,359,359,327,327,327,327,327,327,359,327,276,327,276,189,0,0,0,124,124,120,116,116,116,116,97,103,103,97,92,95,92,86,86,82,80,76,78,76,73,73,75,72,75,69,68,64,64,58,56,56,53,55,54,54,54,54,54,54,53,54,51,52,50,49,47,47,44,42,41,40,39,39,39,38,38,37,37,36,36,36,36,35,35,34,34,34,34,34,33,33,34,34,32,32,32,33,32,30,30,27,29,29,27,26,26,26,0,27,27,26,25,26,26,25,25,26,25,25,25,0,0,0,0,0,0,0,0,0,0,0,23,22,22,21,21,21,21,21,20,20,20,20,20,20,20,0,0,0,0,0,0,0,0,0,0,0,0,0
0,0,0,0,0,0,0,0,0,0,0,0,0,0,0,0,0,0,0,0,0,0,0,0,0,0,0,0,0,0,0,0,0,0,0,0,0,0,0,0,0,0,0,0,0,0,0,0,0,0,0,60,60,60,60,60,59,62,63,68,0,0,0,80,80,80,73,73,72,72,70,70,75,73,75,76,70,80,72,80,78,80,82,82,82,86,82,88,86,133,124,128,138,128,133,120,116,112,103,109,106,112,106,109,112,116,109,120,112,116,116,120,120,124,124,133,133,138,144,171,180,189,180,276,299,299,299,359,359,359,359,0,0,0,0,0,0,0,0,0,0,0,0,0,0,0,0,0,0,0,0,0,0,0,0,0,0,0,0,211,299,240,0,399,359,327,327,359,359,359,399,327,276,327,257,180,0,0,0,128,124,120,120,116,116,116,97,103,103,97,92,95,92,86,88,82,82,76,78,78,75,73,76,72,75,70,68,64,64,58,55,56,53,55,54,54,53,53,54,53,53,54,51,51,49,48,47,46,44,42,41,40,40,39,39,39,38,37,37,36,36,36,36,35,34,34,34,34,34,33,33,33,33,34,32,32,32,33,32,30,30,27,29,29,27,26,26,26,0,26,27,26,25,26,26,26,26,26,26,26,25,26,0,0,0,0,0,0,0,0,0,0,22,22,22,21,21,21,21,21,20,20,20,20,20,20,0,0,0,0,0,0,0,0,0,0,0,0,0,0
0,0,0,0,0,0,0,0,0,0,0,0,0,0,0,0,0,0,0,0,0,0,0,0,0,0,0,0,0,0,0,0,0,0,0,0,0,0,0,0,0,0,0,0,0,0,0,0,0,0,0,59,60,60,60,61,61,64,65,68,78,80,80,82,82,82,75,76,73,73,70,72,75,75,75,76,70,80,73,80,78,80,82,82,82,86,82,88,86,138,128,133,138,128,138,120,120,112,106,109,106,116,106,109,112,116,109,120,112,116,116,120,120,128,128,133,133,144,144,171,180,200,189,276,327,327,327,399,359,359,359,0,0,0,0,0,0,0,0,0,0,0,0,0,0,0,0,0,0,0,0,0,0,0,0,0,0,0,0,225,299,240,0,399,359,327,327,359,359,359,399,327,299,327,276,0,0,0,124,128,124,120,120,120,116,116,100,103,100,97,92,95,92,88,88,82,82,78,78,78,76,73,76,73,75,70,69,64,64,58,54,55,53,55,54,54,53,53,53,53,52,53,50,49,49,47,47,46,44,42,41,41,40,40,39,39,39,37,37,37,37,36,36,35,34,34,34,34,33,33,33,33,33,34,32,32,32,33,32,31,30,27,29,29,27,26,26,26,0,0,27,26,26,26,26,26,26,26,26,26,25,26,26,26,0,0,0,0,0,0,0,0,22,22,22,21,21,21,21,21,20,20,20,20,20,20,0,0,0,0,0,0,0,0,0,0,0,0,0,0
0,0,0,0,0,0,0,0,0,0,0,0,0,0,0,0,0,0,0,0,0,0,0,0,0,0,0,0,0,0,0,0,0,0,0,0,0,0,0,0,0,0,0,0,0,0,0,0,0,0,0,60,61,61,61,62,62,65,68,69,75,80,78,82,82,84,75,76,73,73,70,72,75,75,75,78,70,80,73,82,78,80,82,82,82,86,84,88,88,133,128,128,128,124,128,120,120,116,112,109,109,116,109,112,112,116,112,120,112,120,116,120,124,128,128,133,133,144,144,171,180,200,189,299,327,327,359,399,359,359,359,0,0,0,0,0,0,0,0,0,0,0,0,0,0,0,0,0,0,0,0,0,0,0,0,0,0,0,0,257,299,225,359,359,359,327,327,359,359,359,399,359,359,327,299,0,0,0,0,133,124,124,120,120,112,112,100,100,100,97,92,92,92,90,88,84,84,78,80,78,76,75,76,73,76,70,70,64,64,58,54,55,53,55,53,53,53,52,52,53,51,52,49,48,49,47,47,46,44,42,41,41,40,40,39,39,39,38,37,37,37,36,36,35,34,34,34,33,33,33,33,33,33,34,33,33,32,33,33,31,30,28,29,29,27,26,26,26,0,26,27,26,26,26,26,26,26,26,26,25,25,26,26,26,26,0,0,0,0,0,0,22,22,22,22,21,21,21,21,21,20,21,20,20,20,0,36,35,35,0,0,0,0,0,0,0,0,0,0,0
0,0,0,0,0,0,0,0,0,0,0,0,0,0,0,0,0,0,0,0,0,0,0,0,0,0,0,0,0,0,0,0,0,0,0,0,0,0,0,0,0,0,0,0,0,0,0,0,0,0,0,61,63,62,62,62,63,65,67,68,73,78,76,78,80,82,73,75,73,73,70,72,75,75,75,76,70,80,73,82,80,80,82,84,84,86,84,90,90,133,128,128,128,124,128,120,120,116,112,112,112,116,112,112,112,120,112,124,116,120,120,124,124,128,128,133,133,144,144,163,171,189,180,299,327,327,359,399,399,399,399,0,0,0,0,0,0,0,0,0,0,0,0,0,0,0,0,0,0,0,0,0,0,0,0,0,0,0,150,257,299,225,359,359,327,327,327,359,359,359,399,359,359,327,0,0,0,0,0,133,124,124,120,120,112,112,103,100,100,97,92,92,95,92,90,84,84,78,80,80,76,75,75,75,76,70,72,64,64,59,54,55,53,55,54,53,52,52,51,52,51,51,49,47,48,46,46,46,44,42,42,41,41,40,40,39,39,38,38,37,36,36,36,35,34,34,34,33,33,33,33,33,33,34,33,33,33,33,33,31,30,28,29,29,27,26,26,26,0,27,27,26,26,26,26,26,26,26,26,25,25,26,26,26,26,0,0,0,23,23,23,22,22,22,0,0,0,21,21,21,20,21,20,20,0,36,37,36,35,0,0,0,0,0,0,0,0,0,0,0
0,0,0,0,0,0,0,0,0,0,0,0,0,0,0,0,0,0,0,0,0,0,0,0,0,0,0,0,0,0,0,0,0,0,0,0,0,0,0,0,0,0,0,0,0,0,0,0,0,0,0,61,63,62,62,61,62,63,63,64,69,75,73,76,76,82,75,75,73,73,70,72,75,75,73,76,70,80,73,82,80,80,82,82,84,86,84,90,92,138,128,133,128,124,128,120,120,116,116,112,116,116,116,116,116,120,116,124,116,120,120,124,124,128,128,133,133,138,144,156,163,171,180,299,327,359,399,399,399,399,399,0,0,0,0,0,0,0,0,0,0,0,0,0,0,0,0,0,0,0,0,0,0,0,0,0,0,0,150,257,276,257,399,399,359,359,359,399,399,399,399,359,359,299,240,0,0,0,0,0,120,120,120,116,109,109,103,100,97,97,92,92,95,92,90,0,86,78,80,80,78,75,75,75,76,70,72,63,63,59,54,55,53,55,54,53,52,51,51,52,51,51,48,47,48,47,46,46,44,42,42,42,41,41,40,39,39,38,38,37,36,36,36,35,34,34,34,33,33,33,33,33,33,34,33,33,33,33,33,30,30,27,28,29,27,26,26,26,0,27,27,27,26,26,26,26,26,26,26,25,25,25,26,25,26,26,25,0,23,23,23,22,0,0,0,0,0,0,0,21,20,21,20,0,37,37,37,36,35,0,0,0,0,0,0,0,0,0,0,0
0,0,0,0,0,0,0,0,0,0,0,0,0,0,0,0,0,0,0,0,0,0,0,0,0,0,0,0,0,0,0,0,0,0,0,0,0,0,0,0,0,0,0,0,0,0,0,0,0,0,0,61,62,62,61,60,61,62,61,62,0,70,72,76,75,82,75,75,73,73,70,72,75,75,75,78,70,80,73,82,80,80,82,82,82,86,84,90,92,138,128,133,128,124,124,120,116,116,116,112,116,116,116,116,116,120,116,124,116,120,120,124,124,128,128,133,133,138,138,144,156,163,163,299,299,359,399,0,0,0,0,0,0,0,0,0,0,0,0,0,0,0,0,0,0,0,0,0,0,0,0,0,0,0,0,0,0,0,156,257,240,240,327,359,327,327,327,359,359,359,359,327,327,299,0,0,0,0,0,128,116,120,120,116,109,109,103,97,97,100,92,92,95,92,90,0,86,78,80,80,78,75,75,75,76,70,72,63,62,60,54,55,53,55,54,52,53,52,51,52,51,50,48,47,48,46,45,45,44,43,43,42,42,41,40,40,39,38,38,37,37,36,36,35,34,34,34,33,33,33,33,33,33,34,33,33,33,33,33,31,30,27,28,28,27,26,27,27,26,27,27,27,26,26,26,26,26,26,26,25,25,25,25,25,25,25,24,24,23,23,23,22,0,0,0,38,39,38,0,0,0,21,20,37,38,37,37,36,36,0,0,0,0,0,0,0,0,0,0,0
0,0,0,0,0,0,0,0,0,0,0,0,0,0,0,0,0,0,0,0,0,0,0,0,0,0,0,0,0,0,0,0,0,0,0,0,0,0,0,0,0,0,0,0,0,0,0,0,0,0,0,60,62,61,61,61,61,62,61,61,0,0,67,0,70,84,75,75,73,73,72,72,75,76,75,78,72,80,75,82,80,80,82,82,82,86,84,88,88,138,128,128,128,120,124,116,116,112,116,112,116,116,116,116,116,120,116,124,120,120,124,124,124,128,128,133,133,138,138,144,150,156,156,276,327,399,0,0,0,0,0,0,0,0,0,0,0,0,0,0,0,0,0,0,0,0,0,0,0,0,0,0,0,0,0,0,0,0,163,240,200,225,299,299,299,299,327,327,327,359,359,327,327,299,0,0,0,0,120,128,116,120,120,120,106,109,106,97,97,100,92,90,92,92,0,0,86,76,78,78,76,73,73,75,75,69,72,62,61,60,54,56,53,55,54,53,53,52,51,52,51,51,48,47,48,46,45,45,44,43,43,42,42,41,40,39,39,38,38,37,37,36,36,35,34,34,34,33,33,33,33,33,33,34,33,33,32,32,33,31,30,27,28,29,27,26,27,27,27,27,27,27,27,26,27,26,26,26,25,25,25,25,25,25,25,25,24,24,23,23,23,22,0,0,0,0,39,39,39,39,38,0,0,37,38,37,37,37,36,0,0,0,0,0,0,0,0,0,0,0
0,0,0,0,0,0,0,0,0,0,0,0,0,0,0,0,0,0,0,0,0,0,0,0,0,0,0,0,0,0,0,0,0,0,0,0,0,0,0,0,0,0,0,0,0,0,0,0,0,0,0,60,62,62,61,62,62,63,62,62,63,63,62,0,64,80,70,75,72,73,72,73,75,76,76,80,72,82,75,82,80,80,82,82,82,86,84,88,88,133,133,128,128,120,124,116,112,112,116,112,116,116,120,116,116,120,116,124,120,120,124,124,124,128,128,133,128,138,133,138,144,144,150,276,299,399,0,0,0,0,0,0,0,0,0,0,0,0,0,0,0,0,0,0,0,0,0,0,0,0,0,0,0,0,0,0,0,0,171,240,200,240,327,327,327,327,327,359,359,399,359,359,359,276,0,0,0,0,120,128,116,120,124,120,106,112,106,100,97,0,92,90,95,95,0,0,84,76,76,76,75,73,72,73,73,69,70,62,62,61,54,56,54,55,54,53,53,52,52,53,51,51,48,47,48,46,45,45,44,43,43,42,42,41,40,39,39,38,38,37,36,36,36,35,33,34,34,33,33,33,33,33,33,34,33,33,32,32,32,30,29,28,28,29,27,27,27,27,27,27,27,27,27,26,27,26,26,26,25,25,25,25,25,25,25,25,24,24,23,23,23,0,0,0,0,0,0,0,39,39,38,39,38,38,38,37,37,37,36,0,0,0,0,0,0,0,0,0,0,0
0,0,0,0,0,0,0,0,0,0,0,0,0,0,0,0,0,0,0,0,0,0,0,0,0,0,0,0,0,0,0,0,0,0,0,0,0,0,0,0,0,0,0,0,0,0,0,0,0,0,0,60,62,62,62,62,63,64,64,64,65,65,67,70,68,75,69,73,72,75,73,73,75,76,76,80,72,82,75,82,80,80,82,82,82,86,84,88,88,133,133,133,128,124,124,120,112,112,116,112,120,116,120,120,116,120,112,128,120,120,124,124,124,128,128,128,128,138,133,138,144,144,144,257,276,359,399,0,0,0,0,0,0,0,0,0,0,0,0,0,0,0,0,0,0,0,0,0,0,0,0,0,0,0,0,0,0,0,180,240,200,225,299,299,299,299,327,327,327,359,359,359,359,276,0,0,0,0,124,128,116,120,124,124,109,112,109,103,100,103,95,92,95,95,86,82,84,75,75,75,73,72,70,72,70,68,69,62,62,62,54,57,54,55,54,53,54,52,52,0,51,50,48,47,48,46,45,45,43,43,43,43,42,42,41,40,39,38,38,37,36,36,36,35,33,34,34,33,33,33,33,33,33,34,33,33,32,32,33,30,29,27,28,28,28,27,27,27,27,27,27,27,27,26,27,26,26,26,25,25,25,25,25,25,25,25,24,24,23,0,0,0,0,0,0,0,0,0,39,39,38,39,38,38,38,37,38,37,37,0,0,0,0,0,0,0,0,0,0,0
0,0,0,0,0,0,0,0,0,0,0,0,0,0,0,0,0,0,0,0,0,0,0,0,0,0,0,0,0,0,0,0,0,0,0,0,0,0,0,0,0,0,0,0,0,0,0,0,0,0,0,60,62,62,62,63,63,64,64,65,65,67,67,70,69,75,69,73,72,75,73,73,75,76,76,80,72,82,75,82,80,80,82,82,82,86,84,88,88,133,133,133,128,124,128,120,112,116,116,116,120,116,120,120,116,120,109,128,120,124,124,124,124,128,128,133,128,133,128,138,138,144,144,225,257,327,399,0,0,0,0,0,0,0,0,0,0,0,0,0,0,0,0,0,0,0,0,0,0,0,0,0,0,0,0,0,0,0,211,276,225,225,299,299,299,299,327,327,327,359,359,359,359,299,0,0,138,120,124,128,116,120,124,124,109,116,112,103,103,106,97,95,97,97,88,82,82,75,73,73,72,70,69,72,69,68,68,63,62,62,54,57,54,55,54,53,54,53,52,0,51,50,48,47,48,46,45,45,43,43,43,43,42,42,41,40,39,0,38,37,36,36,0,35,33,34,34,34,33,33,33,33,33,34,33,33,32,32,32,30,29,27,27,28,28,27,28,28,27,27,27,27,27,26,26,26,25,26,25,25,25,25,25,25,25,25,24,0,0,0,0,0,0,0,0,0,0,0,39,39,39,39,39,39,39,37,38,38,37,0,0,0,0,0,0,0,0,0,0,0
0,0,0,0,0,0,0,0,0,0,0,0,0,0,0,0,0,0,0,0,0,0,0,0,0,0,0,0,0,0,0,0,0,0,0,0,0,0,0,0,0,0,0,0,0,0,0,0,0,0,0,61,63,62,62,63,63,64,63,63,64,65,65,70,68,76,69,73,72,75,73,75,75,76,76,82,73,82,75,82,80,80,82,82,82,86,84,88,86,128,138,133,128,124,128,124,112,120,116,116,120,116,120,124,116,124,109,128,120,124,124,124,124,128,128,133,128,133,128,138,138,144,144,200,225,299,359,0,0,0,0,0,0,0,0,0,0,0,0,0,0,0,0,0,0,0,0,0,0,0,0,0,0,0,0,0,0,171,276,327,240,225,276,276,276,276,299,299,299,327,327,359,359,276,0,156,144,120,124,128,116,120,120,124,106,116,112,106,103,106,100,95,100,97,88,84,0,73,72,72,70,69,68,70,67,67,67,63,62,62,54,58,54,56,54,54,54,53,52,0,51,50,48,47,48,46,45,45,43,43,43,42,42,42,41,40,0,0,38,0,36,0,0,35,33,34,34,34,33,33,33,33,33,34,33,32,32,32,32,30,29,28,27,28,28,27,28,28,27,27,27,27,27,26,26,26,25,25,25,25,25,25,25,25,25,24,0,0,0,0,0,0,0,0,0,0,0,0,39,39,39,39,39,39,39,38,38,39,38,0,0,0,0,0,0,0,0,0,0,0
0,0,0,0,0,0,0,0,0,0,0,0,0,0,0,0,0,0,0,0,0,0,0,0,0,0,0,0,0,0,0,0,0,0,0,0,0,0,0,0,0,0,0,0,0,0,0,0,0,0,0,61,63,63,63,63,63,65,63,63,64,64,64,69,67,76,68,72,72,75,75,75,76,76,76,82,75,82,76,82,80,80,82,82,82,84,82,88,84,128,144,138,138,133,133,124,109,120,116,116,116,116,116,120,116,124,106,124,120,124,124,124,124,124,128,133,128,133,128,138,138,138,144,189,211,276,299,399,399,399,0,0,0,0,0,0,0,0,0,0,0,0,0,0,0,0,0,0,0,0,0,0,0,0,0,0,0,359,399,399,299,276,299,276,276,276,299,276,299,327,327,327,327,240,0,150,138,120,124,128,116,116,120,124,106,116,109,106,103,103,100,97,100,100,88,84,80,73,70,70,69,68,68,69,65,65,64,63,62,62,54,58,54,56,55,54,54,53,53,54,51,50,49,47,48,46,44,45,42,43,43,42,42,42,40,40,0,0,38,0,36,0,0,35,33,0,35,34,34,33,33,33,33,35,33,32,32,31,32,30,29,28,27,29,28,27,28,28,28,27,27,28,27,26,26,26,25,25,25,25,25,25,25,25,25,25,0,0,0,0,0,0,0,0,0,0,0,0,40,40,39,39,39,39,39,38,39,39,39,0,0,0,0,0,0,0,0,0,0,0
0,0,0,0,0,0,0,0,0,0,0,0,0,0,0,0,0,0,0,0,0,0,0,0,0,0,0,0,0,0,0,0,0,0,0,0,0,0,0,0,0,0,0,0,0,0,0,0,0,0,0,61,62,62,63,63,62,65,64,63,64,67,68,76,70,78,69,73,73,76,76,75,76,78,78,82,76,82,76,82,80,80,82,82,82,84,82,86,84,128,156,150,156,144,144,133,112,124,116,116,116,116,116,120,116,120,106,124,120,124,124,124,124,124,124,133,128,133,128,138,138,144,144,200,211,276,299,399,399,399,0,0,0,0,0,0,0,0,0,0,0,0,0,0,0,0,0,0,0,0,0,0,0,0,0,0,0,399,0,0,359,359,327,327,299,299,327,299,299,327,327,299,327,225,0,0,138,120,120,128,120,120,120,124,106,116,109,109,103,103,103,100,100,100,88,84,80,72,70,69,68,67,67,68,63,65,62,63,62,62,54,58,54,56,55,54,54,54,53,54,51,51,49,48,49,47,45,44,42,43,42,42,42,42,41,40,0,0,0,0,36,0,0,35,33,0,35,34,34,34,34,34,33,35,33,32,31,31,32,30,30,29,27,29,29,27,28,28,28,27,27,28,27,26,26,26,25,25,25,25,25,25,26,25,26,25,0,0,0,0,0,0,0,0,0,0,0,0,40,40,39,40,39,39,39,38,39,39,39,0,0,0,0,0,0,0,0,0,0,0
0,0,0,0,0,0,0,0,0,0,0,0,0,0,0,0,0,0,0,0,0,0,0,0,0,0,0,0,0,0,0,0,0,0,0,0,0,0,0,0,0,0,0,0,0,0,0,0,0,0,0,61,62,62,63,63,63,65,65,67,67,69,69,76,70,76,69,73,73,75,76,75,76,78,78,82,76,82,78,82,80,82,82,82,82,84,82,86,84,120,163,163,171,156,156,144,116,128,120,116,116,116,112,120,112,120,103,124,116,124,124,124,124,124,124,133,128,133,128,138,144,144,150,200,225,257,299,399,399,399,0,0,0,0,0,0,0,0,0,0,0,0,0,0,0,0,0,0,0,0,0,0,0,0,0,0,0,0,0,0,0,359,327,327,327,299,327,299,327,327,327,327,327,257,0,0,144,124,124,128,124,120,120,128,106,116,109,109,106,103,103,100,100,100,88,84,78,72,69,68,0,65,67,68,63,64,61,63,62,62,54,58,54,56,55,54,55,54,53,55,51,51,50,49,49,47,45,44,42,43,42,42,42,42,41,40,0,0,0,0,36,36,0,35,33,0,35,34,34,34,34,34,33,35,33,32,31,31,32,30,30,29,27,29,29,27,28,28,28,27,28,28,27,26,26,26,25,25,25,25,25,25,26,25,26,25,0,0,0,0,0,0,0,0,0,0,0,0,0,40,39,40,39,39,39,39,39,40,0,0,0,0,0,0,0,0,0,0,0,0
0,0,0,0,0,0,0,0,0,0,0,0,0,0,0,0,0,0,0,0,0,0,0,0,0,0,0,0,0,0,0,0,0,0,0,0,0,0,0,0,0,0,0,0,0,0,0,0,0,0,0,61,62,62,63,64,63,65,65,67,68,69,68,73,70,75,69,72,72,75,75,75,76,78,78,82,76,80,78,82,80,80,82,82,82,84,82,88,84,124,163,156,171,163,156,156,128,138,128,120,116,116,112,120,109,120,103,120,116,124,124,124,124,124,124,133,128,133,128,144,144,144,156,211,225,257,299,399,399,399,0,0,0,0,0,0,0,0,0,0,0,0,0,0,0,0,0,0,0,0,327,399,0,0,0,0,0,0,0,0,0,0,399,399,359,327,327,327,327,299,299,327,327,240,0,171,150,128,128,128,124,120,116,124,106,116,109,109,106,100,103,100,100,100,88,84,80,72,0,0,0,0,65,0,63,63,61,63,62,62,54,58,55,56,56,54,55,54,53,55,51,51,50,49,49,47,45,44,42,43,42,42,42,42,41,40,0,0,0,0,36,36,0,35,33,0,35,34,34,34,33,33,33,34,33,31,31,31,32,30,30,29,28,29,29,27,28,28,28,27,28,28,27,26,26,26,25,25,26,25,25,25,26,25,26,25,25,0,0,0,0,0,0,0,0,0,0,0,0,40,39,40,40,39,39,39,39,0,0,0,0,0,0,0,0,0,0,0,0,0
0,0,0,0,0,0,0,0,0,0,0,0,0,0,0,0,0,0,0,0,0,0,0,0,0,0,0,0,0,0,0,0,0,0,0,0,0,0,0,0,0,0,0,0,0,0,0,0,0,0,0,61,62,62,63,63,63,65,65,67,67,67,67,69,68,72,69,72,72,73,75,73,76,78,78,80,76,80,76,80,80,80,80,82,80,84,82,88,84,128,156,156,163,156,156,156,138,144,133,124,116,120,112,116,109,120,103,120,116,120,120,124,124,124,124,133,128,133,133,144,144,144,163,211,240,257,299,399,399,399,0,0,0,0,0,0,0,0,0,0,0,0,0,0,0,0,0,0,0,0,327,327,0,0,0,0,0,0,0,0,0,0,0,0,0,399,399,359,359,299,299,299,299,225,189,171,150,133,133,124,128,120,116,124,106,116,109,109,106,100,103,103,103,103,88,0,0,73,0,0,0,0,0,0,63,63,60,63,63,63,54,58,55,56,55,54,54,53,53,55,0,51,50,49,49,47,46,43,42,42,42,42,42,42,41,0,0,0,0,0,0,36,36,35,33,0,0,34,33,33,33,33,33,34,33,31,31,31,31,30,29,29,28,29,29,27,28,28,28,27,27,28,27,26,26,26,25,25,26,25,25,25,26,26,26,25,26,0,0,0,0,0,0,0,0,0,0,0,0,41,40,40,40,40,40,40,0,0,0,0,0,0,0,0,0,0,0,0,0,0
0,0,0,0,0,0,0,0,0,0,0,0,0,0,0,0,0,0,0,0,0,0,0,0,0,0,0,0,0,0,0,0,0,0,0,0,0,0,0,0,0,0,0,0,0,0,0,0,0,0,0,61,62,62,63,63,63,65,64,64,65,65,65,68,68,69,69,72,72,73,75,73,75,78,78,80,76,80,76,80,78,80,80,82,80,84,82,88,84,124,144,138,144,150,144,150,133,138,133,124,116,120,112,116,109,120,103,120,116,120,120,124,124,120,124,128,128,133,133,144,144,144,163,225,240,257,327,0,0,0,0,0,0,0,0,0,0,0,0,0,0,0,0,0,0,0,0,0,0,0,327,276,399,0,0,0,0,0,0,0,0,0,0,0,0,399,399,359,359,299,299,276,299,225,189,171,156,133,133,124,128,120,116,124,106,116,109,106,109,103,106,103,103,103,90,0,80,73,0,0,0,0,65,0,63,63,60,63,61,61,54,58,56,56,55,55,54,53,53,55,0,51,50,49,49,48,47,43,42,42,42,42,42,42,41,0,0,0,0,0,0,36,36,35,33,0,0,34,33,33,33,33,33,34,33,31,31,31,31,30,29,29,27,29,29,27,28,28,28,27,27,28,27,26,26,26,25,25,26,25,25,25,26,25,26,25,26,0,0,0,0,0,0,0,0,0,0,0,0,41,40,41,41,41,41,0,0,0,0,0,0,0,0,0,0,0,0,0,0,0
0,0,0,0,0,0,0,0,0,0,0,0,0,0,0,0,0,0,0,0,0,0,0,0,0,0,0,0,0,0,0,0,0,0,0,0,0,0,0,0,0,0,0,0,0,0,0,0,0,0,0,61,62,62,62,62,63,64,63,63,63,63,64,64,64,67,68,70,72,73,76,73,76,78,78,80,76,80,76,80,78,80,80,80,80,84,82,88,84,120,133,133,138,138,138,144,128,133,128,124,112,120,112,116,109,120,106,120,116,124,120,124,124,120,120,128,128,133,133,144,144,144,171,225,257,257,327,0,0,0,0,0,0,0,0,0,0,0,0,0,0,0,0,0,0,0,0,0,0,0,200,257,359,399,0,0,0,0,0,0,0,0,0,0,0,0,399,359,359,299,299,299,299,225,200,171,150,133,133,124,128,124,116,124,106,116,109,106,109,103,106,106,103,103,90,88,82,76,0,0,0,0,67,0,63,63,61,63,60,60,55,57,56,56,56,56,55,54,53,55,51,51,50,49,49,49,47,43,42,42,42,42,42,42,41,0,0,0,0,0,0,36,36,35,33,34,34,34,33,33,33,33,33,34,33,32,31,31,31,30,30,29,27,29,29,27,28,28,27,27,27,28,27,26,26,26,25,25,26,25,25,25,26,25,26,25,26,0,0,0,0,0,0,0,0,0,0,0,0,0,0,0,42,0,0,0,0,0,0,0,0,0,0,0,0,0,0,0,0,0
0,0,0,0,0,0,0,0,0,0,0,0,0,0,0,0,0,0,0,0,0,0,0,0,0,0,0,0,0,0,0,0,0,0,0,0,0,0,0,0,0,0,0,0,0,0,0,0,0,0,0,62,62,62,63,62,63,64,64,63,63,63,64,64,65,67,68,70,72,73,76,75,76,78,78,82,75,80,76,80,78,80,80,80,80,82,80,86,82,116,128,128,133,138,133,138,124,128,128,120,112,120,116,116,112,120,106,120,116,124,120,124,124,120,120,128,124,133,133,144,144,144,171,225,276,257,327,0,0,0,0,0,0,0,0,0,0,0,0,0,0,0,0,0,0,0,0,0,0,156,200,240,359,399,0,0,0,0,0,0,0,0,0,0,399,399,359,327,327,299,276,276,299,225,211,180,156,138,133,128,128,124,120,124,106,116,109,106,109,103,103,103,103,103,90,88,82,76,0,70,69,68,67,0,64,64,61,63,60,60,56,57,56,57,57,57,55,54,53,56,51,51,51,50,50,49,49,43,42,42,42,42,42,42,0,0,0,0,0,0,0,36,36,35,33,34,34,34,33,33,33,33,33,34,33,32,31,31,32,30,30,29,28,29,29,27,27,27,27,27,27,27,27,26,26,26,26,25,26,25,25,25,26,25,26,25,26,0,0,0,0,0,0,0,0,0,0,0,0,0,0,0,0,0,0,0,0,0,0,0,0,0,0,0,0,0,0,0,0,0
0,0,0,0,0,0,0,0,0,0,0,0,0,0,0,0,0,0,0,0,0,0,0,0,0,0,0,0,0,0,0,0,0,0,0,0,0,0,0,0,0,0,0,0,0,0,0,0,0,0,0,62,62,62,63,62,63,64,64,64,64,64,64,65,65,67,68,69,70,72,76,75,78,80,78,80,75,80,75,80,78,80,80,80,80,82,80,86,82,106,120,120,124,133,128,133,124,128,128,120,112,120,116,116,112,120,109,120,116,124,124,124,124,116,120,124,124,133,133,144,144,144,171,240,276,276,359,0,0,0,0,0,0,0,0,0,0,0,0,0,0,0,0,0,0,0,0,0,0,156,180,211,327,0,0,0,0,0,0,0,0,0,0,0,0,399,399,359,359,327,276,299,299,240,225,189,163,144,138,133,133,128,120,124,109,120,112,106,109,103,103,103,103,100,88,88,82,76,70,72,70,68,68,69,64,64,62,63,60,60,56,57,56,56,56,56,55,53,53,55,51,51,51,51,51,50,49,42,42,42,42,42,42,42,0,0,0,0,0,0,0,35,35,35,33,33,34,34,33,33,33,33,32,33,33,31,31,31,31,30,30,30,28,29,29,27,27,27,27,27,27,27,27,26,26,26,26,25,26,25,25,25,25,25,26,25,26,0,0,0,0,0,0,0,0,0,0,0,0,0,0,0,0,0,0,0,0,0,0,0,0,0,0,0,0,0,0,0,0,0
0,0,0,0,0,0,0,0,0,0,0,0,0,0,0,0,0,0,0,0,0,0,0,0,0,0,0,0,0,0,0,0,0,0,0,0,0,0,0,0,0,0,0,0,0,0,0,0,0,0,0,61,62,62,62,62,63,64,64,64,64,64,65,65,65,67,68,69,70,72,75,75,76,78,78,80,75,80,75,80,78,78,80,80,80,82,80,86,82,100,109,112,120,128,128,133,124,128,128,124,116,120,120,120,112,120,109,124,116,124,124,124,128,120,120,124,124,133,133,144,144,144,180,240,299,276,359,0,0,0,0,0,0,0,0,0,0,0,0,0,0,0,0,0,0,0,0,0,0,163,171,200,240,327,399,399,0,0,0,0,0,0,0,0,0,399,399,359,359,327,276,299,299,240,240,189,163,144,144,133,138,133,128,124,112,124,116,106,112,103,100,100,103,100,88,86,82,78,72,73,72,69,68,69,65,65,62,63,60,60,56,56,56,56,56,56,55,53,53,54,52,51,51,51,51,50,49,43,42,42,42,42,42,42,0,0,0,0,0,0,0,0,35,35,33,33,34,33,33,33,32,32,32,33,33,32,31,31,31,30,30,30,28,29,29,27,27,27,27,27,27,27,27,26,26,26,26,25,26,25,25,25,25,25,26,25,26,0,0,0,0,0,0,0,0,0,0,0,0,0,0,0,0,0,0,0,0,0,0,0,0,0,0,0,0,0,0,0,0,0
0,0,0,0,0,0,0,0,0,0,0,0,0,0,0,0,0,0,0,0,0,0,0,0,0,0,0,0,0,0,0,0,0,0,0,0,0,0,0,0,0,0,0,0,0,0,0,0,0,0,0,61,62,62,62,62,63,64,64,64,65,64,65,65,67,67,68,70,69,70,73,73,76,78,78,80,75,80,75,80,78,78,80,80,78,82,78,86,82,95,103,109,112,124,124,133,124,124,128,124,116,120,120,120,112,120,109,124,116,120,124,124,128,120,120,124,124,133,133,144,144,144,180,240,299,276,359,0,0,0,0,0,0,0,0,0,0,0,0,0,0,156,225,180,299,276,299,240,225,225,240,225,240,299,359,399,0,0,0,0,0,0,0,0,0,399,399,359,359,327,299,327,327,257,240,200,171,150,144,138,138,138,128,124,116,124,120,106,112,103,100,100,100,97,86,86,0,78,72,73,73,70,69,70,67,67,63,63,60,60,57,56,56,56,56,56,56,54,53,54,53,51,51,51,51,50,50,43,42,42,42,42,42,42,0,0,0,0,0,0,0,0,35,35,33,33,34,33,33,33,32,32,32,33,33,32,32,31,32,30,30,29,27,29,29,27,27,27,27,0,27,27,27,26,26,26,26,25,26,25,25,25,25,25,26,25,26,0,0,0,0,0,0,0,0,0,0,0,0,0,0,0,0,0,0,0,0,0,0,0,0,0,0,0,0,0,0,0,0,0
0,0,0,0,0,0,0,0,0,0,0,0,0,0,0,0,0,0,0,0,0,0,0,0,0,0,0,0,0,0,0,0,0,0,0,0,0,0,0,0,0,0,0,0,0,0,0,0,0,0,0,62,62,62,62,62,63,64,64,64,65,65,65,67,67,68,68,70,70,70,73,75,76,78,78,82,73,82,73,80,76,78,78,80,78,82,78,86,80,90,106,109,112,124,120,128,120,120,128,124,120,124,120,120,112,124,109,124,120,120,124,128,128,120,116,124,124,128,138,144,144,144,180,240,299,276,359,0,0,0,0,0,0,0,0,0,0,0,0,0,0,180,257,200,399,399,359,327,299,299,299,276,257,276,327,359,0,0,0,0,0,0,0,0,0,399,399,359,359,327,299,299,299,257,240,200,171,156,150,150,144,144,138,133,120,128,124,106,109,103,100,97,100,97,86,86,0,80,72,75,75,70,69,72,67,68,63,64,60,60,57,55,57,56,56,56,56,54,54,54,54,51,51,51,51,50,50,43,43,42,42,42,42,42,0,0,0,0,0,0,0,0,36,35,33,33,34,33,33,33,32,32,32,33,34,32,32,32,32,30,30,30,27,29,29,27,26,26,26,0,27,27,26,26,26,26,26,25,26,25,25,25,25,25,26,25,26,0,0,0,0,0,0,0,0,0,0,0,0,0,0,0,0,0,0,0,0,0,0,0,0,0,0,0,0,0,0,0,0,0
0,0,0,0,0,0,0,0,0,0,0,0,0,0,0,0,0,0,0,0,0,0,0,0,0,0,0,0,0,0,0,0,0,0,0,0,0,0,0,0,0,0,0,0,0,0,0,0,0,0,0,62,62,62,62,62,63,64,63,64,65,65,65,67,67,68,68,72,70,72,75,75,75,78,76,80,72,82,72,78,76,78,78,80,78,82,78,86,80,88,106,106,109,120,116,120,112,116,128,124,120,124,120,120,116,124,109,124,120,120,124,128,128,120,116,124,124,128,138,144,144,144,171,225,299,257,359,0,0,0,0,0,0,0,0,0,0,0,0,0,327,299,327,257,0,0,359,327,327,327,359,327,299,299,327,399,399,399,0,399,0,0,0,399,399,399,399,359,359,327,299,299,299,257,225,211,180,163,156,156,150,144,144,138,124,133,124,109,112,103,100,97,100,97,86,86,0,80,73,76,75,72,70,72,68,69,64,64,60,60,58,55,57,57,57,56,57,54,54,54,54,51,51,51,51,51,51,44,43,42,42,42,42,42,0,0,0,0,0,0,0,36,36,35,34,33,34,34,33,33,32,32,32,33,34,32,32,32,32,30,30,30,27,29,29,27,26,26,26,0,27,27,26,26,26,26,26,25,26,25,25,25,25,25,26,25,26,0,0,0,0,0,0,0,0,0,0,0,0,0,0,0,0,0,0,0,0,0,0,0,0,0,0,0,0,0,0,0,0,0
0,0,0,0,0,0,0,0,0,0,0,0,0,0,0,0,0,0,0,0,0,0,0,0,0,0,0,0,0,0,0,0,0,0,0,0,0,0,0,0,0,0,0,0,0,0,0,0,0,0,0,63,63,63,63,62,63,64,64,64,65,65,67,68,68,68,69,72,73,73,76,78,78,80,78,82,73,82,72,80,76,78,78,80,78,82,78,86,80,88,103,97,100,112,112,120,109,112,124,124,124,120,124,120,116,124,109,124,120,120,124,128,128,120,116,124,124,128,138,144,144,144,171,225,276,257,327,0,0,0,0,399,144,88,90,0,0,0,0,0,359,327,359,276,359,399,359,327,327,327,359,359,327,327,359,399,0,0,0,399,399,0,0,399,399,399,359,359,327,359,299,299,327,257,240,211,180,171,163,163,156,150,144,138,128,133,124,0,112,103,100,97,100,97,86,86,0,80,75,76,76,72,70,73,68,69,64,64,60,60,58,55,57,57,57,57,57,54,54,54,54,51,51,51,51,51,51,46,44,42,43,42,0,42,0,0,0,0,0,0,0,36,37,36,35,33,34,34,33,33,33,32,32,33,34,33,32,32,32,31,30,30,27,29,29,27,26,26,26,26,26,27,26,26,26,26,26,25,25,25,25,25,25,25,26,25,26,0,0,0,0,0,0,0,0,0,0,0,0,0,0,0,0,0,0,0,0,0,0,0,0,0,0,0,0,0,0,0,0,0
0,0,0,0,0,0,0,0,0,0,0,0,0,0,0,0,0,0,0,0,0,0,0,0,0,0,0,0,0,0,0,0,0,0,0,0,0,0,0,0,0,0,0,0,0,0,0,0,0,0,0,64,64,63,63,63,63,64,64,64,65,65,67,68,68,69,70,75,75,76,80,80,80,82,80,84,75,84,72,80,78,78,80,80,78,82,78,86,80,88,103,97,95,106,103,109,100,106,116,124,120,120,120,120,116,124,109,124,120,120,124,128,128,120,116,124,124,128,138,144,144,144,171,211,276,240,327,399,399,359,0,299,138,116,124,124,128,138,0,0,0,359,399,327,399,399,359,359,327,327,359,399,327,327,327,359,399,359,399,399,327,399,359,327,359,327,327,327,299,327,299,299,327,276,240,225,189,189,171,171,163,156,150,144,128,133,124,109,112,103,100,97,100,97,86,86,84,80,75,78,76,72,70,73,69,70,65,64,61,60,59,54,57,57,57,57,57,54,54,54,55,51,51,51,51,51,51,47,45,43,43,43,0,42,0,0,0,0,0,0,0,37,37,36,35,34,34,34,33,33,33,33,32,33,34,33,33,32,32,32,30,30,27,29,28,27,25,26,26,26,26,26,26,26,26,26,26,25,25,25,25,25,25,25,25,25,26,0,0,0,0,0,0,0,0,0,0,0,0,0,0,0,0,0,0,0,0,0,0,0,0,0,0,0,0,0,0,0,0,0
0,0,0,0,0,0,0,0,0,0,0,0,0,0,0,0,0,0,0,0,0,0,0,0,0,0,0,0,0,0,0,0,0,0,0,0,0,0,0,0,0,0,0,0,0,0,0,0,0,0,0,64,64,63,63,63,63,64,64,65,67,67,68,69,69,70,72,76,76,78,82,82,82,84,82,84,76,84,73,80,78,78,80,80,80,82,80,88,84,88,100,97,95,106,100,103,97,103,112,120,116,112,116,116,112,124,109,124,120,120,124,128,128,120,120,124,124,128,138,144,144,144,163,200,276,240,276,359,189,163,156,156,128,112,116,116,124,116,133,399,0,399,399,359,399,399,359,359,327,327,399,399,327,359,359,359,399,359,399,359,327,399,359,299,327,327,327,327,299,327,276,276,299,276,257,240,211,200,180,171,171,156,150,138,128,133,120,106,112,103,100,97,100,95,86,86,84,80,76,78,76,73,72,75,69,70,65,64,61,61,60,54,57,57,57,57,57,54,54,54,56,52,52,52,52,51,52,47,47,43,44,43,0,42,42,0,0,0,0,0,0,37,37,36,35,34,34,34,34,33,33,33,33,33,34,33,32,32,32,32,30,30,27,28,28,27,25,26,26,26,0,26,26,26,25,26,26,25,25,25,0,25,25,25,25,25,26,0,0,0,0,0,0,0,0,0,0,0,0,0,0,0,0,0,0,0,0,0,0,0,0,0,0,0,0,0,0,0,0,0
0,0,0,0,0,0,0,0,0,0,0,0,0,0,0,0,0,0,0,0,0,0,0,0,0,0,0,0,0,0,0,0,0,0,0,0,0,0,0,0,0,0,0,0,0,0,0,0,0,0,0,64,63,63,63,63,63,64,64,64,67,67,69,70,70,70,72,78,78,78,80,82,82,84,82,84,78,84,73,80,78,78,80,80,80,82,82,88,86,92,100,97,95,100,100,103,97,103,106,116,116,112,116,116,109,124,106,124,120,120,124,128,128,124,120,128,124,128,138,144,144,144,163,189,257,211,240,257,156,133,138,138,124,112,116,116,124,112,133,240,0,0,0,399,0,0,399,359,359,359,0,0,359,359,359,399,0,0,399,399,359,0,0,327,359,327,327,327,299,299,257,276,299,257,257,240,211,225,180,180,163,156,144,138,128,128,120,106,112,103,100,97,97,95,84,84,84,80,76,78,78,73,72,75,69,70,65,64,62,61,60,54,58,57,57,57,57,53,54,54,56,52,53,52,52,52,52,49,47,44,44,43,42,42,42,42,0,0,0,0,0,38,38,37,35,34,35,35,34,34,33,33,33,33,34,33,32,32,32,32,30,30,27,28,28,27,25,26,26,26,0,26,26,26,25,26,25,25,25,25,0,25,25,25,25,25,25,25,0,0,0,0,0,0,0,0,0,0,0,0,0,0,0,0,0,0,0,0,0,0,0,0,0,0,0,0,0,0,0,0
0,0,0,0,0,0,0,0,0,0,0,0,0,0,0,0,0,0,0,0,0,0,0,0,0,0,0,0,0,0,0,0,0,0,0,0,0,0,0,0,0,0,0,0,0,0,0,0,0,0,0,63,63,63,63,63,63,63,64,64,67,68,69,70,70,70,72,78,78,78,80,80,82,82,82,84,78,82,73,80,78,78,80,80,80,82,82,88,88,92,95,92,90,92,92,95,92,97,100,112,116,109,112,112,109,120,103,124,120,120,124,128,128,124,120,128,124,128,138,144,144,144,156,180,225,189,200,180,150,128,133,133,124,116,116,120,128,120,138,156,200,399,0,399,0,0,399,399,399,399,0,0,399,399,399,399,0,0,399,399,359,0,0,359,359,327,327,327,299,299,257,257,299,257,240,240,211,225,189,171,163,150,144,138,124,128,120,106,109,103,100,97,97,97,84,86,84,80,76,78,78,73,72,76,70,70,65,65,62,61,61,54,57,57,57,57,57,54,54,54,56,52,53,53,53,52,53,0,48,45,45,43,0,42,42,41,0,0,0,0,37,38,38,37,36,35,35,35,34,34,33,33,33,33,34,33,32,32,32,31,30,30,27,28,28,27,25,26,26,26,0,26,26,26,26,26,25,25,25,25,0,25,25,25,25,25,25,25,0,0,0,0,0,0,0,0,0,0,0,0,0,0,0,0,0,0,0,0,0,0,0,0,0,0,0,0,0,0,0,0
0,0,0,0,0,0,0,0,0,0,0,0,0,0,0,0,0,0,0,0,0,0,0,0,0,0,0,0,0,0,0,0,0,0,0,0,0,0,0,0,0,0,0,0,0,0,0,0,0,0,0,63,63,63,63,63,64,64,64,65,67,68,70,70,72,70,72,76,78,78,80,80,80,82,80,82,78,78,73,78,76,78,78,80,80,82,82,88,86,88,90,88,88,88,88,90,90,92,97,106,112,109,112,112,106,120,103,120,120,116,124,128,128,124,120,128,124,128,138,144,144,144,156,171,200,180,189,163,144,128,133,133,124,120,120,120,128,124,133,150,144,299,449,399,0,0,399,399,399,0,0,0,399,399,0,0,0,0,0,399,359,0,0,359,359,359,327,327,299,299,240,257,276,257,240,240,211,225,189,180,163,156,144,144,124,124,116,103,109,103,100,100,100,97,86,86,86,82,78,80,78,73,72,78,70,70,65,65,62,62,62,54,57,57,57,57,57,54,54,54,57,53,54,53,53,53,54,0,49,46,45,44,0,42,42,0,0,0,39,38,37,38,38,37,36,35,35,35,34,0,34,33,33,33,34,33,33,32,32,31,30,30,27,28,27,27,25,26,26,26,0,27,26,26,26,26,25,25,25,25,25,25,25,25,25,25,25,25,0,0,0,0,0,0,0,0,0,0,0,0,0,0,0,0,0,0,0,0,0,0,0,0,0,0,0,0,0,0,0,0
0,0,0,0,0,0,0,0,0,0,0,0,0,0,0,0,0,0,0,0,0,0,0,0,0,0,0,0,0,0,0,0,0,0,0,0,0,0,0,0,0,0,0,0,0,0,0,0,0,0,0,63,63,63,63,63,64,64,65,65,67,68,70,69,72,70,70,75,78,76,80,78,80,80,78,80,76,75,73,76,75,76,76,78,78,80,82,86,84,86,86,84,86,86,86,88,88,90,95,100,109,106,112,116,109,120,103,120,120,120,124,124,128,124,124,128,128,133,138,144,144,144,156,163,189,180,180,156,144,124,128,133,128,124,124,120,128,124,133,144,138,225,399,0,0,0,0,0,0,0,0,0,0,399,0,0,0,0,0,0,399,0,0,359,399,359,327,327,299,299,240,257,299,257,225,240,211,225,189,180,163,150,144,144,124,124,116,103,109,103,100,103,100,100,86,86,86,82,78,78,78,73,72,76,69,69,65,64,63,62,62,54,57,57,57,57,57,54,54,55,57,54,54,54,54,53,54,51,49,48,47,45,44,43,42,0,0,39,39,38,37,38,38,38,36,35,35,35,0,0,34,33,33,34,35,34,33,32,32,32,30,30,27,27,27,27,25,26,26,0,26,27,27,26,26,26,25,25,25,25,25,25,25,25,25,25,25,25,0,0,0,0,0,0,0,0,0,0,0,0,0,0,0,0,0,0,0,0,0,0,0,0,0,0,0,0,0,0,0,0
0,0,0,0,0,0,0,0,0,0,0,0,0,0,0,0,0,0,0,0,0,0,0,0,0,0,0,0,0,0,0,0,0,0,0,0,0,0,0,0,0,0,0,0,0,0,0,0,0,0,0,64,63,63,64,64,65,65,65,67,67,69,72,69,72,69,70,73,76,75,78,78,78,78,76,80,76,73,73,75,75,75,75,78,76,80,84,84,84,84,84,84,86,84,86,86,88,90,92,95,103,103,112,120,112,120,109,124,124,120,124,128,128,124,128,133,128,133,138,144,144,144,150,163,180,171,171,150,138,120,128,128,128,124,124,120,128,124,128,133,133,0,327,0,0,0,0,0,0,0,0,0,0,0,0,0,0,0,0,0,399,0,0,359,399,359,359,327,299,299,257,276,299,276,225,240,200,225,189,180,163,150,144,144,124,124,116,103,112,106,103,103,97,100,86,86,86,80,78,78,76,73,72,76,69,68,65,64,63,63,62,53,57,57,57,57,56,54,54,55,57,54,54,54,54,53,54,52,49,49,48,47,45,43,43,0,0,39,39,38,37,38,38,38,36,35,35,35,0,0,0,34,34,34,35,34,33,32,33,32,30,30,27,27,27,27,25,26,26,0,27,27,27,27,26,26,25,25,25,25,25,25,25,25,25,25,25,25,0,0,0,0,0,0,0,0,0,0,0,0,0,0,0,0,0,0,0,0,0,0,0,0,0,0,0,0,0,0,0,0
0,0,0,0,0,0,0,0,0,0,0,0,0,0,0,0,0,0,0,0,0,0,0,0,0,0,0,0,0,0,0,0,0,0,0,0,0,0,0,0,0,0,0,0,0,0,0,0,0,0,0,63,62,63,64,64,65,65,65,67,68,69,73,69,72,69,69,72,75,73,76,78,78,78,76,80,76,72,73,73,73,75,75,78,76,78,84,84,82,84,84,84,86,84,84,86,86,88,92,95,103,100,109,120,112,120,116,124,124,124,128,128,133,128,128,133,133,133,138,144,144,144,150,156,171,163,163,144,133,116,124,124,124,124,124,120,128,124,128,133,133,138,276,0,0,0,0,0,0,0,0,0,0,0,0,0,0,0,0,0,399,0,0,359,399,359,359,327,299,327,257,276,327,276,240,257,225,240,189,180,171,156,138,138,124,124,116,106,112,106,103,106,97,100,88,86,86,80,78,78,76,73,72,75,70,67,64,63,63,63,62,53,57,56,57,56,56,54,54,55,57,54,54,54,54,53,54,53,50,49,49,47,47,45,45,42,0,39,38,38,37,38,38,38,0,0,0,0,0,0,0,34,34,34,36,34,33,33,33,32,30,30,27,27,27,27,26,27,27,26,27,27,27,27,26,26,25,25,25,25,25,25,25,25,25,25,25,25,0,0,0,0,0,0,0,0,0,0,0,0,0,0,0,0,0,0,0,0,0,0,0,0,0,0,0,0,0,0,0,0
0,0,0,0,0,0,0,0,0,0,0,0,0,0,0,0,0,0,0,0,0,0,0,0,0,0,0,0,0,0,0,0,0,0,0,0,0,0,0,0,0,0,0,0,0,0,0,0,0,0,0,63,61,63,64,64,65,65,65,67,68,69,73,69,72,69,69,72,75,73,76,76,76,76,75,78,76,72,73,73,73,75,73,76,75,76,82,82,82,82,82,82,84,84,84,84,86,88,90,92,100,100,109,120,112,120,120,124,128,124,128,128,133,133,133,138,138,138,144,144,144,144,150,156,163,156,150,133,128,112,120,120,124,124,124,120,128,124,133,133,133,138,257,0,0,0,0,0,0,0,0,0,0,0,0,0,0,0,0,0,399,0,399,359,359,359,359,327,299,327,257,276,327,299,240,257,225,225,189,180,171,156,144,144,124,124,116,106,109,106,103,106,97,100,88,84,86,80,78,78,76,75,72,76,73,67,65,63,63,63,62,53,57,56,56,56,56,54,54,55,57,54,54,54,54,53,54,53,50,49,49,48,48,47,47,42,0,40,38,38,36,38,38,38,0,0,0,0,0,0,0,0,34,34,36,34,33,33,33,33,31,30,27,27,27,27,26,27,27,27,27,27,27,27,26,26,25,25,25,25,25,25,25,25,25,25,25,25,0,0,0,0,0,0,0,0,0,0,0,0,0,0,0,0,0,0,0,0,0,0,0,0,0,0,0,0,0,0,0,0
0,0,0,0,0,0,0,0,0,0,0,0,0,0,0,0,0,0,0,0,0,0,0,0,0,0,0,0,0,0,0,0,0,0,0,0,0,0,0,0,0,0,0,0,0,0,0,0,0,0,0,62,60,62,63,63,65,64,65,67,68,69,73,69,72,69,69,72,75,73,75,75,76,76,75,78,75,70,73,72,72,73,72,76,73,75,82,80,80,80,80,82,84,82,84,84,86,88,90,92,100,97,106,120,116,120,124,128,133,128,133,133,133,133,138,138,138,138,144,144,144,144,150,150,156,150,144,124,124,112,120,124,124,124,120,120,124,128,133,133,133,138,257,0,0,0,0,0,0,0,0,0,0,0,0,0,0,0,0,0,0,0,0,359,399,399,359,359,327,359,276,299,359,299,257,257,225,240,200,189,171,150,138,138,120,124,116,106,109,109,103,106,97,100,88,84,86,82,78,78,76,75,72,75,75,65,65,63,63,63,62,53,57,56,56,56,56,53,54,55,58,54,54,54,53,53,54,53,50,49,49,48,48,47,47,43,0,0,38,38,36,38,38,0,0,0,0,0,0,0,0,0,34,34,36,34,33,33,33,32,31,30,27,27,27,27,0,27,27,27,27,27,27,27,26,26,25,25,25,25,25,25,25,25,25,25,25,25,0,24,0,0,0,0,0,0,0,0,0,0,0,0,0,0,0,0,0,0,0,0,0,0,0,0,0,0,0,0,0,0
0,0,0,0,0,0,0,0,0,0,0,0,0,0,0,0,0,0,0,0,0,0,0,0,0,0,0,0,0,0,0,0,0,0,0,0,0,0,0,0,0,0,0,0,0,0,0,0,0,0,0,62,60,62,63,63,65,65,65,67,68,69,73,69,72,69,69,72,73,73,75,75,75,75,73,78,75,70,72,72,72,73,70,75,72,73,80,78,78,80,80,82,82,82,84,84,86,86,88,90,97,97,106,124,116,116,128,133,133,133,138,133,138,133,144,138,144,138,138,138,144,144,150,150,156,144,133,124,120,116,120,124,124,124,124,124,128,128,133,138,138,144,299,0,0,0,0,0,0,0,0,0,0,0,0,0,0,0,0,0,0,0,0,399,399,399,399,399,327,359,299,327,359,327,257,257,240,240,200,189,171,150,138,138,120,120,112,109,109,109,103,106,97,100,90,84,86,82,78,78,75,75,72,73,76,65,65,63,63,63,61,53,57,56,56,56,56,53,54,55,58,54,54,54,53,53,54,52,50,50,49,48,49,47,47,43,0,0,39,38,36,38,38,0,0,0,0,0,0,0,0,0,34,34,37,34,33,33,33,32,31,30,27,27,27,27,27,27,27,27,27,28,28,27,26,27,25,25,25,25,25,25,25,25,25,25,25,25,0,24,0,0,0,0,0,0,0,0,0,0,0,0,0,0,0,0,0,0,0,0,0,0,0,0,0,0,0,0,0,0
0,0,0,0,0,0,0,0,0,0,0,0,0,0,0,0,0,0,0,0,0,0,0,0,0,0,0,0,0,0,0,0,0,0,0,0,0,0,0,0,0,0,0,0,0,0,0,0,0,0,0,62,61,62,64,64,65,65,67,67,68,70,73,70,72,69,69,72,73,72,75,75,75,75,73,78,75,69,72,72,70,72,70,75,72,73,78,76,76,78,80,80,82,82,82,84,86,86,88,90,97,95,103,120,116,116,128,133,133,133,138,133,138,133,144,138,144,138,138,133,138,138,144,150,150,144,133,128,124,124,124,124,128,128,124,124,128,133,138,144,144,144,299,0,0,0,0,0,0,0,0,0,0,0,0,0,0,0,0,0,0,0,399,399,399,399,399,399,359,399,359,399,399,359,257,276,257,257,200,189,171,156,138,138,120,120,112,109,109,112,106,109,100,103,92,86,86,82,80,80,75,75,72,72,78,67,64,62,63,63,61,52,56,56,56,56,56,53,54,55,57,54,54,53,53,52,54,52,50,50,49,49,49,0,0,0,0,0,0,38,36,38,37,0,0,0,0,0,0,0,0,0,34,34,36,34,34,33,33,33,31,30,27,27,27,27,27,28,28,27,27,28,28,27,27,27,25,25,25,25,25,25,25,25,25,25,25,25,0,24,0,0,0,0,0,0,0,0,0,0,0,0,0,0,0,0,0,0,0,0,0,0,0,0,0,0,0,0,0,0
0,0,0,0,0,0,0,0,0,0,0,0,0,0,0,0,0,0,0,0,0,0,0,0,0,0,0,0,0,0,0,0,0,0,0,0,0,0,0,0,0,0,0,0,0,0,0,0,0,0,0,63,61,62,64,64,67,65,65,68,68,70,75,70,72,69,69,72,73,72,75,75,75,73,73,78,75,69,72,72,70,73,70,75,72,73,78,75,76,78,78,80,82,80,82,84,86,86,88,88,95,95,103,120,116,116,128,133,133,133,133,133,138,133,144,138,144,138,138,128,133,133,138,144,138,138,128,128,124,124,124,124,128,128,128,128,128,133,138,144,150,171,359,0,0,0,0,0,0,0,0,0,0,0,0,0,0,0,0,0,399,399,399,399,399,399,399,399,359,399,399,0,399,359,257,276,257,257,200,189,171,150,133,138,120,120,116,112,109,112,106,109,100,103,92,86,86,82,80,80,76,76,72,72,80,65,64,62,62,62,61,52,56,56,56,56,57,53,54,54,57,54,54,53,52,52,54,51,51,50,49,49,49,0,0,0,0,0,0,0,36,37,37,0,0,0,0,0,0,0,0,0,34,34,36,34,34,33,33,33,32,30,27,27,28,28,27,28,28,27,27,28,28,27,27,27,25,25,25,25,25,25,25,25,25,26,25,25,0,24,0,0,0,0,0,0,0,0,0,0,0,0,0,0,0,0,0,0,0,0,0,0,0,0,0,0,0,0,0,0
0,0,0,0,0,0,0,0,0,0,0,0,0,0,0,0,0,0,0,0,0,0,0,0,0,0,0,0,0,0,0,0,0,0,0,0,0,0,0,0,0,0,0,0,0,0,0,0,0,0,0,63,61,62,64,64,67,65,65,67,68,70,75,70,73,70,69,72,73,72,75,75,75,73,73,78,76,69,72,72,70,73,70,75,72,73,78,75,75,78,78,80,82,80,82,84,86,86,88,88,95,92,100,120,116,112,128,133,133,128,133,133,133,133,138,138,144,138,138,128,133,128,133,138,133,133,128,128,124,124,128,124,128,128,128,128,128,138,138,144,171,200,359,0,0,0,0,0,0,0,0,0,0,0,0,0,0,0,0,0,399,399,359,359,359,399,359,399,359,399,0,0,0,359,276,299,276,257,189,180,163,144,128,133,120,120,116,112,112,112,106,106,100,103,95,86,86,82,78,78,76,76,72,70,80,65,64,62,62,62,61,52,56,56,56,56,56,53,54,54,57,54,53,53,52,51,54,51,51,50,49,49,49,0,0,45,0,0,0,0,36,37,36,0,0,0,0,0,0,0,0,0,34,34,35,34,33,33,33,33,32,30,27,27,28,28,27,28,28,28,27,28,28,27,27,27,25,25,25,25,25,25,25,25,25,26,25,25,0,24,0,0,0,0,0,0,0,0,0,0,0,0,0,0,0,0,0,0,0,0,0,0,0,0,0,0,0,0,0,0
0,0,0,0,0,0,0,0,0,0,0,0,0,0,0,0,0,0,0,0,0,0,0,0,0,0,0,0,0,0,0,0,0,0,0,0,0,0,0,0,0,0,0,0,0,0,0,0,0,0,0,63,61,62,64,64,67,65,65,67,68,70,76,72,73,70,69,72,73,73,75,75,75,75,73,78,76,69,72,72,70,73,70,75,73,73,78,75,75,78,78,80,82,80,84,84,86,86,88,88,95,92,100,116,116,112,128,133,133,128,128,133,128,133,138,138,138,138,138,128,133,128,133,138,133,128,124,128,124,124,128,124,128,128,128,133,133,138,144,150,189,211,359,0,0,0,0,0,0,0,0,0,0,0,0,0,0,0,0,0,399,399,359,359,359,359,359,359,359,399,0,0,0,399,299,327,299,276,189,180,156,144,128,133,120,120,116,116,112,112,106,106,100,103,95,86,86,82,80,80,78,76,72,72,80,65,64,62,62,62,61,53,56,56,56,56,56,53,54,54,57,53,52,52,51,51,53,51,51,50,49,49,49,0,0,45,0,0,0,0,36,37,36,0,0,0,0,0,0,0,0,0,34,34,35,34,33,33,33,33,32,30,27,27,28,28,27,28,28,27,27,28,28,27,26,26,25,25,25,25,25,25,25,26,25,26,25,25,0,25,0,0,0,0,0,0,0,0,0,0,0,0,0,0,0,0,0,0,0,0,0,0,0,0,0,0,0,0,0,0
0,0,0,0,0,0,0,0,0,0,0,0,0,0,0,0,0,0,0,0,0,0,0,0,0,0,0,0,0,0,0,0,0,0,0,0,0,0,0,0,0,0,0,0,0,0,0,0,0,0,0,63,60,62,63,64,65,64,65,67,68,70,76,72,73,70,69,72,73,73,75,75,75,75,75,78,78,69,73,72,72,73,69,75,72,72,76,75,75,76,78,80,80,80,84,84,86,86,88,88,95,92,97,116,112,109,124,128,128,128,128,128,124,128,133,133,133,133,133,124,133,128,128,133,133,128,124,128,128,128,128,128,128,133,133,133,133,144,156,171,240,257,399,0,0,0,0,399,0,0,0,0,0,0,0,0,0,0,0,0,399,399,359,359,327,327,327,327,327,359,399,0,399,359,299,327,327,276,171,171,156,138,124,128,116,116,116,116,112,112,106,106,100,106,97,88,88,84,82,82,78,76,72,72,82,65,64,63,62,62,61,53,56,56,56,56,56,52,54,53,56,52,52,51,51,51,52,51,51,0,49,49,0,48,0,45,0,0,0,0,37,37,36,0,0,0,0,0,0,0,0,34,34,33,34,34,33,33,33,33,33,30,28,27,28,28,27,27,27,27,27,28,28,27,26,26,25,25,25,26,25,25,25,26,25,26,25,25,25,25,0,0,0,0,0,0,0,0,0,0,0,0,0,0,0,0,0,0,0,0,0,0,0,0,0,0,0,0,0,0
0,0,0,0,0,0,0,0,0,0,0,0,0,0,0,0,0,0,0,0,0,0,0,0,0,0,0,0,0,0,0,0,0,0,0,0,0,0,0,0,0,0,0,0,0,0,0,0,0,0,0,63,60,62,63,64,65,64,65,67,67,70,76,72,73,70,69,72,75,73,75,75,75,75,75,78,78,70,73,72,70,73,69,75,72,72,76,75,75,76,78,80,80,80,84,84,86,86,88,88,92,92,97,112,112,109,124,128,128,124,124,124,120,124,133,128,128,128,128,124,133,128,128,133,133,133,128,133,128,128,133,133,133,133,133,138,138,150,180,189,276,276,399,0,0,0,0,399,0,0,0,399,399,399,399,399,0,0,0,0,399,399,359,359,359,327,327,327,299,327,359,359,327,327,276,299,276,240,156,163,144,133,124,124,112,116,112,116,112,112,106,106,103,109,97,90,88,84,84,84,80,76,70,70,80,64,63,62,62,62,60,53,56,55,55,56,56,52,53,53,56,52,51,51,51,51,52,50,51,0,0,49,0,48,0,45,0,0,0,0,38,38,37,0,0,0,0,0,0,0,0,33,33,33,34,34,33,33,33,33,33,31,29,27,28,28,27,27,27,27,27,27,28,27,26,26,25,25,25,26,25,25,25,26,25,26,25,25,25,0,0,0,0,0,0,0,0,0,0,0,0,0,0,0,0,0,0,0,0,0,0,0,0,0,0,0,0,0,0,0
0,0,0,0,0,0,0,0,0,0,0,0,0,0,0,0,0,0,0,0,0,0,0,0,0,0,0,0,0,0,0,0,0,0,0,0,0,0,0,0,0,0,0,0,0,0,0,0,0,0,0,64,61,62,63,64,65,64,64,65,67,69,75,70,72,70,69,72,75,73,76,75,75,75,75,80,78,70,73,73,70,72,69,75,72,72,76,75,75,76,78,80,82,80,84,84,86,86,88,88,92,92,97,112,112,109,124,128,128,124,124,124,120,124,128,128,128,128,128,128,133,128,133,138,138,138,133,138,133,133,138,138,138,138,144,150,144,163,200,200,299,299,399,0,0,0,0,399,399,399,0,399,399,399,399,399,0,0,0,0,399,399,399,359,359,359,327,359,327,359,359,359,327,299,299,299,276,225,163,163,150,133,128,128,116,120,116,116,116,116,109,106,106,112,100,90,90,86,84,84,80,76,70,70,80,64,62,61,61,61,60,52,55,55,55,55,55,52,53,0,54,51,51,51,51,0,51,0,0,0,0,49,0,48,0,45,0,0,0,0,38,38,37,0,0,0,0,34,34,34,34,33,33,33,34,34,33,33,33,33,33,32,29,27,28,28,27,27,27,27,27,27,27,27,26,26,26,25,25,26,25,25,25,26,25,26,25,25,0,0,0,0,0,0,0,0,0,0,0,0,0,0,0,0,0,0,0,0,0,0,0,0,0,0,0,0,0,0,0,0
0,0,0,0,0,0,0,0,0,0,0,0,0,0,0,0,0,0,0,0,0,0,0,0,0,0,0,0,0,0,0,0,0,0,0,0,0,0,0,0,0,0,0,0,0,0,0,0,0,0,0,64,62,62,64,64,65,64,64,65,65,69,75,70,70,69,69,70,73,73,75,75,75,76,76,80,80,72,75,73,70,72,69,75,72,73,75,75,75,78,78,80,82,80,84,84,86,86,88,90,95,92,97,116,112,106,124,128,128,124,124,124,120,128,133,128,128,128,128,133,138,133,138,144,144,144,144,144,144,144,150,144,144,144,144,156,156,163,211,211,327,327,359,0,0,449,399,359,399,399,399,399,359,399,399,399,0,0,0,0,399,399,399,399,399,359,359,359,327,359,359,359,327,299,299,299,276,211,171,171,156,144,138,133,124,124,124,120,116,116,112,106,106,112,100,92,90,86,84,84,80,76,72,70,82,63,62,60,59,60,58,52,54,54,54,54,54,52,53,0,54,51,51,0,0,0,0,0,0,0,0,0,0,48,0,45,43,0,0,0,39,38,38,0,0,0,33,34,34,34,33,33,33,33,34,34,33,33,33,34,33,32,30,27,28,28,27,27,27,27,27,27,27,27,26,26,26,26,25,26,25,25,25,26,25,26,25,25,0,0,0,0,0,0,0,0,0,0,0,0,0,0,0,0,0,0,0,0,0,0,0,0,0,0,0,0,0,0,0,0
0,0,0,0,0,0,0,0,0,0,0,0,0,0,0,0,0,0,0,0,0,0,0,0,0,0,0,0,0,0,0,0,0,0,0,0,0,0,0,0,0,0,0,0,0,0,0,0,0,0,0,64,62,63,64,64,65,64,64,65,65,68,73,69,69,68,69,70,73,73,75,75,75,76,76,78,80,72,75,73,72,73,70,75,72,73,76,75,75,78,80,80,82,80,84,84,86,86,88,90,95,92,97,116,112,106,124,128,128,124,124,124,120,128,133,133,133,133,133,138,144,138,144,144,150,150,144,150,150,150,156,150,156,163,163,180,189,211,276,240,327,327,359,399,399,399,399,359,399,359,399,399,359,399,399,399,0,0,0,0,0,0,399,359,399,359,359,359,327,359,359,359,327,299,299,299,276,200,180,171,171,150,144,144,133,133,133,124,120,120,112,106,106,112,100,92,92,86,84,84,80,78,72,70,82,63,61,59,58,59,57,52,54,54,54,54,54,52,0,0,53,51,51,0,0,0,0,0,0,0,0,0,49,48,0,45,43,0,0,0,39,38,37,0,0,0,33,34,34,34,33,33,33,33,34,34,33,33,33,34,33,32,30,27,29,28,27,27,27,26,0,27,27,27,26,26,26,26,26,26,25,25,25,26,25,26,25,25,0,0,0,0,0,0,0,0,0,0,0,0,0,0,0,0,0,0,0,0,0,0,0,0,0,0,0,0,0,0,0,0
0,0,0,0,0,0,0,0,0,0,0,0,0,0,0,0,0,0,0,0,0,0,0,0,0,0,0,0,0,0,0,0,0,0,0,0,0,0,0,0,0,0,0,0,0,0,0,0,0,0,0,64,63,63,63,64,65,64,64,64,65,68,73,69,69,68,69,70,73,73,75,75,75,76,76,78,80,73,76,75,73,75,70,76,73,75,76,76,76,78,80,80,82,82,84,84,86,86,90,90,95,92,100,116,116,106,124,128,128,124,124,124,120,128,133,133,133,138,138,144,144,144,150,150,156,156,150,163,156,163,180,171,189,189,211,276,299,299,359,299,359,359,359,399,359,359,359,359,359,359,359,359,359,399,399,0,0,0,0,0,0,0,399,359,399,359,359,359,327,359,359,359,327,299,299,299,276,200,171,171,171,156,156,150,133,138,138,124,124,120,116,106,106,112,100,92,92,86,84,84,80,78,72,70,82,63,58,58,55,58,55,51,53,54,54,54,54,51,0,0,52,51,50,50,51,0,0,0,0,0,0,0,49,47,47,45,43,0,0,41,39,0,37,0,0,0,33,34,34,33,33,33,33,33,34,34,33,33,33,34,33,32,30,27,28,28,27,0,26,26,0,27,27,27,26,26,26,26,26,26,25,25,25,25,25,26,25,25,0,0,0,0,0,0,0,0,0,0,0,0,0,0,0,0,0,0,0,0,0,0,0,0,0,0,0,0,0,0,0,0
0,0,0,0,0,0,0,0,0,0,0,0,0,0,0,0,0,0,0,0,0,0,0,0,0,0,0,0,0,0,0,0,0,0,0,0,0,0,0,0,0,0,0,0,0,0,0,0,0,0,0,63,63,63,63,63,65,64,64,64,64,67,72,69,68,68,69,70,73,73,75,75,76,76,76,78,80,73,76,76,75,75,72,76,75,75,78,78,78,78,80,80,82,82,84,84,86,86,90,90,95,92,100,116,116,106,124,128,128,124,124,124,120,128,133,133,133,138,138,144,150,150,150,156,163,163,163,171,163,180,211,225,257,257,299,359,399,359,0,359,359,359,359,399,359,359,359,327,359,327,359,359,327,399,399,0,0,0,0,0,0,0,399,359,399,359,359,359,327,359,359,359,327,276,299,299,276,189,171,163,171,156,163,156,138,138,138,128,128,124,116,109,106,116,97,92,92,86,84,84,80,80,72,70,84,62,54,54,53,56,54,51,52,53,54,53,53,51,0,0,51,51,50,50,50,50,0,0,0,0,0,0,49,47,47,45,43,0,0,42,39,0,0,0,0,0,0,34,34,34,34,33,33,33,34,34,33,33,33,34,33,32,30,27,28,28,27,26,26,26,26,27,27,26,26,26,26,26,26,26,25,25,25,25,25,26,25,25,0,0,0,0,0,0,0,0,0,0,0,0,0,0,0,0,0,0,0,0,0,0,0,0,0,0,0,0,0,0,0,0
0,0,0,0,0,0,0,0,0,0,0,0,0,0,0,0,0,0,0,0,0,0,0,0,0,0,0,0,0,0,0,0,0,0,0,0,0,0,0,0,0,0,0,0,0,0,0,0,0,0,0,63,63,63,63,63,64,64,64,63,63,65,69,68,67,68,69,69,73,73,75,75,75,76,76,78,80,75,78,76,76,76,73,78,75,76,78,78,78,80,82,80,82,82,84,84,86,86,90,90,95,92,100,116,116,106,124,128,124,124,124,124,120,128,133,133,133,138,138,150,150,150,156,156,171,171,171,189,180,200,257,276,327,327,359,399,0,399,0,399,399,399,359,399,359,359,359,359,359,327,327,359,327,399,399,0,0,0,0,0,0,0,399,359,359,359,359,359,327,359,359,399,359,276,299,299,276,189,171,163,171,163,171,156,144,144,144,133,133,124,120,109,106,116,97,92,92,86,84,84,80,80,72,70,84,62,51,51,51,54,53,51,51,53,53,53,52,51,0,0,0,50,49,49,49,49,0,0,0,0,0,0,48,47,47,46,43,0,0,42,39,0,0,0,0,0,0,34,34,34,0,0,34,33,34,34,33,33,33,34,33,32,30,27,28,28,27,25,26,26,26,27,27,26,26,26,26,26,26,26,25,25,25,25,25,25,25,25,0,0,0,0,0,0,0,0,0,0,0,0,0,0,0,0,0,0,0,0,0,0,0,0,0,0,0,0,0,0,0,0
0,0,0,0,0,0,0,0,0,0,0,0,0,0,0,0,0,0,0,0,0,0,0,0,0,0,0,0,0,0,0,0,0,0,0,0,0,0,0,0,0,0,0,0,0,0,0,0,0,0,0,63,63,63,63,63,64,64,64,63,0,64,68,67,0,67,68,69,72,73,73,75,75,76,76,76,80,76,78,76,76,76,76,78,76,78,80,80,80,80,82,80,82,82,84,84,86,86,88,90,95,92,100,116,116,106,120,128,124,124,124,124,120,128,133,133,133,138,138,150,150,156,156,163,180,180,180,225,211,240,299,327,359,359,399,399,0,0,0,0,0,0,359,0,359,399,359,359,327,327,327,359,359,399,399,0,0,0,0,0,399,399,399,359,359,359,359,359,327,359,359,359,359,257,299,276,276,180,163,156,171,156,171,156,138,144,144,133,133,128,120,109,106,116,97,90,92,86,84,84,80,80,73,70,86,61,49,51,50,53,52,51,51,52,53,52,52,51,0,0,0,50,49,49,49,49,0,0,0,0,0,0,48,47,47,46,43,47,0,43,39,0,0,0,0,0,0,0,0,0,0,0,34,34,34,34,33,33,33,34,33,31,30,27,28,28,27,25,26,26,26,27,27,26,26,26,26,26,26,26,25,25,25,25,25,25,25,25,0,0,0,0,0,0,0,0,0,0,0,0,0,0,0,0,0,0,0,0,0,0,0,0,0,0,0,0,0,0,0,0
0,0,0,0,0,0,0,0,0,0,0,0,0,0,0,0,0,0,0,0,0,0,0,0,0,0,0,0,0,0,0,0,0,0,0,0,0,0,0,0,0,0,0,0,0,0,0,0,0,0,0,63,64,63,63,63,64,64,64,63,0,64,67,67,0,67,68,69,70,73,73,75,75,76,76,76,78,76,78,78,78,78,78,80,80,80,82,82,82,82,84,82,84,82,84,84,86,86,88,90,95,95,100,112,120,106,120,124,124,124,124,124,120,128,133,133,128,138,138,150,150,156,156,163,180,189,189,240,257,276,359,399,399,399,399,0,0,0,0,0,0,0,359,399,359,359,359,327,327,327,327,359,327,399,359,399,0,399,0,0,399,399,359,359,359,359,359,359,359,359,359,359,359,257,299,276,276,180,163,156,163,156,163,150,138,138,138,133,133,128,124,112,106,116,97,90,92,86,84,84,80,80,73,72,0,61,49,50,49,52,52,51,50,52,53,0,52,51,0,0,0,49,49,49,49,0,0,0,0,0,0,0,49,47,47,46,43,47,0,44,39,0,0,0,0,0,0,0,0,0,0,0,34,34,34,34,34,33,33,34,33,31,30,27,27,27,27,25,26,26,26,26,27,26,26,26,26,26,25,26,25,25,25,25,25,25,25,25,0,0,0,0,0,0,0,0,0,0,0,0,0,0,0,0,0,0,0,0,0,0,0,0,0,0,0,0,0,0,0,0
0,0,0,0,0,0,0,0,0,0,0,0,0,0,0,0,0,0,0,0,0,0,0,0,0,0,0,0,0,0,0,0,0,0,0,0,0,0,0,0,0,0,0,0,0,0,0,0,0,0,0,63,63,63,63,63,64,64,64,63,0,64,65,67,0,65,68,68,70,73,73,75,75,75,76,75,78,76,78,78,80,80,80,80,82,82,84,82,84,82,84,82,84,82,84,84,86,88,90,90,95,95,100,116,120,106,120,124,124,124,124,124,120,128,133,133,128,138,138,150,150,156,156,163,180,200,200,257,299,299,399,0,0,0,0,0,0,0,0,399,399,399,359,399,327,359,327,327,327,327,327,359,327,399,359,399,0,0,0,0,399,399,359,359,359,359,359,359,359,399,359,399,399,257,299,299,276,189,171,156,163,156,163,156,138,144,144,133,133,128,124,112,106,112,97,90,92,86,84,84,80,82,75,72,0,61,49,50,49,52,52,51,50,53,53,0,52,51,0,0,0,0,48,48,0,0,0,0,0,0,0,0,49,47,47,46,43,48,45,47,0,0,0,0,0,0,0,0,0,0,0,0,34,34,34,34,34,34,34,34,33,31,30,27,27,27,27,25,26,26,26,26,26,26,26,26,26,26,25,26,25,25,25,25,25,25,25,25,0,0,0,0,0,0,0,0,0,0,0,0,0,0,0,0,0,0,0,0,0,0,0,0,0,0,0,0,0,0,0,0
0,0,0,0,0,0,0,0,0,0,0,0,0,0,0,0,0,0,0,0,0,0,0,0,0,0,0,0,0,0,0,0,0,0,0,0,0,0,0,0,0,0,0,0,0,0,0,0,0,0,0,62,63,63,63,63,64,64,64,63,0,64,67,67,65,65,67,68,69,73,72,73,75,75,75,75,78,76,78,78,80,80,80,82,82,82,84,84,84,84,86,82,84,82,84,84,86,88,90,90,95,95,100,116,120,106,116,124,124,124,124,124,120,124,133,133,128,138,138,150,150,156,156,163,180,200,200,257,299,327,0,0,0,0,0,0,0,0,0,399,399,399,359,399,327,359,327,327,327,327,359,359,359,399,359,399,0,0,0,0,399,399,359,359,359,359,359,359,359,399,399,0,0,276,299,299,299,189,163,156,156,150,163,150,138,138,138,133,133,133,124,112,103,112,97,90,90,84,82,82,80,82,76,73,0,61,49,50,49,53,52,51,50,53,54,0,53,52,0,0,0,0,48,48,49,49,0,0,0,0,0,0,49,47,48,46,43,49,0,0,0,0,0,0,0,0,0,0,0,0,0,0,35,35,35,35,34,34,34,34,33,31,30,27,27,27,27,25,26,26,26,26,27,26,26,26,26,26,26,26,25,25,25,25,25,25,25,25,0,0,0,0,0,0,22,0,0,0,0,0,0,0,0,0,0,0,0,0,0,0,0,0,0,0,0,0,0,0,0,0
0,0,0,0,0,0,0,0,0,0,0,0,0,0,0,0,0,0,0,0,0,0,0,0,0,0,0,0,0,0,0,0,0,0,0,0,0,0,0,0,0,0,0,0,0,0,0,0,0,0,0,62,62,63,63,63,64,64,64,63,0,64,67,67,67,65,67,68,69,73,72,73,73,75,75,75,78,76,78,78,80,80,82,82,84,84,86,84,86,84,86,82,84,82,84,84,86,88,90,90,95,95,100,116,124,106,116,124,124,124,124,124,120,124,128,133,128,138,138,150,150,156,156,163,180,200,200,257,299,359,0,0,0,0,0,0,0,0,0,399,359,359,359,359,359,327,327,327,327,327,359,359,359,399,359,399,0,0,0,0,399,399,359,359,359,359,359,359,359,399,399,0,0,276,299,299,299,189,150,150,150,150,156,150,133,138,138,133,133,133,124,112,103,112,97,90,90,84,82,82,80,82,76,73,92,0,49,0,49,53,53,51,50,54,54,0,54,52,0,0,0,0,48,48,49,49,0,0,0,0,0,0,0,47,48,47,43,51,54,54,0,0,0,0,0,0,0,0,0,0,0,0,35,35,35,36,34,34,34,34,33,30,30,27,27,27,27,25,26,26,26,27,27,27,26,26,26,26,25,26,25,25,25,25,25,25,25,25,0,0,0,0,0,0,22,0,0,0,0,0,0,0,0,0,0,0,0,0,0,0,0,0,0,0,0,0,0,0,0,0
0,0,0,0,0,0,0,0,0,0,0,0,0,0,0,0,0,0,0,0,0,0,0,0,0,0,0,0,0,0,0,0,0,0,0,0,0,0,0,0,0,0,0,0,0,0,0,0,0,0,0,62,62,63,63,63,64,64,64,64,0,0,67,67,67,65,67,68,69,73,72,73,73,75,75,75,78,76,78,78,80,80,82,82,84,84,86,84,86,84,86,84,84,82,84,84,88,88,90,90,95,97,103,116,124,106,116,124,124,124,124,124,120,124,128,128,124,133,133,144,150,150,156,163,171,189,200,257,299,327,0,0,0,0,0,0,0,399,0,359,327,359,359,359,359,359,359,327,359,359,359,359,359,359,359,399,0,0,0,0,399,399,359,359,359,359,359,359,359,399,399,0,0,276,299,299,276,189,138,150,144,144,150,144,133,133,133,133,133,133,124,112,103,109,97,88,88,84,82,82,80,82,76,73,92,0,48,0,49,53,53,51,50,54,54,0,54,52,0,0,0,0,48,47,48,49,0,0,0,0,0,0,0,48,0,47,43,59,63,59,0,0,0,0,0,0,0,0,0,0,0,0,35,35,36,36,35,34,34,34,34,31,30,27,27,27,26,25,26,26,26,27,27,27,26,26,26,26,25,26,25,25,25,25,25,25,25,25,24,0,0,0,0,0,23,0,0,0,0,0,0,0,0,0,0,0,0,0,0,0,0,0,0,0,0,0,0,0,0,0
0,0,0,0,0,0,0,0,0,0,0,0,0,0,0,0,0,0,0,0,0,0,0,0,0,0,0,0,0,0,0,0,0,0,0,0,0,0,0,0,0,0,0,0,0,0,0,0,0,0,0,62,63,63,63,63,64,64,65,64,0,0,65,67,65,65,67,68,68,72,72,73,73,75,75,75,78,78,78,78,82,80,82,82,84,84,86,84,86,84,86,84,86,84,84,84,88,90,90,92,97,97,103,116,124,106,116,124,124,124,124,124,120,120,128,128,120,133,128,138,144,150,156,163,171,189,189,257,276,327,399,399,399,399,399,399,399,359,359,327,299,327,327,327,359,359,359,327,359,359,359,399,399,399,359,359,0,399,0,0,399,399,399,399,359,359,359,359,359,399,399,399,0,276,299,299,299,189,144,150,138,144,150,144,128,133,133,128,128,128,120,112,103,106,95,88,88,84,82,82,80,82,76,73,95,0,0,0,49,0,0,52,50,54,55,0,54,53,0,0,0,0,48,47,48,48,0,0,0,0,0,0,0,48,0,47,43,0,65,63,0,0,0,0,0,0,0,0,0,0,0,0,35,35,36,37,35,35,35,35,34,31,30,27,27,27,26,25,26,26,26,27,27,27,27,26,26,26,25,26,25,25,25,25,25,25,25,25,24,0,0,0,0,0,23,22,0,0,0,0,0,0,0,0,0,0,0,0,0,0,0,0,0,0,0,0,0,0,0,0
0,0,0,0,0,0,0,0,0,0,0,0,0,0,0,0,0,0,0,0,0,0,0,0,0,0,0,0,0,0,0,0,0,0,0,0,0,0,0,0,0,0,0,0,0,0,0,0,0,0,0,62,63,63,63,63,64,64,65,64,0,0,65,65,65,64,67,68,68,73,72,73,73,75,75,75,78,78,78,80,82,82,82,82,84,84,86,84,86,84,86,84,86,84,86,86,90,90,92,92,97,100,103,120,124,109,120,124,124,124,124,124,120,120,124,124,120,128,124,138,144,150,150,163,171,180,189,240,257,276,327,359,359,359,327,327,327,327,327,299,276,299,299,327,359,327,327,327,359,359,359,399,399,399,359,359,399,399,0,399,399,399,399,399,399,399,399,359,359,399,399,399,0,299,299,299,276,189,150,150,138,138,144,144,128,128,133,128,124,128,120,109,100,106,95,86,88,84,80,80,80,82,78,75,95,0,0,0,49,0,0,53,51,55,55,0,55,53,0,0,0,0,48,0,48,48,0,0,0,0,0,0,0,48,0,47,0,67,65,64,0,0,0,0,0,0,0,0,0,0,0,0,35,35,36,37,35,35,35,34,34,31,30,27,26,27,27,25,26,26,26,27,27,27,27,26,27,26,25,26,25,25,25,25,25,25,25,25,24,0,0,0,0,0,23,22,0,0,0,0,0,0,0,0,0,0,0,0,0,0,0,0,0,0,0,0,0,0,0,0
0,0,0,0,0,0,0,0,0,0,0,0,0,0,0,0,0,0,0,0,0,0,0,0,0,0,0,0,0,0,0,0,0,0,0,0,0,0,0,0,0,0,0,0,0,0,0,0,0,0,0,62,63,63,63,63,64,64,65,64,0,0,0,65,0,64,65,68,69,73,72,73,73,76,76,76,78,78,80,80,82,82,82,82,84,84,86,84,86,86,88,86,88,86,88,88,92,95,95,95,100,103,106,120,128,109,120,124,120,124,124,128,120,120,124,124,116,128,124,133,138,144,150,163,163,180,180,225,225,257,276,327,299,299,299,299,299,299,299,276,276,299,299,299,327,327,327,327,327,359,359,399,399,359,359,359,399,399,0,399,0,0,399,399,399,399,399,399,359,399,399,399,399,299,299,276,276,200,150,156,138,138,138,138,128,128,128,124,120,124,116,109,100,103,95,86,86,84,80,80,80,82,78,75,97,0,0,0,50,0,57,54,51,56,56,56,56,54,0,0,0,0,48,0,48,48,0,0,0,0,0,0,0,49,0,47,0,68,67,65,0,0,0,0,0,0,0,0,0,0,0,0,35,35,35,37,35,35,35,35,34,32,30,27,26,27,27,26,27,27,26,27,27,27,27,26,27,26,25,25,25,25,25,25,25,25,25,25,25,0,0,0,0,0,23,22,0,0,0,0,0,0,0,0,0,0,0,0,0,0,0,0,0,0,0,0,0,0,0,0
0,0,0,0,0,0,0,0,0,0,0,0,0,0,0,0,0,0,0,0,0,0,0,0,0,0,0,0,0,0,0,0,0,0,0,0,0,0,0,0,0,0,0,0,0,0,0,0,0,0,0,62,63,63,63,64,64,64,65,64,0,0,0,64,0,64,65,68,69,73,73,73,73,76,76,76,80,80,80,80,82,82,82,84,84,84,84,84,86,86,88,86,88,88,90,92,97,97,100,100,106,109,109,120,128,109,120,124,120,124,124,128,120,120,124,120,116,128,120,128,133,144,150,156,163,171,180,211,211,240,257,276,257,276,276,276,299,276,276,276,257,276,276,299,299,299,299,299,327,359,359,399,359,359,359,399,399,0,0,449,0,0,0,0,399,399,399,399,359,359,399,399,399,299,276,276,276,200,156,156,133,138,133,138,128,128,128,124,116,124,109,106,97,100,92,84,84,82,80,80,80,82,78,76,97,0,0,0,0,0,59,56,51,56,56,56,56,54,0,0,0,0,48,0,48,48,0,0,0,0,0,0,0,49,0,47,0,70,68,67,0,0,0,0,0,0,0,0,0,0,0,0,35,35,35,37,35,35,35,35,35,33,30,28,26,27,27,26,27,27,27,27,27,28,27,26,27,26,25,25,25,25,25,25,25,25,25,25,25,0,0,0,0,0,23,22,0,0,0,0,0,0,0,0,0,0,0,0,0,0,0,0,0,0,0,0,0,0,0,0
0,0,0,0,0,0,0,0,0,0,0,0,0,0,0,0,0,0,0,0,0,0,0,0,0,0,0,0,0,0,0,0,0,0,0,0,0,0,0,0,0,0,0,0,0,0,0,0,0,0,0,62,63,64,64,64,64,65,65,64,0,0,64,65,0,64,67,69,69,73,73,73,75,76,76,76,80,80,80,80,82,82,82,84,84,84,84,84,86,86,88,88,90,90,95,95,100,103,106,106,112,112,112,124,128,109,124,128,120,124,124,128,120,120,124,120,116,128,120,128,133,138,150,156,163,171,180,211,211,225,240,257,240,257,276,257,276,257,257,276,257,276,276,276,299,276,299,276,299,327,359,359,399,359,359,399,0,0,0,399,0,0,0,0,399,399,399,399,359,359,399,399,359,276,276,276,257,211,156,163,138,144,133,138,128,128,128,124,116,120,106,103,95,97,92,82,84,82,80,80,80,0,78,76,95,0,0,0,0,0,61,58,51,57,56,56,56,54,0,0,0,0,49,0,0,49,0,0,0,0,0,0,0,49,0,47,0,73,69,67,0,0,0,0,0,0,0,0,0,0,0,0,35,35,35,37,35,35,35,35,34,34,31,28,26,27,27,26,27,27,27,27,27,28,27,26,27,26,25,25,25,25,25,25,25,25,25,25,25,0,0,0,0,0,23,22,0,0,0,0,0,0,0,0,0,0,0,0,0,0,0,0,0,0,0,0,0,0,0,0
0,0,0,0,0,0,0,0,0,0,0,0,0,0,0,0,0,0,0,0,0,0,0,0,0,0,0,0,0,0,0,0,0,0,0,0,0,0,0,0,0,0,0,0,0,0,0,0,0,0,0,63,64,64,64,64,65,65,67,65,0,65,65,65,65,65,67,69,69,73,73,75,75,76,78,78,80,80,82,80,82,82,82,82,84,84,84,84,86,86,0,88,92,92,97,100,103,109,112,109,116,116,112,124,128,109,124,128,116,124,124,128,120,120,124,120,112,124,120,128,128,138,150,156,163,171,180,211,200,225,240,240,240,240,276,240,276,276,276,276,276,299,299,276,299,299,299,276,299,327,359,359,359,359,359,359,399,399,399,359,359,359,399,399,359,359,359,359,359,359,399,399,359,299,276,276,257,211,156,163,144,144,133,138,133,128,128,124,116,116,103,103,95,95,92,82,82,82,80,80,80,0,78,76,95,0,0,70,59,0,62,59,51,57,56,56,56,54,0,0,0,0,49,0,0,0,0,0,0,0,0,0,0,49,0,47,0,76,69,67,0,0,0,0,0,0,0,0,0,0,0,0,34,34,34,36,35,35,35,34,34,34,31,29,26,27,27,26,27,27,27,27,28,28,27,27,27,26,25,25,25,25,25,25,25,25,26,25,25,0,0,0,0,0,23,22,0,0,0,0,0,0,0,0,0,0,0,0,0,0,0,0,0,0,0,0,0,0,0,0
0,0,0,0,0,0,0,0,0,0,0,0,0,0,0,0,0,0,0,0,0,0,0,0,0,0,0,0,0,0,0,0,0,0,0,0,0,0,0,0,0,0,0,0,0,0,0,0,0,0,0,63,64,64,64,65,65,65,67,65,69,67,65,65,67,65,67,70,70,73,75,75,75,76,78,78,80,82,82,80,82,82,82,82,84,82,84,84,86,86,0,90,95,95,100,103,106,112,116,112,116,116,112,124,124,109,124,128,116,124,124,128,120,120,124,120,112,124,116,124,128,138,150,156,163,171,180,211,200,225,225,240,240,240,276,240,257,276,276,276,276,299,299,299,327,299,299,276,299,327,327,359,359,359,359,359,359,359,359,327,359,359,359,359,359,359,359,359,359,359,399,399,399,299,299,299,276,225,163,171,150,144,133,138,133,128,128,124,0,112,103,100,92,92,90,80,80,82,80,80,80,0,78,76,95,0,0,72,62,0,63,60,51,57,56,56,56,54,0,0,0,0,0,0,0,0,0,0,0,0,0,0,0,49,0,47,0,78,0,0,0,0,0,0,0,0,0,0,0,34,34,34,34,34,34,35,34,34,34,34,34,34,32,29,26,27,27,27,28,28,27,27,28,28,27,27,27,26,25,25,25,25,25,25,26,25,26,25,25,0,0,0,0,0,23,22,0,0,0,0,0,0,0,0,0,0,0,0,0,0,0,0,0,0,0,0,0,0,0,0
0,0,0,0,0,0,0,0,0,0,0,0,0,0,0,0,0,0,0,0,0,0,0,0,0,0,0,0,0,0,0,0,0,0,0,0,0,0,0,0,0,0,0,0,0,0,0,0,0,0,0,64,64,65,65,65,67,67,68,65,69,67,67,67,68,67,68,70,70,73,75,75,75,76,78,80,82,82,84,82,82,82,82,82,84,82,84,84,86,0,0,90,95,95,100,103,106,116,116,116,120,120,116,124,124,109,124,128,116,124,124,128,120,120,124,120,112,124,116,124,124,133,150,156,163,171,180,200,189,211,211,240,240,240,276,257,257,276,276,299,276,299,327,327,327,327,327,299,327,327,327,327,359,359,359,359,359,327,359,327,327,327,327,327,359,359,327,359,359,359,399,399,399,327,299,299,276,257,163,171,150,150,133,138,133,124,128,120,109,109,100,97,92,92,90,80,80,82,80,80,0,0,76,75,92,95,0,72,64,0,64,60,51,57,56,56,56,55,0,0,0,0,0,0,0,0,0,0,0,0,0,0,0,49,0,47,43,0,0,0,39,0,0,0,0,0,0,0,0,34,34,34,33,33,34,34,34,34,34,34,34,34,33,29,26,28,27,27,28,28,27,27,27,28,27,26,27,26,25,26,25,25,25,25,26,25,26,26,25,0,0,0,0,0,23,22,0,0,0,0,0,0,0,0,0,0,0,0,0,0,0,0,0,0,0,0,0,0,0,0
0,0,0,0,0,0,0,0,0,0,0,0,0,0,0,0,0,0,0,0,0,0,0,0,0,0,0,0,0,0,0,0,0,0,0,0,0,0,0,0,0,0,0,0,0,0,0,0,0,0,0,63,64,65,65,65,67,67,68,65,70,68,68,68,69,67,68,72,70,75,75,75,76,78,80,80,82,84,84,82,82,82,82,82,84,82,84,82,86,86,0,92,95,95,100,103,106,116,116,116,120,120,116,124,124,112,124,128,116,124,124,128,120,120,124,120,112,124,116,124,124,133,150,156,163,171,180,200,189,200,225,240,257,240,276,257,257,276,299,299,299,327,327,359,359,327,327,299,327,327,359,327,359,359,327,327,327,327,327,299,327,299,299,299,327,327,327,359,359,359,399,399,399,327,299,327,299,276,171,180,150,150,133,138,133,124,128,120,109,106,97,97,90,90,90,80,78,82,78,78,0,0,76,73,90,95,0,73,65,0,65,61,52,57,56,55,56,55,0,0,0,0,0,0,0,0,0,0,0,0,0,0,0,49,0,47,43,0,44,40,39,36,0,0,0,0,0,0,33,33,33,33,33,33,33,34,34,33,33,33,34,34,33,30,27,28,28,27,28,28,27,27,27,28,27,26,26,26,25,26,26,26,25,25,26,26,26,26,25,0,0,0,0,0,23,22,0,0,0,0,0,0,0,0,0,0,0,0,0,0,0,0,0,0,0,0,0,0,0,0
0,0,0,0,0,0,0,0,0,0,0,0,0,0,0,0,0,0,0,0,0,0,0,0,0,0,0,0,0,0,0,0,0,0,0,0,0,0,0,0,0,0,0,0,0,0,0,0,0,0,0,63,64,65,65,65,67,67,68,65,72,69,70,70,72,68,69,72,72,75,75,75,76,78,82,82,84,84,86,82,84,82,82,82,84,82,84,82,86,0,0,92,95,95,100,103,106,116,116,116,120,120,116,124,124,112,124,128,116,124,124,128,120,120,124,120,112,124,120,124,124,133,150,156,163,171,189,200,189,200,225,240,257,240,276,240,257,276,276,276,299,299,327,327,359,327,327,299,327,327,327,327,359,327,327,327,327,299,299,276,299,276,276,299,299,327,327,327,359,359,399,359,399,327,327,327,299,299,171,180,156,150,133,138,133,124,128,120,106,106,97,97,90,90,90,80,78,82,0,78,0,0,73,72,90,92,0,73,67,67,65,61,52,57,55,55,56,55,0,52,0,0,0,0,0,0,0,0,0,0,0,0,0,48,0,47,43,43,44,40,39,36,35,35,0,0,0,33,33,33,33,33,33,33,33,34,34,33,33,33,33,33,33,30,27,28,28,27,27,27,27,27,27,27,27,26,26,25,25,26,26,26,25,25,26,26,26,26,25,0,0,0,0,0,23,22,0,0,0,0,0,0,0,0,0,22,0,0,0,0,0,0,0,0,0,0,0,0,0,0
0,0,0,0,0,0,0,0,0,0,0,0,0,0,0,0,0,0,0,0,0,0,0,0,0,0,0,0,0,0,0,0,0,0,0,0,0,0,0,0,0,0,0,0,0,0,0,0,0,0,0,63,64,65,65,65,67,67,68,65,75,70,72,72,73,69,69,73,72,75,76,75,76,76,80,82,84,86,86,82,84,82,82,82,84,82,84,82,86,88,0,95,95,95,100,106,106,116,112,112,116,120,116,124,124,109,124,128,116,124,128,128,120,120,124,120,112,128,120,124,128,133,150,156,171,171,189,200,200,211,240,240,257,240,257,240,240,257,257,257,276,299,327,327,327,327,299,299,299,299,299,299,327,327,299,327,327,299,299,276,299,257,276,276,299,299,299,327,359,359,359,359,399,327,327,327,327,299,180,189,156,150,133,138,133,124,128,120,106,106,95,95,90,90,90,80,76,82,0,76,0,0,72,69,88,90,90,73,67,67,65,61,52,57,55,55,56,55,0,52,0,0,0,0,0,0,0,0,0,0,0,0,0,48,0,47,43,43,43,40,39,36,34,34,34,0,0,32,33,33,33,33,33,33,33,34,34,33,33,33,33,33,32,30,27,29,28,27,27,27,27,27,27,27,27,26,26,26,25,26,26,26,25,26,26,26,26,26,25,0,0,0,0,0,23,22,0,0,0,0,0,0,0,0,0,22,0,0,0,0,0,0,0,0,0,0,0,0,0,0
0,0,0,0,0,0,0,0,0,0,0,0,0,0,0,0,0,0,0,0,0,0,0,0,0,0,0,0,0,0,0,0,0,0,0,0,0,0,0,0,0,0,0,0,0,0,0,0,0,0,0,63,65,65,65,65,67,67,68,65,76,72,73,72,73,0,69,73,72,75,75,75,76,76,80,80,82,84,86,82,84,82,82,82,84,82,82,82,86,86,0,92,95,95,100,103,106,116,112,112,120,120,120,124,124,109,124,128,116,124,128,128,120,120,124,120,116,128,120,124,128,138,156,163,171,171,189,200,200,211,240,240,257,240,240,225,225,240,240,240,276,276,276,327,327,327,276,299,299,299,299,299,327,299,299,327,299,299,299,299,299,257,276,276,299,299,299,327,327,359,359,359,399,327,327,327,327,299,180,189,156,150,133,138,133,120,128,120,106,106,97,95,90,90,90,80,76,82,0,76,0,0,70,69,86,88,86,70,65,65,65,61,51,56,54,54,56,55,53,53,0,0,0,0,0,0,0,0,0,0,0,0,0,48,47,46,43,43,43,40,39,36,34,34,34,33,32,32,33,33,33,33,32,32,33,33,34,33,32,33,33,33,32,30,27,29,28,27,27,27,27,27,27,27,27,26,26,26,25,26,26,26,25,26,26,26,26,25,25,0,0,0,0,0,23,23,0,0,0,0,0,0,0,0,0,22,0,0,0,0,0,0,0,0,0,0,0,0,0,0
0,0,0,0,0,0,0,0,0,0,0,0,0,0,0,0,0,0,0,0,0,0,0,0,0,0,0,0,0,0,0,0,0,0,0,0,0,0,0,0,0,0,0,0,0,0,0,0,0,0,0,63,65,65,65,65,67,67,68,65,78,72,73,72,0,0,69,73,72,75,75,75,75,75,80,80,80,0,86,0,84,82,82,82,84,84,82,82,86,84,0,90,92,92,97,103,106,112,109,112,116,120,120,124,124,109,124,128,116,124,128,128,120,124,128,124,116,128,120,128,128,144,156,156,171,171,180,200,189,211,240,225,257,225,240,211,200,225,211,211,240,240,257,299,327,299,276,299,299,299,276,299,327,299,299,299,299,276,276,299,276,257,276,276,276,299,276,299,327,327,359,359,399,359,327,359,327,299,189,189,163,150,133,133,133,120,128,116,106,106,97,97,90,92,90,80,78,82,76,76,78,73,70,69,84,84,84,72,65,64,64,61,51,56,54,54,56,55,53,53,52,54,0,0,0,0,0,0,0,0,0,0,0,47,47,46,43,43,43,40,39,37,34,34,34,33,32,32,33,33,32,33,32,32,32,33,34,32,32,32,33,33,32,30,27,29,29,27,27,27,27,26,27,27,27,26,26,26,26,26,26,26,25,26,26,26,26,25,25,24,0,0,0,0,23,23,0,0,0,0,0,0,0,0,0,22,0,22,0,0,0,0,0,0,0,0,0,0,0,0
0,0,0,0,0,0,0,0,0,0,0,0,0,0,0,0,0,0,0,0,0,0,0,0,0,0,0,0,0,0,0,0,0,0,0,0,0,0,0,0,0,0,0,0,0,0,0,0,0,0,0,63,64,65,65,65,67,67,67,65,80,72,72,70,0,0,69,73,72,73,75,75,75,75,78,78,80,86,86,0,84,82,82,82,84,84,82,82,84,82,0,88,90,90,95,97,100,109,103,106,112,116,116,120,124,109,124,128,120,124,128,128,124,124,128,124,120,133,124,128,133,144,156,156,163,171,180,189,189,200,225,225,240,225,225,200,200,211,200,200,225,211,240,276,299,299,276,299,299,299,276,299,299,299,299,299,276,276,299,299,299,257,276,276,299,299,299,299,327,327,359,359,399,359,327,359,327,299,189,189,163,150,128,133,133,120,124,120,106,106,97,97,92,92,92,80,78,80,76,75,78,72,70,69,80,78,82,70,65,63,63,59,51,55,54,54,55,55,53,53,53,54,51,0,0,0,0,0,0,0,0,0,0,0,46,45,43,42,43,40,39,37,35,34,34,34,32,32,33,33,32,33,32,32,32,33,34,32,0,32,33,33,32,30,27,29,29,27,0,26,26,26,27,27,26,26,26,26,26,26,26,26,25,25,26,26,26,25,25,24,0,0,0,0,23,23,0,0,0,0,0,0,0,0,23,22,22,22,22,22,22,22,23,0,0,0,0,0,0,0
