-16,-16,-16,-16,-16,-16,-16,-16,-16,-16,-16,-16,-16,-16,-16,-16,-16,-16,-16,-16,-16,-16,-16,-16,-16,-16,-16,-16,-16,-16,-16,-16,-16,-16,-16,-16,-16,-16,-16,-16,-16,-16,-16,-16,-16,-16,-16,-16,-16,-16,-16,56,57,57,57,57,57,56,56,56,54,54,52,51,51,51,50,46,46,46,45,44,44,43,44,43,46,43,49,45,46,46,45,45,45,44,44,41,42,39,36,37,38,36,36,35,37,35,34,31,31,32,31,31,33,29,34,29,30,30,29,28,28,29,30,28,29,28,26,25,25,25,22,19,14,17,15,14,23,27,26,26,29,32,31,31,29,32,27,15,0,0,0,9,0,0,9,10,10,10,0,0,10,10,10,9,0,0,9,9,10,0,0,11,10,11,11,11,12,12,14,13,12,14,14,15,17,16,20,20,22,23,25,26,28,28,30,34,32,35,36,37,37,38,43,43,43,45,47,46,46,49,50,48,52,51,55,56,58,59,60,67,62,63,63,63,63,68,67,67,64,69,68,69,69,69,69,74,76,81,81,84,85,85,85,86,-16,-16,-16,-16,-16,95,95,98,102,105,104,104,106,107,109,109,109,108,106,109,111,113,112,114,121,121,132,127,128,134,144,139,139,140,-16,136,137,140,141,138,141,143,141,143,-16,145,143,143,141,142,141,145,-16,-16,-16,-16,-16,-16,-16,-16,-16,-16,-16,-16,-16,-16,-16,-16,-16,-16,-16,-16,-16,-16,-16,-16,-16,-16,-16,-16,-16,-16,-16,-16
-16,-16,-16,-16,-16,-16,-16,-16,-16,-16,-16,-16,-16,-16,-16,-16,-16,-16,-16,-16,-16,-16,-16,-16,-16,-16,-16,-16,-16,-16,-16,-16,-16,-16,-16,-16,-16,-16,-16,-16,-16,-16,-16,-16,-16,-16,-16,-16,-16,-16,-16,57,57,57,57,57,57,57,56,56,54,53,52,51,51,51,50,46,46,46,45,45,44,44,44,43,46,44,49,45,46,46,45,45,45,44,44,41,41,39,38,39,40,39,39,38,39,37,36,32,31,33,32,32,33,30,35,29,30,30,29,28,28,29,30,28,29,28,26,25,25,25,23,20,16,19,18,20,24,28,27,27,29,31,31,30,28,30,26,23,18,9,0,9,0,0,9,9,9,9,0,0,9,9,9,9,0,0,9,9,10,0,0,10,10,11,11,11,12,12,14,14,12,14,15,15,17,16,19,21,22,24,25,26,29,28,30,34,33,35,36,37,37,37,43,42,43,45,47,46,46,49,50,47,51,51,55,55,58,59,59,67,63,63,63,63,63,67,66,66,64,69,68,68,68,69,68,-16,75,80,80,83,-16,85,85,87,-16,-16,-16,-16,97,94,94,97,101,104,104,104,105,106,108,109,109,108,105,109,111,113,112,115,121,121,132,129,130,134,144,139,139,139,-16,136,137,139,140,138,141,143,141,143,-16,145,144,143,142,142,141,145,-16,-16,-16,-16,-16,-16,-16,-16,-16,-16,-16,-16,-16,-16,-16,-16,-16,-16,-16,-16,-16,-16,-16,-16,-16,-16,-16,-16,-16,-16,-16,-16
-16,-16,-16,-16,-16,-16,-16,-16,-16,-16,-16,-16,-16,-16,-16,-16,-16,-16,-16,-16,-16,-16,-16,-16,-16,-16,-16,-16,-16,-16,-16,-16,-16,-16,-16,-16,-16,-16,-16,-16,-16,-16,-16,-16,-16,-16,-16,-16,-16,-16,-16,57,57,57,57,57,56,56,56,55,54,53,51,51,50,51,50,47,46,46,45,45,45,44,45,44,46,46,49,46,47,46,46,45,45,44,44,41,42,41,40,41,41,41,41,40,40,39,37,34,32,33,32,32,34,30,35,30,30,31,29,28,28,29,30,28,29,28,26,25,25,25,23,21,18,20,19,22,25,28,27,27,29,30,30,30,28,29,27,24,25,12,8,9,0,0,9,9,9,0,0,0,9,9,0,0,0,0,0,9,10,0,0,10,10,10,11,11,12,12,15,14,13,14,15,15,17,16,19,20,22,23,25,25,29,29,31,35,33,35,36,36,36,37,42,42,42,44,46,45,46,49,50,46,51,51,55,55,58,58,58,67,63,63,63,63,63,67,66,66,63,68,67,68,68,68,67,-16,74,78,79,82,-16,85,86,-16,-16,-16,92,95,97,94,94,96,101,104,103,103,105,-16,107,108,108,108,105,108,110,112,111,115,120,121,132,130,131,134,143,139,139,139,-16,135,136,137,140,137,141,143,141,143,144,145,144,143,143,142,142,145,-16,-16,-16,-16,-16,-16,-16,-16,-16,-16,-16,-16,-16,-16,-16,-16,-16,-16,-16,-16,-16,-16,-16,-16,-16,-16,-16,-16,-16,-16,-16,-16
-16,-16,-16,-16,-16,-16,-16,-16,-16,-16,-16,-16,-16,-16,-16,-16,-16,-16,-16,-16,-16,-16,-16,-16,-16,-16,-16,-16,-16,-16,-16,-16,-16,-16,-16,-16,-16,-16,-16,-16,-16,-16,-16,-16,-16,-16,-16,-16,-16,-16,-16,57,57,57,57,57,56,56,55,55,54,53,51,52,50,51,51,48,46,47,45,46,45,45,46,45,47,48,49,47,48,47,47,46,46,45,44,42,43,42,42,43,42,42,42,41,41,40,38,36,33,34,32,31,33,30,35,30,30,30,29,29,28,29,29,28,28,27,26,25,25,25,23,22,19,20,20,23,25,29,28,27,28,29,29,30,28,29,27,25,26,16,9,0,0,0,0,0,0,0,0,0,0,9,0,0,0,0,0,0,9,0,0,10,9,10,11,11,12,12,15,14,12,14,16,15,17,16,19,20,22,24,25,25,29,29,31,35,33,35,36,35,36,36,42,42,42,44,46,46,46,49,50,47,52,52,55,56,57,58,58,67,63,63,63,63,63,67,66,65,63,67,67,67,67,68,67,70,73,75,77,80,82,84,85,-16,-16,91,93,95,97,94,94,95,100,103,103,103,-16,-16,107,108,108,107,103,107,109,111,111,114,120,121,132,131,131,135,142,138,138,-16,136,135,135,136,139,137,141,143,141,143,144,145,144,143,143,142,142,146,-16,-16,-16,-16,-16,-16,-16,-16,-16,-16,-16,-16,-16,-16,-16,-16,-16,-16,-16,-16,-16,-16,-16,-16,-16,-16,-16,-16,-16,-16,-16,-16
-16,-16,-16,-16,-16,-16,-16,-16,-16,-16,-16,-16,-16,-16,-16,-16,-16,-16,-16,-16,-16,-16,-16,-16,-16,-16,-16,-16,-16,-16,-16,-16,-16,-16,-16,-16,-16,-16,-16,-16,-16,-16,-16,-16,-16,-16,-16,-16,-16,-16,-16,56,57,57,56,56,55,55,55,54,54,52,50,52,50,52,51,49,47,48,46,46,46,46,47,45,47,49,49,48,48,48,48,46,47,45,43,43,43,43,43,43,42,43,42,42,41,40,39,38,35,35,32,30,32,30,33,29,29,30,29,28,28,29,28,27,28,27,26,25,25,25,24,22,20,21,21,24,26,30,28,28,28,29,29,30,28,29,28,27,27,-16,11,0,0,0,0,0,0,0,0,0,0,0,0,0,0,0,0,0,9,0,0,10,9,10,10,11,12,12,14,13,12,13,16,15,18,16,19,20,22,24,25,25,29,29,31,35,32,34,35,35,37,36,42,42,42,45,46,46,47,49,50,47,52,53,55,56,57,57,58,68,63,63,63,63,64,67,67,65,63,67,66,67,67,68,66,69,73,74,75,77,79,83,84,-16,-16,91,93,95,98,94,94,95,100,103,102,103,-16,-16,-16,107,107,107,102,107,109,111,110,113,120,121,132,133,132,135,141,137,137,-16,135,134,134,135,138,136,141,143,141,143,144,146,144,143,143,142,142,146,-16,-16,-16,-16,-16,-16,-16,-16,-16,-16,-16,-16,-16,-16,-16,-16,-16,-16,-16,-16,-16,-16,-16,-16,-16,-16,-16,-16,-16,-16,-16,-16
-16,-16,-16,-16,-16,-16,-16,-16,-16,-16,-16,-16,-16,-16,-16,-16,-16,-16,-16,-16,-16,-16,-16,-16,-16,-16,-16,-16,-16,-16,-16,-16,-16,-16,-16,-16,-16,-16,-16,-16,-16,-16,-16,-16,-16,-16,-16,-16,-16,-16,-16,57,58,57,56,56,55,55,55,54,53,52,49,52,50,52,52,50,48,49,47,46,46,46,47,45,47,50,49,49,49,48,48,46,47,46,43,43,44,43,43,43,42,43,43,42,42,41,39,38,35,36,33,30,32,30,31,29,29,29,28,28,27,28,28,27,27,27,26,25,25,25,24,23,21,22,22,25,27,31,29,29,29,29,29,30,28,29,28,27,27,26,13,0,0,0,0,0,0,0,0,0,0,0,0,0,0,0,0,0,9,0,0,10,9,10,10,11,12,11,14,13,11,13,15,14,16,15,19,20,21,23,26,26,29,29,31,34,32,34,35,34,37,36,41,42,42,45,46,46,47,49,50,48,51,54,56,57,57,57,58,68,63,64,63,64,64,67,67,65,63,67,66,67,67,68,66,68,72,73,74,76,77,80,80,86,-16,91,94,95,98,94,94,95,-16,-16,-16,-16,-16,-16,-16,107,107,106,101,106,108,109,109,111,118,120,133,133,133,135,140,135,135,136,135,133,133,135,137,136,141,143,141,143,144,145,144,143,144,142,143,146,-16,-16,-16,-16,-16,-16,-16,-16,-16,-16,-16,-16,-16,-16,-16,-16,-16,-16,-16,-16,-16,-16,-16,-16,-16,-16,-16,-16,-16,-16,-16,-16
-16,-16,-16,-16,-16,-16,-16,-16,-16,-16,-16,-16,-16,-16,-16,-16,-16,-16,-16,-16,-16,-16,-16,-16,-16,-16,-16,-16,-16,-16,-16,-16,-16,-16,-16,-16,-16,-16,-16,-16,-16,-16,-16,-16,-16,-16,-16,-16,-16,-16,-16,57,59,57,56,56,55,55,55,54,53,52,49,52,50,52,52,50,48,49,47,47,47,47,48,46,47,50,49,49,49,48,49,47,48,47,44,44,44,44,44,44,43,43,43,43,42,41,40,39,36,36,33,30,32,30,30,29,28,29,28,28,27,27,27,26,26,26,25,25,25,25,24,23,22,23,24,27,28,32,30,30,29,29,29,30,28,29,27,27,27,26,14,0,0,0,0,0,0,0,0,0,0,0,0,0,0,0,0,0,9,0,9,10,10,10,10,11,12,11,14,13,11,12,15,14,16,16,19,20,21,23,25,25,29,29,31,34,33,34,35,34,37,36,41,43,42,45,46,46,47,48,50,47,49,54,55,57,57,57,58,68,63,64,64,64,64,67,67,65,63,67,66,67,67,68,66,68,72,73,74,75,75,77,77,85,-16,90,94,95,99,94,95,95,-16,-16,-16,-16,-16,-16,-16,-16,106,106,100,106,108,109,109,110,116,120,132,133,132,134,139,134,134,135,134,132,132,134,137,136,141,143,141,143,144,145,144,143,144,142,143,146,-16,-16,-16,-16,-16,-16,-16,-16,-16,-16,-16,-16,-16,-16,-16,-16,-16,-16,-16,-16,-16,-16,-16,-16,-16,-16,-16,-16,-16,-16,-16,-16
-16,-16,-16,-16,-16,-16,-16,-16,-16,-16,-16,-16,-16,-16,-16,-16,-16,-16,-16,-16,-16,-16,-16,-16,-16,-16,-16,-16,-16,-16,-16,-16,-16,-16,-16,-16,-16,-16,-16,-16,-16,-16,-16,-16,-16,-16,-16,-16,-16,-16,-16,58,60,58,57,57,55,56,55,54,53,52,49,52,50,52,52,50,48,49,48,48,47,47,48,46,48,51,49,50,50,49,50,47,49,48,44,45,45,45,45,44,43,44,43,43,42,41,40,39,36,37,34,30,31,30,29,28,27,28,27,27,27,27,26,26,26,26,25,25,25,25,24,24,23,24,25,29,29,32,30,29,29,29,30,30,29,28,27,27,27,26,14,0,0,0,0,0,0,0,0,0,0,0,0,0,0,0,0,0,0,0,0,10,9,9,10,10,11,10,13,12,10,12,14,14,16,15,18,19,21,24,26,26,30,29,31,34,33,33,35,34,37,36,41,43,42,44,46,46,47,48,50,48,48,55,55,57,57,57,58,68,63,64,64,64,64,68,67,65,62,66,66,67,68,68,66,68,72,73,73,75,75,76,76,84,-16,-16,94,95,100,95,95,-16,-16,-16,-16,-16,-16,-16,-16,-16,106,106,99,106,108,109,110,111,117,120,132,134,132,133,-16,133,133,133,133,131,131,133,136,136,141,143,141,143,143,145,144,143,143,142,143,145,-16,148,-16,-16,-16,-16,-16,-16,-16,-16,-16,-16,-16,-16,-16,-16,-16,-16,-16,-16,-16,-16,-16,-16,-16,-16,-16,-16,-16,-16,-16,-16
-16,-16,-16,-16,-16,-16,-16,-16,-16,-16,-16,-16,-16,-16,-16,-16,-16,-16,-16,-16,-16,-16,-16,-16,-16,-16,-16,-16,-16,-16,-16,-16,-16,-16,-16,-16,-16,-16,-16,-16,-16,-16,-16,-16,-16,-16,-16,-16,-16,-16,-16,58,60,58,57,57,55,55,55,54,53,52,49,52,50,52,52,50,49,49,48,48,48,48,49,46,48,51,50,50,50,49,51,48,50,49,45,46,46,45,45,44,44,44,43,43,42,42,41,40,37,37,34,29,31,31,28,27,27,27,26,27,26,27,25,26,25,26,26,26,25,25,24,24,23,25,27,29,30,31,30,29,29,29,29,29,28,28,27,26,26,25,12,0,0,0,0,0,0,0,0,0,0,0,0,0,0,0,0,0,0,0,0,9,9,9,9,9,11,10,12,11,10,11,14,14,15,15,18,19,21,24,26,26,30,30,32,33,33,33,35,34,37,36,40,43,42,44,46,46,48,48,50,49,47,55,55,57,57,57,59,68,63,64,64,64,64,68,67,65,62,67,66,67,68,68,66,69,72,72,73,75,74,76,76,83,-16,-16,93,95,99,94,95,-16,-16,-16,-16,-16,-16,-16,-16,-16,105,106,98,106,108,109,109,111,117,120,131,134,131,132,135,131,131,132,133,130,130,133,136,135,141,143,141,143,143,144,143,142,143,142,142,145,-16,148,-16,-16,-16,-16,-16,-16,-16,-16,-16,-16,-16,-16,-16,-16,-16,-16,-16,-16,-16,-16,-16,-16,-16,-16,-16,-16,-16,-16,-16,-16
-16,-16,-16,-16,-16,-16,-16,-16,-16,-16,-16,-16,-16,-16,-16,-16,-16,-16,-16,-16,-16,-16,-16,-16,-16,-16,-16,-16,-16,-16,-16,-16,-16,-16,-16,-16,-16,-16,-16,-16,-16,-16,-16,-16,-16,-16,-16,-16,-16,-16,-16,58,59,58,56,56,55,55,54,54,53,51,49,51,50,52,52,50,49,50,48,48,48,48,49,46,48,52,50,50,51,50,51,48,50,49,46,47,47,46,45,45,44,44,44,43,42,42,41,40,37,38,35,30,31,31,28,27,27,27,26,27,26,27,25,26,25,26,26,27,26,26,25,24,24,25,27,28,29,29,29,29,28,28,29,29,28,27,26,25,25,25,12,0,0,0,0,0,0,0,0,0,0,0,0,0,0,0,0,0,0,0,9,9,9,9,9,9,10,9,10,9,9,10,14,13,14,14,18,19,21,23,26,26,30,30,32,33,33,32,34,33,36,35,39,42,42,44,45,45,48,48,50,50,46,54,56,58,57,57,59,69,64,64,64,64,64,68,67,65,63,67,67,68,68,69,67,69,72,72,73,74,74,-16,-16,-16,-16,-16,-16,95,100,95,97,-16,-16,-16,-16,-16,-16,-16,-16,-16,106,106,99,106,107,108,109,110,116,120,131,134,131,131,135,130,130,131,132,130,129,132,135,135,141,143,141,142,142,144,143,142,142,141,142,144,-16,147,-16,-16,-16,-16,-16,-16,-16,-16,-16,-16,-16,-16,-16,-16,-16,-16,-16,-16,-16,-16,-16,-16,-16,-16,-16,-16,-16,-16,-16,-16
-16,-16,-16,-16,-16,-16,-16,-16,-16,-16,-16,-16,-16,-16,-16,-16,-16,-16,-16,-16,-16,-16,-16,-16,-16,-16,-16,-16,-16,-16,-16,-16,-16,-16,-16,-16,-16,-16,-16,-16,-16,-16,-16,-16,-16,-16,-16,-16,-16,-16,-16,57,59,58,56,56,54,55,55,53,53,51,48,51,50,52,52,50,49,50,48,48,48,49,49,46,48,52,50,50,51,49,51,48,50,49,46,48,47,46,46,45,44,45,44,43,42,42,41,41,38,38,35,30,31,31,28,27,27,27,27,27,26,27,25,26,25,26,26,28,27,27,26,25,26,26,28,28,29,29,29,29,28,28,28,28,28,27,26,25,24,21,10,0,0,0,0,0,0,0,0,0,0,0,0,0,0,0,0,0,9,9,9,9,9,9,9,9,10,9,9,0,9,10,14,13,14,14,18,19,21,24,27,26,30,30,31,32,33,32,34,33,36,35,39,42,42,44,45,45,47,47,50,50,45,55,56,58,58,58,59,69,64,64,64,64,63,68,67,66,63,67,67,68,69,69,67,70,71,72,73,74,74,-16,-16,-16,-16,-16,-16,-16,100,96,98,-16,-16,-16,-16,-16,-16,-16,-16,-16,106,106,100,106,107,108,108,109,114,119,131,134,130,130,134,130,130,131,132,129,129,132,135,135,141,143,141,142,142,143,142,141,142,140,141,143,-16,147,-16,-16,-16,-16,-16,-16,-16,-16,-16,-16,-16,-16,-16,-16,-16,-16,-16,-16,-16,-16,-16,-16,-16,-16,-16,-16,-16,-16,-16,-16
-16,-16,-16,-16,-16,-16,-16,-16,-16,-16,-16,-16,-16,-16,-16,-16,-16,-16,-16,-16,-16,-16,-16,-16,-16,-16,-16,-16,-16,-16,-16,-16,-16,-16,-16,-16,-16,-16,-16,-16,-16,-16,-16,-16,-16,-16,-16,-16,-16,-16,-16,57,59,58,56,56,54,55,55,54,53,51,48,51,49,51,52,50,49,50,48,48,48,49,49,46,47,52,50,50,51,49,51,48,50,49,46,48,48,46,46,45,44,45,44,43,42,42,41,41,38,39,36,30,31,32,28,27,27,28,27,27,27,27,26,26,25,26,26,28,27,28,27,26,27,27,28,28,29,29,28,29,28,28,28,28,28,26,26,25,21,18,10,0,0,0,0,0,0,0,0,0,0,0,0,0,0,0,0,0,9,9,10,10,10,9,10,9,10,9,0,0,0,10,13,12,13,14,19,20,22,25,28,27,30,30,31,32,32,32,34,34,36,35,38,42,42,44,46,46,47,47,50,51,45,55,56,58,58,58,59,69,64,64,64,64,64,68,67,66,63,67,68,68,69,70,67,70,71,72,73,74,73,-16,-16,80,-16,-16,-16,-16,100,97,99,-16,-16,-16,-16,-16,-16,-16,-16,-16,106,106,102,106,108,108,109,108,112,120,131,134,129,129,134,130,130,130,132,129,129,132,135,135,141,143,141,141,141,143,142,141,142,140,141,143,-16,147,-16,-16,-16,-16,-16,-16,-16,-16,-16,-16,-16,-16,-16,-16,-16,-16,-16,-16,-16,-16,-16,-16,-16,-16,-16,-16,-16,-16,-16,-16
-16,-16,-16,-16,-16,-16,-16,-16,-16,-16,-16,-16,-16,-16,-16,-16,-16,-16,-16,-16,-16,-16,-16,-16,-16,-16,-16,-16,-16,-16,-16,-16,-16,-16,-16,-16,-16,-16,-16,-16,-16,-16,-16,-16,-16,-16,-16,-16,-16,-16,-16,57,59,58,56,56,54,55,55,54,53,51,47,50,49,51,52,50,49,49,48,48,48,48,49,46,47,52,50,50,51,49,51,48,49,49,46,48,48,46,46,45,44,45,43,43,42,42,41,41,38,39,36,31,31,32,28,27,27,28,28,27,28,27,26,26,26,26,26,28,27,28,27,26,27,28,29,28,29,29,28,29,28,28,28,27,27,26,25,24,19,17,10,0,0,0,0,0,0,0,0,0,0,0,0,0,0,0,0,0,9,9,10,10,10,10,10,10,10,9,0,0,0,9,12,11,12,13,19,20,23,25,28,27,30,30,31,31,32,32,34,34,36,35,38,42,42,44,45,45,46,47,50,50,45,55,56,58,58,58,59,68,64,64,64,64,64,68,67,67,63,68,69,69,70,70,68,71,71,72,73,74,73,-16,-16,79,-16,-16,-16,-16,100,98,100,-16,-16,-16,-16,-16,-16,-16,-16,-16,107,107,104,106,108,109,109,108,111,119,131,134,128,128,134,130,130,131,133,130,129,133,136,136,141,142,141,141,141,142,141,140,141,140,141,142,-16,146,-16,-16,-16,-16,-16,-16,-16,-16,-16,-16,-16,-16,-16,-16,-16,-16,-16,-16,-16,-16,-16,-16,-16,-16,-16,-16,-16,-16,-16,-16
-16,-16,-16,-16,-16,-16,-16,-16,-16,-16,-16,-16,-16,-16,-16,-16,-16,-16,-16,-16,-16,-16,-16,-16,-16,-16,-16,-16,-16,-16,-16,-16,-16,-16,-16,-16,-16,-16,-16,-16,-16,-16,-16,-16,-16,-16,-16,-16,-16,-16,-16,57,60,58,57,56,55,56,55,54,53,51,47,50,49,51,52,50,49,49,48,48,48,48,48,46,46,52,49,50,50,49,52,48,50,50,47,48,48,47,46,45,45,45,43,43,42,42,41,41,38,39,37,31,32,33,29,28,28,28,28,28,29,28,27,27,27,27,27,29,27,28,28,27,27,28,29,28,28,28,28,28,28,27,27,27,27,25,23,21,15,14,9,0,0,0,0,9,0,0,0,0,0,0,0,0,0,0,0,0,9,9,10,10,11,11,11,11,11,10,9,0,9,10,12,11,11,13,21,21,23,26,29,28,31,31,31,31,32,32,34,34,36,34,37,41,41,43,44,44,46,47,50,50,44,55,56,57,58,58,59,68,64,64,64,64,64,69,67,68,64,69,69,70,70,71,69,71,71,-16,73,74,-16,75,-16,79,-16,-16,-16,-16,98,97,99,-16,-16,-16,-16,-16,-16,-16,-16,107,107,108,105,106,109,109,110,108,109,118,130,133,127,127,133,131,131,131,133,130,130,133,136,136,141,142,141,140,141,142,141,140,142,140,141,142,144,146,-16,-16,-16,-16,-16,-16,-16,-16,-16,-16,-16,-16,-16,-16,-16,-16,-16,-16,-16,-16,-16,-16,-16,-16,-16,-16,-16,-16,-16,-16
-16,-16,-16,-16,-16,-16,-16,-16,-16,-16,-16,-16,-16,-16,-16,-16,-16,-16,-16,-16,-16,-16,-16,-16,-16,-16,-16,-16,-16,-16,-16,-16,-16,-16,-16,-16,-16,-16,-16,-16,-16,-16,-16,-16,-16,-16,-16,-16,-16,-16,-16,57,60,58,57,56,55,56,55,54,54,51,47,50,49,51,52,50,48,49,48,48,48,48,48,46,46,51,49,50,51,49,52,48,50,50,47,48,48,47,46,45,45,45,43,43,42,42,41,41,39,39,37,32,32,33,29,28,28,29,29,29,30,29,27,28,28,28,28,29,27,28,28,27,27,27,28,27,28,28,27,27,27,27,27,26,26,24,20,19,13,13,9,0,0,0,0,9,0,0,0,9,9,9,9,9,0,0,0,0,9,9,10,10,10,11,11,11,12,11,10,10,11,11,13,12,13,15,23,22,25,27,29,29,32,31,32,31,32,32,34,34,35,33,37,40,41,43,43,43,45,47,51,51,45,56,57,58,58,58,60,68,64,65,65,64,64,69,68,68,64,69,70,70,70,71,69,72,71,-16,-16,73,-16,75,-16,79,-16,-16,-16,-16,95,95,97,-16,-16,-16,-16,-16,-16,-16,-16,108,108,108,106,106,110,110,110,109,110,117,125,133,127,127,133,132,132,132,134,131,130,134,137,137,141,141,141,140,141,142,141,140,142,140,141,142,144,-16,-16,-16,-16,-16,-16,-16,-16,-16,-16,-16,-16,-16,-16,-16,-16,-16,-16,-16,-16,-16,-16,-16,-16,-16,-16,-16,-16,-16,-16,-16
-16,-16,-16,-16,-16,-16,-16,-16,-16,-16,-16,-16,-16,-16,-16,-16,-16,-16,-16,-16,-16,-16,-16,-16,-16,-16,-16,-16,-16,-16,-16,-16,-16,-16,-16,-16,-16,-16,-16,-16,-16,-16,-16,-16,-16,-16,-16,-16,-16,-16,-16,56,59,58,57,56,55,56,56,55,54,52,48,51,50,51,52,50,48,49,47,48,48,48,48,45,46,51,49,49,51,50,52,48,50,50,47,48,48,47,46,45,44,45,43,43,42,42,41,41,39,39,37,32,32,33,29,28,28,29,29,29,30,29,28,28,28,28,28,28,27,28,27,26,26,26,27,26,27,27,26,26,26,26,25,24,25,22,18,18,12,12,9,0,0,0,0,9,9,9,0,9,9,9,9,9,0,0,0,0,9,9,9,10,10,10,11,10,11,10,10,10,11,12,12,12,13,16,22,22,24,27,28,28,31,30,31,31,31,31,33,34,34,32,36,40,40,42,43,43,45,47,51,51,45,56,58,59,59,59,60,69,65,65,65,65,65,69,68,-16,66,70,71,71,71,-16,70,-16,-16,-16,-16,73,-16,75,-16,79,-16,-16,-16,-16,94,95,96,-16,-16,-16,-16,106,106,107,107,108,108,108,106,106,109,109,109,108,108,114,123,134,127,127,133,133,133,133,135,132,131,134,137,137,140,141,141,140,141,142,141,140,142,140,141,141,-16,-16,-16,-16,-16,-16,-16,-16,-16,-16,-16,-16,-16,-16,-16,-16,-16,-16,-16,-16,-16,-16,-16,-16,-16,-16,-16,-16,-16,-16,-16,-16
-16,-16,-16,-16,-16,-16,-16,-16,-16,-16,-16,-16,-16,-16,-16,-16,-16,-16,-16,-16,-16,-16,-16,-16,-16,-16,-16,-16,-16,-16,-16,-16,-16,-16,-16,-16,-16,-16,-16,-16,-16,-16,-16,-16,-16,-16,-16,-16,-16,-16,-16,56,58,58,56,56,55,56,56,55,55,52,48,51,51,52,52,51,49,49,48,48,48,47,47,45,45,50,48,49,51,50,52,48,50,49,48,48,48,46,46,45,44,45,43,43,42,42,41,40,38,39,37,31,32,34,29,28,28,29,29,29,30,28,27,28,28,28,28,27,26,27,26,25,25,25,25,25,25,25,24,25,25,25,25,23,23,22,17,17,11,11,10,0,0,8,9,10,9,9,9,9,10,9,9,9,0,0,0,0,9,9,9,9,9,10,10,10,11,10,10,10,11,12,12,12,13,17,21,21,23,25,26,27,29,29,29,30,31,31,32,34,34,32,36,39,40,42,43,43,45,47,50,51,44,57,58,60,61,60,62,69,66,66,66,66,66,69,68,-16,67,70,71,-16,-16,-16,-16,-16,-16,-16,-16,-16,-16,75,-16,79,83,-16,-16,-16,93,94,95,-16,-16,-16,108,107,107,107,108,109,109,109,107,106,109,108,109,107,108,112,121,134,127,127,133,134,134,134,135,132,132,134,138,137,140,140,141,139,141,142,142,140,142,139,142,141,-16,-16,-16,-16,-16,-16,-16,-16,-16,-16,-16,-16,-16,-16,-16,-16,-16,-16,-16,-16,-16,-16,-16,-16,-16,-16,-16,-16,-16,-16,-16,-16
-16,-16,-16,-16,-16,-16,-16,-16,-16,-16,-16,-16,-16,-16,-16,-16,-16,-16,-16,-16,-16,-16,-16,-16,-16,-16,-16,-16,-16,-16,-16,-16,-16,-16,-16,-16,-16,-16,-16,-16,-16,-16,-16,-16,-16,-16,-16,-16,-16,-16,-16,56,58,57,56,56,55,56,56,55,55,53,49,52,52,53,52,51,49,49,48,48,48,47,47,46,45,50,48,49,50,49,51,48,50,49,47,48,48,46,45,45,44,45,43,43,42,42,41,40,38,39,37,31,32,34,29,28,28,29,29,29,30,28,27,27,27,27,27,26,25,26,25,25,24,24,25,24,24,24,23,24,23,22,22,20,19,17,13,15,11,11,10,9,9,9,9,10,9,10,9,9,10,9,9,9,0,0,0,0,0,0,9,10,9,10,10,10,11,10,10,10,11,12,12,12,13,18,20,21,21,24,25,25,27,27,27,29,30,30,32,34,34,32,36,39,39,42,43,43,45,46,50,51,44,57,59,61,62,61,63,69,67,67,66,67,66,69,-16,-16,68,70,71,-16,-16,-16,-16,-16,-16,-16,-16,-16,74,75,-16,79,83,-16,-16,-16,93,95,96,-16,-16,-16,109,107,107,107,108,109,109,109,107,106,109,108,109,107,108,112,121,134,126,127,133,135,135,136,-16,133,132,135,138,138,140,139,140,139,141,143,142,140,142,140,142,141,-16,-16,-16,-16,-16,-16,-16,-16,-16,-16,-16,-16,-16,-16,-16,-16,-16,-16,-16,-16,-16,-16,-16,-16,-16,-16,-16,-16,-16,-16,-16,-16
-16,-16,-16,-16,-16,-16,-16,-16,-16,-16,-16,-16,-16,-16,-16,-16,-16,-16,-16,-16,-16,-16,-16,-16,-16,-16,-16,-16,-16,-16,-16,-16,-16,-16,-16,-16,-16,-16,-16,-16,-16,-16,-16,-16,-16,-16,-16,-16,-16,-16,-16,56,57,57,57,56,55,56,56,56,55,53,49,52,52,53,52,51,49,49,48,48,48,47,47,46,45,49,47,48,49,48,51,47,49,48,47,47,47,46,45,45,44,44,43,43,42,42,40,40,38,39,36,31,31,34,29,28,28,29,29,29,30,28,27,27,27,26,26,25,25,25,24,24,23,23,24,22,23,22,20,21,19,19,17,13,12,12,10,12,10,10,10,9,10,10,10,10,10,10,10,10,10,9,9,0,0,0,0,0,0,0,9,10,9,10,10,10,11,10,10,10,11,12,12,12,13,18,21,21,21,23,23,24,27,26,26,29,29,30,31,34,34,32,36,39,39,42,43,43,45,46,50,51,44,57,62,62,65,62,65,70,68,67,67,67,67,70,-16,-16,69,71,72,72,71,-16,-16,-16,-16,-16,-16,-16,74,76,76,79,83,-16,-16,87,92,-16,96,-16,-16,-16,108,107,107,108,108,109,109,108,107,106,108,108,109,106,108,112,120,134,127,128,134,-16,137,137,-16,133,133,135,139,138,139,139,140,139,141,143,142,141,142,140,143,142,-16,-16,-16,-16,-16,-16,-16,-16,-16,-16,-16,-16,-16,-16,-16,-16,-16,-16,-16,-16,-16,-16,-16,-16,-16,-16,-16,-16,-16,-16,-16,-16
-16,-16,-16,-16,-16,-16,-16,-16,-16,-16,-16,-16,-16,-16,-16,-16,-16,-16,-16,-16,-16,-16,-16,-16,-16,-16,-16,-16,-16,-16,-16,-16,-16,-16,-16,-16,-16,-16,-16,-16,-16,-16,-16,-16,-16,-16,-16,-16,-16,-16,-16,57,57,57,57,57,55,56,56,56,56,54,50,52,53,53,52,51,49,49,48,48,47,47,47,46,45,49,47,47,48,48,50,47,48,48,46,46,46,46,45,45,44,44,43,43,42,42,40,40,38,39,36,31,31,34,29,28,28,29,29,29,30,28,27,27,27,26,26,25,24,24,24,23,22,22,22,21,22,20,17,16,14,14,12,10,9,10,0,10,10,10,10,9,10,10,10,11,10,11,10,10,11,9,9,0,0,0,0,0,0,0,9,10,9,10,10,10,11,10,10,10,11,13,12,12,13,19,21,22,21,23,22,23,26,26,26,28,28,29,31,33,34,31,37,39,39,42,43,43,45,45,50,51,43,58,67,66,68,64,66,70,69,68,67,68,68,70,-16,-16,70,71,72,72,72,72,-16,-16,-16,-16,-16,-16,74,76,76,79,83,-16,-16,86,92,-16,-16,-16,-16,-16,-16,107,107,107,107,108,108,108,107,106,109,109,109,107,108,113,120,134,128,128,134,140,138,138,138,134,134,136,140,138,139,138,140,139,141,143,142,141,143,140,144,142,-16,-16,-16,-16,-16,-16,-16,-16,-16,-16,-16,-16,-16,-16,-16,-16,-16,-16,-16,-16,-16,-16,-16,-16,-16,-16,-16,-16,-16,-16,-16,-16
-16,-16,-16,-16,-16,-16,-16,-16,-16,-16,-16,-16,-16,-16,-16,-16,-16,-16,-16,-16,-16,-16,-16,-16,-16,-16,-16,-16,-16,-16,-16,-16,-16,-16,-16,-16,-16,-16,-16,-16,-16,-16,-16,-16,-16,-16,-16,-16,-16,-16,-16,57,57,57,57,57,56,56,56,57,57,55,52,53,54,53,52,52,49,49,48,48,48,47,47,46,45,48,46,47,47,47,49,46,48,47,46,46,46,45,44,45,44,44,43,43,42,42,40,40,38,39,36,31,31,34,29,28,29,29,29,29,30,28,27,27,27,26,26,24,24,24,23,23,21,21,21,19,20,18,14,13,11,11,10,9,0,9,0,9,9,9,10,9,10,10,10,10,10,11,11,10,11,9,9,0,0,0,0,0,0,0,9,10,10,10,10,10,11,10,10,9,10,13,12,12,13,19,21,22,21,22,21,23,25,25,25,27,27,29,30,33,34,31,37,39,39,42,43,43,45,45,50,51,43,58,71,70,70,66,68,70,70,68,68,68,69,70,-16,-16,-16,72,73,73,73,73,-16,-16,-16,-16,-16,-16,75,76,76,78,83,-16,-16,85,91,-16,-16,-16,-16,-16,-16,107,107,107,-16,-16,107,108,107,106,109,109,109,107,109,114,120,134,129,129,134,143,139,139,139,135,135,136,140,139,138,138,140,139,142,143,143,141,143,141,144,142,-16,-16,-16,-16,-16,-16,-16,-16,-16,-16,-16,-16,-16,-16,-16,-16,-16,-16,-16,-16,-16,-16,-16,-16,-16,-16,-16,-16,-16,-16,-16,-16
-16,-16,-16,-16,-16,-16,-16,-16,-16,-16,-16,-16,-16,-16,-16,-16,-16,-16,-16,-16,-16,-16,-16,-16,-16,-16,-16,-16,-16,-16,-16,-16,-16,-16,-16,-16,-16,-16,-16,-16,-16,-16,-16,-16,-16,-16,-16,-16,-16,-16,-16,57,57,57,57,57,56,56,56,57,-16,56,53,54,-16,54,53,52,50,49,49,48,48,47,47,47,45,47,46,47,47,47,47,46,47,46,45,45,45,45,44,45,44,44,43,43,42,42,41,40,38,39,36,31,31,34,30,28,29,29,29,29,30,28,27,27,27,26,26,24,24,23,23,22,20,20,20,16,17,15,12,11,10,10,9,9,0,0,0,0,0,0,10,0,10,9,10,10,11,11,11,10,10,9,9,0,0,0,0,0,9,9,9,10,10,10,10,10,11,10,10,10,10,14,12,13,13,20,22,23,21,23,21,23,26,25,25,27,27,28,30,33,34,31,37,40,39,42,43,43,45,45,49,51,42,59,73,71,72,68,69,71,71,69,68,69,69,70,-16,-16,-16,72,74,73,73,73,-16,-16,-16,-16,-16,-16,75,76,76,78,83,77,-16,83,91,-16,-16,-16,-16,-16,-16,-16,-16,-16,-16,-16,107,107,106,106,108,108,109,107,109,116,120,134,130,130,134,144,140,140,140,135,135,136,140,139,138,138,140,139,142,143,143,141,143,141,144,143,-16,-16,-16,-16,-16,-16,-16,-16,-16,-16,-16,-16,-16,-16,-16,-16,-16,-16,-16,-16,-16,-16,-16,-16,-16,-16,-16,-16,-16,-16,-16,-16
-16,-16,-16,-16,-16,-16,-16,-16,-16,-16,-16,-16,-16,-16,-16,-16,-16,-16,-16,-16,-16,-16,-16,-16,-16,-16,-16,-16,-16,-16,-16,-16,-16,-16,-16,-16,-16,-16,-16,-16,-16,-16,-16,-16,-16,-16,-16,-16,-16,-16,-16,57,56,57,57,57,56,56,56,57,-16,56,54,54,-16,54,53,52,51,49,49,48,48,47,47,47,46,47,46,46,46,46,46,45,45,45,44,44,44,44,43,44,43,44,43,43,42,42,41,40,38,38,36,32,30,34,30,29,29,29,29,29,30,28,27,27,28,26,26,24,24,23,23,22,20,19,19,15,14,13,10,9,9,9,9,0,0,0,0,0,0,0,10,9,10,10,10,11,11,11,11,10,11,9,10,9,0,9,0,0,9,9,10,10,10,10,10,10,10,10,10,10,10,14,12,13,13,20,22,23,22,23,22,24,26,26,26,27,27,28,29,32,34,31,37,40,39,42,43,43,45,45,49,50,-16,59,73,72,73,69,69,71,72,69,68,-16,69,70,-16,-16,-16,73,74,74,74,-16,-16,-16,-16,-16,-16,-16,74,76,76,78,83,76,-16,82,93,-16,-16,-16,-16,-16,-16,-16,-16,-16,-16,-16,106,106,106,105,107,108,108,107,110,117,120,133,131,131,135,145,140,140,140,136,135,137,139,139,138,138,141,139,142,143,143,142,143,141,144,143,-16,-16,-16,-16,-16,-16,-16,-16,-16,-16,-16,-16,-16,-16,-16,-16,-16,-16,-16,-16,-16,-16,-16,-16,-16,-16,-16,-16,-16,-16,-16,-16
-16,-16,-16,-16,-16,-16,-16,-16,-16,-16,-16,-16,-16,-16,-16,-16,-16,-16,-16,-16,-16,-16,-16,-16,-16,-16,-16,-16,-16,-16,-16,-16,-16,-16,-16,-16,-16,-16,-16,-16,-16,-16,-16,-16,-16,-16,-16,-16,-16,-16,-16,57,57,57,57,57,56,56,56,57,-16,56,55,54,-16,55,53,53,51,49,49,48,48,48,47,48,46,47,46,46,45,45,45,45,44,44,43,44,43,44,43,44,43,44,43,43,42,41,40,40,38,38,36,31,30,34,30,29,29,29,29,29,30,28,27,27,28,26,26,24,24,23,23,22,20,18,18,14,12,12,9,0,0,0,0,0,0,0,0,9,9,9,10,9,11,10,11,11,11,11,11,10,11,9,10,9,0,0,0,0,9,9,10,10,10,10,10,10,10,9,10,9,9,14,12,12,13,19,21,23,22,23,22,23,26,25,25,27,27,28,29,32,34,32,37,40,39,42,43,43,45,44,48,50,-16,59,73,72,73,69,69,71,72,68,68,-16,69,70,-16,-16,-16,-16,75,75,-16,-16,-16,-16,-16,-16,-16,-16,74,76,76,78,83,75,79,77,-16,-16,-16,-16,-16,-16,-16,-16,-16,-16,-16,-16,105,105,105,105,106,107,107,106,108,116,120,133,132,132,135,145,140,140,140,136,136,136,139,139,137,138,141,139,142,143,143,142,143,141,143,143,-16,-16,-16,-16,-16,-16,-16,-16,-16,-16,-16,-16,-16,-16,-16,-16,-16,-16,-16,-16,-16,-16,-16,-16,-16,-16,-16,-16,-16,-16,-16,-16
-16,-16,-16,-16,-16,-16,-16,-16,-16,-16,-16,-16,-16,-16,-16,-16,-16,-16,-16,-16,-16,-16,-16,-16,-16,-16,-16,-16,-16,-16,-16,-16,-16,-16,-16,-16,-16,-16,-16,-16,-16,-16,-16,-16,-16,-16,-16,-16,-16,-16,-16,58,57,57,57,57,56,56,56,57,-16,56,54,54,55,55,54,53,52,49,50,49,48,48,48,48,46,47,46,46,45,45,45,44,44,44,43,43,43,43,42,44,43,44,43,43,42,41,40,40,38,38,36,31,30,34,31,29,29,29,29,29,30,29,27,27,28,26,26,24,24,23,23,22,20,18,18,14,12,11,-16,0,0,0,0,0,0,0,0,9,9,9,10,9,11,10,11,11,11,11,10,10,10,9,10,9,0,0,0,0,9,9,10,10,10,10,10,10,10,9,9,0,0,13,12,12,12,19,22,23,23,24,22,24,26,26,26,27,27,27,29,32,35,32,37,40,40,43,44,44,45,44,47,49,-16,59,73,72,73,68,69,71,72,68,67,-16,68,69,-16,-16,-16,-16,75,75,74,74,-16,-16,-16,-16,-16,-16,74,76,75,78,83,73,-16,-16,-16,-16,-16,-16,-16,-16,-16,-16,-16,-16,-16,-16,104,104,104,104,106,107,107,106,109,117,120,133,132,132,135,145,140,140,140,136,135,136,138,139,137,138,140,139,142,143,144,142,143,142,143,143,-16,-16,-16,-16,-16,-16,161,-16,-16,-16,-16,-16,-16,-16,-16,-16,-16,-16,-16,-16,-16,-16,-16,-16,-16,-16,-16,-16,-16,-16,-16,-16
-16,-16,-16,-16,-16,-16,-16,-16,-16,-16,-16,-16,-16,-16,-16,-16,-16,-16,-16,-16,-16,-16,-16,-16,-16,-16,-16,-16,-16,-16,-16,-16,-16,-16,-16,-16,-16,-16,-16,-16,-16,-16,-16,-16,-16,-16,-16,-16,-16,-16,-16,58,58,57,57,57,56,56,56,57,-16,56,54,54,54,55,54,53,52,49,50,49,49,48,48,48,46,47,46,46,45,45,44,44,43,43,42,43,42,43,42,44,43,44,43,43,42,41,40,40,38,38,36,31,29,34,31,29,29,29,29,29,30,29,28,27,28,26,26,24,24,23,23,22,20,18,18,14,12,10,0,-16,0,0,0,0,0,0,0,9,10,10,10,10,10,11,11,11,11,11,10,10,10,9,10,9,0,0,0,0,9,9,10,10,10,10,10,10,10,9,9,0,0,13,12,12,12,19,24,24,24,24,23,24,27,26,26,27,27,27,29,32,35,32,37,40,40,43,44,44,45,44,47,49,39,-16,73,-16,74,68,68,70,72,67,66,-16,67,69,-16,-16,-16,-16,75,75,74,74,-16,-16,-16,-16,-16,-16,-16,76,75,77,83,70,66,67,-16,-16,-16,-16,-16,-16,-16,-16,-16,-16,-16,-16,103,104,102,101,105,106,106,106,109,118,120,133,133,133,135,145,140,139,139,135,135,135,137,139,136,138,141,140,142,143,144,142,143,142,143,143,-16,-16,-16,-16,-16,-16,160,-16,-16,-16,-16,-16,-16,-16,-16,-16,-16,-16,-16,-16,-16,-16,-16,-16,-16,-16,-16,-16,-16,-16,-16,-16
-16,-16,-16,-16,-16,-16,-16,-16,-16,-16,-16,-16,-16,-16,-16,-16,-16,-16,-16,-16,-16,-16,-16,-16,-16,-16,-16,-16,-16,-16,-16,-16,-16,-16,-16,-16,-16,-16,-16,-16,-16,-16,-16,-16,-16,-16,-16,-16,-16,-16,-16,58,58,57,57,57,56,56,56,56,-16,-16,54,54,54,55,54,53,52,49,50,49,49,48,48,48,46,47,46,46,45,45,44,44,43,43,42,43,42,43,42,43,43,44,43,43,41,41,40,40,38,37,35,31,29,34,31,29,29,29,29,29,30,29,28,28,29,27,27,25,24,24,23,22,21,19,18,14,12,11,0,-16,-16,0,0,0,0,9,0,10,11,10,10,10,10,10,10,11,10,10,10,10,10,10,10,9,0,0,0,0,9,9,10,10,10,10,10,10,10,9,9,0,0,13,12,12,13,19,26,24,25,25,24,25,27,27,27,27,27,27,29,32,35,33,37,41,41,43,44,44,45,44,47,49,39,-16,75,-16,74,68,68,70,72,66,66,-16,67,69,-16,-16,-16,-16,75,76,75,74,-16,-16,-16,-16,-16,-16,-16,75,-16,77,83,61,57,61,-16,-16,-16,-16,-16,-16,-16,-16,-16,-16,-16,-16,103,103,101,99,104,105,105,105,107,117,120,133,135,134,136,145,139,139,139,135,134,134,136,138,136,138,141,140,142,143,144,143,143,143,143,144,148,-16,-16,-16,-16,-16,159,-16,-16,-16,-16,-16,-16,-16,-16,-16,-16,-16,-16,-16,-16,-16,-16,-16,-16,-16,-16,-16,-16,-16,-16,-16
-16,-16,-16,-16,-16,-16,-16,-16,-16,-16,-16,-16,-16,-16,-16,-16,-16,-16,-16,-16,-16,-16,-16,-16,-16,-16,-16,-16,-16,-16,-16,-16,-16,-16,-16,-16,-16,-16,-16,-16,-16,-16,-16,-16,-16,-16,-16,-16,-16,-16,-16,58,57,57,57,57,56,56,55,56,-16,-16,55,54,55,55,54,53,53,50,50,49,49,48,48,48,46,46,46,46,44,45,44,44,43,43,42,43,42,43,42,43,42,43,43,43,41,40,40,39,37,37,35,31,29,34,31,29,29,29,29,29,30,30,28,28,30,27,28,26,25,24,23,22,21,19,19,14,13,11,9,9,9,9,9,9,9,10,10,11,12,11,11,11,10,10,10,11,10,10,10,9,9,9,10,10,0,9,0,0,9,9,9,9,10,10,10,10,10,9,9,9,0,13,12,12,12,19,25,24,26,25,24,25,28,27,27,28,28,28,30,32,35,34,38,41,41,43,44,44,45,44,47,49,38,-16,-16,-16,74,-16,-16,69,72,66,65,-16,66,68,-16,-16,-16,-16,75,77,75,75,-16,-16,-16,-16,-16,-16,-16,75,-16,76,83,-16,55,57,-16,-16,-16,-16,-16,-16,-16,-16,-16,-16,-16,-16,102,103,101,98,104,104,104,104,106,115,120,132,135,134,136,144,138,138,138,135,134,133,135,138,136,139,141,140,142,143,144,143,143,143,143,144,148,-16,-16,-16,-16,-16,158,165,-16,-16,-16,-16,-16,-16,-16,-16,-16,-16,-16,-16,-16,-16,-16,-16,-16,-16,-16,-16,-16,-16,-16,-16
-16,-16,-16,-16,-16,-16,-16,-16,-16,-16,-16,-16,-16,-16,-16,-16,-16,-16,-16,-16,-16,-16,-16,-16,-16,-16,-16,-16,-16,-16,-16,-16,-16,-16,-16,-16,-16,-16,-16,-16,-16,-16,-16,-16,-16,-16,-16,-16,-16,-16,-16,58,57,57,57,57,56,56,55,56,-16,-16,55,55,55,56,54,53,53,49,50,49,49,48,48,48,46,46,46,45,44,44,44,44,43,43,42,43,42,43,42,43,42,43,42,42,40,40,39,39,37,36,35,30,29,33,30,29,29,29,29,29,30,30,29,29,30,28,29,26,25,24,24,22,21,20,19,15,14,13,11,10,10,10,11,11,11,11,11,12,13,12,12,11,10,11,11,11,10,10,10,9,9,9,10,10,9,9,0,9,9,9,9,9,9,9,9,10,10,9,9,9,0,12,12,12,13,19,24,24,26,26,25,25,28,28,27,28,29,28,30,33,36,34,38,42,41,43,45,45,45,44,46,48,38,-16,-16,-16,73,-16,-16,68,71,65,65,-16,65,68,-16,-16,-16,-16,75,-16,75,75,-16,-16,-16,-16,-16,-16,-16,75,-16,76,-16,54,55,56,-16,-16,-16,-16,-16,-16,-16,-16,-16,-16,-16,-16,103,103,101,97,104,104,104,105,106,115,120,132,136,134,135,142,136,137,137,134,133,132,134,137,135,140,142,140,143,143,145,144,143,143,142,143,147,-16,-16,-16,-16,-16,158,164,-16,-16,-16,-16,-16,-16,-16,-16,-16,-16,-16,-16,-16,-16,-16,-16,-16,-16,-16,-16,-16,-16,-16,-16
-16,-16,-16,-16,-16,-16,-16,-16,-16,-16,-16,-16,-16,-16,-16,-16,-16,-16,-16,-16,-16,-16,-16,-16,-16,-16,-16,-16,-16,-16,-16,-16,-16,-16,-16,-16,-16,-16,-16,-16,-16,-16,-16,-16,-16,-16,-16,-16,-16,-16,-16,58,57,57,57,57,56,56,55,56,-16,-16,-16,55,-16,56,55,53,52,49,50,49,49,47,47,47,46,46,45,45,44,44,44,44,43,43,42,43,42,42,41,42,41,42,41,41,39,38,38,38,36,35,34,30,28,33,30,29,30,29,29,28,30,30,29,29,31,28,29,27,26,25,24,22,22,20,20,16,16,14,13,11,12,12,12,12,12,12,12,13,13,12,12,12,11,11,11,11,11,10,10,9,9,10,10,10,9,9,0,9,0,0,9,9,9,9,9,9,10,9,9,9,9,12,12,13,13,18,24,23,26,26,26,26,28,28,28,29,30,29,31,33,36,35,38,42,42,43,45,45,45,44,46,48,37,-16,-16,-16,72,-16,63,66,71,64,64,64,64,67,-16,-16,-16,-16,75,-16,75,75,-16,-16,-16,-16,-16,-16,-16,74,-16,76,-16,53,54,55,-16,-16,-16,-16,-16,-16,-16,-16,-16,-16,-16,-16,103,103,102,96,104,104,104,104,105,112,120,131,136,133,135,140,135,135,136,133,132,131,134,137,135,140,142,141,143,143,145,144,143,143,142,143,146,-16,-16,-16,-16,-16,157,164,-16,-16,-16,-16,-16,-16,-16,-16,-16,-16,-16,-16,-16,-16,-16,-16,-16,-16,-16,-16,-16,-16,-16,-16
-16,-16,-16,-16,-16,-16,-16,-16,-16,-16,-16,-16,-16,-16,-16,-16,-16,-16,-16,-16,-16,-16,-16,-16,-16,-16,-16,-16,-16,-16,-16,-16,-16,-16,-16,-16,-16,-16,-16,-16,-16,-16,-16,-16,-16,-16,-16,-16,-16,-16,-16,58,57,57,57,56,56,56,55,56,-16,-16,-16,56,-16,56,55,53,52,49,49,49,49,47,47,47,45,45,45,45,44,44,44,43,43,43,43,43,42,42,41,42,41,41,40,39,37,37,36,36,34,33,33,30,28,33,30,29,30,29,29,28,30,30,29,30,31,28,30,28,27,25,24,23,22,21,20,17,17,15,14,13,14,13,13,13,12,13,13,13,14,13,13,12,12,12,12,12,11,10,10,9,10,10,10,9,9,0,0,8,0,0,0,0,9,9,9,9,10,10,9,9,9,12,13,13,13,18,23,23,27,26,27,26,28,28,28,29,31,29,33,34,37,36,39,43,43,44,45,45,45,44,46,47,37,-16,-16,-16,-16,-16,61,64,71,64,64,64,64,67,-16,-16,-16,-16,75,-16,75,75,-16,-16,-16,-16,-16,-16,-16,74,-16,76,-16,51,53,54,-16,-16,-16,-16,-16,-16,-16,-16,-16,-16,-16,-16,103,103,102,96,103,103,103,103,104,108,118,130,136,133,134,139,134,134,135,133,132,130,133,136,135,140,142,141,143,143,145,143,142,143,142,143,146,-16,-16,-16,-16,-16,157,164,-16,-16,-16,-16,-16,-16,-16,-16,-16,-16,-16,-16,-16,-16,-16,-16,-16,-16,-16,-16,-16,-16,-16,-16
-16,-16,-16,-16,-16,-16,-16,-16,-16,-16,-16,-16,-16,-16,-16,-16,-16,-16,-16,-16,-16,-16,-16,-16,-16,-16,-16,-16,-16,-16,-16,-16,-16,-16,-16,-16,-16,-16,-16,-16,-16,-16,-16,-16,-16,-16,-16,-16,-16,-16,-16,58,57,56,56,56,56,55,55,56,-16,-16,56,55,-16,56,54,52,52,49,49,49,48,47,47,47,45,45,45,45,44,44,44,43,43,43,43,43,42,42,41,41,40,40,38,38,36,35,34,34,32,32,32,29,28,33,29,28,30,29,29,28,30,30,29,30,31,28,30,28,27,26,24,23,22,21,20,17,17,16,15,14,15,14,13,14,13,14,14,13,14,13,13,13,12,13,12,13,12,11,10,10,9,10,10,9,0,0,0,9,0,0,0,0,9,9,9,9,10,10,9,9,10,13,13,13,14,17,23,22,26,25,27,26,28,28,28,29,31,30,34,35,38,37,39,44,43,44,45,45,45,-16,46,47,38,-16,-16,-16,-16,-16,59,62,70,63,64,64,64,66,-16,-16,-16,-16,74,-16,-16,74,-16,-16,-16,-16,-16,-16,-16,74,-16,76,-16,49,52,54,-16,-16,-16,-16,-16,-16,-16,-16,-16,-16,-16,-16,104,104,103,97,104,104,104,104,105,107,117,128,137,132,134,137,133,133,134,132,131,130,133,136,135,140,142,141,142,142,144,143,142,142,141,142,145,-16,-16,-16,-16,-16,157,163,-16,-16,-16,-16,-16,-16,-16,-16,-16,-16,-16,-16,-16,-16,-16,-16,-16,-16,-16,-16,-16,-16,-16,-16
-16,-16,-16,-16,-16,-16,-16,-16,-16,-16,-16,-16,-16,-16,-16,-16,-16,-16,-16,-16,-16,-16,-16,-16,-16,-16,-16,-16,-16,-16,-16,-16,-16,-16,-16,-16,-16,-16,-16,-16,-16,-16,-16,-16,-16,-16,-16,-16,-16,-16,-16,57,56,56,56,56,55,55,54,55,-16,55,55,55,55,55,54,52,52,49,49,48,48,47,46,46,45,45,44,45,44,44,44,44,43,43,43,43,42,42,-16,41,39,39,37,36,35,33,32,33,31,31,32,29,28,33,29,28,31,29,29,28,30,30,29,30,32,29,30,28,28,26,24,23,22,21,20,17,18,16,15,15,15,15,13,15,13,13,13,13,13,12,12,13,12,12,12,13,12,11,10,10,10,10,10,10,9,9,9,10,10,10,9,9,10,10,10,10,10,10,9,9,10,12,13,13,14,17,23,22,25,25,27,26,27,28,28,29,31,31,35,35,38,38,39,44,44,44,45,45,45,-16,46,47,38,-16,-16,51,61,-16,58,61,70,63,64,64,64,66,-16,-16,-16,-16,74,-16,-16,-16,-16,-16,-16,-16,-16,-16,-16,74,-16,76,-16,47,52,54,-16,-16,-16,-16,-16,-16,-16,-16,-16,-16,-16,-16,105,105,105,100,104,104,104,105,105,107,116,126,136,131,133,136,131,131,133,132,130,129,132,135,135,140,142,141,142,142,144,142,141,142,140,141,144,-16,-16,-16,-16,-16,156,162,-16,-16,-16,-16,-16,-16,-16,-16,-16,-16,-16,-16,-16,-16,-16,-16,-16,-16,-16,-16,-16,-16,-16,-16
-16,-16,-16,-16,-16,-16,-16,-16,-16,-16,-16,-16,-16,-16,-16,-16,-16,-16,-16,-16,-16,-16,-16,-16,-16,-16,-16,-16,-16,-16,-16,-16,-16,-16,-16,-16,-16,-16,-16,-16,-16,-16,-16,-16,-16,-16,-16,-16,-16,-16,-16,57,56,56,56,55,55,55,54,55,52,54,55,55,54,55,54,51,51,49,48,48,48,47,46,46,45,44,44,45,44,44,44,44,43,44,43,43,42,42,-16,40,38,38,36,35,34,32,31,32,31,31,32,29,29,33,29,28,31,29,29,28,30,30,29,30,32,29,31,29,28,26,24,23,22,21,20,17,18,16,16,15,15,15,13,15,14,13,13,13,13,12,12,12,11,12,12,13,12,11,11,10,10,10,10,10,10,10,10,11,10,10,10,10,10,10,10,10,10,10,9,9,9,12,12,12,13,16,22,21,24,25,27,26,27,28,28,29,-16,32,35,36,39,39,40,45,45,44,45,45,45,-16,46,47,38,-16,-16,50,58,-16,57,60,70,63,64,64,64,66,-16,-16,-16,-16,-16,-16,-16,-16,-16,-16,-16,-16,-16,-16,-16,74,-16,76,-16,46,-16,-16,-16,-16,-16,-16,-16,-16,-16,-16,-16,106,106,106,106,106,106,102,105,105,105,105,105,107,113,123,137,131,132,135,130,130,132,132,130,129,132,135,135,140,142,141,141,141,143,142,140,141,140,141,143,-16,-16,-16,-16,-16,156,162,-16,-16,-16,-16,-16,-16,-16,-16,-16,-16,-16,-16,-16,-16,-16,-16,-16,-16,-16,-16,-16,-16,-16,-16
-16,-16,-16,-16,-16,-16,-16,-16,-16,-16,-16,-16,-16,-16,-16,-16,-16,-16,-16,-16,-16,-16,-16,-16,-16,-16,-16,-16,-16,-16,-16,-16,-16,-16,-16,-16,-16,-16,-16,-16,-16,-16,-16,-16,-16,-16,-16,-16,-16,-16,-16,56,56,55,55,55,54,54,53,55,52,54,54,54,53,54,53,51,51,49,48,48,48,47,46,45,44,44,43,44,44,44,44,44,43,44,43,43,42,-16,-16,40,38,38,36,35,34,31,31,31,30,30,31,29,29,33,29,28,31,29,29,28,30,30,29,30,32,29,31,29,29,27,24,23,22,21,20,18,19,17,17,15,15,15,13,14,14,13,13,12,13,12,11,11,11,11,11,12,11,11,11,11,10,10,10,10,10,11,10,11,11,11,11,11,10,10,11,10,10,10,9,9,9,11,12,12,13,14,22,21,24,24,27,26,27,29,28,30,33,33,36,37,39,39,40,45,45,44,45,45,-16,-16,47,48,39,38,-16,50,56,-16,56,60,70,63,64,64,64,65,-16,-16,-16,-16,-16,-16,-16,-16,-16,-16,-16,-16,-16,-16,-16,74,-16,76,83,-16,-16,-16,93,-16,-16,-16,-16,-16,-16,-16,-16,107,107,107,108,108,107,105,105,106,106,106,106,107,110,122,137,130,131,135,130,130,132,132,131,129,133,136,135,140,142,140,141,141,142,141,140,141,139,140,143,-16,-16,-16,-16,-16,156,161,-16,-16,-16,-16,-16,-16,-16,-16,-16,-16,-16,-16,-16,-16,-16,-16,-16,-16,-16,-16,-16,-16,-16,-16
-16,-16,-16,-16,-16,-16,-16,-16,-16,-16,-16,-16,-16,-16,-16,-16,-16,-16,-16,-16,-16,-16,-16,-16,-16,-16,-16,-16,-16,-16,-16,-16,-16,-16,-16,-16,-16,-16,-16,-16,-16,-16,-16,-16,-16,-16,-16,-16,-16,-16,-16,57,56,55,55,55,54,54,53,55,51,53,53,53,52,54,53,50,51,48,48,48,47,46,45,45,44,43,43,44,44,44,44,44,43,44,43,44,42,42,-16,39,38,38,36,35,34,31,31,31,30,30,31,29,29,32,29,28,31,29,29,28,30,30,29,30,32,29,31,29,29,27,24,23,22,21,20,18,19,18,16,15,14,15,13,14,14,13,12,12,12,11,11,10,10,11,11,12,11,11,10,11,10,10,11,11,11,11,11,12,11,12,12,12,11,11,11,10,10,10,9,9,9,11,12,11,12,13,21,20,24,24,27,26,27,29,28,30,33,34,37,37,40,40,40,45,46,44,46,46,-16,-16,47,49,40,38,-16,49,55,-16,55,59,69,63,64,65,64,65,-16,-16,-16,-16,-16,-16,-16,-16,-16,-16,-16,-16,-16,-16,-16,74,-16,76,83,-16,81,90,92,100,-16,-16,-16,-16,-16,-16,108,108,108,108,109,109,109,106,106,108,108,108,107,107,109,120,135,128,128,134,130,130,132,133,131,130,133,136,136,140,142,140,140,140,142,141,140,140,139,140,142,-16,-16,-16,-16,-16,155,160,-16,-16,-16,-16,-16,-16,-16,-16,-16,-16,-16,-16,-16,-16,-16,-16,-16,-16,-16,-16,-16,-16,-16,-16
-16,-16,-16,-16,-16,-16,-16,-16,-16,-16,-16,-16,-16,-16,-16,-16,-16,-16,-16,-16,-16,-16,-16,-16,-16,-16,-16,-16,-16,-16,-16,-16,-16,-16,-16,-16,-16,-16,-16,-16,-16,-16,-16,-16,-16,-16,-16,-16,-16,-16,-16,57,56,55,55,55,54,54,53,55,50,52,51,51,50,53,52,50,50,48,48,48,47,46,44,44,43,43,42,44,43,44,44,44,43,44,43,44,42,-16,-16,39,38,38,36,35,34,31,31,31,30,30,31,29,29,32,29,28,31,29,29,28,30,30,29,30,32,29,30,29,29,27,24,23,22,21,19,18,19,18,16,15,14,15,13,15,14,13,13,13,12,12,11,11,10,11,11,12,11,11,11,11,10,11,11,11,11,12,12,13,12,13,13,12,12,11,11,11,10,10,9,10,9,11,11,11,12,12,21,20,23,24,27,26,27,29,28,30,34,34,37,37,40,40,40,45,46,44,-16,46,-16,-16,49,50,40,39,-16,49,54,54,55,59,69,63,65,65,64,65,-16,69,-16,-16,-16,-16,-16,-16,-16,-16,-16,-16,-16,-16,-16,75,-16,77,83,83,82,90,92,100,104,104,-16,-16,-16,109,109,109,109,109,110,110,109,106,106,109,109,109,108,109,110,120,134,127,127,134,131,131,132,133,132,131,134,137,137,141,142,140,140,140,142,141,139,140,139,140,142,-16,-16,-16,-16,-16,155,160,-16,-16,-16,-16,-16,-16,-16,-16,-16,167,-16,-16,-16,-16,-16,-16,-16,-16,-16,-16,-16,-16,-16,-16
-16,-16,-16,-16,-16,-16,-16,-16,-16,-16,-16,-16,-16,-16,-16,-16,-16,-16,-16,-16,-16,-16,-16,-16,-16,-16,-16,-16,-16,-16,-16,-16,-16,-16,-16,-16,-16,-16,-16,-16,-16,-16,-16,-16,-16,-16,-16,-16,-16,-16,-16,57,56,55,55,55,54,54,53,55,48,51,50,50,49,52,52,49,50,48,47,48,47,47,45,44,43,42,42,44,43,44,44,44,43,44,43,44,42,41,-16,38,38,38,36,34,34,31,32,32,31,30,31,29,29,33,29,28,31,29,28,28,30,30,29,30,32,28,30,29,28,27,24,23,21,21,19,18,18,17,15,15,14,15,14,15,15,14,14,14,13,12,11,11,11,11,12,12,12,12,12,12,11,11,12,11,11,12,12,13,12,14,13,13,12,12,12,11,10,10,10,10,9,11,11,11,11,12,20,19,23,24,27,26,27,29,28,30,34,34,38,38,40,40,40,45,47,44,-16,47,-16,-16,50,52,41,40,40,49,54,54,55,59,69,63,65,65,64,65,-16,69,-16,-16,-16,-16,-16,-16,-16,-16,-16,-16,-16,-16,-16,75,-16,77,83,83,83,89,91,100,106,106,107,-16,-16,111,109,110,110,109,110,110,110,107,107,109,110,110,109,109,112,119,133,126,127,134,132,132,133,134,133,132,134,137,137,140,141,140,139,140,141,140,139,140,139,140,142,-16,-16,-16,-16,-16,155,160,-16,-16,-16,-16,-16,-16,-16,-16,-16,165,-16,-16,-16,-16,-16,-16,-16,-16,-16,-16,-16,-16,-16,-16
-16,-16,-16,-16,-16,-16,-16,-16,-16,-16,-16,-16,-16,-16,-16,-16,-16,-16,-16,-16,-16,-16,-16,-16,-16,-16,-16,-16,-16,-16,-16,-16,-16,-16,-16,-16,-16,-16,-16,-16,-16,-16,-16,-16,-16,-16,-16,-16,-16,-16,-16,57,55,55,55,55,54,54,53,55,47,50,49,50,49,-16,52,49,50,48,48,48,47,47,45,45,44,43,42,44,43,44,44,44,43,44,44,44,42,42,-16,39,38,38,36,35,34,31,32,32,30,30,30,29,29,33,29,28,31,29,28,28,30,30,29,30,31,28,30,29,28,26,23,22,21,21,19,18,18,17,15,15,14,15,15,16,16,15,15,15,13,13,13,11,11,11,13,12,12,12,12,12,11,12,12,11,12,12,12,12,12,14,13,13,12,12,12,11,11,10,10,10,9,11,11,11,11,12,20,19,23,24,27,26,27,30,28,30,34,34,37,38,40,40,40,45,47,44,-16,47,-16,-16,51,52,42,41,42,51,55,55,55,59,70,64,66,66,64,65,68,68,-16,-16,-16,-16,-16,-16,-16,-16,-16,-16,-16,-16,-16,75,76,78,83,84,83,89,91,99,107,106,107,108,114,112,110,110,110,110,111,111,110,108,107,110,111,110,109,109,112,119,132,126,127,134,133,134,134,135,133,133,135,138,137,140,141,139,139,140,141,140,139,140,139,141,143,-16,-16,-16,-16,-16,154,159,-16,-16,-16,-16,-16,-16,-16,-16,-16,163,-16,-16,-16,-16,-16,-16,-16,-16,-16,-16,-16,-16,-16,-16
-16,-16,-16,-16,-16,-16,-16,-16,-16,-16,-16,-16,-16,-16,-16,-16,-16,-16,-16,-16,-16,-16,-16,-16,-16,-16,-16,-16,-16,-16,-16,-16,-16,-16,-16,-16,-16,-16,-16,-16,-16,-16,-16,-16,-16,-16,-16,-16,-16,-16,-16,57,55,55,55,55,54,54,53,55,46,50,49,50,-16,-16,52,49,50,48,48,48,48,48,45,45,45,-16,42,-16,43,44,44,44,43,43,44,44,42,43,-16,40,39,39,37,35,34,32,33,32,31,30,30,29,29,33,29,28,31,29,28,28,30,29,28,29,31,28,30,28,28,25,23,23,21,21,20,18,19,17,15,16,14,16,15,17,18,16,17,17,15,15,14,12,11,12,13,12,12,12,13,12,11,12,12,12,12,13,13,12,13,14,13,13,13,12,13,12,11,11,10,10,9,10,11,10,11,12,19,19,22,24,27,27,27,30,28,31,34,34,37,37,40,39,40,45,46,44,47,47,46,49,51,52,43,43,43,50,55,56,56,59,70,64,66,66,64,65,68,68,69,67,-16,-16,-16,-16,-16,-16,-16,-16,-16,-16,-16,76,77,78,84,84,84,90,91,98,105,106,107,108,114,112,110,110,111,110,111,111,111,108,107,111,111,111,110,110,112,119,131,125,126,134,134,135,135,136,134,133,135,139,138,140,140,139,138,140,141,140,139,140,139,141,143,147,-16,-16,-16,-16,154,159,-16,-16,-16,-16,-16,-16,-16,-16,-16,161,-16,166,-16,-16,-16,-16,-16,-16,-16,-16,-16,-16,-16,-16
-16,-16,-16,-16,-16,-16,-16,-16,-16,-16,-16,-16,-16,-16,-16,-16,-16,-16,-16,-16,-16,-16,-16,-16,-16,-16,-16,-16,-16,-16,-16,-16,-16,-16,-16,-16,-16,-16,-16,-16,-16,-16,-16,-16,-16,-16,-16,-16,-16,-16,-16,57,56,55,55,55,54,54,54,55,45,50,50,51,-16,-16,52,49,50,49,48,48,48,48,46,46,45,42,42,-16,43,44,44,44,43,43,44,44,43,44,-16,41,40,40,38,37,36,33,35,34,32,31,31,30,29,33,29,28,30,29,28,28,29,29,28,29,30,27,29,28,27,25,23,23,22,21,20,19,19,18,16,16,15,16,16,18,18,17,18,18,16,17,15,13,12,12,13,12,12,12,13,12,12,12,12,12,13,13,12,12,12,14,13,13,12,12,12,12,11,11,10,10,9,10,11,10,11,12,19,19,22,24,28,27,27,30,29,30,34,34,37,37,39,39,39,45,46,45,47,48,46,50,51,52,45,46,44,51,55,57,57,61,70,65,66,66,65,65,68,68,68,67,70,-16,-16,-16,-16,-16,-16,-16,-16,-16,-16,-16,78,79,84,85,84,90,91,98,104,106,107,107,113,112,110,110,111,110,112,111,111,108,107,112,-16,112,110,110,112,119,131,125,126,134,-16,136,136,137,134,134,136,139,138,140,140,139,138,140,142,141,140,140,139,141,143,147,-16,-16,-16,-16,154,158,-16,-16,-16,-16,-16,-16,-16,-16,156,160,165,166,167,164,166,165,157,-16,-16,-16,-16,-16,-16,-16
-16,-16,-16,-16,-16,-16,-16,-16,-16,-16,-16,-16,-16,-16,-16,-16,-16,-16,-16,-16,-16,-16,-16,-16,-16,-16,-16,-16,-16,-16,-16,-16,-16,-16,-16,-16,-16,-16,-16,-16,-16,-16,-16,-16,-16,-16,-16,-16,-16,-16,-16,58,56,56,55,55,55,54,54,55,45,51,51,52,-16,-16,52,50,50,49,49,49,48,48,46,46,46,42,42,-16,43,44,44,44,43,43,44,44,43,44,42,42,42,42,41,40,39,37,37,36,33,31,31,30,29,32,29,28,30,28,28,28,29,29,28,28,30,27,29,28,27,25,24,23,22,22,21,19,20,19,17,17,16,17,18,19,20,19,20,20,19,19,18,15,13,14,14,12,12,12,13,12,12,13,12,12,13,13,13,12,12,14,13,13,13,12,13,12,11,11,10,10,9,10,11,10,11,12,18,19,22,24,28,27,27,30,29,30,33,34,36,37,39,39,39,44,46,45,47,49,46,50,51,52,47,48,45,52,55,58,59,61,70,65,67,66,65,65,68,68,68,67,70,-16,-16,71,-16,-16,-16,-16,-16,-16,-16,-16,-16,80,85,85,85,90,91,97,103,106,107,107,112,112,110,110,111,110,111,111,111,109,107,112,113,112,110,110,112,119,132,127,128,134,-16,137,137,138,-16,135,136,140,139,139,140,139,-16,140,142,141,140,141,139,142,143,147,-16,-16,-16,-16,153,158,-16,-16,-16,-16,-16,-16,-16,-16,156,160,167,167,-16,-16,167,166,159,-16,-16,-16,-16,-16,-16,-16
-16,-16,-16,-16,-16,-16,-16,-16,-16,-16,-16,-16,-16,-16,-16,-16,-16,-16,-16,-16,-16,-16,-16,-16,-16,-16,-16,-16,-16,-16,-16,-16,-16,-16,-16,-16,-16,-16,-16,-16,-16,-16,-16,-16,-16,-16,-16,-16,-16,-16,-16,58,56,56,55,55,55,55,54,56,45,52,52,53,-16,-16,53,50,51,49,49,49,49,48,46,46,47,42,42,-16,43,44,43,44,43,43,44,44,43,44,43,43,43,43,42,41,40,38,39,38,34,32,32,30,30,32,29,28,30,28,28,27,29,28,27,28,29,27,28,27,27,25,24,23,22,22,21,20,20,20,17,18,17,19,20,21,21,21,21,21,21,21,19,18,15,16,15,13,13,13,13,13,12,13,11,12,13,12,13,12,12,14,13,13,13,12,13,12,11,12,10,10,10,11,11,11,11,12,18,19,22,24,28,27,27,30,29,30,33,34,36,37,39,39,39,43,45,45,46,49,46,50,52,52,49,48,46,51,54,58,58,60,69,64,67,66,66,65,68,68,68,67,70,70,70,71,71,70,-16,-16,75,76,-16,-16,-16,81,85,86,86,91,91,97,102,105,106,106,111,112,109,110,111,110,111,111,111,109,107,113,114,113,110,110,114,119,133,129,129,135,-16,139,139,139,136,136,137,141,139,139,139,139,-16,141,142,141,140,141,140,142,143,147,-16,-16,-16,-16,-16,158,-16,-16,-16,-16,-16,-16,-16,-16,154,159,-16,-16,-16,-16,167,167,162,-16,-16,-16,-16,-16,-16,-16
-16,-16,-16,-16,-16,-16,-16,-16,-16,-16,-16,-16,-16,-16,-16,-16,-16,-16,-16,-16,-16,-16,-16,-16,-16,-16,-16,-16,-16,-16,-16,-16,-16,-16,-16,-16,-16,-16,-16,-16,-16,-16,-16,-16,-16,-16,-16,-16,-16,-16,-16,58,56,56,56,56,55,55,55,56,45,54,53,54,54,-16,53,51,51,50,49,50,49,49,46,46,47,42,42,-16,43,43,43,44,43,43,44,44,44,45,44,44,44,45,44,43,42,40,40,38,35,33,32,30,30,32,29,28,29,28,28,27,28,28,27,28,29,27,28,27,27,25,24,23,23,22,21,20,21,20,18,19,19,21,21,22,23,22,22,23,22,22,21,19,16,19,17,14,15,14,14,13,12,13,11,11,13,12,12,12,12,14,13,13,13,12,13,13,12,12,11,11,10,11,12,11,11,12,17,19,22,24,28,27,27,30,29,30,33,34,36,37,39,38,39,42,45,45,46,48,46,50,51,52,49,48,47,51,54,57,58,60,70,65,67,67,66,66,68,68,68,66,69,69,69,70,70,69,72,73,75,76,77,-16,-16,82,-16,-16,-16,91,90,96,103,106,106,106,111,111,109,110,110,110,111,111,111,109,107,113,114,113,111,111,117,120,134,131,131,135,-16,140,140,140,136,137,137,142,140,138,139,139,-16,141,142,142,140,141,140,142,143,147,-16,-16,-16,-16,-16,158,-16,-16,-16,-16,-16,-16,-16,-16,152,159,-16,-16,173,-16,-16,-16,164,166,166,-16,-16,-16,-16,-16
-16,-16,-16,-16,-16,-16,-16,-16,-16,-16,-16,-16,-16,-16,-16,-16,-16,-16,-16,-16,-16,-16,-16,-16,-16,-16,-16,-16,-16,-16,-16,-16,-16,-16,-16,-16,-16,-16,-16,-16,-16,-16,-16,-16,-16,-16,-16,-16,-16,-16,-16,59,56,56,56,56,56,56,55,56,46,55,55,55,55,56,53,51,51,50,49,50,49,49,47,47,48,43,43,44,43,44,44,44,43,44,45,45,44,46,45,45,45,46,45,44,44,42,41,40,36,34,33,31,30,32,29,28,29,28,28,27,28,27,27,27,28,27,28,27,27,26,25,24,23,23,22,21,22,21,20,22,23,25,24,24,25,24,24,24,24,23,22,20,18,20,18,15,16,14,15,14,13,14,11,12,13,12,12,11,12,13,13,13,13,13,13,13,12,13,11,11,10,11,12,12,12,13,17,20,22,25,28,27,27,30,30,30,33,34,35,36,38,38,38,41,44,45,45,47,46,49,51,51,48,47,47,50,53,57,57,60,69,65,67,67,67,66,67,67,67,66,69,69,69,70,70,69,72,74,76,77,77,-16,-16,82,86,86,-16,91,90,95,103,106,106,106,110,111,109,109,110,109,110,110,110,108,107,113,114,113,111,113,120,120,134,133,132,135,-16,140,140,141,137,137,138,142,140,138,139,139,-16,142,143,142,141,142,141,143,144,148,-16,-16,-16,-16,-16,158,-16,-16,-16,-16,-16,-16,-16,-16,153,159,164,165,171,-16,168,168,165,167,166,-16,-16,-16,-16,-16
-16,-16,-16,-16,-16,-16,-16,-16,-16,-16,-16,-16,-16,-16,-16,-16,-16,-16,-16,-16,-16,-16,-16,-16,-16,-16,-16,-16,-16,-16,-16,-16,-16,-16,-16,-16,-16,-16,-16,-16,-16,-16,-16,-16,-16,-16,-16,-16,-16,-16,-16,59,57,57,56,56,56,56,55,56,46,55,55,56,56,56,53,51,51,50,49,51,49,49,47,48,48,43,43,44,43,44,44,44,44,44,45,45,44,46,45,45,46,46,45,45,45,44,43,41,38,36,35,32,31,32,30,28,29,28,28,27,28,27,26,27,28,27,28,27,28,26,26,25,25,24,23,22,23,23,23,24,27,28,29,28,28,26,26,26,26,24,23,21,20,20,18,16,16,15,15,14,14,14,11,12,12,12,12,11,12,13,13,13,14,13,13,13,12,13,11,11,10,11,13,13,13,16,19,22,23,27,28,26,27,29,29,30,32,33,34,36,38,37,38,41,43,45,44,47,45,48,50,50,48,47,46,50,52,56,56,59,68,64,67,66,67,66,67,67,67,66,69,68,69,69,70,69,73,74,77,77,78,-16,-16,83,86,87,-16,91,90,95,102,105,105,105,109,110,108,108,109,108,110,110,110,108,107,113,114,113,111,113,120,121,134,134,133,136,147,141,141,141,137,138,138,142,140,138,139,139,-16,142,143,142,141,142,142,143,144,148,-16,-16,-16,-16,-16,158,-16,-16,-16,-16,-16,-16,-16,-16,156,162,166,166,171,167,168,169,167,168,167,-16,-16,-16,-16,-16
-16,-16,-16,-16,-16,-16,-16,-16,-16,-16,-16,-16,-16,-16,-16,-16,-16,-16,-16,-16,-16,-16,-16,-16,-16,-16,-16,-16,-16,-16,-16,-16,-16,-16,-16,-16,-16,-16,-16,-16,-16,-16,-16,-16,-16,-16,-16,-16,-16,-16,-16,60,57,57,57,57,56,56,55,56,46,55,55,55,55,56,53,51,51,50,49,51,49,50,47,48,49,44,44,45,43,44,44,44,44,44,45,45,44,46,45,45,46,46,45,46,46,45,44,42,40,37,36,33,32,33,30,28,29,28,28,27,27,27,26,26,27,27,27,27,28,27,28,26,26,25,24,24,24,24,24,24,27,28,31,31,31,28,27,27,27,26,24,22,21,21,19,17,17,15,15,14,14,13,11,12,13,13,13,12,13,14,14,13,15,13,13,13,12,13,11,11,10,11,12,13,13,16,19,22,23,27,27,26,26,28,28,29,31,32,32,35,37,37,38,40,43,45,44,47,46,48,49,50,48,46,46,49,51,55,55,58,66,63,66,66,66,66,67,67,67,66,69,69,69,69,70,70,73,75,77,77,79,81,83,84,86,87,-16,91,91,95,101,103,103,103,107,108,107,107,108,107,109,109,109,107,106,112,112,112,109,110,120,121,135,134,134,136,147,141,141,141,137,138,138,142,140,137,139,140,-16,142,143,142,141,143,143,144,145,149,-16,-16,-16,-16,-16,159,-16,-16,-16,-16,-16,-16,-16,-16,161,164,167,168,171,168,169,170,168,169,168,-16,-16,-16,-16,-16
-16,-16,-16,-16,-16,-16,-16,-16,-16,-16,-16,-16,-16,-16,-16,-16,-16,-16,-16,-16,-16,-16,-16,-16,-16,-16,-16,-16,-16,-16,-16,-16,-16,-16,-16,-16,-16,-16,-16,-16,-16,-16,-16,-16,-16,-16,-16,-16,-16,-16,-16,60,57,57,57,57,57,57,55,56,46,55,53,54,54,55,52,51,51,50,49,51,49,50,47,48,49,44,44,45,43,44,44,44,44,44,45,45,44,46,45,44,45,46,45,45,45,45,44,42,41,38,37,35,33,33,31,28,29,28,28,27,27,26,26,26,27,27,27,27,28,28,28,27,26,25,25,24,24,25,25,25,28,28,32,31,33,29,28,28,28,26,25,23,22,21,18,17,17,15,15,14,14,13,10,12,13,13,13,12,13,14,14,14,15,13,13,13,13,13,11,11,10,11,12,14,13,15,19,22,22,25,25,24,25,26,27,27,30,31,31,34,37,37,38,41,44,46,45,48,46,49,49,50,48,46,46,48,49,55,54,57,64,62,65,65,67,67,68,68,68,68,70,70,71,70,71,71,73,75,77,77,80,82,83,84,86,88,88,92,91,95,101,102,102,102,106,107,107,106,107,107,108,108,108,107,106,110,111,111,109,110,121,122,135,135,135,136,147,141,141,141,137,138,138,142,140,137,139,140,-16,142,142,142,142,143,143,144,146,-16,-16,-16,-16,-16,-16,159,-16,-16,-16,-16,-16,-16,-16,-16,164,166,168,169,171,170,170,171,169,169,169,-16,-16,-16,-16,-16
-16,-16,-16,-16,-16,-16,-16,-16,-16,-16,-16,-16,-16,-16,-16,-16,-16,-16,-16,-16,-16,-16,-16,-16,-16,-16,-16,-16,-16,-16,-16,-16,-16,-16,-16,-16,-16,-16,-16,-16,-16,-16,-16,-16,-16,-16,-16,-16,-16,-16,-16,60,57,57,57,57,57,57,55,56,47,54,53,54,54,55,52,50,51,49,48,51,49,49,47,48,49,44,44,45,44,44,45,45,44,45,45,45,45,46,46,45,46,46,45,46,46,45,44,43,41,39,38,36,34,33,31,29,29,29,28,27,27,26,26,26,27,27,27,28,29,30,29,28,27,26,25,25,25,25,25,25,28,28,31,31,34,30,29,29,29,27,26,24,23,22,20,18,18,16,16,15,14,14,11,12,13,13,13,13,14,14,14,14,14,13,12,12,12,12,11,11,10,10,12,15,13,15,20,22,22,24,23,23,23,25,26,26,28,30,30,34,37,37,38,41,45,46,45,48,47,49,50,51,48,46,46,47,47,54,53,57,63,61,65,66,67,67,68,69,69,69,71,71,72,71,71,72,74,75,77,77,80,82,83,84,86,88,88,91,90,93,100,102,102,102,106,108,107,106,107,107,108,108,108,107,106,110,112,112,110,112,122,125,134,136,136,136,147,141,141,141,138,139,138,141,140,137,140,140,-16,142,142,143,142,143,144,145,147,-16,-16,-16,-16,-16,156,158,-16,-16,-16,-16,-16,-16,-16,-16,165,166,169,169,171,171,170,172,170,170,170,-16,-16,-16,-16,-16
-16,-16,-16,-16,-16,-16,-16,-16,-16,-16,-16,-16,-16,-16,-16,-16,-16,-16,-16,-16,-16,-16,-16,-16,-16,-16,-16,-16,-16,-16,-16,-16,-16,-16,-16,-16,-16,-16,-16,-16,-16,-16,-16,-16,-16,-16,-16,-16,-16,-16,-16,60,57,57,57,57,57,57,55,56,48,55,53,53,53,55,52,50,50,49,48,50,48,49,47,47,49,45,45,46,44,45,46,46,45,45,46,46,45,46,46,45,46,46,45,46,46,45,44,43,42,40,38,37,35,33,31,29,29,29,28,27,27,27,26,27,27,28,28,28,29,31,29,28,28,27,26,26,25,25,25,25,29,28,31,31,34,31,30,30,30,27,27,25,24,22,20,19,19,16,17,15,15,14,11,12,13,13,14,14,14,14,14,14,14,13,12,11,11,11,10,11,10,10,11,15,13,14,19,21,21,24,22,22,22,24,25,25,27,29,28,33,37,37,39,41,45,47,46,49,47,49,50,51,48,45,46,46,45,50,50,57,61,61,64,66,67,68,68,69,69,70,71,71,71,71,72,73,73,74,76,76,80,81,83,83,85,87,-16,90,88,90,98,100,99,101,105,107,106,106,107,107,108,108,108,107,105,110,111,112,109,-16,122,125,134,139,136,137,147,140,140,140,138,139,138,140,140,137,140,141,-16,142,142,143,142,144,146,146,148,-16,-16,-16,-16,-16,157,158,160,-16,-16,-16,-16,-16,-16,-16,164,166,168,-16,171,171,171,173,171,171,171,169,-16,-16,-16,-16
-16,-16,-16,-16,-16,-16,-16,-16,-16,-16,-16,-16,-16,-16,-16,-16,-16,-16,-16,-16,-16,-16,-16,-16,-16,-16,-16,-16,-16,-16,-16,-16,-16,-16,-16,-16,-16,-16,-16,-16,-16,-16,-16,-16,-16,-16,-16,-16,-16,-16,-16,60,58,57,57,57,57,57,56,57,49,55,53,53,53,55,52,50,50,49,48,50,48,49,47,47,49,45,45,46,45,46,47,47,46,46,47,47,46,47,47,45,46,47,46,46,46,45,45,43,43,41,39,37,35,34,31,29,29,29,28,27,27,27,26,27,27,28,28,28,29,31,29,29,28,27,26,26,26,26,25,25,30,29,32,31,34,31,31,31,30,28,27,26,25,23,21,19,19,17,17,16,15,15,12,12,13,13,14,14,15,15,14,14,14,14,12,11,10,11,11,11,11,10,11,15,14,14,18,20,20,23,20,21,21,23,24,24,26,27,27,32,36,37,39,42,46,47,47,49,48,49,49,50,47,44,45,44,43,44,46,57,60,60,63,66,66,68,68,69,68,70,71,71,71,72,72,73,73,73,-16,-16,76,77,78,-16,-16,-16,-16,88,87,89,97,99,99,101,105,107,106,106,106,107,107,108,108,107,105,110,112,112,111,113,122,124,134,138,136,136,146,139,139,139,137,139,137,139,140,137,140,141,140,142,141,142,143,144,147,147,149,151,-16,-16,156,157,157,159,160,-16,-16,-16,-16,-16,-16,164,163,166,-16,-16,171,171,171,173,172,172,172,171,-16,-16,-16,-16
-16,-16,-16,-16,-16,-16,-16,-16,-16,-16,-16,-16,-16,-16,-16,-16,-16,-16,-16,-16,-16,-16,-16,-16,-16,-16,-16,-16,-16,-16,-16,-16,-16,-16,-16,-16,-16,-16,-16,-16,-16,-16,-16,-16,-16,-16,-16,-16,-16,-16,-16,60,57,57,57,57,57,57,56,57,49,55,53,54,53,55,52,50,50,49,48,50,48,49,47,47,49,45,46,47,46,47,47,47,47,47,48,48,47,48,47,46,46,47,46,47,46,46,45,44,43,41,40,38,36,34,31,29,29,28,28,28,27,27,26,27,27,28,27,28,29,31,29,28,28,27,27,26,26,26,25,25,30,29,31,31,34,31,31,31,30,28,28,26,26,23,22,20,20,18,18,17,16,15,13,13,14,14,15,15,15,15,15,14,14,14,13,11,11,11,11,12,11,10,10,15,14,14,17,20,19,23,20,21,21,23,24,24,26,27,26,31,36,36,39,42,47,47,48,49,48,50,48,50,46,43,44,42,42,42,45,57,59,59,62,66,66,67,67,68,68,70,71,71,70,72,73,73,73,73,-16,69,-16,74,-16,-16,-16,-16,-16,-16,87,88,98,100,100,101,104,107,106,105,106,106,107,107,107,107,105,110,112,113,113,116,122,125,133,136,135,136,144,138,138,138,136,138,137,138,140,137,140,141,141,142,141,142,144,144,148,147,150,151,-16,156,157,157,157,159,160,158,161,-16,-16,-16,-16,164,164,166,-16,-16,171,171,171,173,173,172,173,172,-16,-16,-16,-16
-16,-16,-16,-16,-16,-16,-16,-16,-16,-16,-16,-16,-16,-16,-16,-16,-16,-16,-16,-16,-16,-16,-16,-16,-16,-16,-16,-16,-16,-16,-16,-16,-16,-16,-16,-16,-16,-16,-16,-16,-16,-16,-16,-16,-16,-16,-16,-16,-16,-16,-16,60,57,57,57,57,57,57,56,57,49,55,54,54,54,55,52,50,50,48,48,50,48,49,47,47,50,46,46,48,46,47,48,48,47,47,48,49,47,48,47,46,46,48,46,47,46,46,45,44,44,42,41,39,36,34,31,29,28,28,29,28,28,27,27,27,27,28,27,28,29,31,28,28,28,27,26,27,26,26,25,25,29,28,31,30,34,31,31,31,31,28,28,27,26,23,22,20,20,18,18,17,17,16,14,14,15,14,15,16,16,16,15,14,14,15,13,11,10,10,11,12,11,9,10,15,14,14,18,20,19,22,20,21,21,23,24,24,25,27,26,30,35,36,39,44,48,48,50,50,49,50,49,50,46,44,45,42,41,41,45,55,58,58,60,65,65,67,67,68,68,70,71,71,70,73,73,74,73,74,73,71,73,74,74,73,-16,-16,-16,79,87,88,96,97,97,99,103,105,105,104,105,105,106,106,106,106,104,107,110,112,112,115,122,123,132,136,134,136,142,137,137,137,135,137,136,137,139,137,140,141,141,142,141,142,145,144,149,148,151,152,-16,156,157,157,157,159,159,158,161,160,-16,-16,-16,-16,-16,166,-16,-16,171,172,171,173,173,173,174,173,-16,-16,-16,-16
-16,-16,-16,-16,-16,-16,-16,-16,-16,-16,-16,-16,-16,-16,-16,-16,-16,-16,-16,-16,-16,-16,-16,-16,-16,-16,-16,-16,-16,-16,-16,-16,-16,-16,-16,-16,-16,-16,-16,-16,-16,-16,-16,-16,-16,-16,-16,-16,-16,-16,-16,60,57,57,57,57,57,57,56,57,-16,56,54,54,54,55,52,50,50,48,48,49,48,48,47,47,50,45,46,48,46,47,48,48,47,47,49,49,46,48,47,46,46,47,46,46,46,46,45,45,44,42,41,40,37,35,32,29,29,28,29,28,28,28,27,28,27,28,27,27,29,30,28,28,27,27,27,27,26,26,25,25,29,28,30,30,34,31,31,31,31,29,28,27,27,24,22,20,20,19,18,18,17,17,16,14,15,14,15,16,16,16,15,14,14,14,13,9,0,9,10,11,10,0,9,15,14,14,18,20,19,21,20,21,21,23,24,24,25,27,27,30,35,37,40,46,50,50,52,51,50,51,49,51,46,45,46,42,42,43,47,56,58,59,61,66,64,67,67,68,68,70,71,71,70,73,73,73,73,73,73,70,72,73,74,73,73,74,-16,78,86,86,93,93,93,96,102,105,104,104,104,104,105,105,106,105,103,106,107,110,111,114,121,122,131,136,134,135,140,135,135,136,134,135,135,136,138,136,140,142,141,143,141,143,146,145,150,149,151,-16,-16,156,157,157,157,158,158,157,160,159,-16,-16,-16,-16,-16,-16,-16,-16,171,172,171,173,173,173,175,174,-16,-16,-16,-16
-16,-16,-16,-16,-16,-16,-16,-16,-16,-16,-16,-16,-16,-16,-16,-16,-16,-16,-16,-16,-16,-16,-16,-16,-16,-16,-16,-16,-16,-16,-16,-16,-16,-16,-16,-16,-16,-16,-16,-16,-16,-16,-16,-16,-16,-16,-16,-16,-16,-16,-16,60,57,57,57,57,57,57,56,57,-16,57,56,56,56,56,52,50,50,48,48,48,48,48,47,47,49,45,46,48,47,47,48,48,48,47,49,50,47,48,47,46,46,47,46,46,46,46,46,45,44,43,42,40,38,35,32,29,29,29,29,28,28,28,27,28,27,28,27,27,28,30,28,28,28,28,27,27,27,26,25,25,28,27,29,29,34,31,32,32,31,29,28,28,27,24,23,21,21,20,20,20,19,20,16,15,17,14,15,17,16,16,14,14,14,14,12,0,0,0,9,10,9,0,0,14,13,13,16,19,18,21,19,21,21,24,24,24,25,27,27,30,34,37,40,46,51,51,53,51,51,52,50,52,47,46,46,43,44,44,50,57,59,60,62,67,66,67,67,69,68,70,72,71,69,73,73,73,71,72,70,71,72,73,74,73,74,74,75,77,82,85,91,92,92,94,102,104,103,104,104,104,105,105,106,105,104,107,108,110,112,116,121,122,131,135,133,135,138,134,134,134,133,134,134,136,138,136,140,142,142,143,141,143,147,145,150,150,151,-16,-16,156,157,157,157,158,158,157,159,159,-16,-16,-16,-16,-16,-16,-16,-16,172,172,172,174,173,174,176,175,-16,-16,-16,-16
-16,-16,-16,-16,-16,-16,-16,-16,-16,-16,-16,-16,-16,-16,-16,-16,-16,-16,-16,-16,-16,-16,-16,-16,-16,-16,-16,-16,-16,-16,-16,-16,-16,-16,-16,-16,-16,-16,-16,-16,-16,-16,-16,-16,-16,-16,-16,-16,-16,-16,-16,60,57,57,57,57,57,57,56,57,50,57,62,62,61,59,53,51,50,48,48,48,48,48,47,47,49,45,46,48,47,47,49,48,48,48,50,50,48,49,48,47,47,48,47,47,47,47,46,45,44,43,42,41,38,36,32,29,29,29,29,29,28,28,28,29,28,29,28,28,29,30,29,28,28,29,28,28,28,27,25,25,28,28,27,28,34,30,32,31,31,29,28,28,27,25,24,21,22,21,21,21,21,22,18,16,18,15,15,18,17,16,13,13,13,13,11,0,0,9,10,13,11,0,9,15,14,13,16,19,18,20,19,21,21,24,24,24,25,27,28,31,34,36,39,46,51,51,53,51,51,51,50,51,47,46,46,42,44,44,51,58,60,61,63,68,66,67,67,69,68,69,71,70,66,71,71,71,62,60,66,69,71,73,73,74,74,75,76,77,80,84,90,91,91,94,102,106,105,105,105,105,105,106,106,106,105,107,109,109,112,117,121,122,130,134,132,133,136,133,133,133,133,134,134,136,138,137,140,142,142,143,141,142,146,145,150,150,151,-16,-16,155,156,156,157,157,158,157,159,159,-16,-16,163,-16,-16,-16,-16,-16,172,172,172,174,174,175,177,177,-16,-16,-16,-16
-16,-16,-16,-16,-16,-16,-16,-16,-16,-16,-16,-16,-16,-16,-16,-16,-16,-16,-16,-16,-16,-16,-16,-16,-16,-16,-16,-16,-16,-16,-16,-16,-16,-16,-16,-16,-16,-16,-16,-16,-16,-16,-16,-16,-16,-16,-16,-16,-16,-16,-16,59,57,57,57,57,57,57,56,57,51,58,69,69,66,63,53,51,50,48,48,48,48,48,47,47,49,46,46,48,47,47,49,48,48,48,50,50,48,49,49,48,48,49,47,48,47,48,47,46,45,44,43,42,39,36,32,29,29,28,29,29,28,28,29,29,29,30,28,28,29,30,30,29,29,29,28,30,29,28,26,26,28,28,27,28,34,30,32,31,31,29,28,29,28,26,27,24,24,24,24,25,24,24,21,18,19,15,17,22,21,-16,11,11,13,13,9,0,0,0,10,13,10,0,0,14,14,14,15,19,18,20,20,22,22,24,25,25,25,27,28,31,33,36,39,45,49,49,52,50,50,51,49,51,47,45,46,42,44,45,52,59,60,61,63,68,66,66,66,68,66,67,69,68,61,67,67,66,57,55,57,60,62,65,67,72,73,74,76,77,79,84,88,88,90,92,102,106,105,105,105,105,105,106,106,106,105,107,108,108,111,117,121,122,129,133,130,131,135,132,132,132,132,133,133,135,137,137,139,142,143,142,141,142,147,145,150,150,151,151,-16,154,156,155,156,157,157,157,158,159,161,-16,163,-16,-16,-16,-16,-16,172,173,172,174,174,175,178,178,-16,-16,-16,-16
-16,-16,-16,-16,-16,-16,-16,-16,-16,-16,-16,-16,-16,-16,-16,-16,-16,-16,-16,-16,-16,-16,-16,-16,-16,-16,-16,-16,-16,-16,-16,-16,-16,-16,-16,-16,-16,-16,-16,-16,-16,-16,-16,-16,-16,-16,-16,-16,-16,-16,-16,59,57,57,57,57,57,57,56,57,49,58,73,73,70,68,53,52,50,48,48,49,48,48,48,48,50,47,47,49,48,48,49,48,48,48,50,50,48,49,49,48,48,49,47,48,47,48,47,46,46,45,44,43,41,38,32,29,29,29,29,29,29,29,29,29,30,31,28,28,29,30,30,29,29,29,29,31,31,29,27,26,28,28,27,28,33,30,32,31,31,29,29,30,29,27,29,26,29,28,27,27,26,26,24,21,19,12,18,27,40,-16,-16,0,13,15,-16,0,0,0,13,19,12,9,9,14,15,14,15,19,18,20,20,23,23,25,25,26,26,28,29,31,33,36,38,43,48,47,52,49,49,50,48,50,47,45,46,42,45,46,51,58,60,61,63,67,66,66,66,67,65,66,68,66,60,63,63,64,57,56,59,61,63,65,68,71,71,72,74,77,77,79,78,77,84,88,99,104,103,104,105,104,105,105,106,106,105,107,108,108,111,117,120,121,129,132,129,130,134,132,131,131,132,133,133,135,137,137,139,141,143,142,141,142,147,145,150,150,151,-16,-16,154,156,155,156,157,157,158,158,159,161,162,164,167,-16,-16,-16,-16,172,-16,172,174,174,176,179,179,-16,-16,-16,-16
-16,-16,-16,-16,-16,-16,-16,-16,-16,-16,-16,-16,-16,-16,-16,-16,-16,-16,-16,-16,-16,-16,-16,-16,-16,-16,-16,-16,-16,-16,-16,-16,-16,-16,-16,-16,-16,-16,-16,-16,-16,-16,-16,-16,-16,-16,-16,-16,-16,-16,-16,60,57,57,57,57,57,57,56,57,47,58,73,75,71,68,53,52,50,49,49,49,48,49,48,49,51,47,47,49,48,48,48,48,47,47,50,50,48,49,48,48,47,49,47,48,47,49,47,47,46,46,45,44,41,40,34,31,31,29,30,30,30,30,30,30,33,31,28,28,29,29,29,28,28,29,28,30,31,30,28,27,28,28,28,30,34,30,33,32,33,32,32,33,32,29,33,29,32,29,27,27,26,26,25,22,19,10,9,28,42,-16,-16,0,0,11,-16,0,0,9,13,17,15,9,11,14,18,16,17,20,20,21,22,24,25,26,27,27,28,29,29,32,33,36,38,43,47,46,51,48,49,49,47,49,47,45,46,42,46,46,51,57,60,61,63,67,66,66,66,67,66,66,68,67,61,64,63,64,57,56,61,62,64,66,69,70,71,73,75,79,80,85,86,84,87,90,101,103,102,103,105,104,105,105,106,106,105,107,108,107,111,118,119,120,127,131,128,128,133,132,131,131,132,133,134,135,136,137,138,141,142,142,140,141,146,144,149,150,150,152,-16,154,156,156,157,158,157,158,159,159,162,162,165,168,-16,170,171,171,172,-16,-16,-16,-16,176,179,-16,-16,-16,-16,-16
-16,-16,-16,-16,-16,-16,-16,-16,-16,-16,-16,-16,-16,-16,-16,-16,-16,-16,-16,-16,-16,-16,-16,-16,-16,-16,-16,-16,-16,-16,-16,-16,-16,-16,-16,-16,-16,-16,-16,-16,-16,-16,-16,-16,-16,-16,-16,-16,-16,-16,-16,61,57,57,57,57,57,57,55,56,45,57,-16,-16,61,-16,52,52,50,49,49,49,48,49,48,50,51,48,48,49,48,48,48,48,47,47,49,49,47,48,48,48,47,49,47,48,47,49,48,47,47,46,45,45,42,42,36,33,33,32,33,32,32,32,33,34,37,34,31,29,30,30,30,28,28,28,29,31,32,31,31,29,29,29,31,35,36,33,35,34,36,36,37,36,36,36,38,37,36,33,31,30,28,28,26,25,23,-16,-16,-16,-16,-16,-16,-16,-16,-16,-16,-16,-16,-16,-16,-16,-16,-16,-16,-16,-16,22,22,22,23,22,23,28,27,29,29,29,30,30,31,33,33,38,39,43,48,46,51,48,49,49,48,49,47,45,46,42,47,48,51,56,59,61,63,66,66,67,66,68,66,66,69,67,63,64,62,65,57,56,64,67,68,69,73,74,74,74,76,79,79,85,87,83,87,90,99,101,101,103,105,104,104,105,105,106,105,107,108,107,110,118,119,120,125,129,127,127,133,132,131,132,132,133,134,136,136,136,138,140,141,142,140,141,144,144,149,150,150,152,-16,154,156,156,157,158,157,159,159,160,163,164,166,169,169,171,172,172,172,172,172,-16,-16,176,180,-16,-16,-16,-16,-16
-16,-16,-16,-16,-16,-16,-16,-16,-16,-16,-16,-16,-16,-16,-16,-16,-16,-16,-16,-16,-16,-16,-16,-16,-16,-16,-16,-16,-16,-16,-16,-16,-16,-16,-16,-16,-16,-16,-16,-16,-16,-16,-16,-16,-16,-16,-16,-16,-16,-16,-16,61,57,57,57,57,57,57,54,55,45,55,-16,-16,54,55,50,51,49,48,48,49,48,50,48,50,51,48,48,49,48,48,48,48,47,47,48,48,47,48,48,47,47,48,47,48,47,49,48,47,47,46,45,45,43,42,38,36,37,37,37,36,36,36,36,38,40,37,32,30,31,30,30,28,28,28,28,31,33,32,32,31,32,33,37,40,40,39,40,40,41,41,41,41,40,40,41,39,37,34,33,30,29,28,26,24,8,-16,-16,-16,-16,-16,-16,-16,-16,-16,-16,-16,-16,-16,-16,-16,-16,-16,-16,-16,-16,23,24,23,23,19,22,28,26,29,30,30,30,31,32,34,34,38,39,42,46,46,51,48,48,48,47,49,47,45,47,43,50,52,54,57,60,61,63,65,66,66,66,68,67,66,68,67,64,64,62,64,58,56,64,69,71,73,76,82,85,84,85,85,84,87,88,82,85,88,98,100,101,103,106,105,105,105,106,106,106,106,107,106,109,117,119,120,124,128,126,127,132,132,131,132,132,133,134,135,136,135,137,139,139,141,139,141,143,145,149,150,150,152,153,154,156,156,157,158,157,159,160,161,164,165,168,171,170,172,173,172,172,173,173,175,-16,177,181,-16,-16,-16,-16,-16
-16,-16,-16,-16,-16,-16,-16,-16,-16,-16,-16,-16,-16,-16,-16,-16,-16,-16,-16,-16,-16,-16,-16,-16,-16,-16,-16,-16,-16,-16,-16,-16,-16,-16,-16,-16,-16,-16,-16,-16,-16,-16,-16,-16,-16,-16,-16,-16,-16,-16,-16,62,57,57,57,57,57,57,54,54,44,51,49,51,51,54,49,50,48,48,47,48,47,50,48,50,51,49,49,48,48,48,47,48,47,47,48,48,48,47,48,47,47,48,46,47,47,48,47,46,46,46,45,45,43,42,40,39,40,41,40,40,40,40,42,42,44,41,39,37,37,37,36,32,32,31,31,33,35,34,35,35,35,35,38,40,40,39,40,40,41,41,42,41,40,41,41,39,37,36,35,33,31,29,27,8,-16,-16,-16,-16,-16,-16,-16,-16,-16,-16,-16,-16,-16,-16,-16,-16,-16,-16,-16,-16,-16,22,26,24,23,20,22,25,25,28,30,29,30,32,33,34,35,39,39,42,45,45,50,47,48,48,47,49,49,46,48,44,52,54,56,58,59,61,62,64,66,66,66,68,67,66,67,65,65,63,61,64,60,56,62,69,71,72,76,84,86,87,88,87,86,87,88,84,84,89,100,101,102,104,107,106,106,106,106,107,107,108,108,106,110,118,120,121,125,127,126,127,131,132,131,132,132,133,134,136,136,135,135,138,138,139,138,139,140,143,147,149,150,153,153,155,157,157,157,158,158,161,162,162,165,166,168,171,171,172,173,172,172,173,174,177,176,179,182,-16,-16,-16,-16,-16
-16,-16,-16,-16,-16,-16,-16,-16,-16,-16,-16,-16,-16,-16,-16,-16,-16,-16,-16,-16,-16,-16,-16,-16,-16,-16,-16,-16,-16,-16,-16,-16,-16,-16,-16,-16,-16,-16,-16,-16,-16,-16,-16,-16,-16,-16,-16,-16,-16,-16,-16,62,58,57,57,57,57,57,54,54,44,50,48,51,51,53,50,51,48,49,47,48,47,50,47,50,51,49,49,48,49,49,48,48,47,47,48,48,48,47,48,47,47,48,46,47,47,47,47,46,45,45,45,45,43,42,41,41,43,44,43,44,44,46,50,49,48,53,43,40,40,39,39,36,37,35,34,35,37,35,36,37,36,36,38,40,40,40,41,41,41,42,43,42,41,41,41,39,39,39,37,35,34,31,28,-16,-16,-16,-16,-16,-16,-16,-16,-16,-16,-16,-16,-16,-16,-16,-16,-16,-16,-16,-16,-16,-16,22,26,23,22,18,20,22,23,27,32,30,31,34,34,35,36,39,40,42,45,45,49,47,48,48,48,48,50,47,49,46,53,54,56,57,58,59,62,64,66,66,65,67,66,66,65,64,65,63,61,64,61,-16,65,73,73,74,76,86,88,88,88,87,87,88,89,87,86,89,101,102,102,104,108,107,106,107,107,107,108,109,109,106,110,117,120,122,125,127,126,128,131,133,132,132,132,134,134,136,136,135,135,137,137,138,137,137,138,139,142,144,146,-16,-16,154,157,157,157,159,158,162,162,162,165,166,168,170,170,173,173,173,173,175,175,178,178,180,182,-16,-16,-16,-16,-16
-16,-16,-16,-16,-16,-16,-16,-16,-16,-16,-16,-16,-16,-16,-16,-16,-16,-16,-16,-16,-16,-16,-16,-16,-16,-16,-16,-16,-16,-16,-16,-16,-16,-16,-16,-16,-16,-16,-16,-16,-16,-16,-16,-16,-16,-16,-16,-16,-16,-16,-16,63,58,58,57,57,57,57,54,54,45,50,49,51,52,53,50,51,48,49,47,48,46,50,46,50,51,49,50,49,49,49,48,49,47,47,48,48,48,47,48,47,47,48,46,47,47,47,46,45,45,45,45,45,43,43,42,41,43,44,45,48,48,52,53,53,52,56,56,46,43,42,42,39,41,40,37,37,38,35,37,37,36,36,38,40,40,40,41,41,41,43,43,42,42,41,41,41,41,41,40,37,37,34,-16,-16,-16,-16,-16,-16,-16,-16,-16,-16,-16,-16,-16,-16,-16,-16,-16,-16,-16,-16,-16,-16,-16,22,26,23,22,16,18,17,23,-16,39,35,35,37,37,37,38,40,41,42,45,45,48,47,48,48,48,49,51,48,50,48,54,55,56,57,58,58,61,62,64,64,64,66,65,65,65,64,66,64,61,64,60,-16,65,73,73,74,75,84,87,87,87,87,87,88,89,88,86,90,101,102,102,104,108,106,106,107,107,107,108,109,110,107,110,118,120,122,125,127,126,128,131,133,131,132,132,134,134,136,136,135,134,136,137,138,137,137,137,138,139,141,144,-16,-16,-16,156,156,157,158,158,162,162,163,166,167,169,170,170,172,172,173,173,175,175,178,178,180,182,-16,-16,-16,-16,-16
-16,-16,-16,-16,-16,-16,-16,-16,-16,-16,-16,-16,-16,-16,-16,-16,-16,-16,-16,-16,-16,-16,-16,-16,-16,-16,-16,-16,-16,-16,-16,-16,-16,-16,-16,-16,-16,-16,-16,-16,-16,-16,-16,-16,-16,-16,-16,-16,-16,-16,-16,64,59,58,58,57,58,57,55,55,44,49,48,50,52,52,50,51,49,49,47,48,46,51,46,50,52,49,50,49,49,49,48,49,47,47,48,48,48,47,48,47,46,47,46,46,47,46,46,45,45,45,45,45,43,43,42,42,45,48,50,53,54,56,56,57,57,58,57,52,48,47,45,43,44,42,41,40,40,36,39,38,36,36,38,40,40,41,41,41,42,43,44,43,42,42,42,42,42,42,41,38,39,-16,-16,-16,-16,-16,-16,-16,-16,-16,-16,-16,-16,-16,-16,-16,-16,-16,-16,-16,-16,-16,-16,-16,-16,-16,-16,-16,-16,-16,-16,-16,-16,-16,-16,37,37,38,38,38,39,40,42,42,45,45,49,47,48,49,49,50,52,50,52,52,55,57,58,57,58,58,60,62,62,64,64,66,65,65,65,65,67,66,63,66,63,-16,71,74,73,74,75,82,85,86,87,87,87,88,89,88,87,89,100,101,102,103,107,106,106,107,107,107,108,110,110,107,111,118,121,123,125,127,127,129,131,132,131,132,132,133,133,135,135,133,132,134,133,137,134,135,137,137,138,140,143,-16,-16,153,156,156,156,157,157,160,160,160,163,163,167,169,169,171,171,172,173,174,176,179,-16,-16,182,-16,-16,-16,-16,-16
-16,-16,-16,-16,-16,-16,-16,-16,-16,-16,-16,-16,-16,-16,-16,-16,-16,-16,-16,-16,-16,-16,-16,-16,-16,-16,-16,-16,-16,-16,-16,-16,-16,-16,-16,-16,-16,-16,-16,-16,-16,-16,-16,-16,-16,-16,-16,-16,-16,-16,-16,64,59,59,58,58,58,58,55,56,44,50,49,52,53,53,51,52,50,50,48,48,47,51,45,48,51,49,49,48,49,49,47,50,48,47,48,48,49,47,47,47,46,47,46,46,47,46,46,45,45,45,44,44,43,42,42,44,49,51,53,56,57,58,58,60,59,58,58,55,52,52,50,47,45,44,42,41,43,40,43,40,38,38,39,41,40,41,42,42,42,44,45,44,43,43,42,42,42,42,42,26,-16,-16,-16,-16,-16,-16,-16,-16,-16,-16,-16,-16,-16,-16,-16,-16,-16,-16,-16,-16,-16,-16,-16,-16,-16,-16,-16,-16,-16,-16,-16,-16,-16,-16,-16,39,38,39,39,39,40,41,43,43,45,46,49,48,49,50,51,51,54,53,54,54,57,57,58,58,59,58,60,62,62,64,65,67,66,66,66,67,68,68,66,70,71,75,74,76,75,76,77,83,85,86,87,87,87,88,89,89,87,89,100,100,100,103,106,106,106,107,107,107,108,110,110,107,113,119,122,125,126,127,128,130,132,133,132,133,132,133,133,134,134,132,131,131,127,130,130,132,135,134,137,139,143,149,-16,153,155,156,156,156,156,159,159,158,161,160,165,167,167,170,170,171,174,175,178,180,181,-16,-16,-16,-16,-16,-16,-16
-16,-16,-16,-16,-16,-16,-16,-16,-16,-16,-16,-16,-16,-16,-16,-16,-16,-16,-16,-16,-16,-16,-16,-16,-16,-16,-16,-16,-16,-16,-16,-16,-16,-16,-16,-16,-16,-16,-16,-16,-16,-16,-16,-16,-16,-16,-16,-16,-16,-16,-16,65,60,59,59,58,58,58,56,57,45,52,51,53,54,53,52,52,51,51,49,48,47,50,45,47,49,47,48,47,49,49,47,49,48,48,48,48,49,47,47,47,46,47,46,46,47,46,46,45,45,45,44,44,44,43,45,51,53,54,55,58,58,59,58,58,57,56,56,54,52,52,49,47,46,44,43,42,45,45,48,46,39,40,40,42,41,42,42,42,42,44,44,43,43,43,42,42,42,42,-16,-16,-16,-16,-16,-16,-16,-16,-16,-16,-16,-16,-16,-16,-16,-16,-16,-16,-16,-16,-16,-16,-16,-16,-16,-16,-16,-16,-16,-16,-16,-16,-16,-16,-16,-16,-16,39,39,39,39,39,40,42,44,44,46,48,51,50,51,52,53,53,56,55,55,56,57,58,58,58,59,58,60,61,61,63,66,67,67,66,67,68,69,70,69,73,74,76,76,77,77,77,78,84,86,87,88,88,88,89,90,90,88,89,99,100,100,102,105,105,106,106,107,107,108,110,111,108,114,119,122,125,126,127,128,130,132,133,133,134,132,132,132,133,132,128,128,127,123,124,126,129,132,131,135,137,140,146,-16,151,154,155,155,155,156,159,159,158,161,160,164,165,166,170,170,171,174,175,179,181,181,182,183,-16,-16,-16,-16,-16
-16,-16,-16,-16,-16,-16,-16,-16,-16,-16,-16,-16,-16,-16,-16,-16,-16,-16,-16,-16,-16,-16,-16,-16,-16,-16,-16,-16,-16,-16,-16,-16,-16,-16,-16,-16,-16,-16,-16,-16,-16,-16,-16,-16,-16,-16,-16,-16,-16,-16,-16,64,60,59,59,58,58,58,56,57,49,54,53,55,55,54,52,52,51,51,48,48,47,50,46,47,47,47,48,47,49,49,46,49,48,48,48,48,49,46,47,47,46,46,46,46,47,45,46,45,45,45,44,46,47,45,50,56,56,57,58,60,61,60,58,58,57,57,57,55,53,52,50,49,47,46,45,44,49,51,51,49,40,40,40,41,40,41,41,41,41,43,43,43,42,42,41,39,26,-16,-16,-16,-16,-16,-16,-16,-16,-16,-16,-16,-16,-16,-16,-16,-16,-16,-16,-16,-16,-16,-16,-16,-16,-16,-16,-16,-16,-16,-16,-16,-16,-16,-16,-16,-16,-16,-16,38,39,40,40,40,42,43,46,46,49,52,53,53,54,54,55,55,58,56,56,57,58,58,58,58,59,58,60,62,61,63,65,66,66,66,68,68,70,71,71,74,76,77,79,80,79,79,79,85,88,89,90,90,90,90,91,91,89,89,99,99,100,102,105,105,106,106,107,107,108,110,111,108,115,119,122,125,126,126,127,131,132,132,132,133,131,131,131,131,129,127,128,127,124,125,130,132,132,132,133,135,138,141,141,147,152,153,153,154,155,157,158,157,161,160,165,166,166,170,170,171,174,175,179,181,181,182,183,186,-16,-16,-16,-16
-16,-16,-16,-16,-16,-16,-16,-16,-16,-16,-16,-16,-16,-16,-16,-16,-16,-16,-16,-16,-16,-16,-16,-16,-16,-16,-16,-16,-16,-16,-16,-16,-16,-16,-16,-16,-16,-16,-16,-16,-16,-16,-16,-16,-16,-16,-16,-16,-16,-16,-16,65,60,59,59,58,58,58,57,58,53,56,55,56,56,55,54,54,52,52,49,50,48,51,48,47,50,48,48,49,49,49,47,49,49,49,50,49,49,47,47,47,46,46,45,45,46,45,46,45,45,46,48,51,52,51,56,60,61,62,64,62,63,61,59,59,58,57,57,55,52,51,50,49,48,47,46,44,50,53,52,53,39,39,39,40,40,40,41,40,41,42,44,43,42,42,41,-16,-16,-16,-16,-16,-16,-16,-16,-16,-16,-16,-16,-16,-16,-16,-16,-16,-16,-16,-16,-16,-16,-16,-16,-16,-16,-16,-16,-16,-16,-16,-16,-16,-16,-16,-16,-16,-16,-16,-16,38,39,40,39,40,42,43,46,47,50,53,54,54,55,56,56,57,59,57,57,57,58,58,58,58,59,57,60,62,62,63,65,66,66,66,68,68,71,-16,-16,75,78,78,80,82,81,82,82,87,89,91,92,92,92,91,91,91,89,90,98,99,99,101,105,105,105,106,107,107,108,110,111,109,115,119,122,125,126,127,127,131,132,131,131,132,131,130,129,130,129,127,129,129,125,127,133,134,134,132,132,134,137,139,137,141,145,148,150,151,153,155,156,155,158,157,-16,-16,164,169,170,171,174,175,178,180,181,182,183,185,-16,-16,-16,-16
-16,-16,-16,-16,-16,-16,-16,-16,-16,-16,-16,-16,-16,-16,-16,-16,-16,-16,-16,-16,-16,-16,-16,-16,-16,-16,-16,-16,-16,-16,-16,-16,-16,-16,-16,-16,-16,-16,-16,-16,-16,-16,-16,-16,-16,-16,-16,-16,-16,-16,-16,65,61,60,59,59,59,59,58,58,55,57,57,57,56,55,54,55,54,54,50,51,48,52,-16,-16,-16,47,45,48,47,47,46,49,50,50,51,50,50,47,47,47,46,45,45,45,46,45,46,46,47,49,54,55,56,56,60,65,68,66,66,64,64,63,60,59,58,57,57,54,53,51,50,49,47,47,47,44,48,52,52,53,38,37,38,39,39,40,39,39,39,43,44,43,42,41,-16,-16,-16,-16,-16,-16,-16,-16,-16,-16,-16,-16,-16,-16,-16,-16,-16,-16,-16,-16,-16,-16,-16,-16,-16,-16,-16,-16,-16,-16,-16,-16,-16,-16,-16,-16,-16,-16,-16,-16,-16,36,37,40,39,40,43,46,49,50,52,55,55,56,57,58,58,58,60,58,58,58,59,59,58,59,60,58,61,63,62,63,66,66,66,67,69,69,71,-16,-16,-16,-16,78,80,82,81,82,81,87,89,91,92,92,93,92,93,92,91,91,97,99,98,101,104,104,105,106,107,107,108,110,111,109,115,118,122,125,127,127,128,131,133,131,132,133,131,130,130,131,130,127,130,130,126,128,135,136,135,133,134,135,137,139,138,140,142,144,147,148,150,153,153,154,155,-16,-16,-16,160,-16,169,171,174,174,178,179,180,181,182,184,-16,-16,-16,-16
-16,-16,-16,-16,-16,-16,-16,-16,-16,-16,-16,-16,-16,-16,-16,-16,-16,-16,-16,-16,-16,-16,-16,-16,-16,-16,-16,-16,-16,-16,-16,-16,-16,-16,-16,-16,-16,-16,-16,-16,-16,-16,-16,-16,-16,-16,-16,-16,-16,-16,-16,65,61,60,59,59,59,60,58,59,57,59,59,59,59,56,55,56,55,54,51,52,50,53,-16,-16,-16,48,44,48,44,45,46,49,50,51,52,51,50,48,49,49,47,45,45,45,46,46,49,51,51,55,58,60,61,61,66,68,68,66,66,65,64,63,61,60,58,57,57,54,53,51,49,50,49,49,49,46,-16,54,55,56,35,36,38,39,39,39,39,39,40,43,45,44,41,-16,-16,-16,-16,-16,-16,-16,-16,-16,-16,-16,-16,-16,-16,-16,-16,-16,-16,-16,-16,-16,-16,-16,-16,-16,-16,-16,-16,-16,-16,-16,-16,-16,-16,-16,-16,-16,-16,-16,-16,-16,-16,36,37,40,40,40,45,50,52,53,54,56,56,58,59,60,59,59,61,60,59,60,59,59,59,60,61,59,62,63,61,63,66,66,65,66,69,-16,-16,-16,-16,-16,-16,-16,79,81,80,82,81,86,88,90,91,92,92,92,93,93,93,92,96,98,97,100,103,103,105,106,106,107,107,109,110,109,113,116,119,123,125,126,127,131,133,131,132,133,132,130,131,131,130,128,131,131,128,130,136,137,136,134,134,135,137,138,138,140,141,143,148,151,151,152,153,154,155,-16,-16,-16,-16,-16,166,170,173,173,177,178,179,181,182,183,-16,-16,-16,-16
-16,-16,-16,-16,-16,-16,-16,-16,-16,-16,-16,-16,-16,-16,-16,-16,-16,-16,-16,-16,-16,-16,-16,-16,-16,-16,-16,-16,-16,-16,-16,-16,-16,-16,-16,-16,-16,-16,-16,-16,-16,-16,-16,-16,-16,-16,-16,-16,-16,-16,-16,66,61,59,59,59,60,60,59,60,59,61,61,59,59,56,55,55,54,53,50,52,51,53,-16,53,54,53,46,49,45,45,47,49,51,54,55,54,53,53,54,52,49,45,45,45,49,53,55,57,57,61,65,67,67,69,69,68,68,67,67,65,65,63,61,59,58,56,56,54,52,51,50,51,49,48,51,47,-16,-16,55,-16,32,35,39,35,34,35,35,35,32,-16,41,-16,-16,-16,-16,-16,-16,-16,-16,-16,-16,-16,-16,-16,-16,-16,-16,-16,-16,-16,-16,-16,-16,-16,-16,-16,-16,-16,-16,-16,-16,-16,-16,-16,-16,-16,-16,-16,-16,-16,-16,-16,-16,-16,-16,37,38,42,44,43,52,55,55,56,57,59,59,62,61,62,61,61,63,61,61,62,60,61,60,62,63,61,63,63,62,64,66,65,64,64,69,69,-16,-16,-16,-16,-16,77,-16,80,81,82,81,85,88,90,92,93,93,93,94,94,94,93,96,98,97,100,103,103,104,105,106,106,107,108,109,109,112,115,117,121,122,123,124,129,133,131,131,133,132,130,131,131,131,128,132,131,129,132,137,138,137,135,135,136,138,140,138,140,142,146,150,153,153,154,155,156,157,156,155,-16,-16,-16,158,167,171,172,176,177,178,180,181,183,-16,-16,-16,-16
-16,-16,-16,-16,-16,-16,-16,-16,-16,-16,-16,-16,-16,-16,-16,-16,-16,-16,-16,-16,-16,-16,-16,-16,-16,-16,-16,-16,-16,-16,-16,-16,-16,-16,-16,-16,-16,-16,-16,-16,-16,-16,-16,-16,-16,-16,-16,-16,-16,-16,-16,64,60,59,59,59,60,60,59,60,59,61,61,59,59,57,56,56,55,54,51,52,52,52,55,53,55,53,48,54,-16,46,52,52,56,59,60,61,60,62,66,65,-16,-16,-16,-16,-16,75,74,70,67,68,69,70,69,70,69,69,69,68,68,67,66,65,61,60,58,56,54,51,51,48,46,45,43,28,-16,-16,-16,-16,-16,-16,-16,-16,-16,-16,-16,-16,-16,-16,-16,-16,-16,-16,-16,-16,-16,-16,-16,-16,-16,-16,-16,-16,-16,-16,-16,-16,-16,-16,-16,-16,-16,-16,-16,-16,-16,-16,-16,-16,-16,-16,-16,-16,-16,-16,-16,-16,-16,-16,-16,-16,-16,-16,-16,-16,-16,-16,-16,-16,-16,-16,-16,-16,60,60,61,62,62,64,62,64,62,62,64,63,63,64,62,63,62,64,65,62,64,63,63,65,66,65,64,64,69,69,71,72,-16,74,76,77,78,80,81,83,83,86,89,92,93,94,94,94,95,95,95,95,96,98,97,100,102,103,104,105,106,106,106,107,109,109,111,112,114,118,119,121,122,127,132,130,131,133,132,130,131,131,131,128,132,132,129,132,137,138,137,135,137,137,140,141,140,143,148,153,153,155,156,157,158,159,160,161,160,159,158,164,160,166,171,172,176,177,177,177,180,181,-16,-16,-16,-16
-16,-16,-16,-16,-16,-16,-16,-16,-16,-16,-16,-16,-16,-16,-16,-16,-16,-16,-16,-16,-16,-16,-16,-16,-16,-16,-16,-16,-16,-16,-16,-16,-16,-16,-16,-16,-16,-16,-16,-16,-16,-16,-16,-16,-16,-16,-16,-16,-16,-16,-16,66,61,59,60,59,60,61,60,61,60,62,61,59,58,57,56,55,54,53,50,52,52,52,54,54,56,56,57,60,-16,58,66,63,63,64,65,66,65,66,67,67,68,73,-16,75,75,75,75,72,69,70,71,71,70,71,70,69,70,69,69,67,66,65,61,59,57,55,55,53,53,50,48,47,-16,-16,-16,-16,-16,-16,-16,-16,-16,-16,-16,-16,-16,-16,-16,-16,-16,-16,-16,-16,-16,-16,-16,-16,-16,-16,-16,-16,-16,-16,-16,-16,-16,-16,-16,-16,-16,-16,-16,-16,-16,-16,-16,-16,-16,-16,-16,-16,-16,-16,-16,-16,-16,-16,-16,-16,-16,-16,-16,-16,-16,-16,-16,-16,-16,-16,-16,-16,-16,-16,59,60,61,63,62,64,62,63,62,63,64,64,64,64,63,65,64,66,66,64,64,64,64,65,66,65,63,63,69,69,71,71,71,72,74,76,78,81,83,85,87,89,91,93,94,95,95,95,96,96,96,96,95,97,96,99,100,101,102,104,106,106,106,107,109,110,110,110,113,116,116,119,121,125,132,129,131,133,132,131,131,132,131,129,132,132,130,132,138,138,138,137,137,138,141,143,142,146,151,156,156,159,160,162,163,164,164,164,164,165,165,169,168,167,172,172,175,177,175,175,178,179,-16,-16,-16,-16
-16,-16,-16,-16,-16,-16,-16,-16,-16,-16,-16,-16,-16,-16,-16,-16,-16,-16,-16,-16,-16,-16,-16,-16,-16,-16,-16,-16,-16,-16,-16,-16,-16,-16,-16,-16,-16,-16,-16,-16,-16,-16,-16,-16,-16,-16,-16,-16,-16,-16,-16,68,64,60,60,60,60,61,60,60,60,61,60,58,56,56,56,55,54,53,51,53,54,55,58,59,60,63,63,66,66,65,68,67,65,66,66,67,67,68,67,67,69,73,73,74,75,75,75,72,72,72,72,72,71,71,71,70,70,69,69,67,66,64,60,58,57,56,55,53,52,47,42,-16,-16,-16,-16,-16,-16,-16,-16,-16,-16,-16,-16,-16,-16,-16,-16,-16,-16,-16,-16,-16,-16,-16,-16,-16,-16,-16,-16,-16,-16,-16,-16,-16,-16,-16,-16,-16,-16,-16,-16,-16,-16,-16,-16,-16,-16,-16,-16,-16,-16,-16,-16,-16,-16,-16,-16,-16,-16,-16,-16,-16,-16,-16,-16,-16,-16,-16,-16,-16,-16,-16,58,62,63,64,63,65,62,64,62,64,64,65,65,65,64,66,65,67,66,64,64,64,64,65,65,64,62,62,68,68,69,69,70,70,72,74,76,80,83,86,88,90,92,94,94,95,95,96,96,97,96,96,95,97,96,98,98,101,102,104,106,106,106,107,109,111,111,111,113,115,116,119,120,122,131,128,130,133,133,131,131,132,132,130,133,133,131,132,138,138,138,137,137,138,141,143,142,147,152,158,158,162,162,164,165,166,166,167,167,167,167,170,168,167,170,170,172,172,172,172,174,175,-16,-16,-16,-16
-16,-16,-16,-16,-16,-16,-16,-16,-16,-16,-16,-16,-16,-16,-16,-16,-16,-16,-16,-16,-16,-16,-16,-16,-16,-16,-16,-16,-16,-16,-16,-16,-16,-16,-16,-16,-16,-16,-16,-16,-16,-16,-16,-16,-16,-16,-16,-16,-16,-16,-16,67,67,63,62,60,61,61,60,60,60,60,60,57,56,56,56,54,53,52,51,53,54,-16,-16,62,64,67,65,68,67,67,68,67,66,66,66,68,67,68,68,70,73,75,75,77,77,77,76,76,75,74,73,73,73,73,72,71,71,70,69,67,66,63,61,60,60,58,59,56,57,-16,-16,-16,-16,-16,-16,-16,-16,-16,-16,-16,-16,-16,-16,-16,-16,-16,-16,-16,-16,-16,-16,-16,-16,-16,-16,-16,-16,-16,-16,-16,-16,-16,-16,-16,-16,-16,-16,-16,-16,-16,-16,-16,-16,-16,-16,-16,-16,-16,-16,-16,-16,-16,-16,-16,-16,-16,-16,-16,-16,-16,-16,-16,-16,-16,-16,-16,-16,-16,-16,-16,-16,-16,56,62,63,64,65,67,64,65,63,65,65,67,66,66,64,66,67,68,67,65,65,65,65,65,65,64,62,62,67,67,68,67,69,69,71,73,75,79,83,86,88,90,91,93,93,94,95,95,95,96,96,96,95,97,97,99,98,100,102,104,105,106,106,107,109,111,111,112,113,115,116,118,118,121,129,127,129,133,133,131,132,132,132,130,133,133,131,133,138,138,138,137,137,139,141,144,144,148,152,159,158,162,162,164,164,166,165,166,167,168,169,171,169,168,169,169,170,170,170,171,173,173,-16,-16,-16,-16
-16,-16,-16,-16,-16,-16,-16,-16,-16,-16,-16,-16,-16,-16,-16,-16,-16,-16,-16,-16,-16,-16,-16,-16,-16,-16,-16,-16,-16,-16,-16,-16,-16,-16,-16,-16,-16,-16,-16,-16,-16,-16,-16,-16,-16,-16,-16,-16,-16,-16,-16,68,68,66,63,60,61,61,60,60,60,60,60,58,56,57,56,54,52,52,51,53,56,-16,-16,66,68,69,68,69,69,69,69,68,68,67,67,68,68,70,71,72,75,76,76,77,77,78,77,77,76,75,75,75,74,75,73,72,71,70,69,67,65,64,62,61,60,59,59,47,-16,-16,-16,-16,-16,-16,-16,-16,-16,-16,-16,-16,-16,-16,-16,-16,-16,-16,-16,-16,-16,-16,-16,-16,-16,-16,-16,-16,-16,-16,-16,-16,-16,-16,-16,-16,-16,-16,-16,-16,-16,-16,-16,-16,-16,-16,-16,-16,-16,-16,-16,-16,-16,-16,-16,-16,-16,-16,-16,-16,-16,-16,-16,-16,-16,-16,-16,-16,-16,-16,-16,-16,-16,-16,54,57,58,62,62,68,63,65,63,65,64,68,67,67,65,67,67,68,68,67,66,66,66,66,65,63,62,62,65,64,65,65,66,67,68,69,-16,-16,-16,-16,88,90,91,93,93,94,94,94,94,95,95,95,94,96,96,97,97,99,100,102,104,105,105,107,109,110,112,112,113,116,117,119,118,121,129,127,129,133,133,131,131,132,132,130,132,133,131,132,138,140,139,139,138,140,143,146,145,148,151,158,158,162,162,163,163,165,164,164,165,166,168,171,169,168,170,169,170,170,170,172,173,173,-16,-16,-16,-16
-16,-16,-16,-16,-16,-16,-16,-16,-16,-16,-16,-16,-16,-16,-16,-16,-16,-16,-16,-16,-16,-16,-16,-16,-16,-16,-16,-16,-16,-16,-16,-16,-16,-16,-16,-16,-16,-16,-16,-16,-16,-16,-16,-16,-16,-16,-16,-16,-16,-16,-16,66,64,62,61,59,60,59,58,60,60,60,59,58,57,57,57,55,52,53,52,54,-16,62,65,66,69,70,68,70,69,69,69,69,68,67,67,69,70,71,72,73,75,76,76,77,78,78,78,78,77,76,76,76,76,75,74,73,72,71,69,68,67,66,63,62,61,58,-16,-16,-16,-16,-16,-16,-16,-16,-16,-16,-16,-16,-16,-16,-16,-16,-16,-16,-16,-16,-16,-16,-16,-16,-16,-16,-16,-16,-16,-16,-16,-16,-16,-16,-16,-16,-16,-16,-16,-16,-16,-16,-16,-16,-16,-16,-16,-16,-16,-16,-16,-16,-16,-16,-16,-16,-16,-16,-16,-16,-16,-16,-16,-16,-16,-16,-16,-16,-16,-16,-16,-16,-16,-16,-16,-16,47,40,54,-16,-16,76,67,68,66,67,66,69,67,68,66,67,68,68,68,67,66,67,67,68,67,64,63,62,65,65,66,65,64,64,68,68,70,73,-16,-16,85,89,90,91,91,92,93,93,93,94,94,95,94,96,96,98,98,100,101,103,104,105,105,107,109,110,112,112,113,115,116,118,118,-16,-16,128,129,133,133,131,131,131,131,129,130,131,129,128,137,139,140,140,140,141,144,147,147,149,151,157,157,161,160,162,161,163,162,162,160,166,-16,-16,-16,168,170,170,171,171,172,174,175,176,-16,-16,-16,-16
-16,-16,-16,-16,-16,-16,-16,-16,-16,-16,-16,-16,-16,-16,-16,-16,-16,-16,-16,-16,-16,-16,-16,-16,-16,-16,-16,-16,-16,-16,-16,-16,-16,-16,-16,-16,-16,-16,-16,-16,-16,-16,-16,-16,-16,-16,-16,-16,-16,-16,-16,66,63,61,60,59,59,59,58,60,60,60,60,59,58,58,58,57,54,53,53,54,57,62,65,66,68,70,68,69,69,69,69,70,69,68,68,71,72,73,74,74,75,76,77,78,78,79,78,79,78,77,78,77,77,76,74,73,72,71,71,70,68,68,63,62,-16,-16,-16,-16,-16,-16,-16,-16,-16,-16,-16,-16,-16,-16,-16,-16,-16,-16,-16,-16,-16,-16,-16,-16,-16,-16,-16,-16,-16,-16,-16,-16,-16,-16,-16,-16,-16,-16,-16,-16,-16,-16,-16,-16,-16,-16,-16,-16,-16,-16,-16,-16,-16,-16,-16,-16,-16,-16,-16,-16,-16,-16,-16,-16,-16,-16,-16,-16,-16,-16,-16,-16,-16,-16,-16,-16,-16,-16,51,40,55,-16,70,75,67,68,66,67,66,69,67,67,65,67,68,68,68,67,66,67,67,68,67,66,66,66,67,67,67,67,66,67,69,70,71,74,78,-16,84,87,89,91,91,92,93,93,93,94,94,94,94,95,95,98,98,100,101,103,104,105,105,108,109,111,113,114,114,115,116,118,-16,-16,-16,128,128,132,133,131,131,132,132,130,130,131,130,-16,137,138,137,-16,138,140,145,149,150,152,155,159,161,162,163,165,-16,166,-16,-16,-16,-16,-16,-16,-16,166,170,170,172,172,174,177,178,179,-16,-16,-16,-16
-16,-16,-16,-16,-16,-16,-16,-16,-16,-16,-16,-16,-16,-16,-16,-16,-16,-16,-16,-16,-16,-16,-16,-16,-16,-16,-16,-16,-16,-16,-16,-16,-16,-16,-16,-16,-16,-16,-16,-16,-16,-16,-16,-16,-16,-16,-16,-16,-16,-16,-16,67,65,63,61,59,59,59,58,60,60,60,60,59,58,59,60,58,55,54,54,56,60,65,68,67,69,70,68,69,69,69,70,70,70,71,71,74,74,74,75,75,78,80,78,79,79,80,79,80,80,79,78,78,78,77,75,74,74,73,73,72,70,70,59,-16,-16,-16,-16,-16,-16,-16,-16,-16,-16,-16,-16,-16,-16,-16,-16,-16,-16,-16,-16,-16,-16,-16,-16,-16,-16,-16,-16,-16,-16,-16,-16,-16,-16,-16,-16,-16,-16,-16,-16,-16,-16,-16,-16,-16,-16,-16,-16,-16,-16,-16,-16,-16,-16,-16,-16,-16,-16,-16,-16,-16,-16,-16,-16,-16,-16,-16,-16,-16,-16,-16,-16,-16,-16,-16,-16,-16,-16,-16,-16,38,47,-16,66,72,65,68,68,69,68,70,68,68,67,68,68,68,68,67,66,68,68,69,68,68,68,69,70,70,69,70,69,73,72,73,73,74,80,83,-16,-16,91,93,93,93,94,94,93,94,94,95,94,95,96,98,97,100,100,103,103,105,105,108,111,112,115,114,115,115,117,118,-16,-16,128,129,129,132,134,132,132,133,133,132,132,133,132,-16,-16,-16,-16,-16,-16,139,142,145,148,151,155,160,161,163,165,-16,-16,-16,165,-16,-16,-16,-16,-16,-16,169,170,171,172,173,176,178,180,-16,-16,-16,-16,-16
-16,-16,-16,-16,-16,-16,-16,-16,-16,-16,-16,-16,-16,-16,-16,-16,-16,-16,-16,-16,-16,-16,-16,-16,-16,-16,-16,-16,-16,-16,-16,-16,-16,-16,-16,-16,-16,-16,-16,-16,-16,-16,-16,-16,-16,-16,-16,-16,-16,-16,-16,67,65,64,62,60,59,58,58,60,60,60,59,59,58,59,60,59,56,56,58,60,70,69,71,70,71,71,69,70,70,70,70,71,72,73,74,76,76,77,78,80,82,82,81,81,81,81,81,82,81,79,78,78,78,77,76,76,75,74,74,73,73,-16,-16,-16,-16,-16,-16,-16,-16,-16,-16,-16,-16,-16,-16,-16,-16,-16,-16,-16,-16,-16,-16,-16,-16,-16,-16,-16,-16,-16,-16,-16,-16,-16,-16,-16,-16,-16,-16,-16,-16,-16,-16,-16,-16,-16,-16,-16,-16,-16,-16,-16,-16,-16,-16,-16,-16,-16,-16,-16,-16,-16,-16,-16,-16,-16,-16,-16,-16,-16,-16,-16,-16,-16,-16,-16,-16,-16,-16,-16,-16,-16,-16,-16,-16,-16,-16,-16,-16,-16,70,-16,69,70,67,67,67,68,68,68,67,68,67,69,68,70,69,70,70,72,72,73,73,73,73,74,74,74,74,74,77,80,84,-16,90,92,92,92,93,93,92,93,93,93,93,94,96,97,96,98,98,101,101,104,104,108,111,113,116,115,116,116,117,119,119,121,128,129,130,132,134,133,133,134,134,134,134,135,135,-16,-16,-16,-16,-16,-16,-16,-16,139,140,148,152,156,157,162,164,-16,-16,164,163,160,-16,161,-16,-16,163,167,169,170,171,173,175,177,179,-16,-16,-16,-16,-16
-16,-16,-16,-16,-16,-16,-16,-16,-16,-16,-16,-16,-16,-16,-16,-16,-16,-16,-16,-16,-16,-16,-16,-16,-16,-16,-16,-16,-16,-16,-16,-16,-16,-16,-16,-16,-16,-16,-16,-16,-16,-16,-16,-16,-16,-16,-16,-16,-16,-16,-16,68,65,66,61,60,-16,59,58,60,60,59,59,59,58,59,60,60,57,63,67,71,73,71,72,71,72,72,70,70,70,70,71,72,73,74,75,79,79,82,83,83,84,84,83,83,82,84,82,83,82,81,80,79,79,78,77,77,75,75,75,73,-16,-16,-16,-16,-16,-16,-16,-16,-16,-16,-16,-16,-16,-16,-16,-16,-16,-16,-16,-16,-16,-16,-16,-16,-16,-16,-16,-16,-16,-16,-16,-16,-16,-16,-16,-16,-16,-16,-16,-16,-16,-16,-16,-16,-16,-16,-16,-16,-16,-16,-16,-16,-16,-16,-16,-16,-16,-16,-16,-16,-16,-16,-16,-16,-16,-16,-16,-16,-16,-16,-16,-16,-16,-16,-16,-16,-16,-16,-16,-16,-16,-16,-16,-16,-16,-16,-16,-16,-16,-16,68,63,60,69,65,66,67,67,68,68,67,69,67,70,69,70,70,70,71,73,74,74,74,74,74,75,75,75,75,74,77,80,83,85,89,89,90,90,91,91,91,92,92,92,92,92,95,96,95,96,97,100,100,101,102,107,109,113,116,116,116,117,118,120,121,122,129,128,130,132,133,133,133,133,134,134,134,136,137,136,137,-16,137,-16,-16,-16,-16,-16,135,141,144,-16,-16,156,159,-16,-16,157,158,157,153,157,-16,-16,164,169,170,171,172,174,176,178,180,-16,-16,-16,-16,-16
