<?xml version="1.0"?>
<opencv_storage>
<gps_time_stamp>23192</gps_time_stamp>
<gps_x>-3.5936722755432129e+000</gps_x>
<gps_y>3.2187065482139587e-001</gps_y>
<gps_z>-4.9888846278190613e-001</gps_z>
<image_time_stamp>11164</image_time_stamp>
<depth type_id="opencv-matrix">
  <rows>94</rows>
  <cols>320</cols>
  <dt>s</dt>
  <data>
    0 0 0 0 0 0 0 0 0 0 0 0 0 0 0 0 0 0 0 0 0 0 0 0 0 0 0 0 0 0 0 0 0 0 0 0 0 0 0 0 0 0 0 0 0 0 0 0 0 0 0 0 0 0 0 0 0 0 0 0 0 0 0 0 0 0 0 0 0 443 443 446 446 448 448 448 448 451 448 454 446 448 443 443 440 443 443 443 440 440 438 435 438 443 446 448 448 446 451 454 454 454 454 454 451 454 462 448 451 454 454 451 451 454 451 448 448 446 448 448 0 0 0 0 454 446 448 446 448 446 451 448 457 454 454 457 459 454 446 457 459 448 448 448 443 448 448 454 446 448 451 454 454 465 451 457 454 451 446 448 446 446 451 446 443 446 443 446 448 446 448 446 448 454 454 454 459 459 457 448 451 451 451 448 448 448 448 448 451 451 448 448 451 451 451 448 446 448 446 448 448 448 443 446 446 448 451 454 454 451 454 462 462 468 457 459 457 451 457 448 443 448 446 448 446 446 446 443 446 454 446 446 443 440 440 435 440 438 435 435 440 443 454 459 465 462 462 465 465 462 465 457 457 451 448 451 448 448 448 446 443 446 443 440 438 0 440 0 440 440 435 432 435 438 440 435 435 435 438 438 443 440 446 443 443 443 446 443 440 435 435 432 432 430 440 440 440 443 446 446 446 443 459 443 440 440 435 422 408 406 404 395 393 389 385 0 0 0 0 0
    0 0 0 0 0 0 0 0 0 0 0 0 0 0 0 0 0 0 0 0 0 0 0 0 0 0 0 0 0 0 0 0 0 0 0 0 0 0 0 0 0 0 0 0 0 0 0 0 0 0 0 0 0 0 0 0 0 0 0 0 0 0 0 0 0 0 0 0 0 448 446 448 446 448 448 448 448 448 446 448 440 0 0 0 0 446 443 440 440 440 435 435 438 446 446 451 448 448 454 454 454 454 454 457 454 457 465 448 451 451 454 451 451 451 448 443 446 446 448 448 0 0 0 0 0 448 451 448 451 446 451 448 457 454 454 457 459 454 446 457 459 446 448 448 443 448 448 454 446 448 451 451 454 462 451 454 451 451 446 448 446 448 451 446 446 446 443 446 446 446 446 446 448 454 454 454 459 459 457 448 451 451 451 448 448 448 448 448 451 451 448 451 451 454 451 448 446 448 446 448 448 448 446 446 448 451 451 454 454 454 457 465 465 468 459 462 457 451 454 448 443 446 446 446 446 446 446 443 446 454 446 446 440 440 440 438 443 440 438 438 443 446 457 459 462 462 462 462 462 459 462 457 454 451 448 451 446 446 446 443 443 446 443 440 438 0 440 0 438 438 432 430 432 435 440 435 432 435 438 438 440 438 443 443 443 446 446 443 440 438 435 432 432 430 440 440 440 440 446 446 446 443 459 443 440 440 438 425 413 408 404 395 393 391 385 0 0 0 0 0
    0 0 0 0 0 0 0 0 0 0 0 0 0 0 0 0 0 0 0 0 0 0 0 0 0 0 0 0 0 0 0 0 0 0 0 0 0 0 0 0 0 0 0 0 0 0 0 0 0 0 0 0 0 0 0 0 0 0 0 0 0 0 0 0 0 0 0 0 0 451 446 448 446 446 448 446 446 0 0 0 0 0 0 0 0 0 443 438 438 438 432 435 438 446 443 451 451 448 454 454 454 454 454 454 451 454 465 448 448 454 457 454 454 454 454 448 451 451 454 454 0 0 0 0 0 0 451 448 451 446 451 448 457 454 451 454 454 451 446 454 459 446 448 448 443 448 448 454 446 448 451 451 454 459 451 457 454 454 448 451 448 448 451 448 446 448 443 446 446 446 446 446 448 451 454 457 457 459 454 446 451 451 448 448 448 448 448 448 454 454 451 451 451 454 451 448 446 451 446 448 448 446 443 446 446 451 451 457 454 454 457 468 468 471 462 459 454 448 451 446 443 446 443 446 443 443 446 440 446 451 446 443 440 440 440 438 443 440 440 440 446 448 457 457 459 454 454 457 457 457 457 451 451 451 451 451 448 446 448 443 443 446 443 440 438 440 440 438 438 438 432 430 432 435 438 435 435 435 438 435 438 438 440 440 440 446 446 446 440 438 438 435 432 430 440 440 440 440 446 446 446 443 459 443 440 440 438 425 413 408 404 397 393 391 385 0 0 0 0 0
    0 0 0 0 0 0 0 0 0 0 0 0 0 0 0 0 0 0 0 0 0 0 0 0 0 0 0 0 0 0 0 0 0 0 0 0 0 0 0 0 0 0 0 0 0 0 0 0 0 0 0 0 0 0 0 0 0 0 0 0 0 0 0 0 0 0 0 0 0 454 448 448 446 446 448 446 443 0 0 0 0 0 0 0 0 0 443 0 438 438 432 435 438 446 443 451 451 448 454 454 454 454 451 454 451 454 465 448 448 457 459 459 454 457 457 451 459 462 462 465 0 0 0 0 0 0 0 0 0 0 0 443 451 448 448 451 448 446 443 451 454 443 448 446 443 448 448 451 446 448 454 451 457 462 454 457 459 457 451 454 448 451 454 448 448 448 443 446 446 446 448 448 454 454 457 459 462 462 454 448 451 451 451 448 448 448 448 451 454 454 451 451 451 454 451 448 446 448 443 448 446 446 443 446 446 451 451 459 454 454 457 465 468 471 459 457 448 446 451 446 440 443 440 443 443 443 443 440 443 451 446 446 440 438 440 438 443 440 440 440 443 446 454 454 454 451 451 454 454 454 457 451 451 451 451 451 448 448 448 443 443 446 443 440 438 440 440 438 440 440 432 432 432 435 438 435 435 435 438 435 435 435 438 440 438 446 446 446 443 440 438 438 435 432 440 440 440 440 446 446 443 443 459 440 435 435 432 422 408 406 402 397 395 393 385 0 0 0 0 0
    0 0 0 0 0 0 0 0 0 0 0 0 0 0 0 0 0 0 0 0 0 0 0 0 0 0 0 0 0 0 0 0 0 0 0 0 0 0 0 0 0 0 0 0 0 0 0 0 0 0 0 0 0 0 0 0 0 0 0 0 0 0 0 0 0 0 0 0 0 457 448 451 448 446 448 448 443 0 0 0 0 0 0 0 0 0 0 0 435 438 432 438 438 0 0 0 448 448 454 454 451 451 451 454 451 454 462 446 448 454 0 457 451 454 457 454 0 465 468 471 471 0 0 0 0 0 0 0 0 0 0 0 0 0 0 446 443 440 440 451 454 443 448 446 446 448 448 451 446 448 454 451 457 459 451 457 462 459 454 457 454 457 459 457 454 451 443 448 446 448 451 451 459 459 462 465 468 468 459 451 454 451 451 451 451 448 448 451 454 451 448 448 451 451 448 446 443 448 443 448 446 446 443 446 448 454 454 459 454 454 457 465 465 468 451 448 443 443 446 443 440 443 440 443 443 443 446 443 446 451 446 446 440 440 440 438 443 440 440 440 440 446 451 454 451 451 451 451 454 454 457 451 451 451 451 451 448 446 446 443 443 446 440 440 438 440 440 440 440 443 435 435 435 443 446 440 438 438 440 438 438 438 438 440 438 446 446 446 443 440 440 440 438 435 440 440 440 440 443 443 443 443 459 438 432 432 432 420 411 406 404 397 395 393 385 0 0 0 0 0
    0 0 0 0 0 0 0 0 0 0 0 0 0 0 0 0 0 0 0 0 0 0 0 0 0 0 0 0 0 0 0 0 0 0 0 0 0 0 0 0 0 0 0 0 0 0 0 0 0 0 0 0 0 0 0 0 0 0 0 0 0 0 0 0 0 0 0 0 0 459 451 454 0 446 448 446 0 0 0 0 0 0 0 366 364 362 0 0 0 0 430 0 0 0 0 0 448 448 451 451 451 451 451 451 448 451 457 443 0 0 454 0 0 448 451 0 0 0 471 477 0 0 0 0 0 0 0 0 0 0 0 0 0 0 0 0 438 432 438 446 448 440 446 446 446 446 448 451 446 446 457 451 454 459 448 451 0 459 457 459 459 471 468 468 465 459 446 448 446 448 454 454 465 465 465 0 474 477 465 454 459 454 457 451 454 451 448 448 448 446 446 443 446 446 443 443 440 448 443 448 446 448 446 448 451 459 459 465 459 459 457 465 465 459 443 443 438 438 443 443 440 440 440 443 443 443 446 443 446 451 446 448 443 440 443 440 440 443 440 440 440 443 448 451 451 451 448 451 454 454 454 448 448 451 448 451 448 446 446 443 443 443 440 440 438 440 440 440 443 446 435 435 440 443 446 443 438 438 443 440 440 440 440 440 440 448 446 446 443 443 440 440 438 435 440 443 440 440 443 443 443 443 459 435 430 430 430 420 411 406 404 399 397 395 385 0 0 0 0 0
    0 0 0 0 0 0 0 0 0 0 0 0 0 0 0 0 0 0 0 0 0 0 0 0 0 0 0 0 0 0 0 0 0 0 0 0 0 0 0 0 0 0 0 0 0 0 0 0 0 0 0 0 0 0 0 0 0 0 0 0 0 0 0 0 0 0 0 0 0 0 0 0 0 0 0 0 0 0 0 0 0 0 362 362 360 359 360 359 359 0 0 0 0 0 0 0 448 448 451 448 448 448 448 451 446 448 0 0 0 0 0 0 0 0 0 0 0 0 0 0 0 0 0 352 350 347 0 0 0 0 0 0 0 0 0 0 0 406 0 440 440 438 440 443 443 446 448 448 446 446 0 451 454 459 448 0 0 0 0 0 471 484 474 477 471 468 446 448 446 448 454 454 465 465 0 0 0 0 468 459 462 454 459 454 454 451 448 448 446 443 443 440 440 440 440 438 438 446 443 446 446 448 446 451 457 462 465 0 0 0 462 471 468 457 443 440 435 438 440 440 440 440 440 443 443 443 446 443 446 451 448 454 448 446 448 446 443 446 443 443 440 443 448 451 448 451 451 454 457 457 457 448 448 448 448 448 446 443 443 440 440 443 440 440 438 440 438 440 440 443 432 432 0 438 443 443 435 438 443 440 440 440 443 443 440 448 446 446 443 443 440 440 438 435 443 443 443 443 443 443 443 443 462 435 427 430 427 420 411 406 406 402 399 395 387 0 0 0 0 0
    0 0 0 0 0 0 0 0 0 0 0 0 0 0 0 0 0 0 0 0 0 0 0 0 0 0 0 0 0 0 0 0 0 0 0 0 0 0 0 0 0 0 0 0 0 0 0 0 0 0 0 0 0 0 0 0 0 0 0 0 0 0 0 0 0 0 0 0 0 0 0 0 75 0 0 0 0 0 0 0 359 357 357 359 357 357 357 357 355 0 0 0 0 0 0 0 0 0 448 446 446 446 446 446 440 0 0 0 364 360 355 353 352 345 0 0 0 0 0 359 355 353 355 352 353 348 350 0 0 0 0 0 0 0 0 0 0 0 364 0 0 408 435 438 0 0 0 0 0 0 0 0 0 0 0 0 0 0 0 0 484 490 484 484 477 477 446 448 446 446 454 454 468 465 0 0 0 0 0 0 462 454 459 454 454 451 448 446 446 440 440 438 438 435 438 435 438 443 440 446 443 448 443 451 457 465 0 0 0 0 462 468 465 457 443 438 432 435 435 435 440 440 440 443 443 443 448 446 448 454 454 462 457 457 457 454 451 454 446 446 0 0 446 448 448 451 451 454 459 459 457 451 448 446 446 448 446 440 440 440 440 443 443 440 438 438 438 438 438 435 432 430 435 435 440 440 435 435 440 438 435 435 438 438 438 446 443 443 446 443 440 440 440 435 440 443 440 440 440 443 440 440 457 435 425 427 425 422 413 408 406 404 402 395 389 0 0 0 0 0
    0 0 0 0 0 0 0 0 0 0 0 0 0 0 0 0 0 0 0 0 0 0 0 0 0 0 0 0 0 0 0 0 0 0 0 0 0 0 0 0 0 0 0 0 0 0 0 0 0 0 0 0 0 0 0 0 0 0 0 0 0 0 0 0 0 0 0 0 0 0 0 0 0 0 0 0 0 348 353 353 353 353 355 357 355 353 353 355 353 355 355 0 0 0 0 0 0 0 0 0 0 0 0 0 0 0 0 0 360 359 348 347 347 343 0 0 0 0 0 359 355 353 355 353 355 350 350 0 350 350 353 350 350 348 347 359 360 362 362 360 364 373 0 0 0 0 0 0 0 0 0 0 0 0 0 0 0 0 0 0 0 500 490 490 484 484 451 448 446 0 457 451 471 0 0 0 0 165 0 0 465 454 459 454 454 451 446 446 443 440 438 0 0 432 432 432 435 440 438 443 443 446 440 0 0 0 0 0 100 0 0 468 459 448 438 432 430 430 432 432 435 435 438 443 443 443 446 446 448 451 454 465 465 465 468 465 454 457 443 0 0 0 0 446 446 448 0 451 457 457 454 448 443 443 443 446 446 440 440 440 440 443 443 443 438 440 440 440 440 435 432 430 0 0 432 0 0 420 435 430 427 422 425 422 432 443 446 446 448 446 443 446 443 438 440 440 440 438 438 440 438 438 448 432 422 425 425 422 413 406 406 404 402 395 389 0 0 0 0 0
    0 0 0 0 0 0 0 0 0 0 0 0 0 0 0 0 0 0 0 0 0 0 0 0 0 0 0 0 0 0 0 0 0 0 0 0 0 0 0 0 0 0 0 0 0 0 0 0 0 0 0 0 0 0 0 0 0 0 0 0 0 0 0 0 0 0 0 0 0 345 0 0 0 345 0 0 350 348 353 352 352 353 352 355 353 353 352 353 352 353 353 355 348 347 348 353 347 0 0 343 345 352 355 357 357 359 357 359 359 357 347 345 345 345 0 0 0 0 0 359 355 355 355 353 355 352 352 352 352 352 355 350 353 353 350 355 359 359 360 357 362 364 362 364 362 359 0 0 0 0 0 0 352 0 355 352 345 345 343 0 0 0 0 0 0 0 0 0 0 0 0 0 0 0 0 0 0 164 165 165 0 459 465 457 457 451 446 0 0 0 0 0 0 0 0 425 430 438 432 0 0 0 0 0 0 0 0 0 0 0 0 0 451 435 432 427 422 422 427 425 427 0 430 0 438 438 443 0 446 446 451 465 468 468 471 0 451 0 0 0 0 307 0 0 0 0 0 0 454 457 451 446 443 443 443 446 443 438 440 440 443 446 446 446 440 440 440 440 440 435 430 0 0 0 0 0 0 0 0 0 0 415 418 413 404 443 448 448 451 448 446 451 446 438 440 440 440 435 435 438 435 435 443 432 422 425 425 422 411 404 404 404 402 395 389 0 0 0 0 0
    0 0 0 0 0 0 0 0 0 0 0 0 0 0 0 0 0 0 0 0 0 0 0 0 0 0 0 0 0 0 0 0 0 0 0 0 0 0 0 0 0 0 0 0 0 0 0 0 0 0 0 0 0 0 0 0 0 0 0 0 0 0 0 0 0 0 0 0 0 345 347 345 347 345 347 348 347 348 353 350 350 352 350 353 352 352 350 352 352 352 352 355 348 350 350 355 348 352 348 347 347 352 352 353 352 353 353 355 355 355 345 345 345 345 0 80 0 0 355 359 355 355 357 355 355 352 353 352 352 352 355 352 355 355 350 355 357 357 359 355 359 359 359 360 359 355 355 359 357 355 350 350 350 350 350 348 345 345 343 347 347 0 348 0 0 0 0 0 0 201 0 0 0 0 0 0 0 164 165 0 0 0 468 459 0 451 0 0 357 360 357 0 0 0 0 0 0 0 0 0 0 352 350 352 345 350 347 348 350 352 353 355 353 0 425 420 413 411 413 0 0 0 0 0 0 0 0 0 0 0 0 0 0 0 0 336 0 0 330 331 322 0 0 0 0 0 0 0 454 454 451 0 443 440 440 446 443 438 0 0 443 446 446 448 440 446 446 446 448 0 0 0 0 0 0 0 0 0 0 0 0 411 415 418 408 443 443 443 448 443 446 451 446 438 440 440 440 435 435 435 435 435 440 432 422 425 425 420 411 404 404 404 402 395 389 0 0 0 0 0
    0 0 0 0 0 0 0 0 0 0 0 0 0 0 0 0 0 0 0 0 0 0 0 0 0 0 0 0 0 0 0 0 0 0 0 0 0 0 0 0 0 0 0 0 0 0 0 0 0 0 0 0 0 0 0 0 0 0 0 0 0 0 0 0 0 0 0 0 0 345 347 345 345 345 347 348 347 348 355 350 350 352 348 352 350 350 350 352 350 352 350 355 348 352 350 353 350 350 350 348 347 350 350 352 350 350 352 352 353 353 347 347 347 347 0 0 0 350 353 357 353 355 355 355 355 352 355 352 352 352 353 350 355 355 350 352 357 357 357 353 357 355 355 357 355 352 350 355 353 352 350 350 350 350 348 348 345 345 343 345 343 343 345 347 348 350 355 0 0 0 0 0 0 0 0 0 0 0 0 0 0 0 0 0 0 0 353 350 352 355 355 0 353 357 355 355 0 362 353 352 352 353 350 352 345 350 347 347 350 350 350 353 352 362 0 413 406 402 0 0 0 0 0 0 0 0 0 0 0 0 0 0 0 0 343 339 340 340 336 340 331 0 0 0 0 0 0 0 0 0 0 0 0 0 0 446 440 435 0 0 0 443 446 448 440 448 0 0 0 0 0 350 0 0 0 0 0 0 0 0 0 0 0 404 0 0 440 0 0 0 0 0 0 0 438 438 438 432 432 432 432 432 438 430 422 425 425 422 413 406 406 404 402 393 389 0 0 0 0 0
    0 0 0 0 0 0 0 0 0 0 0 0 0 0 0 0 0 0 0 0 0 0 0 0 0 0 0 0 0 0 0 0 0 0 0 0 0 0 0 0 0 0 0 0 0 0 0 0 0 0 0 0 0 0 0 0 0 0 0 0 0 0 0 0 0 0 0 0 0 345 345 347 345 347 348 348 347 348 353 350 350 352 347 352 350 350 350 350 350 352 350 355 348 352 350 353 350 352 350 348 348 350 350 352 350 350 352 352 353 355 350 350 348 347 350 0 353 350 353 355 353 355 355 355 355 353 355 352 352 352 352 350 353 353 348 350 353 353 353 352 353 350 352 353 352 348 347 350 350 350 348 350 350 350 348 348 347 347 345 347 343 343 345 347 348 348 352 352 0 0 348 343 0 0 0 0 0 230 227 226 227 226 0 345 345 348 350 348 350 352 352 353 353 357 355 355 359 362 355 353 353 357 352 352 345 350 347 347 350 350 348 352 350 360 359 0 371 0 360 362 359 0 0 0 0 0 79 79 0 0 0 0 0 353 343 342 342 343 342 342 340 343 343 347 345 0 343 343 343 343 343 0 0 0 352 0 0 0 0 0 0 0 446 446 435 0 0 0 0 0 353 348 0 0 0 0 0 353 357 0 0 0 0 0 373 0 0 0 0 0 340 342 352 352 359 435 432 425 430 430 430 430 435 430 425 430 427 427 418 406 408 404 402 393 389 0 0 0 0 0
    0 0 0 0 0 0 0 0 0 0 0 0 0 0 0 0 0 0 0 0 0 0 0 0 0 0 0 0 0 0 0 0 0 0 0 0 0 0 0 0 0 0 0 0 0 0 0 0 0 0 0 0 0 0 0 0 0 0 0 0 0 0 0 0 0 0 0 0 0 345 347 347 347 348 348 350 348 348 355 350 350 353 347 352 350 350 350 350 350 352 350 355 348 352 350 353 350 352 352 350 348 352 350 352 352 352 353 353 355 357 352 352 348 347 348 347 352 350 353 355 352 355 353 355 355 353 355 350 350 352 350 350 352 352 348 350 353 353 353 352 355 350 352 353 352 347 347 348 347 347 347 348 350 350 348 350 350 350 348 348 345 345 345 347 348 347 350 352 352 353 352 350 348 0 0 0 342 0 0 0 0 0 345 345 345 348 350 348 348 350 352 353 352 355 353 352 357 360 355 355 353 359 355 352 345 350 348 348 350 350 348 350 352 359 355 360 364 360 355 359 355 0 0 0 0 0 0 78 0 0 0 352 348 348 343 343 345 345 343 343 343 347 347 348 347 347 345 347 347 345 347 350 348 0 352 353 0 367 359 0 0 0 0 448 0 0 0 0 0 352 352 347 348 0 0 348 0 350 353 355 0 364 0 364 366 357 0 0 347 345 343 343 350 350 353 357 0 0 422 425 422 427 435 432 0 438 0 446 427 413 413 406 402 391 391 0 0 0 0 0
    0 0 0 0 0 0 0 0 0 0 0 0 0 0 0 0 0 0 0 0 0 0 0 0 0 0 0 0 0 0 0 0 0 0 0 0 0 0 0 0 0 0 0 0 0 0 0 0 0 0 0 0 0 0 0 0 0 0 0 0 0 0 0 0 0 0 0 0 0 347 348 348 348 350 350 352 350 350 355 352 348 353 347 352 350 350 350 352 352 352 350 355 348 352 350 353 352 352 352 352 350 352 352 353 353 353 355 353 355 357 353 352 348 347 347 347 352 350 352 353 352 355 353 355 355 353 355 352 352 352 348 350 352 352 350 350 353 353 353 352 355 350 352 353 352 347 345 347 347 345 347 348 350 350 350 350 352 352 350 350 347 345 345 345 347 347 347 348 348 353 352 353 353 348 350 347 347 0 0 0 350 348 350 348 347 350 352 348 350 350 350 350 348 352 352 350 353 355 353 353 353 359 355 352 345 352 348 348 350 350 350 350 352 359 353 359 360 357 350 357 355 355 0 352 350 0 355 357 352 353 350 350 348 347 345 345 345 347 345 345 347 347 348 348 348 347 347 347 348 345 345 348 348 0 0 0 359 360 357 348 0 0 0 0 0 0 0 0 359 348 348 347 348 347 350 348 350 350 355 357 362 362 366 360 362 355 355 352 348 347 345 345 350 348 352 353 360 364 0 413 408 418 432 432 0 0 0 0 0 0 0 406 402 389 389 0 0 0 0 0
    0 0 0 0 0 0 0 0 0 0 0 0 0 0 0 0 0 0 0 0 0 0 0 0 0 0 0 0 0 0 0 0 0 0 0 0 0 0 0 0 0 0 0 0 0 0 0 0 0 0 0 0 0 0 0 0 0 0 0 0 0 0 0 0 0 0 0 0 0 347 350 350 350 352 352 352 352 352 355 352 348 353 347 352 350 350 350 352 352 353 350 355 348 353 352 353 352 353 353 352 350 353 353 355 355 355 355 355 357 357 353 353 350 348 348 348 352 352 353 355 352 355 353 355 355 353 355 352 352 352 348 350 353 352 350 350 353 353 353 353 355 350 353 353 353 347 343 347 347 343 347 347 348 350 350 350 353 353 352 352 348 347 345 347 348 347 348 350 348 353 352 352 353 350 350 348 348 348 348 348 353 352 355 350 348 350 352 347 348 348 348 348 348 350 350 350 353 353 350 352 352 357 355 350 345 352 350 350 352 352 350 350 352 359 353 357 359 355 352 357 355 355 353 352 352 355 353 357 352 352 350 350 350 347 347 347 347 348 347 347 348 348 348 347 348 347 347 347 347 343 345 347 347 0 0 0 350 350 348 345 345 348 345 343 345 0 0 0 350 347 345 345 347 347 350 350 352 353 357 357 362 360 366 359 359 348 347 348 347 345 343 343 348 347 348 352 355 359 359 0 0 404 422 422 0 0 0 0 0 333 0 0 397 385 387 0 0 0 0 0
    0 0 0 0 0 0 0 0 0 0 0 0 0 0 0 0 0 0 0 0 0 0 0 0 0 0 0 0 0 0 0 0 0 0 0 0 0 0 0 0 0 0 0 0 0 0 0 0 0 0 0 0 0 0 0 0 0 0 0 0 0 0 0 0 0 0 0 0 0 348 350 352 352 353 352 352 352 350 353 352 348 353 347 353 350 350 350 352 352 353 352 355 350 353 352 355 353 355 353 352 352 353 353 355 355 355 355 353 355 357 352 353 350 350 348 350 353 353 353 355 352 355 353 355 353 353 355 350 352 352 348 352 353 352 350 350 353 353 353 353 353 350 353 353 353 347 343 347 345 343 347 347 347 350 350 352 355 353 352 352 348 348 348 348 350 350 350 352 350 353 353 352 353 350 350 348 348 348 348 348 353 352 355 350 348 352 352 347 350 350 348 348 348 350 350 348 353 352 348 350 350 355 353 348 345 352 350 348 352 350 350 350 352 359 353 357 357 355 352 357 357 357 355 353 353 355 353 357 352 352 350 350 352 347 348 348 348 350 348 348 348 348 348 347 348 347 347 347 347 343 345 347 347 345 345 345 345 345 345 343 343 345 343 343 343 345 345 345 347 345 343 343 347 347 348 350 352 352 352 350 353 348 357 348 347 342 342 345 345 345 342 343 347 347 348 350 350 353 353 362 366 0 0 0 0 0 0 0 0 334 333 331 0 0 373 0 0 0 0 0
    0 0 0 0 0 0 0 0 0 0 0 0 0 0 0 0 0 0 0 0 0 0 0 0 0 0 0 0 0 0 0 0 0 0 0 0 0 0 0 0 0 0 0 0 0 0 0 0 0 0 0 0 0 0 0 0 0 0 0 0 0 0 0 0 0 0 0 0 0 348 352 352 352 353 353 353 353 352 352 350 348 355 347 353 350 352 352 352 353 353 352 355 350 353 352 353 353 353 352 352 353 353 353 355 357 355 355 355 357 357 352 353 350 350 350 350 353 353 353 357 352 355 353 355 353 353 357 352 353 355 350 353 355 353 352 352 353 353 352 353 353 350 353 355 352 347 343 0 0 0 347 348 348 350 350 352 357 353 352 352 348 348 348 348 350 352 352 353 352 355 353 353 353 350 350 348 348 348 348 350 353 352 355 350 350 353 353 347 350 350 348 348 347 350 350 348 353 350 350 350 350 353 353 348 345 352 350 348 352 352 350 350 352 359 353 357 357 355 352 357 357 357 355 352 352 353 353 357 352 352 350 352 352 348 348 348 348 350 347 347 348 348 348 347 348 348 347 347 348 345 345 347 347 345 345 345 345 345 345 345 343 347 345 343 345 345 345 345 347 345 345 343 347 347 348 348 350 350 348 347 347 343 345 342 340 340 340 343 343 345 342 343 347 347 347 348 348 350 350 359 364 362 0 371 362 347 0 339 340 336 336 340 343 347 352 0 0 0 0 0
    0 0 0 0 0 0 0 0 0 0 0 0 0 0 0 0 0 0 0 0 0 0 0 0 0 0 0 0 0 0 0 0 0 0 0 0 0 0 0 0 0 0 0 0 0 0 0 0 0 0 0 0 0 0 0 0 0 0 0 0 0 0 0 0 0 0 0 0 0 348 352 352 352 355 355 353 353 353 353 352 348 353 347 353 350 352 352 352 353 355 352 357 350 353 352 352 353 353 350 352 353 353 353 355 357 357 355 355 357 357 353 353 352 350 348 350 353 353 353 357 353 355 353 357 353 355 357 353 355 355 350 355 355 353 352 352 353 353 352 355 352 350 355 355 352 347 345 0 0 0 348 348 353 352 352 352 357 353 352 352 347 348 350 350 352 353 353 355 352 355 352 352 352 352 350 348 347 348 348 350 353 352 353 348 350 353 352 345 348 348 348 350 347 350 350 350 353 352 350 350 350 353 353 348 345 352 350 348 352 352 350 350 352 359 352 357 359 355 352 357 357 355 353 352 352 353 352 355 350 352 350 352 353 348 348 348 348 350 347 347 348 348 348 347 348 348 347 347 348 345 345 347 347 345 345 345 345 345 345 345 343 345 343 343 343 345 345 345 347 345 345 343 347 347 348 348 350 348 348 347 345 342 343 339 339 339 340 342 343 345 342 343 347 347 347 348 347 348 348 357 359 355 362 362 357 347 347 342 342 337 340 342 343 345 345 0 0 0 0 0
    0 0 0 0 0 0 0 0 0 0 0 0 0 0 0 0 0 0 0 0 0 0 0 0 0 0 0 0 0 0 0 0 0 0 0 0 0 0 0 0 0 0 0 0 0 0 0 0 0 0 0 0 0 0 0 0 0 0 0 0 0 0 0 0 0 0 0 0 0 348 352 353 352 355 355 355 355 353 353 352 348 353 347 352 350 352 352 350 353 355 352 357 350 353 352 352 353 353 350 350 352 353 353 355 355 357 355 355 357 357 352 353 350 350 348 350 352 353 353 357 353 357 353 357 355 357 359 355 357 357 350 357 357 353 352 352 353 353 352 355 352 352 357 355 352 348 347 0 0 0 0 348 357 353 355 353 359 357 355 353 350 352 353 352 355 355 355 357 353 355 352 350 352 352 350 348 348 350 350 352 355 353 353 347 350 352 350 345 348 348 350 350 348 350 352 352 355 353 352 350 350 353 353 348 345 350 350 348 352 352 352 350 352 357 352 355 357 353 352 355 355 353 352 350 350 352 352 353 348 350 350 352 353 348 350 350 348 350 347 347 348 348 348 347 348 348 348 348 350 345 345 348 348 345 345 345 345 345 347 345 345 345 343 343 343 345 345 345 345 345 345 345 345 347 347 348 348 348 347 347 345 343 343 340 340 340 342 343 343 345 343 345 347 347 347 348 347 348 350 355 357 353 360 360 357 350 350 343 342 339 340 343 343 343 343 0 0 0 0 0
    0 0 0 0 0 0 0 0 0 0 0 0 0 0 0 0 0 0 0 0 0 0 0 0 0 0 0 0 0 0 0 0 0 0 0 0 0 0 0 0 0 0 0 0 0 0 0 0 0 0 0 0 0 0 0 0 0 0 0 0 0 0 0 0 0 0 0 0 0 348 352 353 352 355 357 355 355 355 353 352 348 353 347 352 350 352 352 350 353 355 353 357 352 353 352 352 353 352 348 350 352 352 352 353 355 355 353 353 355 353 348 350 348 348 348 350 352 352 353 357 352 357 353 357 357 357 359 355 357 359 350 357 357 352 352 352 353 353 352 355 352 350 357 355 352 350 348 352 0 0 0 352 359 357 359 355 360 359 359 357 353 357 357 355 359 359 359 359 355 355 350 350 352 352 350 348 348 348 350 352 353 350 350 347 350 352 350 345 348 348 350 350 348 352 352 352 357 353 352 352 350 353 353 348 345 350 348 348 350 350 352 350 352 357 350 355 355 352 350 352 353 352 350 348 348 350 350 353 348 350 350 353 355 348 352 350 350 352 347 347 348 348 348 347 348 350 348 350 350 347 347 348 348 345 345 345 347 345 347 347 347 347 345 345 345 345 345 345 347 345 345 345 345 347 347 348 348 348 347 345 343 342 342 339 340 340 342 343 345 345 343 345 347 347 348 348 348 348 350 357 357 355 360 360 359 353 352 345 342 339 340 343 343 343 342 0 0 0 0 0
    0 0 0 0 0 0 0 0 0 0 0 0 0 0 0 0 0 0 0 0 0 0 0 0 0 0 0 0 0 0 0 0 0 0 0 0 0 0 0 0 0 0 0 0 0 0 0 0 0 0 0 0 0 0 0 0 0 0 0 0 0 0 0 0 0 0 0 0 0 350 353 355 355 357 357 357 357 355 353 352 348 352 348 352 350 352 352 350 353 355 353 357 352 353 353 353 353 352 348 348 352 352 352 353 353 355 352 352 352 350 347 348 347 348 348 348 352 352 353 357 353 357 353 357 357 357 359 355 357 359 350 357 357 352 353 353 353 353 352 353 352 350 357 355 350 348 348 352 359 352 0 0 0 359 359 357 360 359 357 359 355 359 359 357 359 360 359 359 355 355 350 350 352 350 348 347 347 348 348 348 348 348 348 345 348 350 348 345 350 350 350 350 348 350 352 352 357 353 352 350 348 352 352 347 345 348 348 348 350 350 352 348 352 357 350 355 355 350 348 350 352 352 350 348 348 350 350 353 350 350 352 353 355 350 353 350 350 352 345 345 348 348 348 345 348 348 348 348 350 345 345 347 348 345 345 345 347 345 348 348 348 348 347 345 345 345 345 345 345 345 345 345 345 348 348 348 348 348 347 345 343 0 342 339 340 340 342 343 345 345 343 345 347 347 348 348 348 348 350 357 357 357 360 360 360 355 353 347 340 340 342 343 343 343 342 0 0 0 0 0
    0 0 0 0 0 0 0 0 0 0 0 0 0 0 0 0 0 0 0 0 0 0 0 0 0 0 0 0 0 0 0 0 0 0 0 0 0 0 0 0 0 0 0 0 0 0 0 0 0 0 0 0 0 0 0 0 0 0 0 0 0 0 0 0 0 0 0 0 0 353 357 357 355 359 359 357 357 355 352 350 348 352 347 352 350 350 350 350 353 355 353 355 352 353 352 352 353 352 348 348 352 350 352 352 352 353 352 352 352 350 347 350 347 348 348 350 352 353 353 359 353 359 357 359 359 357 359 355 355 359 350 357 357 352 352 353 353 353 352 353 352 350 355 355 350 350 348 353 360 355 0 0 0 0 359 355 359 359 355 359 357 359 360 359 360 360 359 360 357 355 348 348 348 348 347 345 345 347 347 347 347 347 348 347 350 350 348 345 350 350 350 350 347 350 350 350 355 352 350 350 348 348 350 345 345 348 348 348 350 350 353 348 352 357 350 355 355 350 350 348 352 352 350 348 348 350 350 353 350 350 352 353 355 348 353 350 350 350 345 345 348 348 347 345 348 348 347 348 350 345 345 347 348 345 345 345 347 345 347 348 348 348 347 347 345 345 345 345 345 345 343 345 345 348 348 348 348 350 347 347 343 343 342 339 340 340 342 343 345 345 343 347 347 347 348 348 348 348 350 357 355 357 360 360 360 357 355 350 342 342 342 343 343 343 342 0 0 0 0 0
    0 0 0 0 0 0 0 0 0 0 0 0 0 0 0 0 0 0 0 0 0 0 0 0 0 0 0 0 0 0 0 0 0 0 0 0 0 0 0 0 0 0 0 0 0 0 0 0 0 0 0 0 0 0 0 0 0 0 0 0 0 0 0 0 0 0 0 0 0 350 353 357 353 355 357 353 355 352 350 348 347 350 347 350 350 350 350 350 352 353 353 355 350 353 352 352 353 352 348 350 352 352 352 353 352 353 352 352 352 350 347 350 348 350 350 350 353 353 355 359 355 360 359 359 360 357 359 353 355 357 348 355 355 352 352 353 355 353 352 353 352 350 355 353 350 348 348 353 360 357 0 0 0 0 359 355 359 357 352 357 355 359 360 359 360 360 359 360 357 355 348 348 348 348 345 343 347 347 347 348 348 350 352 350 353 353 350 345 352 350 352 350 347 350 350 350 355 350 348 348 348 348 350 345 345 348 348 348 350 350 353 350 353 357 350 355 353 350 350 348 352 350 350 347 347 348 350 352 348 348 350 352 355 348 353 350 348 350 345 345 347 348 347 345 348 348 347 350 350 347 345 347 348 345 345 345 347 345 347 350 348 348 348 347 347 345 347 345 345 345 345 347 347 348 348 348 350 350 347 347 343 343 343 340 340 340 342 343 345 345 343 347 347 347 348 348 348 348 350 357 353 357 359 359 359 357 355 352 342 342 342 343 343 342 342 0 0 0 0 0
    0 0 0 0 0 0 0 0 0 0 0 0 0 0 0 0 0 0 0 0 0 0 0 0 0 0 0 0 0 0 0 0 0 0 0 0 0 0 0 0 0 0 0 0 0 0 0 0 0 0 0 0 0 0 0 0 0 0 0 0 0 0 0 0 0 0 0 0 0 348 350 353 352 353 353 352 352 350 348 347 345 348 347 350 350 350 350 348 352 353 353 355 350 352 352 350 352 352 348 350 352 352 352 353 353 355 352 353 352 350 347 350 347 348 350 348 352 353 355 359 357 359 359 359 362 357 359 352 353 355 348 355 355 352 352 353 355 353 352 353 350 350 353 353 348 348 348 352 359 355 0 0 0 0 0 357 357 357 352 357 353 359 359 357 360 360 359 360 359 357 348 348 348 348 347 345 347 348 348 350 352 352 355 353 357 357 352 347 352 350 352 350 348 350 350 352 355 350 350 348 348 347 348 345 345 348 348 348 350 350 353 350 353 357 350 355 353 348 348 347 350 348 348 345 345 347 347 348 347 347 348 348 352 347 350 348 347 350 343 345 347 347 347 345 348 348 348 350 350 347 347 348 350 345 347 345 347 345 347 348 348 348 348 347 347 345 348 347 347 347 347 347 347 348 348 348 350 350 347 347 345 345 345 342 342 342 343 343 347 345 345 348 347 348 348 348 348 348 350 357 352 357 357 357 357 355 355 352 342 342 342 343 343 342 342 0 0 0 0 0
    0 0 0 0 0 0 0 0 0 0 0 0 0 0 0 0 0 0 0 0 0 0 0 0 0 0 0 0 0 0 0 0 0 0 0 0 0 0 0 0 0 0 0 0 0 0 0 0 0 0 0 0 0 0 0 0 0 0 0 0 0 0 0 0 0 0 0 0 0 352 353 357 352 355 353 352 352 350 348 347 345 348 347 350 350 350 350 348 352 353 353 353 350 352 352 352 352 352 348 350 352 353 353 353 353 357 353 355 353 352 347 348 347 348 350 348 352 353 353 357 357 359 357 359 364 355 359 352 352 353 348 355 355 352 352 353 355 355 352 353 350 350 353 353 348 348 348 353 359 357 0 0 0 0 0 355 355 357 352 355 353 359 359 357 360 360 359 360 360 357 348 348 350 348 347 345 347 348 348 350 353 353 357 355 359 359 352 347 353 350 352 350 348 350 350 352 357 350 350 348 348 347 348 345 345 348 348 348 350 350 353 350 355 357 352 355 353 347 347 343 347 345 345 342 343 343 345 345 343 343 345 345 347 343 347 345 345 347 343 343 347 347 347 345 348 348 347 350 350 347 347 348 350 347 347 345 347 345 347 348 348 347 347 347 347 347 350 347 348 348 348 348 348 348 350 348 350 348 348 347 345 347 347 342 343 342 345 345 348 347 345 348 348 350 350 348 348 348 352 355 352 357 355 353 355 353 352 350 342 342 340 342 342 342 342 0 0 0 0 0
    0 0 0 0 0 0 0 0 0 0 0 0 0 0 0 0 0 0 0 0 0 0 0 0 0 0 0 0 0 0 0 0 0 0 0 0 0 0 0 0 0 0 0 0 0 0 0 0 0 0 0 0 0 0 0 0 0 0 0 0 0 0 0 0 0 0 0 0 0 355 355 357 352 357 355 353 352 352 348 347 345 347 347 350 348 350 348 348 350 352 352 353 352 352 352 352 353 353 350 352 353 353 355 355 355 357 355 355 353 352 348 348 347 348 348 348 352 353 353 357 357 359 357 359 364 355 357 350 350 352 348 355 353 352 352 353 355 355 352 353 352 352 353 353 350 348 348 353 357 353 353 0 0 0 357 352 350 352 350 355 353 359 357 357 360 359 357 359 359 355 347 348 348 347 345 345 347 348 348 350 353 353 357 355 359 357 350 347 353 350 352 350 348 350 350 352 355 348 348 347 347 345 347 343 345 348 348 348 350 350 353 350 355 357 352 355 352 345 345 343 345 343 343 342 342 342 343 345 343 343 343 343 345 342 345 343 345 345 342 343 347 347 347 345 348 348 348 350 350 347 347 348 350 345 347 345 347 345 347 348 348 345 347 347 347 347 350 348 348 348 348 348 348 348 350 347 350 348 348 347 347 347 347 343 345 343 347 347 350 347 347 350 348 350 352 350 350 350 352 355 350 355 353 352 352 350 348 348 343 343 340 342 342 342 342 0 0 0 0 0
    0 0 0 0 0 0 0 0 0 0 0 0 0 0 0 0 0 0 0 0 0 0 0 0 0 0 0 0 0 0 0 0 0 0 0 0 0 0 0 0 0 0 0 0 0 0 0 0 0 0 0 0 0 0 0 0 0 0 0 0 0 0 0 0 0 0 0 0 0 353 353 355 350 355 353 350 348 348 347 347 345 347 347 348 348 348 348 348 350 352 352 352 350 352 352 352 353 353 352 352 353 353 355 355 357 357 355 355 353 352 350 350 347 348 350 348 352 353 355 357 357 357 355 357 364 352 353 347 348 348 348 353 353 350 352 353 355 355 353 353 352 352 353 353 352 350 348 353 355 353 350 348 350 355 350 347 347 350 352 353 353 357 355 357 359 359 357 357 357 353 348 348 347 345 343 343 347 347 347 350 355 353 359 357 359 359 352 347 353 352 352 350 348 350 350 350 355 347 347 345 347 0 347 343 345 348 348 348 350 350 353 350 355 357 352 355 350 347 347 345 347 345 345 342 343 343 345 345 343 343 343 343 345 342 345 343 345 345 342 343 347 347 347 345 348 348 348 350 348 347 347 347 350 345 345 343 347 345 347 348 350 347 347 347 348 348 350 348 348 348 348 348 348 348 350 347 350 348 348 347 347 347 348 343 345 343 347 347 352 348 348 350 350 352 353 352 352 352 353 357 352 355 352 350 350 348 348 348 343 343 342 342 342 342 342 0 0 0 0 0
    0 0 0 0 0 0 0 0 0 0 0 0 0 0 0 0 0 0 0 0 0 0 0 0 0 0 0 0 0 0 0 0 0 0 0 0 0 0 0 0 0 0 0 0 0 0 0 0 0 0 0 0 0 0 0 0 0 0 0 0 0 0 0 0 0 0 0 0 0 352 352 353 348 353 352 347 347 348 345 345 345 347 345 348 348 348 348 348 348 350 350 352 350 350 350 350 352 352 350 352 353 353 355 357 357 357 357 355 355 353 350 352 350 350 352 350 352 353 355 355 357 355 353 355 362 352 357 348 348 345 348 353 352 350 350 352 353 355 353 353 352 352 353 353 352 350 350 355 355 353 350 348 347 350 345 345 345 350 352 352 352 353 353 355 357 357 355 355 355 353 350 348 348 347 347 345 347 347 347 350 353 355 359 359 360 360 353 347 353 352 352 348 348 350 348 350 355 345 347 345 347 0 347 343 347 348 348 350 350 352 353 352 357 357 352 355 352 347 347 345 347 345 345 343 345 343 347 347 345 345 343 343 345 342 343 343 343 345 342 345 347 347 348 345 348 348 348 350 348 347 347 347 350 345 345 343 345 345 347 348 352 347 348 348 348 348 348 347 347 347 348 348 348 348 352 348 352 350 350 348 347 347 350 343 345 343 347 347 352 348 348 352 350 353 353 353 353 353 355 357 353 357 350 350 350 348 347 345 345 343 342 343 342 342 342 0 0 0 0 0
    0 0 0 0 0 0 0 0 0 0 0 0 0 0 0 0 0 0 0 0 0 0 0 0 0 0 0 0 0 0 0 0 0 0 0 0 0 0 0 0 0 0 0 0 0 0 0 0 0 0 0 0 0 0 0 0 0 0 0 0 0 0 0 0 0 0 0 0 0 352 352 353 348 352 350 345 345 347 345 343 345 347 345 348 348 348 347 347 348 348 348 350 348 348 348 348 350 350 350 352 353 353 357 357 359 359 359 357 355 353 352 352 352 352 353 352 353 355 355 355 357 352 350 352 0 0 360 348 347 342 347 352 350 350 350 350 352 353 353 353 352 352 353 353 353 352 352 357 355 353 0 0 0 352 345 345 345 352 353 352 352 352 352 355 359 357 353 353 357 357 353 352 352 348 348 347 348 347 347 350 352 355 360 359 360 362 355 347 353 352 352 350 350 350 348 350 357 343 345 345 345 343 347 343 347 350 348 350 352 352 353 352 357 357 353 357 352 348 348 347 347 345 345 343 345 345 348 348 348 347 345 343 345 342 343 343 343 343 342 345 347 347 348 345 348 348 348 350 348 348 347 347 350 343 343 342 343 345 345 347 350 347 347 347 348 347 347 345 345 347 348 350 350 350 355 352 353 353 353 350 348 348 352 343 347 343 347 347 353 348 350 352 352 355 355 355 355 353 357 359 355 357 348 348 348 347 345 345 345 343 343 343 342 343 343 0 0 0 0 0
    0 0 0 0 0 0 0 0 0 0 0 0 0 0 0 0 0 0 0 0 0 0 0 0 0 0 0 0 0 0 0 0 0 0 0 0 0 0 0 0 0 0 0 0 0 0 0 0 0 0 0 0 0 0 0 0 0 0 0 0 0 0 0 0 0 0 0 0 0 350 350 350 347 350 348 343 343 347 345 343 343 345 343 347 347 347 347 347 347 347 347 348 348 347 347 347 348 348 350 352 355 353 357 359 360 359 359 359 357 355 353 353 353 353 353 352 353 355 357 355 357 350 347 0 0 0 0 0 342 340 345 352 350 350 350 350 352 353 353 355 353 353 355 355 355 353 353 359 0 0 0 0 0 0 345 0 0 0 0 0 353 352 353 357 360 357 355 355 359 359 357 355 353 350 353 352 353 350 348 353 353 360 362 360 362 362 355 347 355 355 353 352 352 352 350 353 359 347 347 345 347 345 348 345 348 350 350 352 352 352 353 352 357 357 352 355 350 348 348 347 345 345 342 342 347 345 348 348 348 347 345 343 345 342 343 342 343 343 342 347 347 348 350 347 350 350 350 353 350 350 348 347 352 345 345 342 343 345 347 347 348 347 348 347 348 347 348 345 345 347 348 350 352 350 355 352 355 355 353 350 350 348 352 345 348 345 348 348 355 348 352 353 353 357 357 355 355 355 359 359 357 359 348 348 348 347 345 345 345 343 342 342 342 342 342 0 0 0 0 0
    0 0 0 0 0 0 0 0 0 0 0 0 0 0 0 0 0 0 0 0 0 0 0 0 0 0 0 0 0 0 0 0 0 0 0 0 0 0 0 0 0 0 0 0 0 0 0 0 0 0 0 0 0 0 0 0 0 0 0 0 0 0 0 0 0 0 0 0 0 350 348 350 345 350 348 343 345 347 345 345 343 345 343 345 347 345 345 345 345 347 345 347 348 345 347 347 348 350 352 353 357 355 359 360 360 360 360 360 357 355 353 353 353 353 353 353 353 355 357 357 359 348 345 0 0 0 0 0 0 339 347 352 350 350 350 350 352 353 353 355 353 353 355 355 355 355 353 0 0 0 0 0 0 0 0 0 0 0 0 0 0 352 0 0 360 357 355 355 359 359 357 355 355 352 357 357 0 0 353 357 0 366 364 360 362 360 355 347 355 355 355 353 353 353 352 355 360 353 350 348 348 347 348 347 348 352 350 352 352 352 353 352 355 355 350 352 350 348 347 345 345 343 342 342 345 343 348 348 348 347 343 343 345 342 342 342 342 343 342 347 348 348 350 348 350 350 350 353 350 350 350 348 353 347 347 343 345 345 347 347 348 347 348 347 348 348 348 347 345 348 348 350 352 350 353 350 353 355 352 350 350 348 352 348 350 347 348 350 357 350 353 355 355 359 359 359 357 357 360 360 360 360 347 348 348 347 347 343 343 343 342 343 342 343 343 0 0 0 0 0
    0 0 0 0 0 0 0 0 0 0 0 0 0 0 0 0 0 0 0 0 0 0 0 0 0 0 0 0 0 0 0 0 0 0 0 0 0 0 0 0 0 0 0 0 0 0 0 0 0 0 0 0 0 0 0 0 0 0 0 0 0 0 0 0 0 0 0 0 0 350 350 350 347 352 352 345 347 350 350 347 347 347 343 345 347 345 343 343 343 345 345 347 348 0 347 347 348 350 352 352 355 353 357 359 360 360 360 360 359 355 353 352 353 353 353 353 355 357 359 357 360 348 343 0 0 0 0 0 0 0 0 352 352 350 350 348 352 353 353 355 353 353 355 355 355 355 0 0 639 634 0 0 0 0 0 0 0 0 0 0 0 0 0 0 360 0 355 355 359 359 359 357 357 353 359 0 0 0 0 0 0 369 364 357 360 360 357 347 355 355 355 355 353 353 353 355 362 357 353 352 352 0 348 347 348 350 348 350 350 352 353 353 355 355 350 352 348 347 345 343 342 343 342 340 0 0 0 353 353 350 345 345 345 342 343 342 342 342 342 347 347 348 350 348 350 350 350 353 350 352 352 350 355 350 350 347 345 347 348 347 348 345 348 347 348 348 348 347 345 350 352 350 352 350 352 350 352 353 350 347 348 348 350 348 350 348 350 350 357 352 353 357 357 359 359 359 359 359 360 362 362 362 350 352 352 348 347 345 345 345 343 343 343 343 345 0 0 0 0 0
    0 0 0 0 0 0 0 0 0 0 0 0 0 0 0 0 0 0 0 0 0 0 0 0 0 0 0 0 0 0 0 0 0 0 0 0 0 0 0 0 0 0 0 0 0 0 0 0 0 0 0 0 0 0 0 0 0 0 0 0 0 0 0 0 0 0 0 0 0 352 350 350 345 350 352 347 347 352 350 348 348 348 345 345 347 347 343 343 343 345 345 347 348 0 347 348 348 350 352 352 355 352 357 359 359 359 359 359 357 353 353 352 353 0 355 357 355 357 360 357 360 348 345 0 0 0 0 0 0 0 0 352 352 350 350 348 352 353 353 355 353 353 355 355 357 355 0 0 639 634 0 0 0 0 0 0 0 0 0 0 0 0 0 0 0 0 357 357 359 359 359 357 357 0 359 0 0 0 0 0 0 0 357 352 359 359 355 347 355 357 357 355 355 355 353 357 364 360 355 353 352 0 347 347 348 350 348 348 350 350 352 353 355 355 350 350 348 347 345 343 342 342 340 0 0 0 0 360 360 359 348 347 347 343 343 342 340 340 340 345 347 347 350 347 348 350 350 353 352 353 355 352 359 355 353 350 348 348 350 348 348 347 348 348 347 347 347 345 345 348 350 350 350 350 352 350 352 352 348 347 347 347 348 347 348 347 348 348 353 350 353 357 357 359 360 359 360 360 362 364 364 364 359 359 357 350 348 345 345 345 343 343 342 342 343 0 0 0 0 0
    0 0 0 0 0 0 0 0 0 0 0 0 0 0 0 0 0 0 0 0 0 0 0 0 0 0 0 0 0 0 0 0 0 0 0 0 0 0 0 0 0 0 0 0 0 0 0 0 0 0 0 0 0 0 0 0 0 0 0 0 0 0 0 0 0 0 0 0 0 0 347 345 342 345 348 345 345 350 350 348 348 348 345 345 347 345 342 343 342 343 343 345 347 0 0 0 0 348 350 350 353 0 355 359 359 357 359 359 357 353 355 353 0 0 0 0 0 359 362 357 360 350 347 0 0 0 226 0 0 0 0 0 350 350 350 347 350 353 353 355 353 353 353 353 357 0 0 669 634 634 0 0 0 0 0 0 0 0 200 0 0 0 75 75 0 0 357 357 359 360 359 357 0 0 0 0 0 0 0 0 0 0 355 350 359 359 357 348 357 359 357 357 355 355 355 359 364 362 357 353 0 0 345 347 348 348 347 348 348 350 352 353 353 355 350 350 348 347 345 345 342 343 340 0 0 0 0 362 364 364 353 350 350 345 343 342 340 340 340 345 347 347 350 348 348 350 350 355 353 357 357 353 362 359 359 355 352 352 350 348 350 348 348 347 345 345 343 345 343 347 348 348 350 350 352 352 352 352 350 347 347 347 347 347 347 347 348 347 350 348 352 357 357 359 359 359 360 359 362 362 364 362 359 360 359 352 348 345 345 347 343 343 343 342 343 0 0 0 0 0
    0 0 0 0 0 0 0 0 0 0 0 0 0 0 0 0 0 0 0 0 0 0 0 0 0 0 0 0 0 0 0 0 0 0 0 0 0 0 0 0 0 0 0 0 0 0 0 0 0 0 0 0 0 0 0 0 0 0 0 0 0 0 0 0 0 0 0 0 0 0 337 334 331 0 0 0 0 0 0 347 348 348 345 343 345 343 340 342 0 0 0 0 0 0 0 0 0 0 0 347 352 348 353 357 357 355 359 359 357 352 353 0 0 0 0 0 0 0 0 0 357 348 0 0 0 0 226 0 0 0 0 0 348 348 348 343 347 350 353 353 353 353 353 353 0 0 663 669 634 634 0 0 0 0 0 0 0 202 0 0 75 75 75 75 0 161 359 359 360 360 360 0 0 0 0 0 0 0 0 355 350 0 357 353 359 360 359 348 357 360 359 359 357 357 357 360 367 364 360 359 0 0 0 350 348 348 347 347 347 350 350 353 353 355 348 348 348 348 347 345 342 342 0 0 0 0 0 366 367 366 357 357 355 348 345 343 342 340 340 347 347 347 350 348 348 350 352 355 355 359 359 357 364 360 359 357 353 352 350 350 352 348 348 347 345 345 343 345 343 347 348 350 352 352 353 353 352 353 350 348 347 348 348 348 348 348 348 348 352 350 350 357 357 357 357 357 359 359 360 360 362 362 357 362 359 350 347 343 343 345 342 342 342 340 342 0 0 0 0 0
    0 0 0 0 0 0 0 0 0 0 0 0 0 0 0 0 0 0 0 0 0 0 0 0 0 0 0 0 0 0 0 0 0 0 0 0 0 0 0 0 0 0 0 0 0 0 0 0 0 0 0 0 0 0 0 0 0 0 0 0 0 0 0 0 0 0 0 0 0 0 0 0 0 0 0 0 0 0 0 0 0 0 0 0 0 0 0 0 0 0 0 0 0 0 0 0 0 0 0 0 0 0 355 359 357 355 364 0 0 0 0 0 0 0 0 0 0 0 0 0 0 0 0 0 0 0 0 0 0 0 0 0 0 0 0 0 0 0 350 0 352 352 350 0 0 687 669 675 645 639 0 0 2044 0 0 0 0 201 0 0 0 0 0 0 0 162 0 359 362 362 0 0 0 0 0 0 0 0 0 0 0 0 359 352 359 357 359 348 359 360 360 360 359 359 359 362 377 367 364 362 0 0 0 353 348 348 345 345 345 348 350 352 352 353 348 347 347 348 345 343 339 339 0 0 0 0 0 371 373 369 362 360 359 352 350 347 343 342 342 347 347 348 350 348 348 350 352 355 355 359 360 359 366 362 362 359 357 353 352 352 353 348 348 347 345 343 342 345 343 347 348 350 352 353 355 355 353 353 352 348 348 350 348 348 350 350 352 350 352 352 350 355 355 355 353 353 357 357 357 357 355 355 345 343 353 347 345 342 340 345 342 340 342 339 340 0 0 0 0 0
    0 0 0 0 0 0 0 0 0 0 0 0 0 0 0 0 0 0 0 0 0 0 0 0 0 0 0 0 0 0 0 0 0 0 0 0 0 0 0 0 0 0 0 0 0 0 0 0 0 0 0 0 0 0 0 0 0 0 0 0 0 0 0 0 0 0 0 0 0 0 0 0 0 0 0 0 0 0 0 0 0 0 0 0 0 0 0 0 0 0 0 0 0 0 0 0 0 0 0 0 0 0 0 0 0 0 244 238 235 233 235 0 0 0 0 0 0 0 0 0 0 0 0 0 0 0 0 0 0 0 0 0 0 202 199 196 0 0 0 0 0 263 0 171 171 0 669 675 645 645 675 2830 2299 0 0 0 0 0 0 0 0 0 0 0 162 162 0 359 362 0 0 0 743 700 707 0 799 750 0 0 0 0 359 352 357 355 359 348 360 364 362 362 362 360 362 366 391 381 366 364 0 0 0 357 348 347 343 343 343 345 348 350 348 350 345 343 0 0 343 342 337 337 0 0 0 0 0 0 377 0 0 0 362 355 355 348 342 340 342 347 347 347 350 347 348 348 350 355 353 359 360 359 366 364 364 360 357 353 352 350 352 348 347 345 343 0 0 0 0 0 350 350 353 353 355 355 352 352 352 347 348 350 348 350 352 352 353 350 353 353 352 357 355 353 352 352 353 353 353 350 343 343 339 336 342 342 342 339 339 347 342 339 340 337 339 0 0 0 0 0
    0 0 0 0 0 0 0 0 0 0 0 0 0 0 0 0 0 0 0 0 0 0 0 0 0 0 0 0 0 0 0 0 0 0 0 0 0 0 0 0 0 0 0 0 0 0 0 0 0 0 0 0 0 0 0 0 0 0 0 0 0 0 0 0 0 0 0 0 0 255 256 258 258 0 0 307 309 306 302 302 0 0 0 0 0 0 0 0 0 0 0 0 0 0 178 176 176 181 180 179 0 0 0 0 0 0 0 0 0 0 0 0 0 0 0 0 0 0 0 0 0 0 0 0 0 0 0 0 0 0 0 0 0 0 0 0 0 0 0 0 0 0 0 0 0 639 634 651 639 639 0 3066 2628 0 0 0 0 0 0 0 0 0 0 0 0 162 0 360 0 0 721 714 700 681 675 663 766 0 721 694 0 0 0 0 288 0 355 352 366 367 366 366 367 364 367 383 0 395 0 0 0 0 0 0 347 345 342 340 340 343 347 348 347 348 343 342 0 0 0 0 0 0 0 0 0 0 0 0 0 0 0 0 364 357 357 347 342 340 340 345 345 345 348 347 347 347 348 353 353 359 0 0 367 366 0 0 359 353 350 348 350 347 347 345 343 0 0 735 0 0 0 0 352 355 355 353 350 350 350 347 347 0 0 0 352 353 353 350 353 355 352 359 355 353 353 353 353 352 352 347 339 340 337 330 331 336 339 337 337 345 339 336 339 334 336 0 0 0 0 0
    0 0 0 0 0 0 0 0 0 0 0 0 0 0 0 0 0 0 0 0 0 0 0 0 0 0 0 0 0 0 0 0 0 0 0 0 0 0 0 0 0 0 0 0 0 0 0 0 0 0 0 0 0 0 0 0 0 0 0 0 0 0 0 0 0 0 0 0 0 254 254 255 0 0 0 310 309 305 304 304 300 0 0 260 257 254 256 255 255 256 256 0 0 0 0 0 0 0 180 181 180 179 178 0 0 0 0 0 0 0 0 0 0 0 0 0 0 0 0 0 0 0 0 0 0 0 0 0 0 0 0 0 0 0 0 0 8177 0 0 0 0 0 0 0 0 0 0 0 0 0 0 0 0 0 0 0 0 0 0 0 0 0 0 0 0 0 0 0 0 0 694 687 681 669 663 675 750 735 714 687 707 714 694 0 0 0 0 350 355 360 359 360 366 360 0 0 0 0 0 0 0 0 0 0 0 342 339 337 337 340 345 347 345 347 342 339 0 0 0 0 0 0 0 0 0 0 0 0 0 0 0 0 0 362 362 348 339 336 337 342 343 343 347 343 343 345 347 350 353 0 0 0 371 367 0 0 0 353 348 347 347 345 0 0 0 0 0 743 0 0 0 0 0 355 355 355 348 347 0 345 0 0 0 0 0 353 355 350 352 353 350 359 353 350 352 352 353 352 350 343 336 337 334 325 322 330 336 333 336 342 337 334 337 330 331 0 0 0 0 0
    0 0 0 0 0 0 0 0 0 0 0 0 0 0 0 0 0 0 0 0 0 0 0 0 0 0 0 0 0 0 0 0 0 0 0 0 0 0 0 0 0 0 0 0 0 0 0 0 0 0 0 0 0 0 0 0 0 0 0 0 0 0 0 0 0 0 0 0 0 253 252 253 253 0 0 309 306 302 301 301 300 0 0 259 255 253 255 255 255 255 256 253 0 0 0 0 0 0 0 0 181 180 178 0 0 0 0 0 245 242 245 0 0 0 0 0 176 173 0 0 0 0 0 6133 3345 3504 0 0 3504 0 0 0 3345 7359 0 0 0 4088 4906 7359 7359 7359 6133 6133 0 0 0 0 0 0 0 0 0 0 0 0 0 0 0 0 0 0 0 0 0 0 0 0 0 0 0 0 0 0 0 0 0 0 0 0 0 0 0 0 0 0 0 0 0 0 0 0 0 0 0 0 0 735 0 0 735 0 0 0 603 584 0 0 0 0 0 0 0 0 0 0 0 0 0 0 0 0 0 0 566 553 0 0 0 537 0 0 0 0 362 347 339 334 331 337 342 343 345 342 342 343 345 0 0 0 0 0 0 0 0 0 0 353 347 342 343 0 0 0 0 0 0 0 0 0 593 566 0 0 357 0 0 0 0 0 0 1565 0 0 0 0 0 348 348 350 0 0 0 345 347 347 350 347 347 340 333 333 328 321 318 321 324 325 325 334 331 327 331 324 324 0 0 0 0 0
    0 0 0 0 0 0 0 0 0 0 0 0 0 0 0 0 0 0 0 0 0 0 0 0 0 0 0 0 0 0 0 0 0 0 0 0 0 0 0 0 0 0 0 0 0 0 0 0 0 0 0 0 0 0 0 0 0 0 0 0 0 0 0 0 0 0 0 0 0 253 252 253 252 0 311 311 307 302 302 302 0 0 260 258 255 255 256 256 256 256 256 253 252 252 250 249 0 0 251 0 0 0 0 0 0 0 249 0 248 247 248 251 251 251 251 252 251 0 0 0 0 0 0 0 0 0 0 0 0 124 0 0 0 0 0 0 7359 5256 5661 0 8177 7359 6690 6133 5661 8177 0 0 0 0 0 0 0 0 0 0 0 8177 0 0 0 0 4906 3345 3199 2725 0 0 0 385 0 687 675 687 681 0 0 0 0 0 0 0 0 0 0 0 0 0 0 0 0 0 0 0 0 0 0 0 799 799 0 0 0 0 0 566 0 0 0 0 0 0 0 0 0 0 0 0 0 0 0 0 0 0 0 0 0 490 533 0 0 0 0 0 360 348 339 333 327 328 336 0 347 0 0 0 0 0 0 0 0 0 391 399 395 0 0 0 0 0 0 0 0 0 0 0 0 0 0 0 588 557 0 0 0 0 0 0 0 0 1635 1443 1362 1362 0 0 0 0 0 0 0 0 0 0 0 345 347 0 342 336 327 328 321 318 315 318 319 321 319 319 319 319 322 319 319 0 0 0 0 0
    0 0 0 0 0 0 0 0 0 0 0 0 0 0 0 0 0 0 0 0 0 0 0 0 0 0 0 0 0 0 0 0 0 0 0 0 0 0 0 0 0 0 0 0 0 0 0 0 0 0 0 0 0 0 0 0 0 0 0 0 0 0 0 0 0 0 0 0 0 253 253 254 252 253 0 314 310 305 305 0 0 0 259 256 254 253 254 254 254 254 254 252 252 252 250 249 0 250 251 251 252 0 0 0 251 0 249 249 248 247 248 252 252 252 252 252 252 252 0 172 169 0 0 0 0 0 0 0 0 0 0 249 0 0 645 0 0 0 6133 0 0 8177 6690 6690 6133 0 0 6133 0 981 994 855 0 0 0 0 0 0 0 0 0 0 5661 3504 2943 2299 0 393 389 385 0 0 663 669 657 0 5661 0 0 0 0 0 0 0 0 0 0 0 0 0 0 0 98 0 0 0 0 0 799 0 280 267 266 266 264 511 262 260 0 0 0 0 0 0 0 0 0 0 0 0 0 0 0 0 0 0 0 0 0 0 0 0 0 0 0 0 0 0 0 0 0 0 169 170 169 0 0 0 0 0 0 0 0 0 0 0 0 0 0 0 0 0 0 6690 0 0 0 3679 3066 2537 0 6133 4088 0 0 0 0 0 0 1839 1565 1338 1291 0 0 0 0 0 0 0 0 0 0 0 0 0 0 0 0 327 321 324 319 317 315 318 319 321 318 318 318 318 0 319 0 0 0 0 0 0
    0 0 0 0 0 0 0 0 0 0 0 0 0 0 0 0 0 0 0 0 0 0 0 0 0 0 0 0 0 0 0 0 0 0 0 0 0 0 0 0 0 0 0 0 0 0 0 0 0 0 0 0 0 0 0 0 0 0 0 0 0 0 0 0 0 0 0 0 0 253 253 254 253 253 0 314 311 307 0 0 0 257 256 254 252 252 252 252 253 252 252 252 252 252 251 251 250 251 252 252 252 252 0 0 251 0 250 249 248 248 248 252 252 252 252 252 252 252 0 0 168 0 0 0 0 0 0 0 0 249 248 249 0 0 0 0 0 0 0 0 0 0 6690 6690 0 0 0 0 0 0 0 0 0 0 0 0 0 0 0 0 0 0 0 0 0 0 0 0 389 0 0 0 669 663 645 623 0 0 0 0 0 0 566 557 0 0 0 0 0 258 255 0 0 0 0 0 253 0 0 0 0 260 262 262 260 258 259 257 255 0 0 0 0 0 0 0 0 0 0 0 0 0 0 249 248 247 247 250 249 247 247 245 245 251 0 251 250 253 0 0 0 0 169 170 0 169 0 943 919 908 0 0 0 0 0 0 0 0 0 165 0 0 0 0 0 0 0 0 0 6690 4329 3199 2943 2453 0 0 0 0 0 0 1565 1388 0 0 0 0 0 0 0 0 0 0 0 0 0 0 0 0 0 324 319 322 319 318 318 321 322 324 322 322 321 322 0 322 0 0 0 0 0 0
    0 0 0 0 0 0 0 0 0 0 0 0 0 0 0 0 0 0 0 0 0 0 0 0 0 0 0 0 0 0 0 0 0 0 0 0 0 0 0 0 0 0 0 0 0 0 0 0 0 0 0 0 0 0 0 0 0 0 0 0 0 0 0 0 0 0 0 0 0 253 253 254 253 253 255 0 0 0 0 0 256 256 255 253 252 251 252 252 252 252 252 252 252 252 252 251 251 251 252 252 252 253 252 253 253 252 251 251 250 249 249 252 252 252 251 252 252 253 252 251 0 0 0 0 0 0 0 0 248 249 249 250 250 252 252 252 0 0 0 0 0 0 5256 0 3873 0 0 0 0 0 0 0 0 0 0 0 0 0 0 0 0 0 0 0 0 0 0 0 0 0 259 0 651 657 639 0 0 623 0 0 0 0 0 0 0 0 0 0 255 257 253 0 252 252 252 254 253 0 0 260 253 257 257 258 257 256 256 255 253 0 0 0 0 0 0 0 0 0 0 0 247 248 248 249 247 247 247 250 249 246 248 246 246 251 0 249 248 251 0 0 0 0 170 170 0 0 0 931 897 0 0 0 0 0 1887 0 0 0 0 0 0 177 0 0 175 0 0 0 0 0 0 0 0 0 0 0 0 0 0 0 0 0 0 0 0 0 0 0 0 0 0 0 0 0 0 0 0 0 0 321 318 317 318 318 318 324 324 324 322 325 322 325 327 321 0 0 0 0 0 0
    0 0 0 0 0 0 0 0 0 0 0 0 0 0 0 0 0 0 0 0 0 0 0 0 0 0 0 0 0 0 0 0 0 0 0 0 0 0 0 0 0 0 0 0 0 0 0 0 0 0 0 0 0 0 0 0 0 0 0 0 0 0 0 0 0 0 0 0 0 253 253 254 253 253 255 256 257 256 256 256 255 255 255 253 252 252 252 252 253 252 252 252 252 252 252 251 251 252 252 252 252 253 253 253 254 252 252 251 250 250 249 251 252 251 251 252 252 253 252 251 250 0 0 250 0 0 0 248 248 249 250 250 251 253 252 252 254 257 258 258 256 0 0 0 0 0 0 9199 0 0 0 0 0 0 0 0 0 0 0 0 0 0 0 257 257 0 260 260 257 257 256 252 0 663 639 0 0 623 0 0 0 0 0 0 0 0 0 0 254 256 253 255 252 252 253 255 254 254 252 259 252 254 255 256 257 255 256 255 253 0 0 0 0 0 0 0 0 0 0 248 247 248 248 248 247 246 248 250 249 248 250 250 250 252 255 252 251 252 253 254 0 0 254 254 254 254 253 0 0 0 0 0 0 0 0 0 0 0 0 0 0 174 175 175 174 173 175 174 172 0 750 0 0 0 0 0 0 0 0 0 0 0 0 0 0 0 0 0 0 0 0 1338 1291 0 0 0 0 0 0 0 0 0 317 318 319 330 327 324 322 327 0 328 322 0 0 0 0 0 0 0
    0 0 0 0 0 0 0 0 0 0 0 0 0 0 0 0 0 0 0 0 0 0 0 0 0 0 0 0 0 0 0 0 0 0 0 0 0 0 0 0 0 0 0 0 0 0 0 0 0 0 0 0 0 0 0 0 0 0 0 0 0 0 0 0 0 0 0 0 0 253 253 253 253 253 254 255 255 254 253 253 252 253 253 252 252 252 253 252 253 253 252 252 252 252 252 252 252 252 252 252 253 253 252 252 253 252 252 251 251 250 250 252 252 251 251 252 251 252 252 252 250 250 0 250 0 0 0 248 248 250 250 251 251 253 253 252 254 258 258 258 256 256 254 253 0 0 0 0 0 0 0 0 0 0 0 0 0 0 0 0 0 0 0 255 254 256 255 258 255 256 254 252 0 675 651 0 0 0 0 0 0 0 0 0 0 0 0 0 253 255 254 255 253 253 254 256 255 255 254 259 253 254 255 256 257 256 256 255 253 254 0 0 0 0 0 0 0 248 248 250 249 249 249 249 247 248 249 251 251 250 253 252 255 255 257 254 252 253 252 252 0 253 253 253 253 253 253 0 0 0 0 0 0 0 0 0 0 0 255 0 0 0 175 174 174 174 0 0 0 0 0 0 0 0 250 251 251 251 0 256 254 0 0 0 0 0 0 0 0 0 1565 1362 1314 0 0 0 0 557 0 0 0 0 0 0 0 340 334 330 325 331 0 0 0 0 0 0 0 0 0 0
    0 0 0 0 0 0 0 0 0 0 0 0 0 0 0 0 0 0 0 0 0 0 0 0 0 0 0 0 0 0 0 0 0 0 0 0 0 0 0 0 0 0 0 0 0 0 0 0 0 0 0 0 0 0 0 0 0 0 0 0 0 0 0 0 0 0 0 0 0 252 252 252 252 252 253 254 254 253 252 252 252 252 252 251 252 251 252 252 253 0 0 0 0 252 252 252 252 252 252 252 253 253 253 253 254 253 252 252 252 250 251 252 252 251 251 252 251 252 252 252 250 251 250 250 249 250 249 249 248 250 251 251 252 254 253 253 254 258 259 258 257 257 255 254 256 256 0 0 0 0 0 0 0 0 0 259 260 259 0 260 261 260 260 254 253 254 254 256 254 254 253 252 0 675 645 0 0 0 0 0 0 0 0 0 0 0 252 253 253 255 254 256 254 254 255 257 256 257 256 259 254 254 255 255 256 255 255 254 252 253 253 252 252 250 251 250 250 249 249 250 250 249 249 249 248 249 250 252 252 251 254 253 256 255 256 254 252 253 252 252 0 252 252 252 252 253 253 0 0 0 0 0 0 0 0 252 252 252 253 252 0 0 0 0 0 0 0 0 0 0 0 0 0 249 250 251 251 251 252 255 254 252 255 0 0 0 0 0 0 1168 1314 1314 0 0 0 0 0 561 0 0 377 362 0 348 352 343 340 336 333 0 0 0 0 0 0 0 0 0 0 0
    0 0 0 0 0 0 0 0 0 0 0 0 0 0 0 0 0 0 0 0 0 0 0 0 0 0 0 0 0 0 0 0 0 0 0 0 0 0 0 0 0 0 0 0 0 0 0 0 0 0 0 0 0 0 0 0 0 0 0 0 0 0 0 0 0 0 0 0 0 252 252 252 252 252 253 254 254 254 253 253 252 252 252 251 252 251 252 252 252 252 252 252 252 252 252 252 252 252 252 252 253 253 254 254 255 254 253 252 252 251 251 252 252 251 251 252 252 252 252 252 251 252 251 250 249 251 250 249 249 251 252 252 252 254 253 253 254 258 258 257 256 257 255 254 256 256 0 0 253 0 0 0 256 257 258 258 259 259 260 260 260 260 260 254 253 254 253 255 254 254 253 252 251 0 0 0 0 0 0 0 0 0 0 0 0 252 252 253 253 255 255 256 255 255 255 257 256 257 255 259 252 253 254 255 255 254 254 254 252 252 253 252 251 251 251 250 250 250 249 250 250 249 249 249 248 249 249 251 251 250 252 253 255 254 254 253 252 253 252 253 252 253 253 253 253 254 254 256 0 0 0 0 0 252 252 252 252 252 253 252 252 0 0 0 0 251 249 248 0 246 246 0 248 249 251 251 251 252 252 255 254 253 256 0 0 0 0 0 0 1168 0 1291 0 0 0 0 0 557 0 0 373 359 0 353 0 348 343 340 0 0 0 0 0 0 275 0 0 0 0 0
    0 0 0 0 0 0 0 0 0 0 0 0 0 0 0 0 0 0 0 0 0 0 0 0 0 0 0 0 0 0 0 0 0 0 0 0 0 0 0 0 0 0 0 0 0 0 0 0 0 0 0 0 0 0 0 0 0 0 0 0 0 0 0 0 0 0 0 0 0 253 252 253 253 252 254 254 255 254 254 254 253 252 252 250 251 250 252 251 251 252 251 252 252 252 252 252 252 252 252 252 253 253 255 254 255 255 253 252 253 252 252 252 252 252 251 252 252 252 252 252 252 252 251 251 250 252 251 250 250 251 252 252 252 254 253 253 254 257 257 255 254 256 254 253 254 254 255 252 253 253 253 254 255 256 257 258 259 259 260 260 260 260 260 256 254 254 252 253 253 253 252 251 251 252 251 251 251 250 0 0 0 0 0 252 252 252 252 253 253 255 255 256 255 255 256 258 256 257 254 258 252 252 254 254 255 254 254 254 252 253 253 252 251 251 251 251 250 251 250 250 250 249 249 249 249 249 250 252 252 251 254 253 256 255 254 253 252 253 253 254 252 254 253 255 255 255 256 257 0 0 0 253 253 252 252 252 252 252 252 251 252 251 251 0 0 250 249 248 0 247 246 247 248 250 252 252 252 252 253 255 254 254 257 254 0 0 0 0 0 0 0 1314 0 0 0 0 0 0 0 0 0 0 0 0 0 355 350 0 0 0 0 0 0 0 273 0 0 0 0 0
    0 0 0 0 0 0 0 0 0 0 0 0 0 0 0 0 0 0 0 0 0 0 0 0 0 0 0 0 0 0 0 0 0 0 0 0 0 0 0 0 0 0 0 0 0 0 0 0 0 0 0 0 0 0 0 0 0 0 0 0 0 0 0 0 0 0 0 0 0 253 252 253 253 252 253 254 255 255 254 255 253 252 251 250 251 250 251 250 250 251 251 252 252 252 252 252 252 252 252 252 254 253 256 254 256 255 254 253 253 252 252 252 252 251 251 251 251 252 252 252 252 252 252 252 251 252 252 252 250 252 252 252 252 254 253 253 253 256 256 254 254 255 254 253 253 253 253 252 253 252 253 254 255 256 257 258 259 259 260 260 260 260 260 256 253 253 252 252 252 252 252 250 251 251 251 252 251 250 250 249 250 250 250 252 252 251 251 252 252 254 255 256 255 255 256 257 256 257 253 256 252 252 253 253 254 253 254 254 252 253 253 252 252 251 252 251 251 251 250 250 251 249 249 249 249 250 250 252 252 251 254 254 255 255 253 253 253 253 253 254 253 255 254 256 256 256 256 256 257 0 254 253 253 252 252 252 252 251 252 250 251 250 251 250 250 250 249 249 249 248 247 248 249 250 252 252 252 252 253 255 254 255 257 255 256 257 256 254 252 0 0 0 0 0 0 0 0 0 0 0 0 0 0 0 0 0 352 0 0 350 0 371 367 0 0 0 0 0 0 0
    0 0 0 0 0 0 0 0 0 0 0 0 0 0 0 0 0 0 0 0 0 0 0 0 0 0 0 0 0 0 0 0 0 0 0 0 0 0 0 0 0 0 0 0 0 0 0 0 0 0 0 0 0 0 0 0 0 0 0 0 0 0 0 0 0 0 0 0 0 253 252 252 253 252 253 253 254 255 255 255 253 252 251 251 251 250 251 251 251 251 251 251 252 251 252 252 252 252 252 252 254 253 257 255 257 256 256 254 253 252 252 251 251 250 250 250 250 251 252 252 252 252 252 252 251 252 253 252 251 252 253 253 253 255 254 253 254 257 256 254 254 256 254 253 253 252 252 252 252 252 252 253 254 255 257 257 258 258 259 260 260 259 259 255 252 253 251 252 252 252 252 251 251 252 251 252 251 251 250 250 251 250 250 251 251 251 251 252 252 253 254 255 255 255 256 257 255 256 252 255 251 252 253 252 253 253 253 254 252 253 253 252 252 251 252 251 251 251 250 250 251 249 249 248 249 250 250 252 252 252 256 255 255 255 253 254 253 254 254 254 253 255 255 257 257 257 256 256 256 256 254 252 253 252 252 252 252 252 252 251 252 251 252 251 250 250 249 250 250 249 249 250 250 251 252 252 252 252 253 253 254 255 257 255 255 256 256 253 252 0 0 0 0 0 0 1599 1565 1533 0 0 0 0 0 0 0 0 0 0 0 357 375 373 369 366 371 0 0 0 0 0
    0 0 0 0 0 0 0 0 0 0 0 0 0 0 0 0 0 0 0 0 0 0 0 0 0 0 0 0 0 0 0 0 0 0 0 0 0 0 0 0 0 0 0 0 0 0 0 0 0 0 0 0 0 0 0 0 0 0 0 0 0 0 0 0 0 0 0 0 0 253 252 253 253 252 253 253 254 255 256 255 254 252 252 252 252 251 252 251 251 251 251 251 252 251 252 252 252 252 252 252 254 254 257 256 257 256 255 253 253 252 252 250 251 250 250 250 250 250 251 251 251 252 252 252 251 253 254 253 252 252 254 254 253 256 254 254 255 257 257 255 255 256 255 254 253 252 252 252 252 252 252 252 253 255 256 257 257 257 258 259 259 258 257 252 252 252 251 252 252 252 252 251 251 252 251 252 251 251 251 251 251 251 251 252 251 251 251 252 252 253 254 255 254 255 255 257 254 256 252 254 251 252 253 252 253 253 253 253 252 253 254 252 252 252 252 252 251 252 251 250 251 249 248 248 248 249 250 252 252 252 256 255 256 256 254 254 253 254 254 254 254 255 255 257 257 257 257 257 257 256 254 252 252 251 252 252 252 252 252 251 252 252 252 251 250 250 250 251 252 250 250 251 250 251 252 252 252 252 252 253 253 255 257 255 255 256 256 253 252 0 0 0 247 0 0 0 0 0 0 0 0 0 0 0 0 0 0 0 0 0 379 377 373 369 0 0 0 0 0 0
    0 0 0 0 0 0 0 0 0 0 0 0 0 0 0 0 0 0 0 0 0 0 0 0 0 0 0 0 0 0 0 0 0 0 0 0 0 0 0 0 0 0 0 0 0 0 0 0 0 0 0 0 0 0 0 0 0 0 0 0 0 0 0 0 0 0 0 0 0 253 253 253 253 253 253 254 254 255 256 255 255 253 252 252 253 252 252 252 251 252 252 251 252 251 252 252 252 252 252 253 254 253 257 255 256 255 255 252 253 252 252 251 251 250 251 250 250 250 251 250 251 252 251 252 252 254 255 253 252 253 254 255 254 256 255 254 255 258 257 256 255 257 255 254 254 253 252 253 252 252 252 252 252 254 256 256 256 256 258 258 258 258 257 252 252 253 251 252 252 252 252 251 252 252 251 252 251 252 251 252 252 252 252 252 252 252 252 253 252 254 254 255 255 255 255 257 254 256 252 254 251 252 253 253 253 252 252 253 252 253 254 251 251 252 252 252 252 252 251 250 251 249 248 248 248 249 250 251 252 252 256 255 256 256 253 254 253 254 253 253 253 254 254 256 256 256 257 257 257 257 255 252 253 252 252 252 252 252 252 251 252 251 252 251 249 250 250 251 252 250 250 252 251 251 252 253 252 252 253 254 254 256 257 256 255 256 256 253 253 250 250 250 248 249 248 247 248 248 250 252 251 0 0 0 0 0 0 0 0 0 0 377 375 371 0 0 0 0 0 0
    0 0 0 0 0 0 0 0 0 0 0 0 0 0 0 0 0 0 0 0 0 0 0 0 0 0 0 0 0 0 0 0 0 0 0 0 0 0 0 0 0 0 0 0 0 0 0 0 0 0 0 0 0 0 0 0 0 0 0 0 0 0 0 0 0 0 0 0 0 253 252 252 253 253 252 254 254 255 256 255 255 254 253 254 254 252 252 252 252 252 252 252 252 251 252 252 252 252 252 252 254 252 257 254 255 254 254 252 253 252 252 252 252 252 252 251 251 251 251 250 251 251 251 251 252 254 256 253 252 254 255 255 255 256 255 255 256 259 258 256 255 257 255 255 254 253 253 253 253 252 251 252 252 254 256 255 256 255 257 258 256 257 256 252 252 253 251 252 252 252 252 252 252 252 251 253 252 253 252 253 253 253 252 254 254 253 252 254 253 254 254 255 255 255 255 257 254 254 251 253 251 252 253 253 253 252 252 253 252 252 253 251 251 252 252 252 252 252 252 250 251 249 248 248 248 249 250 251 251 252 255 254 255 255 252 253 253 253 253 253 253 254 253 256 256 255 257 257 257 256 256 253 253 252 252 252 252 252 251 250 252 251 251 250 249 250 250 251 251 250 250 252 251 252 253 253 253 253 254 254 255 256 258 256 255 255 256 252 253 250 250 251 249 249 249 248 250 249 252 252 252 0 0 0 0 0 253 252 0 0 0 371 371 0 0 0 0 0 0 0
    0 0 0 0 0 0 0 0 0 0 0 0 0 0 0 0 0 0 0 0 0 0 0 0 0 0 0 0 0 0 0 0 0 0 0 0 0 0 0 0 0 0 0 0 0 0 0 0 0 0 0 0 0 0 0 0 0 0 0 0 0 0 0 0 0 0 0 0 0 252 252 252 253 253 253 254 255 256 256 256 256 256 254 256 255 253 253 253 252 252 252 251 252 250 252 252 252 252 252 252 254 252 257 254 255 253 253 252 253 252 253 252 252 252 252 252 252 251 252 251 251 252 251 252 252 254 256 253 252 254 254 255 255 256 255 254 256 259 257 255 255 257 255 255 254 253 253 254 253 252 252 252 252 253 255 254 255 255 256 256 256 257 256 253 252 254 252 252 252 252 252 252 252 253 252 254 252 254 253 255 254 255 253 255 255 254 253 255 253 254 254 255 254 254 255 256 252 252 250 252 251 252 252 252 252 252 252 253 252 252 253 251 251 251 252 252 252 252 252 250 251 249 248 248 249 249 249 251 251 252 254 253 254 254 252 252 253 253 253 253 253 254 253 255 255 255 257 256 256 256 255 253 253 252 252 252 252 251 251 251 252 251 251 250 249 249 250 250 251 250 251 252 252 252 253 254 254 254 255 255 256 256 258 257 255 255 255 252 253 250 250 251 249 250 250 249 251 251 252 252 252 0 0 0 0 0 254 252 0 0 0 0 0 0 0 0 0 0 0 0
    0 0 0 0 0 0 0 0 0 0 0 0 0 0 0 0 0 0 0 0 0 0 0 0 0 0 0 0 0 0 0 0 0 0 0 0 0 0 0 0 0 0 0 0 0 0 0 0 0 0 0 0 0 0 0 0 0 0 0 0 0 0 0 0 0 0 0 0 0 253 253 253 254 253 253 255 255 256 257 256 256 256 254 256 256 254 253 253 253 252 252 251 252 250 251 252 252 252 252 252 253 252 257 254 255 253 253 252 252 252 253 251 252 252 252 252 252 252 252 252 252 252 252 252 252 255 256 253 252 254 254 255 255 256 255 254 255 259 256 255 254 256 254 254 254 253 253 253 253 253 252 253 252 252 254 253 254 254 254 254 253 256 254 253 252 254 252 252 252 252 252 252 252 253 252 254 253 255 254 256 255 256 255 256 256 255 254 256 253 254 253 254 253 253 253 253 251 251 249 252 251 251 252 252 252 252 252 253 252 252 253 250 251 251 252 252 252 252 252 250 251 249 248 248 249 250 250 251 250 252 253 252 253 253 252 252 252 252 253 252 253 254 253 255 255 254 257 256 256 256 255 252 253 252 253 252 252 252 252 252 252 252 252 251 250 250 251 252 252 252 252 252 252 252 253 255 254 254 255 255 256 256 258 257 255 255 256 252 253 251 251 251 250 251 250 250 252 252 252 252 252 0 0 0 0 0 253 252 250 251 251 0 0 251 251 0 0 0 0 0
    0 0 0 0 0 0 0 0 0 0 0 0 0 0 0 0 0 0 0 0 0 0 0 0 0 0 0 0 0 0 0 0 0 0 0 0 0 0 0 0 0 0 0 0 0 0 0 0 0 0 0 0 0 0 0 0 0 0 0 0 0 0 0 0 0 0 0 0 0 255 255 254 254 253 253 254 255 255 255 254 254 255 253 256 256 254 253 253 253 252 252 252 252 250 252 252 252 252 252 253 253 252 256 254 255 253 253 252 252 252 253 251 252 252 251 252 252 252 252 252 252 253 252 254 253 256 256 252 252 254 254 255 254 255 254 253 256 259 256 255 254 256 255 255 255 254 254 253 253 254 252 253 252 252 254 253 255 254 253 253 252 254 253 253 252 254 252 253 252 252 252 252 252 254 252 254 252 254 254 255 254 255 254 255 255 254 253 256 253 253 253 252 252 252 253 252 251 251 249 252 251 251 252 252 252 252 252 253 252 252 254 251 251 252 252 252 252 252 252 251 252 250 250 249 250 251 251 252 251 252 254 252 253 253 252 252 252 252 253 252 253 253 253 255 255 254 256 255 256 256 255 253 253 252 253 252 252 252 252 252 253 252 253 252 251 251 252 252 253 252 253 252 252 252 253 254 254 253 254 254 256 256 258 257 255 254 256 252 253 251 250 251 250 252 252 252 253 253 254 254 0 0 0 0 0 0 252 252 250 251 252 251 251 252 251 0 0 0 0 0
    0 0 0 0 0 0 0 0 0 0 0 0 0 0 0 0 0 0 0 0 0 0 0 0 0 0 0 0 0 0 0 0 0 0 0 0 0 0 0 0 0 0 0 0 0 0 0 0 0 0 0 0 0 0 0 0 0 0 0 0 0 0 0 0 0 0 0 0 0 255 255 254 253 253 252 253 254 254 254 252 253 254 253 256 255 254 253 253 254 253 252 252 252 251 252 252 252 252 252 253 253 252 257 254 255 253 254 252 252 252 252 251 252 252 251 252 252 252 253 253 253 253 252 255 254 257 256 252 252 254 255 255 255 256 254 253 256 259 256 256 255 257 255 256 256 255 254 253 253 253 252 253 252 252 253 253 254 253 252 252 252 252 252 252 252 254 252 254 253 253 253 253 253 254 252 255 252 254 253 255 254 254 253 254 254 253 253 255 252 252 252 252 252 252 252 252 251 251 249 252 251 251 252 252 252 252 252 253 252 253 254 251 252 252 252 252 252 252 251 251 252 250 250 250 251 251 251 252 251 252 254 252 253 252 252 252 252 252 252 252 252 253 252 254 254 253 256 255 256 256 255 253 253 252 253 253 252 252 252 252 255 253 254 252 252 252 252 252 252 252 252 252 252 252 252 253 253 252 253 253 255 255 258 257 255 254 255 252 252 251 250 251 250 252 252 252 254 253 0 0 0 0 0 0 0 0 0 250 249 250 251 251 252 252 252 0 0 0 0 0
    0 0 0 0 0 0 0 0 0 0 0 0 0 0 0 0 0 0 0 0 0 0 0 0 0 0 0 0 0 0 0 0 0 0 0 0 0 0 0 0 0 0 0 0 0 0 0 0 0 0 0 0 0 0 0 0 0 0 0 0 0 0 0 0 0 0 0 0 0 256 256 254 253 253 253 253 254 254 254 252 253 254 253 256 256 255 254 254 255 254 252 253 253 251 252 252 252 252 253 253 254 252 257 254 255 253 254 252 252 252 252 250 251 251 251 251 252 252 253 253 253 254 253 256 254 257 256 252 252 255 255 255 255 256 255 253 257 260 257 257 256 258 256 256 257 255 254 253 253 254 252 253 252 252 253 252 254 252 252 252 252 252 252 252 252 254 252 254 253 253 253 254 254 255 252 255 253 254 253 255 254 254 253 253 253 252 253 255 252 252 252 252 252 252 253 252 251 251 249 252 251 251 252 252 252 252 252 253 252 253 254 251 252 252 252 252 252 252 251 251 251 250 251 250 251 251 252 252 252 253 254 252 253 252 252 252 252 252 252 252 252 252 252 253 254 253 256 254 255 255 256 253 254 252 253 253 253 253 253 253 255 253 254 252 252 252 252 252 252 252 252 251 252 251 252 252 252 252 253 253 254 255 257 256 255 254 254 252 252 252 251 251 252 252 252 252 254 254 0 0 0 0 0 0 0 0 0 250 249 249 250 251 252 253 252 0 0 0 0 0
    0 0 0 0 0 0 0 0 0 0 0 0 0 0 0 0 0 0 0 0 0 0 0 0 0 0 0 0 0 0 0 0 0 0 0 0 0 0 0 0 0 0 0 0 0 0 0 0 0 0 0 0 0 0 0 0 0 0 0 0 0 0 0 0 0 0 0 0 0 256 256 255 253 254 254 253 254 254 253 252 253 254 253 256 256 255 255 255 256 255 253 254 253 252 252 252 252 252 253 253 253 252 257 254 255 253 253 252 252 252 252 250 251 251 250 251 252 252 253 253 254 254 253 256 255 257 256 252 252 255 255 255 255 256 255 253 257 260 257 258 257 258 256 257 258 255 254 253 253 254 253 254 252 252 253 253 255 253 252 252 252 253 253 253 253 254 252 254 253 253 253 254 254 255 253 256 254 254 253 256 255 255 253 254 254 253 254 256 253 253 253 253 253 253 254 252 251 252 250 252 251 251 252 252 252 252 252 253 252 253 253 251 252 252 252 252 252 252 251 252 252 251 252 251 252 252 252 254 252 254 254 253 252 252 252 251 252 252 252 252 252 252 252 252 253 253 255 254 255 255 256 254 255 252 253 253 252 252 253 253 254 253 254 252 252 252 251 251 251 252 251 250 251 251 252 252 252 252 252 253 254 254 257 255 254 253 253 252 252 252 251 251 252 252 252 252 254 254 0 0 0 0 0 0 0 0 0 249 249 249 250 252 254 254 252 0 0 0 0 0
    0 0 0 0 0 0 0 0 0 0 0 0 0 0 0 0 0 0 0 0 0 0 0 0 0 0 0 0 0 0 0 0 0 0 0 0 0 0 0 0 0 0 0 0 0 0 0 0 0 0 0 0 0 0 0 0 0 0 0 0 0 0 0 0 0 0 0 0 0 255 255 254 253 253 254 252 254 253 252 252 252 254 252 255 255 255 255 255 256 255 253 255 254 252 253 253 253 253 253 254 254 252 256 254 255 253 253 252 252 252 252 250 251 251 250 251 252 253 253 254 254 254 253 256 256 257 255 251 252 254 254 255 255 255 254 253 258 260 258 258 257 257 256 256 257 255 254 253 253 254 254 255 252 252 253 253 255 253 252 252 252 253 253 254 253 254 253 255 254 253 253 254 254 256 253 255 254 253 253 256 255 255 253 254 254 253 255 256 254 254 253 254 254 254 255 253 252 252 250 252 251 251 252 252 252 252 252 253 252 254 254 252 252 252 252 252 252 253 252 252 253 252 253 252 253 252 253 255 253 255 255 253 252 252 252 252 252 252 252 252 252 252 252 252 252 252 254 252 254 254 255 254 254 253 252 252 252 252 253 252 254 252 254 252 252 252 252 250 251 251 250 250 251 250 252 252 252 252 252 252 253 254 257 255 255 254 254 253 253 252 251 251 252 252 252 252 254 253 0 0 0 0 0 0 0 0 0 249 249 250 251 254 256 254 252 0 0 0 0 0
    0 0 0 0 0 0 0 0 0 0 0 0 0 0 0 0 0 0 0 0 0 0 0 0 0 0 0 0 0 0 0 0 0 0 0 0 0 0 0 0 0 0 0 0 0 0 0 0 0 0 0 0 0 0 0 0 0 0 0 0 0 0 0 0 0 0 0 0 0 255 254 254 252 253 253 252 253 253 252 252 252 254 252 255 255 255 254 255 255 255 253 255 254 252 253 253 253 253 253 254 253 252 257 254 256 253 253 252 252 253 252 251 251 251 251 252 252 254 254 255 255 255 254 256 256 256 255 251 252 253 254 254 254 255 253 253 258 260 257 257 256 256 255 256 257 254 253 253 252 254 254 254 252 252 253 253 255 253 252 252 252 253 253 254 253 253 253 254 254 252 252 253 253 255 253 255 254 252 253 255 254 254 252 253 253 252 254 255 253 253 253 253 254 254 255 252 252 252 250 252 251 251 252 252 252 252 252 253 252 254 254 252 253 253 253 252 252 253 252 252 253 252 253 252 253 253 253 255 254 255 255 254 253 252 252 252 252 252 252 252 252 252 252 252 252 252 253 252 253 253 254 254 254 253 252 252 253 252 253 253 254 253 256 254 255 253 253 252 252 252 251 250 250 250 251 252 252 252 252 252 252 253 257 254 255 255 255 255 255 254 252 252 252 252 252 252 254 253 0 0 0 0 0 0 0 0 0 249 250 251 252 255 256 253 251 0 0 0 0 0
    0 0 0 0 0 0 0 0 0 0 0 0 0 0 0 0 0 0 0 0 0 0 0 0 0 0 0 0 0 0 0 0 0 0 0 0 0 0 0 0 0 0 0 0 0 0 0 0 0 0 0 0 0 0 0 0 0 0 0 0 0 0 0 0 0 0 0 0 0 255 254 253 252 252 253 252 253 254 252 252 252 254 252 254 254 254 254 254 254 254 253 254 254 252 253 253 253 253 253 254 254 252 258 255 258 254 255 253 252 253 252 251 251 251 251 252 253 254 255 256 256 256 254 255 256 256 255 251 252 253 254 254 254 254 253 252 258 259 256 257 255 255 255 256 257 254 253 252 252 253 253 253 252 252 252 252 253 252 251 252 252 252 252 253 252 252 252 253 252 252 251 252 252 253 252 254 253 252 253 255 254 254 252 253 253 252 254 255 253 253 252 253 254 253 254 252 251 251 250 252 251 251 252 251 252 252 252 253 252 255 254 252 253 253 253 252 252 253 252 252 253 252 253 253 253 253 253 255 254 255 255 253 253 253 253 252 253 252 252 252 252 252 252 252 252 252 254 252 254 253 255 255 255 254 254 253 255 254 254 254 255 254 257 255 257 255 255 255 253 255 251 250 250 250 251 251 252 252 251 252 252 253 256 253 255 256 256 257 256 255 252 252 252 252 252 252 254 253 0 0 0 0 0 0 0 0 0 250 252 252 253 256 256 252 0 0 0 0 0 0
    0 0 0 0 0 0 0 0 0 0 0 0 0 0 0 0 0 0 0 0 0 0 0 0 0 0 0 0 0 0 0 0 0 0 0 0 0 0 0 0 0 0 0 0 0 0 0 0 0 0 0 0 0 0 0 0 0 0 0 0 0 0 0 0 0 0 0 0 0 255 254 254 252 253 253 252 253 254 252 252 252 253 252 254 254 253 253 254 254 254 253 254 254 252 253 253 253 253 253 254 255 252 259 256 259 256 256 254 252 253 252 250 250 0 251 252 253 255 256 256 256 256 254 255 256 255 254 250 252 253 253 254 255 254 253 252 258 259 256 257 255 255 255 255 257 254 252 252 251 252 252 252 252 251 251 252 252 252 250 251 251 252 252 252 252 252 252 252 252 251 250 251 252 253 252 254 253 252 253 256 255 255 253 253 253 252 254 255 253 253 253 253 254 254 255 252 252 252 250 252 251 251 251 251 252 252 252 253 252 255 254 253 254 254 254 253 253 253 252 252 253 252 253 252 253 252 253 255 254 254 255 254 253 254 253 253 253 252 252 252 252 252 252 252 252 252 254 252 254 254 255 255 255 255 254 253 256 255 255 254 255 254 257 255 257 255 255 255 254 256 250 250 249 249 251 251 251 251 251 252 252 253 255 252 254 255 256 257 256 255 252 252 253 252 252 252 254 252 0 0 0 0 0 0 0 0 0 249 251 251 252 256 256 253 251 0 0 0 0 0
    0 0 0 0 0 0 0 0 0 0 0 0 0 0 0 0 0 0 0 0 0 0 0 0 0 0 0 0 0 0 0 0 0 0 0 0 0 0 0 0 0 0 0 0 0 0 0 0 0 0 0 0 0 0 0 0 0 0 0 0 0 0 0 0 0 0 0 0 0 255 253 253 252 252 253 252 252 253 252 252 252 252 252 253 253 253 253 253 253 254 253 254 253 252 253 252 252 253 253 254 255 252 259 255 260 256 256 254 252 254 252 0 0 0 0 0 0 255 256 256 255 255 253 253 254 254 253 250 252 253 254 254 255 254 253 253 258 259 256 258 256 256 255 0 0 254 252 252 250 0 252 252 252 251 251 252 252 251 251 251 251 252 252 252 252 252 252 252 252 251 250 250 252 252 252 254 254 253 254 256 255 256 254 254 253 252 255 255 253 254 254 255 256 255 256 254 253 253 251 253 250 251 252 251 252 252 252 253 252 256 255 253 255 255 254 254 253 253 252 252 253 252 252 252 252 252 252 254 254 254 255 254 253 254 254 253 253 252 252 252 252 252 251 252 252 252 254 252 254 254 255 255 255 255 255 253 256 255 255 254 254 254 256 255 256 255 254 254 253 255 250 250 249 249 251 251 251 251 250 252 252 253 254 252 253 254 255 256 256 255 252 253 254 252 252 252 253 0 0 0 0 0 0 362 0 0 0 0 0 250 251 254 254 252 251 0 0 0 0 0
    0 0 0 0 0 0 0 0 0 0 0 0 0 0 0 0 0 0 0 0 0 0 0 0 0 0 0 0 0 0 0 0 0 0 0 0 0 0 0 0 0 0 0 0 0 0 0 0 0 0 0 0 0 0 0 0 0 0 0 0 0 0 0 0 0 0 0 0 0 254 253 252 252 252 253 252 252 252 252 252 251 252 252 253 253 253 253 254 253 254 253 254 253 252 253 252 252 253 252 253 255 252 259 255 260 255 255 253 0 253 252 0 0 0 0 0 0 257 257 257 255 254 252 252 253 253 252 250 252 253 254 255 255 254 253 253 259 259 257 258 257 256 255 0 0 254 252 252 250 0 252 252 252 252 252 252 252 251 251 252 252 252 252 252 252 252 252 252 252 251 251 251 252 253 253 255 255 254 254 256 256 256 254 254 254 253 255 255 254 255 255 256 257 256 257 255 255 255 251 254 250 251 252 251 252 252 252 253 252 256 255 254 255 255 255 255 254 255 252 253 254 252 252 252 252 252 252 253 254 254 255 254 253 254 254 254 253 252 252 252 252 252 252 252 252 252 253 252 254 254 255 255 255 255 255 253 256 255 254 253 253 253 255 254 254 254 252 253 252 254 250 250 249 250 251 251 251 251 251 252 252 253 254 252 253 254 255 256 255 254 252 253 254 252 252 251 252 0 0 0 0 0 0 357 0 0 0 0 0 0 0 0 252 252 0 0 0 0 0 0
    0 0 0 0 0 0 0 0 0 0 0 0 0 0 0 0 0 0 0 0 0 0 0 0 0 0 0 0 0 0 0 0 0 0 0 0 0 0 0 0 0 0 0 0 0 0 0 0 0 0 0 0 0 0 0 0 0 0 0 0 0 0 0 0 0 0 0 0 0 253 252 252 252 253 253 252 252 252 252 252 252 252 252 253 253 254 254 254 254 255 253 254 253 252 252 252 252 252 252 253 253 252 258 254 259 256 255 253 0 255 254 255 255 0 0 0 256 258 257 258 255 255 253 252 254 254 252 251 252 253 254 255 255 254 253 254 258 258 257 257 256 255 255 255 256 253 252 252 251 251 252 252 251 252 252 252 252 252 251 252 252 252 252 252 252 251 252 252 0 251 251 251 252 253 254 255 255 254 255 257 256 256 254 254 255 253 255 256 254 256 255 257 257 256 257 256 255 256 252 254 250 251 252 251 252 252 252 253 252 256 256 254 256 256 255 255 255 256 254 254 256 252 252 252 252 252 252 253 253 254 255 254 253 255 255 255 254 252 252 252 252 252 251 252 252 252 253 252 253 254 255 255 255 255 254 252 255 253 253 252 252 252 253 253 252 252 252 252 252 253 250 250 249 250 251 251 251 251 251 252 252 254 254 252 253 254 254 255 255 254 252 253 254 252 252 251 252 0 0 0 0 0 0 0 0 0 0 0 0 0 0 0 252 251 250 0 0 0 0 0
    0 0 0 0 0 0 0 0 0 0 0 0 0 0 0 0 0 0 0 0 0 0 0 0 0 0 0 0 0 0 0 0 0 0 0 0 0 0 0 0 0 0 0 0 0 0 0 0 0 0 0 0 0 0 0 0 0 0 0 0 0 0 0 0 0 0 0 0 0 253 252 252 252 253 253 252 252 253 252 252 251 252 251 252 252 253 253 254 253 255 253 253 253 252 252 251 252 252 252 252 252 251 258 255 260 260 258 257 252 255 255 256 255 254 254 256 256 258 257 258 255 256 254 253 254 254 252 251 252 253 253 254 255 253 253 254 258 257 257 256 255 254 253 253 253 252 252 252 250 251 252 252 252 252 252 253 252 252 252 252 252 252 252 252 252 251 252 252 0 252 0 252 252 254 0 255 255 254 255 258 256 257 254 255 255 254 255 255 254 256 255 256 257 255 257 256 255 255 252 255 251 251 252 252 252 252 253 253 252 255 257 254 257 257 256 256 257 257 257 257 258 252 253 253 252 252 252 253 253 253 254 254 253 255 255 256 254 253 252 252 252 252 250 251 250 251 252 252 252 253 254 254 253 254 253 0 0 252 252 251 252 252 252 252 252 252 252 253 252 253 251 251 250 250 251 251 251 251 251 252 252 254 254 252 253 253 254 255 254 253 252 253 254 252 252 251 252 252 0 0 0 0 0 0 0 252 251 0 0 251 251 252 252 251 249 0 0 0 0 0
    0 0 0 0 0 0 0 0 0 0 0 0 0 0 0 0 0 0 0 0 0 0 0 0 0 0 0 0 0 0 0 0 0 0 0 0 0 0 0 0 0 0 0 0 0 0 0 0 0 0 0 0 0 0 0 0 0 0 0 0 0 0 0 0 0 0 0 0 0 252 252 252 252 253 253 252 252 253 252 252 252 252 251 252 252 252 252 252 252 254 252 253 252 252 252 251 251 251 251 252 252 250 258 254 261 262 260 260 0 255 255 256 256 255 254 257 256 258 258 258 256 257 254 253 254 254 252 252 252 252 253 254 254 253 253 254 257 257 257 255 254 254 253 252 252 252 252 252 250 251 252 252 252 253 253 254 253 253 252 252 252 252 252 252 252 251 252 252 252 252 251 252 252 254 0 255 255 255 255 258 256 257 253 254 255 253 254 254 252 254 253 255 255 254 255 255 254 255 252 256 252 252 252 252 252 252 253 253 252 255 257 255 258 258 257 258 258 258 258 257 258 252 253 253 252 252 252 253 252 253 254 254 253 255 255 256 255 253 252 252 251 251 250 251 250 251 252 252 252 253 253 253 252 253 253 0 0 252 252 252 252 252 252 252 252 252 252 253 252 252 251 251 250 250 251 251 250 251 251 252 252 254 254 252 253 254 254 255 254 253 252 253 254 253 253 252 252 252 253 253 0 0 252 0 0 252 251 0 252 252 251 252 251 251 0 0 0 0 0 0
    0 0 0 0 0 0 0 0 0 0 0 0 0 0 0 0 0 0 0 0 0 0 0 0 0 0 0 0 0 0 0 0 0 0 0 0 0 0 0 0 0 0 0 0 0 0 0 0 0 0 0 0 0 0 0 0 0 0 0 0 0 0 0 0 0 0 0 0 0 253 253 252 252 253 253 253 252 253 253 252 252 252 251 252 251 252 252 252 252 253 252 0 252 251 251 250 251 251 250 251 251 250 257 252 261 263 261 260 0 0 256 257 257 256 255 257 257 259 258 258 255 256 253 252 254 254 252 252 252 252 253 254 254 253 252 253 255 256 255 254 253 253 252 252 252 252 252 252 251 252 252 253 252 254 254 255 254 254 252 253 252 252 252 252 252 251 251 252 252 252 252 252 253 254 254 255 254 254 254 257 255 256 252 253 254 253 253 253 252 254 253 255 255 254 255 256 255 256 253 256 252 252 253 252 252 253 253 253 253 255 258 255 258 258 257 258 258 258 257 256 255 252 252 253 252 252 252 252 252 253 254 254 254 254 254 255 254 253 252 251 251 250 250 251 250 251 252 252 253 253 254 253 253 253 253 252 253 252 252 252 252 252 252 252 252 252 252 253 252 252 251 251 249 250 250 250 250 250 250 252 252 254 253 252 253 253 253 254 253 253 252 253 254 253 253 252 252 252 252 0 0 0 0 0 0 255 252 0 252 252 252 251 251 251 0 0 0 0 0 0
    0 0 0 0 0 0 0 0 0 0 0 0 0 0 0 0 0 0 0 0 0 0 0 0 0 0 0 0 0 0 0 0 0 0 0 0 0 0 0 0 0 0 0 0 0 0 0 0 0 0 0 0 0 0 0 0 0 0 0 0 0 0 0 0 0 0 0 0 0 253 253 252 253 253 253 253 253 253 252 252 251 251 250 251 250 251 251 252 252 252 252 252 252 250 250 249 250 250 249 250 250 249 255 250 260 0 0 258 0 0 255 256 256 254 254 256 256 259 258 257 253 255 252 252 253 253 252 252 252 253 253 254 254 253 253 253 254 256 254 253 253 254 252 252 252 252 252 253 252 252 252 253 252 255 255 255 255 255 253 254 252 252 251 251 251 251 251 252 252 253 252 253 254 254 254 255 253 253 253 257 254 256 252 253 254 253 253 254 252 254 253 255 255 254 256 257 256 256 254 256 252 252 253 252 252 253 253 253 252 255 257 255 258 258 256 257 257 258 257 257 255 253 253 254 253 252 252 253 252 254 254 254 254 254 254 254 254 253 252 250 251 250 251 252 251 252 253 252 254 254 255 253 253 253 254 252 253 252 252 252 252 252 252 251 252 252 252 252 252 252 252 251 250 250 250 250 249 250 250 251 252 254 252 252 252 252 252 254 252 252 252 253 254 253 253 252 251 252 251 0 0 252 252 0 0 256 0 0 252 251 251 251 251 0 0 0 0 0 0 0
    0 0 0 0 0 0 0 0 0 0 0 0 0 0 0 0 0 0 0 0 0 0 0 0 0 0 0 0 0 0 0 0 0 0 0 0 0 0 0 0 0 0 0 0 0 0 0 0 0 0 0 0 0 0 0 0 0 0 0 0 0 0 0 0 0 0 0 0 0 255 254 253 254 254 253 253 252 252 252 251 251 250 249 250 249 250 251 251 251 252 252 252 251 250 250 248 249 248 248 248 249 247 252 248 256 253 254 254 0 252 253 254 254 253 252 255 254 257 257 256 252 255 252 252 253 253 252 252 252 253 254 254 255 254 253 254 254 257 255 253 254 254 252 252 252 252 253 253 252 252 252 253 252 255 255 254 255 255 253 255 252 253 251 251 252 251 251 254 254 255 254 254 255 255 255 255 252 252 252 256 253 255 252 253 254 253 253 254 252 254 253 255 255 254 255 256 255 256 254 255 252 252 253 252 252 253 253 253 252 255 257 254 257 257 255 257 257 258 258 258 256 254 254 255 254 254 253 253 253 255 255 255 255 254 253 253 253 252 251 250 250 250 251 252 251 252 253 252 254 253 254 253 253 253 253 252 252 252 252 252 252 251 252 250 251 251 251 252 252 252 252 251 250 251 251 251 250 251 250 251 252 253 252 252 252 252 252 253 252 252 252 253 255 254 254 252 251 252 252 252 0 251 252 0 0 0 0 0 252 251 0 250 250 0 0 0 0 0 0 0
    0 0 0 0 0 0 0 0 0 0 0 0 0 0 0 0 0 0 0 0 0 0 0 0 0 0 0 0 0 0 0 0 0 0 0 0 0 0 0 0 0 0 0 0 0 0 0 0 0 0 0 0 0 0 0 0 0 0 0 0 0 0 0 0 0 0 0 0 0 257 257 255 255 255 253 253 252 252 251 251 250 249 249 250 249 249 250 250 251 252 252 251 250 249 248 247 248 247 247 247 248 247 251 248 253 252 253 253 252 252 253 253 253 252 252 253 253 255 254 253 251 253 252 252 252 253 252 253 252 253 254 255 254 253 253 254 254 255 255 252 253 254 253 252 252 252 254 253 252 252 252 253 252 254 254 253 254 256 253 255 253 255 253 252 252 252 252 256 255 256 255 255 255 255 255 254 252 252 252 254 252 255 252 253 254 253 252 253 252 253 252 254 254 253 254 255 254 255 253 254 252 252 253 252 252 253 253 253 253 254 256 254 256 257 255 257 257 258 257 259 256 255 255 256 255 254 254 254 253 256 255 256 255 253 252 252 252 252 251 250 250 250 251 252 251 251 252 252 253 252 253 252 252 252 252 252 252 252 251 251 251 250 251 249 250 251 251 252 252 252 252 252 251 252 252 252 251 252 251 252 252 254 252 252 252 253 252 255 252 253 252 254 256 254 254 252 251 252 252 252 257 252 253 0 0 0 0 252 252 251 0 250 250 0 0 0 0 0 0 0
    0 0 0 0 0 0 0 0 0 0 0 0 0 0 0 0 0 0 0 0 0 0 0 0 0 0 0 0 0 0 0 0 0 0 0 0 0 0 0 0 0 0 0 0 0 0 0 0 0 0 0 0 0 0 0 0 0 0 0 0 0 0 0 0 0 0 0 0 0 258 259 257 256 256 253 254 252 252 251 251 250 250 249 250 248 249 249 250 250 251 251 250 250 248 247 246 247 246 246 246 247 246 250 248 252 250 252 252 252 252 253 252 252 252 252 253 253 254 252 252 250 252 251 252 252 253 252 253 252 253 253 254 253 252 252 252 252 253 252 251 251 252 252 252 252 252 252 252 252 252 252 252 252 253 253 252 254 256 253 255 253 254 253 252 252 252 252 256 255 255 255 255 254 255 254 254 252 252 252 253 252 254 251 253 253 252 252 252 251 252 251 252 252 252 253 254 253 254 253 254 252 252 253 252 252 253 253 253 253 254 256 254 256 256 256 256 256 257 256 258 255 255 254 255 255 255 255 254 253 257 256 258 256 254 253 253 253 252 252 251 251 250 252 252 251 252 252 252 253 252 253 252 252 252 252 252 252 252 251 250 250 250 250 248 250 250 251 252 252 252 252 251 251 252 252 252 252 252 252 252 252 255 253 252 253 254 252 256 254 253 252 253 255 254 254 252 252 254 253 256 259 258 256 253 258 258 0 254 252 252 250 250 250 250 249 0 0 0 0 0
    0 0 0 0 0 0 0 0 0 0 0 0 0 0 0 0 0 0 0 0 0 0 0 0 0 0 0 0 0 0 0 0 0 0 0 0 0 0 0 0 0 0 0 0 0 0 0 0 0 0 0 0 0 0 0 0 0 0 0 0 0 0 0 0 0 0 0 0 0 0 260 260 258 257 252 255 253 252 251 251 251 250 250 250 248 249 249 249 250 250 250 249 249 247 246 246 246 246 246 246 246 246 248 247 251 249 252 252 0 252 252 252 252 252 252 253 252 252 250 251 248 251 249 251 252 252 252 252 252 252 253 253 252 252 252 252 252 252 252 250 250 251 250 251 251 251 251 251 251 251 250 252 251 252 252 252 253 256 252 255 253 255 254 253 252 252 252 257 255 255 254 255 254 255 253 253 251 252 252 252 252 253 252 253 252 252 251 251 249 250 249 251 251 251 252 253 253 254 253 253 252 252 252 252 252 252 252 252 252 253 255 253 255 256 255 255 256 256 256 257 255 255 254 255 255 255 256 254 254 257 256 259 257 256 254 254 255 253 252 251 251 251 252 253 252 252 253 252 253 252 252 252 251 252 252 251 251 251 250 249 250 249 250 249 250 251 252 252 252 252 252 251 251 252 252 252 252 252 252 252 253 255 253 253 253 254 252 256 254 253 252 252 254 253 255 253 252 254 255 257 259 259 256 253 258 258 0 255 253 252 251 250 251 250 250 0 0 0 0 0
    0 0 0 0 0 0 0 0 0 0 0 0 0 0 0 0 0 0 0 0 0 0 0 0 0 0 0 0 0 0 0 0 0 0 0 0 0 0 0 0 0 0 0 0 0 0 0 0 0 0 0 0 0 0 0 0 0 0 0 0 0 0 0 0 0 0 0 0 0 0 264 261 0 0 0 256 253 252 251 251 250 250 250 250 248 249 249 249 249 250 250 249 249 246 246 246 246 246 245 246 246 245 247 246 248 247 250 251 0 0 0 252 251 252 252 252 252 250 248 250 247 249 247 250 250 251 251 251 250 252 252 252 252 251 251 251 252 252 251 249 249 249 249 249 250 250 250 250 250 251 250 252 251 252 252 252 252 257 252 256 254 255 254 252 252 252 252 256 254 254 253 254 254 255 253 253 251 252 252 252 252 253 252 252 252 251 250 250 248 249 248 250 250 250 251 252 252 253 253 253 252 251 252 252 252 252 252 252 252 252 254 253 254 255 254 255 255 255 255 257 254 254 252 254 254 254 255 253 254 256 256 259 257 255 254 253 255 252 252 251 252 251 253 253 252 253 254 252 254 252 253 252 252 252 252 251 251 251 251 250 250 250 251 250 252 252 252 252 253 252 252 251 251 251 251 251 251 252 252 252 253 255 253 253 253 254 252 254 252 252 251 251 253 252 254 253 252 0 0 0 0 0 0 0 259 0 0 0 256 252 252 252 252 251 251 0 0 0 0 0
    0 0 0 0 0 0 0 0 0 0 0 0 0 0 0 0 0 0 0 0 0 0 0 0 0 0 0 0 0 0 0 0 0 0 0 0 0 0 0 0 0 0 0 0 0 0 0 0 0 0 0 0 0 0 0 0 0 0 0 0 0 0 0 0 0 0 0 0 0 0 272 0 0 0 0 257 252 252 250 251 250 250 250 250 248 249 249 249 249 250 250 248 248 246 246 246 246 246 245 245 246 245 247 246 247 246 249 0 0 0 0 0 251 252 252 252 251 249 0 0 0 0 246 249 249 250 251 250 250 251 252 252 252 251 250 250 251 251 250 249 248 248 248 249 250 250 250 250 250 251 249 251 251 0 0 251 253 257 252 256 254 256 254 252 252 252 252 256 254 253 253 253 253 255 253 253 251 252 252 252 252 253 252 253 252 251 249 249 247 248 248 250 250 250 251 252 252 252 252 252 252 250 252 251 251 251 251 251 251 252 253 252 253 254 254 254 254 255 254 255 252 253 252 252 253 253 254 252 253 256 256 259 256 254 253 252 254 252 252 251 251 251 254 255 253 254 255 253 255 253 254 252 252 252 252 252 252 252 252 251 252 251 252 251 252 252 253 252 253 251 252 251 251 252 252 252 252 252 253 253 254 256 253 253 252 254 252 254 253 253 252 252 254 253 254 253 252 254 254 257 259 0 0 0 0 0 0 0 0 0 255 0 256 252 253 0 0 0 0 0
    0 0 0 0 0 0 0 0 0 0 0 0 0 0 0 0 0 0 0 0 0 0 0 0 0 0 0 0 0 0 0 0 0 0 0 0 0 0 0 0 0 0 0 0 0 0 0 0 0 0 0 0 0 0 0 0 0 0 0 0 0 0 0 0 0 0 0 0 0 0 0 0 0 0 0 256 252 252 250 251 250 250 250 250 249 249 249 249 250 250 250 248 248 246 246 246 246 246 245 245 246 246 247 246 248 246 249 0 0 0 0 252 252 253 253 253 252 248 0 0 0 0 246 0 249 250 250 250 250 251 252 252 252 251 250 250 251 251 250 248 248 248 249 0 0 250 250 251 250 252 249 251 251 0 0 251 253 257 252 256 254 256 254 253 252 252 252 256 254 253 253 253 253 255 252 253 251 252 252 252 252 253 252 254 252 251 249 250 248 249 248 250 250 250 250 252 252 252 252 251 250 249 250 250 250 250 250 250 250 251 253 252 253 254 253 253 254 254 253 254 252 252 251 252 252 252 253 253 254 256 256 260 256 253 252 252 252 251 252 250 250 250 253 253 253 253 255 252 255 254 255 253 253 253 253 252 253 252 252 252 252 252 252 251 252 252 253 252 253 251 252 251 251 252 252 252 252 252 253 253 254 255 253 253 253 254 252 254 253 255 253 252 254 253 254 253 252 254 254 256 258 0 0 0 0 0 0 514 0 0 0 0 0 252 253 0 0 0 0 0
    0 0 0 0 0 0 0 0 0 0 0 0 0 0 0 0 0 0 0 0 0 0 0 0 0 0 0 0 0 0 0 0 0 0 0 0 0 0 0 0 0 0 0 0 0 0 0 0 0 0 0 0 0 0 0 0 0 0 0 0 0 0 0 0 0 0 0 0 0 0 0 0 0 0 0 0 252 252 250 250 250 250 250 250 248 249 249 250 250 250 250 249 248 246 246 245 246 245 245 245 246 245 247 247 248 246 249 250 0 0 0 252 252 253 253 254 252 248 0 0 0 0 244 0 248 249 250 249 249 251 251 252 251 251 250 250 251 251 250 249 248 248 0 0 0 0 0 250 248 250 247 0 0 0 0 0 252 257 252 256 255 256 255 253 252 252 252 256 254 253 253 0 0 255 253 253 251 0 252 252 252 253 252 254 252 251 249 249 248 249 248 249 250 249 249 251 251 251 251 250 250 248 249 249 249 249 250 249 250 250 252 252 253 254 253 253 253 254 253 254 252 252 251 251 252 252 253 253 254 256 256 260 257 253 252 251 252 249 250 249 248 249 252 252 252 0 255 253 255 255 255 253 253 253 253 252 254 253 253 251 252 252 252 252 252 252 252 252 252 250 251 250 251 252 252 252 252 252 253 252 253 254 253 253 253 255 253 254 254 256 256 253 255 254 0 0 0 0 0 0 258 0 0 0 0 0 533 518 493 0 0 0 0 252 254 0 0 0 0 0
    0 0 0 0 0 0 0 0 0 0 0 0 0 0 0 0 0 0 0 0 0 0 0 0 0 0 0 0 0 0 0 0 0 0 0 0 0 0 0 0 0 0 0 0 0 0 0 0 0 0 0 0 0 0 0 0 0 0 0 0 0 0 0 0 0 0 0 0 0 0 0 0 0 0 0 0 252 252 250 251 250 250 250 250 248 249 249 250 249 250 249 248 248 0 246 245 246 244 245 244 245 245 247 247 249 247 249 0 0 0 0 252 252 252 0 0 252 249 0 164 0 142 243 0 248 249 250 249 249 250 251 251 250 250 249 249 250 249 250 249 247 0 0 0 0 0 0 248 246 247 246 246 0 0 0 0 252 257 252 255 254 256 255 253 252 252 252 256 254 0 252 0 0 0 252 253 251 0 0 252 252 254 252 255 253 251 248 248 247 248 248 248 249 248 249 250 250 251 250 249 249 248 248 248 248 248 249 249 249 250 252 253 253 254 253 253 254 253 253 254 252 252 251 251 251 251 252 252 254 256 256 260 256 253 252 251 251 249 249 248 247 247 251 0 0 0 0 0 0 0 0 0 254 254 253 252 253 252 252 251 252 252 253 252 252 252 252 252 251 249 250 249 250 251 251 251 252 252 252 252 252 253 252 252 253 254 253 252 252 0 0 252 252 252 0 0 0 0 0 0 0 0 0 0 0 0 533 0 0 0 0 0 257 249 252 0 0 0 0 0
    0 0 0 0 0 0 0 0 0 0 0 0 0 0 0 0 0 0 0 0 0 0 0 0 0 0 0 0 0 0 0 0 0 0 0 0 0 0 0 0 0 0 0 0 0 0 0 0 0 0 0 0 0 0 0 0 0 0 0 0 0 0 0 0 0 0 0 0 0 115 0 210 0 0 0 0 252 0 250 252 251 252 252 251 249 249 249 250 248 248 246 245 246 0 243 243 245 244 244 243 244 243 246 246 247 246 0 0 0 0 0 252 252 253 0 255 252 249 0 164 162 0 243 0 248 249 250 248 249 249 250 250 249 248 248 247 249 248 249 248 0 0 0 0 0 0 0 247 246 247 245 0 242 0 0 0 251 257 251 256 254 255 255 252 252 252 252 256 253 0 252 0 0 0 252 253 252 0 253 253 253 255 253 256 252 250 247 246 246 246 246 246 249 248 248 250 250 250 250 249 249 247 248 248 0 0 248 0 0 0 252 253 254 254 253 253 254 253 253 253 252 251 250 250 250 250 251 252 253 255 255 260 256 255 253 252 252 249 249 248 246 247 0 0 0 0 0 0 0 0 0 0 0 255 252 252 252 252 252 251 252 252 253 252 253 252 253 252 0 0 250 249 249 250 250 250 251 251 252 251 252 252 250 251 251 252 252 251 251 0 0 251 251 251 0 0 0 0 0 0 0 0 0 0 0 0 0 0 258 0 263 260 255 249 251 0 0 0 0 0
    0 0 0 0 0 0 0 0 0 0 0 0 0 0 0 0 0 0 0 0 0 0 0 0 0 0 0 0 0 0 0 0 0 0 0 0 0 0 0 0 0 0 0 0 0 0 0 0 0 0 0 0 0 0 0 0 0 0 0 0 0 0 0 0 0 0 0 0 0 0 1533 0 1501 0 0 0 0 0 0 0 0 252 252 252 249 250 0 0 249 0 0 0 0 0 0 0 0 244 243 242 243 243 246 0 0 239 0 0 205 0 0 0 252 0 0 0 253 0 0 163 0 0 0 0 0 0 251 248 248 248 248 249 247 246 246 246 0 0 0 0 0 0 0 246 0 0 0 246 246 247 245 0 0 82 0 0 0 259 252 257 256 256 255 252 251 251 251 255 252 0 0 0 0 0 0 0 0 0 0 0 253 254 252 255 252 248 246 246 245 245 0 0 249 247 0 250 250 250 250 248 248 245 245 0 0 0 0 0 0 0 0 254 256 254 253 253 254 253 253 252 251 250 249 249 250 0 0 0 0 0 0 260 257 257 256 254 253 249 0 248 246 246 0 0 0 623 618 0 0 0 0 0 0 255 253 252 253 0 252 252 253 252 253 252 253 252 253 0 0 0 0 248 0 250 249 249 250 251 251 251 251 251 250 250 251 252 252 250 0 0 0 0 0 0 0 0 0 249 0 0 0 0 0 0 0 0 0 267 266 270 267 262 257 0 0 0 0 0 0 0
    0 0 0 0 0 0 0 0 0 0 0 0 0 0 0 0 0 0 0 0 0 0 0 0 0 0 0 0 0 0 0 0 0 0 0 0 0 0 0 0 0 0 0 0 0 0 0 0 0 0 0 0 0 0 0 0 0 0 0 0 0 0 0 0 0 0 0 0 0 0 0 0 0 0 0 0 0 0 0 0 328 0 0 0 0 0 0 0 0 0 0 0 0 0 0 0 0 0 0 0 0 0 0 0 0 0 0 0 0 0 0 0 0 0 0 0 0 0 0 0 0 0 0 0 0 0 251 248 249 248 248 248 248 248 247 0 0 0 4088 8177 0 0 0 0 0 0 101 0 0 0 0 90 89 0 0 0 0 0 0 0 0 259 255 252 249 0 0 0 0 0 0 1443 0 0 0 0 0 0 629 0 0 0 0 0 252 249 246 246 246 0 0 0 249 0 0 0 248 0 0 0 246 243 0 0 0 0 0 0 0 0 0 252 257 253 252 252 254 252 252 251 249 249 248 247 0 0 0 0 0 0 0 0 0 0 254 252 252 0 0 0 0 0 0 0 0 0 0 0 0 0 0 0 0 0 253 0 255 252 253 0 0 0 0 253 254 253 0 0 0 0 0 0 0 0 0 249 249 250 250 250 251 250 249 250 0 252 252 0 0 0 0 0 0 0 0 0 247 247 246 246 0 0 0 0 0 0 0 0 0 278 273 266 260 0 0 0 0 0 0 0
    0 0 0 0 0 0 0 0 0 0 0 0 0 0 0 0 0 0 0 0 0 0 0 0 0 0 0 0 0 0 0 0 0 0 0 0 0 0 0 0 0 0 0 0 0 0 0 0 0 0 0 0 0 0 0 0 0 0 0 0 0 0 0 0 0 0 0 0 0 0 0 0 0 0 0 0 0 0 0 0 0 0 0 0 0 0 0 0 0 0 0 0 0 0 0 0 0 0 0 0 0 0 0 0 0 0 0 0 0 0 0 0 0 0 0 0 0 0 0 0 0 0 0 0 0 0 0 246 247 246 247 247 248 248 0 0 4329 4599 5256 6690 7359 6133 7359 4329 0 0 0 0 0 0 91 91 89 0 83 0 0 327 0 0 0 0 0 0 0 0 0 0 0 0 1066 0 0 0 651 634 0 1098 0 0 0 0 0 0 0 0 0 0 0 0 0 0 0 0 0 0 245 0 0 0 244 0 0 0 0 389 381 377 0 0 0 256 0 253 251 252 252 251 250 249 246 246 246 246 0 493 487 0 0 0 0 0 0 0 250 0 247 246 0 0 0 0 0 0 0 0 0 0 0 0 0 0 0 0 0 0 0 0 0 0 0 0 0 0 254 0 0 0 0 0 0 0 0 0 0 248 249 249 250 250 250 0 0 0 0 0 0 0 0 0 0 0 0 0 0 0 246 246 245 244 242 0 0 0 0 0 0 0 281 279 274 267 0 0 0 0 0 0 0 0
    0 0 0 0 0 0 0 0 0 0 0 0 0 0 0 0 0 0 0 0 0 0 0 0 0 0 0 0 0 0 0 0 0 0 0 0 0 0 0 0 0 0 0 0 0 0 0 0 0 0 0 0 0 0 0 0 0 0 0 0 0 0 0 0 0 0 0 0 0 0 0 0 0 0 0 0 0 0 0 0 0 0 0 0 0 0 0 0 0 0 0 0 0 0 0 0 0 0 0 0 0 0 0 0 0 0 0 0 0 0 0 0 0 0 0 0 0 0 0 0 0 0 0 0 0 0 0 0 0 0 0 0 0 0 0 0 4329 0 0 0 0 0 0 0 0 0 0 0 0 0 0 0 0 0 0 0 0 0 0 0 0 0 0 0 0 0 0 0 0 0 1066 1066 0 0 634 623 1098 1098 1115 1115 0 0 0 0 0 0 0 0 0 0 0 0 0 0 0 0 245 0 0 0 0 0 0 0 383 385 379 371 0 0 0 0 0 253 249 249 247 247 246 246 245 246 0 245 0 0 0 0 0 0 0 0 0 0 0 246 246 0 0 0 242 0 0 0 0 0 0 0 0 0 0 0 0 0 0 0 0 0 0 0 0 0 0 0 0 0 0 0 0 0 0 0 0 0 0 0 0 249 249 249 0 0 0 0 0 0 0 0 0 0 0 0 0 0 0 0 0 0 246 245 242 0 0 0 0 0 0 0 0 278 273 265 0 0 0 0 0 0 0 0
    0 0 0 0 0 0 0 0 0 0 0 0 0 0 0 0 0 0 0 0 0 0 0 0 0 0 0 0 0 0 0 0 0 0 0 0 0 0 0 0 0 0 0 0 0 0 0 0 0 0 0 0 0 0 0 0 0 0 0 0 0 0 0 0 0 0 0 0 0 0 0 0 0 0 0 0 0 0 0 0 0 0 0 0 0 0 0 0 0 0 0 0 0 0 0 0 0 0 0 0 0 0 0 0 0 0 0 0 0 0 0 0 0 0 0 0 0 0 0 0 0 0 0 0 0 0 0 0 0 0 0 0 0 0 0 0 0 0 0 0 0 0 0 0 0 0 0 0 0 0 0 0 0 0 0 0 0 0 0 0 0 0 0 0 0 0 0 0 0 0 0 0 0 0 0 0 0 0 0 0 0 0 0 0 0 0 0 0 0 0 0 0 0 0 0 0 0 0 0 0 0 385 381 383 373 375 373 367 0 0 0 0 0 0 248 246 246 246 242 242 0 0 0 0 0 0 0 0 0 0 0 0 0 0 0 246 246 245 242 242 242 239 0 0 0 0 0 0 0 0 0 0 0 0 0 0 0 0 0 0 0 0 0 0 0 0 0 0 0 0 0 0 808 0 0 0 0 0 0 0 0 0 247 247 245 246 0 0 4329 3066 2725 2725 2537 2453 0 0 0 0 246 246 0 0 0 0 0 422 0 0 279 276 272 0 0 0 0 0 0 0 0 0
    0 0 0 0 0 0 0 0 0 0 0 0 0 0 0 0 0 0 0 0 0 0 0 0 0 0 0 0 0 0 0 0 0 0 0 0 0 0 0 0 0 0 0 0 0 0 0 0 0 0 0 0 0 0 0 0 0 0 0 0 0 0 0 0 0 0 0 0 0 0 0 0 0 0 0 0 0 0 0 0 0 0 0 0 0 0 0 0 0 0 0 0 0 0 0 0 0 0 0 0 0 0 0 0 0 0 0 0 0 0 0 0 0 0 0 0 0 0 0 0 0 0 0 0 0 0 0 0 0 0 0 0 0 0 0 0 0 0 0 0 0 0 0 0 0 0 0 0 0 0 0 0 0 0 0 0 0 0 0 0 0 0 0 0 0 0 0 0 0 0 0 0 0 0 0 0 0 0 0 0 0 0 0 0 0 0 0 0 0 0 0 0 0 0 0 0 0 0 0 0 0 0 0 0 0 0 0 0 0 0 0 0 0 0 0 0 0 0 0 0 0 0 0 0 0 0 0 0 0 0 0 315 0 0 0 0 247 245 240 0 0 0 0 0 0 0 0 7359 0 0 0 0 0 0 0 0 0 0 0 0 0 0 0 0 3873 0 0 0 0 0 0 0 0 0 0 0 0 0 0 0 0 0 246 246 242 243 242 0 0 0 0 0 0 0 243 238 246 247 246 246 243 242 240 0 0 0 0 0 0 0 0 0 0 0 0 0 0 0 0 0
    0 0 0 0 0 0 0 0 0 0 0 0 0 0 0 0 0 0 0 0 0 0 0 0 0 0 0 0 0 0 0 0 0 0 0 0 0 0 0 0 0 0 0 0 0 0 0 0 0 0 0 0 0 0 0 0 0 0 0 0 0 0 0 0 0 0 0 0 0 0 0 0 0 0 0 0 0 0 0 0 0 0 0 0 0 0 0 0 0 0 0 0 0 0 0 0 0 0 0 0 0 0 0 0 0 0 0 0 0 0 0 0 0 0 0 0 0 0 0 0 0 0 0 0 0 0 0 0 0 0 0 0 0 0 0 0 0 0 0 0 0 0 0 0 0 0 0 0 0 0 0 0 0 0 0 0 0 0 0 0 0 0 0 0 0 0 0 0 0 0 0 0 0 0 0 0 0 0 0 0 0 0 0 0 0 0 0 0 0 0 0 0 0 0 0 0 0 0 0 0 0 0 0 0 0 0 0 0 0 0 0 0 0 0 0 0 0 0 0 0 0 0 0 0 0 0 0 0 0 0 0 0 0 0 0 0 0 0 0 0 0 0 0 0 0 0 0 0 0 0 0 0 0 0 0 0 0 0 0 0 0 0 0 0 3679 0 0 0 0 0 0 0 0 0 0 0 0 406 0 430 0 0 244 244 238 0 0 225 224 225 226 227 227 0 238 236 244 247 246 246 244 242 239 238 240 236 235 0 0 0 0 0 0 0 6133 0 0 0 0 0
    0 0 0 0 0 0 0 0 0 0 0 0 0 0 0 0 0 0 0 0 0 0 0 0 0 0 0 0 0 0 0 0 0 0 0 0 0 0 0 0 0 0 0 0 0 0 0 0 0 0 0 0 0 0 0 0 0 0 0 0 0 0 0 0 0 0 0 0 0 0 0 0 0 0 0 0 0 0 0 0 0 0 0 0 0 0 0 0 0 0 0 0 0 0 0 0 0 0 0 0 0 0 0 0 0 0 0 0 0 0 0 0 0 0 0 0 0 0 0 0 0 0 0 0 0 0 0 0 0 0 0 0 0 0 0 0 0 0 0 0 0 0 0 0 0 0 0 0 0 0 0 0 0 0 0 0 0 0 0 0 0 0 0 0 0 0 0 0 0 0 0 0 0 0 0 0 0 0 0 0 0 0 0 0 0 0 0 0 0 0 0 0 0 0 0 0 0 0 0 0 0 0 0 0 0 0 0 0 0 0 0 0 0 0 0 0 0 0 0 0 0 0 0 0 0 0 0 0 0 0 0 0 0 0 0 0 0 0 0 0 0 0 0 0 0 0 0 0 0 0 0 0 0 0 0 0 0 0 0 0 0 7359 0 0 0 0 0 0 0 0 0 0 0 0 0 0 0 0 0 0 0 0 245 242 236 225 223 221 221 221 222 223 223 223 233 235 240 246 247 246 245 242 238 237 236 234 230 229 229 229 228 0 0 0 0 0 0 0 0 0
    0 0 0 0 0 0 0 0 0 0 0 0 0 0 0 0 0 0 0 0 0 0 0 0 0 0 0 0 0 0 0 0 0 0 0 0 0 0 0 0 0 0 0 0 0 0 0 0 0 0 0 0 0 0 0 0 0 0 0 0 0 0 0 0 0 0 0 0 0 0 0 0 0 0 0 0 0 0 0 0 0 0 0 0 0 0 0 0 0 0 0 0 0 0 0 0 0 0 0 0 0 0 0 0 0 0 0 0 0 0 0 0 0 0 0 0 0 0 0 0 0 0 0 0 0 0 0 0 0 0 0 0 0 0 0 0 0 0 0 0 0 0 0 0 0 0 0 0 0 0 0 0 0 0 0 0 0 0 0 0 0 0 0 0 0 0 0 0 0 0 0 0 0 0 0 0 0 0 0 0 0 0 0 0 0 0 0 0 0 0 0 0 0 0 0 0 0 0 0 0 0 0 0 0 0 0 0 0 0 0 0 0 0 0 0 0 0 0 0 0 0 0 0 0 0 0 0 0 0 0 0 0 0 0 0 0 0 0 0 0 0 0 0 0 0 0 0 0 0 0 0 0 0 0 0 0 0 0 0 0 0 0 0 0 0 0 0 0 0 0 0 0 0 0 415 406 0 0 0 0 0 0 249 241 233 221 221 219 221 220 220 221 221 222 224 229 235 0 249 247 247 242 237 0 232 232 227 226 226 225 225 0 0 0 0 0 0 0 0 0
    0 0 0 0 0 0 0 0 0 0 0 0 0 0 0 0 0 0 0 0 0 0 0 0 0 0 0 0 0 0 0 0 0 0 0 0 0 0 0 0 0 0 0 0 0 0 0 0 0 0 0 0 0 0 0 0 0 0 0 0 0 0 0 0 0 0 0 0 0 0 0 0 0 0 0 0 0 0 0 0 0 0 0 0 0 0 0 0 0 0 0 0 0 0 0 0 0 0 0 0 0 0 0 0 0 0 0 0 0 0 0 0 0 0 0 0 0 0 0 0 0 0 0 0 0 0 0 0 0 0 0 0 0 0 0 0 0 0 0 0 0 0 0 0 0 0 0 0 0 0 0 0 0 0 0 0 0 0 0 0 0 0 0 0 0 0 0 0 0 0 0 0 0 0 0 0 0 0 0 0 0 0 0 0 0 0 0 0 0 0 0 0 0 0 0 0 0 0 0 0 0 0 0 0 0 0 0 0 0 0 0 0 0 0 0 0 0 0 0 0 0 0 0 0 0 0 0 0 0 0 0 0 0 0 0 0 0 0 0 0 0 0 0 0 0 0 0 0 0 0 0 0 0 0 0 0 0 0 0 0 0 0 0 0 0 0 0 0 0 0 0 0 0 427 427 411 0 0 0 0 0 0 0 239 232 221 221 219 221 220 221 221 221 222 223 0 230 0 253 253 250 244 0 222 223 225 225 225 225 224 224 223 0 0 0 0 0 0 0 0
    0 0 0 0 0 0 0 0 0 0 0 0 0 0 0 0 0 0 0 0 0 0 0 0 0 0 0 0 0 0 0 0 0 0 0 0 0 0 0 0 0 0 0 0 0 0 0 0 0 0 0 0 0 0 0 0 0 0 0 0 0 0 0 0 0 0 0 0 0 0 0 0 0 0 0 0 0 0 0 0 0 0 0 0 0 0 0 0 0 0 0 0 0 0 0 0 0 0 0 0 0 0 0 0 0 0 0 0 0 0 0 0 0 0 0 0 0 0 0 0 0 0 0 0 0 0 0 0 0 0 0 0 0 0 0 0 0 0 0 0 0 0 0 0 0 0 0 0 0 0 0 0 0 0 0 0 0 0 0 0 0 0 0 0 0 0 0 0 0 0 0 0 0 0 0 0 0 0 0 0 0 0 0 0 0 0 0 0 0 0 0 0 0 0 0 0 0 0 0 0 0 0 0 0 0 0 0 0 0 0 0 0 0 0 0 0 0 0 0 0 0 0 0 0 0 0 0 0 0 0 0 0 0 0 0 0 0 0 0 0 0 0 0 0 0 0 0 0 0 0 0 0 0 0 0 0 0 0 0 0 0 0 0 0 0 0 0 0 0 0 0 0 425 0 430 411 402 377 0 0 0 0 0 0 233 222 222 219 221 220 221 221 221 221 223 223 226 0 0 0 0 221 221 219 221 222 223 223 224 223 223 223 223 0 0 0 0 0 0 0
    0 0 0 0 0 0 0 0 0 0 0 0 0 0 0 0 0 0 0 0 0 0 0 0 0 0 0 0 0 0 0 0 0 0 0 0 0 0 0 0 0 0 0 0 0 0 0 0 0 0 0 0 0 0 0 0 0 0 0 0 0 0 0 0 0 0 0 0 0 0 0 0 0 0 0 0 0 0 0 0 0 0 0 0 0 0 0 0 0 0 0 0 0 0 0 0 0 0 0 0 0 0 0 0 0 0 0 0 0 0 0 0 0 0 0 0 0 0 0 0 0 0 0 0 0 0 0 0 0 0 0 0 0 0 0 0 0 0 0 0 0 0 0 0 0 0 0 0 0 0 0 0 0 0 0 0 0 0 0 0 0 0 0 0 0 0 0 0 0 0 0 0 0 0 0 0 0 0 0 0 0 0 0 0 0 0 0 0 0 0 0 0 0 0 0 0 0 0 0 0 0 0 0 0 0 0 0 0 0 0 0 0 0 0 0 0 0 0 0 0 0 0 0 0 0 0 0 0 0 0 0 0 0 0 0 0 0 0 0 0 0 0 0 0 0 0 0 0 0 0 0 0 0 0 0 0 0 0 0 0 0 0 0 0 0 0 0 0 0 0 0 0 0 0 438 415 402 0 0 0 0 0 0 0 232 222 221 219 220 219 220 221 221 221 223 223 225 223 0 0 0 219 219 217 219 220 221 221 223 223 223 223 224 224 223 0 0 0 0 0</data></depth>
</opencv_storage>
