<?xml version="1.0"?>
<opencv_storage>
<gps_time_stamp>28692</gps_time_stamp>
<gps_x>-6.7561931610107422e+000</gps_x>
<gps_y>1.0111070871353149e+000</gps_y>
<gps_z>-2.0101869106292725e+000</gps_z>
<image_time_stamp>16664</image_time_stamp>
<depth type_id="opencv-matrix">
  <rows>93</rows>
  <cols>320</cols>
  <dt>s</dt>
  <data>
    0 0 0 0 0 0 0 0 0 0 0 0 0 0 0 0 0 0 0 0 0 0 0 0 0 0 0 0 0 0 0 0 0 0 0 0 0 0 0 0 0 0 0 0 0 0 0 0 0 0 0 0 0 0 0 0 0 0 0 0 0 0 0 0 0 0 0 0 0 968 968 955 968 943 931 968 931 886 897 886 876 897 897 908 931 886 931 919 931 943 943 955 943 943 981 955 968 981 968 968 955 919 897 897 908 897 943 931 931 919 943 943 943 943 955 919 897 897 908 886 0 0 0 865 886 865 919 931 931 919 919 931 943 943 994 981 981 968 968 955 943 919 919 865 886 908 908 908 908 919 919 908 943 943 886 931 897 943 955 955 968 981 994 943 943 955 955 943 955 955 955 943 955 968 943 943 955 943 943 931 931 955 897 955 955 943 955 955 955 943 943 968 919 943 943 919 931 968 968 968 968 943 919 943 919 931 919 919 931 919 931 943 897 931 931 908 897 931 931 897 931 919 908 908 908 919 886 897 931 876 886 919 908 908 897 897 886 876 876 876 865 865 865 865 876 886 886 931 919 908 919 897 908 886 865 855 845 808 799 799 782 774 774 750 774 758 766 750 743 758 774 758 836 836 845 886 876 865 886 865 865 865 855 855 845 865 876 845 845 817 826 0 0 714 700 714 694 687 669 657 634 629 613 608 598 593 588 593 584 593 579 584 570 579 570 0 0 0 0 0
    0 0 0 0 0 0 0 0 0 0 0 0 0 0 0 0 0 0 0 0 0 0 0 0 0 0 0 0 0 0 0 0 0 0 0 0 0 0 0 0 0 0 0 0 0 0 0 0 0 0 0 0 0 0 0 0 0 0 0 0 0 0 0 0 0 0 0 0 0 955 955 955 968 955 931 981 943 876 897 886 865 897 886 897 908 886 919 908 919 943 931 943 931 931 968 931 943 943 943 943 919 886 876 876 886 876 931 919 919 919 943 943 943 943 955 919 897 897 897 886 0 0 855 855 886 865 908 919 919 908 908 919 931 931 981 955 955 931 943 931 908 886 886 855 865 886 886 886 897 897 897 897 931 931 865 886 865 919 919 908 919 943 955 908 919 943 931 919 931 931 931 931 943 955 931 943 968 943 943 931 931 955 897 955 943 943 943 943 943 931 919 943 886 908 908 897 897 955 955 955 955 931 908 931 919 931 919 919 919 908 931 931 897 931 931 908 908 943 943 897 931 919 908 897 897 908 876 876 908 855 855 886 886 876 876 876 865 865 865 855 855 855 855 855 865 865 865 919 897 908 908 897 897 876 865 855 845 808 808 808 782 774 782 750 766 758 766 750 743 766 774 766 836 836 836 876 855 845 855 845 845 845 836 845 836 855 855 836 836 817 817 817 791 782 766 766 750 735 700 694 681 645 639 618 603 598 593 593 588 588 579 584 570 579 570 0 0 0 0 0
    0 0 0 0 0 0 0 0 0 0 0 0 0 0 0 0 0 0 0 0 0 0 0 0 0 0 0 0 0 0 0 0 0 0 0 0 0 0 0 0 0 0 0 0 0 0 0 0 0 0 0 0 0 0 0 0 0 0 0 0 0 0 0 0 0 0 0 0 0 955 955 943 955 955 931 981 931 865 897 886 865 886 886 886 897 876 908 897 908 943 919 931 919 931 955 919 919 908 908 908 897 876 876 876 886 876 919 908 908 908 931 931 943 943 955 919 897 886 886 865 0 855 845 836 876 865 886 908 908 897 897 897 919 908 955 931 919 897 908 886 876 865 865 855 855 876 886 886 886 897 897 886 908 919 855 876 845 876 876 865 876 886 897 886 897 919 897 897 908 908 908 908 919 931 908 931 955 931 919 908 919 955 886 955 943 931 919 931 919 919 908 919 876 886 876 886 855 919 908 919 943 919 908 931 919 931 919 908 919 908 919 919 886 931 919 908 908 943 931 897 919 919 897 886 886 897 865 865 886 845 845 855 855 855 855 855 855 845 845 845 845 855 845 855 855 855 865 908 897 897 908 897 897 876 865 865 845 808 808 808 782 782 782 758 766 758 766 750 750 774 774 766 836 836 826 876 855 845 855 826 836 826 817 836 826 845 845 826 826 817 826 826 808 808 808 808 817 799 766 743 700 687 694 663 623 608 603 603 593 593 584 584 574 584 570 0 0 0 0 0
    0 0 0 0 0 0 0 0 0 0 0 0 0 0 0 0 0 0 0 0 0 0 0 0 0 0 0 0 0 0 0 0 0 0 0 0 0 0 0 0 0 0 0 0 0 0 0 0 0 0 0 0 0 0 0 0 0 0 0 0 0 0 0 0 0 0 0 0 0 943 931 919 931 919 886 931 886 865 897 876 855 876 876 876 886 876 897 886 897 943 908 919 919 919 943 908 908 897 897 897 897 876 876 876 886 876 908 908 897 897 931 919 931 931 943 897 886 876 865 845 0 836 826 817 855 855 876 886 886 886 876 876 908 897 919 897 897 876 876 876 865 855 865 855 855 865 876 876 876 886 886 876 897 919 836 855 826 855 845 845 865 865 876 886 886 897 886 876 886 886 897 897 897 897 876 908 931 908 908 886 908 943 886 943 943 931 897 919 908 908 897 908 876 876 865 897 845 919 886 897 943 919 908 931 908 919 908 897 908 897 897 908 886 919 908 897 908 931 931 886 919 919 886 876 886 886 865 865 876 845 836 845 845 845 845 845 845 845 836 845 845 845 845 845 845 845 845 886 886 886 897 897 886 876 865 865 855 808 808 808 774 782 782 758 766 758 774 750 750 774 766 766 826 808 791 876 855 845 836 817 808 799 799 817 817 826 826 817 826 817 826 826 817 817 826 817 836 817 808 791 714 700 694 687 669 639 618 613 603 603 588 588 574 579 574 0 0 0 0 0
    0 0 0 0 0 0 0 0 0 0 0 0 0 0 0 0 0 0 0 0 0 0 0 0 0 0 0 0 0 0 0 0 0 0 0 0 0 0 0 0 0 0 0 0 0 0 0 0 0 0 0 0 0 0 0 0 0 0 0 0 0 0 0 0 0 0 0 0 0 897 886 886 886 876 865 876 865 855 886 876 855 876 876 876 876 876 886 876 886 931 897 897 919 919 919 897 897 886 886 897 886 876 876 886 886 876 908 897 897 897 919 908 908 908 919 876 865 855 845 836 826 826 817 799 845 845 865 876 876 876 876 876 897 876 897 886 886 876 876 865 855 855 855 855 845 855 865 865 865 876 876 865 876 908 836 845 826 855 845 845 865 865 865 886 886 897 876 876 876 876 886 886 886 886 865 886 919 908 908 886 931 968 908 943 943 919 886 908 886 886 886 886 865 855 855 897 836 886 855 865 908 897 897 908 886 908 897 886 897 886 886 886 876 897 897 886 919 931 931 886 919 919 886 876 886 876 855 865 876 845 836 836 836 836 845 845 836 836 826 836 836 845 836 836 826 836 836 865 876 865 886 886 886 865 855 865 845 799 808 808 774 782 782 758 766 758 774 750 750 774 758 758 826 782 758 865 845 826 817 799 791 774 774 799 791 808 799 799 817 817 836 836 826 826 836 845 855 836 836 817 766 743 735 714 687 0 694 634 608 613 593 593 579 584 579 0 0 0 0 0
    0 0 0 0 0 0 0 0 0 0 0 0 0 0 0 0 0 0 0 0 0 0 0 0 0 0 0 0 0 0 0 0 0 0 0 0 0 0 0 0 0 0 0 0 0 0 0 0 0 0 0 0 0 0 0 0 0 0 0 0 0 0 0 0 0 0 0 0 0 876 865 865 865 845 845 855 855 855 876 865 845 865 865 865 865 865 876 865 876 931 876 876 897 908 897 886 886 876 886 897 886 876 876 886 886 886 897 897 897 897 908 897 886 897 886 865 865 855 845 845 0 836 826 817 845 845 855 865 865 876 865 865 886 876 876 876 886 876 876 865 855 855 855 855 845 855 855 855 855 865 865 855 865 886 826 826 817 836 826 826 845 845 855 876 876 876 865 865 865 865 876 876 865 865 865 876 897 919 897 886 931 968 908 931 931 908 865 897 876 876 876 876 855 855 845 886 826 855 826 836 865 876 876 897 876 897 886 876 886 876 876 876 865 886 886 876 919 919 931 886 919 919 876 876 886 876 855 855 865 845 836 836 826 826 836 845 826 826 817 836 836 836 836 826 817 826 826 836 845 826 836 855 855 845 836 855 845 782 808 799 766 782 782 758 766 758 766 750 750 774 750 758 817 766 750 836 817 817 808 799 791 774 782 799 791 808 791 799 817 817 836 836 826 826 836 845 855 826 826 817 799 799 799 774 758 750 743 714 700 639 603 598 579 584 579 0 0 0 0 0
    0 0 0 0 0 0 0 0 0 0 0 0 0 0 0 0 0 0 0 0 0 0 0 0 0 0 0 0 0 0 0 0 0 0 0 0 0 0 0 0 0 0 0 0 0 0 0 0 0 0 0 0 0 0 0 0 0 0 0 0 0 0 0 0 0 0 0 0 0 855 845 836 836 817 817 826 836 836 855 855 845 855 865 855 855 865 865 855 855 908 845 845 865 897 865 855 855 855 865 876 876 865 876 876 876 886 897 886 897 886 908 886 876 886 876 855 865 855 855 845 836 845 836 836 855 855 855 865 865 865 865 865 886 865 865 865 876 865 876 865 855 855 855 845 845 845 845 845 845 855 855 845 855 865 826 817 799 817 817 817 826 826 845 855 865 865 855 855 855 855 865 865 855 855 855 855 876 919 886 876 908 968 908 908 908 897 855 886 865 865 865 865 855 845 836 876 826 845 817 817 845 855 865 876 865 876 876 865 876 865 876 876 876 886 876 876 919 908 919 876 908 908 876 876 886 865 855 855 865 845 836 836 826 817 817 826 817 799 799 817 826 836 826 817 817 817 817 826 826 817 817 826 836 826 817 836 826 774 799 799 758 782 774 750 758 758 766 750 750 774 743 750 808 750 743 808 791 799 799 799 791 774 774 799 791 799 791 791 808 817 826 826 817 826 826 826 836 817 808 808 791 791 791 782 782 774 766 728 707 681 675 618 593 593 588 0 0 0 0 0
    0 0 0 0 0 0 0 0 0 0 0 0 0 0 0 0 0 0 0 0 0 0 0 0 0 0 0 0 0 0 0 0 0 0 0 0 0 0 0 0 0 0 0 0 0 0 0 0 0 0 0 0 0 0 0 0 0 0 0 0 0 0 0 0 0 0 0 0 0 836 826 817 817 791 791 808 817 817 836 836 826 845 855 855 845 855 855 845 836 876 826 817 817 845 836 826 836 836 836 845 855 855 865 865 876 876 897 897 897 897 908 897 876 886 865 855 855 845 845 845 836 845 836 836 855 855 855 855 855 865 855 855 876 855 855 865 876 865 865 865 865 855 855 845 836 836 836 845 845 845 0 836 845 855 826 817 791 808 808 808 817 826 826 845 855 845 845 845 845 845 855 855 836 836 845 845 855 897 876 876 897 968 908 886 886 886 845 876 855 865 855 855 845 845 836 876 817 826 799 799 808 826 845 845 845 855 855 855 876 865 876 865 876 886 876 876 919 886 908 876 897 897 865 876 886 865 845 855 865 836 836 826 817 808 808 817 799 791 791 808 817 826 817 808 817 817 817 826 817 808 799 808 817 799 799 817 808 766 791 791 750 774 774 750 758 758 758 750 743 774 743 743 791 750 743 791 766 782 774 782 782 766 774 799 791 799 782 791 808 808 826 826 817 817 826 817 826 808 799 799 791 791 782 782 791 774 782 743 707 681 681 629 613 608 598 0 0 0 0 0
    0 0 0 0 0 0 0 0 0 0 0 0 0 0 0 0 0 0 0 0 0 0 0 0 0 0 0 0 0 0 0 0 0 0 0 0 0 0 0 0 0 0 0 0 0 0 0 0 0 0 0 0 0 0 0 0 0 0 0 0 0 0 0 0 0 0 0 0 0 826 817 799 808 774 782 799 799 808 817 826 817 836 845 845 845 845 845 836 826 855 817 799 799 817 808 799 808 817 817 836 836 845 855 855 865 865 886 897 897 897 908 897 876 886 865 845 855 845 845 836 836 836 826 836 855 845 845 845 845 855 855 855 876 855 855 865 876 865 865 865 855 855 855 845 836 836 836 836 836 836 836 826 826 845 817 808 782 799 799 799 817 817 826 836 845 845 836 836 836 836 845 845 836 836 836 836 836 865 855 855 897 955 897 865 865 865 845 865 845 855 845 845 836 836 826 855 817 817 791 791 791 808 826 826 826 845 845 845 865 865 865 865 876 876 865 865 897 865 876 855 876 876 855 865 876 865 845 855 855 836 826 817 808 799 799 808 799 791 791 808 817 836 817 808 817 817 817 817 808 791 799 799 799 782 791 799 782 766 791 782 750 774 774 750 758 758 758 743 743 774 735 743 791 750 743 782 743 766 758 782 782 774 774 808 799 808 799 791 817 817 826 826 817 817 826 826 826 808 799 808 791 791 791 791 791 782 791 774 728 707 714 687 651 629 629 0 0 0 0 0
    0 0 0 0 0 0 0 0 0 0 0 0 0 0 0 0 0 0 0 0 0 0 0 0 0 0 0 0 0 0 0 0 0 0 0 0 0 0 0 0 0 0 0 0 0 0 0 0 0 0 0 0 0 0 0 0 0 0 0 0 0 0 0 0 0 0 0 0 0 826 817 791 808 766 782 791 799 799 808 817 808 826 845 845 836 836 836 817 817 826 799 782 774 799 799 791 808 799 808 826 836 836 845 845 855 855 886 876 886 876 876 865 845 845 836 826 836 836 836 0 817 817 817 817 836 836 836 836 845 855 855 855 876 855 855 865 876 865 865 855 855 845 845 845 826 826 826 836 826 826 836 826 817 826 799 799 774 782 791 799 817 808 817 836 836 836 836 836 826 826 836 836 826 826 826 826 826 836 826 826 826 855 845 836 845 845 826 845 836 845 836 836 826 826 826 826 808 808 791 791 791 799 817 817 826 836 836 836 865 855 865 865 865 855 845 845 855 836 836 826 845 845 836 855 865 855 836 845 845 836 826 817 808 799 799 808 791 782 791 799 817 826 817 817 817 826 817 817 799 791 791 791 799 782 782 799 782 766 791 774 750 774 766 743 750 750 743 743 743 766 728 735 782 750 743 782 743 766 750 782 774 774 766 799 799 799 791 782 808 808 826 826 817 817 826 826 826 808 799 808 799 799 791 791 799 782 799 799 774 750 750 721 687 663 645 0 0 0 0 0
    0 0 0 0 0 0 0 0 0 0 0 0 0 0 0 0 0 0 0 0 0 0 0 0 0 0 0 0 0 0 0 0 0 0 0 0 0 0 0 0 0 0 0 0 0 0 0 0 0 0 0 0 0 0 0 0 0 0 0 0 0 0 0 0 0 0 0 0 0 817 808 791 808 758 782 791 791 799 808 808 808 817 836 836 826 826 826 808 808 817 799 774 766 782 791 782 791 774 799 817 817 826 836 836 845 845 865 865 865 845 845 826 808 817 799 799 808 808 817 799 799 791 791 799 817 817 817 817 826 845 855 855 876 855 855 865 876 865 876 855 855 845 845 845 826 826 826 826 817 826 826 808 808 817 791 774 766 774 782 791 808 808 817 826 836 845 836 836 826 826 836 826 817 817 817 817 817 826 826 817 817 826 817 808 826 826 817 836 826 836 836 817 826 817 808 817 799 799 782 782 791 791 799 808 817 826 826 826 855 855 855 855 855 845 836 836 836 817 817 808 817 826 826 855 855 855 836 845 845 836 826 817 808 799 799 799 791 774 782 791 808 817 808 799 817 808 808 808 791 782 791 782 791 774 782 791 774 774 782 774 750 774 758 743 750 750 743 743 743 758 728 743 774 743 743 774 735 750 743 774 766 766 750 774 774 774 774 766 799 799 826 826 826 826 836 826 826 808 799 799 799 799 791 791 791 774 791 782 758 750 743 728 700 687 681 0 0 0 0 0
    0 0 0 0 0 0 0 0 0 0 0 0 0 0 0 0 0 0 0 0 0 0 0 0 0 0 0 0 0 0 0 0 0 0 0 0 0 0 0 0 0 0 0 0 0 0 0 0 0 0 0 0 0 0 0 0 0 0 0 0 0 0 0 0 0 0 0 0 0 799 808 782 808 758 782 791 791 799 799 799 799 808 826 826 817 817 817 799 799 808 791 766 758 766 782 766 782 750 782 799 808 817 817 826 826 826 855 845 845 826 817 808 791 791 791 791 791 799 799 791 782 782 782 782 791 799 799 808 808 826 845 845 865 845 845 855 865 865 865 855 855 845 845 845 817 817 817 817 808 808 817 799 799 808 782 766 766 782 791 791 808 808 808 826 836 845 836 836 826 826 826 826 817 808 808 808 799 826 817 808 808 808 799 782 808 817 808 826 817 826 817 808 808 799 799 799 791 791 782 791 791 791 799 808 799 817 808 817 845 845 855 845 845 836 817 817 817 808 808 799 808 808 817 845 855 845 826 845 836 836 826 808 808 799 799 799 782 774 774 782 799 799 791 782 799 799 791 799 774 774 782 774 774 766 774 782 758 766 774 758 750 766 750 735 743 750 735 735 735 750 721 735 758 743 735 758 735 743 743 766 750 758 743 758 758 758 766 758 791 782 826 817 826 836 836 826 826 808 799 799 791 791 782 782 791 766 782 766 743 735 735 735 714 700 700 0 0 0 0 0
    0 0 0 0 0 0 0 0 0 0 0 0 0 0 0 0 0 0 0 0 0 0 0 0 0 0 0 0 0 0 0 0 0 0 0 0 0 0 0 0 0 0 0 0 0 0 0 0 0 0 0 0 0 0 0 0 0 0 0 0 0 0 0 0 0 0 0 0 0 791 791 774 808 750 782 791 782 791 791 791 791 791 826 817 808 808 799 791 791 791 774 750 743 758 774 758 782 743 774 791 791 799 808 808 817 808 836 836 826 817 799 799 782 782 782 791 791 799 799 791 782 782 782 782 791 791 791 799 799 808 826 826 845 836 836 845 855 855 865 855 845 826 836 836 808 808 808 808 799 808 808 791 791 799 782 766 774 782 791 791 808 799 808 826 826 836 836 836 817 817 817 817 808 799 799 791 791 817 799 791 799 791 791 774 799 817 808 817 808 817 808 799 799 791 782 791 782 782 774 791 782 774 782 791 782 791 791 799 826 826 845 836 836 817 799 808 808 791 799 791 799 799 808 845 845 845 826 836 836 826 826 808 799 791 791 799 774 766 774 774 799 782 782 774 791 791 774 782 766 758 774 758 766 750 758 774 750 766 766 750 743 758 743 728 735 743 728 728 728 735 714 735 750 735 735 750 735 743 743 766 750 750 735 750 750 758 758 750 782 774 817 799 817 826 826 0 817 791 782 791 782 791 774 774 782 750 766 750 735 728 728 728 714 707 707 0 0 0 0 0
    0 0 0 0 0 0 0 0 0 0 0 0 0 0 0 0 0 0 0 0 0 0 0 0 0 0 0 0 0 0 0 0 0 0 0 0 0 0 0 0 0 0 0 0 0 0 0 0 0 0 0 0 0 0 0 0 0 0 0 0 0 0 0 0 0 0 0 0 0 782 791 766 808 743 782 782 782 791 782 782 791 782 817 808 791 799 791 774 774 774 758 743 735 750 766 750 774 743 766 782 791 799 799 799 808 799 826 826 817 808 791 791 782 774 774 782 782 791 791 791 782 782 791 791 791 791 782 791 791 799 808 808 817 817 817 836 845 845 845 845 836 817 817 817 782 799 808 799 799 799 799 791 791 799 782 774 774 782 791 791 799 791 799 808 817 817 826 817 799 799 808 808 799 799 791 782 782 808 799 791 799 791 782 774 799 808 808 808 799 808 791 782 791 782 774 774 774 774 774 782 774 766 774 766 766 774 774 791 808 826 836 826 826 808 791 799 791 791 791 791 791 791 808 836 836 836 817 826 826 817 817 799 799 791 791 782 766 766 766 758 791 766 766 758 782 782 766 774 758 758 766 750 750 743 750 758 743 766 758 743 743 750 735 728 728 735 721 728 728 728 714 728 735 735 735 750 728 743 735 750 743 743 735 743 743 743 750 750 774 758 791 782 799 808 799 774 782 750 766 774 774 774 766 766 782 750 766 743 735 728 735 735 721 714 721 0 0 0 0 0
    0 0 0 0 0 0 0 0 0 0 0 0 0 0 0 0 0 0 0 0 0 0 0 0 0 0 0 0 0 0 0 0 0 0 0 0 0 0 0 0 0 0 0 0 0 0 0 0 0 0 0 0 0 0 0 0 0 0 0 0 0 0 0 0 0 0 0 0 0 774 782 758 799 735 774 782 774 782 782 782 791 774 808 799 782 791 766 758 758 750 743 735 735 743 766 750 774 735 766 782 782 791 791 791 799 791 817 808 799 791 774 782 774 766 766 774 774 782 782 782 774 782 782 782 782 782 774 782 782 791 799 791 799 799 808 817 817 826 808 808 799 791 799 799 758 791 799 799 791 799 799 782 782 808 791 774 774 774 782 782 799 782 791 799 799 808 817 799 774 782 791 791 791 782 782 782 782 817 808 799 808 799 791 782 791 799 799 799 791 799 774 774 782 774 774 774 774 774 766 782 774 758 766 750 750 758 758 782 799 817 817 817 817 799 782 799 791 791 791 791 791 791 799 826 826 826 817 826 817 817 817 782 791 782 782 774 766 766 766 750 782 750 750 750 774 774 750 766 758 750 766 750 750 743 750 758 735 766 750 735 743 750 735 728 728 735 721 728 721 721 707 728 728 728 728 735 721 728 721 735 728 728 721 728 735 735 743 743 758 743 758 766 774 782 774 750 758 735 743 758 750 758 743 750 758 735 743 728 721 721 728 728 721 714 721 0 0 0 0 0
    0 0 0 0 0 0 0 0 0 0 0 0 0 0 0 0 0 0 0 0 0 0 0 0 0 0 0 0 0 0 0 0 0 0 0 0 0 0 0 0 0 0 0 0 0 0 0 0 0 0 0 0 0 0 0 0 0 0 0 0 0 0 0 0 0 0 0 0 0 782 791 758 799 735 774 774 774 782 782 782 791 774 808 799 774 782 750 750 750 743 728 728 728 743 758 750 774 743 766 782 782 791 791 791 799 782 808 808 782 782 766 774 766 766 766 766 766 774 766 774 766 774 782 774 782 774 774 774 774 782 791 782 791 791 799 808 808 808 782 791 782 766 774 782 743 774 791 791 791 791 791 782 782 799 791 774 774 774 782 782 791 782 782 791 791 799 808 791 750 766 782 774 774 774 782 774 782 808 808 808 808 799 799 782 791 799 791 791 774 791 758 766 782 766 774 774 774 774 766 782 774 758 758 735 743 750 750 782 782 799 808 808 808 791 782 791 782 791 791 791 791 791 799 817 817 817 808 808 808 808 808 774 791 782 782 766 758 766 758 743 782 743 743 743 758 750 735 750 758 750 766 750 750 743 743 750 735 758 743 728 735 743 728 728 728 728 714 721 721 721 707 728 728 728 721 728 714 721 721 728 721 721 714 721 728 728 743 735 743 735 743 750 758 758 743 743 743 735 735 743 735 735 728 735 743 721 728 721 714 714 721 721 714 707 714 0 0 0 0 0
    0 0 0 0 0 0 0 0 0 0 0 0 0 0 0 0 0 0 0 0 0 0 0 0 0 0 0 0 0 0 0 0 0 0 0 0 0 0 0 0 0 0 0 0 0 0 0 0 0 0 0 0 0 0 0 0 0 0 0 0 0 0 0 0 0 0 0 0 0 782 791 758 799 735 774 774 774 782 782 782 782 774 808 791 766 782 750 750 750 735 0 728 735 743 758 750 782 750 774 791 791 791 791 791 799 782 808 799 774 774 758 766 758 758 766 758 758 766 758 766 758 758 774 766 774 774 766 774 774 782 791 774 791 791 799 799 791 791 758 774 774 758 766 774 743 774 782 782 782 782 791 774 774 799 791 782 782 774 782 791 799 791 791 791 791 799 808 782 743 758 766 766 766 774 774 766 774 799 799 799 799 799 799 782 791 791 791 791 774 782 758 766 782 766 774 774 774 782 774 782 782 766 766 743 750 758 750 774 782 791 799 799 799 774 774 791 774 782 791 782 782 782 799 799 799 808 799 799 791 799 799 758 782 774 782 758 758 766 750 743 774 735 735 735 743 728 721 728 735 735 750 743 743 735 735 743 728 743 735 721 735 735 721 721 721 721 714 721 721 714 707 728 721 728 721 728 714 714 721 728 721 728 721 728 728 735 750 743 750 743 750 750 750 750 743 735 728 735 721 721 721 721 714 728 735 721 721 721 714 721 721 721 714 707 714 0 0 0 0 0
    0 0 0 0 0 0 0 0 0 0 0 0 0 0 0 0 0 0 0 0 0 0 0 0 0 0 0 0 0 0 0 0 0 0 0 0 0 0 0 0 0 0 0 0 0 0 0 0 0 0 0 0 0 0 0 0 0 0 0 0 0 0 0 0 0 0 0 0 0 774 782 758 791 735 774 774 774 782 782 782 782 774 799 782 766 782 758 758 758 743 735 728 735 743 750 750 782 743 774 791 791 791 791 791 799 782 808 791 766 758 750 750 750 750 750 743 750 750 743 750 743 758 766 758 766 766 766 774 774 782 782 766 791 774 791 782 758 766 735 766 766 750 758 774 735 766 782 782 782 774 782 774 774 799 791 782 782 782 791 782 799 791 791 791 774 782 791 766 743 750 750 758 758 758 766 758 766 791 782 791 791 791 799 774 791 791 791 782 766 774 758 758 782 766 774 774 774 782 774 791 782 774 774 750 758 766 758 774 782 782 791 791 799 766 774 782 774 774 782 782 782 782 799 791 799 799 791 791 782 791 799 743 782 774 774 750 758 758 750 743 774 735 728 728 735 714 714 721 721 721 728 735 728 728 728 728 728 735 721 714 728 721 714 721 714 714 714 721 714 714 707 728 721 728 721 721 714 714 721 728 728 728 721 728 735 735 750 735 743 735 743 743 735 735 728 721 714 714 714 707 707 707 714 728 735 721 721 721 721 721 721 721 714 707 707 0 0 0 0 0
    0 0 0 0 0 0 0 0 0 0 0 0 0 0 0 0 0 0 0 0 0 0 0 0 0 0 0 0 0 0 0 0 0 0 0 0 0 0 0 0 0 0 0 0 0 0 0 0 0 0 0 0 0 0 0 0 0 0 0 0 0 0 0 0 0 0 0 0 0 766 766 750 791 735 766 774 766 774 774 782 782 774 799 782 766 782 766 766 766 750 735 721 721 735 743 735 758 735 758 782 782 791 791 791 799 782 808 791 758 758 743 743 735 735 728 728 735 735 0 735 735 750 758 750 766 758 766 774 766 782 782 766 791 774 782 774 743 750 728 750 758 750 750 766 728 766 774 774 774 766 774 766 766 799 782 774 774 774 782 774 782 774 766 758 743 750 758 743 735 743 735 743 743 750 750 743 750 766 758 774 782 774 791 774 782 782 782 782 766 766 750 750 774 766 774 774 766 774 774 782 774 766 766 735 750 766 758 774 774 782 782 782 791 758 774 782 766 774 782 782 782 782 799 791 799 799 791 782 782 791 799 735 782 774 774 750 758 758 750 743 766 728 728 728 735 714 714 714 714 707 714 721 714 714 714 721 714 721 707 707 714 714 707 721 721 721 721 721 721 714 714 743 721 721 714 714 714 714 721 728 721 721 721 728 728 728 743 728 721 721 728 728 721 714 714 714 707 707 700 700 700 707 721 728 735 721 721 721 714 721 721 714 707 707 707 0 0 0 0 0
    0 0 0 0 0 0 0 0 0 0 0 0 0 0 0 0 0 0 0 0 0 0 0 0 0 0 0 0 0 0 0 0 0 0 0 0 0 0 0 0 0 0 0 0 0 0 0 0 0 0 0 0 0 0 0 0 0 0 0 0 0 0 0 0 0 0 0 0 0 758 758 743 782 735 758 766 766 766 774 774 782 766 791 782 758 782 750 758 750 735 728 714 707 721 721 721 735 721 743 766 774 791 782 791 799 782 808 799 758 758 728 728 721 714 707 0 0 0 0 0 721 735 750 743 766 750 758 782 766 782 774 766 791 766 774 758 735 0 721 735 750 743 743 758 728 758 766 766 766 758 766 758 758 791 766 766 766 758 766 750 758 750 750 735 728 728 735 728 728 735 728 735 735 735 735 728 735 743 735 750 766 766 782 774 782 774 774 766 758 750 743 743 766 758 774 774 758 766 766 774 766 750 750 714 728 750 750 766 766 774 774 782 782 750 766 774 766 766 782 782 782 782 799 782 782 791 791 774 766 782 791 735 782 774 774 743 758 758 743 735 766 728 721 728 728 714 714 707 714 707 707 714 707 700 707 707 700 700 694 694 700 700 700 707 707 707 707 714 700 707 707 728 721 721 714 714 714 714 714 721 721 721 721 721 721 721 728 714 707 707 707 714 714 707 707 700 700 700 694 694 694 694 714 721 721 714 714 714 707 714 714 707 700 700 700 0 0 0 0 0
    0 0 0 0 0 0 0 0 0 0 0 0 0 0 0 0 0 0 0 0 0 0 0 0 0 0 0 0 0 0 0 0 0 0 0 0 0 0 0 0 0 0 0 0 0 0 0 0 0 0 0 0 0 0 0 0 0 0 0 0 0 0 0 0 0 0 0 0 0 750 750 735 766 735 750 758 750 758 766 774 774 758 782 774 750 766 743 743 735 714 714 707 694 707 0 714 721 714 728 750 766 782 774 782 791 774 799 791 743 743 721 721 707 707 694 694 0 0 0 0 700 0 735 728 750 743 750 774 758 774 758 758 782 750 758 743 728 0 0 728 735 728 735 750 728 743 750 758 750 750 750 743 743 774 750 750 750 743 743 735 743 735 743 735 728 728 735 728 728 728 728 721 721 721 728 721 721 728 721 728 758 758 782 774 774 766 758 750 743 728 728 728 750 750 766 758 750 750 750 758 743 728 721 700 707 728 735 750 750 758 766 766 774 743 766 766 758 758 774 766 766 774 782 758 766 782 774 766 758 774 774 728 774 774 774 743 758 758 750 735 758 728 721 721 728 707 707 707 707 700 700 707 694 687 694 694 687 687 687 687 694 700 700 700 700 707 707 707 700 707 714 728 728 721 714 714 714 707 714 714 721 714 714 714 714 714 721 707 700 700 700 700 707 700 700 700 694 694 687 681 675 681 694 707 707 707 700 700 700 707 707 700 694 694 694 0 0 0 0 0
    0 0 0 0 0 0 0 0 0 0 0 0 0 0 0 0 0 0 0 0 0 0 0 0 0 0 0 0 0 0 0 0 0 0 0 0 0 0 0 0 0 0 0 0 0 0 0 0 0 0 0 0 0 0 0 0 0 0 0 0 0 0 0 0 0 0 0 0 0 743 735 728 743 728 735 750 750 750 758 766 766 758 774 766 750 750 735 735 728 707 707 700 687 0 0 0 714 714 721 735 758 774 766 774 774 766 791 774 728 728 714 714 700 700 687 681 0 700 681 0 694 0 714 721 735 728 735 766 758 766 750 743 766 735 743 728 714 0 0 0 721 721 721 735 721 735 735 743 735 735 743 735 735 750 743 735 735 735 728 721 728 728 728 728 728 721 728 728 721 728 721 714 714 714 721 714 714 721 721 721 758 766 791 782 766 758 750 735 728 714 714 714 728 728 743 735 728 728 728 728 721 707 700 687 694 700 721 728 728 735 750 750 766 743 766 766 750 758 766 758 758 758 766 735 743 750 750 750 743 758 750 728 774 766 766 743 758 750 743 735 750 721 714 721 721 700 700 700 700 700 700 700 687 681 687 681 681 681 681 675 681 687 700 707 707 707 714 721 714 728 743 735 728 721 714 707 707 694 707 707 707 707 707 707 707 707 714 700 700 700 700 700 700 700 707 707 700 700 694 687 681 681 694 700 694 694 694 694 694 694 694 687 681 687 681 0 0 0 0 0
    0 0 0 0 0 0 0 0 0 0 0 0 0 0 0 0 0 0 0 0 0 0 0 0 0 0 0 0 0 0 0 0 0 0 0 0 0 0 0 0 0 0 0 0 0 0 0 0 0 0 0 0 0 0 0 0 0 0 0 0 0 0 0 0 0 0 0 0 0 721 721 721 728 714 728 735 735 743 743 750 758 750 766 758 750 750 743 735 721 707 700 700 687 0 0 0 700 707 707 721 743 766 750 750 750 743 766 735 707 700 700 694 687 681 675 669 681 687 669 0 694 0 0 707 721 721 721 758 743 743 743 735 750 728 728 721 707 0 0 0 707 714 707 721 714 721 721 728 721 721 728 728 721 735 728 728 728 721 714 714 721 721 721 721 721 721 728 728 721 721 714 707 714 707 714 707 707 714 714 714 750 750 782 782 758 743 735 721 714 707 707 707 714 714 728 721 721 714 714 714 707 700 694 681 694 694 714 721 714 721 735 735 750 735 758 750 743 743 750 743 735 743 735 714 714 728 728 735 728 743 735 728 774 766 766 735 758 750 743 735 750 714 714 721 721 700 707 700 707 700 707 700 694 687 687 675 669 675 669 669 669 681 687 687 694 694 700 700 700 721 728 714 721 714 700 681 687 675 700 700 707 707 707 707 707 700 714 700 700 700 700 700 700 700 707 700 707 707 707 694 694 694 707 707 700 700 700 694 694 694 687 681 675 681 675 0 0 0 0 0
    0 0 0 0 0 0 0 0 0 0 0 0 0 0 0 0 0 0 0 0 0 0 0 0 0 0 0 0 0 0 0 0 0 0 0 0 0 0 0 0 0 0 0 0 0 0 0 0 0 0 0 0 0 0 0 0 0 0 0 0 0 0 0 0 0 0 0 0 0 0 0 707 714 707 721 721 728 728 735 743 743 735 758 743 743 735 735 728 721 707 707 700 687 700 0 0 694 700 694 707 714 743 728 728 728 721 728 714 700 700 694 687 681 675 669 663 675 681 663 0 687 0 0 0 714 707 707 743 721 721 721 721 728 714 721 714 707 707 700 0 700 700 700 714 707 714 714 721 714 721 721 714 714 714 721 714 714 714 707 707 714 714 714 714 714 714 721 721 721 721 714 707 707 707 707 700 700 700 700 700 735 728 758 758 743 728 721 714 700 694 694 694 700 707 721 714 714 707 707 700 700 694 687 681 687 694 707 707 707 707 714 721 728 721 743 735 728 728 735 721 721 721 714 700 700 707 714 714 714 728 721 721 766 766 758 735 758 750 743 735 750 714 721 721 721 707 707 707 707 700 707 700 694 687 687 669 657 663 663 663 657 669 681 681 681 687 687 687 687 700 707 694 707 707 700 681 687 675 700 700 707 707 707 700 707 700 714 700 700 700 700 700 700 700 714 700 707 714 721 707 700 707 721 721 714 707 707 700 694 694 687 675 663 681 669 0 0 0 0 0
    0 0 0 0 0 0 0 0 0 0 0 0 0 0 0 0 0 0 0 0 0 0 0 0 0 0 0 0 0 0 0 0 0 0 0 0 0 0 0 0 0 0 0 0 0 0 0 0 0 0 0 0 0 0 0 0 0 0 0 0 0 0 0 0 0 0 0 0 0 700 700 700 707 700 707 707 714 714 721 728 728 728 735 728 721 721 721 721 714 707 707 700 694 700 700 694 694 694 687 694 694 714 707 700 707 714 714 714 700 700 694 694 687 681 669 663 675 681 657 681 687 0 0 0 0 700 700 728 707 707 714 707 721 714 714 714 714 707 707 700 694 694 687 700 700 694 700 700 700 707 707 707 700 700 707 707 707 707 700 700 707 707 707 707 714 707 714 714 714 714 714 694 700 700 694 694 694 694 694 694 728 714 735 743 728 721 714 707 700 694 687 687 687 694 707 700 707 694 700 700 694 694 687 681 687 687 700 694 694 694 700 707 707 707 721 721 721 721 721 714 700 700 700 694 694 700 700 700 700 714 714 714 750 758 750 735 750 743 743 735 750 714 714 714 714 700 707 700 700 700 700 694 687 687 681 669 651 663 657 663 657 669 675 675 675 681 681 681 681 687 694 669 694 694 675 669 675 675 694 700 700 700 700 694 700 694 707 694 694 694 694 694 694 694 700 687 681 681 675 657 651 681 700 714 687 687 700 694 681 687 675 663 645 675 663 0 0 0 0 0
    0 0 0 0 0 0 0 0 0 0 0 0 0 0 0 0 0 0 0 0 0 0 0 0 0 0 0 0 0 0 0 0 0 0 0 0 0 0 0 0 0 0 0 0 0 0 0 0 0 0 0 0 0 0 0 0 0 0 0 0 0 0 0 0 0 0 0 0 0 694 694 694 700 694 700 694 700 700 707 714 714 714 714 707 707 714 714 714 707 707 700 694 694 700 700 694 687 687 681 694 687 700 687 687 700 707 707 714 714 707 700 700 694 687 675 669 675 681 657 681 687 687 687 0 0 694 694 721 700 700 707 0 714 714 721 721 714 714 707 694 694 687 681 687 694 675 687 694 694 700 700 700 694 694 700 700 707 700 700 694 700 694 700 700 707 700 707 707 707 707 707 681 694 687 687 687 687 687 687 687 714 707 721 728 721 714 714 700 694 687 681 681 675 687 694 681 694 681 687 694 687 687 681 681 687 687 700 694 694 694 700 700 700 700 714 714 714 714 714 700 694 694 694 681 687 694 694 694 694 707 700 707 743 743 743 728 743 735 735 735 735 707 714 714 714 707 707 707 700 700 707 694 687 687 681 669 651 657 651 657 651 669 675 669 681 681 681 681 675 681 675 657 669 675 651 657 663 675 687 694 694 694 694 681 694 681 694 687 687 687 694 687 694 687 687 675 657 645 629 618 618 613 608 623 629 639 639 651 639 639 651 645 639 663 663 0 0 0 0 0
    0 0 0 0 0 0 0 0 0 0 0 0 0 0 0 0 0 0 0 0 0 0 0 0 0 0 0 0 0 0 0 0 0 0 0 0 0 0 0 0 0 0 0 0 0 0 0 0 0 0 0 0 0 0 0 0 0 0 0 0 0 0 0 0 0 0 0 0 0 694 694 694 707 700 700 694 700 700 707 707 707 707 707 700 700 700 707 707 700 707 687 687 687 694 694 694 687 687 681 694 694 700 694 687 700 714 721 728 728 721 714 707 707 700 681 681 681 681 657 681 687 687 687 0 0 0 694 728 700 700 700 707 714 714 721 721 714 714 707 700 694 687 681 681 687 663 681 681 687 694 694 694 694 687 700 700 707 700 694 694 700 694 694 700 700 700 700 707 700 707 707 669 687 681 681 687 681 687 681 681 707 700 707 728 714 714 707 694 687 681 675 675 675 681 687 675 681 675 687 687 687 681 681 681 687 687 700 687 687 694 700 700 700 700 707 707 707 707 707 694 687 687 687 681 687 694 694 694 687 694 694 700 721 728 721 721 728 721 728 721 728 700 721 721 721 714 714 707 707 707 714 694 687 681 675 669 651 651 639 645 645 663 669 663 675 681 675 669 657 663 657 639 651 651 639 645 657 669 669 675 681 675 669 657 675 669 687 687 681 681 687 687 694 687 687 669 645 639 629 613 613 608 603 608 613 613 608 618 618 623 634 639 645 663 669 0 0 0 0 0
    0 0 0 0 0 0 0 0 0 0 0 0 0 0 0 0 0 0 0 0 0 0 0 0 0 0 0 0 0 0 0 0 0 0 0 0 0 0 0 0 0 0 0 0 0 0 0 0 0 0 0 0 0 0 0 0 0 0 0 0 0 0 0 0 0 0 0 0 0 687 694 694 707 700 700 694 700 700 707 707 707 707 707 700 700 700 700 700 700 707 687 681 694 694 700 694 694 694 687 694 700 700 700 700 714 721 721 728 728 721 714 707 707 700 687 687 681 687 657 681 687 687 0 0 0 0 0 735 707 707 707 707 714 714 721 721 714 714 707 694 687 681 675 675 681 657 681 681 687 694 694 694 694 687 700 707 707 707 694 700 700 694 700 707 707 700 700 707 694 700 700 657 681 681 675 687 681 687 681 681 707 700 707 721 707 714 707 694 687 681 675 681 675 681 681 675 681 669 687 687 681 681 681 681 687 687 694 687 694 694 694 700 700 700 707 707 700 700 700 687 681 687 681 681 681 694 694 694 694 694 687 700 700 714 707 707 707 700 707 700 694 687 714 714 714 714 714 707 707 707 721 694 681 681 669 657 651 645 639 639 645 663 669 663 675 681 681 669 657 657 645 639 645 645 639 639 645 657 651 645 651 651 639 634 657 651 681 681 681 681 687 687 694 681 681 657 634 634 623 613 613 608 603 608 608 613 608 613 618 623 629 634 645 657 663 0 0 0 0 0
    0 0 0 0 0 0 0 0 0 0 0 0 0 0 0 0 0 0 0 0 0 0 0 0 0 0 0 0 0 0 0 0 0 0 0 0 0 0 0 0 0 0 0 0 0 0 0 0 0 0 0 0 0 0 0 0 0 0 0 0 0 0 0 0 0 0 0 0 0 687 687 687 700 694 700 687 694 700 707 707 707 707 707 700 707 707 700 707 700 707 687 681 694 700 700 700 694 694 687 700 714 707 714 700 714 721 721 721 714 714 700 700 700 694 687 687 675 687 651 681 687 681 687 687 0 0 0 0 700 700 707 707 714 714 721 714 714 714 714 694 687 681 675 675 681 657 681 681 687 694 694 694 694 687 700 707 707 700 694 700 700 700 700 707 707 700 700 707 694 694 700 657 681 675 675 687 681 687 681 681 714 707 707 728 714 721 714 707 694 687 681 687 681 687 687 675 687 675 687 687 687 681 681 681 687 687 694 687 694 694 700 700 700 700 707 707 707 700 707 694 687 687 681 681 687 694 694 694 694 694 687 700 700 707 700 694 694 694 687 687 675 669 721 721 721 721 714 707 707 707 721 694 675 675 663 657 657 645 639 645 645 669 669 663 675 681 681 663 645 651 639 639 639 645 639 634 639 651 639 634 623 629 623 623 645 645 675 681 681 687 687 687 694 681 681 657 634 634 629 618 618 613 608 608 613 613 608 613 618 618 629 634 651 657 663 0 0 0 0 0
    0 0 0 0 0 0 0 0 0 0 0 0 0 0 0 0 0 0 0 0 0 0 0 0 0 0 0 0 0 0 0 0 0 0 0 0 0 0 0 0 0 0 0 0 0 0 0 0 0 0 0 0 0 0 0 0 0 0 0 0 0 0 0 0 0 0 0 0 0 681 687 687 694 687 694 687 687 694 707 700 700 707 714 700 700 707 700 700 694 700 681 675 694 694 694 694 694 694 687 700 721 714 714 707 714 721 721 721 707 700 0 687 694 687 681 681 669 681 645 681 687 681 681 687 687 694 0 0 700 694 700 700 707 714 721 714 714 714 714 694 687 675 675 681 687 663 681 681 694 694 694 694 694 687 700 700 700 694 694 694 694 694 700 707 707 694 694 700 687 687 694 657 675 675 675 681 681 687 681 681 714 707 707 728 714 721 714 707 700 694 687 687 681 687 687 675 687 675 694 694 687 687 681 687 687 694 694 687 694 694 700 700 707 707 707 707 707 707 714 700 694 694 681 687 687 694 694 694 694 700 694 700 700 714 714 700 694 694 687 687 681 681 728 721 721 721 721 707 707 707 714 687 663 669 663 657 663 645 639 639 645 663 657 645 657 657 663 639 634 639 634 639 639 639 639 634 639 645 639 629 613 618 608 608 634 639 681 687 681 687 694 687 694 687 681 663 639 651 639 623 623 618 613 613 613 613 608 608 613 618 623 623 634 639 634 0 0 0 0 0
    0 0 0 0 0 0 0 0 0 0 0 0 0 0 0 0 0 0 0 0 0 0 0 0 0 0 0 0 0 0 0 0 0 0 0 0 0 0 0 0 0 0 0 0 0 0 0 0 0 0 0 0 0 0 0 0 0 0 0 0 0 0 0 0 0 0 0 0 0 681 681 681 687 681 694 681 681 694 700 694 694 694 707 687 694 700 694 687 694 0 681 669 687 694 694 694 687 687 687 700 721 707 0 0 0 0 728 721 0 0 0 687 687 681 669 675 663 681 645 681 687 687 687 687 687 687 0 0 694 681 687 694 707 714 721 714 714 714 714 694 687 675 675 681 687 663 681 687 694 694 694 694 687 687 700 694 694 687 687 694 694 687 694 700 700 687 687 687 681 681 687 651 675 675 675 681 681 681 681 681 707 707 700 721 707 714 707 700 700 687 687 687 681 687 687 681 687 681 694 694 694 694 687 694 694 694 700 687 694 694 700 700 707 707 707 707 707 707 714 707 700 700 681 694 687 694 694 694 694 694 694 700 700 714 714 700 694 694 687 687 675 681 728 728 728 728 721 714 714 707 707 681 657 663 657 651 657 639 634 639 639 651 639 634 639 634 639 629 629 634 634 634 639 639 639 634 634 639 629 623 608 608 603 603 613 634 687 694 687 687 694 694 694 681 669 645 629 634 629 618 618 613 608 608 608 603 598 598 603 608 613 613 618 623 613 0 0 0 0 0
    0 0 0 0 0 0 0 0 0 0 0 0 0 0 0 0 0 0 0 0 0 0 0 0 0 0 0 0 0 0 0 0 0 0 0 0 0 0 0 0 0 0 0 0 0 0 0 0 0 0 0 0 0 0 0 0 0 0 0 0 0 0 0 0 0 0 0 0 0 681 687 681 687 681 694 675 669 687 700 687 687 687 700 681 681 694 681 0 0 0 669 651 687 687 687 687 687 687 687 700 721 0 0 0 0 0 0 0 0 0 0 0 681 669 0 0 645 675 639 675 681 681 681 687 681 681 0 0 675 657 663 675 687 700 714 707 0 700 707 687 675 663 663 675 669 657 681 681 687 687 687 687 681 687 694 694 687 681 687 687 681 681 681 0 0 675 669 675 675 681 681 645 669 675 675 681 681 681 681 681 707 700 700 714 700 707 707 700 700 694 687 687 687 687 687 681 687 681 694 694 694 694 687 694 694 694 694 687 700 694 700 700 700 707 707 707 714 714 728 721 721 714 687 700 694 694 694 694 694 694 694 707 700 714 721 707 707 700 694 687 675 687 728 728 728 728 721 707 707 707 700 681 651 651 651 651 651 634 629 629 629 634 623 623 623 618 623 618 623 629 629 634 639 639 639 634 634 634 623 618 608 603 598 598 603 608 0 700 681 687 700 700 694 669 645 634 623 629 623 618 613 613 608 603 603 598 593 593 598 603 608 603 608 608 603 0 0 0 0 0
    0 0 0 0 0 0 0 0 0 0 0 0 0 0 0 0 0 0 0 0 0 0 0 0 0 0 0 0 0 0 0 0 0 0 0 0 0 0 0 0 0 0 0 0 0 0 0 0 0 0 0 0 0 0 0 0 0 0 0 0 0 0 0 0 0 0 0 0 0 675 681 681 687 681 694 675 657 681 700 687 681 681 687 669 0 0 669 0 0 0 645 639 675 681 675 681 681 0 681 0 0 0 0 0 0 0 0 0 0 0 0 0 663 651 0 634 629 651 629 663 669 675 675 675 675 681 669 0 651 634 639 651 651 687 694 687 687 675 687 669 657 645 645 657 651 645 675 675 681 681 681 681 675 687 694 687 681 675 675 675 669 663 669 0 0 0 651 669 675 675 681 645 669 675 669 681 675 681 675 675 700 694 694 714 700 707 700 707 707 694 694 694 687 687 687 681 681 681 694 694 694 687 687 687 687 694 687 681 694 687 694 700 700 707 700 707 707 707 721 721 735 714 694 707 694 700 700 694 694 694 694 700 700 714 721 707 700 694 687 681 675 687 728 721 728 721 714 700 707 700 694 675 645 645 645 651 651 634 629 623 623 629 613 613 613 608 613 613 623 629 629 634 639 639 639 629 629 629 613 608 603 603 598 598 598 608 0 669 634 0 0 0 0 645 629 629 623 629 623 613 613 608 608 603 598 598 598 598 603 608 613 613 613 618 603 0 0 0 0 0
    0 0 0 0 0 0 0 0 0 0 0 0 0 0 0 0 0 0 0 0 0 0 0 0 0 0 0 0 0 0 0 0 0 0 0 0 0 0 0 0 0 0 0 0 0 0 0 0 0 0 0 0 0 0 0 0 0 0 0 0 0 0 0 0 0 0 0 0 0 669 675 675 681 681 687 663 645 669 687 675 669 0 669 0 0 0 645 0 0 0 0 629 657 669 663 675 675 675 681 694 0 0 0 0 0 0 0 0 0 0 0 0 639 634 629 629 623 634 623 651 657 669 663 663 669 675 663 687 634 629 629 639 634 657 669 657 651 634 651 639 634 629 634 639 634 634 663 663 669 669 675 669 669 687 694 681 675 675 675 669 657 657 651 0 639 0 634 645 657 657 663 639 657 669 663 669 669 675 675 669 694 687 681 714 694 700 700 707 707 700 694 687 687 687 681 675 675 675 687 687 687 681 681 675 675 681 675 651 669 657 669 681 700 700 700 700 700 700 707 714 728 714 687 707 694 694 700 694 694 687 687 700 694 714 714 700 700 687 687 681 681 687 721 721 728 721 714 700 700 700 694 675 645 645 639 645 645 623 618 618 618 613 608 603 608 608 613 608 618 629 629 639 639 634 634 629 623 618 608 608 598 598 598 598 598 618 623 645 0 0 0 0 0 0 0 629 629 634 629 618 618 613 613 603 598 598 598 603 608 608 613 613 618 618 603 0 0 0 0 0
    0 0 0 0 0 0 0 0 0 0 0 0 0 0 0 0 0 0 0 0 0 0 0 0 0 0 0 0 0 0 0 0 0 0 0 0 0 0 0 0 0 0 0 0 0 0 0 0 0 0 0 0 0 0 0 0 0 0 0 0 0 0 0 0 0 0 0 0 0 663 663 663 669 651 663 639 623 634 645 639 634 0 0 0 0 0 0 0 0 0 623 623 645 657 645 657 663 663 669 681 0 0 0 0 0 0 0 0 0 0 0 0 0 623 623 623 623 629 623 639 645 651 645 651 663 663 651 675 634 629 629 639 634 645 657 645 639 623 634 623 623 623 618 629 623 629 651 651 657 657 657 657 657 681 687 669 663 669 663 645 645 639 629 634 623 629 629 634 639 639 645 634 651 663 651 657 657 669 669 663 687 669 669 694 681 687 694 700 707 694 687 687 681 675 675 669 663 663 675 669 675 663 669 645 645 651 639 623 629 623 629 639 694 700 700 694 700 700 707 707 714 714 681 700 694 694 700 694 694 687 687 700 687 700 707 687 694 675 681 675 663 681 714 714 721 714 707 694 694 694 687 669 639 639 634 639 639 618 618 613 613 613 608 603 608 603 608 603 618 623 629 634 639 634 634 623 618 613 608 603 598 598 603 603 603 623 623 634 0 0 0 0 0 0 0 634 634 639 629 618 618 613 613 598 588 588 593 593 603 603 608 608 613 608 603 0 0 0 0 0
    0 0 0 0 0 0 0 0 0 0 0 0 0 0 0 0 0 0 0 0 0 0 0 0 0 0 0 0 0 0 0 0 0 0 0 0 0 0 0 0 0 0 0 0 0 0 0 0 0 0 0 0 0 0 0 0 0 0 0 0 0 0 0 0 0 0 0 0 0 657 663 657 657 639 639 634 623 634 629 629 623 0 0 0 0 0 0 0 0 623 623 623 634 645 634 639 645 645 645 663 681 669 0 0 0 0 0 0 0 0 0 0 0 618 618 618 618 623 623 634 634 639 634 639 651 645 639 657 623 623 629 634 629 634 645 639 629 623 629 618 618 613 613 623 618 629 639 639 645 639 651 645 639 669 669 645 639 639 639 623 629 629 618 623 618 623 629 629 634 629 634 634 639 651 639 639 645 657 657 645 669 651 651 687 675 675 681 694 707 694 681 675 663 657 651 645 639 645 651 651 651 639 651 629 629 634 623 618 618 613 623 629 675 687 681 681 687 694 700 700 700 700 675 700 694 694 700 694 694 687 687 700 687 694 694 675 675 651 657 645 634 651 700 694 700 700 687 675 681 681 669 657 634 634 629 634 634 613 618 613 613 608 608 603 603 603 608 603 618 623 629 634 639 634 629 623 613 613 608 603 598 603 603 603 603 629 623 0 0 0 0 0 675 0 645 639 634 639 629 613 613 608 608 593 574 579 588 588 593 598 598 598 603 603 603 0 0 0 0 0
    0 0 0 0 0 0 0 0 0 0 0 0 0 0 0 0 0 0 0 0 0 0 0 0 0 0 0 0 0 0 0 0 0 0 0 0 0 0 0 0 0 0 0 0 0 0 0 0 0 0 0 0 0 0 0 0 0 0 0 0 0 0 0 0 0 0 0 0 0 651 657 651 651 634 634 634 629 634 623 623 0 0 0 0 0 0 0 0 618 618 618 618 623 634 623 623 629 623 629 639 657 645 0 0 0 0 0 0 0 0 0 0 0 613 613 613 618 618 618 623 629 629 629 629 645 634 629 634 618 618 623 629 618 623 629 623 618 613 618 608 608 603 603 618 613 623 634 629 634 629 639 634 629 657 645 634 623 629 623 618 623 618 618 618 613 618 623 623 629 629 629 629 634 645 634 634 634 639 639 634 651 634 634 669 663 657 669 669 694 681 669 663 645 634 639 634 634 634 639 645 639 629 639 618 623 623 618 613 618 613 618 623 663 669 675 675 681 694 700 700 694 700 669 694 687 687 694 687 687 681 681 694 675 669 675 651 645 629 634 629 618 629 657 675 681 675 669 651 669 669 657 645 629 629 629 629 629 608 613 608 608 603 603 603 608 603 608 608 618 623 634 639 639 629 623 618 603 603 603 603 598 598 603 603 603 618 608 0 0 0 0 0 0 0 669 639 639 639 623 613 613 603 603 584 566 570 584 584 588 588 593 593 598 603 598 0 0 0 0 0
    0 0 0 0 0 0 0 0 0 0 0 0 0 0 0 0 0 0 0 0 0 0 0 0 0 0 0 0 0 0 0 0 0 0 0 0 0 0 0 0 0 0 0 0 0 0 0 0 0 0 0 0 0 0 0 0 0 0 0 0 0 0 0 0 0 0 0 0 0 645 657 651 651 645 634 639 634 634 623 0 0 0 0 0 0 0 618 613 613 618 618 618 618 623 618 613 618 613 613 623 629 629 623 0 0 0 0 0 0 0 0 0 0 608 608 608 618 618 618 623 623 623 623 629 639 623 618 623 613 613 618 618 613 618 618 618 613 603 613 603 603 603 603 613 613 618 623 623 623 623 629 623 623 634 629 623 618 618 618 613 618 613 613 618 613 618 618 623 623 623 623 623 629 639 623 623 629 629 629 629 634 623 623 645 639 634 639 634 669 645 639 639 634 623 629 629 629 629 629 639 634 623 634 613 618 618 613 608 613 613 618 623 657 663 669 669 681 687 694 694 694 687 663 675 675 669 675 669 669 657 663 681 651 634 639 629 623 618 618 613 608 613 629 645 651 639 639 634 651 657 645 639 629 629 623 623 623 608 613 608 603 603 603 603 608 598 603 598 608 608 613 618 623 618 613 613 593 598 598 598 598 598 603 603 603 618 608 608 608 603 0 0 0 0 645 629 623 618 618 608 603 603 603 588 574 584 593 588 593 593 598 593 598 603 598 0 0 0 0 0
    0 0 0 0 0 0 0 0 0 0 0 0 0 0 0 0 0 0 0 0 0 0 0 0 0 0 0 0 0 0 0 0 0 0 0 0 0 0 0 0 0 0 0 0 0 0 0 0 0 0 0 0 0 0 0 0 0 0 0 0 0 0 0 0 0 0 0 0 0 639 651 639 639 0 618 623 618 623 618 618 613 0 0 0 0 0 613 613 613 613 613 618 613 618 613 608 613 613 613 618 623 618 618 618 0 618 613 0 0 0 0 0 0 608 608 608 618 618 618 623 629 623 623 629 639 623 618 618 613 613 618 618 608 613 618 613 613 603 613 603 608 608 608 613 613 618 623 618 618 618 618 618 618 623 618 613 613 613 608 608 618 613 613 613 613 618 618 618 623 618 618 618 623 623 618 618 623 623 623 623 629 623 623 634 629 629 629 623 639 623 623 629 629 618 623 623 623 623 623 634 629 613 623 608 608 608 608 608 608 608 613 618 639 645 657 663 675 675 681 687 681 681 657 657 657 639 657 651 651 634 645 663 634 618 629 618 618 613 613 608 603 608 613 623 623 618 623 629 634 639 634 634 629 629 623 618 618 608 613 608 608 603 603 603 608 598 598 593 598 593 598 598 598 603 598 593 579 588 598 593 598 598 603 608 603 618 608 608 608 603 613 588 561 603 608 608 608 603 613 603 608 603 603 593 588 588 593 588 593 593 593 593 598 598 593 0 0 0 0 0
    0 0 0 0 0 0 0 0 0 0 0 0 0 0 0 0 0 0 0 0 0 0 0 0 0 0 0 0 0 0 0 0 0 0 0 0 0 0 0 0 0 0 0 0 0 0 0 0 0 0 0 0 0 0 0 0 0 0 0 0 0 0 0 0 0 0 0 0 0 639 651 634 629 0 613 613 613 618 613 618 613 613 613 618 613 613 613 613 613 613 613 618 613 618 613 613 613 613 613 618 618 618 618 618 613 613 613 608 603 593 0 603 613 613 613 608 618 618 623 623 629 623 623 629 639 623 618 618 618 613 618 623 608 613 613 613 613 603 613 603 608 608 608 613 613 613 618 618 618 618 613 613 613 0 618 618 613 613 608 608 623 618 618 618 618 618 618 623 623 618 613 618 618 618 618 618 618 623 623 623 629 623 623 629 629 623 623 623 629 623 618 623 623 613 618 618 618 618 618 629 618 608 613 598 603 603 603 598 603 603 613 613 639 639 651 657 669 669 669 669 669 663 639 639 634 623 634 639 639 623 634 645 623 613 618 613 613 608 608 608 603 603 608 613 613 608 613 618 623 629 629 629 629 623 618 613 613 603 608 603 603 598 598 598 603 593 593 584 588 584 584 593 593 593 584 579 566 584 593 593 593 593 603 608 603 608 603 598 598 593 593 566 545 549 603 603 608 608 618 618 618 618 613 603 603 598 603 593 593 593 598 593 598 598 593 0 0 0 0 0
    0 0 0 0 0 0 0 0 0 0 0 0 0 0 0 0 0 0 0 0 0 0 0 0 0 0 0 0 0 0 0 0 0 0 0 0 0 0 0 0 0 0 0 0 0 0 0 0 0 0 0 0 0 0 0 0 0 0 0 0 0 0 0 0 0 0 0 0 0 634 645 629 623 0 613 613 613 618 613 613 613 613 613 618 613 608 613 613 613 613 613 618 613 613 618 613 613 613 613 618 618 618 618 613 608 608 608 608 603 598 603 608 613 618 618 613 623 623 623 623 629 623 623 629 645 623 623 623 623 613 623 634 613 618 618 613 613 603 618 608 608 608 608 613 613 613 618 618 618 618 618 618 618 623 623 623 618 618 613 618 629 623 618 618 618 623 623 629 623 618 613 618 618 618 613 618 618 618 623 623 623 618 618 629 623 623 623 623 629 623 618 618 618 613 618 613 613 618 613 623 618 608 613 598 603 603 603 598 603 603 613 613 639 645 657 663 669 663 663 651 651 645 629 623 618 613 618 618 623 613 623 629 618 0 0 0 608 608 608 603 603 603 608 603 608 608 608 613 618 618 623 623 623 623 618 603 608 603 603 603 598 598 593 593 603 588 588 579 584 579 588 593 588 593 584 579 566 584 593 593 593 593 603 608 603 608 598 588 593 584 584 561 553 561 588 593 584 579 608 618 623 613 613 608 608 608 608 593 593 598 598 598 598 598 593 0 0 0 0 0
    0 0 0 0 0 0 0 0 0 0 0 0 0 0 0 0 0 0 0 0 0 0 0 0 0 0 0 0 0 0 0 0 0 0 0 0 0 0 0 0 0 0 0 0 0 0 0 0 0 0 0 0 0 0 0 0 0 0 0 0 0 0 0 0 0 0 0 0 0 629 639 623 623 0 613 613 613 618 613 613 613 613 613 613 613 608 613 613 613 613 613 613 613 613 618 613 613 613 613 613 613 613 613 608 608 608 603 603 603 598 608 608 618 618 618 613 629 629 629 629 629 629 623 629 651 623 623 623 629 618 629 639 618 623 618 613 618 603 618 608 613 608 613 618 618 618 623 618 618 618 623 618 618 623 623 623 618 623 618 618 629 629 623 623 618 623 623 629 629 618 613 623 623 623 613 618 618 618 623 623 623 618 618 623 623 618 623 618 623 618 613 618 618 613 613 613 613 618 613 623 618 613 618 598 603 608 603 603 603 608 613 618 645 645 651 657 663 663 669 651 645 634 623 623 618 613 613 618 608 603 613 623 613 603 0 0 0 0 608 603 603 603 608 603 608 603 608 608 613 613 618 618 623 618 613 588 603 598 598 598 598 593 593 593 603 588 588 579 579 579 588 593 588 588 579 570 570 588 593 593 593 593 603 608 603 608 588 584 584 579 574 561 553 557 574 584 557 553 570 598 613 608 608 603 608 603 603 588 588 588 593 593 593 588 588 0 0 0 0 0
    0 0 0 0 0 0 0 0 0 0 0 0 0 0 0 0 0 0 0 0 0 0 0 0 0 0 0 0 0 0 0 0 0 0 0 0 0 0 0 0 0 0 0 0 0 0 0 0 0 0 0 0 0 0 0 0 0 0 0 0 0 0 0 0 0 0 0 0 0 629 639 618 618 0 613 613 613 618 613 613 613 613 613 613 613 603 613 613 613 613 613 613 608 608 613 608 603 608 608 608 608 608 608 608 603 608 603 603 603 603 608 608 623 623 623 613 634 634 629 629 634 629 629 634 651 623 623 623 629 618 623 629 613 623 613 613 613 608 623 613 618 613 0 629 618 623 623 623 623 618 623 618 618 623 618 623 618 618 613 618 629 629 623 623 623 623 623 634 629 623 618 629 634 629 618 618 618 618 623 623 623 618 618 629 623 623 623 623 629 623 618 618 618 613 618 613 613 618 618 623 618 613 618 598 603 608 603 603 608 608 613 618 645 645 645 651 657 651 663 639 639 634 623 618 618 618 618 618 613 608 613 618 613 603 0 0 0 0 608 603 603 603 603 598 603 603 603 603 608 613 613 613 618 613 613 584 603 603 598 598 593 593 588 593 603 584 584 574 574 579 584 588 584 584 574 566 570 584 593 588 588 588 603 608 603 598 584 579 579 574 574 561 557 557 570 570 553 545 549 570 598 598 608 608 608 603 603 584 584 584 584 584 584 574 574 0 0 0 0 0
    0 0 0 0 0 0 0 0 0 0 0 0 0 0 0 0 0 0 0 0 0 0 0 0 0 0 0 0 0 0 0 0 0 0 0 0 0 0 0 0 0 0 0 0 0 0 0 0 0 0 0 0 0 0 0 0 0 0 0 0 0 0 0 0 0 0 0 0 0 623 639 618 613 608 608 613 613 618 613 613 618 613 613 613 608 603 608 613 613 613 613 608 608 603 608 603 598 603 603 603 608 608 613 608 608 608 608 608 608 608 613 613 629 623 623 613 634 634 629 629 629 629 629 629 651 618 618 618 623 613 618 618 608 613 608 613 613 613 623 618 623 618 0 634 623 623 629 623 623 623 623 618 613 623 618 618 618 618 613 623 629 629 623 623 623 629 629 634 629 623 623 629 634 629 618 623 618 623 623 623 623 618 623 629 623 623 623 623 629 623 618 623 618 613 618 618 618 618 618 629 623 623 623 598 608 608 608 603 608 608 613 618 645 639 645 645 645 639 639 629 629 629 618 618 618 618 618 618 613 608 613 618 613 603 0 0 0 603 603 603 598 598 603 598 603 598 603 603 603 608 613 613 613 608 613 579 598 598 593 593 588 588 584 588 598 579 574 570 570 579 584 588 579 584 574 566 574 584 588 584 584 584 598 598 598 584 570 566 570 566 566 557 557 557 570 566 553 541 541 557 593 593 613 618 613 608 603 584 584 584 588 584 574 566 561 0 0 0 0 0
    0 0 0 0 0 0 0 0 0 0 0 0 0 0 0 0 0 0 0 0 0 0 0 0 0 0 0 0 0 0 0 0 0 0 0 0 0 0 0 0 0 0 0 0 0 0 0 0 0 0 0 0 0 0 0 0 0 0 0 0 0 0 0 0 0 0 0 0 0 618 629 608 603 603 603 603 608 613 603 603 613 613 613 613 608 603 608 613 613 608 613 608 608 603 608 603 598 603 603 603 608 608 608 608 608 608 613 608 608 608 613 618 629 623 623 613 634 634 629 629 629 629 629 629 645 618 618 618 623 0 613 613 598 613 603 613 623 618 629 623 623 618 0 634 618 623 623 623 623 623 623 618 613 618 613 618 613 618 613 623 629 629 629 623 623 629 629 634 634 629 623 629 639 634 618 623 618 623 623 623 623 618 623 629 623 623 623 623 623 618 618 623 623 618 623 623 618 623 623 634 623 629 623 598 603 608 608 0 608 608 613 613 639 634 639 634 634 629 623 618 623 623 618 618 618 618 618 618 618 613 613 613 608 603 0 0 0 603 603 603 598 603 603 598 603 603 603 603 608 613 613 613 613 608 613 574 598 598 593 593 584 584 579 584 598 574 570 566 570 579 584 588 584 584 574 561 579 570 561 557 557 549 579 579 584 561 557 557 561 561 561 557 557 557 570 566 553 537 537 561 593 593 618 623 618 618 608 588 588 588 588 579 566 557 553 0 0 0 0 0
    0 0 0 0 0 0 0 0 0 0 0 0 0 0 0 0 0 0 0 0 0 0 0 0 0 0 0 0 0 0 0 0 0 0 0 0 0 0 0 0 0 0 0 0 0 0 0 0 0 0 0 0 0 0 0 0 0 0 0 0 0 0 0 0 0 0 0 0 0 613 623 608 598 593 598 593 603 603 598 593 608 608 613 608 608 598 608 613 613 608 608 608 608 608 613 608 603 603 603 603 608 603 608 603 603 608 608 608 603 608 613 618 629 623 623 613 634 634 629 629 629 629 629 634 645 618 618 618 0 0 0 0 593 0 0 629 639 634 639 629 629 0 0 639 623 623 623 623 623 623 623 618 613 618 613 618 613 618 0 623 629 634 629 623 623 629 629 639 634 629 629 629 645 645 623 623 618 623 623 623 623 618 618 623 623 623 623 618 618 618 618 623 618 618 623 623 623 623 629 639 623 634 623 603 608 608 608 608 608 608 613 618 645 634 634 634 629 629 629 618 623 623 618 618 623 623 618 623 618 613 613 613 608 608 608 603 603 603 603 603 598 603 603 603 608 603 608 603 608 613 618 613 613 608 613 566 593 593 593 588 584 584 579 579 593 570 566 561 566 574 579 588 574 584 570 557 579 557 541 537 537 533 549 553 574 553 557 557 561 557 561 557 557 553 566 557 545 537 537 557 588 584 613 618 613 618 608 584 584 584 593 588 570 561 553 0 0 0 0 0
    0 0 0 0 0 0 0 0 0 0 0 0 0 0 0 0 0 0 0 0 0 0 0 0 0 0 0 0 0 0 0 0 0 0 0 0 0 0 0 0 0 0 0 0 0 0 0 0 0 0 0 0 0 0 0 0 0 0 0 0 0 0 0 0 0 0 0 0 0 613 618 603 588 588 593 588 593 593 588 584 608 603 608 598 603 598 608 613 613 608 608 608 613 608 613 608 598 603 603 603 603 598 603 598 598 603 603 603 598 608 618 623 634 623 623 613 634 634 634 629 629 629 629 634 645 618 618 618 0 0 0 0 0 0 0 0 663 651 651 634 0 0 0 639 618 623 623 618 623 623 623 623 618 618 608 618 0 0 0 0 629 634 629 629 623 634 629 639 634 634 629 634 651 651 623 623 623 623 623 623 623 618 618 623 623 623 623 623 618 613 613 623 618 618 623 623 623 629 629 645 623 639 623 603 608 613 613 613 608 613 618 618 645 634 634 629 623 623 623 618 618 623 613 618 623 618 618 618 618 613 613 613 603 603 603 603 603 603 603 598 598 603 603 603 608 608 608 608 608 613 618 613 608 603 608 561 593 593 588 588 584 579 574 579 593 566 561 557 561 566 570 579 566 570 557 549 557 541 533 533 533 533 537 537 566 553 557 561 561 561 561 557 557 553 561 549 541 533 533 537 557 557 593 603 593 598 588 566 566 561 570 570 561 557 557 0 0 0 0 0
    0 0 0 0 0 0 0 0 0 0 0 0 0 0 0 0 0 0 0 0 0 0 0 0 0 0 0 0 0 0 0 0 0 0 0 0 0 0 0 0 0 0 0 0 0 0 0 0 0 0 0 0 0 0 0 0 0 0 0 0 0 0 0 0 0 0 0 0 0 608 613 598 588 584 588 574 584 579 574 557 574 570 584 570 603 598 608 613 613 608 608 608 613 608 608 598 593 593 598 598 598 598 598 593 598 603 603 598 598 603 613 634 639 629 623 613 634 634 634 623 623 623 629 629 645 618 613 0 0 0 0 0 0 0 0 657 663 651 645 634 0 0 0 634 618 618 618 618 618 623 623 623 618 623 608 0 0 623 0 623 629 634 634 629 623 629 629 639 639 639 634 634 657 657 629 623 623 623 618 623 623 618 618 618 623 623 623 623 618 613 618 623 618 623 629 629 623 629 634 645 623 639 623 603 613 613 613 613 613 613 618 623 645 634 634 629 623 623 623 613 613 618 613 613 618 618 0 0 0 613 613 618 603 608 603 603 603 603 603 598 598 603 603 603 613 608 608 603 608 608 608 608 603 598 598 557 588 588 584 584 584 579 574 579 593 570 566 566 566 570 574 588 579 579 561 549 553 537 533 529 529 529 529 529 553 545 557 561 566 561 557 557 561 557 561 545 537 529 529 533 545 545 557 570 566 566 561 553 557 557 561 566 566 561 561 0 0 0 0 0
    0 0 0 0 0 0 0 0 0 0 0 0 0 0 0 0 0 0 0 0 0 0 0 0 0 0 0 0 0 0 0 0 0 0 0 0 0 0 0 0 0 0 0 0 0 0 0 0 0 0 0 0 0 0 0 0 0 0 0 0 0 0 0 0 0 0 0 0 0 598 603 593 584 584 584 561 566 553 549 541 537 533 537 541 566 574 603 608 608 608 608 608 613 608 603 588 584 584 593 593 593 588 593 584 588 598 603 598 598 598 608 639 657 629 618 598 0 634 629 623 618 618 629 634 651 618 613 0 0 0 623 0 0 0 598 0 629 629 629 0 0 0 0 629 613 618 618 618 618 623 623 623 618 618 603 0 0 0 0 0 629 629 634 629 623 629 629 639 634 639 634 634 657 657 629 623 618 618 618 618 623 618 618 618 623 623 623 623 623 618 618 629 623 629 634 634 629 634 645 651 623 639 623 603 613 613 618 618 613 618 618 623 645 634 629 623 618 618 618 613 613 623 613 613 0 0 0 0 0 0 608 613 598 603 603 603 603 603 598 598 598 608 603 603 613 603 608 603 603 608 608 603 598 598 598 557 588 588 584 584 584 584 579 584 598 584 579 574 574 574 579 593 579 579 566 549 553 533 529 529 525 525 525 525 549 541 566 570 570 566 561 561 566 557 566 545 533 525 529 529 533 533 537 541 541 541 545 541 545 549 553 557 557 557 561 0 0 0 0 0
    0 0 0 0 0 0 0 0 0 0 0 0 0 0 0 0 0 0 0 0 0 0 0 0 0 0 0 0 0 0 0 0 0 0 0 0 0 0 0 0 0 0 0 0 0 0 0 0 0 0 0 0 0 0 0 0 0 0 0 0 0 0 0 0 0 0 0 0 0 588 588 584 579 570 566 549 549 541 537 533 529 525 525 533 537 549 593 593 598 603 598 603 613 603 603 561 561 566 579 584 579 579 579 574 579 588 598 593 588 584 0 0 639 618 603 570 0 0 0 618 0 618 629 634 663 623 0 0 0 0 0 0 0 0 0 0 0 0 0 0 0 0 0 0 598 613 613 613 613 618 618 618 613 608 593 0 0 0 0 0 0 0 629 623 618 623 623 634 634 634 634 629 645 0 629 629 623 623 618 618 623 623 618 623 629 623 623 0 623 613 618 629 623 634 645 639 639 645 657 657 623 645 618 593 608 613 613 618 613 618 618 623 634 623 618 613 608 613 608 603 598 608 603 598 598 613 0 0 0 618 608 613 598 603 603 598 603 598 598 598 598 608 598 603 608 593 593 593 593 598 593 593 588 588 588 553 588 584 579 584 588 588 584 588 603 588 588 584 579 579 584 593 579 579 561 545 545 529 529 529 529 529 529 529 549 545 570 570 574 566 561 561 570 557 561 541 529 521 521 521 525 525 529 533 529 529 541 533 541 545 545 545 545 549 553 0 0 0 0 0
    0 0 0 0 0 0 0 0 0 0 0 0 0 0 0 0 0 0 0 0 0 0 0 0 0 0 0 0 0 0 0 0 0 0 0 0 0 0 0 0 0 0 0 0 0 0 0 0 0 0 0 0 0 0 0 0 0 0 0 0 0 0 0 0 0 0 0 0 0 570 566 570 566 557 549 541 541 537 533 533 529 525 525 533 533 541 574 584 584 593 593 598 613 598 598 0 545 553 553 566 561 557 557 553 553 0 579 0 0 0 0 0 0 0 579 553 0 0 0 618 0 0 629 634 663 623 579 0 0 0 537 529 529 525 533 537 541 0 529 0 0 0 0 0 561 588 598 593 598 598 603 603 598 593 574 0 0 0 579 0 0 0 0 618 618 618 618 623 629 629 634 0 0 0 0 0 618 618 613 608 623 618 618 0 623 0 0 0 0 603 613 629 629 634 651 645 651 651 663 651 608 623 598 561 593 598 608 608 603 613 603 613 608 588 574 570 566 579 579 584 570 584 593 561 574 598 598 0 623 618 603 613 593 0 598 598 603 593 588 593 588 603 593 598 584 561 566 566 574 579 574 570 557 557 557 545 579 584 579 584 593 593 584 588 603 588 584 584 579 574 574 588 566 561 549 537 537 525 525 525 525 525 529 529 537 537 566 566 570 561 561 561 570 557 557 537 525 518 514 514 518 518 518 525 521 525 533 533 541 545 545 545 549 553 557 0 0 0 0 0
    0 0 0 0 0 0 0 0 0 0 0 0 0 0 0 0 0 0 0 0 0 0 0 0 0 0 0 0 0 0 0 0 0 0 0 0 0 0 0 0 0 0 0 0 0 0 0 0 0 0 0 0 0 0 0 0 0 0 0 0 0 0 0 0 0 0 0 0 0 541 541 549 549 545 537 537 537 537 533 529 529 525 525 533 529 537 549 557 561 584 598 603 613 608 0 533 533 537 537 545 545 541 537 537 0 0 0 0 0 529 0 0 0 0 0 0 0 0 0 0 593 598 608 634 663 613 537 0 0 0 533 529 525 525 529 533 537 0 533 0 0 0 0 0 545 0 566 557 566 561 553 561 561 566 553 537 0 553 557 566 0 0 0 618 618 613 618 613 0 0 0 0 0 0 0 0 608 608 608 593 0 0 0 0 0 0 0 0 0 0 0 603 618 623 634 634 639 639 634 629 593 579 557 537 553 566 566 588 574 598 570 570 570 541 541 545 541 545 545 553 549 545 574 537 541 541 0 0 623 618 603 618 588 598 0 0 598 588 574 584 570 593 574 588 557 553 549 553 553 557 549 549 541 537 537 537 570 574 574 584 593 593 588 593 603 588 584 584 574 570 570 584 557 549 541 521 529 518 521 521 521 521 525 525 537 533 557 557 557 553 553 553 566 553 553 537 521 518 514 514 514 511 511 521 514 518 525 525 533 541 545 549 549 557 566 0 0 0 0 0
    0 0 0 0 0 0 0 0 0 0 0 0 0 0 0 0 0 0 0 0 0 0 0 0 0 0 0 0 0 0 0 0 0 0 0 0 0 0 0 0 0 0 0 0 0 0 0 0 0 0 0 0 0 0 0 0 0 0 0 0 0 0 0 0 0 0 0 0 0 525 533 537 537 0 533 533 529 533 533 529 529 525 525 529 525 533 529 533 537 545 0 549 0 588 0 529 521 529 521 529 537 529 529 525 533 0 0 0 533 533 0 0 0 0 545 0 0 0 0 0 0 0 0 0 0 593 533 0 0 0 533 525 525 525 529 533 537 545 533 0 0 0 0 0 537 537 541 541 545 537 533 537 541 545 541 533 0 541 545 553 0 0 0 0 608 588 588 0 0 0 0 0 533 0 0 0 0 0 588 557 0 557 561 545 0 537 0 0 0 0 0 541 588 603 618 623 629 623 613 608 561 537 541 529 537 545 541 549 545 0 537 537 545 529 537 537 537 537 537 541 541 537 553 529 521 514 497 0 0 0 0 613 570 593 0 0 584 574 553 553 549 566 545 557 541 541 541 545 545 545 541 541 537 533 533 537 557 561 566 579 593 593 584 588 598 579 574 579 570 561 561 570 545 541 533 514 525 514 521 521 521 525 529 525 537 533 557 553 557 549 549 549 561 549 545 533 518 518 514 514 514 511 511 514 507 511 518 521 525 537 545 545 553 566 570 0 0 0 0 0
    0 0 0 0 0 0 0 0 0 0 0 0 0 0 0 0 0 0 0 0 0 0 0 0 0 0 0 0 0 0 0 0 0 0 0 0 0 0 0 0 0 0 0 0 0 0 0 0 0 0 0 0 0 0 0 0 0 0 0 0 0 0 0 0 0 0 0 0 0 525 529 533 533 0 529 533 529 533 533 529 529 525 529 529 525 537 525 529 533 537 541 537 533 537 533 529 521 521 518 518 521 518 521 518 529 0 0 529 529 533 0 0 0 0 537 0 0 0 0 0 0 0 0 0 0 0 0 0 0 529 529 525 525 525 529 533 533 541 529 0 0 0 0 0 529 529 537 533 537 533 529 533 537 537 537 533 0 537 537 541 545 561 557 593 574 541 541 0 0 0 0 533 529 529 0 0 0 0 549 541 533 541 541 537 529 529 533 529 533 537 533 529 0 0 0 0 0 0 0 533 537 529 529 521 529 533 529 529 529 521 525 521 533 518 529 533 533 533 533 537 537 533 545 529 521 518 514 504 497 0 549 0 545 553 0 0 0 0 537 533 533 541 537 549 537 541 537 541 545 541 537 541 533 533 533 537 549 553 553 570 588 593 574 588 593 566 561 566 557 549 549 553 537 533 529 511 525 518 521 521 525 529 529 529 541 537 557 557 557 549 545 549 557 545 533 529 514 514 514 514 514 511 511 514 504 511 511 514 507 537 545 549 557 570 584 0 0 0 0 0
    0 0 0 0 0 0 0 0 0 0 0 0 0 0 0 0 0 0 0 0 0 0 0 0 0 0 0 0 0 0 0 0 0 0 0 0 0 0 0 0 0 0 0 0 0 0 0 0 0 0 0 0 0 0 0 0 0 0 0 0 0 0 0 0 0 0 0 0 0 529 529 533 533 0 529 529 525 533 533 533 533 529 529 529 525 537 529 529 533 537 541 537 533 533 529 525 518 514 511 507 518 514 518 518 529 525 529 533 533 537 537 529 533 533 537 533 533 0 529 0 0 0 0 0 0 0 0 0 0 529 529 525 529 529 533 533 537 541 529 529 0 537 533 529 529 529 533 533 0 0 529 533 537 537 537 533 541 533 537 541 541 549 541 557 541 533 533 529 0 0 525 529 529 529 0 533 0 533 533 533 521 533 533 529 525 529 529 529 533 533 533 525 529 525 525 521 518 511 518 521 525 521 521 518 525 525 525 518 521 507 514 514 525 511 525 529 529 529 529 533 533 533 545 533 529 529 529 529 525 0 541 529 533 529 0 0 0 0 525 525 525 533 533 545 537 541 533 541 541 541 537 537 533 533 533 537 537 541 545 557 579 584 566 584 584 557 553 557 545 537 537 541 529 525 525 511 521 521 525 525 525 529 533 533 545 537 553 549 549 537 537 541 553 541 525 525 514 514 514 514 511 507 507 511 504 507 507 507 504 529 537 537 545 553 561 0 0 0 0 0
    0 0 0 0 0 0 0 0 0 0 0 0 0 0 0 0 0 0 0 0 0 0 0 0 0 0 0 0 0 0 0 0 0 0 0 0 0 0 0 0 0 0 0 0 0 0 0 0 0 0 0 0 0 0 0 0 0 0 0 0 0 0 0 0 0 0 0 0 0 525 525 529 529 0 525 529 521 533 533 533 533 529 529 529 529 0 0 0 0 0 0 533 529 529 525 518 514 514 514 514 521 521 525 521 529 529 529 533 533 537 537 529 533 533 537 533 529 533 529 529 0 0 0 0 0 0 0 0 0 533 533 525 529 529 533 537 537 541 529 525 537 537 533 529 525 525 533 533 537 529 529 533 533 537 537 537 545 537 537 541 541 549 537 545 537 533 533 525 525 529 525 529 525 529 529 529 529 533 533 533 525 533 533 533 529 533 533 529 533 537 533 525 525 521 518 514 511 507 514 514 521 518 521 518 521 525 521 514 518 507 514 511 518 507 521 525 529 525 529 529 533 533 545 533 529 533 533 533 525 537 529 518 521 511 507 0 0 518 511 514 511 518 525 537 537 541 533 541 541 537 537 537 533 533 533 537 533 533 537 549 566 584 566 588 579 561 561 574 545 537 541 545 529 525 525 511 521 521 525 525 525 533 537 533 545 0 557 549 549 537 533 537 545 537 521 521 511 514 511 511 511 504 504 504 500 507 504 504 500 0 533 537 541 541 537 0 0 0 0 0
    0 0 0 0 0 0 0 0 0 0 0 0 0 0 0 0 0 0 0 0 0 0 0 0 0 0 0 0 0 0 0 0 0 0 0 0 0 0 0 0 0 0 0 0 0 0 0 0 0 0 0 0 0 0 0 0 0 0 0 0 0 0 0 0 0 0 0 0 0 525 525 525 521 0 525 529 525 533 537 533 533 529 533 529 529 0 529 529 533 0 0 0 529 525 521 518 518 518 518 518 525 521 525 521 529 525 529 529 533 533 537 529 533 529 533 529 529 529 525 525 533 537 537 537 537 533 521 0 0 533 533 525 529 529 533 537 537 537 525 521 537 533 533 529 525 525 533 533 537 533 529 533 537 541 537 537 545 537 537 541 541 545 537 545 537 533 533 529 525 529 525 529 525 529 529 529 529 533 533 529 525 533 533 533 533 537 533 533 537 537 533 529 525 521 521 518 514 507 518 514 521 518 521 521 525 525 525 518 521 514 514 511 518 507 521 525 525 525 529 529 533 533 545 533 529 533 533 525 521 525 525 518 521 514 511 0 0 518 514 514 511 518 525 537 541 541 537 545 545 541 537 537 537 533 533 537 533 529 533 537 537 545 537 549 545 549 549 549 541 537 537 537 518 518 521 511 521 521 525 521 525 533 537 537 549 541 557 557 557 549 549 557 553 545 537 529 514 514 514 511 511 504 504 500 500 504 500 500 497 504 533 537 541 537 533 0 0 0 0 0
    0 0 0 0 0 0 0 0 0 0 0 0 0 0 0 0 0 0 0 0 0 0 0 0 0 0 0 0 0 0 0 0 0 0 0 0 0 0 0 0 0 0 0 0 0 0 0 0 0 0 0 0 0 0 0 0 0 0 0 0 0 0 0 0 0 0 0 0 0 525 521 521 518 518 525 533 525 533 537 533 533 533 533 529 529 0 529 529 533 537 533 529 529 525 521 518 518 518 521 521 525 521 525 521 529 529 529 529 529 533 537 529 533 529 529 529 529 529 525 525 533 537 533 537 537 533 518 0 0 0 529 525 529 529 529 537 537 537 529 525 0 533 533 525 525 525 529 529 533 529 529 533 537 537 537 541 549 537 537 541 541 545 0 0 0 529 533 529 525 529 525 529 525 525 529 525 529 529 529 529 521 533 533 533 533 537 537 533 537 537 537 529 525 525 525 521 518 514 521 518 521 521 525 521 525 529 529 525 525 518 518 514 518 507 521 525 525 525 529 529 533 533 545 533 529 529 525 521 521 518 521 518 521 514 514 518 518 521 514 518 514 514 521 533 537 541 537 545 545 541 541 541 537 537 537 541 537 533 537 537 533 537 529 537 533 537 541 545 541 537 537 537 518 514 521 511 521 521 525 521 525 533 537 537 549 541 545 549 549 549 553 557 557 553 545 537 521 521 518 514 511 507 507 504 500 507 504 497 0 0 0 541 545 537 533 0 0 0 0 0
    0 0 0 0 0 0 0 0 0 0 0 0 0 0 0 0 0 0 0 0 0 0 0 0 0 0 0 0 0 0 0 0 0 0 0 0 0 0 0 0 0 0 0 0 0 0 0 0 0 0 0 0 0 0 0 0 0 0 0 0 0 0 0 0 0 0 0 0 0 521 521 521 518 514 525 533 521 533 537 533 533 533 533 529 529 0 533 533 0 0 533 529 533 525 521 518 521 518 521 521 525 521 525 518 529 525 529 529 529 533 537 529 533 529 529 529 529 529 525 525 533 537 533 537 537 529 521 0 0 0 533 529 529 529 533 537 537 541 529 0 0 0 533 525 521 521 529 525 533 529 529 529 533 537 537 541 545 533 533 537 537 545 0 0 0 529 533 529 525 529 525 529 521 525 525 525 525 529 525 525 521 529 533 533 533 537 537 537 541 541 541 533 529 525 529 525 521 518 521 521 525 525 529 525 525 529 529 529 529 521 521 518 521 511 521 525 525 525 529 529 529 529 545 533 529 529 525 521 521 518 521 518 521 514 514 521 518 521 518 518 514 514 521 529 533 537 533 545 545 541 541 541 541 541 541 545 541 537 0 0 533 537 529 533 529 533 541 549 545 541 541 541 518 518 521 511 518 521 525 521 525 533 537 537 557 557 557 557 549 553 557 566 557 557 557 541 533 529 525 521 518 514 511 504 500 504 493 0 0 0 525 545 549 537 533 0 0 0 0 0
    0 0 0 0 0 0 0 0 0 0 0 0 0 0 0 0 0 0 0 0 0 0 0 0 0 0 0 0 0 0 0 0 0 0 0 0 0 0 0 0 0 0 0 0 0 0 0 0 0 0 0 0 0 0 0 0 0 0 0 0 0 0 0 0 0 0 0 0 0 521 518 518 511 504 525 529 518 529 537 529 533 529 533 525 525 0 529 0 0 0 529 529 533 529 525 518 521 518 525 521 525 521 525 518 529 529 529 529 533 537 537 529 533 529 529 529 529 529 525 521 533 533 533 537 537 533 521 0 0 0 533 529 529 529 0 0 0 541 0 0 0 0 0 525 521 521 529 525 533 529 533 533 537 541 541 545 553 537 533 537 533 541 0 533 529 525 529 529 525 529 529 529 521 529 529 525 525 529 525 525 525 533 537 537 537 537 541 541 541 541 541 533 525 525 529 529 525 521 525 521 525 525 529 525 525 533 533 529 529 521 521 518 525 511 521 525 529 529 529 529 529 529 545 533 529 533 525 521 525 521 521 521 521 518 514 525 521 525 521 521 518 518 521 529 529 537 533 545 545 545 545 545 545 541 541 549 545 541 0 0 533 537 533 533 533 541 545 549 549 545 545 541 521 518 521 514 521 521 525 525 525 533 541 541 579 588 588 593 588 588 588 593 579 561 557 545 533 533 529 525 525 521 518 511 504 511 497 0 0 497 0 557 553 537 537 0 0 0 0 0
    0 0 0 0 0 0 0 0 0 0 0 0 0 0 0 0 0 0 0 0 0 0 0 0 0 0 0 0 0 0 0 0 0 0 0 0 0 0 0 0 0 0 0 0 0 0 0 0 0 0 0 0 0 0 0 0 0 0 0 0 0 0 0 0 0 0 0 0 0 521 514 518 507 0 525 533 518 529 537 533 533 533 533 525 525 0 529 0 134 0 525 0 529 529 525 518 521 521 525 525 525 525 525 521 533 529 533 529 533 541 537 529 529 529 525 525 525 525 521 518 529 533 533 533 537 533 0 0 0 0 0 0 529 0 0 0 0 0 0 0 0 0 0 0 521 521 529 529 537 533 537 537 541 545 545 549 561 537 533 537 533 541 0 0 0 0 533 529 529 533 529 529 521 525 525 521 525 529 525 525 525 533 537 537 537 537 537 541 541 541 537 529 521 521 525 525 521 518 521 518 525 525 529 525 529 533 537 529 533 525 521 518 521 507 521 525 529 529 529 529 533 533 549 533 533 533 0 0 525 518 521 521 525 518 518 529 525 529 525 525 521 518 525 533 533 537 533 545 549 545 545 545 545 545 545 549 545 545 0 0 537 537 533 537 533 541 549 549 549 545 545 541 521 521 525 518 525 529 529 529 533 545 553 561 593 603 598 608 613 608 608 608 603 588 588 561 545 537 533 525 525 521 521 514 511 514 0 0 0 0 0 549 553 529 533 0 0 0 0 0
    0 0 0 0 0 0 0 0 0 0 0 0 0 0 0 0 0 0 0 0 0 0 0 0 0 0 0 0 0 0 0 0 0 0 0 0 0 0 0 0 0 0 0 0 0 0 0 0 0 0 0 0 0 0 0 0 0 0 0 0 0 0 0 0 0 0 0 0 0 525 0 514 500 497 529 537 518 529 537 533 533 533 533 529 525 0 0 0 135 0 525 0 0 525 521 514 521 521 525 525 529 529 529 521 533 525 0 529 529 537 533 525 525 525 525 521 521 521 518 514 529 529 529 533 537 533 0 0 0 0 0 0 0 0 123 0 0 0 0 0 0 0 0 0 0 521 529 529 537 537 541 545 545 553 553 553 574 549 537 541 533 541 0 0 0 0 533 529 525 529 525 525 518 525 525 518 521 529 525 525 525 533 537 537 537 541 541 541 541 541 541 529 521 521 525 525 521 518 521 521 525 525 529 529 529 537 537 533 533 529 521 518 521 507 521 525 525 525 529 533 533 533 553 537 537 0 0 0 525 518 521 521 525 518 518 529 525 529 529 525 521 518 525 533 533 541 541 549 549 549 545 549 549 545 545 549 545 541 0 0 537 541 537 541 537 545 553 553 549 545 541 541 521 518 525 521 525 529 533 533 533 557 579 593 608 608 603 618 618 613 613 603 588 579 579 557 545 541 533 529 529 525 521 514 511 0 0 0 0 0 0 0 574 537 541 0 0 0 0 0
    0 0 0 0 0 0 0 0 0 0 0 0 0 0 0 0 0 0 0 0 0 0 0 0 0 0 0 0 0 0 0 0 0 0 0 0 0 0 0 0 0 0 0 0 0 0 0 0 0 0 0 0 0 0 0 0 0 0 0 0 0 0 0 0 0 0 0 0 0 0 0 507 487 484 521 537 514 533 537 533 537 537 537 529 529 0 0 0 136 0 0 0 0 0 514 504 518 518 525 525 529 529 0 0 0 0 0 0 0 0 533 521 525 521 521 518 518 518 514 514 525 529 525 529 537 533 0 0 0 0 0 0 0 0 0 0 0 0 121 0 0 0 0 0 0 521 529 529 537 541 549 549 549 557 557 557 579 557 541 0 0 0 0 0 100 0 0 529 521 529 525 525 511 521 518 514 518 525 521 521 525 529 537 537 541 545 541 545 545 545 541 533 525 525 529 529 525 521 525 521 525 529 533 533 533 537 541 537 537 533 525 518 518 507 521 525 525 525 529 529 533 533 553 537 0 0 0 0 0 518 521 521 525 518 518 529 525 529 529 525 521 518 521 533 533 541 541 549 549 549 549 549 549 545 545 549 545 541 0 0 0 541 541 545 545 549 566 566 557 553 549 545 525 518 525 521 525 533 533 533 537 561 588 593 0 603 598 613 613 613 613 608 593 584 584 566 557 549 537 533 533 533 529 521 525 0 0 681 657 0 0 0 557 529 537 0 0 0 0 0
    0 0 0 0 0 0 0 0 0 0 0 0 0 0 0 0 0 0 0 0 0 0 0 0 0 0 0 0 0 0 0 0 0 0 0 0 0 0 0 0 0 0 0 0 0 0 0 0 0 0 0 0 0 0 0 0 0 0 0 0 0 0 0 0 0 0 0 0 0 0 0 0 0 0 518 537 518 529 537 533 533 537 537 529 529 0 537 0 0 141 0 0 0 0 0 0 521 0 529 0 0 0 0 0 0 0 0 0 144 144 0 0 0 0 518 514 511 514 511 511 525 529 529 529 533 529 0 111 0 110 0 0 0 0 0 0 0 121 121 120 120 0 0 0 0 511 518 518 525 529 545 545 549 557 557 561 579 561 0 0 0 0 170 168 100 100 0 529 0 0 525 525 507 0 518 507 514 525 521 521 521 529 537 537 541 545 545 545 545 545 549 533 0 533 541 0 533 533 529 525 533 0 0 537 533 541 541 541 545 541 533 525 521 514 525 521 521 525 525 529 525 529 549 0 0 0 0 0 0 514 518 521 525 521 518 533 525 529 529 525 521 518 521 0 529 541 545 549 553 549 549 549 549 549 549 549 549 545 0 0 0 0 541 545 545 557 574 574 566 561 557 553 533 521 525 525 525 529 533 533 537 0 598 613 623 608 603 618 618 618 618 613 598 593 588 579 574 561 545 537 533 533 525 518 521 514 0 0 669 651 657 623 570 529 533 0 0 0 0 0
    0 0 0 0 0 0 0 0 0 0 0 0 0 0 0 0 0 0 0 0 0 0 0 0 0 0 0 0 0 0 0 0 0 0 0 0 0 0 0 0 0 0 0 0 0 0 0 0 0 0 0 0 0 0 0 0 0 0 0 0 0 0 0 0 0 0 0 0 0 0 0 0 0 0 0 0 0 0 537 533 533 541 0 521 521 529 533 0 0 0 0 0 0 0 0 0 0 0 0 0 0 0 0 0 0 142 142 0 0 0 0 0 0 0 0 0 0 0 500 504 521 529 529 533 537 529 0 0 0 0 0 174 0 0 172 0 0 0 0 0 0 0 0 0 0 0 493 0 0 0 0 0 0 0 0 0 0 0 0 118 0 0 170 0 101 101 0 0 0 121 123 126 0 0 511 500 511 521 514 0 518 525 0 0 0 0 537 545 545 549 553 0 0 549 557 557 549 549 541 537 541 0 545 0 0 541 545 545 545 549 541 541 529 525 525 514 0 521 521 521 514 525 0 0 0 0 0 0 0 518 0 0 525 521 521 533 525 529 525 525 521 518 521 0 525 541 545 549 557 553 549 553 549 549 549 549 549 545 124 124 124 0 0 0 545 557 574 579 574 574 566 561 541 525 529 525 525 529 537 537 545 574 588 603 613 608 598 608 608 613 613 608 598 593 593 588 588 574 553 541 537 537 533 525 529 518 514 0 0 557 549 598 570 533 545 0 0 0 0 0
    0 0 0 0 0 0 0 0 0 0 0 0 0 0 0 0 0 0 0 0 0 0 0 0 0 0 0 0 0 0 0 0 0 0 0 0 0 0 0 0 0 0 0 0 0 0 0 0 0 0 0 0 0 0 0 0 0 0 0 0 0 0 0 0 0 0 0 0 0 0 0 0 0 0 0 0 0 0 0 0 0 0 0 0 0 0 0 0 0 0 0 0 0 0 0 0 0 0 0 0 0 0 0 0 0 0 0 0 0 0 0 0 0 0 0 0 0 0 0 0 0 0 0 0 0 0 0 0 0 0 0 0 0 0 0 0 0 0 0 0 0 0 0 0 0 0 0 210 211 0 0 0 0 0 0 0 0 0 0 0 0 0 0 0 101 101 0 84 0 121 122 0 0 0 0 0 0 0 0 0 0 518 0 0 0 0 0 537 541 549 0 0 0 574 570 566 553 553 0 541 541 0 0 0 0 541 0 545 0 0 0 0 0 0 0 0 0 0 0 0 0 0 0 0 0 106 0 0 0 521 0 0 0 0 0 529 521 525 525 521 521 514 518 525 518 533 533 545 553 553 553 553 553 549 549 549 553 0 123 124 124 124 124 124 0 0 570 579 579 579 574 574 557 541 541 533 533 0 566 570 579 588 588 598 608 603 593 608 608 613 613 608 603 603 603 608 603 593 570 553 549 553 541 533 537 525 518 514 525 529 521 518 529 514 525 0 0 0 0 0
    0 0 0 0 0 0 0 0 0 0 0 0 0 0 0 0 0 0 0 0 0 0 0 0 0 0 0 0 0 0 0 0 0 0 0 0 0 0 0 0 0 0 0 0 0 0 0 0 0 0 0 0 0 0 0 0 0 0 0 0 0 0 0 0 0 0 0 0 0 0 0 0 0 0 0 0 0 0 0 0 0 0 0 0 0 0 0 0 0 0 0 0 0 0 0 0 0 0 0 0 0 0 0 0 0 0 0 0 0 0 0 0 0 0 0 0 0 0 0 0 0 0 0 0 0 0 0 0 0 0 0 0 0 0 0 0 0 0 0 0 0 0 0 0 0 0 0 0 0 0 0 0 0 0 0 0 0 0 0 0 0 0 0 0 0 0 0 0 0 0 0 0 0 0 0 0 0 0 0 0 0 0 0 0 0 0 0 0 0 0 0 0 0 0 0 0 0 0 0 0 0 0 0 0 0 0 0 0 0 0 0 0 0 0 0 0 0 0 0 0 0 0 0 1036 1187 1247 0 0 0 0 0 0 0 0 0 529 521 525 525 521 521 518 521 525 518 529 0 163 0 549 549 553 549 549 549 549 549 0 0 124 124 123 123 124 0 160 0 0 579 574 570 584 588 570 570 541 584 618 608 0 0 588 588 598 608 603 593 608 608 613 618 613 608 608 613 613 608 598 579 561 557 570 553 541 541 525 518 514 525 529 521 507 497 493 497 0 0 0 0 0
    0 0 0 0 0 0 0 0 0 0 0 0 0 0 0 0 0 0 0 0 0 0 0 0 0 0 0 0 0 0 0 0 0 0 0 0 0 0 0 0 0 0 0 0 0 0 0 0 0 0 0 0 0 0 0 0 0 0 0 0 0 0 0 0 0 0 0 0 0 0 0 0 0 0 0 0 0 0 0 0 0 0 0 0 0 0 0 0 0 0 0 0 0 0 0 0 0 0 0 0 0 0 0 0 0 0 0 0 0 0 0 0 0 0 0 0 0 0 0 0 0 0 0 0 0 0 0 0 0 0 0 0 0 0 0 0 0 0 0 0 0 0 0 0 0 0 0 0 0 0 0 0 0 0 0 0 0 0 0 0 0 0 0 0 0 0 0 0 0 0 0 0 0 0 0 0 0 0 0 0 0 0 0 0 0 0 0 0 0 0 0 0 0 0 0 0 0 0 0 0 0 0 0 0 0 0 0 0 0 0 0 0 0 0 0 0 0 0 0 0 0 0 0 0 0 0 0 0 0 0 0 0 0 0 0 0 0 0 0 0 0 0 0 0 0 0 0 0 0 0 0 0 0 0 0 0 0 0 0 0 0 0 0 0 0 0 0 0 0 553 545 553 0 0 0 639 651 651 651 687 639 0 0 593 608 598 593 608 608 618 618 613 608 608 608 613 598 588 566 549 541 541 541 537 541 529 521 521 521 529 525 504 497 493 497 0 0 0 0 0
    0 0 0 0 0 0 0 0 0 0 0 0 0 0 0 0 0 0 0 0 0 0 0 0 0 0 0 0 0 0 0 0 0 0 0 0 0 0 0 0 0 0 0 0 0 0 0 0 0 0 0 0 0 0 0 0 0 0 0 0 0 0 0 0 0 0 0 0 0 0 0 0 0 0 0 0 0 0 0 0 0 0 0 0 0 0 0 0 0 0 0 0 0 0 0 0 0 0 0 0 0 0 0 0 0 0 0 0 0 0 0 0 0 0 0 0 0 0 0 0 0 0 0 0 0 0 0 0 0 0 0 0 0 0 0 0 0 0 0 0 0 0 0 0 0 0 0 0 0 0 0 0 0 0 0 0 0 0 0 0 0 0 0 0 0 0 0 0 0 0 0 0 0 0 0 0 0 0 0 0 0 0 0 0 0 0 0 0 0 0 0 0 0 0 0 0 0 0 0 0 0 0 0 0 0 0 0 0 0 0 0 0 0 0 0 0 0 0 0 0 0 0 0 0 0 0 0 0 0 0 0 0 0 0 0 0 0 0 0 0 0 0 0 0 0 0 0 0 0 0 0 0 0 0 0 0 0 0 0 0 0 0 0 0 0 0 0 0 0 0 0 0 0 0 0 0 681 669 669 707 657 0 0 0 0 0 549 593 613 618 623 613 603 608 608 613 598 584 553 537 533 537 537 537 537 525 525 525 529 537 529 507 493 490 487 0 0 0 0 0
    0 0 0 0 0 0 0 0 0 0 0 0 0 0 0 0 0 0 0 0 0 0 0 0 0 0 0 0 0 0 0 0 0 0 0 0 0 0 0 0 0 0 0 0 0 0 0 0 0 0 0 0 0 0 0 0 0 0 0 0 0 0 0 0 0 0 0 0 0 0 0 0 0 0 0 0 0 0 0 0 0 0 0 0 0 0 0 0 0 0 0 0 0 0 0 0 0 0 0 0 0 0 0 0 0 0 0 0 0 0 0 0 0 0 0 0 0 0 0 0 0 0 0 0 0 0 0 0 0 0 0 0 0 0 0 0 0 0 0 0 0 0 0 0 0 0 0 0 0 0 0 0 0 0 0 0 0 0 0 0 0 0 0 0 0 0 0 0 0 0 0 0 0 0 0 0 0 0 0 0 0 0 0 0 0 0 0 0 0 0 0 0 0 0 0 0 0 0 0 0 0 0 0 0 0 0 0 0 0 0 0 0 0 0 0 0 0 0 0 0 0 0 0 0 0 0 0 0 0 0 0 0 0 0 0 0 0 0 0 0 0 0 0 0 0 0 0 0 0 0 0 0 0 0 0 0 0 0 0 0 0 0 0 0 0 0 0 0 0 0 0 0 0 0 0 0 0 0 0 0 0 0 0 0 0 0 0 0 0 0 618 598 574 584 579 588 584 553 541 537 529 533 529 529 533 521 521 514 518 521 514 500 490 484 484 0 0 0 0 0
    0 0 0 0 0 0 0 0 0 0 0 0 0 0 0 0 0 0 0 0 0 0 0 0 0 0 0 0 0 0 0 0 0 0 0 0 0 0 0 0 0 0 0 0 0 0 0 0 0 0 0 0 0 0 0 0 0 0 0 0 0 0 0 0 0 0 0 0 0 0 0 0 0 0 0 0 0 0 0 0 0 0 0 0 0 0 0 0 0 0 0 0 0 0 0 0 0 0 0 0 0 0 0 0 0 0 0 0 0 0 0 0 0 0 0 0 0 0 0 0 0 0 0 0 0 0 0 0 0 0 0 0 0 0 0 0 0 0 0 0 0 0 0 0 0 0 0 0 0 0 0 0 0 0 0 0 0 0 0 0 0 0 0 0 0 0 0 0 0 0 0 0 0 0 0 0 0 0 0 0 0 0 0 0 0 0 0 0 0 0 0 0 0 0 0 0 0 0 0 0 0 0 0 0 0 0 0 0 0 0 0 0 0 0 0 0 0 0 0 0 0 0 0 0 0 0 0 0 0 0 0 0 0 0 0 0 0 0 0 0 0 0 0 0 0 0 0 0 0 0 0 0 0 0 0 0 0 0 0 0 0 0 0 0 0 0 0 0 0 0 0 0 0 0 0 0 0 0 0 0 0 0 0 0 0 0 0 0 0 0 0 0 0 0 694 675 618 588 0 0 518 525 525 525 529 521 518 511 511 518 504 497 490 487 481 0 0 0 0 0
    0 0 0 0 0 0 0 0 0 0 0 0 0 0 0 0 0 0 0 0 0 0 0 0 0 0 0 0 0 0 0 0 0 0 0 0 0 0 0 0 0 0 0 0 0 0 0 0 0 0 0 0 0 0 0 0 0 0 0 0 0 0 0 0 0 0 0 0 0 0 0 0 0 0 0 0 0 0 0 0 0 0 0 0 0 0 0 0 0 0 0 0 0 0 0 0 0 0 0 0 0 0 0 0 0 0 0 0 0 0 0 0 0 0 0 0 0 0 0 0 0 0 0 0 0 0 0 0 0 0 0 0 0 0 0 0 0 0 0 0 0 0 0 0 0 0 0 0 0 0 0 0 0 0 0 0 0 0 0 0 0 0 0 0 0 0 0 0 0 0 0 0 0 0 0 0 0 0 0 0 0 0 0 0 0 0 0 0 0 0 0 0 0 0 0 0 0 0 0 0 0 0 0 0 0 0 0 0 0 0 0 0 0 0 0 0 0 0 0 0 0 0 0 0 0 0 0 0 0 0 0 0 0 0 0 0 0 0 0 0 0 0 0 0 0 0 0 0 0 0 0 0 0 0 0 0 0 0 0 0 0 0 0 0 0 0 0 0 0 0 0 0 0 0 0 0 0 0 0 0 0 0 0 0 0 0 0 0 0 0 0 0 0 0 0 0 0 0 0 0 0 0 500 490 507 521 525 518 521 533 518 500 490 487 481 0 0 0 0 0
    0 0 0 0 0 0 0 0 0 0 0 0 0 0 0 0 0 0 0 0 0 0 0 0 0 0 0 0 0 0 0 0 0 0 0 0 0 0 0 0 0 0 0 0 0 0 0 0 0 0 0 0 0 0 0 0 0 0 0 0 0 0 0 0 0 0 0 0 0 0 0 0 0 0 0 0 0 0 0 0 0 0 0 0 0 0 0 0 0 0 0 0 0 0 0 0 0 0 0 0 0 0 0 0 0 0 0 0 0 0 0 0 0 0 0 0 0 0 0 0 0 0 0 0 0 0 0 0 0 0 0 0 0 0 0 0 0 0 0 0 0 0 0 0 0 0 0 0 0 0 0 0 0 0 0 0 0 0 0 0 0 0 0 0 0 0 0 0 0 0 0 0 0 0 0 0 0 0 0 0 0 0 0 0 0 0 0 0 0 0 0 0 0 0 0 0 0 0 0 0 0 0 0 0 0 0 0 0 0 0 0 0 0 0 0 0 0 0 0 0 0 0 0 0 0 0 0 0 0 0 0 0 0 0 0 0 0 0 0 0 0 0 0 0 0 0 0 0 0 0 0 0 0 0 0 0 0 0 0 0 0 0 0 0 0 0 0 0 0 0 0 0 0 0 0 0 0 0 0 0 0 0 0 0 0 0 0 0 0 0 0 0 0 0 0 0 0 0 0 0 728 700 0 0 0 618 593 553 553 545 529 525 497 487 481 0 0 0 0 0
    0 0 0 0 0 0 0 0 0 0 0 0 0 0 0 0 0 0 0 0 0 0 0 0 0 0 0 0 0 0 0 0 0 0 0 0 0 0 0 0 0 0 0 0 0 0 0 0 0 0 0 0 0 0 0 0 0 0 0 0 0 0 0 0 0 0 0 0 0 0 0 0 0 0 0 0 0 0 0 0 0 0 0 0 0 0 0 0 0 0 0 0 0 0 0 0 0 0 0 0 0 0 0 0 0 0 0 0 0 0 0 0 0 0 0 0 0 0 0 0 0 0 0 0 0 0 0 0 0 0 0 0 0 0 0 0 0 0 0 0 0 0 0 0 0 0 0 0 0 0 0 0 0 0 0 0 0 0 0 0 0 0 0 0 0 0 0 0 0 0 0 0 0 0 0 0 0 0 0 0 0 0 0 0 0 0 0 0 0 0 0 0 0 0 0 0 0 0 0 0 0 0 0 0 0 0 0 0 0 0 0 0 0 0 0 0 0 0 0 0 0 0 0 0 0 0 0 0 0 0 0 0 0 0 0 0 0 0 0 0 0 0 0 0 0 0 0 0 0 0 0 0 0 0 0 0 0 0 0 0 0 0 0 0 0 0 0 0 0 0 0 0 0 0 0 0 0 0 0 0 0 0 6690 4599 3504 0 0 0 0 0 0 0 0 0 0 0 0 0 0 0 758 714 0 0 694 657 618 0 0 570 0 0 0 477 481 0 0 0 0 0
    0 0 0 0 0 0 0 0 0 0 0 0 0 0 0 0 0 0 0 0 0 0 0 0 0 0 0 0 0 0 0 0 0 0 0 0 0 0 0 0 0 0 0 0 0 0 0 0 0 0 0 0 0 0 0 0 0 0 0 0 0 0 0 0 0 0 0 0 0 0 0 0 0 0 0 0 0 0 0 0 0 0 0 0 0 0 0 0 0 0 0 0 0 0 0 0 0 0 0 0 0 0 0 0 0 0 0 0 0 0 0 0 0 0 0 0 0 0 0 0 0 0 0 0 0 0 0 0 0 0 0 0 0 0 0 0 0 0 0 0 0 0 0 0 0 0 0 0 0 0 0 0 0 0 0 0 0 0 0 0 0 0 0 0 0 0 0 0 0 0 0 0 0 0 0 0 0 0 0 0 0 0 0 0 0 0 0 0 0 0 0 0 0 0 0 0 0 0 0 0 0 0 0 0 0 0 0 0 0 0 0 0 0 0 0 0 0 0 0 0 0 0 0 0 0 0 0 0 0 0 0 0 0 0 0 0 0 0 0 0 0 0 0 0 0 0 0 0 0 0 0 0 0 0 0 0 0 0 0 0 0 0 0 0 0 0 0 0 0 0 0 0 0 0 0 0 0 0 0 0 0 0 5256 3679 3199 0 0 0 0 0 0 0 0 0 0 0 0 0 0 0 0 0 0 0 0 681 651 675 639 598 0 0 379 0 0 0 0 0 0 0
    0 0 0 0 0 0 0 0 0 0 0 0 0 0 0 0 0 0 0 0 0 0 0 0 0 0 0 0 0 0 0 0 0 0 0 0 0 0 0 0 0 0 0 0 0 0 0 0 0 0 0 0 0 0 0 0 0 0 0 0 0 0 0 0 0 0 0 0 0 0 0 0 0 0 0 0 0 0 0 0 0 0 0 0 0 0 0 0 0 0 0 0 0 0 0 0 0 0 0 0 0 0 0 0 0 0 0 0 0 0 0 0 0 0 0 0 0 0 0 0 0 0 0 0 0 0 0 0 0 0 0 0 0 0 0 0 0 0 0 0 0 0 0 0 0 0 0 0 0 0 0 0 0 0 0 0 0 0 0 0 0 0 0 0 0 0 0 0 0 0 0 0 0 0 0 0 0 0 0 0 0 0 0 0 0 0 0 0 0 0 0 0 0 0 0 0 0 0 0 0 0 0 0 0 0 0 0 0 0 0 0 0 0 0 0 0 0 0 0 0 0 0 0 0 0 0 0 0 0 0 0 0 0 0 0 0 0 0 0 0 0 0 0 0 0 0 0 0 0 0 0 0 0 0 0 0 0 0 0 0 0 0 0 0 0 0 0 0 0 0 0 0 0 0 0 0 0 0 0 0 0 0 0 3679 3066 0 2830 0 0 0 2725 0 0 0 0 0 0 0 0 0 0 0 0 0 0 0 0 0 0 0 0 0 0 0 393 0 0 0 0 0
    0 0 0 0 0 0 0 0 0 0 0 0 0 0 0 0 0 0 0 0 0 0 0 0 0 0 0 0 0 0 0 0 0 0 0 0 0 0 0 0 0 0 0 0 0 0 0 0 0 0 0 0 0 0 0 0 0 0 0 0 0 0 0 0 0 0 0 0 0 0 0 0 0 0 0 0 0 0 0 0 0 0 0 0 0 0 0 0 0 0 0 0 0 0 0 0 0 0 0 0 0 0 0 0 0 0 0 0 0 0 0 0 0 0 0 0 0 0 0 0 0 0 0 0 0 0 0 0 0 0 0 0 0 0 0 0 0 0 0 0 0 0 0 0 0 0 0 0 0 0 0 0 0 0 0 0 0 0 0 0 0 0 0 0 0 0 0 0 0 0 0 0 0 0 0 0 0 0 0 0 0 0 0 0 0 0 0 0 0 0 0 0 0 0 0 0 0 0 0 0 0 0 0 0 0 0 0 0 0 0 0 0 0 0 0 0 0 0 0 0 0 0 0 0 0 0 0 0 0 0 0 0 0 0 0 0 0 0 0 0 0 0 0 0 0 0 0 0 0 0 0 0 0 0 0 0 0 0 0 0 0 0 0 0 0 0 0 0 0 0 0 0 0 0 0 0 0 0 0 0 0 0 0 0 2943 2943 2830 2943 0 0 2725 2164 0 2830 2453 0 0 0 0 0 0 0 0 0 0 0 0 0 0 0 0 0 0 0 0 0 0 0 0 0
    0 0 0 0 0 0 0 0 0 0 0 0 0 0 0 0 0 0 0 0 0 0 0 0 0 0 0 0 0 0 0 0 0 0 0 0 0 0 0 0 0 0 0 0 0 0 0 0 0 0 0 0 0 0 0 0 0 0 0 0 0 0 0 0 0 0 0 0 0 0 0 0 0 0 0 0 0 0 0 0 0 0 0 0 0 0 0 0 0 0 0 0 0 0 0 0 0 0 0 0 0 0 0 0 0 0 0 0 0 0 0 0 0 0 0 0 0 0 0 0 0 0 0 0 0 0 0 0 0 0 0 0 0 0 0 0 0 0 0 0 0 0 0 0 0 0 0 0 0 0 0 0 0 0 0 0 0 0 0 0 0 0 0 0 0 0 0 0 0 0 0 0 0 0 0 0 0 0 0 0 0 0 0 0 0 0 0 0 0 0 0 0 0 0 0 0 0 0 0 0 0 0 0 0 0 0 0 0 0 0 0 0 0 0 0 0 0 0 0 0 0 0 0 0 0 0 0 0 0 0 0 0 0 0 0 0 0 0 0 0 0 0 0 0 0 0 0 0 0 0 0 0 0 0 0 0 0 0 0 0 0 0 0 0 0 0 0 0 0 0 0 0 0 0 0 0 0 0 0 0 0 0 0 0 2299 1936 2299 2537 2537 2830 2374 2044 0 2628 2299 1936 0 0 0 0 0 0 0 0 0 0 0 362 362 360 357 355 350 0 0 0 0 0 0 0
    0 0 0 0 0 0 0 0 0 0 0 0 0 0 0 0 0 0 0 0 0 0 0 0 0 0 0 0 0 0 0 0 0 0 0 0 0 0 0 0 0 0 0 0 0 0 0 0 0 0 0 0 0 0 0 0 0 0 0 0 0 0 0 0 0 0 0 0 0 0 0 0 0 0 0 0 0 0 0 0 0 0 0 0 0 0 0 0 0 0 0 0 0 0 0 0 0 0 0 0 0 0 0 0 0 0 0 0 0 0 0 0 0 0 0 0 0 0 0 0 0 0 0 0 0 0 0 0 0 0 0 0 0 0 0 0 0 0 0 0 0 0 0 0 0 0 0 0 0 0 0 0 0 0 0 0 0 0 0 0 0 0 0 0 0 0 0 0 0 0 0 0 0 0 0 0 0 0 0 0 0 0 0 0 0 0 0 0 0 0 0 0 0 0 0 0 0 0 0 0 0 0 0 0 0 0 0 0 0 0 0 0 0 0 0 0 0 0 0 0 0 0 0 0 0 0 0 0 0 0 0 0 0 0 0 0 0 0 0 0 0 0 0 0 0 0 0 0 0 0 0 0 0 0 0 0 0 0 0 0 0 0 0 0 0 0 0 0 0 0 0 0 0 0 0 0 0 0 0 0 0 0 0 0 0 0 0 0 1989 0 1989 1936 0 2537 2230 1989 0 0 0 0 0 0 0 0 0 0 0 360 359 357 352 350 345 343 360 0 0 0 0 0
    0 0 0 0 0 0 0 0 0 0 0 0 0 0 0 0 0 0 0 0 0 0 0 0 0 0 0 0 0 0 0 0 0 0 0 0 0 0 0 0 0 0 0 0 0 0 0 0 0 0 0 0 0 0 0 0 0 0 0 0 0 0 0 0 0 0 0 0 0 0 0 0 0 0 0 0 0 0 0 0 0 0 0 0 0 0 0 0 0 0 0 0 0 0 0 0 0 0 0 0 0 0 0 0 0 0 0 0 0 0 0 0 0 0 0 0 0 0 0 0 0 0 0 0 0 0 0 0 0 0 0 0 0 0 0 0 0 0 0 0 0 0 0 0 0 0 0 0 0 0 0 0 0 0 0 0 0 0 0 0 0 0 0 0 0 0 0 0 0 0 0 0 0 0 0 0 0 0 0 0 0 0 0 0 0 0 0 0 0 0 0 0 0 0 0 0 0 0 0 0 0 0 0 0 0 0 0 0 0 0 0 0 0 0 0 0 0 0 0 0 0 0 0 0 0 0 0 0 0 0 0 0 0 0 0 0 0 0 0 0 0 0 0 0 0 0 0 0 0 0 0 0 0 0 0 0 0 0 0 0 0 0 0 0 0 0 0 0 0 0 0 0 0 0 0 0 0 0 0 0 0 0 0 0 0 0 0 1711 1752 0 0 1752 0 2230 2164 1989 0 0 0 0 0 0 0 0 0 0 0 0 360 357 350 348 343 339 355 0 0 0 0 0
    0 0 0 0 0 0 0 0 0 0 0 0 0 0 0 0 0 0 0 0 0 0 0 0 0 0 0 0 0 0 0 0 0 0 0 0 0 0 0 0 0 0 0 0 0 0 0 0 0 0 0 0 0 0 0 0 0 0 0 0 0 0 0 0 0 0 0 0 0 0 301 300 227 0 0 0 0 0 0 0 0 0 0 0 0 0 0 0 0 0 0 306 307 309 309 0 307 0 0 0 0 0 0 0 0 0 0 0 0 0 0 0 0 0 0 0 0 0 0 0 0 0 0 0 0 0 0 0 0 0 0 0 0 0 0 0 0 0 0 0 0 0 0 0 0 0 0 0 0 0 0 0 0 0 0 0 0 0 0 0 0 0 0 0 0 0 0 0 0 0 0 0 0 0 0 0 0 0 0 0 0 0 0 0 0 0 0 0 0 0 0 0 0 0 0 0 0 0 0 0 0 0 0 0 0 0 0 0 0 0 0 0 0 0 0 0 0 0 0 0 0 0 0 0 0 0 0 0 0 0 0 0 0 0 0 0 0 0 0 0 0 0 0 0 0 0 0 0 0 0 0 0 0 0 0 0 0 0 0 0 0 0 0 0 0 0 0 0 0 0 0 0 0 0 0 0 0 0 0 0 0 0 0 0 0 0 0 0 1362 0 0 1471 0 0 1989 0 0 0 0 0 0 0 0 0 700 0 707 0 0 355 0 347 340 336 345 0 0 0 0 0
    0 0 0 0 0 0 0 0 0 0 0 0 0 0 0 0 0 0 0 0 0 0 0 0 0 0 0 0 0 0 0 0 0 0 0 0 0 0 0 0 0 0 0 0 0 0 0 0 0 0 0 0 0 0 0 0 0 0 0 0 0 0 0 0 0 0 0 0 0 302 301 301 0 0 0 0 0 0 0 0 0 0 0 0 0 0 0 0 0 306 307 306 309 309 309 307 307 301 0 0 0 0 0 0 0 0 0 314 313 311 0 0 0 0 0 0 0 0 0 0 0 0 0 0 0 0 0 0 0 0 0 0 0 0 0 0 0 0 0 0 0 0 0 0 0 0 0 0 0 0 111 0 0 0 0 0 0 0 0 0 0 0 0 0 0 0 0 0 0 0 0 0 0 0 0 0 0 0 0 0 0 0 0 0 0 0 0 0 0 0 313 313 314 317 0 0 0 0 0 0 0 0 0 0 0 0 0 0 0 0 0 0 0 0 315 0 0 0 0 0 0 0 0 0 0 0 0 0 0 0 0 0 0 0 0 0 0 0 0 0 0 0 0 0 0 0 0 0 0 0 0 0 0 0 0 0 0 0 0 0 0 0 0 0 0 0 0 0 93 0 0 81 0 0 0 194 195 195 196 0 0 0 0 0 0 0 0 0 0 0 0 0 0 0 0 1936 1711 0 0 0 0 0 721 694 687 0 694 675 0 0 0 342 337 331 337 0 0 0 0 0
    0 0 0 0 0 0 0 0 0 0 0 0 0 0 0 0 0 0 0 0 0 0 0 0 0 0 0 0 0 0 0 0 0 0 0 0 0 0 0 0 0 0 0 0 0 0 0 0 0 0 0 0 0 0 0 0 0 0 0 0 0 0 0 0 0 0 0 0 0 301 300 300 300 297 0 294 0 301 0 0 0 0 0 310 310 0 0 0 307 0 0 0 16 309 309 307 309 301 302 301 301 0 299 297 295 305 311 309 310 309 0 0 309 306 305 0 0 0 0 0 0 0 0 0 0 0 0 0 0 0 0 0 0 0 0 0 0 0 0 0 0 0 0 0 0 0 0 0 0 111 111 0 0 0 0 0 318 315 313 313 0 0 0 0 0 0 0 0 0 0 0 0 0 0 0 0 0 0 0 139 0 0 0 0 0 0 314 313 310 310 309 309 0 0 163 0 162 0 0 0 0 0 0 0 310 307 315 307 311 310 309 310 310 313 314 313 0 0 0 319 318 0 310 0 0 0 0 311 311 313 313 0 311 314 314 0 0 0 135 0 0 0 0 0 0 0 0 0 0 0 0 0 0 0 0 0 94 94 94 0 0 0 0 0 0 0 0 0 0 0 1036 0 0 0 0 0 0 192 0 0 0 0 0 0 0 0 0 0 0 0 0 0 1711 1989 0 1887 1635 1443 0 0 0 0 707 687 675 687 687 669 0 0 0 337 336 0 336 0 0 0 0 0
    0 0 0 0 0 0 0 0 0 0 0 0 0 0 0 0 0 0 0 0 0 0 0 0 0 0 0 0 0 0 0 0 0 0 0 0 0 0 0 0 0 0 0 0 0 0 0 0 0 0 0 0 0 0 0 0 0 0 0 0 0 0 0 0 0 0 0 0 0 301 301 300 300 297 296 295 296 300 302 0 306 307 309 307 306 305 306 304 307 306 307 307 307 309 307 306 309 302 304 302 304 304 300 301 301 310 313 311 310 309 306 310 309 307 307 304 305 300 300 302 304 302 301 300 301 299 0 0 300 302 305 0 0 0 0 0 0 310 0 0 0 0 0 0 0 0 0 0 0 0 0 0 311 0 311 314 315 315 313 313 309 311 311 309 307 307 307 309 310 0 0 0 0 0 0 0 304 305 305 310 307 311 313 313 317 318 314 313 310 309 309 307 309 310 0 0 0 0 0 0 0 0 310 311 310 310 315 309 311 310 310 310 310 311 313 313 315 315 314 317 315 311 306 302 304 304 310 309 309 310 310 310 309 313 314 0 0 0 0 0 0 0 0 137 136 507 500 497 497 493 0 0 0 0 0 0 0 0 0 0 0 0 0 0 0 0 0 0 0 0 0 0 0 0 0 0 0 0 0 0 0 0 0 0 0 0 311 0 0 0 1936 1936 1887 2102 1936 1936 0 0 0 0 700 694 700 687 675 681 694 675 681 0 0 334 334 0 0 0 0 0 0 0
    0 0 0 0 0 0 0 0 0 0 0 0 0 0 0 0 0 0 0 0 0 0 0 0 0 0 0 0 0 0 0 0 0 0 0 0 0 0 0 0 0 0 0 0 0 0 0 0 0 0 0 0 0 0 0 0 0 0 0 0 0 0 0 0 0 0 0 0 0 302 302 302 302 300 299 296 297 300 306 306 306 307 306 306 305 305 305 304 306 305 306 306 306 307 307 306 309 302 306 305 306 306 301 304 307 310 313 311 310 309 307 310 310 307 307 305 306 301 302 305 306 304 305 302 304 302 306 305 305 304 305 301 311 0 0 0 315 309 307 0 0 0 0 0 0 0 0 0 0 0 0 311 310 311 310 311 314 314 313 311 310 311 310 309 307 307 307 307 310 310 309 309 309 0 0 305 307 307 307 310 309 311 311 311 314 317 313 313 310 310 310 309 310 310 307 310 311 306 0 0 0 309 310 310 309 309 314 309 311 311 311 311 311 311 313 313 314 314 313 315 314 313 309 306 306 305 310 307 309 310 310 310 309 313 314 0 0 0 0 0 0 0 0 0 0 309 300 0 0 0 0 309 0 0 0 318 317 0 0 0 0 0 0 0 0 0 0 0 0 0 0 0 0 0 0 0 0 0 315 315 0 0 314 313 311 311 311 0 0 0 1936 1887 1936 2102 1989 1989 1795 1635 0 0 0 687 694 694 681 0 687 681 687 0 0 333 334 328 0 0 0 0 0 0
    0 0 0 0 0 0 0 0 0 0 0 0 0 0 0 0 0 0 0 0 0 0 0 0 0 0 0 0 0 0 0 0 0 0 0 0 0 0 0 0 0 0 0 0 0 0 0 0 0 0 0 0 0 0 0 0 0 0 0 0 0 0 0 0 0 0 0 0 0 304 302 302 302 301 300 296 299 300 306 304 306 306 306 306 305 305 305 304 306 305 305 306 306 307 306 307 310 304 309 307 307 307 302 306 307 309 311 311 310 309 307 310 309 307 307 305 305 302 304 306 307 305 306 304 305 304 307 306 305 304 305 304 310 301 0 307 314 309 307 310 0 0 0 0 0 0 310 0 0 309 309 310 309 310 310 310 313 314 313 311 309 311 310 309 309 307 307 307 307 307 306 307 306 307 306 305 307 307 307 310 309 311 311 311 314 315 313 314 310 310 311 309 310 311 309 311 311 307 0 0 0 309 310 310 309 309 313 310 313 313 311 311 313 313 313 314 314 315 314 315 314 314 313 311 311 309 311 309 310 311 311 311 310 0 314 0 0 0 319 321 0 319 0 0 0 307 302 301 302 309 311 311 0 0 0 314 315 314 0 0 0 319 314 314 314 0 0 0 0 0 0 0 0 0 0 0 315 314 314 314 315 314 314 313 311 311 311 0 0 0 0 1839 1887 2044 1936 1989 1887 0 0 0 0 0 0 0 0 0 0 0 0 0 310 333 331 322 328 0 0 0 0 0
    0 0 0 0 0 0 0 0 0 0 0 0 0 0 0 0 0 0 0 0 0 0 0 0 0 0 0 0 0 0 0 0 0 0 0 0 0 0 0 0 0 0 0 0 0 0 0 0 0 0 0 0 0 0 0 0 0 0 0 0 0 0 0 0 0 0 0 0 0 304 304 304 302 301 300 296 297 299 304 301 306 306 305 306 305 305 305 304 306 305 305 306 305 307 306 307 309 304 309 307 309 307 304 307 309 309 311 310 309 307 307 309 307 307 307 304 305 302 302 305 306 305 305 304 306 305 307 307 306 306 306 306 311 306 307 309 314 309 309 310 313 0 0 0 0 0 310 309 309 310 309 310 309 310 310 310 313 313 311 310 307 311 309 309 309 309 307 307 307 307 305 306 305 306 305 304 306 307 306 310 310 311 313 311 314 315 314 314 310 311 311 310 310 311 309 310 311 307 310 307 0 309 310 310 309 309 313 310 313 313 313 313 313 313 314 314 314 315 314 315 315 314 314 313 313 311 313 310 311 313 311 313 310 313 313 313 317 0 317 318 0 318 0 0 314 309 305 305 307 310 313 313 311 311 309 311 313 311 306 300 306 311 310 313 313 311 313 315 315 315 314 315 0 0 315 314 314 313 314 314 314 313 313 313 311 310 311 309 0 0 0 0 0 2044 0 1989 0 0 0 0 0 0 0 0 0 0 306 301 0 0 305 0 319 314 319 0 0 0 0 0
    0 0 0 0 0 0 0 0 0 0 0 0 0 0 0 0 0 0 0 0 0 0 0 0 0 0 0 0 0 0 0 0 0 0 0 0 0 0 0 0 0 0 0 0 0 0 0 0 0 0 0 0 0 0 0 0 0 0 0 0 0 0 0 0 0 0 0 0 0 305 305 305 304 302 300 296 297 299 305 302 306 306 306 306 306 306 305 304 307 305 305 306 305 307 306 307 309 304 309 309 310 309 305 309 310 310 311 311 310 309 309 310 309 307 309 305 305 304 302 305 306 305 304 304 306 305 307 309 307 306 307 306 310 304 304 306 311 309 309 310 311 310 0 0 0 311 311 309 310 310 310 311 309 310 310 310 313 311 310 309 306 310 309 307 309 307 307 307 307 309 306 307 304 306 305 304 306 307 306 310 310 311 313 313 314 315 314 315 311 311 311 310 310 311 309 310 311 309 310 307 310 309 310 310 309 310 313 310 311 313 313 313 313 313 314 314 314 315 314 315 315 315 314 314 314 311 313 311 311 313 311 313 310 311 313 311 315 317 315 0 0 317 0 0 311 309 305 306 309 311 313 313 311 311 310 310 311 309 306 301 306 309 310 311 311 310 313 314 314 314 314 314 314 314 314 314 314 314 314 314 313 313 311 311 311 310 311 309 311 311 313 0 0 0 0 0 0 0 321 317 315 0 311 309 307 305 306 301 302 302 305 311 314 313 315 0 0 0 0 0
    0 0 0 0 0 0 0 0 0 0 0 0 0 0 0 0 0 0 0 0 0 0 0 0 0 0 0 0 0 0 0 0 0 0 0 0 0 0 0 0 0 0 0 0 0 0 0 0 0 0 0 0 0 0 0 0 0 0 0 0 0 0 0 0 0 0 0 0 0 306 305 306 304 304 301 296 297 299 302 301 305 305 305 306 306 306 305 305 307 306 306 307 305 307 306 307 310 305 310 310 311 311 307 310 311 311 313 311 310 310 309 310 309 309 309 306 306 304 302 305 305 304 304 302 305 305 307 309 305 305 305 305 309 302 302 305 309 307 309 310 311 310 311 313 313 311 313 309 310 310 310 310 309 310 310 309 311 310 310 307 306 309 307 307 307 307 307 307 307 309 306 307 305 306 306 304 306 307 306 310 309 311 311 311 314 314 314 315 311 311 311 310 310 311 309 310 311 307 310 307 310 309 310 310 309 309 311 310 311 313 311 311 313 313 313 314 314 315 314 315 315 315 314 314 314 313 313 313 311 313 313 313 310 311 313 313 315 317 315 317 315 317 314 0 309 307 306 306 309 310 311 311 311 311 309 309 310 309 307 304 307 309 310 311 311 310 313 313 314 314 314 314 314 314 315 314 314 314 314 314 313 313 311 311 310 310 310 310 311 311 311 314 314 0 0 0 321 318 319 317 314 314 310 310 307 307 309 305 306 305 306 310 310 310 311 0 0 0 0 0
    0 0 0 0 0 0 0 0 0 0 0 0 0 0 0 0 0 0 0 0 0 0 0 0 0 0 0 0 0 0 0 0 0 0 0 0 0 0 0 0 0 0 0 0 0 0 0 0 0 0 0 0 0 0 0 0 0 0 0 0 0 0 0 0 0 0 0 0 0 306 305 306 304 305 302 299 299 301 302 301 304 304 304 306 306 307 306 305 309 306 306 309 306 307 306 309 311 306 310 311 311 313 310 313 311 311 313 311 310 310 309 310 309 309 309 306 307 305 304 306 305 305 304 302 305 305 307 307 305 305 305 305 307 304 304 305 309 307 309 310 311 311 311 311 313 310 313 307 310 310 310 310 309 309 310 309 311 309 309 306 305 307 307 306 307 307 307 306 307 309 305 307 304 306 306 305 307 307 306 310 309 311 311 311 313 313 313 314 311 311 311 310 310 311 309 310 311 307 309 307 309 309 309 309 309 309 311 309 310 311 311 311 313 313 313 314 314 315 314 315 315 314 314 314 314 313 313 313 313 314 313 314 311 313 314 314 317 318 317 318 317 319 315 313 309 307 306 307 309 310 310 310 310 310 307 306 309 307 307 305 309 310 309 311 310 309 311 311 313 313 313 314 313 314 315 314 315 314 314 314 313 313 311 311 311 310 311 310 311 313 313 314 314 315 315 319 319 317 317 315 314 314 311 311 309 309 310 307 309 307 307 309 305 307 307 0 0 0 0 0
    0 0 0 0 0 0 0 0 0 0 0 0 0 0 0 0 0 0 0 0 0 0 0 0 0 0 0 0 0 0 0 0 0 0 0 0 0 0 0 0 0 0 0 0 0 0 0 0 0 0 0 0 0 0 0 0 0 0 0 0 0 0 0 0 0 0 0 0 0 306 305 305 302 305 302 299 297 300 301 300 302 304 304 306 306 307 306 305 307 307 306 309 306 306 305 309 313 309 311 311 313 313 311 313 313 311 313 313 311 311 310 311 309 310 310 307 307 307 305 306 306 306 305 304 306 306 307 307 306 306 306 307 307 306 305 306 309 307 310 310 310 311 311 311 311 310 313 306 310 310 310 309 309 307 309 307 311 309 309 306 305 307 307 306 307 306 306 305 307 307 305 307 304 306 306 306 307 309 307 310 310 311 311 311 311 313 313 313 311 311 311 310 310 310 309 310 311 307 309 307 309 309 309 309 309 309 311 309 310 311 311 311 313 313 313 314 314 315 314 315 315 314 315 314 314 313 313 313 313 314 313 314 313 313 314 314 317 318 317 319 317 319 317 311 307 306 306 309 309 310 310 310 310 310 309 306 309 307 307 306 309 310 309 311 310 307 310 310 311 311 311 313 311 314 315 314 315 314 314 314 313 313 311 311 311 310 311 311 311 313 311 314 313 315 315 318 317 315 315 314 314 313 310 310 309 309 311 309 310 307 306 305 301 304 302 0 0 0 0 0
    0 0 0 0 0 0 0 0 0 0 0 0 0 0 0 0 0 0 0 0 0 0 0 0 0 0 0 0 0 0 0 0 0 0 0 0 0 0 0 0 0 0 0 0 0 0 0 0 0 0 0 0 0 0 0 0 0 0 0 0 0 0 0 0 0 0 0 0 0 307 307 306 304 306 306 301 297 301 301 300 302 304 302 305 306 307 306 305 307 307 307 309 307 306 305 309 311 310 310 311 311 311 311 313 313 311 313 313 311 311 311 311 309 310 310 307 307 309 306 307 306 306 306 305 307 307 307 309 306 307 307 310 310 307 306 309 310 309 310 309 310 311 311 311 311 309 311 305 309 309 310 309 309 307 309 307 310 307 307 305 304 307 306 306 307 307 307 306 307 309 305 307 305 306 307 306 307 309 307 310 309 311 311 310 311 311 311 314 311 313 313 311 311 311 310 311 311 309 310 309 310 309 310 309 309 310 310 309 310 311 311 313 313 313 313 314 314 315 314 314 314 314 315 314 315 313 313 313 314 314 314 314 313 313 314 314 315 315 314 315 315 317 314 309 306 306 307 309 310 310 310 310 310 311 311 307 309 307 307 307 309 310 309 311 309 307 310 309 310 310 310 311 310 313 314 314 314 314 314 313 311 313 311 311 310 310 310 310 310 311 311 313 311 314 314 314 315 313 313 311 313 311 309 310 309 310 311 309 311 309 307 305 302 304 302 0 0 0 0 0
    0 0 0 0 0 0 0 0 0 0 0 0 0 0 0 0 0 0 0 0 0 0 0 0 0 0 0 0 0 0 0 0 0 0 0 0 0 0 0 0 0 0 0 0 0 0 0 0 0 0 0 0 0 0 0 0 0 0 0 0 0 0 0 0 0 0 0 0 0 309 309 307 305 307 309 304 296 0 301 301 304 304 304 306 307 309 306 306 307 307 307 310 307 307 306 309 311 310 309 309 310 310 311 311 311 311 311 311 311 311 311 311 309 309 309 306 307 307 306 307 307 306 306 306 309 309 309 310 309 309 310 311 311 309 307 309 310 309 310 309 310 310 311 311 311 310 311 305 310 310 310 309 309 307 309 307 311 307 306 304 304 307 306 306 307 307 307 306 307 309 306 307 305 306 307 306 307 309 307 309 309 310 310 309 310 310 310 313 311 313 313 311 313 311 311 311 311 309 310 309 310 309 310 309 309 309 309 309 310 311 311 311 313 311 313 314 314 315 314 314 314 314 315 315 315 314 311 313 314 315 315 315 314 314 314 314 315 314 311 313 313 313 309 307 306 306 309 310 310 310 310 310 310 311 310 307 309 307 307 309 309 310 309 311 309 307 310 309 309 309 310 311 310 313 314 314 315 315 315 314 313 313 311 313 310 310 310 311 310 311 310 311 311 314 313 314 314 311 313 311 313 311 310 310 310 311 311 310 313 310 310 307 305 307 305 0 0 0 0 0</data></depth>
</opencv_storage>
