<?xml version="1.0"?>
<opencv_storage>
<gps_time_stamp>34592</gps_time_stamp>
<gps_x>-1.1706496238708496e+001</gps_x>
<gps_y>1.1123918294906616e+000</gps_y>
<gps_z>-2.9094412326812744e+000</gps_z>
<image_time_stamp>22564</image_time_stamp>
<depth type_id="opencv-matrix">
  <rows>91</rows>
  <cols>320</cols>
  <dt>s</dt>
  <data>
    0 0 0 0 0 0 0 0 0 0 0 0 0 0 0 0 0 0 0 0 0 0 0 0 0 0 0 0 0 0 0 0 0 0 0 0 0 0 0 0 0 0 0 0 0 0 0 0 0 0 0 0 0 0 0 0 0 0 0 0 0 0 0 0 0 0 0 0 0 7359 8177 0 5256 7359 7359 5661 6133 6133 5661 5661 5661 6690 5256 4906 6133 4906 4599 4906 5661 6133 6133 6690 8177 8177 8177 0 0 0 0 0 0 0 0 0 0 0 0 0 0 0 6690 5256 4599 5256 5256 6133 8177 7359 7359 0 0 0 0 0 0 0 0 0 0 0 0 0 0 0 0 0 0 0 0 0 3199 0 0 0 0 0 0 0 0 0 0 0 0 0 0 389 383 0 0 0 0 0 0 0 0 0 0 391 389 0 0 0 0 0 0 120 120 0 0 0 0 0 4906 7359 7359 6690 7359 8177 7359 7359 6690 8177 6690 6133 7359 6690 4329 3679 3873 0 0 0 0 0 0 0 8177 8177 0 0 0 0 0 0 0 0 0 0 0 0 0 0 0 0 0 0 107 0 0 0 3345 3504 4088 4906 3679 5256 4088 4088 3873 3679 3504 3199 3199 3345 2725 2374 2453 2628 2725 2943 2725 2374 2164 2102 0 152 0 0 0 0 0 0 0 0 0 4906 3679 0 0 3199 2725 0 2830 2628 0 0 0 0 0 2230 0 0 0 0 0 0 0 0 0 0 0 0 0 0 0 0 0 0 0 0 0 0 0 0 2374 0 0 383 375 0 0 0 373 0 0 0 0 0 0 0
    0 0 0 0 0 0 0 0 0 0 0 0 0 0 0 0 0 0 0 0 0 0 0 0 0 0 0 0 0 0 0 0 0 0 0 0 0 0 0 0 0 0 0 0 0 0 0 0 0 0 0 0 0 0 0 0 0 0 0 0 0 0 0 0 0 0 0 0 0 0 0 0 0 0 8177 6133 6690 6133 6133 6133 6133 6690 5256 4906 6133 5256 4906 4906 5661 5661 5661 6690 8177 8177 7359 0 0 0 0 0 0 0 0 0 0 0 0 0 0 0 6690 4088 3679 4329 4088 5256 8177 6690 6690 0 0 0 0 0 0 0 0 0 0 0 0 0 0 0 0 0 0 0 0 0 0 0 0 0 0 0 0 0 0 0 0 0 389 393 395 391 387 391 402 408 406 404 397 397 397 399 395 391 389 387 379 383 379 381 381 0 0 0 0 0 0 0 0 0 0 0 0 0 8177 7359 6690 8177 6133 5256 0 5256 3873 0 0 0 0 102 0 0 0 0 0 0 0 0 0 377 371 0 0 0 0 0 0 0 0 0 0 0 0 0 107 0 0 0 0 0 0 0 0 5256 4088 3873 3504 3504 0 0 3199 3199 2725 2299 2453 2725 2830 3199 2830 2453 2044 1887 0 151 0 0 0 0 0 0 0 0 0 0 0 0 0 0 0 387 0 0 387 381 379 379 379 379 389 389 0 0 0 0 395 393 0 391 0 0 391 395 391 0 393 391 393 393 389 391 387 387 381 381 381 379 375 373 369 0 371 371 373 0 0 0 0 0
    0 0 0 0 0 0 0 0 0 0 0 0 0 0 0 0 0 0 0 0 0 0 0 0 0 0 0 0 0 0 0 0 0 0 0 0 0 0 0 0 0 0 0 0 0 0 0 0 0 0 0 0 0 0 0 0 0 0 0 0 0 0 0 0 0 0 0 0 0 0 0 0 0 0 0 0 6690 6690 6133 6690 6133 6690 5256 4906 6133 5256 4906 0 0 0 0 0 0 0 7359 0 0 0 0 0 0 0 0 0 0 0 0 0 0 0 6690 0 0 0 0 0 0 6133 0 0 0 0 0 0 0 8177 0 0 0 0 0 0 0 0 0 0 0 0 0 0 0 0 0 0 0 0 0 0 0 0 385 391 391 395 395 393 391 395 402 408 406 406 399 397 399 399 395 393 391 389 379 385 381 383 383 381 0 383 381 0 0 0 0 0 0 0 0 0 0 7359 0 391 0 395 393 393 395 393 387 0 0 0 0 0 389 381 0 0 385 385 385 379 375 369 375 0 0 0 0 0 0 0 0 0 0 0 0 0 389 387 381 373 369 0 0 0 0 0 0 3345 0 0 0 0 2628 2374 2537 2830 2943 3199 2830 2628 2102 1711 0 0 0 73 73 0 0 0 0 0 0 0 0 0 0 0 387 385 381 381 385 379 377 377 377 379 385 387 389 391 391 393 391 389 391 387 389 387 383 387 385 391 389 387 389 389 385 389 385 385 377 377 375 377 373 373 369 369 369 371 373 0 0 0 0 0
    0 0 0 0 0 0 0 0 0 0 0 0 0 0 0 0 0 0 0 0 0 0 0 0 0 0 0 0 0 0 0 0 0 0 0 0 0 0 0 0 0 0 0 0 0 0 0 0 0 0 0 0 0 0 0 0 0 0 0 0 0 0 0 0 0 0 0 0 0 0 0 0 0 0 0 0 0 0 6690 6690 6690 7359 5661 0 0 0 0 0 0 0 0 0 0 8177 0 0 0 7359 0 0 0 0 0 0 0 0 0 0 0 0 6690 0 0 0 0 208 205 0 0 0 0 0 0 0 0 7359 0 0 0 0 0 0 0 0 0 0 0 395 393 391 0 0 0 0 0 0 0 0 0 391 389 393 393 397 397 395 395 395 402 406 406 406 402 397 399 397 395 393 393 389 379 387 383 385 385 383 383 385 383 387 0 0 0 0 0 0 0 0 0 395 393 391 391 393 391 391 393 393 387 389 0 0 385 387 387 379 377 0 0 383 383 379 377 373 381 381 387 379 383 385 387 0 0 0 0 389 389 387 387 385 383 377 373 369 371 375 383 0 0 0 373 0 0 381 0 0 0 0 0 3345 0 0 0 0 0 0 0 73 73 73 0 0 0 0 0 0 0 383 385 385 385 385 381 379 385 379 379 377 377 379 381 383 387 387 387 389 387 387 385 383 385 383 379 381 381 387 383 383 383 385 379 385 381 381 375 373 373 373 373 373 369 369 371 371 373 0 0 0 0 0
    0 0 0 0 0 0 0 0 0 0 0 0 0 0 0 0 0 0 0 0 0 0 0 0 0 0 0 0 0 0 0 0 0 0 0 0 0 0 0 0 0 0 0 0 0 0 0 0 0 0 0 0 0 0 0 0 0 0 0 0 0 0 0 0 0 0 0 0 0 0 0 0 0 0 0 0 0 406 0 0 0 0 0 393 387 0 0 0 0 0 0 0 0 0 0 0 0 4329 0 0 0 0 0 0 0 0 0 0 0 0 0 0 0 208 210 209 206 0 0 209 0 0 0 0 0 0 0 0 0 0 0 387 387 385 387 391 389 393 393 391 393 0 0 389 389 391 391 393 395 389 389 393 393 395 397 395 395 397 399 404 402 404 399 397 397 397 395 395 393 391 381 387 385 387 387 385 385 387 383 389 381 385 0 0 0 0 387 389 391 393 391 389 391 391 389 391 393 391 387 389 387 387 385 385 387 379 381 381 385 387 385 385 385 381 385 385 389 379 383 385 387 389 389 387 389 387 389 387 387 385 383 381 379 375 375 379 383 375 375 375 375 375 377 377 373 375 373 0 0 0 0 0 0 0 0 0 0 0 0 0 0 375 371 373 373 371 381 381 381 383 383 385 383 381 387 383 381 379 377 379 381 381 385 383 383 385 383 383 383 381 383 381 379 379 381 385 383 381 379 381 377 383 379 379 375 373 373 373 373 375 369 371 371 373 373 0 0 0 0 0
    0 0 0 0 0 0 0 0 0 0 0 0 0 0 0 0 0 0 0 0 0 0 0 0 0 0 0 0 0 0 0 0 0 0 0 0 0 0 0 0 0 0 0 0 0 0 0 0 0 0 0 0 0 0 0 0 0 0 0 0 0 0 0 0 0 0 0 0 0 0 0 0 0 0 0 0 0 404 397 397 397 397 397 395 391 389 389 389 389 389 0 0 0 0 0 0 0 0 0 0 0 0 0 0 0 0 0 0 0 0 0 0 0 0 0 210 0 0 0 0 0 0 0 395 0 0 389 391 387 387 389 389 387 385 385 389 387 393 391 391 391 391 389 389 389 389 391 393 393 389 389 393 393 395 397 395 395 395 399 399 399 402 399 397 397 395 393 395 393 393 383 389 387 389 389 387 387 389 387 391 387 389 389 385 391 391 387 389 389 391 389 389 391 389 389 389 391 389 387 389 387 387 385 385 387 381 385 385 387 389 387 387 389 385 389 385 391 379 381 387 387 387 387 387 389 387 389 387 387 385 385 385 385 381 381 383 385 377 377 377 375 379 377 379 377 379 379 379 381 381 381 383 381 387 387 391 389 387 387 383 381 377 371 377 375 371 379 379 381 383 383 385 383 381 389 383 383 381 379 379 381 379 383 383 381 383 383 383 383 381 383 381 379 379 381 385 383 381 377 379 375 383 379 379 373 373 371 373 373 375 369 371 371 373 375 0 0 0 0 0
    0 0 0 0 0 0 0 0 0 0 0 0 0 0 0 0 0 0 0 0 0 0 0 0 0 0 0 0 0 0 0 0 0 0 0 0 0 0 0 0 0 0 0 0 0 0 0 0 0 0 0 0 0 0 0 0 0 0 0 0 0 0 0 0 0 0 0 0 0 0 0 0 0 0 0 0 406 402 399 397 397 397 397 397 393 393 393 393 393 393 395 0 0 0 399 399 397 397 399 397 397 0 397 397 0 0 0 0 0 0 0 415 411 406 399 393 0 404 0 0 395 391 391 393 395 393 389 391 389 389 391 391 389 387 387 391 387 391 391 391 391 389 387 387 387 389 389 391 391 389 389 393 395 395 397 395 397 395 397 399 397 399 399 397 395 395 393 395 393 393 385 389 389 387 389 387 387 389 387 393 389 391 393 389 393 393 389 391 389 391 389 389 391 389 389 391 391 389 389 391 387 387 385 385 385 379 385 385 387 389 389 389 391 389 391 387 389 377 381 387 389 389 387 387 389 387 389 389 387 385 385 387 387 385 385 387 387 377 379 377 377 379 377 379 377 379 383 383 385 383 383 387 385 389 387 389 387 387 389 387 381 375 369 377 375 371 379 379 379 383 383 385 383 381 389 383 381 379 377 379 379 379 383 381 381 383 383 383 383 381 383 381 379 379 381 385 383 379 377 379 375 381 377 379 375 373 373 373 373 377 371 373 373 375 375 0 0 0 0 0
    0 0 0 0 0 0 0 0 0 0 0 0 0 0 0 0 0 0 0 0 0 0 0 0 0 0 0 0 0 0 0 0 0 0 0 0 0 0 0 0 0 0 0 0 0 0 0 0 0 0 0 0 0 0 0 0 0 0 0 0 0 0 0 0 0 0 0 0 0 408 408 406 0 408 406 411 404 402 402 399 397 397 399 397 395 395 393 393 393 393 395 395 0 0 397 397 397 397 399 399 399 399 399 399 402 404 406 404 402 404 406 411 408 404 399 397 395 402 391 395 393 389 387 389 393 391 389 391 389 389 391 393 391 389 389 393 387 391 389 389 389 387 385 387 387 389 389 391 391 389 391 395 395 395 397 395 397 397 399 399 399 399 399 397 395 395 393 393 393 393 385 389 389 387 389 387 387 389 387 393 391 393 395 389 393 393 389 391 389 389 389 389 391 389 389 389 389 389 389 391 387 387 387 385 387 379 385 385 387 389 389 389 391 389 391 389 391 377 379 387 387 387 387 387 387 387 389 389 387 387 385 389 389 389 387 389 387 379 379 377 377 377 375 379 377 381 385 385 387 385 385 389 387 391 387 389 385 385 385 381 375 373 369 375 373 371 379 379 379 381 383 385 383 381 389 383 381 379 377 377 379 379 381 381 381 383 385 383 385 383 383 381 379 379 381 383 381 379 377 377 375 379 377 379 375 375 375 375 375 379 371 375 375 375 375 0 0 0 0 0
    0 0 0 0 0 0 0 0 0 0 0 0 0 0 0 0 0 0 0 0 0 0 0 0 0 0 0 0 0 0 0 0 0 0 0 0 0 0 0 0 0 0 0 0 0 0 0 0 0 0 0 0 0 0 0 0 0 0 0 0 0 0 0 0 0 0 0 0 0 406 406 404 408 408 408 408 404 402 402 399 399 397 397 397 395 393 393 393 391 391 391 391 393 393 395 395 395 395 397 397 397 397 399 399 402 404 408 404 402 406 406 408 0 0 0 397 393 399 389 393 393 389 385 389 391 391 387 391 389 387 391 393 391 387 389 391 385 389 389 387 387 385 383 387 387 389 389 389 391 389 391 395 397 395 397 395 397 395 399 399 399 399 402 397 397 395 395 393 391 393 383 387 387 387 387 387 387 389 387 395 391 393 395 389 393 391 389 391 387 389 387 387 389 387 389 389 389 389 387 391 387 387 387 385 387 379 387 385 387 389 389 389 391 389 391 389 391 377 377 387 387 387 385 387 387 387 387 389 387 387 385 389 391 389 389 391 387 379 379 377 377 379 375 379 377 383 385 385 387 385 387 389 387 391 387 389 385 385 381 377 371 371 369 375 373 369 377 379 379 381 381 385 383 381 389 383 379 379 377 377 379 379 383 383 381 383 385 383 385 383 385 379 379 379 379 381 381 377 377 377 375 379 377 379 377 377 375 375 375 379 371 375 375 375 375 0 0 0 0 0
    0 0 0 0 0 0 0 0 0 0 0 0 0 0 0 0 0 0 0 0 0 0 0 0 0 0 0 0 0 0 0 0 0 0 0 0 0 0 0 0 0 0 0 0 0 0 0 0 0 0 0 0 0 0 0 0 0 0 0 0 0 0 0 0 0 0 0 0 0 404 404 404 408 408 408 411 404 404 404 402 402 399 399 397 395 393 393 391 389 391 389 391 391 391 393 393 393 393 395 397 395 397 397 399 402 404 411 406 406 408 408 411 0 0 0 395 391 395 389 393 393 389 387 391 391 391 389 391 389 389 391 393 391 387 389 393 383 391 389 387 385 385 383 385 387 387 387 389 391 389 389 395 395 393 395 393 395 395 397 397 397 397 399 397 397 395 395 393 391 393 385 387 387 387 387 387 387 391 387 395 393 395 397 391 393 391 389 389 387 387 387 387 389 387 389 389 387 387 389 391 387 389 387 385 387 381 387 385 387 387 387 387 391 387 391 387 389 377 377 387 385 387 385 387 387 387 387 389 387 387 385 389 389 387 389 391 387 381 379 379 377 377 375 377 375 381 383 385 387 385 387 389 387 391 387 389 387 387 381 375 0 369 367 375 373 369 377 379 379 381 381 385 383 381 389 383 381 377 379 379 379 379 383 383 381 383 385 383 385 383 385 379 381 379 379 381 381 377 377 377 375 377 377 379 375 377 375 373 373 379 373 375 375 375 375 0 0 0 0 0
    0 0 0 0 0 0 0 0 0 0 0 0 0 0 0 0 0 0 0 0 0 0 0 0 0 0 0 0 0 0 0 0 0 0 0 0 0 0 0 0 0 0 0 0 0 0 0 0 0 0 0 0 0 0 0 0 0 0 0 0 0 0 0 0 0 0 0 0 0 404 404 404 411 411 408 411 406 406 406 404 404 399 399 399 395 393 391 391 389 391 389 391 391 391 393 393 393 393 395 397 395 397 397 399 399 404 411 406 408 408 408 413 411 408 0 399 395 397 391 395 395 391 387 391 391 391 389 391 389 389 391 393 391 387 389 393 383 391 389 387 385 383 381 387 387 389 387 389 391 389 389 393 393 391 391 391 393 393 395 395 395 395 397 395 395 395 393 393 391 393 387 389 389 387 389 387 387 391 389 395 393 397 397 391 393 391 389 389 387 387 387 387 389 387 389 387 387 387 389 391 389 391 389 387 389 381 385 385 385 385 385 385 389 385 389 387 387 377 375 385 385 385 385 387 387 385 387 389 385 387 385 387 387 387 387 389 385 381 379 377 377 377 373 375 373 379 381 383 385 385 387 389 387 391 385 389 387 387 383 377 0 0 367 377 375 369 377 379 379 379 381 385 381 381 389 383 379 377 379 377 379 379 381 381 381 381 385 381 385 381 383 377 379 379 379 379 379 377 377 377 375 377 377 379 377 377 375 373 373 379 373 375 377 377 377 0 0 0 0 0
    0 0 0 0 0 0 0 0 0 0 0 0 0 0 0 0 0 0 0 0 0 0 0 0 0 0 0 0 0 0 0 0 0 0 0 0 0 0 0 0 0 0 0 0 0 0 0 0 0 0 0 0 0 0 0 0 0 0 0 0 0 0 0 0 0 0 0 0 0 404 404 404 408 408 408 408 404 406 406 404 402 399 399 397 395 393 391 389 389 391 389 391 391 393 395 393 393 393 395 395 395 395 395 397 399 402 408 404 406 406 406 411 408 406 402 397 395 395 391 395 395 391 389 391 391 391 389 391 389 389 391 393 389 387 389 393 383 391 389 385 385 383 383 387 389 389 389 389 391 389 391 393 393 389 391 391 391 391 393 393 393 393 397 395 395 393 393 393 391 393 387 389 387 387 389 387 387 391 387 395 393 397 397 389 391 389 389 389 389 387 387 387 389 389 389 387 387 385 389 389 389 389 391 387 391 383 387 387 387 383 385 385 389 385 389 387 387 377 377 385 385 385 385 385 387 385 385 389 383 385 383 387 387 387 389 389 385 379 379 377 377 377 371 373 0 375 379 381 383 383 387 389 385 391 383 385 387 389 383 379 0 0 0 379 375 369 377 379 379 379 381 385 381 381 387 379 377 375 379 377 377 377 379 381 379 381 385 381 385 381 383 377 379 379 379 377 379 377 377 377 375 377 377 379 379 377 377 375 373 381 373 377 377 377 377 0 0 0 0 0
    0 0 0 0 0 0 0 0 0 0 0 0 0 0 0 0 0 0 0 0 0 0 0 0 0 0 0 0 0 0 0 0 0 0 0 0 0 0 0 0 0 0 0 0 0 0 0 0 0 0 0 0 0 0 0 0 0 0 0 0 0 0 0 0 0 0 0 0 0 402 404 402 408 408 406 406 402 404 404 399 399 397 395 395 393 391 391 391 389 391 389 393 391 393 395 393 393 393 393 395 395 395 395 397 397 399 406 402 404 402 402 404 0 0 0 395 391 393 391 395 393 391 389 393 393 393 389 393 391 391 391 393 389 387 389 391 381 387 387 383 383 381 383 387 389 389 389 389 391 389 391 393 393 389 391 391 391 391 393 395 395 393 397 395 395 393 393 393 389 393 387 389 387 387 389 387 387 391 387 395 393 397 395 387 391 387 387 389 387 387 387 387 389 387 391 387 385 385 387 387 387 389 389 387 391 385 387 387 387 385 387 387 389 387 387 387 387 377 379 387 385 385 385 385 387 385 385 389 383 385 383 387 385 387 389 389 383 381 379 379 377 377 371 373 371 375 379 379 383 383 385 387 385 389 383 383 385 389 381 381 377 375 0 381 377 369 377 379 379 379 381 385 381 381 387 379 377 375 379 377 377 377 379 381 379 381 385 381 385 379 381 375 379 377 377 377 379 377 377 377 377 379 379 381 379 379 377 377 375 381 373 377 377 377 377 0 0 0 0 0
    0 0 0 0 0 0 0 0 0 0 0 0 0 0 0 0 0 0 0 0 0 0 0 0 0 0 0 0 0 0 0 0 0 0 0 0 0 0 0 0 0 0 0 0 0 0 0 0 0 0 0 0 0 0 0 0 0 0 0 0 0 0 0 0 0 0 0 0 0 402 404 402 408 408 406 404 402 402 0 0 395 393 391 393 391 391 391 391 391 391 389 393 391 393 393 391 391 391 393 393 393 393 393 395 397 397 402 397 402 399 397 399 0 0 395 393 391 395 393 397 395 393 391 393 393 393 391 393 391 391 391 393 389 389 391 393 387 391 391 387 387 385 0 389 389 389 389 391 393 391 393 393 393 389 391 391 391 391 393 395 395 393 397 395 395 393 393 391 389 393 389 389 387 389 389 387 389 391 387 393 393 397 395 387 389 383 387 387 385 385 385 385 387 387 389 385 383 383 385 385 385 387 389 389 391 385 387 389 387 385 385 385 389 385 387 387 387 379 381 387 387 385 387 387 387 385 387 389 383 385 385 387 385 389 389 391 385 381 381 379 377 379 371 371 371 375 379 379 383 383 385 387 387 389 385 385 387 387 377 379 369 369 366 381 377 369 377 379 377 379 381 383 379 381 387 379 377 375 379 377 379 379 379 381 381 381 387 381 385 377 379 375 377 377 377 377 379 377 379 379 379 381 379 381 381 379 379 377 375 381 375 377 377 377 375 0 0 0 0 0
    0 0 0 0 0 0 0 0 0 0 0 0 0 0 0 0 0 0 0 0 0 0 0 0 0 0 0 0 0 0 0 0 0 0 0 0 0 0 0 0 0 0 0 0 0 0 0 0 0 0 0 0 0 0 0 0 0 0 0 0 0 0 0 0 0 0 0 0 0 402 402 402 406 406 404 402 0 0 0 0 0 393 391 393 391 391 391 391 389 391 387 391 391 391 391 391 389 391 391 393 391 391 393 395 395 395 397 397 397 397 395 397 395 395 395 393 393 395 395 397 395 393 391 393 393 393 391 391 391 391 391 393 389 389 391 393 389 391 391 389 389 389 387 389 391 391 389 391 391 391 393 393 393 389 391 391 391 391 393 393 395 393 397 397 395 395 395 393 389 393 389 389 387 389 389 387 389 391 387 393 391 395 393 385 387 381 385 385 385 385 385 385 387 387 389 383 383 383 383 385 385 387 389 389 391 387 387 389 387 387 387 387 389 387 387 389 387 379 383 387 385 385 385 387 385 385 387 389 385 385 385 387 385 389 389 391 385 383 381 381 379 381 371 371 0 0 0 377 381 383 383 385 385 387 383 385 385 383 371 371 367 367 364 375 375 369 377 379 379 379 379 383 379 381 387 377 377 375 379 377 379 379 379 381 381 381 387 379 385 377 377 373 375 377 375 375 379 377 379 379 379 381 379 381 383 381 379 379 375 381 375 375 377 375 375 0 0 0 0 0
    0 0 0 0 0 0 0 0 0 0 0 0 0 0 0 0 0 0 0 0 0 0 0 0 0 0 0 0 0 0 0 0 0 0 0 0 0 0 0 0 0 0 0 0 0 0 0 0 0 0 0 0 0 0 0 0 0 0 0 0 0 0 0 0 0 0 0 0 0 399 402 399 404 404 402 0 0 0 0 0 0 393 391 393 391 391 391 391 389 389 387 393 393 391 391 391 389 391 391 391 389 389 391 393 395 393 395 395 397 395 395 395 393 393 393 393 393 395 397 397 395 395 393 395 395 393 391 391 391 391 391 393 389 387 391 391 387 389 389 389 389 389 389 391 391 391 391 391 391 391 393 393 391 387 389 391 391 391 393 393 395 393 397 397 397 395 395 393 389 393 389 389 389 389 389 387 389 391 387 393 389 391 389 385 385 381 385 385 385 387 385 385 387 387 389 381 385 385 379 385 385 389 389 389 391 389 387 389 389 389 389 389 391 389 389 391 387 381 385 387 385 385 385 385 385 385 387 387 383 385 383 385 383 389 387 389 385 383 383 383 381 383 371 0 0 0 375 373 377 379 379 381 383 383 381 381 383 381 373 379 375 371 367 375 375 369 377 379 379 379 379 383 379 381 389 377 377 375 381 377 379 381 379 381 381 381 387 379 385 375 377 373 373 375 375 373 377 375 377 379 377 379 379 381 383 381 379 379 375 379 373 373 375 373 373 0 0 0 0 0
    0 0 0 0 0 0 0 0 0 0 0 0 0 0 0 0 0 0 0 0 0 0 0 0 0 0 0 0 0 0 0 0 0 0 0 0 0 0 0 0 0 0 0 0 0 0 0 0 0 0 0 0 0 0 0 0 0 0 0 0 0 0 0 0 0 0 0 0 0 399 402 399 402 399 0 0 395 0 0 393 393 393 393 393 393 393 393 391 391 391 389 395 395 393 395 393 393 395 393 393 391 389 391 393 393 391 395 395 395 395 395 395 393 395 395 395 395 0 397 397 395 397 393 395 395 395 391 391 391 393 391 393 391 389 391 391 387 389 391 391 389 391 389 391 393 391 391 391 391 391 391 391 391 387 389 391 391 393 393 395 397 393 397 397 395 395 393 393 389 393 389 391 389 389 389 387 389 391 387 391 385 389 387 383 381 381 385 383 385 387 387 387 387 389 391 383 389 387 383 387 385 389 391 389 391 389 389 389 389 389 389 389 393 389 389 391 387 381 385 385 385 383 385 385 383 385 387 387 383 381 381 383 381 387 387 387 385 385 385 385 383 387 0 0 0 0 375 371 377 377 377 379 381 381 383 381 383 383 379 387 385 377 369 377 377 371 379 381 379 379 381 383 381 381 389 379 379 375 381 379 381 381 381 383 381 381 387 379 385 375 377 373 373 377 375 375 379 377 379 379 377 379 377 379 381 379 379 377 373 377 373 373 373 371 373 0 0 0 0 0
    0 0 0 0 0 0 0 0 0 0 0 0 0 0 0 0 0 0 0 0 0 0 0 0 0 0 0 0 0 0 0 0 0 0 0 0 0 0 0 0 0 0 0 0 0 0 0 0 0 0 0 0 0 0 0 0 0 0 0 0 0 0 0 0 0 0 0 0 0 402 402 399 399 399 395 0 395 395 0 395 395 395 393 395 393 393 393 393 393 393 391 395 395 395 395 395 395 395 395 395 391 391 391 393 393 391 393 393 395 395 395 395 393 395 395 395 395 0 0 397 397 397 395 395 395 395 391 393 393 393 393 395 393 389 391 393 387 389 389 391 389 391 389 393 393 393 391 391 389 391 391 391 391 387 389 391 393 393 395 395 397 393 397 397 395 395 393 393 387 391 389 391 389 389 389 389 389 391 387 391 381 387 383 379 379 381 385 383 385 389 387 387 389 389 389 383 391 389 385 389 387 389 391 391 391 389 389 391 389 391 391 391 393 391 391 393 387 381 387 385 385 385 385 385 383 385 389 385 383 381 381 383 383 389 387 387 387 387 387 389 387 389 0 0 0 369 373 371 375 375 375 377 379 379 383 379 381 381 379 389 385 379 371 379 379 371 379 381 379 379 381 385 381 381 389 381 379 377 381 379 381 381 381 383 381 381 387 379 387 377 379 375 375 379 377 377 381 377 381 381 379 379 377 379 381 377 377 377 373 377 373 373 373 373 373 0 0 0 0 0
    0 0 0 0 0 0 0 0 0 0 0 0 0 0 0 0 0 0 0 0 0 0 0 0 0 0 0 0 0 0 0 0 0 0 0 0 0 0 0 0 0 0 0 0 0 0 0 0 0 0 0 0 0 0 0 0 0 0 0 0 0 0 0 0 0 0 0 0 0 404 404 402 399 397 0 0 393 393 395 393 393 395 395 395 395 393 395 393 393 393 393 395 397 397 397 395 397 0 395 395 393 391 393 393 393 391 393 393 393 393 393 395 393 393 395 395 0 0 0 397 395 397 395 395 395 395 391 393 393 393 393 395 393 391 393 393 387 389 389 391 389 389 0 391 393 393 391 391 391 391 393 391 391 389 391 393 393 395 395 397 397 393 397 395 393 393 391 391 387 391 389 389 389 389 389 389 389 391 387 391 381 387 385 379 381 383 385 383 385 389 387 387 389 389 389 385 391 389 385 389 387 389 391 391 391 389 389 391 389 391 391 393 393 391 393 393 389 381 387 385 385 383 385 383 383 385 389 383 383 381 383 383 383 389 387 387 389 387 387 389 387 391 0 0 0 0 0 0 377 375 375 377 379 379 383 381 381 381 379 389 385 379 373 377 379 371 379 381 379 379 381 385 381 383 389 381 381 375 381 377 379 381 381 383 381 381 387 381 389 379 379 377 375 379 377 377 381 377 381 381 379 379 377 379 381 379 379 377 375 377 373 373 373 371 373 0 0 0 0 0
    0 0 0 0 0 0 0 0 0 0 0 0 0 0 0 0 0 0 0 0 0 0 0 0 0 0 0 0 0 0 0 0 0 0 0 0 0 0 0 0 0 0 0 0 0 0 0 0 0 0 0 0 0 0 0 0 0 0 0 0 0 0 0 0 0 0 0 0 0 404 406 402 399 0 0 0 393 391 395 393 393 393 393 395 395 395 395 395 395 395 0 0 0 397 399 397 0 0 0 0 395 393 393 393 393 389 391 393 393 393 393 395 393 393 395 395 0 0 0 397 395 397 393 395 395 395 391 393 393 393 393 395 393 391 391 393 387 387 385 387 385 385 389 389 391 391 389 391 391 391 393 391 393 389 391 393 393 395 395 397 397 395 399 397 397 395 393 391 387 391 389 389 389 389 389 389 391 393 387 393 385 389 385 381 381 383 385 385 385 389 389 389 389 391 391 389 391 391 385 387 385 387 389 389 391 389 389 389 389 391 391 391 393 391 393 393 387 379 387 385 385 383 385 383 381 385 391 383 385 383 383 383 383 387 387 385 387 385 387 389 389 0 0 0 0 0 0 0 0 377 375 377 379 379 385 383 379 379 377 385 381 379 371 375 377 371 379 381 381 381 381 387 385 385 393 387 385 377 383 379 381 381 381 383 381 381 389 381 389 381 381 377 375 377 373 375 377 375 379 379 377 377 375 379 381 379 379 377 375 377 373 373 373 371 371 0 0 0 0 0
    0 0 0 0 0 0 0 0 0 0 0 0 0 0 0 0 0 0 0 0 0 0 0 0 0 0 0 0 0 0 0 0 0 0 0 0 0 0 0 0 0 0 0 0 0 0 0 0 0 0 0 0 0 0 0 0 0 0 0 0 0 0 0 0 0 0 0 0 0 404 404 402 399 0 391 393 391 391 393 393 393 393 393 395 395 395 397 395 397 395 0 0 0 0 0 0 0 0 0 0 0 395 395 395 393 391 393 393 393 393 393 395 393 395 395 395 0 0 0 397 395 397 393 395 395 393 391 391 393 393 391 395 393 391 391 393 387 385 383 387 385 383 387 387 389 391 389 391 389 391 391 391 391 387 389 391 393 395 395 395 395 393 0 395 0 393 389 389 385 391 387 389 389 389 391 391 391 393 389 395 389 389 387 383 381 381 385 385 385 389 389 389 391 393 393 391 393 391 385 389 383 387 389 389 389 387 387 389 387 391 391 391 391 389 391 391 383 377 385 383 383 379 381 381 381 383 389 381 381 379 381 379 381 387 383 383 385 385 385 389 0 0 0 0 0 0 0 0 0 0 0 0 379 379 387 383 379 379 375 383 379 377 371 373 375 371 379 381 381 381 383 387 387 387 395 389 387 379 385 381 381 383 381 383 383 383 389 383 389 383 383 379 373 377 371 373 375 375 375 377 375 377 375 377 381 379 379 377 375 377 373 371 371 369 371 0 0 0 0 0
    0 0 0 0 0 0 0 0 0 0 0 0 0 0 0 0 0 0 0 0 0 0 0 0 0 0 0 0 0 0 0 0 0 0 0 0 0 0 0 0 0 0 0 0 0 0 0 0 0 0 0 0 0 0 0 0 0 0 0 0 0 0 0 0 0 0 0 0 0 399 402 402 399 0 393 393 393 391 0 0 0 0 0 395 0 0 0 397 397 395 0 0 0 0 0 0 0 0 0 0 0 0 0 0 391 391 393 393 393 393 393 395 393 395 395 0 0 0 0 0 395 397 391 391 391 391 385 387 389 389 387 393 391 387 387 389 379 377 375 381 379 377 0 0 0 389 389 389 389 389 391 389 391 387 387 389 389 391 391 391 391 389 0 0 0 0 0 0 381 389 385 387 389 387 391 393 393 395 391 0 0 389 387 385 381 383 385 385 385 391 389 389 391 393 393 391 393 393 385 389 383 387 389 389 389 387 387 387 383 387 387 385 387 383 383 385 379 373 383 379 379 377 379 379 379 381 389 379 379 375 377 377 381 0 383 383 385 387 387 389 0 0 0 0 377 0 301 0 0 0 0 0 0 379 389 385 379 379 377 383 379 377 371 371 373 369 379 379 377 0 0 387 387 387 395 391 0 0 387 381 381 383 381 383 383 383 389 383 391 383 383 379 371 375 371 371 371 371 371 375 373 375 375 377 381 379 379 377 373 377 373 371 371 369 371 0 0 0 0 0
    0 0 0 0 0 0 0 0 0 0 0 0 0 0 0 0 0 0 0 0 0 0 0 0 0 0 0 0 0 0 0 0 0 0 0 0 0 0 0 0 0 0 0 0 0 0 0 0 0 0 0 0 0 0 0 0 0 0 0 0 0 0 0 0 0 0 0 0 0 397 0 0 397 397 391 393 391 0 0 0 0 0 0 0 0 0 0 395 0 0 0 0 0 0 0 0 0 0 0 0 0 0 0 0 393 0 0 393 393 393 0 393 393 393 0 0 0 0 0 0 0 0 0 389 389 389 381 385 387 387 387 393 391 383 381 383 367 369 367 0 0 0 0 0 0 0 0 0 0 389 0 391 391 387 387 389 389 391 0 0 0 0 0 0 0 0 0 0 375 383 379 383 387 385 389 393 393 0 0 0 0 0 0 0 381 383 385 385 387 391 391 391 391 395 393 393 395 393 381 389 381 389 389 389 387 0 383 0 0 0 0 0 0 0 0 0 377 373 381 377 379 377 379 377 379 381 389 379 377 375 377 377 0 0 381 383 385 385 385 389 0 0 0 0 0 0 300 297 299 0 0 0 375 377 0 385 379 381 377 383 381 379 0 0 371 369 0 0 0 0 0 0 0 0 0 0 0 0 0 381 381 383 383 385 383 383 391 383 391 387 387 377 369 0 0 0 0 0 0 0 0 0 373 375 381 379 377 377 373 377 373 371 371 0 371 0 0 0 0 0
    0 0 0 0 0 0 0 0 0 0 0 0 0 0 0 0 0 0 0 0 0 0 0 0 0 0 0 0 0 0 0 0 0 0 0 0 0 0 0 0 0 0 0 0 0 0 0 0 0 0 0 0 0 0 0 0 0 0 0 0 0 0 0 0 0 0 0 0 0 395 0 0 0 395 0 393 391 0 0 0 0 0 0 0 0 79 0 0 0 0 0 0 0 0 0 0 0 0 0 0 0 0 0 0 0 0 0 395 0 0 0 395 393 395 0 0 0 0 0 0 0 0 0 0 389 389 381 383 385 387 385 393 391 381 375 0 360 347 0 0 0 0 0 0 0 0 0 0 0 0 0 0 0 0 0 0 0 0 0 0 0 0 0 0 122 0 0 0 371 377 373 375 383 379 0 0 393 0 0 0 0 0 0 0 381 383 387 387 387 393 393 393 393 397 395 393 393 391 377 389 379 387 0 0 0 0 0 0 83 0 0 311 313 313 314 0 0 375 381 377 377 375 377 377 377 379 387 377 377 375 375 375 0 0 0 381 383 385 385 387 0 0 0 0 0 301 301 300 300 0 0 0 371 373 0 381 0 379 375 383 381 375 0 0 0 367 0 0 0 0 0 0 0 0 0 0 0 0 0 0 0 383 383 385 383 385 391 383 0 0 0 377 0 0 0 0 0 0 0 0 0 0 375 375 383 381 379 377 371 377 373 371 0 0 0 0 0 0 0 0
    0 0 0 0 0 0 0 0 0 0 0 0 0 0 0 0 0 0 0 0 0 0 0 0 0 0 0 0 0 0 0 0 0 0 0 0 0 0 0 0 0 0 0 0 0 0 0 0 0 0 0 0 0 0 0 0 0 0 0 0 0 0 0 0 0 0 0 0 0 0 0 0 0 0 0 0 393 0 0 0 0 0 0 0 79 79 79 0 0 0 297 0 0 0 0 0 0 0 0 0 76 0 0 0 0 0 0 395 0 0 0 395 393 0 0 0 0 0 0 0 0 0 0 0 0 387 379 383 385 387 385 391 389 379 0 584 0 339 0 318 0 0 0 88 0 0 0 0 0 0 169 166 165 163 0 0 0 0 0 0 0 0 0 0 123 0 0 0 0 371 371 371 0 375 0 0 0 0 0 0 0 0 0 0 383 383 387 387 387 395 395 395 395 399 395 397 395 393 377 0 377 0 0 0 0 271 0 0 0 301 304 307 309 310 310 309 0 0 379 375 375 373 375 373 375 377 0 0 0 0 0 302 0 0 0 0 377 0 0 0 0 0 0 301 299 300 301 301 300 300 300 0 0 0 0 0 0 377 373 0 373 0 306 0 0 0 0 0 0 0 0 0 0 0 0 0 0 0 0 0 0 0 0 387 385 0 391 0 0 0 0 0 0 0 0 0 0 0 0 0 0 0 0 0 391 0 0 0 0 0 373 0 0 0 0 0 0 0 0 0
    0 0 0 0 0 0 0 0 0 0 0 0 0 0 0 0 0 0 0 0 0 0 0 0 0 0 0 0 0 0 0 0 0 0 0 0 0 0 0 0 0 0 0 0 0 0 0 0 0 0 0 0 0 0 0 0 0 0 0 0 0 0 0 0 0 0 0 0 0 0 0 0 0 0 0 0 393 0 0 0 0 0 0 0 0 0 0 0 0 0 302 306 309 309 309 0 0 0 0 0 0 0 0 0 0 0 0 393 0 0 0 0 0 0 0 0 0 0 0 0 0 0 0 79 0 0 0 383 385 387 385 391 389 381 0 584 0 333 313 314 310 0 0 0 0 0 0 0 0 0 0 0 0 0 0 0 0 0 0 0 119 0 0 122 122 121 0 337 333 0 0 0 0 0 0 0 0 0 0 0 0 0 0 0 0 0 0 389 0 0 0 0 395 402 0 0 0 307 0 313 0 302 296 0 0 0 0 0 304 301 302 305 306 307 307 305 306 307 377 371 371 371 371 369 373 0 0 0 0 0 0 302 299 299 0 0 0 0 297 300 299 301 302 301 300 301 301 302 300 300 300 299 300 302 300 0 0 0 0 0 305 306 301 300 306 307 0 0 0 0 0 0 0 0 0 0 0 0 0 0 0 0 0 0 287 0 0 0 0 0 0 301 300 0 0 0 0 307 302 306 302 0 305 0 0 391 0 0 0 385 377 0 0 0 1501 0 0 0 0 0
    0 0 0 0 0 0 0 0 0 0 0 0 0 0 0 0 0 0 0 0 0 0 0 0 0 0 0 0 0 0 0 0 0 0 0 0 0 0 0 0 0 0 0 0 0 0 0 0 0 0 0 0 0 0 0 0 0 0 0 0 0 0 0 0 0 0 0 0 0 0 0 0 0 0 0 0 387 0 0 0 0 0 0 0 0 0 0 0 300 305 306 306 309 309 310 313 315 319 318 325 330 327 327 0 0 0 0 0 0 0 93 0 0 0 0 0 0 0 0 0 0 0 0 0 0 0 0 0 0 0 379 385 381 375 0 0 0 319 313 313 309 305 304 300 0 0 0 0 0 0 0 0 305 305 305 0 306 0 0 0 118 118 0 0 0 0 0 322 321 318 322 315 0 0 315 307 0 0 0 0 0 0 310 305 0 0 0 0 0 0 0 0 0 302 302 300 300 305 309 313 313 306 302 301 305 302 309 307 307 302 302 305 306 306 307 305 306 307 0 0 0 0 0 0 0 0 0 0 310 307 306 302 301 300 299 0 0 0 300 302 304 304 305 302 301 302 301 304 301 301 301 301 302 302 301 300 299 299 300 299 300 302 300 299 302 302 302 301 0 299 0 0 297 296 296 296 296 296 296 296 296 295 293 292 292 294 294 294 295 296 297 299 299 301 299 304 0 305 300 304 301 305 304 0 301 0 0 0 0 0 0 293 0 1533 1471 0 0 0 0 0
    0 0 0 0 0 0 0 0 0 0 0 0 0 0 0 0 0 0 0 0 0 0 0 0 0 0 0 0 0 0 0 0 0 0 0 0 0 0 0 0 0 0 0 0 0 0 0 0 0 0 0 0 0 0 0 0 0 0 0 0 0 0 0 0 0 0 0 0 0 0 0 0 0 0 0 0 0 0 0 0 0 0 0 0 0 0 0 0 301 306 306 306 309 310 310 313 314 317 317 322 327 322 321 319 315 314 313 313 311 0 0 0 309 307 306 307 304 305 0 0 0 0 79 0 0 0 0 0 0 0 0 375 0 0 0 0 0 315 311 313 309 305 305 302 304 302 302 304 302 301 305 305 305 304 305 304 306 306 313 0 0 0 0 0 0 0 318 317 315 314 317 313 317 314 310 302 300 302 304 304 0 0 310 306 0 310 304 0 0 0 0 296 297 300 300 299 301 306 309 311 311 309 307 307 310 307 311 309 309 302 302 305 305 306 307 305 306 306 311 313 315 314 0 0 311 310 309 309 309 307 309 305 304 302 302 309 0 311 301 304 305 305 306 302 302 302 302 304 302 302 302 302 302 302 302 300 300 299 300 297 300 302 301 299 301 302 302 301 301 297 296 296 296 296 296 296 296 296 297 297 296 296 295 293 294 296 295 296 296 297 297 299 299 301 299 301 0 304 300 302 301 304 304 304 302 302 301 300 300 297 297 294 296 297 0 0 0 0 0 0
    0 0 0 0 0 0 0 0 0 0 0 0 0 0 0 0 0 0 0 0 0 0 0 0 0 0 0 0 0 0 0 0 0 0 0 0 0 0 0 0 0 0 0 0 0 0 0 0 0 0 0 0 0 0 0 0 0 0 0 0 0 0 0 0 0 0 0 0 0 0 0 0 0 0 0 0 0 0 0 0 0 0 0 0 0 0 0 305 302 307 306 307 310 310 310 313 314 315 315 322 325 322 319 318 314 314 313 313 311 310 309 310 309 309 309 309 307 307 306 0 0 0 0 0 0 0 0 0 0 0 0 0 0 0 0 0 0 314 311 313 310 307 307 306 306 304 305 305 302 302 305 305 304 304 304 304 305 306 311 309 311 313 0 314 0 0 318 317 317 314 315 311 314 311 307 301 300 301 301 302 305 305 309 306 307 309 306 300 296 299 299 299 300 304 302 302 304 306 309 310 309 307 306 307 309 307 309 307 307 302 302 305 304 305 306 304 306 305 311 313 313 311 311 310 310 309 307 309 307 307 309 306 306 306 307 310 310 314 302 305 306 306 306 302 302 302 302 304 302 302 302 302 302 302 301 301 301 297 297 297 299 301 300 299 300 301 302 301 300 297 296 296 296 296 296 296 296 297 299 299 299 299 296 295 296 297 296 299 297 299 299 300 300 302 300 302 299 304 301 302 302 304 304 304 304 304 301 300 300 297 299 294 297 297 296 0 0 0 0 0
    0 0 0 0 0 0 0 0 0 0 0 0 0 0 0 0 0 0 0 0 0 0 0 0 0 0 0 0 0 0 0 0 0 0 0 0 0 0 0 0 0 0 0 0 0 0 0 0 0 0 0 0 0 0 0 0 0 0 0 0 0 0 0 0 0 0 0 0 0 0 0 318 317 318 319 318 321 318 0 0 0 0 0 0 0 306 309 309 304 309 306 307 309 310 310 311 313 314 314 318 321 319 318 317 314 314 313 311 311 311 310 311 309 310 309 309 309 307 305 311 310 313 314 314 0 0 0 0 0 0 0 0 0 0 0 0 0 314 313 314 311 309 310 307 307 305 305 305 302 302 305 304 304 302 304 304 304 306 310 307 309 311 311 311 310 313 313 313 313 310 311 307 309 307 304 300 300 300 302 302 306 305 309 306 307 309 306 304 301 301 300 302 304 307 305 305 305 307 309 309 306 305 304 306 306 307 307 306 306 301 302 304 302 304 304 302 305 304 309 310 309 309 309 307 307 307 306 307 307 306 307 305 306 305 306 306 307 309 301 305 305 305 305 302 302 302 302 305 302 304 302 302 302 302 302 301 301 297 297 297 299 299 300 299 300 300 301 300 300 297 297 297 297 297 299 297 297 299 301 300 299 300 296 295 296 299 297 299 297 299 300 300 300 302 300 301 299 302 301 302 302 304 304 304 304 304 302 300 299 296 296 290 0 0 0 0 0 0 0 0
    0 0 0 0 0 0 0 0 0 0 0 0 0 0 0 0 0 0 0 0 0 0 0 0 0 0 0 0 0 0 0 0 0 0 0 0 0 0 0 0 0 0 0 0 0 0 0 0 0 0 0 0 0 0 0 0 0 0 0 0 0 0 0 0 0 0 0 0 0 317 315 318 317 318 318 317 319 317 315 317 314 314 314 314 313 309 311 310 306 310 305 307 309 309 309 310 310 313 311 314 315 317 314 314 311 313 311 311 311 311 310 311 309 309 307 309 307 306 305 310 310 313 313 313 0 0 313 313 310 311 309 310 307 307 309 310 310 313 311 311 310 309 309 307 307 304 305 305 302 302 305 304 304 302 305 305 305 307 311 309 309 311 313 311 309 310 309 307 307 304 306 302 304 302 300 299 300 299 301 301 306 305 309 307 309 309 309 306 304 302 302 306 307 309 306 307 306 307 307 309 304 304 302 304 305 306 306 305 305 301 302 304 302 304 304 302 304 302 307 307 305 306 306 306 306 306 306 306 306 306 307 306 306 304 304 304 305 306 300 304 304 304 305 302 302 301 302 305 302 304 304 304 304 304 304 302 302 299 299 297 299 299 299 299 299 300 301 300 300 297 297 297 299 299 299 299 299 300 302 301 300 300 297 296 296 299 297 300 299 299 300 300 300 301 300 301 299 302 301 302 302 304 304 304 304 304 301 299 296 294 293 287 286 0 0 0 0 0 0 0
    0 0 0 0 0 0 0 0 0 0 0 0 0 0 0 0 0 0 0 0 0 0 0 0 0 0 0 0 0 0 0 0 0 0 0 0 0 0 0 0 0 0 0 0 0 0 0 0 0 0 0 0 0 0 0 0 0 0 0 0 0 0 0 0 0 0 0 0 0 315 313 315 315 315 315 315 317 315 314 317 315 314 315 315 314 311 313 313 309 310 306 307 309 310 310 310 310 311 310 314 314 314 313 314 310 313 311 311 311 311 310 311 307 309 307 309 306 304 304 306 307 311 311 310 311 311 310 310 309 309 306 307 306 306 307 310 309 310 310 310 310 307 307 305 305 304 305 305 302 301 305 304 304 304 305 305 305 309 313 310 311 313 313 310 307 307 305 304 304 301 302 301 301 300 299 299 299 299 301 301 306 305 309 307 309 309 309 307 305 304 304 307 307 309 306 306 305 307 306 307 304 304 302 304 304 305 305 304 305 301 302 302 302 302 302 302 302 302 306 305 304 306 305 305 306 306 306 307 307 307 307 307 307 306 305 304 306 306 300 304 304 302 304 301 302 301 301 304 301 302 302 304 304 302 302 302 302 299 299 297 299 300 300 299 300 300 301 301 300 297 299 299 299 299 299 299 299 300 302 301 301 300 297 296 297 299 297 300 299 299 300 300 300 302 300 302 300 302 301 302 304 305 305 304 304 305 301 300 297 294 293 287 285 0 0 0 0 0 0 0
    0 0 0 0 0 0 0 0 0 0 0 0 0 0 0 0 0 0 0 0 0 0 0 0 0 0 0 0 0 0 0 0 0 0 0 0 0 0 0 0 0 0 0 0 0 0 0 0 0 0 0 0 0 0 0 0 0 0 0 0 0 0 0 0 0 0 0 0 0 314 311 314 313 314 313 313 314 314 314 317 315 314 315 315 315 314 314 314 310 311 307 309 309 310 310 310 309 311 310 313 313 314 310 313 310 313 311 311 311 311 310 311 307 309 307 309 305 302 304 305 307 310 310 310 310 310 310 310 309 309 306 307 306 306 307 309 309 310 309 310 309 306 307 305 305 305 305 305 302 302 305 304 304 304 305 305 305 309 313 311 311 313 313 310 307 306 305 302 302 302 302 301 301 300 299 299 300 299 302 302 307 307 309 309 309 309 309 307 305 305 304 307 306 309 306 306 305 306 306 306 304 304 302 304 305 305 305 304 305 301 302 302 302 302 302 302 302 302 306 306 305 306 304 304 305 306 306 306 306 306 307 307 307 306 305 304 306 306 300 304 304 302 304 301 302 300 301 304 301 301 302 302 302 302 302 301 301 299 299 297 297 299 299 299 300 300 302 301 301 297 299 299 299 300 300 299 300 300 304 301 301 301 297 299 297 300 299 300 299 300 300 301 301 302 301 304 301 304 302 304 305 305 305 304 304 305 302 300 296 294 292 288 285 0 0 0 0 0 0 0
    0 0 0 0 0 0 0 0 0 0 0 0 0 0 0 0 0 0 0 0 0 0 0 0 0 0 0 0 0 0 0 0 0 0 0 0 0 0 0 0 0 0 0 0 0 0 0 0 0 0 0 0 0 0 0 0 0 0 0 0 0 0 0 0 0 0 0 0 0 313 310 313 311 313 311 313 313 313 313 315 314 314 315 315 314 314 315 314 311 311 307 309 309 310 309 309 309 310 310 313 313 313 310 313 310 313 311 310 311 310 310 310 307 309 306 307 305 302 302 304 306 310 310 310 310 310 309 310 309 309 307 309 307 306 307 309 310 310 310 310 309 307 307 306 306 305 305 305 302 302 305 305 305 304 305 305 305 309 313 310 311 311 311 309 306 306 304 304 302 301 302 301 302 301 301 300 300 300 304 304 307 307 309 309 309 309 310 307 306 305 304 306 305 307 305 305 304 304 304 305 302 304 302 304 304 305 305 305 305 301 302 304 302 304 304 302 302 302 307 307 306 307 305 304 305 306 305 306 305 305 306 306 309 306 306 305 309 309 301 304 305 304 304 301 302 301 301 304 301 301 302 302 302 301 301 301 300 299 299 297 297 299 299 299 300 301 301 301 301 297 299 300 300 300 300 299 300 300 304 302 302 302 300 300 300 302 300 301 300 301 301 301 301 304 301 304 301 305 302 302 305 305 305 304 304 304 301 300 295 293 290 287 284 0 0 0 0 0 0 0
    0 0 0 0 0 0 0 0 0 0 0 0 0 0 0 0 0 0 0 0 0 0 0 0 0 0 0 0 0 0 0 0 0 0 0 0 0 0 0 0 0 0 0 0 0 0 0 0 0 0 0 0 0 0 0 0 0 0 0 0 0 0 0 0 0 0 0 0 0 311 309 311 310 311 310 311 311 313 311 314 314 314 314 315 313 314 314 314 311 311 305 309 309 310 309 309 309 310 310 313 313 313 310 311 310 311 310 310 311 310 310 310 307 309 307 307 305 302 302 304 307 310 309 309 309 309 307 309 307 307 306 307 306 307 307 309 310 310 311 310 309 309 309 307 306 305 306 305 302 302 305 305 305 305 305 305 305 309 313 311 311 311 311 309 306 305 304 302 302 301 301 301 301 301 301 301 301 301 304 304 307 307 309 309 309 307 309 307 306 305 302 306 302 305 304 304 302 302 302 304 301 302 301 304 302 304 305 305 306 301 302 304 302 304 304 302 304 304 309 309 306 307 304 304 304 305 305 306 304 304 305 307 307 306 305 302 306 307 301 302 304 302 302 301 302 300 301 304 302 302 302 304 304 302 302 301 301 299 299 297 297 297 299 299 300 300 301 300 301 299 299 300 301 300 300 300 300 301 305 304 302 302 301 302 302 305 301 302 301 301 302 301 301 302 300 302 301 302 301 302 305 304 306 305 304 304 301 300 296 293 289 287 285 0 0 0 0 0 0 0
    0 0 0 0 0 0 0 0 0 0 0 0 0 0 0 0 0 0 0 0 0 0 0 0 0 0 0 0 0 0 0 0 0 0 0 0 0 0 0 0 0 0 0 0 0 0 0 0 0 0 0 0 0 0 0 0 0 0 0 0 0 0 0 0 0 0 0 0 0 311 309 311 309 310 309 310 310 311 310 313 313 313 314 314 313 313 314 314 313 313 304 309 309 310 309 309 309 309 310 313 311 311 309 311 310 311 310 310 311 310 311 310 309 310 309 309 307 305 304 306 309 310 310 309 309 309 307 309 307 306 306 306 306 307 307 309 310 310 311 310 310 311 310 309 307 306 306 306 302 302 305 305 304 305 305 304 305 309 314 311 310 311 313 309 306 304 302 301 301 301 301 301 301 301 301 301 301 301 304 304 306 307 307 307 307 307 309 307 306 306 302 306 302 305 304 304 302 302 302 305 301 304 301 304 302 304 305 305 305 301 302 305 304 305 305 304 304 304 307 307 305 306 304 302 302 304 304 306 302 304 304 306 307 305 304 301 305 304 300 301 301 300 300 300 301 300 301 302 302 302 302 305 302 302 301 301 301 299 300 297 296 297 297 299 301 300 301 300 301 299 299 301 301 300 300 300 300 301 304 305 302 302 302 304 305 306 305 305 304 304 305 304 304 302 300 301 301 302 301 302 304 302 306 304 304 305 302 301 296 294 292 287 285 290 0 0 0 0 0 0
    0 0 0 0 0 0 0 0 0 0 0 0 0 0 0 0 0 0 0 0 0 0 0 0 0 0 0 0 0 0 0 0 0 0 0 0 0 0 0 0 0 0 0 0 0 0 0 0 0 0 0 0 0 0 0 0 0 0 0 0 0 0 0 0 0 0 0 0 0 313 310 311 309 310 307 309 307 310 309 311 313 313 314 314 313 314 314 315 313 313 305 309 309 310 309 309 307 309 309 313 311 311 310 311 310 311 311 311 313 310 311 310 310 311 310 310 310 309 307 309 311 311 310 310 310 309 307 309 306 305 306 306 306 307 307 309 310 310 311 310 311 313 311 309 307 307 306 306 304 302 305 304 305 305 305 305 305 309 314 311 311 313 313 309 306 304 301 302 301 302 301 301 301 301 302 304 302 302 304 304 305 306 307 307 307 307 307 307 306 307 304 306 304 305 304 304 302 302 301 304 301 302 300 302 301 302 304 304 304 301 302 305 304 305 305 304 304 304 307 306 304 305 302 301 302 302 302 306 304 304 302 306 306 302 301 297 301 300 299 299 299 299 297 299 300 299 300 301 301 301 302 304 302 302 301 301 301 300 300 297 296 297 297 299 301 300 300 299 301 299 299 301 301 300 300 300 301 301 304 305 302 302 302 304 305 307 306 306 305 305 306 304 304 302 300 301 301 302 302 302 305 304 307 305 306 307 305 302 299 296 295 290 288 0 290 0 0 0 0 0
    0 0 0 0 0 0 0 0 0 0 0 0 0 0 0 0 0 0 0 0 0 0 0 0 0 0 0 0 0 0 0 0 0 0 0 0 0 0 0 0 0 0 0 0 0 0 0 0 0 0 0 0 0 0 0 0 0 0 0 0 0 0 0 0 0 0 0 0 0 0 311 313 310 309 307 309 306 309 307 310 311 311 314 314 314 315 315 317 314 314 306 310 310 310 309 309 307 309 309 311 311 310 310 310 310 311 311 311 313 310 311 310 311 311 310 310 310 309 310 310 313 311 310 310 310 310 309 309 306 304 306 306 306 307 307 309 310 310 311 309 310 311 310 309 307 306 306 306 304 302 305 305 305 305 305 305 305 309 315 311 310 311 311 306 302 301 300 300 300 301 301 301 301 301 302 304 302 304 304 304 304 306 307 307 306 306 307 307 306 307 305 305 304 305 304 302 302 301 300 301 300 301 300 301 301 301 302 304 304 301 302 305 304 305 305 305 304 304 306 305 304 304 301 301 301 302 302 306 304 302 300 307 306 302 300 297 301 299 299 299 297 297 297 299 300 299 300 300 301 300 302 304 302 302 301 301 302 300 301 299 297 299 297 299 301 300 300 299 301 299 299 300 300 300 300 300 301 301 304 306 302 302 302 302 305 306 305 302 301 301 302 301 301 299 299 300 300 302 302 302 305 305 310 307 307 310 306 304 300 297 296 293 293 293 290 0 0 0 0 0
    0 0 0 0 0 0 0 0 0 0 0 0 0 0 0 0 0 0 0 0 0 0 0 0 0 0 0 0 0 0 0 0 0 0 0 0 0 0 0 0 0 0 0 0 0 0 0 0 0 0 0 0 0 0 0 0 0 0 0 0 0 0 0 0 0 0 0 0 0 0 313 313 310 309 307 307 306 307 306 309 310 311 313 314 314 315 317 317 314 314 307 310 310 310 309 309 307 309 309 310 310 309 309 310 309 311 311 311 311 309 311 309 310 311 310 310 310 309 310 310 313 311 309 310 310 309 309 309 307 304 307 307 307 307 309 309 310 310 311 309 310 311 310 309 309 309 307 307 306 302 306 305 306 306 305 305 305 307 315 313 313 314 0 310 306 302 300 301 299 301 301 301 301 301 302 302 302 304 302 304 304 305 307 306 305 306 306 306 306 307 305 304 304 305 304 302 302 300 299 300 300 301 300 300 300 300 302 302 302 301 302 304 304 305 306 305 304 304 306 305 304 304 301 301 300 301 301 305 301 300 297 302 301 301 299 297 299 297 299 297 297 297 297 299 300 300 300 300 302 300 302 304 301 301 300 300 301 300 302 300 299 301 299 300 302 300 300 299 301 299 297 300 299 299 300 300 301 300 304 306 302 304 302 302 305 304 304 299 299 300 299 300 300 297 297 299 300 301 302 302 306 306 311 310 309 310 305 304 300 297 296 294 294 294 292 0 0 0 0 0
    0 0 0 0 0 0 0 0 0 0 0 0 0 0 0 0 0 0 0 0 0 0 0 0 0 0 0 0 0 0 0 0 0 0 0 0 0 0 0 0 0 0 0 0 0 0 0 0 0 0 0 0 0 0 0 0 0 0 0 0 0 0 0 0 0 0 0 0 0 313 311 311 309 309 307 307 306 307 306 309 309 309 311 313 313 315 315 317 314 314 309 310 311 311 310 310 307 310 309 310 310 309 309 309 309 310 310 310 311 307 311 309 311 311 311 310 310 309 310 310 311 311 309 310 310 310 309 309 309 306 309 307 307 309 309 309 310 310 311 309 310 311 311 309 309 309 309 307 307 304 306 306 306 306 305 305 305 306 314 311 311 313 315 313 310 307 304 305 301 302 302 302 302 301 304 304 304 305 302 304 302 304 307 305 305 305 305 305 305 306 305 304 304 304 302 301 301 300 299 299 299 300 299 300 300 300 301 301 302 300 302 304 304 306 306 305 304 304 307 306 305 305 302 301 300 301 301 304 299 300 299 301 301 301 300 299 300 300 299 297 297 297 297 299 300 300 301 300 302 300 301 302 300 300 299 299 300 300 301 300 299 301 300 301 304 301 301 300 301 299 297 300 299 299 300 300 301 300 304 306 302 304 301 301 305 302 304 0 300 301 300 300 299 297 296 297 299 301 302 302 305 304 0 309 306 309 304 304 300 299 296 295 295 294 292 0 0 0 0 0
    0 0 0 0 0 0 0 0 0 0 0 0 0 0 0 0 0 0 0 0 0 0 0 0 0 0 0 0 0 0 0 0 0 0 0 0 0 0 0 0 0 0 0 0 0 0 0 0 0 0 0 0 0 0 0 0 0 0 0 0 0 0 0 0 0 0 0 0 0 313 311 313 310 309 307 309 307 309 306 309 307 309 311 313 311 315 315 317 313 314 310 310 311 311 310 310 307 310 309 310 310 307 309 309 309 310 310 310 311 309 311 309 311 311 311 310 0 0 309 310 311 311 310 310 311 310 310 311 309 307 309 309 307 309 309 309 310 310 310 309 309 311 311 310 309 310 309 309 309 304 306 306 306 306 305 305 305 306 313 309 310 311 314 314 313 310 307 309 302 305 304 302 302 302 304 305 302 305 301 302 301 301 306 304 304 305 305 305 305 306 306 304 305 304 304 302 302 300 299 299 299 299 299 299 299 299 301 301 302 301 302 304 304 306 306 306 305 304 306 306 305 305 302 301 299 300 300 301 299 299 299 300 300 301 300 300 300 300 300 297 299 299 297 300 301 301 302 301 302 301 302 302 301 300 299 299 300 299 301 299 299 300 300 301 302 301 301 301 302 299 296 300 299 300 300 300 301 301 304 307 302 305 302 301 304 302 304 300 302 304 301 301 300 297 296 297 299 0 0 0 0 0 0 0 0 305 301 301 297 297 296 295 295 295 293 0 0 0 0 0
    0 0 0 0 0 0 0 0 0 0 0 0 0 0 0 0 0 0 0 0 0 0 0 0 0 0 0 0 0 0 0 0 0 0 0 0 0 0 0 0 0 0 0 0 0 0 0 0 0 0 0 0 0 0 0 0 0 0 0 0 0 0 0 0 0 0 0 0 0 0 313 313 310 309 309 309 307 309 307 309 307 309 310 313 313 315 315 317 314 315 311 310 311 311 310 310 307 310 307 309 310 307 309 307 309 310 309 310 311 309 311 310 313 311 313 310 0 310 309 310 310 310 309 310 310 310 309 311 309 307 309 307 307 309 309 310 311 310 311 310 310 311 311 310 309 309 309 309 309 302 306 306 306 306 305 305 305 305 313 307 310 311 313 313 313 313 309 310 304 305 302 302 302 302 304 305 302 306 301 302 301 301 306 304 304 305 305 306 306 307 307 305 306 305 305 304 304 301 300 299 297 297 299 299 299 299 301 302 302 301 302 304 304 306 306 306 305 304 306 306 306 305 304 302 300 300 301 302 300 300 300 301 301 302 300 300 301 301 301 299 299 299 299 301 302 302 302 301 304 302 304 304 302 301 299 299 301 300 301 299 299 300 300 301 302 301 302 301 304 300 296 300 299 300 301 300 301 301 304 307 301 304 302 300 302 301 301 300 301 301 300 300 299 296 295 296 297 0 0 0 0 0 0 0 0 301 299 299 296 297 296 296 296 296 294 0 0 0 0 0
    0 0 0 0 0 0 0 0 0 0 0 0 0 0 0 0 0 0 0 0 0 0 0 0 0 0 0 0 0 0 0 0 0 0 0 0 0 0 0 0 0 0 0 0 0 0 0 0 0 0 0 0 0 0 0 0 0 0 0 0 0 0 0 0 0 0 0 0 0 0 0 313 310 309 309 309 307 309 307 309 307 307 310 313 313 317 315 317 314 315 313 310 311 311 310 310 309 310 307 309 310 307 309 307 309 310 309 310 311 310 313 311 313 313 313 311 311 310 309 310 309 309 309 309 309 309 309 310 307 307 307 307 307 309 310 310 311 311 311 310 310 311 310 310 307 309 309 309 309 302 306 306 306 306 305 305 305 305 313 307 310 311 311 313 313 313 309 309 302 304 301 302 301 302 302 305 302 306 301 302 301 302 306 305 305 306 305 306 306 307 307 305 307 306 306 305 305 302 301 300 297 297 299 299 299 299 301 302 302 302 302 304 304 306 306 305 305 304 305 305 306 304 304 302 301 301 302 302 301 301 301 302 301 301 300 299 301 301 300 299 297 299 299 300 301 302 302 301 304 302 304 304 304 301 300 300 302 300 302 300 300 300 301 302 302 302 302 302 304 300 296 300 299 299 300 300 301 300 302 306 301 302 301 299 300 299 299 297 300 299 299 297 297 296 295 295 296 0 0 0 0 0 0 0 297 300 297 297 295 296 297 297 299 299 296 0 0 0 0 0
    0 0 0 0 0 0 0 0 0 0 0 0 0 0 0 0 0 0 0 0 0 0 0 0 0 0 0 0 0 0 0 0 0 0 0 0 0 0 0 0 0 0 0 0 0 0 0 0 0 0 0 0 0 0 0 0 0 0 0 0 0 0 0 0 0 0 0 0 0 0 0 313 311 310 310 309 309 309 307 309 307 307 310 313 314 318 315 315 315 315 313 309 311 311 310 311 309 310 307 309 310 307 309 307 309 310 309 310 311 310 313 311 313 313 313 311 311 310 307 310 307 309 307 307 309 309 307 310 306 307 307 309 307 309 310 310 311 311 310 310 310 311 310 309 307 310 309 309 309 302 307 307 306 307 304 305 305 305 313 307 310 310 311 313 313 313 310 309 302 304 301 302 301 301 302 304 302 305 302 304 302 304 306 306 306 306 306 306 307 307 307 306 307 307 307 306 306 304 302 301 299 297 299 299 299 299 301 302 304 304 302 302 304 306 306 305 305 304 304 305 306 304 304 302 302 302 304 302 301 301 301 301 302 302 301 300 301 302 301 300 297 299 299 300 302 301 302 301 302 302 304 304 304 302 301 301 302 301 302 300 300 300 301 301 302 301 301 301 302 299 296 299 299 299 300 300 300 300 302 306 301 302 301 299 299 297 299 297 299 297 297 296 296 296 295 295 296 0 0 0 0 0 0 0 295 0 296 296 295 296 297 297 297 297 296 0 0 0 0 0
    0 0 0 0 0 0 0 0 0 0 0 0 0 0 0 0 0 0 0 0 0 0 0 0 0 0 0 0 0 0 0 0 0 0 0 0 0 0 0 0 0 0 0 0 0 0 0 0 0 0 0 0 0 0 0 0 0 0 0 0 0 0 0 0 0 0 0 0 0 314 314 313 313 311 311 310 310 309 309 309 309 306 309 310 313 315 314 314 315 315 314 310 313 311 311 311 309 310 307 309 310 307 309 307 309 310 309 311 311 311 313 311 313 313 313 311 310 309 306 309 306 307 306 306 307 307 307 310 306 309 306 309 307 309 310 310 311 311 309 310 310 310 309 309 307 310 309 310 310 302 307 307 307 307 305 305 306 305 311 307 310 311 311 313 313 313 311 311 305 304 302 302 301 301 301 304 302 305 304 305 305 304 307 306 306 306 306 306 307 306 307 305 307 307 307 306 306 302 302 301 300 299 299 299 299 299 302 302 304 305 302 302 305 306 306 304 304 304 304 305 306 304 304 305 304 304 305 305 302 302 302 302 302 302 301 300 301 302 301 301 299 300 300 301 302 301 302 301 302 302 302 302 302 301 301 301 302 301 302 300 300 300 301 301 301 301 301 301 301 299 296 299 299 299 300 301 301 300 302 307 302 304 302 300 299 297 299 296 297 297 296 295 295 295 296 296 296 297 296 297 296 0 293 294 294 296 295 295 294 294 0 296 296 295 294 0 0 0 0 0
    0 0 0 0 0 0 0 0 0 0 0 0 0 0 0 0 0 0 0 0 0 0 0 0 0 0 0 0 0 0 0 0 0 0 0 0 0 0 0 0 0 0 0 0 0 0 0 0 0 0 0 0 0 0 0 0 0 0 0 0 0 0 0 0 0 0 0 0 0 314 314 314 314 313 314 311 310 309 309 309 307 305 307 307 309 313 310 311 313 315 314 310 313 311 311 311 310 310 309 309 310 307 310 309 310 311 310 311 311 311 313 311 313 311 313 310 309 307 304 307 305 307 305 306 307 307 307 310 306 310 307 310 310 311 313 313 313 311 309 310 310 310 309 307 306 309 309 310 310 302 307 307 307 307 305 305 306 305 313 309 310 311 311 314 314 313 313 311 306 306 304 304 301 301 301 302 302 305 304 305 306 305 307 306 306 306 306 306 307 305 306 305 306 306 307 306 306 302 302 300 300 0 299 297 297 299 302 304 305 306 302 304 304 306 305 304 304 302 304 306 306 305 305 306 306 306 306 306 304 302 302 302 302 301 300 300 301 302 302 302 300 301 301 302 304 302 304 301 302 302 302 302 302 301 301 301 302 301 302 300 300 300 301 300 301 301 301 301 301 299 296 299 299 300 300 301 301 300 302 307 302 304 302 300 300 299 300 297 300 299 297 295 296 296 296 296 296 296 295 297 295 295 292 290 292 0 294 293 293 293 294 295 295 294 293 0 0 0 0 0
    0 0 0 0 0 0 0 0 0 0 0 0 0 0 0 0 0 0 0 0 0 0 0 0 0 0 0 0 0 0 0 0 0 0 0 0 0 0 0 0 0 0 0 0 0 0 0 0 0 0 0 0 0 0 0 0 0 0 0 0 0 0 0 0 0 0 0 0 0 314 314 314 314 314 314 313 311 309 309 307 306 304 305 304 305 309 305 307 311 314 313 309 313 311 311 311 310 311 309 310 311 307 310 309 310 311 310 311 311 311 313 311 313 311 311 310 307 309 304 307 306 307 306 306 307 307 307 311 307 311 309 311 311 313 315 314 314 313 309 310 310 310 307 307 305 309 309 310 310 302 307 307 307 309 305 305 306 305 313 309 310 310 311 313 313 313 313 311 309 307 305 305 301 301 302 302 302 304 305 305 306 305 307 306 306 306 306 306 307 305 306 305 306 306 306 305 306 302 302 300 300 0 299 299 299 300 304 304 306 306 302 304 305 306 305 304 304 302 302 306 306 304 305 306 305 305 306 305 304 302 302 302 301 301 300 300 300 302 302 302 300 302 302 302 305 304 304 302 304 304 304 302 304 302 301 301 301 300 301 300 300 300 301 301 301 301 301 301 302 300 297 300 300 300 301 301 301 301 302 307 302 304 302 301 300 300 300 299 301 300 299 296 296 297 297 299 297 297 296 297 295 294 292 289 289 0 294 293 293 293 0 0 296 296 294 0 0 0 0 0
    0 0 0 0 0 0 0 0 0 0 0 0 0 0 0 0 0 0 0 0 0 0 0 0 0 0 0 0 0 0 0 0 0 0 0 0 0 0 0 0 0 0 0 0 0 0 0 0 0 0 0 0 0 0 0 0 0 0 0 0 0 0 0 0 0 0 0 0 0 314 313 315 315 314 315 313 311 310 310 309 307 304 306 305 306 307 305 307 310 314 313 309 313 311 311 311 310 311 309 310 311 307 310 309 310 311 310 311 311 311 313 311 314 311 311 311 309 310 305 309 306 307 306 306 307 309 307 311 306 310 307 310 311 313 314 314 314 313 310 310 310 310 306 307 304 307 309 310 309 302 307 309 307 309 305 304 305 305 313 307 309 310 310 311 311 311 311 310 307 306 304 305 302 302 304 302 302 304 305 305 306 305 306 305 306 306 307 306 307 305 306 306 305 306 306 305 306 302 304 301 300 0 299 300 299 301 305 305 307 306 302 304 305 307 305 304 304 302 302 306 306 302 304 305 304 304 305 305 305 304 305 302 302 301 301 300 301 302 302 302 300 302 302 302 305 304 304 302 304 305 304 304 304 302 301 302 302 300 301 300 300 300 301 300 300 301 301 301 302 300 297 300 300 301 301 302 301 301 302 307 304 304 302 301 300 300 301 300 301 300 299 297 297 299 300 300 299 299 297 297 295 294 292 290 289 0 294 293 0 0 0 0 299 300 297 0 0 0 0 0
    0 0 0 0 0 0 0 0 0 0 0 0 0 0 0 0 0 0 0 0 0 0 0 0 0 0 0 0 0 0 0 0 0 0 0 0 0 0 0 0 0 0 0 0 0 0 0 0 0 0 0 0 0 0 0 0 0 0 0 0 0 0 0 0 0 0 0 0 0 314 314 315 315 314 315 313 311 310 310 310 309 305 307 306 309 310 307 310 311 314 314 310 313 311 311 311 310 311 309 310 311 307 310 309 310 311 310 313 311 311 313 311 314 311 311 311 307 310 305 309 306 307 307 307 307 309 307 310 306 309 306 309 310 313 314 314 314 313 311 311 311 310 306 307 304 307 307 309 309 302 307 309 307 310 305 305 305 306 313 307 309 309 309 311 311 310 310 309 306 305 304 304 302 302 304 302 304 304 305 305 306 305 306 305 306 306 307 306 307 305 306 306 305 305 306 305 305 302 304 301 301 301 300 301 300 301 307 306 309 307 302 305 306 307 305 304 304 302 304 306 305 301 302 304 304 304 305 305 306 304 307 304 304 301 301 299 300 301 301 302 300 302 302 302 305 304 305 304 304 306 304 304 304 304 302 302 304 301 302 300 301 300 301 300 300 301 300 301 302 300 297 300 301 301 301 302 302 301 302 307 304 304 302 301 300 299 300 299 301 299 297 297 297 299 300 301 300 299 297 297 296 294 293 292 290 293 294 293 294 294 295 296 297 299 299 0 0 0 0 0
    0 0 0 0 0 0 0 0 0 0 0 0 0 0 0 0 0 0 0 0 0 0 0 0 0 0 0 0 0 0 0 0 0 0 0 0 0 0 0 0 0 0 0 0 0 0 0 0 0 0 0 0 0 0 0 0 0 0 0 0 0 0 0 0 0 0 0 0 0 314 314 315 314 314 315 313 310 309 309 309 307 305 307 306 309 310 309 310 311 314 314 309 313 311 311 311 310 310 309 310 311 307 309 309 310 311 310 313 311 311 313 313 314 311 311 311 309 311 306 309 307 309 307 307 307 309 307 310 307 309 307 309 309 311 313 313 313 313 311 313 311 311 307 307 304 309 309 310 309 302 307 309 307 310 305 305 306 306 313 307 309 309 307 310 310 310 310 309 306 305 304 305 302 302 304 302 304 305 306 306 306 305 306 305 306 306 306 305 306 304 305 305 304 304 304 302 304 301 304 301 302 302 301 302 301 302 307 306 309 307 302 305 306 307 306 304 304 304 304 307 305 301 304 304 305 305 305 306 307 305 309 305 306 302 301 300 300 301 301 302 300 302 302 302 305 304 304 304 304 306 304 304 304 304 302 304 305 302 305 301 302 300 301 300 300 300 300 300 301 299 297 300 300 301 301 302 302 301 302 307 304 304 301 300 299 297 299 297 299 296 296 296 296 297 299 299 299 297 297 297 296 295 294 292 292 293 294 294 294 295 296 297 297 299 299 0 0 0 0 0
    0 0 0 0 0 0 0 0 0 0 0 0 0 0 0 0 0 0 0 0 0 0 0 0 0 0 0 0 0 0 0 0 0 0 0 0 0 0 0 0 0 0 0 0 0 0 0 0 0 0 0 0 0 0 0 0 0 0 0 0 0 0 0 0 0 0 0 0 0 315 315 315 315 314 314 313 310 309 307 309 306 305 306 306 307 309 309 310 310 313 313 307 311 311 310 310 309 310 307 309 311 307 309 309 310 311 310 311 310 310 313 313 314 311 311 310 309 311 307 309 307 309 309 309 309 309 307 310 309 309 307 309 310 311 313 313 313 313 311 311 311 311 307 309 304 309 309 310 310 302 307 309 307 310 305 305 306 306 313 309 307 309 307 311 310 310 310 309 306 305 304 306 304 304 304 302 304 305 306 306 306 305 306 305 306 305 306 305 306 302 304 304 302 302 302 301 302 301 304 301 301 301 301 302 301 301 305 304 307 305 301 304 305 307 306 304 304 304 304 307 305 301 304 304 305 305 305 306 307 306 309 305 306 302 301 299 299 300 300 301 299 301 301 302 305 304 304 304 304 306 304 304 304 302 304 304 305 305 306 302 304 300 301 300 300 300 299 300 300 299 296 299 300 301 301 302 302 301 302 309 305 305 302 300 299 299 299 297 299 296 296 296 296 296 299 299 297 297 296 297 296 295 295 294 294 295 296 296 296 297 299 299 299 300 299 0 0 0 0 0
    0 0 0 0 0 0 0 0 0 0 0 0 0 0 0 0 0 0 0 0 0 0 0 0 0 0 0 0 0 0 0 0 0 0 0 0 0 0 0 0 0 0 0 0 0 0 0 0 0 0 0 0 0 0 0 0 0 0 0 0 0 0 0 0 0 0 0 0 0 317 317 317 317 315 315 0 310 310 309 310 306 305 307 306 307 310 309 310 309 313 313 306 311 310 310 309 309 310 307 309 311 307 309 309 310 310 309 311 309 310 313 313 314 311 311 310 309 313 307 309 309 309 309 309 309 310 309 311 310 310 309 310 310 313 313 313 311 311 310 311 310 310 307 309 304 309 309 310 310 302 307 309 307 310 306 306 306 306 313 309 307 309 307 310 310 310 310 309 306 306 305 307 305 304 305 304 305 305 306 305 306 304 305 304 306 305 306 305 306 302 305 304 302 302 302 301 301 300 302 300 302 301 301 302 301 301 305 304 306 304 300 304 305 306 306 304 304 304 304 307 304 300 302 302 304 304 305 305 307 306 309 305 305 301 300 299 296 299 299 300 299 301 301 302 305 304 304 304 302 306 304 302 302 302 302 305 306 307 309 304 306 301 302 301 300 300 299 299 300 299 296 299 300 301 302 302 302 301 304 309 305 306 304 301 300 299 300 299 299 297 296 296 296 296 299 299 299 297 296 297 296 295 296 295 295 296 296 297 299 297 299 299 299 299 297 0 0 0 0 0
    0 0 0 0 0 0 0 0 0 0 0 0 0 0 0 0 0 0 0 0 0 0 0 0 0 0 0 0 0 0 0 0 0 0 0 0 0 0 0 0 0 0 0 0 0 0 0 0 0 0 0 0 0 0 0 0 0 0 0 0 0 0 0 0 0 0 0 0 0 317 317 317 315 315 315 0 310 310 309 310 307 307 309 307 309 311 311 311 310 313 313 306 311 310 310 309 309 310 307 309 311 306 309 309 310 310 309 311 309 310 311 313 314 311 311 310 310 313 310 310 310 310 310 310 310 311 310 311 311 310 310 311 311 313 0 313 313 313 313 311 311 310 307 309 304 309 309 309 310 302 307 309 307 310 306 306 306 306 311 307 306 307 307 309 309 309 309 309 306 307 306 307 306 305 306 304 304 305 306 305 306 304 305 304 306 305 306 305 306 302 306 304 302 302 301 301 301 301 304 301 302 302 302 302 301 302 305 304 306 304 300 304 304 305 305 302 304 302 304 307 304 300 304 304 305 305 306 307 307 307 310 306 305 302 300 0 0 299 297 300 299 301 302 302 305 304 304 304 302 305 301 301 301 300 301 302 302 306 309 304 307 302 305 302 302 302 300 300 301 299 296 299 299 300 301 302 302 301 302 307 304 305 302 301 300 299 299 297 299 297 295 296 296 295 299 297 297 297 295 0 296 294 294 293 294 294 294 295 296 296 296 297 297 297 297 0 0 0 0 0
    0 0 0 0 0 0 0 0 0 0 0 0 0 0 0 0 0 0 0 0 0 0 0 0 0 0 0 0 0 0 0 0 0 0 0 0 0 0 0 0 0 0 0 0 0 0 0 0 0 0 0 0 0 0 0 0 0 0 0 0 0 0 0 0 0 0 0 0 0 317 317 317 314 315 315 0 309 310 309 311 309 309 310 310 310 313 313 313 310 313 311 306 311 310 309 309 309 310 307 309 311 307 309 309 311 310 309 311 309 310 311 313 314 311 311 310 310 313 310 310 310 310 310 310 311 311 310 311 311 311 311 311 311 313 0 314 314 314 313 311 311 310 309 309 304 309 307 309 309 301 307 307 306 309 305 306 305 306 311 307 306 307 306 307 307 309 309 309 305 306 305 307 306 304 305 302 304 305 306 305 306 302 305 304 306 305 307 305 306 302 305 302 301 301 300 301 300 301 304 301 302 304 302 304 301 302 304 302 305 302 300 302 302 304 304 302 302 301 302 307 302 299 302 302 304 305 306 307 307 307 310 306 306 304 300 300 296 299 299 301 299 301 302 302 304 302 302 304 301 305 302 300 300 299 300 299 296 297 300 297 302 300 302 301 302 302 299 299 299 296 295 296 297 299 299 300 300 300 301 305 302 302 300 299 299 296 0 0 0 579 0 0 0 0 0 0 294 295 292 293 294 292 292 292 292 292 292 294 296 295 296 297 296 296 297 0 0 0 0 0
    0 0 0 0 0 0 0 0 0 0 0 0 0 0 0 0 0 0 0 0 0 0 0 0 0 0 0 0 0 0 0 0 0 0 0 0 0 0 0 0 0 0 0 0 0 0 0 0 0 0 0 0 0 0 0 0 0 0 0 0 0 0 0 0 0 0 0 0 0 317 317 317 313 314 313 313 307 310 309 311 310 310 310 311 310 313 313 313 310 311 311 306 311 310 309 309 309 310 307 309 311 306 307 309 310 309 307 310 307 310 311 313 313 310 311 310 310 311 310 311 310 310 311 311 311 311 311 311 311 311 311 313 311 0 0 314 313 313 0 0 311 310 310 310 304 309 309 309 307 301 306 306 305 306 304 305 304 305 311 306 305 306 305 306 306 309 307 309 304 305 302 306 306 302 304 301 302 304 305 305 305 302 305 304 306 305 307 304 305 302 304 301 300 300 299 299 299 300 302 301 304 304 302 304 301 302 304 302 304 301 300 302 302 302 302 301 301 300 302 306 300 299 301 300 302 304 304 305 306 306 310 307 309 306 302 301 297 300 299 301 299 301 301 302 302 302 301 304 301 304 302 300 300 299 300 297 294 295 295 295 297 296 300 300 301 300 297 296 296 294 293 294 295 296 297 300 299 299 300 302 300 299 296 296 295 294 0 0 0 574 0 0 0 0 275 276 274 277 281 286 289 289 290 289 288 292 289 293 296 294 0 0 296 296 296 0 0 0 0 0
    0 0 0 0 0 0 0 0 0 0 0 0 0 0 0 0 0 0 0 0 0 0 0 0 0 0 0 0 0 0 0 0 0 0 0 0 0 0 0 0 0 0 0 0 0 0 0 0 0 0 0 0 0 0 0 0 0 0 0 0 0 0 0 0 0 0 0 0 0 315 314 315 311 314 313 314 307 311 311 314 313 0 314 314 313 314 314 313 310 311 310 305 310 310 309 307 309 310 307 309 310 304 306 309 310 307 306 309 307 310 310 313 311 310 311 310 310 311 311 311 311 311 311 311 311 311 311 0 313 311 313 313 311 0 0 313 0 0 0 0 0 310 310 311 306 310 309 309 307 301 305 305 304 305 304 304 302 305 310 306 304 305 305 305 305 309 307 310 302 304 302 306 306 302 302 301 302 304 305 305 305 301 304 304 306 305 307 304 305 301 302 300 299 299 297 297 297 300 301 301 304 304 302 305 302 302 304 302 304 301 300 301 301 302 302 300 300 300 302 306 300 297 301 300 302 304 304 306 306 307 311 309 310 307 304 302 296 0 297 300 297 300 301 301 302 301 301 302 301 304 302 300 300 299 299 297 293 295 295 294 296 295 299 299 0 300 295 294 294 292 289 292 293 294 296 297 297 299 299 301 297 297 294 294 290 287 286 285 283 0 0 0 277 277 275 275 274 276 277 280 283 284 287 286 283 289 286 289 295 292 0 0 293 295 294 0 0 0 0 0
    0 0 0 0 0 0 0 0 0 0 0 0 0 0 0 0 0 0 0 0 0 0 0 0 0 0 0 0 0 0 0 0 0 0 0 0 0 0 0 0 0 0 0 0 0 0 0 0 0 0 0 0 0 0 0 0 0 0 0 0 0 0 0 0 0 0 0 0 0 315 314 314 310 0 313 314 306 311 0 0 0 0 0 0 0 315 315 313 310 311 309 304 310 310 309 307 309 310 307 309 310 304 306 309 310 306 306 309 309 311 311 313 310 310 311 310 310 311 311 311 311 311 313 313 313 313 313 0 313 0 313 313 313 0 0 313 0 0 0 0 0 0 311 313 307 310 310 310 309 301 305 304 304 304 302 304 302 305 310 306 304 305 305 305 305 309 306 310 301 305 302 306 306 302 302 301 302 304 305 305 305 301 305 305 306 306 307 305 305 301 302 299 299 299 297 299 297 300 302 302 304 304 304 305 302 302 304 302 304 301 299 301 301 301 301 299 299 299 301 306 299 0 301 299 301 304 0 306 306 309 311 311 313 310 306 307 297 304 297 300 297 300 301 301 301 301 300 302 300 302 301 300 300 299 299 296 292 294 294 293 294 293 297 297 0 300 294 293 292 290 289 290 292 292 294 296 296 296 296 299 296 296 293 290 283 281 281 281 280 279 277 277 277 276 275 275 273 275 276 278 279 279 283 283 277 284 280 281 284 283 0 0 0 290 283 0 0 0 0 0
    0 0 0 0 0 0 0 0 0 0 0 0 0 0 0 0 0 0 0 0 0 0 0 0 0 0 0 0 0 0 0 0 0 0 0 0 0 0 0 0 0 0 0 0 0 0 0 0 0 0 0 0 0 0 0 0 0 0 0 0 0 0 0 0 0 0 0 0 0 315 0 0 309 0 311 0 305 0 0 0 0 0 0 0 0 0 315 313 310 311 307 304 310 309 309 307 309 310 307 309 310 302 305 309 310 306 306 309 309 311 311 313 311 311 311 310 311 311 311 313 311 313 313 0 313 313 313 0 314 0 0 0 313 0 0 0 0 0 0 0 0 0 0 314 309 311 310 311 307 300 304 304 302 302 302 304 302 304 310 306 302 304 305 304 304 307 306 311 301 305 302 0 0 0 300 300 301 304 305 305 305 302 305 306 306 306 307 305 0 0 0 299 0 0 0 299 299 300 302 301 305 302 304 305 302 302 304 302 305 301 300 300 300 300 300 297 297 0 0 0 0 0 0 297 300 302 0 0 0 0 0 0 0 311 306 0 0 307 299 301 297 0 0 301 300 300 299 301 300 302 301 299 299 297 297 296 288 290 290 289 289 290 295 0 0 300 292 290 289 289 288 289 289 288 293 295 295 295 296 299 296 295 292 286 279 279 278 279 277 277 275 276 276 274 273 274 272 273 274 277 277 277 0 278 275 279 278 0 0 0 0 0 0 288 278 0 0 0 0 0
    0 0 0 0 0 0 0 0 0 0 0 0 0 0 0 0 0 0 0 0 0 0 0 0 0 0 0 0 0 0 0 0 0 0 0 0 0 0 0 0 0 0 0 0 0 0 0 0 0 0 0 0 0 0 0 0 0 0 0 0 0 0 0 0 0 0 0 0 0 0 0 0 0 0 313 0 306 0 0 0 0 0 0 319 0 0 315 311 310 310 306 304 309 309 309 307 310 310 309 310 310 302 305 309 310 306 306 309 310 313 311 313 311 311 311 311 310 311 311 313 313 313 313 0 314 314 314 0 0 0 0 0 0 0 0 0 0 0 0 0 0 0 0 313 307 309 309 309 306 300 302 302 301 301 301 302 301 304 310 306 302 304 305 302 304 309 306 311 300 305 0 0 0 0 0 297 300 302 304 305 305 302 306 307 307 307 309 305 0 0 0 0 0 0 0 0 0 0 302 301 305 302 304 305 302 302 304 302 305 301 300 300 300 299 300 296 0 0 0 0 0 0 0 0 0 299 0 0 0 0 0 0 0 0 0 0 0 0 0 0 0 0 0 301 0 300 0 300 300 301 301 299 0 0 296 294 285 286 287 286 286 288 294 295 0 300 292 289 287 0 0 287 287 285 290 294 293 294 294 296 295 294 290 280 0 278 277 277 276 276 274 275 275 274 273 274 271 273 274 276 277 277 277 277 275 278 277 276 276 276 275 0 0 289 280 0 0 0 0 0
    0 0 0 0 0 0 0 0 0 0 0 0 0 0 0 0 0 0 0 0 0 0 0 0 0 0 0 0 0 0 0 0 0 0 0 0 0 0 0 0 0 0 0 0 0 0 0 0 0 0 0 0 0 0 0 0 0 0 0 0 0 0 0 0 0 0 0 0 0 0 0 0 0 0 0 0 0 0 223 0 0 0 321 322 0 318 317 311 311 311 306 304 310 310 309 309 311 311 310 310 311 304 306 310 310 306 0 0 311 314 313 314 310 310 311 311 311 311 311 314 313 313 314 0 0 315 0 0 0 0 334 337 0 73 0 0 0 0 0 0 0 250 0 311 305 306 306 306 304 299 301 300 300 300 301 301 301 0 309 305 302 304 304 301 301 307 304 313 299 301 0 0 0 0 0 295 297 300 302 304 305 302 307 309 310 0 0 306 0 0 0 294 0 0 0 0 0 0 302 302 306 304 305 0 0 305 306 305 306 302 301 300 299 297 296 0 0 0 0 0 0 0 0 0 0 292 0 0 0 0 0 0 0 0 0 0 0 0 0 0 0 0 0 302 0 0 0 0 300 301 301 0 0 0 0 292 284 283 285 285 285 287 292 0 0 299 0 286 0 0 0 285 284 0 287 292 290 290 290 293 293 290 288 0 0 278 276 276 276 275 274 274 274 274 273 274 271 273 274 277 278 277 277 276 276 278 276 275 275 0 0 0 0 287 283 0 0 0 0 0
    0 0 0 0 0 0 0 0 0 0 0 0 0 0 0 0 0 0 0 0 0 0 0 0 0 0 0 0 0 0 0 0 0 0 0 0 0 0 0 0 0 0 0 0 0 0 0 0 0 0 0 0 0 0 0 0 0 0 0 0 0 0 0 0 0 0 0 0 0 0 0 0 243 241 0 0 0 227 223 225 224 0 0 0 0 0 315 311 311 311 304 302 309 310 309 309 311 310 309 311 311 302 0 311 310 307 0 0 0 314 313 313 309 309 310 310 310 310 311 314 314 0 315 0 0 0 0 0 0 0 337 339 0 73 0 0 0 0 0 0 0 247 0 0 306 0 0 305 301 297 299 299 297 297 299 300 0 0 309 304 0 0 301 300 300 305 301 0 294 289 0 0 0 0 290 292 296 297 302 304 306 302 0 0 310 0 0 0 0 293 293 292 288 0 0 0 0 0 0 0 0 0 0 0 0 0 0 0 0 0 0 0 296 0 0 0 0 0 89 0 0 0 0 0 0 0 0 0 0 0 0 0 0 0 0 0 0 0 0 0 0 0 0 0 0 0 0 0 0 0 0 0 0 0 0 289 283 281 283 284 284 286 289 0 0 0 0 0 0 0 0 283 281 0 283 286 286 285 285 284 285 285 283 0 276 277 275 276 275 275 273 274 273 273 273 274 272 274 274 277 278 277 277 276 275 277 274 272 0 0 0 0 0 0 0 0 0 0 0 0
    0 0 0 0 0 0 0 0 0 0 0 0 0 0 0 0 0 0 0 0 0 0 0 0 0 0 0 0 0 0 0 0 0 0 0 0 0 0 0 0 0 0 0 0 0 0 0 0 0 0 0 0 0 0 0 0 0 0 0 0 0 0 0 0 0 0 0 0 0 0 0 246 245 0 0 0 0 0 0 0 0 0 0 0 0 0 314 309 310 309 300 302 309 309 309 307 311 311 310 311 310 299 0 0 311 307 0 0 0 0 0 311 304 306 309 309 309 309 310 314 314 0 315 0 0 0 0 0 0 0 0 0 0 73 0 0 0 0 0 0 0 0 0 0 0 0 0 0 299 295 294 294 295 294 295 296 0 0 0 0 0 0 0 0 0 0 0 0 0 0 0 0 0 0 0 0 0 0 0 0 0 0 0 0 0 0 0 0 0 0 287 288 284 0 0 0 197 0 0 0 0 0 0 0 0 0 0 0 0 0 0 0 0 90 90 90 89 89 89 0 89 0 0 0 0 0 0 0 0 0 0 0 0 0 0 0 0 0 0 0 0 0 0 0 0 0 0 0 0 0 0 0 0 0 0 0 284 284 285 285 285 286 289 0 0 0 0 0 0 0 0 0 0 0 283 284 284 285 285 283 283 281 280 0 276 277 275 276 275 275 0 0 273 272 273 274 273 275 275 277 279 277 278 276 275 277 273 267 0 0 0 0 242 238 0 0 0 0 0 0
    0 0 0 0 0 0 0 0 0 0 0 0 0 0 0 0 0 0 0 0 0 0 0 0 0 0 0 0 0 0 0 0 0 0 0 0 0 0 0 0 0 0 0 0 0 0 0 0 0 0 0 0 0 0 0 0 0 0 0 0 0 0 0 0 0 0 0 0 0 253 253 0 0 0 0 0 0 0 0 0 0 0 0 0 0 0 0 0 304 302 294 300 307 309 307 306 314 311 309 310 304 294 273 0 307 0 0 0 0 0 0 309 299 304 0 0 0 0 310 0 0 0 0 0 0 139 0 0 0 141 0 0 0 0 0 0 0 0 0 0 0 0 0 0 0 0 0 0 0 0 0 0 0 292 0 0 0 0 0 0 0 0 0 0 0 0 0 0 0 0 0 0 0 0 0 0 0 0 0 0 0 0 0 0 0 0 0 0 0 0 0 0 0 0 0 0 0 0 0 0 0 0 0 0 0 0 0 0 0 0 0 0 0 0 0 0 0 0 0 0 0 0 0 0 0 0 0 0 0 0 0 0 0 0 0 0 0 0 0 0 0 0 0 0 0 0 0 0 0 0 0 0 0 0 0 0 0 0 0 0 0 0 0 0 0 0 0 0 0 0 0 0 0 0 279 280 281 280 279 277 277 277 277 275 274 274 274 276 276 276 0 0 274 273 274 274 272 275 276 278 278 276 280 0 0 277 272 266 0 0 0 0 0 238 0 0 0 0 0 0
    0 0 0 0 0 0 0 0 0 0 0 0 0 0 0 0 0 0 0 0 0 0 0 0 0 0 0 0 0 0 0 0 0 0 0 0 0 0 0 0 0 0 0 0 0 0 0 0 0 0 0 0 0 0 0 0 0 0 0 0 0 0 0 0 0 0 0 0 0 0 256 266 0 0 0 0 0 0 0 0 0 0 0 0 0 0 0 0 0 0 0 0 0 0 0 0 340 321 0 0 0 0 0 0 0 0 0 0 0 0 0 0 0 0 0 0 0 0 0 0 0 0 138 0 0 0 0 0 0 0 0 0 0 0 0 0 0 0 0 0 0 0 0 0 0 0 0 0 0 0 0 0 0 0 0 0 0 0 0 0 0 0 0 0 0 0 0 0 0 0 0 0 0 0 0 0 0 0 0 0 0 0 0 0 0 0 0 0 0 0 0 0 0 0 0 0 0 0 0 0 0 0 0 0 0 0 0 0 0 0 0 0 0 0 0 0 0 0 0 0 0 0 0 0 0 0 0 0 0 0 0 0 0 0 0 0 0 0 0 0 0 0 0 0 0 0 0 0 0 0 0 0 0 0 0 0 0 0 0 0 0 0 0 0 0 0 0 0 0 0 0 0 0 0 0 0 280 0 0 0 0 0 0 273 272 272 272 275 276 0 0 0 0 0 0 0 0 0 279 280 279 0 0 0 0 0 269 0 0 0 0 0 0 238 0 0 0 0 0 0
    0 0 0 0 0 0 0 0 0 0 0 0 0 0 0 0 0 0 0 0 0 0 0 0 0 0 0 0 0 0 0 0 0 0 0 0 0 0 0 0 0 0 0 0 0 0 0 0 0 0 0 0 0 0 0 0 0 0 0 0 0 0 0 0 0 0 0 0 0 0 0 0 0 0 0 0 0 0 0 0 0 0 0 0 0 0 0 0 0 0 0 0 0 0 0 0 0 0 0 0 0 0 0 0 0 0 0 0 0 0 0 0 0 0 0 0 0 0 0 0 0 0 0 0 0 0 0 0 0 0 0 0 0 0 0 0 0 0 0 0 0 0 0 0 0 0 0 0 0 0 0 0 0 0 0 0 0 0 0 0 0 0 0 0 0 0 0 0 0 0 0 0 0 0 0 0 0 0 0 0 0 0 0 0 0 0 0 0 0 0 0 0 0 214 0 0 0 0 0 0 0 0 0 0 0 0 0 0 0 0 0 0 0 89 89 89 89 89 0 0 0 0 0 0 217 217 216 0 0 0 0 219 217 221 220 221 221 220 221 0 0 0 0 0 0 0 0 0 0 0 0 0 0 97 0 97 0 0 0 0 0 0 0 0 570 0 0 0 272 0 0 0 0 0 0 0 0 0 0 0 0 0 0 0 0 0 0 0 0 0 0 0 0 0 0 0 0 0 0 285 0 0 0 0 0 279 269 0 0 0 0 0 0 238 0 0 0 0 0 0
    0 0 0 0 0 0 0 0 0 0 0 0 0 0 0 0 0 0 0 0 0 0 0 0 0 0 0 0 0 0 0 0 0 0 0 0 0 0 0 0 0 0 0 0 0 0 0 0 0 0 0 0 0 0 0 0 0 0 0 0 0 0 0 0 0 0 0 0 0 0 0 0 0 0 0 0 0 0 0 0 0 0 0 0 0 0 0 0 0 0 0 0 2 0 0 0 0 0 0 0 0 0 0 117 0 0 0 446 0 0 0 0 0 0 0 0 0 0 0 0 0 0 0 0 0 0 0 0 0 0 0 0 0 0 0 0 0 0 0 0 0 0 0 0 0 0 0 0 0 0 0 73 73 0 0 0 0 0 0 0 0 0 0 0 0 0 0 0 0 0 0 0 0 0 0 0 0 0 0 0 0 0 0 0 0 0 0 0 0 159 158 0 217 216 215 216 0 0 146 146 0 0 0 0 221 220 220 219 219 0 0 0 0 89 89 0 0 0 217 215 217 218 218 218 217 217 217 215 217 213 217 221 219 221 221 221 221 221 221 221 220 221 220 219 219 220 222 0 0 0 0 0 0 0 0 0 0 0 0 584 0 0 0 574 570 0 0 0 272 271 0 273 0 0 0 0 0 0 0 0 0 0 0 0 0 0 0 0 0 0 0 0 0 0 0 0 0 0 0 0 0 0 0 0 0 0 0 0 0 0 0 0 0 0 0 0 0 0 0 0
    0 0 0 0 0 0 0 0 0 0 0 0 0 0 0 0 0 0 0 0 0 0 0 0 0 0 0 0 0 0 0 0 0 0 0 0 0 0 0 0 0 0 0 0 0 0 0 0 0 0 0 0 0 0 0 0 0 0 0 0 0 0 0 0 0 0 0 0 0 229 231 231 0 0 0 0 0 0 0 0 0 0 0 0 0 0 0 4329 4599 4599 0 0 0 0 0 0 222 0 0 0 0 0 0 117 0 0 0 0 0 0 0 0 0 0 0 0 220 0 0 0 0 0 0 0 0 0 0 0 0 0 0 0 221 0 0 0 0 0 0 101 100 99 0 0 0 0 73 73 73 0 0 0 0 225 224 0 0 226 0 0 0 0 0 0 0 0 0 0 225 223 221 222 0 0 0 220 0 219 215 214 215 0 0 0 0 0 217 0 221 221 0 220 218 217 0 217 0 146 146 0 0 0 0 221 221 221 221 220 220 221 0 219 0 0 0 0 0 0 218 215 217 218 218 217 217 217 217 216 217 215 217 220 219 221 221 221 221 220 221 221 219 221 219 219 219 219 221 0 222 0 0 0 0 0 0 0 0 0 0 588 0 0 0 579 574 0 0 0 272 271 0 273 0 0 0 0 0 0 0 0 0 0 0 0 0 0 0 0 0 0 0 0 0 0 0 0 0 579 0 0 0 0 0 0 0 0 0 0 0 0 0 0 0 0 0 0 0 0 0 0
    0 0 0 0 0 0 0 0 0 0 0 0 0 0 0 0 0 0 0 0 0 0 0 0 0 0 0 0 0 0 0 0 0 0 0 0 0 0 0 0 0 0 0 0 0 0 0 0 0 0 0 0 0 0 0 0 0 0 0 0 0 0 0 0 0 0 0 0 0 227 229 228 227 0 229 0 0 0 0 0 0 0 0 0 0 0 0 4088 0 0 0 0 0 0 0 0 222 221 0 0 0 0 0 0 0 0 0 227 227 225 224 0 0 0 448 0 219 0 0 0 0 0 0 0 0 0 0 0 0 0 0 0 221 221 222 0 0 0 0 101 0 0 0 0 0 0 223 222 223 222 223 223 223 223 223 223 223 223 221 221 222 0 0 0 0 0 222 224 223 223 221 221 221 219 220 219 219 218 216 215 217 217 217 217 220 220 218 0 221 221 221 220 218 217 0 217 0 147 146 146 0 219 221 221 221 221 221 220 220 220 221 219 218 217 0 219 0 0 219 215 217 217 218 217 217 217 217 216 217 216 217 219 219 220 220 220 221 220 221 221 220 221 219 219 218 219 221 221 221 221 0 0 0 0 0 0 0 0 0 0 0 0 193 0 0 0 0 272 273 0 0 0 0 0 0 0 0 0 0 0 220 0 0 0 0 0 0 0 0 0 0 0 0 0 457 0 0 0 0 0 0 0 0 0 0 0 0 0 217 217 0 0 0 0 0 0 0 0 0 0
    0 0 0 0 0 0 0 0 0 0 0 0 0 0 0 0 0 0 0 0 0 0 0 0 0 0 0 0 0 0 0 0 0 0 0 0 0 0 0 0 0 0 0 0 0 0 0 0 0 0 0 0 0 0 0 0 0 0 0 0 0 0 0 0 0 0 0 0 0 226 228 227 226 229 228 0 0 0 0 222 0 0 0 0 0 0 0 0 0 0 0 0 0 0 222 222 222 221 223 0 0 0 0 0 0 0 0 225 225 225 223 223 223 0 0 0 218 216 219 0 0 0 223 0 0 0 0 0 223 222 221 222 221 221 222 0 0 0 0 0 0 0 0 0 0 0 223 221 223 222 223 223 223 223 223 223 223 222 222 221 222 223 223 223 223 223 222 223 223 223 221 221 220 219 220 219 219 218 217 216 219 219 219 219 222 221 219 221 221 220 220 219 218 217 217 217 0 0 0 0 217 217 219 219 220 220 220 220 219 220 221 219 219 217 219 219 219 219 219 217 218 217 218 217 217 217 217 215 217 217 217 219 219 219 220 220 221 220 220 221 220 221 219 219 218 219 220 221 221 221 221 221 0 0 0 0 222 0 0 0 0 0 193 0 0 0 0 273 0 0 0 0 215 215 0 217 218 219 0 221 220 0 0 219 0 0 0 0 0 0 0 0 0 0 0 0 0 0 0 0 0 0 0 0 0 220 217 217 217 217 219 217 0 0 0 0 0 0 0 0
    0 0 0 0 0 0 0 0 0 0 0 0 0 0 0 0 0 0 0 0 0 0 0 0 0 0 0 0 0 0 0 0 0 0 0 0 0 0 0 0 0 0 0 0 0 0 0 0 0 0 0 0 0 0 0 0 0 0 0 0 0 0 0 0 0 0 0 0 0 226 228 227 226 229 227 225 0 0 227 222 217 0 0 0 0 0 0 0 0 0 0 0 0 223 222 223 222 221 223 223 0 0 0 0 0 0 0 223 224 223 223 223 223 222 223 222 220 217 219 220 221 223 223 223 223 0 0 0 222 222 221 222 221 221 221 221 221 0 0 0 0 0 0 0 223 223 223 221 222 222 222 223 223 223 223 222 223 222 222 222 223 223 223 223 223 223 223 223 223 223 222 221 221 219 220 219 219 218 217 217 219 219 220 219 222 220 220 221 220 220 219 219 219 218 218 218 216 217 216 217 217 217 219 219 219 219 219 219 218 219 220 218 219 217 219 219 219 220 219 217 219 217 218 217 217 216 217 215 217 217 217 218 218 219 219 220 220 220 220 221 220 221 219 219 219 219 219 220 220 221 221 221 221 221 221 223 222 0 0 0 0 0 193 0 0 0 0 0 0 213 0 215 215 215 217 217 219 220 221 221 221 221 221 219 219 0 0 0 0 0 0 0 0 0 0 0 0 0 0 0 0 0 0 219 217 217 216 216 217 216 217 217 218 217 215 0 0 0 0 0
    0 0 0 0 0 0 0 0 0 0 0 0 0 0 0 0 0 0 0 0 0 0 0 0 0 0 0 0 0 0 0 0 0 0 0 0 0 0 0 0 0 0 0 0 0 0 0 0 0 0 0 0 0 0 0 0 0 0 0 0 0 0 0 0 0 0 0 0 0 226 227 227 225 228 227 225 226 0 225 221 217 0 0 219 0 0 0 0 0 0 0 0 0 223 223 223 223 223 223 223 223 224 0 0 0 0 223 223 223 223 223 223 223 223 223 223 221 219 219 219 221 222 222 223 223 223 223 0 222 221 221 222 221 221 222 221 221 222 223 223 0 224 222 221 221 222 223 220 222 222 222 223 223 223 223 222 223 222 223 222 223 223 223 223 223 223 223 223 223 222 221 221 220 219 220 218 219 218 217 218 219 219 220 219 222 219 220 221 220 220 219 219 219 218 219 219 217 219 217 218 218 217 219 218 219 219 219 219 218 219 220 218 219 218 219 219 219 220 219 217 219 217 218 216 217 216 217 215 217 217 217 217 218 219 219 219 220 219 220 220 220 221 219 219 219 219 219 220 220 221 220 221 221 221 221 222 221 0 0 0 0 0 0 0 0 0 0 0 214 214 215 215 216 215 218 218 219 220 221 221 221 221 221 220 220 220 0 0 0 0 0 0 0 0 0 0 0 0 221 218 218 216 218 217 216 216 215 215 217 215 215 216 217 216 215 0 0 0 0 0
    0 0 0 0 0 0 0 0 0 0 0 0 0 0 0 0 0 0 0 0 0 0 0 0 0 0 0 0 0 0 0 0 0 0 0 0 0 0 0 0 0 0 0 0 0 0 0 0 0 0 0 0 0 0 0 0 0 0 0 0 0 0 0 0 0 0 0 0 0 225 226 225 225 227 227 225 226 224 225 222 219 219 219 220 219 0 221 0 0 0 0 0 0 223 223 223 223 223 224 223 223 224 0 0 223 223 223 223 223 224 223 223 223 223 223 223 221 221 221 220 222 222 222 223 223 223 223 222 222 221 221 222 221 221 222 222 222 223 223 223 222 223 221 220 221 221 222 219 221 222 222 223 222 223 223 222 223 222 223 223 223 223 223 223 223 223 223 223 223 221 221 220 220 219 220 217 219 218 217 218 219 219 220 219 221 219 220 221 220 220 219 219 219 219 219 219 218 219 217 219 218 217 219 218 219 219 219 220 218 219 220 218 219 218 219 219 219 220 219 218 219 217 218 216 217 215 217 215 217 217 217 217 218 219 219 219 220 219 219 219 219 220 218 219 219 219 219 220 220 221 220 221 221 221 0 222 221 0 0 0 0 0 0 219 0 0 0 215 215 215 215 216 217 217 219 219 219 220 221 221 221 221 221 221 221 221 221 222 222 0 0 0 0 0 0 223 223 222 221 220 220 218 220 218 218 217 216 216 217 216 216 217 217 215 215 0 0 0 0 0
    0 0 0 0 0 0 0 0 0 0 0 0 0 0 0 0 0 0 0 0 0 0 0 0 0 0 0 0 0 0 0 0 0 0 0 0 0 0 0 0 0 0 0 0 0 0 0 0 0 0 0 0 0 0 0 0 0 0 0 0 0 0 0 0 0 0 0 0 0 225 226 225 225 226 226 225 226 225 225 223 221 221 221 222 222 0 223 0 0 0 0 0 0 223 223 223 223 223 224 223 223 223 223 223 223 223 223 223 223 224 223 223 224 223 223 223 222 222 221 221 222 222 223 223 223 223 223 222 223 222 222 223 222 222 223 223 223 223 223 223 222 223 221 220 220 221 222 219 221 221 221 222 222 222 222 221 223 222 223 223 223 223 223 223 223 222 223 222 222 221 221 219 219 219 220 217 219 218 218 218 220 219 219 219 221 219 220 221 220 220 220 220 219 219 220 219 218 219 217 219 218 217 219 218 219 219 219 220 218 219 219 219 220 219 219 219 219 221 219 219 219 217 218 216 216 215 216 216 217 217 217 217 218 219 220 219 220 219 219 219 219 219 217 219 219 219 219 219 219 220 219 221 220 220 220 221 221 221 221 223 0 221 221 220 219 217 216 215 215 216 217 217 217 217 219 219 219 219 220 220 221 220 221 221 221 221 222 223 223 223 0 0 0 0 0 0 0 0 222 221 221 219 220 219 219 217 217 217 217 217 217 218 217 215 215 0 0 0 0 0
    0 0 0 0 0 0 0 0 0 0 0 0 0 0 0 0 0 0 0 0 0 0 0 0 0 0 0 0 0 0 0 0 0 0 0 0 0 0 0 0 0 0 0 0 0 0 0 0 0 0 0 0 0 0 0 0 0 0 0 0 0 0 0 0 0 0 0 0 0 225 225 225 225 226 226 225 226 226 225 223 222 223 223 223 223 0 223 223 223 223 0 223 0 223 223 223 223 223 223 223 223 223 223 223 222 223 223 223 223 224 223 223 224 224 224 224 223 223 222 221 223 223 223 223 223 223 223 222 223 221 221 222 222 221 222 222 223 222 223 223 221 222 221 221 221 221 221 219 221 221 221 222 222 222 222 221 223 222 223 223 223 223 223 223 223 222 222 222 222 221 220 219 219 219 219 217 218 218 218 218 220 219 220 219 221 219 220 220 220 220 219 220 220 219 220 219 219 219 217 219 218 217 219 218 219 219 219 220 218 219 219 219 220 219 219 220 219 221 219 219 220 217 219 216 216 215 216 216 217 218 217 217 218 219 219 219 219 218 219 218 219 219 217 219 219 218 218 219 219 220 219 220 219 219 220 221 220 221 221 222 222 221 221 221 220 218 217 216 217 217 217 217 217 217 219 219 219 219 220 220 220 219 221 220 221 221 221 222 223 223 224 223 0 223 0 0 0 0 221 220 219 218 219 218 218 217 216 216 216 216 216 217 217 215 215 0 0 0 0 0
    0 0 0 0 0 0 0 0 0 0 0 0 0 0 0 0 0 0 0 0 0 0 0 0 0 0 0 0 0 0 0 0 0 0 0 0 0 0 0 0 0 0 0 0 0 0 0 0 0 0 0 0 0 0 0 0 0 0 0 0 0 0 0 0 0 0 0 0 0 225 225 225 224 225 226 226 227 227 226 224 223 223 223 0 0 0 0 0 0 0 0 224 0 223 223 223 223 223 223 223 223 223 223 223 222 223 223 223 223 224 223 224 224 224 224 225 223 223 222 222 223 223 223 223 223 223 223 223 223 221 221 222 221 221 221 221 222 221 223 223 221 221 220 221 221 221 221 219 221 221 221 222 221 221 221 221 223 222 223 223 223 223 223 223 223 222 222 221 221 221 219 219 219 219 219 217 218 218 219 219 220 219 220 219 221 219 221 220 220 220 219 220 220 219 220 219 219 219 217 219 218 218 219 218 219 219 219 220 218 219 219 219 220 219 219 220 219 221 219 220 220 218 219 217 217 215 217 217 217 218 218 217 217 218 219 218 219 218 218 217 218 219 217 218 219 218 218 219 219 219 219 220 219 219 220 221 220 220 221 221 221 221 221 221 220 219 219 217 217 217 217 217 217 218 219 219 220 219 220 220 220 219 220 219 220 220 221 221 222 222 223 223 223 223 225 222 0 221 220 219 219 217 218 217 217 216 216 215 215 215 215 216 216 215 215 0 0 0 0 0
    0 0 0 0 0 0 0 0 0 0 0 0 0 0 0 0 0 0 0 0 0 0 0 0 0 0 0 0 0 0 0 0 0 0 0 0 0 0 0 0 0 0 0 0 0 0 0 0 0 0 0 0 0 0 0 0 0 0 0 0 0 0 0 0 0 0 0 0 0 224 225 224 224 225 225 226 227 227 227 225 223 223 0 0 0 0 0 0 0 0 0 0 0 224 223 223 223 223 223 223 223 223 223 223 223 223 223 223 223 224 224 224 224 224 224 225 223 223 222 221 223 223 223 223 223 223 223 223 223 221 222 222 222 221 221 221 222 221 223 222 221 221 220 221 221 221 221 219 221 221 221 221 221 221 221 222 223 223 223 223 223 223 223 223 223 222 222 221 221 221 219 219 219 219 219 217 219 218 219 219 220 219 220 219 221 219 221 220 220 220 219 219 220 219 220 219 219 219 217 219 219 218 219 218 219 219 218 220 217 219 219 218 220 219 219 220 219 221 219 219 220 218 219 217 217 215 217 217 218 218 218 217 217 218 219 218 219 218 218 217 219 219 217 218 219 218 218 219 219 219 219 220 219 219 220 221 219 220 220 221 221 221 220 221 221 219 219 217 219 219 219 218 218 219 220 219 220 219 220 219 219 219 219 219 219 220 221 221 221 222 222 222 223 222 224 221 221 221 219 218 217 216 217 217 217 216 216 215 215 215 216 217 216 215 215 0 0 0 0 0
    0 0 0 0 0 0 0 0 0 0 0 0 0 0 0 0 0 0 0 0 0 0 0 0 0 0 0 0 0 0 0 0 0 0 0 0 0 0 0 0 0 0 0 0 0 0 0 0 0 0 0 0 0 0 0 0 0 0 0 0 0 0 0 0 0 0 0 0 0 224 225 224 224 225 225 226 227 227 227 225 223 0 0 223 0 0 0 0 0 0 0 224 224 224 223 223 223 223 223 223 223 223 223 223 223 223 223 223 223 225 224 225 224 225 224 225 223 223 222 221 223 223 223 223 223 223 223 223 223 221 222 222 221 221 221 221 222 221 223 221 221 220 220 221 220 221 221 219 221 221 221 221 221 221 222 222 224 223 224 224 224 224 224 224 223 222 223 221 221 221 219 219 219 219 220 217 219 218 219 219 220 219 220 219 221 219 221 220 220 220 220 220 220 219 220 219 219 220 218 219 219 219 219 218 219 219 218 219 217 219 219 219 220 219 219 220 219 221 219 219 219 218 219 217 218 216 217 217 218 219 219 217 217 218 219 218 219 218 218 217 219 219 217 219 219 218 218 219 219 219 218 220 219 219 220 220 219 220 220 221 221 221 221 221 221 220 220 218 219 219 218 218 218 218 219 219 219 219 219 219 219 219 219 219 219 219 220 221 221 221 222 222 222 221 223 221 0 220 217 217 217 216 217 216 217 216 216 216 216 216 217 217 217 215 215 0 0 0 0 0
    0 0 0 0 0 0 0 0 0 0 0 0 0 0 0 0 0 0 0 0 0 0 0 0 0 0 0 0 0 0 0 0 0 0 0 0 0 0 0 0 0 0 0 0 0 0 0 0 0 0 0 0 0 0 0 0 0 0 0 0 0 0 0 0 0 0 0 0 0 224 225 224 224 225 225 226 227 227 227 225 223 0 0 0 0 0 0 0 0 0 0 224 225 224 223 223 223 223 223 223 223 223 223 223 223 223 223 223 224 225 225 225 225 225 225 225 224 223 223 222 223 223 223 223 223 223 223 223 223 221 222 222 221 221 221 221 221 221 222 221 221 220 220 221 221 221 221 220 221 221 222 222 221 222 222 223 224 224 224 224 224 225 225 224 224 223 223 222 221 220 219 219 219 220 221 217 219 219 219 219 220 219 220 219 221 219 221 220 220 221 220 219 220 219 221 219 219 220 218 220 219 219 220 218 219 219 218 220 217 219 219 219 220 219 219 220 219 221 219 220 220 219 220 217 218 216 217 217 219 219 219 217 217 218 219 218 219 218 218 217 219 219 218 219 219 218 218 219 219 219 219 220 219 219 220 220 219 220 220 221 220 221 221 221 221 220 220 217 219 218 217 217 217 218 219 219 219 219 219 219 219 218 219 219 219 219 219 220 221 221 222 221 221 221 223 221 0 0 217 217 217 216 217 216 217 216 217 216 216 216 217 218 219 216 216 0 0 0 0 0
    0 0 0 0 0 0 0 0 0 0 0 0 0 0 0 0 0 0 0 0 0 0 0 0 0 0 0 0 0 0 0 0 0 0 0 0 0 0 0 0 0 0 0 0 0 0 0 0 0 0 0 0 0 0 0 0 0 0 0 0 0 0 0 0 0 0 0 0 0 224 224 224 224 225 225 225 226 226 226 225 223 0 0 0 0 0 0 0 0 0 0 224 225 223 223 223 223 223 223 223 222 223 223 223 223 224 223 224 225 225 225 225 225 225 225 225 225 224 223 222 223 223 223 223 223 223 223 223 223 221 222 222 221 221 221 221 222 221 222 221 221 221 220 221 221 221 221 221 221 221 222 222 222 222 222 223 224 223 224 224 224 224 224 224 223 222 223 222 221 220 220 219 219 221 221 218 219 219 220 220 220 219 219 219 221 219 221 220 220 221 220 220 220 219 221 219 220 220 219 220 219 219 220 219 219 219 218 220 218 219 219 219 220 219 219 220 219 221 219 220 220 219 220 218 219 217 217 217 219 219 219 217 218 218 219 218 218 218 218 217 219 219 218 219 219 218 218 219 219 219 219 219 218 219 219 219 219 219 219 221 220 221 221 221 221 220 220 217 219 218 217 217 217 218 219 219 219 219 219 219 219 218 217 218 217 218 219 219 219 221 221 221 220 219 221 217 218 217 217 216 217 216 217 216 217 216 216 216 216 216 217 217 219 217 217 0 0 0 0 0
    0 0 0 0 0 0 0 0 0 0 0 0 0 0 0 0 0 0 0 0 0 0 0 0 0 0 0 0 0 0 0 0 0 0 0 0 0 0 0 0 0 0 0 0 0 0 0 0 0 0 0 0 0 0 0 0 0 0 0 0 0 0 0 0 0 0 0 0 0 224 224 224 224 225 225 225 227 226 226 225 224 224 0 0 0 0 0 225 0 0 0 224 224 223 223 223 222 222 223 223 222 223 223 223 223 224 224 225 225 226 225 225 225 225 225 225 225 224 223 223 223 223 223 223 223 223 223 222 223 222 222 222 221 221 221 221 222 221 222 221 221 221 221 222 221 222 221 221 222 221 222 222 222 222 222 223 224 224 225 224 225 224 224 224 223 222 223 221 221 220 220 219 220 221 221 219 220 220 221 220 220 220 220 219 221 219 221 220 220 221 220 220 220 219 221 219 220 220 219 220 219 219 220 218 219 219 218 219 217 219 219 219 220 219 219 220 219 221 219 220 220 219 220 219 219 217 217 218 219 219 219 217 217 219 219 218 218 218 218 217 219 219 218 219 219 218 218 219 219 219 219 219 218 219 219 219 219 219 219 220 219 221 221 221 221 220 220 218 219 218 217 216 217 217 218 219 218 219 219 218 218 217 217 217 216 217 217 217 217 219 218 219 218 217 219 215 215 216 216 216 217 216 217 216 217 216 217 217 216 216 217 217 219 217 217 0 0 0 0 0
    0 0 0 0 0 0 0 0 0 0 0 0 0 0 0 0 0 0 0 0 0 0 0 0 0 0 0 0 0 0 0 0 0 0 0 0 0 0 0 0 0 0 0 0 0 0 0 0 0 0 0 0 0 0 0 0 0 0 0 0 0 0 0 0 0 0 0 0 0 224 225 225 224 225 225 226 227 226 226 225 224 225 0 225 225 0 225 226 227 0 225 223 224 223 222 222 221 221 222 222 222 222 223 223 223 224 224 225 225 225 225 225 225 225 225 225 225 224 223 223 223 223 223 223 223 223 223 223 223 222 223 222 221 221 221 221 221 221 221 221 221 221 221 222 222 222 221 221 223 222 222 222 222 223 222 223 224 224 225 225 225 225 225 224 223 223 223 222 221 221 221 220 220 221 221 220 221 220 221 220 220 220 220 220 221 219 221 219 220 221 220 220 220 219 221 219 220 220 219 220 219 219 219 217 219 219 218 219 217 219 219 219 220 219 219 220 219 221 219 220 219 219 221 219 219 217 217 218 219 219 219 217 217 219 219 218 217 218 218 217 219 218 218 219 219 218 218 219 219 219 219 219 218 219 219 219 219 219 219 219 219 221 220 221 221 219 219 218 218 217 216 215 216 217 217 217 217 218 218 218 218 217 216 217 216 216 216 217 217 217 217 217 216 215 217 214 213 215 215 215 217 216 217 216 217 216 217 217 217 216 217 217 219 217 217 0 0 0 0 0
    0 0 0 0 0 0 0 0 0 0 0 0 0 0 0 0 0 0 0 0 0 0 0 0 0 0 0 0 0 0 0 0 0 0 0 0 0 0 0 0 0 0 0 0 0 0 0 0 0 0 0 0 0 0 0 0 0 0 0 0 0 0 0 0 0 0 0 0 0 224 225 224 224 225 225 225 227 226 226 225 224 224 0 0 0 0 0 225 0 0 225 223 223 223 222 222 221 220 221 221 221 222 223 224 224 224 225 225 225 225 225 225 223 223 224 223 223 223 222 223 223 223 223 223 223 223 223 222 223 222 222 222 221 221 221 221 221 221 221 220 221 221 221 222 221 222 221 222 223 222 223 222 222 223 222 223 223 224 225 224 225 224 224 224 223 223 223 222 222 221 221 221 221 221 221 221 221 219 221 220 220 220 220 220 220 219 221 219 220 220 219 219 220 219 221 219 220 220 219 219 219 219 219 217 219 219 218 219 218 219 219 219 220 219 219 219 219 221 219 220 219 220 221 220 220 219 218 219 220 220 219 217 217 218 218 217 217 218 218 217 219 218 219 219 219 219 219 219 219 219 219 219 218 219 219 219 219 219 218 219 218 220 219 220 220 219 219 217 217 217 215 215 216 217 217 217 217 218 218 218 218 217 216 217 216 217 217 217 217 217 217 217 215 215 216 214 214 215 217 217 219 217 218 217 217 217 217 217 217 216 217 217 219 217 216 0 0 0 0 0
    0 0 0 0 0 0 0 0 0 0 0 0 0 0 0 0 0 0 0 0 0 0 0 0 0 0 0 0 0 0 0 0 0 0 0 0 0 0 0 0 0 0 0 0 0 0 0 0 0 0 0 0 0 0 0 0 0 0 0 0 0 0 0 0 0 0 0 0 0 224 224 224 224 225 225 225 226 225 225 225 224 223 224 0 0 0 0 0 0 0 225 224 224 0 223 222 221 221 222 221 221 222 223 224 225 225 225 225 225 225 224 223 223 223 223 223 223 222 221 221 221 221 221 221 222 222 222 222 223 222 223 223 222 222 221 221 221 221 221 220 220 221 221 221 221 222 221 221 222 222 223 222 222 223 222 223 223 223 224 223 224 224 224 224 223 223 223 222 222 221 221 221 221 221 221 221 221 219 221 220 220 220 220 220 220 219 221 219 219 220 219 219 219 219 221 219 220 220 219 219 219 219 219 217 219 219 218 219 218 219 219 219 220 219 219 219 219 221 219 220 219 220 221 220 220 219 219 219 220 220 220 217 217 218 217 217 217 218 218 217 219 219 219 219 219 219 219 219 219 219 219 220 218 219 219 218 218 218 218 219 217 220 219 220 220 219 219 218 217 216 215 214 216 216 217 216 217 217 217 219 219 218 0 217 217 217 217 217 217 217 216 217 215 215 216 215 217 217 221 220 220 218 219 217 218 217 218 217 217 216 217 217 219 217 216 0 0 0 0 0
    0 0 0 0 0 0 0 0 0 0 0 0 0 0 0 0 0 0 0 0 0 0 0 0 0 0 0 0 0 0 0 0 0 0 0 0 0 0 0 0 0 0 0 0 0 0 0 0 0 0 0 0 0 0 0 0 0 0 0 0 0 0 0 0 0 0 0 0 0 224 224 224 224 225 225 225 225 225 225 224 223 223 223 223 223 223 224 0 0 0 224 223 223 223 223 222 221 220 222 221 221 221 223 223 224 224 225 224 225 225 224 223 223 222 222 222 221 221 220 220 220 220 221 221 221 221 221 222 223 223 223 223 223 223 222 223 222 222 221 221 221 221 221 221 221 222 221 222 223 222 223 222 222 222 222 223 223 223 223 223 223 223 224 224 223 223 223 223 222 221 221 221 221 221 221 221 221 219 221 220 219 220 220 220 220 219 221 219 219 220 219 219 219 219 221 219 220 220 219 219 220 219 219 218 219 219 219 219 219 219 219 219 220 219 219 219 220 221 219 219 219 220 221 220 220 219 219 219 220 220 219 216 217 217 217 216 217 218 218 217 219 219 219 219 219 219 219 219 219 219 219 219 217 219 219 217 217 217 217 218 217 219 219 219 220 219 219 218 217 216 215 214 215 215 216 216 216 217 217 219 219 0 0 0 217 217 217 217 216 217 217 217 216 216 217 217 221 220 222 221 221 219 219 217 219 218 219 219 218 217 218 217 219 217 216 0 0 0 0 0
    0 0 0 0 0 0 0 0 0 0 0 0 0 0 0 0 0 0 0 0 0 0 0 0 0 0 0 0 0 0 0 0 0 0 0 0 0 0 0 0 0 0 0 0 0 0 0 0 0 0 0 0 0 0 0 0 0 0 0 0 0 0 0 0 0 0 0 0 0 224 224 224 224 225 224 224 225 224 224 223 223 223 223 223 223 223 224 225 225 0 223 223 223 223 223 222 221 221 222 221 221 221 223 223 223 223 224 224 224 224 223 223 223 223 222 222 221 221 220 220 220 220 220 221 221 221 221 221 222 223 223 223 222 223 223 223 223 222 221 221 221 221 221 222 221 222 222 222 223 223 223 222 222 222 222 222 223 222 223 223 223 223 223 223 223 223 223 222 222 221 221 221 220 221 220 220 221 219 221 219 219 220 220 220 220 219 220 219 220 220 219 219 219 219 221 220 220 220 220 219 220 219 220 218 219 219 219 219 219 219 219 219 220 219 219 219 220 221 219 219 219 220 220 219 219 219 219 218 219 219 219 215 217 217 217 216 217 218 217 217 219 218 219 219 219 219 219 219 219 219 220 219 217 218 218 217 217 217 217 217 217 220 219 220 220 219 219 219 218 216 215 214 215 215 216 216 217 217 217 218 219 217 0 0 216 217 216 215 216 216 217 217 216 216 217 217 221 220 223 221 221 219 219 217 218 217 219 218 217 217 217 217 219 217 215 0 0 0 0 0
    0 0 0 0 0 0 0 0 0 0 0 0 0 0 0 0 0 0 0 0 0 0 0 0 0 0 0 0 0 0 0 0 0 0 0 0 0 0 0 0 0 0 0 0 0 0 0 0 0 0 0 0 0 0 0 0 0 0 0 0 0 0 0 0 0 0 0 0 0 224 224 224 224 225 224 224 225 223 223 223 223 223 223 223 223 223 223 224 224 223 223 223 223 223 223 223 222 222 223 222 223 222 223 223 223 223 223 223 223 223 223 222 223 223 222 222 222 222 221 221 221 220 220 221 220 221 220 221 222 223 223 223 223 223 224 224 223 223 221 222 221 221 221 221 221 222 222 222 223 223 222 222 222 222 222 222 223 221 223 222 222 221 221 222 222 222 221 221 221 221 221 221 220 220 219 220 220 219 220 219 219 220 220 220 220 219 220 219 220 220 219 219 220 219 221 220 220 220 220 219 220 219 220 217 219 219 219 219 219 219 219 219 221 219 220 219 220 220 219 219 219 219 219 219 219 218 219 218 219 219 218 215 217 218 217 217 217 218 217 217 219 217 219 219 219 219 219 219 219 219 220 219 217 219 218 217 217 217 217 217 217 219 219 219 220 219 219 219 219 216 215 215 216 216 217 216 217 217 218 218 219 217 217 217 217 217 216 216 216 216 216 216 215 216 217 217 219 217 221 219 219 218 218 217 217 217 218 217 217 216 217 216 217 216 215 0 0 0 0 0
    0 0 0 0 0 0 0 0 0 0 0 0 0 0 0 0 0 0 0 0 0 0 0 0 0 0 0 0 0 0 0 0 0 0 0 0 0 0 0 0 0 0 0 0 0 0 0 0 0 0 0 0 0 0 0 0 0 0 0 0 0 0 0 0 0 0 0 0 0 224 224 224 224 225 224 223 225 223 224 223 223 223 223 0 223 223 223 223 223 223 223 223 223 223 223 223 223 223 224 223 223 223 223 223 223 223 223 223 223 223 222 222 223 222 222 222 222 221 221 221 221 220 221 221 221 221 221 222 223 223 224 224 224 224 225 225 224 223 221 222 221 221 221 221 221 222 222 221 222 222 222 222 222 222 222 222 223 221 222 222 221 221 221 221 221 221 221 221 221 220 221 220 219 219 219 219 220 219 220 219 220 220 220 220 220 219 220 220 220 220 219 219 220 220 221 220 220 220 220 219 220 219 219 217 219 219 219 219 219 219 219 219 220 219 219 219 219 219 219 218 218 219 219 218 219 218 219 218 219 219 218 215 217 218 217 217 217 218 217 217 219 217 218 219 219 219 219 219 219 219 221 219 217 219 218 217 217 217 217 217 217 219 218 219 219 219 219 219 219 217 217 216 217 217 217 217 219 218 219 219 219 218 218 218 217 217 217 217 217 217 217 216 215 215 216 215 217 215 217 216 217 217 217 216 217 217 218 217 217 215 215 215 215 214 0 0 0 0 0 0
    0 0 0 0 0 0 0 0 0 0 0 0 0 0 0 0 0 0 0 0 0 0 0 0 0 0 0 0 0 0 0 0 0 0 0 0 0 0 0 0 0 0 0 0 0 0 0 0 0 0 0 0 0 0 0 0 0 0 0 0 0 0 0 0 0 0 0 0 0 224 224 224 224 225 224 223 225 223 224 223 223 223 223 0 0 223 223 223 223 223 223 223 223 223 223 223 223 223 224 223 223 223 223 223 223 223 223 223 223 222 222 222 222 222 222 222 221 221 221 221 221 221 221 221 221 222 221 223 223 224 224 225 225 225 225 225 224 223 221 222 221 221 221 221 221 221 221 221 222 222 221 221 222 222 222 222 223 221 222 222 221 221 220 221 221 221 221 220 221 220 220 219 219 219 219 219 219 218 219 219 220 220 220 220 220 220 220 220 220 220 220 219 220 220 221 221 220 220 220 219 219 219 219 217 219 219 219 219 219 219 219 219 220 219 219 219 219 219 218 217 217 218 218 217 218 218 219 217 219 218 219 215 217 218 217 217 217 218 217 217 219 217 217 218 218 218 218 218 219 219 221 219 218 219 217 217 217 217 217 217 217 219 218 219 220 219 220 219 219 219 218 217 217 217 218 217 219 219 218 219 218 218 218 218 218 217 217 217 217 217 217 216 215 215 215 215 216 215 216 215 217 216 217 216 217 217 218 217 216 0 215 215 214 213 0 0 0 0 0 0
    0 0 0 0 0 0 0 0 0 0 0 0 0 0 0 0 0 0 0 0 0 0 0 0 0 0 0 0 0 0 0 0 0 0 0 0 0 0 0 0 0 0 0 0 0 0 0 0 0 0 0 0 0 0 0 0 0 0 0 0 0 0 0 0 0 0 0 0 0 223 224 224 223 224 223 223 224 223 223 223 222 222 222 0 0 223 223 223 223 223 223 223 223 223 223 223 223 223 223 223 223 223 222 222 222 222 222 222 223 222 222 222 222 222 222 222 221 221 221 221 221 221 221 221 222 222 223 224 224 223 224 224 225 224 225 225 223 223 221 222 221 221 221 221 221 221 222 221 221 222 221 221 221 221 221 221 222 221 221 221 220 221 220 221 221 221 221 220 221 220 219 219 219 219 218 219 219 218 219 219 219 220 220 220 220 220 220 220 220 220 220 220 221 221 221 221 221 220 221 219 219 219 219 217 219 219 219 219 220 220 220 219 221 219 220 219 220 219 219 217 217 217 218 217 217 218 219 217 219 219 219 215 218 218 217 217 217 218 217 217 219 217 217 217 218 218 218 217 218 218 220 219 218 219 0 217 218 217 216 217 217 219 219 219 220 219 220 219 219 219 218 218 218 217 218 217 218 218 217 218 217 217 218 219 219 218 217 217 217 217 217 215 215 215 215 215 217 215 0 216 217 217 0 216 217 217 218 217 216 0 215 215 214 213 213 0 0 0 0 0
    0 0 0 0 0 0 0 0 0 0 0 0 0 0 0 0 0 0 0 0 0 0 0 0 0 0 0 0 0 0 0 0 0 0 0 0 0 0 0 0 0 0 0 0 0 0 0 0 0 0 0 0 0 0 0 0 0 0 0 0 0 0 0 0 0 0 0 0 0 223 224 224 223 224 223 223 223 223 223 222 222 221 221 0 0 0 223 222 223 223 223 223 223 224 223 223 223 223 223 223 223 222 221 221 221 221 222 222 223 222 222 222 223 223 223 223 222 222 222 222 222 222 221 222 222 223 223 223 223 223 224 224 224 224 225 225 223 223 222 223 222 222 221 221 221 221 221 221 221 221 221 221 221 221 221 221 222 221 221 221 220 220 220 220 220 221 220 220 220 219 219 218 218 218 218 219 219 218 219 219 219 220 220 220 220 220 220 220 221 220 221 220 221 221 221 222 221 221 221 219 220 219 220 218 219 220 220 219 220 220 220 220 221 220 221 220 221 219 219 217 219 219 218 218 218 219 219 218 219 219 219 216 218 218 217 217 217 218 217 217 219 216 217 217 218 217 217 217 218 218 220 219 218 217 0 217 218 217 0 216 217 219 219 219 220 219 220 219 219 219 219 219 219 217 218 217 218 217 217 218 217 217 219 219 219 217 217 216 217 216 215 215 215 215 216 216 217 216 217 217 217 0 0 0 0 0 219 0 0 0 0 215 0 0 0 0 0 0 0 0
    0 0 0 0 0 0 0 0 0 0 0 0 0 0 0 0 0 0 0 0 0 0 0 0 0 0 0 0 0 0 0 0 0 0 0 0 0 0 0 0 0 0 0 0 0 0 0 0 0 0 0 0 0 0 0 0 0 0 0 0 0 0 0 0 0 0 0 0 0 223 224 224 223 224 223 223 223 223 223 221 221 221 221 221 0 0 0 222 223 223 223 223 223 223 223 223 223 223 223 223 223 223 222 221 222 221 222 222 223 222 222 222 223 223 224 224 223 223 223 223 223 222 222 222 222 223 223 224 223 223 224 224 224 224 225 224 223 223 223 223 222 223 221 221 221 221 221 221 221 221 221 221 221 221 221 221 222 221 221 221 221 220 220 220 220 220 220 219 219 219 219 218 218 218 217 218 218 218 218 218 219 219 220 220 220 220 220 220 221 220 221 221 221 221 221 221 221 221 221 220 220 219 220 218 220 220 220 219 220 220 220 219 221 220 221 220 221 219 220 218 219 219 218 218 218 219 219 218 218 219 219 216 218 218 217 217 217 218 217 217 219 216 217 217 217 217 217 217 217 217 220 218 218 217 0 217 218 217 0 0 217 218 218 219 220 219 221 219 219 219 218 219 219 217 218 217 219 218 219 219 218 218 219 219 219 217 217 216 217 216 215 215 215 215 216 216 217 217 217 217 217 0 0 0 0 0 217 0 0 0 0 0 0 0 0 0 0 0 0 0</data></depth>
</opencv_storage>
