<?xml version="1.0"?>
<opencv_storage>
<gps_time_stamp>20292</gps_time_stamp>
<gps_x>-1.4063541889190674e+000</gps_x>
<gps_y>7.0391103625297546e-002</gps_y>
<gps_z>1.2244910933077335e-002</gps_z>
<image_time_stamp>8264</image_time_stamp>
<depth type_id="opencv-matrix">
  <rows>85</rows>
  <cols>320</cols>
  <dt>s</dt>
  <data>
    0 0 0 0 0 0 0 0 0 0 0 0 0 0 0 0 0 0 0 0 0 0 0 0 0 0 0 0 0 0 0 0 0 0 0 0 0 0 0 0 0 0 0 0 0 0 0 0 0 0 0 0 0 0 0 0 0 0 0 0 0 0 0 0 0 0 0 0 0 1839 1711 1711 1711 1672 1711 1711 1711 1672 1672 1711 1672 1711 1752 1711 1711 1672 1672 1672 1635 1672 1635 1635 1635 1635 1672 1635 1672 1672 1672 1672 1711 1711 1711 1711 1752 1711 1711 1672 1635 1599 1565 1599 1599 1599 1635 1635 1672 1711 1711 1711 1672 1635 1672 1672 1672 1672 1711 1672 1672 1672 1672 1635 1711 1711 1711 1711 1711 1711 1711 1752 1711 1565 1635 1443 1314 1314 1291 1314 1268 1268 1268 1247 1247 1291 1291 1291 1268 1314 1268 1314 1314 1338 1338 1314 1314 1388 1388 1565 1599 1672 1635 1711 1672 1672 1672 1711 1672 1711 1672 1711 1672 1711 1635 1672 1672 1635 1711 1752 1711 1711 1711 1752 1672 1672 1672 1443 1471 1501 1415 1443 1443 1443 1415 1388 0 1291 1268 0 0 0 1247 1247 1226 1314 1314 1362 1338 1247 1066 994 994 981 968 981 981 968 968 968 994 897 3504 3199 2943 0 766 0 0 735 758 721 758 758 766 791 791 817 0 0 0 1471 1599 1599 1599 1565 1599 1565 1501 1501 1565 1471 1415 1471 1415 1415 1388 1388 0 0 0 0 0 553 579 570 593 593 598 593 588 593 0 0 0 865 0 0 0 0 100 593 579 574 579 574 566 549 545 537 518 507 533 529 541 541 549 549 0 0 484 487 0 0 1082 1082 1115 0 0 0 0 0
    0 0 0 0 0 0 0 0 0 0 0 0 0 0 0 0 0 0 0 0 0 0 0 0 0 0 0 0 0 0 0 0 0 0 0 0 0 0 0 0 0 0 0 0 0 0 0 0 0 0 0 0 0 0 0 0 0 0 0 0 0 0 0 0 0 0 0 0 0 1795 1672 1711 1672 1635 1672 1672 1672 1672 1672 1711 1672 1711 1711 1711 1711 1672 1672 1672 1599 1635 1599 1599 1599 1599 1635 1599 1599 1599 1635 1599 1672 1672 1672 1672 1672 1635 1672 1599 1565 1501 1533 1565 1565 1599 1599 1599 1635 1711 1672 1672 1672 1599 1635 1635 1635 1672 1672 1672 1635 1672 1635 1599 1672 1672 1672 1672 1672 1711 1672 1711 1752 1565 1672 1443 0 1314 1291 1291 1268 1268 1268 1247 1226 1291 1268 1291 1247 1291 1268 1291 1314 1338 1314 1314 1314 1388 1388 1533 1599 1672 1635 1672 1672 1672 1672 1672 1635 1672 1635 1672 1672 1711 1635 1672 1635 1635 1711 1752 1711 1711 1711 1752 1672 1635 1672 1443 1471 1501 1415 1443 1415 1443 0 1388 0 0 0 0 0 0 1268 1268 1247 1443 1415 1388 1362 1268 1051 955 981 981 955 968 968 955 943 955 994 919 0 3066 2537 0 782 0 0 743 774 721 758 758 766 791 791 808 817 817 0 1415 1565 1599 1599 1635 1635 1599 1501 1533 1565 1471 1443 1501 1443 1443 1415 1415 1338 1388 0 0 0 0 584 570 588 598 598 598 593 603 0 0 0 0 0 0 0 0 100 584 574 570 570 574 570 553 549 541 525 525 533 533 537 537 541 541 0 0 481 490 490 0 477 0 0 0 0 0 0 0
    0 0 0 0 0 0 0 0 0 0 0 0 0 0 0 0 0 0 0 0 0 0 0 0 0 0 0 0 0 0 0 0 0 0 0 0 0 0 0 0 0 0 0 0 0 0 0 0 0 0 0 0 0 0 0 0 0 0 0 0 0 0 0 0 0 0 0 0 0 1752 1599 1672 1635 1599 1635 1672 1672 1672 1635 1711 1672 1711 1711 1672 1672 1635 1635 1635 1599 1635 1599 1599 1599 1599 1599 1565 1599 1565 1599 1599 1635 1635 1635 1635 1635 1599 1599 1501 1501 1471 1501 1533 1533 1565 1565 1599 1635 1672 1635 1635 1635 1599 1635 1599 1635 1635 1635 1635 1635 1635 1599 1533 1635 1635 1635 1635 1672 1672 1672 1711 1752 1565 1635 1443 0 1314 1291 1314 1268 1268 1268 1247 1247 1291 1291 1338 1268 1338 1291 1314 1338 1338 1338 1314 1338 1388 1415 1533 1635 1635 1599 1672 1672 1672 1635 1672 1635 1672 1635 1672 1672 1711 1635 1672 1672 1635 1711 1752 1711 1711 1711 1752 1635 1635 1672 1443 1471 1471 1415 1443 1415 1471 1415 1415 0 0 0 0 0 0 1268 1291 1268 1565 1471 1415 1388 1314 1082 968 994 981 955 968 968 955 943 943 994 943 955 2102 1887 1388 876 0 0 758 782 721 766 766 766 782 791 799 0 817 1022 1415 1565 1565 1599 1635 1635 1599 1501 1533 1565 1471 1443 1501 1443 1443 1415 1443 1362 1388 0 0 0 0 588 570 593 598 603 598 598 0 0 0 0 0 0 0 0 0 0 579 570 574 566 574 570 553 549 549 529 529 533 533 537 537 541 541 541 0 484 500 500 0 487 484 468 0 0 0 0 0
    0 0 0 0 0 0 0 0 0 0 0 0 0 0 0 0 0 0 0 0 0 0 0 0 0 0 0 0 0 0 0 0 0 0 0 0 0 0 0 0 0 0 0 0 0 0 0 0 0 0 0 0 0 0 0 0 0 0 0 0 0 0 0 0 0 0 0 0 0 1672 1501 1565 1565 1533 1599 1599 1635 1635 1599 1672 1672 1672 1672 1635 1635 1599 1599 1635 1599 1635 1599 1599 1565 1565 1599 1533 1565 1565 1565 1599 1599 1635 1599 1599 1599 1565 1565 1471 1471 1443 1471 1471 1501 1533 1565 1565 1599 1635 1599 1599 1635 1599 1599 1599 1599 1599 1599 1635 1599 1599 1565 1501 1599 1599 1635 1635 1635 1635 1635 1672 1752 1533 1635 1471 1338 1338 1314 1314 1291 1314 1291 1268 1268 1338 1338 1362 1291 1338 1314 1314 1362 1362 1362 1338 1362 1415 1415 1501 1599 1599 1599 1635 1635 1635 1635 1672 1635 1672 1635 1635 1672 1672 1635 1672 1672 1635 1711 1752 1711 1711 1711 1752 1635 1635 1635 1415 1471 1471 1415 1443 1415 1443 1415 1415 0 0 0 0 77 0 1291 1291 1291 1599 1501 1415 1388 1314 1098 955 981 0 0 955 955 943 931 919 994 943 0 1839 1711 1338 0 0 0 774 791 728 766 766 766 782 782 0 0 0 1115 1443 1565 1565 1599 1635 1635 1635 1471 1533 1565 1501 1443 1501 1443 1443 1415 1443 1362 1415 0 0 0 0 598 584 593 603 608 608 603 0 0 0 0 0 0 0 0 0 588 574 566 570 561 570 561 549 549 541 529 529 529 533 533 533 533 529 529 504 484 500 500 0 490 487 471 0 0 0 0 0
    0 0 0 0 0 0 0 0 0 0 0 0 0 0 0 0 0 0 0 0 0 0 0 0 0 0 0 0 0 0 0 0 0 0 0 0 0 0 0 0 0 0 0 0 0 0 0 0 0 0 0 0 0 0 0 0 0 0 0 0 0 0 0 0 0 0 0 0 0 1533 1388 1471 1471 1471 1565 1565 1599 1599 1533 1635 1599 1599 1599 1565 1599 1533 1565 1599 1565 1599 1565 1599 1565 1565 1565 1501 1533 1501 1533 1533 1533 1565 1565 1565 1565 1501 1501 1415 1415 1443 1471 1471 1501 1501 1533 1533 1599 1635 1565 1565 1599 1599 1599 1599 1599 1599 1599 1635 1599 1599 1533 1471 1565 1565 1599 1599 1599 1635 1599 1672 1711 1533 1635 1471 1338 1338 1314 1314 1314 1314 1314 1268 1268 1338 1338 1362 1314 1362 1338 1338 1388 1388 1362 1362 1388 1415 1443 1501 1599 1533 1565 1635 1635 1635 1635 1635 1635 1635 1635 1635 1635 1635 1635 1635 1672 1599 1672 1711 1711 1672 1711 1711 1599 1599 1635 1415 1471 1501 1415 1443 1415 1443 1415 1415 0 0 0 0 77 0 1291 1314 1291 1599 1501 1415 1388 1338 1115 0 0 170 169 0 955 943 931 919 994 931 943 1752 1672 1362 0 0 0 791 799 728 766 766 766 774 774 0 0 0 0 1533 1533 1599 1565 1672 1635 1635 1443 1533 1565 1501 1471 1501 1443 1443 1415 1443 1362 1415 0 0 0 0 0 0 598 613 613 613 608 0 0 0 0 0 0 0 0 598 579 566 557 561 549 553 545 537 541 529 529 529 529 533 533 529 533 529 529 511 493 507 507 490 504 497 477 0 0 0 0 0
    0 0 0 0 0 0 0 0 0 0 0 0 0 0 0 0 0 0 0 0 0 0 0 0 0 0 0 0 0 0 0 0 0 0 0 0 0 0 0 0 0 0 0 0 0 0 0 0 0 0 0 0 0 0 0 0 0 0 0 0 0 0 0 0 0 0 0 0 0 1362 1338 1388 1388 1415 1501 1501 1533 1533 1443 1533 1443 1415 1415 1415 1443 1443 1471 1501 1471 1501 1501 1501 1471 1471 1443 1415 1443 1443 1471 1471 1471 1471 1443 1443 1443 1415 1415 1388 1388 1415 1443 1443 1471 1471 1471 1501 1533 1599 1533 1533 1599 1565 1599 1565 1599 1565 1565 1599 1565 1533 1471 1443 1533 1533 1565 1565 1565 1599 1565 1635 1672 1471 1635 1471 0 1338 1314 1314 1291 1291 1291 1247 1247 1291 1314 1338 1314 1338 1362 1338 1388 1388 1362 1362 1388 1415 1443 1471 1565 1471 1501 1599 1635 1599 1635 1635 1599 1599 1635 1599 1635 1599 1635 1599 1635 1565 1599 1672 1635 1599 1635 1672 1501 1565 1599 1415 1471 1471 1415 1443 1415 1443 1415 1415 0 0 0 0 0 0 1291 1314 1291 1565 1501 1415 1362 1314 1115 0 0 0 169 0 955 955 931 919 994 943 0 1711 1672 1362 0 0 0 791 799 728 774 766 766 774 774 0 0 0 0 1533 1533 1533 1565 1635 1635 1599 1443 1501 1565 1533 1471 1501 1471 1443 1388 1415 1338 1388 0 0 0 0 0 0 603 613 618 613 613 639 645 0 0 0 603 0 0 584 570 557 553 557 545 549 541 533 541 529 533 529 529 533 533 533 533 529 537 521 507 518 511 497 504 504 487 0 0 0 0 0
    0 0 0 0 0 0 0 0 0 0 0 0 0 0 0 0 0 0 0 0 0 0 0 0 0 0 0 0 0 0 0 0 0 0 0 0 0 0 0 0 0 0 0 0 0 0 0 0 0 0 0 0 0 0 0 0 0 0 0 0 0 0 0 0 0 0 0 0 0 1314 1291 1338 1338 1362 1443 1415 1443 1443 1362 1388 1314 1291 1291 1291 1338 1338 1362 1362 1362 1388 1388 1415 1388 1362 1362 1338 1362 1362 1388 1388 1362 1362 1338 1338 1338 1314 1338 1338 1362 1388 1388 1415 1415 1415 1415 1415 1471 1501 1443 1471 1565 1501 1565 1533 1565 1533 1533 1533 1501 1471 1443 1415 1471 1471 1501 1501 1501 1533 1471 1565 1599 1415 1599 1443 0 1314 1291 1291 1268 1268 1268 1247 1226 1291 1291 1314 1338 1338 1362 1362 1388 1388 1388 1362 1388 1415 1443 1471 1565 1415 1471 1533 1599 1565 1599 1599 1599 1599 1599 1599 1635 1599 1635 1599 1599 1533 1533 1565 1501 1501 1501 1501 1415 1443 1501 1362 1471 1471 1415 1443 1415 1443 1415 1388 0 0 76 0 0 0 1314 1314 1291 1501 1443 1388 1338 1314 1115 0 0 0 169 955 955 955 943 931 1008 981 0 1501 1501 1338 1051 0 0 808 808 728 774 774 774 782 782 791 0 0 0 1565 1565 1533 1533 1599 1565 1565 1471 1501 1565 1533 1501 1533 1501 1443 1362 1362 1314 1362 0 0 0 0 0 0 608 618 623 613 618 639 639 651 0 629 598 593 588 579 566 553 553 557 545 549 537 529 537 525 533 529 529 533 533 529 537 533 541 525 511 514 500 493 497 500 493 0 0 0 0 0
    0 0 0 0 0 0 0 0 0 0 0 0 0 0 0 0 0 0 0 0 0 0 0 0 0 0 0 0 0 0 0 0 0 0 0 0 0 0 0 0 0 0 0 0 0 0 0 0 0 0 0 0 0 0 0 0 0 0 0 0 0 0 0 0 0 0 0 0 0 1268 1268 1314 1314 1338 1388 1362 1388 1362 1338 1314 1268 1226 1226 1247 1268 1268 1291 1291 1291 1291 1291 1338 0 1291 1268 1268 1291 1268 1314 1314 1291 1291 1268 1268 1268 1268 1291 1291 1291 1338 1338 1362 1388 1362 1338 1338 1362 1388 1362 1415 0 1443 1533 1533 1533 1533 1501 1501 1471 1415 1388 1362 1415 1415 1415 1415 1415 1443 1415 1443 1443 1338 1471 1388 0 1268 1268 1268 1268 1268 1268 1226 1226 1268 1291 1291 1338 1338 1362 1362 1388 1388 1388 1362 1388 1388 1415 1443 1533 1388 1443 1471 1565 1501 1565 1565 1565 1565 1565 1565 1599 1565 1599 1599 1565 1471 1443 1443 1415 1388 1388 1362 1338 1388 1415 1338 1443 1443 1388 1415 1415 1415 1388 1362 0 1291 0 0 0 0 1291 1291 1291 1443 1415 1362 1314 1314 1098 0 0 0 0 955 955 955 943 931 1008 1008 0 1388 1388 1338 1082 0 0 808 808 735 774 774 774 782 782 791 774 774 826 1599 1565 1501 1501 1565 1533 1565 1501 1501 1599 1533 1533 1533 1533 1443 1338 1338 1314 1362 0 0 86 0 0 0 608 613 618 608 608 634 629 634 0 613 588 588 584 570 561 553 553 557 545 545 537 525 537 529 533 533 533 537 533 533 541 537 541 529 514 511 500 493 490 497 497 0 0 0 0 0
    0 0 0 0 0 0 0 0 0 0 0 0 0 0 0 0 0 0 0 0 0 0 0 0 0 0 0 0 0 0 0 0 0 0 0 0 0 0 0 0 0 0 0 0 0 0 0 0 0 0 0 0 0 0 0 0 0 0 0 0 0 0 0 0 0 0 0 0 0 1247 1247 1291 1268 1291 1338 1338 1338 1314 1291 1268 1247 1187 1187 1226 1226 1226 1247 1247 1247 1226 1247 1268 1247 1247 1226 1226 1247 1226 1291 1268 1247 1247 1247 1226 1247 1247 1268 1268 1268 1314 1314 1338 1362 1338 1268 1291 1268 1291 1291 0 0 0 1443 1443 1501 1471 1443 1443 1388 1338 1338 1338 1338 1362 1362 1362 1362 1362 1362 1362 1338 1291 1388 1338 1247 1247 1226 1226 1247 1247 1247 1226 1226 1268 1291 1291 1388 1338 1362 1362 1388 1388 1362 1362 1388 1388 1415 1388 1471 1362 1388 1415 1471 1415 1501 1471 1471 1501 1501 1501 1533 1471 1565 1501 1501 1415 1388 1388 1338 1314 1291 1291 1291 1314 1362 1314 1415 1388 1388 1415 1388 1388 1362 1338 1314 1268 1268 1268 1247 1268 1268 1268 1291 1415 1388 1338 1291 1314 1082 968 0 0 955 955 955 968 943 943 1036 1036 1314 1362 1362 1314 1082 0 0 808 808 735 774 774 782 782 782 791 782 774 0 1599 1565 1471 1443 1501 1471 1501 1501 1501 1635 1533 1565 1533 1533 1415 1314 1314 1314 1338 0 86 86 0 0 0 608 613 613 608 608 623 0 623 0 608 579 579 579 566 557 549 549 557 545 0 533 525 537 0 0 0 0 533 529 525 537 533 537 521 504 500 493 490 493 504 507 0 0 0 0 0
    0 0 0 0 0 0 0 0 0 0 0 0 0 0 0 0 0 0 0 0 0 0 0 0 0 0 0 0 0 0 0 0 0 0 0 0 0 0 0 0 0 0 0 0 0 0 0 0 0 0 0 0 0 0 0 0 0 0 0 0 0 0 0 0 0 0 0 0 0 1206 1226 1226 1226 1226 1268 1247 1247 1226 1226 1206 1206 1168 1149 1187 1206 1206 1206 1206 1226 1206 1226 1247 1226 1226 1206 1187 1206 1187 1247 1247 1226 1226 1206 1206 1226 1226 1247 1247 1268 1291 1291 1314 1338 1291 1247 1247 1226 1247 1247 1268 0 0 1388 1415 1443 1443 1388 1388 1338 1291 1291 1291 1291 1314 1291 1314 1314 1314 1314 1314 1291 1247 1314 1291 1226 1206 1226 1226 1247 1247 1247 1226 1226 1268 1314 1314 1415 1362 1388 1362 1388 1388 1362 1362 1388 1362 1388 1362 1388 1314 1338 1362 1388 1362 1415 1388 1388 1415 1443 1415 1443 1415 1471 1443 1443 1362 1314 1314 1291 1247 1247 1247 1226 1268 1291 1291 1362 1362 1362 1388 1388 1388 1338 1314 1291 1247 1226 1247 1226 1247 1247 1268 1291 1362 1362 1314 1268 1291 1066 955 981 968 955 955 943 968 955 943 1051 1051 1314 1338 1314 1314 1082 886 0 817 817 735 774 774 782 782 782 791 782 774 826 1635 1565 1471 1443 1501 1443 1471 1443 1415 1443 1415 1415 1415 1443 1388 1247 1247 1314 1338 0 0 0 0 0 0 603 613 613 603 608 618 0 618 593 603 574 579 574 561 557 549 549 0 0 0 533 521 0 0 0 0 0 0 0 0 0 0 541 521 507 497 490 490 493 504 507 0 0 0 0 0
    0 0 0 0 0 0 0 0 0 0 0 0 0 0 0 0 0 0 0 0 0 0 0 0 0 0 0 0 0 0 0 0 0 0 0 0 0 0 0 0 0 0 0 0 0 0 0 0 0 0 0 0 0 0 0 0 0 0 0 0 0 0 0 0 0 0 0 0 0 1168 1168 1187 1168 1168 1226 1168 1149 1168 1187 1149 1168 1149 1132 1168 1168 1168 1187 1187 1187 1168 1187 1206 1168 1187 1168 1149 1149 1115 1206 1187 1168 1187 1187 1187 1206 1206 1247 1226 1247 1268 1247 1291 1291 1268 1187 1206 1187 1206 1206 1226 1247 1268 1314 1362 1388 1415 1362 1338 1291 1226 1247 1247 1247 1268 1268 1268 1268 1268 1291 1268 1268 1226 1268 1247 1206 1187 1226 1206 1247 1247 1247 1247 1247 1268 1338 1338 1443 1362 1388 1362 1388 1388 1362 1362 1362 1338 1362 1338 1362 1291 1314 1338 1338 1338 1362 1338 1338 1362 1388 1362 1388 1388 1415 1415 1415 1338 1291 1268 1247 1187 1206 1206 1206 1226 1268 1268 1338 1338 1362 1362 1362 1338 1314 1268 1247 1206 1187 1206 1187 1206 1247 1226 1268 1314 1338 1291 1247 1268 1066 955 981 968 955 955 955 968 955 955 1082 1082 1291 1314 1291 1291 1082 919 0 817 817 735 774 774 774 782 782 791 774 774 826 1635 1533 1443 1415 1471 1388 1388 1362 1314 1314 1314 1291 1291 1338 1338 1206 1187 1226 1268 0 0 0 0 0 0 0 608 608 603 608 618 613 618 593 603 570 579 570 557 553 545 545 0 0 0 529 0 0 1226 1187 1149 0 0 0 0 0 0 0 0 511 493 484 0 0 0 0 0 0 0 0 0
    0 0 0 0 0 0 0 0 0 0 0 0 0 0 0 0 0 0 0 0 0 0 0 0 0 0 0 0 0 0 0 0 0 0 0 0 0 0 0 0 0 0 0 0 0 0 0 0 0 0 0 0 0 0 0 0 0 0 0 0 0 0 0 0 0 0 0 0 0 1115 1149 1149 1132 1149 1187 1149 1115 1149 1168 1149 1168 1132 1132 1149 1149 1149 1149 1149 1168 1132 1168 1168 1132 1149 1098 1098 1082 1082 1168 1132 1132 1168 1149 1168 1187 1187 1226 1187 1206 1226 1187 1226 1168 1168 1115 1149 1132 1168 1168 1168 1206 1226 1247 1291 1314 1362 1314 1268 1247 1168 1206 1206 1226 1226 1226 1226 1247 1247 1268 1247 1247 1206 1247 1226 1187 1168 1206 1206 1226 1226 1247 1226 1247 1268 1338 1314 1415 1338 1388 1362 1388 1362 1338 1338 1362 1338 1338 1314 1338 1291 0 1314 1291 1291 1314 1291 1291 1314 1314 1314 1338 1338 1362 1362 1362 1314 1247 1247 1226 1168 1187 1187 1187 1206 1226 1247 1291 1291 1314 1338 1314 1291 1268 1226 1226 1206 1168 1187 1187 1206 1226 1226 1268 1314 1314 1268 1206 1206 1051 955 981 968 968 968 968 981 968 968 1149 1132 1268 1268 1268 1268 1098 981 0 808 808 735 774 766 766 774 782 791 774 774 817 0 1471 1388 1388 1388 1338 1314 1291 1247 1247 1247 1247 1226 1314 1291 1168 1132 1149 1226 0 0 0 0 0 0 0 608 608 603 603 613 608 613 593 603 570 579 570 557 553 545 0 0 0 0 529 0 0 1226 1206 1168 1187 1132 1115 0 0 0 0 0 0 0 0 0 0 0 0 0 0 0 0 0
    0 0 0 0 0 0 0 0 0 0 0 0 0 0 0 0 0 0 0 0 0 0 0 0 0 0 0 0 0 0 0 0 0 0 0 0 0 0 0 0 0 0 0 0 0 0 0 0 0 0 0 0 0 0 0 0 0 0 0 0 0 0 0 0 0 0 0 0 0 1082 1115 1132 1115 1115 1149 1132 1115 1115 1149 1115 1132 1115 1115 1132 1115 1132 1149 1149 1149 1132 1149 1149 1115 1149 1082 1082 1066 1066 1132 1098 1115 1149 1132 1168 1168 1187 1206 1168 1187 1206 1149 1168 1115 1098 1098 1115 1098 1115 1132 1115 1149 1168 1168 1206 1206 1268 1206 1187 1187 1115 1168 1168 1187 1187 1187 1187 1206 1187 1226 1187 1206 1168 1187 1187 1168 1132 1187 1168 1187 1187 1206 1206 1206 1226 1291 1268 1388 1338 1338 1338 1338 1338 1314 1314 1314 1291 1291 1268 1268 1247 1247 1268 1247 1247 1247 1247 1247 1247 1268 1268 1291 1291 1291 1291 1338 1291 1226 1247 1206 1149 1187 1168 1168 1187 1206 1226 1247 1268 1291 1291 1291 1268 1268 1206 1206 1187 1168 1187 1187 1206 1226 1206 1247 1291 1268 1206 1149 1149 1036 955 981 981 981 968 968 981 981 981 1168 1149 1247 1226 1247 1226 1098 1022 0 817 817 735 782 774 774 774 782 791 774 774 817 0 1415 1338 1338 1314 1291 1247 1247 1226 1206 1206 1206 1187 1268 1268 1149 1115 1098 1187 0 0 0 603 588 0 0 603 603 598 598 603 603 608 588 598 570 579 570 553 553 0 0 0 0 0 529 0 0 1226 1206 1187 1206 1168 1187 1168 1098 1149 1082 1132 1115 0 0 0 0 0 0 0 0 0 0 0
    0 0 0 0 0 0 0 0 0 0 0 0 0 0 0 0 0 0 0 0 0 0 0 0 0 0 0 0 0 0 0 0 0 0 0 0 0 0 0 0 0 0 0 0 0 0 0 0 0 0 0 0 0 0 0 0 0 0 0 0 0 0 0 0 0 0 0 0 0 1036 1066 1066 1066 1066 1082 1066 1066 1082 1115 1082 1098 1082 1082 1115 1098 1115 1132 1132 1149 1115 1149 1149 1115 1149 1082 1082 1066 1051 1115 1082 1098 1132 1115 1168 1168 1187 1206 1168 1187 1206 1149 1149 1098 1082 1082 1098 1082 1098 1098 1098 1098 1115 1115 1132 1115 1132 1115 1098 1132 1082 1149 1132 1132 1149 1149 1149 1149 1149 1187 1132 1168 1149 1149 1149 1149 1115 1149 1149 1168 1168 1187 1187 1206 1187 1268 1247 1314 1291 1291 1291 1268 1268 1247 1247 1247 1226 1226 1226 1226 1206 1168 1226 1168 1187 1187 1206 1206 1206 1206 1226 1226 1247 1247 1268 1268 1247 1206 1247 1206 1149 1187 1168 1168 1168 1187 1206 1206 1226 1268 1268 1268 1247 1226 1187 1187 1187 1168 1187 1168 1187 1206 1206 1247 1268 1226 1168 1115 1115 1036 968 994 981 981 981 981 994 981 994 1132 1149 1247 1226 1226 1206 1098 1036 0 0 817 743 791 782 774 782 782 799 782 782 826 0 1338 1268 1291 1268 1268 1226 1226 1187 1187 1168 1168 1149 1226 1226 1149 1098 1082 0 0 0 598 598 579 0 0 598 598 593 593 598 598 603 584 593 566 574 570 553 553 0 0 0 0 0 529 0 1247 1226 1206 1168 1206 1168 1187 1206 1132 1187 1098 1149 1115 1098 1115 1098 0 178 177 0 0 0 0 0
    0 0 0 0 0 0 0 0 0 0 0 0 0 0 0 0 0 0 0 0 0 0 0 0 0 0 0 0 0 0 0 0 0 0 0 0 0 0 0 0 0 0 0 0 0 0 0 0 0 0 0 0 0 0 0 0 0 0 0 0 0 0 0 0 0 0 0 0 0 994 994 1008 1022 1008 1022 1022 1022 1051 1066 1051 1066 1051 1051 1082 1066 1098 1115 1115 1132 1098 1132 1149 1098 1132 1051 1066 1051 1051 1098 1066 1082 1098 1098 1149 1132 1149 1187 1149 1149 1168 1115 1098 1066 1066 1066 1082 1082 1082 1082 1082 1098 1098 1098 1098 1082 1066 1066 1066 1082 1066 1115 1098 1098 1115 1115 1132 1132 1132 1168 1115 1149 1132 1132 1115 1132 1098 1132 1132 1149 1132 1149 1168 1187 1168 1247 1226 1268 1226 1206 1226 1187 1206 1168 1187 1168 1168 1168 1168 1168 1149 1115 1168 1115 1149 1132 1149 1149 1149 1149 1187 1187 1206 1206 1226 1247 1226 1187 1247 1206 1132 1168 1149 1149 1149 1168 1187 1168 1168 1226 1206 1206 1187 1187 1168 1187 1168 1168 1168 1149 1187 1187 1187 1226 1206 1149 1115 1082 1082 1022 981 994 981 994 994 994 994 994 994 1066 1082 1206 1187 1187 1168 1082 1022 1008 836 826 766 799 791 791 791 791 808 799 799 826 0 1247 1226 1226 1206 1226 1187 1206 1187 1168 1132 1132 1115 1206 1206 1149 1066 0 0 0 0 593 598 570 0 0 588 593 588 588 593 588 598 579 588 561 570 566 553 549 0 0 229 0 0 529 0 1226 1206 1187 1168 1206 1168 1187 1206 1115 1187 1098 1168 1132 1115 1115 1098 1098 0 0 0 0 0 0 0
    0 0 0 0 0 0 0 0 0 0 0 0 0 0 0 0 0 0 0 0 0 0 0 0 0 0 0 0 0 0 0 0 0 0 0 0 0 0 0 0 0 0 0 0 0 0 0 0 0 0 0 0 0 0 0 0 0 0 0 0 0 0 0 0 0 0 0 0 0 943 897 919 886 897 955 968 968 1022 1036 1008 1022 1022 1022 1051 1036 1082 1082 1098 1115 1082 1115 1115 1051 1082 1008 1008 1022 1022 1051 1051 1066 1066 1066 1115 1098 1115 0 0 0 0 1051 1051 1022 1036 1051 1082 1066 1066 1082 1082 1082 1082 1066 1066 1051 1022 1022 1022 1051 1036 1082 1082 1082 1082 1098 1098 1115 1098 1149 1082 1132 1115 1115 1098 1132 1098 1115 1115 1132 1098 1115 1132 1168 1132 1247 1187 1226 1187 1149 1168 1115 1149 1098 1132 1115 1115 1115 1115 1132 1115 1082 1149 1082 1132 1132 1132 1132 1132 1132 1168 1168 1187 1187 1206 1206 1206 1149 1226 1206 1132 1168 1149 1149 1132 1132 1168 1115 1132 1168 1149 1149 1149 1149 1132 1149 1149 1132 1149 1115 1132 1132 1115 1168 1082 1051 1051 968 1008 981 968 994 981 994 994 994 1008 994 1008 1022 1036 1168 1132 1149 1115 1066 994 865 826 826 782 808 799 791 791 799 0 0 817 845 943 1149 1149 1168 1132 1168 1149 1187 1187 1168 1132 1132 1115 1187 1187 1132 1036 897 0 0 0 598 603 561 0 0 584 588 584 584 584 584 593 574 584 557 570 561 549 0 0 0 228 227 0 529 0 1187 1168 1149 1149 1168 1149 1168 1187 1098 1168 1098 1168 1132 1115 1115 1115 1115 1115 1098 0 0 0 0 0
    0 0 0 0 0 0 0 0 0 0 0 0 0 0 0 0 0 0 0 0 0 0 0 0 0 0 0 0 0 0 0 0 0 0 0 0 0 0 0 0 0 0 0 0 0 0 0 0 0 0 0 0 0 0 0 0 0 0 0 0 0 0 0 0 0 0 0 0 0 886 845 855 836 845 876 886 855 836 994 931 943 955 919 0 0 0 1036 0 1098 1066 1066 1098 1022 1036 955 943 981 981 1022 1022 1036 1036 0 0 1051 0 0 0 0 0 0 876 908 1008 1036 1051 1051 1051 1066 1051 1066 1051 0 0 0 931 0 826 0 817 0 1051 1051 1051 1066 1082 1082 1082 1115 1066 1098 1082 1082 1066 1082 1066 1082 1082 1082 1051 1066 1082 1098 1082 1187 1098 1168 1115 1132 1149 1098 1115 1082 1098 1098 1082 1082 1098 1098 1098 1066 1115 1066 1098 1098 1098 1098 1115 1115 1132 1115 1149 1149 1168 1187 1206 1132 1226 1206 1132 1149 1132 1132 1115 1115 1149 1098 1098 1132 1098 1098 1098 1115 1098 1098 1115 1115 1132 1098 1098 1082 1066 1051 994 876 817 817 908 908 919 968 955 981 981 981 994 994 1008 1008 981 1082 1051 1066 1051 1022 908 845 826 826 799 817 808 799 799 799 808 808 817 826 0 1051 1051 1051 1051 1082 1082 1149 1149 1149 1149 1132 1115 1168 1132 1115 1036 908 0 0 0 0 0 0 0 0 584 588 584 588 0 584 593 579 584 557 566 561 0 0 0 0 228 227 229 529 0 1132 1132 1115 1132 1132 1132 1149 1187 1098 1149 1098 1149 1115 1115 1115 1115 1115 1132 1115 0 0 0 0 0
    0 0 0 0 0 0 0 0 0 0 0 0 0 0 0 0 0 0 0 0 0 0 0 0 0 0 0 0 0 0 0 0 0 0 0 0 0 0 0 0 0 0 0 0 0 0 0 0 0 0 0 0 0 0 0 0 0 0 0 0 0 0 0 0 0 0 0 0 0 876 836 845 826 826 845 845 826 808 897 865 845 836 836 817 817 0 0 817 0 0 0 0 994 1022 919 876 955 955 994 968 1008 931 0 0 0 799 791 799 791 808 817 826 836 908 0 1036 1022 1022 1036 0 0 0 0 0 0 836 808 808 808 799 799 0 845 919 1036 1036 1036 1036 1051 1022 1051 1022 1022 1036 1036 1022 1051 1036 1051 0 0 1022 1022 1036 0 994 0 0 1082 1115 1082 1082 1066 1082 1066 1066 1066 1066 1066 1066 1051 1082 1036 1051 1066 1066 1066 1082 1082 1082 1082 1115 1115 1132 1149 1187 1098 1206 1187 1098 1132 1115 1115 1098 1098 1115 1066 1066 1098 1066 1066 1066 1082 1066 1066 1098 1082 1098 1066 1051 1022 994 943 845 817 791 791 836 855 865 955 943 968 981 981 994 981 994 981 919 1008 845 908 943 908 865 836 826 826 817 826 817 799 799 799 808 799 817 817 774 1008 1022 1022 1022 1036 1051 1098 1115 1115 1115 1115 1115 1132 1115 1098 1036 908 0 0 0 0 608 557 0 0 0 593 0 0 0 0 598 588 584 0 0 0 227 229 229 230 229 229 230 0 1066 1098 1098 1098 1115 1115 1115 1132 1168 1098 1132 1082 1149 1115 1115 1115 1098 1115 1115 1098 0 0 0 0 0
    0 0 0 0 0 0 0 0 0 0 0 0 0 0 0 0 0 0 0 0 0 0 0 0 0 0 0 0 0 0 0 0 0 0 0 0 0 0 0 0 0 0 0 0 0 0 0 0 0 0 0 0 0 0 0 0 0 0 0 0 0 0 0 0 0 0 0 0 0 855 826 826 817 808 826 826 808 799 836 836 826 826 826 817 808 817 836 817 808 808 808 0 876 0 876 836 919 919 931 886 845 836 0 0 808 774 766 766 774 782 799 817 817 836 0 994 981 981 994 0 0 0 0 0 817 817 782 799 791 791 782 808 817 817 826 943 968 981 994 981 994 943 908 865 876 855 0 0 0 919 0 897 919 931 0 876 826 826 0 1066 1051 1066 1036 1051 1051 1036 1036 1036 1022 1022 1022 1051 0 0 0 0 0 1036 1036 1051 1036 1066 1066 1066 1098 1132 1082 1187 1168 1098 1115 1115 1115 1082 1082 1082 1051 1051 1066 1036 1036 1022 1051 1022 1036 1082 1066 1082 1051 1008 981 919 855 826 799 782 782 808 826 836 931 908 955 981 981 994 981 994 968 876 943 817 817 836 845 845 836 826 826 826 826 817 808 799 799 808 808 817 808 0 981 1022 981 981 994 1008 1051 1051 1051 1066 1066 1082 1098 1082 1082 1022 876 0 0 0 618 613 557 588 0 0 0 0 0 0 0 603 593 579 0 0 229 228 229 230 231 229 229 232 0 1022 1051 1082 1066 1082 1082 1066 1115 1115 1082 1098 1066 1115 1082 1082 1098 1082 1082 1082 1082 0 0 0 0 0
    0 0 0 0 0 0 0 0 0 0 0 0 0 0 0 0 0 0 0 0 0 0 0 0 0 0 0 0 0 0 0 0 0 0 0 0 0 0 0 0 0 0 0 0 0 0 0 0 0 0 0 0 0 0 0 0 0 0 0 0 0 0 0 0 0 0 0 0 0 817 808 791 791 766 774 799 791 782 817 817 817 817 817 808 808 808 817 808 799 791 791 799 0 826 845 808 886 876 876 836 817 808 766 774 782 758 758 758 766 774 782 808 799 817 826 886 886 865 886 0 0 897 855 0 808 808 774 791 782 782 774 799 808 808 808 836 836 886 908 931 876 865 845 826 836 826 817 855 855 855 0 836 845 826 0 826 808 808 799 1036 0 0 0 0 1036 0 0 0 0 968 955 0 0 0 0 0 0 0 0 0 0 0 1022 0 1066 1082 1051 1168 1132 1082 1115 1098 1098 1066 1066 1066 1036 1036 1036 1008 1008 981 1008 968 981 1022 994 1036 1008 943 897 865 826 808 782 782 782 799 817 817 865 865 908 955 955 968 943 981 931 845 855 808 808 826 826 826 826 826 817 826 826 826 808 808 808 808 808 826 808 766 919 943 908 876 876 876 845 876 826 808 817 817 0 0 0 897 845 0 0 645 645 618 561 0 0 0 0 0 0 0 584 598 593 570 0 229 230 229 230 230 231 229 229 0 0 968 1008 1051 1051 1051 1036 1008 1066 1066 1051 1066 1036 1082 1066 1066 1082 1051 1051 1051 1051 0 0 0 0 0
    0 0 0 0 0 0 0 0 0 0 0 0 0 0 0 0 0 0 0 0 0 0 0 0 0 0 0 0 0 0 0 0 0 0 0 0 0 0 0 0 0 0 0 0 0 0 0 0 0 0 0 0 0 0 0 0 0 0 0 0 0 0 0 0 0 0 0 0 0 791 774 766 758 743 750 774 774 766 799 799 808 808 808 799 799 799 808 791 791 766 774 774 799 791 808 766 826 808 817 799 782 782 743 766 774 750 758 758 766 766 766 799 791 799 817 0 0 817 0 0 0 0 0 0 799 799 766 791 782 782 774 791 799 799 799 826 817 836 0 886 845 845 826 817 826 808 808 826 826 836 808 817 817 808 826 799 791 799 791 0 0 0 0 0 0 0 0 0 0 897 876 0 919 0 0 0 0 0 0 799 808 799 826 826 0 1036 1036 1115 1066 1066 1082 1082 1082 1051 1051 1036 1022 1008 994 968 943 876 876 865 826 876 836 0 876 855 836 836 817 799 766 774 774 782 799 799 826 826 845 886 897 919 876 908 886 826 836 799 799 817 808 817 808 817 808 817 826 826 808 808 808 817 817 845 808 782 876 865 855 836 836 836 817 817 808 791 791 791 791 782 774 799 826 728 629 651 651 618 566 0 0 0 0 0 0 0 584 598 588 561 0 230 230 229 230 230 231 229 229 0 0 931 981 1022 1022 1022 1008 981 1022 1022 1022 1022 994 1008 994 1008 1022 981 994 994 1008 0 0 0 0 0
    0 0 0 0 0 0 0 0 0 0 0 0 0 0 0 0 0 0 0 0 0 0 0 0 0 0 0 0 0 0 0 0 0 0 0 0 0 0 0 0 0 0 0 0 0 0 0 0 0 0 0 0 0 0 0 0 0 0 0 0 0 0 0 0 0 0 0 0 0 774 758 750 743 735 735 750 750 750 791 782 791 791 799 782 791 791 791 774 782 758 758 758 782 766 766 735 774 750 774 758 758 758 735 758 766 750 758 758 766 766 766 799 791 799 808 0 0 791 808 0 808 817 808 782 791 791 758 782 774 782 766 782 791 791 791 817 808 826 826 845 826 826 817 808 817 799 799 808 808 817 791 808 808 799 817 791 782 791 791 826 808 0 817 0 0 0 0 0 0 0 0 0 855 758 0 782 0 782 0 782 799 791 817 817 0 919 886 0 908 0 1051 1051 1051 1022 1036 1008 981 968 943 886 865 826 826 826 808 826 808 808 826 826 817 817 799 799 758 774 774 774 791 782 799 808 817 845 855 855 836 836 845 817 817 782 799 808 799 808 799 808 799 808 817 808 808 808 799 808 817 855 799 791 845 836 836 817 826 817 799 799 791 782 774 782 766 750 750 758 782 721 634 645 645 618 570 0 0 0 0 0 0 0 584 598 588 557 0 230 231 229 230 231 232 229 229 0 0 919 981 1008 1022 1008 981 968 994 994 981 968 968 968 931 943 955 908 908 931 955 0 0 0 0 0
    0 0 0 0 0 0 0 0 0 0 0 0 0 0 0 0 0 0 0 0 0 0 0 0 0 0 0 0 0 0 0 0 0 0 0 0 0 0 0 0 0 0 0 0 0 0 0 0 0 0 0 0 0 0 0 0 0 0 0 0 0 0 0 0 0 0 0 0 0 750 735 721 721 714 721 735 735 743 774 766 782 782 791 774 774 774 782 766 774 743 743 750 782 0 0 728 750 728 750 743 743 750 735 758 758 750 766 766 766 774 766 799 782 791 799 799 791 766 774 766 782 799 791 766 791 791 750 782 774 774 766 782 782 782 782 808 799 817 808 826 826 817 799 799 808 791 791 799 799 799 774 791 791 782 799 774 774 782 782 817 799 799 799 782 817 817 808 808 808 808 808 799 817 743 774 766 758 774 766 766 782 782 808 799 0 826 817 826 817 808 817 0 981 955 1008 943 876 886 865 0 836 817 817 808 799 808 791 799 817 808 808 808 791 791 750 774 766 766 774 766 782 791 799 817 817 826 808 817 826 791 791 774 799 799 791 799 791 791 791 799 808 799 791 799 791 799 808 845 799 782 826 826 826 808 817 808 791 791 791 774 758 766 750 735 735 743 743 721 639 639 645 618 574 0 0 0 0 0 0 0 584 0 588 0 0 230 231 229 231 231 232 230 229 0 0 919 968 994 1008 994 968 943 981 981 981 955 955 943 908 897 908 876 865 886 897 0 0 0 0 0
    0 0 0 0 0 0 0 0 0 0 0 0 0 0 0 0 0 0 0 0 0 0 0 0 0 0 0 0 0 0 0 0 0 0 0 0 0 0 0 0 0 0 0 0 0 0 0 0 0 0 0 0 0 0 0 0 0 0 0 0 0 0 0 0 0 0 0 0 0 721 714 707 694 707 707 721 728 728 758 758 774 782 791 774 782 782 791 766 782 743 750 750 0 0 0 0 728 721 728 728 735 743 728 750 758 750 758 758 766 766 758 791 766 766 774 774 750 750 758 743 758 774 766 750 774 782 743 774 766 774 758 774 782 782 782 808 791 808 799 817 817 808 791 799 799 782 782 791 782 774 750 782 774 774 791 766 774 774 774 808 791 782 782 758 791 791 782 791 782 782 791 782 799 735 758 758 750 766 758 758 774 774 799 791 799 808 799 808 799 791 799 791 865 836 943 886 826 836 0 0 817 799 799 799 782 799 782 791 808 799 799 791 782 791 743 774 766 766 766 758 766 782 782 799 782 782 774 774 791 743 750 735 782 791 782 791 782 774 774 782 791 774 766 766 766 774 791 808 766 750 799 808 799 799 799 799 782 782 782 766 750 758 735 735 728 735 728 714 645 639 639 618 584 593 0 0 0 0 0 0 588 0 598 0 0 0 231 230 232 232 232 231 229 566 0 897 943 968 968 955 943 908 968 955 968 943 955 943 919 886 897 865 845 865 855 0 0 0 0 0
    0 0 0 0 0 0 0 0 0 0 0 0 0 0 0 0 0 0 0 0 0 0 0 0 0 0 0 0 0 0 0 0 0 0 0 0 0 0 0 0 0 0 0 0 0 0 0 0 0 0 0 0 0 0 0 0 0 0 0 0 0 0 0 0 0 0 0 0 0 700 694 687 681 694 694 707 714 714 743 743 766 766 782 774 774 782 799 782 791 743 0 758 0 0 0 700 700 694 707 714 721 728 721 743 743 735 743 750 750 750 743 774 743 735 743 743 728 735 743 743 758 766 766 750 766 774 735 766 750 758 750 766 774 774 774 799 782 808 799 817 808 799 791 791 791 774 782 782 774 766 750 774 766 766 782 758 766 766 774 808 782 774 774 743 782 774 766 774 766 766 782 774 791 735 758 758 758 774 758 766 774 774 799 791 799 799 782 799 791 782 799 782 808 808 826 845 791 817 799 791 799 791 791 782 774 799 774 782 799 791 791 791 782 782 743 774 766 758 750 750 758 758 758 774 728 728 728 728 735 707 714 707 750 758 766 782 774 766 766 774 774 766 750 750 750 750 766 774 743 743 774 791 782 782 791 791 774 774 774 758 743 750 735 728 728 728 714 707 645 634 629 613 588 598 598 0 0 0 0 0 598 0 603 0 0 0 0 232 232 232 232 232 230 574 579 855 886 897 886 886 897 865 919 919 943 897 919 919 886 845 865 836 817 836 817 0 0 0 0 0
    0 0 0 0 0 0 0 0 0 0 0 0 0 0 0 0 0 0 0 0 0 0 0 0 0 0 0 0 0 0 0 0 0 0 0 0 0 0 0 0 0 0 0 0 0 0 0 0 0 0 0 0 0 0 0 0 0 0 0 0 0 0 0 0 0 0 0 0 0 687 681 681 669 681 681 694 700 700 721 728 750 750 750 750 750 758 791 774 791 735 0 0 0 0 687 681 681 669 675 694 707 714 714 735 735 728 743 743 735 735 735 743 721 721 721 721 714 721 728 728 735 735 735 743 750 743 721 750 735 750 743 758 758 766 766 799 782 808 791 808 808 799 791 791 791 774 782 782 782 766 743 774 758 758 774 750 758 758 758 799 758 758 766 743 774 774 766 766 758 766 774 766 791 735 758 758 758 774 758 766 766 766 791 782 791 791 774 791 774 766 782 766 750 750 791 808 750 782 774 774 774 774 782 766 766 791 766 782 791 782 791 782 774 782 735 766 766 766 750 743 750 750 743 758 721 721 714 721 721 700 700 700 721 728 743 766 758 750 758 758 758 750 735 735 735 735 758 743 735 735 758 774 766 774 782 782 766 766 766 750 743 743 728 728 721 721 707 707 639 629 618 613 598 603 598 0 0 0 0 0 603 0 0 0 0 0 0 232 232 233 233 232 231 579 584 817 836 826 836 836 845 826 836 845 845 836 865 865 845 808 845 826 799 808 799 0 0 0 0 0
    0 0 0 0 0 0 0 0 0 0 0 0 0 0 0 0 0 0 0 0 0 0 0 0 0 0 0 0 0 0 0 0 0 0 0 0 0 0 0 0 0 0 0 0 0 0 0 0 0 0 0 0 0 0 0 0 0 0 0 0 0 0 0 0 0 0 0 0 0 681 675 675 663 675 675 687 694 687 707 707 721 721 707 707 0 0 0 728 750 0 0 774 0 0 694 687 681 663 669 687 700 707 707 728 728 721 735 728 728 728 728 728 714 714 714 700 700 714 714 714 721 714 721 728 735 721 714 735 728 735 728 743 743 750 758 791 766 808 782 808 799 791 782 791 782 774 782 782 774 766 743 766 750 750 758 735 743 735 743 774 728 728 735 721 758 750 750 750 743 758 774 766 791 735 758 758 758 766 750 758 758 758 782 766 782 774 750 774 750 750 766 750 735 728 766 774 728 766 750 750 758 758 766 750 750 782 750 774 782 774 782 766 766 774 728 766 774 766 750 743 750 758 743 766 728 721 721 721 714 700 700 694 700 707 721 735 735 735 750 743 743 735 728 728 721 721 728 714 714 714 735 766 758 774 782 782 766 766 758 743 735 735 721 721 721 714 707 700 639 629 618 613 603 603 603 0 0 613 618 618 0 0 0 0 0 0 0 233 233 233 0 0 0 579 584 750 799 774 774 774 799 782 774 791 782 782 0 817 799 750 791 782 782 782 766 0 0 0 0 0
    0 0 0 0 0 0 0 0 0 0 0 0 0 0 0 0 0 0 0 0 0 0 0 0 0 0 0 0 0 0 0 0 0 0 0 0 0 0 0 0 0 0 0 0 0 0 0 0 0 0 0 0 0 0 0 0 0 0 0 0 0 0 0 0 0 0 0 0 0 681 675 675 663 675 675 681 687 681 687 694 694 700 687 694 0 0 0 0 0 0 0 758 0 0 687 675 675 657 657 681 687 694 694 714 714 714 721 721 714 714 714 714 700 700 700 694 700 707 707 707 714 700 707 714 721 700 707 721 721 721 721 735 735 735 750 774 750 799 766 799 799 791 774 791 782 774 782 782 774 758 735 758 743 735 743 728 728 728 728 743 707 707 714 707 728 728 728 728 728 743 766 758 791 728 750 750 750 758 743 743 743 743 758 743 750 743 728 743 728 728 743 735 728 728 750 758 728 758 743 743 750 750 750 743 735 766 728 750 750 743 735 728 743 766 728 766 766 766 750 743 750 750 743 758 728 721 714 714 714 700 694 694 694 694 700 721 721 728 743 735 735 728 721 721 721 714 707 700 694 700 714 728 728 750 766 766 750 750 743 735 728 728 714 714 714 714 700 700 639 623 618 608 608 608 603 613 613 618 618 618 0 0 0 0 0 0 0 0 0 0 0 549 579 579 588 721 758 743 750 743 758 750 735 735 728 721 700 707 721 714 700 721 735 743 728 0 0 0 0 0
    0 0 0 0 0 0 0 0 0 0 0 0 0 0 0 0 0 0 0 0 0 0 0 0 0 0 0 0 0 0 0 0 0 0 0 0 0 0 0 0 0 0 0 0 0 0 0 0 0 0 0 0 0 0 0 0 0 0 0 0 0 0 0 0 0 0 0 0 0 675 675 681 669 675 675 681 687 681 681 687 681 694 675 681 681 681 687 694 694 0 0 728 0 0 669 651 663 651 651 675 675 681 687 700 700 707 707 707 707 700 707 707 694 694 694 687 694 700 694 694 700 694 694 700 707 687 700 714 707 714 714 721 721 728 743 758 735 791 750 791 791 782 766 782 774 766 774 774 766 743 728 750 728 728 721 714 714 714 714 721 700 694 707 700 714 714 714 714 714 728 750 750 782 728 743 735 735 743 728 728 728 728 735 728 728 721 714 714 714 714 728 721 714 714 735 743 721 750 735 743 743 743 743 735 728 735 714 728 714 714 707 707 721 750 728 766 758 758 743 735 750 750 743 758 721 721 714 714 707 694 694 694 687 687 694 707 714 721 735 735 735 728 721 721 714 707 700 694 694 700 707 714 714 735 743 743 735 735 721 721 707 707 700 700 700 707 694 687 634 618 613 603 613 608 603 613 613 618 618 618 0 0 0 0 553 549 545 549 549 0 557 553 584 579 584 721 743 743 750 743 743 735 728 714 707 700 694 694 700 694 687 707 714 721 714 0 0 0 0 0
    0 0 0 0 0 0 0 0 0 0 0 0 0 0 0 0 0 0 0 0 0 0 0 0 0 0 0 0 0 0 0 0 0 0 0 0 0 0 0 0 0 0 0 0 0 0 0 0 0 0 0 0 0 0 0 0 0 0 0 0 0 0 0 0 0 0 0 0 0 675 675 681 669 681 675 681 687 681 681 681 675 687 669 675 675 669 675 681 681 694 0 714 0 0 657 639 645 651 645 669 663 669 675 687 694 694 700 700 694 694 700 694 694 694 687 675 687 687 681 675 687 681 675 687 700 675 687 700 700 700 700 707 707 714 735 735 721 0 728 766 766 750 735 758 750 743 750 750 750 728 714 728 721 714 707 700 707 707 707 707 694 694 700 694 707 707 707 700 707 714 735 735 774 721 735 721 721 728 721 714 714 714 714 707 707 707 700 700 700 700 714 707 707 707 721 728 714 743 728 735 735 735 735 721 714 707 700 700 694 694 694 694 700 714 721 750 750 750 743 735 750 743 735 758 721 714 707 707 700 694 687 694 687 687 694 700 707 714 728 728 728 721 721 714 707 700 694 694 687 694 700 700 707 721 728 728 721 714 700 700 694 694 687 694 694 694 687 681 634 618 613 603 613 608 603 608 613 613 618 613 0 0 579 0 557 553 545 553 553 557 561 557 588 574 579 721 743 750 750 735 735 735 721 700 700 694 687 687 694 694 694 700 707 714 714 0 0 0 0 0
    0 0 0 0 0 0 0 0 0 0 0 0 0 0 0 0 0 0 0 0 0 0 0 0 0 0 0 0 0 0 0 0 0 0 0 0 0 0 0 0 0 0 0 0 0 0 0 0 0 0 0 0 0 0 0 0 0 0 0 0 0 0 0 0 0 0 0 0 0 669 669 675 669 675 675 681 687 681 681 681 669 687 663 669 669 663 669 669 675 681 681 700 675 0 651 645 645 651 639 663 657 663 669 675 681 687 687 687 681 687 687 687 687 687 681 669 687 681 675 663 675 675 663 681 687 663 681 687 694 694 694 700 700 700 721 714 0 0 707 721 721 0 0 0 0 721 0 728 721 0 700 714 707 700 700 694 694 694 694 694 694 687 700 687 700 700 700 694 700 700 721 728 766 714 728 714 714 714 707 707 707 700 707 700 700 700 694 694 694 687 700 694 700 700 707 721 714 735 728 728 728 728 721 714 707 694 694 694 687 687 687 687 694 700 714 735 735 735 735 728 743 743 735 750 721 707 707 700 700 687 687 687 681 681 687 687 694 700 707 707 707 707 700 700 694 687 687 681 681 687 687 694 694 707 714 714 707 700 681 681 675 681 681 687 687 687 681 669 629 618 613 598 608 608 603 608 613 613 618 613 0 0 579 0 561 557 549 557 557 566 566 566 588 574 579 714 721 735 728 721 728 721 714 700 694 694 687 687 687 687 687 694 700 707 700 0 0 0 0 0
    0 0 0 0 0 0 0 0 0 0 0 0 0 0 0 0 0 0 0 0 0 0 0 0 0 0 0 0 0 0 0 0 0 0 0 0 0 0 0 0 0 0 0 0 0 0 0 0 0 0 0 0 0 0 0 0 0 0 0 0 0 0 0 0 0 0 0 0 0 675 675 675 669 675 675 681 687 681 687 681 675 687 663 669 669 663 663 663 675 675 681 694 675 675 663 663 657 657 645 663 657 663 669 675 675 681 681 681 675 681 681 681 681 687 675 669 687 675 669 663 669 669 657 681 687 657 675 681 681 687 687 694 687 687 707 694 694 694 694 694 707 694 0 681 694 0 0 0 694 687 681 694 687 681 687 681 687 687 687 687 687 687 694 681 694 694 687 687 694 694 700 694 735 700 714 700 707 707 700 694 700 687 694 694 694 694 687 694 694 687 700 694 694 700 694 714 707 728 721 721 721 714 707 700 694 681 687 681 681 681 681 687 687 694 707 728 728 728 728 721 735 735 728 750 721 707 700 700 694 687 681 687 675 675 687 681 681 687 694 694 694 700 694 687 681 681 675 681 675 681 681 687 687 694 694 694 687 675 657 657 657 669 669 675 681 675 675 657 629 613 608 593 608 608 603 608 608 608 613 613 0 593 584 566 566 561 553 557 557 570 566 566 593 574 579 0 714 721 714 700 707 700 700 687 687 687 681 681 687 681 687 687 694 694 687 0 0 0 0 0
    0 0 0 0 0 0 0 0 0 0 0 0 0 0 0 0 0 0 0 0 0 0 0 0 0 0 0 0 0 0 0 0 0 0 0 0 0 0 0 0 0 0 0 0 0 0 0 0 0 0 0 0 0 0 0 0 0 0 0 0 0 0 0 0 0 0 0 0 0 675 675 675 669 681 681 681 687 681 687 681 675 687 663 669 669 663 663 663 675 675 681 694 675 681 675 669 669 663 651 669 657 669 669 675 675 675 681 681 675 681 681 681 675 681 675 669 681 669 669 657 663 669 651 675 681 657 675 675 681 681 681 687 681 681 700 687 687 687 687 687 694 687 681 669 675 681 681 681 681 675 669 675 669 669 681 675 681 681 681 681 681 681 694 681 687 687 681 681 687 681 694 675 694 669 681 669 681 687 681 681 687 681 687 687 694 694 687 694 694 687 700 687 694 694 687 700 694 714 707 707 707 700 694 687 687 675 681 675 681 675 681 681 681 687 700 714 721 721 721 714 728 728 721 743 721 700 700 700 694 687 681 687 675 669 687 675 675 681 687 687 681 694 687 681 681 675 675 675 675 681 681 681 681 681 675 675 669 651 639 645 645 657 657 663 669 657 663 645 623 613 608 588 603 603 598 603 608 608 608 608 603 588 584 566 570 566 553 561 561 574 570 570 593 574 579 645 687 694 687 687 694 687 687 681 681 687 681 681 687 681 687 687 687 694 687 0 0 0 0 0
    0 0 0 0 0 0 0 0 0 0 0 0 0 0 0 0 0 0 0 0 0 0 0 0 0 0 0 0 0 0 0 0 0 0 0 0 0 0 0 0 0 0 0 0 0 0 0 0 0 0 0 0 0 0 0 0 0 0 0 0 0 0 0 0 0 0 0 0 0 675 675 675 675 681 681 681 687 681 687 675 675 681 657 663 663 657 657 657 669 669 681 694 681 681 681 675 669 663 657 669 657 663 669 675 669 675 675 675 675 681 681 675 675 681 675 669 681 663 663 651 663 663 645 675 681 651 675 675 681 681 681 687 681 681 700 687 694 687 687 681 687 675 675 663 675 681 681 681 681 669 663 669 663 663 675 669 675 681 681 681 681 681 694 675 687 681 681 681 681 681 687 669 687 651 657 639 663 675 663 675 681 0 0 0 0 694 687 694 694 681 700 681 687 687 681 694 681 700 694 694 694 681 681 681 681 669 675 675 675 675 681 681 681 687 700 707 707 707 714 714 721 721 721 735 721 687 694 694 687 681 681 681 669 663 687 669 669 675 675 669 663 681 681 675 681 675 669 675 669 675 675 675 669 675 663 663 657 651 645 645 645 657 657 657 657 645 657 639 623 613 608 588 603 603 593 603 603 603 608 603 603 588 584 566 570 570 557 561 561 574 570 570 593 574 579 629 669 675 675 675 687 681 681 675 681 687 681 681 687 675 687 681 681 687 681 0 0 0 0 0
    0 0 0 0 0 0 0 0 0 0 0 0 0 0 0 0 0 0 0 0 0 0 0 0 0 0 0 0 0 0 0 0 0 0 0 0 0 0 0 0 0 0 0 0 0 0 0 0 0 0 0 0 0 0 0 0 0 0 0 0 0 0 0 0 0 0 0 0 0 675 675 675 675 681 681 681 687 681 687 675 669 675 645 651 657 645 651 651 669 663 681 687 675 681 675 669 669 663 651 663 651 663 663 669 669 675 675 675 675 681 681 675 675 681 669 669 675 651 657 645 657 663 645 675 681 651 675 669 675 681 681 687 681 681 700 687 694 687 681 669 669 657 663 651 669 675 675 681 681 669 663 675 657 663 675 669 675 675 681 681 681 681 687 675 687 681 681 681 681 681 687 669 681 657 657 639 657 675 657 669 681 0 0 0 0 0 0 694 694 681 694 681 687 687 681 694 675 694 687 687 687 675 675 681 675 669 675 675 681 675 681 681 681 687 694 694 700 700 707 707 714 714 714 721 714 669 681 687 681 675 675 675 663 663 687 657 663 663 663 663 651 675 675 669 675 669 669 675 663 669 669 675 663 669 657 657 657 651 645 651 645 657 651 645 651 639 645 634 618 613 608 579 598 598 588 598 598 603 603 598 603 593 588 570 574 570 557 566 566 570 570 570 593 574 579 639 675 681 681 675 687 675 681 669 675 681 675 675 675 669 681 681 675 675 669 0 0 0 0 0
    0 0 0 0 0 0 0 0 0 0 0 0 0 0 0 0 0 0 0 0 0 0 0 0 0 0 0 0 0 0 0 0 0 0 0 0 0 0 0 0 0 0 0 0 0 0 0 0 0 0 0 0 0 0 0 0 0 0 0 0 0 0 0 0 0 0 0 0 0 669 681 681 675 681 681 687 687 681 687 675 675 681 645 645 645 639 645 645 657 651 669 681 669 675 669 663 657 651 645 657 645 657 657 663 663 669 669 675 675 681 681 675 669 675 663 663 669 639 645 639 651 657 639 675 675 645 669 669 675 675 675 687 681 675 700 681 687 681 657 639 634 629 634 634 657 675 681 687 681 669 663 675 657 669 675 669 669 675 675 675 681 681 687 675 687 681 675 681 681 681 687 669 687 657 663 645 663 675 663 669 681 0 0 0 0 0 0 694 687 681 694 681 687 687 681 687 681 700 694 694 694 681 681 687 681 675 681 681 681 681 687 687 681 687 694 687 694 694 700 700 700 700 700 700 707 645 675 675 675 669 669 669 657 657 687 657 657 657 663 657 651 663 657 657 663 663 657 663 657 669 669 675 663 669 657 657 657 657 645 651 645 651 645 639 645 634 634 629 618 613 608 584 598 598 588 598 598 598 598 598 603 593 593 574 579 574 561 566 566 570 566 570 593 570 574 645 694 681 675 675 681 669 669 663 669 675 669 669 669 663 675 675 669 669 663 0 0 0 0 0
    0 0 0 0 0 0 0 0 0 0 0 0 0 0 0 0 0 0 0 0 0 0 0 0 0 0 0 0 0 0 0 0 0 0 0 0 0 0 0 0 0 0 0 0 0 0 0 0 0 0 0 0 0 0 0 0 0 0 0 0 0 0 0 0 0 0 0 0 0 657 669 675 675 681 681 687 687 681 694 675 669 669 629 623 634 629 634 629 639 634 645 663 645 657 645 639 639 639 634 645 639 651 651 657 657 669 669 675 675 675 675 669 663 669 651 657 663 629 634 634 639 645 634 663 663 634 663 657 663 669 675 681 675 669 694 675 681 669 639 629 618 613 618 618 639 669 675 681 681 663 663 675 651 663 675 669 669 675 675 675 675 681 687 675 687 681 675 681 681 681 687 669 681 657 657 645 657 669 663 669 681 675 681 0 0 0 687 694 687 681 694 681 681 687 681 687 681 700 700 700 700 687 687 694 687 681 681 681 681 681 687 681 681 687 694 687 694 687 694 694 687 694 687 687 700 629 669 669 669 669 663 663 657 657 687 645 645 651 651 651 639 639 634 634 639 639 634 639 639 651 651 669 651 657 645 639 639 639 634 639 634 639 634 634 639 629 629 623 618 613 603 584 593 593 584 593 593 598 598 598 603 598 593 574 579 574 557 566 561 566 561 566 588 566 570 629 0 687 669 663 681 669 669 657 663 669 663 663 669 663 675 675 669 663 663 0 0 0 0 0
    0 0 0 0 0 0 0 0 0 0 0 0 0 0 0 0 0 0 0 0 0 0 0 0 0 0 0 0 0 0 0 0 0 0 0 0 0 0 0 0 0 0 0 0 0 0 0 0 0 0 0 0 0 0 0 0 0 0 0 0 0 0 0 0 0 0 0 0 0 629 639 651 657 663 669 681 681 669 681 651 651 634 613 608 623 618 623 618 629 618 629 639 629 629 623 618 618 618 623 634 629 639 639 645 645 657 663 663 663 669 663 657 657 663 645 645 645 618 623 623 629 634 623 645 634 623 645 645 651 657 663 675 663 663 687 663 675 657 623 618 608 603 603 608 618 634 639 663 657 645 645 669 645 663 675 669 669 675 675 675 675 681 681 669 681 675 675 675 681 675 681 669 681 651 651 639 657 669 663 675 681 675 681 0 0 687 0 687 687 675 687 675 675 687 681 694 687 707 700 700 700 687 694 694 687 687 681 681 681 681 687 681 675 687 687 687 687 687 694 694 687 694 687 687 700 629 669 669 663 663 657 663 657 657 681 634 639 639 645 645 634 623 618 623 623 623 618 618 618 623 634 651 634 645 634 629 629 629 623 629 623 629 623 618 629 618 618 618 613 608 598 584 593 588 584 593 593 598 593 598 603 598 593 574 574 570 557 561 561 561 557 561 588 566 574 603 0 0 618 618 663 657 663 657 663 669 669 669 669 663 669 669 663 657 651 0 0 0 0 0
    0 0 0 0 0 0 0 0 0 0 0 0 0 0 0 0 0 0 0 0 0 0 0 0 0 0 0 0 0 0 0 0 0 0 0 0 0 0 0 0 0 0 0 0 0 0 0 0 0 0 0 0 0 0 0 0 0 0 0 0 0 0 0 0 0 0 0 0 0 603 613 618 629 629 634 639 657 645 657 623 629 0 608 603 613 613 608 608 618 613 618 623 613 613 608 608 603 603 608 618 0 623 629 634 629 639 645 645 645 651 645 639 645 651 639 639 634 613 613 618 623 618 613 629 613 613 634 629 634 639 651 657 651 657 681 651 663 645 618 608 603 598 598 598 598 0 0 629 629 629 639 657 639 663 669 663 663 663 663 663 657 669 663 651 669 669 669 675 675 675 681 669 681 657 657 639 651 663 657 669 681 675 681 681 0 681 0 0 675 663 675 645 657 669 681 694 687 700 700 700 700 687 700 700 687 694 681 687 687 681 687 681 675 681 681 681 687 681 687 687 687 687 687 687 700 629 669 669 663 663 657 663 651 651 681 634 634 639 639 639 629 618 613 618 613 613 608 608 608 608 623 634 629 639 629 623 623 623 618 618 618 618 608 608 613 608 608 608 603 603 593 584 588 588 584 593 593 598 593 598 603 598 588 566 570 566 553 557 557 561 557 557 584 561 570 598 593 584 598 603 634 639 651 657 663 669 675 669 675 669 669 669 657 651 645 0 0 0 0 0
    0 0 0 0 0 0 0 0 0 0 0 0 0 0 0 0 0 0 0 0 0 0 0 0 0 0 0 0 0 0 0 0 0 0 0 0 0 0 0 0 0 0 0 0 0 0 0 0 0 0 0 0 0 0 0 0 0 0 0 0 0 0 0 0 0 0 0 0 0 598 603 603 613 608 613 0 0 0 0 608 0 603 598 593 603 603 598 603 603 603 603 613 593 598 598 593 593 593 593 598 598 0 608 618 613 618 629 629 629 634 634 629 629 634 629 634 0 608 608 613 618 608 608 613 603 603 618 618 623 629 634 639 639 645 669 645 657 634 608 598 598 588 588 593 588 598 598 608 613 608 623 645 629 663 663 651 651 651 645 645 639 645 639 629 651 651 657 663 669 675 681 669 681 657 657 639 657 657 651 663 669 663 675 675 0 669 0 0 0 639 645 618 629 639 669 687 681 700 694 694 700 687 700 700 687 694 681 687 687 681 687 675 669 681 675 669 675 663 675 675 675 681 675 675 687 623 669 669 663 663 651 657 657 657 681 639 634 639 639 634 623 613 608 608 608 608 603 603 608 603 618 629 623 634 629 618 623 618 618 618 613 613 603 603 608 603 603 603 598 598 588 584 588 588 584 593 593 598 593 598 598 598 584 561 566 561 553 557 557 557 553 557 579 557 570 593 584 566 593 603 639 645 651 657 669 675 675 669 675 663 669 657 645 639 634 0 0 0 0 0
    0 0 0 0 0 0 0 0 0 0 0 0 0 0 0 0 0 0 0 0 0 0 0 0 0 0 0 0 0 0 0 0 0 0 0 0 0 0 0 0 0 0 0 0 0 0 0 0 0 0 0 0 0 0 0 0 0 0 0 0 0 0 0 0 0 0 0 0 0 593 593 593 598 593 593 588 598 588 0 588 598 588 593 588 598 593 593 598 598 598 598 603 588 593 588 588 584 584 584 588 588 598 593 603 598 603 613 613 618 613 618 613 0 623 0 0 0 603 603 608 613 598 598 603 588 598 608 608 613 618 629 629 629 639 651 634 639 623 603 593 593 584 584 588 579 588 588 598 603 603 613 629 618 645 645 634 634 629 629 629 623 623 623 613 629 629 639 651 657 681 681 675 675 657 645 634 645 651 639 645 657 651 669 663 675 639 0 0 0 0 623 608 613 623 639 669 681 700 694 687 694 681 694 700 681 687 675 681 681 675 681 663 657 669 663 657 657 634 634 651 645 651 639 634 639 618 657 669 663 663 651 657 657 657 681 639 634 634 634 629 618 608 603 603 603 603 598 598 603 598 608 623 618 629 623 618 618 618 613 613 608 603 598 593 598 593 598 598 593 593 588 584 588 588 579 588 588 593 593 593 598 598 579 557 561 557 553 553 557 553 549 553 574 561 570 588 574 566 588 593 629 645 651 663 675 675 675 669 675 669 663 645 629 623 618 0 0 0 0 0
    0 0 0 0 0 0 0 0 0 0 0 0 0 0 0 0 0 0 0 0 0 0 0 0 0 0 0 0 0 0 0 0 0 0 0 0 0 0 0 0 0 0 0 0 0 0 0 0 0 0 0 0 0 0 0 0 0 0 0 0 0 0 0 0 0 0 0 0 0 588 588 588 593 579 574 574 579 566 570 570 584 574 588 584 593 588 584 593 593 593 593 588 579 588 584 584 579 579 579 579 579 588 579 588 584 588 593 593 603 598 603 603 603 613 0 0 603 598 598 598 603 588 593 593 584 593 598 603 608 608 618 618 618 629 634 623 623 608 598 588 588 579 579 584 574 579 579 584 588 588 598 608 603 623 629 618 618 618 613 613 613 608 608 603 608 613 618 629 629 0 669 669 669 651 639 629 634 634 623 634 639 634 651 639 645 623 0 618 0 0 613 603 608 613 623 651 669 694 681 681 687 663 687 694 669 681 663 663 669 663 663 645 634 645 634 629 618 613 608 608 613 613 608 608 608 608 651 657 657 657 645 657 657 657 675 639 629 629 629 618 613 603 598 598 598 603 598 598 603 598 603 613 613 623 618 613 613 613 608 608 603 593 588 588 593 593 593 593 588 588 588 588 588 588 579 588 588 593 588 593 593 593 566 557 557 553 549 553 557 553 549 557 570 561 570 584 574 566 588 584 603 608 618 629 657 657 657 645 651 651 639 634 623 613 608 0 0 0 0 0
    0 0 0 0 0 0 0 0 0 0 0 0 0 0 0 0 0 0 0 0 0 0 0 0 0 0 0 0 0 0 0 0 0 0 0 0 0 0 0 0 0 0 0 0 0 0 0 0 0 0 0 0 0 0 0 0 0 0 0 0 0 0 0 0 0 0 0 0 0 588 588 584 584 566 561 566 566 557 561 561 570 570 584 584 588 584 579 588 584 584 584 579 570 579 579 579 574 579 574 574 579 584 570 584 574 579 584 584 593 588 593 598 588 598 593 593 593 588 593 593 598 584 588 588 574 588 588 593 598 598 608 608 608 618 618 613 613 603 593 584 584 574 579 579 570 570 566 570 574 579 588 593 593 603 613 603 608 608 603 608 603 598 603 598 603 603 608 608 608 0 639 634 645 634 618 613 613 623 613 613 618 618 623 623 618 613 598 608 603 603 603 603 603 608 608 634 651 694 675 663 675 634 657 663 634 651 629 629 639 634 634 618 618 618 608 608 603 598 593 598 603 603 598 598 598 603 634 651 645 645 639 645 657 651 669 629 618 618 618 613 608 598 593 598 598 603 598 593 598 598 598 608 608 613 608 598 603 598 593 598 598 584 584 588 588 588 588 588 584 588 584 588 588 588 584 588 588 588 588 593 588 584 561 553 553 549 549 549 553 549 549 557 570 561 574 579 574 570 584 574 588 588 584 0 634 639 639 634 645 645 634 623 618 608 598 0 0 0 0 0
    0 0 0 0 0 0 0 0 0 0 0 0 0 0 0 0 0 0 0 0 0 0 0 0 0 0 0 0 0 0 0 0 0 0 0 0 0 0 0 0 0 0 0 0 0 0 0 0 0 0 0 0 0 0 0 0 0 0 0 0 0 0 0 0 0 0 0 0 0 588 588 584 584 561 561 561 561 557 561 561 570 570 584 584 588 584 584 588 584 584 584 579 570 579 579 579 574 579 574 579 579 588 574 584 574 579 579 579 584 584 584 588 579 588 584 584 584 584 588 588 593 584 593 588 574 588 588 588 593 593 598 598 603 613 608 608 608 598 593 588 588 574 579 574 566 566 561 566 566 570 579 584 584 593 598 593 603 598 598 598 593 593 593 593 598 593 598 603 598 603 608 608 608 613 603 603 598 608 593 598 598 598 603 608 598 603 584 603 593 598 598 598 598 603 603 618 629 681 651 629 618 608 608 603 608 613 608 608 618 613 613 608 608 603 598 598 593 588 584 593 593 593 593 593 593 598 623 634 629 629 629 634 645 639 651 618 608 608 613 608 598 593 588 593 593 598 593 593 598 593 593 598 598 598 574 570 584 570 579 588 588 570 574 588 588 584 588 588 584 584 584 588 584 588 584 588 588 588 588 593 574 570 557 553 553 549 549 549 553 549 553 553 566 561 570 574 570 566 574 566 570 570 549 0 0 0 623 634 645 645 629 618 613 0 0 0 0 0 0 0
    0 0 0 0 0 0 0 0 0 0 0 0 0 0 0 0 0 0 0 0 0 0 0 0 0 0 0 0 0 0 0 0 0 0 0 0 0 0 0 0 0 0 0 0 0 0 0 0 0 0 0 0 0 0 0 0 0 0 0 0 0 0 0 0 0 0 0 0 0 588 588 584 584 561 557 561 557 557 561 561 570 570 584 584 588 584 579 588 584 579 579 579 570 579 579 579 574 579 574 579 579 588 574 584 579 584 579 584 584 584 584 588 574 588 579 584 584 579 584 584 593 584 593 584 570 588 584 584 588 588 593 588 593 608 598 603 603 593 593 588 588 574 579 574 566 566 561 566 566 566 574 574 579 584 588 579 593 593 588 593 588 588 593 588 593 588 593 593 593 598 603 598 598 598 593 593 584 584 574 579 579 584 579 584 579 588 566 593 588 593 593 593 593 598 598 608 608 618 618 603 603 598 593 593 593 598 598 598 608 603 603 598 598 593 593 588 584 579 579 584 588 588 588 588 588 593 608 623 618 618 618 623 629 629 629 608 598 603 603 598 593 588 588 588 588 593 593 588 593 593 584 584 579 579 553 557 570 561 570 579 584 570 570 584 584 579 584 584 579 574 579 584 574 579 574 579 579 574 579 579 561 561 557 553 549 549 549 549 553 553 553 553 561 561 566 566 561 557 561 553 557 557 541 541 0 0 0 0 681 657 629 618 613 0 0 0 0 0 0 0
    0 0 0 0 0 0 0 0 0 0 0 0 0 0 0 0 0 0 0 0 0 0 0 0 0 0 0 0 0 0 0 0 0 0 0 0 0 0 0 0 0 0 0 0 0 0 0 0 0 0 0 0 0 0 0 0 0 0 0 0 0 0 0 0 0 0 0 0 0 588 588 584 584 561 557 561 557 561 561 566 574 574 584 584 588 588 584 588 584 579 584 579 570 579 579 579 574 579 574 579 579 588 579 588 579 584 584 584 584 584 584 588 574 593 584 584 584 579 584 584 593 584 588 584 574 588 584 588 588 588 593 588 593 603 593 598 598 584 588 579 579 570 574 570 561 566 566 566 566 570 574 574 579 574 579 566 584 579 579 588 579 584 588 584 593 588 593 593 588 593 598 593 593 593 584 588 574 579 570 574 570 579 574 579 566 579 557 588 579 588 588 588 588 593 593 603 598 603 603 593 593 588 579 579 584 574 584 579 593 588 593 588 588 584 584 584 579 574 579 579 584 584 588 584 588 593 603 613 608 608 608 618 618 618 613 603 593 593 598 593 584 588 588 588 588 593 593 588 588 593 579 574 566 561 549 553 561 557 566 574 579 566 566 579 579 574 579 579 570 570 579 579 570 574 570 574 574 566 570 561 553 553 553 549 549 549 549 549 553 553 557 557 557 561 566 561 557 557 553 549 553 553 541 541 537 553 0 0 0 0 623 623 613 0 0 0 0 0 0 0
    0 0 0 0 0 0 0 0 0 0 0 0 0 0 0 0 0 0 0 0 0 0 0 0 0 0 0 0 0 0 0 0 0 0 0 0 0 0 0 0 0 0 0 0 0 0 0 0 0 0 0 0 0 0 0 0 0 0 0 0 0 0 0 0 0 0 0 0 0 593 588 584 584 561 557 561 557 557 561 566 570 570 584 588 588 588 584 588 584 584 584 579 574 579 579 579 574 579 574 579 579 588 579 588 584 584 584 584 584 584 584 588 579 593 588 588 588 579 584 584 593 584 588 584 574 588 588 588 593 588 593 588 598 603 593 598 593 579 584 579 579 566 574 570 566 566 566 566 570 570 574 574 574 570 574 561 579 574 574 584 574 579 584 584 588 584 588 588 584 593 593 593 593 593 584 588 574 579 574 579 574 579 579 579 570 579 557 588 579 588 588 588 588 593 593 603 598 603 598 588 588 584 570 570 574 566 574 570 579 579 584 579 584 574 579 579 579 574 579 579 584 584 588 584 584 593 598 603 598 598 603 608 608 608 603 598 588 588 593 588 579 588 584 588 588 593 593 588 588 593 574 574 561 553 549 549 553 553 557 561 570 557 566 574 574 570 574 574 570 566 579 574 561 566 566 566 566 557 566 557 553 553 553 553 553 549 553 549 553 553 557 557 553 557 557 557 553 553 553 549 549 549 537 537 537 545 541 0 537 529 0 561 553 0 0 0 0 0 0 0
    0 0 0 0 0 0 0 0 0 0 0 0 0 0 0 0 0 0 0 0 0 0 0 0 0 0 0 0 0 0 0 0 0 0 0 0 0 0 0 0 0 0 0 0 0 0 0 0 0 0 0 0 0 0 0 0 0 0 0 0 0 0 0 0 0 0 0 0 0 593 588 588 588 566 557 566 553 557 561 561 570 574 579 588 584 593 588 593 584 584 584 579 574 579 579 579 574 579 574 579 579 588 579 588 584 584 584 584 584 584 584 588 574 593 584 588 588 579 584 584 588 584 593 584 574 588 588 588 593 588 593 588 598 603 598 598 598 579 584 579 579 570 574 570 566 566 566 561 566 570 574 574 574 570 574 561 584 574 579 584 574 579 584 579 588 584 588 588 584 593 593 593 593 593 584 593 579 579 579 579 574 579 579 584 570 574 561 588 579 588 588 588 588 593 593 603 593 598 593 584 584 579 570 570 570 566 570 570 579 579 584 579 584 574 579 579 579 579 579 584 588 584 588 584 584 588 588 593 588 588 593 593 593 593 593 593 584 588 593 588 574 588 584 584 588 588 588 584 584 593 566 570 557 549 549 549 549 553 553 557 566 557 561 570 570 570 570 570 566 566 574 566 553 561 557 557 557 553 557 553 553 549 549 553 553 553 553 553 553 553 561 557 549 553 553 553 549 553 549 545 545 545 537 541 533 541 537 541 533 525 533 541 537 533 525 0 0 0 0 0
    0 0 0 0 0 0 0 0 0 0 0 0 0 0 0 0 0 0 0 0 0 0 0 0 0 0 0 0 0 0 0 0 0 0 0 0 0 0 0 0 0 0 0 0 0 0 0 0 0 0 0 0 0 0 0 0 0 0 0 0 0 0 0 0 0 0 0 0 0 598 593 593 588 570 561 566 553 557 561 561 570 574 579 584 584 593 588 588 579 579 584 579 574 579 579 579 574 579 574 579 579 588 579 588 579 584 584 584 584 579 574 584 570 588 579 584 584 574 584 579 588 579 588 579 579 593 588 588 593 588 593 588 598 603 593 593 593 584 588 584 584 574 579 570 570 566 566 561 566 566 574 574 574 570 579 566 588 579 584 584 579 584 588 584 588 584 588 584 584 588 588 588 588 588 584 588 579 574 574 579 574 579 579 584 574 574 566 588 579 588 588 588 584 588 593 598 593 598 593 584 584 579 570 570 570 566 570 570 579 579 584 579 584 579 584 584 584 584 584 584 588 588 588 584 584 588 588 588 579 584 584 588 588 588 584 584 579 584 588 588 570 584 584 584 584 588 588 579 574 593 561 557 553 549 549 549 549 553 549 553 557 553 561 566 566 566 566 566 561 561 570 557 549 557 557 553 553 549 553 549 553 549 549 557 557 557 557 553 553 553 566 557 549 553 549 549 549 553 545 541 545 545 537 541 537 541 537 541 533 525 525 537 533 529 521 0 0 0 0 0
    0 0 0 0 0 0 0 0 0 0 0 0 0 0 0 0 0 0 0 0 0 0 0 0 0 0 0 0 0 0 0 0 0 0 0 0 0 0 0 0 0 0 0 0 0 0 0 0 0 0 0 0 0 0 0 0 0 0 0 0 0 0 0 0 0 0 0 0 0 598 593 593 588 566 561 561 553 553 566 566 574 579 584 588 588 593 584 579 566 570 574 574 566 574 574 579 574 579 574 579 579 588 584 588 579 584 579 584 579 579 574 579 561 588 579 579 579 574 584 579 588 584 588 584 584 593 593 593 593 588 593 588 598 598 579 584 588 584 593 593 588 584 588 584 579 574 570 561 566 570 574 574 574 574 584 566 588 579 588 588 584 584 588 584 593 588 588 584 584 588 588 588 588 588 584 588 584 579 579 579 574 579 579 588 579 584 574 593 584 588 588 588 584 588 593 598 593 598 593 584 584 584 574 570 570 566 570 566 579 584 588 574 584 579 584 584 584 584 584 588 593 588 588 588 588 593 588 588 579 584 584 588 588 584 584 584 584 584 588 588 566 584 584 584 584 584 584 574 570 593 553 553 549 545 549 549 549 557 553 553 557 553 561 561 557 557 557 557 557 557 561 549 545 553 553 549 549 545 549 549 549 545 549 557 557 557 561 557 553 557 570 557 549 549 545 545 545 549 541 537 541 545 541 541 541 541 537 541 537 529 533 541 537 537 525 0 0 0 0 0
    0 0 0 0 0 0 0 0 0 0 0 0 0 0 0 0 0 0 0 0 0 0 0 0 0 0 0 0 0 0 0 0 0 0 0 0 0 0 0 0 0 0 0 0 0 0 0 0 0 0 0 0 0 0 0 0 0 0 0 0 0 0 0 0 0 0 0 0 0 593 593 593 584 561 557 0 549 549 557 557 561 570 584 588 588 593 0 579 561 566 570 570 561 566 570 574 574 579 574 579 579 588 584 588 579 579 584 588 584 584 574 579 566 0 584 579 579 579 584 579 588 584 588 584 584 593 593 588 593 588 593 593 598 598 579 584 588 588 598 593 593 593 598 593 0 584 579 570 574 574 574 579 584 579 588 570 588 579 588 588 584 588 588 588 598 593 588 584 584 588 588 593 593 588 584 593 588 584 579 584 574 579 584 588 588 588 579 593 588 593 588 588 584 584 588 598 593 593 593 584 584 584 574 570 570 570 570 570 579 579 584 570 584 574 584 584 584 584 588 588 593 588 593 588 588 593 588 584 579 584 584 584 584 584 579 584 584 584 588 588 566 584 584 584 584 584 584 574 566 588 553 553 553 549 549 549 549 557 549 549 545 545 553 553 545 545 545 549 549 549 549 545 541 549 549 545 545 545 549 549 553 549 553 557 561 561 566 553 553 553 570 549 541 541 537 537 537 541 533 537 537 541 537 541 541 541 537 541 537 533 533 541 537 537 529 0 0 0 0 0
    0 0 0 0 0 0 0 0 0 0 0 0 0 0 0 0 0 0 0 0 0 0 0 0 0 0 0 0 0 0 0 0 0 0 0 0 0 0 0 0 0 0 0 0 0 0 0 0 0 0 0 0 0 0 0 0 0 0 0 0 0 0 0 0 0 0 0 0 0 579 579 579 566 553 553 0 545 0 0 549 549 557 570 579 0 0 0 579 561 566 570 570 557 566 570 574 570 574 570 570 574 588 579 584 0 579 0 0 0 0 0 0 0 0 0 0 0 0 0 0 0 0 588 588 588 593 593 593 593 593 593 593 598 598 579 0 0 0 0 0 0 0 598 0 0 588 588 579 584 579 584 584 584 584 593 570 588 584 593 593 588 588 593 593 603 598 593 584 588 588 588 593 593 593 588 593 588 584 584 584 579 584 588 593 593 593 584 593 588 593 588 588 584 584 588 593 593 593 584 579 579 584 579 574 570 574 570 574 574 579 584 566 584 579 584 588 584 588 588 588 598 593 593 588 593 593 588 584 579 584 584 588 588 584 584 588 584 584 593 588 566 584 584 584 579 579 579 570 561 588 553 553 549 549 549 553 553 561 549 541 537 537 537 533 529 525 525 533 537 541 545 545 541 549 545 541 541 541 545 545 549 545 549 557 561 561 566 553 553 553 561 541 533 533 529 533 529 537 529 533 537 537 537 541 537 541 537 541 537 537 537 545 537 537 0 0 0 0 0 0
    0 0 0 0 0 0 0 0 0 0 0 0 0 0 0 0 0 0 0 0 0 0 0 0 0 0 0 0 0 0 0 0 0 0 0 0 0 0 0 0 0 0 0 0 0 0 0 0 0 0 0 0 0 0 0 0 0 0 0 0 0 0 0 0 0 0 0 0 0 557 549 561 553 0 545 533 537 514 0 541 541 545 553 0 0 0 0 561 549 557 566 566 557 570 574 574 570 570 0 0 0 0 574 0 0 0 0 0 0 0 0 0 0 0 0 0 0 0 0 0 0 0 0 0 0 593 593 593 593 593 593 593 0 0 0 0 0 0 0 0 0 0 0 0 0 0 593 588 588 584 584 588 588 584 593 566 588 579 593 588 584 588 593 593 603 598 593 588 588 593 593 593 593 588 588 593 593 588 584 588 579 588 588 593 598 588 588 593 588 593 588 588 584 584 588 593 593 588 584 579 579 584 579 579 574 579 570 574 574 584 584 566 584 579 584 588 584 588 593 593 598 593 593 588 593 593 588 588 584 584 588 593 593 588 584 588 584 588 593 588 561 584 584 584 579 579 579 566 561 584 553 553 549 549 549 553 557 557 537 533 525 525 525 521 518 514 511 525 521 525 533 533 533 545 541 537 541 541 545 545 545 545 545 549 553 549 549 541 541 545 545 533 525 529 525 529 529 533 529 533 533 537 537 541 537 541 533 537 533 537 537 537 529 525 504 0 0 0 0 0
    0 0 0 0 0 0 0 0 0 0 0 0 0 0 0 0 0 0 0 0 0 0 0 0 0 0 0 0 0 0 0 0 0 0 0 0 0 0 0 0 0 0 0 0 0 0 0 0 0 0 0 0 0 0 0 0 0 0 0 0 0 0 0 0 0 0 0 0 0 541 533 545 541 529 533 497 507 487 0 0 518 525 0 0 0 0 0 0 0 477 0 0 0 0 561 566 561 557 0 0 0 0 0 0 0 0 0 0 0 0 0 0 0 0 0 0 0 0 0 139 0 0 127 0 0 588 584 588 593 588 593 593 0 0 0 0 0 0 0 0 0 0 0 127 0 0 598 588 593 588 588 593 588 584 588 561 579 566 584 579 574 574 579 579 593 588 588 579 588 588 0 593 588 588 0 0 0 0 584 588 584 588 588 593 593 579 579 584 579 584 584 584 579 574 584 584 0 574 557 557 557 566 561 561 561 570 561 570 574 579 579 561 584 579 584 593 588 593 593 593 603 593 593 588 593 598 588 588 584 588 593 598 598 593 588 588 584 584 593 588 561 584 579 584 579 579 579 566 561 588 557 557 553 549 553 553 557 553 533 525 518 514 514 514 511 504 500 514 507 511 518 521 521 541 541 537 537 537 541 541 541 541 533 537 533 525 504 504 500 521 525 525 518 525 525 533 533 537 529 533 529 533 537 541 537 537 529 537 533 533 529 521 514 504 490 0 0 0 0 0
    0 0 0 0 0 0 0 0 0 0 0 0 0 0 0 0 0 0 0 0 0 0 0 0 0 0 0 0 0 0 0 0 0 0 0 0 0 0 0 0 0 0 0 0 0 0 0 0 0 0 0 0 0 0 0 0 0 0 0 0 0 0 0 0 0 0 0 0 0 529 514 533 521 504 511 481 481 474 457 481 0 0 0 0 0 0 0 0 477 474 477 481 481 474 0 0 549 0 0 0 0 0 0 0 0 0 0 0 0 0 0 0 0 0 0 0 0 0 0 0 0 0 0 0 0 0 557 566 570 570 584 584 0 0 0 0 0 157 153 0 0 0 0 127 126 0 0 0 0 588 584 0 584 574 574 553 561 0 0 557 557 557 561 0 0 579 579 574 584 588 0 0 588 0 0 0 0 0 0 0 0 584 588 588 584 570 566 570 566 574 574 566 561 561 566 0 0 0 0 0 533 0 549 545 545 557 549 566 566 574 574 557 579 579 588 593 588 593 593 593 603 593 588 584 584 593 584 579 579 579 584 588 588 584 574 574 574 574 588 588 557 584 584 584 584 584 579 566 561 584 557 557 553 549 553 553 561 553 529 525 514 514 514 511 507 500 497 504 497 497 493 497 504 529 533 533 533 537 537 537 541 541 533 529 521 504 487 487 481 500 497 514 514 525 521 533 533 537 521 529 525 533 533 541 537 541 533 541 537 537 533 521 511 500 493 0 0 0 0 0
    0 0 0 0 0 0 0 0 0 0 0 0 0 0 0 0 0 0 0 0 0 0 0 0 0 0 0 0 0 0 0 0 0 0 0 0 0 0 0 0 0 0 0 0 0 0 0 0 0 0 0 0 0 0 0 0 0 0 0 0 0 0 0 0 0 0 0 0 0 504 487 0 487 0 484 474 468 465 451 474 0 0 0 0 490 0 0 0 0 474 474 477 477 471 477 0 507 0 0 0 0 0 0 0 0 0 0 0 0 0 0 0 0 0 0 0 0 0 0 0 0 0 0 0 0 0 0 0 0 0 0 0 0 0 0 0 0 0 152 151 0 0 0 0 0 0 0 0 0 0 0 0 557 553 549 537 541 0 0 0 0 541 545 0 0 0 561 557 570 570 0 0 0 0 0 0 0 0 0 0 0 584 584 574 566 561 557 557 553 561 557 549 545 541 0 0 0 0 0 518 514 529 533 533 525 545 533 549 553 557 553 545 570 570 579 588 584 588 588 588 598 588 584 574 579 588 570 570 566 566 570 566 561 557 549 549 553 549 561 561 553 579 579 579 579 579 579 561 561 584 557 557 553 553 549 553 557 553 529 521 511 507 507 507 504 500 497 500 493 493 493 493 497 518 525 529 529 533 537 537 537 541 529 525 518 500 487 484 481 493 493 504 504 518 511 525 521 525 511 521 518 525 529 537 537 541 533 541 537 541 533 518 511 493 490 0 0 0 0 0
    0 0 0 0 0 0 0 0 0 0 0 0 0 0 0 0 0 0 0 0 0 0 0 0 0 0 0 0 0 0 0 0 0 0 0 0 0 0 0 0 0 0 0 0 0 0 0 0 0 0 0 0 0 0 0 0 0 0 0 0 0 0 0 0 0 0 0 0 0 484 477 474 474 471 471 468 465 462 457 471 0 0 0 0 490 0 0 0 0 474 477 477 474 471 477 477 484 0 0 0 0 0 0 0 0 0 0 0 0 0 0 0 0 0 0 0 0 0 0 0 0 0 0 487 490 497 504 504 0 0 0 0 0 0 0 0 0 154 152 151 150 0 0 0 0 0 0 0 0 0 504 0 529 529 525 518 507 507 0 0 507 507 500 0 0 0 0 537 545 0 0 0 0 0 0 0 0 0 0 0 557 566 566 549 545 549 541 545 537 541 537 533 525 525 0 0 0 0 504 507 504 518 521 518 507 533 525 537 541 541 541 537 553 553 561 570 566 574 574 579 588 574 570 557 566 579 557 553 545 541 545 0 533 533 525 525 529 529 537 529 545 570 570 570 574 574 570 557 561 579 557 553 549 549 549 549 553 541 525 514 500 500 500 500 500 497 493 493 490 493 490 493 493 511 521 525 529 529 533 533 537 541 529 521 500 493 487 487 484 490 490 500 500 511 507 518 511 511 500 511 507 514 525 529 533 541 533 541 537 545 537 504 504 484 484 0 0 0 0 0
    0 0 0 0 0 0 0 0 0 0 0 0 0 0 0 0 0 0 0 0 0 0 0 0 0 0 0 0 0 0 0 0 0 0 0 0 0 0 0 0 0 0 0 0 0 0 0 0 0 0 0 0 0 0 0 0 0 0 0 0 0 0 0 0 0 0 0 0 0 481 474 471 474 471 471 471 465 465 462 474 0 0 0 490 487 0 0 0 0 0 0 477 474 471 474 477 481 477 481 0 0 0 0 0 0 0 0 0 0 0 0 0 0 0 0 0 0 0 0 0 0 0 0 487 487 490 493 490 0 0 0 0 0 190 0 0 0 0 151 151 149 148 147 0 0 0 0 0 0 0 490 500 504 507 511 504 493 490 487 490 490 490 487 487 0 0 0 511 511 0 168 0 0 0 0 0 0 0 0 529 541 0 541 533 525 533 518 529 521 521 518 521 507 514 507 518 500 0 497 500 500 507 507 507 497 525 518 529 533 533 533 525 541 537 545 545 541 549 545 553 561 549 553 541 0 0 537 537 525 525 525 518 514 514 507 504 504 504 487 497 514 557 557 557 561 561 557 553 553 566 545 545 541 541 541 537 537 533 518 504 497 497 493 497 497 493 493 493 490 493 490 490 490 500 514 518 521 525 529 533 533 537 518 507 493 490 487 487 487 493 493 500 500 511 518 514 507 504 500 504 504 507 518 521 533 537 529 537 533 541 533 500 497 484 484 0 0 0 0 0
    0 0 0 0 0 0 0 0 0 0 0 0 0 0 0 0 0 0 0 0 0 0 0 0 0 0 0 0 0 0 0 0 0 0 0 0 0 0 0 0 0 0 0 0 0 0 0 0 0 0 0 0 0 0 0 0 0 0 0 0 0 0 0 0 0 0 0 0 0 0 474 474 477 471 474 474 471 468 468 474 477 477 481 490 487 0 0 0 0 477 481 477 474 471 477 477 481 477 477 474 0 0 0 0 0 0 0 0 0 0 0 0 0 0 0 0 0 0 0 0 493 484 487 487 487 490 490 490 0 0 0 497 0 189 0 0 0 0 0 0 0 0 0 0 0 0 0 0 0 497 487 490 487 490 493 490 487 484 484 484 487 487 484 487 487 490 493 493 497 490 0 0 0 0 0 0 0 0 0 504 521 518 521 514 504 518 500 514 511 507 507 511 504 511 504 511 497 500 497 500 497 504 500 500 493 521 514 525 529 529 529 521 529 525 529 525 525 521 521 525 529 525 533 518 0 0 518 518 507 511 511 504 500 500 497 497 493 497 487 490 497 541 545 545 549 549 545 545 545 557 537 537 533 533 533 533 529 525 507 500 493 497 493 493 493 493 493 493 490 493 490 493 490 497 507 511 514 518 525 529 529 533 507 497 490 490 490 490 490 493 497 500 500 507 514 504 500 497 497 497 500 504 511 514 525 529 525 529 521 529 525 497 493 484 487 0 0 0 0 0
    0 0 0 0 0 0 0 0 0 0 0 0 0 0 0 0 0 0 0 0 0 0 0 0 0 0 0 0 0 0 0 0 0 0 0 0 0 0 0 0 0 0 0 0 0 0 0 0 0 0 0 0 0 0 0 0 0 0 0 0 0 0 0 0 0 0 0 0 0 0 477 477 477 471 474 474 474 471 468 474 477 477 481 487 487 0 484 0 0 477 481 481 474 471 477 0 0 0 0 0 0 0 0 0 0 500 504 521 507 504 493 474 0 446 0 0 0 0 0 0 493 484 487 487 487 487 490 490 490 0 504 493 493 0 0 490 487 484 484 0 0 0 0 484 487 0 0 0 487 490 484 487 487 487 490 490 487 487 487 487 490 490 487 490 490 493 493 490 493 487 487 487 481 481 477 0 0 0 0 490 500 504 511 507 500 507 497 504 504 504 500 504 497 504 500 504 493 497 493 497 497 500 493 493 490 518 504 518 525 525 525 514 518 507 514 511 511 504 500 504 507 507 514 500 0 0 0 0 493 497 500 493 493 497 493 493 493 497 490 490 493 511 529 529 533 537 533 537 541 545 533 529 521 525 521 521 521 514 500 497 490 493 490 493 497 493 493 493 493 493 493 497 490 493 500 504 504 507 521 521 521 525 493 490 484 487 490 490 493 493 497 500 500 507 514 500 497 493 493 493 497 500 507 507 521 529 521 525 511 514 504 487 487 484 484 0 0 0 0 0
    0 0 0 0 0 0 0 0 0 0 0 0 0 0 0 0 0 0 0 0 0 0 0 0 0 0 0 0 0 0 0 0 0 0 0 0 0 0 0 0 0 0 0 0 0 0 0 0 0 0 0 0 0 0 0 0 0 0 0 0 0 0 0 0 0 0 0 0 0 0 0 0 471 465 471 474 471 471 471 474 477 477 477 487 484 0 481 0 0 477 481 481 474 474 0 0 481 477 477 477 477 0 487 490 490 500 504 518 511 511 507 487 0 477 0 0 0 0 0 490 490 484 487 487 487 487 490 490 490 0 507 493 493 493 490 490 487 487 487 484 484 487 487 487 487 487 0 484 484 487 484 487 484 487 490 490 487 487 487 487 490 490 487 490 490 490 490 490 493 487 487 484 481 481 477 484 484 497 493 493 500 504 504 504 500 504 497 500 500 500 497 500 493 504 497 500 490 493 493 493 493 497 490 490 487 507 497 504 514 514 514 504 504 497 504 500 500 497 493 497 497 497 504 493 493 497 490 497 490 497 497 493 493 493 493 493 493 497 490 490 497 500 518 514 518 521 518 525 529 533 525 518 511 514 511 507 507 500 493 493 490 490 490 493 493 493 493 490 493 493 493 497 490 493 497 500 500 504 518 518 514 507 487 484 484 490 493 493 493 497 500 504 500 504 507 497 493 490 490 490 0 0 511 511 518 537 525 521 500 493 487 481 481 481 484 0 0 0 0 0
    0 0 0 0 0 0 0 0 0 0 0 0 0 0 0 0 0 0 0 0 0 0 0 0 0 0 0 0 0 0 0 0 0 0 0 0 0 0 0 0 0 0 0 0 0 0 0 0 0 0 0 0 0 0 0 0 0 0 0 0 0 0 0 0 0 0 0 0 0 0 0 468 468 462 471 474 471 474 471 474 477 477 477 487 484 0 481 0 0 477 481 481 474 474 0 477 481 481 477 477 481 484 487 490 487 493 493 511 504 507 507 487 0 484 490 487 487 487 490 490 490 484 487 487 487 490 490 490 493 490 507 493 493 493 490 490 487 484 487 484 484 484 484 484 487 484 487 484 484 484 481 487 484 484 487 490 487 487 487 487 487 490 487 487 487 490 490 490 490 487 484 484 481 481 481 487 487 493 493 493 500 504 500 500 497 500 497 500 497 497 493 497 493 500 497 500 490 493 493 497 493 497 490 490 490 504 493 500 507 507 507 500 497 493 500 497 497 493 493 490 493 493 497 490 493 497 490 493 490 497 497 497 493 493 493 493 493 497 490 493 497 497 504 504 507 507 504 514 511 521 518 507 504 504 500 500 500 497 493 490 490 490 490 493 493 493 493 490 493 497 493 500 490 493 500 500 497 497 504 504 504 497 487 481 484 490 500 500 500 500 507 511 507 500 497 490 487 484 484 0 0 0 0 493 0 0 521 514 493 481 481 474 477 477 484 0 0 0 0 0
    0 0 0 0 0 0 0 0 0 0 0 0 0 0 0 0 0 0 0 0 0 0 0 0 0 0 0 0 0 0 0 0 0 0 0 0 0 0 0 0 0 0 0 0 0 0 0 0 0 0 0 0 0 0 0 0 0 0 0 0 0 0 0 0 0 0 0 0 0 471 454 465 465 462 471 474 474 474 474 477 477 477 481 487 487 0 0 0 0 0 0 0 477 474 0 0 481 481 477 477 477 484 484 484 481 484 487 500 497 497 493 477 477 474 481 477 484 484 487 487 493 484 490 490 487 490 490 490 493 493 511 493 493 493 493 490 487 484 484 481 484 484 484 484 484 484 484 484 484 484 481 487 484 484 487 487 487 487 487 487 490 490 490 487 490 490 490 490 493 487 487 487 484 487 484 490 487 490 490 493 500 504 500 500 497 497 497 500 497 497 490 497 493 500 500 500 493 497 493 497 497 500 490 490 487 500 490 497 507 507 507 500 497 493 497 493 497 493 490 490 490 490 497 487 493 493 487 493 490 493 497 493 497 497 493 497 493 500 493 493 497 493 493 493 497 497 493 497 493 504 504 497 493 497 493 493 493 493 493 487 487 490 490 493 493 493 493 493 504 511 497 507 497 497 493 490 487 481 484 484 484 474 471 468 484 493 514 511 514 514 518 521 511 500 497 490 487 481 481 481 0 0 0 484 0 0 511 493 487 471 471 468 481 484 487 0 0 0 0 0
    0 0 0 0 0 0 0 0 0 0 0 0 0 0 0 0 0 0 0 0 0 0 0 0 0 0 0 0 0 0 0 0 0 0 0 0 0 0 0 0 0 0 0 0 0 0 0 0 0 0 0 0 0 0 0 0 0 0 0 0 0 0 0 0 0 0 0 0 0 474 454 468 468 462 474 477 477 477 477 477 481 481 481 490 487 0 484 0 0 0 0 0 477 477 0 0 481 481 477 477 477 481 481 484 481 481 484 493 490 490 487 477 477 474 0 477 487 487 490 487 493 481 490 490 487 490 490 493 493 493 511 493 497 497 493 490 487 484 484 481 484 484 484 484 487 484 487 484 484 484 481 487 484 484 487 487 487 490 490 490 490 490 490 490 490 490 490 490 493 487 484 487 487 487 487 490 490 490 493 497 500 500 497 497 497 497 497 497 497 493 490 493 490 500 500 500 493 497 497 497 497 500 487 487 487 497 490 493 504 504 507 500 497 490 497 493 497 493 490 490 490 490 497 487 493 490 487 493 490 493 497 493 497 497 497 497 493 500 493 493 497 493 493 493 0 497 493 493 490 497 497 490 490 490 487 490 490 490 490 487 487 490 490 493 493 497 497 493 507 521 507 521 507 497 490 0 481 468 471 468 471 465 462 465 484 490 518 514 518 518 518 518 514 500 500 490 487 481 481 477 0 477 0 484 0 0 497 484 487 468 471 465 0 487 487 0 0 0 0 0
    0 0 0 0 0 0 0 0 0 0 0 0 0 0 0 0 0 0 0 0 0 0 0 0 0 0 0 0 0 0 0 0 0 0 0 0 0 0 0 0 0 0 0 0 0 0 0 0 0 0 0 0 0 0 0 0 0 0 0 0 0 0 0 0 0 0 0 0 0 477 459 477 474 471 477 481 477 481 481 481 481 484 484 490 487 130 484 0 0 0 0 0 477 474 0 0 481 477 477 474 474 481 477 0 477 477 481 484 484 484 484 477 477 474 0 477 500 487 490 487 490 481 490 490 487 490 490 493 493 493 511 493 497 497 493 490 490 487 487 484 487 487 484 484 487 484 487 484 484 484 481 487 484 484 487 487 487 487 490 490 490 493 490 490 490 493 490 490 493 487 484 484 487 487 487 490 487 490 490 497 497 497 493 497 497 497 497 497 493 493 490 493 490 500 500 497 493 497 497 497 497 500 487 487 487 497 487 490 504 504 507 497 497 490 497 493 497 493 490 490 490 490 497 487 493 487 484 490 487 493 497 493 497 497 497 500 497 504 497 497 497 493 497 497 0 500 493 497 490 497 497 490 487 490 487 487 487 487 487 484 487 490 490 493 493 497 497 497 514 525 507 518 493 487 0 0 465 451 457 457 459 454 457 462 481 484 518 514 518 521 521 521 514 500 497 490 484 474 474 0 0 0 0 477 471 471 477 474 484 462 468 462 471 484 0 0 0 0 0 0
    0 0 0 0 0 0 0 0 0 0 0 0 0 0 0 0 0 0 0 0 0 0 0 0 0 0 0 0 0 0 0 0 0 0 0 0 0 0 0 0 0 0 0 0 0 0 0 0 0 0 0 0 0 0 0 0 0 0 0 0 0 0 0 0 0 0 0 0 0 0 0 487 481 0 484 481 481 481 484 484 484 484 484 490 487 130 0 0 0 0 0 0 474 474 481 477 481 477 474 474 474 477 477 481 474 474 477 481 481 477 481 477 477 477 0 477 493 487 487 484 490 477 490 490 487 490 490 490 493 490 511 490 493 497 490 490 490 487 487 484 490 487 484 487 487 484 487 487 484 484 481 487 484 484 487 487 487 490 490 490 490 493 490 490 490 493 493 490 493 487 484 484 484 487 484 487 487 487 487 493 493 493 490 493 497 497 497 497 493 493 490 490 490 500 500 497 493 497 497 500 497 500 487 487 487 497 490 490 500 504 500 497 493 490 497 493 497 493 490 490 490 493 497 487 490 484 484 490 487 493 493 493 497 497 497 500 497 504 500 500 500 497 497 497 0 500 493 497 493 497 497 490 490 487 487 487 487 487 487 484 487 493 493 497 497 497 500 497 514 529 500 504 487 481 459 438 462 448 454 457 457 454 457 462 474 474 518 511 518 521 521 521 514 500 497 490 484 474 468 465 0 465 468 471 465 471 471 477 484 474 474 468 477 487 0 0 0 0 0 0
    0 0 0 0 0 0 0 0 0 0 0 0 0 0 0 0 0 0 0 0 0 0 0 0 0 0 0 0 0 0 0 0 0 0 0 0 0 0 0 0 0 0 0 0 0 0 0 0 0 0 0 0 0 0 0 0 0 0 0 0 0 0 0 0 0 0 0 0 0 0 0 497 484 0 484 0 0 484 484 484 484 484 484 490 487 0 0 0 0 0 0 0 474 471 477 477 481 477 477 474 474 477 477 477 474 474 477 477 477 477 477 477 477 474 481 474 487 484 487 481 487 477 490 490 487 490 490 490 493 490 511 490 493 497 490 490 490 487 490 487 490 487 484 484 487 484 487 484 484 484 484 487 484 487 490 490 490 490 490 490 490 493 493 490 493 493 493 490 497 487 484 484 484 487 484 487 487 487 487 490 490 493 490 493 497 497 497 497 493 493 487 490 487 500 500 497 493 497 497 500 497 500 487 487 490 493 490 490 497 500 500 497 493 490 497 493 497 493 490 490 490 493 500 487 490 481 484 490 490 493 493 493 500 500 500 500 500 504 500 500 504 497 497 497 497 500 497 500 493 497 497 490 490 487 484 484 487 484 484 484 487 497 497 497 500 500 500 500 518 533 500 500 484 474 465 446 465 448 459 457 457 454 459 459 471 462 497 500 511 518 525 521 511 493 490 487 481 468 459 457 459 457 462 468 465 468 465 474 477 471 474 468 471 481 454 0 0 0 0 0
    0 0 0 0 0 0 0 0 0 0 0 0 0 0 0 0 0 0 0 0 0 0 0 0 0 0 0 0 0 0 0 0 0 0 0 0 0 0 0 0 0 0 0 0 0 0 0 0 0 0 0 0 0 0 0 0 0 0 0 0 0 0 0 0 0 0 0 0 0 0 0 493 484 0 484 0 0 0 484 484 0 484 481 0 487 0 0 0 0 0 0 0 474 471 477 477 481 477 474 474 474 477 474 477 474 471 477 477 477 477 0 477 477 477 481 474 0 487 487 477 487 477 490 490 487 490 490 490 493 490 507 490 493 497 490 490 493 490 0 490 497 487 484 484 484 484 487 484 481 481 484 487 487 487 490 490 490 490 490 487 490 490 490 490 490 490 493 490 500 490 487 487 487 487 484 487 487 484 487 490 490 493 487 493 493 497 497 497 493 493 487 490 487 500 500 497 493 493 493 500 497 500 487 487 490 493 490 493 497 497 497 497 493 490 497 493 497 493 490 490 490 493 497 487 490 484 487 490 490 493 497 497 500 500 504 504 500 504 500 504 504 497 500 497 500 504 497 500 493 497 497 490 490 487 484 484 487 484 484 484 484 497 497 500 500 500 504 504 518 537 493 490 477 465 459 448 462 448 457 457 457 454 457 457 465 451 0 0 0 0 529 518 511 484 481 477 471 465 454 454 454 454 459 465 462 465 462 468 468 465 468 457 459 457 435 0 0 0 0 0
    0 0 0 0 0 0 0 0 0 0 0 0 0 0 0 0 0 0 0 0 0 0 0 0 0 0 0 0 0 0 0 0 0 0 0 0 0 0 0 0 0 0 0 0 0 0 0 0 0 0 0 0 0 0 0 0 0 0 0 0 0 0 0 0 0 0 0 0 0 474 454 481 474 474 477 474 0 477 481 484 481 481 481 487 487 481 481 0 477 481 481 481 474 471 474 477 477 477 474 474 474 477 474 477 474 471 474 477 477 477 481 477 481 477 487 477 493 490 490 477 487 481 490 490 487 490 490 490 493 490 504 490 493 497 0 0 490 0 0 0 497 484 484 484 484 481 487 484 481 481 484 487 487 487 490 490 490 490 487 484 487 487 487 487 490 490 490 490 500 490 487 490 490 490 487 487 487 484 487 493 487 490 487 490 493 497 497 497 493 493 490 490 490 504 500 497 497 493 493 497 497 500 487 487 490 490 490 493 493 497 493 493 493 490 493 493 497 493 493 493 493 493 497 490 493 487 490 493 493 497 497 497 500 500 504 500 500 504 500 500 504 497 500 493 497 504 497 497 493 500 497 493 497 490 487 487 490 487 487 484 487 497 500 500 500 500 504 500 511 533 481 484 471 459 457 448 462 448 457 457 454 454 457 457 462 451 0 0 0 0 0 0 497 474 468 468 465 459 448 451 451 451 457 459 459 462 459 462 459 462 465 451 448 440 0 0 0 0 0 0
    0 0 0 0 0 0 0 0 0 0 0 0 0 0 0 0 0 0 0 0 0 0 0 0 0 0 0 0 0 0 0 0 0 0 0 0 0 0 0 0 0 0 0 0 0 0 0 0 0 0 0 0 0 0 0 0 0 0 0 0 0 0 0 0 0 0 0 0 0 474 465 484 477 471 477 474 477 474 477 481 477 477 481 487 487 481 481 481 481 481 481 481 474 468 474 474 477 477 474 474 471 474 477 477 474 471 474 474 477 474 477 474 477 474 481 477 487 487 490 477 490 481 490 490 487 490 490 490 490 487 497 0 490 0 0 0 0 0 121 0 490 484 484 484 484 484 487 484 481 484 484 490 487 490 490 490 490 487 487 484 487 487 487 490 490 490 493 493 507 490 490 493 493 490 487 487 484 484 487 490 487 487 484 490 493 497 497 493 493 493 490 493 490 504 500 497 497 493 493 497 497 497 487 487 490 493 493 497 497 497 497 493 497 490 493 493 497 493 493 493 493 497 500 493 493 490 493 497 497 497 497 497 500 500 504 500 500 500 497 500 500 497 497 493 497 500 497 500 497 500 497 493 497 493 490 493 493 490 490 487 487 500 500 504 504 504 504 504 511 533 481 481 474 462 462 451 462 451 457 457 454 454 457 457 462 454 0 0 0 471 484 481 0 471 465 462 457 454 446 448 448 448 454 454 457 459 457 459 457 462 468 454 454 0 0 0 0 0 0 0
    0 0 0 0 0 0 0 0 0 0 0 0 0 0 0 0 0 0 0 0 0 0 0 0 0 0 0 0 0 0 0 0 0 0 0 0 0 0 0 0 0 0 0 0 0 0 0 0 0 0 0 0 0 0 0 0 0 0 0 0 0 0 0 0 0 0 0 0 0 477 471 484 481 471 474 471 477 474 477 477 477 477 481 490 487 481 481 481 481 481 481 481 474 468 471 474 481 477 474 474 471 474 477 0 474 471 0 0 0 0 477 474 474 474 477 477 487 487 490 481 490 484 490 490 487 487 0 0 0 0 0 0 0 0 121 121 122 122 121 0 490 484 0 487 487 484 487 484 484 484 490 493 490 493 490 490 490 490 487 484 490 490 490 490 493 493 497 497 514 493 490 493 490 0 487 0 487 484 487 487 487 487 484 487 490 493 493 493 493 490 490 490 487 500 497 493 493 490 490 497 493 497 490 487 493 493 497 497 497 497 497 490 493 490 493 493 497 497 493 497 497 500 504 500 497 493 493 497 497 497 497 497 500 500 504 500 500 497 497 497 500 493 497 493 497 500 497 507 500 504 497 493 500 497 490 493 497 490 487 487 487 500 504 504 504 500 504 504 507 529 481 474 474 462 462 454 459 448 457 454 454 451 451 454 459 451 468 0 0 471 477 477 468 465 465 462 454 451 443 446 446 448 454 454 454 457 454 459 454 465 471 459 0 0 0 0 0 0 0 0
    0 0 0 0 0 0 0 0 0 0 0 0 0 0 0 0 0 0 0 0 0 0 0 0 0 0 0 0 0 0 0 0 0 0 0 0 0 0 0 0 0 0 0 0 0 0 0 0 0 0 0 0 0 0 0 0 0 0 0 0 0 0 0 0 0 0 0 0 0 477 474 484 481 471 474 471 474 474 477 477 474 477 481 487 487 481 481 481 481 481 481 484 474 468 471 474 477 477 471 471 471 474 477 0 477 471 0 474 477 0 477 474 477 474 481 0 493 493 493 481 490 484 490 490 487 0 0 0 0 0 0 0 0 0 120 121 0 122 121 0 490 0 0 493 490 490 490 484 484 484 493 497 493 493 493 490 493 490 490 484 490 490 490 493 493 493 0 497 518 0 0 0 0 0 0 0 487 484 484 487 487 484 484 487 490 493 490 490 493 490 487 487 487 500 497 490 493 490 490 497 497 497 490 490 497 497 497 500 497 497 493 490 493 487 493 497 500 497 497 500 500 504 507 504 497 493 493 497 497 497 497 497 500 500 500 500 497 497 497 500 500 497 500 493 497 504 504 514 504 507 497 497 500 500 493 497 497 490 487 487 484 500 500 500 497 497 497 497 500 518 477 471 471 465 465 459 459 451 457 454 451 451 454 454 457 454 468 0 465 471 471 471 438 438 454 446 446 443 438 443 443 446 451 451 454 454 454 459 454 465 0 0 0 0 0 0 0 0 0 0
    0 0 0 0 0 0 0 0 0 0 0 0 0 0 0 0 0 0 0 0 0 0 0 0 0 0 0 0 0 0 0 0 0 0 0 0 0 0 0 0 0 0 0 0 0 0 0 0 0 0 0 0 0 0 0 0 0 0 0 0 0 0 0 0 0 0 0 0 0 481 477 487 484 474 474 471 474 471 474 474 474 477 477 487 487 481 481 481 481 481 481 484 474 465 468 471 477 474 468 468 468 471 477 0 477 471 474 474 477 0 0 474 477 474 484 490 493 497 493 484 490 484 490 490 487 0 0 0 0 0 0 0 0 0 0 121 0 0 122 0 0 0 0 493 490 490 493 487 484 487 493 500 493 497 493 490 490 487 487 484 487 490 490 493 493 0 0 0 521 0 0 0 0 0 0 0 0 481 481 477 484 481 484 487 490 490 487 490 493 487 490 487 487 504 500 493 493 490 490 497 497 497 490 490 497 497 500 500 497 497 493 490 493 487 493 500 500 500 500 504 504 507 511 504 497 497 497 497 497 497 497 497 497 497 500 497 497 493 497 500 500 500 504 493 500 507 511 518 511 511 497 497 507 511 507 507 504 500 497 490 484 500 497 497 493 493 493 490 493 500 477 474 474 468 471 465 465 457 459 457 454 454 457 457 454 457 468 465 471 474 471 477 448 457 462 446 443 440 440 446 443 448 451 451 454 454 457 459 451 462 465 451 0 0 0 0 0 0 0 0
    0 0 0 0 0 0 0 0 0 0 0 0 0 0 0 0 0 0 0 0 0 0 0 0 0 0 0 0 0 0 0 0 0 0 0 0 0 0 0 0 0 0 0 0 0 0 0 0 0 0 0 0 0 0 0 0 0 0 0 0 0 0 0 0 0 0 0 0 0 484 481 490 484 474 474 468 474 471 474 471 471 474 474 484 487 481 481 477 481 481 481 484 474 465 465 471 477 471 465 465 465 468 474 481 477 474 474 477 0 0 0 474 477 474 484 0 493 497 497 484 493 484 490 490 487 0 0 0 0 0 0 0 0 0 0 121 0 0 122 121 0 0 0 497 493 497 497 487 487 487 500 504 493 497 490 490 490 487 487 481 487 490 490 493 0 0 0 0 521 0 0 0 0 0 0 0 0 0 0 0 481 481 484 487 487 490 487 490 497 490 490 490 490 507 500 493 493 490 490 497 493 497 490 490 500 497 497 500 497 497 493 487 490 487 493 500 500 500 500 504 504 507 507 504 497 497 497 497 497 497 497 497 497 497 497 497 497 493 493 497 500 500 504 497 504 511 518 521 514 511 497 500 511 518 511 511 507 504 500 493 484 497 497 493 493 490 493 490 490 497 477 477 474 471 474 468 465 459 462 459 457 457 459 457 457 462 471 465 471 474 474 481 465 468 471 459 454 451 443 448 443 448 451 451 451 454 454 457 451 459 465 454 0 0 0 0 0 0 0 0
    0 0 0 0 0 0 0 0 0 0 0 0 0 0 0 0 0 0 0 0 0 0 0 0 0 0 0 0 0 0 0 0 0 0 0 0 0 0 0 0 0 0 0 0 0 0 0 0 0 0 0 0 0 0 0 0 0 0 0 0 0 0 0 0 0 0 0 0 0 0 0 0 0 465 468 462 468 465 465 468 462 462 468 484 484 477 477 474 477 484 481 484 474 465 462 471 477 471 462 457 457 462 0 0 477 474 474 477 0 0 0 0 0 0 0 0 0 500 504 0 500 487 490 490 0 0 0 0 94 0 0 0 0 0 0 0 0 122 0 0 0 0 111 0 500 500 504 487 490 490 504 507 497 497 493 490 490 487 487 484 490 0 0 0 0 97 0 0 525 0 0 0 0 0 0 0 0 0 0 0 0 0 0 490 487 493 490 493 500 493 493 490 490 507 500 493 493 490 487 493 493 493 493 493 500 497 500 504 497 497 493 487 490 487 493 500 500 504 504 507 507 507 507 507 500 497 497 497 500 497 497 497 497 493 497 493 493 490 493 497 500 500 504 493 504 514 518 525 514 507 497 504 514 518 511 511 507 504 500 493 484 497 493 493 493 490 490 487 490 493 477 477 477 474 474 471 468 462 465 462 465 465 468 465 465 471 477 481 0 477 474 471 462 465 465 459 457 454 446 451 446 446 448 448 448 448 448 451 446 448 454 448 0 0 0 0 0 0 0 0
    0 0 0 0 0 0 0 0 0 0 0 0 0 0 0 0 0 0 0 0 0 0 0 0 0 0 0 0 0 0 0 0 0 0 0 0 0 0 0 0 0 0 0 0 0 0 0 0 0 0 0 0 0 0 0 0 0 0 0 0 0 0 0 0 0 0 0 0 0 0 0 0 0 0 0 448 454 451 454 459 451 446 451 484 484 477 477 474 481 487 487 493 481 474 471 481 481 477 462 451 448 454 0 0 0 0 0 0 0 0 0 0 0 0 0 0 0 0 0 0 0 490 490 490 0 0 0 0 93 0 0 0 0 0 0 0 0 0 0 0 0 0 0 0 507 0 0 0 507 500 511 511 497 497 493 490 490 484 487 0 487 490 493 0 0 97 97 0 0 0 95 0 0 0 0 0 0 0 0 774 750 0 0 493 490 497 493 493 500 493 497 493 493 504 500 490 493 490 487 493 493 493 493 493 504 500 500 504 497 500 497 484 487 0 0 0 0 0 0 511 507 511 504 507 500 500 500 500 500 500 497 497 493 493 493 490 493 490 493 497 500 504 507 497 500 514 521 529 518 507 493 497 507 518 514 511 504 500 500 493 484 493 490 490 490 487 490 487 487 490 477 481 477 474 477 474 471 465 468 468 468 468 468 468 465 474 481 487 484 477 474 465 457 462 454 446 443 438 438 440 438 443 443 443 443 443 446 446 440 443 443 443 0 0 0 0 0 0 0 0
    0 0 0 0 0 0 0 0 0 0 0 0 0 0 0 0 0 0 0 0 0 0 0 0 0 0 0 0 0 0 0 0 0 0 0 0 0 0 0 0 0 0 0 0 0 0 0 0 0 0 0 0 0 0 0 0 0 0 0 0 0 0 0 0 0 0 0 0 0 0 0 0 0 0 0 0 443 446 451 457 448 443 454 481 481 477 474 481 487 493 493 497 490 484 487 490 487 484 457 440 432 0 0 0 0 0 0 0 0 0 0 0 0 0 0 0 0 0 0 0 0 0 0 0 0 0 0 0 0 0 0 0 0 0 0 0 0 0 90 90 89 0 0 0 0 0 0 0 525 518 518 514 497 493 490 0 0 131 0 0 0 0 500 0 0 98 97 96 98 96 0 0 0 0 0 0 0 791 808 791 766 782 774 0 493 497 493 497 0 0 500 497 497 511 500 490 497 490 490 493 493 493 493 497 507 504 504 507 500 504 497 481 0 0 0 0 0 0 0 0 507 507 504 507 497 500 497 500 500 504 497 497 497 493 497 493 493 493 493 497 504 504 504 497 497 511 521 537 521 504 484 490 497 518 511 507 500 493 493 490 484 493 490 490 490 487 487 484 487 487 477 481 481 477 481 477 474 471 471 471 471 471 471 471 468 477 487 497 490 481 474 462 454 459 446 440 438 427 418 413 422 438 435 438 438 440 440 440 438 440 435 440 0 0 0 0 0 0 0 0
    0 0 0 0 0 0 0 0 0 0 0 0 0 0 0 0 0 0 0 0 0 0 0 0 0 0 0 0 0 0 0 0 0 0 0 0 0 0 0 0 0 0 0 0 0 0 0 0 0 0 0 0 0 0 0 0 0 0 0 0 0 0 0 0 0 0 0 0 0 389 387 391 391 391 391 393 393 391 0 427 432 422 430 430 0 0 425 0 0 0 497 493 490 0 0 0 500 0 0 393 387 371 0 0 0 0 0 0 0 0 123 122 122 0 0 0 0 0 0 0 389 389 387 383 381 385 0 0 0 0 0 0 0 0 0 0 0 0 0 0 0 0 0 0 0 0 0 0 0 0 0 0 0 0 131 132 131 131 131 0 0 0 0 0 0 99 0 0 0 0 0 0 0 0 0 0 0 817 855 826 799 799 791 0 0 0 0 0 0 0 0 0 212 0 0 0 0 0 497 497 500 500 500 504 514 507 507 504 504 500 490 0 0 0 1672 1672 1672 1672 1565 1599 0 0 0 0 0 493 0 0 0 500 490 0 497 497 500 497 497 0 493 500 507 504 0 0 0 0 525 549 0 511 477 474 481 518 507 500 500 493 490 487 484 493 487 487 487 484 487 481 484 484 477 481 481 477 481 477 474 474 474 474 477 477 477 477 474 490 500 511 504 484 474 459 451 454 440 435 430 420 411 406 411 432 430 438 435 438 438 438 435 435 432 435 0 0 0 0 0 0 0 0
    0 0 0 0 0 0 0 0 0 0 0 0 0 0 0 0 0 0 0 0 0 0 0 0 0 0 0 0 0 0 0 0 0 0 0 0 0 0 0 0 0 0 0 0 0 0 0 0 0 0 0 0 0 0 0 0 0 0 0 0 0 0 0 0 0 0 0 0 0 383 383 389 387 385 385 387 387 385 391 393 397 397 399 399 0 0 395 391 391 389 387 0 0 397 395 381 383 381 383 383 379 377 375 381 381 385 385 381 0 123 123 123 123 0 0 0 0 391 389 387 389 389 389 385 385 387 385 0 0 0 0 0 0 0 0 0 0 0 0 0 0 0 0 0 0 0 0 0 389 387 385 0 0 0 0 0 130 0 130 0 0 0 0 0 0 0 0 0 0 0 0 0 0 0 0 0 0 817 826 826 791 782 0 766 0 0 0 0 0 0 0 0 0 0 387 0 0 0 0 194 0 0 504 525 525 514 514 504 500 487 0 0 0 0 1635 1635 0 0 0 0 1565 0 0 0 0 389 383 383 385 393 0 406 393 0 0 0 0 0 0 0 0 0 0 0 0 0 381 0 383 383 0 0 430 422 0 425 0 0 0 418 0 490 484 481 481 481 484 477 481 481 477 477 481 481 481 474 474 474 474 477 481 481 481 481 481 514 518 525 518 484 474 454 446 446 435 427 420 408 406 402 406 422 425 432 432 432 435 435 432 432 430 432 0 0 0 0 0 0 0 0
    0 0 0 0 0 0 0 0 0 0 0 0 0 0 0 0 0 0 0 0 0 0 0 0 0 0 0 0 0 0 0 0 0 0 0 0 0 0 0 0 0 0 0 0 0 0 0 0 0 0 0 0 0 0 0 0 0 0 0 0 0 0 0 0 0 0 0 0 0 381 383 387 385 383 383 385 385 383 389 389 387 391 393 393 389 387 391 387 389 387 383 391 393 393 389 381 383 383 381 383 381 381 379 385 383 383 383 381 385 0 0 0 0 0 0 0 0 389 387 383 389 387 387 387 389 389 389 0 0 0 0 0 0 0 0 0 0 0 0 0 0 0 0 0 0 393 391 387 389 387 389 389 389 391 0 0 128 0 0 0 0 0 0 0 0 0 389 387 0 0 0 0 0 0 0 0 0 0 0 0 0 0 397 0 406 0 0 0 0 0 404 404 402 399 393 395 0 0 0 0 0 0 0 0 0 0 0 0 395 0 0 0 397 397 0 0 0 0 0 0 0 0 0 377 377 379 377 379 383 389 389 404 397 397 389 387 0 0 0 0 0 0 0 393 393 389 387 385 387 385 0 393 402 404 406 406 404 397 397 397 0 0 459 459 471 471 474 465 471 474 471 477 477 474 477 471 471 471 471 474 477 481 481 481 477 504 504 504 493 477 457 443 438 438 425 413 406 402 402 399 406 415 413 427 425 427 432 430 430 430 427 430 0 0 0 0 0 0 0 0
    0 0 0 0 0 0 0 0 0 0 0 0 0 0 0 0 0 0 0 0 0 0 0 0 0 0 0 0 0 0 0 0 0 0 0 0 0 0 0 0 0 0 0 0 0 0 0 0 0 0 0 0 0 0 0 0 0 0 0 0 0 0 0 0 0 0 0 0 0 381 383 387 385 383 383 385 385 385 387 387 385 389 391 391 387 387 389 387 389 387 383 389 391 391 383 383 383 383 383 385 383 383 383 387 383 383 383 379 383 0 0 0 0 0 0 0 391 389 387 383 389 389 387 387 389 389 389 0 0 0 0 422 0 0 0 0 0 0 0 404 399 397 395 395 393 391 391 387 391 389 391 393 393 393 397 0 0 0 0 0 0 118 0 0 0 393 391 391 391 393 395 399 0 0 413 413 413 411 413 415 406 397 395 393 402 404 404 402 399 399 404 404 404 402 395 395 391 395 391 393 393 393 391 393 389 389 387 389 387 391 389 391 393 395 395 395 395 397 395 395 393 381 375 377 377 379 377 383 387 389 389 402 399 397 389 389 385 379 387 389 387 389 387 391 391 389 391 389 391 389 389 393 395 395 397 395 395 393 393 393 393 395 0 432 459 454 459 446 462 459 457 471 465 446 465 446 443 446 454 477 477 484 484 477 477 497 497 490 477 457 440 438 425 427 415 408 404 402 399 399 402 406 406 406 413 418 425 425 425 422 422 427 422 425 420 0 0 0 0 0
    0 0 0 0 0 0 0 0 0 0 0 0 0 0 0 0 0 0 0 0 0 0 0 0 0 0 0 0 0 0 0 0 0 0 0 0 0 0 0 0 0 0 0 0 0 0 0 0 0 0 0 0 0 0 0 0 0 0 0 0 0 0 0 0 0 0 0 0 0 381 383 387 385 383 383 385 385 383 385 387 383 387 389 391 385 387 389 387 389 389 383 389 389 389 381 385 383 385 383 385 385 385 385 391 385 385 383 379 383 381 0 0 0 0 0 389 389 389 387 381 387 389 387 389 389 391 391 0 0 0 0 406 0 0 0 0 0 397 399 399 395 395 395 393 393 391 391 389 391 391 393 393 393 393 395 0 0 0 0 391 0 0 0 0 0 391 391 391 391 393 395 397 0 0 411 411 408 408 408 408 402 393 391 387 393 395 399 397 397 397 404 404 404 402 395 395 391 395 391 391 393 391 391 393 391 389 387 389 389 391 391 393 393 395 395 395 395 395 395 395 393 383 379 381 381 383 381 387 391 391 389 399 397 395 391 389 387 377 389 391 389 391 389 391 393 391 395 393 393 391 391 393 395 395 395 393 393 393 393 393 393 393 395 399 427 430 432 420 422 427 425 425 430 413 411 418 425 430 427 0 451 0 487 477 474 484 487 487 454 435 430 422 408 411 408 404 402 402 399 399 402 402 404 402 404 411 415 415 418 415 418 422 420 420 413 0 0 0 0 0
    0 0 0 0 0 0 0 0 0 0 0 0 0 0 0 0 0 0 0 0 0 0 0 0 0 0 0 0 0 0 0 0 0 0 0 0 0 0 0 0 0 0 0 0 0 0 0 0 0 0 0 0 0 0 0 0 0 0 0 0 0 0 0 0 0 0 0 0 0 381 383 387 387 383 383 385 385 385 385 387 383 387 389 389 385 387 389 387 387 387 383 387 387 387 381 383 383 383 385 385 385 385 387 391 385 385 385 383 385 383 0 0 379 383 391 389 389 389 387 379 387 389 387 389 389 391 389 0 0 0 397 402 0 0 0 0 395 393 393 395 393 393 395 393 393 391 393 389 393 393 393 393 393 393 395 393 0 0 0 391 387 0 0 0 0 389 391 391 393 393 395 397 399 0 411 406 406 406 404 404 399 391 389 387 389 391 395 397 395 397 404 404 404 402 397 395 391 393 387 389 391 391 391 393 391 389 389 393 393 393 393 395 395 397 397 397 397 397 397 397 395 389 385 387 389 389 387 389 393 393 391 397 397 395 391 389 387 379 391 393 393 393 393 395 395 395 397 395 395 393 393 395 395 395 395 393 395 395 395 395 397 395 397 402 408 413 406 402 402 402 402 402 402 402 402 406 413 415 411 413 418 0 0 0 0 462 0 484 443 430 420 411 404 404 404 402 399 399 397 397 399 402 402 399 399 404 408 408 411 408 411 411 411 411 406 0 0 0 0 0
    0 0 0 0 0 0 0 0 0 0 0 0 0 0 0 0 0 0 0 0 0 0 0 0 0 0 0 0 0 0 0 0 0 0 0 0 0 0 0 0 0 0 0 0 0 0 0 0 0 0 0 0 0 0 0 0 0 0 0 0 0 0 0 0 0 0 0 0 0 383 383 389 387 385 385 385 385 385 385 387 383 385 387 389 387 389 389 389 389 387 385 387 387 387 379 383 383 383 383 383 385 385 387 391 387 387 385 385 387 387 385 0 383 385 391 391 391 391 389 381 389 389 389 389 389 391 389 0 397 395 395 397 0 0 0 393 393 389 391 393 391 391 395 393 393 391 393 389 393 393 393 393 393 393 395 393 0 0 0 391 387 389 0 0 0 389 393 393 393 395 395 397 399 0 411 406 404 404 402 402 395 389 389 387 389 391 393 395 395 397 404 404 404 402 397 397 391 393 385 387 387 391 391 393 389 389 391 395 395 397 395 397 397 399 397 397 397 397 397 399 397 391 389 391 393 0 391 393 393 395 393 397 395 395 391 389 389 381 391 395 395 395 395 0 0 0 399 395 397 395 395 395 395 395 395 393 395 395 395 397 397 397 397 402 406 406 402 399 399 397 397 397 397 397 397 402 408 408 406 408 408 411 420 420 420 422 425 430 430 420 415 411 402 402 402 402 399 399 399 397 397 399 402 397 397 402 404 406 406 404 406 406 408 411 404 0 0 0 0 0
    0 0 0 0 0 0 0 0 0 0 0 0 0 0 0 0 0 0 0 0 0 0 0 0 0 0 0 0 0 0 0 0 0 0 0 0 0 0 0 0 0 0 0 0 0 0 0 0 0 0 0 0 0 0 0 0 0 0 0 0 0 0 0 0 0 0 0 0 0 383 383 389 387 385 385 385 385 385 385 387 383 385 389 389 387 389 389 389 389 389 387 387 387 387 381 385 383 383 383 383 385 385 387 391 385 387 387 385 387 385 385 385 385 387 391 391 391 391 389 381 389 389 389 391 389 391 391 393 397 395 395 397 393 0 391 393 391 389 389 389 389 391 393 393 391 391 391 389 393 391 393 393 393 393 395 393 395 389 0 389 387 387 391 389 393 387 393 393 393 395 395 397 397 399 408 402 402 402 399 399 393 387 387 387 389 391 393 395 393 397 404 404 404 402 397 397 393 393 387 387 387 391 389 391 389 391 391 395 395 397 395 397 397 399 397 397 397 397 399 399 397 393 391 393 393 0 393 393 393 395 393 395 395 393 391 389 389 383 391 395 395 397 0 0 0 0 399 397 397 395 395 397 395 395 395 393 395 395 395 395 395 397 397 402 404 402 399 397 397 397 397 395 395 395 397 399 404 404 402 402 404 406 413 413 413 413 413 415 418 411 406 406 402 402 402 402 402 402 402 402 402 404 406 397 397 402 404 406 404 404 404 404 404 406 402 0 0 0 0 0</data></depth>
</opencv_storage>
