<?xml version="1.0"?>
<opencv_storage>
<gps_time_stamp>25992</gps_time_stamp>
<gps_x>-5.4268889427185059e+000</gps_x>
<gps_y>7.8049176931381226e-001</gps_y>
<gps_z>-1.3101544380187988e+000</gps_z>
<image_time_stamp>13964</image_time_stamp>
<depth type_id="opencv-matrix">
  <rows>91</rows>
  <cols>320</cols>
  <dt>s</dt>
  <data>
    0 0 0 0 0 0 0 0 0 0 0 0 0 0 0 0 0 0 0 0 0 0 0 0 0 0 0 0 0 0 0 0 0 0 0 0 0 0 0 0 0 0 0 0 0 0 0 0 0 0 0 0 0 0 0 0 0 0 0 0 0 0 0 0 0 0 0 0 0 0 0 0 0 0 0 0 0 0 0 0 0 0 0 0 0 0 0 0 0 0 0 0 0 0 0 0 0 0 0 0 0 0 0 0 0 0 0 0 0 0 0 0 0 0 0 0 0 0 0 0 0 0 0 0 0 0 0 0 0 0 0 0 8177 8177 8177 7359 7359 6690 6690 4906 0 0 0 0 0 0 0 0 0 4599 3873 3679 4599 5256 6133 6133 6690 6690 6690 6690 7359 8177 8177 7359 0 0 4906 7359 8177 8177 0 8177 7359 7359 7359 0 7359 6690 7359 6690 6690 7359 7359 7359 8177 7359 8177 0 0 0 6690 8177 8177 8177 8177 8177 6690 7359 7359 0 0 0 0 8177 0 0 0 0 0 8177 8177 7359 6690 5661 4599 4906 4906 4329 4599 4329 4599 4329 4906 4088 4088 4329 4329 4329 4329 4088 4329 4088 4329 4329 4088 4599 3873 3504 3679 3504 3345 3066 2943 2725 2628 2537 2725 2453 2453 2374 2453 2537 2453 2453 2374 2299 2299 2299 2453 0 0 0 0 0 0 0 0 0 0 0 0 0 0 0 0 0 0 0 1795 0 1936 2044 2374 0 340 337 0 0 152 152 153 153 152 151 151 151 153 151 150 150 148 0 0 0 0 0 393 385 373 0 157 158 157 157 157 0 0 0 0 0
    0 0 0 0 0 0 0 0 0 0 0 0 0 0 0 0 0 0 0 0 0 0 0 0 0 0 0 0 0 0 0 0 0 0 0 0 0 0 0 0 0 0 0 0 0 0 0 0 0 0 0 0 0 0 0 0 0 0 0 0 0 0 0 0 0 0 0 0 0 0 0 0 0 0 0 0 0 0 0 0 0 0 0 0 0 0 0 0 0 0 0 0 0 0 0 0 0 0 0 0 0 0 0 0 0 0 0 0 0 0 0 0 0 0 0 0 0 0 0 0 0 0 0 0 0 0 0 0 0 0 0 0 9199 8177 8177 7359 7359 6690 6690 5661 0 0 0 0 0 0 0 0 0 5661 4906 4599 5661 5661 6690 6690 6690 6690 7359 7359 8177 8177 8177 8177 0 0 4906 7359 7359 7359 7359 8177 7359 7359 7359 0 8177 7359 7359 7359 7359 8177 7359 7359 8177 7359 8177 0 0 0 6690 8177 8177 7359 8177 8177 6690 6690 7359 0 9199 8177 0 8177 0 0 0 0 0 0 8177 7359 7359 5661 4599 4906 4599 4599 4599 4599 4906 4599 4906 4329 4088 4599 4329 4329 4329 4088 4329 4088 4329 4088 4088 4599 3873 3679 3679 3504 3345 3066 2943 2725 2628 2537 2628 2374 2374 2374 2453 2453 2453 2374 2374 2299 2374 2299 2628 0 0 0 0 0 0 0 0 0 0 0 0 0 0 0 0 0 0 0 0 0 1989 2164 0 0 0 337 0 151 152 152 153 153 152 152 152 152 153 150 149 149 147 146 0 0 0 0 391 387 0 0 0 158 157 157 157 0 0 0 0 0
    0 0 0 0 0 0 0 0 0 0 0 0 0 0 0 0 0 0 0 0 0 0 0 0 0 0 0 0 0 0 0 0 0 0 0 0 0 0 0 0 0 0 0 0 0 0 0 0 0 0 0 0 0 0 0 0 0 0 0 0 0 0 0 0 0 0 0 0 0 0 0 0 0 0 0 0 0 0 0 0 0 0 0 0 0 0 0 0 0 0 0 0 0 0 0 0 0 0 8177 7359 0 0 0 0 0 0 0 0 0 0 0 0 0 0 0 0 0 0 0 0 0 0 0 0 0 0 0 0 0 0 0 0 8177 8177 8177 7359 7359 7359 7359 6133 6690 7359 0 0 0 0 0 4088 0 5661 5256 4906 5661 6133 6690 6690 6690 6690 7359 7359 8177 8177 8177 8177 0 0 4599 7359 7359 7359 7359 7359 7359 7359 7359 0 8177 7359 8177 7359 7359 8177 8177 7359 0 8177 0 0 0 0 6690 7359 8177 7359 7359 7359 6133 6690 6690 0 8177 8177 0 8177 0 0 0 0 0 0 0 8177 8177 5661 4906 4906 4906 4906 5256 4906 5256 4906 4906 4599 4329 4599 4329 4329 4329 4088 4329 4088 4329 4088 4088 4599 3873 3679 3679 3504 3345 3066 2943 2628 2628 2537 2628 2374 2374 2299 2453 2453 2453 2374 2299 2230 2299 2299 2725 0 0 0 0 0 0 0 0 0 0 0 0 0 0 0 0 0 0 0 0 0 0 2374 0 0 0 337 0 151 152 153 153 153 153 152 152 152 153 150 147 147 146 0 0 0 0 0 0 0 0 0 0 157 157 157 156 0 0 0 0 0
    0 0 0 0 0 0 0 0 0 0 0 0 0 0 0 0 0 0 0 0 0 0 0 0 0 0 0 0 0 0 0 0 0 0 0 0 0 0 0 0 0 0 0 0 0 0 0 0 0 0 0 0 0 0 0 0 0 0 0 0 0 0 0 0 0 0 0 0 0 0 0 0 0 0 0 0 0 0 0 0 0 0 0 0 0 0 0 0 0 0 0 0 0 0 0 0 0 0 8177 6690 8177 0 0 0 0 0 0 0 0 0 0 0 0 0 0 0 0 0 0 0 0 0 0 0 0 0 0 0 0 0 0 0 8177 7359 7359 6690 7359 6690 7359 6133 6690 7359 7359 0 0 0 5256 4088 4906 5661 5256 4906 6133 5661 6690 6690 6690 6690 7359 7359 8177 7359 0 8177 0 0 4329 6690 6690 6690 6690 7359 7359 6690 6690 0 8177 7359 8177 8177 8177 8177 8177 8177 0 8177 0 0 0 0 6690 7359 8177 7359 7359 7359 6133 6133 6690 8177 8177 8177 8177 8177 0 0 0 0 0 0 8177 8177 8177 5661 4906 4599 4906 5256 5256 4906 4906 4906 4906 4599 4599 4906 4088 4329 4329 4329 4088 4088 4329 3873 4088 4599 3873 3679 3679 3679 3504 3199 3066 2725 2628 2537 2628 2299 2299 2230 2374 2374 2453 2299 2299 2230 2299 2299 0 0 0 0 0 0 0 0 0 0 0 0 0 0 0 0 0 0 0 0 0 0 0 0 0 0 0 0 152 151 152 153 153 153 153 152 152 152 152 149 145 145 142 140 0 0 0 0 0 0 0 0 0 157 156 156 156 0 0 0 0 0
    0 0 0 0 0 0 0 0 0 0 0 0 0 0 0 0 0 0 0 0 0 0 0 0 0 0 0 0 0 0 0 0 0 0 0 0 0 0 0 0 0 0 0 0 0 0 0 0 0 0 0 0 0 0 0 0 0 0 0 0 0 0 0 0 0 0 0 0 0 0 0 0 0 0 0 0 0 0 0 0 0 0 0 0 0 0 0 0 0 0 0 0 0 0 0 0 0 0 8177 7359 0 0 0 0 0 0 0 0 0 0 0 0 0 0 0 0 0 0 0 0 0 0 0 0 0 0 0 0 0 0 0 8177 7359 7359 7359 6690 6690 6690 7359 6133 6133 7359 6690 0 0 0 5661 4599 0 5661 4906 4906 6133 5661 6690 6133 6690 6690 6690 7359 8177 7359 0 6133 0 0 0 6133 6690 6133 6133 6690 6690 6690 6133 8177 7359 7359 8177 8177 8177 8177 9199 8177 0 8177 0 0 0 0 5661 7359 7359 7359 6690 6690 5661 6133 6133 8177 8177 8177 8177 7359 0 0 0 0 0 8177 7359 7359 7359 5661 4599 4599 4906 5256 4906 4906 4906 4906 4906 4599 4906 4906 4329 4329 4329 4329 4088 4088 4599 3873 4088 4906 4088 3873 3873 3679 3504 3345 3345 2830 2725 2537 2628 2374 2374 2230 2374 2374 2453 2299 2299 2230 2374 2299 0 0 0 0 0 0 0 0 0 0 0 0 0 0 0 0 0 0 0 0 0 0 0 0 0 0 0 0 152 152 152 153 153 153 152 152 152 152 151 147 0 140 141 139 0 0 0 0 0 0 0 0 0 157 156 156 156 0 0 0 0 0
    0 0 0 0 0 0 0 0 0 0 0 0 0 0 0 0 0 0 0 0 0 0 0 0 0 0 0 0 0 0 0 0 0 0 0 0 0 0 0 0 0 0 0 0 0 0 0 0 0 0 0 0 0 0 0 0 0 0 0 0 0 0 0 0 0 0 0 0 0 0 0 0 0 0 0 0 0 0 0 0 0 0 0 0 0 0 0 0 0 0 0 0 0 0 0 0 0 0 8177 7359 0 0 0 0 0 0 0 0 0 0 0 0 0 0 0 0 0 0 0 0 0 0 0 0 0 0 0 0 0 0 0 8177 7359 7359 7359 6690 7359 7359 7359 6133 6133 6690 7359 0 0 0 6133 4329 0 5256 4906 4906 6133 5256 6690 6133 6690 6690 6690 7359 8177 6690 0 5661 0 0 0 6133 6133 6133 6133 6690 6690 6690 6133 8177 7359 6690 8177 7359 8177 8177 8177 7359 8177 7359 8177 0 0 0 5661 6690 7359 7359 7359 6690 6133 6133 6690 0 8177 0 0 6690 0 0 0 8177 7359 6690 6690 6690 7359 5661 4599 4906 4906 5256 5256 5256 5256 4906 5256 4599 4906 4906 4329 4329 4329 4088 4329 4329 4906 3679 4088 4906 4088 3679 3679 3679 3504 3504 3345 2830 2725 2537 2628 2374 2299 2230 2299 2374 2374 2230 2230 2164 2299 0 0 0 0 0 0 0 0 0 0 0 0 0 0 0 0 0 0 0 0 0 0 0 0 0 0 0 0 0 153 152 153 153 153 152 152 153 152 151 150 145 141 140 140 139 138 0 0 0 0 0 0 0 0 157 156 156 155 0 0 0 0 0
    0 0 0 0 0 0 0 0 0 0 0 0 0 0 0 0 0 0 0 0 0 0 0 0 0 0 0 0 0 0 0 0 0 0 0 0 0 0 0 0 0 0 0 0 0 0 0 0 0 0 0 0 0 0 0 0 0 0 0 0 0 0 0 0 0 0 0 0 0 0 0 0 0 0 0 0 0 0 0 0 0 0 0 0 0 0 0 0 0 0 0 0 0 0 0 0 0 0 0 8177 0 0 0 0 0 0 0 0 0 0 0 0 0 0 0 0 0 0 0 0 0 0 0 0 0 0 0 0 0 0 0 8177 7359 7359 7359 7359 7359 7359 7359 6133 6690 7359 0 0 0 0 0 0 0 5661 5256 5256 6133 5661 6690 6690 6690 7359 7359 8177 8177 7359 0 6690 0 0 0 6690 6690 6133 6133 6690 6690 6690 6133 8177 7359 6690 7359 7359 7359 7359 8177 7359 7359 6690 8177 0 0 0 5661 6690 7359 7359 7359 6690 6133 6690 6690 0 0 0 0 6133 0 8177 7359 6690 6133 6133 6133 6133 6690 5256 4599 4906 5256 5256 4906 5256 5256 4906 5256 4329 4906 4906 4329 4329 4329 4329 4599 4329 5256 3679 4329 4906 4329 3679 3679 3679 3504 3504 3345 2830 2628 2453 2628 2374 2299 2230 2299 2374 2374 2230 2230 2164 0 0 0 0 0 0 0 0 0 0 0 0 0 0 0 0 0 0 0 0 0 0 0 0 0 0 330 0 0 154 153 153 154 154 153 153 153 153 152 151 149 145 141 140 140 139 0 0 0 0 0 0 0 0 0 157 156 156 155 0 0 0 0 0
    0 0 0 0 0 0 0 0 0 0 0 0 0 0 0 0 0 0 0 0 0 0 0 0 0 0 0 0 0 0 0 0 0 0 0 0 0 0 0 0 0 0 0 0 0 0 0 0 0 0 0 0 0 0 0 0 0 0 0 0 0 0 0 0 0 0 0 0 0 0 0 0 0 0 0 0 0 0 0 0 0 0 0 0 0 0 0 0 0 0 0 0 0 0 0 0 0 0 0 8177 0 0 0 0 0 0 0 0 0 0 0 0 0 0 0 0 0 0 0 0 0 0 0 0 0 0 0 0 8177 8177 0 8177 7359 7359 7359 7359 7359 7359 7359 6690 7359 8177 0 0 0 0 0 0 1206 6133 5661 5661 6133 5661 6690 6690 6690 7359 7359 8177 8177 8177 0 7359 0 0 4599 6690 6690 6690 6690 7359 7359 6690 6133 0 8177 7359 7359 7359 7359 7359 8177 7359 6690 6690 8177 0 0 0 5256 6690 7359 7359 7359 6690 6133 6690 6690 0 0 0 0 5256 8177 7359 6133 5661 5661 5661 5661 5661 6690 4906 4906 5256 5256 5256 5256 5256 4906 4599 5256 4329 4906 4906 4329 4329 4329 4599 4599 4329 5256 3679 4329 4906 4329 3679 3679 3504 3504 3504 3504 2830 2725 2453 2628 2453 2299 2230 2230 2374 2299 2230 2299 2230 0 0 0 0 0 0 0 0 0 0 0 0 0 0 0 0 0 0 0 0 0 0 0 0 0 0 0 0 0 154 153 153 154 154 153 153 153 153 152 150 148 145 141 140 140 139 0 0 0 0 0 0 0 0 158 157 156 156 155 0 0 0 0 0
    0 0 0 0 0 0 0 0 0 0 0 0 0 0 0 0 0 0 0 0 0 0 0 0 0 0 0 0 0 0 0 0 0 0 0 0 0 0 0 0 0 0 0 0 0 0 0 0 0 0 0 0 0 0 0 0 0 0 0 0 0 0 0 0 0 0 0 0 0 0 0 0 0 0 0 0 0 0 0 0 0 0 0 0 0 0 0 0 0 0 0 0 0 0 0 0 0 0 8177 8177 0 0 0 0 0 0 0 0 0 0 0 0 0 0 0 0 0 0 0 0 0 0 0 0 0 0 0 0 8177 8177 0 8177 7359 7359 7359 7359 7359 8177 8177 7359 0 0 0 0 0 0 0 0 1268 0 7359 6690 7359 6133 7359 7359 7359 7359 8177 8177 0 0 0 6690 0 0 4906 6690 6690 6690 6690 7359 7359 6690 6690 0 8177 8177 8177 7359 7359 7359 8177 7359 7359 7359 8177 0 0 0 4906 6133 6690 6690 6690 6133 6133 6690 6690 0 0 0 0 5256 8177 7359 6133 6133 5661 5661 5661 5256 6690 4906 4906 4906 4906 4906 5256 5256 5256 4599 5256 4329 4906 4906 4329 4329 4329 4599 4599 4599 5661 3679 4599 5256 4329 3873 3873 3679 3679 3679 3679 2943 2943 2628 2628 2453 2374 2230 2230 2299 2299 2230 2230 2164 0 0 0 0 0 0 0 0 0 0 0 0 0 0 0 0 0 0 0 0 0 0 0 0 0 0 0 0 0 154 153 154 154 154 153 153 153 153 152 150 147 145 141 140 140 139 0 0 0 0 0 0 0 159 159 157 155 155 155 0 0 0 0 0
    0 0 0 0 0 0 0 0 0 0 0 0 0 0 0 0 0 0 0 0 0 0 0 0 0 0 0 0 0 0 0 0 0 0 0 0 0 0 0 0 0 0 0 0 0 0 0 0 0 0 0 0 0 0 0 0 0 0 0 0 0 0 0 0 0 0 0 0 0 0 0 0 0 0 0 0 0 0 0 0 0 0 0 0 0 0 0 0 0 0 0 0 0 0 0 0 0 0 8177 8177 0 0 0 0 0 0 0 0 0 0 0 0 0 0 0 0 0 0 0 0 0 0 0 0 0 0 0 0 8177 8177 0 8177 7359 7359 7359 8177 8177 0 0 0 0 0 0 0 0 0 0 0 0 0 0 0 8177 0 8177 7359 7359 8177 8177 0 8177 8177 0 5661 0 0 4906 6690 6690 6690 6690 7359 7359 6690 6133 0 8177 8177 8177 7359 7359 7359 8177 8177 7359 7359 8177 0 0 0 4599 6133 6133 6133 6690 6133 6133 6690 6690 0 0 0 0 5661 8177 6690 6133 6133 5661 5256 5661 5256 6133 4906 4906 4906 4906 5256 5661 5256 5256 4599 5256 4329 4906 4906 4329 4599 4599 4599 4906 4329 5661 3679 4599 5256 4329 4088 3873 3679 3679 3679 3679 2943 2943 2725 2628 2453 2374 2299 2299 2299 2374 2230 2299 2164 0 0 0 0 0 0 0 0 0 0 0 0 0 0 0 0 0 0 0 0 0 0 0 0 0 0 0 0 0 154 0 154 154 154 153 153 154 154 152 149 146 145 141 140 140 139 0 0 95 95 94 0 0 159 159 157 155 155 155 0 0 0 0 0
    0 0 0 0 0 0 0 0 0 0 0 0 0 0 0 0 0 0 0 0 0 0 0 0 0 0 0 0 0 0 0 0 0 0 0 0 0 0 0 0 0 0 0 0 0 0 0 0 0 0 0 0 0 0 0 0 0 0 0 0 0 0 0 0 0 0 0 0 0 0 0 0 0 0 0 0 0 0 0 0 0 0 0 0 0 0 0 0 0 0 0 0 0 0 0 0 0 0 8177 7359 0 0 0 0 0 0 0 0 0 0 0 0 0 0 0 0 0 0 0 0 0 0 0 0 0 0 0 8177 8177 8177 0 0 8177 8177 8177 8177 0 0 0 0 0 0 0 0 0 0 0 0 0 0 0 0 0 0 8177 8177 8177 8177 8177 8177 8177 7359 0 5256 0 0 4906 6690 6690 6690 6690 7359 7359 6133 6133 8177 8177 7359 7359 6690 6690 7359 8177 8177 7359 7359 8177 0 0 0 4599 5661 6133 6133 6133 5661 6133 6690 6690 0 0 0 0 5256 7359 6133 5661 5661 5661 4906 5256 5256 6133 4599 4906 4906 4906 5256 5256 4906 4906 4599 5256 4329 4906 4906 4599 4599 4599 4906 4906 4329 6133 3679 4906 5256 4088 3873 3679 3679 3679 3504 3345 2830 2830 2628 2537 2453 2299 2374 2299 2374 2374 2230 2299 2164 0 0 0 0 0 0 0 0 0 0 0 0 0 0 0 0 0 0 0 0 0 0 0 0 0 0 0 0 153 153 0 154 154 154 153 153 154 154 151 149 146 145 142 141 0 0 0 0 95 95 95 0 160 159 159 157 155 155 155 0 0 0 0 0
    0 0 0 0 0 0 0 0 0 0 0 0 0 0 0 0 0 0 0 0 0 0 0 0 0 0 0 0 0 0 0 0 0 0 0 0 0 0 0 0 0 0 0 0 0 0 0 0 0 0 0 0 0 0 0 0 0 0 0 0 0 0 0 0 0 0 0 0 0 0 0 0 0 0 0 0 0 0 0 0 0 0 0 0 0 0 0 0 0 0 0 0 0 0 0 0 0 0 8177 8177 0 0 0 0 0 0 0 0 0 0 0 0 0 0 0 0 0 0 0 0 0 0 0 0 0 0 0 0 8177 8177 0 0 8177 8177 8177 0 0 0 0 0 0 0 0 0 0 0 0 0 0 0 0 0 0 0 0 0 0 0 8177 8177 8177 7359 8177 5256 0 0 4906 6133 6133 6690 6690 6690 7359 6133 5661 8177 7359 6690 7359 6690 6133 6690 8177 7359 7359 7359 8177 0 0 0 4906 5661 6133 6133 6133 6133 6690 6690 6690 0 0 0 0 4906 6690 6133 5661 5256 4906 4599 5256 4906 6133 4599 4906 4906 4906 4906 5256 4906 4906 4599 5256 4088 4906 4906 4599 4599 4906 4906 4906 4329 6133 3873 4906 4906 3873 3873 3679 3679 3504 3345 3345 2830 2830 2628 2537 2453 2299 2299 2299 2374 2374 2230 2299 2164 2453 0 0 0 0 0 0 0 0 0 0 0 0 0 0 0 0 0 0 0 0 0 0 0 0 0 0 0 0 153 153 154 154 154 153 153 154 153 150 147 146 145 142 141 0 0 0 0 0 95 0 0 160 159 159 157 155 155 155 0 0 0 0 0
    0 0 0 0 0 0 0 0 0 0 0 0 0 0 0 0 0 0 0 0 0 0 0 0 0 0 0 0 0 0 0 0 0 0 0 0 0 0 0 0 0 0 0 0 0 0 0 0 0 0 0 0 0 0 0 0 0 0 0 0 0 0 0 0 0 0 0 0 0 0 0 0 0 0 0 0 0 0 0 0 0 0 0 0 0 0 0 0 0 0 0 0 0 0 0 0 0 0 0 0 0 0 0 0 0 0 0 0 0 0 0 0 0 0 0 0 0 0 0 0 0 0 0 0 0 0 0 0 9199 8177 0 0 0 8177 0 0 0 0 0 0 0 0 0 0 0 0 0 0 0 0 0 0 0 0 0 0 0 0 8177 0 8177 8177 0 6133 0 0 4906 6133 6133 6690 6690 6690 6690 6133 5661 8177 7359 6690 6690 6690 6133 6690 8177 7359 6690 7359 7359 0 0 0 4906 5661 6133 6133 6690 6133 6690 6690 6690 0 0 0 0 4599 7359 6133 5256 5256 4906 4599 5256 4906 6133 4599 4906 4906 5256 5256 5256 4906 4906 4906 5256 4329 4906 4906 4906 4906 4906 4906 4599 4329 6690 4088 5256 4329 3873 3679 3679 3504 3504 3345 3199 2830 2725 2537 2453 2374 2230 2299 2230 2299 2299 2230 2299 2230 2453 0 0 0 0 0 0 0 0 0 0 0 0 0 0 0 0 0 0 0 0 0 0 0 0 0 0 0 0 153 153 154 154 154 153 153 154 153 150 147 146 145 143 0 157 159 160 160 160 0 0 160 160 159 159 157 156 155 155 0 0 0 0 0
    0 0 0 0 0 0 0 0 0 0 0 0 0 0 0 0 0 0 0 0 0 0 0 0 0 0 0 0 0 0 0 0 0 0 0 0 0 0 0 0 0 0 0 0 0 0 0 0 0 0 0 0 0 0 0 0 0 0 0 0 0 0 0 0 0 0 0 0 0 0 0 0 0 0 0 0 0 0 0 0 0 0 0 0 0 0 0 0 0 0 0 0 0 0 0 0 0 0 0 0 0 0 0 0 0 0 0 0 0 0 0 0 0 0 0 0 0 0 0 0 0 0 0 0 0 0 0 0 0 0 0 0 0 0 0 0 0 0 0 0 0 0 0 0 0 0 0 0 0 0 0 0 0 0 0 0 0 0 0 0 0 0 0 8177 0 0 4906 6133 6133 6133 6690 6690 6690 5661 5661 8177 7359 6690 6690 6690 6133 6133 8177 7359 7359 7359 7359 8177 0 0 5256 5661 6133 6133 6690 6133 7359 7359 7359 0 0 0 0 4906 7359 6133 5661 5661 5256 5256 5661 5256 6133 4599 5256 5256 5256 4906 5256 4906 4906 4906 5661 4088 4906 4906 4906 4599 4599 5256 4599 4329 6133 4329 4906 4088 3679 3679 3504 3345 3345 3199 3066 2725 2725 2537 2374 2299 2230 2299 2230 2299 2299 2230 2374 2299 2537 0 0 0 0 0 0 0 0 0 0 0 0 0 0 0 0 0 0 0 0 0 0 0 0 0 0 0 0 153 154 154 154 154 153 153 154 152 150 146 146 145 144 156 157 158 159 159 160 160 160 160 160 159 159 157 156 156 155 0 0 0 0 0
    0 0 0 0 0 0 0 0 0 0 0 0 0 0 0 0 0 0 0 0 0 0 0 0 0 0 0 0 0 0 0 0 0 0 0 0 0 0 0 0 0 0 0 0 0 0 0 0 0 0 0 0 0 0 0 0 0 0 0 0 0 0 0 0 0 0 0 0 0 0 0 8177 8177 0 0 0 8177 0 0 0 0 0 0 0 0 0 0 0 0 0 0 0 0 0 0 0 0 0 0 0 0 0 0 0 0 0 0 0 0 0 0 0 0 0 0 0 0 0 0 0 0 0 0 0 0 0 0 0 0 0 0 0 0 0 0 0 0 0 0 0 0 0 0 0 0 0 0 0 0 0 0 0 0 0 0 0 0 0 0 0 0 0 0 0 0 0 4906 6133 6133 6133 6133 6690 6690 5661 5661 7359 6690 6690 6690 6690 6133 6133 8177 7359 7359 8177 7359 8177 0 0 4906 5256 6133 6133 6133 6133 7359 7359 7359 0 0 0 8177 5256 7359 6133 5256 5256 5661 5256 5661 5256 6133 4906 4906 5256 4906 4906 5256 4906 4906 4906 5256 4088 4906 4906 4906 4599 4599 5256 4329 4329 6133 4088 4599 4088 3504 3504 3345 3345 3199 3066 2943 2725 2725 2628 2374 2299 2230 2299 2299 2299 2299 2230 2374 2299 2453 0 0 0 0 0 0 0 0 0 0 0 0 0 0 0 0 0 0 0 758 0 0 0 0 0 0 0 0 153 153 154 154 153 153 153 154 151 149 146 146 145 0 156 157 157 158 159 159 159 159 159 159 159 159 157 156 156 155 0 0 0 0 0
    0 0 0 0 0 0 0 0 0 0 0 0 0 0 0 0 0 0 0 0 0 0 0 0 0 0 0 0 0 0 0 0 0 0 0 0 0 0 0 0 0 0 0 0 0 0 0 0 0 0 0 0 0 0 0 0 0 0 0 0 0 0 0 0 0 0 0 0 0 8177 8177 8177 8177 0 0 0 8177 0 0 0 0 0 0 0 0 0 0 0 0 0 0 0 0 0 0 0 0 0 0 0 0 0 0 0 0 0 0 0 0 0 0 0 0 0 0 0 0 0 0 0 0 0 0 0 0 0 0 0 0 0 0 0 0 0 0 0 0 0 0 0 0 0 0 0 0 0 0 0 0 0 0 0 0 0 0 0 0 0 0 0 0 0 0 0 0 0 4906 6133 6133 6133 6133 6690 6690 5661 5661 7359 6690 6690 6690 6133 6133 6133 8177 8177 8177 0 7359 8177 0 8177 4906 5256 6133 6133 6133 6133 6690 7359 7359 0 0 0 6690 5256 7359 5661 5256 5661 5661 5256 5256 5256 5661 4906 5256 5256 4906 4906 5256 4906 4906 4906 5256 4329 4906 4906 4906 4599 4906 5256 4329 4329 5661 4088 4329 4088 3504 3504 3345 3345 3199 3066 2943 2725 2725 2628 2374 2299 2230 2230 2299 2299 2299 2299 2374 2230 2299 0 0 0 0 0 0 0 0 0 0 0 0 0 0 0 0 0 0 0 758 0 0 0 0 0 0 0 0 153 153 153 153 153 152 152 154 151 148 146 145 145 0 156 156 157 158 159 158 159 159 159 160 159 159 157 156 156 155 0 0 0 0 0
    0 0 0 0 0 0 0 0 0 0 0 0 0 0 0 0 0 0 0 0 0 0 0 0 0 0 0 0 0 0 0 0 0 0 0 0 0 0 0 0 0 0 0 0 0 0 0 0 0 0 0 0 0 0 0 0 0 0 0 0 0 0 0 0 0 0 0 0 0 8177 8177 7359 8177 8177 0 0 0 0 0 0 0 0 0 0 0 0 0 0 0 0 0 0 0 0 0 0 0 0 0 0 0 0 0 0 0 0 0 0 0 8177 0 0 0 0 0 0 0 0 0 0 0 0 0 0 0 0 0 0 0 0 0 0 0 0 0 0 0 0 0 8177 0 8177 0 0 0 0 0 0 0 0 0 0 0 8177 0 0 0 0 0 0 0 0 0 0 0 0 4906 6133 6133 6133 6133 6690 6690 5661 5661 7359 6690 6690 6690 6133 5661 6133 8177 8177 8177 0 8177 0 0 0 4906 5256 6133 6133 6133 6133 6690 7359 7359 0 0 0 5661 5661 7359 5661 5256 5661 5256 4906 5256 5256 5661 4906 5256 5256 5256 5256 5256 4906 5256 5256 5661 4329 5256 4906 4599 4599 4906 4906 4329 4329 5661 4088 4329 4088 3504 3504 3345 3345 3199 3066 2943 2725 2628 2628 2374 2230 2164 2164 2299 2299 2299 2299 2374 2164 2230 2299 0 0 0 0 0 0 0 0 0 0 0 0 0 0 0 0 0 766 750 0 0 0 0 0 0 0 0 0 0 154 153 153 152 152 154 150 148 146 146 0 155 156 156 157 158 158 158 158 159 159 159 158 158 156 156 156 155 0 0 0 0 0
    0 0 0 0 0 0 0 0 0 0 0 0 0 0 0 0 0 0 0 0 0 0 0 0 0 0 0 0 0 0 0 0 0 0 0 0 0 0 0 0 0 0 0 0 0 0 0 0 0 0 0 0 0 0 0 0 0 0 0 0 0 0 0 0 0 0 0 0 0 8177 8177 7359 8177 0 0 0 0 0 0 0 0 0 0 0 0 0 0 0 0 0 0 0 0 0 0 0 0 0 0 0 0 0 0 0 0 0 0 0 0 0 0 0 0 0 0 0 0 0 0 0 0 0 0 0 0 0 0 0 0 0 0 0 0 0 0 0 0 0 8177 6133 6133 4906 4599 6690 8177 0 0 0 8177 0 0 0 8177 7359 8177 9199 0 0 8177 8177 0 0 0 0 0 0 4906 6690 6690 6690 6690 7359 7359 6133 5661 7359 6690 6690 6690 6133 5661 6133 8177 8177 8177 0 8177 8177 0 0 4906 5256 6133 6133 6133 6690 7359 7359 7359 0 0 0 4906 5256 6690 4906 4906 4906 5256 4906 4906 5256 5256 4906 5256 5256 5256 5256 5256 4906 5256 5256 5256 4329 4906 4599 4599 4599 4906 4906 4329 4329 5661 4088 4329 3873 3345 3345 3199 3199 3066 2943 2830 2628 2537 2453 2299 2230 2164 2164 2299 2299 2299 2299 2374 2164 2164 2299 0 0 0 0 0 0 0 0 0 0 0 0 0 0 0 0 0 0 743 0 0 0 0 0 0 0 151 0 0 154 153 153 153 152 154 150 147 146 146 146 155 156 157 157 158 158 158 158 158 158 158 157 157 156 156 156 156 0 0 0 0 0
    0 0 0 0 0 0 0 0 0 0 0 0 0 0 0 0 0 0 0 0 0 0 0 0 0 0 0 0 0 0 0 0 0 0 0 0 0 0 0 0 0 0 0 0 0 0 0 0 0 0 0 0 0 0 0 0 0 0 0 0 0 0 0 0 0 0 0 0 0 8177 8177 8177 8177 0 0 0 0 0 0 0 0 0 0 0 0 0 0 0 0 0 0 0 0 0 0 0 0 0 0 0 0 0 0 0 0 0 0 0 0 0 0 0 0 0 0 0 0 0 0 0 0 0 0 0 0 0 0 0 0 0 0 0 0 0 0 0 8177 8177 7359 4906 5256 4088 3679 4906 6690 0 8177 8177 7359 0 0 0 8177 6690 7359 8177 8177 8177 8177 8177 0 0 0 0 0 0 5256 6690 6690 6690 6690 7359 7359 6133 6133 7359 6690 6690 6690 6133 5256 6133 7359 7359 8177 0 8177 8177 0 0 4599 5256 6133 6133 5661 6690 7359 7359 7359 0 0 0 4599 5256 6133 4906 4906 4906 4906 4599 4906 5256 5256 4906 5256 5256 5256 5256 5256 4906 4906 4906 5256 4088 4906 4599 4329 4599 4906 4906 4329 4329 5661 4088 4599 3873 3345 3199 3199 3066 2943 2725 2725 2537 2453 2374 2230 2164 2102 2102 2230 2299 2230 2230 2299 2102 2164 2230 0 0 0 0 0 0 0 0 0 0 0 0 0 0 0 0 0 0 0 0 0 0 0 0 0 0 152 0 153 154 153 153 152 152 154 150 147 145 145 145 0 156 157 158 158 158 158 158 158 157 157 156 156 155 155 155 155 0 0 0 0 0
    0 0 0 0 0 0 0 0 0 0 0 0 0 0 0 0 0 0 0 0 0 0 0 0 0 0 0 0 0 0 0 0 0 0 0 0 0 0 0 0 0 0 0 0 0 0 0 0 0 0 0 0 0 0 0 0 0 0 0 0 0 0 0 0 0 0 0 0 0 8177 8177 8177 8177 0 0 0 0 0 0 0 0 0 0 0 0 0 0 0 0 0 0 0 0 0 0 0 0 0 0 0 0 0 0 0 0 0 0 0 0 0 0 0 0 0 0 0 0 0 0 0 0 0 0 0 0 0 9199 0 9199 0 0 0 8177 0 0 8177 7359 6690 6133 3873 0 3873 0 4088 5661 7359 8177 7359 7359 0 0 8177 8177 6690 7359 8177 8177 8177 8177 8177 0 0 0 0 0 0 5661 6690 6690 6690 6690 7359 7359 6690 6133 7359 6690 6690 6690 6133 5256 6133 7359 7359 8177 8177 8177 8177 0 9199 4599 5256 6133 6133 5661 6690 6690 7359 7359 0 0 8177 4599 5661 6133 4906 4906 4906 5256 4906 5256 5256 5661 5256 5661 5661 5661 5661 5661 4599 4906 4906 4599 3873 4599 4329 4088 4329 4599 4599 4329 4329 5661 4329 4599 4088 3504 3345 3199 3066 2830 2725 2725 2628 2453 2374 2299 2164 2102 2102 2299 2230 2164 2164 2230 2044 2164 0 0 0 0 0 0 0 0 0 0 0 0 0 0 0 0 0 0 0 0 0 0 0 0 0 0 0 153 153 154 154 153 153 153 152 154 150 146 145 145 146 0 156 157 158 157 157 157 157 157 156 156 155 155 155 155 155 155 0 0 0 0 0
    0 0 0 0 0 0 0 0 0 0 0 0 0 0 0 0 0 0 0 0 0 0 0 0 0 0 0 0 0 0 0 0 0 0 0 0 0 0 0 0 0 0 0 0 0 0 0 0 0 0 0 0 0 0 0 0 0 0 0 0 0 0 0 0 0 0 0 0 0 8177 0 8177 8177 8177 0 0 0 0 0 0 0 0 0 0 0 0 0 0 0 0 0 0 0 0 0 0 0 0 0 0 0 0 0 0 0 0 0 0 0 0 0 0 0 0 0 0 0 0 0 0 0 0 0 0 0 0 8177 0 8177 0 0 0 8177 8177 8177 8177 7359 6690 5661 3345 0 3345 3345 4088 5661 5661 6690 6690 6690 8177 8177 7359 7359 6133 7359 8177 8177 8177 8177 0 0 0 0 8177 0 0 6133 6690 6690 6690 7359 7359 8177 6690 6690 8177 7359 7359 6690 6133 5661 6690 7359 7359 8177 8177 8177 8177 8177 8177 4599 5256 6133 6133 5661 6690 6690 6690 6690 0 8177 8177 4329 6133 6133 4906 4906 4906 5256 4906 5256 5661 5661 5256 5661 5661 5661 0 5256 4599 4599 4329 4329 3679 4329 4088 4088 4088 4599 4599 4329 4329 5256 4088 4599 4088 3504 3345 3345 3066 2830 2725 2725 2628 2453 2453 2299 2230 2102 2164 2299 2230 2164 2102 2164 1989 2044 0 0 0 0 0 0 0 0 0 0 0 0 0 0 0 0 0 0 0 0 0 0 0 0 0 0 0 153 153 153 154 153 153 153 152 154 150 146 145 145 146 0 156 157 157 157 157 157 157 156 156 156 155 155 155 155 155 155 0 0 0 0 0
    0 0 0 0 0 0 0 0 0 0 0 0 0 0 0 0 0 0 0 0 0 0 0 0 0 0 0 0 0 0 0 0 0 0 0 0 0 0 0 0 0 0 0 0 0 0 0 0 0 0 0 0 0 0 0 0 0 0 0 0 0 0 0 0 0 0 0 0 0 0 0 0 0 0 0 0 0 0 0 0 0 0 0 0 0 0 0 0 0 0 0 0 0 0 0 0 0 0 0 0 0 0 0 0 0 0 0 0 0 0 0 0 0 0 0 0 0 0 0 0 0 0 0 0 0 8177 7359 0 8177 0 0 0 8177 0 8177 9199 7359 6690 5661 3345 0 3345 3345 4599 5661 5256 6690 6133 7359 7359 7359 6690 7359 6133 7359 8177 8177 8177 8177 0 0 0 0 8177 0 0 6133 6690 6690 6690 7359 7359 8177 6690 6690 8177 7359 7359 7359 6690 6133 6690 8177 7359 8177 8177 8177 8177 8177 7359 4599 5661 6133 6133 5661 6690 6690 6690 6690 8177 8177 7359 4329 6133 6133 4906 4906 5256 5256 5256 5661 6133 6133 5661 6133 5661 5661 0 5256 3873 3873 3873 3873 3504 4088 4088 4088 4329 4599 4599 4329 4329 5256 4088 4329 3873 3345 3199 3199 3066 2830 2725 2725 2628 2453 2453 2374 2230 2164 2164 2374 2299 2164 2102 2102 1989 1989 0 0 0 0 0 0 0 0 0 0 0 0 0 0 0 0 0 0 0 0 0 0 0 0 0 0 0 153 153 153 153 153 153 153 152 154 150 146 145 145 146 0 155 156 156 156 156 156 156 156 155 155 155 155 155 154 154 154 0 0 0 0 0
    0 0 0 0 0 0 0 0 0 0 0 0 0 0 0 0 0 0 0 0 0 0 0 0 0 0 0 0 0 0 0 0 0 0 0 0 0 0 0 0 0 0 0 0 0 0 0 0 0 0 0 0 0 0 0 0 0 0 0 0 0 0 0 0 0 0 0 0 0 0 0 0 0 0 0 0 0 0 0 0 0 0 0 0 0 0 0 0 0 0 0 0 0 0 0 0 0 0 0 0 0 0 0 0 0 0 0 0 0 0 0 0 0 0 0 0 0 0 0 0 0 0 0 0 0 0 0 0 0 0 0 0 8177 0 0 0 8177 7359 6690 3873 3679 3504 3066 6133 5661 5256 6690 6133 7359 7359 7359 6690 6690 6133 7359 7359 8177 8177 8177 8177 0 0 0 7359 0 0 6690 7359 6690 7359 7359 7359 8177 6690 6690 8177 8177 8177 7359 7359 6690 7359 8177 7359 8177 8177 8177 8177 8177 7359 4906 6133 6690 6690 5661 6690 6690 6690 6690 8177 7359 6690 4088 6133 6133 4906 5256 5256 5661 5661 5661 6690 6133 6133 6133 0 0 0 0 3504 3504 3345 3504 3345 3873 3873 3873 4329 4906 4599 4088 4088 5256 3873 4088 3679 3199 3199 3199 3066 2830 2725 2725 2725 2453 2453 2374 2230 2164 2164 2299 2230 2102 2102 2102 1936 1936 0 0 0 0 0 0 0 0 0 375 375 0 0 0 0 0 0 0 0 0 0 0 0 0 0 0 0 0 152 153 153 153 153 153 153 154 150 146 145 146 147 152 154 156 156 0 156 156 156 155 155 155 155 155 155 154 154 154 0 0 0 0 0
    0 0 0 0 0 0 0 0 0 0 0 0 0 0 0 0 0 0 0 0 0 0 0 0 0 0 0 0 0 0 0 0 0 0 0 0 0 0 0 0 0 0 0 0 0 0 0 0 0 0 0 0 0 0 0 0 0 0 0 0 0 0 0 0 0 0 0 0 0 0 0 0 0 0 0 0 0 0 0 0 0 0 0 0 0 0 0 0 0 0 0 0 0 0 0 0 0 0 0 0 0 0 0 0 0 0 0 0 0 0 0 0 0 0 0 0 0 0 0 0 0 0 0 0 0 0 0 0 0 0 0 0 8177 0 8177 0 7359 7359 7359 4599 4906 4329 3066 6133 5256 4906 6133 5661 6690 6690 6690 6690 6690 6133 7359 7359 7359 8177 8177 0 0 0 0 6690 0 0 6690 7359 6690 7359 7359 7359 8177 7359 7359 8177 8177 0 8177 8177 7359 8177 8177 7359 8177 7359 8177 8177 8177 7359 5256 6690 6690 6690 5661 6690 6690 6690 6690 8177 7359 7359 4329 6690 6133 5256 5256 5256 5256 5661 5661 6690 6690 6133 6690 0 0 0 0 0 0 3066 3066 3066 3679 3504 3873 4088 4906 4329 4088 4088 5256 3873 4329 3679 3199 3199 3199 3066 2943 2830 2725 2628 2299 2453 2299 2230 2164 2164 2299 2230 2102 2102 2102 1989 1989 0 0 0 0 0 0 0 0 0 375 375 0 0 0 0 0 0 0 0 0 0 0 0 0 0 0 0 0 152 153 153 153 153 153 153 154 150 147 145 145 0 0 152 0 0 0 155 155 155 155 155 155 154 154 154 154 154 153 0 0 0 0 0
    0 0 0 0 0 0 0 0 0 0 0 0 0 0 0 0 0 0 0 0 0 0 0 0 0 0 0 0 0 0 0 0 0 0 0 0 0 0 0 0 0 0 0 0 0 0 0 0 0 0 0 0 0 0 0 0 0 0 0 0 0 0 0 0 0 0 0 0 0 0 0 0 0 0 0 0 8177 0 0 0 0 0 0 0 0 0 0 0 0 0 0 0 0 0 0 0 0 0 0 0 0 0 0 0 0 0 0 0 0 0 0 0 0 0 0 0 0 0 0 0 0 0 0 0 0 0 0 0 0 0 0 0 0 0 8177 0 7359 8177 7359 5256 5256 4329 3199 4088 4329 4329 5661 5256 6133 6690 6690 6690 7359 6690 7359 8177 8177 8177 0 0 0 0 0 6690 0 0 6690 7359 6690 6690 7359 7359 8177 7359 7359 8177 0 0 8177 8177 8177 0 8177 7359 8177 7359 8177 8177 8177 7359 5661 6690 6690 6690 5661 6690 6133 6133 6133 7359 7359 7359 4599 7359 6133 5661 5661 5256 5256 5661 5661 6690 6690 6690 6690 0 0 0 0 0 0 2830 2725 2830 3504 3345 3504 3873 4329 3873 3679 3873 4906 3679 4329 3679 3199 3345 3345 3199 2943 2830 2830 2725 2453 2537 2374 2299 2164 2230 2374 2230 2102 2102 2102 1989 2044 0 0 0 0 0 0 0 0 0 0 0 0 0 0 0 0 0 0 0 0 0 0 0 0 0 0 0 152 153 153 153 153 153 153 153 154 150 147 145 144 0 0 0 0 127 126 155 155 155 155 155 154 154 154 154 154 153 153 0 0 0 0 0
    0 0 0 0 0 0 0 0 0 0 0 0 0 0 0 0 0 0 0 0 0 0 0 0 0 0 0 0 0 0 0 0 0 0 0 0 0 0 0 0 0 0 0 0 0 0 0 0 0 0 0 0 0 0 0 0 0 0 0 0 0 0 0 0 0 0 0 0 0 0 0 0 0 0 0 0 0 0 0 0 0 0 0 0 0 0 0 0 0 0 0 0 0 0 0 0 0 0 0 0 0 0 0 0 0 0 0 0 0 0 0 0 0 0 0 0 0 0 0 0 0 0 0 0 0 0 0 0 0 0 0 0 8177 0 8177 0 7359 8177 8177 6133 6133 5256 3873 5256 5256 5661 6133 6133 6690 6690 6690 7359 7359 6690 7359 7359 7359 8177 8177 0 0 0 0 6690 0 0 6690 7359 6133 6690 6690 7359 8177 7359 7359 8177 8177 0 0 0 0 0 8177 7359 8177 7359 7359 8177 8177 7359 6133 7359 7359 7359 5661 6690 6133 6133 6133 7359 7359 7359 4599 8177 6690 6690 6133 5661 5661 5661 6133 7359 7359 7359 7359 6690 0 0 0 0 0 2628 2374 2537 3199 3066 3345 3345 3679 3679 3504 3679 4088 3345 4088 3504 3199 3345 3345 3199 2943 2943 2830 2725 2537 2628 2453 2299 2230 2299 2299 2230 2102 2044 2044 1989 0 0 0 0 0 0 0 0 404 391 0 0 0 0 0 0 0 0 0 0 0 0 0 84 0 0 0 0 153 154 154 153 153 153 153 153 154 151 147 145 143 0 0 0 128 127 127 155 155 155 155 155 155 154 154 154 154 153 153 0 0 0 0 0
    0 0 0 0 0 0 0 0 0 0 0 0 0 0 0 0 0 0 0 0 0 0 0 0 0 0 0 0 0 0 0 0 0 0 0 0 0 0 0 0 0 0 0 0 0 0 0 0 0 0 0 0 0 0 0 0 0 0 0 0 0 0 0 0 0 0 0 0 0 0 0 0 0 0 0 0 0 0 0 0 0 0 0 0 0 0 0 0 0 0 0 0 0 0 0 0 0 0 0 0 0 0 0 0 0 0 0 0 0 0 0 0 0 0 0 0 0 0 0 0 0 0 0 0 0 0 0 0 0 0 0 0 8177 0 8177 8177 8177 0 0 7359 7359 6690 6133 7359 6133 6690 6690 6690 6690 6690 6690 7359 8177 7359 8177 8177 7359 8177 0 0 0 0 0 6690 0 0 6133 6690 6133 6690 6690 7359 7359 6690 7359 8177 8177 0 8177 0 8177 0 8177 7359 8177 7359 7359 7359 7359 7359 6133 7359 7359 7359 6133 6690 6690 6133 6133 7359 6690 6690 4906 0 7359 7359 6690 6690 5661 6133 6133 8177 8177 8177 7359 7359 0 0 0 0 0 0 2164 0 0 0 0 0 0 0 3199 0 3679 3345 3679 3504 3199 3345 3504 3199 3066 3066 2943 2830 2628 2725 2537 2374 2299 2374 2374 2299 2102 2044 2044 0 0 0 0 0 0 0 0 0 406 0 0 0 0 0 0 0 0 0 0 0 83 83 83 0 0 0 0 0 153 154 154 154 154 153 153 153 154 151 148 145 144 0 0 0 0 0 0 155 155 155 155 155 155 155 154 155 154 153 153 0 0 0 0 0
    0 0 0 0 0 0 0 0 0 0 0 0 0 0 0 0 0 0 0 0 0 0 0 0 0 0 0 0 0 0 0 0 0 0 0 0 0 0 0 0 0 0 0 0 0 0 0 0 0 0 0 0 0 0 0 0 0 0 0 0 0 0 0 0 0 0 0 0 0 0 0 0 0 0 0 0 8177 0 0 0 0 0 0 0 0 0 0 0 0 0 0 0 0 0 0 0 0 0 0 0 0 0 0 0 0 0 0 0 0 0 0 0 0 8177 0 8177 0 0 0 0 0 0 0 0 0 0 0 0 0 0 0 0 8177 0 8177 8177 8177 0 0 0 8177 8177 7359 7359 6133 6690 6690 0 6690 6690 6690 6690 7359 7359 8177 8177 8177 0 0 0 0 0 0 6690 0 8177 6133 6690 6133 6690 6133 6690 7359 6690 6690 7359 7359 0 8177 0 0 0 8177 7359 8177 7359 7359 7359 7359 7359 6690 8177 8177 8177 6690 7359 6690 6690 6690 7359 6690 6690 4906 0 8177 8177 7359 7359 5661 6690 6690 0 8177 8177 8177 6690 0 0 553 0 0 0 0 0 0 0 0 0 0 0 1247 1187 0 0 4088 3679 3345 3679 3679 3345 3345 3345 3199 2943 2830 2830 2628 2453 2299 2453 2299 2299 2164 2044 0 175 0 0 0 0 0 0 0 0 0 0 0 0 0 0 0 0 0 0 0 0 84 83 83 83 0 0 0 0 153 154 154 154 154 154 153 152 153 151 148 145 144 148 151 152 154 154 154 155 155 155 155 155 155 155 154 155 154 154 152 0 0 0 0 0
    0 0 0 0 0 0 0 0 0 0 0 0 0 0 0 0 0 0 0 0 0 0 0 0 0 0 0 0 0 0 0 0 0 0 0 0 0 0 0 0 0 0 0 0 0 0 0 0 0 0 0 0 0 0 0 0 0 0 0 0 0 0 0 0 0 0 0 0 0 0 0 0 0 0 0 0 8177 8177 8177 0 0 0 0 0 0 0 0 0 0 0 0 0 0 0 0 0 0 0 0 0 0 0 0 0 0 0 0 0 0 0 0 0 0 0 0 8177 0 0 0 0 0 0 0 0 0 8177 0 0 0 0 0 0 8177 0 8177 8177 8177 0 0 0 0 0 8177 0 6133 6690 6690 0 0 6690 6133 6690 7359 7359 8177 8177 7359 8177 0 0 0 0 0 6690 8177 8177 5661 6690 6133 6133 5661 6133 6690 6133 6690 7359 7359 0 8177 0 0 0 8177 7359 8177 7359 7359 7359 7359 7359 7359 0 0 0 8177 7359 7359 7359 7359 7359 6690 6690 4599 0 0 0 0 8177 6133 6690 6690 0 8177 7359 7359 6690 0 0 557 0 0 0 0 0 0 0 0 0 0 0 1247 1187 1098 0 0 0 0 4088 4088 3679 3679 3873 3679 3199 3199 3066 2725 2537 2453 2537 2374 2374 2230 2102 0 174 0 0 0 0 0 0 0 0 0 0 0 0 0 0 0 0 0 0 0 0 0 0 0 0 0 0 0 0 0 154 154 154 155 154 153 152 153 151 148 146 145 149 151 152 153 154 154 155 155 155 155 155 155 155 155 155 154 154 152 0 0 0 0 0
    0 0 0 0 0 0 0 0 0 0 0 0 0 0 0 0 0 0 0 0 0 0 0 0 0 0 0 0 0 0 0 0 0 0 0 0 0 0 0 0 0 0 0 0 0 0 0 0 0 0 0 0 0 0 0 0 0 0 0 0 0 0 0 0 0 0 0 0 0 0 0 0 0 0 0 0 8177 8177 7359 0 0 0 0 0 0 0 0 0 0 0 0 0 0 0 0 0 0 0 0 0 0 0 0 0 0 0 0 0 0 0 0 0 0 0 0 0 0 0 0 0 0 0 0 0 0 8177 0 0 0 0 0 0 8177 0 8177 0 0 0 0 0 0 0 0 0 0 0 6690 0 0 0 6133 6690 7359 7359 7359 7359 6690 7359 8177 0 0 0 8177 6690 8177 8177 5661 6690 5661 6133 5661 6133 6690 6133 6133 7359 6690 8177 8177 8177 8177 8177 7359 7359 7359 6690 7359 7359 8177 7359 0 0 0 0 0 8177 8177 8177 8177 7359 7359 6690 4599 0 0 0 0 0 6690 7359 6690 0 8177 8177 7359 6690 6690 0 0 0 0 2830 0 0 0 0 0 0 0 1247 1226 0 1082 0 0 0 0 5661 5256 4599 4088 4599 4329 3345 3199 3066 2725 2537 2453 2537 2374 2374 2230 2102 2044 0 0 0 0 0 0 0 0 0 0 0 0 0 406 399 391 0 0 0 0 0 0 0 0 0 0 0 0 0 0 0 0 0 0 154 153 152 152 151 148 146 146 148 151 152 153 154 154 154 154 154 155 155 155 155 154 155 154 154 151 0 0 0 0 0
    0 0 0 0 0 0 0 0 0 0 0 0 0 0 0 0 0 0 0 0 0 0 0 0 0 0 0 0 0 0 0 0 0 0 0 0 0 0 0 0 0 0 0 0 0 0 0 0 0 0 0 0 0 0 0 0 0 0 0 0 0 0 0 0 0 0 0 0 0 0 0 0 0 0 0 0 0 0 8177 0 0 0 0 0 0 0 0 0 0 0 0 0 0 0 0 0 0 0 0 0 0 0 0 0 0 0 0 0 0 0 0 0 0 0 0 0 0 0 0 0 0 0 0 0 0 8177 0 0 0 9199 0 8177 7359 8177 8177 0 0 0 0 0 0 0 0 0 0 0 6690 0 0 0 6690 6690 7359 7359 7359 6690 6133 7359 8177 0 0 0 8177 6690 8177 8177 6690 7359 6133 6690 5661 6690 6690 6690 6690 6690 6690 8177 7359 7359 7359 7359 6690 6690 7359 6690 7359 7359 8177 8177 0 0 0 0 0 8177 8177 8177 8177 7359 7359 6690 4329 0 0 0 0 0 6133 7359 6690 0 8177 7359 6690 6133 6690 8177 6133 0 3504 2830 2725 2374 0 0 1672 0 0 0 0 0 0 0 0 0 0 0 5256 4329 0 0 4088 3199 3066 3066 2725 2453 2453 2537 2453 2453 2299 2164 2102 0 0 0 0 0 0 0 0 0 0 0 0 0 413 404 395 0 0 0 0 0 0 0 0 0 0 0 0 95 0 0 0 0 0 155 153 152 151 150 148 146 146 148 150 152 153 154 154 154 154 154 155 155 155 155 155 155 155 154 0 0 0 0 0 0
    0 0 0 0 0 0 0 0 0 0 0 0 0 0 0 0 0 0 0 0 0 0 0 0 0 0 0 0 0 0 0 0 0 0 0 0 0 0 0 0 0 0 0 0 0 0 0 0 0 0 0 0 0 0 0 0 0 0 0 0 0 0 0 0 0 0 0 0 0 0 0 0 0 0 0 0 0 0 8177 0 0 0 0 0 0 0 0 0 0 0 0 0 0 0 0 0 0 0 0 0 0 0 0 0 0 0 0 0 0 0 0 0 0 0 0 0 0 0 0 0 0 0 0 0 0 7359 0 0 0 8177 0 8177 7359 7359 8177 0 0 0 0 0 0 0 0 0 0 0 0 0 6690 6690 6690 6690 8177 8177 8177 7359 6690 7359 0 0 0 0 0 6690 8177 7359 0 8177 6690 7359 6690 7359 7359 7359 8177 6690 6133 7359 7359 6690 6690 7359 6690 6133 6690 6690 7359 7359 0 8177 0 0 0 0 0 8177 8177 8177 0 7359 6690 6690 4329 0 0 0 0 8177 6133 6690 6690 0 7359 6690 6690 6133 6133 7359 5661 0 3504 2943 2830 0 0 0 1635 0 242 0 0 0 0 0 0 0 0 0 0 4599 0 0 0 3066 3066 3199 2725 2537 2537 2725 2537 2537 2374 2230 2102 0 0 0 0 0 0 0 0 0 0 0 0 0 413 0 0 0 0 0 0 0 0 0 0 0 0 0 0 95 94 0 0 0 0 0 154 152 151 150 148 146 146 147 150 151 153 153 153 154 154 154 154 155 155 155 155 155 155 154 0 0 0 0 0 0
    0 0 0 0 0 0 0 0 0 0 0 0 0 0 0 0 0 0 0 0 0 0 0 0 0 0 0 0 0 0 0 0 0 0 0 0 0 0 0 0 0 0 0 0 0 0 0 0 0 0 0 0 0 0 0 0 0 0 0 0 0 0 0 0 0 0 0 0 0 0 0 0 0 0 0 0 0 0 8177 0 8177 8177 8177 0 0 8177 0 0 0 0 0 0 0 0 0 0 0 0 0 0 0 0 0 0 0 0 0 0 0 0 0 0 0 0 0 0 0 0 0 0 0 0 0 8177 0 6690 8177 8177 0 8177 0 8177 7359 7359 8177 0 0 0 0 0 0 0 0 0 0 0 0 0 7359 7359 6690 7359 8177 7359 8177 7359 7359 7359 0 0 0 0 0 7359 8177 8177 0 0 8177 8177 7359 8177 0 0 0 6690 6133 7359 7359 6133 6690 6690 6690 6133 6690 6690 7359 7359 0 8177 0 0 0 0 0 0 0 9199 0 7359 6690 6133 4329 0 0 0 0 0 7359 8177 7359 0 7359 7359 6133 5661 6133 7359 5256 0 3345 3066 0 0 0 0 0 0 242 246 0 0 0 0 0 0 0 0 0 0 0 0 0 0 0 0 2725 2628 2628 2830 2537 2628 2453 2299 2102 0 0 0 0 0 0 0 0 0 0 0 0 0 0 0 0 0 0 0 86 0 0 0 0 0 0 0 95 95 94 0 0 95 0 0 154 152 150 150 148 146 146 147 150 151 153 153 153 154 154 154 154 155 155 155 155 155 154 0 0 0 0 0 0 0
    0 0 0 0 0 0 0 0 0 0 0 0 0 0 0 0 0 0 0 0 0 0 0 0 0 0 0 0 0 0 0 0 0 0 0 0 0 0 0 0 0 0 0 0 0 0 0 0 0 0 0 0 0 0 0 0 0 0 0 0 0 0 0 0 0 0 0 0 0 0 0 0 0 0 0 0 0 0 8177 0 8177 8177 8177 8177 8177 7359 8177 0 8177 0 0 0 0 0 0 0 0 0 0 8177 0 0 0 0 0 0 0 0 0 0 0 0 0 0 0 0 0 0 0 0 0 0 0 8177 0 7359 8177 8177 0 0 0 8177 7359 7359 0 0 0 0 0 0 0 0 0 0 584 584 0 0 7359 7359 6690 0 0 0 0 8177 7359 8177 0 0 0 0 0 8177 0 0 0 0 0 0 0 0 0 0 0 6690 5661 6690 6690 5661 6133 6690 6133 6133 6690 6690 7359 7359 0 8177 0 0 0 0 0 0 0 8177 8177 6690 6133 5661 4599 0 0 0 0 0 8177 0 8177 0 7359 0 0 0 0 0 0 0 3066 2943 2943 0 0 0 0 242 0 244 246 246 245 245 245 0 0 0 0 0 0 0 0 0 0 0 2453 2230 2628 2943 2628 2628 2537 2453 2164 0 0 0 0 0 0 0 0 0 0 618 598 0 0 0 0 0 0 0 0 0 0 0 0 0 0 0 0 95 0 0 0 95 94 0 153 152 150 150 149 147 147 147 149 151 152 152 153 154 154 154 154 155 155 155 155 154 153 0 0 0 0 0 0 0
    0 0 0 0 0 0 0 0 0 0 0 0 0 0 0 0 0 0 0 0 0 0 0 0 0 0 0 0 0 0 0 0 0 0 0 0 0 0 0 0 0 0 0 0 0 0 0 0 0 0 0 0 0 0 0 0 0 0 0 0 0 0 0 0 0 0 0 0 0 0 0 0 0 0 0 0 0 0 8177 0 8177 8177 8177 8177 8177 7359 7359 0 8177 0 0 0 0 0 0 0 0 0 0 7359 0 0 0 0 0 0 0 0 0 0 0 0 0 8177 0 0 0 0 0 0 0 0 0 0 0 7359 0 0 0 0 0 9199 0 8177 0 0 0 0 0 0 0 0 0 0 588 588 570 0 0 0 6690 0 0 0 0 0 0 0 0 0 0 0 0 0 0 0 0 0 0 0 0 0 0 0 0 6690 5661 6133 6690 6133 5661 6133 6133 6133 6690 6133 7359 7359 0 8177 0 0 0 0 0 0 0 8177 8177 6690 5661 5661 4599 8177 8177 7359 0 0 7359 0 8177 0 0 0 0 0 0 0 0 0 0 2830 2830 3199 3199 0 0 239 239 242 246 246 245 245 0 0 0 0 0 0 0 0 0 0 0 0 0 0 0 2830 2628 2725 2725 2628 2230 1989 0 0 0 0 0 0 518 0 0 613 598 0 0 0 0 0 0 0 0 0 0 0 0 0 0 0 0 0 0 0 0 95 0 0 153 151 150 150 149 148 148 147 149 150 152 152 152 153 153 154 154 154 155 155 154 154 0 0 0 0 0 0 0 0
    0 0 0 0 0 0 0 0 0 0 0 0 0 0 0 0 0 0 0 0 0 0 0 0 0 0 0 0 0 0 0 0 0 0 0 0 0 0 0 0 0 0 0 0 0 0 0 0 0 0 0 0 0 0 0 0 0 0 0 0 0 0 0 0 0 0 0 0 0 0 0 0 0 0 0 0 0 0 8177 0 8177 8177 8177 8177 8177 7359 7359 0 0 0 0 0 0 0 0 0 0 0 0 7359 0 0 0 0 0 0 0 0 0 0 0 0 0 8177 0 0 0 0 0 0 0 0 0 0 0 7359 8177 0 0 0 0 8177 0 8177 0 0 0 0 0 0 0 0 0 579 588 588 574 574 0 0 0 0 0 0 0 0 0 0 0 0 0 0 0 0 0 0 0 0 0 0 0 0 0 0 0 6690 5661 6133 6133 6133 5661 6133 6133 6133 6690 6133 8177 8177 0 8177 0 0 0 0 0 0 0 8177 7359 6133 5661 5661 4599 7359 7359 6690 8177 8177 7359 0 8177 0 0 0 0 0 0 0 0 1098 2374 2830 3066 3504 3504 3199 3873 0 0 0 0 0 0 0 0 0 0 0 0 0 0 0 0 0 931 0 0 0 994 0 2537 2628 2830 2725 2230 1936 570 0 0 0 0 0 518 0 0 0 0 0 0 0 0 0 0 0 0 0 0 0 0 0 0 0 0 0 0 0 0 0 0 0 153 152 150 150 150 149 148 147 149 150 151 151 152 153 153 154 154 155 155 155 154 153 0 0 0 0 0 0 0 0
    0 0 0 0 0 0 0 0 0 0 0 0 0 0 0 0 0 0 0 0 0 0 0 0 0 0 0 0 0 0 0 0 0 0 0 0 0 0 0 0 0 0 0 0 0 0 0 0 0 0 0 0 0 0 0 0 0 0 0 0 0 0 0 0 0 0 0 0 0 0 0 0 0 0 0 0 0 0 7359 0 0 8177 8177 8177 8177 7359 7359 0 8177 0 0 0 0 0 0 0 0 0 0 7359 0 0 0 0 0 0 0 0 0 0 0 0 0 8177 0 0 0 0 0 0 0 0 0 0 0 7359 8177 0 0 0 0 0 0 8177 0 0 0 588 0 0 0 0 0 579 588 588 574 574 0 0 0 0 0 0 0 0 0 0 0 0 0 0 0 0 0 0 0 0 0 0 0 0 0 0 0 6690 5661 6690 6133 6690 6133 6690 6133 6133 6690 6133 8177 8177 0 8177 0 0 0 0 0 0 0 7359 6690 6133 5661 5661 4906 6690 6690 6133 7359 7359 6690 0 0 0 0 0 0 0 0 0 0 1149 0 3066 3199 3679 3679 3504 4088 5661 0 0 0 0 0 0 0 0 0 931 0 0 0 0 0 0 908 908 981 994 968 919 886 0 2725 2725 2230 0 651 603 561 0 0 0 0 0 0 0 0 0 0 93 0 0 0 0 0 0 0 0 0 0 0 0 0 0 0 7359 8177 0 0 154 153 152 150 150 150 149 148 146 148 149 150 151 152 152 153 154 154 155 155 155 154 153 0 0 0 0 0 0 0 0
    0 0 0 0 0 0 0 0 0 0 0 0 0 0 0 0 0 0 0 0 0 0 0 0 0 0 0 0 0 0 0 0 0 0 0 0 0 0 0 0 0 0 0 0 0 0 0 0 0 0 0 0 0 0 0 0 0 0 0 0 0 0 0 0 0 0 0 0 0 0 0 8177 0 8177 0 0 0 0 0 0 0 7359 8177 8177 7359 6690 6690 8177 7359 0 0 0 0 0 0 0 0 0 0 8177 0 0 0 0 0 0 0 0 0 0 0 0 0 8177 0 0 0 0 0 0 0 0 0 0 0 7359 8177 0 0 0 0 0 0 0 0 0 566 584 574 0 0 588 0 0 584 588 0 0 0 0 0 0 0 0 0 0 0 0 0 0 0 0 0 0 0 0 0 0 0 0 0 0 0 0 0 6690 6133 6690 6690 7359 6690 6690 7359 6690 7359 6133 8177 0 0 7359 0 0 0 0 0 0 0 6690 6133 6133 5661 5256 4906 6133 6133 5661 6690 6690 0 0 0 0 0 0 0 0 0 0 1291 1206 0 3199 3199 4088 3873 3873 4329 5661 6133 0 0 0 0 0 0 0 0 943 0 0 0 0 0 1149 968 968 994 994 968 919 908 943 0 2537 2044 0 0 623 598 557 0 0 0 0 0 0 0 0 0 0 0 0 0 0 0 0 0 0 0 0 0 0 0 0 0 6690 0 0 0 153 153 152 150 150 152 149 148 146 148 149 150 150 151 152 152 153 154 155 155 155 154 0 0 0 0 0 0 0 0 0
    0 0 0 0 0 0 0 0 0 0 0 0 0 0 0 0 0 0 0 0 0 0 0 0 0 0 0 0 0 0 0 0 0 0 0 0 0 0 0 0 0 0 0 0 0 0 0 0 0 0 0 0 0 0 0 0 0 0 0 0 0 0 0 0 0 0 0 0 0 0 8177 7359 8177 0 147 0 0 0 0 0 0 0 0 8177 7359 6133 6690 0 7359 0 0 0 0 0 0 0 0 0 0 7359 0 0 0 0 0 0 0 0 0 0 0 0 0 7359 0 0 0 0 0 0 0 0 0 0 0 0 0 0 0 0 0 0 0 0 0 0 570 584 579 570 0 584 593 0 0 0 0 0 0 0 0 0 0 0 0 0 0 0 0 0 0 0 0 608 0 0 0 0 0 0 0 0 0 0 0 6690 6133 6690 6133 8177 6690 6690 6690 6690 8177 6133 0 0 0 7359 0 0 0 0 0 0 0 6133 6133 5661 5661 5661 5256 5661 5661 5661 6133 6133 0 0 0 0 0 0 0 0 0 1268 1314 1226 0 3345 3345 4329 4088 4088 4329 5661 5661 0 0 0 0 0 0 0 0 0 0 0 0 0 0 1268 994 981 981 981 955 897 876 886 876 908 0 876 808 0 603 570 0 0 0 0 0 0 0 0 0 0 0 0 0 0 0 0 0 0 0 0 0 98 0 0 0 0 0 0 0 153 153 151 150 150 154 149 148 146 147 148 149 150 151 151 151 153 154 155 155 154 154 0 0 0 0 0 0 0 0 0
    0 0 0 0 0 0 0 0 0 0 0 0 0 0 0 0 0 0 0 0 0 0 0 0 0 0 0 0 0 0 0 0 0 0 0 0 0 0 0 0 0 0 0 0 0 0 0 0 0 0 0 0 0 0 0 0 0 0 0 0 0 0 0 0 0 0 0 0 0 0 7359 6133 0 0 147 0 0 0 0 0 0 0 0 0 8177 6690 6690 0 7359 0 143 141 0 0 0 0 8177 0 0 7359 0 0 0 0 0 0 0 0 0 0 0 0 0 7359 0 8177 8177 0 0 0 0 0 0 0 0 0 0 0 0 0 0 0 0 0 0 0 570 584 574 570 0 584 0 0 0 0 0 0 299 0 0 0 0 0 0 0 0 0 0 0 0 0 0 613 0 0 0 0 0 0 0 0 0 8177 0 6690 6133 6690 6690 0 8177 0 0 7359 0 6690 0 0 0 6690 0 0 0 0 0 0 8177 5661 5661 5661 5661 5661 5256 5256 5256 5256 6133 6133 0 0 0 88 87 0 0 0 0 1291 1338 1268 3679 3504 3345 4329 4088 4088 4329 5661 5256 80 0 0 0 0 0 0 0 0 0 0 0 0 0 1291 1008 968 968 955 931 886 865 876 865 897 886 876 845 0 0 0 0 0 0 0 0 0 0 0 0 0 0 0 4906 0 0 0 0 0 0 0 0 0 0 0 90 0 0 0 0 153 153 151 150 150 0 149 149 146 147 148 149 149 150 151 151 152 154 155 154 154 153 0 0 0 0 0 0 0 0 0
    0 0 0 0 0 0 0 0 0 0 0 0 0 0 0 0 0 0 0 0 0 0 0 0 0 0 0 0 0 0 0 0 0 0 0 0 0 0 0 0 0 0 0 0 0 0 0 0 0 0 0 0 0 0 0 0 0 0 0 0 0 0 0 0 0 0 0 0 0 0 7359 4906 0 150 147 1388 0 1388 1362 0 0 0 0 0 0 7359 0 0 0 0 142 140 140 140 0 0 7359 8177 0 6690 0 0 0 0 0 0 0 0 0 0 0 0 0 6690 0 7359 7359 0 0 0 0 0 0 0 0 0 0 0 0 0 0 9199 7359 0 0 588 570 584 574 566 0 0 0 0 0 0 0 0 0 0 0 0 0 0 0 0 0 0 0 0 0 0 0 613 0 0 0 0 0 0 0 0 8177 7359 0 6690 6133 6690 7359 0 0 0 0 0 0 7359 0 0 0 6690 0 0 0 8177 0 8177 8177 5256 5256 5661 5256 5256 4906 4906 4906 5256 6133 5661 0 0 0 88 0 0 0 0 0 1291 1362 1291 3873 3504 3345 4329 4088 4088 4329 5661 5256 0 0 0 0 0 0 588 0 0 0 0 0 1599 0 1388 1051 981 981 943 919 876 855 865 855 865 855 855 845 845 0 0 0 153 0 0 0 0 0 0 0 0 0 0 0 0 0 0 3679 0 0 0 0 0 0 0 90 90 90 0 0 152 151 151 150 150 150 149 148 147 146 147 148 148 149 150 150 150 154 154 0 0 0 0 0 0 0 0 0 0 0 0
    0 0 0 0 0 0 0 0 0 0 0 0 0 0 0 0 0 0 0 0 0 0 0 0 0 0 0 0 0 0 0 0 0 0 0 0 0 0 0 0 0 0 0 0 0 0 0 0 0 0 0 0 0 0 0 0 0 0 0 0 0 0 0 0 0 0 0 0 0 0 8177 0 0 0 0 1338 1314 1362 1338 1291 1291 1247 1206 1226 0 0 0 0 0 0 141 140 140 140 0 0 0 0 0 0 0 0 0 0 0 0 0 0 0 0 0 0 0 0 8177 6133 0 0 0 0 0 73 0 0 0 0 0 0 0 0 0 8177 6690 0 0 0 570 584 566 557 0 0 0 0 0 0 0 0 0 0 0 0 0 0 0 0 0 0 0 0 0 0 0 623 0 0 0 0 0 0 0 0 7359 6690 0 6690 6690 7359 8177 0 0 0 0 0 0 0 0 0 8177 6690 8177 0 8177 7359 0 8177 8177 4599 4906 5256 5256 5256 4906 4599 4599 4906 5661 5661 0 0 0 0 0 0 0 0 1338 1314 1388 1314 3873 3345 3345 4088 3873 3873 0 5256 4906 0 0 0 0 570 0 584 0 0 0 0 0 1635 0 1443 0 0 994 955 919 876 865 876 855 876 855 855 836 836 743 0 0 153 0 0 0 0 0 0 0 0 0 0 0 0 0 0 5661 0 0 0 0 0 0 0 90 90 90 0 0 151 150 150 150 149 150 149 148 147 146 147 147 147 148 149 149 149 152 0 0 0 0 0 0 0 0 0 0 0 0 0
    0 0 0 0 0 0 0 0 0 0 0 0 0 0 0 0 0 0 0 0 0 0 0 0 0 0 0 0 0 0 0 0 0 0 0 0 0 0 0 0 0 0 0 0 0 0 0 0 0 0 0 0 0 0 0 0 0 0 0 0 0 0 0 0 0 0 0 0 0 0 0 0 0 99 0 1314 1291 1338 1314 1268 1291 1268 1226 1247 1247 1247 1247 1247 1247 0 140 140 140 140 140 0 0 0 0 0 1338 0 1268 1168 0 0 0 0 0 0 0 0 0 1247 1187 0 0 0 0 0 0 0 0 1268 1314 1268 0 0 0 0 0 0 0 0 0 0 566 574 561 553 0 0 0 0 0 0 0 0 0 0 0 0 0 0 0 87 0 0 0 0 0 0 0 634 0 0 0 0 0 0 0 0 6133 5256 0 6690 7359 8177 0 0 0 0 0 0 0 0 0 0 0 6690 0 0 8177 7359 8177 8177 6690 4088 4599 5256 5256 5256 4906 4599 4599 4906 0 0 0 0 0 0 0 0 0 0 1338 1291 1362 1314 4088 3345 3199 4088 3873 0 420 5256 4906 0 0 0 566 570 0 0 0 0 0 0 0 1672 0 1533 0 0 1008 968 931 886 865 865 855 876 855 865 845 845 791 0 153 151 0 0 0 0 0 0 0 0 0 0 0 0 0 0 8177 8177 0 0 0 0 0 0 90 0 90 0 0 0 150 150 149 149 149 148 147 147 146 146 147 147 148 148 148 148 150 0 0 0 0 0 0 0 0 0 0 0 0 0
    0 0 0 0 0 0 0 0 0 0 0 0 0 0 0 0 0 0 0 0 0 0 0 0 0 0 0 0 0 0 0 0 0 0 0 0 0 0 0 0 0 0 0 0 0 0 0 0 0 0 0 0 0 0 0 0 0 0 0 0 0 0 0 0 0 0 0 0 0 1247 1247 1226 1226 1247 1314 1291 1314 1314 1291 1291 1291 1268 1247 1247 1247 1247 1247 1247 1247 1206 0 0 0 0 0 0 0 0 0 1291 1268 1247 1226 1168 1132 0 1149 0 0 1168 1115 1132 1206 1226 1187 1187 1206 1206 1206 1226 1206 1247 1247 1268 1291 1268 1268 1268 1247 1268 1226 0 0 0 0 1268 1291 1338 1314 1314 0 0 0 0 0 0 0 0 0 0 0 1314 1247 0 0 0 0 0 0 0 0 0 1206 1132 1268 1291 1268 1268 0 0 0 0 5256 4329 0 7359 0 0 0 0 0 0 0 0 1268 0 0 0 0 7359 0 0 8177 0 8177 7359 5661 3873 4329 4906 5256 5661 4906 4329 4329 0 0 0 0 0 1247 0 1149 1149 1187 1247 1291 1268 1338 1314 4088 3199 3199 3873 3679 0 413 5256 4599 4599 4599 579 0 570 0 0 0 0 0 128 0 1635 1795 1599 0 0 1051 981 943 886 865 865 855 865 855 865 855 855 808 750 0 0 0 0 0 0 0 0 0 0 0 0 84 0 0 0 0 0 0 0 0 0 897 876 0 0 0 0 0 0 150 149 149 149 149 148 147 147 146 146 147 147 147 148 148 148 149 0 0 0 0 0 0 0 0 0 0 0 0 0
    0 0 0 0 0 0 0 0 0 0 0 0 0 0 0 0 0 0 0 0 0 0 0 0 0 0 0 0 0 0 0 0 0 0 0 0 0 0 0 0 0 0 0 0 0 0 0 0 0 0 0 0 0 0 0 0 0 0 0 0 0 0 0 0 0 0 0 0 0 1226 1226 1187 1187 1226 1291 1268 1314 1314 1291 1291 1291 1291 1247 1247 1247 1247 1226 1247 1247 1206 1226 1268 1268 0 0 0 0 0 1291 1268 1247 1226 1226 1187 1149 1187 1168 1132 1168 1168 1132 1149 1168 1206 1187 1187 1206 1206 1206 1226 1187 1247 1226 1247 1268 1247 1247 1247 1226 1268 1226 1226 0 0 0 1247 1268 1291 1291 1291 1314 1314 1226 1291 1268 1247 0 1268 1268 1268 1268 1291 1226 1268 1247 1226 1187 1206 1187 1168 1149 1206 1206 1149 1226 1247 1247 1268 1268 0 1291 0 0 0 0 0 1268 1226 1226 1226 1247 1247 1226 1247 1268 1226 0 0 0 0 0 0 0 0 0 0 4599 0 0 0 0 0 0 0 0 1226 1187 1168 1226 1226 1226 1226 1149 1132 1168 1206 1268 1226 1291 1314 4329 3199 3199 3504 3504 0 0 4906 4088 4329 4329 0 0 0 0 0 0 0 981 0 1599 1565 1752 1565 0 0 1098 994 968 908 876 876 865 876 865 876 886 865 826 774 817 808 791 758 0 0 0 0 0 0 0 0 84 0 0 0 0 0 0 0 0 0 931 886 865 919 0 0 0 0 149 149 149 149 148 148 147 147 147 147 147 147 147 148 148 148 149 149 0 0 0 0 0 0 0 0 0 0 0 0
    0 0 0 0 0 0 0 0 0 0 0 0 0 0 0 0 0 0 0 0 0 0 0 0 0 0 0 0 0 0 0 0 0 0 0 0 0 0 0 0 0 0 0 0 0 0 0 0 0 0 0 0 0 0 0 0 0 0 0 0 0 0 0 0 0 0 0 0 0 1226 1226 1187 1187 1206 1268 1247 1291 1314 1291 1268 1291 1268 1247 1226 1247 1226 1226 1226 1226 1206 1226 1268 1268 1268 1314 1314 1247 1268 1268 1247 1247 1226 1226 1187 1168 1226 1187 1168 1206 1187 1168 1168 1168 1206 1187 1187 1206 1187 1187 1206 1187 1226 1206 1226 1247 1226 1247 1226 1206 1247 1226 1206 1226 1226 1247 1247 1268 1291 1291 1268 1291 1314 1206 1268 1247 1247 1247 1247 1247 1247 1226 1268 1206 1226 1226 1206 1187 1187 1168 1187 1149 1206 1206 1168 1226 1247 1247 1268 1268 1291 1268 1268 1268 1247 1226 1206 1247 1187 1206 1206 1226 1247 1247 1268 1268 1226 1291 1291 1247 1268 1206 0 1226 1247 1268 1247 0 1362 0 1268 1206 1226 1187 1247 1226 1187 1206 1168 1226 1206 1206 1226 1168 1149 1187 1206 1268 1226 1291 0 4088 3199 0 3199 0 0 0 0 3679 4329 4329 0 0 0 1008 0 0 0 994 1082 1501 1471 1672 1533 1314 1314 1149 1022 994 943 886 886 876 886 865 876 865 865 817 766 782 774 750 735 714 700 0 0 0 0 0 0 85 0 0 0 0 0 0 0 0 0 0 897 865 897 0 0 0 149 149 149 148 149 148 147 147 147 147 146 147 147 147 147 148 148 148 148 147 0 0 0 0 0 0 0 0 0 0 0
    0 0 0 0 0 0 0 0 0 0 0 0 0 0 0 0 0 0 0 0 0 0 0 0 0 0 0 0 0 0 0 0 0 0 0 0 0 0 0 0 0 0 0 0 0 0 0 0 0 0 0 0 0 0 0 0 0 0 0 0 0 0 0 0 0 0 0 0 0 1206 1206 1187 1187 1187 1247 1226 1247 1268 1247 1247 1247 1247 1206 1226 1226 1226 1206 1226 1226 1206 1226 1247 1247 1247 1291 1291 1206 1247 1247 1226 1226 1226 1226 1206 1187 1226 1187 1168 1206 1187 1149 1168 1149 1187 1187 1187 1206 1187 1187 1206 1187 1226 1206 1226 1247 1187 1226 1206 1168 1226 1206 1187 1206 1206 1247 1226 1247 1291 1268 1291 1291 1314 1187 1268 1226 1226 1226 1226 1226 1226 1206 1247 1187 1206 1206 1187 1168 1168 1168 1187 1149 1206 1206 1168 1226 1226 1247 1268 1247 1268 1247 1247 1226 1226 1206 1187 1226 1187 1206 1206 1226 1268 1247 1268 1291 1247 1291 1291 1226 1226 1168 1206 1206 1206 1226 1226 1226 1291 1247 1226 1206 1168 1149 1187 1187 1168 1206 1168 1226 1206 1226 1247 1187 1187 1226 1206 1268 1226 1268 0 3199 2374 0 1839 0 0 0 0 0 0 0 0 0 1022 1022 0 1022 0 994 1082 1362 1362 1501 1533 1291 1314 1187 0 1008 981 897 886 865 876 876 886 876 855 826 791 799 791 782 758 728 721 694 0 0 0 0 0 0 0 0 0 0 0 0 0 0 0 0 908 855 876 919 0 0 0 149 149 149 149 148 147 147 147 147 146 146 146 146 147 147 147 148 148 146 0 0 0 0 0 242 0 0 0 0 0
    0 0 0 0 0 0 0 0 0 0 0 0 0 0 0 0 0 0 0 0 0 0 0 0 0 0 0 0 0 0 0 0 0 0 0 0 0 0 0 0 0 0 0 0 0 0 0 0 0 0 0 0 0 0 0 0 0 0 0 0 0 0 0 0 0 0 0 0 0 1187 1187 1168 1187 1168 1226 1206 1206 1226 1206 1206 1226 1206 1206 1206 1206 1206 1206 1206 1226 1206 1226 1247 1247 1206 1247 1247 1168 1206 1226 1206 1206 1206 1226 1206 1187 1247 1187 1187 1206 1187 1132 1132 1132 1187 1168 1168 1187 1187 1187 1206 1187 1226 1168 1206 1226 1149 1187 1168 1132 1206 1187 1168 1187 1206 1226 1206 1247 1268 1247 1268 1291 1291 1149 1247 1226 1206 1206 1206 1206 1206 1187 1247 1149 1187 1187 1168 1132 1149 1149 1168 1149 1187 1206 1168 1206 1226 1226 1247 1226 1247 1226 1206 1187 1206 1206 1187 1206 1187 1206 1206 1226 1268 1247 1268 1291 1247 1291 1291 1206 1206 1149 1187 1187 1187 1187 1206 1206 1247 1206 1187 1168 1149 1149 1168 1168 1168 1187 1149 1206 1206 1226 1226 1187 1206 1226 1226 1268 1226 1247 1268 1338 1635 1565 1501 1415 0 0 1291 1098 1115 0 1022 1036 1022 1022 1022 1022 1036 994 1082 1247 1247 1247 0 1247 1268 1168 0 0 1022 981 981 931 955 919 897 897 876 836 808 799 791 782 766 735 728 707 0 0 0 0 162 0 0 0 0 0 0 0 0 0 0 0 0 0 0 0 0 0 0 149 149 149 149 148 147 147 147 146 146 146 146 146 146 147 147 148 148 146 146 0 0 0 0 244 0 0 0 0 0
    0 0 0 0 0 0 0 0 0 0 0 0 0 0 0 0 0 0 0 0 0 0 0 0 0 0 0 0 0 0 0 0 0 0 0 0 0 0 0 0 0 0 0 0 0 0 0 0 0 0 0 0 0 0 0 0 0 0 0 0 0 0 0 0 0 0 0 0 0 1168 1168 1168 1187 1168 1226 1206 1168 1187 1168 1187 1206 1187 1187 1187 1187 1206 1206 1206 1226 1187 1206 1226 1226 1132 1187 1206 1132 1187 1187 1187 1206 1187 1226 1206 1187 1247 1206 1206 1206 1168 1149 1132 1132 1187 1168 1168 1168 1168 1168 1187 1187 1206 1149 1187 1187 1132 1149 1132 1115 1187 1168 1168 1168 1187 1206 1206 1226 1247 1226 1226 1247 1268 1098 1226 1187 1168 1187 1187 1187 1168 1168 1226 1115 1168 1168 1132 1115 1132 1132 1149 1149 1187 1187 1168 1206 1206 1226 1247 1226 1247 1206 1206 1168 1187 1206 1187 1206 1187 1187 1206 1206 1268 1247 1247 1268 1247 1291 1268 1168 1206 1149 1187 1168 1168 1168 1187 1187 1226 1187 1149 1168 1149 1149 1168 1168 1149 1168 1149 1206 1187 1206 1226 1187 1206 1226 1206 1268 1226 1206 1247 1268 1268 1291 1291 1314 1168 1226 1206 1066 1082 0 1022 1022 1022 1022 1022 1022 1036 994 1066 1206 1168 1149 1247 1187 1226 1168 1066 0 1036 1022 1022 1008 1022 968 919 876 876 836 808 782 766 766 750 728 721 707 0 0 0 0 0 161 157 0 0 0 0 0 0 0 0 0 0 0 0 0 0 0 0 149 148 148 149 148 147 146 147 146 146 146 146 146 146 147 148 148 148 147 147 0 0 0 0 244 0 0 0 0 0
    0 0 0 0 0 0 0 0 0 0 0 0 0 0 0 0 0 0 0 0 0 0 0 0 0 0 0 0 0 0 0 0 0 0 0 0 0 0 0 0 0 0 0 0 0 0 0 0 0 0 0 0 0 0 0 0 0 0 0 0 0 0 0 0 0 0 0 0 0 1168 1187 1168 1187 1149 1187 1187 1132 1149 1149 1168 1187 1187 1168 1187 1168 1206 1187 1187 1206 1168 1168 1206 1187 1098 1149 1187 1115 1168 1168 1168 1187 1187 1206 1187 1187 1247 1187 1187 1206 1168 1149 1132 1132 1187 1168 1168 1168 1168 1168 1187 1187 1206 1149 1187 1168 1115 1115 1098 1098 1149 1149 1149 1168 1168 1187 1187 1206 1226 1206 1187 0 1226 1066 1187 1149 1149 1149 1168 1168 1149 1132 1206 1098 1149 1132 1115 1082 1098 1115 1132 1132 1168 1168 1168 1187 1206 1206 1226 1226 1226 1206 1187 1132 1187 1187 1168 1206 1187 1187 1206 1206 1247 1247 1247 1268 1247 1291 1268 1168 1206 1149 1168 1168 1168 1168 1187 1187 1226 1206 1149 1187 1149 1168 1168 1168 1149 1168 1132 1187 1168 1187 1187 1187 1187 1206 1187 1268 1206 1187 1226 1226 1206 1206 1226 1247 1098 1168 1149 1051 1082 1036 1022 1036 1036 1022 1022 1022 1036 994 1066 1168 1098 1098 1206 1132 1168 1168 1115 1051 1082 1051 1051 1036 1036 1022 968 908 876 836 791 758 735 743 728 714 714 700 0 137 0 0 0 0 0 0 0 0 0 0 0 0 0 0 0 0 0 0 0 0 0 149 149 148 149 148 147 146 146 146 146 146 146 146 146 147 147 148 147 147 148 150 0 252 0 245 0 0 0 0 0
    0 0 0 0 0 0 0 0 0 0 0 0 0 0 0 0 0 0 0 0 0 0 0 0 0 0 0 0 0 0 0 0 0 0 0 0 0 0 0 0 0 0 0 0 0 0 0 0 0 0 0 0 0 0 0 0 0 0 0 0 0 0 0 0 0 0 0 0 0 1187 1187 1187 1187 1149 1168 1187 1132 1149 1149 1149 1168 1168 1168 1168 1168 1187 1187 1168 1187 1168 1149 1187 1168 1082 1132 1168 1115 1149 1149 1149 1168 1168 1206 1187 1168 1247 1187 1206 1226 1168 1149 1149 1149 1187 1168 1168 1168 1168 1168 1187 1187 1206 1149 1187 1149 1115 1098 1098 1098 1149 1149 1149 1149 1168 1187 1187 1206 1206 1168 1149 0 1187 0 1149 1132 1132 1149 1149 1149 1149 1132 1206 1082 1149 1115 1098 1066 1082 1098 1115 1132 1149 1149 1168 1168 1187 1206 1206 1206 1226 1187 1187 1098 1168 1168 1149 1187 1168 1187 1187 1187 1247 1226 1247 1247 1226 1247 1226 1149 1187 1149 1149 1168 1149 1168 1168 1168 1206 1187 1132 1168 1132 1168 1149 1149 1132 1149 1115 1168 1132 1168 1132 1149 1149 1168 1149 1226 1168 1149 1187 1168 1115 1132 1168 1187 1066 1149 1115 1051 1066 1036 1022 1036 1036 1022 1022 1022 1036 1008 1066 1168 1082 1082 1168 1098 1149 1168 1149 1082 1132 1082 1082 1066 1066 1036 1022 981 931 845 808 750 728 735 714 707 0 0 138 137 0 0 0 0 0 0 0 0 0 0 0 0 0 0 0 0 0 0 0 150 149 149 149 149 149 148 147 146 146 146 146 146 146 146 146 146 147 148 147 147 148 150 0 253 250 0 0 0 0 0 0
    0 0 0 0 0 0 0 0 0 0 0 0 0 0 0 0 0 0 0 0 0 0 0 0 0 0 0 0 0 0 0 0 0 0 0 0 0 0 0 0 0 0 0 0 0 0 0 0 0 0 0 0 0 0 0 0 0 0 0 0 0 0 0 0 0 0 0 0 0 1187 1187 1187 1168 1132 1149 1149 1115 1132 1149 1149 1168 1168 1149 1168 1168 1206 1187 1168 1187 1149 1149 1168 1168 1082 1115 1149 1115 1149 1132 1132 1149 1132 1206 1168 1168 1247 1187 1206 1226 1168 1149 1149 1149 1168 1149 1149 1149 1168 1168 1187 1187 1187 1149 1168 1115 1098 1082 1082 1098 1132 1132 1132 1132 1149 1168 1168 1187 1187 1168 1132 1132 1149 1066 1132 1115 1115 1132 1132 1149 1132 1132 1206 1082 1132 1098 1082 1051 1082 1082 1098 1115 1132 1132 1149 1149 1187 1187 1206 1206 1206 1168 1168 1082 1168 1149 1132 1168 1168 1168 1187 1187 1226 1206 1206 1226 1206 1187 1168 1115 1168 1132 1132 1149 1149 1149 1149 1149 1187 1168 1115 1187 1115 1149 1132 1149 1132 1132 1115 1168 1115 1149 1115 1149 1132 1168 1132 1206 1132 1115 1149 1132 1082 1082 1115 1132 1051 1132 1098 1036 1051 1036 1008 1036 1022 1022 1022 1022 1036 1008 1051 1149 1066 1066 1149 1082 1115 1132 1098 1066 1098 1066 1082 1066 1066 1051 1036 994 968 876 817 728 714 721 0 0 0 0 138 136 0 0 0 0 0 0 0 0 0 0 0 0 0 0 0 0 0 151 151 150 150 150 149 149 149 148 147 146 146 146 146 146 146 146 146 146 146 147 146 146 148 149 149 0 249 0 0 0 0 0 0
    0 0 0 0 0 0 0 0 0 0 0 0 0 0 0 0 0 0 0 0 0 0 0 0 0 0 0 0 0 0 0 0 0 0 0 0 0 0 0 0 0 0 0 0 0 0 0 0 0 0 0 0 0 0 0 0 0 0 0 0 0 0 0 0 0 0 0 0 0 1187 1187 1149 1132 1115 1098 1115 1082 1098 1132 1132 1149 1149 1149 1168 1149 1187 1168 1132 1168 1115 1115 1132 1132 1066 1098 1115 1098 1115 1132 1115 1132 1115 1187 1149 1132 1226 1132 1132 1149 1098 1115 1115 1115 1132 1132 1149 1149 1149 1168 1168 1168 1187 1132 1115 1082 1082 1066 1066 1082 1098 1098 1115 1115 1132 1149 1149 1187 1168 1168 1132 1115 1149 1066 1132 1115 1115 1132 1115 1132 1132 1115 1206 1082 1115 1082 1066 1051 1066 1082 1082 1115 1115 1132 1132 1132 1187 1187 1187 1226 1206 1187 1187 1082 1168 1149 1132 1168 1168 1168 1168 1168 1226 1206 1206 1226 1187 1149 1149 1098 1149 1115 1115 1132 1132 1132 1132 1132 1168 1168 1115 1187 1115 1149 1115 1132 1115 1132 1098 1132 1098 1115 1098 1132 1098 1149 1098 1149 1098 1098 1132 1098 1066 1051 1051 1066 1036 1098 1066 1022 1036 1022 1008 1022 1022 1022 1008 1008 1036 1008 1051 1115 1051 1066 1132 1066 1082 1082 1066 1036 1066 1036 1066 1066 1082 1066 1036 1008 981 0 0 0 0 0 0 0 0 0 137 136 0 0 0 0 0 0 0 0 0 0 0 0 0 0 0 151 152 152 151 151 150 150 150 149 149 148 147 146 146 146 146 145 145 146 146 146 146 146 146 146 148 149 149 0 0 0 0 0 0 0 0
    0 0 0 0 0 0 0 0 0 0 0 0 0 0 0 0 0 0 0 0 0 0 0 0 0 0 0 0 0 0 0 0 0 0 0 0 0 0 0 0 0 0 0 0 0 0 0 0 0 0 0 0 0 0 0 0 0 0 0 0 0 0 0 0 0 0 0 0 0 1168 1149 1115 1098 1082 1082 1098 1082 1098 1115 1115 1132 1132 1132 1132 1132 1149 1132 1082 1115 1066 1082 1082 1098 1051 1082 1098 1098 1098 1115 1115 1115 1098 1187 1115 1082 1149 1051 1051 1066 1051 1066 1066 1082 1098 1115 1115 1132 1149 1149 1149 1149 1149 1115 1082 1051 1051 1036 1051 1066 1082 1082 1098 1098 1115 1132 1132 1168 1149 1149 1132 1115 1132 1066 1115 1115 1098 1115 1098 1115 1115 1098 1187 1066 1082 1066 1051 1051 1066 1066 1082 1098 1115 1115 1132 1132 1187 1168 1168 1206 1206 1168 1187 1066 1149 1132 1115 1149 1132 1149 1149 1149 1206 1168 1149 1168 1115 1115 1115 1082 1132 1098 1098 1115 1115 1115 1115 1115 1149 1132 1098 1168 1098 1132 1098 1132 1098 1115 1098 1115 1098 1115 1082 1115 1082 1149 1066 1098 1082 1066 1098 1066 1036 1036 1022 1036 1022 1066 1051 1022 1036 1022 994 1022 1022 1008 1008 1008 1022 1008 1022 1082 1051 1051 1115 1051 1066 1051 1051 1022 1036 1022 1036 1036 1066 1051 1036 1008 0 0 0 0 0 0 0 0 0 0 0 136 136 0 0 0 0 0 0 0 0 0 0 0 0 0 155 152 153 152 152 151 151 151 150 149 149 148 146 146 146 146 146 145 145 145 145 145 145 146 146 145 147 148 148 149 0 0 0 0 0 0 0
    0 0 0 0 0 0 0 0 0 0 0 0 0 0 0 0 0 0 0 0 0 0 0 0 0 0 0 0 0 0 0 0 0 0 0 0 0 0 0 0 0 0 0 0 0 0 0 0 0 0 0 0 0 0 0 0 0 0 0 0 0 0 0 0 0 0 0 0 0 1149 1132 1098 1098 1082 1082 1098 1082 1082 1098 1098 1115 1115 1115 1115 1098 1132 1098 1051 1082 1036 1066 1066 1082 1051 1082 1098 1098 1098 1115 1098 1098 1082 1168 1066 1051 1051 1008 1022 1022 1036 1051 1051 1051 1066 1082 1098 1115 1115 1115 1115 1115 1098 1082 1051 1022 1022 1022 1036 1051 1051 1066 1082 1082 1098 1115 1115 1149 1132 1132 1115 1098 1132 1051 1098 1098 1082 1098 1082 1098 1098 1098 1168 1066 1066 1051 1051 1036 1066 1066 1066 1082 1098 1098 1115 1115 1149 1149 1149 1187 1168 1115 1149 1066 1132 1115 1098 1132 1115 1115 1115 1115 1149 1115 1082 1115 1066 1082 1082 1066 1098 1082 1082 1098 1098 1098 1098 1082 1098 1115 1082 1132 1082 1132 1098 1115 1098 1115 1098 1115 1098 1098 1082 1115 1066 1132 1036 1051 1051 1036 1066 1051 1022 1022 1008 1022 1008 1051 1036 1008 1022 1022 994 1008 1008 994 994 994 1008 994 1008 1066 1036 1036 1098 1036 1051 1036 1036 1008 1022 994 1008 1022 1051 1051 1036 1008 0 0 0 0 0 0 0 0 0 0 0 135 135 0 0 0 0 0 0 0 0 0 0 0 0 155 155 153 153 153 152 152 151 151 150 149 149 148 146 146 146 146 145 145 145 145 145 145 145 146 145 145 147 148 148 149 0 0 0 0 0 0 0
    0 0 0 0 0 0 0 0 0 0 0 0 0 0 0 0 0 0 0 0 0 0 0 0 0 0 0 0 0 0 0 0 0 0 0 0 0 0 0 0 0 0 0 0 0 0 0 0 0 0 0 0 0 0 0 0 0 0 0 0 0 0 0 0 0 0 0 0 0 1132 1132 1082 1098 1082 1066 1082 1082 1082 1082 1098 1115 1082 1098 1082 1082 1098 1066 1036 1066 1036 0 1066 1082 1051 1082 1098 1098 1082 1115 1082 1098 1066 1132 1022 1008 994 981 981 1008 1022 1036 1036 1051 1051 1066 1082 1098 1098 1098 1082 1098 1066 1066 1036 1022 1008 1008 1022 1036 1036 1051 1066 1082 1082 1115 1115 1149 1115 1132 1115 1082 1115 1051 1082 1082 1082 1082 1066 1082 1082 1082 1149 1066 1066 1051 1051 1036 1066 1066 1051 1082 1082 1082 1082 1098 1132 1115 1115 1168 1149 1098 1149 1066 1115 1115 1082 1098 1082 1098 1098 1082 1115 1082 1066 1066 1036 1051 1051 1051 1066 1066 1066 1082 1082 1066 1066 1066 1066 1082 1066 1115 1082 1098 1082 1115 1082 1115 1082 1098 1082 1082 1051 1066 1051 1066 1008 1008 1022 1008 1022 1036 1008 1022 1008 1022 1008 1036 1022 981 1008 1008 968 994 994 981 981 981 994 994 994 1036 1022 1022 1066 1022 1036 1022 1008 994 1008 981 994 994 1036 1051 1036 1008 0 0 0 0 0 0 0 0 0 0 0 0 135 0 0 0 0 0 0 0 0 0 0 0 0 155 155 153 153 153 152 152 151 151 150 149 149 148 146 146 146 145 145 144 145 145 145 145 145 145 145 145 147 148 148 148 0 0 0 0 0 0 0
    0 0 0 0 0 0 0 0 0 0 0 0 0 0 0 0 0 0 0 0 0 0 0 0 0 0 0 0 0 0 0 0 0 0 0 0 0 0 0 0 0 0 0 0 0 0 0 0 0 0 0 0 0 0 0 0 0 0 0 0 0 0 0 0 0 0 0 0 0 1149 1132 1082 1098 1066 1066 1066 1066 1066 1082 1082 1098 1066 1066 1066 1066 1082 1051 0 0 1022 0 1066 1082 1051 1082 1082 1098 1082 1115 1082 1082 1051 1098 1008 994 981 981 968 994 1022 1022 1022 1036 1036 1051 1066 1098 1098 1098 1082 1082 1066 1051 1022 1008 994 994 1008 1022 1036 1036 1051 1066 1082 1115 1132 1149 1115 1132 1115 1082 1098 1051 1066 1066 1066 1082 1066 1082 1082 1082 1149 1082 1082 1051 1066 1051 1051 1066 1051 1066 1066 1066 1066 1082 1098 1098 1082 1132 1168 1098 1168 1051 1082 1082 1066 1082 1066 1082 1066 1066 1082 1066 1051 1051 1022 1036 1036 1051 1051 1036 1036 1066 1066 1051 1051 1051 1051 1051 1051 1082 1066 1082 1066 1098 1066 1098 1082 1082 1066 1066 1051 1066 1036 1036 1008 994 1022 1008 1022 1022 994 1008 1008 1008 994 1022 1008 968 994 1008 968 981 981 981 981 981 994 994 981 1022 1022 1008 1051 1008 1022 1008 994 994 994 968 981 981 1022 1036 1036 994 0 0 0 0 0 0 0 0 0 0 0 0 0 0 0 0 0 0 0 0 0 0 0 0 0 156 156 153 154 153 152 152 151 151 150 149 148 148 146 146 146 146 145 145 145 145 145 145 145 145 145 145 146 147 148 148 0 0 0 0 0 0 0
    0 0 0 0 0 0 0 0 0 0 0 0 0 0 0 0 0 0 0 0 0 0 0 0 0 0 0 0 0 0 0 0 0 0 0 0 0 0 0 0 0 0 0 0 0 0 0 0 0 0 0 0 0 0 0 0 0 0 0 0 0 0 0 0 0 0 0 0 0 1149 1115 1082 1082 1066 1066 1066 1066 1066 1066 1066 1082 1051 1051 1051 1051 1051 1036 0 1036 1036 1066 1066 1082 1066 1082 1082 1098 1082 1115 1066 1066 1036 1051 994 981 968 981 955 981 1008 1008 1022 1022 1022 1051 1051 1098 1082 1082 1066 1051 1051 1036 1008 981 981 981 994 1008 1022 1022 1036 1051 1082 1098 1115 1132 1098 1115 1098 1082 1082 1036 1066 1066 1066 1066 1051 1066 1082 1066 1132 1082 1082 1066 1066 1051 1051 1066 1051 1051 1066 1066 1066 1066 1082 1082 1066 1098 1168 1082 1115 1022 1051 1066 1051 1066 1051 1066 1051 1066 1066 1066 1051 1036 1022 1036 1036 1036 1036 1036 1036 1066 1066 1051 1051 1051 1036 1051 1036 1066 1051 1066 1051 1082 1066 1098 1082 1066 1051 1051 1051 1051 1022 1022 994 994 1008 994 1008 994 968 994 994 994 994 1008 1008 968 981 1008 968 981 981 981 981 981 994 994 981 1008 1008 1008 1022 994 1008 1008 994 981 981 968 981 981 1008 1022 1022 968 876 0 0 0 0 0 0 0 0 0 0 0 0 0 0 0 0 0 0 0 0 0 0 0 0 156 155 153 154 153 153 152 151 151 150 149 0 148 146 146 146 146 145 145 144 145 144 145 145 145 145 145 146 146 147 147 0 0 0 0 0 0 0
    0 0 0 0 0 0 0 0 0 0 0 0 0 0 0 0 0 0 0 0 0 0 0 0 0 0 0 0 0 0 0 0 0 0 0 0 0 0 0 0 0 0 0 0 0 0 0 0 0 0 0 0 0 0 0 0 0 0 0 0 0 0 0 0 0 0 0 0 0 1115 1098 1082 1082 1066 1066 1066 1066 1051 1051 1066 1051 1036 1036 1036 1036 1022 1008 1008 1022 1022 1051 1051 1082 1066 1066 1082 1082 1082 1115 1051 1051 1008 994 968 955 955 968 943 968 994 994 1008 1008 1022 1036 1051 1082 1066 1051 1036 1022 1008 1008 968 968 968 968 981 994 1008 1008 1022 1036 1066 1082 1098 1132 1098 1098 1098 1066 1082 1036 1051 1051 1051 1066 1051 1066 1066 1066 1132 1082 1066 1051 1051 1051 1051 1051 1036 1036 1051 1051 1051 1051 1066 1066 1051 1082 1149 1082 1098 1036 1066 1066 1036 1066 1036 1051 1051 1051 1066 1051 1036 1036 1022 1036 1036 1051 1051 1036 1051 1066 1066 1051 1051 1036 1036 1036 1036 1036 1036 1051 1051 1066 1051 1098 1066 1051 1051 1036 1036 1051 1022 1022 994 994 1008 1008 1008 1008 981 994 994 994 994 1008 994 968 981 1008 968 981 981 968 981 981 994 994 981 1008 994 994 1008 994 994 994 981 981 968 968 968 981 1008 1008 1022 943 855 0 0 0 0 0 0 0 0 0 0 0 0 0 0 0 0 0 0 0 0 0 0 0 0 155 155 152 153 152 152 152 151 151 150 149 0 148 146 146 146 146 145 145 144 144 144 144 145 145 145 144 145 146 146 147 147 0 0 0 0 0 0
    0 0 0 0 0 0 0 0 0 0 0 0 0 0 0 0 0 0 0 0 0 0 0 0 0 0 0 0 0 0 0 0 0 0 0 0 0 0 0 0 0 0 0 0 0 0 0 0 0 0 0 0 0 0 0 0 0 0 0 0 0 0 0 0 0 0 0 0 0 1066 1066 1051 1051 1051 1051 1051 1051 1051 1036 1051 1036 1022 1022 1008 1008 1008 994 994 1008 1008 1036 1036 1051 1051 1051 1066 1066 1051 1082 1022 1008 968 943 943 931 943 955 943 968 981 994 994 994 1008 1036 1036 1066 1051 0 1008 994 994 981 955 955 955 955 981 981 994 994 994 1022 1051 1066 1082 1098 1082 1066 1066 1051 1066 1022 1036 1036 1036 1036 1036 1051 1036 1036 1082 1051 1036 1036 1036 1036 1036 1051 1036 1036 1036 1036 1036 1036 1051 1051 1036 1051 1098 1066 1098 1036 1051 1051 1022 1051 1022 1036 1036 1036 1051 1036 1022 1022 1022 1036 1036 1036 1036 1036 1036 1051 1051 1036 1036 1022 1022 1022 1022 1022 1022 1036 1036 1051 1036 1082 1066 1051 1036 1036 1036 1036 1022 1008 994 994 1008 994 1008 994 981 994 1008 1008 994 1008 981 968 968 994 968 981 968 968 968 968 981 981 968 994 981 981 994 968 981 981 968 955 955 943 955 955 981 981 968 886 808 774 808 721 766 743 721 0 0 0 0 0 0 0 0 0 0 0 0 0 0 0 0 0 0 0 0 0 0 0 152 151 151 150 150 149 0 148 146 146 146 146 145 144 144 144 144 144 145 145 145 144 145 146 146 146 147 0 0 0 0 0 0
    0 0 0 0 0 0 0 0 0 0 0 0 0 0 0 0 0 0 0 0 0 0 0 0 0 0 0 0 0 0 0 0 0 0 0 0 0 0 0 0 0 0 0 0 0 0 0 0 0 0 0 0 0 0 0 0 0 0 0 0 0 0 0 0 0 0 0 0 0 1036 1051 1036 1036 1036 1051 1036 1051 1036 1022 1022 1022 1008 994 994 981 981 968 968 981 981 1008 1022 1036 1036 1036 1036 1051 1036 1066 994 968 955 908 931 919 943 955 943 955 981 981 994 981 994 1022 1022 1051 1036 0 1008 994 981 981 943 955 955 955 968 968 981 981 981 1008 1022 1036 1051 1051 1051 1022 1022 1022 1022 1008 1022 1022 1008 1008 1008 1022 1008 1008 1008 1008 1008 1008 1008 1022 1008 1036 1008 1008 1008 1008 1008 1008 1022 1022 1008 1008 1022 1008 1036 994 1008 1008 955 981 943 1008 1022 1008 1036 1022 1008 1022 1008 1036 1022 1036 1036 1022 1036 1036 1036 1022 1022 1022 1008 1008 1008 1008 1008 1022 1036 1036 1036 1066 1051 1036 1036 1022 1022 1022 1022 1008 994 994 994 994 1008 994 981 994 1008 1008 994 1008 981 981 981 994 955 968 968 955 968 968 968 968 955 994 968 968 981 955 968 968 968 955 955 943 943 955 968 943 931 865 808 799 817 728 774 750 735 743 728 0 0 0 0 0 0 0 0 0 0 0 0 0 0 0 0 0 0 0 0 0 0 0 0 150 150 149 148 148 146 146 146 145 145 144 144 144 144 144 144 144 145 144 145 146 146 146 146 146 0 0 0 0 0
    0 0 0 0 0 0 0 0 0 0 0 0 0 0 0 0 0 0 0 0 0 0 0 0 0 0 0 0 0 0 0 0 0 0 0 0 0 0 0 0 0 0 0 0 0 0 0 0 0 0 0 0 0 0 0 0 0 0 0 0 0 0 0 0 0 0 0 0 0 1022 1022 1022 1022 1022 1036 1036 1036 1036 1008 1008 994 981 981 968 955 955 943 955 955 968 994 1008 1022 1022 1022 1036 1036 1036 1051 994 968 955 919 931 908 943 955 943 955 968 968 981 968 994 1008 1008 0 1022 0 1008 994 981 981 931 955 955 955 968 968 968 968 968 994 994 1008 1008 1008 1022 981 994 994 994 994 981 994 994 994 994 994 994 994 994 1008 981 994 994 1008 994 1008 994 994 994 994 994 994 994 994 994 994 994 981 968 931 943 931 908 908 886 968 981 981 1008 1008 1008 1008 1022 1036 1036 1036 1051 1036 1036 1036 1036 1022 1022 1008 1008 994 994 1008 1008 1022 1022 1022 1022 1051 1051 1022 1022 1022 1022 1008 1008 994 994 981 994 981 994 981 968 981 994 994 981 994 981 981 981 994 943 968 955 955 955 955 955 955 955 981 955 968 968 955 955 955 955 943 943 931 931 931 943 931 931 855 808 799 817 735 782 766 743 750 735 743 0 0 0 0 0 0 0 0 0 0 0 0 0 0 0 0 0 0 0 0 0 0 0 150 149 149 0 148 146 146 146 145 145 145 144 144 144 144 144 144 144 144 144 145 145 146 146 146 0 0 0 0 0
    0 0 0 0 0 0 0 0 0 0 0 0 0 0 0 0 0 0 0 0 0 0 0 0 0 0 0 0 0 0 0 0 0 0 0 0 0 0 0 0 0 0 0 0 0 0 0 0 0 0 0 0 0 0 0 0 0 0 0 0 0 0 0 0 0 0 0 0 0 1008 1022 1008 1008 1008 1022 1022 1022 1022 994 994 981 981 968 955 943 955 943 955 955 968 981 1008 1008 1022 1022 1036 1036 1022 1022 981 968 955 931 943 908 943 955 943 943 955 955 968 955 981 994 994 1008 1008 1008 1008 994 981 981 931 943 943 955 955 955 955 968 955 994 994 994 994 994 994 968 981 981 981 981 955 994 981 981 981 981 981 981 981 994 981 994 981 994 981 1008 981 981 981 981 981 981 981 981 968 981 981 968 955 919 919 908 908 908 897 955 968 968 994 1008 1008 1008 1022 1036 1036 1036 1066 1036 1051 1036 1036 1022 1008 1008 994 981 994 981 994 994 1008 1008 1008 1036 1036 1008 1022 1008 1008 1008 994 994 981 981 981 981 994 968 968 981 981 981 981 994 981 968 968 981 931 955 943 943 943 955 955 943 943 981 955 955 955 943 943 943 943 931 931 919 919 919 919 919 919 855 808 808 817 735 782 766 743 750 743 743 728 0 0 0 0 0 0 0 0 0 0 0 0 0 0 0 0 0 0 0 0 0 0 0 149 148 148 148 147 146 146 145 145 145 144 144 144 144 144 144 144 144 144 145 144 145 145 145 0 0 0 0 0
    0 0 0 0 0 0 0 0 0 0 0 0 0 0 0 0 0 0 0 0 0 0 0 0 0 0 0 0 0 0 0 0 0 0 0 0 0 0 0 0 0 0 0 0 0 0 0 0 0 0 0 0 0 0 0 0 0 0 0 0 0 0 0 0 0 0 0 0 0 1008 1008 994 994 994 994 994 0 994 981 981 968 968 955 955 943 955 955 955 955 968 981 994 994 1008 1022 1022 1022 1008 994 981 968 955 931 943 908 943 955 943 943 943 943 955 955 981 994 981 1008 1008 1008 1008 994 968 981 919 943 943 943 943 943 955 955 955 981 981 981 981 981 981 968 981 981 981 981 943 981 981 968 981 981 981 981 981 994 981 994 981 994 981 994 981 968 981 968 968 968 981 968 968 968 968 955 943 897 897 897 908 897 886 943 955 968 994 994 1008 994 1008 1022 1022 1022 1051 1036 1036 1022 1036 1008 1008 994 994 968 981 968 981 981 994 994 994 1008 1022 981 1008 994 1008 994 981 981 981 981 981 981 981 968 955 981 981 981 981 994 981 955 968 968 919 943 931 943 943 943 955 955 955 981 955 968 943 943 931 931 931 919 919 908 908 897 908 897 897 855 817 817 817 743 782 766 743 750 735 743 728 0 0 0 0 0 0 0 0 0 0 0 0 0 0 0 0 0 0 0 0 0 0 0 149 148 148 148 147 147 146 146 145 145 144 144 144 144 144 144 144 144 143 144 144 144 144 144 0 0 0 0 0
    0 0 0 0 0 0 0 0 0 0 0 0 0 0 0 0 0 0 0 0 0 0 0 0 0 0 0 0 0 0 0 0 0 0 0 0 0 0 0 0 0 0 0 0 0 0 0 0 0 0 0 0 0 0 0 0 0 0 0 0 0 0 0 0 0 0 0 0 0 994 994 994 981 981 994 968 968 968 968 955 955 955 955 955 943 955 955 955 955 968 968 981 981 994 994 994 981 981 968 955 955 955 931 943 908 943 955 943 943 943 943 955 955 981 981 968 994 1008 1008 1008 994 968 981 908 931 943 943 943 943 943 955 943 981 968 968 968 968 968 955 968 981 981 981 943 981 968 968 981 981 981 981 981 994 981 981 981 981 981 981 968 968 968 955 968 968 968 955 955 955 955 943 943 886 897 897 908 897 886 931 955 955 981 994 994 994 994 1008 1008 1008 1036 1036 1036 1022 1036 1008 1008 994 981 968 968 955 968 968 981 968 968 994 1008 981 994 981 1008 994 981 981 981 968 981 968 981 955 955 968 968 955 968 981 968 943 981 968 931 943 931 943 943 943 955 943 943 968 943 955 931 931 919 919 919 908 908 908 908 897 908 897 897 855 836 826 826 743 782 766 743 750 735 735 721 0 0 0 0 0 0 0 0 0 0 0 0 0 0 0 0 0 0 0 0 0 0 0 148 148 148 148 147 147 146 146 145 145 144 144 144 144 144 144 144 143 143 144 144 144 144 143 0 0 0 0 0
    0 0 0 0 0 0 0 0 0 0 0 0 0 0 0 0 0 0 0 0 0 0 0 0 0 0 0 0 0 0 0 0 0 0 0 0 0 0 0 0 0 0 0 0 0 0 0 0 0 0 0 0 0 0 0 0 0 0 0 0 0 0 0 0 0 0 0 0 0 994 994 981 981 981 981 955 955 943 943 931 931 943 943 943 919 943 955 943 955 968 955 968 955 981 968 968 955 955 919 931 931 931 908 919 886 943 943 943 943 931 931 955 943 981 968 955 968 994 994 994 981 955 968 897 931 943 931 943 931 931 943 931 968 955 943 955 955 955 943 955 968 968 968 931 968 955 955 968 968 955 968 968 994 981 981 981 981 968 968 968 968 955 943 955 955 968 955 955 955 943 943 943 897 897 897 908 897 897 931 943 943 981 994 994 981 994 994 1008 994 1036 1022 1022 1022 1036 1022 994 994 981 968 955 931 943 955 955 955 943 968 981 968 994 981 994 994 981 981 981 968 968 968 968 955 955 968 955 943 968 968 955 943 968 955 897 919 897 908 908 908 897 886 886 943 886 931 908 897 897 908 919 908 908 908 908 908 908 908 897 865 836 826 826 750 782 774 750 750 735 735 714 0 0 0 0 0 0 0 0 0 0 0 0 0 0 0 0 0 0 0 0 0 0 0 0 0 148 148 147 147 146 146 145 145 144 144 144 144 143 143 143 143 142 144 143 143 144 143 0 0 0 0 0
    0 0 0 0 0 0 0 0 0 0 0 0 0 0 0 0 0 0 0 0 0 0 0 0 0 0 0 0 0 0 0 0 0 0 0 0 0 0 0 0 0 0 0 0 0 0 0 0 0 0 0 0 0 0 0 0 0 0 0 0 0 0 0 0 0 0 0 0 0 981 981 981 968 968 968 943 943 919 919 897 908 919 919 919 908 931 943 931 943 943 931 943 931 955 943 919 908 908 886 897 897 919 897 908 886 931 931 943 931 931 931 943 931 968 919 908 931 955 955 968 955 931 931 886 919 931 919 919 919 919 931 919 968 931 919 943 943 943 931 943 968 968 955 931 955 943 943 955 955 943 943 968 981 955 968 955 968 955 955 943 955 943 931 955 955 955 955 968 968 943 943 943 897 897 897 908 897 897 919 943 931 968 981 981 981 981 994 994 981 1022 1008 1008 1008 1022 1008 994 981 981 955 943 908 931 931 931 931 919 943 955 955 981 981 981 981 968 981 968 955 968 955 968 943 955 968 943 931 955 955 931 919 955 919 876 886 876 876 886 886 886 876 876 919 886 919 897 897 886 897 908 908 897 897 897 897 897 897 897 865 845 836 826 750 782 774 750 743 735 728 714 0 0 0 0 0 0 0 0 0 0 0 0 0 0 0 0 0 0 0 0 0 0 0 0 0 147 147 147 147 147 146 145 145 144 144 144 144 143 143 143 142 142 143 143 143 144 143 0 0 0 0 0
    0 0 0 0 0 0 0 0 0 0 0 0 0 0 0 0 0 0 0 0 0 0 0 0 0 0 0 0 0 0 0 0 0 0 0 0 0 0 0 0 0 0 0 0 0 0 0 0 0 0 0 0 0 0 0 0 0 0 0 0 0 0 0 0 0 0 0 0 0 981 981 968 968 968 968 919 919 897 908 886 897 908 908 908 908 919 943 931 943 943 931 931 919 931 919 897 886 876 865 886 886 908 897 897 876 919 919 931 919 919 919 931 919 943 908 886 897 943 931 943 931 897 908 876 908 919 908 908 897 908 919 919 955 908 897 919 931 943 931 943 955 955 931 919 943 931 931 943 943 931 943 955 968 943 955 955 943 943 931 931 943 943 931 955 955 955 943 955 955 931 931 931 897 886 897 908 897 897 908 931 919 943 968 968 955 968 968 968 968 994 981 981 981 994 981 968 968 955 943 919 897 908 919 908 908 908 931 931 943 981 968 981 968 943 968 955 931 943 943 943 931 931 955 931 919 943 943 908 897 931 897 865 886 865 876 865 876 876 876 876 908 886 919 897 908 886 886 897 897 897 886 886 897 897 897 897 865 845 836 826 750 782 774 743 743 735 728 707 0 0 0 0 0 0 0 0 0 0 0 0 0 0 0 0 0 0 0 0 0 0 0 0 0 147 147 147 148 147 146 146 146 145 145 144 144 143 143 143 143 142 143 143 144 145 144 0 0 0 0 0
    0 0 0 0 0 0 0 0 0 0 0 0 0 0 0 0 0 0 0 0 0 0 0 0 0 0 0 0 0 0 0 0 0 0 0 0 0 0 0 0 0 0 0 0 0 0 0 0 0 0 0 0 0 0 0 0 0 0 0 0 0 0 0 0 0 0 0 0 0 981 981 968 968 968 955 897 897 886 897 876 886 897 897 897 897 919 931 919 955 955 931 931 919 919 919 886 865 865 855 876 886 897 897 897 886 908 919 919 908 908 908 908 908 919 876 855 876 919 897 0 919 876 886 876 897 908 897 897 886 897 908 908 943 897 897 908 919 931 919 931 943 943 908 908 931 919 919 931 931 919 931 955 955 931 943 943 919 931 919 919 943 943 919 943 943 955 943 943 955 931 931 919 897 886 886 897 897 897 908 931 919 943 955 955 943 955 968 955 955 981 968 955 968 981 968 955 955 943 931 908 886 908 919 908 897 897 919 919 919 955 943 943 943 897 955 943 908 931 931 931 919 919 943 908 908 931 908 886 897 919 886 865 876 855 865 865 876 876 876 876 897 886 908 886 919 876 876 886 886 886 886 897 897 897 908 897 865 855 845 826 750 782 774 743 735 728 721 0 0 0 0 0 0 0 0 0 0 0 0 0 0 0 0 0 0 0 0 0 0 0 0 0 0 0 147 148 148 148 146 146 146 145 145 145 144 143 143 144 143 143 143 143 144 145 145 0 0 0 0 0
    0 0 0 0 0 0 0 0 0 0 0 0 0 0 0 0 0 0 0 0 0 0 0 0 0 0 0 0 0 0 0 0 0 0 0 0 0 0 0 0 0 0 0 0 0 0 0 0 0 0 0 0 0 0 0 0 0 0 0 0 0 0 0 0 0 0 0 0 0 981 981 968 968 968 955 897 876 886 886 865 886 886 886 886 886 908 919 919 955 943 931 931 919 919 908 876 865 855 855 876 876 886 897 886 876 897 897 908 886 897 897 897 886 908 865 855 865 908 0 0 886 855 876 865 886 897 886 886 886 886 897 897 931 886 886 908 908 931 919 919 931 931 886 897 919 908 908 919 919 919 919 955 943 919 931 919 897 908 897 897 931 931 919 931 943 943 931 943 943 919 919 919 908 886 876 897 897 886 908 919 908 919 943 943 931 943 955 943 943 955 955 943 955 968 955 943 955 931 931 908 886 908 919 908 897 886 908 897 897 931 897 897 897 865 931 908 886 908 919 908 897 908 931 897 897 919 897 876 886 897 876 855 876 855 855 855 865 865 865 876 897 876 897 876 908 865 876 876 876 876 886 897 897 897 908 886 865 855 845 817 750 782 766 735 721 721 707 687 0 0 0 0 0 0 0 0 0 0 0 0 0 0 0 0 0 0 0 0 0 0 0 0 0 0 147 148 148 148 147 146 146 146 146 145 144 144 144 144 144 143 144 143 145 145 145 0 0 0 0 0
    0 0 0 0 0 0 0 0 0 0 0 0 0 0 0 0 0 0 0 0 0 0 0 0 0 0 0 0 0 0 0 0 0 0 0 0 0 0 0 0 0 0 0 0 0 0 0 0 0 0 0 0 0 0 0 0 0 0 0 0 0 0 0 0 0 0 0 0 0 981 981 981 968 968 955 897 876 876 886 865 876 876 876 876 876 897 897 897 943 919 908 908 908 908 897 865 855 855 845 865 876 876 876 876 876 886 886 897 876 897 886 886 886 897 855 855 865 908 865 0 876 855 865 865 886 886 876 886 886 886 908 897 919 886 886 897 897 919 908 908 919 919 876 897 908 897 897 908 908 919 908 943 919 897 908 886 865 876 876 876 897 919 908 919 931 943 931 931 943 919 908 908 908 886 876 886 886 886 897 908 897 908 931 931 908 931 943 919 919 943 943 931 943 968 955 943 968 943 943 919 897 908 919 908 897 886 897 886 886 908 886 876 876 865 919 886 876 908 919 897 897 897 919 886 876 897 876 855 865 876 855 845 865 855 865 855 876 865 865 865 876 865 886 876 897 855 865 865 865 876 876 897 897 886 886 876 865 855 845 817 750 774 758 728 714 714 700 681 0 0 0 0 0 0 0 0 0 0 0 0 0 0 0 0 0 0 0 0 0 0 0 0 0 0 0 149 148 148 147 147 147 146 146 146 145 144 144 145 145 144 144 144 145 146 146 0 0 0 0 0
    0 0 0 0 0 0 0 0 0 0 0 0 0 0 0 0 0 0 0 0 0 0 0 0 0 0 0 0 0 0 0 0 0 0 0 0 0 0 0 0 0 0 0 0 0 0 0 0 0 0 0 0 0 0 0 0 0 0 0 0 0 0 0 0 0 0 0 0 0 968 981 981 981 968 955 886 865 876 876 855 876 865 865 865 876 886 886 886 919 897 897 897 886 897 886 865 855 855 845 865 865 865 876 876 876 886 886 886 876 897 897 886 886 886 865 855 865 886 855 0 865 845 865 865 876 886 876 886 886 886 908 897 908 886 886 897 897 908 897 897 897 908 865 886 897 886 886 897 897 897 886 931 886 876 886 865 855 865 855 865 876 897 897 897 919 931 919 931 931 908 908 897 919 886 865 876 876 876 886 897 886 897 908 908 897 919 919 908 908 931 919 919 943 968 955 955 981 955 955 919 897 908 908 908 886 876 897 876 886 897 876 876 876 865 908 886 886 919 908 897 886 897 908 876 865 876 855 845 855 855 855 845 865 855 865 855 876 865 865 865 865 855 865 865 876 845 855 845 845 855 876 886 886 876 876 855 855 845 845 808 750 766 750 721 714 707 694 675 0 0 0 0 0 0 0 0 0 0 0 0 0 0 0 0 0 0 0 0 0 0 0 0 0 0 0 149 149 149 148 147 147 147 146 146 145 144 145 145 145 145 145 145 146 147 148 0 0 0 0 0
    0 0 0 0 0 0 0 0 0 0 0 0 0 0 0 0 0 0 0 0 0 0 0 0 0 0 0 0 0 0 0 0 0 0 0 0 0 0 0 0 0 0 0 0 0 0 0 0 0 0 0 0 0 0 0 0 0 0 0 0 0 0 0 0 0 0 0 0 0 968 968 968 968 0 0 0 0 855 855 845 855 855 855 855 865 876 876 876 908 886 886 886 876 886 876 865 845 845 845 855 855 865 865 865 865 876 876 886 865 886 886 876 876 876 855 855 855 865 855 845 855 845 865 865 876 876 876 876 886 876 908 897 897 886 876 886 886 908 897 897 897 908 865 876 886 876 876 876 876 876 876 908 865 865 865 845 845 855 845 855 865 886 886 876 908 919 908 919 919 897 897 897 931 886 865 865 876 865 886 886 876 876 897 897 886 908 908 886 897 908 908 908 931 955 943 943 981 955 955 919 897 908 908 897 876 876 886 865 876 886 876 876 876 876 897 886 886 919 908 886 876 886 897 865 865 865 845 836 855 855 845 845 855 845 855 845 876 855 865 855 855 845 855 845 855 836 836 826 826 845 876 897 897 876 876 855 845 845 845 799 743 758 743 721 707 707 694 675 0 0 0 0 0 0 0 0 0 0 0 0 0 0 0 0 0 0 0 103 102 0 0 0 0 0 0 0 149 149 148 147 147 147 146 146 145 145 146 146 146 145 146 146 148 148 0 0 0 0 0 0
    0 0 0 0 0 0 0 0 0 0 0 0 0 0 0 0 0 0 0 0 0 0 0 0 0 0 0 0 0 0 0 0 0 0 0 0 0 0 0 0 0 0 0 0 0 0 0 0 0 0 0 0 0 0 0 0 0 0 0 0 0 0 0 0 0 0 0 0 0 943 931 897 0 0 0 799 0 0 836 826 845 845 855 855 855 865 865 876 897 876 876 876 876 886 865 855 836 836 836 845 855 855 865 865 865 876 876 886 865 886 876 865 855 855 845 836 836 845 845 836 845 845 855 865 865 876 876 876 886 876 908 886 886 886 876 876 886 897 886 897 886 897 855 876 876 865 865 865 865 876 865 897 845 855 855 845 836 845 845 855 855 886 886 865 897 908 908 908 908 897 886 897 931 886 865 865 865 865 886 886 865 876 886 886 876 897 897 876 886 886 886 886 919 943 908 919 955 931 931 897 886 886 897 886 865 876 876 865 876 876 876 876 876 886 897 886 897 919 908 876 876 876 886 855 865 865 845 836 845 845 836 836 845 826 826 836 865 845 855 855 855 845 855 845 855 826 836 826 826 845 876 886 886 876 876 855 845 845 836 791 743 750 735 721 714 707 694 681 0 0 0 0 0 0 0 0 0 0 0 0 0 0 0 0 0 0 0 103 102 100 0 0 0 0 0 0 0 149 147 147 147 147 146 146 146 145 146 146 148 147 148 149 150 149 151 0 0 0 0 0
    0 0 0 0 0 0 0 0 0 0 0 0 0 0 0 0 0 0 0 0 0 0 0 0 0 0 0 0 0 0 0 0 0 0 0 0 0 0 0 0 0 0 0 0 0 0 0 0 0 0 0 0 0 0 0 0 0 0 0 0 0 0 0 0 0 0 0 0 0 908 876 836 0 799 782 782 791 808 826 817 845 845 845 855 855 865 865 865 886 865 865 865 865 876 865 855 836 836 836 855 855 865 865 865 876 876 876 886 865 886 876 855 855 845 836 826 826 826 836 817 845 836 855 865 865 865 865 876 876 876 908 876 865 876 865 855 855 855 855 865 855 876 845 865 865 855 865 865 865 865 855 876 845 855 845 836 836 845 845 845 855 886 886 865 897 908 897 897 908 897 886 886 931 886 855 865 865 865 886 886 865 876 876 886 865 897 876 865 876 876 876 876 897 931 886 886 931 886 886 876 865 876 876 876 855 865 865 855 865 876 865 876 876 897 897 886 897 908 897 865 865 865 876 855 865 855 845 845 855 845 836 836 836 826 826 826 855 845 865 855 855 845 855 845 855 826 826 817 826 836 865 865 865 855 855 845 836 836 836 774 743 743 735 721 714 714 700 687 0 0 0 0 0 0 0 0 0 0 0 0 0 0 0 116 0 0 0 0 0 100 0 0 0 0 0 0 0 0 0 147 147 147 146 146 146 146 147 148 150 149 150 151 150 0 153 0 0 0 0 0
    0 0 0 0 0 0 0 0 0 0 0 0 0 0 0 0 0 0 0 0 0 0 0 0 0 0 0 0 0 0 0 0 0 0 0 0 0 0 0 0 0 0 0 0 0 0 0 0 0 0 0 0 0 0 0 0 0 0 0 0 0 0 0 0 0 0 0 0 0 897 0 817 0 791 774 774 782 0 817 808 836 836 845 845 845 855 855 865 876 855 855 855 855 876 865 855 826 836 836 855 865 855 865 865 876 876 876 886 865 886 876 855 845 845 836 826 826 826 817 808 836 836 855 865 865 876 876 876 886 876 919 876 865 876 855 836 836 817 817 817 826 845 836 845 855 855 855 855 855 855 845 865 836 845 845 836 836 845 845 855 855 886 876 855 886 897 886 886 886 876 876 876 908 865 855 865 865 865 876 876 865 865 876 876 865 886 876 855 865 865 865 865 886 908 865 865 886 855 855 855 855 865 855 855 845 855 865 855 865 865 865 876 876 897 886 876 886 908 886 865 855 865 865 845 855 855 845 845 845 836 836 836 836 817 817 817 855 845 855 855 855 845 845 845 845 826 817 817 808 817 826 836 836 826 836 826 826 826 826 758 735 735 728 721 721 0 0 0 0 0 0 0 0 0 0 0 0 0 0 0 0 0 0 0 0 0 0 0 0 0 0 0 0 0 0 0 541 0 0 0 147 147 147 147 146 146 148 150 151 151 152 152 151 155 154 0 0 0 0 0
    0 0 0 0 0 0 0 0 0 0 0 0 0 0 0 0 0 0 0 0 0 0 0 0 0 0 0 0 0 0 0 0 0 0 0 0 0 0 0 0 0 0 0 0 0 0 0 0 0 0 0 0 0 0 0 0 0 0 0 0 0 0 0 0 0 0 0 0 0 0 0 817 0 0 766 758 0 0 808 791 826 826 836 845 845 855 845 855 865 845 845 845 845 876 855 855 826 836 836 855 865 855 865 865 865 876 886 886 865 886 908 865 845 855 0 836 0 826 817 808 826 836 865 876 865 886 886 897 897 897 943 886 876 876 855 817 826 799 799 799 817 836 826 0 0 845 855 855 845 845 836 865 836 845 845 836 836 845 845 845 855 876 865 855 886 876 876 876 876 865 865 865 886 855 845 855 855 855 876 865 865 865 876 876 855 886 865 845 845 855 855 845 855 865 845 836 865 836 836 845 836 855 845 845 836 855 855 855 855 865 855 865 865 886 876 865 886 886 876 855 855 855 855 845 855 855 845 845 855 836 836 826 826 817 817 817 836 836 845 845 845 845 845 836 836 817 817 808 808 817 817 817 817 817 826 817 808 817 817 743 728 728 721 0 0 0 0 0 0 0 0 0 0 0 0 0 0 0 0 0 0 0 0 0 0 0 0 0 0 0 0 0 0 0 0 0 529 511 0 0 147 147 147 147 146 146 0 151 153 153 153 153 153 155 154 0 0 0 0 0
    0 0 0 0 0 0 0 0 0 0 0 0 0 0 0 0 0 0 0 0 0 0 0 0 0 0 0 0 0 0 0 0 0 0 0 0 0 0 0 0 0 0 0 0 0 0 0 0 0 0 0 0 0 0 0 0 0 0 0 0 0 0 0 0 0 0 0 0 0 0 0 0 0 0 0 750 0 0 0 758 799 817 817 0 836 845 836 836 0 0 0 0 0 0 0 0 0 0 0 876 865 855 855 865 865 886 897 908 886 919 968 908 0 0 0 0 0 0 817 826 836 836 886 886 876 897 908 919 919 919 955 886 886 876 845 808 817 799 799 782 817 836 0 0 0 0 845 855 845 845 836 855 836 845 845 836 0 0 0 0 0 0 855 836 876 865 865 865 865 865 855 855 886 845 836 845 0 0 855 855 845 845 855 865 845 865 855 836 836 845 836 836 836 836 826 817 836 826 826 826 817 845 836 836 836 845 855 845 855 865 855 855 855 865 855 855 865 865 845 845 845 855 855 845 855 855 845 845 845 836 826 826 826 817 808 808 817 826 826 836 836 836 836 836 826 817 817 817 808 817 817 808 808 799 799 782 0 791 799 735 721 721 721 721 721 0 0 687 0 0 613 593 0 0 0 0 0 0 0 0 0 0 0 0 0 0 0 0 0 0 0 0 0 0 0 529 507 493 481 474 0 146 146 146 146 0 99 0 154 154 154 153 153 155 154 0 0 0 0 0
    0 0 0 0 0 0 0 0 0 0 0 0 0 0 0 0 0 0 0 0 0 0 0 0 0 0 0 0 0 0 0 0 0 0 0 0 0 0 0 0 0 0 0 0 0 0 0 0 0 0 0 0 0 0 0 0 0 0 0 0 0 0 0 0 0 0 0 0 0 0 0 0 0 88 0 0 0 0 0 728 0 0 0 0 0 836 826 0 0 0 0 0 0 0 0 0 0 0 0 0 0 0 0 876 0 908 919 931 919 0 0 0 0 0 0 0 0 0 0 0 0 0 0 943 919 943 955 955 943 931 968 897 886 0 845 799 817 799 791 758 808 0 0 175 175 0 0 0 0 0 0 845 826 836 0 0 0 0 0 0 0 0 0 0 0 855 855 865 865 865 855 855 908 836 0 0 0 0 0 0 836 826 836 845 836 855 845 826 826 826 826 826 826 826 817 808 817 817 808 808 799 817 817 808 817 0 0 0 855 855 845 855 845 855 836 845 855 845 826 836 845 845 855 845 855 845 845 836 836 826 826 817 817 808 799 799 808 826 826 826 826 826 826 826 817 808 808 808 799 808 791 791 782 766 728 0 0 0 774 721 714 714 714 721 721 714 707 687 687 707 0 588 574 553 0 0 0 0 0 0 0 0 286 0 0 0 0 0 0 0 0 0 0 0 0 0 0 0 477 0 0 0 146 146 146 0 0 0 155 154 154 154 154 155 153 0 0 0 0 0
    0 0 0 0 0 0 0 0 0 0 0 0 0 0 0 0 0 0 0 0 0 0 0 0 0 0 0 0 0 0 0 0 0 0 0 0 0 0 0 0 0 0 0 0 0 0 0 0 0 0 0 0 0 0 0 0 0 0 0 0 0 0 0 0 0 0 0 0 0 0 0 0 88 88 0 0 0 0 0 0 0 0 0 603 0 0 0 0 0 0 0 0 0 0 0 0 588 588 593 588 0 120 120 0 0 0 0 0 0 0 0 0 0 0 566 0 0 0 574 0 0 0 0 0 0 0 994 981 968 0 0 0 0 0 845 782 0 782 766 728 0 0 553 0 0 0 0 0 0 0 0 845 817 0 0 0 0 0 0 0 0 0 289 281 0 0 0 865 845 855 0 0 0 0 79 79 79 79 79 0 826 808 826 826 817 845 826 826 817 817 817 817 817 817 799 791 799 799 782 782 774 799 782 774 791 0 0 0 0 865 845 855 845 0 826 836 0 0 0 0 0 0 855 845 855 855 845 845 845 836 826 817 826 808 791 799 791 808 808 817 817 817 817 808 782 799 791 791 791 791 758 750 743 728 694 657 0 629 728 714 707 707 714 721 721 714 707 694 687 700 608 588 579 557 545 549 541 0 0 0 0 0 0 288 0 0 0 0 0 0 0 0 0 0 0 0 0 0 0 0 0 0 145 145 146 0 0 0 155 154 154 154 154 155 153 0 0 0 0 0
    0 0 0 0 0 0 0 0 0 0 0 0 0 0 0 0 0 0 0 0 0 0 0 0 0 0 0 0 0 0 0 0 0 0 0 0 0 0 0 0 0 0 0 0 0 0 0 0 0 0 0 0 0 0 0 0 0 0 0 0 0 0 0 0 0 0 0 0 0 561 566 561 0 88 0 0 0 0 0 0 603 588 598 593 584 593 593 593 0 0 0 579 588 584 0 588 579 579 588 584 0 0 0 0 0 0 0 0 0 0 549 557 561 561 561 570 574 579 566 588 574 566 561 0 0 0 0 0 0 0 0 0 0 0 0 0 0 0 0 0 0 570 553 561 0 0 0 584 584 0 0 845 817 0 0 0 0 0 0 0 0 0 0 0 0 0 0 0 0 0 0 0 0 0 0 79 79 79 79 0 0 791 799 817 799 826 808 808 799 808 799 799 791 799 782 750 758 766 728 728 728 735 728 0 0 0 0 0 0 0 0 0 845 0 0 808 0 0 0 0 0 0 855 836 855 865 855 855 855 836 826 817 817 799 774 782 766 791 782 791 0 0 0 0 0 799 791 782 782 766 743 721 721 714 675 623 623 608 0 0 663 700 707 707 714 707 694 669 645 681 603 588 584 566 553 557 545 545 545 541 0 0 0 0 0 0 0 0 0 0 0 119 117 0 0 0 0 114 0 0 0 0 0 0 146 0 0 0 155 154 154 154 154 155 153 0 0 0 0 0
    0 0 0 0 0 0 0 0 0 0 0 0 0 0 0 0 0 0 0 0 0 0 0 0 0 0 0 0 0 0 0 0 0 0 0 0 0 0 0 0 0 0 0 0 0 0 0 0 0 0 0 0 0 0 0 0 0 0 0 0 0 0 0 0 0 0 0 0 0 566 570 566 0 88 88 0 0 0 0 0 593 574 584 584 574 584 588 584 579 561 584 570 579 574 574 579 574 570 584 574 0 0 0 584 579 0 0 0 0 561 549 557 561 561 561 570 574 574 566 584 574 566 561 561 0 0 0 0 0 0 0 598 0 598 588 0 598 0 0 0 570 570 553 566 574 574 579 584 579 579 593 0 0 593 584 0 588 588 593 579 579 579 584 588 574 588 593 0 0 0 0 584 0 593 588 0 0 0 0 0 0 0 0 782 758 0 766 758 750 774 774 758 750 766 750 728 728 735 707 657 0 0 0 593 579 593 0 0 0 0 0 0 0 0 0 0 657 0 0 0 0 0 0 836 855 855 845 845 845 836 817 799 808 782 758 758 735 743 0 0 0 0 553 549 566 0 766 750 758 735 721 700 700 681 645 608 613 598 598 613 608 675 687 687 687 657 639 623 608 613 598 584 584 574 566 579 557 557 557 549 541 0 0 0 0 0 0 0 0 0 0 119 0 0 0 0 0 0 0 0 0 0 0 0 0 0 0 0 156 155 154 153 154 154 152 0 0 0 0 0
    0 0 0 0 0 0 0 0 0 0 0 0 0 0 0 0 0 0 0 0 0 0 0 0 0 0 0 0 0 0 0 0 0 0 0 0 0 0 0 0 0 0 0 0 0 0 0 0 0 0 0 0 0 0 0 0 0 0 0 0 0 0 0 0 0 0 0 0 0 566 570 566 584 0 0 0 0 0 579 579 574 566 574 574 570 579 584 574 574 561 584 566 570 570 570 574 566 566 574 570 574 0 0 579 574 579 570 0 557 566 553 557 561 561 561 570 570 574 566 579 574 566 557 561 557 566 557 566 566 570 579 588 584 584 574 0 579 566 0 0 570 570 557 570 579 579 584 588 584 579 588 603 603 588 579 584 579 579 579 570 570 570 574 574 570 584 579 566 584 579 579 579 579 588 579 579 593 579 588 588 588 598 593 0 0 0 0 687 0 735 735 728 721 728 728 714 0 0 639 603 598 593 593 584 570 588 0 0 561 570 579 579 0 0 0 0 613 603 608 608 0 0 0 766 0 845 836 845 0 836 808 782 799 774 743 743 0 0 0 0 0 0 561 557 570 570 0 0 721 714 707 669 634 634 629 603 608 598 593 598 593 623 623 618 613 608 608 603 603 603 598 579 579 584 574 588 566 570 570 557 545 545 0 0 0 0 0 0 0 0 0 0 0 0 0 0 0 0 0 0 0 0 166 0 162 0 0 0 156 155 154 152 153 154 152 0 0 0 0 0
    0 0 0 0 0 0 0 0 0 0 0 0 0 0 0 0 0 0 0 0 0 0 0 0 0 0 0 0 0 0 0 0 0 0 0 0 0 0 0 0 0 0 0 0 0 0 0 0 0 0 0 0 0 0 0 0 0 0 0 0 0 0 0 0 0 0 0 0 0 566 574 566 579 0 557 0 557 553 574 574 570 566 570 574 570 574 584 574 570 561 579 566 566 566 566 570 566 561 570 566 570 570 574 574 570 574 566 561 557 570 553 557 561 566 561 570 570 574 566 579 570 561 557 566 557 561 557 566 561 566 570 574 570 570 566 561 561 557 553 561 566 570 561 570 579 579 584 588 584 579 584 598 593 574 570 570 566 570 574 570 566 566 574 570 570 584 574 561 579 574 574 574 574 579 574 574 588 574 584 584 584 593 588 598 598 588 598 603 603 0 0 0 675 0 0 613 0 603 603 593 588 588 584 574 566 579 553 570 561 561 570 570 574 588 584 598 603 593 598 598 598 593 0 0 603 0 0 0 0 826 782 0 0 750 0 0 593 566 588 574 579 579 570 570 574 579 608 598 663 675 675 629 608 613 618 598 603 598 593 593 593 598 603 603 598 598 593 593 593 593 593 574 570 574 566 570 557 561 561 557 549 545 545 545 541 533 0 0 0 0 0 0 89 0 0 0 0 0 0 0 0 0 0 0 0 0 0 0 154 153 152 151 151 152 151 0 0 0 0 0
    0 0 0 0 0 0 0 0 0 0 0 0 0 0 0 0 0 0 0 0 0 0 0 0 0 0 0 0 0 0 0 0 0 0 0 0 0 0 0 0 0 0 0 0 0 0 0 0 0 0 0 0 0 0 0 0 0 0 0 0 0 0 0 0 0 0 0 0 0 570 579 574 584 579 561 561 561 553 574 574 574 566 570 570 570 574 579 566 566 557 574 561 561 566 561 566 561 561 566 561 566 570 570 574 566 570 566 561 561 570 553 557 561 566 561 566 566 570 561 574 570 561 557 566 561 566 561 566 561 566 566 570 566 566 566 561 561 557 553 566 570 570 561 570 579 579 584 584 579 574 579 593 584 566 561 566 561 566 570 566 566 566 570 570 570 579 566 557 570 566 566 570 566 574 570 574 584 574 584 579 579 593 584 588 593 579 588 588 593 588 593 603 603 598 603 598 593 593 593 584 584 579 579 570 561 574 553 566 561 561 570 570 570 584 579 593 593 584 593 588 588 584 574 593 588 588 608 598 598 588 0 593 570 0 593 584 570 557 579 566 574 579 570 570 574 579 603 588 603 613 618 613 603 603 608 593 598 598 588 593 588 579 593 588 588 588 584 588 588 588 588 570 566 570 561 557 549 549 549 549 549 545 545 549 545 541 529 0 0 0 0 0 0 0 0 0 0 0 0 0 0 0 0 0 0 0 0 0 151 151 150 150 150 151 151 0 0 0 0 0
    0 0 0 0 0 0 0 0 0 0 0 0 0 0 0 0 0 0 0 0 0 0 0 0 0 0 0 0 0 0 0 0 0 0 0 0 0 0 0 0 0 0 0 0 0 0 0 0 0 0 0 0 0 0 0 0 0 0 0 0 0 0 0 0 0 0 0 0 0 574 579 574 584 584 570 566 566 553 574 574 574 566 570 570 570 570 579 566 561 557 570 557 561 561 561 561 557 561 566 561 566 566 570 574 566 570 566 566 561 570 557 561 566 566 561 566 566 570 561 574 566 561 557 566 561 566 561 566 561 561 561 566 561 561 561 557 561 557 557 566 570 574 561 570 584 574 579 584 579 574 574 588 579 561 561 561 561 566 570 570 566 570 574 570 570 574 566 557 566 561 561 566 561 570 566 570 584 570 579 579 579 593 579 584 584 574 588 584 593 584 584 588 593 588 593 588 584 579 579 574 574 570 570 566 561 570 553 566 561 561 566 566 570 579 574 588 579 570 584 574 579 574 566 574 570 579 593 579 584 570 579 579 561 584 579 570 561 557 574 561 570 574 570 570 574 579 598 579 598 598 598 593 593 593 598 593 598 598 593 593 588 574 579 579 574 579 574 584 579 584 588 570 561 566 553 545 541 541 541 545 545 549 549 549 545 545 537 0 0 0 0 0 0 0 0 0 0 0 0 0 0 0 0 0 0 0 0 0 150 150 150 150 150 150 150 0 0 0 0 0
    0 0 0 0 0 0 0 0 0 0 0 0 0 0 0 0 0 0 0 0 0 0 0 0 0 0 0 0 0 0 0 0 0 0 0 0 0 0 0 0 0 0 0 0 0 0 0 0 0 0 0 0 0 0 0 0 0 0 0 0 0 0 0 0 0 0 0 0 0 574 584 579 588 588 574 570 574 557 579 579 574 566 570 570 570 570 579 566 561 557 566 557 557 561 557 557 553 553 557 557 557 561 561 566 561 570 566 566 561 574 557 561 566 566 561 566 566 570 561 574 570 561 557 570 566 566 561 561 561 561 557 561 557 557 561 557 561 557 557 566 570 574 561 570 579 574 579 584 579 574 574 588 584 566 566 561 561 566 570 566 566 570 574 566 570 574 561 557 566 561 561 566 561 566 566 570 579 566 574 574 574 588 579 584 584 574 584 579 588 579 579 579 584 579 584 574 570 570 570 566 570 566 566 561 561 566 553 561 561 561 566 566 566 574 566 579 566 561 574 566 566 566 561 566 566 570 584 566 570 561 566 566 557 574 566 561 557 557 570 561 570 574 574 570 574 584 593 584 598 598 598 593 593 593 593 593 598 598 588 593 584 561 566 570 566 566 566 574 574 574 584 566 557 557 545 537 533 533 537 537 545 545 549 553 549 549 541 0 0 0 0 0 0 0 0 0 0 0 0 0 0 0 0 0 0 0 0 0 149 149 149 149 150 150 150 0 0 0 0 0
    0 0 0 0 0 0 0 0 0 0 0 0 0 0 0 0 0 0 0 0 0 0 0 0 0 0 0 0 0 0 0 0 0 0 0 0 0 0 0 0 0 0 0 0 0 0 0 0 0 0 0 0 0 0 0 0 0 0 0 0 0 0 0 0 0 0 0 0 0 579 584 584 593 593 584 579 579 557 574 579 574 566 570 570 570 570 579 566 561 557 566 557 557 557 553 557 553 553 553 553 553 0 0 553 553 561 561 566 561 574 557 566 570 570 566 566 566 570 566 579 570 566 561 574 570 570 566 561 561 553 553 553 553 553 553 553 557 553 553 566 570 570 561 570 579 574 579 584 579 570 574 588 584 566 566 566 561 566 570 566 566 566 570 566 570 574 561 561 566 561 561 566 561 566 561 570 574 566 574 574 574 588 579 584 584 574 584 579 588 579 579 579 579 574 579 574 570 566 566 566 570 566 566 561 561 566 553 566 561 561 566 566 566 570 561 574 561 557 566 557 557 561 557 561 561 566 579 561 566 561 561 566 557 570 561 561 557 557 570 566 570 574 574 570 574 579 588 574 593 588 588 593 593 593 593 588 598 598 588 593 579 557 561 566 561 566 566 574 570 570 579 561 553 549 541 533 533 533 533 537 541 545 545 553 549 549 541 0 0 0 0 0 0 0 0 0 0 0 0 0 0 0 0 0 0 0 0 0 149 149 149 149 149 149 150 0 0 0 0 0
    0 0 0 0 0 0 0 0 0 0 0 0 0 0 0 0 0 0 0 0 0 0 0 0 0 0 0 0 0 0 0 0 0 0 0 0 0 0 0 0 0 0 0 0 0 0 0 0 0 0 0 0 0 0 0 0 0 0 0 0 0 0 0 0 0 0 0 0 0 579 588 584 593 598 593 584 579 557 574 579 574 566 570 566 570 570 579 570 561 557 566 561 557 557 557 557 549 549 549 549 0 0 0 549 549 561 561 566 557 574 557 566 570 570 566 566 570 574 566 584 579 566 561 579 584 579 574 561 561 553 549 549 549 549 553 549 557 553 557 566 574 574 561 570 579 574 579 584 579 570 574 593 588 566 570 566 561 566 566 566 566 561 570 561 570 574 561 561 566 561 561 566 561 566 561 566 574 566 574 570 574 588 579 588 584 579 584 579 588 584 584 584 584 579 584 574 570 566 566 570 570 566 566 561 566 566 553 566 561 561 566 566 566 566 561 574 557 557 566 557 557 557 553 557 553 561 570 561 561 561 561 566 561 574 566 566 561 561 574 566 570 574 574 574 574 579 588 566 588 579 574 584 588 593 584 584 593 593 588 588 574 557 561 570 561 566 566 570 570 570 574 557 549 549 541 537 537 533 533 537 541 541 545 549 549 545 541 0 0 0 0 0 0 0 0 0 0 0 0 0 0 0 0 0 0 0 0 0 0 149 149 149 149 149 149 0 0 0 0 0
    0 0 0 0 0 0 0 0 0 0 0 0 0 0 0 0 0 0 0 0 0 0 0 0 0 0 0 0 0 0 0 0 0 0 0 0 0 0 0 0 0 0 0 0 0 0 0 0 0 0 0 0 0 0 0 0 0 0 0 0 0 0 0 0 0 0 0 0 0 579 588 584 593 593 588 584 579 557 574 579 574 566 570 566 566 570 584 570 561 557 566 561 557 561 557 557 549 549 549 549 545 0 541 549 553 561 561 574 561 574 561 570 574 574 566 570 570 579 570 584 579 566 566 584 593 588 584 574 570 557 553 553 553 549 553 553 557 557 561 570 579 584 561 574 584 574 579 584 579 570 574 588 588 566 570 561 557 561 561 566 566 561 570 566 574 579 561 566 566 561 561 566 561 561 561 566 570 566 570 570 574 588 574 588 579 574 584 579 588 584 584 584 584 584 584 579 570 566 566 566 570 566 566 561 566 566 557 570 566 561 566 566 566 566 566 579 561 561 570 561 561 561 557 557 553 557 566 557 557 561 561 570 561 574 570 570 561 561 574 566 574 579 579 574 574 584 588 570 593 584 574 584 584 588 584 584 593 593 584 588 574 557 561 570 566 561 561 570 566 566 570 553 545 545 541 541 537 533 533 537 537 537 537 541 541 541 529 0 0 0 0 0 0 0 0 0 0 0 0 0 0 0 0 0 0 0 0 0 0 148 148 149 149 149 149 0 0 0 0 0
    0 0 0 0 0 0 0 0 0 0 0 0 0 0 0 0 0 0 0 0 0 0 0 0 0 0 0 0 0 0 0 0 0 0 0 0 0 0 0 0 0 0 0 0 0 0 0 0 0 0 0 0 0 0 0 0 0 0 0 0 0 0 0 0 0 0 0 0 0 574 584 579 588 593 588 584 579 557 570 579 574 561 566 566 566 566 579 570 557 557 561 561 557 561 553 553 549 549 549 553 545 549 541 549 553 561 561 570 561 574 561 570 574 574 570 570 570 579 570 588 579 566 566 584 598 593 593 584 579 561 557 553 549 549 553 553 557 557 561 570 584 584 561 574 584 574 574 579 574 570 570 588 584 566 570 561 557 561 561 566 566 566 570 566 579 579 566 566 566 566 566 566 561 561 561 570 570 566 574 570 574 588 574 588 579 579 584 579 588 584 584 584 584 584 584 579 570 561 561 566 570 561 566 557 566 566 553 570 561 561 570 566 570 566 566 579 566 566 570 561 566 561 557 561 553 557 566 553 557 557 561 566 557 570 566 566 557 561 574 566 574 579 579 574 574 584 588 570 593 584 579 584 588 588 584 588 593 593 584 588 574 553 561 566 561 561 561 566 566 561 570 549 541 537 537 537 537 533 533 537 537 537 537 537 537 537 525 493 0 0 0 0 0 0 0 0 0 0 0 0 0 0 0 0 0 0 0 0 0 148 148 148 149 149 148 0 0 0 0 0</data></depth>
</opencv_storage>
