<?xml version="1.0"?>
<opencv_storage>
<gps_time_stamp>26292</gps_time_stamp>
<gps_x>-5.5978994369506836e+000</gps_x>
<gps_y>8.0725675821304321e-001</gps_y>
<gps_z>-1.3940000534057617e+000</gps_z>
<image_time_stamp>14264</image_time_stamp>
<depth type_id="opencv-matrix">
  <rows>85</rows>
  <cols>320</cols>
  <dt>s</dt>
  <data>
    0 0 0 0 0 0 0 0 0 0 0 0 0 0 0 0 0 0 0 0 0 0 0 0 0 0 0 0 0 0 0 0 0 0 0 0 0 0 0 0 0 0 0 0 0 0 0 0 0 0 0 0 0 0 0 0 0 0 0 0 0 0 0 0 0 0 0 0 0 7359 7359 0 7359 8177 8177 8177 0 0 0 0 0 0 0 0 0 0 0 0 0 0 0 0 0 0 0 0 0 8177 6690 8177 0 0 0 0 0 0 0 0 0 0 0 0 0 0 0 6690 7359 7359 6690 6690 6133 6133 7359 6133 0 8177 7359 0 0 0 0 0 0 0 0 0 0 0 0 0 0 0 0 0 0 0 7359 0 0 0 8177 0 8177 7359 8177 8177 8177 8177 8177 8177 0 7359 0 8177 6690 8177 6690 0 0 0 0 0 0 0 0 0 7359 6690 7359 8177 6690 6133 6133 7359 7359 7359 7359 6133 6690 7359 6690 4906 5661 5661 6133 5661 6690 6690 6690 6690 8177 7359 8177 7359 6133 7359 6133 5661 6133 6133 6133 6133 5661 6133 6133 6133 5661 5661 5661 5661 4906 4906 4088 4088 4329 3679 4329 3873 3873 4088 4329 4329 4088 4088 4906 3873 4088 4088 3679 3504 3345 3345 3199 3066 2830 2830 2725 2628 2374 2164 2164 2044 2102 2230 2102 2164 2102 2164 2164 2102 2230 2299 2230 2299 2164 2299 2230 2230 2164 2044 2102 2044 2044 2102 2102 2044 2102 2164 2299 2230 2299 2299 2230 2164 2230 2230 2164 2164 2164 2164 2164 2230 2164 2164 2164 2230 2102 2299 2230 2230 1989 1839 1795 1635 1599 1599 1501 1471 1443 1388 1415 1388 0 0 0 0 0 0 0 0
    0 0 0 0 0 0 0 0 0 0 0 0 0 0 0 0 0 0 0 0 0 0 0 0 0 0 0 0 0 0 0 0 0 0 0 0 0 0 0 0 0 0 0 0 0 0 0 0 0 0 0 0 0 0 0 0 0 0 0 0 0 0 0 0 0 0 0 0 0 7359 7359 8177 7359 8177 8177 8177 0 0 0 0 0 0 0 0 0 0 0 0 0 0 0 0 0 0 0 0 0 7359 6690 8177 0 0 0 0 0 0 0 0 0 0 0 0 0 8177 0 6690 7359 7359 6690 6690 6133 6133 7359 6133 0 0 9199 0 0 0 0 0 0 0 0 0 0 0 0 0 0 0 0 0 0 0 8177 0 0 0 8177 0 8177 7359 8177 8177 8177 8177 8177 8177 0 7359 0 8177 6690 8177 6690 0 0 0 0 0 0 0 0 0 7359 7359 8177 0 6690 6690 6690 8177 8177 7359 7359 6690 6690 7359 7359 5661 6133 6133 6690 6133 6690 6690 6690 6690 8177 8177 8177 8177 6690 7359 6133 6133 6133 6133 6133 6133 5256 6133 5661 5661 5256 5256 0 0 4599 4599 3679 0 0 3504 4088 3873 3873 4088 4599 4329 4088 4088 4906 3873 3873 3873 3504 3345 3345 3345 3199 3066 2830 2830 2628 2628 2299 2230 2164 2102 2164 2299 2102 2230 2102 2230 2164 2164 2230 2299 2230 2299 2164 2299 2230 2230 2164 1989 2044 1989 1989 2044 2102 2044 2102 2164 2299 2164 2299 2299 2230 2164 2230 2230 2164 2164 2164 2164 2164 2230 2164 2164 2230 2230 2164 2299 2299 2164 1989 1887 1795 1635 1599 1533 1415 1388 1362 1338 0 0 0 0 0 0 0 0 0 0
    0 0 0 0 0 0 0 0 0 0 0 0 0 0 0 0 0 0 0 0 0 0 0 0 0 0 0 0 0 0 0 0 0 0 0 0 0 0 0 0 0 0 0 0 0 0 0 0 0 0 0 0 0 0 0 0 0 0 0 0 0 0 0 0 0 0 0 0 0 7359 7359 8177 7359 8177 8177 8177 0 0 0 0 0 0 0 0 0 0 0 0 0 0 0 0 0 0 0 0 0 7359 6690 8177 0 0 0 0 0 0 0 0 0 0 0 0 0 0 0 6690 7359 7359 6690 6690 6133 6133 7359 6133 0 0 0 0 0 0 0 0 0 0 0 0 0 0 0 0 0 0 0 0 0 8177 7359 0 0 0 7359 6690 8177 6690 8177 8177 8177 8177 8177 8177 0 7359 8177 7359 5661 7359 6133 0 0 0 0 0 0 0 0 0 7359 7359 0 0 7359 7359 7359 8177 8177 8177 8177 7359 7359 8177 7359 6690 6690 6690 6690 6133 7359 7359 7359 7359 8177 7359 8177 7359 6133 7359 5661 5661 5661 5661 5661 6133 5256 6133 5256 5256 5256 0 0 0 4088 0 0 0 0 3345 3873 3873 3873 4329 4906 4329 4088 4088 4906 3679 3679 3679 3199 3199 3199 3066 3066 2943 2725 2830 2537 2537 2230 2230 2164 2102 2164 2299 2164 2230 2164 2299 2230 2230 2299 2374 2299 2299 2230 2374 2230 2230 2230 1989 2044 1989 1989 2044 2102 2044 2102 2102 2374 2230 2299 2299 2230 2164 2230 2230 2164 2164 2164 2164 2164 2230 2164 2164 2230 2230 2230 2230 2230 2102 1989 1936 1839 1672 1533 1443 1362 1338 0 0 0 0 0 0 0 0 0 0 0 0
    0 0 0 0 0 0 0 0 0 0 0 0 0 0 0 0 0 0 0 0 0 0 0 0 0 0 0 0 0 0 0 0 0 0 0 0 0 0 0 0 0 0 0 0 0 0 0 0 0 0 0 0 0 0 0 0 0 0 0 0 0 0 0 0 0 0 0 0 0 7359 7359 0 8177 8177 0 0 0 0 0 0 0 0 0 0 0 0 0 0 0 0 0 0 0 0 0 0 0 7359 6690 8177 0 0 0 0 0 0 0 0 0 0 0 0 0 0 0 6690 7359 8177 7359 6690 6133 6133 7359 6133 0 0 0 0 0 0 0 0 0 0 0 0 0 0 0 0 0 0 0 0 0 7359 7359 0 0 0 6133 6133 7359 6133 7359 8177 7359 8177 7359 8177 8177 6690 8177 6690 4906 6690 5661 0 0 0 8177 0 0 0 0 0 7359 7359 8177 0 7359 7359 7359 8177 8177 8177 0 7359 7359 0 8177 7359 7359 7359 7359 6690 7359 8177 8177 7359 7359 7359 7359 6690 5661 6690 5661 5661 6133 5661 5661 6133 5256 6133 5661 5661 0 0 0 0 3873 0 0 0 0 2943 3504 3504 3679 4088 4599 3873 3873 3873 4906 3679 3679 3504 3199 3066 3066 2943 2943 2830 2628 2725 2453 2537 2164 2230 2102 2102 2164 2299 2102 2230 2230 2299 2164 2230 2299 2374 2299 2299 2230 2299 2230 2230 2230 1989 2044 2044 2044 2044 2102 2044 2102 2164 2374 2230 2299 2299 2230 2164 2164 2230 2164 2230 2230 2164 2230 2299 2230 2230 2299 2230 2230 2230 2230 2102 1989 1936 1795 1533 0 0 0 0 0 0 0 0 0 766 728 0 0 0 0 0
    0 0 0 0 0 0 0 0 0 0 0 0 0 0 0 0 0 0 0 0 0 0 0 0 0 0 0 0 0 0 0 0 0 0 0 0 0 0 0 0 0 0 0 0 0 0 0 0 0 0 0 0 0 0 0 0 0 0 0 0 0 0 0 0 0 0 0 0 0 7359 8177 0 8177 0 0 0 0 0 0 0 0 0 0 0 0 0 0 0 0 0 0 0 0 0 0 0 0 7359 6690 0 0 0 0 0 0 0 0 0 0 0 0 0 0 0 0 7359 7359 8177 7359 6690 6690 6133 7359 6133 0 0 0 0 0 0 0 0 0 0 0 0 8177 0 8177 0 0 0 0 0 0 7359 6690 0 0 7359 5661 5661 6690 6133 7359 7359 7359 7359 7359 8177 8177 6690 7359 6690 5256 6690 5661 0 0 8177 8177 0 0 0 0 0 7359 6690 8177 0 8177 7359 7359 8177 8177 8177 8177 8177 8177 0 0 8177 8177 8177 8177 7359 8177 8177 8177 7359 8177 7359 7359 7359 5661 6690 5661 5661 6133 5661 5661 6133 5661 6690 5661 6133 0 0 0 0 0 0 0 0 2830 2374 3199 3199 3504 3679 4088 3679 3679 3873 4599 3504 3679 3504 3199 3199 3066 3066 2943 2830 2725 2725 2537 2628 2230 2230 2164 2164 2230 2299 2164 2230 2230 2299 2164 2230 2230 2374 2230 2299 2230 2299 2230 2299 2230 2044 2044 2044 2044 2044 2102 2102 2102 2164 2374 2230 2299 2230 2230 2164 2164 2230 2164 2230 2230 2164 2230 2299 2230 2230 2299 2230 2230 2164 2164 2044 1989 1989 0 0 0 0 700 707 681 687 694 687 694 700 700 0 0 0 0 0
    0 0 0 0 0 0 0 0 0 0 0 0 0 0 0 0 0 0 0 0 0 0 0 0 0 0 0 0 0 0 0 0 0 0 0 0 0 0 0 0 0 0 0 0 0 0 0 0 0 0 0 0 0 0 0 0 0 0 0 0 0 0 0 0 0 0 0 0 0 8177 8177 0 0 0 0 0 0 0 0 0 0 0 0 0 0 0 0 0 0 0 0 0 0 0 0 0 0 8177 7359 0 0 0 0 0 0 0 0 0 0 0 0 0 0 0 0 7359 7359 8177 7359 7359 6690 6690 7359 6690 0 0 0 0 0 0 0 0 0 8177 0 8177 8177 8177 8177 8177 0 0 0 0 0 6690 6690 7359 6690 6133 5256 5256 6690 6133 6690 7359 7359 7359 7359 8177 8177 6690 7359 6690 4906 6690 5661 0 0 8177 8177 8177 8177 0 0 0 7359 6690 7359 0 8177 7359 7359 8177 8177 8177 8177 8177 8177 0 0 0 0 0 0 8177 0 0 0 8177 8177 8177 8177 7359 5661 6690 5661 5661 6133 5661 5256 6133 5661 6690 6133 6133 0 0 0 0 0 0 0 0 2299 2299 3066 3066 3345 3504 3679 3679 3504 3679 4329 3504 3679 3504 3199 3199 3199 3199 3066 3066 2943 2830 2628 2725 2374 2299 2230 2164 2230 2374 2230 2299 2299 2299 2102 2299 2299 2374 2299 2299 2230 2299 2230 2299 2164 2044 2044 2044 2044 2044 2102 2102 2102 2164 2299 2230 2299 2230 2230 2164 2164 2164 2164 2230 2164 2164 2230 2299 2230 2230 2374 2230 2230 2164 2102 2044 1989 0 0 0 0 707 707 714 694 700 700 694 694 700 694 0 0 0 0 0
    0 0 0 0 0 0 0 0 0 0 0 0 0 0 0 0 0 0 0 0 0 0 0 0 0 0 0 0 0 0 0 0 0 0 0 0 0 0 0 0 0 0 0 0 0 0 0 0 0 0 0 0 0 0 0 0 0 0 0 0 0 0 0 0 0 0 0 0 0 8177 8177 0 0 0 0 0 0 0 0 0 0 0 0 0 0 0 0 0 0 0 0 0 0 0 0 0 0 8177 0 0 0 0 0 0 0 0 0 0 0 0 0 0 0 0 0 7359 7359 8177 7359 7359 7359 6690 7359 7359 0 0 0 0 0 0 0 0 8177 7359 7359 7359 7359 8177 7359 7359 7359 8177 0 6133 6133 5661 5661 5661 5661 5661 5256 4906 6133 5661 6133 6690 6690 6690 7359 8177 7359 6690 6690 6133 4599 6133 5256 0 0 8177 8177 8177 8177 0 0 0 7359 6133 7359 0 8177 8177 8177 8177 8177 8177 0 0 0 0 0 0 0 0 0 8177 0 0 0 8177 7359 7359 7359 7359 5256 6133 5661 5661 6133 5661 5256 6133 5661 7359 6133 6133 0 0 0 0 0 0 0 0 0 1989 0 0 0 0 0 0 3345 3345 3679 3199 3345 3345 3066 3199 3199 3199 3066 2943 2943 2830 2628 2725 2453 2374 2299 2230 2374 2374 2299 2374 2374 2374 2164 2299 2299 2374 2374 2299 2230 2299 2230 2299 2164 2044 2044 2044 2044 2102 2102 2102 2164 2230 2374 2299 2374 2299 2230 2164 2230 2164 2164 2230 2164 2164 2230 2230 2230 2230 2374 2230 2230 2164 2102 2044 0 0 0 0 700 700 700 700 687 694 694 687 687 694 687 0 0 0 0 0
    0 0 0 0 0 0 0 0 0 0 0 0 0 0 0 0 0 0 0 0 0 0 0 0 0 0 0 0 0 0 0 0 0 0 0 0 0 0 0 0 0 0 0 0 0 0 0 0 0 0 0 0 0 0 0 0 0 0 0 0 0 0 0 0 0 0 0 0 0 8177 8177 0 0 0 0 0 0 0 0 0 0 0 0 0 0 0 0 0 0 0 0 0 0 0 0 0 0 0 0 0 0 0 0 0 0 0 0 0 0 0 0 0 0 0 0 8177 7359 9199 8177 7359 7359 7359 7359 7359 0 0 0 0 0 0 0 0 8177 7359 7359 7359 7359 7359 8177 7359 7359 7359 7359 5661 5661 5661 5661 5661 5661 5661 4906 4599 5661 5256 5661 6133 6690 6690 6133 7359 7359 6133 6690 5661 4329 6133 5256 0 0 0 0 8177 0 0 0 0 7359 6133 8177 0 0 0 0 8177 0 0 0 0 0 0 0 0 0 0 0 8177 0 0 0 8177 7359 7359 7359 6690 5256 6133 6133 5661 6133 5661 5661 6690 5661 7359 5661 5661 5256 0 0 0 3504 0 0 0 0 0 0 0 0 0 0 0 1226 1051 0 0 0 3066 3066 3199 3199 3199 3066 2943 2943 2830 2725 2830 2453 2374 2299 2230 2453 2299 2299 2374 2374 2374 2164 2299 2299 2374 2374 2374 2230 2299 2299 2299 2164 2102 2044 2044 2044 2102 2164 2102 2164 2230 2374 2299 2299 2230 2164 2102 2230 2102 2164 2164 2102 2164 2164 2230 2230 2230 2374 2230 2164 2102 2102 1989 0 0 0 687 687 687 694 694 681 687 687 681 675 687 681 0 0 0 0 0
    0 0 0 0 0 0 0 0 0 0 0 0 0 0 0 0 0 0 0 0 0 0 0 0 0 0 0 0 0 0 0 0 0 0 0 0 0 0 0 0 0 0 0 0 0 0 0 0 0 0 0 0 0 0 0 0 0 0 0 0 0 0 0 0 0 0 0 0 0 8177 0 0 0 0 0 0 0 0 0 0 0 0 0 0 0 0 0 0 0 0 0 0 0 0 0 0 0 0 0 0 0 0 0 0 0 0 0 0 0 0 0 0 0 0 0 8177 8177 0 8177 8177 8177 7359 8177 7359 0 0 0 0 0 8177 0 8177 6690 6133 6133 6690 6690 6690 8177 7359 7359 7359 7359 6133 6133 6133 6133 5661 5661 5661 5256 4599 5661 5256 5256 5661 6133 6133 5661 6690 6690 5661 6133 5661 4329 5661 5256 0 0 0 0 0 0 0 0 0 7359 6133 8177 0 0 0 0 0 0 0 0 0 0 0 0 0 0 0 0 8177 0 0 8177 8177 6690 6690 6690 6690 5256 6133 6133 5661 6133 5661 6133 7359 5661 7359 5661 5661 5256 0 0 4329 3679 0 0 0 0 0 0 0 0 0 0 1226 1226 1066 994 0 0 0 2830 3066 3199 3066 3066 2943 3199 2943 2830 2943 2628 2537 2374 2299 2374 2299 2299 2374 2374 2374 2164 2299 2299 2374 2453 2374 2299 2374 2374 2453 2299 2230 2102 2164 2044 2164 2164 2102 2230 2230 2299 2230 2230 2230 2164 2102 2164 2102 2102 2164 2102 2102 2164 2230 2164 2230 2374 2230 2164 2102 2102 0 0 0 0 681 681 687 694 694 681 687 687 681 669 681 675 0 0 0 0 0
    0 0 0 0 0 0 0 0 0 0 0 0 0 0 0 0 0 0 0 0 0 0 0 0 0 0 0 0 0 0 0 0 0 0 0 0 0 0 0 0 0 0 0 0 0 0 0 0 0 0 0 0 0 0 0 0 0 0 0 0 0 0 0 0 0 0 0 0 0 0 0 0 0 0 0 0 0 0 0 0 0 0 0 0 0 0 0 0 0 0 0 0 0 0 0 0 0 0 0 0 0 0 0 0 0 0 0 0 0 0 0 0 0 0 0 8177 8177 0 8177 8177 8177 8177 8177 8177 0 0 0 0 0 7359 8177 7359 6133 5661 5661 6133 6690 6690 7359 8177 7359 6690 7359 6133 6133 6133 5661 5256 5256 5256 5256 4329 5256 4599 4906 5256 5661 5661 5256 6133 6133 5256 6133 5256 4088 5256 5256 0 0 0 0 8177 0 0 0 0 7359 6133 8177 8177 0 0 0 0 0 0 0 0 0 0 0 0 0 0 0 8177 8177 8177 8177 7359 6690 6133 6133 6133 4906 6133 5661 5661 5661 5661 5661 7359 5661 7359 5661 5661 5661 5256 0 4906 3873 0 0 0 0 0 0 0 0 0 1247 1187 1168 1082 1036 1082 0 0 2537 3066 3199 3066 3066 3066 3504 3199 3066 3345 2725 2537 2374 2299 2374 2230 2299 2374 2374 2374 2164 2299 2299 2453 2453 2453 2374 2374 2453 2537 2374 2374 2230 2299 2102 2230 2230 2164 2299 2230 2299 2299 2230 2230 2164 2164 2164 2102 2102 2164 2164 2164 2164 2230 2230 2230 2374 2299 2164 2102 2044 0 0 0 0 681 681 687 694 694 681 687 687 681 669 675 669 0 0 0 0 0
    0 0 0 0 0 0 0 0 0 0 0 0 0 0 0 0 0 0 0 0 0 0 0 0 0 0 0 0 0 0 0 0 0 0 0 0 0 0 0 0 0 0 0 0 0 0 0 0 0 0 0 0 0 0 0 0 0 0 0 0 0 0 0 0 0 0 0 0 0 0 0 0 0 0 0 0 0 8177 0 0 0 0 0 0 0 0 0 0 0 0 0 0 0 0 0 0 0 0 0 0 0 0 0 0 0 0 0 0 0 0 0 0 0 8177 0 7359 8177 0 8177 8177 8177 8177 0 0 0 0 0 0 0 6690 7359 6690 6133 5256 5661 5661 6690 6690 7359 8177 7359 6133 6690 6133 6133 6133 5661 5256 5256 5256 4906 4329 4906 4329 4599 4906 5256 5256 4906 6133 6133 5661 6133 5661 4329 5256 5256 8177 8177 0 0 8177 8177 0 0 0 7359 6133 7359 8177 0 0 0 0 0 0 0 0 0 0 0 0 0 0 0 8177 8177 8177 8177 7359 6690 6133 6133 6133 4906 5661 5661 5661 5661 5661 5661 8177 6133 8177 6690 6690 6133 0 0 5661 4088 0 0 0 2164 0 0 0 0 1226 1268 1206 1187 1098 1066 1051 1051 0 0 3504 3679 3345 3345 3345 4088 3345 3345 3679 2830 2628 2537 2453 2453 2299 2374 2374 2453 2374 2164 2299 2299 2453 2453 2453 2453 2453 2453 2537 2453 2453 2299 2374 2164 2230 2230 2230 2299 2299 2299 2299 2230 2230 2164 2164 2230 2164 2164 2230 2164 2164 2230 2230 2299 2299 2374 2299 2164 2044 0 0 0 0 669 675 675 681 687 687 675 681 681 669 663 675 669 0 0 0 0 0
    0 0 0 0 0 0 0 0 0 0 0 0 0 0 0 0 0 0 0 0 0 0 0 0 0 0 0 0 0 0 0 0 0 0 0 0 0 0 0 0 0 0 0 0 0 0 0 0 0 0 0 0 0 0 0 0 0 0 0 0 0 0 0 0 0 0 0 0 0 0 0 0 0 0 0 0 0 8177 0 0 0 0 0 0 0 0 0 0 0 0 0 0 0 0 0 0 0 0 0 0 0 0 0 0 0 0 0 0 0 0 0 0 0 7359 8177 7359 8177 0 8177 8177 8177 8177 0 0 0 0 0 0 0 7359 7359 6690 6133 5661 5661 6133 6690 6690 7359 8177 7359 6133 6690 6133 6133 6133 6133 5661 5256 5256 5256 4599 4906 4329 4599 4906 5256 5256 5256 6133 6133 5661 6690 6133 4906 6133 5256 7359 7359 8177 8177 7359 8177 8177 8177 0 7359 6133 7359 7359 0 0 0 0 0 0 0 0 0 0 0 0 0 0 0 8177 7359 7359 7359 7359 6133 6133 6133 6133 5256 6133 5661 5661 6133 6133 6133 0 7359 0 7359 7359 0 0 0 6133 4599 0 3345 0 2537 0 0 0 1362 1247 1291 1226 1187 1115 1066 1022 1022 1008 0 4088 3873 3345 3345 0 0 3345 3504 3679 2830 2628 2537 2537 2537 2299 2453 2453 2453 2374 2164 2374 2299 2453 2453 2453 2453 2453 2537 2628 2537 2628 2453 2537 2299 2374 2374 2299 2374 2299 2299 2299 2230 2164 2164 2164 2230 2164 2164 2230 2164 2230 2299 2299 2374 2299 2453 2299 2102 0 0 0 0 0 675 669 675 681 681 681 669 675 669 663 657 663 657 0 0 0 0 0
    0 0 0 0 0 0 0 0 0 0 0 0 0 0 0 0 0 0 0 0 0 0 0 0 0 0 0 0 0 0 0 0 0 0 0 0 0 0 0 0 0 0 0 0 0 0 0 0 0 0 0 0 0 0 0 0 0 0 0 0 0 0 0 0 0 0 0 0 0 0 0 0 0 0 0 0 0 8177 0 0 0 0 0 0 0 0 0 0 0 0 0 0 0 0 0 0 0 0 0 0 0 0 0 0 0 0 0 0 0 0 0 0 0 6690 7359 6690 7359 8177 7359 7359 7359 7359 0 0 0 0 0 0 0 8177 8177 7359 6690 6690 6133 6690 6690 7359 8177 8177 6690 6133 6133 6133 6133 6133 6133 5661 5661 5256 5256 4906 5256 4906 4906 5256 5661 5256 5256 6690 7359 6690 7359 6690 6690 7359 5661 7359 7359 7359 8177 7359 8177 8177 8177 0 8177 6690 8177 8177 0 0 0 0 0 0 0 0 0 0 0 0 0 0 0 7359 7359 7359 7359 7359 6133 6133 6133 6133 4906 6133 5661 5661 6133 5661 6133 0 0 0 8177 0 0 0 0 0 4599 0 0 0 0 0 0 0 0 0 1226 1187 1132 1066 1036 1022 1008 1008 0 0 4088 3345 0 0 0 0 3679 4329 2943 2725 2628 2628 2628 2453 2537 2537 2453 2453 2230 2374 2374 2453 2537 2537 2537 2537 2537 2725 2628 2628 2537 2628 2374 2453 2453 2299 2374 2374 2299 2299 2230 2230 2230 2164 2230 2164 2164 2230 2164 2230 2299 2299 2374 2299 2453 2230 2044 0 0 0 0 675 669 663 669 675 675 675 663 669 663 657 651 657 651 0 0 0 0 0
    0 0 0 0 0 0 0 0 0 0 0 0 0 0 0 0 0 0 0 0 0 0 0 0 0 0 0 0 0 0 0 0 0 0 0 0 0 0 0 0 0 0 0 0 0 0 0 0 0 0 0 0 0 0 0 0 0 0 0 0 0 0 0 0 0 0 0 0 0 0 0 0 0 0 0 0 0 8177 0 0 0 0 0 0 0 0 0 0 0 0 0 0 0 0 0 0 0 0 0 0 0 0 0 0 0 0 0 0 0 0 0 0 0 6690 7359 6690 6690 7359 6690 6690 6690 6690 0 0 0 0 0 0 0 0 0 8177 7359 7359 7359 7359 7359 8177 7359 7359 6690 6133 6133 6133 0 6690 6133 6133 6133 5661 5661 5256 6133 5661 5661 5661 6133 5661 5661 6690 7359 6690 7359 6690 7359 8177 5661 7359 6690 7359 7359 7359 7359 7359 7359 0 0 7359 0 8177 0 0 0 0 0 0 0 0 0 0 8177 0 0 0 0 7359 7359 6690 6690 7359 6133 6133 6133 6133 4906 5661 5661 5661 6133 5661 6133 8177 7359 0 0 0 0 0 0 0 0 1036 0 0 0 0 0 0 0 0 0 0 0 1051 1036 1008 1008 994 1008 981 0 0 0 0 0 0 0 0 2830 2725 2628 2628 2725 2453 2537 2537 2537 2453 2299 2453 2537 2537 2628 2628 2628 2537 2628 2725 2628 2628 2537 2628 2453 2453 2453 2299 2374 2374 2299 2299 2299 2230 2230 2230 2230 2164 2164 2230 2164 2230 2299 2299 2299 2299 2453 2230 1989 0 0 0 0 687 669 663 663 669 669 663 657 657 645 645 639 651 639 0 0 0 0 0
    0 0 0 0 0 0 0 0 0 0 0 0 0 0 0 0 0 0 0 0 0 0 0 0 0 0 0 0 0 0 0 0 0 0 0 0 0 0 0 0 0 0 0 0 0 0 0 0 0 0 0 0 0 0 0 0 0 0 0 0 0 0 0 0 0 0 0 0 0 0 0 0 0 0 0 0 0 8177 0 8177 0 0 0 0 0 0 0 0 0 0 0 0 0 0 0 0 0 0 0 0 0 0 0 0 0 0 0 0 0 0 0 0 0 6133 6690 6133 6690 6690 6133 6690 6133 6133 0 0 0 0 0 0 0 0 0 9199 8177 8177 8177 0 8177 8177 7359 0 6690 6690 6133 6133 0 0 6690 7359 6690 6690 6690 6133 0 6133 6133 6133 6133 6133 0 0 7359 6690 6690 6690 7359 0 5661 7359 6690 6690 7359 0 0 0 7359 0 0 8177 0 8177 0 0 0 0 0 0 0 0 0 0 8177 0 0 0 0 7359 6690 6690 6133 6690 6133 5661 6133 6133 4906 5661 5661 5661 6133 6133 5661 8177 7359 0 0 0 0 0 0 0 0 1051 0 0 0 0 0 0 0 0 0 0 0 0 1051 1008 1008 994 0 981 955 0 0 0 0 0 0 0 0 2374 2537 2628 2725 2537 2537 2537 2628 2537 2453 2537 2628 2537 2628 2725 2725 2628 2628 2725 2628 2628 2537 2628 2453 2374 2453 2299 2374 2374 2299 2299 2299 2230 2230 2230 2299 2102 2164 2230 2164 2230 2230 2299 2299 2299 2453 2164 1936 0 0 0 0 700 675 663 663 663 663 657 651 651 639 639 629 634 629 0 0 0 0 0
    0 0 0 0 0 0 0 0 0 0 0 0 0 0 0 0 0 0 0 0 0 0 0 0 0 0 0 0 0 0 0 0 0 0 0 0 0 0 0 0 0 0 0 0 0 0 0 0 0 0 0 0 0 0 0 0 0 0 0 0 0 0 0 0 0 0 0 0 0 0 0 0 0 0 0 0 0 8177 0 0 0 0 0 0 0 0 0 0 0 0 0 0 0 0 0 0 0 0 0 0 0 0 0 0 0 0 0 0 0 0 0 0 0 5661 6690 5661 6133 6690 6133 6133 6133 5661 0 0 0 0 0 0 0 0 0 0 0 0 0 0 0 0 0 0 0 0 0 0 574 0 0 0 8177 7359 6690 0 0 6690 0 0 6133 0 0 0 7359 6690 6690 6690 0 0 5256 6690 6133 6690 0 0 0 0 6690 0 0 8177 8177 8177 0 0 0 0 8177 0 0 0 0 0 7359 8177 8177 8177 8177 7359 6690 6690 6133 6133 6133 5661 6133 5661 5256 5661 5256 6133 6690 5661 5256 6690 7359 0 0 0 0 0 0 0 0 1098 1066 0 0 0 3679 3345 0 0 0 0 0 0 1051 1008 994 981 0 0 943 0 0 0 0 0 0 0 0 0 0 2374 2725 2628 2453 2537 2628 2537 2453 2628 2628 2537 2628 2725 2725 2628 2725 2725 2628 2628 2628 2628 2453 2299 2374 2230 2299 2299 2299 2299 2299 2230 2230 2230 2230 2102 2164 2230 2230 2230 2299 2299 2299 2299 2374 2102 1936 0 0 0 0 721 687 669 669 669 663 663 657 651 634 634 629 629 623 0 0 0 0 0
    0 0 0 0 0 0 0 0 0 0 0 0 0 0 0 0 0 0 0 0 0 0 0 0 0 0 0 0 0 0 0 0 0 0 0 0 0 0 0 0 0 0 0 0 0 0 0 0 0 0 0 0 0 0 0 0 0 0 0 0 0 0 0 0 0 0 0 0 0 8177 8177 0 0 0 0 0 0 8177 0 0 0 0 0 0 0 0 0 0 0 0 0 0 0 0 0 0 8177 0 0 0 0 0 0 0 0 0 0 0 0 0 0 0 0 5661 6690 5661 6133 6133 6133 6133 6133 5661 8177 8177 0 0 0 0 0 0 0 0 0 0 0 0 561 579 566 0 0 0 0 566 574 574 0 0 0 7359 0 0 0 7359 0 0 0 574 574 588 0 0 0 0 0 0 5256 6690 6133 6690 6133 0 0 6690 6133 0 0 8177 7359 7359 8177 8177 0 8177 7359 8177 7359 0 0 0 6690 7359 8177 8177 8177 7359 7359 6690 5661 6133 5661 5661 6133 5661 4906 5661 5256 6133 6690 5661 4599 5256 0 0 0 0 0 0 0 0 1149 1168 1115 0 3199 4088 4329 3679 3199 0 0 0 0 0 0 0 1008 0 0 0 943 0 0 0 0 0 1051 981 968 968 981 0 2453 2628 2453 2537 2628 2537 2537 2628 2628 2628 2628 2830 2830 2725 2725 2725 2628 2537 2628 2537 2374 2230 2299 2230 2230 2299 2299 2299 2299 2230 2299 2230 2230 2164 2230 2299 2230 2230 2299 2299 2299 2299 2374 2102 1936 0 0 0 0 728 687 675 681 675 669 663 657 639 623 623 618 613 608 0 0 0 0 0
    0 0 0 0 0 0 0 0 0 0 0 0 0 0 0 0 0 0 0 0 0 0 0 0 0 0 0 0 0 0 0 0 0 0 0 0 0 0 0 0 0 0 0 0 0 0 0 0 0 0 0 0 0 0 0 0 0 0 0 0 0 0 0 0 0 0 0 0 0 7359 7359 8177 0 8177 0 0 0 8177 0 8177 0 0 0 0 0 0 0 0 0 0 0 0 0 0 0 7359 7359 0 0 0 0 0 0 0 0 0 0 0 0 0 0 0 0 5661 6690 5661 6133 6133 5661 5661 5661 5256 8177 8177 0 0 0 0 0 0 0 0 0 0 0 0 557 579 566 566 566 570 0 0 574 579 0 0 0 7359 0 0 0 0 0 0 0 574 574 588 588 588 584 0 0 0 5256 6690 6133 6690 6133 0 6690 6690 6133 0 8177 8177 7359 7359 8177 7359 8177 8177 7359 8177 6690 8177 0 8177 6133 7359 7359 7359 7359 7359 7359 6690 5256 5661 5661 5661 5661 5661 4906 5256 5256 6133 6690 5256 4329 0 0 0 0 0 0 0 0 0 1168 1187 1115 0 3345 4599 4599 3873 3345 0 0 0 0 0 0 0 1008 981 0 0 0 0 0 0 0 0 1022 968 931 931 931 855 855 0 2230 2537 2725 2628 2628 2725 2725 2537 2628 2830 2725 2628 2725 2628 2537 2453 2537 2453 2374 2230 2299 2230 2230 2299 2230 2299 2299 2230 2299 2230 2299 2164 2230 2299 2230 2299 2299 2299 2374 2230 2374 2044 1936 0 0 0 0 743 694 675 687 675 657 651 651 629 613 608 603 593 588 0 0 0 0 0
    0 0 0 0 0 0 0 0 0 0 0 0 0 0 0 0 0 0 0 0 0 0 0 0 0 0 0 0 0 0 0 0 0 0 0 0 0 0 0 0 0 0 0 0 0 0 0 0 0 0 0 0 0 0 0 0 0 0 0 0 0 0 0 0 0 0 0 0 0 6690 6690 7359 8177 8177 0 0 0 8177 0 8177 0 0 0 0 0 0 0 0 0 0 0 0 0 0 0 8177 8177 0 0 0 0 0 0 0 0 0 0 0 0 0 0 0 0 5661 6690 5661 5661 6133 5661 5661 5661 5256 8177 8177 0 0 0 0 0 0 0 0 0 0 0 0 557 579 566 566 566 570 0 566 574 579 0 0 0 0 0 0 0 0 0 584 574 574 579 588 588 588 584 584 0 0 5256 6690 6133 6690 6133 0 6690 6690 6133 8177 7359 8177 7359 6690 7359 6133 6690 6690 6133 6690 5661 7359 8177 8177 5661 6690 6690 7359 7359 7359 7359 7359 5256 5661 5661 6133 5661 5661 4906 5256 5256 6133 6690 5256 4329 0 0 0 0 0 0 0 0 1187 1187 1206 1115 4599 3504 4599 4906 4088 3504 0 0 0 0 0 0 0 0 968 0 0 0 0 0 0 0 0 1022 981 943 943 931 865 876 876 876 2374 2628 2628 2725 2830 2725 2537 2628 2830 2725 2628 2725 2628 2453 2453 2537 2374 2299 2230 2299 2164 2230 2299 2299 2299 2299 2230 2299 2299 2299 2164 2299 2299 2230 2299 2299 2299 2374 2230 2374 1989 1936 0 0 0 0 766 694 681 687 669 645 634 639 623 598 593 584 566 557 0 0 0 0 0
    0 0 0 0 0 0 0 0 0 0 0 0 0 0 0 0 0 0 0 0 0 0 0 0 0 0 0 0 0 0 0 0 0 0 0 0 0 0 0 0 0 0 0 0 0 0 0 0 0 0 0 0 0 0 0 0 0 0 0 0 0 0 0 0 0 0 0 0 0 6133 6133 6690 7359 6690 8177 0 0 7359 0 0 0 0 8177 8177 8177 8177 0 0 0 0 0 0 0 0 0 8177 8177 0 0 0 0 0 0 0 0 0 0 0 0 0 0 0 0 5661 6690 5256 5661 5661 5256 5661 5256 4906 8177 8177 0 0 0 0 0 0 0 0 0 0 0 0 561 579 566 566 570 570 574 566 574 579 566 0 0 0 0 0 0 0 0 0 0 579 579 588 588 588 584 584 0 0 5256 6690 6133 6133 6133 0 6690 6133 6133 8177 6690 7359 6690 6133 6690 5256 6133 5661 5661 6690 5661 6690 7359 7359 5661 6690 6690 6690 6690 7359 7359 7359 5256 5661 5661 6133 6133 6133 4906 5256 5256 6133 6690 5661 4329 0 0 0 0 0 0 0 0 1206 1226 1247 1168 4906 3504 4599 4906 4088 3504 0 0 0 0 0 0 0 994 968 0 0 0 0 0 0 0 1314 1066 981 943 931 919 865 876 855 865 0 0 2230 2453 2725 2725 2537 2628 2725 2628 2537 2725 2628 2453 2453 2453 2374 2299 2230 2299 2164 2230 2299 2299 2299 2299 2299 2299 2299 2299 2230 2299 2299 2230 2374 2299 2299 2299 2299 2374 1989 1936 1887 0 0 0 791 700 694 694 663 634 623 629 613 584 566 557 549 545 0 0 0 0 0
    0 0 0 0 0 0 0 0 0 0 0 0 0 0 0 0 0 0 0 0 0 0 0 0 0 0 0 0 0 0 0 0 0 0 0 0 0 0 0 0 0 0 0 0 0 0 0 0 0 0 0 0 0 0 0 0 0 0 0 0 0 0 0 0 0 0 0 0 0 6133 5661 6133 6690 0 0 0 0 0 0 0 0 0 0 0 8177 0 0 0 0 0 0 0 0 0 0 8177 0 0 0 0 0 0 0 0 0 0 0 0 0 0 0 0 0 5661 6690 5256 5256 5256 4906 5256 5256 4906 0 0 0 0 0 0 0 0 0 0 0 0 0 0 561 579 566 566 566 570 579 566 579 579 0 0 0 0 0 0 0 0 0 0 0 0 579 588 588 588 588 588 588 0 4906 6690 0 0 0 0 0 0 6133 8177 6690 6690 6690 6133 6690 5256 6133 5661 6133 6690 5661 6690 7359 7359 5256 6690 6690 6690 6690 7359 7359 7359 5256 5661 6133 6133 6133 6133 4906 5256 5256 6690 6690 5661 4329 0 0 0 0 0 0 1268 1247 1247 1268 1268 0 0 3345 4599 4906 4088 3504 0 0 448 457 451 0 0 0 0 0 0 0 0 0 0 0 1362 1115 981 919 908 897 855 855 845 845 845 836 0 0 2537 2628 2537 2537 2725 2628 2537 2725 2537 2374 2374 2453 2299 2299 2299 2299 2164 2299 2299 2299 2374 2299 2374 2299 2374 2374 2230 2374 2299 2230 2299 2299 2299 2299 2299 2299 2044 1936 1887 0 0 0 817 735 0 0 651 618 608 0 603 566 545 545 541 537 0 0 0 0 0
    0 0 0 0 0 0 0 0 0 0 0 0 0 0 0 0 0 0 0 0 0 0 0 0 0 0 0 0 0 0 0 0 0 0 0 0 0 0 0 0 0 0 0 0 0 0 0 0 0 0 0 0 0 0 0 0 0 0 0 0 0 0 0 0 0 0 0 0 0 5256 5256 5661 0 0 0 0 0 1291 0 0 0 0 0 0 0 0 0 0 0 0 0 0 0 0 0 0 0 0 0 0 0 0 0 0 0 0 0 0 0 0 0 0 0 5661 6690 4906 4906 4906 4329 4599 4906 4599 0 0 0 0 0 0 0 0 0 0 0 0 0 0 557 574 561 557 561 566 579 561 574 0 0 0 0 0 0 0 0 0 0 0 0 0 0 0 0 0 588 588 593 579 0 0 0 0 0 0 0 0 5661 7359 6690 6690 6690 6690 6690 6133 6690 6690 6690 7359 5661 6690 7359 7359 5256 6690 6690 7359 7359 8177 7359 7359 5661 6133 6133 6133 6133 6133 4906 5256 4906 6690 7359 6133 0 0 0 0 0 1206 1268 1268 1268 1268 1291 1291 0 0 0 4599 4599 3873 3345 0 0 440 443 446 454 0 0 0 0 0 0 0 0 0 0 1415 1226 994 943 919 886 855 855 845 855 845 836 836 799 0 2453 2374 2537 2725 2628 2537 2725 2537 2374 2374 2537 2374 2299 2299 2374 2230 2374 2299 2299 2374 2299 2374 2299 2374 2374 2299 2374 2299 2299 2299 2230 2299 2230 2230 2230 2044 1936 1887 1887 0 0 0 865 0 968 0 593 566 0 0 549 533 533 533 533 0 0 0 0 0
    0 0 0 0 0 0 0 0 0 0 0 0 0 0 0 0 0 0 0 0 0 0 0 0 0 0 0 0 0 0 0 0 0 0 0 0 0 0 0 0 0 0 0 0 0 0 0 0 0 0 0 0 0 0 0 0 0 0 0 0 0 0 0 0 0 0 0 0 0 4599 4329 0 0 0 0 0 1291 1268 1268 0 1268 0 8177 8177 0 0 0 0 0 0 0 0 0 0 0 0 0 0 0 0 0 0 0 0 0 0 0 0 0 0 0 0 8177 4906 6133 4599 4599 4329 4088 4329 4599 0 0 0 0 0 0 0 0 0 0 0 8177 0 0 0 561 570 557 549 0 0 570 0 0 0 0 0 0 0 0 0 0 0 0 0 0 0 0 0 0 0 0 593 593 579 0 0 0 0 0 0 0 0 5256 7359 6133 6690 7359 7359 8177 7359 8177 0 0 0 7359 7359 8177 7359 5256 6690 6690 7359 7359 8177 8177 7359 5661 5661 5661 5661 5661 5661 4599 4906 4906 6690 7359 6133 0 0 0 0 1247 1168 1226 1247 1247 1247 1291 1291 5661 4599 3345 4329 4329 3873 3345 0 0 438 438 0 0 0 0 0 0 0 0 0 0 0 0 0 0 1008 955 943 897 845 845 836 845 836 826 826 791 782 0 2164 2374 2725 2628 2453 2628 2537 2374 2374 2537 2374 2299 2299 2374 2230 2374 2299 2299 2374 2299 2374 2299 2374 2299 2299 2299 2299 2230 2299 2230 2299 2164 2230 2164 1989 1887 1839 1839 1795 1635 0 0 0 1022 0 557 0 0 0 545 533 533 537 537 0 0 0 0 0
    0 0 0 0 0 0 0 0 0 0 0 0 0 0 0 0 0 0 0 0 0 0 0 0 0 0 0 0 0 0 0 0 0 0 0 0 0 0 0 0 0 0 0 0 0 0 0 0 0 0 0 0 0 0 0 0 0 0 0 0 0 0 0 0 0 0 0 0 0 4088 3873 0 0 0 0 1268 1291 1268 1268 1268 1291 1268 0 7359 0 0 0 0 0 0 0 0 0 0 0 0 0 0 0 0 0 0 0 0 0 0 0 0 0 8177 8177 0 7359 4329 6133 4088 0 3679 3679 0 0 0 0 1226 1247 1268 1268 0 0 0 0 0 6690 0 0 0 561 561 549 541 0 0 0 0 0 0 0 0 0 0 0 0 0 0 0 0 0 0 0 0 0 0 0 0 598 588 0 0 0 0 0 0 0 5256 4599 6133 6133 7359 8177 8177 0 0 0 0 0 0 0 9199 0 7359 5256 6690 7359 8177 8177 0 8177 7359 5661 5661 5661 5661 5256 5256 4088 4329 4329 0 0 0 0 0 1168 1187 1206 1168 1187 1226 1226 1247 1291 1291 5661 4599 3345 4329 4329 3679 3345 0 0 435 435 0 0 0 994 968 0 0 0 0 0 0 0 0 0 0 0 955 919 855 855 845 845 845 826 836 808 799 791 766 721 0 2374 2374 2537 2453 2299 2299 2453 2299 2230 2230 2299 2230 2374 2299 2299 2299 2299 2299 2299 2299 2299 2299 2299 2299 2230 2299 2230 2299 2164 2164 2102 1989 1839 1752 0 1795 1711 1338 0 1168 1051 0 0 0 0 0 541 533 533 537 537 0 0 0 0 0
    0 0 0 0 0 0 0 0 0 0 0 0 0 0 0 0 0 0 0 0 0 0 0 0 0 0 0 0 0 0 0 0 0 0 0 0 0 0 0 0 0 0 0 0 0 0 0 0 0 0 0 0 0 0 0 0 0 0 0 0 0 0 0 0 0 0 0 0 0 3504 0 0 0 0 0 1268 1268 1268 1268 1268 1291 1291 1314 0 1268 0 0 0 0 0 0 0 0 0 0 0 0 0 0 0 0 0 0 0 0 0 0 0 6690 0 0 0 0 1291 0 1291 1247 1226 1226 1226 1206 1226 1206 1206 1226 1247 1247 1247 1226 1247 1206 1226 1226 1226 1132 1206 1187 1206 0 0 0 1187 0 0 0 0 0 0 0 0 0 0 0 0 0 0 0 0 0 0 0 0 0 1291 1226 0 1247 1226 1226 1268 1268 1291 0 4906 3873 5256 6133 7359 0 0 0 0 0 0 0 0 0 0 0 7359 5256 6690 7359 8177 8177 0 7359 7359 5661 5661 5256 5256 4906 4906 3679 3873 0 0 0 0 0 1168 1187 1187 1206 1168 1187 1206 1206 1247 1291 1291 5661 4599 3345 4329 4088 3679 3345 0 0 430 0 0 0 0 981 968 0 0 0 0 0 0 0 1388 0 0 0 981 931 855 855 845 845 836 826 836 808 808 799 774 728 721 728 0 2230 2299 2230 2230 2374 2230 2164 2230 2299 2299 2374 2299 2299 2374 2299 2374 2230 2299 2299 2299 2299 2299 2230 2299 2230 2299 2164 2102 2044 1936 1839 1635 1711 1752 1711 1362 0 0 1082 0 0 541 0 0 537 533 529 537 537 0 0 0 0 0
    0 0 0 0 0 0 0 0 0 0 0 0 0 0 0 0 0 0 0 0 0 0 0 0 0 0 0 0 0 0 0 0 0 0 0 0 0 0 0 0 0 0 0 0 0 0 0 0 0 0 0 0 0 0 0 0 0 0 0 0 0 0 0 0 0 0 0 0 0 0 0 0 0 0 1268 1268 1268 1247 1268 1268 1268 1268 1291 1291 1247 1226 1268 1206 0 0 0 0 0 0 0 0 0 0 0 1268 1247 1247 1247 1226 1247 1247 1206 0 0 0 1291 1268 1291 1268 1247 1247 1247 1206 1206 1206 1206 1206 1206 1206 1206 1226 1247 1247 1206 1226 1206 1206 1187 1187 1149 1168 1168 1187 1168 1187 1168 1168 1149 1206 1226 1187 0 1206 1206 1206 1206 1226 1226 1187 1226 1226 1206 1226 1226 1226 1206 1187 1226 1247 1187 1206 1226 1226 1226 1247 1247 1247 1247 1247 0 0 0 0 0 0 0 0 0 0 0 0 0 0 0 7359 5256 6133 7359 8177 8177 8177 7359 7359 5256 6133 5256 4599 4599 4329 0 0 1168 1115 1115 1168 1149 1168 1187 1187 1206 1187 1187 1187 1187 1247 1291 0 4906 3873 3199 4088 3873 3679 3199 0 0 0 0 0 0 0 981 968 0 981 955 0 0 0 0 0 0 0 0 994 955 855 855 836 845 836 826 826 808 808 808 782 735 735 743 735 0 0 2044 2102 2299 2230 2164 2230 2299 2299 2453 2374 2299 2374 2299 2374 2230 2299 2299 2299 2299 2299 2230 2299 2164 2299 2102 2164 2044 1936 1752 1388 0 0 1565 0 0 0 1098 0 533 537 537 533 533 529 529 537 537 0 0 0 0 0
    0 0 0 0 0 0 0 0 0 0 0 0 0 0 0 0 0 0 0 0 0 0 0 0 0 0 0 0 0 0 0 0 0 0 0 0 0 0 0 0 0 0 0 0 0 0 0 0 0 0 0 0 0 0 0 0 0 0 0 0 0 0 0 0 0 0 0 0 0 1268 0 0 1247 1268 1268 1291 1268 1247 1268 1268 1268 1268 1268 1268 1226 1206 1226 1187 1226 1226 1247 1247 1247 1247 1268 1247 1247 1268 1247 1206 1206 1206 1226 1206 1247 1226 1187 1226 1268 1268 1268 1206 1247 1247 1226 1226 1226 1206 1187 1206 1206 1206 1206 1206 1206 1206 1247 1226 1187 1226 1187 1187 1168 1187 1149 1168 1168 1187 1149 1149 1168 1149 1115 1168 1206 1168 1168 1206 1187 1187 1187 1206 1226 1168 1206 1206 1187 1187 1206 1206 1187 1168 1206 1226 1168 1187 1226 1226 1226 1226 1247 1226 1226 1226 1226 1149 1132 1082 1098 1066 1082 1132 1149 0 0 0 1226 0 0 7359 4906 5661 8177 0 0 0 7359 7359 5256 0 0 0 1268 1226 1268 1187 1149 1132 1149 1168 1149 1168 1206 1187 1206 1206 1187 1187 1187 1247 1268 1226 3679 3199 3066 3679 3504 3345 3066 0 0 0 0 0 0 0 968 968 968 968 955 955 955 0 0 1314 0 0 0 0 994 886 865 845 845 836 826 817 808 808 808 791 750 750 766 743 758 750 743 735 0 2164 2102 2164 2230 2299 2537 2374 2374 2374 2299 2374 2164 2374 2299 2299 2299 2230 2230 2230 2164 2374 2102 2164 1989 1887 1565 1268 1051 0 0 0 0 0 0 537 525 533 533 529 529 525 525 533 533 0 0 0 0 0
    0 0 0 0 0 0 0 0 0 0 0 0 0 0 0 0 0 0 0 0 0 0 0 0 0 0 0 0 0 0 0 0 0 0 0 0 0 0 0 0 0 0 0 0 0 0 0 0 0 0 0 0 0 0 0 0 0 0 0 0 0 0 0 0 0 0 0 0 0 1206 1226 1187 1226 1247 1247 1291 1268 1247 1268 1247 1247 1247 1247 1247 1226 1206 1226 1206 1206 1226 1226 1226 1226 1226 1247 1206 1226 1226 1226 1206 1206 1206 1206 1206 1226 1226 1187 1226 1247 1226 1247 1149 1206 1206 1206 1206 1206 1187 1187 1206 1226 1226 1226 1226 1226 1206 1247 1226 1168 1206 1187 1168 1149 1168 1149 1168 1149 1187 1149 1149 1149 1132 1098 1168 1206 1168 1168 1187 1187 1187 1187 1206 1206 1168 1206 1206 1187 1187 1187 1187 1187 1149 1187 1226 1168 1187 1206 1206 1226 1226 1247 1226 1187 1226 1206 1168 1132 1115 1115 1082 1098 1149 1168 1187 1187 1206 1226 1206 1268 0 1247 0 1168 0 0 0 0 0 0 1268 1291 1268 1206 1168 1206 1132 1132 1132 1149 1168 1149 1187 1206 1187 1206 1206 1206 1187 1187 1226 1226 1187 0 2044 0 3504 3345 3199 0 0 0 0 0 0 0 994 968 968 968 968 955 955 955 981 0 1247 1132 0 0 0 1008 908 876 836 845 826 817 817 808 808 799 791 774 774 774 758 758 758 743 743 735 766 743 0 0 0 2628 2299 2299 2374 2374 2374 2164 2299 2230 2230 2299 2164 2230 2164 2102 2299 1989 2044 1887 1839 1443 1247 1066 0 0 0 0 0 0 533 521 529 529 525 525 525 525 529 529 0 0 0 0 0
    0 0 0 0 0 0 0 0 0 0 0 0 0 0 0 0 0 0 0 0 0 0 0 0 0 0 0 0 0 0 0 0 0 0 0 0 0 0 0 0 0 0 0 0 0 0 0 0 0 0 0 0 0 0 0 0 0 0 0 0 0 0 0 0 0 0 0 0 0 1206 1206 1187 1226 1226 1226 1291 1268 1247 1268 1247 1247 1247 1247 1247 1206 1187 1206 1206 1206 1226 1206 1206 1206 1206 1226 1187 1206 1206 1206 1187 1206 1187 1206 1187 1247 1226 1206 1226 1247 1206 1206 1098 1187 1187 1168 1187 1187 1187 1187 1206 1247 1247 1226 1247 1247 1226 1226 1226 1149 1187 1168 1149 1149 1149 1149 1168 1149 1206 1149 1149 1168 1149 1115 1168 1206 1168 1187 1187 1206 1187 1187 1206 1206 1168 1206 1206 1187 1187 1187 1187 1187 1149 1187 1226 1168 1187 1206 1226 1226 1226 1247 1226 1187 1226 1187 1168 1132 1115 1132 1098 1115 1149 1168 1187 1187 1206 1226 1206 1247 1268 1206 1187 1149 1187 1206 1187 1206 1226 1226 1247 1247 1226 1149 1132 1132 1115 1115 1132 1132 1149 1149 1187 1187 1187 1206 1206 1206 1187 1168 1226 1206 1168 1226 1314 1314 0 3066 2628 0 0 0 0 0 0 981 994 955 955 968 955 943 955 943 981 955 1066 1066 1066 1082 1051 1022 919 908 897 876 826 817 808 808 808 799 791 782 782 782 758 758 758 750 750 743 750 735 743 758 0 0 2102 0 2299 2299 2299 2164 2299 2164 2230 2230 2102 2164 2102 2044 2164 1887 1887 1752 1635 1362 1206 1051 0 0 0 0 0 0 529 518 525 529 521 525 525 525 529 525 0 0 0 0 0
    0 0 0 0 0 0 0 0 0 0 0 0 0 0 0 0 0 0 0 0 0 0 0 0 0 0 0 0 0 0 0 0 0 0 0 0 0 0 0 0 0 0 0 0 0 0 0 0 0 0 0 0 0 0 0 0 0 0 0 0 0 0 0 0 0 0 0 0 0 1206 1226 1187 1226 1226 1226 1268 1268 1247 1247 1247 1226 1226 1226 1226 1206 1187 1206 1187 1187 1206 1187 1168 1168 1168 1206 1115 1168 1187 1168 1187 1187 1187 1187 1187 1247 1226 1206 1247 1247 1206 1206 1082 1168 1168 1168 1168 1187 1168 1187 1206 1247 1247 1226 1268 1247 1206 1226 1206 1115 1168 1149 1149 1132 1149 1132 1149 1149 1206 1149 1149 1149 1168 1115 1168 1206 1168 1187 1187 1206 1187 1187 1206 1206 1168 1206 1206 1187 1187 1187 1187 1187 1168 1206 1226 1187 1187 1206 1226 1247 1226 1247 1226 1187 1206 1168 1149 1132 1115 1132 1115 1115 1149 1168 1187 1187 1206 1226 1206 1247 1268 1168 1168 1149 1168 1187 1149 1168 1187 1187 1206 1187 1168 1115 1098 1098 1115 1115 1115 1132 1132 1132 1168 1168 1168 1187 1187 1187 1168 1149 1206 1168 1149 1187 1226 1247 1226 0 0 1247 0 0 1098 0 1022 968 981 943 955 955 955 943 955 943 981 955 1036 1036 1051 1082 1082 1051 1008 994 1022 994 981 886 855 826 817 808 817 799 791 782 766 750 750 743 743 728 735 728 728 728 782 774 0 0 0 0 2164 2102 2164 2102 2102 2164 2044 2044 1989 1887 1887 1672 1635 1501 1388 1314 1149 994 0 0 0 0 0 514 525 511 521 525 518 521 525 525 529 525 0 0 0 0 0
    0 0 0 0 0 0 0 0 0 0 0 0 0 0 0 0 0 0 0 0 0 0 0 0 0 0 0 0 0 0 0 0 0 0 0 0 0 0 0 0 0 0 0 0 0 0 0 0 0 0 0 0 0 0 0 0 0 0 0 0 0 0 0 0 0 0 0 0 0 1187 1226 1187 1206 1206 1206 1226 1226 1226 1226 1226 1206 1206 1226 1206 1206 1187 1206 1206 1187 1226 1149 1149 1115 1115 1149 1082 1132 1149 1149 1168 1168 1168 1187 1168 1226 1206 1206 1226 1247 1168 1168 1082 1149 1168 1149 1168 1168 1168 1187 1187 1226 1226 1206 1247 1206 1132 1168 1149 1082 1132 1115 1115 1115 1132 1132 1149 1132 1187 1132 1115 1132 1132 1098 1132 1187 1149 1168 1187 1187 1187 1187 1187 1206 1149 1206 1206 1187 1168 1187 1168 1187 1168 1187 1206 1187 1187 1206 1226 1247 1226 1247 1226 1187 1206 1132 1149 1115 1115 1132 1115 1132 1149 1168 1187 1187 1206 1226 1206 1247 1247 1168 1187 1168 1168 1187 1168 1168 1168 1168 1187 1168 1132 1098 1098 1082 1098 1115 1115 1115 1132 1132 1149 1149 1149 1149 1168 1149 1149 1132 1168 1098 1098 1132 1149 1149 1115 1187 1168 1149 1066 1149 1066 994 1022 955 968 943 955 955 943 931 955 943 968 955 1008 1022 1051 1051 1066 1066 1036 1022 1036 1022 1022 994 981 876 836 817 826 808 791 782 774 750 743 743 735 728 728 721 714 707 0 0 0 0 0 1168 1206 0 0 0 1936 1989 1936 0 0 1415 1388 1388 1338 1314 1314 1247 1098 968 0 0 0 0 507 511 521 507 521 525 518 521 521 525 525 521 0 0 0 0 0
    0 0 0 0 0 0 0 0 0 0 0 0 0 0 0 0 0 0 0 0 0 0 0 0 0 0 0 0 0 0 0 0 0 0 0 0 0 0 0 0 0 0 0 0 0 0 0 0 0 0 0 0 0 0 0 0 0 0 0 0 0 0 0 0 0 0 0 0 0 1187 1206 1187 1187 1187 1187 1168 1187 1187 1187 1187 1168 1187 1187 1187 1206 1187 1206 1187 1187 1206 1115 1115 1066 1082 1115 1066 1115 1132 1132 1149 1149 1168 1187 1168 1226 1206 1187 1226 1226 1115 1149 1082 1149 1168 1149 1149 1168 1149 1168 1168 1226 1206 1187 1206 1168 1115 1115 1098 1051 1098 1098 1082 1098 1098 1098 1115 1115 1187 1115 1098 1115 1098 1082 1098 1149 1132 1149 1168 1168 1168 1168 1187 1206 1115 1187 1187 1149 1132 1149 1132 1149 1149 1187 1187 1168 1187 1206 1226 1247 1226 1247 1226 1187 1206 1115 1149 1115 1115 1115 1115 1132 1149 1149 1187 1168 1206 1206 1206 1226 1247 1149 1187 1168 1168 1168 1168 1168 1168 1149 1187 1149 1098 1098 1115 1082 1115 1115 1115 1132 1132 1132 1149 1132 1149 1149 1149 1132 1132 1115 1168 1082 1082 1115 1115 1098 1098 1149 1115 1098 1051 1115 1066 981 1008 955 955 943 955 955 943 931 955 943 981 968 1022 1036 1051 1066 1082 1082 1082 1066 1098 1066 1051 1036 1036 1022 968 886 855 826 791 774 766 743 735 735 735 721 721 714 714 700 694 0 0 0 0 0 1149 1098 1149 1168 1187 1187 1149 1168 0 1187 1206 1247 1247 1226 1168 1115 1051 0 0 0 0 0 493 500 518 504 518 518 511 518 521 525 525 521 0 0 0 0 0
    0 0 0 0 0 0 0 0 0 0 0 0 0 0 0 0 0 0 0 0 0 0 0 0 0 0 0 0 0 0 0 0 0 0 0 0 0 0 0 0 0 0 0 0 0 0 0 0 0 0 0 0 0 0 0 0 0 0 0 0 0 0 0 0 0 0 0 0 0 1187 1206 1187 1187 1187 1187 1132 1168 1149 1168 1168 1149 1168 1187 1187 1206 1187 1187 1187 1168 1187 1098 1098 1051 1066 1098 1066 1115 1115 1115 1132 1132 1168 1168 1149 1206 1187 1187 1206 1187 1098 1149 1082 1149 1168 1149 1149 1149 1149 1168 1168 1226 1187 1187 1206 1168 1115 1098 1082 1051 1082 1082 1082 1082 1082 1082 1098 1115 1149 1082 1082 1098 1082 1082 1082 1132 1115 1132 1149 1149 1149 1149 1168 1187 1098 1187 1168 1132 1082 1098 1098 1115 1132 1168 1168 1168 1168 1187 1206 1226 1226 1226 1206 1149 1168 1098 1132 1098 1115 1115 1115 1115 1132 1132 1187 1149 1206 1206 1226 1226 1247 1149 1187 1168 1168 1168 1149 1149 1149 1132 1168 1132 1082 1098 1098 1082 1115 1098 1115 1115 1115 1132 1132 1115 1132 1115 1115 1115 1098 1098 1115 1066 1066 1098 1098 1066 1082 1115 1098 1082 1051 1115 1051 968 994 943 943 943 955 943 943 931 955 943 981 981 1036 1036 1066 1066 1082 1098 1115 1098 1149 1098 1082 1051 1066 1036 1036 1036 994 876 808 791 774 735 721 728 721 714 714 707 707 700 694 0 0 0 0 0 1115 1066 1082 1115 1098 1115 1098 1115 1132 1115 1149 1168 1168 1149 1098 1082 0 0 0 0 0 0 0 500 511 500 514 518 511 518 521 525 525 521 0 0 0 0 0
    0 0 0 0 0 0 0 0 0 0 0 0 0 0 0 0 0 0 0 0 0 0 0 0 0 0 0 0 0 0 0 0 0 0 0 0 0 0 0 0 0 0 0 0 0 0 0 0 0 0 0 0 0 0 0 0 0 0 0 0 0 0 0 0 0 0 0 0 0 1187 1206 1187 1187 1168 1187 1132 1168 1149 1168 1168 1149 1168 1187 1187 1206 1168 1187 1187 1149 1168 1098 1115 1051 1082 1098 1066 1115 1115 1115 1132 1115 1168 1168 1149 1206 1168 1168 1206 1206 1082 1132 1082 1168 1168 1149 1168 1149 1149 1168 1168 1226 1187 1168 1206 1149 1115 1098 1066 1051 1082 1066 1066 1082 1082 1082 1098 1115 1149 1082 1082 1098 1082 1082 1082 1132 1098 1132 1149 1149 1149 1149 1168 1206 1098 1206 1149 1115 1066 1082 1082 1098 1115 1149 1149 1149 1149 1168 1187 1206 1206 1206 1187 1132 1149 1098 1132 1098 1098 1098 1115 1115 1132 1132 1187 1132 1206 1206 1247 1247 1247 1149 1187 1168 1149 1168 1149 1149 1132 1132 1149 1115 1082 1098 1082 1066 1098 1082 1098 1098 1082 1098 1098 1098 1098 1066 1098 1082 1082 1082 1082 1051 1051 1066 1082 1051 1066 1098 1066 1066 1022 1115 1051 955 981 943 943 943 943 943 943 931 968 955 981 994 1036 1051 1082 1066 1082 1082 1098 1082 1149 1098 1066 1051 1051 1051 1036 1036 1036 994 855 799 782 735 714 714 714 707 707 707 707 694 694 128 0 0 0 1082 1115 0 1082 1098 1066 1082 1066 1082 1098 1082 1115 1132 1115 1115 1082 1066 1036 0 0 0 931 0 0 500 0 500 518 518 511 518 521 529 525 525 0 0 0 0 0
    0 0 0 0 0 0 0 0 0 0 0 0 0 0 0 0 0 0 0 0 0 0 0 0 0 0 0 0 0 0 0 0 0 0 0 0 0 0 0 0 0 0 0 0 0 0 0 0 0 0 0 0 0 0 0 0 0 0 0 0 0 0 0 0 0 0 0 0 0 1168 1187 1187 1168 1149 1168 1115 1149 1149 1149 1168 1149 1168 1168 1187 1206 1168 1168 1149 1115 1115 1082 1098 1051 1066 1098 1082 1115 1115 1115 1132 1115 1168 1168 1132 1206 1168 1149 1187 1168 1082 1115 1082 1149 1168 1149 1168 1149 1149 1168 1168 1206 1187 1168 1168 1115 1115 1082 1051 1036 1066 1066 1066 1066 1066 1082 1082 1098 1132 1098 1098 1098 0 1082 1082 1132 1098 1132 1149 1149 1149 1149 1168 1206 1115 1226 1132 1098 1051 1066 1082 1098 1115 1132 1132 1132 1132 1168 1187 1206 1187 1206 1187 1132 1149 1082 1149 1098 1098 1098 1115 1115 1132 1115 1187 1115 1206 1206 1226 1206 1226 1115 1168 1168 1132 1149 1132 1132 1132 1115 1149 1115 1082 1098 1082 1066 1082 1082 1082 1082 1082 1082 1082 1066 1082 1051 1082 1066 1082 1066 1051 1051 1036 1051 1051 1036 1051 1051 1036 1036 994 1082 1036 931 968 943 943 943 955 943 943 943 968 955 981 1008 1036 1036 1066 1051 1051 1051 1051 1051 1098 1051 1051 1051 1051 1051 1051 1051 1036 1008 908 826 791 728 707 707 707 700 707 700 700 694 687 0 0 707 0 1082 0 0 0 1082 1036 1066 1051 1051 1066 1051 1098 1098 1082 1098 1082 1066 1036 0 0 0 931 0 0 511 514 507 521 521 518 521 525 533 529 529 0 0 0 0 0
    0 0 0 0 0 0 0 0 0 0 0 0 0 0 0 0 0 0 0 0 0 0 0 0 0 0 0 0 0 0 0 0 0 0 0 0 0 0 0 0 0 0 0 0 0 0 0 0 0 0 0 0 0 0 0 0 0 0 0 0 0 0 0 0 0 0 0 0 0 1115 1132 1132 1115 1098 1115 1082 1132 1132 1132 1149 1149 1168 1168 1168 1206 1149 1132 1115 1066 1066 1066 1082 1051 1066 1098 1082 1115 1115 1115 1132 1115 1168 1168 1132 1206 1149 1132 1149 1115 1066 1098 1082 1132 1149 1132 1149 1132 1132 1168 1149 1187 1149 1132 1115 1082 1098 1066 1051 1036 1051 1051 1051 1066 1066 1066 1082 1098 1115 1082 1082 1098 1115 1098 1082 1132 1115 1115 1132 1149 1149 1132 1168 1206 1098 1206 1115 1098 1036 1051 1066 1082 1098 1115 1115 1132 1115 1149 1168 1187 1187 1187 1168 1115 1149 1082 1149 1082 1098 1098 1115 1115 1132 1115 1168 1115 1187 1187 1226 1187 1206 1098 1168 1149 1132 1149 1132 1132 1132 1115 1132 1098 1082 1098 1082 1066 1082 1066 1066 1066 1066 1082 1066 1066 1066 1051 1066 1051 1082 1036 1036 1036 1022 1022 1022 1022 1008 1008 994 1008 981 1051 1036 943 968 955 943 955 955 955 943 943 968 968 981 1008 1022 1022 1051 1022 1022 1022 1008 1008 1022 994 994 1008 1008 1036 1036 1051 1036 1008 0 0 799 728 694 700 700 700 700 700 694 687 687 714 700 707 0 1051 0 0 0 1066 1036 1051 1036 1051 1051 1051 1066 1082 1051 1082 1082 1051 1022 0 0 0 0 0 0 518 521 518 529 525 521 529 529 537 533 537 0 0 0 0 0
    0 0 0 0 0 0 0 0 0 0 0 0 0 0 0 0 0 0 0 0 0 0 0 0 0 0 0 0 0 0 0 0 0 0 0 0 0 0 0 0 0 0 0 0 0 0 0 0 0 0 0 0 0 0 0 0 0 0 0 0 0 0 0 0 0 0 0 0 0 1066 1082 1098 1066 1066 1082 1066 1098 1098 1115 1132 1115 1132 1149 1132 1187 1098 1066 1066 1036 1036 1051 1066 1051 1066 1082 1082 1115 1115 1115 1132 1115 1168 1168 1115 1168 1098 1082 1082 1066 1051 1082 1082 1115 1132 1132 1149 1115 1115 1132 1115 1132 1098 1082 1066 1051 1066 1051 1036 1022 1036 1036 1051 1051 1051 1051 1066 1082 1082 1082 1082 1082 1115 1098 1082 1115 1098 1115 1115 1132 1115 1115 1132 1206 1066 1132 1082 1066 1022 1051 1066 1066 1082 1098 1115 1115 1098 1149 1149 1168 1168 1168 1149 1132 1149 1082 1132 1082 1082 1098 1115 1098 1115 1115 1149 1115 1168 1149 1168 1149 1168 1082 1149 1132 1115 1132 1115 1115 1115 1115 1132 1098 1066 1082 1066 1051 1066 1051 1066 1066 1066 1066 1066 1051 1066 1036 1066 1051 1082 1022 1022 1022 1008 1008 1008 994 981 994 981 994 981 1036 1022 955 968 955 943 955 955 955 943 943 968 968 968 1008 1008 1008 1036 1008 1008 994 981 994 981 968 968 968 981 1008 1036 1051 1036 1008 919 0 808 728 663 694 694 694 694 694 694 681 681 714 707 714 1149 1036 1051 1036 1051 1051 1036 1051 1051 1051 1051 1051 1051 1051 1036 1051 1051 1036 994 994 0 0 0 0 0 525 525 0 533 529 0 533 533 0 0 0 0 0 0 0 0
    0 0 0 0 0 0 0 0 0 0 0 0 0 0 0 0 0 0 0 0 0 0 0 0 0 0 0 0 0 0 0 0 0 0 0 0 0 0 0 0 0 0 0 0 0 0 0 0 0 0 0 0 0 0 0 0 0 0 0 0 0 0 0 0 0 0 0 0 0 1036 1051 1066 1036 1036 1051 1036 1082 1082 1098 1098 1098 1115 1098 1098 1132 1036 994 1008 1008 1022 1036 1066 1036 1051 1066 1066 1098 1098 1098 1115 1098 1149 1132 1082 1115 1066 1066 1051 1051 1036 1082 1066 1098 1115 1098 1132 1115 1098 1098 1082 1098 1066 1051 1036 1036 1051 1036 1022 1022 1022 1036 1036 1036 1036 1051 1051 1066 1066 1082 1082 1082 1098 1082 1066 1098 1082 1098 1098 1098 1098 1082 1098 1187 1036 1082 1051 1051 1022 1051 1066 1066 1082 1082 1098 1098 1098 1115 1115 1115 1132 1132 1115 1115 1132 1082 1098 1082 1082 1082 1098 1082 1082 1082 1115 1082 1115 1098 1115 1082 1115 1066 1115 1115 1098 1115 1098 1115 1098 1082 1098 1066 1051 1066 1051 1051 1051 1051 1051 1051 1066 1066 1051 1051 1051 1036 1051 1036 1066 1008 1008 1008 994 981 994 981 981 981 981 994 968 1022 1008 955 955 955 931 955 955 943 943 943 968 968 968 994 994 994 1022 994 994 981 981 981 981 955 943 955 955 994 1022 1051 1036 1008 0 0 799 728 645 687 687 687 687 687 687 681 669 721 714 728 0 994 1036 1022 1036 1022 1008 1022 1036 1036 1036 1036 1036 1022 1008 1022 1022 1022 968 981 876 0 0 0 0 533 525 0 0 0 0 0 0 0 0 0 0 0 0 0 0
    0 0 0 0 0 0 0 0 0 0 0 0 0 0 0 0 0 0 0 0 0 0 0 0 0 0 0 0 0 0 0 0 0 0 0 0 0 0 0 0 0 0 0 0 0 0 0 0 0 0 0 0 0 0 0 0 0 0 0 0 0 0 0 0 0 0 0 0 0 1022 1036 1051 1036 1036 1036 1036 1066 1066 1082 1082 1066 1082 1066 1066 1066 994 968 994 994 0 1036 1051 1036 1051 1066 1066 1082 1098 1098 1098 1082 1132 1115 1066 1066 1036 1036 1036 1036 1036 1051 1051 1082 1082 1082 1098 1098 1098 1098 1066 1066 1051 1051 1036 1022 1036 1022 1022 1008 1008 1022 1022 1036 1036 1036 1051 1066 1066 1082 1082 1082 1098 1082 1051 1082 1066 1082 1082 1082 1066 1051 1066 1132 1008 1036 1008 1022 1008 1036 1051 1051 1066 1066 1082 1082 1066 1098 1098 1082 1082 1082 1066 1066 1098 1066 1082 1066 1066 1066 1066 1066 1066 1066 1082 1066 1082 1066 1066 1051 1066 1051 1098 1082 1066 1098 1082 1098 1066 1066 1066 1051 1036 1051 1036 1036 1036 1036 1036 1036 1051 1051 1036 1036 1036 1022 1022 1022 1036 994 994 994 981 968 981 981 968 981 981 981 968 1008 981 943 955 955 919 955 943 943 943 943 955 955 955 994 981 981 1008 981 981 968 968 968 968 943 931 943 943 981 994 1036 1008 994 0 0 799 721 645 687 687 687 694 694 694 681 675 743 743 774 0 968 981 994 994 994 994 1008 1022 1022 1022 1022 1008 1008 994 1008 1008 994 968 981 886 0 0 0 0 533 525 0 0 0 0 0 0 0 0 584 0 0 0 0 0
    0 0 0 0 0 0 0 0 0 0 0 0 0 0 0 0 0 0 0 0 0 0 0 0 0 0 0 0 0 0 0 0 0 0 0 0 0 0 0 0 0 0 0 0 0 0 0 0 0 0 0 0 0 0 0 0 0 0 0 0 0 0 0 0 0 0 0 0 0 1022 1022 1036 1022 1022 1022 1022 1036 1051 1051 1051 1036 0 0 1036 0 981 968 994 0 0 1036 1051 1036 1051 1066 1066 1066 1098 1082 1082 1066 1098 1082 1036 1036 1008 1022 1008 1022 1008 1036 1036 1051 1051 1051 1066 1082 1082 1082 1066 1066 1051 1036 1022 1022 1022 1022 1008 1008 1008 1022 1022 1022 1036 1036 1051 1066 1066 1082 1082 1082 1082 1066 1051 1066 1051 1066 1066 1051 1036 1036 1036 1066 994 1008 994 1008 994 1022 1051 1051 1051 1066 1066 1066 1051 1066 1066 1051 1066 1051 1036 1022 1051 1036 1051 1036 1036 1051 1051 1051 1051 1051 1066 1051 1066 1051 1036 1036 1051 1051 1066 1066 1051 1066 1066 1066 1051 1036 1036 1022 1022 1036 1008 1022 1022 1022 1022 1022 1051 1036 1022 1022 1022 1008 1008 1008 1022 994 981 994 968 955 981 968 955 968 968 968 955 994 981 943 955 955 919 943 943 943 943 943 955 955 955 981 968 968 994 968 968 955 955 968 968 955 931 943 931 981 994 1022 1008 981 0 0 782 721 645 687 687 694 694 0 700 687 687 782 782 817 931 919 931 943 943 943 931 968 0 994 1008 1008 1008 1008 994 1008 1008 1008 981 1008 897 0 0 0 0 0 0 0 0 0 102 102 102 0 0 593 0 0 0 0 0
    0 0 0 0 0 0 0 0 0 0 0 0 0 0 0 0 0 0 0 0 0 0 0 0 0 0 0 0 0 0 0 0 0 0 0 0 0 0 0 0 0 0 0 0 0 0 0 0 0 0 0 0 0 0 0 0 0 0 0 0 0 0 0 0 0 0 0 0 0 1008 1008 1022 1008 0 1022 1022 1036 1036 1036 1036 1022 0 1008 1008 994 981 968 994 0 0 1036 1051 1036 1051 1051 1066 1066 1098 1066 1066 1066 1082 1066 1022 1022 994 1022 994 1008 1008 0 1008 1022 1036 1036 1022 1051 1022 1036 1022 1022 1008 1008 994 994 994 1008 994 1008 1008 1022 1022 1022 1036 1051 1051 1066 1066 1082 1082 1082 1082 1066 0 1051 1051 1051 1036 1036 1022 1008 1008 1022 994 994 981 994 994 1022 1051 1051 1051 1051 1051 1051 1051 1051 1051 1036 1036 1022 1008 1008 1008 1008 1022 1022 1036 1036 1036 1036 1022 1022 1036 1036 1036 1036 1022 1022 1036 1051 1051 1051 1036 1051 1051 1051 1022 1022 1022 1008 1008 1008 994 994 994 994 994 994 1036 1022 1008 1008 1008 1008 1008 1008 1008 981 968 981 955 955 968 955 955 955 955 968 968 981 968 931 943 955 919 943 943 943 943 943 955 955 955 981 955 955 981 955 955 955 943 955 955 943 931 931 931 968 994 1022 994 968 0 0 782 721 669 694 694 0 0 0 0 694 694 791 799 826 908 886 897 908 919 897 886 931 0 981 981 994 994 1008 994 1022 1022 1008 994 1022 908 0 0 0 0 0 0 0 102 102 102 102 102 102 0 598 0 0 0 0 0
    0 0 0 0 0 0 0 0 0 0 0 0 0 0 0 0 0 0 0 0 0 0 0 0 0 0 0 0 0 0 0 0 0 0 0 0 0 0 0 0 0 0 0 0 0 0 0 0 0 0 0 0 0 0 0 0 0 0 0 0 0 0 0 0 0 0 0 0 0 994 994 1022 994 0 0 0 1022 1022 1022 1008 994 994 994 994 994 981 981 0 0 0 1036 1051 1036 1036 1051 1051 1051 1082 1066 1051 1051 1051 1051 1008 1008 994 1022 994 1008 1008 0 1008 1008 1022 1008 1008 1008 994 1008 994 994 994 994 981 968 968 981 981 994 994 1008 1008 1022 1036 1036 1051 1066 1051 1066 1066 1066 1066 1051 1022 1036 1036 1036 0 1022 1008 1008 994 1008 981 981 994 994 994 1022 1036 1036 1036 1036 1036 1036 1036 1036 1036 1022 1022 1008 1008 994 1008 1008 1022 1022 1022 1036 1022 1022 1008 1008 1022 1022 1022 1008 1008 1008 1022 1051 1051 1036 1022 1036 1036 1051 1022 1022 1008 994 994 994 981 981 968 981 981 981 1022 1022 994 1008 1008 1008 1008 994 994 968 955 981 955 955 955 931 943 943 955 955 955 968 955 931 943 955 919 943 943 931 943 955 955 955 943 968 955 955 981 955 943 943 931 943 943 931 931 919 931 955 968 1008 981 943 0 0 774 721 700 0 0 0 0 0 714 700 700 799 817 855 897 876 886 897 908 876 876 897 0 955 968 981 968 994 981 1008 1008 994 994 1022 897 0 0 0 545 541 0 102 102 102 102 102 102 0 0 0 0 0 0 0 0
    0 0 0 0 0 0 0 0 0 0 0 0 0 0 0 0 0 0 0 0 0 0 0 0 0 0 0 0 0 0 0 0 0 0 0 0 0 0 0 0 0 0 0 0 0 0 0 0 0 0 0 0 0 0 0 0 0 0 0 0 0 0 0 0 0 0 0 0 0 981 981 1008 994 0 0 0 994 994 1008 981 968 981 981 981 981 968 968 994 1008 1022 1036 1036 1036 1036 1051 1051 1051 1082 1051 1036 1036 1036 1022 994 994 981 1008 981 1008 994 1008 994 1008 1008 994 994 994 981 981 981 981 981 981 968 955 955 968 968 981 981 994 994 994 1008 1022 1022 1036 1036 1051 1051 1051 1051 1036 1008 1022 1022 1022 1008 1008 994 994 981 1008 981 968 981 981 981 1008 1022 1036 1022 1022 1036 1022 1022 1022 1022 1008 1008 1008 1008 994 1008 1008 1008 1022 1022 1036 1022 1022 1008 1008 1008 1008 1008 1008 994 1008 1008 1036 1051 1022 1022 1022 1022 1036 994 994 994 981 981 994 981 981 968 981 981 981 1022 1022 994 1008 994 1008 1008 994 994 968 955 968 955 955 943 919 931 943 943 943 955 968 943 931 943 955 919 943 943 931 943 955 955 955 943 968 943 943 968 943 943 943 931 943 943 931 931 919 919 943 943 981 955 897 0 0 766 721 714 0 0 0 0 0 714 707 735 817 845 876 897 886 897 897 931 876 876 865 0 0 0 0 0 968 955 981 1008 994 968 1008 876 0 0 0 545 545 0 102 102 102 102 102 102 0 0 0 0 0 0 0 0
    0 0 0 0 0 0 0 0 0 0 0 0 0 0 0 0 0 0 0 0 0 0 0 0 0 0 0 0 0 0 0 0 0 0 0 0 0 0 0 0 0 0 0 0 0 0 0 0 0 0 0 0 0 0 0 0 0 0 0 0 0 0 0 0 0 0 0 0 0 968 968 994 981 0 0 0 968 968 981 968 955 955 968 968 968 955 968 981 994 1022 1022 1022 1022 1022 1036 1036 1022 1051 1008 994 1008 994 1008 968 955 968 981 968 994 981 994 994 994 994 981 981 994 968 968 955 968 968 968 955 943 955 955 955 968 968 968 968 981 994 994 994 1008 994 1008 994 1022 1008 1022 968 994 994 994 994 994 981 981 968 994 981 968 981 981 968 994 1008 1022 1022 1022 1022 1008 1008 1008 1008 994 994 994 1008 994 1008 1008 1022 1036 1036 1036 1022 1008 1008 994 1008 1008 994 994 981 1008 1008 1036 1036 1022 1008 1008 1008 1008 955 981 981 968 981 981 968 968 968 994 981 981 1022 1022 981 994 994 994 994 981 981 955 955 968 955 955 943 919 931 943 943 943 955 955 931 931 943 943 908 943 931 931 943 943 943 943 943 968 943 943 955 931 943 943 943 943 943 943 931 908 931 919 931 955 955 886 791 750 766 721 721 0 714 714 714 714 721 714 791 808 845 886 908 886 897 908 943 876 876 855 0 0 0 0 0 0 931 955 981 968 931 943 845 0 0 0 0 541 0 102 102 0 0 102 0 0 0 0 0 0 0 0 0
    0 0 0 0 0 0 0 0 0 0 0 0 0 0 0 0 0 0 0 0 0 0 0 0 0 0 0 0 0 0 0 0 0 0 0 0 0 0 0 0 0 0 0 0 0 0 0 0 0 0 0 0 0 0 0 0 0 0 0 0 0 0 0 0 0 0 0 0 0 955 955 981 981 0 0 0 955 955 981 955 943 955 968 955 955 955 968 981 994 1008 1008 1008 1022 1008 1022 1008 1008 1008 981 943 968 955 968 943 931 955 968 955 981 981 981 981 981 994 981 968 981 968 955 943 955 943 955 943 943 943 955 955 955 968 968 955 968 981 981 968 981 955 943 931 955 955 981 931 943 981 968 968 968 968 968 955 981 981 955 968 968 981 981 1008 1008 1008 1008 1008 994 994 994 994 981 981 981 994 994 994 1008 1022 1022 1022 1036 994 994 994 981 981 981 981 981 981 994 994 1022 1022 1008 1008 994 994 994 943 968 968 955 968 968 955 968 968 994 981 981 1008 1008 968 981 981 981 981 968 968 955 955 968 943 943 943 919 931 931 943 931 955 943 919 919 919 919 897 919 919 919 919 931 943 943 943 955 931 943 955 931 943 931 931 931 931 931 931 908 931 908 931 943 943 876 782 766 766 721 728 728 721 721 721 728 728 728 808 808 845 886 897 876 886 897 931 876 865 0 0 0 0 0 0 0 897 931 955 943 908 886 826 0 0 0 533 537 0 0 0 0 0 0 0 0 0 0 0 0 0 0 0
    0 0 0 0 0 0 0 0 0 0 0 0 0 0 0 0 0 0 0 0 0 0 0 0 0 0 0 0 0 0 0 0 0 0 0 0 0 0 0 0 0 0 0 0 0 0 0 0 0 0 0 0 0 0 0 0 0 0 0 0 0 0 0 0 0 0 0 0 0 955 955 968 968 0 0 0 943 943 968 943 943 955 968 955 955 955 955 968 981 994 994 994 1008 1008 1008 1008 994 994 968 919 943 931 955 931 919 943 955 943 968 955 968 968 968 981 968 955 981 955 955 943 943 943 955 931 931 931 943 943 943 955 955 943 968 968 968 943 968 943 919 908 943 943 955 919 931 968 955 955 955 955 955 955 968 968 955 968 968 968 968 994 994 981 981 981 981 981 981 981 968 955 968 981 981 994 994 1008 994 1008 1008 981 981 968 968 968 968 981 981 981 994 994 1008 1008 1008 1008 994 994 994 931 955 955 955 955 955 943 955 955 981 981 968 981 994 943 968 955 968 968 955 955 943 943 955 931 943 931 908 931 931 931 919 943 943 919 908 919 908 886 919 908 919 919 931 943 931 943 955 931 931 943 919 931 919 919 919 908 908 908 886 897 876 886 897 919 855 766 774 766 721 735 735 728 728 728 0 728 735 808 799 836 876 876 876 876 886 897 865 865 0 0 855 0 0 0 0 855 865 886 886 855 855 0 0 0 0 529 533 504 0 0 521 0 102 102 0 0 0 0 0 0 0 0
    0 0 0 0 0 0 0 0 0 0 0 0 0 0 0 0 0 0 0 0 0 0 0 0 0 0 0 0 0 0 0 0 0 0 0 0 0 0 0 0 0 0 0 0 0 0 0 0 0 0 0 0 0 0 0 0 0 0 0 0 0 0 0 0 0 0 0 0 0 943 943 955 968 919 931 919 919 919 943 931 931 943 955 943 943 943 955 955 968 981 981 981 994 994 994 994 981 981 968 908 943 919 943 919 897 931 943 931 955 943 955 955 955 968 955 943 968 955 955 943 943 943 943 919 919 931 943 931 931 943 943 943 955 955 943 931 955 931 897 897 943 943 955 919 919 955 955 955 955 943 943 943 955 968 943 955 955 955 955 981 981 968 968 968 955 968 968 968 955 955 955 968 968 981 981 994 968 994 981 955 968 955 955 943 943 955 955 968 981 968 994 994 1008 1008 994 994 994 931 968 955 955 955 955 943 955 943 981 955 943 968 981 919 968 943 955 968 943 943 943 943 943 931 931 931 897 931 908 908 897 919 919 897 886 908 897 886 908 897 919 919 931 943 943 943 955 931 931 931 908 919 908 908 908 897 897 897 876 897 876 886 886 908 855 782 791 766 721 743 735 728 728 735 0 735 735 817 791 836 876 876 876 886 886 897 876 876 865 855 865 845 0 0 0 836 836 855 865 836 845 0 0 490 487 529 533 511 0 0 525 0 102 102 102 0 618 0 0 0 0 0
    0 0 0 0 0 0 0 0 0 0 0 0 0 0 0 0 0 0 0 0 0 0 0 0 0 0 0 0 0 0 0 0 0 0 0 0 0 0 0 0 0 0 0 0 0 0 0 0 0 0 0 0 0 0 0 0 0 0 0 0 0 0 0 0 0 0 0 0 0 931 931 943 955 886 897 886 897 897 919 908 919 931 943 919 943 931 943 943 968 955 968 968 981 981 981 981 968 955 955 919 931 931 943 919 897 931 943 919 943 931 943 943 943 968 955 931 955 955 955 943 943 943 943 908 919 931 931 919 931 931 943 931 955 955 931 919 943 919 886 886 943 931 955 931 908 955 943 943 943 943 943 943 955 968 931 955 955 955 955 968 968 955 968 955 943 955 955 955 943 943 943 943 955 968 968 968 955 968 968 919 943 931 931 919 931 943 931 943 968 955 981 981 994 994 981 994 981 931 955 955 943 943 943 919 943 943 968 943 943 955 955 908 955 931 955 955 931 943 943 931 943 919 931 919 897 919 897 897 886 919 897 876 876 897 886 886 908 897 919 919 931 943 943 943 955 931 943 943 908 919 908 908 897 886 897 886 876 886 876 876 876 886 855 782 799 766 721 743 735 728 728 735 0 0 735 808 782 826 876 876 876 897 886 908 886 886 876 865 876 836 826 845 836 826 826 826 845 826 0 0 493 493 490 529 533 0 0 0 0 0 102 102 102 0 623 0 0 0 0 0
    0 0 0 0 0 0 0 0 0 0 0 0 0 0 0 0 0 0 0 0 0 0 0 0 0 0 0 0 0 0 0 0 0 0 0 0 0 0 0 0 0 0 0 0 0 0 0 0 0 0 0 0 0 0 0 0 0 0 0 0 0 0 0 0 0 0 0 0 0 931 931 931 943 876 897 876 886 886 908 908 919 919 931 908 931 931 931 943 955 943 955 955 968 968 981 968 968 943 955 919 931 931 931 908 897 919 931 919 931 919 931 931 943 955 943 931 955 955 955 943 943 931 943 897 908 931 931 919 919 931 931 919 943 943 908 908 919 908 876 886 931 931 943 919 908 943 943 943 943 943 931 931 955 968 931 955 955 955 943 955 955 943 955 943 931 943 955 943 943 943 943 943 955 955 955 955 943 943 931 886 908 897 897 886 897 919 919 931 943 943 955 968 981 981 981 981 981 943 955 943 943 931 931 919 931 931 955 943 931 943 943 908 955 931 955 968 931 943 943 943 931 919 931 919 897 931 897 886 886 919 886 865 876 886 886 876 897 886 908 919 931 931 931 931 955 931 943 931 897 908 897 897 886 886 886 876 865 876 865 865 855 865 836 791 808 766 721 743 735 728 728 728 0 0 728 799 766 799 865 876 886 897 897 919 897 897 886 876 886 845 845 845 845 826 826 817 836 817 826 0 0 0 507 537 537 0 0 0 0 102 102 102 102 0 623 0 0 0 0 0
    0 0 0 0 0 0 0 0 0 0 0 0 0 0 0 0 0 0 0 0 0 0 0 0 0 0 0 0 0 0 0 0 0 0 0 0 0 0 0 0 0 0 0 0 0 0 0 0 0 0 0 0 0 0 0 0 0 0 0 0 0 0 0 0 0 0 0 0 0 919 919 931 943 876 886 876 876 886 897 897 919 919 919 908 919 931 931 943 955 943 943 955 968 968 968 968 968 943 943 919 931 931 931 908 897 919 919 919 919 908 919 908 931 943 931 919 931 943 943 943 943 919 931 886 897 931 919 919 919 919 931 919 943 943 897 897 908 886 865 865 919 908 919 908 897 943 943 931 943 931 931 943 955 968 943 955 955 955 943 955 955 943 955 919 931 943 943 943 943 931 943 931 968 955 955 955 931 931 908 886 897 886 876 865 886 897 897 919 931 931 943 955 981 968 968 968 981 943 943 931 931 919 908 908 919 931 943 931 919 931 931 908 943 919 943 955 908 943 931 943 931 919 931 908 897 931 886 886 876 908 876 865 876 876 876 855 886 876 897 908 919 919 919 919 955 919 943 931 886 897 886 886 886 876 876 876 855 865 855 855 855 855 836 791 808 758 714 735 728 721 721 721 728 0 714 791 743 774 876 886 897 908 897 919 897 897 886 876 886 855 855 855 855 836 836 826 826 826 826 728 0 0 541 541 541 0 0 0 0 0 102 102 102 0 623 0 0 0 0 0
    0 0 0 0 0 0 0 0 0 0 0 0 0 0 0 0 0 0 0 0 0 0 0 0 0 0 0 0 0 0 0 0 0 0 0 0 0 0 0 0 0 0 0 0 0 0 0 0 0 0 0 0 0 0 0 0 0 0 0 0 0 0 0 0 0 0 0 0 0 919 919 919 931 876 886 876 876 886 886 897 908 908 908 897 919 919 919 943 943 931 943 943 955 968 955 955 943 931 943 919 931 919 919 897 886 908 908 908 908 897 908 897 919 943 908 908 919 943 943 931 919 897 908 865 886 919 908 908 908 908 919 908 943 931 886 897 897 886 876 865 908 908 908 886 886 931 919 919 931 931 919 931 943 955 931 955 955 943 943 955 943 943 943 919 931 943 943 931 943 931 931 931 968 955 943 943 931 931 908 886 886 886 876 865 886 897 897 908 919 931 931 955 968 955 968 968 968 943 931 919 908 908 886 897 908 919 931 919 908 919 919 919 943 908 919 931 886 931 931 931 908 919 919 908 897 931 886 876 876 897 855 855 865 876 865 855 886 865 886 886 897 897 897 897 931 886 931 908 876 886 876 876 865 865 865 855 855 855 855 845 845 845 836 791 799 750 714 728 721 714 721 721 721 0 707 774 735 750 876 886 897 908 897 908 897 886 876 876 876 855 855 855 855 826 836 826 826 817 826 728 0 0 553 549 541 0 0 0 0 0 102 102 102 623 629 0 0 0 0 0
    0 0 0 0 0 0 0 0 0 0 0 0 0 0 0 0 0 0 0 0 0 0 0 0 0 0 0 0 0 0 0 0 0 0 0 0 0 0 0 0 0 0 0 0 0 0 0 0 0 0 0 0 0 0 0 0 0 0 0 0 0 0 0 0 0 0 0 0 0 908 919 919 931 876 886 876 876 886 886 897 897 897 897 886 897 908 908 931 919 908 919 931 943 955 931 931 919 919 919 908 919 919 908 886 886 908 908 908 897 886 897 897 919 943 908 908 908 931 931 908 897 886 886 865 876 897 897 897 897 897 908 897 931 919 886 886 897 897 886 876 908 919 908 886 886 919 908 919 919 919 908 919 943 955 919 943 943 931 931 943 931 931 943 908 919 931 931 931 931 931 931 919 955 931 931 931 908 897 886 865 876 876 865 865 876 886 886 897 919 919 919 943 955 943 943 943 943 919 908 897 886 886 876 886 897 908 908 908 897 908 897 919 931 897 897 919 876 931 931 931 897 908 908 897 897 931 876 865 865 897 855 845 855 865 855 855 886 865 886 886 886 876 876 886 908 876 908 876 855 865 865 865 855 855 855 845 845 855 855 845 836 836 826 791 808 750 707 721 714 707 714 714 714 700 694 758 728 735 826 865 876 886 886 886 886 876 876 876 876 855 855 845 845 817 826 817 817 817 826 721 0 0 557 549 541 549 549 0 549 0 0 0 0 629 629 0 0 0 0 0
    0 0 0 0 0 0 0 0 0 0 0 0 0 0 0 0 0 0 0 0 0 0 0 0 0 0 0 0 0 0 0 0 0 0 0 0 0 0 0 0 0 0 0 0 0 0 0 0 0 0 0 0 0 0 0 0 0 0 0 0 0 0 0 0 0 0 0 0 0 908 908 919 931 876 897 886 886 886 876 886 886 886 886 886 886 897 897 931 908 897 908 919 908 931 897 897 886 886 897 886 886 908 897 876 876 897 897 897 886 886 886 886 908 919 897 886 897 919 908 876 876 865 855 845 865 886 876 876 876 886 897 897 919 908 876 886 897 897 886 886 908 908 908 886 886 919 908 908 919 908 908 908 931 931 908 931 931 908 908 919 908 908 931 908 908 919 919 919 919 919 919 897 931 908 897 908 886 876 865 855 865 865 865 855 876 886 876 886 908 908 908 919 943 919 919 943 943 908 897 897 886 886 865 876 897 897 897 897 886 897 886 908 908 876 876 886 865 931 931 919 886 908 908 897 886 919 876 865 865 897 845 845 855 865 855 855 876 865 876 876 876 865 865 876 886 855 886 855 836 845 845 855 836 845 845 836 845 845 845 845 836 826 817 799 808 750 707 714 707 707 707 707 700 694 687 743 721 728 817 845 865 876 865 876 886 876 876 865 876 855 845 845 836 799 817 808 808 799 808 721 0 0 561 553 537 549 549 0 549 0 0 0 0 634 634 0 0 0 0 0
    0 0 0 0 0 0 0 0 0 0 0 0 0 0 0 0 0 0 0 0 0 0 0 0 0 0 0 0 0 0 0 0 0 0 0 0 0 0 0 0 0 0 0 0 0 0 0 0 0 0 0 0 0 0 0 0 0 0 0 0 0 0 0 0 0 0 0 0 0 908 908 908 931 886 897 886 886 886 876 876 876 876 876 876 876 886 886 919 897 886 886 908 886 919 886 876 865 865 876 876 865 886 876 865 865 886 886 886 865 865 865 865 876 886 865 865 865 897 876 845 845 845 826 836 855 865 855 865 865 865 876 886 908 897 876 886 897 897 886 886 908 908 897 876 886 897 897 897 908 897 897 897 931 908 886 919 908 897 897 908 897 897 919 897 908 919 908 908 897 908 897 886 908 886 876 886 865 865 855 845 855 855 855 855 865 876 865 876 897 897 886 908 919 908 908 931 931 897 897 897 876 876 865 876 886 886 886 886 876 886 876 886 876 865 855 865 855 919 908 897 876 897 897 886 886 908 865 865 865 876 836 836 845 845 845 836 865 855 865 865 865 855 855 855 865 845 855 836 817 826 826 836 817 826 826 826 836 845 845 836 836 817 817 799 808 743 707 707 700 700 700 700 694 687 681 735 728 735 817 836 876 876 865 865 876 865 865 865 865 836 836 826 817 791 799 791 791 782 782 721 0 0 570 553 533 549 549 0 0 0 0 0 0 634 634 0 0 0 0 0
    0 0 0 0 0 0 0 0 0 0 0 0 0 0 0 0 0 0 0 0 0 0 0 0 0 0 0 0 0 0 0 0 0 0 0 0 0 0 0 0 0 0 0 0 0 0 0 0 0 0 0 0 0 0 0 0 0 0 0 0 0 0 0 0 0 0 0 0 0 897 908 908 931 886 897 876 886 876 865 876 865 865 855 855 865 865 865 897 876 876 886 897 886 908 876 865 865 855 855 865 855 876 865 855 865 865 876 876 855 855 855 845 855 865 845 845 845 865 855 0 826 836 808 817 836 845 845 845 855 855 865 886 908 897 876 886 897 897 897 897 908 908 897 865 876 886 876 876 886 886 886 886 919 886 876 897 886 886 886 886 886 886 908 897 897 897 886 897 886 886 886 876 886 865 876 876 855 845 845 845 845 845 845 845 855 865 855 865 886 886 876 886 897 897 897 931 919 886 886 876 855 865 855 865 876 876 876 876 865 876 865 876 865 855 855 855 855 919 897 897 865 897 897 876 876 897 865 865 855 865 826 826 836 836 836 836 845 845 855 855 855 855 845 845 855 826 836 826 808 817 799 808 791 808 817 817 836 845 836 836 826 808 808 791 799 743 707 700 700 694 700 694 687 681 675 721 721 728 808 836 886 897 865 855 865 855 855 855 845 826 826 826 817 782 799 791 791 782 791 721 0 0 579 553 529 0 0 0 102 0 0 0 0 634 639 0 0 0 0 0
    0 0 0 0 0 0 0 0 0 0 0 0 0 0 0 0 0 0 0 0 0 0 0 0 0 0 0 0 0 0 0 0 0 0 0 0 0 0 0 0 0 0 0 0 0 0 0 0 0 0 0 0 0 0 0 0 0 0 0 0 0 0 0 0 0 0 0 0 0 897 897 897 919 886 886 865 876 865 855 865 855 845 855 845 855 855 855 876 855 855 865 876 865 876 855 845 845 845 845 855 845 865 855 845 855 865 865 865 845 855 845 836 855 855 845 845 845 855 855 0 826 826 799 817 826 836 836 845 845 845 855 886 897 897 876 886 897 908 908 897 908 908 897 865 876 876 865 876 876 876 876 876 897 865 855 876 865 865 876 876 876 876 897 886 897 886 886 886 876 876 876 865 876 855 865 855 845 836 845 836 845 845 845 845 855 865 845 855 865 865 865 876 886 876 886 919 897 876 865 855 836 845 836 855 855 865 865 865 855 876 855 865 855 855 855 855 855 908 886 886 865 897 897 876 876 886 855 855 855 855 826 826 826 826 826 826 845 845 855 845 845 845 836 845 836 817 826 817 808 808 782 791 774 774 791 774 817 826 817 817 808 791 791 782 791 735 707 707 700 0 700 694 687 681 675 714 714 721 799 0 955 968 886 855 865 836 845 845 836 826 826 817 817 791 799 799 791 791 782 721 0 0 584 553 521 0 0 102 102 0 0 0 0 629 639 0 0 0 0 0
    0 0 0 0 0 0 0 0 0 0 0 0 0 0 0 0 0 0 0 0 0 0 0 0 0 0 0 0 0 0 0 0 0 0 0 0 0 0 0 0 0 0 0 0 0 0 0 0 0 0 0 0 0 0 0 0 0 0 0 0 0 0 0 0 0 0 0 0 0 886 886 886 908 876 876 855 865 865 845 855 855 845 845 845 845 845 836 855 836 836 845 845 836 845 836 826 826 826 826 836 826 855 855 845 855 845 855 855 845 855 845 836 845 845 845 845 845 845 836 817 826 826 799 808 817 826 826 836 836 836 845 876 886 886 876 876 897 897 908 897 886 897 897 865 876 865 855 865 865 865 865 855 886 845 845 855 855 855 855 865 865 865 886 886 897 886 876 886 876 876 876 865 865 855 865 855 836 826 836 836 836 836 836 845 845 855 845 855 855 855 855 865 865 865 865 908 886 865 855 845 826 826 826 845 855 855 865 855 855 865 855 865 855 855 855 855 855 908 876 876 865 886 886 865 865 876 855 855 845 845 826 826 826 836 826 826 836 836 845 836 836 836 826 836 826 808 808 808 791 799 774 782 758 766 766 750 791 799 799 791 791 774 782 782 782 735 714 707 707 700 700 694 687 681 681 714 714 721 774 735 0 0 826 758 0 791 836 836 836 817 817 808 808 791 808 799 799 791 782 721 0 0 588 549 518 0 0 0 0 0 0 0 0 634 639 0 0 0 0 0
    0 0 0 0 0 0 0 0 0 0 0 0 0 0 0 0 0 0 0 0 0 0 0 0 0 0 0 0 0 0 0 0 0 0 0 0 0 0 0 0 0 0 0 0 0 0 0 0 0 0 0 0 0 0 0 0 0 0 0 0 0 0 0 0 0 0 0 0 0 855 865 865 865 845 855 0 855 855 836 855 845 0 0 836 836 836 836 845 826 826 836 836 826 826 826 826 826 826 817 826 826 845 845 836 845 845 845 855 845 855 836 836 845 845 836 836 836 826 826 808 817 817 782 808 808 817 817 826 826 826 826 865 876 876 876 876 897 897 908 897 886 886 897 855 865 855 855 855 855 855 855 845 865 836 826 845 836 845 855 855 855 855 876 886 886 876 876 876 865 865 876 855 855 855 876 845 836 826 836 836 845 836 836 836 845 855 836 845 845 845 845 855 855 855 855 897 876 865 855 855 826 826 826 845 855 855 855 855 845 855 855 855 855 855 855 855 855 897 876 876 865 886 886 855 855 865 845 845 845 845 826 826 826 836 826 826 836 826 836 826 826 826 817 817 808 799 799 791 791 791 774 774 758 774 766 766 799 808 791 791 791 766 774 782 782 735 721 714 714 707 707 694 694 687 687 714 714 721 774 750 758 791 782 758 758 743 766 791 791 782 791 791 791 774 799 799 791 782 0 0 0 0 588 549 511 533 533 529 529 0 0 525 0 634 639 0 0 0 0 0
    0 0 0 0 0 0 0 0 0 0 0 0 0 0 0 0 0 0 0 0 0 0 0 0 0 0 0 0 0 0 0 0 0 0 0 0 0 0 0 0 0 0 0 0 0 0 0 0 0 0 0 0 0 0 0 0 0 0 0 0 0 0 0 0 0 0 0 0 0 817 836 836 836 836 845 0 845 845 836 845 0 0 0 826 836 836 826 836 826 817 826 826 826 826 826 817 826 826 817 826 826 845 845 845 845 845 845 855 845 855 836 836 836 836 826 826 826 817 808 791 808 817 774 799 808 808 817 817 817 817 817 855 865 865 876 876 908 908 931 908 897 886 897 855 865 855 845 855 845 855 845 836 855 826 817 826 826 836 845 845 845 855 865 886 876 865 865 865 865 865 865 855 845 855 876 845 836 836 836 836 845 836 836 836 845 845 836 845 836 836 845 845 845 855 855 886 865 855 855 855 826 826 836 836 845 845 855 845 845 855 845 855 855 855 855 855 865 886 865 876 865 876 876 855 855 855 845 836 845 836 826 826 826 826 817 817 826 817 808 808 808 808 799 808 799 791 791 791 791 791 774 782 766 782 766 782 799 799 782 782 782 758 766 774 782 735 721 721 721 714 714 700 694 694 694 714 714 735 782 758 758 782 774 758 735 728 743 750 758 758 766 774 774 758 799 791 791 766 0 0 0 0 584 545 511 533 533 525 529 529 0 525 0 634 645 0 0 0 0 0
    0 0 0 0 0 0 0 0 0 0 0 0 0 0 0 0 0 0 0 0 0 0 0 0 0 0 0 0 0 0 0 0 0 0 0 0 0 0 0 0 0 0 0 0 0 0 0 0 0 0 0 0 0 0 0 0 0 0 0 0 0 0 0 0 0 0 0 0 0 808 826 808 817 826 0 0 0 836 817 836 0 0 0 826 826 826 817 826 817 817 826 826 826 826 817 817 817 826 817 836 826 845 845 845 855 845 845 855 836 855 826 826 826 826 826 826 817 808 799 782 808 808 766 799 799 799 817 817 817 817 808 865 855 865 876 865 908 908 919 908 897 886 897 855 865 855 0 845 845 845 845 836 845 817 808 826 826 836 845 845 845 845 865 876 865 855 865 855 845 855 855 845 836 845 876 836 836 836 836 845 845 845 836 836 836 845 836 845 836 836 845 845 845 855 855 897 865 855 855 845 817 808 826 826 836 836 845 836 836 845 836 845 845 845 855 845 865 876 855 865 865 865 865 845 845 845 845 836 845 836 836 826 826 826 817 817 808 808 799 791 791 799 791 799 782 791 791 791 791 791 774 782 766 782 758 766 758 758 750 743 750 743 750 766 766 735 728 728 721 721 714 707 700 700 700 707 714 735 766 758 750 758 750 735 714 714 721 728 735 735 743 750 750 750 791 782 774 0 0 0 0 0 588 545 514 533 533 529 529 529 0 529 0 639 651 0 0 0 0 0
    0 0 0 0 0 0 0 0 0 0 0 0 0 0 0 0 0 0 0 0 0 0 0 0 0 0 0 0 0 0 0 0 0 0 0 0 0 0 0 0 0 0 0 0 0 0 0 0 0 0 0 0 0 0 0 0 0 0 0 0 0 0 0 0 0 0 0 0 0 799 808 791 799 799 0 0 0 817 799 817 826 817 0 817 826 826 817 826 817 817 826 826 826 826 817 817 817 817 817 826 817 836 836 836 845 845 836 845 836 845 826 817 817 817 817 817 817 808 791 782 799 808 766 799 799 799 808 817 817 808 808 865 845 855 865 855 865 865 845 855 845 855 865 0 0 0 0 0 0 0 0 826 836 817 808 826 817 836 836 845 845 845 855 865 855 845 855 855 845 845 845 845 836 845 865 826 826 836 836 845 845 845 836 836 836 845 826 845 836 836 836 845 845 845 855 886 845 836 845 836 817 808 826 817 836 826 836 826 826 0 0 0 0 0 845 836 855 865 845 855 855 845 845 826 845 836 836 836 845 836 826 826 826 817 808 808 808 799 791 791 791 791 782 791 774 791 782 782 782 782 774 774 766 774 750 758 750 743 743 735 735 735 743 758 766 728 735 735 728 728 721 721 714 707 721 714 714 766 774 774 0 0 743 728 694 694 707 707 714 721 721 728 735 750 791 774 766 0 0 0 0 0 574 545 525 537 533 529 533 533 0 533 0 639 651 0 0 0 0 0
    0 0 0 0 0 0 0 0 0 0 0 0 0 0 0 0 0 0 0 0 0 0 0 0 0 0 0 0 0 0 0 0 0 0 0 0 0 0 0 0 0 0 0 0 0 0 0 0 0 0 0 0 0 0 0 0 0 0 0 0 0 0 0 0 0 0 0 0 0 799 791 774 782 782 774 766 774 799 782 817 826 817 817 817 817 817 817 817 817 808 817 826 826 826 817 808 799 808 799 808 799 817 826 826 836 836 826 836 836 845 826 817 817 808 817 817 808 799 791 791 799 808 766 791 791 791 808 808 808 808 808 855 836 845 845 817 817 836 799 817 808 836 845 0 0 0 0 836 0 0 826 817 826 808 799 817 817 826 836 836 836 836 845 855 845 836 855 845 836 836 836 836 826 836 855 817 817 836 836 836 845 836 836 836 836 845 826 845 836 826 836 836 836 836 836 845 826 817 826 817 817 808 826 817 836 836 836 826 817 0 826 826 0 0 836 826 845 845 826 836 836 826 826 808 836 836 836 836 836 836 826 817 826 817 808 808 799 799 782 782 791 782 774 782 766 782 774 774 774 766 766 766 758 766 750 750 750 743 743 735 735 735 735 750 758 728 735 735 728 728 728 735 721 721 750 714 714 774 782 766 743 728 743 728 700 694 707 707 714 721 721 728 728 758 782 766 743 0 0 0 0 549 553 541 529 537 537 533 533 533 537 537 629 639 651 0 0 0 0 0
    0 0 0 0 0 0 0 0 0 0 0 0 0 0 0 0 0 0 0 0 0 0 0 0 0 0 0 0 0 0 0 0 0 0 0 0 0 0 0 0 0 0 0 0 0 0 0 0 0 0 0 0 0 0 0 0 0 0 0 0 0 0 0 0 0 0 0 0 0 782 766 758 782 774 774 758 758 782 774 808 826 817 817 817 817 817 808 817 817 808 817 817 826 826 808 799 782 791 782 791 791 799 808 817 826 836 826 836 836 845 826 826 817 808 817 817 808 791 782 799 808 808 774 799 799 799 808 817 808 808 808 855 826 836 826 799 791 808 782 799 799 817 836 808 0 826 826 826 826 826 817 808 826 808 791 808 808 817 826 826 836 836 845 855 845 836 845 845 826 826 826 826 817 826 845 817 808 836 836 836 0 845 836 836 836 845 826 836 836 826 826 817 826 817 817 826 808 799 808 808 817 808 826 817 836 836 836 826 817 0 817 817 0 826 826 817 826 826 817 826 826 817 817 808 836 836 836 836 836 836 826 826 826 817 799 799 799 791 774 774 782 782 774 774 766 782 766 766 766 758 758 750 750 750 735 735 728 728 721 721 721 721 721 735 735 721 735 743 728 735 735 743 728 728 766 707 707 743 735 735 0 0 743 735 707 707 714 707 714 714 721 721 721 743 774 743 0 0 0 0 574 545 549 541 537 541 541 537 537 541 545 557 623 639 651 0 0 0 0 0
    0 0 0 0 0 0 0 0 0 0 0 0 0 0 0 0 0 0 0 0 0 0 0 0 0 0 0 0 0 0 0 0 0 0 0 0 0 0 0 0 0 0 0 0 0 0 0 0 0 0 0 0 0 0 0 0 0 0 0 0 0 0 0 0 0 0 0 0 0 735 743 743 766 758 750 750 750 766 766 808 817 808 808 808 808 817 799 808 808 799 817 817 0 817 791 782 766 782 774 782 782 791 799 817 826 836 826 836 836 855 836 826 826 817 817 817 808 782 791 817 817 817 782 799 799 808 817 817 808 817 817 855 836 836 826 799 782 799 774 799 799 817 826 799 826 826 826 826 817 826 817 808 826 808 791 808 808 817 826 826 836 836 845 855 845 836 845 836 826 826 826 817 817 817 836 817 808 836 836 836 0 845 845 836 845 845 817 836 826 826 826 808 817 808 808 817 799 791 799 808 817 817 826 817 836 836 836 817 817 817 808 808 817 817 808 808 817 808 799 808 817 808 799 808 826 826 836 826 836 836 826 817 817 808 799 799 791 791 774 774 774 782 774 774 758 782 766 766 766 750 758 743 743 743 721 721 714 707 694 694 687 669 687 714 721 714 735 735 728 735 735 743 735 728 774 700 700 0 714 0 0 0 743 743 707 0 0 714 714 714 714 721 707 728 0 0 0 0 0 557 553 541 545 541 541 541 545 545 545 549 566 579 618 634 651 0 0 0 0 0
    0 0 0 0 0 0 0 0 0 0 0 0 0 0 0 0 0 0 0 0 0 0 0 0 0 0 0 0 0 0 0 0 0 0 0 0 0 0 0 0 0 0 0 0 0 0 0 0 0 0 0 0 0 0 0 0 0 0 0 0 0 0 0 0 0 0 0 0 0 0 714 728 758 743 0 743 735 743 750 791 808 774 782 799 791 799 782 791 791 0 0 0 84 83 83 0 766 782 774 782 774 774 791 808 817 836 817 836 836 865 0 0 0 0 817 826 808 774 799 826 826 826 791 808 808 808 826 826 817 826 817 865 836 836 826 799 774 799 774 791 791 817 826 791 817 817 826 826 817 817 817 808 826 808 791 799 808 0 826 0 0 0 0 855 836 817 845 836 817 817 817 817 817 817 845 817 817 855 0 845 0 0 855 845 845 836 817 826 826 826 826 799 808 799 808 808 799 791 799 808 826 817 836 826 845 845 836 817 0 817 808 808 817 808 799 799 808 799 791 799 808 799 799 808 826 836 836 836 845 836 826 826 817 808 799 799 791 782 774 774 774 782 766 766 758 782 758 758 758 750 750 743 743 728 707 707 700 687 681 669 663 629 634 707 707 707 735 735 728 735 735 743 728 728 758 700 663 0 687 0 588 0 0 743 0 728 728 721 714 707 714 707 675 0 0 0 0 0 0 545 549 541 545 541 545 545 549 549 549 553 579 588 618 629 651 0 0 0 0 0
    0 0 0 0 0 0 0 0 0 0 0 0 0 0 0 0 0 0 0 0 0 0 0 0 0 0 0 0 0 0 0 0 0 0 0 0 0 0 0 0 0 0 0 0 0 0 0 0 0 0 0 0 0 0 0 0 0 0 0 0 0 0 0 0 0 0 0 0 0 0 0 721 750 735 0 0 0 728 0 0 0 0 0 758 735 743 0 0 0 0 0 0 84 83 83 0 0 0 0 782 766 774 782 799 808 0 0 0 0 0 0 0 0 0 0 0 0 0 0 0 0 826 799 808 817 817 845 836 817 0 0 876 0 836 817 791 758 791 774 791 782 817 817 774 808 817 817 826 808 808 808 799 826 799 766 782 0 0 0 0 0 0 0 0 836 808 836 826 799 808 808 808 808 808 836 817 0 0 0 0 0 865 865 855 836 826 799 826 817 817 817 791 799 799 808 808 791 791 799 799 826 826 836 826 845 845 0 817 0 808 799 799 799 799 782 791 799 782 774 791 791 791 791 799 0 0 845 836 845 836 826 826 817 799 791 791 782 774 766 766 766 774 758 758 758 782 758 750 758 743 743 735 735 714 700 700 687 669 657 639 629 613 608 629 687 694 735 735 728 735 735 743 728 721 750 687 613 0 0 584 566 0 0 0 0 0 735 721 0 687 0 663 0 0 339 0 0 529 537 537 541 0 545 541 545 545 549 553 553 561 584 593 618 629 645 0 0 0 0 0
    0 0 0 0 0 0 0 0 0 0 0 0 0 0 0 0 0 0 0 0 0 0 0 0 0 0 0 0 0 0 0 0 0 0 0 0 0 0 0 0 0 0 0 0 0 0 0 0 0 0 0 0 0 0 0 0 0 0 0 0 0 0 0 0 0 0 0 0 0 0 0 0 0 0 0 0 0 0 0 0 0 0 0 0 0 0 0 0 0 0 0 0 84 83 83 0 0 0 0 0 0 766 766 0 0 0 87 87 86 0 0 545 545 541 533 537 0 533 514 0 0 0 0 0 0 0 931 968 0 164 0 0 0 0 0 766 735 782 766 791 782 826 0 0 0 799 808 817 791 791 791 791 817 799 750 0 0 0 0 0 0 0 0 0 0 0 0 817 774 774 782 782 791 791 0 0 0 0 0 0 0 0 897 855 817 808 774 799 808 799 817 774 791 791 799 799 782 782 791 791 817 826 836 836 855 855 0 0 0 0 0 0 782 774 750 758 774 758 750 766 766 774 782 791 0 0 0 836 845 836 826 817 808 799 791 782 782 774 758 758 758 766 743 743 750 782 750 0 750 728 735 735 728 707 687 687 675 651 639 629 618 608 603 608 629 639 728 728 721 728 728 735 721 714 0 645 593 579 579 566 566 561 0 0 553 0 0 0 0 0 0 0 557 0 0 0 533 533 537 541 541 541 545 541 549 549 553 557 553 561 588 598 613 623 645 0 0 0 0 0
    0 0 0 0 0 0 0 0 0 0 0 0 0 0 0 0 0 0 0 0 0 0 0 0 0 0 0 0 0 0 0 0 0 0 0 0 0 0 0 0 0 0 0 0 0 0 0 0 0 0 0 0 0 0 0 0 0 0 0 0 0 0 0 0 0 0 0 0 0 0 0 0 0 0 0 0 0 0 0 0 0 0 579 579 0 561 0 0 0 0 541 0 0 0 0 545 541 0 0 0 0 0 0 0 87 87 87 87 87 0 541 541 545 541 537 537 537 533 514 0 504 0 0 0 0 0 0 1051 0 163 0 0 0 0 0 0 0 782 0 0 0 0 0 537 0 0 0 782 750 743 0 774 817 791 0 0 0 0 0 0 0 0 0 0 0 0 0 0 728 728 0 0 0 0 76 75 0 0 0 0 0 0 0 0 0 0 0 0 774 774 799 758 774 782 782 791 766 782 782 782 817 817 0 0 0 0 514 0 0 0 0 0 0 0 0 735 750 743 728 750 743 0 0 0 0 0 0 836 836 836 817 808 799 791 782 782 774 766 758 758 743 750 728 0 0 0 0 545 553 0 0 0 721 681 669 669 657 639 634 623 613 603 598 603 608 608 721 721 714 721 714 721 707 0 0 608 574 561 566 561 566 557 0 0 545 0 0 0 0 579 557 574 549 0 549 541 537 537 541 545 545 545 545 545 549 545 553 557 553 561 593 603 613 623 645 0 0 0 0 0
    0 0 0 0 0 0 0 0 0 0 0 0 0 0 0 0 0 0 0 0 0 0 0 0 0 0 0 0 0 0 0 0 0 0 0 0 0 0 0 0 0 0 0 0 0 0 0 0 0 0 0 0 0 0 0 0 0 0 0 0 0 0 0 0 0 0 0 0 0 593 603 0 0 0 0 0 0 0 0 0 0 566 561 561 579 553 545 545 541 549 545 541 545 541 545 545 545 0 0 0 0 0 0 0 87 87 87 87 87 553 541 541 541 541 537 537 537 533 521 0 511 500 497 0 0 0 0 0 0 0 0 553 541 537 545 0 0 0 0 0 0 0 549 541 545 570 561 0 0 0 561 0 0 0 557 557 553 553 553 0 0 0 0 0 0 0 0 0 0 598 0 0 0 0 0 0 0 0 0 0 0 0 545 545 541 541 541 566 574 0 0 735 758 758 766 766 750 766 766 766 808 0 0 0 0 529 525 525 525 525 529 514 0 0 0 0 0 0 0 0 728 0 0 0 0 0 0 0 799 817 799 791 774 791 782 774 766 766 758 750 743 743 714 0 0 541 545 545 549 553 549 584 700 634 634 645 634 629 623 613 608 593 593 598 598 603 0 0 634 0 675 0 593 561 561 566 557 553 553 553 561 553 574 557 537 0 0 0 533 545 545 553 545 545 545 541 537 541 541 545 545 545 545 545 549 545 553 553 549 557 593 603 613 623 639 0 0 0 0 0
    0 0 0 0 0 0 0 0 0 0 0 0 0 0 0 0 0 0 0 0 0 0 0 0 0 0 0 0 0 0 0 0 0 0 0 0 0 0 0 0 0 0 0 0 0 0 0 0 0 0 0 0 0 0 0 0 0 0 0 0 0 0 0 0 0 0 0 0 0 584 593 0 0 0 0 0 0 0 0 0 549 553 549 553 566 553 549 545 545 553 549 545 549 545 545 545 549 549 549 0 0 0 0 0 0 0 0 87 0 549 537 541 541 541 537 537 537 533 525 529 518 507 504 511 521 518 521 0 0 0 545 549 541 537 541 541 537 541 545 537 541 553 553 549 549 566 557 553 570 561 557 553 0 574 549 549 545 545 545 545 545 0 0 0 0 557 553 579 593 579 0 588 566 0 0 0 0 0 0 541 533 537 537 537 537 537 537 553 557 561 553 0 743 743 743 750 735 750 750 743 0 0 0 533 533 529 529 529 529 529 529 521 525 533 537 537 0 0 0 0 0 0 0 0 0 0 0 553 0 0 0 766 0 766 766 766 750 750 750 743 735 728 0 557 545 541 541 541 545 549 545 557 0 0 613 623 618 613 613 603 598 588 588 593 588 593 593 603 593 584 588 557 553 541 545 549 549 549 553 553 561 557 570 553 537 525 0 529 525 537 537 545 537 541 545 541 537 541 541 545 545 545 541 545 545 545 553 553 549 557 593 598 603 613 634 0 0 0 0 0
    0 0 0 0 0 0 0 0 0 0 0 0 0 0 0 0 0 0 0 0 0 0 0 0 0 0 0 0 0 0 0 0 0 0 0 0 0 0 0 0 0 0 0 0 0 0 0 0 0 0 0 0 0 0 0 0 0 0 0 0 0 0 0 0 0 0 0 0 0 570 584 561 0 0 0 541 0 0 549 545 545 545 549 549 561 553 553 549 549 553 549 549 549 545 545 545 549 549 549 0 553 557 566 561 561 557 553 0 545 545 537 537 541 541 537 537 537 537 529 533 525 514 507 514 525 518 521 0 533 541 545 549 541 541 545 549 545 545 549 541 545 553 553 549 549 561 553 549 557 553 549 549 553 557 541 545 545 545 545 545 545 545 549 549 549 553 549 566 574 566 557 561 549 0 0 0 0 0 533 537 533 537 537 537 537 537 537 549 553 557 553 549 0 728 728 735 0 0 0 0 0 0 537 533 533 529 529 529 529 529 529 521 529 533 537 537 541 549 553 570 598 588 0 0 0 553 0 541 537 537 537 0 566 0 758 750 750 743 743 743 728 0 557 549 541 541 541 541 545 545 545 549 549 557 598 613 603 598 598 593 598 584 588 588 584 588 584 584 557 545 541 537 541 537 541 541 541 545 553 553 553 545 545 533 518 514 525 518 518 529 529 537 533 541 541 541 537 541 541 545 541 545 545 549 553 545 557 553 549 557 593 593 593 593 623 0 0 0 0 0
    0 0 0 0 0 0 0 0 0 0 0 0 0 0 0 0 0 0 0 0 0 0 0 0 0 0 0 0 0 0 0 0 0 0 0 0 0 0 0 0 0 0 0 0 0 0 0 0 0 0 0 0 0 0 0 0 0 0 0 0 0 0 0 0 0 0 0 0 0 561 570 553 549 549 545 541 545 545 545 545 545 545 549 549 557 549 553 549 549 553 549 549 549 545 549 545 549 553 545 553 549 553 561 557 553 553 549 545 545 545 537 541 541 541 541 537 537 537 533 537 529 521 518 521 529 521 525 529 533 541 541 549 545 545 545 549 545 545 545 541 545 549 549 545 545 557 549 549 553 549 545 545 549 549 537 541 541 541 545 545 545 545 545 545 549 549 549 557 561 553 549 549 541 541 545 541 0 537 537 537 533 537 537 537 541 537 537 549 549 553 549 549 545 549 545 545 537 537 537 537 0 537 533 533 529 529 529 529 529 529 529 525 533 537 537 537 541 545 549 557 579 566 557 0 553 549 541 537 537 537 537 549 557 549 545 0 0 0 0 0 0 537 545 545 541 541 541 541 541 545 541 545 545 545 574 598 588 584 588 588 593 584 584 584 574 574 570 561 541 533 533 533 537 537 537 541 541 541 553 545 545 537 533 521 507 511 518 518 521 529 529 541 537 545 545 541 541 541 541 541 537 541 545 545 549 541 549 549 541 549 566 557 561 557 598 0 0 0 0 0
    0 0 0 0 0 0 0 0 0 0 0 0 0 0 0 0 0 0 0 0 0 0 0 0 0 0 0 0 0 0 0 0 0 0 0 0 0 0 0 0 0 0 0 0 0 0 0 0 0 0 0 0 0 0 0 0 0 0 0 0 0 0 0 0 0 0 0 0 0 557 566 553 545 545 545 541 545 545 545 545 545 545 549 549 557 553 553 549 549 557 549 549 549 545 545 545 545 549 545 549 549 549 553 553 553 549 545 545 541 545 537 541 545 545 541 541 541 541 537 537 533 525 521 521 529 525 525 529 533 541 541 549 545 545 545 549 545 545 545 541 545 549 549 549 545 553 553 549 553 549 545 545 545 545 537 537 541 541 541 545 545 545 545 545 549 549 545 553 553 549 545 545 541 541 541 537 537 537 537 537 533 537 537 537 541 537 537 545 545 549 545 549 549 549 545 545 541 537 537 537 537 537 533 533 529 529 529 529 533 529 529 525 533 537 541 541 541 541 545 549 561 553 549 549 545 541 537 537 533 537 537 545 549 545 541 549 549 549 0 541 537 533 541 541 541 541 541 545 545 545 545 545 549 549 574 593 579 574 574 579 588 570 570 566 557 557 553 545 537 521 533 533 537 537 537 537 537 541 549 541 537 533 525 514 500 504 511 511 518 525 521 533 533 545 545 541 541 541 541 541 541 545 537 537 537 525 521 525 518 518 521 514 511 507 518 0 0 0 0 0
    0 0 0 0 0 0 0 0 0 0 0 0 0 0 0 0 0 0 0 0 0 0 0 0 0 0 0 0 0 0 0 0 0 0 0 0 0 0 0 0 0 0 0 0 0 0 0 0 0 0 0 0 0 0 0 0 0 0 0 0 0 0 0 0 0 0 0 0 0 553 561 549 541 545 541 541 541 545 545 541 545 549 549 549 557 553 553 553 549 557 549 549 549 545 545 545 545 549 545 549 545 545 553 549 549 549 545 545 545 545 541 545 545 545 545 541 545 545 537 541 533 525 525 525 529 525 525 529 533 537 545 549 549 545 545 549 545 549 545 545 545 549 549 549 545 553 549 549 553 545 541 541 541 545 537 533 537 537 541 545 545 545 545 545 549 549 545 549 549 545 541 541 537 537 537 537 537 537 537 537 537 541 537 541 545 541 541 545 545 549 545 549 549 549 545 549 545 541 545 541 541 537 533 533 529 529 529 529 529 529 529 525 537 537 541 541 541 541 545 549 553 549 545 545 541 541 537 537 533 537 541 545 549 545 541 545 545 545 0 537 533 529 533 541 541 541 545 545 545 549 549 549 557 549 574 584 570 566 561 566 574 557 557 553 549 545 545 537 529 511 529 533 533 537 537 537 537 537 553 541 533 529 525 514 504 507 511 511 518 521 518 529 533 545 545 541 541 545 545 545 541 553 537 529 529 507 500 500 497 497 500 493 493 490 493 0 0 0 0 0
    0 0 0 0 0 0 0 0 0 0 0 0 0 0 0 0 0 0 0 0 0 0 0 0 0 0 0 0 0 0 0 0 0 0 0 0 0 0 0 0 0 0 0 0 0 0 0 0 0 0 0 0 0 0 0 0 0 0 0 0 0 0 0 0 0 0 0 0 0 549 557 545 537 545 541 541 541 545 545 545 545 549 549 549 553 553 553 553 549 557 549 549 549 545 549 545 545 549 545 549 545 545 549 549 549 549 549 549 545 549 541 545 545 545 545 541 545 545 537 541 533 525 525 525 533 521 518 521 525 533 541 545 545 545 545 545 545 549 549 541 545 553 553 549 545 553 553 549 553 545 541 541 541 545 537 533 537 537 541 541 545 545 545 545 545 545 541 549 545 541 541 541 537 537 541 537 541 541 541 541 537 541 541 541 549 541 545 549 545 549 549 553 553 553 549 549 549 541 549 545 541 541 533 533 529 529 529 529 529 529 529 529 537 541 541 541 545 545 545 549 553 549 545 545 541 541 541 537 537 537 541 545 549 545 541 541 541 541 541 533 533 529 533 541 545 545 545 545 545 549 549 549 557 545 570 574 561 553 553 557 561 553 545 541 541 537 537 533 525 504 525 529 533 533 537 537 537 537 553 537 533 529 525 511 507 507 511 511 518 518 511 521 533 545 549 545 545 549 549 553 549 561 537 533 521 500 500 497 497 493 497 490 493 493 493 0 0 0 0 0
    0 0 0 0 0 0 0 0 0 0 0 0 0 0 0 0 0 0 0 0 0 0 0 0 0 0 0 0 0 0 0 0 0 0 0 0 0 0 0 0 0 0 0 0 0 0 0 0 0 0 0 0 0 0 0 0 0 0 0 0 0 0 0 0 0 0 0 0 0 545 553 545 537 541 545 541 541 545 545 545 545 549 549 549 553 557 553 553 549 557 549 549 553 549 549 549 545 549 545 545 545 545 549 545 549 549 549 549 545 549 541 545 545 545 545 541 545 545 541 545 537 529 529 529 533 525 514 514 518 525 533 541 541 0 541 545 545 553 549 545 549 557 557 553 549 557 553 549 553 545 545 541 541 545 537 533 537 533 537 541 541 541 541 541 541 541 541 545 541 541 541 541 537 537 537 537 541 537 537 537 537 541 541 541 553 545 545 549 549 553 549 557 557 553 553 553 553 545 553 545 545 541 537 533 529 529 533 529 533 529 533 529 537 541 545 545 545 545 545 549 553 549 549 549 545 545 545 541 541 541 545 549 549 549 541 541 541 541 541 537 533 529 537 541 545 545 545 545 545 549 549 549 553 545 566 566 557 549 545 553 553 549 541 533 537 533 533 525 521 500 525 529 529 533 533 533 533 533 545 533 529 529 521 511 507 507 511 511 518 514 507 514 529 545 545 541 545 553 553 553 549 557 533 529 507 497 497 497 493 490 493 490 490 497 497 0 0 0 0 0
    0 0 0 0 0 0 0 0 0 0 0 0 0 0 0 0 0 0 0 0 0 0 0 0 0 0 0 0 0 0 0 0 0 0 0 0 0 0 0 0 0 0 0 0 0 0 0 0 0 0 0 0 0 0 0 0 0 0 0 0 0 0 0 0 0 0 0 0 0 545 549 545 537 545 545 541 541 545 545 545 545 549 549 545 553 557 553 553 553 557 549 549 553 549 549 549 545 549 545 545 545 541 549 545 549 553 549 549 545 549 545 545 549 545 545 0 0 545 541 549 541 533 533 533 541 533 525 521 521 525 533 541 0 0 0 545 545 549 549 545 553 557 561 553 549 557 553 549 553 545 545 541 541 549 533 533 533 533 533 537 537 541 537 541 541 541 537 541 541 541 541 541 537 537 537 537 537 537 537 537 537 541 541 545 553 545 549 549 549 553 553 561 561 557 557 557 557 549 557 549 545 541 537 533 533 529 533 529 533 533 533 533 541 541 545 545 549 549 549 553 553 553 549 553 545 549 549 545 541 541 545 549 549 549 541 545 541 545 545 537 533 533 537 0 545 545 545 545 545 549 549 549 553 545 561 557 549 545 545 549 549 545 533 529 533 525 525 521 514 497 521 525 525 529 529 533 533 533 541 525 521 525 521 507 507 507 507 511 514 507 504 507 521 533 537 537 541 549 545 549 549 545 525 518 497 497 493 497 493 490 493 490 490 497 493 0 0 0 0 0
    0 0 0 0 0 0 0 0 0 0 0 0 0 0 0 0 0 0 0 0 0 0 0 0 0 0 0 0 0 0 0 0 0 0 0 0 0 0 0 0 0 0 0 0 0 0 0 0 0 0 0 0 0 0 0 0 0 0 0 0 0 0 0 0 0 0 0 0 0 545 549 545 537 541 545 541 541 545 545 545 541 545 545 545 549 557 549 549 549 553 549 549 549 545 549 545 545 545 545 541 545 541 545 545 553 553 549 553 545 549 545 545 549 545 545 0 0 545 545 553 545 537 537 533 545 533 529 525 525 529 537 541 0 0 0 541 545 549 549 545 553 557 561 557 549 557 553 549 553 545 545 541 541 549 537 533 537 533 537 541 541 541 537 537 537 537 537 541 537 537 541 541 537 541 541 537 541 541 541 537 537 545 545 545 553 545 553 549 553 557 557 566 566 557 557 557 561 549 557 549 545 537 537 533 533 529 533 529 533 533 533 537 541 545 545 549 549 549 549 553 553 553 549 553 549 553 549 545 545 541 545 549 545 545 541 545 545 545 545 541 537 533 537 0 545 541 541 545 545 545 545 549 553 545 561 557 553 549 549 549 549 545 533 529 529 521 518 514 511 493 521 525 525 525 529 529 529 529 537 525 521 525 521 507 507 504 507 511 507 504 497 500 514 518 521 521 525 533 533 537 533 525 504 507 490 497 497 497 493 493 493 493 493 500 493 0 0 0 0 0
    0 0 0 0 0 0 0 0 0 0 0 0 0 0 0 0 0 0 0 0 0 0 0 0 0 0 0 0 0 0 0 0 0 0 0 0 0 0 0 0 0 0 0 0 0 0 0 0 0 0 0 0 0 0 0 0 0 0 0 0 0 0 0 0 0 0 0 0 0 545 549 545 537 541 545 541 541 545 545 545 545 549 545 545 549 553 549 549 549 549 545 545 549 545 545 545 545 545 545 541 541 537 541 541 545 545 545 549 545 549 545 545 549 549 545 0 0 549 545 553 545 533 533 533 537 529 529 521 525 525 533 537 0 0 0 541 545 549 549 545 553 557 561 557 545 557 553 549 553 545 545 541 541 553 537 533 537 533 533 537 541 537 533 537 533 533 533 537 537 537 541 541 541 541 541 541 545 541 545 541 541 545 545 549 557 549 557 549 553 557 557 574 566 561 561 561 566 553 557 549 545 537 537 533 533 529 533 529 533 533 533 541 545 545 549 549 553 549 549 557 553 553 549 549 549 549 549 545 545 541 545 549 549 545 541 541 545 545 549 541 537 533 537 0 541 537 541 541 545 545 545 549 553 545 566 557 553 549 549 553 549 545 533 529 525 518 514 514 511 497 521 525 525 525 529 529 529 529 537 521 518 521 518 504 504 504 504 507 504 497 493 493 514 507 507 507 504 507 518 514 518 0 484 497 490 497 497 497 493 493 497 493 490 497 487 0 0 0 0 0
    0 0 0 0 0 0 0 0 0 0 0 0 0 0 0 0 0 0 0 0 0 0 0 0 0 0 0 0 0 0 0 0 0 0 0 0 0 0 0 0 0 0 0 0 0 0 0 0 0 0 0 0 0 0 0 0 0 0 0 0 0 0 0 0 0 0 0 0 0 545 549 545 533 541 545 541 537 541 545 541 541 549 545 545 545 553 549 549 549 545 545 541 545 545 545 545 0 545 0 0 541 529 533 533 537 541 541 545 541 549 545 549 549 549 549 0 0 549 549 557 545 533 533 533 537 529 525 521 521 525 533 537 0 0 0 541 545 549 549 545 553 557 561 557 545 553 553 549 553 545 541 541 541 553 537 533 533 529 529 533 537 533 529 533 533 533 533 537 537 541 545 545 541 545 545 541 545 545 545 541 541 545 545 549 557 549 561 549 557 561 561 574 570 566 570 566 574 557 557 553 545 541 537 533 533 533 533 529 533 533 537 541 549 549 549 553 553 553 553 557 549 549 549 549 545 549 545 545 545 541 545 545 545 545 541 541 545 545 549 541 537 533 533 537 541 537 541 541 545 545 545 549 553 549 561 561 553 549 553 553 549 545 533 529 529 521 518 514 514 500 521 525 525 525 529 529 533 529 537 521 521 521 518 504 504 504 504 504 500 493 493 493 507 497 490 490 487 481 484 487 487 477 484 493 487 493 493 493 493 490 493 490 490 497 484 0 0 0 0 0
    0 0 0 0 0 0 0 0 0 0 0 0 0 0 0 0 0 0 0 0 0 0 0 0 0 0 0 0 0 0 0 0 0 0 0 0 0 0 0 0 0 0 0 0 0 0 0 0 0 0 0 0 0 0 0 0 0 0 0 0 0 0 0 0 0 0 0 0 0 541 0 0 0 0 0 533 0 0 541 541 541 549 545 545 545 553 549 549 545 545 541 0 545 545 545 545 0 545 0 537 537 525 529 529 537 537 541 545 541 549 545 549 549 549 549 545 549 549 549 557 549 537 537 533 537 529 529 521 521 525 529 533 533 0 0 533 545 549 549 545 553 561 570 557 541 553 549 549 549 541 541 537 537 553 533 533 529 525 525 525 529 529 525 533 533 533 537 541 541 541 545 545 545 545 545 541 545 545 545 541 541 545 545 553 561 553 570 553 566 570 566 579 574 570 574 570 579 561 561 557 549 541 541 533 533 533 537 533 537 537 537 541 549 545 549 553 553 549 553 557 549 553 549 549 545 545 545 545 541 541 541 541 545 545 541 541 545 545 549 537 537 533 533 537 541 537 541 541 541 545 545 549 549 545 557 553 549 545 545 549 545 541 533 529 525 521 518 514 511 500 521 525 525 525 529 529 533 529 533 521 521 518 518 504 504 500 504 500 497 490 493 487 493 481 481 481 477 474 474 477 477 474 474 481 481 490 490 490 490 487 490 490 490 497 484 0 0 0 0 0
    0 0 0 0 0 0 0 0 0 0 0 0 0 0 0 0 0 0 0 0 0 0 0 0 0 0 0 0 0 0 0 0 0 0 0 0 0 0 0 0 0 0 0 0 0 0 0 0 0 0 0 0 0 0 0 0 0 0 0 0 0 0 0 0 0 0 0 0 0 0 0 0 0 0 0 521 0 0 0 537 537 545 0 0 541 553 545 541 0 0 0 0 545 0 0 0 0 0 0 537 541 525 525 533 537 537 541 545 0 545 545 549 549 549 549 549 549 549 0 0 0 0 541 537 0 533 533 529 525 525 529 529 529 0 0 525 545 545 545 545 557 566 574 557 541 553 549 545 549 541 537 537 537 0 0 533 0 521 518 521 521 521 518 529 529 533 537 541 541 541 545 545 545 545 545 545 545 545 545 541 541 545 545 553 557 553 0 0 574 574 574 584 574 570 579 574 579 561 557 557 549 545 541 533 0 533 537 533 537 537 533 541 545 545 549 549 553 549 553 557 553 553 553 549 545 545 545 545 541 541 541 537 541 541 541 541 541 545 549 537 537 533 533 533 541 537 541 541 541 545 545 545 545 541 0 0 537 537 537 541 541 537 533 529 518 518 518 514 511 504 525 525 521 525 529 529 533 529 533 525 525 521 518 504 504 500 500 500 497 490 493 487 487 477 477 477 474 471 468 471 471 471 471 471 471 487 487 490 487 487 490 490 490 493 481 0 0 0 0 0
    0 0 0 0 0 0 0 0 0 0 0 0 0 0 0 0 0 0 0 0 0 0 0 0 0 0 0 0 0 0 0 0 0 0 0 0 0 0 0 0 0 0 0 0 0 0 0 0 0 0 0 0 0 0 0 0 0 0 0 0 0 0 0 0 0 0 0 0 0 0 0 0 0 0 0 0 0 0 0 533 533 541 0 0 537 549 541 537 0 0 0 0 545 549 549 0 0 0 0 0 537 514 511 533 0 533 541 545 0 549 541 545 549 549 553 549 549 549 0 0 0 0 545 0 0 537 0 0 533 529 537 533 533 0 0 518 0 541 0 0 553 561 570 553 525 545 541 541 545 537 533 533 533 112 0 0 0 514 507 518 514 514 511 525 529 529 537 541 541 545 545 549 545 545 545 545 545 545 545 541 541 545 545 553 553 549 0 0 584 579 579 579 570 566 579 570 566 553 549 549 541 537 537 0 0 0 0 533 537 537 533 545 545 545 549 553 549 549 553 557 553 553 553 549 545 545 545 545 541 537 541 537 541 537 541 537 541 545 549 537 533 533 533 533 541 537 541 541 541 541 541 545 541 537 0 0 533 533 533 533 529 533 529 521 507 504 504 507 507 504 521 521 518 521 525 525 529 525 529 521 521 521 518 504 504 500 500 497 493 490 490 484 481 477 477 474 471 471 468 468 468 471 468 465 471 484 484 487 487 484 487 487 484 484 471 0 0 0 0 0
    0 0 0 0 0 0 0 0 0 0 0 0 0 0 0 0 0 0 0 0 0 0 0 0 0 0 0 0 0 0 0 0 0 0 0 0 0 0 0 0 0 0 0 0 0 0 0 0 0 0 0 0 0 0 0 0 0 0 0 0 0 0 0 0 0 0 0 0 0 0 0 0 0 474 0 0 0 0 0 529 525 537 537 533 533 541 537 533 0 0 0 541 549 549 549 545 0 0 0 0 500 484 471 474 477 477 474 0 0 0 0 0 549 553 549 549 549 0 0 106 0 0 0 0 0 0 553 0 537 537 0 533 0 493 484 504 0 0 0 0 0 0 557 545 507 533 533 537 537 529 525 525 525 112 0 0 0 497 497 504 500 504 500 521 529 533 541 541 541 545 545 549 545 545 545 545 545 545 545 541 541 541 541 545 545 0 0 0 0 570 570 574 570 566 570 561 549 541 541 537 533 529 529 0 0 0 0 529 533 537 529 545 545 545 549 549 549 549 549 557 549 549 549 545 541 541 541 541 537 533 537 533 533 533 533 533 537 541 541 533 529 533 529 533 537 537 537 541 537 541 541 545 537 537 0 0 529 529 525 525 514 521 511 504 490 490 490 497 500 500 521 521 518 521 525 525 529 525 525 521 518 518 514 504 500 497 500 497 490 490 490 481 477 474 474 468 468 468 465 465 468 468 465 459 471 484 484 487 487 484 487 484 481 477 468 0 0 0 0 0
    0 0 0 0 0 0 0 0 0 0 0 0 0 0 0 0 0 0 0 0 0 0 0 0 0 0 0 0 0 0 0 0 0 0 0 0 0 0 0 0 0 0 0 0 0 0 0 0 0 0 0 0 0 0 0 0 0 0 0 0 0 0 0 0 0 0 0 0 0 0 0 0 471 471 474 481 481 0 504 507 504 521 525 521 525 537 533 514 0 0 525 521 541 537 537 525 0 0 238 0 0 471 459 462 462 465 465 465 468 468 474 0 0 0 0 0 0 0 0 106 105 0 0 0 0 0 0 537 533 533 0 0 0 0 0 493 484 500 0 0 0 0 545 541 497 525 529 529 529 518 514 507 514 112 0 0 490 484 484 490 490 493 493 518 525 533 541 541 541 545 545 549 545 545 549 545 549 549 545 541 541 541 541 541 533 0 0 0 0 0 0 0 0 557 549 545 537 518 514 514 514 514 507 500 511 500 514 514 521 521 511 541 541 541 545 549 545 545 545 553 545 545 545 537 529 533 533 533 529 521 525 525 518 511 507 493 500 514 511 500 487 511 514 521 533 533 537 541 537 537 537 541 537 533 533 533 521 525 518 514 493 504 497 493 484 484 484 490 497 504 518 521 514 521 525 525 529 525 521 518 514 514 511 500 497 497 497 493 490 487 487 474 471 468 471 465 465 462 462 462 465 462 462 451 465 477 477 484 484 481 484 481 474 474 462 0 0 0 0 0</data></depth>
</opencv_storage>
