<?xml version="1.0"?>
<opencv_storage>
<gps_time_stamp>35132</gps_time_stamp>
<gps_x>-1.2045804977416992e+001</gps_x>
<gps_y>1.1605367660522461e+000</gps_y>
<gps_z>-3.0643606185913086e+000</gps_z>
<image_time_stamp>23066</image_time_stamp>
<depth type_id="opencv-matrix">
  <rows>85</rows>
  <cols>320</cols>
  <dt>s</dt>
  <data>
    0 0 0 0 0 0 0 0 0 0 0 0 0 0 0 0 0 0 0 0 0 0 0 0 0 0 0 0 0 0 0 0 0 0 0 0 0 0 0 0 0 0 0 0 0 0 0 0 0 0 0 0 0 0 0 0 0 0 0 0 0 0 0 0 0 0 0 0 0 8177 8177 8177 0 0 0 0 0 0 0 6690 7359 7359 7359 7359 6690 6690 6690 6133 8177 8177 8177 8177 7359 5256 7359 7359 8177 7359 7359 8177 8177 9199 0 0 0 0 0 0 0 0 0 0 0 0 0 8177 0 7359 8177 7359 0 0 0 0 0 0 0 0 0 0 0 0 0 0 0 0 0 0 0 0 0 0 0 0 0 0 0 0 0 0 0 0 0 0 0 7359 7359 8177 8177 7359 0 0 0 0 0 0 0 0 0 8177 0 0 7359 3679 0 0 0 0 0 0 80 0 0 8177 8177 8177 8177 0 0 0 0 0 0 0 0 0 0 8177 0 0 8177 8177 0 0 0 0 0 0 0 0 0 8177 7359 6690 6690 4599 3345 3679 2943 2830 3066 3199 3199 3345 3679 5661 4906 4906 4599 4599 4906 4329 4599 4599 4329 4329 4329 4599 4599 4329 4329 3873 3873 4088 3679 4088 4088 3873 3679 4088 4088 4088 4088 5256 4088 4088 3873 4906 3504 3199 3679 3504 3504 3345 3345 3345 3345 3345 3679 3199 3066 3066 3199 3066 2943 2943 2943 2943 2830 2830 2725 2725 2453 2299 2164 2102 2102 1989 1989 1936 1839 1839 1795 1795 1795 1711 1752 1711 1711 1711 1672 1711 1672 1635 1672 1635 1635 1599 1565 1635 1635 1565 1599 1533 1533 0 0 0 0 0
    0 0 0 0 0 0 0 0 0 0 0 0 0 0 0 0 0 0 0 0 0 0 0 0 0 0 0 0 0 0 0 0 0 0 0 0 0 0 0 0 0 0 0 0 0 0 0 0 0 0 0 0 0 0 0 0 0 0 0 0 0 0 0 0 0 0 0 0 0 8177 8177 8177 0 0 0 0 0 0 0 7359 7359 7359 7359 7359 7359 7359 6690 5661 8177 0 8177 8177 7359 5256 7359 7359 8177 7359 7359 7359 8177 8177 0 0 8177 0 0 0 0 0 0 0 8177 0 8177 8177 0 0 8177 7359 0 0 0 0 0 0 0 0 0 0 0 0 0 0 0 0 0 0 0 0 0 0 0 0 0 0 0 0 0 0 0 0 0 0 0 7359 7359 8177 8177 7359 0 0 8177 0 0 0 0 0 0 7359 8177 8177 5661 3345 0 0 0 0 0 0 80 0 0 8177 8177 8177 8177 0 0 0 0 0 0 0 0 0 0 7359 0 0 8177 8177 0 0 0 0 0 0 0 0 0 8177 7359 6690 6690 4329 3199 3345 2830 2830 2943 3066 3199 3345 3873 5256 4599 4906 4329 4599 4599 4329 4599 4599 4329 4599 4599 4906 4329 4329 4329 3873 4088 4088 3679 4088 4088 3873 3679 4088 4088 4088 4088 5256 4088 4088 3873 4599 3345 3199 3504 3345 3345 3199 3345 3345 3199 3345 3504 3199 3199 3066 3199 3066 3066 3066 2943 2943 2830 2725 2725 2628 2453 2230 2164 2044 2044 1989 1989 1936 1839 1839 1752 1795 1752 1711 1711 1711 1672 1711 1635 1711 1672 1635 1672 1635 1635 1635 1599 1672 1672 1599 1635 1533 1533 0 0 0 0 0
    0 0 0 0 0 0 0 0 0 0 0 0 0 0 0 0 0 0 0 0 0 0 0 0 0 0 0 0 0 0 0 0 0 0 0 0 0 0 0 0 0 0 0 0 0 0 0 0 0 0 0 0 0 0 0 0 0 0 0 0 0 0 0 0 0 0 0 0 0 0 8177 8177 0 0 0 0 0 0 0 8177 8177 7359 7359 7359 7359 7359 6690 6133 0 0 8177 8177 8177 5661 7359 7359 8177 7359 7359 7359 8177 8177 0 0 8177 0 0 0 0 0 0 0 8177 0 8177 7359 0 0 7359 6690 0 0 0 0 0 0 0 0 0 0 0 0 0 0 0 0 0 0 0 0 0 0 0 0 0 0 0 0 0 0 0 0 0 0 0 8177 8177 0 8177 7359 0 0 8177 8177 8177 0 8177 7359 7359 6690 6690 7359 4599 3345 0 0 0 0 0 0 80 0 0 8177 8177 8177 0 0 8177 0 0 0 0 8177 8177 8177 8177 6690 8177 8177 8177 8177 0 0 0 0 0 0 0 0 0 7359 6690 6690 6690 4088 3066 3066 2725 2725 2830 2943 3199 3345 3679 5256 4329 4599 4329 4599 4599 4599 4599 4599 4329 4906 4599 4906 4329 4329 4329 4088 4088 4329 3679 4088 4088 4088 3873 4088 4329 4329 4088 5661 3873 3873 3873 4088 3345 3199 3345 3345 3345 3199 3345 3345 3345 3504 3504 3199 3199 3066 3199 3066 3066 3066 2943 2943 2830 2830 2725 2628 2453 2299 2230 2044 2164 2044 2102 1989 1887 1887 1795 1795 1795 1711 1711 1672 1672 1711 1635 1672 1672 1635 1672 1635 1635 1599 1599 1635 1635 1599 1635 1533 1533 0 0 0 0 0
    0 0 0 0 0 0 0 0 0 0 0 0 0 0 0 0 0 0 0 0 0 0 0 0 0 0 0 0 0 0 0 0 0 0 0 0 0 0 0 0 0 0 0 0 0 0 0 0 0 0 0 0 0 0 0 0 0 0 0 0 0 0 0 0 0 0 0 0 0 0 8177 8177 0 0 0 0 0 0 0 7359 7359 7359 7359 6690 6690 6690 6690 6133 0 0 0 0 0 6133 8177 8177 8177 7359 7359 8177 8177 0 0 0 0 0 0 0 0 0 0 0 8177 0 0 7359 0 0 7359 6690 0 0 0 0 0 0 0 0 0 0 0 0 0 0 0 0 0 0 0 0 0 0 0 0 0 0 0 0 0 0 0 0 0 0 0 0 0 0 0 7359 0 0 8177 8177 8177 0 8177 7359 7359 6690 6690 8177 5661 3504 0 0 0 0 0 0 80 0 0 8177 8177 8177 0 0 8177 0 0 8177 8177 7359 7359 7359 8177 6690 7359 8177 8177 8177 0 0 0 0 0 0 8177 8177 0 7359 6690 6690 6690 4088 3199 3199 2830 2830 2943 3066 3199 3345 3873 4906 4329 4906 4329 4906 4599 4599 4599 4329 4329 4906 4329 4599 4329 4329 4329 4088 4088 4329 3504 4088 4088 4088 4088 4088 4329 4329 4088 6133 3679 3679 3504 3679 3345 3199 3345 3345 3345 3199 3345 3345 3199 3345 3345 3066 3066 3066 3199 3066 3066 3066 2943 2943 2943 2830 2830 2725 2628 2453 2299 2164 2299 2102 2164 1989 1887 1887 1795 1795 1752 1711 1672 1635 1635 1672 1599 1672 1635 1635 1635 1635 1635 1599 1565 1635 1635 1599 1635 1533 1533 0 0 0 0 0
    0 0 0 0 0 0 0 0 0 0 0 0 0 0 0 0 0 0 0 0 0 0 0 0 0 0 0 0 0 0 0 0 0 0 0 0 0 0 0 0 0 0 0 0 0 0 0 0 0 0 0 0 0 0 0 0 0 0 0 0 0 0 0 0 0 0 0 0 0 0 8177 0 0 0 0 0 0 0 0 6690 7359 7359 6690 6690 6133 6133 6133 5661 0 0 0 0 0 6690 8177 8177 8177 7359 7359 8177 8177 0 0 0 0 0 0 0 0 0 0 0 0 0 0 7359 0 0 7359 6690 0 0 0 0 0 0 0 0 0 0 0 0 0 0 0 0 0 0 0 0 0 0 0 0 0 0 0 0 0 0 0 0 0 0 0 0 0 0 0 8177 0 9199 8177 8177 0 0 8177 7359 8177 6690 7359 8177 5661 3345 0 0 0 0 0 0 80 0 0 8177 0 0 0 0 8177 0 0 8177 8177 7359 7359 6690 7359 6133 6690 8177 8177 8177 0 0 0 0 0 0 0 0 0 7359 6690 6690 6690 3873 3345 3345 2943 3066 3066 3199 3345 3504 4088 4599 4088 4599 4329 4906 4599 4329 4599 4329 4599 4906 4329 4599 4088 4329 4599 3873 4088 4088 3504 4088 4088 4088 4088 4088 4329 4088 4088 6690 3345 3199 3199 3345 3199 3066 3199 3199 3199 3199 3345 3345 3199 3199 3199 3066 3066 3066 3199 3066 3066 3066 3066 3066 2943 2943 2943 2830 2725 2537 2299 2230 2230 2102 2102 1989 1887 1887 1795 1795 1711 1672 1672 1635 1599 1635 1599 1635 1635 1635 1635 1672 1635 1635 1599 1635 1635 1599 1599 1533 1533 0 0 0 0 0
    0 0 0 0 0 0 0 0 0 0 0 0 0 0 0 0 0 0 0 0 0 0 0 0 0 0 0 0 0 0 0 0 0 0 0 0 0 0 0 0 0 0 0 0 0 0 0 0 0 0 0 0 0 0 0 0 0 0 0 0 0 0 0 0 0 0 0 0 0 0 8177 0 0 0 0 0 0 0 0 7359 8177 8177 8177 7359 7359 6690 6690 6133 0 0 0 0 0 6690 8177 8177 0 7359 7359 8177 8177 0 0 0 0 0 0 0 0 0 0 0 0 0 0 7359 0 0 7359 6690 0 0 0 0 0 0 0 0 0 0 0 0 0 0 0 0 0 0 0 0 0 0 0 8177 8177 0 0 0 0 0 0 0 0 0 0 8177 0 0 0 7359 0 8177 8177 8177 0 0 8177 8177 8177 7359 8177 8177 6690 3504 0 0 0 0 0 0 80 0 0 8177 0 0 0 0 8177 0 0 8177 8177 7359 6690 6690 7359 6133 6690 8177 8177 0 0 0 0 0 0 0 0 0 0 7359 6690 6690 6690 3873 3679 3679 3199 3199 3199 3345 3504 3504 4088 4329 4088 4599 4329 4599 4599 4599 4599 4599 4906 4906 4329 4599 4329 4329 4329 3873 4088 3873 3504 4088 4088 4088 3873 4088 4599 3873 3873 6690 2943 2830 3066 3066 3066 3066 3199 3199 3199 3199 3345 3345 3199 3199 3199 3199 3066 3199 3066 3066 3066 3066 3066 3066 2943 2830 2943 2943 2830 2537 2374 2299 2230 2102 2102 1989 1887 1887 1795 1752 1711 1672 1672 1635 1599 1635 1599 1635 1635 1635 1635 1635 1635 1635 1635 1635 1599 1599 1565 1565 1533 0 0 0 0 0
    0 0 0 0 0 0 0 0 0 0 0 0 0 0 0 0 0 0 0 0 0 0 0 0 0 0 0 0 0 0 0 0 0 0 0 0 0 0 0 0 0 0 0 0 0 0 0 0 0 0 0 0 0 0 0 0 0 0 0 0 0 0 0 0 0 0 0 0 0 0 8177 8177 0 0 0 0 0 0 0 7359 7359 7359 7359 7359 6690 6690 6690 5661 0 0 0 0 0 6690 8177 8177 0 7359 7359 8177 8177 8177 0 0 0 0 0 0 0 0 0 0 0 0 0 8177 0 0 7359 7359 0 0 0 0 0 0 0 0 0 0 0 0 0 0 0 0 0 0 0 0 9199 8177 8177 7359 7359 8177 0 0 0 0 0 0 0 0 0 8177 0 8177 0 7359 0 8177 7359 8177 0 0 8177 8177 8177 7359 8177 8177 6690 3873 0 0 0 0 0 0 80 0 0 8177 0 0 0 0 8177 0 0 8177 8177 7359 6690 6690 7359 6133 6690 7359 8177 0 0 0 0 0 0 0 0 0 0 7359 7359 6690 6690 3873 3873 3873 3345 3345 3504 3504 3504 3679 4329 4329 4088 4906 4329 4599 4599 4599 4906 4906 4599 4906 4329 4599 4329 4329 4329 3679 3873 4088 3504 3873 3873 3873 3873 3873 4329 3873 3873 6133 2943 2943 2943 3066 3066 3066 3199 3345 3345 3345 3345 3345 3345 3345 3345 3199 3199 3199 3199 3066 3199 3199 3066 3066 2943 2943 2943 2943 2943 2537 2537 2453 2374 2164 2230 2044 1989 1936 1839 1795 1752 1711 1711 1635 1599 1635 1599 1672 1635 1635 1635 1635 1635 1635 1635 1599 1565 1599 1565 1533 1533 0 0 0 0 0
    0 0 0 0 0 0 0 0 0 0 0 0 0 0 0 0 0 0 0 0 0 0 0 0 0 0 0 0 0 0 0 0 0 0 0 0 0 0 0 0 0 0 0 0 0 0 0 0 0 0 0 0 0 0 0 0 0 0 0 0 0 0 0 0 0 0 0 0 0 0 8177 8177 0 0 0 0 0 0 0 8177 7359 7359 7359 6690 6690 6133 6133 5256 8177 0 0 0 0 6690 8177 8177 0 7359 7359 8177 8177 8177 0 0 0 0 0 0 0 0 0 0 0 0 0 8177 0 0 8177 7359 0 0 0 0 0 0 0 0 0 0 0 0 0 0 0 0 0 0 8177 8177 8177 8177 7359 6690 6690 8177 0 0 0 0 0 0 0 0 0 8177 8177 7359 0 8177 0 8177 8177 8177 0 0 8177 7359 8177 7359 7359 7359 6133 4906 0 0 0 0 0 0 0 0 0 8177 0 0 0 8177 7359 0 0 8177 8177 7359 6690 6690 7359 6133 6690 8177 8177 0 0 0 0 0 0 0 0 0 0 7359 7359 7359 6690 3873 4088 4329 3504 3679 3679 3679 3679 3679 4599 4599 4329 4906 4088 4599 4599 4599 4906 4599 4599 4599 4329 4599 4329 4599 4088 3679 3873 3873 3504 3873 3679 3679 3679 3679 4088 3873 3679 5661 2943 3066 3066 3066 3066 3199 3345 3345 3345 3345 3504 3345 3345 3504 3345 3345 3199 3345 3199 3066 3199 3199 3066 3199 3066 2943 2943 2943 2943 2628 2628 2537 2453 2299 2374 2164 2102 1989 1887 1839 1752 1711 1711 1672 1635 1635 1599 1672 1635 1635 1599 1635 1635 1635 1599 1599 1565 1565 1565 1533 1533 0 0 0 0 0
    0 0 0 0 0 0 0 0 0 0 0 0 0 0 0 0 0 0 0 0 0 0 0 0 0 0 0 0 0 0 0 0 0 0 0 0 0 0 0 0 0 0 0 0 0 0 0 0 0 0 0 0 0 0 0 0 0 0 0 0 0 0 0 0 0 0 0 0 0 0 8177 8177 0 0 0 0 0 0 0 0 7359 8177 8177 7359 7359 7359 6690 6133 0 0 0 0 0 6690 7359 7359 0 7359 7359 7359 8177 8177 0 0 0 0 0 0 0 0 0 0 0 0 0 0 0 0 8177 7359 0 0 0 0 0 0 0 0 0 0 0 0 0 0 0 0 0 0 8177 0 8177 8177 8177 6690 6690 7359 0 0 0 0 0 0 0 0 0 8177 8177 7359 0 7359 0 8177 7359 8177 8177 0 8177 7359 7359 7359 6690 6690 5661 5661 0 0 0 0 0 0 0 0 0 8177 0 0 0 8177 7359 0 0 8177 8177 7359 7359 7359 8177 6690 7359 8177 0 0 0 0 0 0 0 0 9199 9199 0 7359 6690 6690 6690 3873 4329 4599 3873 4088 3873 3873 3873 3873 4906 4599 4329 4599 4088 4599 4599 4906 4906 4599 4599 4599 4329 4906 4329 4329 4088 3873 4088 4088 3504 3873 3873 3873 3873 3873 4088 3679 3679 5256 3066 3066 3066 3066 3066 3199 3199 3345 3345 3345 3345 3345 3345 3345 3345 3345 3345 3345 3199 3199 3199 3199 3199 3199 3066 3066 3066 3066 3066 2725 2628 2628 2537 2453 2453 2299 2230 2044 1887 1887 1752 1752 1711 1672 1635 1635 1599 1672 1635 1635 1599 1599 1635 1599 1599 1599 1533 1565 1565 1533 1565 0 0 0 0 0
    0 0 0 0 0 0 0 0 0 0 0 0 0 0 0 0 0 0 0 0 0 0 0 0 0 0 0 0 0 0 0 0 0 0 0 0 0 0 0 0 0 0 0 0 0 0 0 0 0 0 0 0 0 0 0 0 0 0 0 0 0 0 0 0 0 0 0 0 0 0 8177 8177 0 0 0 0 0 0 0 8177 8177 8177 8177 8177 8177 8177 8177 7359 0 0 8177 8177 8177 6133 7359 7359 8177 6690 7359 7359 8177 8177 0 0 0 0 0 0 0 0 0 0 0 0 0 0 0 0 8177 7359 0 0 0 0 0 0 0 0 0 0 0 0 0 0 0 0 0 0 8177 8177 8177 8177 8177 6690 6690 7359 8177 0 0 8177 8177 0 0 0 0 0 0 7359 0 7359 0 8177 7359 8177 8177 8177 7359 6690 7359 6690 6690 6690 5661 6690 0 0 0 0 0 0 0 0 0 8177 8177 0 9199 8177 7359 0 0 0 8177 7359 7359 7359 8177 6690 8177 8177 8177 0 0 0 0 0 0 0 7359 8177 8177 6690 6133 6133 6690 3873 4599 4906 4329 4329 4329 3873 4088 4088 4906 4599 4599 4599 4088 4599 4599 4906 4906 4599 4599 4599 4329 4599 4329 4329 4088 3873 3873 4088 3504 3873 3873 3873 3873 3873 3873 3679 3679 4906 3066 3066 3066 3066 3199 3199 3199 3345 3199 3345 3345 3345 3345 3345 3345 3345 3345 3345 3199 3199 3199 3199 3199 3199 3066 3066 3066 3066 3066 2725 2628 2628 2537 2453 2453 2299 2164 2044 1887 1887 1795 1752 1752 1711 1672 1635 1635 1672 1635 1635 1599 1599 1599 1565 1599 1599 1533 1565 1565 1565 1565 0 0 0 0 0
    0 0 0 0 0 0 0 0 0 0 0 0 0 0 0 0 0 0 0 0 0 0 0 0 0 0 0 0 0 0 0 0 0 0 0 0 0 0 0 0 0 0 0 0 0 0 0 0 0 0 0 0 0 0 0 0 0 0 0 0 0 0 0 0 0 0 0 0 0 0 8177 8177 0 0 0 0 0 0 0 0 8177 0 8177 8177 8177 8177 8177 7359 0 0 8177 7359 6690 5661 6690 6690 8177 6690 7359 7359 8177 8177 0 0 0 0 0 0 0 0 0 0 0 0 0 0 0 0 0 8177 0 0 0 0 0 0 0 0 0 0 0 0 0 0 0 0 0 8177 7359 8177 7359 7359 7359 6690 6690 7359 7359 0 0 8177 8177 0 0 0 0 0 0 7359 0 6690 0 8177 7359 8177 8177 8177 7359 7359 8177 7359 6690 6690 6690 8177 0 0 0 0 0 0 0 0 0 8177 8177 0 8177 8177 7359 0 0 0 8177 7359 7359 7359 8177 6690 8177 0 0 0 0 0 0 0 0 0 7359 8177 8177 6690 6133 6690 6690 4088 4906 4906 4599 4599 4329 4088 4329 4329 5256 4599 4599 4599 4329 4599 4906 4599 4599 4599 4599 4599 4329 4599 4329 4329 4088 3873 4088 3873 3504 3873 3873 3873 3679 3873 3873 3679 3679 4906 3066 3199 3199 3199 3345 3345 3345 3345 3345 3345 3504 3504 3504 3504 3345 3345 3345 3504 3199 3199 3199 3066 3066 3066 2943 2943 3066 3066 3066 2830 2537 2628 2537 2453 2374 2230 2102 2044 1936 1887 1795 1752 1752 1711 1672 1672 1635 1672 1635 1635 1565 1565 1599 1565 1599 1565 1533 1565 1565 1533 1533 0 0 0 0 0
    0 0 0 0 0 0 0 0 0 0 0 0 0 0 0 0 0 0 0 0 0 0 0 0 0 0 0 0 0 0 0 0 0 0 0 0 0 0 0 0 0 0 0 0 0 0 0 0 0 0 0 0 0 0 0 0 0 0 0 0 0 0 0 0 0 0 0 0 0 8177 8177 8177 8177 8177 0 0 0 0 8177 8177 7359 0 0 8177 8177 8177 8177 7359 0 0 8177 7359 6690 5661 6690 6690 7359 6690 7359 7359 7359 8177 0 0 0 0 0 0 0 0 0 0 0 0 0 0 0 0 0 0 0 0 0 0 0 0 0 0 0 0 0 0 0 0 0 0 8177 7359 7359 7359 7359 7359 6690 6690 6690 7359 8177 0 0 0 8177 0 0 0 0 0 8177 7359 0 6690 0 0 8177 8177 8177 8177 7359 7359 8177 7359 6690 7359 7359 0 0 0 0 0 0 0 0 0 0 8177 8177 0 8177 8177 7359 0 8177 0 8177 7359 7359 7359 8177 7359 0 0 0 0 0 0 0 0 0 0 8177 8177 8177 7359 6690 6690 6690 4329 5661 4906 4906 4906 4599 4329 4329 4599 4906 4329 4906 4599 4329 4906 4906 4599 4599 4599 4599 4599 4329 4599 4329 4088 4088 3873 4088 3873 3504 3873 3873 3873 3679 3873 3873 3679 3504 4329 3199 3199 3199 3504 3345 3345 3345 3345 3345 3504 3504 3504 3504 3504 3345 3504 3345 3504 3199 3199 3199 3066 3199 3199 2943 2943 2943 3066 3066 2830 2537 2628 2453 2453 2299 2230 2102 1989 1887 1839 1752 1752 1752 1711 1672 1672 1635 1672 1635 1635 1565 1565 1599 1565 1599 1565 1533 1565 1565 1565 1565 0 0 0 0 0
    0 0 0 0 0 0 0 0 0 0 0 0 0 0 0 0 0 0 0 0 0 0 0 0 0 0 0 0 0 0 0 0 0 0 0 0 0 0 0 0 0 0 0 0 0 0 0 0 0 0 0 0 0 0 0 0 0 0 0 0 0 0 0 0 0 0 0 0 0 8177 8177 7359 8177 8177 0 8177 8177 8177 8177 8177 7359 0 0 0 0 0 0 8177 0 0 8177 7359 6133 5256 6133 6133 7359 6133 6690 6690 7359 7359 0 0 0 0 0 0 0 0 0 0 0 0 0 0 0 0 0 0 0 0 0 0 0 0 0 0 0 0 0 0 0 0 0 8177 7359 7359 6690 6690 6690 6690 6690 6690 6690 7359 8177 0 0 0 0 0 0 0 0 0 8177 7359 0 7359 0 0 8177 8177 8177 8177 7359 7359 8177 7359 6690 7359 6690 8177 0 0 0 0 0 0 0 0 0 8177 8177 0 8177 8177 7359 0 8177 0 0 8177 8177 8177 0 8177 0 0 0 0 0 0 0 0 0 0 7359 8177 8177 7359 6690 6690 6690 4599 6133 4599 4906 4906 4329 4599 4599 4599 4906 4329 4906 4329 4088 4906 4906 4329 4599 4599 4599 4599 4599 4906 4329 4088 4088 3873 4088 3873 3504 3873 3873 3679 3679 3873 3873 3679 3679 4329 3345 3345 3504 3504 3345 3345 3345 3345 3345 3504 3345 3504 3345 3504 3345 3504 3504 3679 3199 3199 3199 3066 3199 3199 2943 2830 2943 3066 3066 2830 2537 2628 2453 2453 2299 2230 2102 1989 1887 1839 1752 1752 1752 1711 1672 1672 1635 1672 1635 1635 1599 1565 1599 1565 1599 1565 1565 1599 1565 1565 1565 0 0 0 0 0
    0 0 0 0 0 0 0 0 0 0 0 0 0 0 0 0 0 0 0 0 0 0 0 0 0 0 0 0 0 0 0 0 0 0 0 0 0 0 0 0 0 0 0 0 0 0 0 0 0 0 0 0 0 0 0 0 0 0 0 0 0 0 0 0 0 0 0 0 0 7359 7359 7359 8177 8177 0 8177 8177 8177 8177 8177 8177 0 0 0 0 0 0 0 0 0 8177 7359 6133 5256 6133 6133 6690 6133 6690 6690 6690 7359 0 0 0 0 0 0 0 0 0 0 0 0 0 0 0 0 0 8177 0 0 0 0 0 0 0 0 0 0 0 0 0 0 0 8177 7359 7359 6690 6690 6690 6690 6690 6690 6690 7359 8177 0 0 0 8177 8177 0 0 0 0 8177 7359 0 6690 0 0 8177 8177 8177 8177 7359 7359 8177 7359 6690 6690 6133 6690 0 0 0 0 0 0 0 0 0 8177 8177 8177 8177 8177 7359 0 8177 0 0 8177 8177 8177 0 0 0 0 0 0 0 0 0 0 0 0 8177 8177 8177 7359 6690 6690 6690 5661 6133 4599 4906 5256 4329 4599 4906 4599 4906 4599 4906 4599 4088 4906 4906 4599 4599 4599 4599 4599 4599 4906 4329 4088 4088 4088 4088 4088 3504 3873 3873 3873 3873 3873 3873 3679 3679 4329 3504 3504 3504 3679 3504 3504 3345 3345 3345 3345 3345 3345 3345 3345 3345 3345 3345 3504 3199 3199 3199 3066 3199 3066 2943 2830 2943 3066 3066 2830 2537 2628 2453 2453 2299 2299 2102 1989 1887 1839 1795 1752 1752 1752 1711 1711 1672 1711 1672 1672 1635 1565 1599 1565 1565 1565 1565 1599 1599 1599 1565 0 0 0 0 0
    0 0 0 0 0 0 0 0 0 0 0 0 0 0 0 0 0 0 0 0 0 0 0 0 0 0 0 0 0 0 0 0 0 0 0 0 0 0 0 0 0 0 0 0 0 0 0 0 0 0 0 0 0 0 0 0 0 0 0 0 0 0 0 0 0 0 0 0 0 7359 7359 7359 0 0 0 8177 8177 0 8177 0 7359 0 0 0 0 0 0 8177 8177 0 8177 7359 6133 4906 5661 5661 6690 5661 6690 6690 6690 6690 0 0 0 0 0 0 0 0 0 0 0 0 0 0 0 0 8177 8177 0 0 0 0 0 0 0 0 0 0 0 0 0 0 0 8177 7359 7359 6690 6690 6690 7359 6690 6690 6690 7359 8177 8177 0 8177 8177 7359 8177 0 0 0 0 8177 0 7359 0 0 8177 8177 8177 8177 7359 7359 8177 7359 6690 6690 6133 6690 0 0 0 0 0 0 0 0 0 8177 0 8177 8177 8177 7359 8177 8177 0 0 8177 8177 8177 0 0 0 0 0 0 0 0 0 0 0 0 8177 8177 8177 7359 7359 6690 7359 6690 7359 4329 5256 5661 4906 4906 4906 4906 4906 4906 5256 4599 4088 4906 4906 4599 4599 4599 4599 4599 4599 4906 4329 4088 4088 4088 4329 4329 3504 4088 4088 3873 3873 3873 3873 3679 3679 4088 3504 3504 3679 3679 3504 3504 3504 3504 3504 3345 3199 3345 3199 3199 3199 3345 3199 3345 3066 3199 3199 3066 3199 3199 2943 2943 2943 3066 3066 2830 2537 2628 2453 2453 2299 2299 2102 1989 1887 1839 1795 1752 1752 1752 1711 1711 1672 1711 1672 1672 1635 1565 1599 1565 1565 1565 1565 1599 1599 1599 1599 0 0 0 0 0
    0 0 0 0 0 0 0 0 0 0 0 0 0 0 0 0 0 0 0 0 0 0 0 0 0 0 0 0 0 0 0 0 0 0 0 0 0 0 0 0 0 0 0 0 0 0 0 0 0 0 0 0 0 0 0 0 0 0 0 0 0 0 0 0 0 0 0 0 0 7359 7359 7359 0 0 0 0 8177 9199 8177 0 8177 0 0 0 0 0 0 0 0 0 8177 7359 6133 4906 5661 5661 6690 5661 6133 6690 6690 6690 0 0 0 0 0 0 0 0 0 0 0 0 0 0 0 0 8177 7359 0 0 0 0 0 0 0 0 0 0 0 0 0 0 0 0 8177 7359 6690 7359 7359 7359 7359 6690 6690 7359 8177 8177 0 0 8177 8177 0 0 0 0 0 0 0 7359 0 8177 8177 8177 7359 8177 7359 7359 8177 7359 6690 7359 6690 6690 0 0 0 0 0 0 0 0 0 0 0 8177 8177 7359 6690 8177 7359 8177 9199 8177 8177 8177 0 0 0 0 0 0 0 0 0 0 0 0 8177 8177 8177 7359 6690 6690 7359 8177 8177 4329 5661 6133 4906 4906 5256 4906 4906 4906 5256 4599 4088 4906 4906 4599 4599 4599 4599 4599 4599 5256 4088 4088 4088 4329 4329 4329 3504 4088 3873 3873 3873 4088 3679 3679 3679 4088 3504 3504 3679 3679 3679 3679 3504 3345 3345 3345 3199 3199 3066 3066 3066 3199 3199 3199 3066 3199 3199 3199 3345 3345 2943 2830 2943 2943 2725 2628 2374 2453 2374 2374 2230 2230 2044 1989 1839 1795 1752 1711 1752 1711 1711 1711 1672 1711 1672 1672 1635 1599 1565 1533 1533 1533 1565 1599 1599 1599 1599 0 0 0 0 0
    0 0 0 0 0 0 0 0 0 0 0 0 0 0 0 0 0 0 0 0 0 0 0 0 0 0 0 0 0 0 0 0 0 0 0 0 0 0 0 0 0 0 0 0 0 0 0 0 0 0 0 0 0 0 0 0 0 0 0 0 0 0 0 0 0 0 0 0 0 8177 7359 8177 0 0 0 0 0 0 0 0 0 0 0 0 0 0 0 0 0 0 7359 6690 6133 4906 5661 5661 6690 5661 6133 6690 6690 6690 0 0 0 0 0 0 0 0 0 0 0 0 0 8177 0 0 8177 7359 0 0 0 0 0 0 0 0 0 0 0 0 0 0 0 0 8177 7359 7359 7359 7359 8177 7359 6690 6133 7359 7359 8177 8177 8177 8177 0 0 0 0 0 0 0 0 7359 8177 8177 7359 8177 7359 8177 7359 7359 8177 7359 7359 7359 6690 6690 0 0 0 0 0 0 0 0 0 0 0 8177 7359 7359 6690 8177 6133 6690 7359 7359 8177 7359 8177 8177 0 0 0 0 0 0 0 0 0 8177 8177 8177 8177 7359 7359 6690 7359 8177 8177 3873 5256 5661 4599 4906 4906 4906 4906 4906 5256 4599 4088 4906 4906 4599 4599 4599 4599 4906 4599 5256 4088 4088 4088 4599 4599 4599 3679 4088 4088 3873 3873 4088 3679 3504 3679 3873 3504 3504 3679 3504 3679 3679 3504 3345 3345 3345 3199 3199 3066 3066 2943 3199 3066 3199 3066 3066 3199 3199 3345 3199 2943 2830 2830 2943 2537 2374 2164 2299 2164 2230 2102 2102 1936 1936 1795 1795 1752 1752 1752 1752 1711 1711 1711 1752 1711 1711 1672 1599 1533 1533 1533 1533 1565 1599 1599 1599 1599 0 0 0 0 0
    0 0 0 0 0 0 0 0 0 0 0 0 0 0 0 0 0 0 0 0 0 0 0 0 0 0 0 0 0 0 0 0 0 0 0 0 0 0 0 0 0 0 0 0 0 0 0 0 0 0 0 0 0 0 0 0 0 0 0 0 0 0 0 0 0 0 0 0 0 7359 8177 8177 0 0 0 0 0 0 8177 0 0 0 0 0 0 0 0 0 0 8177 7359 7359 6690 4906 5661 5661 6690 5661 6133 6690 6690 6690 0 0 0 0 0 0 0 0 0 0 0 0 0 8177 0 8177 8177 8177 0 0 0 0 0 0 0 0 0 0 0 0 0 8177 0 8177 7359 6690 6690 7359 7359 7359 6690 6133 5661 6690 7359 7359 8177 8177 8177 0 0 0 0 0 0 0 0 7359 8177 8177 7359 8177 7359 8177 7359 7359 8177 7359 7359 7359 7359 6133 0 0 0 0 0 0 0 0 0 0 0 8177 7359 7359 6133 7359 5256 6133 7359 7359 7359 7359 8177 8177 0 0 0 0 0 0 0 0 0 0 0 0 0 8177 7359 7359 8177 0 0 3873 5256 5661 4599 4906 5256 4906 4906 4599 5256 4599 4088 4906 4906 4329 4599 4599 4599 4906 4599 5661 4088 3873 4088 4329 4329 4906 3504 3873 3873 3873 3873 3873 3679 3504 3679 3873 3504 3504 3679 3504 3679 3679 3504 3504 3679 3345 3345 3199 3199 3066 3066 3199 2943 3066 2943 3066 3199 3199 3345 3345 2943 2830 2830 2943 2299 2299 2102 2102 2044 2102 1989 1989 1887 1887 1752 1752 1752 1752 1711 1752 1711 1752 1711 1752 1711 1672 1672 1635 1533 1565 1533 1533 1565 1565 1599 1599 1565 0 0 0 0 0
    0 0 0 0 0 0 0 0 0 0 0 0 0 0 0 0 0 0 0 0 0 0 0 0 0 0 0 0 0 0 0 0 0 0 0 0 0 0 0 0 0 0 0 0 0 0 0 0 0 0 0 0 0 0 0 0 0 0 0 0 0 0 0 0 0 0 0 0 0 7359 7359 8177 0 0 0 0 0 0 0 0 0 0 0 0 0 0 0 0 8177 8177 8177 8177 7359 5256 5661 5661 6690 6133 6690 6690 6690 6690 0 0 0 0 0 0 0 0 0 0 0 0 0 8177 0 8177 8177 7359 0 0 0 0 0 0 0 0 0 0 0 0 0 8177 8177 7359 6690 6690 6133 6690 6690 6690 6690 6133 5661 6690 6690 8177 8177 0 8177 0 0 0 0 0 0 0 0 7359 8177 8177 7359 7359 7359 7359 7359 7359 8177 8177 8177 8177 6690 0 0 0 0 0 0 0 0 0 0 0 0 8177 7359 6690 6133 7359 4906 5661 6690 7359 7359 7359 8177 8177 0 0 0 0 0 0 0 0 0 0 0 0 0 0 8177 7359 7359 8177 8177 3873 4906 5661 4599 5256 4906 4906 4906 4599 5256 4906 4088 4906 4906 4599 4599 4599 4599 4906 4599 5661 4088 3873 4088 4329 4329 4599 3504 3873 3873 3873 3873 3873 3679 3504 3679 3873 3504 3679 3679 3679 3679 3679 3345 3504 3504 3199 3066 3066 2943 3066 2943 3199 2943 3066 2943 3066 3199 3199 3199 3345 2830 2830 2725 2830 2230 2230 2102 2102 2044 2102 1989 1989 1887 1887 1752 1752 1711 1711 1711 1711 1711 1752 1711 1752 1711 1711 1711 1672 1599 1599 1533 1565 1565 1565 1565 1565 1565 0 0 0 0 0
    0 0 0 0 0 0 0 0 0 0 0 0 0 0 0 0 0 0 0 0 0 0 0 0 0 0 0 0 0 0 0 0 0 0 0 0 0 0 0 0 0 0 0 0 0 0 0 0 0 0 0 0 0 0 0 0 0 0 0 0 0 0 0 0 0 0 0 0 0 7359 8177 8177 0 8177 0 0 0 0 8177 0 8177 0 0 0 0 0 0 0 0 0 8177 8177 7359 5256 5661 5661 6690 6133 6690 6690 6133 6690 0 0 0 0 0 0 0 0 0 0 0 0 0 8177 0 8177 8177 7359 0 0 0 0 0 0 0 0 0 0 0 0 0 8177 7359 7359 6133 6133 5661 6133 6133 6690 6690 6133 5661 6690 6690 8177 8177 8177 0 0 8177 0 0 0 0 0 0 8177 8177 8177 7359 8177 8177 8177 7359 7359 8177 8177 8177 8177 6690 4906 0 0 0 0 0 0 0 0 0 0 0 8177 8177 7359 6133 7359 5256 6133 7359 7359 7359 7359 8177 8177 0 0 0 0 0 0 0 0 0 0 0 0 0 8177 7359 6690 7359 7359 7359 4329 4906 5661 4906 5256 5256 4906 4906 4599 5256 4906 4088 4906 4599 4599 4599 4906 4599 4906 4329 5661 4088 3873 4088 4329 4088 4329 3504 3873 3873 3679 3873 3873 3679 3504 3679 3679 3679 3679 3679 3504 3504 3504 3345 3345 3504 3199 3199 3199 3066 3066 3066 3199 3066 3066 3066 3066 3199 3345 3199 3504 2830 2725 2725 2725 2164 2164 2044 2044 1989 2044 1936 1989 1887 1887 1752 1752 1752 1752 1711 1752 1711 1752 1752 1752 1752 1711 1711 1711 1635 1635 1533 1565 1599 1565 1565 1565 1565 0 0 0 0 0
    0 0 0 0 0 0 0 0 0 0 0 0 0 0 0 0 0 0 0 0 0 0 0 0 0 0 0 0 0 0 0 0 0 0 0 0 0 0 0 0 0 0 0 0 0 0 0 0 0 0 0 0 0 0 0 0 0 0 0 0 0 0 0 0 0 0 0 0 0 8177 8177 8177 0 0 0 0 0 0 0 0 0 0 0 0 0 0 0 0 0 0 0 0 8177 5256 5661 5661 6690 6133 6690 6690 6133 6690 0 0 8177 0 0 0 0 0 0 0 0 0 0 8177 0 8177 8177 7359 0 0 0 0 0 0 0 0 0 0 0 0 0 8177 7359 7359 6133 6690 6133 6690 6690 6690 6690 6690 6690 7359 7359 8177 8177 8177 0 0 8177 0 0 0 0 0 0 8177 8177 8177 8177 8177 8177 8177 8177 8177 0 0 0 0 7359 5256 0 0 0 0 0 0 0 0 0 0 0 8177 8177 7359 6133 7359 5661 6133 7359 7359 8177 8177 0 8177 0 0 0 8177 0 0 0 0 0 0 0 0 0 7359 6690 6133 6690 7359 7359 4599 5256 5661 5661 5661 5256 4906 4906 4599 5256 4906 3873 4906 4599 4906 4906 4906 4599 4599 4329 6133 4088 4088 3873 4329 4088 4599 3504 3873 3873 3679 4088 3873 3679 3504 3679 3873 3679 3679 3679 3345 3504 3345 3345 3345 3504 3199 3199 3199 3199 3199 3199 3199 3066 3066 3066 3066 3199 3199 3066 3345 2725 2628 2628 2628 2102 2102 1989 1989 1989 1989 1936 1936 1887 1839 1752 1795 1795 1795 1752 1752 1752 1795 1752 1795 1752 1752 1711 1711 1672 1672 1565 1599 1599 1565 1599 1599 1565 0 0 0 0 0
    0 0 0 0 0 0 0 0 0 0 0 0 0 0 0 0 0 0 0 0 0 0 0 0 0 0 0 0 0 0 0 0 0 0 0 0 0 0 0 0 0 0 0 0 0 0 0 0 0 0 0 0 0 0 0 0 0 0 0 0 0 0 0 0 0 0 0 0 0 7359 8177 8177 0 0 0 0 0 0 0 0 0 0 0 0 0 0 0 0 0 0 0 0 0 5661 6133 6133 7359 6690 7359 6690 6690 6690 0 8177 7359 0 0 0 0 0 0 0 0 0 0 7359 8177 8177 8177 6690 0 0 0 0 0 0 0 0 0 0 0 0 0 8177 7359 7359 6690 7359 6690 6690 7359 7359 7359 7359 7359 8177 8177 0 0 0 8177 0 8177 0 0 8177 0 0 0 8177 8177 8177 8177 8177 0 8177 8177 8177 0 0 0 0 8177 6690 0 0 0 0 0 0 0 0 0 0 0 8177 8177 8177 6133 7359 6133 6690 7359 7359 8177 8177 0 8177 0 0 0 8177 0 0 0 0 0 0 0 0 0 6690 5661 6133 6690 6690 6690 4906 5661 5661 6133 6133 5661 5256 5256 4599 5661 5256 3873 4599 4599 4906 4599 4599 4599 4329 4329 6133 4088 3873 3873 4088 4088 4599 3504 3679 3873 3873 4088 3873 3679 3504 3679 3679 3679 3504 3504 3345 3504 3345 3345 3345 3504 3199 3345 3345 3199 3199 3199 3199 2943 2943 3066 2943 3066 3199 2943 3345 2628 2628 2628 2537 2102 2102 1989 1936 1936 1936 1887 1887 1839 1839 1752 1839 1839 1887 1839 1839 1839 1839 1839 1839 1795 1795 1711 1752 1711 1672 1599 1635 1635 1565 1599 1599 1599 0 0 0 0 0
    0 0 0 0 0 0 0 0 0 0 0 0 0 0 0 0 0 0 0 0 0 0 0 0 0 0 0 0 0 0 0 0 0 0 0 0 0 0 0 0 0 0 0 0 0 0 0 0 0 0 0 0 0 0 0 0 0 0 0 0 0 0 0 0 0 0 0 0 0 8177 8177 8177 0 0 0 0 0 0 0 0 0 0 0 0 0 0 0 0 0 0 0 0 0 6133 6690 6690 8177 7359 7359 7359 6690 7359 0 8177 7359 0 0 0 0 0 0 0 0 0 0 7359 0 0 0 7359 0 0 0 0 0 0 0 0 0 0 0 0 0 8177 8177 8177 6690 7359 6690 6690 7359 7359 7359 7359 7359 8177 0 0 0 0 0 0 0 0 0 0 0 0 0 7359 7359 7359 7359 8177 8177 8177 8177 8177 0 0 0 0 0 7359 0 0 0 0 0 0 0 0 0 0 0 8177 8177 7359 6133 7359 6133 6690 7359 7359 8177 8177 0 8177 0 0 0 8177 0 0 0 0 0 0 0 0 0 6133 5256 5661 6133 6133 6690 4906 5256 5661 6690 6133 5661 5256 5256 4599 5661 5256 3873 4599 4599 4906 4599 4599 4906 4329 4329 6133 4088 3873 3873 4088 4088 4329 3504 3679 3679 3873 3873 3873 3679 3504 3679 3679 3679 3504 3504 3345 3504 3199 3345 3504 3679 3199 3345 3345 3199 3199 3345 3199 2943 2943 3199 2943 3066 3199 2943 3066 2537 2453 2374 2453 2102 2044 1936 1936 1936 1936 1887 1887 1839 1839 1795 1839 1839 1887 1839 1839 1839 1887 1839 1839 1795 1795 1752 1752 1752 1711 1635 1672 1635 1599 1635 1599 1599 0 0 0 0 0
    0 0 0 0 0 0 0 0 0 0 0 0 0 0 0 0 0 0 0 0 0 0 0 0 0 0 0 0 0 0 0 0 0 0 0 0 0 0 0 0 0 0 0 0 0 0 0 0 0 0 0 0 0 0 0 0 0 0 0 0 0 0 0 0 0 0 0 0 0 7359 7359 7359 8177 8177 8177 0 0 8177 8177 0 0 0 0 0 0 0 0 0 0 0 0 0 0 6133 7359 7359 8177 7359 8177 7359 7359 8177 0 7359 6690 0 0 0 0 0 0 0 0 0 0 8177 0 0 0 7359 0 0 0 0 0 0 0 0 0 0 0 0 0 0 8177 8177 7359 7359 6690 6690 7359 7359 7359 6690 7359 8177 8177 0 0 0 0 0 0 0 0 9199 8177 8177 8177 6690 6133 6690 6690 7359 8177 7359 7359 7359 8177 0 0 0 8177 6690 0 0 0 0 0 0 0 0 0 0 0 8177 7359 7359 6133 7359 6133 6133 6690 7359 7359 7359 9199 7359 8177 0 0 8177 0 0 0 0 0 0 0 0 0 6133 5256 5661 6133 6133 6133 4906 5256 5661 6133 6133 5661 5256 4906 4329 5661 5256 3873 4599 4599 4599 4599 4599 4906 4329 4329 6133 4088 4088 4088 4329 4329 4088 3504 3679 3873 3873 4088 3873 3873 3679 3873 3873 3873 3679 3504 3504 3345 3199 3345 3504 3679 3345 3504 3345 3345 3345 3504 3345 3066 3066 3345 2943 3066 3066 2725 2830 2374 2374 2299 2374 2102 2044 1936 1936 1936 1936 1887 1887 1839 1795 1795 1839 1887 1936 1887 1887 1839 1887 1839 1839 1795 1795 1752 1752 1752 1711 1672 1672 1672 1599 1635 1635 1599 0 0 0 0 0
    0 0 0 0 0 0 0 0 0 0 0 0 0 0 0 0 0 0 0 0 0 0 0 0 0 0 0 0 0 0 0 0 0 0 0 0 0 0 0 0 0 0 0 0 0 0 0 0 0 0 0 0 0 0 0 0 0 0 0 0 0 0 0 0 0 0 0 0 0 7359 7359 7359 8177 8177 8177 0 0 8177 0 0 0 0 0 0 0 0 0 0 0 0 0 0 0 6690 7359 8177 0 8177 8177 7359 8177 8177 0 7359 6133 0 0 0 0 0 0 0 0 0 0 0 0 0 0 6690 0 8177 0 0 0 0 0 0 0 0 0 0 0 0 8177 8177 7359 7359 6690 6690 7359 6690 6690 6690 6690 7359 7359 0 8177 0 0 0 0 0 8177 8177 6690 7359 6690 6133 6133 6690 6690 7359 8177 8177 8177 7359 8177 8177 8177 8177 7359 6690 0 8177 0 0 0 0 0 0 0 0 8177 8177 8177 7359 6133 7359 6133 6690 6690 7359 7359 7359 8177 8177 8177 0 0 7359 0 0 0 0 0 0 8177 8177 0 5661 5256 5661 6133 6133 6133 4906 5256 5661 6133 6690 5661 5256 4906 4599 6133 5256 3679 4599 4599 4599 4599 4906 4906 4329 4329 6133 4329 4088 4599 4329 4599 4329 3679 3679 3873 4088 4088 4088 3873 3873 4329 4088 4088 3679 3504 3345 3345 3066 3345 3504 3504 3345 3504 3504 3504 3504 3679 3504 3199 3199 3504 2943 3066 3066 2725 2830 2374 2537 2374 2453 2230 2164 1936 1936 1936 1887 1887 1887 1839 1795 1795 1887 1936 1989 1936 1887 1887 1887 1887 1839 1839 1795 1752 1795 1795 1752 1672 1672 1672 1635 1635 1635 1635 0 0 0 0 0
    0 0 0 0 0 0 0 0 0 0 0 0 0 0 0 0 0 0 0 0 0 0 0 0 0 0 0 0 0 0 0 0 0 0 0 0 0 0 0 0 0 0 0 0 0 0 0 0 0 0 0 0 0 0 0 0 0 0 0 0 0 0 0 0 0 0 0 0 0 7359 7359 7359 8177 7359 7359 0 8177 8177 8177 0 0 0 0 0 0 0 0 0 0 0 0 0 0 7359 0 0 0 8177 0 8177 0 0 0 6690 5661 8177 0 0 0 0 0 0 0 0 0 0 8177 8177 8177 6133 8177 8177 0 0 0 0 0 0 0 0 0 0 0 0 8177 7359 6690 7359 6690 6133 6690 6690 6133 6133 6690 7359 7359 0 8177 0 0 0 8177 0 8177 7359 6690 7359 6690 6133 6133 7359 7359 8177 8177 8177 8177 8177 8177 8177 8177 8177 6690 6690 8177 8177 8177 8177 8177 0 0 0 0 8177 8177 8177 8177 7359 6690 8177 6690 6690 7359 7359 7359 8177 0 8177 0 0 0 7359 0 0 0 0 0 8177 7359 7359 8177 5661 4906 5256 5661 6133 6133 4906 5256 5661 6690 6690 5661 5256 5256 4599 6133 5661 3873 4599 4599 4599 4599 4599 4906 4329 4329 5661 4088 4329 4599 4329 4599 4088 3679 3873 4088 4329 4329 4329 4088 3873 4599 4599 4088 3679 3345 3345 3199 3066 3345 3504 3504 3345 3504 3504 3504 3504 3873 3679 3345 3345 3873 2943 3066 3066 2725 2830 2453 2725 2453 2628 2453 2299 2044 1989 1936 1936 1887 1887 1839 1839 1839 1887 1989 1989 1936 1936 1887 1936 1887 1887 1887 1795 1795 1795 1795 1795 1711 1711 1711 1635 1672 1672 1635 0 0 0 0 0
    0 0 0 0 0 0 0 0 0 0 0 0 0 0 0 0 0 0 0 0 0 0 0 0 0 0 0 0 0 0 0 0 0 0 0 0 0 0 0 0 0 0 0 0 0 0 0 0 0 0 0 0 0 0 0 0 0 0 0 0 0 0 0 0 0 0 0 0 0 7359 7359 7359 8177 8177 8177 0 0 8177 8177 0 0 0 0 0 0 0 0 0 0 0 0 0 0 8177 0 0 0 0 0 8177 0 0 0 6690 5661 8177 0 0 0 0 0 0 0 0 8177 0 8177 8177 8177 6133 7359 7359 0 0 0 0 0 0 0 0 0 0 0 0 8177 7359 6690 7359 6690 6133 6690 6133 6133 6133 6690 7359 7359 0 8177 0 0 0 8177 8177 8177 7359 6690 7359 6690 6133 6133 7359 7359 8177 0 8177 8177 8177 8177 7359 8177 8177 6690 6690 8177 7359 7359 7359 8177 0 8177 0 0 8177 8177 0 0 8177 7359 8177 7359 7359 7359 7359 8177 8177 0 8177 0 0 0 7359 0 0 8177 8177 8177 7359 6133 6690 7359 5256 4599 5256 5661 5661 5661 4906 4906 5661 6133 6133 5661 5661 5256 4599 6133 5661 3873 4599 4599 4599 4599 4599 4906 4329 4329 5661 4329 4599 4599 4329 4599 3873 3679 3873 3873 4088 4088 4329 4088 4088 4599 4906 4088 3873 3504 3345 3199 3066 3345 3345 3345 3199 3504 3504 3504 3679 4329 3679 3504 3504 4329 3199 3199 3066 2725 2725 2537 2628 2453 2628 2628 2453 2230 2102 2044 1989 1989 1936 1839 1887 1936 1936 1989 2044 1989 1936 1936 1936 1936 1887 1887 1795 1795 1839 1839 1795 1752 1752 1752 1672 1711 1711 1711 0 0 0 0 0
    0 0 0 0 0 0 0 0 0 0 0 0 0 0 0 0 0 0 0 0 0 0 0 0 0 0 0 0 0 0 0 0 0 0 0 0 0 0 0 0 0 0 0 0 0 0 0 0 0 0 0 0 0 0 0 0 0 0 0 0 0 0 0 0 0 0 0 0 0 7359 7359 7359 8177 8177 8177 0 0 8177 0 0 0 0 0 0 0 0 0 0 0 0 0 0 0 8177 0 0 0 0 0 8177 0 0 0 6690 5661 9199 0 0 0 0 0 0 0 0 8177 0 8177 8177 8177 6133 7359 6690 0 0 0 0 0 0 0 0 0 0 0 0 7359 7359 6690 7359 6690 6133 6690 6690 6133 6690 7359 7359 7359 0 8177 0 0 0 0 8177 8177 8177 6690 7359 6690 6133 6133 7359 7359 8177 0 8177 0 8177 8177 7359 8177 8177 6690 6690 7359 7359 7359 7359 8177 0 8177 0 0 8177 8177 0 0 8177 7359 8177 6690 6690 7359 7359 7359 8177 8177 8177 0 0 0 7359 0 0 8177 8177 8177 6690 5661 6133 7359 4906 4599 5256 5256 5661 5661 4906 4906 5661 6133 6690 6133 6133 5256 4599 6133 5661 3873 4906 4599 4599 4599 4906 5256 4329 4329 5661 4329 4599 4329 4088 4088 3679 3504 3679 3679 3873 3873 4088 4088 4088 4599 4599 4088 3504 3345 3199 3066 3066 3504 3679 3679 3345 3679 3873 3873 4088 4906 3873 3679 3679 5256 3345 3199 3066 2943 2830 2725 2725 2453 2628 2628 2453 2299 2102 2044 1989 1989 1989 1887 1936 1936 1936 2044 2102 1989 1936 1936 1989 1936 1936 1887 1839 1795 1839 1887 1839 1795 1795 1795 1752 1752 1752 1752 0 0 0 0 0
    0 0 0 0 0 0 0 0 0 0 0 0 0 0 0 0 0 0 0 0 0 0 0 0 0 0 0 0 0 0 0 0 0 0 0 0 0 0 0 0 0 0 0 0 0 0 0 0 0 0 0 0 0 0 0 0 0 0 0 0 0 0 0 0 0 0 0 0 0 7359 6690 6690 8177 8177 8177 0 0 0 0 0 0 0 0 0 0 0 0 0 0 0 0 0 0 0 0 0 0 0 0 8177 0 0 0 7359 6133 0 0 0 0 0 0 0 0 0 8177 0 8177 8177 7359 6133 8177 7359 0 0 0 0 0 0 0 0 0 0 0 0 8177 7359 7359 7359 6690 6133 6690 6690 6133 6690 7359 8177 7359 0 8177 0 0 0 0 0 8177 8177 7359 7359 6690 6133 6690 7359 7359 8177 8177 8177 8177 8177 8177 7359 7359 7359 6133 6133 6690 6690 7359 7359 8177 8177 8177 0 0 0 0 0 0 8177 7359 7359 6690 6690 7359 7359 7359 7359 8177 7359 0 0 0 6690 0 8177 8177 7359 7359 6133 5256 6133 6690 5256 4599 5256 5256 5256 5661 5256 4906 5661 6133 6690 6133 6133 5661 4599 6133 6133 3873 4906 4599 4599 4599 4906 5256 4329 4599 5661 4329 4599 4329 4088 4088 3679 3504 3873 3873 3873 4088 4329 4329 4329 4906 5256 3504 2943 3066 3066 3066 3199 3504 3504 3504 3345 3679 3873 3873 4088 4329 3679 3504 3679 4599 3066 3066 3066 2943 2943 2830 2830 2537 2628 2628 2453 2299 2230 2102 2044 2102 2044 1887 1989 1989 1989 2102 2164 2044 1989 1989 1989 1989 1936 1936 1839 1839 1839 1887 1839 1839 1795 1795 1795 1795 1795 1795 0 0 0 0 0
    0 0 0 0 0 0 0 0 0 0 0 0 0 0 0 0 0 0 0 0 0 0 0 0 0 0 0 0 0 0 0 0 0 0 0 0 0 0 0 0 0 0 0 0 0 0 0 0 0 0 0 0 0 0 0 0 0 0 0 0 0 0 0 0 0 0 0 0 0 7359 7359 7359 8177 0 8177 0 0 0 0 0 0 0 0 0 0 0 0 0 0 0 0 0 0 0 0 0 0 0 0 0 0 0 0 7359 6690 0 0 0 0 0 0 0 0 0 8177 0 8177 7359 7359 6133 8177 8177 0 0 0 0 0 0 0 0 0 0 0 0 0 8177 8177 7359 6690 6690 6690 6690 6133 6133 6690 7359 7359 0 8177 0 0 0 0 0 8177 8177 7359 8177 6690 6690 6690 7359 7359 8177 8177 8177 8177 7359 8177 6690 6690 6690 5661 5256 5256 5661 7359 7359 8177 8177 8177 0 0 0 0 0 0 8177 7359 7359 6133 6133 6690 7359 7359 7359 8177 7359 8177 0 0 6133 8177 8177 8177 7359 7359 6133 5256 6133 6690 5256 4599 4906 5256 5256 5661 5256 4599 5661 6133 6690 6690 6690 5661 4906 6133 6690 3873 4906 4599 4599 4599 4906 4906 4329 4329 5661 4329 4599 4329 3873 4088 3679 3679 4088 4088 4088 4088 4329 4599 4329 4906 6133 2943 2830 3066 3066 3066 3199 3504 3504 3504 3199 3679 3679 3679 4088 4329 3679 3679 3679 4599 3345 3199 3066 3066 3066 2943 2943 2537 2628 2628 2453 2453 2374 2230 2230 2299 2230 1989 2102 2102 2102 2164 2164 2044 2044 1989 2044 2044 1989 1989 1887 1887 1887 1936 1887 1887 1839 1795 1795 1795 1795 1795 0 0 0 0 0
    0 0 0 0 0 0 0 0 0 0 0 0 0 0 0 0 0 0 0 0 0 0 0 0 0 0 0 0 0 0 0 0 0 0 0 0 0 0 0 0 0 0 0 0 0 0 0 0 0 0 0 0 0 0 0 0 0 0 0 0 0 0 0 0 0 0 0 0 0 7359 7359 7359 8177 0 8177 0 0 0 0 0 0 0 0 0 0 0 0 0 0 0 0 0 0 0 0 0 0 8177 0 0 0 0 0 8177 7359 0 0 0 0 0 0 0 0 0 0 0 8177 7359 7359 6133 0 0 0 0 0 0 0 0 0 0 0 0 0 0 0 8177 8177 8177 6690 6690 6690 6690 6133 6133 6690 7359 7359 0 8177 0 0 0 0 0 0 8177 7359 8177 7359 7359 0 8177 8177 8177 8177 8177 8177 0 8177 6690 6133 6133 5256 4906 4906 4906 6690 6690 8177 0 0 0 0 0 0 0 0 0 8177 8177 6133 6133 7359 7359 7359 7359 8177 7359 8177 0 0 6690 8177 8177 7359 7359 7359 6133 5256 6133 7359 5256 4906 5256 5661 5661 5661 5661 4599 5661 6690 6133 6690 6690 5661 5256 6133 6690 4088 4906 4906 4599 4599 4906 5256 4329 4329 5661 4329 4599 4329 3873 4088 3679 3679 4088 4088 4329 4329 4329 4906 4329 4906 6133 2943 2628 2830 2943 3066 3345 3504 3679 3679 3345 3679 3873 3873 4599 4329 3873 3873 3873 4906 3504 3345 3199 3066 2943 2943 2830 2537 2628 2628 2537 2537 2453 2374 2374 2374 2374 2102 2230 2164 2102 2230 2164 2044 1989 1989 2044 2044 1989 2044 1887 1887 1936 1989 1936 1887 1839 1839 1839 1795 1795 1795 0 0 0 0 0
    0 0 0 0 0 0 0 0 0 0 0 0 0 0 0 0 0 0 0 0 0 0 0 0 0 0 0 0 0 0 0 0 0 0 0 0 0 0 0 0 0 0 0 0 0 0 0 0 0 0 0 0 0 0 0 0 0 0 0 0 0 0 0 0 0 0 0 0 0 8177 7359 7359 8177 0 0 0 0 0 0 0 0 0 0 0 0 0 0 0 0 0 0 0 0 0 0 0 0 8177 0 0 0 0 0 8177 8177 0 0 0 0 0 0 0 0 0 0 0 0 8177 7359 6690 0 0 0 0 0 0 0 0 0 0 0 8177 8177 8177 8177 8177 7359 8177 6690 6690 7359 7359 6690 6690 7359 7359 8177 0 9199 0 8177 0 0 0 0 0 8177 0 8177 8177 0 0 0 0 0 0 0 0 0 6690 6133 6133 5661 4906 4906 5256 0 8177 0 0 0 0 0 0 0 0 0 0 8177 8177 6690 6690 7359 8177 8177 8177 8177 8177 0 0 0 6133 8177 8177 7359 6690 7359 6133 5256 6133 6690 5256 4906 5256 5661 5661 6133 6133 5256 6133 6690 6690 6690 6690 5661 5661 6133 6690 4088 4906 4906 4599 4599 4906 4906 4329 4329 5661 4329 4599 4329 3504 3679 3679 3504 4088 4088 4088 4088 4329 5256 4599 4599 6690 2943 2628 2830 2943 3066 3345 3679 3873 3873 3504 3873 4088 3873 4599 4329 3873 3873 3873 4906 3504 3199 3066 3066 2943 2943 2830 2453 2537 2628 2537 2628 2453 2374 2453 2453 2453 2164 2374 2299 2164 2299 2230 2102 2044 2044 2102 2044 2102 2102 1989 1989 1989 1989 1989 1887 1839 1839 1839 1795 1839 1795 0 0 0 0 0
    0 0 0 0 0 0 0 0 0 0 0 0 0 0 0 0 0 0 0 0 0 0 0 0 0 0 0 0 0 0 0 0 0 0 0 0 0 0 0 0 0 0 0 0 0 0 0 0 0 0 0 0 0 0 0 0 0 0 0 0 0 0 0 0 0 0 0 0 0 8177 8177 8177 0 0 0 0 0 0 0 0 0 0 0 0 0 0 0 0 0 0 0 0 0 0 0 0 0 8177 0 0 0 0 0 0 0 0 0 0 0 0 0 0 0 0 0 0 0 0 8177 6690 0 0 0 0 0 0 0 0 0 8177 8177 7359 6690 7359 7359 7359 6690 8177 6690 6690 7359 7359 6690 6690 8177 8177 0 0 0 0 0 0 0 0 0 0 0 0 0 0 0 0 0 0 0 0 0 0 0 6690 6133 6133 5661 5256 5256 5256 143 0 0 0 0 0 0 0 0 0 0 0 0 0 7359 7359 0 0 0 0 0 8177 0 0 0 6133 8177 8177 7359 6690 7359 6133 5256 5661 6690 4906 5256 5661 6133 6133 6133 6690 5661 6690 7359 6690 6690 6690 6133 5661 6133 6690 4329 4906 4906 4599 4599 4906 4906 4329 4329 5256 4329 4599 3873 3199 3504 3504 3345 3873 3873 4088 4088 4329 5256 4599 4599 6690 2943 2537 2830 2943 3066 3504 3679 3873 3873 3504 3873 3873 3873 4329 4088 3679 3504 3504 4329 3199 3066 3066 3066 3066 2830 2725 2453 2537 2537 2537 2628 2453 2374 2453 2537 2537 2164 2453 2299 2230 2299 2299 2102 2164 2164 2230 2164 2230 2230 2102 2102 2102 2044 1989 1887 1839 1839 1839 1839 1839 1839 0 0 0 0 0
    0 0 0 0 0 0 0 0 0 0 0 0 0 0 0 0 0 0 0 0 0 0 0 0 0 0 0 0 0 0 0 0 0 0 0 0 0 0 0 0 0 0 0 0 0 0 0 0 0 0 0 0 0 0 0 0 0 0 0 0 0 0 0 0 0 0 0 0 0 8177 8177 8177 0 0 0 0 0 0 0 0 0 0 0 0 0 0 0 0 0 0 0 0 0 8177 0 0 0 8177 0 0 0 0 0 0 0 0 0 0 0 0 0 0 0 0 0 0 0 0 0 7359 0 0 0 0 0 0 0 0 0 8177 8177 7359 6133 7359 6690 7359 6690 8177 6690 7359 7359 8177 7359 7359 8177 0 0 0 0 0 0 0 0 0 0 0 0 0 0 0 0 0 0 0 0 0 0 284 288 0 0 6133 6133 5256 5256 5256 144 0 0 0 0 0 0 0 0 0 0 0 0 0 8177 8177 0 0 0 0 0 8177 0 0 0 6133 8177 7359 7359 6133 6690 5661 5256 5661 6690 4906 5256 6133 6690 6690 6690 7359 5661 6690 7359 6690 6690 6133 5661 5661 5661 6690 4329 4906 4906 4599 4329 4906 4906 4329 4329 5256 4329 4599 3504 3345 3504 3504 3345 3873 3873 3873 4088 4329 4906 4599 4329 6690 2943 2725 2943 3066 3066 3504 3873 4088 4088 3504 3873 3873 3679 4088 3873 3504 3345 3345 4088 3199 3066 3066 3066 3066 2830 2725 2374 2453 2537 2453 2628 2537 2453 2453 2537 2537 2230 2537 2374 2230 2299 2230 2102 2164 2230 2299 2230 2299 2299 2102 2164 2102 1989 1936 1887 1839 1839 1839 1839 1839 1839 0 0 0 0 0
    0 0 0 0 0 0 0 0 0 0 0 0 0 0 0 0 0 0 0 0 0 0 0 0 0 0 0 0 0 0 0 0 0 0 0 0 0 0 0 0 0 0 0 0 0 0 0 0 0 0 0 0 0 0 0 0 0 0 0 0 0 0 0 0 0 0 0 0 0 0 0 0 0 0 0 0 0 0 0 0 0 0 0 0 0 0 0 0 0 0 0 0 0 0 0 0 0 8177 0 0 0 0 0 0 0 0 0 0 0 0 0 0 0 0 0 0 0 0 0 8177 0 0 0 0 0 0 0 0 0 0 0 7359 6133 6690 6690 7359 6690 0 6690 7359 7359 8177 7359 7359 0 0 283 0 281 283 0 0 0 0 0 0 0 0 0 0 0 561 0 0 0 285 0 283 288 0 0 0 0 0 0 5661 144 0 0 0 0 0 0 0 0 8177 8177 0 0 0 7359 8177 0 0 0 0 0 8177 0 0 0 6133 8177 7359 7359 5661 6690 5661 5256 5661 6690 4906 5661 6133 7359 6690 7359 7359 5661 6690 7359 6690 6133 5661 5256 5256 5661 6133 4329 4906 4906 4906 4599 4906 4906 4329 4329 5256 4599 4329 3345 3345 3504 3679 3345 3873 3873 4088 4088 4599 4906 4329 4329 6690 2943 2725 2943 3066 3199 3679 4088 4088 4088 3504 3679 3679 3504 3873 3504 3199 3199 3199 3679 3199 3066 3199 3199 3066 2830 2725 2374 2453 2453 2453 2453 2453 2374 2453 2537 2537 2299 2537 2374 2299 2374 2299 2102 2164 2299 2374 2230 2299 2299 2102 2102 2044 1989 1936 1887 1839 1839 1839 1839 1839 1839 0 0 0 0 0
    0 0 0 0 0 0 0 0 0 0 0 0 0 0 0 0 0 0 0 0 0 0 0 0 0 0 0 0 0 0 0 0 0 0 0 0 0 0 0 0 0 0 0 0 0 0 0 0 0 0 0 0 0 0 0 0 0 0 0 0 0 0 0 0 0 0 0 0 0 0 0 0 0 0 0 0 0 0 0 0 0 0 0 0 0 0 0 0 0 0 0 0 0 0 0 0 0 8177 0 0 0 0 0 0 0 0 0 0 0 0 0 0 0 0 0 0 0 0 0 8177 0 0 0 0 0 0 0 0 0 0 0 0 0 0 0 7359 6690 0 0 0 0 8177 8177 0 0 0 284 283 283 283 283 0 0 0 0 0 0 0 0 0 0 566 566 0 0 285 0 283 288 0 0 0 0 0 0 5661 0 0 0 0 0 0 0 0 0 8177 8177 0 0 0 8177 0 0 0 0 0 0 8177 0 0 0 6133 8177 7359 8177 6133 6690 6133 5661 6133 6690 4906 5661 6133 7359 7359 7359 7359 6133 6690 7359 6690 6133 5661 5256 5256 5256 6133 4329 4906 5256 4906 4599 4906 4906 4599 4329 5661 4599 4088 3504 3504 3679 3679 3504 4088 4088 4088 4088 4599 4906 4329 4329 6690 2943 2725 3066 3066 3199 3679 4088 4329 4088 3504 3679 3679 3504 3679 3345 3066 3066 3066 3504 3066 3066 3199 3066 3066 2943 2725 2299 2453 2453 2374 2374 2453 2374 2453 2537 2628 2299 2537 2453 2374 2374 2299 2164 2230 2299 2299 2164 2299 2230 2102 2102 2044 1936 1936 1887 1839 1839 1839 1839 1795 1795 0 0 0 0 0
    0 0 0 0 0 0 0 0 0 0 0 0 0 0 0 0 0 0 0 0 0 0 0 0 0 0 0 0 0 0 0 0 0 0 0 0 0 0 0 0 0 0 0 0 0 0 0 0 0 0 0 0 0 0 0 0 0 0 0 0 0 0 0 0 0 0 0 0 0 0 0 0 0 8177 8177 0 8177 8177 0 0 0 0 0 0 0 0 0 0 0 0 0 0 0 0 0 0 0 8177 0 0 0 0 0 0 0 0 0 0 0 0 0 0 0 0 0 0 0 0 0 8177 0 0 0 0 0 0 0 0 0 0 0 0 0 0 0 0 7359 0 0 0 0 0 8177 0 0 281 284 284 283 283 281 280 0 0 0 0 0 0 0 0 0 566 570 0 0 285 0 281 0 0 0 0 0 0 0 5661 0 0 0 0 0 0 0 0 0 8177 7359 8177 8177 0 8177 0 0 0 0 0 8177 8177 0 0 0 6133 0 8177 8177 6133 7359 6690 6133 6690 7359 4906 5661 6133 7359 7359 7359 7359 6133 6690 7359 6690 6133 5256 4906 4906 5256 5661 4088 4906 4906 4599 4329 4906 4599 4599 4329 5661 4329 3679 3504 3504 3873 3873 3504 4088 4088 4329 4329 4599 4906 4329 4329 7359 2943 3066 3199 3199 3345 3679 4329 4329 4088 3504 3679 3679 3504 3679 3345 3066 2943 3066 3504 3066 3199 3199 3066 3066 2830 2725 2299 2453 2453 2374 2374 2537 2453 2537 2537 2628 2374 2628 2453 2453 2374 2299 2164 2230 2299 2299 2102 2299 2230 2044 2044 2044 1936 1887 1887 1839 1795 1795 1795 1752 1752 0 0 0 0 0
    0 0 0 0 0 0 0 0 0 0 0 0 0 0 0 0 0 0 0 0 0 0 0 0 0 0 0 0 0 0 0 0 0 0 0 0 0 0 0 0 0 0 0 0 0 0 0 0 0 0 0 0 0 0 0 0 0 0 0 0 0 0 0 0 0 0 0 0 0 0 0 0 0 8177 8177 8177 7359 7359 0 0 8177 0 0 0 0 0 0 0 0 0 0 0 0 0 0 0 0 0 0 0 0 0 0 0 0 0 0 0 0 0 0 0 0 0 0 0 0 0 0 8177 0 0 0 0 0 0 0 0 0 8177 8177 6690 0 0 0 0 7359 0 0 0 0 0 0 0 0 281 283 283 281 281 281 280 0 0 0 0 0 0 0 0 0 570 570 0 0 284 0 0 0 0 0 0 0 0 0 0 192 0 0 0 0 0 0 0 0 8177 7359 8177 8177 0 8177 0 0 0 0 0 8177 8177 0 0 8177 6690 0 0 0 6690 7359 6690 6690 6690 7359 5256 5661 6690 8177 7359 7359 7359 6133 6690 7359 6690 6133 5256 4906 4599 4906 5661 4088 4599 4906 4329 4329 4599 4906 4599 4329 5661 4088 3504 3504 3504 3873 3873 3345 4088 4088 4329 4329 4599 4599 4329 4088 7359 3066 3199 3345 3345 3504 3679 4329 4329 4088 3504 3679 3679 3679 3679 3504 3066 3066 3066 3504 3199 3199 3199 2943 2943 2830 2628 2374 2453 2453 2374 2374 2537 2453 2537 2537 2628 2374 2628 2537 2453 2374 2299 2164 2299 2299 2299 2102 2299 2230 2102 2044 2044 1887 1887 1887 1839 1795 1752 1752 1752 1752 0 0 0 0 0
    0 0 0 0 0 0 0 0 0 0 0 0 0 0 0 0 0 0 0 0 0 0 0 0 0 0 0 0 0 0 0 0 0 0 0 0 0 0 0 0 0 0 0 0 0 0 0 0 0 0 0 0 0 0 0 0 0 0 0 0 0 0 0 0 0 0 0 0 0 8177 8177 8177 0 8177 7359 8177 7359 7359 0 0 8177 0 0 8177 0 0 0 0 0 0 0 0 0 0 0 0 0 0 0 0 0 0 0 0 0 0 0 0 0 0 0 0 0 0 0 0 0 0 0 7359 0 0 0 0 0 0 0 0 0 8177 7359 6133 6133 6690 6690 6690 6690 0 6690 7359 0 8177 7359 0 0 0 0 0 281 281 0 0 0 0 0 0 0 0 0 0 0 566 570 0 0 284 0 0 0 0 0 0 0 0 0 6133 0 0 0 0 0 0 0 0 0 7359 6690 7359 7359 0 8177 0 0 0 0 0 0 8177 0 0 8177 7359 0 0 0 7359 8177 7359 7359 7359 8177 5256 6133 6690 8177 7359 8177 8177 6690 7359 0 6690 6133 4906 4599 4599 4599 5256 4088 4599 4906 4599 4599 4906 4906 4906 4599 6133 4088 3345 3345 3504 3679 3679 3345 4088 4088 4088 4329 4599 4599 4329 4329 7359 3066 3345 3345 3345 3504 3679 4329 4329 4088 3504 3679 3679 3504 3679 3345 2943 2943 2943 3345 3066 3066 3066 2830 2830 2628 2537 2299 2453 2453 2374 2374 2537 2453 2537 2537 2628 2374 2537 2537 2453 2374 2374 2230 2299 2374 2299 2164 2374 2299 2102 2044 2044 1936 1887 1887 1839 1752 1752 1752 1752 1752 0 0 0 0 0
    0 0 0 0 0 0 0 0 0 0 0 0 0 0 0 0 0 0 0 0 0 0 0 0 0 0 0 0 0 0 0 0 0 0 0 0 0 0 0 0 0 0 0 0 0 0 0 0 0 0 0 0 0 0 0 0 0 0 0 0 0 0 0 0 0 0 0 0 0 7359 8177 8177 0 7359 7359 8177 7359 7359 0 0 8177 0 0 8177 0 0 0 0 0 0 0 0 0 0 0 0 0 0 0 0 0 0 0 0 0 0 0 0 0 0 0 0 0 0 0 0 0 0 0 6690 0 0 0 0 0 0 0 0 0 0 8177 6133 5661 6690 6133 6690 6133 7359 6133 7359 7359 8177 7359 7359 8177 0 0 0 0 0 0 0 0 0 0 0 0 0 0 0 0 0 570 0 0 0 0 0 0 0 0 0 0 0 0 6133 0 0 0 0 0 0 0 0 0 7359 6133 6690 6690 8177 8177 0 0 0 0 0 0 0 0 0 8177 7359 0 0 0 8177 0 7359 7359 7359 8177 5661 6133 6690 8177 8177 8177 8177 6690 7359 0 0 5661 4906 4599 4329 4329 5256 4088 4906 4906 4599 4906 4906 5256 5256 4599 6133 4088 3199 3345 3679 3679 3679 3345 4088 4088 4088 4329 4599 4329 4329 4088 7359 3199 3345 3345 3504 3504 3679 4329 4329 4088 3679 3679 3679 3679 3679 3345 2943 2943 2943 3345 3066 3066 3066 2830 2830 2628 2537 2299 2453 2374 2374 2374 2453 2453 2537 2537 2628 2299 2537 2453 2453 2374 2374 2299 2374 2374 2374 2230 2453 2299 2102 2044 2044 1936 1936 1887 1839 1795 1795 1795 1752 1795 0 0 0 0 0
    0 0 0 0 0 0 0 0 0 0 0 0 0 0 0 0 0 0 0 0 0 0 0 0 0 0 0 0 0 0 0 0 0 0 0 0 0 0 0 0 0 0 0 0 0 0 0 0 0 0 0 0 0 0 0 0 0 0 0 0 0 0 0 0 0 0 0 0 0 7359 7359 7359 0 7359 7359 8177 7359 7359 0 8177 8177 7359 8177 7359 0 0 0 8177 0 0 0 0 0 0 0 0 0 0 0 8177 8177 8177 0 0 0 0 0 0 0 0 0 0 0 0 0 0 0 0 0 6690 0 0 0 0 0 0 0 0 0 0 0 7359 6133 6690 6133 6690 6133 7359 6690 7359 7359 8177 8177 7359 8177 0 0 0 0 0 0 0 0 0 0 7359 8177 8177 0 0 0 0 0 0 0 0 0 0 193 0 192 0 0 0 6133 5661 0 0 0 0 0 0 0 0 0 7359 6133 6133 6133 7359 7359 0 8177 8177 0 0 0 0 0 0 8177 8177 0 0 0 0 0 8177 8177 8177 8177 6133 6690 7359 8177 8177 0 0 7359 7359 566 0 5661 4906 4599 4088 4329 5256 4088 4906 4906 4599 4906 4906 5256 5256 4599 6690 4088 3199 3345 3873 3873 3873 3345 4329 4329 4329 4329 4599 4088 4088 4088 6690 3199 3345 3345 3504 3504 3873 4329 4329 4088 3679 3679 3679 3679 3679 3345 2943 2943 2943 3345 3066 3066 3066 2830 2830 2628 2628 2374 2537 2453 2374 2374 2453 2453 2537 2537 2628 2299 2537 2453 2453 2453 2453 2299 2374 2374 2374 2230 2453 2299 2102 2044 1989 1936 1936 1936 1887 1795 1795 1795 1752 1795 0 0 0 0 0
    0 0 0 0 0 0 0 0 0 0 0 0 0 0 0 0 0 0 0 0 0 0 0 0 0 0 0 0 0 0 0 0 0 0 0 0 0 0 0 0 0 0 0 0 0 0 0 0 0 0 0 0 0 0 0 0 0 0 0 0 0 0 0 0 0 0 0 0 0 6690 6690 7359 0 7359 7359 8177 6690 6133 8177 7359 7359 5661 7359 6133 8177 8177 8177 8177 0 0 0 0 0 0 0 0 0 0 0 8177 8177 8177 0 0 0 0 0 0 0 0 0 0 0 0 0 0 0 0 0 6690 0 0 0 0 0 0 0 0 0 0 0 8177 6690 6133 6133 6133 5661 7359 6690 7359 7359 8177 8177 8177 8177 0 0 0 0 0 7359 7359 0 8177 7359 6690 7359 7359 8177 7359 0 7359 6690 0 0 0 0 0 193 0 192 0 0 0 6133 5661 0 0 0 0 0 0 0 0 0 7359 5661 6133 6133 6690 7359 0 8177 8177 0 0 0 0 0 0 0 0 0 0 0 0 0 8177 8177 8177 0 6690 6133 6690 8177 8177 8177 8177 6690 6690 0 6690 5661 4906 4329 4088 4329 4906 4088 4906 4599 4599 4599 4906 5256 4906 4329 6133 3199 2943 3345 3873 4088 4088 3504 4329 4329 4329 4599 4906 4088 4088 4088 6690 3199 3504 3345 3504 3679 3873 4329 4599 4088 3679 3873 3679 3873 3873 3679 3066 3066 3199 3345 3345 3199 3199 2943 2830 2628 2628 2453 2537 2453 2374 2374 2453 2453 2537 2537 2628 2374 2537 2537 2453 2537 2453 2374 2453 2374 2299 2230 2453 2299 2102 2044 2044 1989 1989 1936 1887 1795 1795 1795 1752 1795 0 0 0 0 0
    0 0 0 0 0 0 0 0 0 0 0 0 0 0 0 0 0 0 0 0 0 0 0 0 0 0 0 0 0 0 0 0 0 0 0 0 0 0 0 0 0 0 0 0 0 0 0 0 0 0 0 0 0 0 0 0 0 0 0 0 0 0 0 0 0 0 0 0 0 6690 6690 6690 0 7359 7359 8177 6690 6690 7359 6690 7359 6133 7359 6690 8177 8177 8177 8177 0 0 0 0 0 0 0 0 0 0 0 8177 7359 7359 0 0 0 0 0 0 0 0 0 0 0 0 0 0 0 0 0 7359 0 0 0 0 0 0 0 0 0 0 0 0 6133 6133 6690 6133 5661 7359 7359 7359 8177 0 8177 8177 8177 0 0 7359 7359 6690 6133 6133 7359 7359 6690 6133 6690 6690 7359 6690 0 7359 6690 7359 0 0 0 0 0 0 0 0 0 0 5661 5661 0 0 0 0 0 0 0 0 0 7359 5661 6133 5661 6690 7359 8177 7359 8177 9199 0 0 0 0 0 0 0 0 0 0 0 0 0 0 0 0 6690 6133 6133 6690 6690 7359 7359 6133 6133 6690 6690 5661 5661 4599 3873 4329 4906 4088 4906 4599 4329 4599 4329 4906 4329 3873 5661 3066 3066 3345 3679 4088 4088 3504 4329 4329 4329 4599 4599 4088 4088 4088 6690 3199 3345 3345 3504 3679 3679 4329 4599 4088 3873 3873 3873 3873 4088 3873 3199 3199 3345 3504 3345 3199 3199 2943 2830 2628 2628 2374 2537 2453 2374 2299 2453 2453 2537 2537 2628 2453 2537 2537 2537 2537 2537 2453 2453 2374 2299 2230 2453 2374 2164 2102 2102 2044 1989 1936 1887 1795 1795 1795 1752 1752 0 0 0 0 0
    0 0 0 0 0 0 0 0 0 0 0 0 0 0 0 0 0 0 0 0 0 0 0 0 0 0 0 0 0 0 0 0 0 0 0 0 0 0 0 0 0 0 0 0 0 0 0 0 0 0 0 0 0 0 0 0 0 0 0 0 0 0 0 0 0 0 0 0 0 6690 6690 6690 0 8177 8177 0 8177 8177 0 7359 8177 6690 7359 7359 0 0 0 8177 0 0 0 0 0 0 0 0 0 0 8177 7359 7359 7359 0 0 0 0 0 0 0 0 0 0 0 0 0 0 0 0 0 7359 0 0 0 0 0 0 0 0 0 0 0 8177 5256 6690 7359 7359 7359 0 0 0 0 0 0 0 0 0 8177 7359 0 0 5256 5256 6133 7359 6133 5661 6690 6690 7359 6133 0 7359 7359 7359 0 0 0 0 0 0 0 0 0 0 5661 5661 0 0 0 0 0 0 0 0 0 7359 6133 6133 5661 6690 6690 7359 7359 8177 8177 0 0 0 0 0 0 0 0 0 0 0 0 0 0 0 0 6690 6133 6133 6133 6690 7359 6690 5661 5661 6690 6690 5661 5661 4599 3873 4088 4906 3873 4599 4599 4329 4329 4329 4599 4088 3873 5256 3066 3066 3345 3504 4088 4088 3504 4329 4329 4329 4599 4599 4088 4088 4088 6690 3199 3345 3345 3504 3504 3679 4329 4599 4329 3873 4088 4088 4088 4329 4088 3504 3504 3345 3679 3345 3066 3199 2725 2725 2628 2537 2453 2537 2453 2374 2299 2453 2453 2537 2537 2628 2453 2537 2537 2628 2628 2537 2537 2537 2374 2299 2299 2453 2537 2230 2230 2164 2044 2044 1989 1887 1795 1795 1795 1752 1752 0 0 0 0 0
    0 0 0 0 0 0 0 0 0 0 0 0 0 0 0 0 0 0 0 0 0 0 0 0 0 0 0 0 0 0 0 0 0 0 0 0 0 0 0 0 0 0 0 0 0 0 0 0 0 0 0 0 0 0 0 0 0 0 0 0 0 0 0 0 0 0 0 0 0 6133 6690 6690 0 8177 8177 0 8177 0 0 8177 0 8177 0 0 0 0 0 0 0 0 0 0 0 0 0 0 0 0 8177 6690 6690 6690 0 0 0 0 0 0 0 0 0 0 0 0 0 0 0 0 0 7359 0 0 0 0 0 0 0 0 0 0 0 8177 5661 7359 8177 8177 8177 0 0 0 0 0 0 0 0 0 7359 6133 6690 0 4088 4088 4599 6133 5661 5256 6690 7359 8177 6690 0 8177 8177 8177 0 8177 8177 0 0 0 0 0 0 0 6133 5661 0 0 0 0 0 0 0 0 0 7359 6133 6133 5661 6133 6133 6690 6690 7359 8177 0 0 0 0 0 0 0 0 0 0 0 0 0 0 0 0 7359 6133 6690 6133 6690 7359 6690 4906 5661 6133 6133 5661 5256 4329 3873 4088 4906 3679 4329 4329 4088 4329 4088 4599 4088 3873 5256 3066 3066 3345 3679 4088 4088 3504 4329 4329 4329 4599 4599 4088 4088 4088 6690 3199 3345 3345 3345 3504 3679 4329 4329 4329 3873 4088 4088 4088 4329 4329 3679 3679 3504 3873 3504 3199 3199 2830 2725 2537 2537 2453 2537 2453 2374 2374 2537 2537 2537 2628 2628 2537 2628 2628 2628 2628 2537 2537 2537 2453 2374 2453 2453 2537 2230 2230 2164 2044 2044 1989 1887 1795 1795 1839 1795 1795 0 0 0 0 0
    0 0 0 0 0 0 0 0 0 0 0 0 0 0 0 0 0 0 0 0 0 0 0 0 0 0 0 0 0 0 0 0 0 0 0 0 0 0 0 0 0 0 0 0 0 0 0 0 0 0 0 0 0 0 0 0 0 0 0 0 0 0 0 0 0 0 0 0 0 6133 6133 6133 0 8177 0 0 8177 0 0 8177 0 0 0 0 0 0 0 0 0 0 0 0 0 0 0 0 0 0 8177 7359 6690 6690 0 0 0 0 0 0 0 0 0 0 0 0 0 0 0 0 0 7359 0 0 0 0 0 0 0 0 0 0 0 0 7359 8177 8177 8177 8177 0 0 0 0 0 0 0 0 0 7359 6133 7359 4906 4088 4088 4088 5256 5256 4599 6133 7359 8177 6690 0 0 0 0 0 8177 8177 0 0 7359 0 0 0 0 6133 6133 0 0 0 0 0 0 0 0 0 7359 6690 6690 5661 6690 6133 6690 6690 7359 8177 0 0 0 0 0 0 0 0 0 0 0 0 0 0 0 0 7359 6133 6690 5661 6133 7359 6690 4329 5256 5661 5661 5256 4906 4088 3679 4088 4906 3679 4329 4329 4088 4329 4329 4599 4088 3873 5661 3199 3066 3345 3873 4329 4329 3504 4599 4329 4329 4906 4906 4088 4088 4088 6690 3199 3345 3345 3345 3504 3679 4088 4329 4088 3679 4088 4088 4088 4329 4329 3504 3679 3679 4329 3504 3199 3345 2830 2830 2628 2537 2537 2628 2537 2453 2299 2537 2537 2628 2628 2725 2628 2628 2725 2628 2628 2628 2537 2537 2453 2374 2537 2453 2628 2230 2299 2230 2164 2102 1989 1887 1839 1839 1839 1795 1795 0 0 0 0 0
    0 0 0 0 0 0 0 0 0 0 0 0 0 0 0 0 0 0 0 0 0 0 0 0 0 0 0 0 0 0 0 0 0 0 0 0 0 0 0 0 0 0 0 0 0 0 0 0 0 0 0 0 0 0 0 0 0 0 0 0 0 0 0 0 0 0 0 0 0 6133 6133 6133 0 8177 0 0 8177 0 0 8177 0 0 0 0 0 0 0 0 0 0 0 0 0 0 0 0 0 8177 8177 7359 7359 6690 0 0 0 0 0 0 0 0 0 0 0 0 0 0 0 0 0 8177 0 0 0 0 0 0 0 0 0 0 0 0 8177 0 0 0 9199 0 0 0 0 0 0 0 0 0 8177 6690 0 5661 4599 4088 4088 5661 5661 4906 7359 8177 0 7359 0 0 0 0 0 0 0 0 0 7359 7359 7359 0 0 6133 5661 0 0 0 0 81 0 0 0 0 7359 6690 6690 5661 6690 6133 6690 6690 7359 8177 0 0 0 0 0 0 0 0 0 0 0 0 0 0 0 0 7359 6133 6690 6133 6690 7359 6690 4088 5256 5661 5661 5256 4599 4088 3873 4088 5256 3679 4329 4599 4329 4599 4329 4599 4329 3873 6133 3345 3066 3345 3873 4599 4599 3679 4599 4329 4329 4906 4906 4088 4088 4088 6690 3345 3345 3345 3345 3345 3679 4088 4329 4088 3679 3873 3873 4088 4329 4088 3504 3504 3504 4329 3504 3199 3345 2943 2830 2628 2537 2537 2628 2537 2453 2374 2628 2628 2628 2725 2725 2725 2725 2725 2628 2725 2628 2628 2537 2453 2374 2537 2537 2628 2230 2299 2230 2230 2164 2044 1887 1887 1839 1887 1839 1839 0 0 0 0 0
    0 0 0 0 0 0 0 0 0 0 0 0 0 0 0 0 0 0 0 0 0 0 0 0 0 0 0 0 0 0 0 0 0 0 0 0 0 0 0 0 0 0 0 0 0 0 0 0 0 0 0 0 0 0 0 0 0 0 0 0 0 0 0 0 0 0 0 0 0 6133 6133 6133 0 0 0 0 8177 8177 8177 8177 0 0 0 0 0 0 0 0 0 0 0 0 0 0 0 0 0 8177 8177 7359 8177 7359 0 0 0 0 0 0 0 0 0 0 0 0 0 0 0 0 0 8177 0 0 0 0 0 0 0 0 0 0 0 0 8177 0 0 0 0 0 0 0 0 0 0 0 0 0 8177 7359 0 6690 5256 4599 4906 6133 6133 5661 8177 0 0 7359 0 0 0 0 0 0 0 0 0 7359 7359 7359 8177 3873 5661 5661 0 0 0 0 81 0 0 0 0 7359 6133 6690 5661 6690 6133 6133 6133 7359 7359 0 0 0 0 0 0 0 0 0 0 0 0 0 0 0 0 6690 5661 6133 6133 6133 7359 6690 4088 5256 5661 5661 5256 4599 3873 3873 4088 5256 3679 4329 4599 4329 4599 4329 4329 3873 3679 5661 3345 3066 3345 3873 4599 4599 3679 4599 4599 4599 4906 4906 4088 4088 4088 6690 3345 3345 3345 3345 3345 3679 4088 4329 4088 3679 3873 3873 4088 4329 4088 3504 3504 3504 4599 3504 3199 3345 2943 2943 2725 2628 2628 2725 2628 2537 2453 2725 2725 2725 2830 2830 2830 2725 2725 2725 2725 2628 2628 2537 2374 2374 2537 2453 2628 2230 2299 2230 2164 2102 2044 1936 1887 1887 1887 1839 1839 0 0 0 0 0
    0 0 0 0 0 0 0 0 0 0 0 0 0 0 0 0 0 0 0 0 0 0 0 0 0 0 0 0 0 0 0 0 0 0 0 0 0 0 0 0 0 0 0 0 0 0 0 0 0 0 0 0 0 0 0 0 0 0 0 0 0 0 0 0 0 0 0 0 0 6133 6133 6133 0 0 0 0 8177 8177 8177 8177 0 0 0 0 0 0 0 0 0 0 0 0 0 8177 8177 8177 8177 8177 0 7359 8177 7359 0 0 0 0 0 0 0 0 0 0 0 0 0 0 0 0 0 8177 0 0 0 0 0 0 0 0 0 0 0 0 8177 0 0 0 0 0 0 0 0 0 0 0 0 0 8177 8177 0 7359 6133 5256 5661 6133 6133 6133 8177 9199 0 6690 0 0 0 0 0 0 0 0 0 8177 8177 8177 8177 4088 5661 5661 0 0 0 0 0 0 0 0 0 7359 6690 6690 5661 6690 6133 6133 6133 6690 7359 8177 0 0 0 0 0 0 0 0 0 0 0 0 0 0 0 6133 5256 6133 6133 6133 6690 6133 4088 5256 5661 6133 5256 4599 3873 3873 4329 5661 3504 4329 4329 4088 4329 4329 4329 3873 3679 5661 3345 3066 3345 3873 4906 4906 3679 4599 4599 4599 4906 4906 4088 4088 4088 6133 3345 3345 3345 3345 3345 3679 4088 4329 4088 3679 3873 3873 4088 4329 4088 3504 3345 3345 4329 3199 3066 3199 2943 2943 2830 2725 2830 2830 2725 2725 2537 2830 2830 2830 2943 2943 2943 2830 2830 2725 2725 2628 2628 2628 2453 2374 2537 2453 2628 2164 2299 2230 2164 2102 2102 1989 1936 1887 1936 1839 1839 0 0 0 0 0
    0 0 0 0 0 0 0 0 0 0 0 0 0 0 0 0 0 0 0 0 0 0 0 0 0 0 0 0 0 0 0 0 0 0 0 0 0 0 0 0 0 0 0 0 0 0 0 0 0 0 0 0 0 0 0 0 0 0 0 0 0 0 0 0 0 0 0 0 0 6133 6133 6133 0 0 0 0 8177 8177 9199 8177 0 0 0 0 0 0 0 0 0 0 8177 8177 0 8177 0 8177 8177 8177 0 7359 8177 7359 0 0 0 0 0 0 0 0 0 0 0 0 0 0 0 0 0 0 0 0 0 0 0 0 0 0 0 0 0 0 8177 0 0 0 8177 0 0 0 0 0 0 0 0 0 8177 8177 0 8177 7359 6133 6133 6690 6690 6690 8177 8177 0 6133 0 0 0 194 0 193 193 193 0 8177 8177 0 8177 4329 5661 5661 0 0 0 0 0 0 0 0 0 8177 7359 7359 6133 6690 6133 6133 6133 7359 7359 7359 0 0 0 0 0 0 0 0 0 0 0 8177 8177 8177 8177 6133 5256 6133 6133 6133 6690 6133 4088 5256 6133 6133 5256 4329 3873 4088 4329 5661 3504 4329 4599 4329 4599 4329 4088 3873 3679 5661 3345 3199 3345 3873 4906 4906 3679 4599 4599 4599 4906 4906 4088 4088 4088 6133 3345 3345 3345 3345 3345 3679 4088 4329 3873 3504 3873 4088 4088 4329 4088 3504 3345 3345 4599 3066 2943 3066 2830 2943 2830 2830 2830 2943 2830 2830 2725 2943 2943 2943 3066 3066 3066 2943 2943 2830 2830 2725 2725 2628 2453 2453 2628 2537 2628 2164 2374 2230 2230 2164 2164 1989 1936 1887 1936 1887 1887 0 0 0 0 0
    0 0 0 0 0 0 0 0 0 0 0 0 0 0 0 0 0 0 0 0 0 0 0 0 0 0 0 0 0 0 0 0 0 0 0 0 0 0 0 0 0 0 0 0 0 0 0 0 0 0 0 0 0 0 0 0 0 0 0 0 0 0 0 0 0 0 0 0 0 5661 5661 5661 8177 8177 7359 8177 7359 7359 7359 8177 8177 0 0 0 0 0 0 0 0 9199 8177 7359 0 7359 0 0 8177 7359 0 7359 8177 7359 0 0 0 0 0 0 0 0 0 0 0 0 0 0 0 0 0 0 0 0 0 0 0 0 0 0 0 0 0 8177 8177 0 0 0 0 0 0 0 0 0 0 0 0 0 8177 8177 0 8177 8177 6133 6133 6690 6690 6690 8177 8177 0 5256 0 0 0 0 0 0 0 0 0 0 0 0 0 4599 5661 5661 0 0 8177 0 0 0 0 0 0 8177 7359 7359 6133 6690 6133 6133 6133 6690 7359 6690 8177 0 0 0 0 0 0 0 0 0 0 8177 8177 8177 8177 5661 5256 6133 6690 6690 7359 6690 4329 5661 5661 5661 4906 4088 3679 4088 4088 5661 3504 4329 4599 4599 4906 4906 4329 4088 4088 6133 3504 3345 3504 4088 4906 4906 3679 4906 4599 4599 4906 4906 4088 4088 4088 6133 3345 3345 3504 3345 3504 3679 4088 4329 3873 0 4088 4088 4329 4329 4088 3504 3345 3345 4599 3066 2830 2943 2725 2830 2830 2830 2943 2943 2830 2830 2943 3066 3199 3066 3199 3066 3066 0 0 2943 2830 2830 2725 2725 2537 2537 2628 2537 2725 2230 2453 2299 2230 2164 2230 2044 1989 1989 1989 1887 1936 0 0 0 0 0
    0 0 0 0 0 0 0 0 0 0 0 0 0 0 0 0 0 0 0 0 0 0 0 0 0 0 0 0 0 0 0 0 0 0 0 0 0 0 0 0 0 0 0 0 0 0 0 0 0 0 0 0 0 0 0 0 0 0 0 0 0 0 0 0 0 0 0 0 0 5256 5256 5661 8177 7359 6690 8177 7359 6690 7359 8177 8177 0 0 0 0 0 0 0 0 8177 8177 7359 0 7359 0 0 8177 8177 0 8177 8177 7359 0 0 0 0 0 0 0 0 0 0 0 0 0 0 0 0 0 0 0 0 0 0 0 0 0 0 0 0 0 0 0 0 0 0 0 0 0 0 0 0 0 0 0 0 8177 8177 0 8177 0 6690 7359 7359 6133 6690 8177 8177 8177 5256 0 0 8177 8177 8177 8177 0 0 0 0 0 0 0 4906 6133 5661 0 0 8177 0 0 0 0 0 0 8177 8177 7359 6133 6690 6690 6690 6690 7359 7359 6690 7359 0 0 0 0 0 0 0 0 0 0 7359 8177 8177 8177 5661 5256 6133 6690 6690 7359 6690 4329 5661 5661 5661 4329 3873 3679 4088 4088 5256 3504 4599 4599 4906 5256 5661 4599 4329 4329 7359 3679 3345 3679 4329 5256 5256 3679 4906 4599 4599 4906 4599 3873 3873 3873 5661 3199 3199 3199 3199 3345 3504 4329 4329 4088 0 0 4088 4088 4329 3873 3345 3345 3345 4329 3066 2830 2830 2725 2725 2830 2830 2943 2943 2830 2830 3066 3066 3199 3066 3199 3066 3066 0 3066 2943 2943 2830 2830 2725 2537 2537 2725 2628 2830 2299 2537 2374 2299 2230 2230 2102 2044 1989 2044 1936 1989 0 0 0 0 0
    0 0 0 0 0 0 0 0 0 0 0 0 0 0 0 0 0 0 0 0 0 0 0 0 0 0 0 0 0 0 0 0 0 0 0 0 0 0 0 0 0 0 0 0 0 0 0 0 0 0 0 0 0 0 0 0 0 0 0 0 0 0 0 0 0 0 0 0 0 5256 5256 5256 7359 6690 6133 7359 7359 6690 7359 8177 8177 0 0 8177 0 0 0 8177 8177 7359 8177 7359 0 0 0 0 8177 8177 0 8177 8177 7359 0 0 0 0 0 0 0 0 0 0 0 0 0 0 0 0 0 0 0 0 0 0 0 0 0 0 0 0 0 8177 0 0 0 0 0 0 0 0 0 0 0 0 0 0 8177 8177 0 8177 0 7359 8177 7359 5661 6690 7359 7359 7359 5661 8177 8177 8177 8177 8177 8177 8177 0 0 0 8177 0 9199 5256 6133 5661 0 0 0 0 0 0 0 0 0 8177 8177 8177 6690 7359 6690 6690 6690 7359 7359 6690 7359 0 0 0 0 0 0 0 0 0 0 8177 8177 8177 8177 5661 4906 6133 6133 6133 6690 6133 4329 5256 5256 5661 4329 3873 3679 4088 4329 5256 3504 4906 4599 5256 5256 5661 4599 4329 4329 7359 3873 3504 3679 4599 5256 5256 3679 4599 4599 4599 4599 4329 3504 3504 3504 4599 2943 2725 2830 3066 3199 3679 4329 4599 4088 0 0 4088 4088 4088 3873 3199 3199 3066 3873 2943 2725 2725 2628 2725 2725 2943 2943 2943 2830 2830 3066 3199 3199 3066 3199 3199 3199 0 3199 2943 2943 2830 2830 2725 2537 2628 2725 2628 2830 2230 2453 2374 2374 2299 2299 2102 2044 1989 2044 1936 1989 0 0 0 0 0
    0 0 0 0 0 0 0 0 0 0 0 0 0 0 0 0 0 0 0 0 0 0 0 0 0 0 0 0 0 0 0 0 0 0 0 0 0 0 0 0 0 0 0 0 0 0 0 0 0 0 0 0 0 0 0 0 0 0 0 0 0 0 0 0 0 0 0 0 0 4906 4906 5256 7359 6133 5661 7359 6690 5661 6133 6690 6690 8177 8177 7359 8177 8177 8177 8177 8177 7359 7359 7359 0 7359 0 8177 8177 8177 0 8177 0 8177 0 0 0 0 0 0 0 0 0 0 0 0 0 0 0 0 0 0 0 0 0 0 0 0 0 0 0 0 0 0 0 0 0 0 0 0 0 0 0 0 0 0 0 0 0 8177 8177 8177 0 8177 0 8177 5661 6690 7359 7359 7359 6133 8177 8177 7359 8177 8177 8177 8177 8177 0 0 8177 0 8177 5256 6133 5661 0 0 0 0 0 0 0 0 0 8177 8177 7359 6690 7359 6690 7359 7359 7359 7359 6690 7359 0 0 0 0 0 0 0 0 0 0 8177 8177 8177 8177 5256 4906 6133 6133 6133 6690 5661 4329 5256 5256 5256 4088 3873 3504 4088 4329 5256 3679 4906 4906 5256 5256 5661 4599 4329 4329 7359 3873 3504 3679 4329 5256 5256 3679 4599 4599 4329 4329 3873 0 3345 3345 3873 2830 2453 2453 2830 3066 3679 4599 4599 0 0 0 0 0 0 0 2943 2830 2830 3066 2725 2453 2628 2537 2628 2725 2830 2943 2943 2725 2830 3199 3199 3199 3066 3199 3199 3066 0 3066 2943 2830 2830 2830 2628 2374 2537 2725 2628 2725 2164 2453 2374 2374 2299 2230 1989 1989 1936 1936 1887 1936 0 0 0 0 0
    0 0 0 0 0 0 0 0 0 0 0 0 0 0 0 0 0 0 0 0 0 0 0 0 0 0 0 0 0 0 0 0 0 0 0 0 0 0 0 0 0 0 0 0 0 0 0 0 0 0 0 0 0 0 0 0 0 0 0 0 0 0 0 0 0 0 0 0 0 4906 4906 4906 6690 5661 5256 6690 6133 5256 5661 6133 6133 7359 7359 6690 8177 7359 8177 8177 8177 7359 7359 7359 0 7359 8177 8177 8177 8177 0 8177 0 8177 0 0 0 0 0 0 0 0 0 0 0 0 0 0 0 0 0 0 0 0 0 0 0 0 0 0 0 0 0 0 0 0 0 0 0 0 0 0 0 0 0 0 0 0 8177 8177 8177 8177 0 0 0 0 5661 6690 8177 8177 8177 6133 8177 8177 7359 8177 8177 8177 8177 8177 0 9199 8177 8177 7359 5256 5661 5256 0 0 0 0 0 0 0 0 0 8177 8177 8177 6690 7359 7359 7359 7359 8177 7359 6133 6690 8177 0 0 0 0 0 0 0 0 0 8177 8177 8177 8177 5256 4906 6133 6133 6133 6690 5256 4329 4906 4906 5256 3873 3873 3679 4088 4599 5256 3873 5256 4906 5256 5256 5256 4329 4088 4088 6690 3504 3504 3679 4329 4906 4906 3679 4599 4599 4329 4088 3679 0 0 0 3504 2725 2374 2374 2725 2628 3504 4599 4906 0 0 0 0 0 0 230 2830 2628 2725 2830 2537 2374 2537 2453 2537 2628 2725 2830 2830 2628 2725 3066 3066 3066 2943 3066 3066 3066 0 3066 2830 2830 2725 2830 2628 2230 2374 2537 2453 2628 1989 2453 2299 2299 2164 2102 1936 1936 1887 1887 1795 1839 0 0 0 0 0
    0 0 0 0 0 0 0 0 0 0 0 0 0 0 0 0 0 0 0 0 0 0 0 0 0 0 0 0 0 0 0 0 0 0 0 0 0 0 0 0 0 0 0 0 0 0 0 0 0 0 0 0 0 0 0 0 0 0 0 0 0 0 0 0 0 0 0 0 0 4599 4599 4906 6133 5256 5256 6690 5661 4906 5661 5661 5661 6690 7359 6690 7359 7359 8177 8177 7359 6690 7359 6690 0 7359 8177 8177 8177 8177 0 0 0 8177 0 0 0 0 0 0 0 0 0 0 0 0 0 0 0 0 0 0 0 0 0 0 0 0 0 0 0 0 0 0 0 0 0 0 0 0 0 0 0 0 8177 8177 8177 8177 8177 8177 7359 8177 0 8177 0 0 5661 6690 8177 8177 8177 6690 8177 8177 8177 8177 8177 8177 0 8177 0 0 8177 8177 7359 5661 6133 5661 0 0 0 0 0 0 0 0 0 8177 8177 8177 7359 8177 8177 8177 8177 9199 7359 6133 6690 8177 0 0 0 0 0 0 0 0 0 8177 8177 8177 8177 5256 4599 5661 6133 6133 6690 4906 4329 4906 4599 4906 3873 3679 3504 4088 4599 5256 3873 5256 4599 5256 4906 5256 4088 3873 3873 6133 3345 0 3504 4088 4906 4906 3679 4599 4599 4599 4088 3873 0 0 0 0 2725 2230 2164 2453 2230 3345 4599 4906 0 0 0 0 0 0 0 2725 2537 2537 2725 2374 2230 2453 2374 2453 2453 2628 2628 2537 2453 2453 2830 2830 2943 2830 2943 2943 2943 2943 3066 2830 2830 2628 2725 2537 2102 2164 2374 2164 2299 1936 2299 2164 2230 2102 2044 1936 1887 1839 1839 1795 1795 0 0 0 0 0
    0 0 0 0 0 0 0 0 0 0 0 0 0 0 0 0 0 0 0 0 0 0 0 0 0 0 0 0 0 0 0 0 0 0 0 0 0 0 0 0 0 0 0 0 0 0 0 0 0 0 0 0 0 0 0 0 0 0 0 0 0 0 0 0 0 0 0 0 0 4599 4599 4599 5661 4906 4599 6133 5256 4906 5256 5661 5661 6133 6690 6133 7359 7359 7359 7359 7359 6690 7359 6690 0 7359 7359 7359 7359 7359 0 8177 0 8177 0 0 0 0 0 0 0 0 0 0 0 0 0 0 0 0 0 0 0 0 0 0 0 0 0 0 0 0 0 0 0 0 0 0 0 0 0 0 0 0 8177 8177 8177 8177 8177 7359 7359 8177 0 0 0 0 6690 7359 0 0 9199 7359 8177 0 8177 8177 0 8177 0 8177 0 0 7359 7359 7359 5661 6133 5661 0 0 0 0 0 0 0 0 0 8177 8177 0 7359 8177 0 0 0 0 8177 6690 6690 0 0 0 0 0 0 0 0 0 0 8177 8177 8177 8177 5256 4599 5661 6133 6133 6690 4906 4088 4599 4088 4599 3679 3679 3504 3873 4329 4906 3873 5256 4599 5256 4906 4906 4088 3873 3873 6133 3345 0 3504 3873 4599 4599 3679 4599 4906 4599 4088 3873 0 0 0 0 2725 2230 2102 2230 1989 0 4329 4329 0 0 0 0 0 0 0 2628 2374 2374 2537 2164 2044 2230 2102 2102 2230 2299 2230 2164 2102 2102 2453 2628 2628 2537 2628 2830 2830 2943 2943 2830 2830 2537 2725 2374 1989 1989 2164 1989 2044 1887 2102 2044 2164 1989 1936 1839 1839 1839 1795 1752 1795 0 0 0 0 0
    0 0 0 0 0 0 0 0 0 0 0 0 0 0 0 0 0 0 0 0 0 0 0 0 0 0 0 0 0 0 0 0 0 0 0 0 0 0 0 0 0 0 0 0 0 0 0 0 0 0 0 0 0 0 0 0 0 0 0 0 0 0 0 0 0 0 0 0 0 4599 4599 4599 5661 4599 4329 6133 5256 4906 5256 5256 5661 6133 6133 6133 6690 6690 7359 7359 7359 6133 7359 7359 0 7359 7359 7359 7359 7359 0 8177 8177 8177 0 0 0 0 0 0 0 0 0 0 0 0 0 0 0 0 0 0 0 0 0 0 0 0 0 0 0 0 0 0 0 0 0 0 0 0 0 0 0 0 0 8177 8177 8177 8177 8177 8177 0 0 0 0 0 0 0 0 0 0 8177 0 0 8177 0 0 8177 8177 8177 0 8177 7359 7359 7359 5661 6133 5661 0 0 0 0 0 0 0 0 0 8177 8177 0 7359 0 0 0 0 0 0 7359 8177 0 0 0 0 0 0 0 0 0 0 6690 7359 7359 7359 4906 4599 5256 5661 5661 6690 4329 3873 4088 3873 4329 3504 3679 3504 3873 4329 4906 3873 5256 4599 5256 4906 4906 3873 3873 3679 5661 3066 0 3199 3504 4329 4088 3504 4329 4599 4088 3873 3504 3066 3066 3066 3199 2628 2164 2102 2044 1887 0 4088 3873 3345 0 0 0 0 0 0 2453 2164 2230 2299 1936 1936 1989 1936 1936 1989 1989 1936 1887 1936 1887 2102 2230 2230 2044 2164 2725 2725 2830 2830 2725 2628 2374 2537 2164 1936 1936 2044 1936 1936 1887 2102 2044 2102 1936 1936 1839 1795 1795 1795 1752 1752 0 0 0 0 0
    0 0 0 0 0 0 0 0 0 0 0 0 0 0 0 0 0 0 0 0 0 0 0 0 0 0 0 0 0 0 0 0 0 0 0 0 0 0 0 0 0 0 0 0 0 0 0 0 0 0 0 0 0 0 0 0 0 0 0 0 0 0 0 0 0 0 0 0 0 4599 4599 4599 5661 4599 4329 6133 5256 4906 5256 5256 5661 6133 6133 6133 6690 6690 7359 7359 6690 5661 8177 8177 0 8177 8177 8177 8177 8177 0 8177 0 8177 0 0 0 0 0 0 8177 8177 0 0 0 0 0 0 0 0 0 0 0 0 0 0 0 0 0 0 0 0 0 0 0 0 0 0 0 0 0 0 0 0 0 0 0 9199 8177 0 0 0 0 0 0 0 0 0 0 0 0 0 0 0 8177 8177 0 8177 8177 8177 8177 7359 7359 7359 6690 6133 6690 6133 0 0 0 0 0 0 0 0 0 8177 8177 0 7359 0 0 0 0 0 0 0 0 0 0 0 0 0 0 0 0 0 0 6133 6690 6690 6690 4906 4329 5256 5256 5661 6133 4329 3679 3873 3504 4088 3504 3679 3504 3873 4329 4599 3873 5256 4599 5256 4906 4906 3873 3679 3679 5256 2943 2453 3066 3345 3873 3873 3345 4329 4329 3873 3504 3345 2943 2830 2830 2830 2453 2102 2044 1989 1839 1795 3504 3504 3066 2830 3066 0 0 0 0 2299 2044 2044 2044 1839 1839 1887 1839 1839 1887 1839 1839 1752 1839 1752 1936 1936 1936 1887 1887 2299 2374 2537 2537 2299 2164 2044 2102 1989 1887 1887 1989 1936 1936 1887 2044 1989 2044 1936 1887 1795 1795 1795 1752 1752 1752 0 0 0 0 0
    0 0 0 0 0 0 0 0 0 0 0 0 0 0 0 0 0 0 0 0 0 0 0 0 0 0 0 0 0 0 0 0 0 0 0 0 0 0 0 0 0 0 0 0 0 0 0 0 0 0 0 0 0 0 0 0 0 0 0 0 0 0 0 0 0 0 0 0 0 4599 4599 4599 5661 4599 4329 5661 5256 4906 5256 5256 5661 5661 5661 5661 6690 6690 7359 7359 6690 5661 8177 0 0 8177 0 0 0 8177 0 0 0 8177 0 0 0 0 0 8177 8177 8177 8177 0 0 0 0 0 0 0 0 0 0 0 0 0 0 0 0 0 0 0 0 0 0 0 0 0 0 0 0 0 0 0 0 0 0 0 0 0 0 0 0 0 0 0 0 0 0 0 0 0 0 0 8177 8177 9199 8177 8177 8177 8177 7359 6690 6690 6690 6133 6690 6690 0 0 0 0 0 0 0 0 0 8177 7359 8177 7359 0 0 0 0 0 0 0 0 0 0 0 0 0 0 0 0 0 0 6133 6133 6690 6690 4906 4329 4906 4906 5256 6133 4088 3504 3679 3345 3873 3345 3504 3504 3679 4329 4599 3873 5256 4599 5256 4906 4906 3679 3679 3504 4599 2830 2453 2830 3066 3504 3679 3199 4088 3873 3504 3345 3199 2725 2628 2628 2628 2299 2044 2044 1936 1839 1795 2628 2830 2725 2453 2725 2537 2537 0 2453 2102 1989 1989 1936 1795 1795 1839 1795 1795 1839 1795 1795 1711 1795 1752 1887 1839 1795 1795 1795 1936 2044 2102 2164 1936 1936 1936 1989 1936 1887 1887 1936 1887 1887 1887 1989 1936 1989 1887 1839 1752 1752 1752 1752 1711 1752 0 0 0 0 0
    0 0 0 0 0 0 0 0 0 0 0 0 0 0 0 0 0 0 0 0 0 0 0 0 0 0 0 0 0 0 0 0 0 0 0 0 0 0 0 0 0 0 0 0 0 0 0 0 0 0 0 0 0 0 0 0 0 0 0 0 0 0 0 0 0 0 0 0 0 4599 4329 4599 5661 4599 4329 5661 5256 4906 5256 5256 5256 5661 5256 5661 6133 6133 7359 6690 6690 5256 0 0 0 0 0 0 0 0 0 0 0 8177 0 0 0 0 0 8177 7359 7359 7359 8177 0 0 0 0 0 0 0 0 0 0 0 0 0 0 0 0 0 0 0 0 0 0 0 0 0 0 0 0 0 0 0 0 0 0 0 0 0 0 0 0 0 0 0 0 0 0 0 0 0 0 0 8177 8177 8177 8177 8177 8177 7359 6690 6690 6133 6133 6690 6690 0 0 8177 0 0 0 0 0 0 7359 7359 8177 7359 0 0 0 0 0 0 0 0 0 0 0 0 0 0 0 0 0 8177 6133 5661 6133 6133 4906 4599 4906 4906 5256 5661 4088 3345 3504 3199 3679 3345 3504 3504 3679 4088 4599 3873 5256 4599 5256 4906 4599 3679 3679 3504 4599 2943 2725 2943 2830 3066 3199 3066 3679 3504 3199 3066 2943 2725 2537 2537 2537 2230 2044 2102 1936 1839 1839 2044 2374 2299 2164 2453 2164 2299 2164 2164 1989 1936 1887 1887 1795 1795 1839 1795 1795 1795 1752 1752 1711 1795 1752 1795 1795 1752 1752 1795 0 1887 1936 1936 1839 1887 1887 1887 1887 1887 1839 1887 1887 1839 1839 1887 1839 1887 1839 1795 1752 1752 1752 1711 1711 1711 0 0 0 0 0
    0 0 0 0 0 0 0 0 0 0 0 0 0 0 0 0 0 0 0 0 0 0 0 0 0 0 0 0 0 0 0 0 0 0 0 0 0 0 0 0 0 0 0 0 0 0 0 0 0 0 0 0 0 0 0 0 0 0 0 0 0 0 0 0 0 0 0 0 0 4329 4329 4329 5256 4329 4088 5256 4906 4599 4906 4906 5256 5661 4906 5256 6133 6133 6690 6690 6690 4599 0 0 0 0 0 0 0 0 0 0 0 8177 0 0 0 0 0 7359 7359 7359 7359 8177 0 0 0 0 0 0 0 0 0 0 0 0 0 0 0 0 0 0 0 0 0 0 0 0 0 0 0 0 0 0 0 0 0 0 0 0 0 0 0 0 0 0 0 0 0 0 0 0 0 0 0 0 8177 8177 8177 7359 8177 6690 6690 6690 6133 6133 7359 7359 0 0 8177 0 8177 0 0 8177 8177 7359 6690 8177 7359 0 0 0 0 0 0 0 0 0 0 0 0 0 0 0 0 0 6690 6133 5256 5661 5661 4906 4599 4906 4599 5661 5661 4088 3199 3345 0 3504 3345 3504 3345 3679 4088 4329 3873 5256 4599 4906 4599 4599 3679 3504 3345 3873 2830 2628 2830 2628 2725 2830 2830 3199 3066 2830 2830 2830 2628 2537 2537 2453 2230 2044 2230 1936 1936 1887 1989 2164 2102 2044 2230 2044 2102 2044 2044 1936 1887 1887 1839 1752 1795 1795 1795 1752 1752 1752 1752 1711 1795 1752 1752 1752 1752 1752 0 0 1839 1887 1887 1839 1839 1839 1887 1887 1887 1839 1839 1839 1795 1839 1839 1839 1839 1795 1711 1711 1711 1711 1672 1672 1672 0 0 0 0 0
    0 0 0 0 0 0 0 0 0 0 0 0 0 0 0 0 0 0 0 0 0 0 0 0 0 0 0 0 0 0 0 0 0 0 0 0 0 0 0 0 0 0 0 0 0 0 0 0 0 0 0 0 0 0 0 0 0 0 0 0 0 0 0 0 0 0 0 0 0 4599 4329 4329 5256 4329 4088 5256 4906 4599 4906 4906 4906 5256 4906 5256 5661 5661 6690 6690 6690 4329 8177 0 0 8177 8177 0 0 8177 0 0 0 8177 0 0 0 0 0 8177 8177 8177 7359 8177 0 0 0 0 0 0 0 0 0 0 0 0 0 0 0 0 0 0 0 0 0 0 0 0 0 0 0 0 0 0 0 0 0 0 0 0 0 0 0 0 0 0 0 0 0 0 0 0 0 0 0 8177 8177 8177 7359 7359 8177 6690 6133 6690 6133 6133 7359 7359 8177 8177 7359 8177 7359 8177 0 7359 7359 7359 6133 7359 7359 0 8177 9199 0 0 7359 0 0 0 0 0 0 0 0 0 0 0 6133 6133 4906 5661 5661 4906 4599 4906 4906 5661 5661 4599 3345 3345 0 3504 3345 3504 3504 3679 4088 4329 3873 5256 4329 4906 4599 4599 3504 3345 3199 3345 2725 2537 2628 2374 2537 2537 2537 2725 2725 2453 2537 2537 2537 2453 2537 2374 2230 2102 2453 1989 1989 1989 1989 2044 2044 1989 2164 1936 1989 1936 1936 1887 1839 1839 1795 1711 1752 1752 1752 1711 1752 1711 1752 1711 1752 1752 1752 1752 1711 1711 0 0 1795 1795 1795 1839 1839 1839 1887 1887 1887 1887 1887 1887 1795 1795 1839 1795 1795 1752 1672 1711 1711 1711 1672 1672 1672 0 0 0 0 0
    0 0 0 0 0 0 0 0 0 0 0 0 0 0 0 0 0 0 0 0 0 0 0 0 0 0 0 0 0 0 0 0 0 0 0 0 0 0 0 0 0 0 0 0 0 0 0 0 0 0 0 0 0 0 0 0 0 0 0 0 0 0 0 0 0 0 0 0 0 4599 4329 4329 5256 4329 4088 5256 4906 4599 4599 4906 4906 5256 4906 5256 5661 6133 6690 6690 6133 3873 7359 0 0 6690 6690 8177 8177 8177 0 0 0 0 0 0 0 0 0 8177 0 8177 8177 0 0 0 0 0 0 0 0 0 0 0 0 0 0 0 0 0 0 0 0 0 0 0 0 0 0 0 0 0 0 0 0 0 0 0 0 0 0 0 0 0 0 0 0 0 0 0 0 0 0 0 0 8177 8177 7359 7359 7359 8177 6690 6133 7359 6133 6133 7359 7359 8177 8177 7359 7359 7359 8177 8177 6690 6690 6690 4906 6690 6133 8177 6690 7359 0 8177 6133 0 0 0 0 0 0 0 0 0 0 0 5661 5661 4906 5661 5661 4906 4906 4906 4906 6133 6133 5256 3199 3345 0 3504 3345 3504 3504 3679 4088 4329 3873 5256 4329 4906 4329 4329 3504 3199 3199 3066 2628 2537 2453 2299 2374 2374 2374 2453 2374 2102 2299 2230 2374 2164 2299 2164 2044 1989 2453 1936 1989 1936 1989 1989 1989 1989 2044 1887 1936 1839 1887 1839 1795 1752 1752 1672 1752 1711 1752 1711 1711 1711 1752 1752 1795 1752 1752 1752 1711 1711 0 0 1752 1795 1839 1839 1839 1839 1887 1936 1936 1887 1887 1839 1795 1795 1839 1795 1795 1752 1672 1672 1672 1711 1635 1672 1711 0 0 0 0 0
    0 0 0 0 0 0 0 0 0 0 0 0 0 0 0 0 0 0 0 0 0 0 0 0 0 0 0 0 0 0 0 0 0 0 0 0 0 0 0 0 0 0 0 0 0 0 0 0 0 0 0 0 0 0 0 0 0 0 0 0 0 0 0 0 0 0 0 0 0 4329 4329 4329 5256 4088 4088 4906 4906 4599 4599 4906 4906 5661 4906 5256 6133 6133 6690 6690 5661 3679 5661 7359 8177 5661 4906 6133 6690 8177 0 8177 0 0 0 0 0 0 0 8177 0 0 8177 0 0 0 0 0 0 0 0 0 0 0 0 0 0 0 0 0 0 0 0 0 0 0 0 0 0 0 0 0 0 0 0 0 0 0 0 0 0 0 0 0 0 0 0 0 0 0 0 0 0 0 8177 8177 7359 7359 7359 7359 8177 6690 6133 7359 6133 5661 6690 7359 7359 8177 7359 7359 6690 7359 8177 6133 6133 6133 4329 5256 4329 6690 4906 4599 0 6690 5256 0 0 0 0 0 0 0 0 0 0 0 5256 5661 4599 5256 5256 4906 4906 4906 4906 6133 6133 5661 3199 3345 0 3504 3199 3504 3345 3679 4088 4329 3873 4906 4329 4599 4329 4329 3345 3066 2943 2830 2628 2453 2453 2230 2374 2299 2299 2299 2164 1989 2102 2102 2164 1989 2102 1989 1936 1989 2537 1936 2044 1989 1989 1989 1989 1936 1989 1839 1936 1795 1795 1795 1795 1711 1711 1672 0 0 1752 1711 1752 0 0 451 459 462 0 0 0 0 0 0 1752 1795 1795 1839 1839 1795 1839 1887 1887 1887 1839 0 1795 1795 1839 1752 1752 1711 1672 1672 1672 1711 1635 1672 1672 0 0 0 0 0
    0 0 0 0 0 0 0 0 0 0 0 0 0 0 0 0 0 0 0 0 0 0 0 0 0 0 0 0 0 0 0 0 0 0 0 0 0 0 0 0 0 0 0 0 0 0 0 0 0 0 0 0 0 0 0 0 0 0 0 0 0 0 0 0 0 0 0 0 0 4329 4329 4329 5256 4088 4088 4906 4906 4599 4599 4906 4906 5256 4906 4906 5661 6133 6690 6133 5256 3679 5256 6133 6690 4906 3504 4599 5661 7359 0 7359 8177 8177 0 0 0 0 0 8177 0 0 8177 0 0 0 0 0 0 0 0 0 0 0 0 0 0 0 0 0 0 0 0 0 0 0 0 0 0 0 0 0 0 0 0 0 0 0 0 0 0 0 0 0 0 0 0 0 0 0 0 0 0 0 8177 7359 7359 7359 7359 7359 8177 6690 6133 7359 6690 5661 6690 7359 7359 8177 7359 7359 6690 7359 8177 6133 6133 5661 4088 4906 3679 4906 4088 3873 7359 6133 5256 0 0 0 0 0 0 0 0 0 0 0 4906 5661 4599 5256 5256 4906 4906 4906 4906 6133 5661 5661 3345 3504 0 3504 0 0 3345 3679 4088 4088 3873 4906 4088 4599 4088 4088 3199 2943 2830 2725 2537 2453 2374 2230 2299 2230 2230 2299 2102 1936 1989 1989 2044 1936 1989 1936 1887 1887 2537 1936 2044 1989 1989 1989 1989 1936 1989 1839 1887 1795 1795 1795 1752 1711 1752 0 0 0 0 0 0 0 448 451 457 459 454 0 0 0 1711 0 1752 1795 1795 1839 1839 1752 1839 0 0 0 1795 0 1752 1752 1795 1752 1752 1711 1672 1672 1672 1672 1635 1672 1672 0 0 0 0 0
    0 0 0 0 0 0 0 0 0 0 0 0 0 0 0 0 0 0 0 0 0 0 0 0 0 0 0 0 0 0 0 0 0 0 0 0 0 0 0 0 0 0 0 0 0 0 0 0 0 0 0 0 0 0 0 0 0 0 0 0 0 0 0 0 0 0 0 0 0 4329 4329 4329 5661 4088 4088 4906 4906 4599 4599 4906 4906 5256 4906 4906 6133 6133 6133 6133 4599 3504 4906 5256 4088 3679 2943 3504 4599 6133 8177 6690 8177 8177 0 0 0 0 0 8177 8177 8177 8177 8177 0 0 0 0 0 0 0 0 0 0 0 0 0 0 0 0 0 0 0 0 0 0 0 0 0 0 0 0 0 0 0 0 0 0 0 0 0 0 0 0 0 0 0 0 0 0 0 8177 0 0 7359 6690 6690 6690 6690 6690 8177 6690 6690 7359 7359 5661 7359 7359 8177 8177 7359 7359 7359 8177 8177 6133 6133 5661 3873 4329 3345 4329 3873 3679 6690 5256 5256 6690 7359 7359 0 0 0 0 0 0 0 0 4906 6133 4329 5256 5256 4906 4906 4599 4599 6133 5256 6133 3504 3504 0 3679 0 0 3504 3679 4088 4088 4088 4906 4088 4599 4088 0 0 2830 2725 2628 2453 2453 2299 2164 2299 2230 2230 2230 2102 1936 1936 1989 1989 1887 1989 1936 1839 1887 2537 1936 2044 1989 2044 1989 1989 1936 1989 1839 1936 1795 1795 1795 1795 0 0 0 0 0 0 0 457 457 448 451 454 457 454 0 0 0 1711 1752 1752 1839 1839 1839 1839 1752 1795 1887 0 1839 1795 1795 1752 1752 1795 1752 1752 1711 1672 1672 1672 1672 1635 1635 1635 0 0 0 0 0
    0 0 0 0 0 0 0 0 0 0 0 0 0 0 0 0 0 0 0 0 0 0 0 0 0 0 0 0 0 0 0 0 0 0 0 0 0 0 0 0 0 0 0 0 0 0 0 0 0 0 0 0 0 0 0 0 0 0 0 0 0 0 0 0 0 0 0 0 0 4599 4329 4329 5661 4329 4329 4906 4906 4599 4599 4906 4906 5256 4906 4906 6133 5661 5661 5661 4088 3345 3873 3873 3345 3199 2830 3066 3504 4088 6133 5256 6133 7359 8177 0 7359 8177 8177 7359 8177 8177 7359 8177 0 0 8177 8177 0 0 0 0 0 0 0 0 0 0 0 0 0 0 0 0 0 0 0 0 0 0 0 0 0 0 0 0 0 0 0 0 0 0 0 0 0 0 0 0 0 0 0 8177 0 0 7359 6690 6690 6690 6690 6690 8177 6690 6690 7359 7359 6133 7359 7359 0 0 8177 8177 7359 8177 0 6133 6133 5256 3679 3873 3066 3679 3504 3504 5661 4599 5256 6133 6133 6690 7359 7359 8177 8177 0 0 0 0 4906 6133 4329 5256 5256 4906 4599 4599 4599 6133 5256 6133 3504 3679 0 3679 0 0 3504 3679 4088 4329 4088 4906 4088 0 0 0 87 2725 2725 2628 2374 2374 2299 2164 2299 2164 2230 2230 2102 0 1936 1989 1989 1887 1936 1887 1839 1839 2453 1936 2044 1989 2044 1989 1989 1989 1989 1839 1936 1795 1795 0 0 0 0 0 0 454 0 457 454 457 448 451 454 457 454 0 0 0 1711 1752 1752 1795 1839 1839 1839 1752 1795 1839 1795 1795 1795 1752 1711 1711 1752 1711 1711 1672 1635 1635 1635 1599 1599 1565 1565 0 0 0 0 0
    0 0 0 0 0 0 0 0 0 0 0 0 0 0 0 0 0 0 0 0 0 0 0 0 0 0 0 0 0 0 0 0 0 0 0 0 0 0 0 0 0 0 0 0 0 0 0 0 0 0 0 0 0 0 0 0 0 0 0 0 0 0 0 0 0 0 0 0 0 4599 4599 4599 6133 4599 4906 5256 5256 4906 4906 5256 5256 5256 5256 4906 6133 5256 5661 5661 3873 3345 3679 3345 3066 2943 2725 2830 3066 3199 4088 3873 4088 6133 7359 8177 6133 7359 8177 7359 8177 8177 7359 7359 0 9199 7359 6690 0 0 0 0 0 0 0 0 0 0 0 0 0 0 0 0 0 0 0 0 0 0 0 0 0 0 8177 7359 0 0 8177 8177 8177 0 0 0 0 0 0 0 0 0 0 8177 0 0 7359 6133 6690 6133 6690 6690 7359 6690 6133 6690 7359 5661 7359 7359 0 0 8177 7359 7359 7359 8177 5661 5256 4329 3199 3199 2830 3066 3066 3199 4088 3873 4599 5661 5661 6133 6133 6690 7359 7359 0 8177 8177 0 4599 5661 4329 5256 5256 4599 4599 4599 4906 6133 5661 6690 3873 4088 0 3873 3504 3504 3504 3679 4329 4329 4329 4906 4088 0 0 0 0 0 2628 2537 2374 2374 2230 2164 2299 2164 2230 2164 2102 0 1936 0 1989 1887 1936 1887 1795 1795 2374 1936 2044 1989 2044 2044 2044 1989 1989 1839 0 0 0 0 0 0 0 454 459 454 459 457 454 454 448 454 457 459 454 0 1711 1752 1711 1752 1752 1795 1839 1839 1839 1752 1795 1795 1752 1795 1752 1711 1672 1635 1711 1672 1672 1635 1565 1565 1565 1565 1565 1501 1471 0 0 0 0 0
    0 0 0 0 0 0 0 0 0 0 0 0 0 0 0 0 0 0 0 0 0 0 0 0 0 0 0 0 0 0 0 0 0 0 0 0 0 0 0 0 0 0 0 0 0 0 0 0 0 0 0 0 0 0 0 0 0 0 0 0 0 0 0 0 0 0 0 0 0 4599 4599 4599 6133 5256 5661 5661 5661 5256 4906 5256 5256 5256 5256 4906 6133 5661 5661 5256 3873 3345 3504 3199 2943 2830 2725 2725 2943 2943 3345 3345 3345 4599 6133 6690 4906 6133 7359 6690 8177 7359 6690 7359 8177 8177 6690 5661 0 8177 8177 8177 0 0 0 0 0 0 0 0 0 0 0 0 0 0 0 0 0 0 0 0 0 9199 7359 7359 0 0 0 8177 0 0 0 0 0 0 0 0 0 0 0 7359 0 8177 6690 5661 6133 5661 6133 6690 7359 6133 5661 6133 7359 5661 7359 7359 0 0 8177 7359 7359 7359 0 4599 4088 3679 3066 2943 2725 2830 2830 2943 3504 3504 4599 5661 5661 6133 6133 6690 6690 6690 0 7359 7359 8177 4329 5661 4329 5256 5256 4906 4906 4906 4906 6690 6133 7359 4329 4329 0 4088 3504 3679 3504 3873 4599 4599 4599 4906 4329 0 0 0 0 0 2628 2453 2299 2374 2164 2164 2230 2164 2230 2164 2044 0 1936 0 1989 1887 1936 1887 1795 1795 2299 1887 1989 1989 2044 2044 2044 1989 1989 1839 0 0 0 0 0 0 0 451 459 454 459 457 451 454 448 454 457 459 0 1711 1711 1752 1711 1752 1752 1839 1887 1887 1887 1795 1795 1795 1711 1752 1711 1711 1635 1599 1672 1635 1672 1635 1599 1565 1565 1533 1533 1471 1443 0 0 0 0 0
    0 0 0 0 0 0 0 0 0 0 0 0 0 0 0 0 0 0 0 0 0 0 0 0 0 0 0 0 0 0 0 0 0 0 0 0 0 0 0 0 0 0 0 0 0 0 0 0 0 0 0 0 0 0 0 0 0 0 0 0 0 0 0 0 0 0 0 0 0 4599 4599 4906 6133 5661 6133 6133 6133 5661 5256 5661 5256 5256 5256 4906 5661 5661 5661 5256 3873 3345 3504 3066 2830 2830 2628 2628 2830 2830 3199 3199 3199 4599 5661 6133 4329 0 6690 0 0 7359 6133 6133 7359 6690 5256 4329 6690 7359 7359 6690 0 0 0 0 0 0 0 0 0 0 0 0 0 0 0 0 0 0 0 0 8177 0 7359 6690 8177 0 7359 6690 8177 0 0 0 0 0 0 0 0 0 0 7359 0 8177 6690 5256 6133 5661 6133 6133 7359 6133 5661 6133 7359 5256 6690 6690 0 0 0 7359 7359 6690 0 4329 0 3504 3066 2943 2725 2830 2830 2943 3504 3345 4329 5661 5661 6133 6133 6690 6690 6690 0 7359 7359 8177 4599 5661 4329 5256 5661 4906 5256 4906 5256 6690 6133 7359 4906 4599 0 4329 0 0 3679 4088 4906 4906 4906 4906 0 0 0 0 0 0 0 2453 2230 2299 2102 2164 2230 2164 2230 2102 2044 1989 1936 0 1936 1887 1887 1887 1795 1752 2102 1839 1936 1936 1989 1989 1989 1989 1989 1839 0 0 0 0 0 0 0 451 459 454 459 0 0 0 0 454 457 0 0 1711 1711 1752 1711 1795 1795 1839 1887 1936 1887 1795 1795 1752 1672 1711 1711 1672 1599 1599 1672 1672 1672 1672 1635 1599 1599 1565 1565 1471 1443 0 0 0 0 0
    0 0 0 0 0 0 0 0 0 0 0 0 0 0 0 0 0 0 0 0 0 0 0 0 0 0 0 0 0 0 0 0 0 0 0 0 0 0 0 0 0 0 0 0 0 0 0 0 0 0 0 0 0 0 0 0 0 0 0 0 0 0 0 0 0 0 0 0 0 4906 4906 5256 6690 6133 6690 6690 6690 6133 5661 5661 5661 5661 5661 4906 6133 5661 6133 5256 3873 3345 3345 3066 2725 2725 2628 2628 2830 2830 3066 3199 0 4329 4906 0 4088 0 0 0 0 6690 5661 5661 6133 5661 4329 3873 5661 6133 6690 6133 0 8177 0 0 0 0 0 0 0 0 0 0 0 0 0 0 0 0 0 8177 7359 8177 7359 6690 7359 8177 5661 5256 0 8177 0 0 0 0 0 0 0 0 0 7359 8177 8177 6690 5256 5661 5256 5661 6133 7359 6133 5661 6133 7359 4906 6690 6133 0 0 0 7359 7359 0 0 4599 0 3504 3066 2943 2725 2725 2830 2943 3504 3345 4599 5661 5661 6690 6690 6690 6690 6690 0 6690 7359 7359 4329 5661 4088 4906 5661 4906 5256 4906 5256 6690 6133 7359 4906 4599 0 0 0 0 3679 4329 5256 5256 5256 0 0 0 0 0 0 0 0 2453 2164 2299 2102 2164 2299 2164 2230 2102 2044 1989 1936 1989 1936 1839 1887 1839 1752 1711 1989 1752 1887 1887 1989 1989 1989 1989 1989 1887 0 0 0 1752 0 0 0 448 457 454 457 0 0 0 0 0 0 0 0 1711 1711 1752 1711 1795 1795 1839 1936 1989 1936 1795 1752 1752 1635 1635 0 1635 1565 1565 1672 1672 1711 1711 1672 1635 1635 1599 1599 1501 1443 0 0 0 0 0
    0 0 0 0 0 0 0 0 0 0 0 0 0 0 0 0 0 0 0 0 0 0 0 0 0 0 0 0 0 0 0 0 0 0 0 0 0 0 0 0 0 0 0 0 0 0 0 0 0 0 0 0 0 0 0 0 0 0 0 0 0 0 0 0 0 0 0 0 0 4906 4906 5256 7359 6690 7359 0 0 0 0 6133 5661 5661 5661 4906 6133 5661 6133 5256 3873 3345 3504 3066 2830 2725 2628 2628 2725 2725 2943 3066 2943 3679 4088 0 0 0 0 0 0 6690 5661 5661 5661 4906 3873 3679 4329 4906 5661 5256 7359 7359 0 0 0 0 0 0 0 0 0 0 0 0 0 0 0 0 0 7359 6690 8177 7359 6690 6690 0 0 0 0 0 0 0 0 0 0 0 0 0 0 6690 8177 8177 6690 4599 5256 4906 5661 0 7359 5661 5256 6133 0 0 7359 0 0 0 0 8177 0 0 0 5256 4599 3504 3199 3066 2830 2830 2830 2943 3504 3199 4906 5661 6133 6690 6690 7359 7359 7359 0 6133 6690 0 0 5256 4088 0 5661 4906 5256 4906 5256 6690 5661 7359 4599 4329 0 353 350 350 0 0 5661 5661 5661 0 5661 5256 0 0 0 0 2537 2374 2164 2230 2102 2164 2299 2164 2164 2102 2044 2044 1936 1989 1936 1839 1887 1839 1711 1711 1887 1672 1839 1839 1989 1936 1989 2044 1989 1887 1989 0 1795 1752 0 0 0 0 454 451 0 0 0 0 0 0 0 0 0 1711 1711 0 1711 1795 1795 1839 1936 1989 1936 1839 1795 1752 1599 1635 1635 1635 1533 1533 1635 1635 1711 1711 1672 1635 1635 1599 1635 1501 1443 0 0 0 0 0
    0 0 0 0 0 0 0 0 0 0 0 0 0 0 0 0 0 0 0 0 0 0 0 0 0 0 0 0 0 0 0 0 0 0 0 0 0 0 0 0 0 0 0 0 0 0 0 0 0 0 0 0 0 0 0 0 0 0 0 0 0 0 0 0 0 0 0 0 0 5256 5256 5661 7359 0 0 0 0 0 0 0 6133 5661 6133 5256 6133 5661 6133 5256 3873 3504 3679 3066 2830 2725 2628 2628 2725 2725 2943 2943 2943 3345 0 0 0 0 0 0 0 0 0 0 0 4329 3679 3679 3873 4088 4599 4329 5661 0 0 80 0 0 0 0 81 0 0 0 0 0 0 0 0 0 8177 0 0 0 0 0 0 0 0 0 0 0 0 0 0 0 0 0 0 0 0 0 8177 8177 6690 4329 4906 4329 0 0 0 0 0 0 0 0 0 0 0 0 0 0 0 0 0 0 0 3504 3066 2943 2725 2725 2830 2943 3345 0 4906 5661 5661 6690 6690 7359 6690 6690 8177 5256 0 339 334 340 340 0 0 0 5256 4906 5256 0 0 0 0 355 352 352 348 348 348 0 0 0 0 0 6690 5661 0 275 0 0 2537 2374 2102 2230 2044 2164 2230 2164 2164 2044 2044 2044 1936 1989 1936 1839 1839 1795 1711 1635 1752 1533 1635 1795 1989 1936 2044 2102 2044 1936 2102 1839 0 1752 1839 1711 0 0 0 0 0 1936 0 0 0 0 0 0 0 0 0 0 0 0 1795 1887 1936 1989 1936 0 1795 1752 1599 1599 1635 1635 1501 1471 1599 1635 1672 1672 1672 1635 1635 1635 1672 1501 1443 0 0 0 0 0
    0 0 0 0 0 0 0 0 0 0 0 0 0 0 0 0 0 0 0 0 0 0 0 0 0 0 0 0 0 0 0 0 0 0 0 0 0 0 0 0 0 0 0 0 0 0 0 0 0 0 0 0 0 0 0 0 0 0 0 0 0 0 0 0 0 0 0 0 0 5661 6133 6690 0 0 0 0 0 0 0 0 0 0 6690 5661 6690 6133 0 5661 0 0 0 0 0 0 2628 0 0 2725 2830 2830 2830 0 0 0 0 0 0 0 0 122 0 121 0 3679 3345 3504 3345 0 0 0 0 0 0 0 0 0 0 0 0 0 355 348 347 343 343 0 350 0 0 0 0 0 0 0 0 0 0 0 0 0 0 0 355 359 357 355 350 0 0 0 0 0 6690 4599 4906 0 0 0 0 0 0 0 0 0 0 0 0 0 0 0 0 288 0 0 0 0 2943 2943 2725 2725 2725 2830 3199 0 5256 0 0 6690 6133 6133 6133 5661 7359 0 345 340 336 342 342 345 347 0 0 0 0 0 355 355 345 350 350 348 347 347 347 348 0 0 0 0 0 6690 0 0 0 0 0 2453 2044 2164 2044 2102 2230 2102 2164 2044 2044 2044 1989 1989 1887 1795 1839 1795 1672 1599 1672 1443 1388 1565 0 0 0 2374 2164 2044 0 0 0 0 0 0 0 350 0 0 352 0 0 0 0 1989 1887 0 0 0 0 0 0 0 0 1887 1887 1989 1936 0 1752 1711 1533 0 0 0 1443 1415 1599 1635 1711 1711 1711 1672 1672 1672 1711 1565 1501 0 0 0 0 0
    0 0 0 0 0 0 0 0 0 0 0 0 0 0 0 0 0 0 0 0 0 0 0 0 0 0 0 0 0 0 0 0 0 0 0 0 0 0 0 0 0 0 0 0 0 0 0 0 0 0 0 0 0 0 0 0 0 0 0 0 0 0 0 0 0 0 0 0 0 6133 0 0 359 0 0 0 0 0 0 0 0 0 0 0 0 0 0 0 0 0 0 0 0 0 0 0 0 2725 2830 0 2830 0 0 0 0 0 0 0 0 0 0 0 120 0 3066 0 0 348 350 353 355 357 359 0 0 0 0 0 0 0 350 348 345 345 345 350 350 359 355 353 357 0 357 353 348 350 347 0 347 347 345 347 357 357 355 353 350 0 0 0 0 0 0 0 0 0 343 348 347 0 0 0 0 0 0 0 0 0 0 0 0 0 0 0 0 0 2830 2830 2628 2628 2725 2830 0 0 5256 0 0 0 0 0 0 0 0 337 0 342 340 343 343 348 348 348 348 345 347 352 350 350 343 347 348 345 343 343 345 347 348 355 0 0 0 0 0 0 0 0 0 2537 2044 2164 1989 2102 2164 2102 2102 2044 2044 2044 1989 1989 1839 1795 1795 1752 1599 1501 1533 1388 1314 0 0 0 0 0 0 0 0 0 0 0 343 347 350 348 350 350 350 350 348 353 0 0 0 0 0 0 0 143 143 144 142 0 1839 0 0 0 0 1635 1471 0 0 0 0 1362 1501 1599 1672 1711 1752 1711 1711 1752 1752 1635 1599 0 0 0 0 0
    0 0 0 0 0 0 0 0 0 0 0 0 0 0 0 0 0 0 0 0 0 0 0 0 0 0 0 0 0 0 0 0 0 0 0 0 0 0 0 0 0 0 0 0 0 0 0 0 0 0 0 0 0 0 0 0 0 0 0 0 0 0 0 0 0 0 0 0 0 0 0 362 360 352 0 0 0 0 0 0 0 0 0 0 0 366 359 0 362 0 0 0 0 350 355 353 350 0 0 0 0 0 0 0 0 0 0 0 0 0 347 345 343 345 347 348 350 352 353 355 357 359 359 360 360 0 0 0 0 348 348 347 347 345 347 352 350 357 353 353 355 359 355 352 350 350 348 350 348 348 347 348 357 357 355 355 350 352 347 352 352 348 348 0 345 352 343 350 348 350 348 348 350 348 348 357 0 0 0 0 0 0 0 0 0 0 343 345 345 0 0 0 216 215 0 0 0 0 0 0 0 0 0 0 350 345 342 345 347 348 348 348 348 347 347 348 347 347 342 345 347 345 343 345 345 347 348 353 350 347 353 353 350 345 340 339 0 0 0 2164 1989 2102 2164 2102 2102 2044 1989 2044 1989 1989 1795 1711 1752 1711 1533 1415 1415 1362 1291 0 0 0 0 0 0 0 0 0 348 347 343 347 348 348 350 350 350 350 348 352 347 347 345 343 343 343 343 0 343 0 0 0 0 0 343 342 0 0 0 345 342 0 0 0 0 1501 1533 1752 1887 1795 1795 1936 1887 0 0 0 0 0 0 0
    0 0 0 0 0 0 0 0 0 0 0 0 0 0 0 0 0 0 0 0 0 0 0 0 0 0 0 0 0 0 0 0 0 0 0 0 0 0 0 0 0 0 0 0 0 0 0 0 0 0 0 0 0 0 0 0 0 0 0 0 0 0 0 0 0 0 0 0 0 362 364 360 360 353 357 355 355 353 350 352 355 348 357 353 350 355 350 350 350 353 357 355 353 347 350 350 348 350 347 0 350 350 0 0 0 0 0 350 347 347 347 348 347 347 348 350 350 353 353 355 357 359 359 359 357 359 350 350 345 347 347 347 347 347 347 352 350 355 352 352 353 357 353 350 348 352 350 350 350 350 348 348 355 353 353 353 352 352 345 348 348 347 348 347 345 348 345 350 350 350 350 350 350 348 348 355 350 352 0 347 0 0 0 0 347 345 347 347 347 345 345 345 345 347 350 0 0 0 0 0 0 355 353 347 352 345 345 347 347 348 348 348 348 347 347 347 345 343 342 345 347 347 345 345 347 348 348 352 348 345 348 348 348 345 342 342 342 342 343 0 0 0 0 0 2044 2044 1989 2044 1989 1989 1752 1635 1711 1635 1471 1362 1362 1362 0 0 0 0 0 0 0 0 0 0 347 347 343 347 348 348 350 350 352 350 348 352 347 347 347 343 345 343 343 345 345 343 342 342 343 342 343 343 343 0 345 345 343 343 345 345 340 342 342 0 0 0 0 0 0 342 339 0 0 0 0 0
    0 0 0 0 0 0 0 0 0 0 0 0 0 0 0 0 0 0 0 0 0 0 0 0 0 0 0 0 0 0 0 0 0 0 0 0 0 0 0 0 0 0 0 0 0 0 0 0 0 0 0 0 0 0 0 0 0 0 0 0 0 0 0 0 0 0 0 0 0 360 360 359 360 353 357 357 357 355 353 353 355 350 353 350 350 352 350 348 348 348 352 353 352 345 347 348 348 348 347 347 348 348 352 350 350 352 348 348 347 348 347 348 348 347 348 348 350 353 353 355 355 359 359 357 355 355 348 347 345 347 347 347 347 348 348 352 350 355 352 352 352 353 350 350 350 352 350 350 350 350 350 350 352 350 350 352 352 352 345 348 347 348 350 348 347 350 347 352 350 352 352 350 350 348 350 353 347 347 345 345 345 348 350 348 348 347 348 350 348 348 347 347 348 348 352 350 352 353 355 355 357 357 359 357 355 350 350 348 350 350 350 350 350 348 350 348 347 345 343 347 347 348 348 348 348 350 348 352 348 345 347 347 348 347 343 343 345 347 350 347 345 345 345 345 0 0 0 0 0 0 0 0 0 0 0 359 359 357 355 350 347 343 343 342 340 340 339 342 345 345 343 348 348 348 350 350 352 352 350 353 348 348 348 345 345 343 345 347 347 345 343 345 345 343 347 347 347 347 348 347 345 345 347 345 342 342 342 343 342 343 343 343 340 340 339 0 0 0 0 0
    0 0 0 0 0 0 0 0 0 0 0 0 0 0 0 0 0 0 0 0 0 0 0 0 0 0 0 0 0 0 0 0 0 0 0 0 0 0 0 0 0 0 0 0 0 0 0 0 0 0 0 0 0 0 0 0 0 0 0 0 0 0 0 0 0 0 0 0 0 360 359 359 359 355 357 357 355 355 353 353 355 350 352 350 350 350 350 350 350 348 352 353 352 347 347 348 348 348 347 345 347 348 350 350 348 350 347 348 347 350 348 348 348 348 348 348 350 353 353 355 357 359 360 359 357 357 348 347 345 347 347 347 347 348 348 353 350 355 352 352 352 353 350 352 350 352 352 350 350 350 348 350 350 348 348 350 352 352 345 350 348 350 352 352 350 353 347 353 352 352 352 352 350 350 348 352 347 347 345 347 345 350 352 348 350 348 350 350 350 352 348 350 352 352 353 353 355 357 359 359 359 359 360 360 360 357 353 352 352 352 352 352 352 350 350 348 350 345 343 345 347 347 348 348 348 348 348 353 350 347 348 348 348 347 343 345 347 350 353 350 347 350 350 348 350 348 345 345 347 352 352 357 360 357 357 357 357 355 353 350 347 343 342 342 340 339 339 340 342 343 342 348 348 348 350 352 353 352 350 355 348 348 348 345 345 343 345 347 347 345 345 347 347 345 348 348 350 350 352 350 348 348 348 347 343 342 343 343 343 345 345 345 342 342 340 0 0 0 0 0
    0 0 0 0 0 0 0 0 0 0 0 0 0 0 0 0 0 0 0 0 0 0 0 0 0 0 0 0 0 0 0 0 0 0 0 0 0 0 0 0 0 0 0 0 0 0 0 0 0 0 0 0 0 0 0 0 0 0 0 0 0 0 0 0 0 0 0 0 0 360 359 359 359 355 357 357 355 355 352 353 355 350 350 350 348 350 350 348 348 348 350 352 350 345 347 347 348 348 347 345 347 347 350 348 347 350 348 348 347 350 348 350 348 348 348 350 350 355 353 355 357 360 360 360 359 360 350 347 345 347 347 347 347 350 348 353 352 357 353 355 353 357 352 355 352 353 353 348 350 350 348 350 348 347 348 348 352 350 345 350 350 352 352 352 352 353 348 353 352 352 352 352 350 350 348 352 345 345 345 347 345 350 352 348 350 350 350 350 350 352 348 350 353 352 353 353 355 357 357 357 357 357 360 360 360 359 355 353 353 353 352 352 352 350 350 347 348 343 342 345 347 347 347 347 347 348 348 352 350 347 348 348 348 350 347 347 350 355 359 357 350 357 353 352 353 350 347 347 347 353 352 357 359 355 355 357 359 355 353 350 345 342 340 339 337 337 336 339 343 343 342 348 348 348 350 352 353 352 352 355 348 348 347 343 345 343 345 345 347 347 345 347 348 347 350 350 352 353 355 353 350 350 350 347 343 342 343 343 342 345 343 343 342 340 340 0 0 0 0 0
    0 0 0 0 0 0 0 0 0 0 0 0 0 0 0 0 0 0 0 0 0 0 0 0 0 0 0 0 0 0 0 0 0 0 0 0 0 0 0 0 0 0 0 0 0 0 0 0 0 0 0 0 0 0 0 0 0 0 0 0 0 0 0 0 0 0 0 0 0 359 359 359 359 355 357 357 355 355 352 353 355 350 350 348 348 350 348 348 348 347 348 350 348 345 347 347 347 347 347 345 347 347 348 348 348 352 350 350 347 352 348 350 348 348 350 348 350 355 353 357 357 360 360 360 359 362 352 348 347 348 347 348 347 350 348 353 352 357 353 355 355 357 353 355 352 353 353 350 350 350 350 350 348 345 347 347 352 350 345 350 350 353 353 353 353 355 348 353 352 352 352 352 350 350 347 352 345 345 345 347 345 350 352 348 350 350 350 350 350 352 348 350 353 350 352 353 355 357 357 357 357 357 360 360 360 357 355 353 353 353 352 352 350 348 350 347 347 343 340 343 345 347 347 347 347 348 348 350 348 347 348 347 348 348 347 347 352 355 359 357 352 357 355 352 353 350 347 347 348 355 353 357 359 353 355 357 359 355 352 348 345 343 342 342 340 340 339 342 345 347 342 350 350 350 352 352 353 352 352 355 348 348 347 343 345 343 345 345 347 347 345 347 348 347 352 350 353 353 355 353 350 350 350 347 343 342 342 342 342 345 343 345 342 342 340 0 0 0 0 0
    0 0 0 0 0 0 0 0 0 0 0 0 0 0 0 0 0 0 0 0 0 0 0 0 0 0 0 0 0 0 0 0 0 0 0 0 0 0 0 0 0 0 0 0 0 0 0 0 0 0 0 0 0 0 0 0 0 0 0 0 0 0 0 0 0 0 0 0 0 359 357 357 357 355 357 357 355 353 353 353 355 352 352 350 348 352 350 350 348 347 348 350 348 347 347 347 347 348 347 347 347 347 348 347 348 348 348 352 347 352 350 350 350 348 350 348 348 355 353 355 357 360 360 359 359 360 352 347 345 347 345 347 345 348 348 352 352 355 352 355 353 357 352 355 352 353 353 350 350 350 348 350 347 343 345 347 350 350 345 350 352 353 353 353 353 355 348 353 353 352 352 353 352 350 348 353 347 345 347 348 345 350 350 348 350 350 352 350 350 352 348 350 353 350 350 352 353 355 357 357 357 355 359 360 360 357 357 353 353 352 352 350 350 347 348 345 345 343 340 343 347 347 347 347 347 348 347 350 347 345 347 345 347 347 345 345 348 353 355 352 348 353 352 350 352 348 347 347 348 355 352 357 357 353 355 355 357 353 350 348 345 345 343 345 343 343 343 343 348 348 343 350 352 350 352 352 353 352 352 357 348 348 347 345 347 345 347 345 347 347 347 348 350 347 353 352 355 355 355 353 352 352 350 347 343 343 343 342 342 345 343 343 342 340 340 0 0 0 0 0
    0 0 0 0 0 0 0 0 0 0 0 0 0 0 0 0 0 0 0 0 0 0 0 0 0 0 0 0 0 0 0 0 0 0 0 0 0 0 0 0 0 0 0 0 0 0 0 0 0 0 0 0 0 0 0 0 0 0 0 0 0 0 0 0 0 0 0 0 0 359 357 359 359 355 357 357 353 353 352 353 355 350 352 352 348 350 350 350 348 348 347 350 348 347 347 347 348 348 347 347 347 347 348 347 348 347 350 350 348 352 350 350 350 350 352 350 348 355 352 355 353 359 359 357 357 360 350 347 345 347 345 347 345 348 347 352 350 355 352 353 353 355 350 355 352 353 352 350 350 348 348 350 345 342 343 345 350 350 347 352 352 355 353 353 353 355 350 355 353 353 352 353 352 352 348 353 348 347 348 348 345 352 350 348 352 350 352 350 350 352 348 350 353 348 350 350 353 355 355 355 355 355 357 359 360 357 357 353 353 352 352 350 348 347 348 345 345 343 342 345 347 347 347 347 347 348 347 348 347 345 347 345 345 347 343 345 348 352 350 350 348 353 352 352 352 350 348 350 352 357 353 357 357 353 355 355 355 352 348 348 345 345 345 345 345 347 345 345 350 350 345 352 352 352 352 352 353 352 352 357 348 350 347 345 347 345 347 347 347 348 347 348 350 348 355 353 357 359 357 355 353 353 352 347 343 345 343 343 342 343 342 343 342 340 339 0 0 0 0 0
    0 0 0 0 0 0 0 0 0 0 0 0 0 0 0 0 0 0 0 0 0 0 0 0 0 0 0 0 0 0 0 0 0 0 0 0 0 0 0 0 0 0 0 0 0 0 0 0 0 0 0 0 0 0 0 0 0 0 0 0 0 0 0 0 0 0 0 0 0 360 359 360 359 357 357 357 355 353 352 352 353 350 350 350 348 350 348 350 350 348 347 350 348 348 348 347 348 348 348 348 348 348 350 350 352 348 352 352 348 352 350 352 350 350 352 350 348 355 352 355 353 357 357 355 355 359 350 348 345 348 345 347 345 348 347 350 348 352 348 348 352 353 350 353 352 353 352 348 350 348 348 348 345 342 343 343 348 350 347 352 352 355 353 353 353 357 350 355 353 353 352 353 352 352 348 353 348 347 348 350 347 352 350 350 352 350 352 350 350 352 348 352 353 350 350 350 353 352 353 353 353 353 357 359 359 357 357 355 355 352 353 350 348 347 348 345 347 345 342 345 347 347 347 347 347 348 347 348 347 345 347 345 345 347 345 347 350 352 348 350 348 355 353 353 353 352 350 353 353 357 355 357 355 353 353 353 353 350 348 348 345 345 345 345 345 347 345 345 352 352 345 352 352 352 352 352 353 352 352 359 347 350 347 345 347 345 347 347 348 348 348 350 353 350 357 357 359 360 357 357 355 353 353 347 342 345 343 343 340 343 340 342 340 339 339 0 0 0 0 0</data></depth>
</opencv_storage>
