<?xml version="1.0"?>
<opencv_storage>
<gps_time_stamp>31992</gps_time_stamp>
<gps_x>-9.3268890380859375e+000</gps_x>
<gps_y>1.1637997627258301e+000</gps_y>
<gps_z>-2.5109157562255859e+000</gps_z>
<image_time_stamp>19964</image_time_stamp>
<depth type_id="opencv-matrix">
  <rows>88</rows>
  <cols>320</cols>
  <dt>s</dt>
  <data>
    0 0 0 0 0 0 0 0 0 0 0 0 0 0 0 0 0 0 0 0 0 0 0 0 0 0 0 0 0 0 0 0 0 0 0 0 0 0 0 0 0 0 0 0 0 0 0 0 0 0 0 0 0 0 0 0 0 0 0 0 0 0 0 0 0 0 0 0 0 0 0 8177 7359 7359 8177 6690 6690 7359 5661 6690 6690 8177 8177 8177 0 0 0 0 0 0 0 0 0 0 0 8177 7359 0 8177 0 8177 0 0 0 0 0 0 0 0 0 0 0 0 0 0 7359 0 0 0 0 0 0 0 0 0 0 0 0 0 0 0 8177 0 0 0 0 0 0 0 6690 0 0 0 0 0 0 0 0 0 0 681 0 0 0 0 201 201 199 199 198 199 198 0 0 0 7359 7359 5256 0 0 0 6133 6133 0 83 83 0 7359 6690 0 0 0 8177 0 0 0 0 0 0 0 0 0 0 0 9199 4906 5661 6133 6690 6690 6690 7359 7359 7359 0 0 8177 0 8177 8177 4599 6133 6133 6133 6133 4906 4329 4906 5256 5661 6133 6133 5661 6133 6690 7359 6690 6690 0 3345 4599 4906 4599 3504 4599 4599 4599 4329 5661 4599 4599 4906 7359 5661 5256 4599 4088 4906 4906 4599 3679 3873 3873 3873 3873 3873 3066 3199 3345 3873 3345 3345 3345 3345 3504 3679 3199 2628 2725 2374 0 0 0 0 0 0 639 645 651 663 669 681 0 0 0 0 1936 1989 2044 1989 2044 2044 2044 2102 2044 2102 2102 2044 2044 1989 1989 1989 1989 1989 1989 1989 2044 2044 2044 2044 2044 2102 2102 2044 2044 0 0 0 0 0
    0 0 0 0 0 0 0 0 0 0 0 0 0 0 0 0 0 0 0 0 0 0 0 0 0 0 0 0 0 0 0 0 0 0 0 0 0 0 0 0 0 0 0 0 0 0 0 0 0 0 0 0 0 0 0 0 0 0 0 0 0 0 0 0 0 0 0 0 0 7359 0 0 8177 7359 8177 6690 0 8177 6133 6690 7359 8177 8177 0 0 0 0 0 0 0 0 0 0 0 0 8177 7359 0 8177 0 0 0 0 0 0 0 0 0 0 0 0 0 0 0 0 7359 0 0 0 0 0 0 0 0 0 0 0 0 0 0 0 0 0 0 0 0 0 0 0 0 0 0 0 0 0 0 0 0 0 0 675 639 0 0 0 200 200 199 198 198 198 198 0 0 0 6690 6690 4599 0 0 0 6133 6133 0 83 83 0 7359 6690 0 0 0 0 0 0 0 0 0 0 0 0 0 0 0 8177 5256 5661 6133 6133 6690 6690 7359 8177 8177 0 0 8177 8177 8177 8177 4599 5661 6133 6133 6133 4599 4088 4599 4906 5661 6133 6133 6133 6133 6690 8177 8177 8177 0 3504 4599 4599 4599 3504 4599 4599 4599 4329 5256 4599 4599 4599 7359 5661 4906 4599 4088 4906 4599 4329 3679 3873 3679 3679 3873 3679 2943 3066 3199 3873 3504 3504 3345 3504 3679 3873 3199 2628 2725 2299 0 0 0 0 0 0 634 639 651 657 669 681 0 0 0 0 1989 2044 2164 1989 2044 2044 2044 2102 2044 2102 2102 2044 2102 2044 1989 1989 1989 1989 2044 1989 2102 2102 2102 2102 2102 2102 2164 2044 2102 0 0 0 0 0
    0 0 0 0 0 0 0 0 0 0 0 0 0 0 0 0 0 0 0 0 0 0 0 0 0 0 0 0 0 0 0 0 0 0 0 0 0 0 0 0 0 0 0 0 0 0 0 0 0 0 0 0 0 0 0 0 0 0 0 0 0 0 0 0 0 0 0 0 0 0 0 0 8177 7359 0 6690 0 8177 6690 7359 8177 8177 0 0 0 0 0 0 0 0 0 0 0 0 0 7359 6690 0 8177 0 0 0 0 0 0 0 0 0 0 0 0 0 645 634 0 8177 0 0 0 0 0 0 0 0 0 0 0 0 0 0 0 0 0 0 0 0 0 0 0 0 0 0 0 0 0 0 0 0 0 694 669 651 0 0 197 200 199 198 198 198 198 198 0 0 0 5661 4088 3873 2537 0 0 5661 6133 6133 0 0 0 7359 6690 0 0 0 0 0 0 0 0 0 0 0 0 0 0 0 8177 4906 5661 5661 5661 6690 6690 7359 7359 8177 0 0 0 0 0 0 4906 6133 6133 6133 6133 4329 4088 4329 4599 5661 6133 6133 6133 6133 7359 8177 0 0 0 3504 4599 4599 4599 3679 4599 4599 4599 4329 5661 4906 4599 4906 7359 6133 5256 4599 4329 4906 4599 4088 0 3679 3679 3679 3679 3679 3066 3199 3504 4599 3873 3679 3504 3504 3679 3873 3199 2628 2725 2374 0 0 88 0 0 0 634 639 651 657 669 681 0 0 77 77 2044 2044 2230 2044 2102 2102 2102 2102 2044 2102 2102 2044 2102 2044 1989 1989 1989 2044 2102 2044 2102 2102 2102 2102 2102 2164 2164 2044 2164 0 0 0 0 0
    0 0 0 0 0 0 0 0 0 0 0 0 0 0 0 0 0 0 0 0 0 0 0 0 0 0 0 0 0 0 0 0 0 0 0 0 0 0 0 0 0 0 0 0 0 0 0 0 0 0 0 0 0 0 0 0 0 0 0 0 0 0 0 0 0 0 0 0 0 0 0 0 0 0 0 0 0 0 7359 8177 8177 0 0 0 0 0 0 0 0 0 0 0 0 0 0 7359 6690 0 8177 0 0 0 0 0 0 0 0 0 694 687 669 651 651 639 0 0 0 0 0 0 0 0 0 0 0 8177 0 0 0 8177 0 0 0 0 0 0 0 0 0 0 0 0 258 0 0 0 681 681 681 687 669 657 669 0 198 200 199 198 198 197 198 198 0 0 0 0 0 2943 2537 0 0 5256 5661 6133 0 0 0 0 6690 0 0 0 0 0 0 0 0 0 0 0 0 0 0 0 7359 4906 5661 5256 5256 6133 6133 6690 7359 0 0 0 0 0 0 0 5661 6690 6133 5661 5661 4329 4088 4329 4329 5661 6690 6690 6690 6690 0 0 8177 0 0 3504 4329 4599 4906 3873 4906 4906 4906 4599 5661 4906 4906 4906 6690 5256 4599 4088 4088 4906 4329 3873 0 3504 3504 3504 3679 3679 3066 3345 3679 5256 4906 4906 4088 0 675 663 0 0 2725 2299 0 0 0 0 0 0 634 639 651 657 669 681 0 77 77 0 2044 2102 2230 2102 2102 2102 2102 2102 2044 2102 2102 1989 2044 1989 1989 1989 2044 2044 2102 2044 2164 2164 2164 2164 2164 2164 2230 2102 2299 0 0 0 0 0
    0 0 0 0 0 0 0 0 0 0 0 0 0 0 0 0 0 0 0 0 0 0 0 0 0 0 0 0 0 0 0 0 0 0 0 0 0 0 0 0 0 0 0 0 0 0 0 0 0 0 0 0 0 0 0 0 0 0 0 0 0 0 0 0 0 0 0 0 0 0 0 0 0 0 0 0 0 0 8177 0 0 0 0 0 0 0 0 0 0 0 0 0 0 0 0 8177 6133 0 8177 0 0 0 0 0 0 0 0 694 694 687 675 657 657 651 634 0 0 0 0 0 0 0 0 0 0 0 0 0 0 0 0 0 0 0 0 0 0 0 0 0 264 0 255 0 694 675 681 675 681 681 669 663 669 0 0 199 199 198 197 197 0 0 0 0 0 0 0 0 2537 0 0 4906 5256 5256 0 0 0 0 0 0 0 0 0 0 0 0 0 675 634 634 675 0 0 0 6690 4906 5661 5256 5256 6133 6133 6690 7359 0 0 0 0 0 0 0 7359 7359 7359 6690 6690 5256 5256 5256 4906 6690 7359 7359 7359 7359 0 8177 6690 8177 7359 3504 4088 4329 4906 4088 5256 5256 5256 5256 6133 5256 4906 4906 6690 4906 4088 3679 3873 4329 3873 3679 3199 3345 3345 3504 3873 3873 3066 3504 0 0 0 5256 0 675 669 669 634 634 0 2374 0 0 0 0 0 623 634 639 657 663 675 687 0 0 0 0 2102 2164 2374 2102 2102 2102 2102 2102 2044 2102 2044 1989 1989 1989 1989 2044 2044 2044 2164 2044 2230 2164 2164 2230 2230 2230 2299 2102 2453 0 0 0 0 0
    0 0 0 0 0 0 0 0 0 0 0 0 0 0 0 0 0 0 0 0 0 0 0 0 0 0 0 0 0 0 0 0 0 0 0 0 0 0 0 0 0 0 0 0 0 0 0 0 0 0 0 0 0 0 0 0 0 0 0 0 0 0 0 0 0 0 0 0 0 0 126 126 0 0 0 0 0 0 0 0 0 0 0 0 0 0 0 0 0 0 0 0 0 0 0 0 0 0 0 0 0 0 0 0 0 0 0 700 694 694 681 669 669 663 657 0 0 0 0 0 0 0 0 0 0 0 0 0 0 0 0 0 700 681 0 0 0 0 0 267 0 0 0 700 681 669 681 675 675 675 669 663 675 675 681 0 0 197 196 196 0 0 0 0 0 0 0 0 0 0 0 4599 4906 4906 0 0 0 0 0 0 0 0 0 0 0 0 0 681 657 651 681 700 721 0 0 4599 5256 5256 5256 5661 5661 6133 6690 0 0 0 0 0 0 0 0 0 8177 7359 7359 7359 6133 0 0 7359 8177 7359 7359 7359 7359 7359 5256 0 5256 3345 3679 4088 4906 4088 5256 5661 5661 5256 6133 5661 4906 4906 6133 0 3873 3504 0 4329 3873 3679 3199 3345 3199 0 4088 4329 3199 0 0 0 0 0 669 675 669 669 639 639 634 623 0 0 0 0 613 623 634 639 651 663 669 681 681 694 0 0 2299 0 0 0 0 0 0 2164 0 0 0 1989 1989 1989 2044 2102 2102 2102 2164 2102 2230 2230 2230 2230 2230 2230 2299 2102 2453 0 0 0 0 0
    0 0 0 0 0 0 0 0 0 0 0 0 0 0 0 0 0 0 0 0 0 0 0 0 0 0 0 0 0 0 0 0 0 0 0 0 0 0 0 0 0 0 0 0 0 0 0 0 0 0 0 0 0 0 0 0 0 0 0 0 0 0 0 0 0 0 0 0 0 657 0 0 125 0 0 0 0 0 0 0 0 0 0 0 675 0 0 645 0 0 0 0 0 0 0 0 0 687 0 0 0 0 0 694 700 707 707 707 694 700 687 681 681 681 675 675 0 0 0 0 0 0 669 0 657 669 675 700 681 687 681 687 694 681 681 687 675 0 694 0 0 0 707 694 675 669 681 669 675 675 669 669 675 675 681 669 657 0 0 0 669 657 0 0 0 0 0 687 0 0 0 0 0 0 0 0 0 0 0 0 634 618 603 608 0 0 687 687 669 663 681 700 721 707 707 0 0 5256 4906 4906 0 0 0 0 0 0 0 0 0 0 0 675 0 8177 0 0 8177 0 0 0 8177 8177 8177 6690 6133 6133 3873 0 0 0 0 3504 4599 4088 5256 6133 6133 5661 6133 6133 5256 4906 0 0 0 3345 0 4088 3504 3504 3066 3199 0 0 0 0 0 0 681 681 669 687 669 675 669 669 645 645 639 629 623 629 608 613 613 623 634 634 651 657 669 681 681 687 0 0 0 0 0 0 0 618 0 0 0 623 0 0 0 2044 2102 2164 2164 2164 2299 2102 2374 2299 2299 2299 2299 2299 2299 2102 2453 0 0 0 0 0
    0 0 0 0 0 0 0 0 0 0 0 0 0 0 0 0 0 0 0 0 0 0 0 0 0 0 0 0 0 0 0 0 0 0 0 0 0 0 0 0 0 0 0 0 0 0 0 0 0 0 0 0 0 0 0 0 0 0 0 0 0 0 0 0 0 0 0 0 0 675 681 681 681 694 687 681 681 681 0 694 694 694 694 687 687 694 0 675 0 663 651 0 0 0 0 0 681 681 675 694 687 694 700 694 700 707 707 707 700 700 694 687 694 687 687 687 681 681 675 681 681 687 681 657 669 675 663 694 675 675 681 687 687 687 681 687 681 694 700 694 0 694 700 694 675 669 681 669 675 675 669 669 675 681 681 675 669 669 675 675 675 669 669 675 675 687 687 687 687 694 694 0 0 0 714 714 700 0 0 687 669 645 634 623 651 675 687 681 675 669 681 694 714 707 707 707 700 707 0 0 0 657 669 675 681 681 0 0 0 0 681 675 675 0 0 0 0 0 0 0 0 0 0 7359 5661 0 0 0 0 0 0 0 0 0 0 0 0 0 0 6690 6133 5256 0 0 0 0 0 0 0 0 0 0 0 584 0 0 0 681 681 681 675 681 669 675 669 675 651 657 645 634 629 639 613 618 613 623 634 634 651 657 663 675 681 681 694 675 0 639 0 629 623 629 0 0 639 645 651 645 0 0 0 0 0 0 0 0 2453 2299 2374 2453 2374 2299 2299 2164 2453 0 0 0 0 0
    0 0 0 0 0 0 0 0 0 0 0 0 0 0 0 0 0 0 0 0 0 0 0 0 0 0 0 0 0 0 0 0 0 0 0 0 0 0 0 0 0 0 0 0 0 0 0 0 0 0 0 0 0 0 0 0 0 0 0 0 0 0 0 0 0 0 0 0 0 681 687 687 681 694 694 681 681 687 694 694 700 694 694 694 694 694 694 681 669 675 663 669 663 669 669 663 675 675 663 687 681 694 700 694 700 707 707 707 700 700 700 694 694 687 687 687 687 687 681 681 681 687 687 669 669 675 657 687 675 675 681 681 687 687 687 694 687 700 707 700 707 694 700 694 669 669 681 669 675 675 675 675 681 681 687 681 681 681 687 687 681 681 681 687 681 687 687 687 687 694 694 700 0 0 714 714 707 700 694 694 687 675 663 639 669 675 687 681 681 681 687 694 714 707 714 707 707 707 707 694 687 663 663 675 681 681 663 675 681 663 681 675 675 675 0 681 681 675 0 0 0 0 675 645 0 0 0 0 663 669 0 0 681 687 663 675 675 675 0 0 0 0 0 0 0 0 0 0 0 700 694 681 634 608 645 675 645 681 681 675 675 681 669 675 669 675 663 663 657 645 639 651 623 623 618 629 629 634 651 651 663 675 675 663 675 639 639 623 629 623 623 629 629 634 639 645 645 639 651 669 0 651 645 645 651 651 0 0 0 0 2537 2453 2374 2230 2453 0 0 0 0 0
    0 0 0 0 0 0 0 0 0 0 0 0 0 0 0 0 0 0 0 0 0 0 0 0 0 0 0 0 0 0 0 0 0 0 0 0 0 0 0 0 0 0 0 0 0 0 0 0 0 0 0 0 0 0 0 0 0 0 0 0 0 0 0 0 0 0 0 0 0 687 687 687 687 700 694 687 687 694 694 694 700 694 694 694 694 694 687 681 663 669 657 669 663 669 663 669 675 669 663 681 675 687 700 694 707 707 714 714 707 714 707 707 707 694 694 694 687 687 681 681 681 681 681 675 675 675 669 694 681 681 687 681 687 687 687 694 687 700 707 700 700 694 694 687 663 663 675 669 675 675 675 681 681 687 694 687 687 687 694 694 687 687 687 687 681 687 687 687 687 694 694 700 0 707 714 714 714 707 700 700 687 681 675 651 675 675 681 681 681 681 687 687 714 707 714 707 707 707 700 694 687 669 657 669 675 681 663 663 681 657 681 681 681 675 681 687 687 681 694 687 687 681 681 663 663 669 663 669 669 675 681 675 675 681 657 675 675 675 681 681 687 694 694 0 721 721 721 714 707 700 700 694 669 639 694 687 663 681 681 675 675 681 663 675 669 675 669 669 663 657 651 669 634 634 629 634 634 645 657 657 663 675 675 651 645 623 623 618 623 623 623 629 634 639 645 645 651 639 651 663 651 639 639 634 634 629 634 634 634 645 663 669 0 687 687 0 0 0 0 0
    0 0 0 0 0 0 0 0 0 0 0 0 0 0 0 0 0 0 0 0 0 0 0 0 0 0 0 0 0 0 0 0 0 0 0 0 0 0 0 0 0 0 0 0 0 0 0 0 0 0 0 0 0 0 0 0 0 0 0 0 0 0 0 0 0 0 0 0 0 687 687 687 681 694 687 681 681 687 700 694 694 694 687 687 681 681 669 663 645 657 645 657 651 657 657 657 663 663 0 675 663 687 700 700 707 714 721 721 714 721 714 714 707 0 0 687 687 681 675 675 675 681 681 669 681 675 675 687 681 681 681 681 687 687 687 694 687 694 700 694 694 681 681 681 657 657 675 663 675 675 681 681 681 687 694 687 694 694 694 694 694 687 694 694 681 687 687 687 687 687 687 694 700 707 714 714 721 707 707 707 687 687 675 651 669 669 681 675 675 681 681 687 707 707 714 707 700 700 700 687 687 669 663 669 675 675 663 663 675 657 681 681 681 681 681 681 687 681 694 681 687 681 681 669 669 675 669 675 669 675 675 669 669 675 657 675 675 675 681 687 687 694 694 714 714 714 714 707 700 700 694 694 681 675 700 681 663 681 675 663 669 675 657 669 669 675 663 663 663 651 651 669 634 639 634 639 639 651 663 657 645 657 651 618 613 603 618 618 623 623 629 634 634 634 639 639 645 639 651 657 645 639 639 634 629 623 623 623 623 629 634 651 663 681 681 0 0 0 0 0
    0 0 0 0 0 0 0 0 0 0 0 0 0 0 0 0 0 0 0 0 0 0 0 0 0 0 0 0 0 0 0 0 0 0 0 0 0 0 0 0 0 0 0 0 0 0 0 0 0 0 0 0 0 0 0 0 0 0 0 0 0 0 0 0 0 0 0 0 0 681 681 681 681 687 681 675 675 681 694 694 694 687 681 681 657 669 645 639 629 639 634 639 634 645 639 639 0 645 0 0 634 681 687 694 707 714 721 721 721 728 721 721 0 0 0 675 675 669 663 663 663 669 669 663 681 675 681 687 681 681 681 681 687 687 687 687 687 694 694 687 687 675 657 657 634 639 663 651 663 669 669 669 675 681 687 681 687 694 694 694 694 687 694 694 681 681 681 681 687 687 687 694 694 700 707 707 714 694 687 694 675 669 657 639 663 669 675 669 675 681 681 681 700 700 714 707 700 700 694 687 687 675 657 657 663 657 645 645 669 645 669 675 675 675 681 681 687 681 694 681 687 681 681 669 669 675 675 675 669 675 675 669 669 675 651 669 669 675 675 681 687 687 687 707 707 700 707 700 694 694 694 694 675 669 694 669 651 675 669 651 663 669 645 663 663 669 657 657 657 645 645 663 629 634 634 634 634 645 645 639 623 623 618 603 603 598 608 613 623 629 629 634 634 634 639 639 645 639 645 651 639 639 639 634 629 623 623 618 618 618 623 629 639 669 675 0 0 0 0 0
    0 0 0 0 0 0 0 0 0 0 0 0 0 0 0 0 0 0 0 0 0 0 0 0 0 0 0 0 0 0 0 0 0 0 0 0 0 0 0 0 0 0 0 0 0 0 0 0 0 0 0 0 0 0 0 0 0 0 0 0 0 0 0 0 0 0 0 0 0 675 675 675 669 675 663 657 651 675 681 687 687 675 669 669 634 645 634 629 623 629 623 629 623 634 623 0 0 623 0 0 0 634 639 675 707 707 721 728 721 743 728 728 0 0 0 663 657 651 645 645 645 651 657 645 675 663 675 687 681 681 681 681 687 687 687 687 681 694 694 681 669 657 0 634 629 623 645 639 645 657 657 663 669 675 681 675 687 687 687 694 687 687 694 694 681 681 681 681 681 687 687 687 694 694 700 687 687 663 651 651 639 639 634 629 657 657 669 663 669 675 669 675 694 694 694 694 694 687 687 681 681 669 651 645 645 629 629 634 651 639 663 663 669 675 681 681 687 681 694 687 687 687 687 669 675 681 675 675 669 669 669 663 663 669 639 657 663 663 669 675 681 687 681 700 700 694 700 700 694 694 687 681 657 657 681 645 639 663 651 639 651 657 639 651 657 663 645 651 651 639 639 663 629 629 629 629 629 639 634 623 608 603 603 593 593 593 598 603 613 623 623 629 629 629 639 639 651 639 639 651 639 634 639 629 629 618 613 613 608 608 603 608 613 629 651 0 0 0 0 0
    0 0 0 0 0 0 0 0 0 0 0 0 0 0 0 0 0 0 0 0 0 0 0 0 0 0 0 0 0 0 0 0 0 0 0 0 0 0 0 0 0 0 0 0 0 0 0 0 0 0 0 0 0 0 0 0 0 0 0 0 0 0 0 0 0 0 0 0 0 675 669 669 663 663 645 639 634 651 663 669 675 657 645 645 613 629 618 618 613 618 618 618 613 623 608 0 0 0 0 0 603 608 613 645 707 707 721 735 721 750 728 728 0 0 687 639 639 639 634 634 639 639 645 634 663 657 663 681 675 675 681 681 681 687 687 687 681 687 687 669 657 645 0 0 618 0 634 629 634 645 645 651 657 669 675 663 681 681 681 687 687 681 687 687 675 681 681 681 681 681 675 681 681 687 687 645 629 623 623 618 618 623 623 618 639 645 651 645 651 663 651 663 681 669 663 669 669 663 663 669 663 651 639 629 629 618 618 623 639 629 645 651 657 669 675 675 681 681 694 687 687 687 681 675 675 681 675 675 663 663 663 657 651 657 634 645 651 651 657 669 669 681 675 694 694 687 700 694 687 687 675 675 651 651 675 639 634 651 639 634 639 645 629 639 645 651 639 645 651 639 634 663 623 623 629 629 629 629 623 608 598 598 593 588 588 588 593 598 603 613 618 623 623 623 634 634 645 634 634 639 629 629 629 623 618 613 608 608 598 598 593 593 603 603 623 0 0 0 0 0
    0 0 0 0 0 0 0 0 0 0 0 0 0 0 0 0 0 0 0 0 0 0 0 0 0 0 0 0 0 0 0 0 0 0 0 0 0 0 0 0 0 0 0 0 0 0 0 0 0 0 0 0 0 0 0 0 0 0 0 0 0 0 0 0 0 0 0 0 0 675 669 663 657 657 639 634 634 645 645 657 657 639 629 629 598 618 613 608 608 608 608 608 603 618 603 603 0 603 593 593 598 603 603 618 681 681 700 721 707 735 714 0 0 657 669 623 629 629 629 629 629 634 629 629 645 639 651 669 669 669 675 675 675 681 681 687 681 681 681 663 645 639 0 0 613 0 629 629 629 634 639 645 651 663 669 657 675 675 675 681 681 675 687 681 663 675 675 681 675 669 669 675 675 681 663 623 608 608 613 608 608 613 613 613 629 634 634 634 639 645 634 639 645 634 629 634 629 629 629 629 629 623 618 613 613 608 608 613 623 623 634 639 645 657 669 669 675 669 687 675 681 675 675 663 669 675 669 675 663 663 657 651 645 657 634 639 645 639 645 651 657 663 651 681 681 669 0 675 663 663 645 651 629 634 657 629 629 639 629 623 634 634 623 634 639 634 634 639 639 634 634 657 618 618 623 618 618 623 613 598 588 593 593 593 593 593 593 598 603 608 613 613 618 618 629 629 645 634 629 634 623 623 623 613 613 608 603 603 593 588 584 584 588 593 603 0 0 0 0 0
    0 0 0 0 0 0 0 0 0 0 0 0 0 0 0 0 0 0 0 0 0 0 0 0 0 0 0 0 0 0 0 0 0 0 0 0 0 0 0 0 0 0 0 0 0 0 0 0 0 0 0 0 0 0 0 0 0 0 0 0 0 0 0 0 0 0 0 0 0 669 669 663 657 651 639 639 634 645 645 639 645 629 618 618 584 603 603 603 603 603 603 603 598 608 603 598 603 603 593 593 598 598 603 603 618 613 0 0 0 0 0 0 0 639 645 623 623 623 623 623 629 629 623 623 639 634 639 663 663 663 669 669 669 681 675 681 675 675 675 651 639 634 0 618 613 0 623 623 623 634 634 639 639 657 657 645 663 657 651 663 669 663 669 669 645 669 675 681 669 663 663 663 657 663 629 608 598 603 603 603 603 608 608 608 623 629 629 629 629 629 623 623 629 618 618 623 618 618 618 613 618 608 608 603 598 598 603 603 618 618 623 629 634 651 651 657 669 657 675 663 663 657 651 645 651 663 657 663 651 657 651 651 639 645 629 629 634 629 634 634 634 639 634 663 669 645 681 651 639 639 629 629 618 623 639 623 629 629 618 618 629 629 623 629 629 629 623 634 629 623 623 634 603 603 608 608 608 618 608 588 588 593 588 588 593 588 588 593 598 598 598 598 598 598 603 603 0 618 618 623 618 618 618 608 613 603 603 603 584 574 570 566 574 579 584 0 0 0 0 0
    0 0 0 0 0 0 0 0 0 0 0 0 0 0 0 0 0 0 0 0 0 0 0 0 0 0 0 0 0 0 0 0 0 0 0 0 0 0 0 0 0 0 0 0 0 0 0 0 0 0 0 0 0 0 0 0 0 0 0 0 0 0 0 0 0 0 0 0 0 657 657 645 645 639 634 639 634 639 639 634 634 618 608 613 574 598 598 598 598 598 598 598 598 608 598 593 598 598 593 588 598 593 598 593 603 603 593 0 593 588 603 593 0 618 623 618 618 0 0 0 623 623 618 618 634 634 639 657 657 657 663 663 663 675 669 675 663 663 663 645 634 629 0 618 613 618 623 618 618 623 629 629 634 645 645 634 645 645 634 639 651 645 645 651 634 657 663 669 657 645 639 645 629 629 608 598 593 598 598 598 598 603 608 608 618 623 623 623 623 618 618 618 618 613 613 618 618 618 618 613 613 603 608 603 593 593 603 603 613 613 618 623 623 639 639 645 663 645 663 645 639 639 639 639 639 657 645 657 645 645 639 639 634 634 623 618 629 623 623 629 623 629 623 639 651 634 663 634 623 629 623 623 613 618 634 618 623 623 613 618 623 623 618 623 623 618 618 623 623 613 608 608 588 570 584 584 588 598 588 570 584 588 584 588 588 588 584 588 593 593 588 588 584 584 574 588 537 545 0 608 603 613 613 598 613 598 598 598 561 557 553 553 557 561 557 0 0 0 0 0
    0 0 0 0 0 0 0 0 0 0 0 0 0 0 0 0 0 0 0 0 0 0 0 0 0 0 0 0 0 0 0 0 0 0 0 0 0 0 0 0 0 0 0 0 0 0 0 0 0 0 0 0 0 0 0 0 0 0 0 0 0 0 0 0 0 0 0 0 0 645 639 634 629 629 629 634 634 634 639 634 629 618 608 608 570 593 598 593 598 598 598 598 598 0 598 593 598 598 593 588 598 588 593 593 598 598 588 593 588 570 584 574 584 603 608 608 608 0 0 0 618 618 613 613 629 634 639 651 657 651 651 651 651 669 657 663 651 645 645 639 629 623 0 618 613 618 618 618 613 618 623 623 623 639 634 629 634 634 623 629 629 629 623 634 629 645 651 657 645 634 629 634 618 613 603 588 588 593 598 598 598 598 603 603 613 618 618 613 613 613 613 608 608 608 608 613 618 618 618 613 613 603 608 598 588 593 598 598 608 608 613 618 618 634 629 634 651 634 639 634 629 629 629 634 634 645 645 651 634 634 629 634 623 623 613 613 618 618 618 618 618 618 618 629 639 623 639 623 618 618 613 613 608 618 623 613 618 618 603 608 613 613 613 613 613 608 608 618 608 603 588 584 561 553 557 557 566 574 570 557 574 584 579 584 584 584 579 584 588 588 574 574 566 570 553 566 533 529 529 0 557 545 549 549 0 553 545 549 541 545 541 545 549 549 545 0 0 0 0 0
    0 0 0 0 0 0 0 0 0 0 0 0 0 0 0 0 0 0 0 0 0 0 0 0 0 0 0 0 0 0 0 0 0 0 0 0 0 0 0 0 0 0 0 0 0 0 0 0 0 0 0 0 0 0 0 0 0 0 0 0 0 0 0 0 0 0 0 0 0 639 629 629 623 623 629 629 634 639 639 634 629 613 603 608 570 593 598 598 598 598 598 598 598 0 603 598 598 0 598 593 598 593 598 598 603 598 593 588 584 561 579 570 566 593 603 603 598 608 0 0 613 613 608 0 0 629 634 645 645 645 639 645 639 651 645 651 639 634 634 634 629 623 618 618 613 613 613 613 613 613 618 623 623 634 629 623 629 629 618 618 613 608 608 618 613 629 634 639 629 623 618 623 608 603 598 584 584 593 593 593 593 598 603 603 608 613 613 613 613 613 608 608 608 608 613 618 618 618 618 613 613 603 603 593 584 588 598 593 603 603 608 613 613 629 623 629 639 623 623 618 618 623 623 629 629 639 639 639 629 618 618 623 613 608 608 598 613 613 613 613 613 613 613 618 634 618 623 618 613 613 608 603 603 613 618 608 608 613 588 603 608 608 603 603 603 603 598 608 598 579 566 561 553 549 549 553 549 557 557 557 566 574 574 579 579 584 579 584 588 579 561 561 553 553 541 545 529 529 533 533 0 533 533 533 521 537 533 541 541 545 541 545 545 545 545 0 0 0 0 0
    0 0 0 0 0 0 0 0 0 0 0 0 0 0 0 0 0 0 0 0 0 0 0 0 0 0 0 0 0 0 0 0 0 0 0 0 0 0 0 0 0 0 0 0 0 0 0 0 0 0 0 0 0 0 0 0 0 0 0 0 0 0 0 0 0 0 0 0 0 634 634 629 629 629 629 634 639 639 639 639 639 613 0 608 570 598 598 598 598 598 603 598 598 613 603 598 603 603 603 598 603 593 598 598 603 598 598 588 584 561 584 574 574 598 603 603 598 608 608 608 608 608 603 603 608 623 618 634 639 634 634 634 629 639 634 639 629 623 629 629 623 618 613 618 613 613 613 613 608 613 613 618 618 629 623 618 618 623 618 613 608 598 603 603 603 608 613 613 608 603 603 608 603 593 593 579 584 593 593 593 593 598 603 603 608 608 608 608 613 613 608 608 608 613 613 618 618 618 613 608 608 598 598 593 584 588 598 598 603 603 608 608 608 623 618 618 629 618 613 613 608 618 618 618 618 623 623 623 618 608 613 613 603 603 598 584 603 603 608 608 0 608 613 613 629 613 618 613 613 608 608 603 603 613 613 608 608 608 584 603 603 603 603 603 603 603 593 608 584 561 553 549 549 549 549 549 545 553 557 557 566 570 570 579 579 579 579 579 584 566 553 553 545 545 537 541 533 537 0 537 541 537 537 537 525 537 529 533 541 545 541 545 545 549 545 0 0 0 0 0
    0 0 0 0 0 0 0 0 0 0 0 0 0 0 0 0 0 0 0 0 0 0 0 0 0 0 0 0 0 0 0 0 0 0 0 0 0 0 0 0 0 0 0 0 0 0 0 0 0 0 0 0 0 0 0 0 0 0 0 0 0 0 0 0 0 0 0 0 0 634 634 634 629 629 629 634 639 645 645 645 645 618 0 613 574 598 603 603 598 603 0 598 598 613 603 598 598 603 603 598 603 593 603 598 608 603 603 588 584 566 584 574 579 603 603 608 593 603 608 608 608 608 603 603 603 618 613 623 629 629 629 639 629 634 629 639 629 629 629 629 623 618 618 618 613 613 613 613 608 608 613 618 618 629 618 618 618 618 618 613 603 598 598 598 598 598 603 598 593 593 598 598 598 584 593 579 579 593 598 598 598 598 603 603 608 613 608 613 613 613 608 608 608 613 618 618 618 613 613 603 603 593 598 588 584 588 598 598 603 608 608 613 608 623 613 613 623 613 603 603 603 608 608 608 608 608 613 613 613 603 608 608 603 598 598 579 598 598 603 603 0 608 608 608 618 608 613 608 608 608 603 598 598 608 608 603 603 603 579 598 603 603 603 603 603 598 588 608 579 557 549 549 545 549 545 549 545 549 553 557 561 570 570 579 579 584 579 574 579 561 549 549 545 545 541 545 541 545 549 545 549 541 545 541 533 533 529 529 541 0 541 545 545 549 545 0 0 0 0 0
    0 0 0 0 0 0 0 0 0 0 0 0 0 0 0 0 0 0 0 0 0 0 0 0 0 0 0 0 0 0 0 0 0 0 0 0 0 0 0 0 0 0 0 0 0 0 0 0 0 0 0 0 0 0 0 0 0 0 0 0 0 0 0 0 0 0 0 0 0 634 634 634 629 629 629 634 645 645 645 651 639 618 0 613 574 598 603 603 598 598 598 598 598 613 598 593 593 603 598 593 603 588 598 593 603 598 598 588 588 570 588 579 588 603 608 608 593 603 608 608 608 603 598 598 603 623 618 629 634 629 634 639 634 639 634 645 629 629 634 629 629 618 618 618 613 613 613 613 613 613 618 618 618 629 623 618 613 618 613 608 603 593 593 593 593 593 598 588 588 588 588 593 593 579 588 579 579 593 593 593 598 598 603 603 608 618 618 618 618 618 613 613 613 613 618 618 618 618 613 603 603 598 593 588 584 588 598 598 0 613 613 613 613 629 613 618 629 613 608 608 603 608 608 608 608 608 613 613 613 603 608 608 603 598 598 574 598 598 603 598 0 603 603 603 613 603 608 603 608 608 603 598 598 603 603 603 603 603 570 598 598 598 598 598 598 598 584 603 574 557 549 549 549 549 545 553 549 553 553 557 561 570 570 579 579 579 579 574 579 557 549 549 545 545 541 545 545 545 549 549 549 549 553 549 545 541 537 537 541 545 541 545 545 545 545 0 0 0 0 0
    0 0 0 0 0 0 0 0 0 0 0 0 0 0 0 0 0 0 0 0 0 0 0 0 0 0 0 0 0 0 0 0 0 0 0 0 0 0 0 0 0 0 0 0 0 0 0 0 0 0 0 0 0 0 0 0 0 0 0 0 0 0 0 0 0 0 0 0 0 629 629 634 623 623 629 634 645 645 645 645 634 613 0 613 574 598 603 603 598 598 598 598 593 608 598 588 593 598 598 593 598 588 598 588 603 598 598 588 588 570 584 579 588 603 608 608 588 603 603 603 603 603 598 598 603 629 623 634 639 634 639 639 634 634 629 634 629 629 634 629 629 618 618 623 618 613 618 613 613 613 618 618 613 623 623 613 613 613 613 603 598 588 588 588 588 588 588 579 579 579 584 588 588 570 588 579 574 593 593 593 598 598 603 603 608 629 623 629 623 623 618 618 618 618 623 623 623 623 618 608 608 598 598 593 584 593 603 603 0 613 618 618 618 634 618 623 639 618 613 608 608 613 613 613 608 608 613 613 613 603 608 603 603 603 598 579 598 598 603 598 598 603 603 603 613 603 608 608 608 608 608 603 603 603 603 598 598 603 566 598 598 598 598 598 598 593 584 603 574 557 549 553 553 549 549 553 549 549 553 557 557 561 561 570 566 570 570 566 570 553 541 541 541 537 537 537 541 541 545 545 549 545 553 545 545 537 537 537 541 541 537 541 541 545 545 0 0 0 0 0
    0 0 0 0 0 0 0 0 0 0 0 0 0 0 0 0 0 0 0 0 0 0 0 0 0 0 0 0 0 0 0 0 0 0 0 0 0 0 0 0 0 0 0 0 0 0 0 0 0 0 0 0 0 0 0 0 0 0 0 0 0 0 0 0 0 0 0 0 0 629 629 634 623 623 629 634 645 639 639 639 629 0 0 0 574 598 603 603 598 598 598 598 593 608 598 588 588 598 593 588 593 584 588 584 598 598 598 588 593 574 588 579 588 598 608 608 588 598 603 603 603 603 603 598 603 634 634 634 645 629 634 639 634 629 629 629 629 629 634 629 629 618 618 623 618 613 613 608 608 608 613 613 613 608 623 613 613 618 613 608 603 593 593 593 593 588 588 574 579 579 584 584 588 561 588 584 574 593 593 593 598 598 603 603 608 629 623 629 629 629 623 623 618 623 623 623 629 623 623 613 613 603 598 593 588 593 603 603 0 0 618 618 618 634 618 623 639 623 613 608 608 613 613 608 608 608 608 613 608 598 608 603 598 603 603 579 598 598 603 598 598 603 603 603 618 608 608 608 613 613 613 603 603 603 598 598 598 598 566 598 598 598 598 598 598 593 588 603 574 557 553 557 553 553 549 553 545 545 549 549 549 553 553 557 557 557 561 557 557 545 537 537 537 537 533 537 0 541 541 545 549 549 553 545 545 537 537 537 541 537 533 533 541 541 541 0 0 0 0 0
    0 0 0 0 0 0 0 0 0 0 0 0 0 0 0 0 0 0 0 0 0 0 0 0 0 0 0 0 0 0 0 0 0 0 0 0 0 0 0 0 0 0 0 0 0 0 0 0 0 0 0 0 0 0 0 0 0 0 0 0 0 0 0 0 0 0 0 0 0 618 618 629 618 623 618 623 634 634 629 634 613 603 0 608 579 598 603 603 598 598 598 598 598 608 598 588 588 598 593 588 593 574 584 584 603 598 603 593 598 579 588 579 584 593 608 608 588 598 603 603 608 608 603 603 603 639 634 639 645 629 634 639 629 634 634 634 629 629 634 623 629 613 613 618 613 598 608 603 603 603 608 608 603 603 618 613 613 613 613 608 603 598 593 598 598 593 588 574 579 579 584 579 579 553 584 584 570 593 593 598 598 603 603 603 608 629 623 629 629 629 618 618 618 623 623 623 623 623 618 613 608 603 593 593 588 593 603 598 608 0 0 613 613 623 618 618 629 618 608 603 608 608 603 598 593 603 608 613 608 603 608 603 603 603 603 584 598 598 603 593 603 603 603 603 618 608 608 608 618 613 618 608 603 603 603 598 598 598 570 598 598 598 598 593 593 593 588 603 574 561 553 561 557 557 553 553 545 545 549 549 541 549 545 549 549 553 557 549 549 545 537 537 533 533 533 533 0 541 541 545 553 553 553 545 545 537 541 541 541 537 533 533 541 541 541 0 0 0 0 0
    0 0 0 0 0 0 0 0 0 0 0 0 0 0 0 0 0 0 0 0 0 0 0 0 0 0 0 0 0 0 0 0 0 0 0 0 0 0 0 0 0 0 0 0 0 0 0 0 0 0 0 0 0 0 0 0 0 0 0 0 0 0 0 0 0 0 0 0 0 603 613 629 618 618 613 618 629 623 623 0 0 588 0 0 584 598 603 603 598 598 603 598 593 608 593 588 588 598 593 588 593 574 0 0 0 598 598 593 588 574 579 570 570 570 603 603 584 598 603 603 608 608 608 608 608 639 634 634 639 629 634 634 629 634 634 634 629 629 629 618 623 608 608 613 613 584 598 598 598 598 603 603 598 598 613 603 603 608 608 603 598 593 593 593 598 593 588 574 579 579 584 584 579 557 588 593 579 598 598 598 598 603 603 603 603 623 623 623 629 629 618 618 613 618 623 618 623 618 613 608 603 598 584 584 579 584 598 598 603 603 608 608 608 608 608 608 613 608 593 584 588 598 588 584 570 593 603 608 608 598 603 603 598 603 598 584 598 598 603 593 603 603 603 603 613 608 608 608 623 613 623 603 598 598 598 598 598 598 574 598 598 598 593 593 593 588 584 598 570 566 557 566 561 557 557 553 549 549 545 549 537 545 541 549 545 549 553 545 545 545 537 537 533 533 533 533 0 541 541 545 549 549 553 545 545 537 541 537 541 537 533 533 541 537 537 0 0 0 0 0
    0 0 0 0 0 0 0 0 0 0 0 0 0 0 0 0 0 0 0 0 0 0 0 0 0 0 0 0 0 0 0 0 0 0 0 0 0 0 0 0 0 0 0 0 0 0 0 0 0 0 0 0 0 0 0 0 0 0 0 0 0 0 0 0 0 0 0 0 0 561 608 629 618 618 608 613 623 618 613 0 0 0 0 0 579 598 603 603 598 598 598 598 593 603 593 584 579 593 588 579 588 570 0 566 579 584 584 579 579 566 561 557 561 553 598 598 579 598 603 608 608 608 608 603 603 634 623 629 634 623 629 634 629 629 629 629 623 623 623 613 613 598 598 608 603 561 593 593 593 593 593 598 588 593 608 598 598 603 603 598 588 584 579 588 593 584 584 570 574 579 579 574 574 553 588 598 574 598 593 593 593 598 598 593 598 608 608 618 623 623 613 618 613 618 623 613 618 608 603 598 593 584 570 570 574 579 598 593 598 603 603 608 603 603 603 593 598 588 553 545 549 553 549 549 549 574 588 593 603 593 598 593 593 598 598 584 598 598 603 593 603 603 603 603 608 603 603 608 0 608 0 588 566 584 584 588 584 588 570 593 598 598 593 588 588 584 584 593 561 561 557 566 557 557 553 549 545 541 537 537 529 537 533 537 537 541 549 541 541 545 537 537 533 533 533 533 541 541 545 545 549 549 549 545 541 533 533 533 537 533 533 529 541 533 537 0 0 0 0 0
    0 0 0 0 0 0 0 0 0 0 0 0 0 0 0 0 0 0 0 0 0 0 0 0 0 0 0 0 0 0 0 0 0 0 0 0 0 0 0 0 0 0 0 0 0 0 0 0 0 0 0 0 0 0 0 0 0 0 0 0 0 0 0 0 0 0 0 0 0 537 545 0 603 603 588 598 613 593 593 0 561 0 0 598 570 593 598 598 593 593 598 593 588 598 584 579 570 584 579 566 574 557 553 549 553 561 561 561 561 557 545 545 545 537 574 584 561 598 603 608 608 608 603 603 598 618 598 613 618 613 613 0 0 0 618 618 608 0 0 0 0 570 570 593 584 553 584 584 584 584 584 588 579 584 603 584 584 593 593 584 574 570 557 566 574 561 561 553 553 557 557 549 545 537 566 574 557 588 584 584 584 588 588 579 584 603 574 584 598 618 603 608 598 0 613 603 608 598 593 588 584 570 557 557 566 566 593 588 593 598 603 603 603 598 593 570 566 549 537 533 537 537 537 537 545 557 566 570 588 584 588 588 588 598 593 588 598 598 598 593 603 598 603 603 608 603 598 608 0 598 0 549 541 553 557 566 561 574 561 593 593 598 588 584 584 584 579 593 553 557 553 557 553 553 549 545 537 537 533 529 521 529 525 529 529 533 537 537 533 541 533 533 529 533 533 533 541 541 541 545 545 545 545 541 533 525 525 529 529 529 529 525 533 525 0 0 0 0 0 0
    0 0 0 0 0 0 0 0 0 0 0 0 0 0 0 0 0 0 0 0 0 0 0 0 0 0 0 0 0 0 0 0 0 0 0 0 0 0 0 0 0 0 0 0 0 0 0 0 0 0 0 0 0 0 0 0 0 0 0 0 0 0 0 0 0 0 0 0 0 533 533 541 579 566 557 553 553 541 549 541 541 533 537 557 549 579 584 584 574 579 584 584 579 588 570 570 561 574 570 557 557 549 545 545 541 549 549 549 553 549 537 533 533 533 541 549 545 588 588 608 608 608 598 593 588 603 545 557 545 584 0 0 0 0 0 0 570 0 0 0 0 0 545 557 553 541 561 570 566 570 570 570 561 574 598 570 561 579 574 561 557 553 541 541 549 545 541 537 537 541 537 533 533 529 541 545 545 574 574 574 570 574 570 561 570 588 545 545 537 603 553 593 584 0 0 579 593 584 584 574 566 553 541 545 553 553 584 579 588 593 598 598 598 588 579 549 549 537 533 533 533 537 537 537 541 549 557 553 566 566 561 570 570 584 584 579 593 598 593 593 598 598 603 598 0 603 593 603 593 574 0 537 533 545 545 549 549 557 557 588 593 593 584 579 579 579 579 588 549 553 549 557 553 549 545 537 533 529 521 521 514 518 518 521 525 529 533 537 533 541 533 529 529 529 529 533 537 537 533 537 533 533 533 529 529 521 521 521 521 525 525 514 514 497 0 0 0 0 0 0
    0 0 0 0 0 0 0 0 0 0 0 0 0 0 0 0 0 0 0 0 0 0 0 0 0 0 0 0 0 0 0 0 0 0 0 0 0 0 0 0 0 0 0 0 0 0 0 0 0 0 0 0 0 0 0 0 0 0 0 0 0 0 0 0 0 0 0 0 0 533 533 541 561 553 545 541 537 529 533 529 529 521 525 537 537 557 557 561 553 557 570 566 561 579 557 557 553 561 561 553 553 549 0 0 0 545 541 545 541 545 529 529 529 529 533 537 537 566 561 603 598 603 588 579 570 570 533 533 529 0 0 0 0 0 0 537 545 0 0 533 529 537 537 541 541 525 545 553 549 553 553 553 553 561 588 557 553 566 561 549 549 537 533 529 533 537 533 529 529 533 533 529 529 529 533 537 533 561 557 561 553 561 553 549 553 566 537 537 533 541 537 553 557 557 570 549 0 0 0 549 537 533 521 525 533 537 566 561 570 584 584 588 588 574 561 537 537 533 529 529 529 533 533 533 537 537 541 541 549 545 545 549 549 553 570 570 584 593 588 588 598 598 598 0 0 603 0 603 574 545 0 529 529 0 537 537 537 545 557 588 593 598 579 574 579 574 579 584 545 549 549 553 549 545 545 533 525 525 518 518 511 514 514 514 521 525 529 533 525 537 529 521 521 521 521 521 525 529 525 525 521 521 521 521 521 514 518 518 518 521 521 514 518 497 511 0 0 0 0 0
    0 0 0 0 0 0 0 0 0 0 0 0 0 0 0 0 0 0 0 0 0 0 0 0 0 0 0 0 0 0 0 0 0 0 0 0 0 0 0 0 0 0 0 0 0 0 0 0 0 0 0 0 0 0 0 0 0 0 0 0 0 0 0 0 0 0 0 0 0 529 529 537 557 545 541 537 533 525 533 525 525 518 521 529 525 0 0 0 0 0 553 553 553 557 541 549 545 549 553 545 541 545 0 0 0 537 537 537 537 537 525 525 529 525 529 533 533 545 537 593 584 593 561 557 553 541 529 529 525 533 533 0 533 525 533 537 541 0 0 533 529 533 533 537 533 521 537 541 541 541 545 545 545 549 570 549 545 553 549 545 541 533 533 525 529 533 529 529 525 529 529 529 529 525 529 533 529 549 545 553 545 549 545 541 545 549 533 533 529 537 533 537 537 541 533 533 529 529 518 529 518 518 511 518 521 525 549 549 557 566 566 574 566 557 549 533 533 529 525 525 525 529 529 529 533 533 533 533 541 537 537 541 541 541 561 574 579 593 588 588 598 598 598 0 0 0 0 588 549 529 525 525 525 529 529 529 529 529 545 584 593 598 570 566 570 561 570 570 537 545 545 549 545 545 545 533 521 525 514 514 511 514 514 514 521 525 529 533 518 529 514 497 504 500 504 500 507 514 514 518 514 511 514 514 514 511 514 514 511 521 521 514 518 504 514 0 0 0 0 0
    0 0 0 0 0 0 0 0 0 0 0 0 0 0 0 0 0 0 0 0 0 0 0 0 0 0 0 0 0 0 0 0 0 0 0 0 0 0 0 0 0 0 0 0 0 0 0 0 0 0 0 0 0 0 0 0 0 0 0 0 0 0 0 0 0 0 0 0 0 525 529 533 545 537 537 533 529 525 529 525 525 518 518 525 518 529 0 0 0 0 0 545 0 549 0 0 537 541 537 537 529 537 529 0 529 533 529 533 529 533 521 521 525 525 529 529 529 533 529 0 545 549 541 541 541 533 529 525 525 529 529 529 529 521 529 533 537 537 533 533 529 529 533 533 529 518 533 537 533 537 537 537 537 541 557 541 541 549 545 541 541 533 533 529 529 529 529 529 525 529 529 525 529 525 529 529 529 545 541 549 541 541 541 541 541 545 533 533 529 533 533 533 529 533 521 521 518 518 507 514 507 511 504 511 518 518 537 541 545 557 553 557 553 549 541 529 529 525 521 525 525 525 525 525 529 525 525 529 529 529 529 533 537 533 557 570 561 584 553 566 0 588 0 0 0 0 0 553 533 521 521 521 521 521 525 521 521 521 533 561 579 593 557 553 553 545 553 549 533 537 541 541 541 537 541 529 514 521 514 514 507 514 514 514 521 525 525 529 511 521 497 490 493 490 490 487 493 500 504 511 504 507 507 511 511 507 511 507 504 521 521 511 507 504 507 0 0 0 0 0
    0 0 0 0 0 0 0 0 0 0 0 0 0 0 0 0 0 0 0 0 0 0 0 0 0 0 0 0 0 0 0 0 0 0 0 0 0 0 0 0 0 0 0 0 0 0 0 0 0 0 0 0 0 0 0 0 0 0 0 0 0 0 0 0 0 0 0 0 0 525 529 533 541 537 537 533 529 525 529 525 525 518 518 521 518 518 521 521 521 521 0 0 533 0 0 0 533 537 537 533 529 533 529 537 529 529 529 533 529 533 514 521 521 525 525 521 521 525 521 529 533 529 529 529 533 529 525 525 525 529 529 525 529 521 529 529 533 529 529 529 529 525 529 525 525 514 529 529 525 529 529 533 533 533 545 537 537 545 541 537 537 529 533 525 529 529 525 525 525 525 525 525 525 525 525 525 525 537 537 545 533 537 537 537 537 541 533 533 529 537 533 533 529 529 518 514 514 514 504 511 507 507 504 511 514 514 521 533 537 545 541 545 545 541 533 525 529 525 521 525 525 525 525 525 529 525 525 525 525 525 525 529 533 529 545 549 545 537 529 529 525 537 541 0 0 525 529 529 525 514 518 518 518 518 521 518 518 514 525 537 549 553 545 541 541 537 537 537 525 533 533 533 533 533 537 525 507 518 511 514 507 514 514 511 518 525 518 521 504 514 487 481 484 481 484 481 487 493 500 511 507 507 511 514 511 504 507 504 497 518 521 504 493 493 490 0 0 0 0 0
    0 0 0 0 0 0 0 0 0 0 0 0 0 0 0 0 0 0 0 0 0 0 0 0 0 0 0 0 0 0 0 0 0 0 0 0 0 0 0 0 0 0 0 0 0 0 0 0 0 0 0 0 0 0 0 0 0 0 0 0 0 0 0 0 0 0 0 0 0 521 525 529 537 537 537 533 529 525 529 525 525 518 518 521 514 514 514 511 511 511 525 529 525 533 529 533 533 533 537 533 529 537 529 537 529 529 529 529 525 529 514 518 521 521 521 518 518 521 518 525 529 521 521 525 533 529 529 525 529 529 529 529 529 521 525 529 529 529 529 529 529 525 529 525 525 511 521 521 518 521 525 525 525 529 537 533 533 537 537 533 533 529 529 525 525 525 521 525 521 521 521 521 525 525 521 525 525 537 537 541 529 533 533 537 533 537 533 533 533 537 533 533 533 529 514 511 514 511 504 507 504 507 504 511 514 511 514 521 525 533 525 533 533 533 525 518 525 521 521 525 525 525 525 525 529 525 525 525 525 525 525 525 529 525 533 533 529 521 521 518 518 521 521 514 518 514 518 514 514 507 514 514 514 514 518 511 514 511 521 525 533 533 537 533 533 529 529 533 521 521 525 525 525 525 529 518 500 514 507 511 507 511 511 511 514 521 514 518 497 504 484 481 484 484 484 481 487 490 497 504 504 504 507 511 511 500 504 497 493 507 511 497 484 487 0 0 0 0 0 0
    0 0 0 0 0 0 0 0 0 0 0 0 0 0 0 0 0 0 0 0 0 0 0 0 0 0 0 0 0 0 0 0 0 0 0 0 0 0 0 0 0 0 0 0 0 0 0 0 0 0 0 0 0 0 0 0 0 0 0 0 0 0 0 0 0 0 0 0 0 518 521 525 533 533 533 533 529 525 529 525 525 518 518 521 514 514 511 507 507 507 518 525 518 525 521 529 529 533 533 529 529 533 525 533 525 529 525 525 525 529 511 514 518 521 521 518 518 518 518 525 529 525 521 525 533 529 529 525 529 529 529 529 529 521 525 529 529 529 529 529 529 529 529 529 525 511 521 521 518 521 521 521 525 525 537 533 533 537 537 529 533 525 529 521 521 525 521 525 521 521 521 521 525 525 521 525 525 533 533 537 529 533 533 537 533 537 533 533 533 537 533 537 533 533 521 514 514 514 504 507 504 507 504 511 514 511 511 518 518 521 511 521 525 521 518 511 525 521 521 525 525 525 525 525 529 525 525 525 525 521 521 521 525 518 525 525 518 514 514 514 511 514 511 507 514 511 514 511 511 504 514 514 514 511 514 511 511 511 518 514 518 521 525 518 521 521 518 521 514 511 514 511 514 518 521 507 493 511 504 511 507 511 511 511 514 521 511 514 497 500 484 484 484 487 487 484 487 490 493 500 504 500 504 504 504 500 500 493 490 504 504 490 481 484 471 0 0 0 0 0
    0 0 0 0 0 0 0 0 0 0 0 0 0 0 0 0 0 0 0 0 0 0 0 0 0 0 0 0 0 0 0 0 0 0 0 0 0 0 0 0 0 0 0 0 0 0 0 0 0 0 0 0 0 0 0 0 0 0 0 0 0 0 0 0 0 0 0 0 0 518 525 529 533 537 533 533 529 529 529 525 525 521 521 521 518 518 511 507 507 504 514 518 511 521 518 525 525 529 533 529 525 533 525 533 525 525 521 521 521 525 507 514 518 521 521 518 521 518 518 529 533 529 525 525 533 529 529 529 529 525 525 529 529 521 525 529 529 529 529 533 529 529 529 529 525 511 521 521 518 521 521 521 521 525 537 533 533 537 537 529 533 529 529 521 521 521 521 525 521 521 525 521 525 525 525 525 525 533 537 537 529 533 533 537 533 537 533 533 533 537 533 537 533 533 521 518 518 514 507 511 507 507 504 511 514 511 511 514 514 518 507 518 521 521 514 511 525 521 521 525 525 525 525 525 533 525 525 525 521 521 521 518 518 514 521 521 518 518 518 514 511 514 514 507 514 514 518 514 514 507 514 514 518 511 514 507 511 507 518 504 507 511 514 507 511 511 507 511 504 504 504 504 507 514 514 500 493 511 504 511 507 511 511 511 514 521 504 511 497 500 484 484 484 487 487 487 487 490 493 500 500 497 500 497 497 497 497 493 490 500 500 490 481 484 468 0 0 0 0 0
    0 0 0 0 0 0 0 0 0 0 0 0 0 0 0 0 0 0 0 0 0 0 0 0 0 0 0 0 0 0 0 0 0 0 0 0 0 0 0 0 0 0 0 0 0 0 0 0 0 0 0 0 0 0 0 0 0 0 0 0 0 0 0 0 0 0 0 0 0 514 525 533 537 537 533 533 533 529 533 529 529 525 521 525 521 518 511 504 507 504 511 514 507 518 511 521 521 525 529 529 525 529 525 533 529 525 525 521 521 525 507 514 518 521 521 521 521 521 521 529 533 533 529 529 533 533 529 529 533 529 529 529 529 525 529 529 533 529 529 533 529 529 529 529 525 514 521 518 518 518 521 521 521 521 533 529 533 533 533 529 529 525 529 521 521 521 521 525 521 521 525 521 529 525 525 529 529 537 537 541 529 533 533 537 533 537 533 533 533 537 533 537 533 533 525 518 518 514 507 511 511 511 507 511 514 511 507 511 514 518 504 514 521 521 518 507 525 521 521 525 525 525 525 525 533 525 525 525 521 521 521 514 518 514 518 521 518 518 518 514 514 518 514 507 514 514 521 514 518 511 518 518 518 514 514 507 511 507 514 504 504 507 507 500 504 504 504 507 504 504 504 504 511 518 518 504 493 511 507 511 507 511 511 511 514 525 504 507 497 500 484 484 484 484 487 484 484 487 490 497 497 493 493 493 490 493 493 493 490 500 500 490 484 481 465 0 0 0 0 0
    0 0 0 0 0 0 0 0 0 0 0 0 0 0 0 0 0 0 0 0 0 0 0 0 0 0 0 0 0 0 0 0 0 0 0 0 0 0 0 0 0 0 0 0 0 0 0 0 0 0 0 0 0 0 0 0 0 0 0 0 0 0 0 0 0 0 0 0 0 521 529 541 541 541 537 533 533 533 533 533 529 525 525 529 525 518 511 507 507 507 511 514 504 514 511 514 518 521 525 525 525 529 525 533 533 529 525 521 521 521 504 518 521 521 525 521 525 525 525 533 533 533 529 529 533 533 533 533 533 533 529 533 533 529 529 533 533 533 533 533 533 529 533 529 525 518 525 521 518 521 521 521 521 521 533 525 529 529 529 525 525 525 529 521 525 521 521 525 521 521 521 521 525 525 525 529 529 537 537 541 529 533 533 537 533 533 533 533 533 541 537 537 533 533 525 521 521 518 511 514 514 518 514 514 518 511 514 514 518 518 507 514 521 521 521 507 525 521 521 525 525 525 525 525 533 525 525 525 521 521 521 518 521 514 521 525 521 518 518 514 514 518 518 511 518 518 525 518 521 511 518 518 514 511 511 507 511 507 514 504 504 507 507 500 500 504 500 504 500 500 504 504 511 521 518 511 493 511 511 511 507 511 511 511 514 525 504 504 500 504 487 484 484 484 487 484 484 487 490 497 493 493 493 490 490 493 493 490 490 497 497 487 477 477 462 0 0 0 0 0
    0 0 0 0 0 0 0 0 0 0 0 0 0 0 0 0 0 0 0 0 0 0 0 0 0 0 0 0 0 0 0 0 0 0 0 0 0 0 0 0 0 0 0 0 0 0 0 0 0 0 0 0 0 0 0 0 0 0 0 0 0 0 0 0 0 0 0 0 0 525 529 537 537 541 537 533 537 537 537 537 533 533 533 533 533 529 521 525 521 0 518 518 511 518 514 514 521 521 525 525 525 529 525 529 533 529 529 525 525 525 511 518 521 525 525 525 525 525 525 533 533 533 529 529 533 533 533 537 537 533 533 533 533 533 533 533 533 533 533 533 533 529 533 533 525 518 525 521 521 521 525 521 521 521 529 521 525 525 525 521 521 525 529 521 525 521 521 525 521 518 521 521 525 525 525 529 533 537 541 541 529 533 533 537 537 533 533 533 533 541 537 537 533 533 529 525 525 518 514 518 518 521 521 518 518 514 518 518 521 521 511 514 521 521 521 511 525 521 525 529 529 525 525 525 533 525 525 525 521 525 525 521 525 518 525 525 525 521 518 518 514 518 518 511 518 518 525 514 518 511 514 514 514 511 511 507 511 504 514 504 504 511 511 500 500 504 500 504 504 500 504 504 507 521 518 514 490 511 511 511 504 511 511 511 511 529 504 500 497 504 487 484 481 484 484 484 484 484 487 490 490 490 490 487 487 490 490 487 484 490 490 484 477 474 459 0 0 0 0 0
    0 0 0 0 0 0 0 0 0 0 0 0 0 0 0 0 0 0 0 0 0 0 0 0 0 0 0 0 0 0 0 0 0 0 0 0 0 0 0 0 0 0 0 0 0 0 0 0 0 0 0 0 0 0 0 0 0 0 0 0 0 0 0 0 0 0 0 0 0 525 529 529 533 541 533 529 533 533 533 537 533 533 533 537 537 533 529 529 525 0 0 518 511 514 514 514 521 521 525 525 525 525 525 529 533 529 529 525 525 525 511 521 525 525 525 525 525 525 525 533 533 529 529 529 533 533 533 537 537 537 533 537 537 533 533 533 529 529 529 533 533 529 533 533 525 518 525 521 521 521 525 521 521 525 529 521 525 521 521 514 518 525 529 521 521 518 521 521 521 518 521 521 525 525 525 529 533 537 541 541 529 533 533 537 537 533 533 533 533 541 537 537 533 529 529 525 529 521 521 521 521 525 529 525 525 525 521 521 525 521 514 518 525 525 521 511 525 525 529 529 529 529 529 529 533 525 529 525 521 525 525 521 525 518 521 525 521 521 518 518 518 518 521 514 518 518 521 511 518 511 514 514 514 511 511 507 514 507 518 507 507 514 514 507 504 511 504 507 507 504 507 507 511 521 514 514 490 511 511 511 504 507 507 511 511 525 500 497 497 504 487 484 481 484 484 481 484 481 481 487 484 481 477 474 477 477 481 481 477 481 484 481 474 471 459 0 0 0 0 0
    0 0 0 0 0 0 0 0 0 0 0 0 0 0 0 0 0 0 0 0 0 0 0 0 0 0 0 0 0 0 0 0 0 0 0 0 0 0 0 0 0 0 0 0 0 0 0 0 0 0 0 0 0 0 0 0 0 0 0 0 0 0 0 0 0 0 0 0 0 525 525 529 529 537 529 525 529 533 533 533 529 533 529 533 537 525 525 521 518 0 514 507 504 504 511 507 518 518 521 525 525 525 525 529 529 525 529 521 521 525 511 521 525 525 525 525 525 525 525 529 529 529 525 525 529 529 529 533 533 533 533 537 533 533 529 533 529 529 529 533 533 529 533 533 525 518 525 521 521 521 525 521 521 525 529 518 525 518 511 507 511 521 525 518 521 518 518 521 518 518 521 521 525 525 525 529 533 537 537 541 525 533 529 537 533 533 533 533 533 541 537 537 529 529 529 529 529 525 525 525 529 537 541 533 537 537 533 529 525 521 518 518 525 525 521 511 525 525 529 533 533 529 529 529 537 533 533 529 529 529 533 525 525 518 521 521 521 521 514 514 514 514 518 507 514 0 521 511 518 507 514 514 514 511 514 507 514 507 518 511 511 518 518 511 507 511 511 507 511 511 511 514 514 521 518 518 490 511 507 507 504 507 504 507 507 525 497 493 493 490 484 481 477 481 481 481 481 477 481 484 481 468 459 459 457 454 471 471 474 477 481 477 471 468 459 0 0 0 0 0
    0 0 0 0 0 0 0 0 0 0 0 0 0 0 0 0 0 0 0 0 0 0 0 0 0 0 0 0 0 0 0 0 0 0 0 0 0 0 0 0 0 0 0 0 0 0 0 0 0 0 0 0 0 0 0 0 0 0 0 0 0 0 0 0 0 0 0 0 0 0 0 0 0 0 525 521 529 529 529 529 529 529 529 533 537 518 514 0 0 0 0 0 0 0 0 500 0 518 525 525 525 521 521 521 529 521 525 518 518 521 511 521 525 521 521 525 525 525 521 529 529 525 525 529 525 525 529 533 533 529 529 533 533 529 529 533 529 529 529 529 529 529 533 533 525 518 525 521 521 521 525 521 521 525 533 521 529 521 518 511 507 521 525 518 521 518 518 521 521 521 521 521 525 525 529 533 533 537 537 537 521 529 529 533 533 529 529 529 529 537 533 533 525 525 525 529 529 529 533 533 0 545 553 545 545 541 537 529 518 518 514 514 521 521 521 507 525 525 529 533 533 533 533 533 537 537 0 533 533 533 533 529 529 518 521 521 521 518 511 511 507 511 521 504 511 511 521 511 518 507 514 514 514 511 514 507 514 507 521 511 507 518 518 511 507 511 507 504 511 511 511 514 518 525 518 514 490 507 507 507 504 504 504 507 507 525 493 493 490 487 481 477 477 477 477 477 474 471 477 474 471 451 446 448 446 443 462 462 471 474 477 474 468 465 459 0 0 0 0 0
    0 0 0 0 0 0 0 0 0 0 0 0 0 0 0 0 0 0 0 0 0 0 0 0 0 0 0 0 0 0 0 0 0 0 0 0 0 0 0 0 0 0 0 0 0 0 0 0 0 0 0 0 0 0 0 0 0 0 0 0 0 0 0 0 0 0 0 0 0 0 0 0 0 0 518 514 525 525 529 525 525 529 529 529 537 0 0 0 0 0 0 0 0 0 0 0 0 0 0 0 521 518 518 518 0 514 514 504 500 504 500 514 521 521 518 525 525 529 525 0 533 533 533 533 529 529 529 533 533 533 529 529 533 529 525 529 525 525 525 529 529 525 533 533 518 518 521 521 521 521 525 521 518 529 533 525 0 0 521 511 504 514 514 511 521 511 514 521 518 518 521 521 525 521 529 0 529 533 533 533 518 529 525 529 529 529 525 525 525 533 529 533 521 518 521 525 525 525 533 0 0 0 0 639 623 598 553 525 504 514 507 504 514 518 521 504 521 525 529 533 533 533 533 529 537 537 541 537 537 537 533 529 525 514 518 514 514 507 497 497 497 497 507 487 497 0 0 0 521 511 518 518 514 514 514 511 518 511 521 511 504 518 518 514 507 507 504 500 511 511 511 511 514 521 514 511 490 507 511 511 504 504 507 507 511 525 497 493 490 484 477 474 474 477 477 474 471 465 474 471 465 446 443 446 443 440 454 454 465 468 471 465 462 462 459 0 0 0 0 0
    0 0 0 0 0 0 0 0 0 0 0 0 0 0 0 0 0 0 0 0 0 0 0 0 0 0 0 0 0 0 0 0 0 0 0 0 0 0 0 0 0 0 0 0 0 0 0 0 0 0 0 0 0 0 0 0 0 0 0 0 0 0 0 0 0 0 0 0 0 0 0 0 0 0 0 0 525 521 525 525 525 525 525 525 0 0 0 465 0 462 0 0 0 0 0 0 0 0 0 0 521 518 514 0 0 504 504 493 490 490 490 507 521 518 514 525 525 0 0 0 0 0 0 541 533 537 533 541 537 541 533 533 533 529 525 529 525 525 521 525 525 521 529 525 504 507 514 511 514 514 518 514 511 529 529 0 0 0 0 504 0 507 511 511 518 507 511 514 514 511 518 514 518 514 0 0 0 0 529 529 511 525 525 529 529 525 521 521 521 533 521 525 511 504 504 514 514 514 521 0 0 0 0 657 634 0 0 518 484 500 493 487 500 511 518 500 521 525 525 529 533 533 529 529 537 533 0 525 521 525 521 511 504 500 507 507 507 500 493 493 493 493 493 481 481 0 0 0 0 0 518 521 514 514 514 511 518 511 521 514 504 521 521 518 511 511 500 497 507 507 507 507 507 514 507 507 490 507 511 511 507 507 511 511 514 529 500 497 490 481 477 474 471 474 474 471 468 459 471 459 448 435 432 435 435 435 440 440 446 451 457 457 454 457 459 0 0 0 0 0
    0 0 0 0 0 0 0 0 0 0 0 0 0 0 0 0 0 0 0 0 0 0 0 0 0 0 0 0 0 0 0 0 0 0 0 0 0 0 0 0 0 0 0 0 0 0 0 0 0 0 0 0 0 0 0 0 0 0 0 0 0 0 0 0 0 0 0 0 0 0 0 0 0 0 0 0 0 511 518 514 514 511 518 514 0 474 462 462 462 462 0 0 0 0 0 0 0 0 0 0 0 0 504 0 0 493 490 487 477 474 481 493 514 511 504 518 0 0 0 0 0 0 553 545 533 537 533 545 541 545 533 533 533 525 521 525 518 518 511 511 514 511 521 514 490 0 500 500 500 500 507 500 497 529 518 0 0 0 0 0 0 0 0 0 511 500 500 0 0 0 507 504 0 0 0 0 0 0 525 525 500 525 521 529 529 525 514 511 511 0 511 0 493 490 487 497 500 500 0 0 0 0 0 663 651 651 0 0 0 462 468 465 477 490 497 490 511 521 521 529 529 529 525 521 533 529 514 493 487 487 0 0 487 0 0 0 497 490 484 487 487 490 484 477 474 468 0 0 0 0 514 518 511 514 518 511 518 514 521 518 504 521 529 521 511 500 497 490 493 0 493 497 497 500 497 497 487 507 511 511 507 507 507 511 511 529 497 493 490 481 477 471 471 471 471 468 462 454 465 443 438 432 427 432 432 432 435 435 438 443 446 451 446 448 457 0 0 0 0 0
    0 0 0 0 0 0 0 0 0 0 0 0 0 0 0 0 0 0 0 0 0 0 0 0 0 0 0 0 0 0 0 0 0 0 0 0 0 0 0 0 0 0 0 0 0 0 0 0 0 0 0 0 0 0 0 0 0 0 0 0 0 0 0 0 0 0 0 0 0 0 0 0 0 0 0 0 0 0 0 504 504 500 507 504 0 468 454 457 454 457 0 0 0 0 0 0 0 0 0 0 0 0 0 0 0 471 474 471 462 459 468 0 504 500 493 500 0 0 0 0 0 0 549 541 525 529 525 541 533 537 529 521 521 511 511 518 504 507 497 493 493 0 504 497 474 0 0 487 487 487 490 487 0 0 0 0 0 0 0 0 0 0 0 0 0 0 0 0 0 0 0 0 0 0 0 0 0 0 0 514 493 525 521 525 529 521 504 497 497 0 0 0 484 481 477 490 487 490 0 0 0 0 0 0 0 0 459 462 448 448 451 454 454 481 484 484 504 518 521 529 529 529 518 518 525 507 487 477 471 468 471 468 471 471 0 0 481 477 474 477 481 481 477 474 471 465 0 0 497 0 511 518 511 514 518 511 518 514 525 514 497 521 537 521 500 0 0 484 0 0 0 484 484 487 487 487 484 504 504 507 504 507 504 507 507 525 490 487 487 474 474 471 468 468 468 465 459 451 462 440 435 430 427 432 432 432 435 435 435 440 440 446 438 440 451 0 0 0 0 0
    0 0 0 0 0 0 0 0 0 0 0 0 0 0 0 0 0 0 0 0 0 0 0 0 0 0 0 0 0 0 0 0 0 0 0 0 0 0 0 0 0 0 0 0 0 0 0 0 0 0 0 0 0 0 0 0 0 0 0 0 0 0 0 0 0 0 0 0 0 0 0 0 0 0 0 0 0 0 0 0 493 493 504 500 0 465 451 454 451 454 448 448 0 0 0 0 0 0 0 0 0 0 0 0 0 443 446 454 448 451 459 462 490 490 487 487 0 0 490 0 0 0 0 518 500 493 493 521 507 529 514 507 511 497 500 504 493 493 487 484 0 0 0 487 462 440 474 474 477 477 477 474 465 0 0 0 0 0 0 0 0 0 0 0 0 0 0 0 0 0 0 0 0 0 0 0 0 0 0 0 487 518 514 514 525 507 493 487 487 0 0 0 477 471 468 481 477 481 474 0 0 0 0 0 0 0 451 454 448 446 448 451 448 468 474 477 493 514 514 525 525 525 514 507 0 487 474 465 454 457 459 457 457 457 465 465 471 474 468 471 474 474 471 468 465 459 459 462 477 0 504 518 511 514 518 514 521 514 525 514 490 0 0 0 0 0 0 474 465 0 471 471 474 474 477 474 474 497 497 500 500 504 500 504 500 511 481 481 477 465 468 465 462 465 465 459 451 446 454 438 430 430 427 432 432 432 435 435 435 440 438 443 435 435 451 0 0 0 0 0
    0 0 0 0 0 0 0 0 0 0 0 0 0 0 0 0 0 0 0 0 0 0 0 0 0 0 0 0 0 0 0 0 0 0 0 0 0 0 0 0 0 0 0 0 0 0 0 0 0 0 0 0 0 0 0 0 0 0 0 0 0 0 0 0 0 0 0 0 0 0 0 0 0 0 0 0 0 0 0 0 0 477 0 0 0 454 451 451 451 451 446 446 0 0 448 446 0 0 0 0 0 0 438 430 0 0 440 446 446 448 454 446 477 481 471 462 0 0 471 0 0 462 462 471 481 477 477 0 474 0 487 484 490 481 484 487 484 484 477 471 462 451 465 481 451 438 457 459 462 462 459 457 446 448 468 0 0 0 0 0 435 438 440 0 0 0 0 0 0 0 0 0 0 0 0 0 0 0 87 0 474 493 493 484 497 490 477 465 459 451 462 451 462 459 454 468 465 465 459 0 0 443 0 0 0 0 0 448 448 446 448 451 446 457 462 465 477 497 497 514 514 511 500 493 0 477 468 457 448 451 448 448 446 448 451 451 462 468 459 465 468 471 465 465 462 457 454 451 465 454 0 518 507 518 518 514 521 518 529 514 481 0 0 0 0 0 0 459 448 0 457 457 459 462 465 457 462 490 490 493 490 497 497 497 493 490 474 471 468 457 462 459 457 459 462 454 446 443 448 435 427 430 427 432 432 432 435 435 435 440 438 443 435 432 446 0 0 0 0 0
    0 0 0 0 0 0 0 0 0 0 0 0 0 0 0 0 0 0 0 0 0 0 0 0 0 0 0 0 0 0 0 0 0 0 0 0 0 0 0 0 0 0 0 0 0 0 0 0 0 0 0 0 0 0 0 0 0 0 0 0 0 0 0 0 0 0 0 0 0 0 448 0 0 0 0 0 0 446 446 0 454 457 457 0 457 446 448 448 448 448 446 443 0 443 443 0 0 0 432 0 0 0 440 432 0 0 0 446 443 446 448 440 462 457 451 443 440 440 440 0 0 440 438 446 462 462 459 0 0 0 0 471 477 471 471 474 474 471 468 459 451 443 440 459 446 435 446 448 446 448 446 446 440 440 454 435 430 432 0 435 435 438 438 438 438 438 0 432 432 435 432 0 432 0 0 0 0 0 0 0 459 468 474 465 465 465 446 443 440 438 443 443 448 448 448 457 454 454 448 440 443 440 438 0 440 0 443 446 446 443 446 448 446 451 454 457 468 481 477 487 490 490 487 481 481 474 465 448 446 448 446 446 443 446 448 446 454 462 454 462 465 468 465 462 462 454 451 448 454 446 0 0 500 514 518 511 521 514 525 500 474 462 465 448 0 0 457 451 443 446 448 448 451 451 454 446 451 481 484 484 484 493 490 493 487 477 468 462 462 451 459 457 457 459 462 454 446 443 451 435 427 430 427 432 432 432 435 435 435 438 438 440 435 430 435 0 0 0 0 0
    0 0 0 0 0 0 0 0 0 0 0 0 0 0 0 0 0 0 0 0 0 0 0 0 0 0 0 0 0 0 0 0 0 0 0 0 0 0 0 0 0 0 0 0 0 0 0 0 0 0 0 0 0 0 0 0 0 0 0 0 0 0 0 0 0 0 0 0 0 0 451 0 0 0 0 438 440 440 440 443 443 443 446 448 446 443 446 446 446 446 0 0 0 0 0 0 0 0 430 0 0 0 438 432 0 0 0 443 440 443 443 438 446 443 440 435 432 432 432 432 438 432 430 435 446 0 0 0 0 0 0 462 468 465 465 468 465 465 462 457 448 443 438 446 440 435 443 443 440 443 440 440 438 438 448 432 430 430 432 438 435 438 438 438 438 438 0 432 432 435 435 0 435 435 438 0 446 0 0 0 0 454 459 448 443 443 438 438 435 435 438 440 443 446 446 451 448 451 446 440 443 440 440 440 440 443 440 443 443 440 443 446 446 448 448 451 459 474 465 471 471 474 471 459 462 459 454 443 443 446 446 446 446 446 446 446 451 454 451 457 459 462 457 457 454 451 446 443 448 440 0 0 474 507 518 507 518 504 0 477 459 440 446 440 0 0 448 446 440 440 446 443 446 446 448 443 446 471 474 471 468 0 484 484 474 457 457 454 454 448 457 451 451 454 457 451 443 440 448 435 427 432 430 432 435 435 435 435 435 440 438 438 432 430 435 0 0 0 0 0
    0 0 0 0 0 0 0 0 0 0 0 0 0 0 0 0 0 0 0 0 0 0 0 0 0 0 0 0 0 0 0 0 0 0 0 0 0 0 0 0 0 0 0 0 0 0 0 0 0 0 0 0 0 0 0 0 0 0 0 0 0 0 0 0 0 0 0 0 0 448 451 0 0 0 0 438 440 440 440 440 443 443 443 446 446 443 446 448 448 446 0 0 0 438 438 435 432 435 432 0 435 432 438 430 0 0 0 440 440 440 440 435 440 438 432 430 427 427 427 427 432 430 427 432 0 0 0 0 0 0 0 459 465 462 465 468 465 462 462 454 451 446 443 446 443 438 443 443 440 443 440 440 438 438 446 432 432 432 432 435 435 438 438 438 438 438 438 432 435 435 435 435 435 435 438 440 446 443 0 0 0 446 446 443 438 438 432 435 435 435 438 440 440 443 443 446 446 448 443 440 443 440 438 0 440 440 438 440 440 438 440 443 446 446 448 448 454 459 451 454 448 448 446 443 443 443 443 440 443 446 443 443 446 446 446 446 451 451 448 454 454 454 451 451 451 448 446 443 443 440 438 435 443 446 0 0 0 0 0 459 448 438 440 438 440 440 443 443 0 0 0 440 443 443 443 440 440 454 457 451 446 435 451 457 454 443 448 448 448 446 454 448 448 451 451 446 438 438 443 435 425 432 430 435 435 435 435 435 435 440 438 438 432 0 0 0 0 0 0 0
    0 0 0 0 0 0 0 0 0 0 0 0 0 0 0 0 0 0 0 0 0 0 0 0 0 0 0 0 0 0 0 0 0 0 0 0 0 0 0 0 0 0 0 0 0 0 0 0 0 0 0 0 0 0 0 0 0 0 0 0 0 0 0 0 0 0 0 0 0 446 448 438 438 0 438 438 440 440 440 440 443 443 446 448 448 446 448 451 454 448 0 0 0 0 440 438 435 438 438 440 438 432 438 432 0 438 0 440 440 440 440 435 440 435 432 430 425 427 425 425 430 427 430 432 440 0 443 443 0 0 0 457 465 462 465 468 465 462 462 451 451 446 446 446 443 438 446 443 443 443 440 440 440 438 446 435 432 435 435 435 435 438 438 438 438 438 438 435 438 438 438 438 438 438 440 440 443 443 443 440 440 440 440 438 435 435 432 432 435 435 438 440 440 440 440 443 443 446 440 438 440 438 438 435 435 435 432 435 438 435 438 440 443 446 446 446 448 451 446 443 440 438 438 438 438 440 440 438 440 443 443 443 446 446 446 446 451 448 446 451 451 446 446 446 446 446 443 443 443 440 440 0 440 443 438 438 440 438 443 446 446 438 438 438 440 440 443 440 435 0 0 438 440 440 440 438 438 446 443 440 438 432 432 435 438 438 443 443 443 440 446 446 443 446 443 440 435 435 440 435 425 432 432 435 435 435 435 435 435 443 438 440 432 430 432 0 0 0 0 0
    0 0 0 0 0 0 0 0 0 0 0 0 0 0 0 0 0 0 0 0 0 0 0 0 0 0 0 0 0 0 0 0 0 0 0 0 0 0 0 0 0 0 0 0 0 0 0 0 0 0 0 0 0 0 0 0 0 0 0 0 0 0 0 0 0 0 0 0 0 440 446 435 435 438 438 438 440 440 438 440 443 443 443 446 446 443 448 448 457 0 0 0 0 0 440 438 440 440 440 443 440 438 440 435 438 438 440 440 438 440 440 435 443 435 432 430 427 427 427 427 430 430 430 432 438 0 440 443 443 0 454 451 462 462 468 468 462 459 459 448 448 446 446 446 443 438 446 446 446 446 443 443 440 440 448 435 435 435 435 438 435 438 438 438 438 438 438 435 438 438 438 438 438 438 443 443 443 443 443 440 440 440 440 435 435 435 432 435 435 438 440 440 440 443 443 446 443 446 438 435 438 438 435 432 432 432 432 435 438 435 438 440 443 443 443 443 446 446 440 440 435 435 435 432 435 438 443 438 443 446 443 443 446 446 446 443 448 446 446 448 446 443 443 443 443 443 440 440 440 440 440 435 438 440 435 435 435 435 435 438 440 435 435 435 440 438 440 438 432 0 0 438 438 438 438 435 435 443 440 435 435 432 430 435 438 438 443 440 443 440 443 443 443 443 440 438 438 435 440 438 427 435 432 435 435 435 435 435 435 443 438 440 432 427 427 0 0 0 0 0
    0 0 0 0 0 0 0 0 0 0 0 0 0 0 0 0 0 0 0 0 0 0 0 0 0 0 0 0 0 0 0 0 0 0 0 0 0 0 0 0 0 0 0 0 0 0 0 0 0 0 0 0 0 0 0 0 0 0 0 0 0 0 0 0 0 0 0 0 0 0 446 435 438 438 438 440 443 440 438 440 443 443 446 446 446 443 448 448 451 446 0 0 0 0 443 440 443 443 443 446 443 443 440 438 440 440 440 440 440 440 440 438 443 435 435 432 427 430 427 427 430 430 430 432 438 435 440 440 443 443 451 448 459 457 465 465 459 457 457 446 448 446 446 446 446 438 446 446 446 446 443 443 440 440 448 435 435 435 432 435 432 438 438 438 438 438 438 438 438 440 438 438 438 438 443 443 443 443 443 440 440 440 440 435 435 435 435 438 438 440 443 443 443 443 443 448 446 446 438 435 438 435 435 432 432 432 432 432 435 432 435 438 438 440 440 440 443 440 438 438 435 435 435 432 435 438 440 438 443 443 440 443 446 446 443 443 448 446 443 448 446 440 443 443 443 446 443 440 440 440 440 435 435 438 432 432 432 432 435 435 438 435 435 435 440 438 438 438 430 435 0 435 438 435 435 435 435 440 438 432 435 430 430 435 435 440 446 443 443 440 443 443 443 446 443 440 0 438 443 438 432 435 435 435 435 438 438 435 438 443 440 438 432 430 427 0 0 0 0 0
    0 0 0 0 0 0 0 0 0 0 0 0 0 0 0 0 0 0 0 0 0 0 0 0 0 0 0 0 0 0 0 0 0 0 0 0 0 0 0 0 0 0 0 0 0 0 0 0 0 0 0 0 0 0 0 0 0 0 0 0 0 0 0 0 0 0 0 0 0 0 446 438 440 440 438 440 443 440 440 440 443 443 446 446 446 443 448 448 451 448 0 0 443 443 443 440 443 443 443 446 443 443 443 438 443 440 443 443 440 440 440 438 443 435 435 432 430 430 430 427 430 430 430 430 435 435 438 438 443 440 448 448 454 454 462 459 459 457 457 446 448 446 446 446 446 438 446 446 446 446 443 443 440 440 446 435 435 435 432 435 432 435 435 435 438 435 435 438 438 438 438 438 438 438 443 443 440 440 440 438 440 438 438 435 435 438 435 440 440 443 443 446 443 443 443 451 443 446 438 438 438 435 435 432 432 430 430 430 432 430 432 432 435 438 438 438 440 440 438 438 438 438 438 435 435 438 443 438 443 443 440 440 443 443 443 443 448 443 443 448 446 440 443 446 443 446 443 443 440 438 440 432 435 438 432 430 430 432 435 435 438 435 432 432 438 438 438 438 427 435 0 435 438 435 435 435 432 440 435 432 435 430 432 438 438 443 446 446 443 440 446 446 443 446 443 440 0 438 443 440 432 438 435 438 435 438 438 438 440 448 443 440 438 446 435 0 0 0 0 0
    0 0 0 0 0 0 0 0 0 0 0 0 0 0 0 0 0 0 0 0 0 0 0 0 0 0 0 0 0 0 0 0 0 0 0 0 0 0 0 0 0 0 0 0 0 0 0 0 0 0 0 0 0 0 0 0 0 0 0 0 0 0 0 0 0 0 0 0 0 0 446 435 438 438 438 440 443 440 440 440 443 443 446 446 446 443 448 448 451 448 0 0 443 443 443 440 440 440 443 446 443 443 443 438 443 443 443 443 440 440 440 438 443 435 435 432 430 430 430 430 427 427 430 430 435 435 438 438 443 440 446 446 451 451 459 457 454 454 454 446 448 446 446 443 443 438 443 443 443 443 443 440 440 440 446 435 435 435 432 432 432 435 435 435 438 435 435 435 435 438 435 435 435 435 438 435 435 438 438 438 438 435 435 432 435 435 435 440 440 443 443 446 443 443 443 448 443 443 438 438 438 435 435 432 432 430 427 427 430 427 430 430 435 435 438 435 440 440 438 440 438 440 440 438 438 438 443 438 443 443 438 440 443 443 443 440 446 443 443 446 446 438 443 443 443 446 443 443 443 440 443 435 438 440 432 430 430 432 435 435 438 435 432 432 438 438 438 435 425 432 435 0 435 435 432 435 432 440 435 435 435 432 435 443 440 446 451 448 446 443 446 446 446 448 446 440 440 440 443 440 435 438 438 438 438 438 440 438 440 448 443 438 435 440 432 0 0 0 0 0
    0 0 0 0 0 0 0 0 0 0 0 0 0 0 0 0 0 0 0 0 0 0 0 0 0 0 0 0 0 0 0 0 0 0 0 0 0 0 0 0 0 0 0 0 0 0 0 0 0 0 0 0 0 0 0 0 0 0 0 0 0 0 0 0 0 0 0 0 0 0 446 435 435 438 435 440 446 440 440 440 443 443 446 446 446 443 451 448 454 448 0 0 446 443 443 440 443 443 443 446 443 446 446 440 446 443 443 440 440 440 440 438 443 435 435 432 430 430 427 430 427 427 430 430 435 435 440 440 443 443 446 446 451 448 457 454 451 451 451 446 448 446 446 443 440 438 443 443 443 443 440 440 440 440 446 435 435 435 432 432 430 435 432 432 438 435 435 435 435 438 435 435 435 432 435 435 435 438 435 438 438 438 435 435 435 438 435 440 440 443 443 446 443 440 443 446 440 446 440 440 438 438 438 432 432 430 427 427 427 427 427 427 432 432 438 438 440 438 438 440 440 440 440 440 438 435 443 435 443 443 438 440 443 443 443 440 446 440 440 443 443 435 438 440 440 446 443 440 443 440 443 438 440 440 432 430 432 432 432 435 435 432 430 432 435 432 435 432 425 432 432 435 435 435 432 435 432 440 435 435 435 432 435 443 443 446 451 451 448 446 448 448 446 451 443 440 440 440 443 443 438 438 438 438 438 438 440 438 440 446 440 435 432 432 427 0 0 0 0 0
    0 0 0 0 0 0 0 0 0 0 0 0 0 0 0 0 0 0 0 0 0 0 0 0 0 0 0 0 0 0 0 0 0 0 0 0 0 0 0 0 0 0 0 0 0 0 0 0 0 0 0 0 0 0 0 0 0 0 0 0 0 0 0 0 0 0 0 0 0 0 446 0 0 0 0 440 446 438 438 440 443 443 446 446 446 443 451 451 454 451 0 0 448 448 448 443 446 446 448 448 446 448 446 443 446 443 443 440 440 440 438 438 443 435 435 435 430 430 430 430 430 430 432 430 435 435 440 440 443 440 443 443 448 448 454 451 451 448 451 446 446 446 446 443 440 435 440 440 440 440 440 438 438 438 448 435 438 438 432 432 430 435 432 432 438 438 435 438 435 438 435 435 435 432 435 435 435 438 438 438 438 438 435 435 435 438 435 438 438 443 443 443 443 440 440 446 440 443 443 440 438 435 438 435 432 430 425 425 425 425 427 427 432 432 438 438 438 438 438 440 438 438 443 438 435 430 440 432 443 440 438 438 443 443 443 440 446 438 440 443 443 435 438 438 438 443 440 438 438 440 443 438 440 440 435 430 435 432 432 432 435 432 432 432 432 432 432 430 422 430 432 435 435 435 432 435 435 440 438 435 435 432 438 446 443 448 451 451 448 446 448 448 443 448 440 438 438 435 440 438 435 438 438 438 438 438 440 438 440 446 438 432 427 0 427 0 0 0 0 0
    0 0 0 0 0 0 0 0 0 0 0 0 0 0 0 0 0 0 0 0 0 0 0 0 0 0 0 0 0 0 0 0 0 0 0 0 0 0 0 0 0 0 0 0 0 0 0 0 0 0 0 0 0 0 0 0 0 0 0 0 0 0 0 0 0 0 0 0 0 438 446 435 0 0 0 440 443 438 0 440 440 443 443 443 443 440 451 448 448 451 0 454 0 451 448 446 446 446 448 448 446 448 448 443 446 443 443 443 440 440 440 438 443 438 438 435 432 430 430 432 432 432 435 430 435 438 440 440 443 438 440 440 443 443 448 448 448 446 448 443 446 446 446 443 440 432 438 438 440 438 440 438 438 438 448 435 438 438 435 432 430 435 435 435 440 440 438 438 438 438 435 435 435 432 435 435 435 438 435 438 438 438 438 435 438 438 438 440 440 443 443 443 443 440 440 446 440 443 440 440 438 435 435 432 432 427 425 425 425 427 427 427 432 432 438 438 440 438 438 440 440 440 446 440 438 432 440 430 440 440 438 438 440 440 440 440 443 435 438 440 440 435 438 438 438 443 440 435 438 440 448 440 443 443 435 432 435 435 435 435 435 435 432 432 432 432 430 430 422 430 432 435 435 435 435 435 438 446 440 438 435 435 438 446 443 448 451 451 448 446 446 448 443 0 438 0 435 432 435 435 432 438 438 438 438 438 440 438 440 446 438 432 430 0 427 0 0 0 0 0
    0 0 0 0 0 0 0 0 0 0 0 0 0 0 0 0 0 0 0 0 0 0 0 0 0 0 0 0 0 0 0 0 0 0 0 0 0 0 0 0 0 0 0 0 0 0 0 0 0 0 0 0 0 0 0 0 0 0 0 0 0 0 0 0 0 0 0 0 0 438 446 435 435 0 440 440 443 0 0 440 440 440 443 440 0 0 446 443 0 0 0 0 0 0 448 446 448 448 448 448 446 448 448 443 448 446 446 443 443 440 440 438 443 438 438 435 432 432 432 432 432 432 435 432 438 438 440 440 443 438 438 438 440 443 446 446 446 443 446 443 443 443 443 440 438 430 435 435 435 435 438 435 435 435 446 435 438 438 435 432 430 435 435 435 440 438 438 438 435 435 435 432 432 432 435 435 435 438 438 438 440 440 440 440 440 440 440 443 443 443 443 446 443 443 443 446 440 443 440 438 435 435 435 432 430 427 425 425 427 430 430 430 432 435 440 440 440 440 440 443 446 443 448 443 443 435 440 430 440 438 435 435 438 438 438 438 443 435 438 440 443 435 438 438 440 443 440 438 443 443 457 446 448 443 438 435 435 435 435 432 435 435 432 432 430 427 427 427 422 430 432 435 435 435 435 438 440 448 443 440 435 435 438 446 443 448 451 451 451 448 448 448 443 0 0 0 435 432 435 432 432 435 438 438 438 438 440 438 440 443 435 432 430 430 427 0 0 0 0 0
    0 0 0 0 0 0 0 0 0 0 0 0 0 0 0 0 0 0 0 0 0 0 0 0 0 0 0 0 0 0 0 0 0 0 0 0 0 0 0 0 0 0 0 0 0 0 0 0 0 0 0 0 0 0 0 0 0 0 0 0 0 0 0 0 0 0 0 0 0 440 446 435 435 438 440 440 443 0 0 440 438 440 440 0 0 0 0 438 0 0 0 446 446 446 446 443 446 446 446 446 446 448 448 443 448 446 446 446 446 443 443 440 443 438 438 0 432 432 432 432 435 435 435 435 438 440 443 446 446 440 438 435 440 440 443 443 446 443 443 440 440 440 440 438 435 425 432 432 432 435 435 435 435 435 446 438 440 440 435 432 430 432 432 432 438 435 432 432 432 432 430 430 430 432 432 432 435 435 438 438 440 440 440 443 443 443 443 446 446 446 446 446 446 443 443 446 440 443 440 440 435 435 435 435 432 430 427 427 430 432 432 432 435 438 440 440 443 440 440 443 446 443 446 443 440 435 440 435 440 438 435 435 438 438 440 438 440 435 438 440 443 438 440 438 440 443 440 440 443 446 457 446 446 440 432 432 432 432 432 430 432 432 430 430 430 425 425 422 422 430 430 435 435 435 435 438 443 448 443 440 435 435 438 446 443 446 448 451 451 451 451 451 443 0 0 0 435 432 432 432 430 435 438 435 438 438 438 438 438 443 438 435 432 432 430 0 0 0 0 0
    0 0 0 0 0 0 0 0 0 0 0 0 0 0 0 0 0 0 0 0 0 0 0 0 0 0 0 0 0 0 0 0 0 0 0 0 0 0 0 0 0 0 0 0 0 0 0 0 0 0 0 0 0 0 0 0 0 0 0 0 0 0 0 0 0 0 0 0 0 440 448 435 435 438 440 438 0 0 0 440 438 438 440 435 0 0 440 438 0 0 443 443 443 446 446 443 446 446 446 446 448 448 451 446 451 448 448 448 448 446 443 440 443 438 0 0 0 432 432 432 435 435 435 438 440 440 443 448 454 446 443 440 443 443 446 446 446 443 443 440 440 438 440 438 435 422 430 432 432 432 435 435 435 435 448 440 440 440 438 432 432 432 432 432 435 432 430 430 430 430 430 430 430 430 430 432 432 435 435 438 440 440 440 443 443 446 446 448 448 446 446 448 446 443 443 443 440 440 438 440 435 435 435 435 432 432 430 430 430 435 435 435 438 438 443 443 443 443 443 446 448 446 448 446 443 438 443 438 440 440 438 438 438 438 440 438 440 435 438 440 440 435 438 438 438 440 440 438 443 446 454 446 443 438 432 432 432 432 430 430 432 432 430 430 427 422 425 420 422 430 430 435 435 435 438 438 446 448 443 440 438 438 440 446 443 443 446 446 448 446 446 443 438 435 430 0 430 430 432 432 430 438 438 438 438 438 440 440 440 448 440 438 438 435 432 0 0 0 0 0
    0 0 0 0 0 0 0 0 0 0 0 0 0 0 0 0 0 0 0 0 0 0 0 0 0 0 0 0 0 0 0 0 0 0 0 0 0 0 0 0 0 0 0 0 0 0 0 0 0 0 0 0 0 0 0 0 0 0 0 0 0 0 0 0 0 0 0 0 0 443 446 435 432 435 0 438 0 0 0 440 438 440 440 438 0 0 443 440 438 440 440 440 443 446 443 440 446 448 446 448 448 448 448 446 451 448 451 448 448 446 443 440 443 0 0 0 0 0 0 0 0 438 438 438 443 443 446 457 462 454 454 446 448 446 448 446 446 443 443 443 440 438 438 438 435 425 432 432 432 432 438 435 435 435 448 440 440 440 440 435 432 435 430 432 435 432 430 430 430 430 427 430 427 427 427 430 432 432 435 435 440 440 440 443 446 446 446 448 451 448 448 448 446 443 443 443 438 438 438 440 435 435 435 435 435 432 432 432 432 438 435 438 440 440 446 446 446 443 443 448 451 448 451 448 446 440 446 440 443 443 438 438 438 438 440 438 438 435 435 438 438 435 435 435 438 440 440 438 440 443 448 446 443 438 435 438 438 435 432 432 435 432 432 432 427 422 425 422 422 430 430 435 435 435 438 438 448 451 443 443 438 438 440 443 443 443 443 446 446 438 440 435 430 427 425 420 427 427 432 432 432 438 440 440 440 438 440 440 440 448 440 435 438 438 435 0 0 0 0 0
    0 0 0 0 0 0 0 0 0 0 0 0 0 0 0 0 0 0 0 0 0 0 0 0 0 0 0 0 0 0 0 0 0 0 0 0 0 0 0 0 0 0 0 0 0 0 0 0 0 0 0 0 0 0 0 0 0 0 0 0 0 0 0 0 0 0 0 0 0 446 446 435 432 432 0 438 0 0 0 0 440 440 440 0 0 0 446 440 438 438 0 438 440 443 443 440 446 448 448 448 451 448 451 446 454 448 451 448 448 446 446 0 0 0 96 0 0 0 0 0 0 0 435 0 0 0 448 462 471 462 457 448 451 448 448 446 446 443 440 443 440 435 438 438 435 427 432 435 432 435 438 438 438 438 448 440 440 440 440 435 432 432 430 0 0 0 430 430 430 430 430 430 427 427 427 430 432 435 435 438 440 443 443 446 446 446 446 451 454 448 448 446 446 443 443 443 438 438 438 438 432 435 435 435 432 432 432 435 432 443 440 443 446 446 448 448 446 446 446 448 451 448 451 448 446 443 448 440 443 443 440 440 440 438 440 435 435 432 432 435 435 432 432 432 435 440 438 435 438 443 446 446 446 440 438 440 440 438 435 432 438 435 435 432 430 425 427 422 425 430 430 432 435 435 438 438 454 451 446 440 438 438 438 440 438 440 440 443 443 438 435 430 422 420 420 420 425 430 435 435 435 440 440 440 438 438 438 438 440 446 438 432 435 432 432 0 0 0 0 0
    0 0 0 0 0 0 0 0 0 0 0 0 0 0 0 0 0 0 0 0 0 0 0 0 0 0 0 0 0 0 0 0 0 0 0 0 0 0 0 0 0 0 0 0 0 0 0 0 0 0 0 0 0 0 0 0 0 0 0 0 0 0 0 0 0 0 0 0 0 446 446 435 432 435 0 0 0 127 0 0 440 440 0 0 0 0 446 440 438 440 438 440 443 448 446 446 448 454 451 451 454 451 451 448 454 451 454 454 451 446 446 0 0 96 0 96 95 0 0 0 0 0 0 0 0 0 448 465 474 468 459 448 451 448 448 446 446 443 440 443 443 438 438 438 438 430 435 435 435 435 440 438 438 438 448 443 440 440 440 435 430 430 425 0 0 0 430 430 430 432 432 432 430 430 430 432 435 438 440 440 446 446 446 451 448 448 448 451 457 448 448 448 446 443 443 443 0 438 438 440 432 435 435 435 432 432 435 435 435 448 443 446 448 448 451 451 448 446 446 451 454 448 448 448 443 443 448 440 443 443 443 440 440 438 440 435 435 432 430 435 432 430 432 427 435 438 438 435 438 440 446 448 446 438 438 443 443 440 438 435 438 438 438 435 430 425 430 425 427 430 432 432 435 438 438 440 457 451 443 438 435 435 432 0 0 0 435 443 440 435 432 427 420 420 420 422 425 430 432 435 432 438 440 438 438 435 438 438 440 446 440 432 435 432 430 0 0 0 0 0
    0 0 0 0 0 0 0 0 0 0 0 0 0 0 0 0 0 0 0 0 0 0 0 0 0 0 0 0 0 0 0 0 0 0 0 0 0 0 0 0 0 0 0 0 0 0 0 0 0 0 0 0 0 0 0 0 0 0 0 0 0 0 0 0 0 0 0 0 0 446 446 435 432 435 440 438 0 0 0 0 440 440 0 0 0 0 443 440 435 438 438 438 440 446 443 446 448 454 448 451 454 451 451 448 454 451 457 462 454 0 0 0 0 0 0 0 95 95 0 0 0 0 435 0 0 0 0 465 471 465 0 0 451 448 451 446 446 443 440 440 440 435 438 438 438 430 435 435 435 435 440 440 438 438 451 443 440 443 0 0 0 430 0 0 0 0 0 0 0 432 432 432 432 432 435 440 443 443 446 443 446 446 446 448 448 448 448 451 454 448 451 448 448 446 446 446 0 438 438 440 432 435 435 435 432 435 435 438 438 451 446 446 451 448 448 451 448 446 446 448 454 448 448 446 443 440 448 440 443 446 443 443 440 438 440 435 435 432 427 432 430 427 432 425 435 438 438 435 438 440 446 451 448 438 440 448 448 446 446 440 443 443 443 438 432 427 430 425 430 432 432 435 435 438 440 440 459 451 443 0 0 435 432 0 0 0 432 440 438 432 430 422 420 420 422 425 427 432 435 435 432 438 440 438 438 435 438 438 440 448 443 438 438 438 432 0 0 0 0 0
    0 0 0 0 0 0 0 0 0 0 0 0 0 0 0 0 0 0 0 0 0 0 0 0 0 0 0 0 0 0 0 0 0 0 0 0 0 0 0 0 0 0 0 0 0 0 0 0 0 0 0 0 0 0 0 0 0 0 0 0 0 0 0 0 0 0 0 0 0 446 446 435 432 435 440 438 0 0 0 443 443 440 0 0 0 0 0 0 0 0 0 435 0 443 0 446 446 454 448 448 451 448 448 448 454 454 462 465 457 0 0 0 0 0 0 0 0 0 0 0 0 0 0 0 0 0 0 474 481 474 0 0 0 0 0 443 446 440 438 440 440 435 438 440 438 432 435 438 435 438 440 440 440 440 451 446 440 0 0 0 0 425 0 0 0 0 0 0 106 0 0 435 432 435 440 451 454 448 451 446 448 448 448 451 451 448 451 454 457 451 451 451 448 446 446 0 0 0 438 440 435 438 435 435 435 435 438 440 440 451 446 446 451 448 451 451 448 446 446 448 451 448 448 446 443 443 448 443 443 446 443 443 443 438 440 435 435 430 425 430 427 425 430 422 435 438 438 0 438 0 0 451 448 440 440 448 454 448 451 443 446 446 443 438 432 427 430 425 430 432 432 435 435 0 438 440 457 448 0 0 0 0 0 0 0 0 425 438 0 430 422 418 415 420 425 0 0 443 446 440 438 438 440 438 435 435 435 435 438 448 446 435 432 438 430 0 0 0 0 0
    0 0 0 0 0 0 0 0 0 0 0 0 0 0 0 0 0 0 0 0 0 0 0 0 0 0 0 0 0 0 0 0 0 0 0 0 0 0 0 0 0 0 0 0 0 0 0 0 0 0 0 0 0 0 0 0 0 0 0 0 0 0 0 0 0 0 0 0 0 448 443 432 435 432 438 0 0 0 0 0 0 0 0 0 0 0 0 244 244 0 0 0 0 0 0 0 0 454 451 0 0 468 454 457 468 465 481 471 457 0 0 0 0 0 0 0 0 160 0 0 2044 0 0 0 0 0 0 481 487 487 0 487 0 0 471 454 448 443 438 440 440 435 435 438 438 432 435 438 435 438 443 440 440 440 448 446 440 0 0 0 0 0 0 0 0 0 0 0 106 0 0 438 432 435 440 459 468 454 459 446 454 454 457 457 457 451 454 457 462 457 457 451 0 0 0 95 95 0 0 443 0 438 0 0 0 0 0 0 0 451 446 443 451 448 448 451 446 443 443 451 454 448 448 446 446 443 448 443 443 446 443 446 443 438 438 432 430 430 418 420 420 415 422 418 0 0 0 0 0 0 0 448 443 438 440 446 451 448 448 446 446 443 443 435 430 425 427 422 427 430 432 432 435 0 0 438 454 446 0 0 0 0 0 0 0 0 418 0 0 427 0 0 0 0 0 0 0 448 448 440 438 438 440 438 432 432 432 432 435 440 443 430 0 0 427 0 0 0 0 0
    0 0 0 0 0 0 0 0 0 0 0 0 0 0 0 0 0 0 0 0 0 0 0 0 0 0 0 0 0 0 0 0 0 0 0 0 0 0 0 0 0 0 0 0 0 0 0 0 0 0 0 0 0 0 0 0 0 0 0 0 0 0 0 0 0 0 0 0 0 448 438 427 0 0 0 0 0 0 0 0 0 0 0 0 0 0 0 0 0 0 0 0 0 0 0 0 0 0 0 0 0 0 0 0 497 0 497 471 0 0 0 0 0 0 0 0 0 0 0 0 80 0 0 0 897 865 826 0 0 0 500 0 0 0 493 481 468 448 0 443 440 435 435 432 432 430 435 440 438 438 443 443 440 448 448 446 0 0 0 0 0 0 0 0 0 0 0 0 0 0 0 0 427 427 0 0 0 0 0 0 0 0 0 0 0 0 0 188 189 0 0 0 0 0 0 95 0 0 0 0 0 0 0 0 0 0 0 0 0 0 364 360 0 0 0 0 0 0 0 0 0 0 0 0 451 448 451 446 0 0 446 448 0 0 0 425 418 422 411 406 413 408 418 418 0 0 0 0 0 0 0 0 0 0 0 0 0 0 0 0 446 443 440 432 427 422 427 425 425 430 430 430 432 0 0 0 0 0 0 0 0 0 0 0 0 0 0 425 0 420 0 0 0 0 0 0 0 0 0 438 435 435 438 438 430 427 427 425 422 430 0 399 389 0 0 0 0 0 0 0
    0 0 0 0 0 0 0 0 0 0 0 0 0 0 0 0 0 0 0 0 0 0 0 0 0 0 0 0 0 0 0 0 0 0 0 0 0 0 0 0 0 0 0 0 0 0 0 0 0 0 0 0 0 0 0 0 0 0 0 0 0 0 0 0 0 0 0 0 0 0 0 0 0 0 0 0 0 343 0 0 0 0 0 0 0 0 0 0 0 0 0 0 0 0 0 0 0 0 0 0 0 0 0 0 88 87 0 0 0 0 0 0 0 0 0 0 0 0 0 81 80 0 0 0 968 908 865 0 0 0 0 0 114 113 0 0 465 446 0 0 0 430 430 418 0 0 0 448 446 446 448 451 451 0 457 443 0 73 73 0 0 0 0 0 0 0 249 0 0 0 0 0 418 0 0 0 0 0 0 359 353 0 0 0 359 0 357 0 0 0 0 0 0 151 0 0 0 362 359 353 353 0 0 0 350 357 352 359 359 359 360 359 357 359 359 360 0 0 0 0 0 0 0 454 462 457 451 0 0 0 0 0 0 359 0 0 0 0 404 399 406 404 411 413 435 432 0 0 0 0 0 0 0 0 0 0 0 0 876 0 0 0 0 0 427 418 425 422 422 427 427 425 425 0 0 0 0 0 0 159 0 0 0 0 0 0 0 0 0 0 0 0 0 0 0 0 0 0 0 0 427 430 438 435 430 425 427 420 408 413 0 395 383 0 0 0 0 0 0 0
    0 0 0 0 0 0 0 0 0 0 0 0 0 0 0 0 0 0 0 0 0 0 0 0 0 0 0 0 0 0 0 0 0 0 0 0 0 0 0 0 0 0 0 0 0 0 0 0 0 0 0 0 0 0 0 0 0 0 0 0 0 0 0 0 0 0 0 0 0 0 0 0 0 0 0 359 348 343 343 348 350 352 0 350 348 350 350 352 355 353 0 355 355 353 0 359 353 353 353 352 355 0 362 0 0 0 0 0 0 0 0 0 0 360 0 0 0 0 0 0 0 0 0 0 0 955 0 0 0 0 359 0 0 113 0 0 0 0 0 0 0 0 0 0 0 0 0 0 0 360 357 0 0 0 73 0 0 0 0 0 0 0 350 0 0 0 0 0 0 0 0 0 0 0 0 0 0 0 353 353 350 355 355 357 357 353 355 350 353 0 353 0 0 0 0 360 359 359 357 353 355 350 350 352 350 355 352 355 357 357 359 357 357 357 357 359 359 359 355 353 0 0 0 0 0 454 0 347 355 353 352 357 355 357 357 0 385 381 397 393 402 402 408 411 0 432 0 0 0 353 348 0 355 357 357 359 360 0 0 919 955 0 968 0 0 0 0 418 413 0 0 0 0 0 0 0 0 0 0 0 0 0 0 0 0 0 0 0 0 0 0 0 0 0 0 0 0 0 0 0 0 0 0 0 0 0 413 408 0 0 379 377 371 364 357 0 0 0 0 0
    0 0 0 0 0 0 0 0 0 0 0 0 0 0 0 0 0 0 0 0 0 0 0 0 0 0 0 0 0 0 0 0 0 0 0 0 0 0 0 0 0 0 0 0 0 0 0 0 0 0 0 0 0 0 0 0 0 0 0 0 0 0 0 0 0 0 0 0 0 0 357 350 343 347 348 352 348 345 343 347 348 352 348 348 350 350 352 353 355 353 353 353 355 350 357 355 350 353 352 352 355 355 362 360 362 0 0 0 371 0 0 0 362 360 362 0 359 357 357 0 352 348 0 0 0 343 345 345 342 350 352 360 369 0 0 0 367 366 366 362 364 0 364 366 359 359 357 355 355 357 357 357 357 0 0 357 357 0 0 348 350 348 350 352 355 357 357 360 364 359 0 0 0 0 0 91 0 343 350 352 348 353 355 357 357 353 355 352 353 355 352 353 353 0 357 359 355 357 355 353 355 353 353 353 352 357 355 357 357 355 359 357 357 357 359 359 360 360 359 359 362 362 366 364 362 0 366 357 360 357 355 359 355 357 357 0 373 375 395 391 0 395 0 0 0 0 353 345 352 355 353 357 357 359 359 360 362 360 359 0 0 0 0 0 0 0 347 348 350 348 0 0 0 0 0 0 0 0 0 0 0 0 0 0 0 0 0 0 0 0 0 0 0 0 0 0 0 0 0 0 0 0 0 0 0 0 415 406 395 393 375 371 371 364 357 0 0 0 0 0
    0 0 0 0 0 0 0 0 0 0 0 0 0 0 0 0 0 0 0 0 0 0 0 0 0 0 0 0 0 0 0 0 0 0 0 0 0 0 0 0 0 0 0 0 0 0 0 0 0 0 0 0 0 0 0 0 0 0 0 0 0 0 0 0 0 0 0 0 0 360 359 355 348 350 352 352 350 347 347 347 348 350 348 348 350 350 352 353 355 353 353 353 353 350 355 353 350 353 352 352 355 355 362 360 360 0 360 364 367 364 364 362 360 360 360 360 357 357 355 355 348 347 343 342 345 343 347 348 345 353 353 359 366 362 362 359 362 360 362 360 362 360 362 364 359 359 359 357 355 355 357 355 355 357 355 355 353 0 350 348 350 348 348 352 355 355 357 357 360 357 357 357 357 343 0 0 0 0 0 348 348 353 355 357 357 355 355 352 353 357 352 353 353 359 355 359 353 353 355 355 355 355 353 355 353 357 357 357 357 357 359 357 357 359 359 360 360 360 359 359 362 360 362 362 360 359 362 357 359 355 353 355 353 355 355 360 364 0 0 379 0 377 0 0 359 355 352 350 355 357 357 359 359 359 360 360 362 362 360 360 359 360 362 357 355 355 352 353 353 352 350 347 353 0 343 343 345 0 0 0 0 0 0 0 0 0 0 0 0 0 0 0 0 375 0 0 0 0 0 0 0 0 0 0 0 0 0 0 381 373 367 364 366 357 352 0 0 0 0 0
    0 0 0 0 0 0 0 0 0 0 0 0 0 0 0 0 0 0 0 0 0 0 0 0 0 0 0 0 0 0 0 0 0 0 0 0 0 0 0 0 0 0 0 0 0 0 0 0 0 0 0 0 0 0 0 0 0 0 0 0 0 0 0 0 0 0 0 0 0 360 360 359 353 353 353 355 352 348 348 348 348 350 348 348 350 350 352 353 353 353 352 353 352 348 355 353 350 352 352 352 353 355 360 359 360 362 359 362 366 362 362 362 360 359 360 360 357 357 357 357 350 347 343 343 347 347 350 352 350 355 357 359 362 360 359 357 359 359 360 359 360 360 362 364 359 360 359 357 355 355 357 355 357 357 355 355 353 357 350 348 352 350 348 352 355 355 355 357 359 355 357 355 357 342 339 339 343 342 347 347 348 353 355 359 357 355 355 353 355 357 353 355 353 357 355 359 353 352 355 355 355 355 355 355 355 359 359 359 359 357 359 357 357 357 359 359 360 360 359 357 360 360 362 362 362 359 362 357 359 355 353 353 352 352 353 355 359 360 359 0 362 0 360 359 353 353 352 352 357 357 357 359 360 359 360 360 362 360 360 360 360 360 362 359 357 357 357 357 355 355 353 350 355 352 350 348 347 348 0 0 0 0 347 343 350 353 360 0 0 0 0 0 0 366 366 360 360 359 0 0 362 362 362 362 366 0 0 389 371 367 364 364 364 353 348 0 0 0 0 0
    0 0 0 0 0 0 0 0 0 0 0 0 0 0 0 0 0 0 0 0 0 0 0 0 0 0 0 0 0 0 0 0 0 0 0 0 0 0 0 0 0 0 0 0 0 0 0 0 0 0 0 0 0 0 0 0 0 0 0 0 0 0 0 0 0 0 0 0 0 360 360 360 355 355 355 355 353 348 348 347 348 350 350 348 350 350 352 352 353 352 352 352 352 348 355 353 350 352 353 352 355 357 360 359 360 362 359 362 364 362 362 360 359 359 360 360 359 359 0 0 353 0 347 343 350 350 353 355 355 359 360 360 362 360 360 359 359 359 360 359 360 360 360 362 359 359 359 357 355 355 355 355 355 357 355 355 353 357 352 350 352 352 350 352 355 355 355 355 357 355 355 353 357 343 342 340 347 342 348 348 350 355 357 359 357 357 357 355 355 357 353 355 353 357 355 357 352 352 353 353 355 355 353 355 353 357 359 357 357 357 359 357 357 357 359 359 360 360 359 357 360 360 360 362 362 360 362 359 359 355 353 355 353 352 352 353 355 357 355 360 357 0 357 355 353 355 353 352 355 357 357 359 359 359 359 360 362 360 360 360 360 360 362 359 357 359 359 359 357 357 355 352 355 355 352 350 347 350 0 347 0 345 347 345 348 352 357 0 359 360 364 362 366 364 362 360 359 359 360 360 360 360 362 362 366 366 0 375 371 367 364 364 362 353 348 0 0 0 0 0
    0 0 0 0 0 0 0 0 0 0 0 0 0 0 0 0 0 0 0 0 0 0 0 0 0 0 0 0 0 0 0 0 0 0 0 0 0 0 0 0 0 0 0 0 0 0 0 0 0 0 0 0 0 0 0 0 0 0 0 0 0 0 0 0 0 0 0 0 0 362 362 360 357 357 355 355 353 350 350 348 348 350 350 348 350 350 352 352 353 352 352 352 352 348 355 353 352 353 353 352 355 357 362 360 362 362 360 360 364 360 360 360 359 357 359 359 359 357 0 0 0 0 350 345 353 352 355 357 357 359 360 360 362 362 360 360 360 359 360 359 360 360 360 362 359 357 359 357 355 355 355 355 355 357 355 355 353 357 353 352 353 352 352 352 353 355 355 353 355 353 355 353 355 347 345 343 348 343 348 348 350 355 357 359 357 357 357 355 355 357 352 353 352 355 353 357 350 350 353 353 355 353 353 355 353 357 359 357 357 357 357 357 357 359 359 359 360 360 359 357 359 360 360 360 360 360 362 359 357 355 353 355 353 352 352 353 353 357 353 357 355 0 357 355 353 355 353 352 355 355 357 357 359 359 359 360 362 362 360 362 360 360 362 360 357 359 359 359 355 355 353 350 353 352 348 347 345 348 345 347 345 345 348 347 350 353 355 359 357 359 360 359 362 362 360 359 359 357 359 359 360 360 360 362 364 364 0 375 371 366 364 359 357 350 345 0 0 0 0 0
    0 0 0 0 0 0 0 0 0 0 0 0 0 0 0 0 0 0 0 0 0 0 0 0 0 0 0 0 0 0 0 0 0 0 0 0 0 0 0 0 0 0 0 0 0 0 0 0 0 0 0 0 0 0 0 0 0 0 0 0 0 0 0 0 0 0 0 0 0 362 362 360 357 357 355 355 353 350 350 348 350 352 352 350 350 350 352 353 353 352 352 353 352 348 355 355 352 353 355 353 355 359 362 360 362 364 360 362 364 360 360 360 359 357 359 359 359 357 357 359 0 0 353 348 357 355 357 359 357 359 360 360 362 362 360 360 360 360 362 360 360 360 359 360 359 355 357 355 355 355 355 355 355 357 357 357 353 357 355 353 355 353 352 352 353 353 353 352 353 352 352 350 353 347 347 345 350 345 348 348 350 355 355 359 357 355 355 355 353 355 352 353 352 353 353 355 350 350 353 353 355 353 353 353 353 357 359 355 355 355 357 355 355 359 357 359 360 360 359 357 359 360 360 360 362 360 362 359 359 357 355 355 353 352 352 353 353 355 353 355 353 353 355 353 352 353 352 350 353 355 355 355 357 357 357 359 362 360 360 360 360 359 360 359 355 357 357 355 353 353 353 350 352 348 347 347 345 348 347 347 347 348 350 348 352 353 355 355 355 357 357 353 359 359 359 357 359 357 359 359 360 360 360 360 362 362 0 373 367 364 360 357 352 348 345 0 0 0 0 0
    0 0 0 0 0 0 0 0 0 0 0 0 0 0 0 0 0 0 0 0 0 0 0 0 0 0 0 0 0 0 0 0 0 0 0 0 0 0 0 0 0 0 0 0 0 0 0 0 0 0 0 0 0 0 0 0 0 0 0 0 0 0 0 0 0 0 0 0 0 360 360 360 357 357 353 355 353 352 350 348 348 350 350 348 350 350 350 353 353 352 352 353 353 348 355 355 353 355 355 353 355 359 362 360 362 364 362 362 364 360 360 360 359 359 359 357 359 357 0 359 357 0 0 0 357 355 357 359 357 359 360 360 362 362 362 360 360 360 362 360 360 360 357 360 359 355 357 355 353 353 355 355 355 355 359 357 355 359 357 355 355 355 353 352 353 352 352 350 352 352 352 352 355 350 352 350 357 352 353 350 353 355 355 357 357 355 355 355 353 357 352 353 352 353 353 355 348 350 353 353 353 353 353 353 353 357 359 355 357 355 355 353 355 357 357 357 359 359 357 355 357 359 360 359 362 360 362 360 359 359 357 355 355 352 352 353 353 355 352 352 352 350 353 352 350 353 352 350 353 355 355 355 357 357 357 357 362 360 360 360 360 359 360 359 357 357 357 355 353 353 353 350 350 348 348 347 348 352 350 348 348 350 353 350 353 353 355 353 353 355 355 352 359 359 357 357 359 355 357 359 360 359 359 360 362 360 0 366 362 357 350 350 348 348 347 0 0 0 0 0
    0 0 0 0 0 0 0 0 0 0 0 0 0 0 0 0 0 0 0 0 0 0 0 0 0 0 0 0 0 0 0 0 0 0 0 0 0 0 0 0 0 0 0 0 0 0 0 0 0 0 0 0 0 0 0 0 0 0 0 0 0 0 0 0 0 0 0 0 0 360 360 360 357 357 355 355 355 352 350 348 348 348 350 347 350 348 350 352 352 350 350 350 352 347 353 353 352 353 353 353 355 357 364 360 362 362 360 360 362 359 359 357 359 359 360 359 359 359 359 359 355 355 350 0 353 352 355 357 357 360 360 362 362 362 362 362 362 360 360 359 359 359 357 360 359 353 357 355 355 355 355 355 353 355 359 359 355 360 359 357 357 357 355 352 352 352 350 350 352 350 352 350 353 353 355 353 360 357 357 352 357 357 355 357 357 355 355 355 353 355 353 355 352 353 353 355 348 350 353 353 353 355 355 353 353 357 359 355 355 355 355 355 355 355 355 357 355 357 355 355 357 359 359 357 359 360 362 360 359 359 355 355 355 353 352 353 352 355 352 352 352 350 352 352 350 353 353 350 355 355 357 357 357 359 357 357 362 362 360 362 362 362 362 362 359 359 359 355 353 353 353 352 352 350 350 350 350 353 353 352 352 353 355 353 353 353 355 353 353 355 355 352 359 359 357 357 359 355 357 359 359 359 359 360 360 360 364 364 360 357 348 350 348 350 348 0 0 0 0 0
    0 0 0 0 0 0 0 0 0 0 0 0 0 0 0 0 0 0 0 0 0 0 0 0 0 0 0 0 0 0 0 0 0 0 0 0 0 0 0 0 0 0 0 0 0 0 0 0 0 0 0 0 0 0 0 0 0 0 0 0 0 0 0 0 0 0 0 0 0 362 362 362 359 357 355 355 355 352 350 348 348 347 350 347 350 348 350 352 350 348 350 350 350 345 353 352 352 353 355 353 355 359 364 360 362 362 360 360 362 357 359 357 359 359 360 359 359 359 359 359 355 355 348 348 353 352 355 355 355 359 359 360 360 362 360 360 360 360 360 359 359 359 357 360 360 353 357 357 355 355 355 355 353 355 360 360 357 362 360 359 359 359 355 350 350 350 350 348 350 350 350 350 353 353 357 357 362 359 359 353 359 359 355 357 357 357 355 357 353 355 353 355 353 353 353 355 350 350 355 355 353 355 355 353 353 357 359 355 355 357 355 355 353 355 353 355 353 355 353 355 355 357 357 353 357 359 359 359 355 359 355 353 355 353 352 353 352 355 352 352 352 0 352 352 350 353 353 350 355 355 355 355 357 357 357 357 362 362 362 364 364 362 362 362 359 359 359 357 355 355 355 353 353 353 353 352 353 355 355 353 353 355 355 353 355 355 355 355 353 353 353 350 357 357 355 355 357 353 357 359 359 359 359 359 360 359 364 364 360 359 353 353 350 353 350 0 0 0 0 0
    0 0 0 0 0 0 0 0 0 0 0 0 0 0 0 0 0 0 0 0 0 0 0 0 0 0 0 0 0 0 0 0 0 0 0 0 0 0 0 0 0 0 0 0 0 0 0 0 0 0 0 0 0 0 0 0 0 0 0 0 0 0 0 0 0 0 0 0 0 364 362 362 359 357 353 353 353 350 350 348 347 347 350 348 352 350 352 353 352 350 352 350 348 345 353 352 352 353 355 353 355 359 364 360 362 362 360 360 360 357 359 357 359 360 362 360 359 359 359 359 357 357 350 352 355 355 355 357 357 360 360 362 360 362 360 362 362 360 362 360 360 360 359 362 362 352 359 357 355 355 355 355 352 353 362 360 359 362 360 360 360 359 355 350 350 350 348 348 350 350 350 350 352 353 357 357 362 355 355 352 359 357 355 353 357 355 357 357 355 355 355 355 355 353 355 357 350 350 355 357 353 355 355 353 353 359 359 355 355 357 355 355 353 355 353 355 352 353 352 353 353 355 355 352 355 359 359 360 355 359 355 357 357 355 353 355 353 357 353 353 352 350 352 350 350 353 353 348 353 353 355 355 357 357 355 357 362 362 362 362 364 362 362 362 359 360 359 359 357 357 357 357 355 357 357 355 355 357 355 353 353 355 355 353 355 355 355 353 352 353 353 350 357 355 355 355 357 353 355 357 359 357 359 359 360 359 364 364 362 360 353 353 350 353 352 0 0 0 0 0
    0 0 0 0 0 0 0 0 0 0 0 0 0 0 0 0 0 0 0 0 0 0 0 0 0 0 0 0 0 0 0 0 0 0 0 0 0 0 0 0 0 0 0 0 0 0 0 0 0 0 0 0 0 0 0 0 0 0 0 0 0 0 0 0 0 0 0 0 0 362 359 360 357 355 352 352 352 348 348 348 347 348 352 350 353 352 353 353 353 350 352 350 348 345 353 352 352 353 355 355 355 359 364 360 362 362 360 359 359 357 359 357 360 360 362 360 360 360 360 359 357 357 352 353 357 357 357 357 359 360 360 362 360 362 362 362 362 362 362 362 362 364 360 364 364 352 359 357 357 355 355 355 352 353 362 359 359 360 362 362 360 359 357 350 348 350 348 348 348 350 350 350 352 355 357 355 360 353 353 352 357 357 353 353 355 355 357 359 355 355 355 355 355 353 357 357 348 352 357 357 355 357 357 355 355 359 359 355 355 357 355 355 353 355 353 353 350 352 350 352 352 355 353 352 357 359 360 360 357 360 357 357 359 355 355 355 352 357 353 352 350 348 350 348 348 352 352 347 352 353 353 353 355 357 355 355 362 362 360 362 362 360 360 362 359 359 359 359 357 357 357 357 355 357 357 355 357 357 357 355 353 355 355 353 355 355 355 352 352 353 353 350 357 355 355 355 359 353 355 357 359 357 359 359 359 357 362 364 362 360 353 353 350 353 352 0 0 0 0 0
    0 0 0 0 0 0 0 0 0 0 0 0 0 0 0 0 0 0 0 0 0 0 0 0 0 0 0 0 0 0 0 0 0 0 0 0 0 0 0 0 0 0 0 0 0 0 0 0 0 0 0 0 0 0 0 0 0 0 0 0 0 0 0 0 0 0 0 0 0 362 359 359 357 355 350 350 350 348 348 350 347 350 353 352 353 350 353 355 355 352 353 352 350 347 353 353 353 353 355 355 355 359 364 360 360 362 359 359 359 355 357 357 359 360 362 360 360 360 360 359 357 359 353 353 357 355 357 357 357 360 360 362 362 364 362 364 364 364 362 362 362 364 360 364 362 348 357 355 355 355 353 355 352 353 362 360 360 362 362 362 360 357 355 350 347 348 347 347 348 348 352 350 352 355 357 355 357 352 352 350 355 357 353 352 355 353 357 357 355 355 355 355 355 353 357 357 348 353 357 357 357 357 357 355 355 360 359 355 355 357 355 355 355 355 353 355 350 352 350 352 352 355 355 352 355 359 360 360 357 360 357 357 359 357 355 355 352 355 353 352 350 350 348 348 348 352 352 347 352 353 353 353 355 357 353 355 362 362 360 360 362 362 360 362 360 360 359 359 359 357 357 357 353 355 355 353 357 355 357 355 353 355 355 355 357 355 357 353 353 357 355 353 357 355 357 355 357 352 353 357 357 357 357 357 359 357 362 364 360 360 353 353 350 353 353 0 0 0 0 0
    0 0 0 0 0 0 0 0 0 0 0 0 0 0 0 0 0 0 0 0 0 0 0 0 0 0 0 0 0 0 0 0 0 0 0 0 0 0 0 0 0 0 0 0 0 0 0 0 0 0 0 0 0 0 0 0 0 0 0 0 0 0 0 0 0 0 0 0 0 360 355 357 355 353 348 348 350 348 348 350 347 348 353 353 353 350 355 355 355 352 353 353 352 347 355 353 353 353 355 355 355 359 366 360 360 362 359 359 357 355 355 355 357 360 360 359 359 359 360 359 355 357 352 353 355 353 355 355 357 359 359 360 360 362 362 364 364 364 362 362 360 364 359 364 362 348 357 357 355 355 355 357 352 353 362 359 360 362 360 362 360 355 353 348 345 347 347 347 347 348 352 350 350 357 357 357 357 350 350 348 353 353 350 348 352 352 355 355 355 355 355 355 355 353 359 359 350 355 357 359 359 359 359 357 357 360 359 357 357 357 357 357 357 357 355 355 350 352 350 352 352 353 355 353 355 357 359 359 357 360 357 357 359 357 357 355 353 353 353 352 350 352 348 350 348 352 352 347 352 353 353 353 355 355 353 353 360 360 359 360 362 360 360 362 360 360 359 359 359 357 357 357 353 355 355 353 359 355 357 355 353 355 355 355 359 355 359 355 357 360 359 357 359 357 357 357 359 352 353 355 357 357 357 357 357 355 360 362 359 357 350 352 350 353 353 0 0 0 0 0
    0 0 0 0 0 0 0 0 0 0 0 0 0 0 0 0 0 0 0 0 0 0 0 0 0 0 0 0 0 0 0 0 0 0 0 0 0 0 0 0 0 0 0 0 0 0 0 0 0 0 0 0 0 0 0 0 0 0 0 0 0 0 0 0 0 0 0 0 0 357 352 353 352 352 347 345 348 347 345 347 345 345 350 352 353 350 355 355 357 353 355 355 353 347 355 353 353 353 355 355 355 357 364 359 359 360 357 359 355 352 353 353 357 362 360 359 359 360 360 359 355 357 352 352 355 353 353 353 355 359 357 360 360 360 362 364 364 364 362 362 360 364 357 364 362 348 357 355 355 355 355 357 352 353 362 359 360 362 360 362 360 357 353 348 345 347 345 347 347 350 352 352 352 359 360 359 359 352 352 350 353 352 350 348 352 352 355 355 357 357 359 357 357 355 360 360 352 357 359 359 359 360 359 357 357 362 359 357 357 359 357 357 359 357 355 355 350 352 352 353 353 355 357 355 357 359 359 360 359 360 357 357 359 357 357 357 355 353 353 353 350 352 348 350 348 352 352 348 352 353 352 355 355 357 353 353 360 359 357 359 360 360 360 362 360 362 360 359 360 359 359 359 357 359 359 357 362 357 359 357 355 355 357 355 359 355 359 357 359 360 360 360 360 359 359 357 359 352 353 355 355 355 357 355 357 353 360 360 355 355 348 350 348 352 352 0 0 0 0 0
    0 0 0 0 0 0 0 0 0 0 0 0 0 0 0 0 0 0 0 0 0 0 0 0 0 0 0 0 0 0 0 0 0 0 0 0 0 0 0 0 0 0 0 0 0 0 0 0 0 0 0 0 0 0 0 0 0 0 0 0 0 0 0 0 0 0 0 0 0 355 350 352 352 350 347 345 347 345 345 347 343 345 350 350 353 350 353 355 355 352 353 353 352 347 353 352 353 353 355 355 355 357 364 357 357 357 353 355 352 348 348 350 353 360 360 357 357 359 360 357 353 355 350 352 353 352 353 353 355 359 357 360 360 362 364 366 364 364 362 362 359 362 355 362 360 348 357 355 355 355 353 355 352 352 362 357 360 362 360 364 360 355 353 348 345 347 347 347 348 352 355 355 355 359 360 359 359 353 352 352 353 352 352 350 353 353 357 357 357 357 359 359 359 355 360 360 353 357 359 360 359 360 359 357 357 362 360 359 357 359 357 359 359 357 355 355 352 352 352 353 355 355 357 357 359 360 360 362 360 360 359 359 359 359 359 355 353 352 353 353 352 353 348 350 350 353 353 350 353 353 353 355 355 357 353 355 360 360 357 359 360 360 360 362 360 362 360 360 360 360 359 360 359 360 360 360 364 360 362 360 359 357 357 355 357 353 359 357 359 360 360 360 360 359 359 357 359 352 353 357 355 355 357 355 355 353 359 359 353 353 348 348 348 350 353 0 0 0 0 0
    0 0 0 0 0 0 0 0 0 0 0 0 0 0 0 0 0 0 0 0 0 0 0 0 0 0 0 0 0 0 0 0 0 0 0 0 0 0 0 0 0 0 0 0 0 0 0 0 0 0 0 0 0 0 0 0 0 0 0 0 0 0 0 0 0 0 0 0 0 353 352 350 350 352 345 345 347 347 347 347 345 347 352 350 355 352 353 353 355 352 353 353 352 347 353 352 353 353 355 355 355 357 364 357 357 355 352 352 350 347 347 348 350 359 357 357 353 357 359 355 352 355 350 350 352 352 352 353 355 359 355 360 360 362 364 364 362 362 360 362 357 360 353 359 360 348 355 355 355 355 353 355 353 353 360 357 359 362 360 362 357 352 350 348 345 347 345 347 348 353 357 357 355 359 357 357 355 350 350 350 352 350 352 350 353 353 357 357 359 357 360 359 359 357 360 362 353 357 360 360 360 360 360 357 359 362 360 359 359 359 357 359 360 357 355 355 352 352 353 355 355 355 357 359 360 360 362 362 362 362 359 360 359 357 359 355 355 352 355 355 353 355 350 352 352 355 355 350 353 355 353 355 355 357 353 355 359 359 357 359 360 360 360 362 360 362 360 360 360 360 360 360 360 362 362 360 364 362 362 360 359 357 357 355 357 352 357 355 355 359 359 360 360 359 359 359 359 353 353 357 357 357 357 357 355 353 359 359 355 355 348 348 348 350 355 0 0 0 0 0
    0 0 0 0 0 0 0 0 0 0 0 0 0 0 0 0 0 0 0 0 0 0 0 0 0 0 0 0 0 0 0 0 0 0 0 0 0 0 0 0 0 0 0 0 0 0 0 0 0 0 0 0 0 0 0 0 0 0 0 0 0 0 0 0 0 0 0 0 0 355 353 353 353 355 347 345 347 345 345 345 343 347 350 350 355 353 355 355 357 353 353 355 352 347 353 352 353 353 357 357 355 359 362 357 359 357 353 353 352 348 347 350 350 0 0 353 352 355 359 355 353 355 352 352 353 353 353 353 355 357 355 357 359 359 360 360 360 360 359 360 359 360 353 359 359 348 355 355 353 355 353 357 355 353 360 357 360 362 360 364 355 350 348 347 345 348 347 347 348 353 357 357 357 359 357 355 353 348 348 348 352 350 352 350 353 353 359 359 362 359 362 359 359 359 362 362 353 357 360 359 360 362 360 359 359 362 360 359 359 359 357 359 360 359 359 357 355 355 355 355 355 357 357 359 362 362 362 364 362 362 360 360 359 357 357 355 355 352 355 355 353 355 352 352 352 355 353 352 353 353 353 355 353 357 353 355 357 357 355 357 359 359 359 360 360 362 360 360 362 362 360 362 360 362 362 362 364 360 360 360 359 355 357 353 355 352 357 357 357 360 360 360 360 357 359 359 359 353 355 357 357 357 357 357 357 355 360 359 355 355 350 348 347 348 353 0 0 0 0 0</data></depth>
</opencv_storage>
