<?xml version="1.0"?>
<opencv_storage>
<gps_time_stamp>32496</gps_time_stamp>
<gps_x>-9.6701459884643555e+000</gps_x>
<gps_y>1.1227695941925049e+000</gps_y>
<gps_z>-2.6836063861846924e+000</gps_z>
<image_time_stamp>20468</image_time_stamp>
<depth type_id="opencv-matrix">
  <rows>86</rows>
  <cols>320</cols>
  <dt>s</dt>
  <data>
    0 0 0 0 0 0 0 0 0 0 0 0 0 0 0 0 0 0 0 0 0 0 0 0 0 0 0 0 0 0 0 0 0 0 0 0 0 0 0 0 0 0 0 0 0 0 0 0 0 0 0 0 0 0 0 0 0 0 0 0 0 0 0 0 0 0 0 0 0 0 0 0 0 0 0 0 0 0 0 0 0 0 0 0 0 0 0 0 0 0 0 0 0 0 0 0 0 0 0 0 0 0 0 0 0 0 0 0 0 0 0 0 0 0 0 7359 0 0 0 0 0 0 0 0 0 0 0 0 0 0 8177 8177 8177 0 0 0 8177 8177 0 0 8177 8177 8177 7359 7359 6133 6133 5256 6690 0 0 0 0 7359 0 0 0 0 0 0 0 0 0 0 0 0 7359 7359 3679 6690 7359 8177 8177 7359 0 0 0 8177 7359 7359 7359 6133 6690 6133 6133 6133 6133 6133 6133 7359 6690 8177 5661 7359 6690 7359 4599 4599 4599 5256 4906 6133 3679 4906 5661 7359 7359 7359 6690 6690 0 0 0 0 0 0 0 0 0 6133 3873 3873 3873 4088 4088 4329 4088 4088 4329 4329 4599 4599 4088 4599 4329 4088 4329 4088 3873 3873 4088 4088 3873 3873 4088 3679 3679 3679 3504 3504 3679 3504 3504 3679 3679 3679 3679 4329 3679 3679 3679 3679 3066 2830 2830 2628 2453 2230 2164 1989 1989 2044 2044 1989 1989 1989 1989 1936 1989 1936 1936 1887 1936 1887 1887 1887 1887 1839 1839 1795 1795 1752 1752 1711 1752 1711 1711 1711 1752 1711 1711 1711 1752 1711 1752 1711 1752 1711 1752 1752 1752 1635 1672 1672 1672 0 0 0 0 0
    0 0 0 0 0 0 0 0 0 0 0 0 0 0 0 0 0 0 0 0 0 0 0 0 0 0 0 0 0 0 0 0 0 0 0 0 0 0 0 0 0 0 0 0 0 0 0 0 0 0 0 0 0 0 0 0 0 0 0 0 0 0 0 0 0 0 0 0 0 0 0 0 0 0 0 0 0 0 0 0 0 0 0 0 0 8177 0 0 0 9199 0 0 0 0 0 0 0 0 0 0 0 0 0 0 0 0 0 0 0 0 0 0 0 0 0 7359 0 0 0 0 0 0 0 0 0 0 0 0 0 8177 8177 8177 8177 8177 9199 8177 8177 8177 8177 8177 8177 8177 8177 8177 8177 7359 6690 6133 8177 0 0 0 0 8177 0 0 0 0 0 0 0 0 0 0 0 0 8177 0 3679 6690 7359 0 0 7359 0 0 0 0 8177 8177 7359 6690 6690 6133 6133 6133 6133 6690 6690 7359 6690 8177 6133 7359 6690 6690 4906 4906 4906 5661 5256 6690 4088 5661 6133 7359 7359 7359 6690 6690 0 0 0 0 0 0 0 0 0 5661 4088 4088 4088 4329 4329 4329 4088 4329 4599 4599 4599 4599 4329 4599 4329 4088 4329 4329 4088 4088 4088 4088 3873 3873 4088 3679 3873 3679 3345 3504 3504 3504 3345 3504 3504 3504 3504 4088 3504 3504 3679 3679 3066 2725 2725 2628 2453 2299 2230 2044 2044 2044 2044 1989 1989 1989 1936 1936 1989 1936 1936 1887 1936 1887 1936 1887 1887 1839 1839 1795 1795 1752 1795 1752 1752 1752 1752 1752 1752 1752 1752 1752 1752 1752 1795 1752 1752 1752 1752 1752 1752 1635 1672 1635 1672 0 0 0 0 0
    0 0 0 0 0 0 0 0 0 0 0 0 0 0 0 0 0 0 0 0 0 0 0 0 0 0 0 0 0 0 0 0 0 0 0 0 0 0 0 0 0 0 0 0 0 0 0 0 0 0 0 0 0 0 0 0 0 0 0 0 0 0 0 0 0 0 0 0 0 0 0 0 0 0 0 0 0 0 0 0 0 0 0 0 0 8177 0 0 0 8177 0 0 0 0 0 0 0 0 0 8177 8177 0 0 0 0 0 0 0 0 0 0 0 0 0 0 7359 0 0 0 0 0 0 0 0 0 0 0 0 0 8177 8177 7359 8177 8177 8177 8177 8177 8177 8177 8177 8177 8177 8177 8177 8177 8177 7359 8177 0 0 0 0 0 0 0 0 0 0 0 0 0 0 0 0 0 0 0 0 0 6690 7359 0 0 8177 0 82 0 0 0 0 7359 6690 6690 6690 6133 6133 6690 6690 6690 7359 6690 8177 6133 7359 6690 6690 5256 5256 5256 6133 6133 6690 4906 6133 6690 7359 7359 7359 6690 6133 0 0 0 0 0 0 0 8177 8177 5256 4088 4088 4329 4329 4329 4088 4329 4599 4599 4599 4599 4329 4599 4599 4329 4088 4329 4329 3873 4088 4088 4088 3873 3873 4088 3873 3873 3679 3345 3504 3504 3345 3345 3504 3504 3345 3504 4088 3504 3504 3679 3504 3066 2725 2725 2628 2537 2374 2230 2044 2044 2102 2044 1989 1989 1989 1989 1989 1989 1989 1989 1936 1989 1936 1936 1936 1887 1839 1839 1795 1795 1795 1795 1795 1795 1795 1795 1795 1795 1795 1795 1752 1795 1752 1795 1752 1752 1752 1752 1752 1752 1635 1672 1635 1672 0 0 0 0 0
    0 0 0 0 0 0 0 0 0 0 0 0 0 0 0 0 0 0 0 0 0 0 0 0 0 0 0 0 0 0 0 0 0 0 0 0 0 0 0 0 0 0 0 0 0 0 0 0 0 0 0 0 0 0 0 0 0 0 0 0 0 0 0 0 0 0 0 0 0 0 0 0 0 0 0 0 0 0 0 0 0 0 0 0 0 8177 8177 0 0 7359 0 0 0 0 0 0 0 0 0 8177 7359 0 0 0 0 0 0 0 0 0 0 0 0 0 0 6690 8177 8177 0 0 0 0 0 0 0 0 0 0 0 7359 7359 7359 8177 8177 8177 8177 8177 7359 8177 7359 8177 7359 8177 8177 8177 8177 8177 0 0 0 0 0 0 0 0 0 0 0 0 0 0 0 0 0 0 0 0 0 0 6690 7359 0 0 0 0 82 0 0 0 0 7359 6690 6690 6690 6133 6133 6133 6690 6690 7359 6690 8177 6690 8177 7359 7359 5661 5256 5661 6690 6690 7359 5661 6690 6690 8177 8177 7359 7359 5661 0 0 0 8177 8177 7359 7359 6133 7359 5256 4329 4329 4329 4599 4088 4329 4599 4599 4599 4329 4329 4329 4329 4599 4088 4088 4329 4329 3873 4088 3873 3873 3873 3873 4088 3679 3679 3679 3199 3504 3345 3345 3345 3345 3504 3345 3504 4088 3504 3504 3504 3504 2943 2725 2725 2725 2628 2537 2453 2164 2102 2102 2102 1989 1989 1989 1936 1989 2044 1989 1989 1936 1936 1936 1887 1887 1887 1839 1839 1795 1795 1752 1752 1795 1795 1795 1795 1839 1839 1839 1795 1795 1795 1795 1795 1795 1752 1752 1752 1752 1752 1635 1672 1635 1635 0 0 0 0 0
    0 0 0 0 0 0 0 0 0 0 0 0 0 0 0 0 0 0 0 0 0 0 0 0 0 0 0 0 0 0 0 0 0 0 0 0 0 0 0 0 0 0 0 0 0 0 0 0 0 0 0 0 0 0 0 0 0 0 0 0 0 0 0 0 0 0 0 0 0 0 0 0 0 0 0 0 0 0 0 0 0 0 0 0 0 8177 8177 0 0 6690 0 0 0 0 0 0 0 0 0 8177 6690 0 0 0 0 0 0 0 0 0 0 0 0 0 0 6690 8177 7359 0 0 0 0 0 0 0 0 0 0 0 7359 7359 6690 8177 8177 8177 8177 7359 7359 7359 7359 8177 7359 8177 8177 7359 7359 7359 0 0 0 0 0 0 8177 0 0 0 0 0 0 0 0 0 0 0 0 0 0 0 6690 6690 0 0 0 0 82 0 0 0 0 7359 6690 6690 6690 6133 6133 6133 7359 6690 7359 6690 8177 6690 0 7359 7359 5661 6133 6133 6690 6690 7359 6690 7359 7359 8177 8177 8177 7359 5661 8177 8177 7359 6690 6690 6690 5661 5256 6690 4906 4329 4329 4329 4329 4329 4599 4906 4599 4599 4329 4329 4599 4329 4599 4088 4088 4329 4329 3873 4088 3873 4088 3873 4088 3873 3679 3679 3679 3199 3504 3345 3345 3199 3345 3504 3345 3504 3873 3504 3345 3504 3345 2943 2725 2725 2725 2725 2628 2537 2230 2102 2102 2102 2044 1936 1989 1989 1989 2044 1989 1989 1936 1936 1936 1887 1887 1839 1795 1795 1752 1795 1752 1752 1795 1795 1795 1795 1839 1839 1839 1795 1839 1795 1795 1795 1795 1752 1752 1752 1752 1752 1599 1635 1599 1599 0 0 0 0 0
    0 0 0 0 0 0 0 0 0 0 0 0 0 0 0 0 0 0 0 0 0 0 0 0 0 0 0 0 0 0 0 0 0 0 0 0 0 0 0 0 0 0 0 0 0 0 0 0 0 0 0 0 0 0 0 0 0 0 0 0 0 0 0 0 0 0 0 0 0 0 0 0 0 0 0 0 0 0 0 0 0 0 0 0 0 8177 7359 8177 8177 6133 0 0 0 0 0 0 0 0 0 8177 6690 0 0 0 0 0 0 0 0 0 0 0 0 0 0 6690 7359 7359 0 0 0 0 8177 8177 0 0 0 0 0 8177 8177 7359 8177 8177 8177 8177 7359 7359 7359 6690 8177 7359 8177 8177 8177 8177 8177 0 0 0 0 0 8177 7359 0 0 0 0 8177 0 0 0 0 0 0 0 0 0 0 7359 6690 0 0 0 0 81 0 0 0 0 8177 7359 7359 6690 6690 6133 6690 7359 7359 7359 6690 8177 7359 0 8177 7359 5661 6690 6690 7359 7359 7359 7359 7359 7359 8177 8177 8177 7359 5256 7359 7359 6133 5661 5661 5661 5256 4906 5661 4599 4329 4599 4599 4329 4599 4906 4906 4599 4599 4599 4599 4329 4329 4329 3873 4088 4329 4329 3873 3873 3873 4088 3873 4329 3873 3679 3679 3679 3345 3504 3345 3199 3199 3345 3345 3345 3504 3679 3504 3345 3345 3345 2943 2725 2725 2628 2628 2628 2628 2374 2230 2164 2299 2102 1989 2044 2044 1989 2044 1989 2044 1936 1936 1936 1887 1839 1839 1795 1795 1752 1752 1752 1752 1795 1795 1795 1795 1795 1795 1795 1795 1795 1752 1795 1795 1795 1752 1752 1752 1752 1752 1599 1672 1599 1599 0 0 0 0 0
    0 0 0 0 0 0 0 0 0 0 0 0 0 0 0 0 0 0 0 0 0 0 0 0 0 0 0 0 0 0 0 0 0 0 0 0 0 0 0 0 0 0 0 0 0 0 0 0 0 0 0 0 0 0 0 0 0 0 0 0 0 0 0 0 0 0 0 0 0 0 8177 0 0 0 0 0 0 0 0 0 0 0 0 0 0 8177 7359 8177 8177 6133 9199 9199 0 0 0 0 0 0 0 8177 6690 0 0 9199 0 0 0 0 0 0 0 0 0 0 0 6690 7359 7359 0 0 0 0 8177 7359 0 0 0 0 0 8177 8177 7359 8177 8177 8177 8177 8177 8177 8177 7359 8177 8177 0 8177 0 0 0 0 0 0 0 0 8177 6690 8177 8177 8177 0 8177 8177 8177 0 0 0 0 0 0 0 5256 7359 7359 0 0 0 0 81 0 0 0 0 7359 7359 7359 6690 6690 6133 6690 7359 7359 7359 7359 8177 7359 0 8177 7359 6133 7359 7359 8177 8177 8177 8177 8177 8177 8177 8177 8177 8177 4906 6690 6690 5661 5256 5256 5256 4906 4906 5256 4599 4329 4599 4599 4599 4599 4906 4599 4906 4599 4906 4599 4329 4329 4329 3873 4329 4329 4329 3873 4088 4088 4329 4088 4329 4088 3873 3873 3679 3345 3345 3199 3199 3199 3345 3345 3345 3504 3679 3504 3345 3345 3199 2830 2628 2628 2537 2537 2537 2537 2374 2230 2164 2299 2164 2044 2044 2044 1989 2044 1989 2044 1936 1936 1936 1887 1839 1795 1795 1795 1752 1752 1752 1752 1752 1795 1795 1795 1795 1795 1795 1795 1752 1752 1795 1795 1795 1752 1752 1752 1795 1752 1635 1672 1599 1599 0 0 0 0 0
    0 0 0 0 0 0 0 0 0 0 0 0 0 0 0 0 0 0 0 0 0 0 0 0 0 0 0 0 0 0 0 0 0 0 0 0 0 0 0 0 0 0 0 0 0 0 0 0 0 0 0 0 0 0 0 0 0 0 0 0 0 0 0 0 0 0 0 0 0 0 0 0 0 0 0 0 0 0 0 0 0 0 0 8177 8177 8177 7359 8177 8177 5661 8177 8177 0 0 0 0 0 8177 0 8177 6690 0 0 8177 0 0 0 0 0 0 0 0 0 0 0 6690 7359 7359 0 0 0 0 7359 7359 0 0 0 0 8177 7359 8177 8177 0 0 0 0 0 0 0 8177 8177 8177 0 0 0 0 0 0 0 0 0 0 0 7359 8177 8177 8177 0 8177 8177 8177 0 0 0 0 0 0 0 5661 7359 6690 0 0 0 0 81 81 0 0 0 7359 6690 7359 6690 6690 6133 6690 8177 6690 7359 7359 8177 8177 0 8177 7359 6690 8177 8177 8177 0 8177 0 0 0 0 0 8177 8177 4599 6690 5661 4906 4599 4599 4599 4599 4599 4906 4599 4088 4599 4599 4599 4906 4599 4599 4906 4906 4906 4329 4329 4088 4329 3873 4329 4329 4088 3873 4088 4088 4329 4088 4599 4088 3873 3873 3679 3345 3345 3199 3199 3199 3345 3345 3199 3504 3504 3345 3345 3345 3199 2725 2537 2628 2453 2537 2453 2374 2299 2164 2102 2299 2164 2044 2044 1989 1989 1989 1989 2044 1887 1936 1936 1887 1839 1795 1752 1795 1711 1752 1711 1711 1752 1752 1752 1752 1752 1711 1711 1752 1711 1711 1711 1752 1752 1752 1795 1752 1795 1752 1672 1672 1599 1599 0 0 0 0 0
    0 0 0 0 0 0 0 0 0 0 0 0 0 0 0 0 0 0 0 0 0 0 0 0 0 0 0 0 0 0 0 0 0 0 0 0 0 0 0 0 0 0 0 0 0 0 0 0 0 0 0 0 0 0 0 0 0 0 0 0 0 0 0 0 0 0 0 0 0 0 0 0 0 0 0 0 0 0 0 0 0 0 0 8177 8177 0 7359 0 8177 5661 8177 8177 0 0 0 0 8177 8177 0 8177 7359 0 0 7359 0 0 0 0 0 0 0 0 0 0 0 7359 8177 7359 8177 8177 0 8177 7359 6690 0 0 0 8177 8177 7359 8177 8177 0 0 0 0 0 0 0 0 0 0 0 0 0 0 0 0 0 0 0 0 0 8177 7359 7359 7359 7359 7359 7359 8177 0 0 0 0 0 0 0 5661 7359 6133 0 0 0 0 81 81 0 0 0 7359 6690 7359 7359 6690 6690 6690 8177 6690 7359 7359 8177 8177 0 8177 8177 8177 0 0 0 0 8177 0 0 0 0 0 0 8177 4329 6133 5256 4599 4329 4329 4329 4599 4599 4906 4599 4088 4906 4599 4906 4906 4599 4599 5256 4906 4906 4329 4329 4088 4329 3873 4329 4329 4088 3873 4329 4329 4329 4088 5256 4088 3873 3873 3679 3345 3504 3345 3199 3345 3504 3345 3345 3504 3345 3345 3345 3345 3199 2830 2628 2537 2453 2537 2374 2299 2299 2164 2044 2230 2164 2044 2044 2044 1989 1989 1989 2102 1936 1936 1936 1839 1839 1839 1752 1752 1711 1711 1711 1711 1752 1752 1711 1752 1752 1711 1711 1711 1711 1672 1711 1752 1795 1752 1795 1795 1795 1795 1752 1711 1635 1599 0 0 0 0 0
    0 0 0 0 0 0 0 0 0 0 0 0 0 0 0 0 0 0 0 0 0 0 0 0 0 0 0 0 0 0 0 0 0 0 0 0 0 0 0 0 0 0 0 0 0 0 0 0 0 0 0 0 0 0 0 0 0 0 0 0 0 0 0 0 0 0 0 0 0 0 0 0 0 0 0 0 0 0 0 0 0 0 0 8177 8177 0 7359 0 0 5661 7359 7359 0 0 0 0 8177 8177 0 0 7359 0 8177 7359 0 0 0 0 0 0 0 0 0 0 0 7359 8177 7359 8177 8177 0 8177 6690 6690 0 0 0 8177 8177 8177 0 0 0 0 0 0 0 0 0 0 0 0 0 0 0 0 0 0 0 0 0 0 0 0 6690 0 6133 6690 6690 6690 7359 8177 8177 0 0 0 9199 0 5661 7359 6133 0 0 0 0 81 81 0 0 0 7359 6690 8177 7359 6690 6690 7359 8177 7359 8177 7359 8177 0 0 0 0 0 0 0 0 0 0 0 0 0 0 0 0 8177 4088 5661 4906 4329 4088 4329 4329 4599 4329 4906 4599 4329 5256 4599 4599 4906 4599 4906 5256 4599 4906 4329 4329 4329 4329 3873 4329 4329 4329 4088 4329 4329 4329 4088 5256 4088 3873 3679 3679 3504 3679 3504 3345 3504 3504 3504 3504 3679 3345 3345 3345 3345 3199 2830 2725 2537 2374 2453 2299 2230 2164 2102 2044 2164 2164 2044 2044 2044 1989 1989 1989 2044 1936 1936 1936 1887 1839 1839 1795 1752 1711 1711 1711 1711 1711 1711 1711 1752 1711 1711 1711 1711 1711 1711 1752 1752 1795 1795 1795 1795 1839 1795 1795 1752 1672 1635 0 0 0 0 0
    0 0 0 0 0 0 0 0 0 0 0 0 0 0 0 0 0 0 0 0 0 0 0 0 0 0 0 0 0 0 0 0 0 0 0 0 0 0 0 0 0 0 0 0 0 0 0 0 0 0 0 0 0 0 0 0 0 0 0 0 0 0 0 0 0 0 0 0 0 0 0 0 0 0 0 0 0 0 0 0 0 0 0 7359 8177 0 7359 0 8177 6133 7359 7359 0 0 0 0 8177 8177 0 0 7359 0 8177 6690 0 0 0 8177 0 0 0 0 0 0 0 8177 8177 7359 8177 8177 7359 7359 6690 6133 0 0 0 0 0 0 0 0 0 0 0 0 0 0 0 0 0 0 0 0 0 0 0 0 0 0 0 0 0 0 0 0 5661 6133 6133 6690 6690 7359 8177 8177 0 0 8177 8177 5661 7359 6133 0 0 0 0 81 0 0 0 0 7359 7359 0 8177 7359 7359 7359 8177 7359 8177 7359 8177 0 0 0 0 0 0 0 0 0 0 0 0 0 0 0 0 0 4599 6690 5256 4599 4599 4906 4906 4906 4599 4906 4906 4599 4906 4599 4599 4599 4599 4906 4906 4599 4599 4088 4329 4329 4329 3679 4088 4329 4329 4088 4329 4329 4599 4088 6133 4088 3873 3679 3679 3679 3873 3679 3504 3679 3679 3679 3504 3873 3345 3504 3345 3504 3199 2943 2725 2628 2374 2374 2230 2102 2102 2102 1989 2102 2102 2044 2044 2044 1989 1989 1936 1989 1887 1887 1887 1839 1795 1795 1752 1752 1711 1711 1711 1672 1711 1711 1711 1711 1711 1711 1711 1711 1711 1672 1711 1752 1752 1795 1795 1795 1839 1795 1795 1752 1672 1635 0 0 0 0 0
    0 0 0 0 0 0 0 0 0 0 0 0 0 0 0 0 0 0 0 0 0 0 0 0 0 0 0 0 0 0 0 0 0 0 0 0 0 0 0 0 0 0 0 0 0 0 0 0 0 0 0 0 0 0 0 0 0 0 0 0 0 0 0 0 0 0 0 0 0 0 0 0 0 0 0 0 0 0 0 0 0 8177 8177 6690 8177 0 7359 0 8177 6690 7359 7359 0 0 0 0 0 8177 0 0 8177 0 8177 6690 0 0 0 8177 0 0 0 0 0 0 0 8177 8177 6690 8177 8177 7359 6690 6133 6133 0 0 0 0 0 0 0 0 0 0 0 0 0 0 0 0 0 0 0 0 0 0 0 0 0 0 0 0 0 1187 0 0 5661 6133 6690 6690 6690 7359 7359 8177 8177 9199 8177 7359 5661 6690 6133 0 0 8177 0 81 0 0 0 0 8177 8177 0 0 8177 8177 8177 8177 8177 0 8177 8177 0 0 0 0 0 0 0 0 0 0 0 0 0 0 0 0 0 0 6133 4906 4599 4906 4906 4906 4906 4599 5256 5256 4906 5256 4599 4906 4906 4906 4906 4906 4599 4599 4088 4329 4329 4329 3679 4329 4329 4329 4329 4329 4599 4599 4088 6690 3873 3873 3679 3679 3873 3873 3679 3679 3873 3679 3679 3504 3679 3345 3504 3345 3504 3199 2943 2725 2628 2374 2374 2164 2044 2044 2044 1989 2102 2044 1989 1989 1989 1989 1936 1887 1936 1839 1839 1839 1795 1752 1752 1752 1752 1711 1711 1711 1672 1672 1711 1672 1711 1672 1672 1672 1711 1711 1672 1711 1752 1752 1752 1795 1795 1795 1795 1795 1752 1672 1635 0 0 0 0 0
    0 0 0 0 0 0 0 0 0 0 0 0 0 0 0 0 0 0 0 0 0 0 0 0 0 0 0 0 0 0 0 0 0 0 0 0 0 0 0 0 0 0 0 0 0 0 0 0 0 0 0 0 0 0 0 0 0 0 0 0 0 0 0 0 0 0 0 0 0 0 0 0 0 0 0 0 0 0 0 0 0 0 0 6690 8177 0 8177 0 8177 6690 7359 7359 0 0 0 0 0 0 0 0 0 0 8177 6690 9199 0 0 8177 0 0 0 0 0 0 0 8177 9199 6690 7359 8177 6690 6133 5661 5661 8177 8177 0 0 0 0 0 0 0 0 0 0 0 0 0 0 0 0 0 0 0 0 0 0 0 0 0 0 0 0 0 6690 6133 6133 6690 6690 7359 7359 7359 0 8177 8177 8177 7359 5661 6690 5661 0 0 8177 0 0 0 0 0 0 8177 0 0 0 0 0 0 0 0 0 8177 8177 0 0 0 0 0 0 0 0 0 8177 0 0 0 0 0 0 0 4599 6690 5256 5256 5256 5256 5256 5256 5256 5661 5256 4906 5256 4599 4906 5256 4906 4906 4906 4329 4599 4329 4329 4329 4088 3679 4329 4329 4329 4329 4329 4906 4599 4088 6690 3679 3679 3679 3504 3873 3873 3679 3679 3873 3679 3504 3504 3504 3345 3345 3504 3504 3345 3066 2830 2725 2453 2374 2164 2044 2044 2044 1989 2044 1989 1989 1989 1989 1936 1936 1887 1936 1839 1839 1839 1795 1752 1752 1752 1752 1711 1711 1711 1672 1672 1711 1672 1711 1672 1672 1672 1711 1711 1711 1711 1752 1752 1752 1795 1795 1795 1795 1795 1752 1711 1672 0 0 0 0 0
    0 0 0 0 0 0 0 0 0 0 0 0 0 0 0 0 0 0 0 0 0 0 0 0 0 0 0 0 0 0 0 0 0 0 0 0 0 0 0 0 0 0 0 0 0 0 0 0 0 0 0 0 0 0 0 0 0 0 0 0 0 0 0 0 0 0 0 0 0 0 0 0 0 0 0 0 0 0 0 0 0 0 0 6690 7359 0 8177 0 0 6690 7359 7359 0 0 0 0 8177 8177 0 0 8177 0 8177 6690 8177 0 0 0 0 0 0 0 0 0 0 0 0 6690 7359 8177 6690 6133 5661 5661 8177 8177 0 8177 0 0 0 0 0 0 0 0 0 0 0 0 0 0 0 0 0 0 0 0 0 0 0 0 0 0 5661 6690 6690 6690 6690 6690 7359 7359 7359 0 8177 8177 8177 8177 6133 7359 5661 0 0 8177 8177 0 0 0 0 0 0 0 0 0 0 0 0 0 0 0 0 8177 0 0 0 0 0 0 0 0 0 8177 0 0 0 8177 8177 8177 8177 4599 6690 5661 5661 5661 5256 5256 5661 5661 6133 5661 4906 5256 4906 5256 5256 4906 4906 4906 4599 4906 4329 4088 4329 4329 3679 4329 4599 4329 4329 4599 5256 4329 4088 6690 3679 3873 3873 3679 3873 3873 3679 3679 3873 3679 3504 3504 3504 3345 3345 3504 3504 3199 3066 2830 2725 2453 2374 2230 2044 2044 2102 2044 2044 1989 1936 1936 1936 1936 1887 1887 1887 1839 1839 1795 1795 1752 1752 1752 1711 1711 1711 1711 1672 1672 1711 1672 1711 1672 1672 1672 1711 1711 1711 1711 1752 1752 1752 1795 1795 1795 1795 1795 1752 1752 1752 0 0 0 0 0
    0 0 0 0 0 0 0 0 0 0 0 0 0 0 0 0 0 0 0 0 0 0 0 0 0 0 0 0 0 0 0 0 0 0 0 0 0 0 0 0 0 0 0 0 0 0 0 0 0 0 0 0 0 0 0 0 0 0 0 0 0 0 0 0 0 0 0 0 0 0 0 0 0 0 0 0 0 0 0 0 0 8177 8177 6133 6690 0 8177 0 0 6690 7359 7359 0 0 0 0 8177 7359 0 0 8177 0 8177 7359 0 0 0 0 0 0 0 0 0 0 0 0 0 6690 7359 8177 6690 6133 5661 5661 8177 7359 0 0 0 0 0 0 0 0 0 0 0 0 0 0 0 0 0 0 0 0 0 0 0 0 0 0 0 0 6690 7359 7359 6690 7359 7359 7359 7359 7359 0 8177 8177 8177 0 6133 7359 5661 8177 8177 7359 7359 0 0 0 0 0 0 0 0 0 0 0 0 0 0 0 0 8177 0 0 0 0 0 0 0 0 0 7359 0 0 0 8177 7359 8177 8177 4906 6690 6133 5661 5661 5256 5661 5661 5661 6133 5661 4906 5256 4906 5256 4906 4906 4599 4599 4599 4906 4329 4329 4599 4329 3873 4599 4599 4599 4599 4599 5256 4329 4088 6133 3679 3873 3679 3679 3873 3873 3679 3679 3873 3504 3504 3504 3504 3199 3345 3345 3345 3199 2943 2830 2628 2453 2299 2164 2044 2044 2044 1989 1989 1936 1936 1887 1887 1887 1839 1839 1839 1795 1795 1795 1795 1752 1752 1752 1711 1711 1711 1711 1672 1672 1711 1672 1711 1672 1672 1711 1711 1711 1711 1752 1752 1752 1795 1795 1795 1795 1795 1795 1795 1795 1795 0 0 0 0 0
    0 0 0 0 0 0 0 0 0 0 0 0 0 0 0 0 0 0 0 0 0 0 0 0 0 0 0 0 0 0 0 0 0 0 0 0 0 0 0 0 0 0 0 0 0 0 0 0 0 0 0 0 0 0 0 0 0 0 0 0 0 0 0 0 0 0 0 0 0 0 0 0 0 0 0 0 0 0 0 0 0 0 0 6690 7359 0 0 0 0 7359 7359 7359 0 0 8177 0 8177 7359 0 0 0 0 0 7359 0 0 0 0 0 0 0 0 0 0 0 0 0 6690 7359 8177 6690 6133 5661 5661 8177 7359 0 0 0 0 0 0 0 0 0 0 0 0 0 0 0 0 0 0 0 0 0 0 0 0 0 0 0 0 7359 8177 7359 7359 7359 7359 7359 7359 7359 0 8177 8177 8177 0 6690 7359 5256 8177 8177 7359 7359 0 8177 0 0 0 0 0 0 0 0 0 0 0 0 0 8177 8177 0 0 0 0 0 0 0 0 0 7359 8177 8177 8177 7359 7359 7359 7359 5256 6690 6133 6133 5661 5661 5661 5661 5661 6133 5661 4906 5256 4906 4906 4906 4599 4599 4599 4599 4599 4088 4329 4599 4329 3873 4599 4329 4599 4329 4599 4906 4329 4088 6133 3679 3679 3679 3679 3873 3873 3679 3679 3679 3504 3504 3504 3504 3345 3345 3504 3345 3199 3066 2943 2830 2537 2374 2102 1989 1989 2044 1989 1936 1936 1887 1887 1839 1839 1795 1752 1752 1752 1752 1711 1752 1711 1711 1711 1711 1711 1711 1711 1672 1672 1711 1672 1711 1711 1672 1711 1711 1711 1752 1752 1795 1752 1795 1795 1795 1795 1795 1795 1795 1795 1795 0 0 0 0 0
    0 0 0 0 0 0 0 0 0 0 0 0 0 0 0 0 0 0 0 0 0 0 0 0 0 0 0 0 0 0 0 0 0 0 0 0 0 0 0 0 0 0 0 0 0 0 0 0 0 0 0 0 0 0 0 0 0 0 0 0 0 0 0 0 0 0 0 0 0 0 0 0 0 0 0 0 0 0 0 0 0 0 0 8177 0 0 0 0 0 7359 8177 8177 0 0 8177 0 8177 8177 0 0 0 0 0 8177 0 0 0 0 0 0 0 0 0 0 0 0 0 6690 8177 8177 6690 6133 5661 5661 8177 8177 0 0 0 0 0 0 0 0 0 0 0 0 0 0 0 0 0 0 0 0 0 0 0 0 0 0 0 0 8177 8177 8177 7359 7359 7359 7359 8177 7359 0 8177 0 0 0 9199 8177 5661 8177 8177 7359 7359 0 8177 0 0 0 0 0 0 0 0 0 0 0 0 0 8177 8177 0 0 0 0 0 0 0 0 0 7359 8177 8177 8177 7359 6690 7359 7359 5661 7359 6690 6690 5661 6133 6133 6133 6133 6690 5661 5256 5256 5256 4906 4906 4599 4599 4599 4599 4599 4088 4329 4599 4599 3873 4599 4599 4599 4329 4599 4906 4329 4088 6133 3679 3679 3679 3873 3679 3679 3504 3679 3679 3504 3504 3504 3679 3504 3504 3679 3504 3345 3345 3199 3066 2830 2453 2164 1989 1989 2044 2044 1936 1936 1887 1887 1887 1887 1839 1795 1795 1752 1752 1752 1752 1752 1752 1752 1752 1752 1752 1711 1711 1711 1711 1711 1711 1711 1711 1752 1752 1752 1752 1795 1795 1795 1795 1795 1795 1795 1795 1795 1752 1752 1752 0 0 0 0 0
    0 0 0 0 0 0 0 0 0 0 0 0 0 0 0 0 0 0 0 0 0 0 0 0 0 0 0 0 0 0 0 0 0 0 0 0 0 0 0 0 0 0 0 0 0 0 0 0 0 0 0 0 0 0 0 0 0 0 0 0 0 0 0 0 0 0 0 0 0 0 0 0 0 0 0 0 0 0 0 0 0 0 0 8177 0 0 0 0 0 8177 8177 8177 0 0 0 0 8177 0 0 0 0 0 0 0 0 0 0 0 0 0 0 0 0 0 0 0 0 7359 8177 8177 7359 6133 6133 6133 8177 0 0 0 0 0 0 0 0 0 0 0 0 0 0 0 0 0 0 0 0 0 0 0 0 0 0 0 0 0 0 8177 8177 8177 8177 8177 8177 8177 8177 0 8177 0 0 0 0 0 5661 7359 7359 7359 7359 0 8177 8177 0 0 0 0 0 0 0 0 0 0 0 0 8177 7359 0 0 0 0 0 0 0 0 0 7359 8177 8177 8177 7359 6690 7359 7359 6690 8177 7359 6690 6133 6133 6690 6133 6133 6690 5661 5256 5661 5661 4906 4906 4906 4906 4599 4599 4329 4088 4329 4599 4599 3873 4599 4599 4599 4329 4599 4599 4088 4088 5661 3679 3679 3679 3873 3679 3679 3504 3679 3679 3504 3504 3679 3679 3679 3679 3873 3679 3504 3679 3345 3199 3066 2725 2453 2102 2044 2164 2102 1936 1887 1887 1887 1887 1887 1839 1795 1795 1795 1795 1795 1795 1795 1795 1752 1752 1752 1752 1752 1711 1711 1711 1711 1711 1711 1711 1752 1752 1752 1752 1752 1795 1752 1795 1795 1795 1795 1795 1752 1752 1752 1795 0 0 0 0 0
    0 0 0 0 0 0 0 0 0 0 0 0 0 0 0 0 0 0 0 0 0 0 0 0 0 0 0 0 0 0 0 0 0 0 0 0 0 0 0 0 0 0 0 0 0 0 0 0 0 0 0 0 0 0 0 0 0 0 0 0 0 0 0 0 0 0 0 0 0 0 0 0 0 0 0 0 0 0 0 0 0 0 0 0 0 0 0 0 0 0 0 0 0 0 0 0 0 0 0 0 0 0 0 0 0 0 0 0 0 0 0 0 0 0 0 0 0 7359 8177 8177 7359 6690 6133 6133 0 0 0 0 0 0 0 0 0 0 0 0 0 0 0 0 0 0 0 0 0 5661 0 0 0 0 0 0 0 0 0 0 0 8177 8177 8177 8177 8177 8177 0 0 0 0 0 0 0 5256 7359 7359 7359 7359 0 8177 8177 8177 0 0 0 0 0 0 8177 0 8177 0 8177 7359 6690 8177 0 0 0 0 0 0 0 0 7359 8177 8177 0 7359 6690 7359 7359 8177 0 8177 7359 6690 6690 6690 6133 6133 6133 5661 5256 5661 5661 5256 5256 5256 5256 4906 4906 4599 4088 4088 4599 4599 3873 4599 4599 4599 4329 4599 4599 4088 4088 5256 3679 3679 3873 3873 3679 3679 3504 3873 3679 3679 3679 3679 3679 3679 3679 3873 3679 3679 3504 3345 3345 3199 2943 2725 2299 2164 2299 2164 1989 1936 1887 1887 1887 1887 1839 1795 1795 1752 1752 1795 1752 0 1795 1752 1711 1752 1752 1752 1711 1711 1711 1672 1711 1752 1711 1752 1752 1752 1752 1752 1795 1752 1752 1752 1752 1752 1795 1752 1752 1752 1795 0 0 0 0 0
    0 0 0 0 0 0 0 0 0 0 0 0 0 0 0 0 0 0 0 0 0 0 0 0 0 0 0 0 0 0 0 0 0 0 0 0 0 0 0 0 0 0 0 0 0 0 0 0 0 0 0 0 0 0 0 0 0 0 0 0 0 0 0 0 0 0 0 0 0 0 0 0 0 0 0 0 0 0 0 0 0 0 0 0 0 0 0 0 0 0 0 0 0 0 0 0 0 0 0 0 0 0 0 0 0 0 0 0 0 0 0 0 0 0 0 0 0 7359 8177 0 8177 7359 6690 6690 0 0 0 0 0 8177 0 8177 8177 0 8177 8177 0 8177 0 8177 0 8177 7359 0 6133 4088 0 6690 0 0 0 0 0 0 0 0 0 0 0 0 0 0 8177 0 0 0 0 0 0 0 5661 7359 7359 7359 6690 0 8177 7359 8177 0 0 0 0 0 8177 7359 7359 7359 8177 7359 6690 6133 6690 8177 0 8177 0 0 0 0 0 7359 8177 8177 0 7359 7359 7359 7359 6690 8177 7359 6133 6133 6133 6133 6133 6133 6133 5661 5661 6133 6133 5661 5661 5256 5256 4906 5256 4599 4088 4088 4599 4599 3873 4599 4599 4329 4329 4599 4599 4088 3873 5256 3679 3873 4088 3873 3679 3504 3504 3679 3679 3504 3504 3679 3679 3873 3873 4088 3873 3679 3504 3345 3345 3199 2943 2943 2453 2299 2299 2230 2102 1989 1887 1887 1887 1887 1887 1839 1752 1752 0 0 0 0 0 0 0 0 0 1752 1711 1711 1711 1635 1711 1752 1711 1711 1711 1711 1752 1752 1795 1752 1752 1752 1752 1752 1795 1752 1752 1752 1795 0 0 0 0 0
    0 0 0 0 0 0 0 0 0 0 0 0 0 0 0 0 0 0 0 0 0 0 0 0 0 0 0 0 0 0 0 0 0 0 0 0 0 0 0 0 0 0 0 0 0 0 0 0 0 0 0 0 0 0 0 0 0 0 0 0 0 0 0 0 0 0 0 0 0 0 0 0 0 0 0 0 0 0 0 0 0 0 0 0 0 0 0 0 0 0 0 0 0 0 0 0 8177 0 0 0 0 0 0 0 0 0 0 0 0 0 0 0 0 0 0 0 0 7359 8177 0 8177 7359 6690 6690 0 0 0 0 9199 7359 8177 8177 8177 8177 8177 8177 8177 8177 0 7359 7359 7359 5256 7359 5256 3873 0 6690 0 0 0 0 0 0 0 0 0 0 0 0 0 0 0 0 0 0 0 0 0 0 5661 7359 7359 7359 7359 0 8177 7359 7359 0 0 0 0 0 7359 6133 6690 6690 7359 6690 6133 5661 6690 8177 0 6690 7359 8177 8177 8177 8177 7359 8177 8177 0 7359 7359 8177 8177 0 0 8177 6690 6133 6133 6690 6133 6133 6133 5661 5256 6133 6133 5661 5256 5256 5256 5256 5661 4906 4088 4329 4599 4906 3873 4599 4599 4329 4088 4599 4329 4088 4088 4906 3873 3873 4088 4088 3679 3504 3504 3679 3504 3345 3504 3504 3679 3679 3873 3873 3873 3504 3504 3345 3345 3066 2943 2943 2374 2374 2299 2230 2164 2044 1936 1936 1887 1936 1887 1839 0 0 0 0 613 608 603 0 588 579 570 0 1672 1711 1711 1635 1711 1752 1672 1711 1711 1711 1752 1711 1752 1752 1752 1752 1752 1752 1795 1752 1795 1795 1795 0 0 0 0 0
    0 0 0 0 0 0 0 0 0 0 0 0 0 0 0 0 0 0 0 0 0 0 0 0 0 0 0 0 0 0 0 0 0 0 0 0 0 0 0 0 0 0 0 0 0 0 0 0 0 0 0 0 0 0 0 0 0 0 0 0 0 0 0 0 0 0 0 0 0 0 8177 0 0 0 0 0 0 0 0 0 0 0 0 0 0 0 0 0 0 0 0 0 0 0 0 0 0 0 0 0 0 0 0 0 0 0 0 0 0 0 0 0 0 0 0 0 0 7359 0 0 8177 8177 7359 7359 8177 8177 0 0 8177 7359 8177 7359 7359 8177 8177 8177 8177 8177 8177 7359 6690 6133 4906 6133 4906 3873 7359 6690 0 0 0 0 0 0 0 0 0 0 0 0 0 0 0 0 0 0 8177 0 0 0 6133 7359 7359 7359 6690 0 8177 7359 6690 0 0 0 0 0 6690 5661 6133 6690 6690 6690 6133 5661 6133 7359 8177 6133 6690 7359 7359 7359 8177 7359 8177 8177 0 8177 8177 0 0 0 0 8177 6133 6133 6133 6690 6133 5661 6133 5256 5256 6133 5661 5256 5256 5256 5256 4906 5661 4906 4088 4329 4906 4906 3873 4599 4599 4329 4088 4599 4329 4088 4088 4906 3873 4088 4088 4088 3679 3679 3504 3679 3504 3345 3504 3504 3679 3679 3679 3873 3873 3504 3679 3345 3199 3066 2943 2943 2164 2299 2164 2230 2102 2044 1936 1936 1887 0 0 0 0 0 0 0 618 608 598 593 574 570 557 553 0 0 1672 1599 1711 1752 1672 1672 1672 1672 1711 1672 1711 1711 1711 1752 1752 1752 1795 1795 1795 1795 1839 0 0 0 0 0
    0 0 0 0 0 0 0 0 0 0 0 0 0 0 0 0 0 0 0 0 0 0 0 0 0 0 0 0 0 0 0 0 0 0 0 0 0 0 0 0 0 0 0 0 0 0 0 0 0 0 0 0 0 0 0 0 0 0 0 0 0 0 0 0 0 0 0 0 0 0 8177 0 0 0 0 0 0 0 0 0 0 0 0 0 0 0 0 0 0 0 0 0 0 0 0 0 0 0 0 0 0 0 0 0 0 0 0 0 0 0 0 0 0 0 0 0 0 8177 0 0 0 8177 7359 7359 8177 8177 0 0 8177 7359 8177 7359 8177 8177 8177 8177 0 8177 0 7359 7359 6690 5256 6133 4906 3873 6690 6133 8177 0 0 0 0 0 0 0 0 0 0 0 0 0 0 0 8177 0 8177 0 0 0 6133 7359 6690 7359 6690 0 8177 6690 6133 0 0 0 8177 0 6133 5661 6133 6133 6690 6690 6133 5661 6133 7359 8177 5256 5661 6690 6690 7359 7359 7359 8177 8177 0 0 0 0 0 0 0 0 7359 6690 6690 6690 6133 5661 6133 5256 5256 5661 5661 5256 5256 5256 5256 5256 6133 4599 3873 4599 4906 4906 3873 4599 4329 4088 4088 4329 4088 4088 3873 4906 3873 3873 4088 4088 3504 3504 3504 3504 3345 3345 3504 3504 3679 3873 3679 3873 3873 3679 3873 3504 3504 3066 2943 2725 1989 2230 2102 2230 2102 1989 1936 1936 0 0 0 0 0 0 0 0 629 613 608 593 574 574 561 549 557 549 507 474 0 0 0 1672 1672 1599 1635 1635 1752 1711 1672 1752 1752 1752 1795 1795 1795 1795 1795 0 0 0 0 0
    0 0 0 0 0 0 0 0 0 0 0 0 0 0 0 0 0 0 0 0 0 0 0 0 0 0 0 0 0 0 0 0 0 0 0 0 0 0 0 0 0 0 0 0 0 0 0 0 0 0 0 0 0 0 0 0 0 0 0 0 0 0 0 0 0 0 0 0 0 0 8177 0 0 0 0 0 0 0 0 0 0 0 0 0 0 0 0 0 0 0 0 0 0 0 0 0 0 0 0 0 0 0 0 0 0 0 0 0 0 0 0 0 0 0 0 0 0 8177 8177 0 0 8177 7359 7359 7359 7359 0 8177 7359 7359 8177 7359 8177 8177 0 8177 0 0 0 7359 7359 6133 5256 5661 4599 3873 5661 6133 7359 0 8177 0 8177 8177 0 0 0 0 0 0 0 0 0 0 8177 0 0 8177 0 0 6133 7359 6690 7359 7359 0 8177 6690 6133 0 0 0 8177 0 6690 5661 6133 6690 6690 6690 6133 5661 6133 6690 7359 4906 5256 5661 6133 6133 6690 7359 8177 8177 0 8177 8177 8177 8177 0 9199 8177 6690 6690 6690 6690 6133 5661 6133 5256 5256 5661 5661 5256 5256 5256 5661 5256 6133 4599 4088 4906 4906 4906 3873 4599 4329 4329 4088 4329 3873 4088 3873 4599 3679 3873 4088 4088 3504 3504 3345 3504 3345 3199 3345 3345 3679 4088 3873 4088 4329 3873 4088 3345 3199 2943 2725 2453 2044 2230 2102 2230 2102 1989 1936 0 0 0 0 0 0 0 0 663 629 618 613 598 584 584 566 553 561 553 525 481 481 481 474 457 0 1443 1501 1599 1711 1711 1635 1711 1752 1752 1795 1795 1752 1752 1795 0 0 0 0 0
    0 0 0 0 0 0 0 0 0 0 0 0 0 0 0 0 0 0 0 0 0 0 0 0 0 0 0 0 0 0 0 0 0 0 0 0 0 0 0 0 0 0 0 0 0 0 0 0 0 0 0 0 0 0 0 0 0 0 0 0 0 0 0 0 0 0 0 0 0 0 8177 0 0 0 8177 0 8177 0 0 0 0 0 0 0 0 0 0 0 0 0 0 0 0 0 0 0 0 0 0 0 0 0 0 0 0 0 0 0 0 0 8177 0 0 0 0 0 0 8177 8177 0 8177 8177 7359 7359 7359 6690 0 8177 7359 6690 7359 7359 8177 8177 8177 8177 8177 8177 8177 7359 6690 5256 4906 4329 4329 4329 5256 5661 6690 7359 7359 7359 7359 6690 8177 8177 0 0 8177 0 0 0 0 0 0 0 8177 7359 0 0 5661 6690 6690 7359 6690 7359 8177 6690 6133 0 8177 0 8177 0 6690 6133 6690 6690 7359 7359 6690 6133 6133 6690 7359 4599 5256 5661 5661 5661 6690 7359 7359 7359 0 7359 7359 7359 7359 7359 7359 7359 6690 6690 7359 6690 6133 6133 6133 5256 5256 5661 5661 5661 5661 5661 5661 5256 6133 4599 4088 4906 4599 4906 3873 4599 4329 4088 4088 4329 3873 3873 3679 4329 3679 3873 3873 3679 3345 3504 3345 3504 3199 3199 3345 3345 3504 3873 3679 3873 4088 3679 3679 2943 2830 2725 2537 2299 1989 2164 2102 2230 2102 1989 1936 0 0 0 0 0 0 0 0 694 651 634 623 608 598 603 588 570 588 574 541 507 507 537 490 471 0 0 0 0 0 1635 1599 1672 1711 1711 1795 1795 1752 1752 1752 0 0 0 0 0
    0 0 0 0 0 0 0 0 0 0 0 0 0 0 0 0 0 0 0 0 0 0 0 0 0 0 0 0 0 0 0 0 0 0 0 0 0 0 0 0 0 0 0 0 0 0 0 0 0 0 0 0 0 0 0 0 0 0 0 0 0 0 0 0 0 0 0 0 0 0 0 0 0 0 8177 8177 8177 0 8177 0 0 0 0 0 0 0 0 0 0 0 0 0 8177 0 0 0 0 0 0 0 0 0 0 0 0 0 0 0 0 0 8177 0 0 0 0 0 0 7359 8177 0 8177 8177 7359 6690 6690 6133 8177 7359 6690 6690 7359 7359 8177 8177 8177 8177 8177 8177 8177 7359 6690 5256 5661 4906 5256 5256 5661 5661 6133 6690 6690 6690 7359 6690 7359 8177 8177 0 8177 8177 0 0 0 0 8177 0 8177 6690 0 0 5256 6690 6133 6690 6690 7359 7359 6690 6133 0 8177 0 8177 0 6690 6133 6690 6690 6690 7359 6690 6133 6690 6690 6690 4329 5256 5256 5661 5661 6133 7359 7359 7359 9199 6690 6690 6690 6690 6690 6690 7359 6133 7359 7359 6690 6690 6133 6690 5256 5661 6133 5661 5661 5661 5661 6133 5256 6690 4599 4088 4599 4599 4599 3873 4599 4329 4088 3873 4088 3679 3679 3504 4088 3679 3679 3873 3504 3504 3504 3345 3504 3199 3199 3345 3345 3504 3679 3504 3679 3873 3679 3345 2830 2830 2725 2537 2299 1989 2230 2102 2230 2164 1989 0 0 0 0 0 0 0 0 0 700 663 645 629 608 603 613 603 593 598 598 557 549 579 588 545 541 549 0 0 0 545 0 0 0 0 1711 1795 1795 1752 1752 1752 0 0 0 0 0
    0 0 0 0 0 0 0 0 0 0 0 0 0 0 0 0 0 0 0 0 0 0 0 0 0 0 0 0 0 0 0 0 0 0 0 0 0 0 0 0 0 0 0 0 0 0 0 0 0 0 0 0 0 0 0 0 0 0 0 0 0 0 0 0 0 0 0 0 0 0 0 0 0 8177 8177 8177 7359 8177 8177 0 0 0 0 0 0 0 0 0 0 0 0 0 8177 0 0 0 0 0 0 0 0 0 0 0 0 0 0 0 0 0 0 0 0 0 0 0 0 8177 7359 0 8177 7359 7359 6690 6133 5661 7359 6690 6690 6690 7359 8177 0 0 0 0 0 8177 8177 7359 6690 6133 6690 5661 6133 6133 6133 6690 6690 7359 7359 6690 8177 7359 7359 8177 8177 0 8177 0 0 0 0 0 8177 8177 7359 7359 0 0 5661 6690 6133 6690 6690 7359 7359 6690 5661 8177 7359 8177 7359 8177 6690 6133 6690 6690 7359 7359 7359 6690 6690 7359 7359 4329 5256 5256 5661 5661 5661 6690 7359 7359 8177 6133 6690 6690 6690 6690 6133 6690 6133 7359 7359 6690 6690 6133 6690 5256 5256 5661 5661 5661 5661 5256 5661 4906 6690 4599 4088 4599 4599 4599 4088 4329 4088 3873 3873 3873 3679 3679 3504 4088 3679 3679 3873 3345 3345 3504 3345 3345 3066 3066 3199 3199 3345 3199 3199 3199 3504 3345 3066 2628 2725 2537 2374 2230 1989 2164 2044 2230 2102 1936 0 0 0 0 0 0 0 0 0 707 663 645 629 608 603 618 603 593 598 603 584 570 593 593 561 553 574 561 0 0 549 0 0 0 537 507 521 521 0 0 0 0 0 0 0 0
    0 0 0 0 0 0 0 0 0 0 0 0 0 0 0 0 0 0 0 0 0 0 0 0 0 0 0 0 0 0 0 0 0 0 0 0 0 0 0 0 0 0 0 0 0 0 0 0 0 0 0 0 0 0 0 0 0 0 0 0 0 0 0 0 0 0 0 0 0 0 0 0 0 8177 7359 7359 7359 8177 8177 0 0 0 0 0 0 0 0 0 0 0 0 0 8177 0 0 0 0 0 0 0 0 0 0 0 0 0 0 0 0 0 8177 0 0 0 0 0 0 8177 7359 0 8177 7359 6690 6690 5661 5256 6690 6133 6690 6690 8177 0 0 0 0 0 0 0 8177 7359 6690 6133 6690 5661 6690 6690 6690 6690 7359 8177 8177 7359 8177 7359 8177 8177 8177 0 8177 0 0 0 0 0 0 0 8177 7359 0 0 5661 6690 6133 6690 6690 7359 7359 6690 5661 8177 7359 7359 7359 8177 6690 6690 6690 7359 7359 8177 8177 7359 7359 7359 8177 4329 5256 5256 5661 5661 5661 6133 6690 6690 7359 6133 6690 6690 6690 6690 6133 6690 6690 7359 8177 7359 6133 6133 6690 4906 5256 5256 5256 5256 5256 5256 5256 4599 6133 4599 4329 4599 4599 4599 4088 4329 4088 4088 3873 3873 3679 3679 3504 4088 3504 3679 3504 3199 3199 3345 3066 3199 2943 2943 3066 3066 3199 3199 3066 3066 3345 3199 2830 2537 2537 2374 2299 2102 1936 2102 1989 2164 2044 1887 0 0 0 0 0 0 0 0 0 694 639 623 623 603 598 618 603 588 0 735 0 598 0 603 584 566 598 579 557 588 561 0 533 545 537 514 525 525 497 497 504 0 0 0 0 0
    0 0 0 0 0 0 0 0 0 0 0 0 0 0 0 0 0 0 0 0 0 0 0 0 0 0 0 0 0 0 0 0 0 0 0 0 0 0 0 0 0 0 0 0 0 0 0 0 0 0 0 0 0 0 0 0 0 0 0 0 0 0 0 0 0 0 0 0 0 0 8177 8177 0 8177 6690 7359 7359 7359 8177 0 0 0 0 0 0 0 0 0 0 8177 8177 0 7359 0 0 0 0 0 0 0 0 0 0 0 0 8177 0 0 0 0 0 0 0 0 0 0 0 8177 7359 0 7359 7359 6690 6133 5661 5256 6690 6133 6690 6690 8177 0 0 0 0 0 0 0 8177 8177 7359 6133 6690 5661 6690 6690 6690 6690 7359 7359 8177 7359 9199 8177 7359 8177 8177 8177 8177 8177 9199 0 0 0 0 0 8177 7359 0 0 5661 6690 6133 6690 6133 6690 7359 6690 5661 8177 7359 7359 7359 8177 6690 6690 7359 7359 7359 7359 8177 7359 7359 7359 8177 4088 5256 5256 5256 5661 5661 6690 6690 6690 7359 6133 6690 6690 6690 6690 6690 6690 6690 8177 8177 7359 6133 6133 6690 4906 4906 4906 4906 4906 4906 4906 4906 4599 6133 4329 4329 4599 4906 4599 4329 4329 4088 4329 3873 4088 3679 3873 3679 4088 3679 3679 3345 3199 3199 3345 3199 3199 3066 3066 3066 3066 3199 3066 2943 2943 3066 3199 2725 2453 2374 2164 2230 2102 1936 2102 1989 2102 2044 0 0 0 0 0 0 0 0 0 0 0 0 0 613 598 588 629 603 588 0 782 799 0 0 603 579 553 566 553 537 549 541 533 529 545 537 525 529 529 504 500 504 0 0 0 0 0
    0 0 0 0 0 0 0 0 0 0 0 0 0 0 0 0 0 0 0 0 0 0 0 0 0 0 0 0 0 0 0 0 0 0 0 0 0 0 0 0 0 0 0 0 0 0 0 0 0 0 0 0 0 0 0 0 0 0 0 0 0 0 0 0 0 0 0 0 0 0 8177 0 0 8177 7359 7359 6690 8177 8177 0 0 0 0 0 0 0 0 0 0 9199 9199 0 7359 0 0 0 0 0 0 0 0 0 8177 8177 8177 8177 8177 0 0 0 0 0 0 0 0 0 0 8177 7359 8177 7359 6690 6690 6133 5661 5661 6133 6133 6133 6690 8177 9199 0 0 0 0 0 0 0 8177 7359 6133 6690 6133 6690 6690 6690 6690 7359 7359 8177 8177 0 8177 7359 7359 7359 8177 8177 8177 8177 0 0 0 0 0 0 8177 0 0 6133 6690 6133 6690 6133 6690 7359 6133 5256 8177 6690 6690 7359 7359 6690 6690 7359 7359 7359 7359 8177 7359 7359 7359 8177 4088 5256 5661 5661 5661 5661 6690 7359 7359 7359 6133 6690 6690 6690 6690 6690 7359 6690 8177 0 7359 5661 6690 6690 4599 4906 4906 4599 4599 4599 5256 4599 4329 6133 4329 4329 4599 4599 4599 4329 4329 4329 4329 4088 3873 3679 3679 3504 3504 3199 3066 3199 3066 3199 3345 3199 3199 3066 3066 3199 3199 3199 3066 2943 2943 3066 3066 2725 2453 2374 2230 2374 2164 1989 2102 1989 2102 2044 0 0 0 0 0 0 0 0 0 0 0 0 0 0 598 588 657 608 0 0 808 826 0 0 603 579 553 557 549 533 537 537 521 525 537 529 521 529 525 504 497 504 0 0 0 0 0
    0 0 0 0 0 0 0 0 0 0 0 0 0 0 0 0 0 0 0 0 0 0 0 0 0 0 0 0 0 0 0 0 0 0 0 0 0 0 0 0 0 0 0 0 0 0 0 0 0 0 0 0 0 0 0 0 0 0 0 0 0 0 0 0 0 0 0 0 0 0 8177 8177 0 7359 6690 7359 6690 0 0 0 0 0 0 0 0 0 0 0 0 0 0 0 7359 0 0 0 0 0 0 0 0 0 8177 8177 8177 8177 8177 0 0 0 0 0 0 0 0 0 0 7359 7359 8177 7359 6690 6690 6133 5661 5256 6133 5661 6133 6690 8177 8177 0 0 0 0 0 0 0 8177 7359 6133 7359 6133 6690 6690 7359 7359 7359 7359 8177 8177 0 0 8177 7359 7359 8177 8177 8177 8177 0 0 0 0 0 0 9199 0 0 6133 6690 6133 6690 6690 6690 7359 6690 5661 8177 6690 6690 6690 7359 6690 6690 6690 7359 7359 7359 8177 7359 7359 7359 7359 4088 5661 5661 5661 6133 6133 7359 7359 7359 7359 6133 6690 6690 6690 6690 5661 6690 6690 7359 8177 7359 5661 6133 6690 4599 4599 4599 4599 4906 4599 5256 4599 4329 5661 4329 4599 4599 4599 4329 4329 4329 4329 4088 3873 3873 3679 3679 3345 3345 2943 2830 3066 3066 3199 3345 3199 3199 3066 3199 3199 3199 3345 3066 2830 2943 3066 3066 2725 2453 2453 2374 2537 2374 2102 2164 2044 2164 2044 0 0 0 0 0 0 0 0 0 0 0 0 0 0 598 0 0 0 1471 0 0 0 0 0 608 579 549 0 557 537 537 549 537 537 541 537 537 533 533 518 511 514 0 0 0 0 0
    0 0 0 0 0 0 0 0 0 0 0 0 0 0 0 0 0 0 0 0 0 0 0 0 0 0 0 0 0 0 0 0 0 0 0 0 0 0 0 0 0 0 0 0 0 0 0 0 0 0 0 0 0 0 0 0 0 0 0 0 0 0 0 0 0 0 0 0 0 8177 8177 8177 8177 7359 6690 7359 6690 0 0 0 0 0 0 0 0 0 0 0 0 0 0 0 7359 0 0 0 0 0 0 0 0 0 7359 8177 8177 8177 8177 8177 0 0 0 0 0 0 0 0 0 7359 7359 8177 7359 6690 6690 6133 6133 5661 6133 6133 6690 6690 8177 0 0 0 0 0 0 0 8177 8177 7359 6133 6690 6133 6690 6690 7359 7359 7359 8177 8177 0 0 0 8177 8177 7359 8177 8177 8177 8177 0 0 0 0 0 0 0 0 0 8177 8177 6690 7359 7359 7359 8177 7359 6690 8177 7359 7359 7359 7359 6690 6690 7359 7359 7359 7359 8177 7359 7359 7359 8177 4329 6133 6133 6133 6690 6133 7359 7359 7359 7359 6133 6133 6133 6133 6133 5256 6133 6133 7359 8177 7359 5256 6133 6690 4599 4599 4599 4599 4906 4599 5256 4599 4329 5661 4329 4906 4599 4329 4329 4329 4329 4329 4329 3873 3873 3679 3679 3504 3345 2943 2943 3066 3066 3199 3345 3199 3199 3199 3199 3199 3199 3199 2943 2830 2830 2943 3066 2628 2453 2453 2453 2628 2537 2299 2299 2102 2230 2044 0 0 0 0 0 0 0 0 0 0 0 0 0 0 0 0 0 1887 1711 1711 1711 1672 1471 1388 0 584 0 0 579 537 549 570 545 545 549 537 533 529 529 514 507 507 0 0 0 0 0
    0 0 0 0 0 0 0 0 0 0 0 0 0 0 0 0 0 0 0 0 0 0 0 0 0 0 0 0 0 0 0 0 0 0 0 0 0 0 0 0 0 0 0 0 0 0 0 0 0 0 0 0 0 0 0 0 0 0 0 0 0 0 0 0 0 0 0 0 0 0 0 0 0 8177 7359 8177 7359 0 0 0 0 0 0 0 0 0 0 0 0 0 0 0 8177 0 0 0 0 0 0 0 0 0 8177 8177 8177 8177 8177 0 0 0 0 0 0 0 0 0 0 8177 8177 0 8177 8177 7359 6690 6133 5661 6690 6133 6690 6690 8177 0 0 0 0 0 0 0 8177 8177 7359 6690 7359 6133 6690 6690 7359 7359 7359 8177 8177 0 0 0 8177 8177 7359 8177 8177 8177 8177 0 0 0 0 0 0 0 0 0 0 0 8177 0 0 0 0 8177 8177 8177 8177 7359 7359 7359 7359 7359 7359 7359 8177 7359 8177 7359 7359 7359 8177 4599 6690 6690 6690 6690 6690 7359 8177 8177 7359 6133 6133 6133 6133 6690 5256 6133 6133 7359 8177 7359 4906 6133 6690 4906 4906 4599 4599 4599 4599 5256 4599 4329 5661 4329 4906 4329 4329 4088 4599 4329 4599 4329 4088 4088 4088 4088 3873 3199 2943 2943 3066 3199 3345 3504 3345 3199 3199 3199 3345 3345 3345 2943 2830 2943 2943 2943 2725 2628 2537 2537 2830 2725 2537 2537 2102 2230 1989 0 0 0 0 0 0 0 0 0 0 0 0 0 0 0 2164 2102 1936 1795 1839 1887 1839 1752 1635 1443 0 0 0 0 0 0 0 0 533 533 533 529 525 518 500 497 511 0 0 0 0 0
    0 0 0 0 0 0 0 0 0 0 0 0 0 0 0 0 0 0 0 0 0 0 0 0 0 0 0 0 0 0 0 0 0 0 0 0 0 0 0 0 0 0 0 0 0 0 0 0 0 0 0 0 0 0 0 0 0 0 0 0 0 0 0 0 0 0 0 0 0 0 0 0 0 8177 8177 8177 8177 0 0 0 0 0 0 0 0 0 0 0 0 0 0 0 8177 0 0 0 0 0 0 0 0 0 8177 8177 8177 0 8177 0 0 0 0 0 0 0 0 0 0 0 0 0 0 0 8177 7359 6690 6133 6690 6133 6690 6690 7359 0 0 0 0 0 0 0 0 0 7359 7359 7359 6690 7359 7359 7359 0 7359 8177 8177 0 0 0 0 8177 8177 8177 8177 8177 8177 8177 0 0 0 0 0 0 0 0 0 0 0 0 0 0 0 0 0 8177 8177 7359 7359 8177 7359 7359 7359 7359 8177 7359 8177 7359 7359 7359 7359 4599 6690 6690 6690 7359 6690 8177 8177 8177 7359 6690 6690 6690 6133 6690 5256 6133 6133 7359 8177 7359 4906 6133 6133 4906 4599 4329 4599 4599 4599 5256 4599 4329 5661 4329 4599 4088 4329 4088 4599 4329 4599 4329 4329 4329 4599 4599 4599 3345 3199 3066 3066 3345 3504 3504 3345 3199 3199 3345 3345 3345 3199 2943 2943 2943 2943 2943 2830 2830 2725 2943 3066 3199 3066 2830 0 0 0 0 0 0 0 537 541 608 603 608 603 593 0 0 0 0 2102 2102 1936 1839 1887 1887 1839 1795 1752 1711 1635 1752 1635 1415 0 0 0 0 0 0 0 0 518 490 0 0 514 0 0 0 0 0
    0 0 0 0 0 0 0 0 0 0 0 0 0 0 0 0 0 0 0 0 0 0 0 0 0 0 0 0 0 0 0 0 0 0 0 0 0 0 0 0 0 0 0 0 0 0 0 0 0 0 0 0 0 0 0 0 0 0 0 0 0 0 0 0 0 0 0 0 0 0 0 0 0 0 8177 0 8177 0 0 0 0 0 0 0 0 0 0 0 0 0 0 0 0 0 0 0 0 0 0 0 0 0 8177 0 0 0 0 0 0 0 0 0 0 0 0 0 0 0 0 0 0 0 0 0 6690 6133 6690 6133 6690 6690 7359 8177 0 0 0 0 0 0 0 0 8177 0 0 7359 7359 7359 0 0 0 8177 8177 0 0 0 0 0 8177 8177 8177 8177 8177 0 0 0 0 0 0 0 0 0 0 0 0 0 0 0 0 0 0 8177 0 7359 7359 8177 7359 7359 7359 8177 8177 7359 8177 6690 7359 7359 7359 4906 6690 6690 6690 7359 6690 8177 8177 8177 7359 6690 6690 6690 6690 6690 5256 6690 6690 7359 7359 7359 4906 6133 6133 4906 4599 4329 4599 4599 4599 5256 4329 4329 5256 4329 4906 4088 4329 4088 4329 4599 4599 4599 4599 4599 5256 4906 6133 3873 3199 3199 3199 3345 3504 3504 3345 3199 3199 3345 3345 3345 3199 3066 2943 2943 3066 2943 2943 2943 2725 2943 3066 3066 3066 2943 0 0 0 0 0 0 0 0 549 608 613 608 603 593 0 0 0 1887 2102 2164 1989 1936 1936 1936 1887 1839 1795 1795 1752 1839 1887 1887 1839 1635 1635 1672 1565 1415 1338 0 373 0 0 0 0 0 0 0 0 0
    0 0 0 0 0 0 0 0 0 0 0 0 0 0 0 0 0 0 0 0 0 0 0 0 0 0 0 0 0 0 0 0 0 0 0 0 0 0 0 0 0 0 0 0 0 0 0 0 0 0 0 0 0 0 0 0 0 0 0 0 0 0 0 0 0 0 0 0 0 0 0 0 0 0 0 0 0 0 0 0 0 0 0 0 0 0 0 0 0 0 0 0 0 0 0 0 0 0 0 0 0 0 8177 8177 8177 8177 8177 8177 0 0 8177 0 0 0 0 0 0 0 0 0 0 0 0 0 7359 6690 7359 6133 6690 6133 6690 7359 0 0 8177 8177 0 0 8177 0 0 0 0 7359 0 7359 0 0 0 8177 8177 0 0 0 0 0 7359 0 0 0 0 0 0 0 0 0 0 0 0 0 0 0 0 0 0 0 0 0 0 8177 7359 7359 7359 8177 7359 6690 7359 7359 7359 7359 7359 6690 7359 6690 7359 6133 7359 7359 6690 7359 7359 0 0 8177 7359 6133 6690 6690 6690 6690 5661 6690 7359 6690 7359 8177 5661 6133 6133 4906 4599 4329 4599 4329 4599 5256 4599 4329 5256 4599 4599 4088 4329 3873 4329 4599 4599 4599 4599 4906 5256 5256 6690 3679 3199 3066 3199 3504 3504 3504 3345 3199 3345 3345 3345 3679 3199 3199 3199 3345 3504 3345 3199 3199 2943 3199 3199 3066 2943 2943 2628 0 0 0 0 0 0 0 0 608 618 613 603 598 0 0 1989 1887 2164 2164 2044 1989 1989 1936 1887 1887 1887 1839 1839 1887 1936 1936 1936 1839 1839 1839 1752 1635 1501 1443 0 0 0 0 0 0 0 0 0 0
    0 0 0 0 0 0 0 0 0 0 0 0 0 0 0 0 0 0 0 0 0 0 0 0 0 0 0 0 0 0 0 0 0 0 0 0 0 0 0 0 0 0 0 0 0 0 0 0 0 0 0 0 0 0 0 0 0 0 0 0 0 0 0 0 0 0 0 0 0 0 0 0 0 0 0 0 0 0 0 0 0 0 0 0 0 0 0 0 0 0 0 0 0 0 0 0 0 0 0 8177 0 0 8177 8177 8177 8177 8177 0 0 0 8177 0 0 0 8177 0 0 0 0 0 0 0 0 0 7359 6690 7359 6133 6690 6133 6690 7359 0 0 7359 8177 0 0 8177 0 7359 0 0 6690 0 0 0 0 7359 7359 7359 0 0 0 289 0 0 0 0 0 0 553 574 570 570 0 0 0 0 0 0 0 0 0 0 0 0 0 0 7359 6690 7359 6690 8177 6690 6133 6690 6690 6690 7359 7359 6690 7359 7359 7359 7359 8177 7359 7359 8177 8177 0 0 8177 7359 6133 6133 6690 6133 6133 5661 6690 7359 6690 8177 8177 6133 6690 6690 5256 4599 4329 4599 4329 4599 5256 4599 4599 5256 4599 4599 4088 4329 3679 4329 4599 4599 4599 4599 4906 5256 5256 7359 3345 3199 3066 3199 3873 3873 3873 3504 3345 3504 3504 3504 3873 3199 3199 3199 3345 3345 3345 3199 3345 3199 3345 3345 3199 3066 3066 2830 0 0 0 0 0 0 0 0 613 623 618 608 0 1635 0 1936 1887 2230 2299 2164 2102 2044 1989 1936 1936 1887 1887 1839 1887 1936 1936 1936 1795 1839 1839 1752 1711 1672 1599 1443 1415 0 0 0 0 0 0 0 0
    0 0 0 0 0 0 0 0 0 0 0 0 0 0 0 0 0 0 0 0 0 0 0 0 0 0 0 0 0 0 0 0 0 0 0 0 0 0 0 0 0 0 0 0 0 0 0 0 0 0 0 0 0 0 0 0 0 0 0 0 0 0 0 0 0 0 0 0 0 0 0 0 0 0 0 0 0 0 0 0 0 0 0 0 0 0 0 0 0 0 0 0 0 0 0 0 0 0 0 7359 8177 0 8177 8177 8177 8177 8177 8177 0 0 7359 0 8177 0 8177 0 0 0 0 0 0 0 0 0 7359 6690 7359 6133 6690 6133 6133 7359 0 0 7359 7359 0 0 8177 0 0 0 0 0 0 0 0 0 7359 7359 0 0 0 0 0 0 0 0 0 0 0 549 570 566 566 570 570 566 561 0 0 0 0 0 0 0 0 0 0 7359 6690 7359 7359 0 6690 6133 6690 6690 7359 7359 7359 7359 8177 7359 8177 0 0 0 7359 0 0 0 0 7359 7359 5661 6133 6133 5661 5661 5256 6133 6690 6690 8177 7359 6133 6690 6690 5661 4599 4599 4906 4599 4906 5256 4599 4599 5256 4906 4329 4088 4329 3679 4329 4329 4599 4329 4329 5256 5256 4906 7359 3345 3199 3199 3199 3873 3873 3873 3504 3504 3504 3504 3504 3873 3199 3199 3199 3504 3345 3199 3199 3679 3504 3679 3679 3504 3345 3345 3345 3066 0 0 0 0 0 0 0 618 629 623 0 0 1501 0 0 1887 2299 2299 2230 2164 2102 2044 1989 1989 1936 1887 1887 1887 1887 1887 1887 1795 1795 1795 1752 1711 1672 1635 1565 1599 1599 1501 1415 0 0 0 0 0
    0 0 0 0 0 0 0 0 0 0 0 0 0 0 0 0 0 0 0 0 0 0 0 0 0 0 0 0 0 0 0 0 0 0 0 0 0 0 0 0 0 0 0 0 0 0 0 0 0 0 0 0 0 0 0 0 0 0 0 0 0 0 0 0 0 0 0 0 0 0 0 0 0 0 0 0 0 0 0 0 0 0 0 0 0 0 0 0 0 0 0 0 0 0 0 0 0 0 0 6690 8177 0 8177 8177 8177 8177 8177 0 0 0 8177 0 0 8177 8177 0 0 0 0 0 0 0 0 0 7359 7359 7359 6133 6690 6133 6690 7359 0 0 0 0 0 0 0 0 0 0 0 0 0 0 0 0 7359 7359 0 0 0 0 0 0 0 0 557 0 0 0 574 566 566 570 570 570 561 0 0 0 0 0 0 0 0 0 0 7359 6690 7359 7359 0 7359 6690 7359 7359 7359 8177 8177 8177 0 8177 8177 0 0 0 8177 0 0 0 0 7359 6690 5661 6133 6133 5661 5661 5256 6133 6690 6690 7359 7359 6133 6690 6690 5661 4599 4599 4906 4599 4906 5256 4599 4599 5256 4599 4329 3873 4329 3679 4329 4329 4329 4329 4599 4906 5256 4599 7359 3345 3345 3199 3199 3873 3873 3873 3504 3504 3504 3679 3679 3873 3345 3345 3345 3504 3345 3345 3345 3679 3504 3873 3679 3679 3345 3504 3345 3199 0 0 0 0 0 0 0 618 634 623 0 0 1471 0 0 2102 2374 2374 2299 2230 2164 2102 2044 2044 2044 1989 1936 1936 1936 1936 1887 1839 1839 1839 1752 1711 1672 1672 1599 1635 1672 1672 1635 0 0 0 0 0
    0 0 0 0 0 0 0 0 0 0 0 0 0 0 0 0 0 0 0 0 0 0 0 0 0 0 0 0 0 0 0 0 0 0 0 0 0 0 0 0 0 0 0 0 0 0 0 0 0 0 0 0 0 0 0 0 0 0 0 0 0 0 0 0 0 0 0 0 0 0 0 0 0 0 0 0 0 0 0 0 0 0 0 0 0 0 0 0 0 0 0 0 0 0 0 0 0 0 0 7359 0 0 0 0 0 0 0 0 0 0 0 0 0 0 8177 0 0 0 0 0 0 0 0 0 7359 7359 7359 6133 6690 6133 6133 7359 0 0 7359 7359 0 0 0 0 0 0 0 0 0 0 0 0 6690 7359 0 0 0 0 0 0 0 0 557 0 0 0 574 566 570 570 574 570 566 0 0 0 0 0 0 0 0 0 0 7359 6690 7359 7359 0 8177 7359 8177 8177 8177 8177 0 0 0 8177 0 0 0 0 0 0 0 0 0 7359 6690 5256 5661 6133 5661 5661 5661 6133 6690 6690 7359 7359 6133 6690 6690 5661 4906 4906 4906 4599 4906 5256 4906 4599 5256 4599 4088 3873 4329 3679 4329 4329 4329 4329 4599 4906 5256 4906 7359 3504 3345 3199 3199 3873 3873 3873 3345 3504 3679 3679 3679 4088 3345 3345 3345 3873 3345 3345 3345 3873 3504 3873 3504 3345 3199 3066 3066 2943 2230 0 0 0 0 0 0 618 639 629 0 0 0 0 0 0 2537 2453 2299 2299 2164 2102 2044 2102 2102 2044 1989 1989 1989 1989 1936 1839 1839 1839 1795 1752 1711 1711 1635 1672 1711 1672 1672 0 0 0 0 0
    0 0 0 0 0 0 0 0 0 0 0 0 0 0 0 0 0 0 0 0 0 0 0 0 0 0 0 0 0 0 0 0 0 0 0 0 0 0 0 0 0 0 0 0 0 0 0 0 0 0 0 0 0 0 0 0 0 0 0 0 0 0 0 0 0 0 0 0 0 0 0 0 0 0 0 0 0 0 0 0 0 0 0 0 0 0 0 0 0 0 0 0 0 0 0 0 0 0 0 7359 0 0 0 0 0 0 0 0 0 0 0 0 0 0 7359 0 0 0 0 0 0 0 0 0 8177 0 7359 6133 6690 5661 6133 6690 8177 7359 6690 7359 8177 0 8177 0 0 0 286 0 0 0 5661 0 6690 6690 0 7359 0 7359 0 0 0 0 0 0 0 0 574 0 570 570 574 570 566 8177 0 0 0 0 0 0 0 0 0 7359 6690 6690 7359 0 8177 7359 8177 8177 8177 8177 0 8177 0 8177 8177 0 0 0 0 0 0 0 0 6690 6690 5256 6133 6133 5661 5661 5661 6133 7359 6690 7359 6690 6133 6690 6690 5661 4906 5256 5256 4906 5256 5256 4906 4906 5256 4329 4088 3873 4329 3504 4329 4329 4329 4329 4906 4906 5256 4599 7359 3504 3504 3199 3199 3679 3679 3679 3345 3504 3504 3679 3679 4088 3345 3345 3345 3873 3504 3345 3504 3873 3504 3873 3504 3345 3066 3066 3066 2943 2299 0 0 0 0 0 0 623 645 634 629 0 0 0 0 0 2628 2537 2374 2299 2164 2102 2044 2044 2102 2102 2044 1989 2044 2044 1989 1887 1887 1887 1795 1795 1752 1752 1711 1752 1752 1752 1711 0 0 0 0 0
    0 0 0 0 0 0 0 0 0 0 0 0 0 0 0 0 0 0 0 0 0 0 0 0 0 0 0 0 0 0 0 0 0 0 0 0 0 0 0 0 0 0 0 0 0 0 0 0 0 0 0 0 0 0 0 0 0 0 0 0 0 0 0 0 0 0 0 0 0 0 0 0 0 0 0 0 0 0 0 0 0 0 0 0 0 0 0 0 0 0 0 0 0 0 0 0 0 0 0 7359 0 0 0 0 0 0 0 0 0 0 0 0 0 0 7359 0 0 0 0 0 0 0 0 0 8177 8177 7359 5661 6133 5661 5661 6690 7359 7359 6690 6690 8177 0 8177 0 7359 0 0 0 0 7359 5661 7359 6133 6133 6133 7359 7359 6690 0 0 0 0 0 7359 6690 6133 0 6690 0 0 0 0 561 7359 0 0 0 0 0 0 0 8177 0 7359 6133 6690 6690 8177 7359 6690 8177 8177 7359 8177 8177 8177 8177 7359 8177 0 0 0 0 0 0 0 0 6690 6690 5256 6133 6690 5661 5661 5661 6133 7359 6690 7359 6690 6133 6690 6133 5661 4906 5256 5256 5256 5256 5661 4906 5256 5256 4329 4088 4088 4599 3504 4329 4329 4329 4329 4906 4906 4906 4599 7359 3679 3504 3345 3199 3679 3679 3679 3345 3504 3504 3504 3679 4088 3345 3345 3345 3873 3504 3345 3504 3873 3504 3679 3504 3504 3199 3066 3199 2943 2453 0 0 0 0 0 675 634 651 639 634 623 0 0 0 0 2830 2537 2374 2299 2164 2044 2044 2044 2102 2102 2044 1989 2044 2044 1989 1936 1887 1887 1839 1795 1795 1752 1711 1752 1752 1752 1711 0 0 0 0 0
    0 0 0 0 0 0 0 0 0 0 0 0 0 0 0 0 0 0 0 0 0 0 0 0 0 0 0 0 0 0 0 0 0 0 0 0 0 0 0 0 0 0 0 0 0 0 0 0 0 0 0 0 0 0 0 0 0 0 0 0 0 0 0 0 0 0 0 0 0 0 0 0 0 0 0 0 0 0 0 0 0 0 0 0 0 0 0 0 0 0 0 0 0 0 0 0 0 0 0 7359 0 0 0 0 0 0 0 0 0 0 0 0 0 0 7359 0 0 0 0 0 0 0 0 0 8177 8177 6690 5256 5661 5256 5256 6133 6690 6690 6690 6690 8177 0 8177 0 8177 8177 0 7359 7359 6690 5256 6690 6133 5661 5661 6690 6690 6133 0 0 0 0 0 7359 6690 5661 6690 6690 6133 0 0 0 0 6133 0 0 0 0 8177 0 8177 8177 0 6690 6133 6690 6690 8177 7359 6133 7359 7359 7359 7359 7359 7359 8177 7359 8177 0 0 0 0 0 0 0 0 7359 7359 5661 6133 6690 6133 5661 6133 6133 7359 6133 7359 6690 6133 6690 6133 5661 5256 5256 5256 5256 5661 5661 5256 5661 5661 4329 4329 4329 4599 3504 4329 4599 4329 4329 4906 4906 4599 4329 6690 3679 3679 3345 3199 3679 3679 3679 3345 3504 3504 3504 3679 4088 3345 3345 3345 3873 3504 3504 3679 3873 3504 3679 3504 3504 3199 3199 3345 3066 2628 0 0 0 0 0 681 639 657 639 634 629 618 0 0 0 0 2537 2374 2230 2102 2044 2044 1989 2044 2044 2044 1989 2044 2044 1989 1936 1936 1936 1887 1887 1839 1839 1795 1839 1795 1839 1795 0 0 0 0 0
    0 0 0 0 0 0 0 0 0 0 0 0 0 0 0 0 0 0 0 0 0 0 0 0 0 0 0 0 0 0 0 0 0 0 0 0 0 0 0 0 0 0 0 0 0 0 0 0 0 0 0 0 0 0 0 0 0 0 0 0 0 0 0 0 0 0 0 0 0 8177 8177 0 0 0 0 0 0 0 0 0 0 0 0 0 0 0 0 0 0 0 0 0 0 0 0 0 0 0 8177 6690 0 0 0 0 0 0 0 0 0 0 0 0 0 0 7359 0 8177 0 0 0 0 0 8177 0 0 0 6690 4906 5256 4906 4599 5661 6133 6690 6690 7359 8177 0 0 0 8177 8177 0 7359 6690 6133 4906 6133 5661 5256 5256 6133 6690 6133 0 7359 6690 6690 7359 7359 6690 6133 6690 6133 6133 6133 6690 6690 8177 6133 0 8177 0 8177 7359 8177 7359 7359 8177 6690 6690 6690 6690 7359 6690 6133 7359 7359 6690 7359 7359 7359 8177 7359 8177 0 0 0 0 0 0 0 0 8177 7359 6133 6133 6690 6133 5661 6133 6133 7359 6133 7359 6690 5661 6133 5661 5661 5256 5661 5661 5661 5661 6133 5661 6690 6690 4088 4088 4599 4599 3504 4599 4599 4329 4329 4906 4906 4329 4329 6690 3873 3679 3345 3345 3679 3679 3679 3345 3679 3504 3504 3679 4088 3345 3345 3345 3873 3345 3345 3504 3679 3504 3679 3504 3679 3345 3345 3345 3066 2628 0 0 0 0 0 681 639 657 639 639 629 623 0 0 0 2830 2537 2299 2230 2102 2044 2044 1989 2044 1989 1989 1936 1989 1989 1989 1936 1936 1936 1936 1936 1887 1887 1839 1887 1839 1887 1795 0 0 0 0 0
    0 0 0 0 0 0 0 0 0 0 0 0 0 0 0 0 0 0 0 0 0 0 0 0 0 0 0 0 0 0 0 0 0 0 0 0 0 0 0 0 0 0 0 0 0 0 0 0 0 0 0 0 0 0 0 0 0 0 0 0 0 0 0 0 0 0 0 0 0 8177 8177 0 0 0 0 0 0 0 0 0 0 0 0 0 0 0 0 0 0 0 0 0 0 0 0 0 0 0 0 7359 0 0 0 0 0 0 0 0 0 0 0 0 0 0 7359 8177 8177 0 0 8177 0 8177 8177 0 0 0 7359 4906 5661 5256 4599 5661 6690 7359 6690 7359 8177 8177 0 0 8177 0 0 8177 6690 5256 4088 4906 4906 4906 4088 5661 6133 5256 6690 7359 7359 6690 7359 7359 6690 6690 7359 6690 6133 6133 6133 6690 8177 5256 7359 7359 8177 8177 7359 7359 7359 6690 8177 7359 6690 6690 6690 7359 7359 6690 7359 8177 7359 7359 8177 7359 8177 7359 8177 0 0 0 0 0 0 0 0 0 8177 6690 6690 7359 6690 6133 6133 6133 6690 6133 6690 6133 4906 5661 5256 5256 5256 5661 5661 5661 5661 6690 5661 6690 6690 3873 4329 4906 4906 3679 4599 4599 4599 4599 4906 4906 4329 4329 6690 3873 3679 3504 3345 3873 3873 3873 3504 3679 3504 3504 3679 4088 3345 3345 3345 3679 3199 3199 3345 3345 3199 3345 3345 3504 3199 3199 3199 3066 0 0 0 0 743 0 687 645 657 639 639 634 629 0 0 0 2830 2453 2230 2102 2102 2044 2044 1989 2044 1989 1989 1936 1989 1936 1936 1936 1936 1936 1936 1936 1936 1887 1887 1887 1839 1839 1795 0 0 0 0 0
    0 0 0 0 0 0 0 0 0 0 0 0 0 0 0 0 0 0 0 0 0 0 0 0 0 0 0 0 0 0 0 0 0 0 0 0 0 0 0 0 0 0 0 0 0 0 0 0 0 0 0 0 0 0 0 0 0 0 0 0 0 0 0 0 0 0 0 0 0 8177 7359 8177 0 0 0 0 0 0 0 0 0 0 0 0 0 0 0 0 0 0 0 0 0 0 0 0 0 0 0 0 0 0 0 0 0 0 0 0 0 0 0 0 0 0 7359 8177 8177 0 0 0 0 8177 8177 0 0 0 8177 4906 6133 6133 5256 6690 7359 7359 7359 7359 8177 8177 0 0 0 0 0 8177 0 6690 3504 4329 4599 4906 0 6133 6690 5256 7359 7359 7359 7359 7359 8177 7359 7359 8177 6690 6133 5661 6133 6690 0 4906 6690 6690 7359 7359 7359 7359 6690 6133 8177 7359 7359 6690 6690 7359 8177 8177 0 0 8177 8177 8177 8177 8177 7359 7359 0 0 0 0 0 0 0 0 0 8177 7359 7359 8177 7359 6690 6133 6133 6690 6133 5661 5256 4329 5256 4906 4906 5256 5661 5661 5661 5661 6690 5661 6690 7359 3679 4599 4906 4906 3679 4599 4906 4599 4599 5256 4599 4088 4329 6690 3679 3679 3345 3345 3873 3873 3873 3504 3679 3504 3504 3873 4329 3345 3345 3345 3873 3199 3199 3199 3199 3066 3199 3199 3199 2943 2943 2943 2943 0 0 0 0 743 0 687 645 657 639 639 634 0 0 0 0 0 2299 2102 2044 2044 2044 1989 1989 2044 1989 1989 1936 1989 1936 1936 1936 1936 1936 1936 1936 1936 1936 1887 1887 1839 1839 1839 0 0 0 0 0
    0 0 0 0 0 0 0 0 0 0 0 0 0 0 0 0 0 0 0 0 0 0 0 0 0 0 0 0 0 0 0 0 0 0 0 0 0 0 0 0 0 0 0 0 0 0 0 0 0 0 0 0 0 0 0 0 0 0 0 0 0 0 0 0 0 0 0 0 0 8177 7359 8177 0 0 8177 0 8177 0 0 0 0 0 0 0 0 0 0 0 0 0 0 0 0 0 0 0 0 0 0 0 0 0 0 0 0 0 0 0 0 0 0 0 0 0 7359 8177 7359 0 0 0 0 8177 7359 0 0 0 7359 4599 6133 6133 5256 6690 8177 7359 8177 8177 8177 8177 0 0 0 0 0 0 0 0 0 3873 3873 4329 0 6133 6133 5256 7359 7359 7359 7359 8177 0 8177 8177 8177 6690 6690 6133 6133 0 0 0 6133 6133 6690 7359 6690 7359 6690 6133 8177 7359 8177 7359 7359 8177 8177 8177 0 0 0 0 8177 7359 8177 7359 6690 0 0 0 0 0 0 0 0 0 0 0 8177 0 0 7359 5661 5661 6133 5661 5256 5256 4088 5256 4906 5256 5661 5661 5661 5661 5661 6690 5661 6690 8177 3504 4906 4906 4906 3679 4599 4906 4599 4599 5256 4329 4088 4329 6133 3679 3504 3345 3345 3873 3873 3873 3504 3679 3504 3504 3873 4329 3345 3345 3345 4088 3199 3199 3199 3066 3066 3199 3066 3066 2830 2943 2943 2943 0 0 0 0 743 0 687 645 657 639 639 0 0 0 0 0 2453 2230 2044 1989 2044 1989 1989 1989 1989 1989 1936 1936 1989 1936 1936 1936 1887 1936 1936 1989 1936 1936 1887 1887 1887 1839 1795 0 0 0 0 0
    0 0 0 0 0 0 0 0 0 0 0 0 0 0 0 0 0 0 0 0 0 0 0 0 0 0 0 0 0 0 0 0 0 0 0 0 0 0 0 0 0 0 0 0 0 0 0 0 0 0 0 0 0 0 0 0 0 0 0 0 0 0 0 0 0 0 0 0 0 8177 7359 7359 0 9199 9199 9199 7359 0 0 0 0 0 0 0 0 0 0 0 0 0 0 0 0 0 0 0 0 0 0 0 0 0 0 0 0 0 0 0 0 0 0 0 0 0 7359 8177 7359 0 0 0 0 8177 7359 0 0 0 7359 4906 6133 6133 5661 6690 8177 7359 7359 7359 8177 8177 8177 0 0 0 0 0 0 0 0 0 3345 3504 0 5661 5661 4906 7359 7359 7359 7359 8177 8177 8177 7359 8177 6690 6133 6133 5661 0 0 4329 6133 6133 6690 7359 0 7359 6690 6133 8177 8177 8177 7359 7359 8177 8177 8177 0 0 9199 0 8177 7359 7359 7359 6690 0 0 0 0 0 0 0 0 0 0 0 0 0 0 7359 6690 6133 6690 6133 5661 5256 4088 5256 4906 5256 5661 5661 5661 6133 6133 7359 6133 8177 8177 3504 5256 5256 5256 3679 4906 4906 4906 4599 5256 4329 4088 4329 6133 3679 3679 3504 3504 3873 3873 4088 3504 3679 3504 3504 3679 4088 3345 3345 3345 3873 3199 3199 3199 3066 3066 3066 3066 3066 2830 2830 2830 2830 0 0 0 0 743 0 0 645 651 634 0 0 0 0 0 0 2299 2164 2044 1989 2044 1989 1989 1989 1989 1887 1887 1839 1887 1887 1936 1887 1887 1936 1989 1989 1989 1936 1936 1936 1887 1887 1839 0 0 0 0 0
    0 0 0 0 0 0 0 0 0 0 0 0 0 0 0 0 0 0 0 0 0 0 0 0 0 0 0 0 0 0 0 0 0 0 0 0 0 0 0 0 0 0 0 0 0 0 0 0 0 0 0 0 0 0 0 0 0 0 0 0 0 0 0 0 0 0 0 0 0 8177 6690 6690 0 8177 0 0 6690 8177 8177 0 0 0 0 0 0 0 0 0 0 0 0 0 0 0 0 0 0 0 0 0 0 0 0 0 0 0 0 0 0 0 0 0 0 0 7359 8177 7359 0 0 0 0 7359 7359 0 0 0 8177 5661 6133 6690 5661 6690 7359 7359 7359 7359 8177 7359 7359 0 8177 8177 8177 0 0 0 0 0 4088 4599 3504 6133 6133 4599 6690 7359 7359 7359 8177 8177 8177 7359 8177 6690 5661 5661 5256 0 0 4088 6133 6133 6690 7359 0 7359 6690 6133 8177 0 0 8177 7359 8177 8177 8177 8177 0 8177 8177 8177 7359 7359 7359 6133 8177 0 0 8177 0 0 0 0 0 0 0 0 0 0 7359 7359 7359 7359 6690 5661 5256 4088 5256 5256 5661 6133 6133 6133 6133 6690 8177 6690 0 8177 3679 5256 5256 5256 3679 4906 4906 4906 4599 5256 4329 4088 4329 6133 3873 3679 3504 3504 4088 3873 4088 3504 3504 3504 3504 3679 3873 3199 3199 3345 3873 3345 3199 3199 3199 3066 3066 3066 3066 2943 2943 2943 2943 2453 0 0 0 0 0 0 0 639 623 0 0 0 0 0 0 2230 2102 2044 1989 2044 1936 1936 1936 1936 1887 1887 1839 1887 1887 1936 1936 1887 1936 1989 2044 2044 1989 1989 1989 1887 1887 1839 0 0 0 0 0
    0 0 0 0 0 0 0 0 0 0 0 0 0 0 0 0 0 0 0 0 0 0 0 0 0 0 0 0 0 0 0 0 0 0 0 0 0 0 0 0 0 0 0 0 0 0 0 0 0 0 0 0 0 0 0 0 0 0 0 0 0 0 0 0 0 0 0 0 0 7359 6133 6690 0 8177 0 0 6690 8177 8177 0 0 0 0 0 0 0 0 0 0 0 0 0 0 0 0 0 0 0 0 0 0 0 8177 8177 8177 0 0 0 0 0 0 0 0 0 0 7359 6690 0 0 0 0 7359 6690 0 0 0 8177 5661 6133 6133 5661 6690 7359 7359 7359 7359 8177 8177 7359 0 8177 8177 8177 0 0 0 0 0 5256 5661 4088 6133 6133 4599 6690 7359 7359 7359 8177 0 0 7359 8177 6690 6133 5661 4906 0 0 0 6133 6133 6690 0 0 0 6690 6133 0 0 0 8177 8177 8177 8177 0 0 0 8177 8177 7359 7359 7359 7359 5661 8177 8177 8177 8177 0 0 0 0 0 0 0 0 0 0 6690 6690 6690 6690 6133 5661 4906 4088 4906 4906 5661 6133 6133 6133 6690 7359 0 8177 0 8177 3679 5256 5256 5256 3679 4906 4906 4906 4599 5256 4329 4088 4329 6133 3679 3679 3345 3504 4088 3873 3873 0 3504 3345 3345 3504 3504 3066 3066 3199 3679 3345 3199 3199 3066 3066 3066 3066 2943 2943 2830 2725 2830 2374 0 0 0 0 0 0 0 634 0 0 0 0 0 0 0 2102 2044 1989 1989 2044 1989 1989 1936 1989 1936 1887 1887 1887 1887 1936 1936 1936 1936 1989 2044 2044 2044 2044 1989 1936 1887 1887 0 0 0 0 0
    0 0 0 0 0 0 0 0 0 0 0 0 0 0 0 0 0 0 0 0 0 0 0 0 0 0 0 0 0 0 0 0 0 0 0 0 0 0 0 0 0 0 0 0 0 0 0 0 0 0 0 0 0 0 0 0 0 0 0 0 0 0 0 0 0 0 0 0 0 7359 6133 6133 8177 9199 0 0 6690 8177 8177 0 0 0 0 0 0 0 0 0 0 0 0 0 0 0 0 0 0 0 0 0 0 0 7359 7359 7359 8177 8177 0 0 0 0 0 0 0 0 7359 6690 8177 0 0 0 7359 6690 0 0 0 8177 5661 6133 6133 5256 6690 8177 7359 7359 7359 8177 8177 7359 0 8177 7359 8177 0 0 0 0 0 4906 6133 4329 6133 6133 4599 6690 7359 7359 0 0 197 0 0 0 7359 6690 6690 4906 0 0 0 6133 6133 0 0 82 0 6690 6690 0 0 0 0 0 0 0 0 0 0 0 0 8177 7359 8177 7359 5661 7359 7359 7359 7359 8177 0 0 0 0 0 0 0 0 0 6133 6133 6690 6690 6690 5256 4599 3873 4599 4906 5661 6133 6133 6133 7359 8177 0 0 0 8177 3504 5256 5256 5256 3679 4906 4906 4906 4599 5256 4329 4088 4329 6133 3873 3873 3504 3679 4088 4088 3873 0 3504 3345 3345 3504 3345 3066 3066 3199 3679 3345 3345 3199 2943 2943 2943 2943 2830 2830 2830 2628 2628 2299 0 0 0 0 87 0 0 0 0 0 0 0 0 0 0 2044 2044 1989 1989 2044 1989 1989 1989 1989 1936 1936 1887 1887 1887 1936 1936 1936 1936 1989 2044 2044 2044 2044 1989 1936 1887 1839 0 0 0 0 0
    0 0 0 0 0 0 0 0 0 0 0 0 0 0 0 0 0 0 0 0 0 0 0 0 0 0 0 0 0 0 0 0 0 0 0 0 0 0 0 0 0 0 0 0 0 0 0 0 0 0 0 0 0 0 0 0 0 0 0 0 0 0 0 0 0 0 0 0 0 6690 5661 5661 7359 8177 0 0 6690 0 8177 0 0 0 0 0 0 0 0 0 0 0 0 0 0 0 0 0 0 0 0 0 0 0 7359 7359 7359 7359 8177 0 0 0 0 0 0 0 0 7359 6133 7359 0 0 0 7359 6690 0 0 0 0 6133 6690 6690 5661 7359 8177 8177 7359 0 0 0 0 0 8177 6690 7359 0 0 0 0 0 5256 6690 4599 6133 6133 4329 6690 6690 0 197 197 197 197 197 0 7359 6690 7359 4906 0 0 0 0 0 0 0 82 0 7359 6690 0 0 0 0 0 0 0 0 0 0 0 0 0 8177 0 8177 5661 7359 7359 7359 6690 7359 0 0 0 0 8177 8177 8177 0 0 5661 6133 6133 6690 6690 5661 4599 4088 4599 5256 5661 6690 6690 6690 7359 0 0 0 0 8177 3504 5256 5256 5256 3679 4906 4906 4906 4599 5256 4329 4088 4329 6690 3873 4088 3504 3679 4088 4088 3873 0 3504 3345 3345 3504 3199 3066 2943 3066 3679 3345 3345 3199 2943 2943 2943 2943 2725 2830 2830 2537 2537 2230 0 0 0 87 0 0 0 0 0 0 0 1291 0 0 0 2044 1989 1989 1989 2044 1989 1989 2044 2044 1989 1936 1936 1936 1887 1936 1887 1887 1887 1936 1989 1989 1989 1989 1936 1887 1839 1839 0 0 0 0 0
    0 0 0 0 0 0 0 0 0 0 0 0 0 0 0 0 0 0 0 0 0 0 0 0 0 0 0 0 0 0 0 0 0 0 0 0 0 0 0 0 0 0 0 0 0 0 0 0 0 0 0 0 0 0 0 0 0 0 0 0 0 0 0 0 0 0 0 0 0 6690 5256 5256 6690 7359 7359 7359 6133 8177 7359 0 0 0 0 0 0 0 0 0 0 0 0 0 0 0 0 0 0 0 0 0 0 0 7359 7359 7359 8177 8177 0 0 0 0 0 0 0 0 6690 6133 7359 0 0 8177 6690 6690 0 0 0 0 6690 6690 6690 5661 8177 8177 8177 8177 7359 8177 0 7359 0 8177 6690 6690 8177 0 0 0 8177 5256 6690 4906 6133 6133 4088 6690 6690 0 0 0 198 197 0 8177 6690 5661 6133 4599 0 0 0 0 0 0 0 82 0 7359 6690 0 0 0 0 0 0 0 0 0 0 0 0 0 0 0 0 5661 7359 7359 7359 6690 6690 0 0 0 0 6690 7359 7359 7359 8177 5256 5661 6133 6690 7359 5661 4599 4329 4906 5661 5661 6690 6690 6690 7359 0 0 0 0 7359 3504 4906 4906 4906 3679 4906 4906 4906 4599 5256 4329 4088 4329 6690 4088 4088 3504 3873 4329 4088 3873 0 3345 3199 3199 3345 3066 2943 2943 3066 3679 3345 3345 3199 2943 3066 2943 2943 2725 2830 2830 2453 2537 0 0 0 0 87 0 0 0 0 0 0 0 1291 0 0 0 2044 1989 1989 2044 2044 1989 1989 2044 2044 1989 1989 1989 1936 1936 1989 1887 1887 1887 1936 1989 1989 1989 1989 1936 1936 1887 1887 0 0 0 0 0
    0 0 0 0 0 0 0 0 0 0 0 0 0 0 0 0 0 0 0 0 0 0 0 0 0 0 0 0 0 0 0 0 0 0 0 0 0 0 0 0 0 0 0 0 0 0 0 0 0 0 0 0 0 0 0 0 0 0 0 0 0 0 0 0 0 0 0 0 0 6690 5661 5661 6133 7359 6690 6690 5661 7359 6690 0 0 0 0 0 0 0 0 0 0 0 0 0 0 0 0 0 0 0 0 0 0 0 8177 8177 8177 8177 8177 0 0 0 8177 8177 0 0 0 6690 5661 6690 0 0 7359 6690 6133 0 0 0 0 6690 6690 6690 6133 8177 0 0 8177 8177 0 8177 8177 0 8177 6690 6133 7359 0 0 0 5661 5256 6690 6133 6690 6690 4599 7359 7359 7359 7359 7359 7359 7359 7359 8177 6133 5661 6690 4906 0 0 0 0 0 0 0 82 0 7359 6690 0 0 0 0 0 0 0 0 0 0 0 0 0 0 0 0 5661 6690 6690 6690 6133 6133 8177 8177 8177 8177 6690 6690 6690 7359 7359 5256 5661 6133 6690 0 6133 4599 4906 5256 5661 6133 6690 6690 6690 7359 0 0 0 0 7359 3504 4906 4906 4906 3679 4906 4906 4906 4599 5256 4329 4088 4329 6133 4088 4329 3504 4088 4329 4088 3873 0 3345 3199 3199 3345 2943 2830 2830 2830 3345 3345 3345 3199 3066 3199 3066 3066 2943 2943 2943 2537 0 0 0 0 0 87 0 0 0 0 0 0 0 1291 0 0 0 2044 1989 1989 2044 2044 1989 2044 2044 2044 2044 1989 1989 1936 1936 1989 1936 1936 1936 1936 1989 2044 1989 1989 1989 1989 1936 1887 0 0 0 0 0
    0 0 0 0 0 0 0 0 0 0 0 0 0 0 0 0 0 0 0 0 0 0 0 0 0 0 0 0 0 0 0 0 0 0 0 0 0 0 0 0 0 0 0 0 0 0 0 0 0 0 0 0 0 0 0 0 0 0 0 0 0 0 0 0 0 0 0 0 0 6690 5661 5661 6133 7359 7359 6690 5661 7359 6690 0 0 0 0 0 0 0 0 0 0 0 0 0 0 0 0 0 0 0 0 0 0 0 8177 8177 8177 8177 8177 0 0 0 7359 8177 8177 0 5256 6690 5661 6690 6690 8177 6690 6133 6133 0 0 0 8177 6690 6133 6133 5661 7359 0 0 8177 8177 0 0 0 0 0 6690 6133 8177 0 8177 0 4329 5256 6690 6690 7359 6690 5256 7359 7359 7359 7359 7359 7359 7359 7359 8177 6690 5661 6690 0 0 0 0 5661 6133 7359 0 0 8177 7359 6690 0 0 0 0 0 0 0 0 0 0 0 0 0 0 0 0 5256 6133 6133 6133 6133 5661 7359 7359 7359 8177 6133 6690 6690 6690 6690 5256 5256 5661 6133 6690 5256 3873 4599 4906 4906 6133 6690 6690 6690 8177 0 0 0 0 6133 3504 4906 4906 4599 3504 4599 4599 4599 4599 4906 4088 3873 4088 6133 4088 4329 3504 4329 4329 4088 3873 0 3345 3199 3199 3345 2943 2830 2830 2830 3199 3199 3345 3199 3199 3345 3345 3199 3199 3199 3066 0 0 86 0 0 0 87 0 0 0 402 395 0 1362 1268 0 0 0 2044 2044 2044 2102 2102 2044 2044 2044 2102 2044 1989 1989 1936 1936 1989 1936 1989 1936 1936 2044 2044 1989 2044 1989 1989 1936 1936 0 0 0 0 0
    0 0 0 0 0 0 0 0 0 0 0 0 0 0 0 0 0 0 0 0 0 0 0 0 0 0 0 0 0 0 0 0 0 0 0 0 0 0 0 0 0 0 0 0 0 0 0 0 0 0 0 0 0 0 0 0 0 0 0 0 0 0 0 0 0 0 0 0 0 6133 5661 5661 6133 7359 7359 7359 6133 7359 6690 0 0 0 0 0 0 0 0 0 0 0 0 0 0 0 0 0 0 0 0 0 0 0 8177 0 8177 8177 7359 0 0 0 7359 8177 8177 8177 5256 6690 5661 6133 6690 7359 6690 5661 5661 0 0 0 6690 6133 5256 5256 4906 6690 8177 0 8177 8177 0 0 0 0 0 7359 7359 8177 0 6133 4088 6133 6133 6690 8177 7359 8177 6133 7359 8177 7359 7359 8177 7359 7359 7359 8177 6690 6133 6690 0 0 0 0 5661 5661 7359 7359 0 8177 7359 6690 0 0 0 0 0 0 0 0 0 0 0 0 0 0 0 0 5256 6133 6133 6133 5661 5256 6690 7359 7359 7359 6133 6690 6690 6690 6133 4906 5256 5256 5661 0 4088 3504 4329 4329 4599 5661 6690 6690 6690 7359 0 0 0 0 5256 3504 4599 4599 4088 3504 4329 4329 4599 4599 4599 4088 3873 4329 6133 4088 4329 3504 4329 4329 4329 3873 3345 3345 3345 3199 3345 2830 2830 2830 2830 3066 3199 3199 3345 3345 3504 3345 3199 3199 3345 3066 0 0 0 0 0 0 87 0 0 0 402 393 0 1362 1268 0 0 0 2102 2102 2044 2102 2102 2044 2044 2044 2102 2044 1989 2044 1989 1936 2044 1936 1989 1989 1989 2044 2044 2044 2044 1989 2044 1989 1989 0 0 0 0 0
    0 0 0 0 0 0 0 0 0 0 0 0 0 0 0 0 0 0 0 0 0 0 0 0 0 0 0 0 0 0 0 0 0 0 0 0 0 0 0 0 0 0 0 0 0 0 0 0 0 0 0 0 0 0 0 0 0 0 0 0 0 0 0 0 0 0 0 0 0 6133 5661 6133 6133 8177 8177 8177 6690 8177 7359 0 8177 0 0 0 0 0 0 0 8177 0 0 0 0 0 0 0 0 0 0 0 0 0 8177 0 0 9199 7359 0 0 0 7359 8177 8177 8177 5256 6133 5661 6133 6133 7359 6133 5661 5661 0 0 0 6133 5256 4329 4329 4088 6133 8177 8177 8177 8177 0 0 0 0 0 0 8177 6690 8177 5256 4329 6690 7359 6690 0 8177 0 7359 8177 0 8177 8177 8177 8177 8177 7359 8177 6690 6133 6133 5661 0 0 0 5256 5256 6690 7359 8177 8177 7359 6690 0 0 0 0 0 0 0 0 0 0 0 0 8177 0 0 8177 4599 5661 5661 5661 5256 5256 6133 6690 6690 7359 5661 6690 6133 6133 5661 4329 4329 4329 4599 4329 3504 0 3679 3679 3873 5256 6133 6133 6133 6690 0 8177 7359 0 4088 3345 4088 4088 3679 3504 4088 4329 4329 4599 4599 3873 3873 4329 5661 3679 3873 3504 4329 4088 4088 3679 3345 3504 3345 3199 3504 2943 2830 2830 2830 3066 3066 3066 3199 3066 3345 3199 3066 3345 3345 3066 0 0 0 0 0 0 87 0 0 0 399 393 0 1388 1291 0 0 0 2230 2164 2102 2164 2102 2102 2102 2102 2102 2102 2044 2044 1989 1989 2044 1989 2044 2044 1989 2044 2044 2044 2102 2044 2044 1989 1989 0 0 0 0 0
    0 0 0 0 0 0 0 0 0 0 0 0 0 0 0 0 0 0 0 0 0 0 0 0 0 0 0 0 0 0 0 0 0 0 0 0 0 0 0 0 0 0 0 0 0 0 0 0 0 0 0 0 0 0 0 0 0 0 0 0 0 0 0 0 0 0 0 0 0 6133 6133 6690 6690 8177 0 8177 7359 8177 7359 8177 8177 0 0 8177 0 0 0 0 6690 8177 0 0 0 0 0 0 0 0 0 0 0 0 0 0 0 0 0 8177 0 0 6690 0 8177 7359 5256 6690 5661 6133 6133 7359 6133 5661 5661 0 0 0 5661 4906 4088 4088 3873 5661 8177 8177 8177 7359 0 0 0 0 0 0 0 0 0 0 0 0 0 7359 0 8177 0 0 0 0 8177 8177 8177 8177 0 8177 8177 6690 6133 5661 5661 0 0 0 5661 5661 6690 6690 8177 8177 7359 6690 0 0 0 0 0 0 0 0 0 0 0 0 8177 0 0 7359 4329 4906 4906 5256 4906 4906 6133 6133 6133 6690 5661 6690 6133 5661 5661 4088 4088 3873 4088 3873 3199 0 3504 3504 3679 4599 5661 5661 5661 6133 8177 6690 6133 0 3504 3199 3873 3873 3504 3504 4088 4088 4329 4599 4329 3873 3873 4329 5256 3679 3679 3345 4088 4088 4088 3679 3345 3504 3345 3345 3504 2943 2943 2943 2830 2943 2725 2725 2830 2830 2943 2943 2943 3199 3199 2943 0 0 0 0 0 0 0 0 0 0 399 389 0 1415 1291 0 0 1936 2230 2230 2102 2230 2164 2102 2102 2102 2102 2044 2044 2044 2044 1989 2044 2044 2044 2044 2044 2044 2102 2044 2102 2044 2044 1989 1936 0 0 0 0 0
    0 0 0 0 0 0 0 0 0 0 0 0 0 0 0 0 0 0 0 0 0 0 0 0 0 0 0 0 0 0 0 0 0 0 0 0 0 0 0 0 0 0 0 0 0 0 0 0 0 0 0 0 0 0 0 0 0 0 0 0 0 0 0 0 0 0 0 0 0 6690 6690 6690 6690 8177 0 8177 7359 8177 7359 7359 7359 8177 8177 6690 7359 0 8177 0 5256 6133 0 0 0 0 0 0 0 0 0 0 0 0 0 0 0 0 0 0 0 0 6690 0 8177 8177 5256 6690 6133 6133 6133 7359 5661 5256 5661 0 8177 0 5661 4906 4088 4088 3873 5661 8177 8177 7359 6133 0 0 0 0 0 0 0 0 0 0 0 0 0 0 0 0 0 0 0 0 0 0 8177 8177 0 8177 8177 6690 5256 4906 5256 0 8177 3504 5661 5661 6690 6690 8177 8177 7359 6690 0 0 0 0 0 8177 0 0 0 0 0 0 0 0 0 7359 4088 4906 4906 4906 4906 4906 5661 6133 6133 6690 5661 6133 5661 5661 5256 4088 3873 3679 3679 3504 3066 3066 3504 3504 3504 4906 5661 6133 5661 5661 6690 5661 5256 8177 2943 2943 3504 3504 3345 3504 4088 4329 4329 4599 4329 4088 3873 4329 4906 3504 3504 3345 4088 3873 3873 3679 3504 3504 3504 3345 3679 2943 3066 2943 2830 2943 2628 2628 2725 2725 2830 2725 2830 3066 3066 2943 0 0 0 0 0 0 0 0 0 0 397 385 0 1415 1314 0 0 2044 2299 2230 2164 2230 2164 2164 2044 2102 2102 2044 2044 2044 2044 1989 2102 2102 2044 2102 2044 2102 2102 2044 2102 2044 2044 1989 1936 0 0 0 0 0
    0 0 0 0 0 0 0 0 0 0 0 0 0 0 0 0 0 0 0 0 0 0 0 0 0 0 0 0 0 0 0 0 0 0 0 0 0 0 0 0 0 0 0 0 0 0 0 0 0 0 0 0 0 0 0 0 0 0 0 0 0 0 0 0 0 0 0 0 0 6690 7359 7359 7359 0 0 8177 7359 0 6690 6690 6133 6690 6133 5256 6133 0 6133 7359 4088 0 0 0 0 0 0 0 0 0 0 0 629 0 0 0 0 0 0 645 0 0 0 0 0 8177 5661 6690 6133 6133 5661 6690 5256 4906 5256 0 0 0 5256 4906 4329 4088 3679 4599 0 0 0 0 0 0 0 0 87 0 0 0 0 0 651 651 669 687 681 0 0 0 0 0 0 0 0 0 0 0 8177 6690 4906 4088 4599 7359 7359 3504 5661 5256 6133 6690 8177 8177 7359 6690 0 0 0 0 0 0 0 0 0 0 0 0 0 0 0 7359 4329 5256 4906 5256 5256 4906 5661 6133 6133 6690 5256 6133 5256 5256 4906 4088 3873 3504 3504 3345 3066 3066 3504 3504 3504 4906 6133 6133 5661 5661 6690 5256 4599 7359 2830 2628 3066 3199 3066 3345 3873 4329 4599 4599 4599 4088 3873 4599 4906 3679 3504 3345 4088 4088 3873 3504 3345 3345 3504 3345 3504 2943 2943 2830 2830 2725 2537 2453 2537 2725 2830 2628 2725 3066 3066 0 0 0 0 0 0 0 0 0 0 0 0 379 0 0 0 0 0 2164 2374 2299 2164 2299 2164 2164 2044 2102 2044 2044 1989 2044 2102 1989 2102 2102 2102 2102 2044 2102 2102 2044 2102 2044 2044 2044 1989 0 0 0 0 0
    0 0 0 0 0 0 0 0 0 0 0 0 0 0 0 0 0 0 0 0 0 0 0 0 0 0 0 0 0 0 0 0 0 0 0 0 0 0 0 0 0 0 0 0 0 0 0 0 0 0 0 0 0 0 0 0 0 0 0 0 0 0 0 0 0 0 0 0 0 6690 0 0 0 0 0 0 0 0 0 584 0 5256 3873 3345 3679 5256 4329 4906 3504 0 0 7359 0 130 0 0 0 0 0 623 623 623 634 639 645 0 645 645 634 0 0 0 0 8177 5661 6690 5661 5661 5256 5661 4599 4329 4906 0 0 6690 5256 4599 4329 4088 3504 0 0 0 0 0 0 0 0 0 87 0 0 645 639 645 645 645 657 681 675 0 0 0 629 0 0 0 0 0 0 0 0 0 4088 0 4088 6133 6133 3504 5256 5256 6133 6133 7359 8177 7359 6690 0 0 0 0 0 0 0 0 0 0 0 0 0 0 8177 6690 4329 4906 4599 4599 4906 4906 5256 5256 5256 6690 5256 6133 5256 5256 4906 4088 3679 3504 3345 3199 3066 3066 3345 3199 3345 4906 5661 5661 5256 5256 6133 4599 4088 5661 2725 2453 2943 3199 3066 3345 3679 4329 4599 4599 4599 4088 3873 4906 4906 3873 3679 3345 4088 4088 4088 3504 3504 3345 3504 3345 3504 2943 2943 2830 2725 2725 2453 2299 2453 2537 2725 2453 2628 2943 3066 0 0 0 0 0 0 0 0 0 0 0 0 0 0 0 0 0 0 2299 2374 2374 2164 2374 2164 2164 2044 2044 1989 2044 1989 1989 2102 1989 2102 2102 2102 2102 2044 2102 2102 2044 2102 2044 2044 2044 1989 0 0 0 0 0
    0 0 0 0 0 0 0 0 0 0 0 0 0 0 0 0 0 0 0 0 0 0 0 0 0 0 0 0 0 0 0 0 0 0 0 0 0 0 0 0 0 0 0 0 0 0 0 0 0 0 0 0 0 0 0 0 0 0 0 0 0 0 0 0 0 0 0 0 0 6690 0 0 0 0 0 0 0 0 0 593 598 0 0 0 0 0 3199 3345 0 0 0 0 0 130 0 0 0 0 623 623 623 623 634 634 639 651 645 639 634 623 623 0 0 0 6133 6690 5661 5256 4599 0 4088 3873 0 0 0 0 0 0 0 0 651 651 669 663 639 0 645 618 623 623 0 0 645 639 639 639 645 645 651 669 669 639 651 623 634 639 634 0 0 0 0 0 0 0 0 0 0 0 5661 3504 5256 5256 6133 6133 7359 0 0 6133 0 0 0 0 0 0 0 128 0 0 0 0 669 0 7359 6133 4088 4906 4329 4329 4088 4329 4599 4599 4329 6690 5256 6133 5256 5256 4906 4088 3679 3504 3345 3199 3066 0 3199 0 0 4599 5661 5661 5256 4906 5661 4088 3679 4906 2628 2102 2725 3066 2943 3345 3679 4599 4599 4599 4599 4329 3873 5256 4906 4088 3679 3345 4088 4088 4088 3504 3504 3345 3504 3345 3504 2943 2943 2830 2725 2628 2299 2164 2374 2453 2537 2374 2537 0 0 0 0 0 0 0 0 0 0 0 0 0 0 0 0 0 0 0 0 2374 2453 2299 2164 2374 2230 2164 2044 2044 1989 2044 1989 1989 2102 1989 2102 2102 2102 2102 2044 2102 2102 2044 2102 1989 1989 1989 1936 0 0 0 0 0
    0 0 0 0 0 0 0 0 0 0 0 0 0 0 0 0 0 0 0 0 0 0 0 0 0 0 0 0 0 0 0 0 0 0 0 0 0 0 0 0 0 0 0 0 0 0 0 0 0 0 0 0 0 0 0 0 0 0 0 0 0 0 0 0 0 0 0 0 0 639 645 639 634 629 629 639 629 629 618 613 618 629 623 629 629 623 623 623 0 0 0 0 0 0 0 629 618 623 623 623 623 623 634 634 639 651 645 639 634 623 623 0 0 0 6690 6133 4906 0 0 0 0 0 0 0 0 0 0 645 651 645 639 639 663 657 645 663 645 623 629 629 623 629 639 634 634 639 639 639 645 663 663 639 651 629 639 645 639 634 629 634 639 639 657 0 645 639 645 651 0 0 5256 4906 5661 5661 0 0 0 0 0 0 541 537 0 0 0 0 0 618 0 639 663 694 0 0 0 4906 4329 4088 3679 3873 3873 3873 3873 6133 4906 6133 5256 5256 4906 4088 3873 3345 3199 0 0 0 0 0 0 0 6133 5661 5256 4906 5256 3873 3345 0 2453 1936 0 2725 2830 3345 3873 4906 4906 5256 4906 4906 4329 5661 5256 4329 3679 0 4088 3873 3873 3345 3345 3345 3504 3345 3345 2943 2943 2725 0 2628 2230 2164 2299 2453 2628 2374 2537 0 0 0 0 0 0 0 0 0 0 0 0 0 613 0 0 0 0 0 0 2453 2453 2299 2230 2453 2299 2230 2102 2102 2044 2102 2044 1989 2102 1989 2102 2102 2102 2102 2044 2044 2102 1989 2102 1989 1936 1936 1887 0 0 0 0 0
    0 0 0 0 0 0 0 0 0 0 0 0 0 0 0 0 0 0 0 0 0 0 0 0 0 0 0 0 0 0 0 0 0 0 0 0 0 0 0 0 0 0 0 0 0 0 0 0 0 0 0 0 0 0 0 0 0 0 0 0 0 0 0 0 0 0 0 0 0 645 645 645 639 634 634 645 634 639 634 629 634 634 629 634 629 629 629 629 634 634 629 634 623 623 618 623 613 618 623 623 623 623 634 634 634 651 645 639 634 629 629 623 623 0 0 0 0 0 0 0 0 0 639 629 0 634 629 639 639 639 634 634 657 657 645 663 645 629 634 629 623 623 634 634 634 634 634 634 645 657 663 639 651 629 645 651 645 639 634 634 639 634 645 634 634 634 639 645 639 645 0 0 0 0 0 618 588 574 574 561 553 549 553 0 0 0 634 618 623 639 663 687 675 681 681 0 0 3679 3199 3345 3504 0 0 0 4906 6133 4906 5256 4906 4599 3873 0 0 0 0 0 0 0 0 0 0 6133 5661 5256 5256 3679 0 0 2374 1887 0 0 2453 3345 4088 5661 5661 6133 6133 6133 5256 6690 6133 5256 3873 0 3873 3679 3504 3199 3345 3199 3345 3345 3345 2830 2943 2830 0 0 0 2299 0 2537 2725 2537 2628 0 0 0 0 0 0 0 0 0 0 0 0 629 618 608 0 0 0 0 2102 2453 2374 2299 2230 2453 2299 2230 2164 2164 2044 2164 2102 2044 2102 1989 2102 2102 2102 2102 2044 2044 2102 1989 2164 1989 1936 1936 1887 0 0 0 0 0
    0 0 0 0 0 0 0 0 0 0 0 0 0 0 0 0 0 0 0 0 0 0 0 0 0 0 0 0 0 0 0 0 0 0 0 0 0 0 0 0 0 0 0 0 0 0 0 0 0 0 0 0 0 0 0 0 0 0 0 0 0 0 0 0 0 0 0 0 0 645 645 639 639 634 634 645 634 639 634 629 634 634 629 634 634 629 629 629 634 629 629 634 629 623 618 618 618 618 623 623 623 629 634 634 639 645 639 634 634 634 634 629 634 639 639 639 651 669 669 675 657 645 645 629 629 634 629 634 634 634 634 634 651 651 639 651 634 623 629 629 623 629 639 634 639 639 639 639 645 663 663 639 651 634 645 651 651 639 639 639 645 639 645 634 634 634 639 645 639 639 645 645 639 639 639 623 598 608 613 603 593 584 588 0 0 634 634 623 629 634 663 687 669 681 675 663 675 0 0 0 3199 0 0 0 5256 5661 4906 6133 5661 5661 4906 0 0 0 0 0 0 623 623 0 0 0 0 0 0 0 157 157 0 0 0 0 0 0 0 5661 6133 6690 6690 6690 6133 7359 6690 6133 4329 0 0 3504 3345 3066 3199 3066 3199 0 0 0 0 0 0 0 0 0 623 618 0 0 2725 0 0 0 0 0 0 0 0 0 0 639 623 634 623 618 623 623 0 0 2164 2374 2374 2230 2164 2537 2230 2230 2230 2164 2044 2230 2164 2044 2102 2044 2102 2102 2102 2102 2044 2044 2102 1989 2164 1936 1936 1989 1887 0 0 0 0 0
    0 0 0 0 0 0 0 0 0 0 0 0 0 0 0 0 0 0 0 0 0 0 0 0 0 0 0 0 0 0 0 0 0 0 0 0 0 0 0 0 0 0 0 0 0 0 0 0 0 0 0 0 0 0 0 0 0 0 0 0 0 0 0 0 0 0 0 0 0 639 639 639 634 634 629 639 629 634 629 629 634 634 629 634 629 629 629 629 634 629 629 639 629 629 623 618 618 623 623 623 623 629 634 634 639 645 639 634 639 634 639 634 639 639 645 645 651 663 669 675 651 645 651 629 634 634 629 634 634 634 634 634 651 651 639 657 634 629 629 629 623 629 639 639 639 645 645 645 645 663 663 639 651 634 645 645 645 639 639 639 645 634 645 634 634 634 639 639 639 634 639 645 639 639 634 618 603 613 618 618 613 608 613 629 629 639 639 629 634 639 663 687 669 681 675 663 675 675 669 0 0 0 0 0 4906 5256 4906 6690 0 0 0 0 0 0 634 639 634 629 629 623 0 603 588 588 584 0 157 158 0 157 156 0 0 0 0 0 0 0 0 0 7359 8177 8177 0 0 0 0 0 3199 2943 3066 2830 0 0 0 0 0 0 639 623 0 639 634 623 618 0 0 0 0 0 0 0 0 623 618 623 613 634 613 629 618 613 618 618 618 0 2164 2299 2230 2164 2102 2537 2164 2230 2299 2299 2102 2299 2230 2102 2164 2044 2164 2102 2044 2102 2044 2044 2164 1989 2164 1936 1936 1989 1936 0 0 0 0 0
    0 0 0 0 0 0 0 0 0 0 0 0 0 0 0 0 0 0 0 0 0 0 0 0 0 0 0 0 0 0 0 0 0 0 0 0 0 0 0 0 0 0 0 0 0 0 0 0 0 0 0 0 0 0 0 0 0 0 0 0 0 0 0 0 0 0 0 0 0 634 634 629 629 629 629 634 623 629 623 623 629 623 623 629 629 629 629 623 634 629 629 639 634 629 623 623 623 629 629 629 629 623 634 634 639 639 639 634 639 634 639 634 639 639 645 639 645 657 663 669 651 645 651 629 634 639 634 634 634 639 639 639 657 663 639 663 639 629 634 629 618 629 639 639 639 645 645 639 645 663 657 639 651 634 645 645 645 639 639 634 639 629 634 629 634 634 634 639 634 634 639 645 645 639 639 623 613 623 623 623 623 618 618 634 634 639 639 634 639 639 657 681 669 675 675 669 681 675 675 681 669 657 657 645 0 0 0 0 0 639 634 639 645 645 634 639 639 629 634 634 623 608 603 603 598 0 158 158 158 157 156 0 623 0 0 639 629 634 634 629 629 629 629 629 618 629 613 618 0 2943 0 0 579 566 553 0 0 634 629 618 629 634 634 629 623 618 0 0 0 0 618 623 623 618 618 618 608 623 608 613 608 603 608 608 618 623 0 2164 2102 2044 2044 2453 2164 0 0 0 0 0 2374 2164 2164 0 2164 2102 2044 0 1989 2044 2102 1989 2230 1887 1989 2044 1936 0 0 0 0 0
    0 0 0 0 0 0 0 0 0 0 0 0 0 0 0 0 0 0 0 0 0 0 0 0 0 0 0 0 0 0 0 0 0 0 0 0 0 0 0 0 0 0 0 0 0 0 0 0 0 0 0 0 0 0 0 0 0 0 0 0 0 0 0 0 0 0 0 0 0 629 623 623 623 629 623 629 618 623 618 613 623 618 618 618 623 613 618 613 623 618 623 629 629 623 623 623 629 629 634 629 629 629 634 634 639 639 634 634 634 629 634 629 634 634 639 639 645 651 663 669 651 645 657 634 634 645 634 639 639 645 645 645 669 669 645 669 639 634 634 634 618 629 634 634 639 645 639 639 645 657 657 645 657 639 645 645 645 634 639 634 639 629 634 629 634 634 639 639 634 634 639 645 639 634 629 618 613 618 618 618 623 618 623 639 639 645 645 639 645 645 663 681 669 681 681 675 681 681 675 687 663 651 639 634 645 634 639 629 645 634 634 639 645 645 639 645 645 634 645 645 634 623 618 618 613 0 0 0 0 0 0 629 629 629 0 639 629 634 634 634 629 629 629 634 623 639 618 623 623 0 0 0 608 608 603 608 613 634 634 623 634 634 634 629 629 623 0 0 0 623 623 623 623 618 618 623 608 618 603 608 603 603 598 603 608 608 603 0 1989 0 0 0 0 0 0 0 0 0 0 0 0 0 0 0 0 0 0 0 2044 0 0 0 1989 2230 1989 0 0 0 0 0
    0 0 0 0 0 0 0 0 0 0 0 0 0 0 0 0 0 0 0 0 0 0 0 0 0 0 0 0 0 0 0 0 0 0 0 0 0 0 0 0 0 0 0 0 0 0 0 0 0 0 0 0 0 0 0 0 0 0 0 0 0 0 0 0 0 0 0 0 0 623 0 618 618 623 613 0 608 608 603 598 608 603 603 608 613 598 603 598 608 608 618 623 623 623 623 623 629 634 639 634 634 629 629 629 634 629 629 623 623 618 618 618 623 623 629 623 629 645 657 663 645 645 657 629 639 645 634 639 639 651 651 645 669 669 645 669 634 629 629 629 618 629 634 634 634 639 639 634 639 651 651 639 651 634 639 639 639 634 634 634 639 629 634 629 634 634 639 639 639 634 645 645 639 629 623 613 613 618 618 618 618 618 623 639 639 645 645 645 645 651 663 681 669 681 681 675 681 681 669 687 657 645 634 629 639 629 634 629 645 634 634 639 645 651 639 645 645 639 651 651 639 629 623 629 618 618 613 613 618 618 618 629 629 634 634 639 629 639 634 639 634 634 634 634 629 657 623 629 629 629 618 618 618 618 618 618 618 645 639 623 634 639 634 634 634 629 618 0 0 623 623 623 623 618 613 618 608 618 603 603 598 598 593 598 598 598 588 603 0 0 618 645 634 0 0 0 618 608 603 603 603 598 593 579 561 549 0 0 0 0 0 0 0 0 1989 0 0 0 0 0
    0 0 0 0 0 0 0 0 0 0 0 0 0 0 0 0 0 0 0 0 0 0 0 0 0 0 0 0 0 0 0 0 0 0 0 0 0 0 0 0 0 0 0 0 0 0 0 0 0 0 0 0 0 0 0 0 0 0 0 0 0 0 0 0 0 0 0 0 0 618 0 0 608 613 603 0 593 593 584 579 588 593 588 598 603 588 593 593 603 603 608 618 623 623 623 623 629 634 639 634 634 623 618 623 623 618 613 0 0 598 598 603 608 608 618 613 613 634 651 657 645 639 663 629 634 645 634 639 639 645 645 639 669 663 634 657 623 618 618 618 613 618 623 623 623 629 629 629 629 639 639 629 645 634 634 634 634 629 634 629 639 629 634 634 639 634 639 639 639 634 645 645 639 629 623 613 613 618 618 618 623 618 623 639 639 645 645 645 645 651 663 681 669 681 675 675 675 675 663 681 651 639 634 634 639 639 645 634 651 639 639 645 651 651 645 645 645 639 651 657 645 634 623 634 623 623 618 618 618 623 623 629 629 629 634 634 623 639 634 634 634 634 634 634 629 657 623 634 634 634 629 623 629 629 634 639 623 663 645 623 634 634 634 629 634 629 0 0 623 623 623 623 623 618 613 623 613 618 603 603 603 603 593 598 598 598 593 598 593 593 598 623 623 613 618 613 613 608 608 608 608 603 598 593 579 557 549 553 0 0 0 593 593 603 608 0 0 0 0 0
    0 0 0 0 0 0 0 0 0 0 0 0 0 0 0 0 0 0 0 0 0 0 0 0 0 0 0 0 0 0 0 0 0 0 0 0 0 0 0 0 0 0 0 0 0 0 0 0 0 0 0 0 0 0 0 0 0 0 0 0 0 0 0 0 0 0 0 0 0 0 0 0 598 603 588 588 584 584 570 570 570 579 574 588 593 579 584 593 598 598 608 613 618 618 618 618 623 629 634 629 629 618 0 618 0 0 603 598 584 588 588 593 598 603 608 608 608 629 639 651 639 634 657 629 634 639 634 639 639 645 645 639 663 657 634 645 618 608 613 608 603 0 618 613 613 618 618 0 618 629 629 618 634 629 629 629 629 623 629 629 639 623 634 634 639 639 639 639 639 634 645 639 634 0 613 608 603 613 608 613 618 618 623 634 639 645 639 651 645 651 669 681 669 681 675 681 681 669 657 681 645 639 629 634 639 634 645 0 657 639 639 645 645 651 645 645 645 639 651 651 645 639 629 634 623 623 623 618 623 623 623 629 629 634 634 634 623 634 634 634 629 634 634 629 629 657 618 634 639 645 634 629 639 639 645 651 629 669 645 623 634 634 629 629 634 629 0 0 623 623 623 623 623 618 618 623 613 613 603 598 598 593 588 598 593 593 593 593 593 593 598 618 613 608 613 608 603 603 608 603 603 603 598 588 584 570 561 557 570 579 579 584 588 598 598 0 0 0 0 0
    0 0 0 0 0 0 0 0 0 0 0 0 0 0 0 0 0 0 0 0 0 0 0 0 0 0 0 0 0 0 0 0 0 0 0 0 0 0 0 0 0 0 0 0 0 0 0 0 0 0 0 0 0 0 0 0 0 0 0 0 0 0 0 0 0 0 0 0 0 0 0 0 0 598 574 574 574 570 561 561 561 566 561 579 584 570 574 588 593 598 603 613 613 618 613 613 618 623 629 623 623 618 608 613 608 598 588 588 570 574 579 579 584 593 593 593 598 618 634 634 629 623 634 623 623 634 629 634 634 645 645 639 657 645 623 629 613 598 603 598 588 598 608 603 608 608 608 608 608 618 613 608 623 618 623 618 623 618 623 623 639 623 634 634 639 639 639 639 634 629 634 629 618 0 598 593 593 603 603 608 613 613 623 634 634 639 639 651 645 651 669 681 669 675 675 675 675 657 651 687 639 639 629 629 634 623 0 0 645 629 634 639 639 645 639 645 651 639 657 651 645 639 629 634 623 623 623 623 623 623 623 629 634 634 634 634 623 634 634 629 629 629 629 629 623 657 613 629 639 645 629 629 634 634 639 634 623 657 639 623 629 629 629 629 629 623 613 618 623 623 623 623 623 613 613 623 608 603 598 593 588 588 588 593 588 588 593 598 593 603 603 613 608 603 608 598 603 603 603 598 598 598 598 588 579 570 566 561 574 574 574 579 584 593 588 0 0 0 0 0
    0 0 0 0 0 0 0 0 0 0 0 0 0 0 0 0 0 0 0 0 0 0 0 0 0 0 0 0 0 0 0 0 0 0 0 0 0 0 0 0 0 0 0 0 0 0 0 0 0 0 0 0 0 0 0 0 0 0 0 0 0 0 0 0 0 0 0 0 0 0 0 0 579 584 561 566 566 561 557 557 557 561 557 570 570 557 566 584 584 588 598 613 613 613 608 613 613 618 629 618 618 613 598 603 584 584 570 570 557 561 566 570 574 584 579 584 584 613 618 618 0 613 618 613 618 623 618 623 629 634 639 634 639 634 618 618 603 593 593 588 570 588 598 593 598 603 603 598 598 608 608 603 613 613 613 608 618 613 618 618 634 623 629 634 634 634 634 634 629 623 623 613 0 0 579 574 579 588 588 598 608 603 623 629 629 634 634 645 645 639 657 663 639 663 657 663 651 634 639 681 639 639 623 623 623 0 0 0 629 623 629 634 634 639 639 645 645 639 657 651 645 639 629 634 623 629 623 623 623 623 623 634 634 634 629 634 623 634 629 629 623 623 623 629 623 651 613 623 645 651 623 623 629 623 623 618 613 639 629 618 623 623 623 623 629 623 613 618 618 618 618 618 618 613 603 613 598 598 593 593 584 584 584 588 584 588 588 593 588 598 598 608 603 603 603 598 598 603 603 598 598 598 588 584 570 566 561 557 566 566 566 570 570 584 574 0 0 0 0 0
    0 0 0 0 0 0 0 0 0 0 0 0 0 0 0 0 0 0 0 0 0 0 0 0 0 0 0 0 0 0 0 0 0 0 0 0 0 0 0 0 0 0 0 0 0 0 0 0 0 0 0 0 0 0 0 0 0 0 0 0 0 0 0 0 0 0 0 0 0 574 570 574 566 570 553 557 561 557 557 557 557 557 553 566 566 553 557 574 574 579 588 603 603 603 603 608 613 618 623 618 613 608 584 588 557 561 557 557 549 553 561 561 566 574 570 570 574 603 608 603 0 598 598 603 603 613 608 618 623 623 623 623 623 618 608 613 593 584 588 579 561 579 593 584 588 593 593 593 593 603 603 593 603 603 603 598 608 608 608 608 618 618 629 629 629 629 623 623 623 618 618 603 0 570 574 570 574 579 579 584 598 593 623 623 623 629 629 639 634 629 634 623 613 623 623 629 618 613 623 634 608 623 608 608 613 0 0 584 613 613 618 623 629 634 639 639 645 639 657 651 645 645 629 634 629 629 629 623 623 623 623 634 634 634 629 629 623 629 623 618 618 618 618 618 613 629 608 613 629 645 618 618 623 618 618 613 608 629 623 613 618 618 618 618 623 618 608 613 618 613 613 613 613 608 603 608 598 593 588 588 584 584 584 588 574 579 579 584 574 588 579 593 593 598 603 603 603 598 608 593 598 593 584 579 561 561 557 553 557 557 557 557 557 566 553 0 0 0 0 0
    0 0 0 0 0 0 0 0 0 0 0 0 0 0 0 0 0 0 0 0 0 0 0 0 0 0 0 0 0 0 0 0 0 0 0 0 0 0 0 0 0 0 0 0 0 0 0 0 0 0 0 0 0 0 0 0 0 0 0 0 0 0 0 0 0 0 0 0 0 566 561 566 557 561 549 557 557 557 553 557 557 557 553 566 561 553 557 574 570 579 588 603 598 598 598 603 608 613 0 608 593 588 561 566 549 553 553 557 549 553 557 561 561 566 566 561 566 588 593 584 584 584 584 588 588 598 598 603 608 608 608 613 608 608 598 603 588 574 579 566 553 574 584 574 579 584 584 584 588 603 593 588 598 593 593 593 598 598 593 598 603 608 623 623 629 623 623 623 618 618 618 598 598 561 574 566 570 574 574 579 593 588 618 613 618 618 618 629 623 618 613 603 598 603 598 603 593 593 598 598 588 593 584 588 579 561 574 566 593 598 608 613 618 623 629 634 639 634 645 645 639 639 629 629 623 623 623 618 623 623 623 629 629 629 623 623 618 618 618 613 608 608 608 608 603 608 603 598 608 613 593 598 608 603 603 598 598 623 618 608 613 613 608 613 613 613 598 603 608 608 608 613 608 608 598 608 598 588 588 588 584 584 579 584 566 561 566 566 553 566 557 570 579 584 593 598 588 593 598 593 588 588 570 570 553 557 553 549 553 549 549 549 549 553 545 0 0 0 0 0
    0 0 0 0 0 0 0 0 0 0 0 0 0 0 0 0 0 0 0 0 0 0 0 0 0 0 0 0 0 0 0 0 0 0 0 0 0 0 0 0 0 0 0 0 0 0 0 0 0 0 0 0 0 0 0 0 0 0 0 0 0 0 0 0 0 0 0 0 0 561 553 557 553 557 549 557 557 557 557 557 557 557 553 566 557 553 557 570 566 570 584 598 593 0 593 598 593 598 593 598 584 579 561 561 553 553 553 557 549 553 557 557 561 561 561 557 557 574 579 566 566 561 566 561 561 570 579 584 584 579 588 584 593 593 584 588 574 566 574 561 549 566 574 566 570 574 579 574 579 593 584 579 588 584 579 579 588 584 584 588 588 603 623 623 629 623 618 618 613 613 613 588 588 557 570 566 570 574 570 570 588 584 613 608 613 613 613 618 613 603 603 588 579 584 574 579 574 579 574 579 574 570 570 579 566 557 566 561 584 588 598 603 608 613 623 623 634 629 634 629 629 629 618 618 613 618 618 618 618 618 618 623 623 623 618 618 618 613 608 603 598 603 603 598 593 593 593 584 593 593 566 570 584 574 584 579 584 613 608 598 603 603 598 603 608 603 593 598 603 603 603 608 608 603 598 608 598 593 588 593 584 579 579 584 557 553 557 557 549 557 553 557 561 574 579 584 574 574 579 579 574 574 549 557 549 553 549 549 545 545 541 541 541 541 537 0 0 0 0 0
    0 0 0 0 0 0 0 0 0 0 0 0 0 0 0 0 0 0 0 0 0 0 0 0 0 0 0 0 0 0 0 0 0 0 0 0 0 0 0 0 0 0 0 0 0 0 0 0 0 0 0 0 0 0 0 0 0 0 0 0 0 0 0 0 0 0 0 0 0 566 553 553 553 557 549 557 557 557 557 557 557 557 553 570 557 553 557 570 561 566 579 593 588 0 584 588 584 588 588 593 588 579 566 570 557 557 557 561 549 553 557 557 557 561 557 557 557 566 570 557 557 557 561 557 557 557 561 557 553 553 557 553 566 570 566 574 566 557 566 557 549 561 566 561 566 570 570 570 570 588 570 570 584 574 570 570 574 570 570 570 561 574 613 613 618 613 613 613 608 608 603 588 588 557 570 566 566 566 561 566 579 574 608 603 608 608 608 613 608 598 593 579 570 579 566 566 566 570 561 566 566 561 566 570 553 557 557 557 570 579 584 593 593 603 613 613 623 618 623 613 613 613 598 603 598 608 613 613 618 613 613 618 613 613 608 608 608 598 598 593 588 593 593 588 584 584 584 574 584 584 557 557 557 557 557 561 570 593 593 588 593 598 584 593 598 593 584 593 593 593 593 603 603 598 598 608 598 588 588 593 584 579 579 579 557 553 557 557 553 557 557 557 561 574 579 579 570 570 566 570 566 561 541 549 541 549 549 549 549 545 545 545 545 549 537 0 0 0 0 0
    0 0 0 0 0 0 0 0 0 0 0 0 0 0 0 0 0 0 0 0 0 0 0 0 0 0 0 0 0 0 0 0 0 0 0 0 0 0 0 0 0 0 0 0 0 0 0 0 0 0 0 0 0 0 0 0 0 0 0 0 0 0 0 0 0 0 0 0 0 561 553 553 553 557 549 557 557 557 557 557 561 561 553 579 557 553 553 570 561 566 584 593 588 588 579 588 584 588 584 588 588 579 566 574 561 561 557 561 549 549 557 557 557 557 557 553 553 561 566 553 553 557 557 553 553 549 553 549 545 545 549 545 557 561 566 570 566 557 566 557 549 561 561 557 561 566 566 566 566 588 561 566 574 566 561 561 561 561 561 561 553 557 566 588 598 593 598 598 598 603 593 579 579 553 566 561 561 561 557 557 570 566 603 593 598 598 598 603 603 588 584 570 566 570 561 561 561 566 557 561 557 553 557 561 549 553 553 553 561 566 574 579 579 593 603 603 613 608 608 598 588 598 579 584 574 593 603 608 613 608 603 608 603 598 593 588 593 570 584 579 574 579 584 579 579 574 584 570 574 579 557 557 553 553 553 557 561 574 584 579 579 584 566 584 588 584 574 584 588 588 588 603 598 598 598 608 593 588 588 588 574 570 570 570 553 549 557 557 553 561 557 557 561 570 579 574 570 570 561 566 561 557 541 541 537 549 549 549 549 549 549 549 549 553 541 0 0 0 0 0
    0 0 0 0 0 0 0 0 0 0 0 0 0 0 0 0 0 0 0 0 0 0 0 0 0 0 0 0 0 0 0 0 0 0 0 0 0 0 0 0 0 0 0 0 0 0 0 0 0 0 0 0 0 0 0 0 0 0 0 0 0 0 0 0 0 0 0 0 0 557 549 549 549 557 549 557 557 557 557 561 561 561 557 584 557 553 553 566 557 557 579 579 0 0 0 584 574 588 579 584 584 574 561 570 557 557 557 561 549 549 557 557 557 557 557 553 553 557 566 553 553 557 557 553 553 549 553 549 545 545 549 545 557 561 566 570 566 557 566 557 545 561 561 557 561 561 566 566 566 588 557 561 566 561 557 561 561 561 566 561 553 553 553 557 566 561 570 574 584 588 579 570 574 549 561 557 557 557 557 557 566 561 593 574 579 584 584 588 593 579 574 566 561 566 561 561 561 561 553 557 553 549 553 553 545 549 553 553 557 561 566 570 570 584 593 593 603 598 588 579 566 579 561 566 557 574 584 598 603 598 593 593 588 584 574 574 579 557 570 566 566 570 574 574 570 566 579 570 570 574 561 561 557 553 557 557 561 566 566 566 561 566 553 566 570 570 566 574 579 579 584 598 593 588 593 603 584 574 574 574 566 557 561 553 545 545 553 553 553 561 557 557 561 570 579 570 566 566 557 561 561 553 541 537 525 545 545 545 545 541 545 545 545 545 537 0 0 0 0 0
    0 0 0 0 0 0 0 0 0 0 0 0 0 0 0 0 0 0 0 0 0 0 0 0 0 0 0 0 0 0 0 0 0 0 0 0 0 0 0 0 0 0 0 0 0 0 0 0 0 0 0 0 0 0 0 0 0 0 0 0 0 0 0 0 0 0 0 0 0 0 545 545 549 557 549 557 557 557 557 561 561 561 557 584 557 553 553 561 553 553 574 566 0 570 0 0 570 584 579 574 579 566 557 557 553 553 553 557 549 549 557 553 553 553 557 553 553 557 561 549 549 553 557 553 553 549 553 553 549 549 553 549 561 557 566 566 561 553 561 553 545 561 561 561 561 566 566 566 566 593 557 561 566 561 557 561 566 566 570 561 553 553 549 549 553 549 553 557 566 579 570 566 574 549 561 557 557 557 553 553 561 561 588 570 574 574 574 579 588 574 566 561 561 566 561 561 561 561 553 557 553 549 549 553 545 549 553 553 553 561 561 561 561 574 584 579 588 584 566 561 553 561 553 557 553 561 566 584 588 588 579 579 579 570 561 561 570 553 561 561 561 561 566 566 566 561 574 566 566 570 566 566 557 557 557 557 561 566 561 557 553 553 549 561 561 557 557 566 570 570 574 593 584 579 584 593 566 557 557 557 553 549 553 545 537 541 549 549 553 557 557 557 561 570 579 570 566 566 557 561 566 557 549 541 533 541 545 537 537 529 533 529 533 537 533 0 0 0 0 0
    0 0 0 0 0 0 0 0 0 0 0 0 0 0 0 0 0 0 0 0 0 0 0 0 0 0 0 0 0 0 0 0 0 0 0 0 0 0 0 0 0 0 0 0 0 0 0 0 0 0 0 0 0 0 0 0 0 0 0 0 0 0 0 0 0 0 0 0 0 557 549 545 549 553 549 557 557 557 557 561 566 561 557 588 561 557 557 566 553 557 574 561 566 570 566 570 561 574 566 566 570 557 553 553 553 549 553 553 549 549 557 553 553 553 557 553 553 553 561 549 549 553 553 549 549 549 557 553 553 553 553 549 561 557 561 557 561 553 561 553 545 561 561 561 561 566 566 561 566 593 549 557 557 557 557 561 566 566 570 561 553 553 549 549 553 549 553 557 566 579 570 570 574 549 557 557 557 557 553 557 561 557 584 570 570 570 574 574 584 570 566 561 561 566 557 561 561 561 553 557 553 553 553 557 545 549 553 553 553 561 561 561 561 574 579 570 584 579 561 557 553 557 553 553 545 553 557 570 579 579 574 574 570 566 557 561 566 549 557 557 557 561 561 561 561 557 570 566 561 561 561 570 557 553 553 557 561 566 561 557 553 553 545 561 557 557 557 561 566 566 566 588 566 566 561 561 545 545 545 545 545 541 541 541 537 541 549 549 553 557 557 557 561 570 579 570 566 561 557 561 561 553 549 537 525 518 521 518 518 514 514 511 514 525 525 0 0 0 0 0
    0 0 0 0 0 0 0 0 0 0 0 0 0 0 0 0 0 0 0 0 0 0 0 0 0 0 0 0 0 0 0 0 0 0 0 0 0 0 0 0 0 0 0 0 0 0 0 0 0 0 0 0 0 0 0 0 0 0 0 0 0 0 0 0 0 0 0 0 0 557 553 545 545 553 549 557 557 561 557 561 566 561 561 588 566 561 561 570 557 557 574 561 566 566 561 566 557 566 557 557 566 557 553 553 557 549 553 557 549 549 557 553 557 553 557 557 553 553 561 545 549 549 553 545 549 549 557 553 553 553 553 553 561 557 561 557 557 553 561 557 545 561 566 566 566 566 566 561 561 593 545 553 553 553 557 561 570 570 570 566 553 553 553 553 557 553 561 566 574 588 574 574 579 553 557 557 557 557 557 557 561 557 584 570 566 566 570 574 584 570 566 561 561 566 557 561 561 561 553 557 557 553 553 561 545 553 553 557 557 561 561 561 561 579 579 570 584 584 561 561 553 553 549 545 541 545 545 557 561 570 566 566 566 561 557 561 566 549 553 557 557 557 557 561 557 557 570 561 557 557 557 570 553 553 553 553 557 557 557 553 549 553 545 561 561 557 557 561 566 566 561 584 549 549 545 537 529 529 533 533 537 529 529 525 529 533 541 541 549 553 553 553 557 566 574 566 561 557 549 553 549 541 537 525 518 507 504 511 507 511 511 507 511 518 525 0 0 0 0 0
    0 0 0 0 0 0 0 0 0 0 0 0 0 0 0 0 0 0 0 0 0 0 0 0 0 0 0 0 0 0 0 0 0 0 0 0 0 0 0 0 0 0 0 0 0 0 0 0 0 0 0 0 0 0 0 0 0 0 0 0 0 0 0 0 0 0 0 0 0 557 553 545 545 553 549 561 561 561 557 561 566 566 561 593 566 561 557 570 553 557 566 553 557 561 557 561 557 566 557 561 570 561 557 561 561 553 553 561 549 549 557 553 557 553 557 557 553 553 557 545 549 549 553 545 0 553 0 557 557 553 557 553 566 557 561 557 557 549 566 557 549 566 566 566 566 566 566 557 561 593 541 545 549 549 557 561 579 574 579 570 561 561 561 561 561 561 570 566 579 598 574 579 579 549 557 557 557 557 557 557 561 557 584 574 566 566 570 574 579 570 566 561 557 561 557 561 561 561 553 557 557 553 553 561 545 553 557 557 557 561 566 561 561 584 579 570 584 579 561 557 549 545 541 537 533 537 537 549 553 561 561 561 557 557 553 561 561 549 557 561 557 557 557 561 557 557 570 561 557 557 557 574 557 549 549 549 549 553 553 553 549 553 545 566 561 561 561 566 566 566 561 579 545 545 537 529 521 521 525 525 529 525 521 518 525 525 533 537 541 549 549 553 557 561 570 557 553 549 541 541 537 529 529 521 514 514 504 514 511 511 518 511 511 521 525 0 0 0 0 0
    0 0 0 0 0 0 0 0 0 0 0 0 0 0 0 0 0 0 0 0 0 0 0 0 0 0 0 0 0 0 0 0 0 0 0 0 0 0 0 0 0 0 0 0 0 0 0 0 0 0 0 0 0 0 0 0 0 0 0 0 0 0 0 0 0 0 0 0 0 553 549 545 545 553 545 557 557 561 557 561 566 566 561 593 566 561 557 566 553 553 561 553 553 557 557 557 553 561 553 557 570 561 553 557 561 549 553 557 549 549 557 553 553 553 557 553 549 553 553 541 545 549 0 545 0 0 0 557 561 557 557 557 570 557 561 557 557 549 566 561 549 566 570 566 566 566 566 557 557 588 537 541 541 545 553 561 588 584 588 579 579 574 574 570 570 570 574 570 584 0 566 579 579 549 553 561 557 557 557 561 557 557 584 574 566 566 570 570 574 570 561 557 557 557 557 561 561 561 553 561 557 553 553 557 545 553 557 557 557 561 566 561 561 584 579 566 579 574 553 553 541 541 537 537 533 537 541 549 553 561 561 557 557 553 553 561 561 545 553 561 557 561 557 561 557 557 570 561 557 557 557 579 557 553 549 549 549 549 553 553 549 553 545 561 561 557 561 561 561 561 557 574 541 541 541 529 525 525 525 525 529 521 518 518 525 521 533 533 537 545 549 553 557 561 570 553 549 541 533 529 525 521 521 514 514 514 511 518 518 518 521 514 518 525 525 0 0 0 0 0
    0 0 0 0 0 0 0 0 0 0 0 0 0 0 0 0 0 0 0 0 0 0 0 0 0 0 0 0 0 0 0 0 0 0 0 0 0 0 0 0 0 0 0 0 0 0 0 0 0 0 0 0 0 0 0 0 0 0 0 0 0 0 0 0 0 0 0 0 0 545 545 541 541 549 545 557 557 557 557 561 561 566 561 593 566 557 557 566 553 553 561 549 549 553 553 553 553 553 549 545 557 553 545 545 549 541 549 553 549 549 557 553 553 553 557 557 553 553 553 541 541 549 0 545 0 553 561 561 561 561 561 557 574 557 566 561 557 553 570 566 549 570 570 566 566 566 566 557 557 584 537 541 541 549 553 566 588 588 593 579 584 579 579 579 579 579 588 579 0 0 0 588 584 553 553 561 557 557 557 561 557 557 579 579 566 570 566 566 574 566 561 557 553 557 557 561 561 561 553 561 553 553 549 553 541 549 553 553 553 561 561 561 561 584 579 566 579 584 553 553 541 537 537 537 533 537 537 549 553 561 557 557 557 553 549 561 561 549 553 561 561 561 557 561 557 557 570 561 557 557 561 579 561 557 549 549 549 549 549 549 549 549 545 557 557 557 557 561 561 557 557 570 541 541 541 529 525 525 521 521 525 521 518 514 525 521 529 533 537 545 549 557 557 561 570 549 545 533 525 525 518 514 518 514 518 518 514 521 518 521 521 521 521 525 529 0 0 0 0 0
    0 0 0 0 0 0 0 0 0 0 0 0 0 0 0 0 0 0 0 0 0 0 0 0 0 0 0 0 0 0 0 0 0 0 0 0 0 0 0 0 0 0 0 0 0 0 0 0 0 0 0 0 0 0 0 0 0 0 0 0 0 0 0 0 0 0 0 0 0 537 0 537 537 545 541 553 553 557 553 557 561 561 557 588 557 553 549 561 549 553 557 549 545 549 549 549 549 549 541 537 541 537 533 533 529 521 545 553 545 553 557 557 557 557 561 557 553 553 549 537 533 537 0 533 0 0 0 561 561 561 561 561 584 566 579 561 553 557 574 574 549 570 574 570 566 566 566 553 557 584 541 541 541 549 553 561 584 584 584 574 579 574 574 574 566 574 579 570 0 0 0 588 584 553 553 561 557 561 557 561 557 561 584 584 570 574 570 566 579 566 561 557 553 557 557 561 561 557 557 561 553 553 549 553 541 549 553 553 553 561 561 561 561 584 584 566 584 588 557 553 541 537 537 537 537 537 537 545 549 561 557 553 557 553 553 566 561 549 557 566 566 561 557 566 561 561 570 561 557 557 561 579 561 561 553 549 553 549 549 549 549 545 545 557 557 557 557 561 561 557 557 566 541 537 537 529 525 525 521 521 525 518 518 518 525 521 525 529 533 545 549 557 557 561 561 541 533 525 518 521 514 514 518 514 518 518 514 521 514 521 518 518 518 521 525 0 0 0 0 0</data></depth>
</opencv_storage>
