<?xml version="1.0"?>
<opencv_storage>
<gps_time_stamp>22292</gps_time_stamp>
<gps_x>-2.9501111507415771e+000</gps_x>
<gps_y>3.3127531409263611e-001</gps_y>
<gps_z>-2.3243829607963562e-001</gps_z>
<image_time_stamp>10264</image_time_stamp>
<depth type_id="opencv-matrix">
  <rows>90</rows>
  <cols>320</cols>
  <dt>s</dt>
  <data>
    0 0 0 0 0 0 0 0 0 0 0 0 0 0 0 0 0 0 0 0 0 0 0 0 0 0 0 0 0 0 0 0 0 0 0 0 0 0 0 0 0 0 0 0 0 0 0 0 0 0 0 0 0 0 0 0 0 0 0 0 0 0 0 0 0 0 0 0 0 553 553 557 561 557 557 553 549 553 549 549 537 537 537 533 0 0 525 521 518 533 0 545 549 545 545 545 545 545 537 537 537 541 545 545 549 553 553 557 557 553 549 553 553 553 549 553 549 545 553 553 557 553 549 549 549 549 545 537 545 541 541 541 545 0 545 545 545 537 549 553 545 557 553 557 553 557 561 553 553 561 549 0 541 541 541 541 541 541 541 0 541 541 545 545 545 545 545 549 541 549 545 533 549 549 545 549 549 553 545 549 557 545 545 549 549 553 549 557 557 553 549 553 553 549 549 549 545 541 537 537 529 521 525 525 518 0 0 0 0 545 545 545 549 557 549 549 549 553 545 549 545 541 541 541 549 549 545 545 545 545 541 537 533 537 533 537 537 537 541 541 545 545 545 0 0 549 549 541 549 549 553 545 549 553 557 553 553 545 545 545 545 549 545 541 529 533 533 533 533 533 529 525 525 529 511 507 504 504 497 500 504 504 500 497 500 500 497 518 493 490 487 487 484 477 474 477 474 468 465 465 481 484 490 490 490 493 493 490 493 487 500 500 511 497 0 0 0 0 0 0
    0 0 0 0 0 0 0 0 0 0 0 0 0 0 0 0 0 0 0 0 0 0 0 0 0 0 0 0 0 0 0 0 0 0 0 0 0 0 0 0 0 0 0 0 0 0 0 0 0 0 0 0 0 0 0 0 0 0 0 0 0 0 0 0 0 0 0 0 0 553 553 557 561 557 557 549 549 553 545 545 537 533 533 533 533 0 525 525 521 533 0 545 545 541 545 545 541 541 537 533 537 541 545 545 553 553 553 557 557 557 549 553 553 553 549 553 545 545 553 553 553 549 545 545 545 541 541 529 537 537 541 541 545 0 545 541 545 541 553 553 549 557 553 557 557 557 561 553 553 561 549 0 541 541 537 541 537 541 541 0 541 541 545 545 541 545 541 545 541 545 545 533 549 549 549 549 549 553 545 549 557 545 545 545 549 549 549 557 557 553 549 553 553 553 549 549 545 541 0 537 529 521 521 525 511 0 0 0 0 541 541 541 545 553 545 549 549 549 545 545 541 537 541 545 545 549 545 545 545 549 541 541 0 537 537 541 537 537 545 545 545 549 549 0 545 549 553 545 553 549 553 541 545 549 553 549 549 545 545 545 549 553 549 545 529 533 537 533 533 533 529 525 521 529 511 511 511 507 497 500 504 500 500 497 497 493 493 514 487 484 487 484 474 465 457 468 462 462 457 451 477 481 490 490 490 493 493 493 493 487 504 497 497 0 468 0 0 0 0 0
    0 0 0 0 0 0 0 0 0 0 0 0 0 0 0 0 0 0 0 0 0 0 0 0 0 0 0 0 0 0 0 0 0 0 0 0 0 0 0 0 0 0 0 0 0 0 0 0 0 0 0 0 0 0 0 0 0 0 0 0 0 0 0 0 0 0 0 0 0 557 553 557 561 557 557 549 549 553 541 541 533 529 529 529 529 529 525 525 521 533 0 545 545 541 541 545 545 545 541 537 541 545 549 549 553 557 557 557 557 557 549 553 553 549 549 549 545 545 549 549 549 545 541 541 541 537 537 0 537 537 537 541 545 0 545 549 549 541 557 557 549 557 553 557 557 557 561 553 553 561 549 0 541 541 537 541 537 541 541 0 541 541 545 545 541 541 541 545 541 549 545 537 549 553 549 549 549 553 545 549 557 545 545 545 549 549 549 557 553 553 545 553 553 553 549 545 545 541 0 541 529 525 525 525 514 0 533 533 533 537 537 541 541 549 545 545 545 549 545 545 541 537 541 545 549 545 545 545 545 545 541 537 0 0 0 541 541 537 545 545 549 549 549 549 545 549 557 545 557 549 549 541 541 549 557 549 549 545 541 545 549 553 553 545 529 537 537 537 533 533 529 525 521 529 511 511 511 507 497 504 504 504 500 500 497 497 497 514 481 471 471 454 446 443 440 446 440 446 443 438 465 465 487 490 487 490 490 487 490 477 490 481 468 465 451 0 0 0 0 0
    0 0 0 0 0 0 0 0 0 0 0 0 0 0 0 0 0 0 0 0 0 0 0 0 0 0 0 0 0 0 0 0 0 0 0 0 0 0 0 0 0 0 0 0 0 0 0 0 0 0 0 0 0 0 0 0 0 0 0 0 0 0 0 0 0 0 0 0 0 553 553 557 561 557 553 549 549 553 541 537 529 525 529 525 529 529 525 525 521 529 533 0 541 537 537 541 541 545 541 541 541 545 549 545 553 553 553 557 557 553 549 549 553 545 541 541 537 537 545 545 545 537 533 533 533 529 533 0 0 0 541 545 549 541 549 553 553 545 561 557 549 557 553 557 553 557 561 553 553 561 549 0 541 545 537 541 541 541 541 537 541 541 545 545 545 541 545 549 545 549 549 537 553 553 553 549 549 553 545 549 553 545 541 541 545 549 545 553 553 549 545 553 553 553 549 549 545 0 0 537 529 525 521 525 514 525 529 529 529 533 537 537 537 545 541 541 545 549 545 545 541 533 541 541 545 545 545 541 545 545 541 537 0 0 0 541 541 537 545 545 549 549 0 0 0 545 557 545 0 553 553 541 541 545 549 549 549 541 533 537 545 549 549 545 521 537 537 537 537 533 529 525 525 529 511 507 507 504 497 500 504 500 500 500 497 493 497 504 474 454 443 440 438 438 435 438 435 438 438 435 440 446 471 487 484 484 487 471 0 462 0 454 440 446 443 0 0 0 0 0
    0 0 0 0 0 0 0 0 0 0 0 0 0 0 0 0 0 0 0 0 0 0 0 0 0 0 0 0 0 0 0 0 0 0 0 0 0 0 0 0 0 0 0 0 0 0 0 0 0 0 0 0 0 0 0 0 0 0 0 0 0 0 0 0 0 0 0 0 0 557 553 561 561 557 553 549 549 553 537 533 525 514 525 525 529 529 525 521 521 525 529 0 533 525 533 533 537 541 541 541 545 545 549 545 553 557 557 557 557 553 549 549 553 537 537 0 0 0 533 0 0 525 0 521 521 518 521 0 0 0 0 549 549 545 545 549 553 545 566 557 549 557 553 557 553 553 561 549 549 561 549 0 537 541 537 541 541 541 537 537 537 537 545 545 545 541 545 549 549 549 549 537 553 553 553 545 549 549 545 545 553 541 541 537 0 541 541 545 549 545 545 549 553 553 549 549 545 0 0 0 529 525 521 525 511 521 525 525 525 529 533 533 533 537 537 537 541 541 541 541 0 525 0 0 541 0 541 541 541 541 541 541 0 0 0 0 541 537 0 0 0 0 0 0 0 0 0 0 0 0 533 533 529 533 0 0 537 497 500 490 487 529 541 541 497 0 541 537 537 533 529 525 521 529 507 504 507 504 497 500 504 500 497 500 493 490 490 493 471 446 438 438 438 435 432 435 435 438 435 438 438 443 448 487 0 0 0 0 0 435 0 435 435 438 438 0 0 0 0 0
    0 0 0 0 0 0 0 0 0 0 0 0 0 0 0 0 0 0 0 0 0 0 0 0 0 0 0 0 0 0 0 0 0 0 0 0 0 0 0 0 0 0 0 0 0 0 0 0 0 0 0 0 0 0 0 0 0 0 0 0 0 0 0 0 0 0 0 0 0 557 557 561 566 557 557 549 549 553 537 0 518 504 518 518 521 521 525 521 518 521 525 0 525 518 525 525 529 529 0 537 545 545 549 545 553 553 553 557 557 553 549 549 553 537 533 0 0 0 518 0 0 514 0 0 504 500 500 0 0 0 0 545 545 541 541 545 545 541 557 553 545 553 549 553 553 553 557 545 545 553 545 557 537 541 533 537 541 541 537 537 537 537 545 541 545 541 545 549 549 549 549 537 553 549 549 545 545 549 541 545 549 537 533 533 0 0 537 541 541 537 0 0 545 545 545 0 545 0 0 0 0 0 518 521 504 514 525 518 521 525 525 529 529 533 533 525 533 529 0 0 0 0 0 0 0 0 0 521 533 537 537 537 0 0 0 0 0 0 0 0 0 0 0 0 0 0 0 0 159 0 484 500 504 490 474 477 487 474 474 474 459 468 474 0 477 0 537 537 537 533 529 525 521 533 511 507 507 507 500 500 504 497 493 497 490 487 484 481 462 443 435 438 435 435 432 435 435 438 438 438 438 440 438 0 425 397 399 404 404 418 422 430 430 430 435 0 0 0 0 0
    0 0 0 0 0 0 0 0 0 0 0 0 0 0 0 0 0 0 0 0 0 0 0 0 0 0 0 0 0 0 0 0 0 0 0 0 0 0 0 0 0 0 0 0 0 0 0 0 0 0 0 0 0 0 0 0 0 0 0 0 0 0 0 0 0 0 0 0 0 557 553 561 566 557 553 549 549 553 533 0 514 493 511 518 521 525 529 521 0 521 529 0 0 0 497 497 497 490 0 0 545 541 549 545 553 553 553 553 553 549 545 545 549 533 525 0 0 0 514 0 0 0 0 0 0 0 481 0 490 0 0 541 0 0 525 514 533 511 553 549 0 545 541 549 545 545 549 537 537 0 537 549 0 537 529 533 541 541 537 533 537 537 541 537 541 529 541 537 541 0 0 511 0 549 545 0 0 541 537 541 541 525 507 497 0 0 529 533 529 504 0 0 0 0 0 0 0 0 199 198 0 0 511 514 500 507 518 511 514 518 518 521 521 521 521 493 507 0 0 0 0 0 0 0 0 462 471 477 474 490 497 518 0 0 0 0 0 0 0 0 0 0 0 0 0 0 0 0 0 477 477 477 481 474 465 465 474 462 457 462 451 459 465 468 468 0 533 529 529 529 525 521 518 533 507 504 504 504 497 500 500 493 490 493 484 481 481 477 462 446 438 440 438 438 435 438 435 438 438 440 440 440 438 0 425 397 397 399 402 408 413 422 422 422 430 0 0 0 0 0
    0 0 0 0 0 0 0 0 0 0 0 0 0 0 0 0 0 0 0 0 0 0 0 0 0 0 0 0 0 0 0 0 0 0 0 0 0 0 0 0 0 0 0 0 0 0 0 0 0 0 0 0 0 0 0 0 0 0 0 0 0 0 0 0 0 0 0 0 0 549 549 557 561 553 549 545 549 0 533 0 507 487 500 514 518 518 529 521 0 0 529 0 0 459 448 468 474 465 459 459 0 0 549 541 553 553 549 549 549 545 541 0 545 521 0 0 0 0 497 0 0 0 0 0 0 474 468 468 468 471 465 0 451 435 465 451 457 468 0 541 0 0 533 541 541 541 0 533 0 0 533 0 0 521 497 507 525 525 504 507 521 521 529 525 511 484 0 0 477 471 0 474 0 0 0 0 0 0 497 521 521 487 0 448 0 457 0 497 474 465 446 0 0 468 0 0 0 0 201 201 201 0 504 507 490 500 511 500 500 504 504 500 500 0 0 477 481 471 457 457 451 446 448 451 451 451 457 462 451 465 471 471 0 0 0 0 0 0 0 0 0 0 0 0 0 0 0 0 0 468 471 468 465 465 451 457 465 454 448 457 451 457 459 465 462 471 497 518 521 521 514 514 511 529 497 493 493 493 490 493 493 490 487 490 481 477 474 474 459 446 438 440 438 438 435 438 438 438 438 440 438 438 435 0 427 406 404 404 404 408 408 413 408 408 415 0 0 0 0 0
    0 0 0 0 0 0 0 0 0 0 0 0 0 0 0 0 0 0 0 0 0 0 0 0 0 0 0 0 0 0 0 0 0 0 0 0 0 0 0 0 0 0 0 0 0 0 0 0 0 0 0 0 0 0 0 0 0 0 0 0 0 0 0 0 0 0 0 0 0 0 0 0 553 549 545 541 545 0 518 481 484 474 481 484 493 490 507 0 0 0 0 0 0 451 446 457 462 457 454 454 454 0 0 0 549 545 545 545 541 533 525 514 0 497 0 0 0 0 477 471 465 0 0 462 462 462 457 457 451 459 454 454 448 440 448 446 443 459 454 0 0 0 493 0 0 0 0 525 0 0 529 0 0 0 474 477 0 0 477 481 481 481 493 481 477 474 468 474 465 459 462 462 0 0 0 0 0 0 471 474 481 468 448 446 446 448 0 468 457 446 443 446 451 454 451 462 462 0 202 203 203 0 0 0 0 0 0 487 0 0 484 484 481 0 474 468 468 454 446 448 443 443 446 446 446 446 448 454 446 451 459 451 0 0 0 115 0 0 0 0 0 0 0 0 0 0 0 0 465 462 462 459 454 454 446 454 457 451 446 454 448 454 457 459 457 459 477 497 500 518 504 504 500 511 484 484 484 484 477 484 487 481 484 484 474 471 468 468 454 446 438 440 438 438 435 438 438 438 440 443 440 440 438 448 430 411 404 402 402 404 402 402 395 395 397 0 0 0 0 0
    0 0 0 0 0 0 0 0 0 0 0 0 0 0 0 0 0 0 0 0 0 0 0 0 0 0 0 0 0 0 0 0 0 0 0 0 0 0 0 0 0 0 0 0 0 0 0 0 0 0 0 0 0 0 0 0 0 0 0 0 0 0 0 0 0 0 0 0 0 0 0 0 0 541 537 529 0 0 493 465 471 465 468 474 481 477 477 0 0 0 0 0 443 448 443 451 454 454 454 451 451 457 457 0 0 0 0 537 497 481 477 477 0 474 462 0 0 0 465 457 448 0 451 451 451 451 448 448 446 451 448 448 446 440 443 440 438 451 448 0 465 0 477 0 0 0 0 0 0 0 507 0 0 462 459 465 459 471 465 468 468 471 474 474 465 462 457 465 457 0 0 454 0 0 0 0 0 465 457 457 465 454 443 446 446 446 446 454 446 443 443 446 448 448 448 454 454 0 0 0 0 0 0 0 0 0 0 477 477 474 474 474 471 465 462 459 457 446 443 443 443 440 443 440 443 443 446 448 443 446 451 448 0 443 0 0 0 0 0 0 0 0 0 457 462 459 0 459 454 451 451 448 446 446 443 448 451 446 443 448 446 448 451 454 451 451 465 477 477 490 487 484 487 484 474 468 462 462 451 465 471 465 0 474 0 457 454 457 448 446 438 443 440 438 435 438 438 440 440 446 440 440 440 454 432 418 402 402 402 402 397 393 385 387 391 0 0 0 0 0
    0 0 0 0 0 0 0 0 0 0 0 0 0 0 0 0 0 0 0 0 0 0 0 0 0 0 0 0 0 0 0 0 0 0 0 0 0 0 0 0 0 0 0 0 0 0 0 0 0 0 0 0 0 0 0 0 0 0 0 0 0 0 0 0 0 0 0 0 0 451 0 0 0 0 0 0 0 0 0 451 457 457 454 468 471 0 459 0 0 0 0 0 443 446 443 448 451 451 448 448 448 451 448 465 454 465 468 471 465 459 459 459 451 454 448 448 448 451 454 448 443 0 446 446 446 446 446 446 443 448 446 446 443 438 440 440 438 446 443 446 454 454 468 459 471 0 0 0 474 0 474 0 465 448 448 454 446 457 451 457 454 457 454 459 451 448 0 448 0 0 0 454 0 0 0 459 462 448 446 448 451 446 440 443 443 443 443 446 440 440 440 443 446 446 448 448 448 446 0 0 0 454 0 457 457 0 0 468 468 468 465 465 462 454 457 457 454 446 443 443 443 440 443 440 440 440 443 446 443 446 448 446 448 446 446 446 443 446 0 446 0 448 451 451 454 454 451 451 451 448 448 446 443 443 440 448 448 443 440 446 446 448 448 448 448 448 454 468 462 471 468 465 468 454 457 451 448 446 443 448 457 451 0 0 0 448 446 446 443 440 438 440 438 438 438 440 440 440 440 448 443 443 443 457 435 422 404 402 402 399 395 393 385 387 391 0 0 0 0 0
    0 0 0 0 0 0 0 0 0 0 0 0 0 0 0 0 0 0 0 0 0 0 0 0 0 0 0 0 0 0 0 0 0 0 0 0 0 0 0 0 0 0 0 0 0 0 0 0 0 0 0 0 0 0 0 0 0 0 0 0 0 0 0 0 0 0 0 0 0 451 454 459 462 462 0 0 0 0 0 443 443 446 443 448 454 451 446 440 0 0 443 443 443 446 443 446 448 448 448 446 448 448 446 459 448 451 451 451 448 446 446 446 443 446 443 443 446 448 451 446 440 443 443 443 443 446 446 446 443 448 443 446 443 440 440 440 438 443 443 443 446 446 454 448 457 468 457 462 462 454 454 446 451 443 443 448 443 448 448 454 451 451 448 451 446 446 443 446 0 448 451 454 454 457 457 454 454 443 443 446 446 443 440 443 443 440 443 443 440 440 440 443 443 443 446 446 446 446 443 0 448 448 457 446 448 451 454 457 457 459 457 459 457 448 451 454 454 446 443 446 443 440 443 443 440 440 443 446 443 443 448 446 446 446 446 446 443 443 443 446 446 446 448 451 454 451 451 451 451 448 448 448 443 443 443 448 448 443 440 446 443 446 446 448 446 446 448 459 451 459 451 448 448 440 446 446 443 440 440 440 446 443 454 448 443 443 443 443 443 440 438 440 438 440 438 440 440 440 443 454 448 443 443 454 435 420 402 402 399 395 393 391 385 389 391 0 0 0 0 0
    0 0 0 0 0 0 0 0 0 0 0 0 0 0 0 0 0 0 0 0 0 0 0 0 0 0 0 0 0 0 0 0 0 0 0 0 0 0 0 0 0 0 0 0 0 0 0 0 0 0 0 0 0 0 0 0 0 0 0 0 0 0 0 0 0 0 0 0 0 454 454 457 454 451 0 0 0 0 0 440 440 443 443 446 448 446 443 438 0 440 443 443 443 446 443 446 446 448 446 446 448 448 446 457 448 446 448 448 446 443 443 446 443 443 443 443 443 446 448 443 438 440 440 440 443 443 443 443 443 446 443 446 443 440 443 440 438 443 443 443 443 443 448 443 448 454 446 448 451 448 448 443 448 446 446 451 446 454 454 459 454 451 451 451 448 448 443 446 446 451 454 457 457 457 457 454 454 443 443 446 446 443 440 443 443 440 443 443 440 440 440 443 443 443 446 446 446 446 443 446 446 443 451 443 440 446 446 448 451 454 451 454 451 446 448 454 454 446 443 448 443 440 446 443 443 443 443 446 443 446 448 446 446 446 446 446 443 446 443 446 446 448 451 451 454 451 451 451 451 451 451 451 448 446 443 448 451 443 440 443 443 446 446 446 443 446 448 457 448 454 451 446 446 440 440 443 440 440 438 438 443 440 451 448 440 443 443 443 443 440 438 440 440 440 438 443 443 443 443 454 448 446 443 451 435 422 411 406 404 399 395 393 385 389 393 0 0 0 0 0
    0 0 0 0 0 0 0 0 0 0 0 0 0 0 0 0 0 0 0 0 0 0 0 0 0 0 0 0 0 0 0 0 0 0 0 0 0 0 0 0 0 0 0 0 0 0 0 0 0 0 0 0 0 0 0 0 0 0 0 0 0 0 0 0 0 0 0 0 0 454 454 454 448 448 446 443 443 440 0 438 440 443 446 446 448 448 446 440 440 440 440 440 443 443 440 446 446 446 446 448 448 451 448 457 448 448 448 448 443 443 443 446 443 446 443 443 443 446 448 443 438 0 440 440 440 443 443 443 443 446 443 446 443 440 443 440 438 446 446 446 446 446 448 443 446 454 443 446 448 446 446 443 446 446 446 451 446 454 457 459 457 454 451 451 448 448 443 446 446 451 454 457 457 454 459 454 451 446 443 446 446 443 440 443 443 440 443 443 440 440 440 443 443 440 443 446 446 443 440 446 443 440 448 438 0 0 440 443 448 451 448 451 448 446 448 451 451 446 443 448 446 443 446 446 443 443 446 448 443 446 448 446 446 448 446 448 446 446 446 446 448 448 451 451 454 451 451 451 454 451 451 448 448 446 446 448 448 443 440 443 443 443 446 448 446 446 451 459 451 459 454 448 446 440 440 440 440 438 438 438 443 440 451 448 443 446 443 446 448 446 440 443 443 443 440 443 443 443 443 451 448 446 443 448 435 430 422 418 408 402 395 393 387 391 393 0 0 0 0 0
    0 0 0 0 0 0 0 0 0 0 0 0 0 0 0 0 0 0 0 0 0 0 0 0 0 0 0 0 0 0 0 0 0 0 0 0 0 0 0 0 0 0 0 0 0 0 0 0 0 0 0 0 0 0 0 0 0 0 0 0 0 0 0 0 0 0 0 0 0 454 451 454 448 446 443 443 440 438 432 435 438 440 446 446 448 448 446 443 443 443 443 440 440 443 440 446 446 446 446 446 448 448 448 457 448 448 448 448 443 443 443 446 443 446 446 443 443 446 446 440 438 0 440 440 443 443 443 443 443 446 443 446 446 440 443 443 440 446 446 443 443 443 446 443 446 454 443 443 448 446 446 446 448 448 451 457 451 457 459 459 457 451 451 448 446 448 443 446 0 0 451 454 454 448 451 451 448 443 440 446 446 443 440 443 443 443 443 446 440 440 440 443 443 440 443 443 443 443 440 443 443 440 0 438 0 0 443 443 451 454 448 454 448 448 448 451 451 446 443 448 446 443 446 446 443 443 446 448 443 446 451 446 448 451 448 451 448 448 448 448 448 448 451 451 454 451 451 451 454 451 451 451 448 446 446 448 448 443 440 443 443 443 446 448 446 446 451 459 451 459 457 448 446 440 440 440 440 440 440 438 446 443 451 451 443 448 446 448 451 448 440 443 443 443 440 443 443 443 443 451 451 446 443 448 440 438 432 427 411 402 395 395 389 393 395 0 0 0 0 0
    0 0 0 0 0 0 0 0 0 0 0 0 0 0 0 0 0 0 0 0 0 0 0 0 0 0 0 0 0 0 0 0 0 0 0 0 0 0 0 0 0 0 0 0 0 0 0 0 0 0 0 0 0 0 0 0 0 0 0 0 0 0 0 0 0 0 0 0 0 454 451 451 446 446 443 440 440 435 430 432 435 438 443 443 446 446 443 443 443 443 446 443 443 443 440 443 446 446 446 446 446 448 448 457 448 448 448 451 446 446 446 446 443 446 446 443 443 446 446 443 438 0 440 440 443 443 443 443 443 446 443 446 446 443 446 443 440 446 446 443 443 443 446 443 446 451 440 443 446 446 446 446 448 451 454 457 451 457 457 459 454 448 448 446 446 448 443 446 0 0 0 0 0 0 0 446 443 440 440 446 446 446 443 443 443 443 446 448 440 443 440 443 443 440 446 446 446 446 440 443 446 440 0 435 0 440 440 443 448 451 448 451 448 446 446 451 448 443 440 446 446 0 446 446 443 443 446 448 443 446 451 448 448 454 451 454 451 451 451 448 451 448 451 451 454 451 454 457 457 454 454 451 451 448 446 448 448 440 438 443 440 443 446 446 443 446 451 459 451 459 454 448 446 440 440 440 440 440 440 440 446 443 451 451 446 451 448 448 451 451 440 443 443 443 440 443 443 443 443 451 454 446 443 446 440 438 435 430 413 402 397 395 389 395 395 0 0 0 0 0
    0 0 0 0 0 0 0 0 0 0 0 0 0 0 0 0 0 0 0 0 0 0 0 0 0 0 0 0 0 0 0 0 0 0 0 0 0 0 0 0 0 0 0 0 0 0 0 0 0 0 0 0 0 0 0 0 0 0 0 0 0 0 0 0 0 0 0 0 0 454 451 451 446 446 443 440 440 435 430 432 432 435 438 438 440 443 440 440 440 443 443 440 440 440 440 443 443 443 443 446 446 448 446 454 448 446 448 451 443 446 446 448 446 448 448 443 446 448 446 446 440 443 440 440 443 443 443 443 443 446 443 446 446 443 446 443 440 446 446 443 443 443 446 443 443 448 440 443 446 446 446 446 451 451 451 454 448 451 454 457 451 446 443 443 443 446 0 0 0 0 0 0 0 0 0 443 440 440 440 446 448 446 443 446 443 443 446 448 440 443 440 443 443 443 446 446 446 446 443 446 446 440 0 435 430 438 438 440 446 448 443 446 446 443 443 448 446 440 438 446 443 0 443 443 443 443 446 448 443 446 451 448 448 454 451 454 451 451 448 448 451 448 451 448 451 451 454 457 459 454 454 451 451 448 446 448 448 440 440 443 440 440 443 446 443 446 448 457 448 457 451 446 443 438 438 438 438 438 438 438 443 443 448 451 446 451 448 451 454 451 440 440 443 443 443 443 443 443 443 448 454 446 443 443 440 438 432 430 413 404 399 397 391 397 397 0 0 0 0 0
    0 0 0 0 0 0 0 0 0 0 0 0 0 0 0 0 0 0 0 0 0 0 0 0 0 0 0 0 0 0 0 0 0 0 0 0 0 0 0 0 0 0 0 0 0 0 0 0 0 0 0 0 0 0 0 0 0 0 0 0 0 0 0 0 0 0 0 0 0 454 451 451 446 446 446 443 440 438 430 432 430 432 438 438 438 440 440 438 438 440 440 440 440 0 440 0 443 443 443 446 446 446 448 454 448 446 448 451 443 446 446 448 446 448 448 446 446 448 443 446 440 443 443 443 443 443 446 446 443 446 443 446 446 443 446 443 440 443 443 443 443 443 443 440 443 448 440 440 443 446 443 446 451 451 451 451 446 451 451 457 448 443 443 440 443 443 0 0 432 0 0 0 0 430 432 440 438 440 440 443 446 446 443 446 443 443 446 451 440 443 443 443 443 443 446 446 446 446 443 446 448 443 0 435 430 432 432 438 443 446 440 443 443 443 443 446 446 440 438 446 443 0 443 446 443 443 446 448 446 446 451 448 448 454 451 457 451 454 448 448 451 448 451 448 451 448 451 457 457 454 454 451 451 451 448 448 448 440 440 443 440 440 443 446 443 443 448 454 448 454 454 446 443 440 438 438 440 440 438 438 440 440 448 448 448 448 448 451 457 454 443 440 443 443 443 443 443 440 440 446 454 443 440 440 438 435 432 430 413 406 402 399 393 397 397 0 0 0 0 0
    0 0 0 0 0 0 0 0 0 0 0 0 0 0 0 0 0 0 0 0 0 0 0 0 0 0 0 0 0 0 0 0 0 0 0 0 0 0 0 0 0 0 0 0 0 0 0 0 0 0 0 0 0 0 0 0 0 0 0 0 0 0 0 0 0 0 0 0 0 454 451 451 443 443 443 443 440 438 432 435 432 435 438 440 443 443 440 438 438 440 440 438 438 0 438 0 443 443 443 443 446 446 446 454 448 446 448 451 443 446 446 448 446 448 448 446 446 0 443 443 443 443 443 443 446 446 446 446 446 443 443 446 443 443 446 443 440 443 443 443 440 443 443 440 443 446 440 440 443 448 443 446 451 454 451 454 448 451 454 457 448 443 443 440 443 443 438 438 432 432 435 432 430 430 430 435 435 438 438 443 446 446 443 446 443 443 448 451 440 446 443 440 443 443 446 446 446 446 440 443 448 440 0 432 427 430 432 438 443 446 440 443 440 440 440 443 443 440 438 446 443 440 446 446 443 446 446 451 446 448 454 448 451 457 451 457 454 457 451 451 457 451 457 454 451 451 454 457 459 454 457 454 454 454 451 451 448 440 440 443 440 440 440 443 443 443 448 454 446 451 454 448 443 440 440 440 440 443 440 438 443 443 451 454 451 451 451 454 459 457 443 440 443 443 443 443 443 440 440 446 457 443 440 440 438 435 432 430 418 408 404 402 395 399 397 0 0 0 0 0
    0 0 0 0 0 0 0 0 0 0 0 0 0 0 0 0 0 0 0 0 0 0 0 0 0 0 0 0 0 0 0 0 0 0 0 0 0 0 0 0 0 0 0 0 0 0 0 0 0 0 0 0 0 0 0 0 0 0 0 0 0 0 0 0 0 0 0 0 0 454 451 451 443 443 443 443 440 440 435 438 435 440 443 446 448 448 443 440 440 440 440 438 438 0 438 0 440 440 440 443 446 446 446 454 446 443 446 448 440 443 446 448 446 448 448 446 446 448 443 443 443 443 443 443 446 446 446 446 446 443 443 446 443 443 446 443 440 443 443 443 440 440 443 440 0 448 440 440 443 451 446 448 454 457 457 457 451 454 454 454 448 443 443 440 440 440 435 435 430 432 432 430 430 427 430 435 435 438 438 443 443 443 443 446 443 443 448 457 443 446 446 443 446 443 446 443 443 446 440 443 448 438 0 432 0 0 0 0 443 446 440 443 440 440 440 443 443 440 438 446 446 443 446 448 446 448 448 454 448 448 454 451 451 459 454 457 454 457 448 448 454 448 454 451 448 448 451 459 459 454 457 454 457 454 451 451 451 440 440 443 440 440 440 443 443 443 448 454 446 451 454 448 446 443 440 440 443 443 443 440 443 446 448 454 451 451 451 451 457 454 443 440 446 446 443 443 443 443 443 446 454 443 440 440 438 435 432 430 420 411 404 402 397 399 397 0 0 0 0 0
    0 0 0 0 0 0 0 0 0 0 0 0 0 0 0 0 0 0 0 0 0 0 0 0 0 0 0 0 0 0 0 0 0 0 0 0 0 0 0 0 0 0 0 0 0 0 0 0 0 0 0 0 0 0 0 0 0 0 0 0 0 0 0 0 0 0 0 0 0 454 451 451 446 446 443 443 443 443 438 440 438 443 443 446 451 448 443 440 440 440 438 438 435 0 0 0 0 440 440 443 446 448 446 454 446 443 443 448 440 443 443 446 446 446 448 446 446 448 446 443 446 443 446 446 446 446 448 446 446 443 443 446 443 443 446 443 440 443 446 443 440 443 443 443 0 451 443 443 446 457 448 451 457 459 457 457 451 454 454 454 448 446 446 443 443 440 438 435 430 432 432 430 430 427 430 435 435 438 435 440 443 443 443 446 443 443 448 457 446 448 446 443 446 443 446 446 443 446 443 443 448 440 446 435 0 0 0 0 0 446 440 440 440 440 438 440 443 440 438 446 446 443 446 448 448 448 451 457 451 451 457 454 451 462 454 457 451 454 446 446 451 446 448 446 446 446 448 454 457 451 454 451 454 451 451 451 448 443 440 443 443 440 443 443 443 443 446 454 446 451 451 446 443 443 440 440 443 443 443 440 443 446 446 451 448 448 451 451 454 448 440 440 446 446 443 443 440 438 438 440 443 435 432 432 430 432 430 427 420 415 406 402 397 399 397 0 0 0 0 0
    0 0 0 0 0 0 0 0 0 0 0 0 0 0 0 0 0 0 0 0 0 0 0 0 0 0 0 0 0 0 0 0 0 0 0 0 0 0 0 0 0 0 0 0 0 0 0 0 0 0 0 0 0 0 0 0 0 0 0 0 0 0 0 0 0 0 0 0 0 448 446 446 443 443 443 443 440 443 438 440 438 443 443 446 451 448 443 440 438 438 435 438 432 0 0 0 0 440 440 443 446 446 446 451 446 440 443 446 440 440 443 443 446 446 448 446 446 448 446 446 448 446 448 448 448 448 448 448 448 443 446 446 443 443 446 443 440 446 446 443 443 443 443 443 443 451 443 443 446 454 448 448 451 457 451 454 448 451 451 448 448 446 448 448 446 443 440 438 432 432 432 430 430 427 430 435 435 440 432 440 443 443 443 446 443 443 446 459 446 448 446 443 446 443 446 446 446 446 443 443 451 440 448 440 0 0 0 440 443 446 443 440 440 440 440 443 443 440 438 443 446 443 446 448 448 448 451 457 448 451 457 454 451 459 454 454 448 454 446 446 451 443 446 443 443 443 446 448 448 446 448 446 448 446 443 446 443 440 440 443 443 443 443 443 443 443 446 451 446 448 446 443 443 440 440 443 443 443 443 443 443 443 443 446 443 443 446 446 446 440 440 440 446 443 443 443 438 438 435 435 435 430 427 430 427 430 427 427 420 418 406 402 397 399 397 0 0 0 0 0
    0 0 0 0 0 0 0 0 0 0 0 0 0 0 0 0 0 0 0 0 0 0 0 0 0 0 0 0 0 0 0 0 0 0 0 0 0 0 0 0 0 0 0 0 0 0 0 0 0 0 0 0 0 0 0 0 0 0 0 0 0 0 0 0 0 0 0 0 0 446 443 443 440 443 443 440 440 443 440 440 440 443 440 443 448 448 443 440 438 438 435 435 430 418 0 0 0 0 440 443 446 446 446 448 446 440 440 443 438 440 443 443 446 446 448 446 446 448 446 446 446 446 448 448 448 448 448 448 448 443 443 446 443 446 446 443 440 446 446 443 443 443 443 443 443 448 443 440 446 448 446 448 448 454 448 448 446 446 446 446 446 446 448 448 448 446 443 443 440 438 435 432 432 430 430 435 435 438 432 440 443 443 443 446 443 443 448 462 446 448 446 443 446 443 446 446 446 446 443 446 457 443 448 440 443 440 440 440 446 446 446 440 440 440 440 443 443 440 438 443 443 443 446 448 446 448 448 454 448 451 454 451 448 454 448 451 448 454 446 446 451 446 446 443 443 443 443 446 443 440 443 443 443 440 0 438 438 438 440 440 443 443 446 446 446 446 446 451 446 448 446 443 443 440 440 443 440 440 440 440 440 440 440 440 438 432 438 438 440 438 438 440 446 446 446 443 438 435 435 435 432 427 425 425 425 427 425 425 413 413 404 399 397 397 395 0 0 0 0 0
    0 0 0 0 0 0 0 0 0 0 0 0 0 0 0 0 0 0 0 0 0 0 0 0 0 0 0 0 0 0 0 0 0 0 0 0 0 0 0 0 0 0 0 0 0 0 0 0 0 0 0 0 0 0 0 0 0 0 0 0 0 0 0 0 0 0 0 0 0 446 0 0 0 0 443 443 443 443 440 443 443 443 440 443 448 448 446 443 435 435 432 435 427 418 430 0 0 438 440 440 443 446 446 448 448 440 440 443 438 440 443 443 446 443 448 448 446 448 446 443 446 446 446 446 443 446 448 448 446 440 443 443 440 446 446 443 440 446 448 446 446 446 446 443 446 448 443 440 446 446 443 440 440 448 443 443 440 440 443 443 443 446 448 454 451 451 451 448 443 443 440 435 435 435 432 438 438 440 432 443 446 443 443 448 446 443 446 459 443 448 446 443 446 443 446 446 446 446 443 443 459 0 0 0 0 443 440 0 446 0 443 440 438 438 440 443 443 440 438 443 443 443 446 446 446 448 448 454 448 451 457 451 448 454 448 451 448 457 448 448 451 448 446 443 443 443 443 446 443 440 443 440 440 440 0 438 435 435 438 440 443 443 446 448 448 446 448 457 448 446 446 443 443 438 438 440 440 440 438 438 438 440 440 440 435 411 0 0 440 0 438 440 446 448 448 443 440 435 432 432 430 425 425 425 422 425 422 420 411 411 402 397 393 393 391 0 0 0 0 0
    0 0 0 0 0 0 0 0 0 0 0 0 0 0 0 0 0 0 0 0 0 0 0 0 0 0 0 0 0 0 0 0 0 0 0 0 0 0 0 0 0 0 0 0 0 0 0 0 0 0 0 0 0 0 0 0 0 0 0 0 0 0 0 0 0 0 0 0 0 443 0 0 440 443 443 446 446 446 443 443 446 446 443 446 451 451 448 443 435 432 430 432 425 415 427 0 0 438 438 440 443 446 448 451 448 440 440 440 435 438 440 440 443 440 446 448 446 448 446 446 446 446 446 443 440 446 448 446 443 438 438 438 440 443 443 440 438 443 448 446 446 448 446 446 446 448 446 443 446 446 443 435 435 443 440 0 432 0 0 0 446 0 0 0 0 0 459 451 448 446 443 440 440 440 438 440 440 440 435 446 446 443 443 448 446 443 448 462 443 448 446 443 443 443 443 443 443 446 440 0 0 92 91 0 0 0 0 0 0 0 0 0 438 438 440 443 446 440 440 443 443 446 446 448 446 448 448 454 448 451 454 451 446 451 448 451 451 457 448 451 454 454 448 446 446 446 443 446 440 440 440 440 440 0 0 435 435 435 438 440 443 443 446 448 448 448 448 457 448 448 446 440 443 438 0 0 440 438 438 438 440 440 440 440 432 404 0 0 0 0 0 0 446 448 448 443 438 432 430 430 425 422 422 422 422 425 420 418 408 408 399 395 387 385 383 0 0 0 0 0
    0 0 0 0 0 0 0 0 0 0 0 0 0 0 0 0 0 0 0 0 0 0 0 0 0 0 0 0 0 0 0 0 0 0 0 0 0 0 0 0 0 0 0 0 0 0 0 0 0 0 0 0 0 0 0 0 0 0 0 0 0 0 0 0 0 0 0 0 0 443 0 0 443 443 443 446 446 446 446 446 448 446 446 451 457 454 451 448 438 432 427 432 418 411 422 430 0 438 440 443 446 448 451 454 454 440 438 438 432 432 438 438 440 440 446 448 0 0 448 0 446 446 446 440 0 443 446 443 440 435 427 432 438 443 443 438 438 443 448 446 446 448 446 446 446 451 446 443 0 0 0 0 0 0 0 0 0 0 0 0 0 0 0 0 0 0 0 0 0 0 0 0 0 446 443 443 443 443 438 448 448 443 446 448 443 440 446 462 446 448 0 0 0 443 446 443 443 443 440 0 0 92 91 91 0 0 347 342 0 0 0 0 0 438 440 443 443 440 440 446 446 446 446 446 446 448 448 451 448 451 454 451 446 0 0 451 454 454 0 0 0 0 0 0 0 446 446 448 440 440 440 440 438 0 0 435 432 435 438 438 443 443 448 451 451 448 448 459 451 448 448 0 0 0 0 0 443 440 0 0 0 443 440 0 0 0 0 0 0 0 0 0 0 448 446 440 435 427 427 427 420 420 420 420 420 422 420 418 406 411 399 393 379 383 375 0 0 0 0 0
    0 0 0 0 0 0 0 0 0 0 0 0 0 0 0 0 0 0 0 0 0 0 0 0 0 0 0 0 0 0 0 0 0 0 0 0 0 0 0 0 0 0 0 0 0 0 0 0 0 0 0 0 0 0 0 0 0 0 0 0 0 0 0 0 0 0 0 0 0 0 0 0 0 446 443 446 446 446 443 0 0 446 443 0 459 454 462 457 443 432 0 0 418 408 0 0 0 438 440 443 446 451 454 454 454 440 438 438 432 430 438 0 0 0 0 0 0 0 0 0 0 0 0 0 0 0 0 0 0 422 408 406 0 443 440 438 435 443 448 446 446 448 446 446 448 451 0 0 0 0 0 0 0 0 0 0 0 0 0 0 0 0 0 0 0 0 0 0 0 0 0 0 0 0 451 446 451 446 0 454 451 448 448 448 446 440 443 462 0 0 0 0 0 0 0 0 0 0 0 1471 0 92 91 91 0 0 345 342 0 342 0 0 0 0 443 446 443 440 440 446 443 446 446 446 443 446 448 448 0 0 0 0 0 0 0 0 0 0 348 345 345 343 345 348 350 0 0 451 440 440 440 438 438 0 0 432 432 432 0 440 443 446 451 457 457 0 0 462 451 448 443 0 0 0 0 0 0 0 0 0 0 0 0 0 0 0 0 0 0 0 0 0 0 0 446 438 427 420 422 422 413 418 418 418 418 422 418 418 406 413 397 371 366 373 366 0 0 0 0 0
    0 0 0 0 0 0 0 0 0 0 0 0 0 0 0 0 0 0 0 0 0 0 0 0 0 0 0 0 0 0 0 0 0 0 0 0 0 0 0 0 0 0 0 0 0 0 0 0 0 0 0 0 0 0 0 0 0 0 0 0 0 0 0 0 0 0 0 0 0 0 0 0 0 448 443 443 446 443 0 0 0 0 0 0 0 0 0 459 446 435 0 0 0 0 0 0 0 0 440 440 446 448 457 454 459 0 0 0 0 0 0 0 0 0 0 0 0 0 0 0 0 0 0 0 0 0 336 0 0 0 0 377 0 0 438 435 427 443 448 446 446 448 448 451 451 454 0 0 0 0 0 117 117 117 0 0 0 0 0 0 0 0 0 0 0 0 0 0 0 0 83 83 0 0 0 0 0 448 0 462 457 451 451 451 448 440 440 462 0 357 352 0 0 0 0 0 0 0 0 0 0 92 91 91 0 0 343 342 343 343 0 0 0 0 0 451 446 440 440 446 443 446 446 446 440 0 448 0 159 158 0 0 350 345 0 345 343 343 348 345 347 345 345 348 348 348 350 0 0 0 438 438 435 432 430 432 430 0 0 0 446 0 0 0 0 0 0 0 457 0 0 389 369 371 367 371 347 352 340 0 0 0 0 0 0 0 0 0 0 0 0 0 260 257 0 0 0 408 411 415 406 413 418 413 413 418 413 413 397 0 375 362 360 364 362 0 0 0 0 0
    0 0 0 0 0 0 0 0 0 0 0 0 0 0 0 0 0 0 0 0 0 0 0 0 0 0 0 0 0 0 0 0 0 0 0 0 0 0 0 0 0 0 0 0 0 0 0 0 0 0 0 0 0 0 0 0 0 0 0 0 0 0 0 0 0 0 0 0 0 0 0 0 0 451 446 443 448 443 0 0 0 0 0 0 0 0 0 0 0 0 0 0 0 0 0 0 0 0 440 0 0 448 459 457 0 0 0 0 0 0 0 0 0 0 0 0 0 0 0 0 0 0 0 0 0 347 339 342 0 0 0 362 0 0 0 425 0 0 448 446 448 0 451 0 0 0 0 0 0 0 0 0 116 116 117 117 0 0 0 0 0 0 0 0 0 0 0 0 0 0 0 0 0 0 0 0 0 0 0 465 459 457 457 454 448 438 0 0 360 353 350 350 350 0 0 0 0 0 0 0 0 0 0 0 345 343 345 345 345 347 343 350 348 357 355 0 0 0 438 443 440 440 440 443 0 0 0 0 0 0 0 348 350 347 348 345 345 345 350 347 348 347 345 348 350 348 350 347 0 0 0 0 0 430 427 430 430 0 0 0 0 0 0 0 0 0 0 0 0 0 373 371 366 364 362 362 345 347 340 0 0 0 0 0 0 362 362 0 0 360 0 0 0 0 0 359 357 0 0 0 0 0 415 411 411 415 408 408 375 0 364 360 359 359 359 0 0 0 0 0
    0 0 0 0 0 0 0 0 0 0 0 0 0 0 0 0 0 0 0 0 0 0 0 0 0 0 0 0 0 0 0 0 0 0 0 0 0 0 0 0 0 0 0 0 0 0 0 0 0 0 0 0 0 0 0 0 0 0 0 0 0 0 0 0 0 0 0 0 0 0 0 121 0 0 446 446 0 0 0 0 0 0 343 0 0 353 0 0 0 0 0 0 0 0 0 0 0 0 0 0 0 448 0 0 0 0 0 0 0 350 0 347 0 0 0 0 189 189 188 188 188 0 0 0 0 345 340 340 352 355 360 355 352 357 345 0 364 360 0 0 0 0 0 0 0 0 0 0 0 0 0 0 0 0 0 0 0 0 0 0 0 342 343 342 0 0 0 0 0 83 83 0 0 0 0 0 348 0 357 0 465 465 462 459 454 0 360 353 355 352 350 350 350 348 352 350 352 0 0 0 343 0 347 345 345 347 347 347 347 348 345 352 350 353 350 353 362 0 0 443 440 438 438 440 0 0 0 0 355 347 345 347 348 348 348 345 345 347 350 348 348 347 347 348 350 350 350 347 0 0 0 0 0 430 425 0 0 0 0 0 0 0 0 0 0 0 343 352 353 359 362 362 359 359 357 355 345 347 342 345 345 347 350 0 357 360 359 359 357 357 353 0 0 350 348 353 352 355 357 359 360 353 0 0 0 0 0 0 360 350 359 355 355 350 353 0 0 0 0 0
    0 0 0 0 0 0 0 0 0 0 0 0 0 0 0 0 0 0 0 0 0 0 0 0 0 0 0 0 0 0 0 0 0 0 0 0 0 0 0 0 0 0 0 0 0 0 0 0 0 0 0 0 0 0 0 0 0 0 0 0 0 0 0 0 0 0 0 0 0 0 0 0 0 0 0 0 321 317 0 0 0 342 343 345 347 348 350 352 352 355 0 0 0 0 0 0 0 0 0 0 0 0 0 0 0 0 0 0 0 348 347 347 347 345 345 0 0 189 189 0 0 0 0 0 0 345 342 342 353 355 359 352 352 355 345 355 359 355 353 350 352 350 0 353 350 345 348 345 0 352 355 355 355 352 0 0 0 359 347 0 342 345 345 343 347 345 0 83 0 0 0 0 0 0 0 0 347 353 353 0 0 0 0 0 0 348 348 347 350 348 348 348 350 348 350 348 350 348 345 347 343 347 347 345 345 347 348 348 348 352 348 353 352 353 350 352 357 357 362 0 0 0 0 0 0 0 0 352 350 345 345 347 348 348 348 347 345 347 350 348 347 347 347 348 350 350 350 348 352 352 348 0 0 0 0 0 0 0 0 0 0 0 342 343 343 345 345 350 350 355 357 357 353 353 350 352 345 347 343 345 347 348 348 352 353 355 353 355 353 352 348 350 348 347 347 348 348 350 352 353 353 350 353 355 353 355 352 348 350 347 350 348 352 347 348 0 0 0 0 0
    0 0 0 0 0 0 0 0 0 0 0 0 0 0 0 0 0 0 0 0 0 0 0 0 0 0 0 0 0 0 0 0 0 0 0 0 0 0 0 0 0 0 0 0 0 0 0 0 0 0 0 0 0 0 0 0 0 0 0 0 0 0 0 0 0 0 0 0 0 0 0 0 0 0 0 0 322 319 324 336 340 343 345 345 347 347 348 350 350 350 0 0 0 0 0 0 342 0 0 0 0 0 0 0 0 0 0 343 347 347 347 347 347 345 347 345 348 348 0 0 0 0 0 0 350 347 345 345 352 355 357 347 347 348 343 347 352 348 347 347 347 347 347 350 350 345 348 347 347 350 350 350 350 348 350 0 355 359 350 348 347 352 352 348 350 348 0 0 0 0 0 0 0 0 0 0 345 350 352 347 350 348 350 348 347 347 345 343 347 347 347 348 348 347 350 348 350 348 345 347 343 347 348 345 347 348 350 352 352 355 350 355 353 355 352 353 355 355 359 357 359 359 357 355 350 347 347 348 347 345 345 347 348 348 350 347 345 347 350 347 347 347 347 348 348 350 348 348 352 352 348 352 343 0 0 339 339 342 342 343 342 0 343 345 345 348 347 350 350 353 355 353 350 348 345 345 343 343 342 345 343 345 345 348 350 350 348 350 348 350 347 350 348 347 347 348 347 348 348 350 348 347 348 350 348 348 347 347 347 345 347 347 350 345 348 0 0 0 0 0
    0 0 0 0 0 0 0 0 0 0 0 0 0 0 0 0 0 0 0 0 0 0 0 0 0 0 0 0 0 0 0 0 0 0 0 0 0 0 0 0 0 0 0 0 0 0 0 0 0 0 0 0 0 0 0 0 0 0 0 0 0 0 0 0 0 0 0 0 0 347 343 0 0 0 0 0 327 324 328 336 342 342 345 345 347 347 347 350 348 348 352 352 350 352 352 347 345 342 345 0 342 0 0 0 0 0 345 343 345 345 347 347 348 347 347 347 350 348 348 347 345 345 350 350 350 347 347 347 350 353 353 345 343 347 342 345 347 347 345 345 347 347 347 348 350 347 348 347 347 348 348 348 348 347 348 345 352 357 350 350 348 353 352 350 352 350 347 0 347 0 0 0 0 0 339 342 343 347 348 348 350 348 350 350 347 348 347 345 347 347 347 348 350 348 350 348 350 348 345 347 343 345 347 345 347 348 352 352 352 355 352 355 353 355 352 353 355 353 357 357 355 355 352 350 347 345 347 347 347 345 345 347 348 348 350 348 345 347 350 347 347 347 347 348 348 350 348 348 350 353 348 352 347 348 345 343 343 345 345 347 345 0 347 347 347 350 348 350 352 352 350 348 348 347 343 343 343 342 340 343 342 343 343 347 347 348 347 348 347 348 347 350 348 347 347 348 348 350 350 352 348 347 348 350 348 348 347 347 347 345 347 348 350 345 347 0 0 0 0 0
    0 0 0 0 0 0 0 0 0 0 0 0 0 0 0 0 0 0 0 0 0 0 0 0 0 0 0 0 0 0 0 0 0 0 0 0 0 0 0 0 0 0 0 0 0 0 0 0 0 0 0 0 0 0 0 0 0 0 0 0 0 0 0 0 0 0 0 0 0 345 342 340 339 339 336 336 331 331 333 337 342 342 343 345 345 345 347 348 347 347 350 348 347 350 350 347 347 347 348 352 348 345 343 343 345 343 345 343 345 345 347 347 347 347 347 347 352 348 348 347 345 345 350 348 348 347 347 348 348 353 352 345 345 348 343 343 347 347 345 345 347 345 345 348 350 347 348 348 347 348 348 347 348 347 347 345 348 352 350 350 348 352 350 350 352 350 350 350 348 348 347 345 345 342 340 342 343 345 348 347 350 348 350 352 350 352 350 345 347 348 348 350 350 348 350 348 350 348 345 347 342 343 345 345 345 348 352 352 352 355 352 355 352 355 352 353 353 353 357 357 357 355 353 350 347 345 345 347 347 345 345 347 348 348 352 348 347 347 350 348 347 348 347 348 348 350 348 348 350 353 348 352 347 348 345 345 345 347 345 347 345 347 347 347 347 348 348 350 350 350 350 348 348 348 347 345 343 343 342 343 342 343 343 347 347 348 348 350 348 350 348 352 348 347 347 347 348 348 350 350 348 347 348 348 348 348 347 347 347 347 348 348 352 347 347 0 0 0 0 0
    0 0 0 0 0 0 0 0 0 0 0 0 0 0 0 0 0 0 0 0 0 0 0 0 0 0 0 0 0 0 0 0 0 0 0 0 0 0 0 0 0 0 0 0 0 0 0 0 0 0 0 0 0 0 0 0 0 0 0 0 0 0 0 0 0 0 0 0 0 343 340 339 337 339 337 339 336 336 339 342 342 342 343 345 343 345 345 347 345 345 348 347 345 347 347 345 347 347 347 348 347 345 343 343 345 343 345 343 345 345 347 348 347 347 348 347 352 348 350 347 345 345 348 347 347 345 345 347 347 348 348 343 345 347 343 343 347 347 345 345 347 345 345 348 350 347 348 348 348 348 348 347 348 347 347 345 348 350 348 350 350 352 348 348 352 350 350 350 350 348 347 347 347 343 342 343 343 345 348 347 350 348 350 350 350 352 350 347 347 348 348 350 350 348 350 348 348 348 345 347 342 343 345 345 345 350 353 353 353 355 352 355 352 355 352 352 352 352 353 355 355 353 350 348 345 345 345 347 345 345 345 347 348 348 352 348 347 347 350 348 347 348 347 348 348 348 348 348 348 353 347 352 345 348 345 345 345 347 345 347 345 347 347 347 347 348 348 348 350 348 348 347 348 348 347 345 345 343 342 343 342 343 343 347 347 348 348 350 348 352 348 352 348 347 347 347 347 348 350 350 348 347 347 348 348 350 347 347 348 347 348 350 353 348 348 0 0 0 0 0
    0 0 0 0 0 0 0 0 0 0 0 0 0 0 0 0 0 0 0 0 0 0 0 0 0 0 0 0 0 0 0 0 0 0 0 0 0 0 0 0 0 0 0 0 0 0 0 0 0 0 0 0 0 0 0 0 0 0 0 0 0 0 0 0 0 0 0 0 0 343 340 340 339 340 340 340 339 339 340 343 343 342 345 345 345 345 345 345 345 345 348 345 345 347 347 345 345 345 345 345 345 345 343 343 345 343 345 345 347 345 348 348 348 347 350 348 353 350 352 347 345 345 347 345 345 343 343 343 343 345 345 342 343 345 343 343 347 347 345 347 347 347 347 350 352 348 350 350 348 350 348 348 348 348 348 347 350 352 350 352 350 352 348 348 350 348 350 350 348 348 348 347 347 343 342 343 343 345 348 347 350 348 350 352 350 352 352 347 347 350 348 350 350 348 350 348 348 348 345 348 343 345 345 345 347 352 353 353 353 355 353 355 352 355 353 350 350 352 353 353 353 352 350 347 345 345 345 345 345 343 345 347 348 348 350 348 347 347 348 348 345 348 347 348 348 348 348 348 348 353 347 350 347 348 347 347 347 348 347 347 347 347 347 347 347 347 347 347 347 345 347 345 347 345 345 343 345 343 343 343 342 343 343 345 347 347 348 350 347 352 347 353 350 347 347 347 347 350 350 350 347 347 347 348 348 352 348 348 348 348 348 350 352 347 347 0 0 0 0 0
    0 0 0 0 0 0 0 0 0 0 0 0 0 0 0 0 0 0 0 0 0 0 0 0 0 0 0 0 0 0 0 0 0 0 0 0 0 0 0 0 0 0 0 0 0 0 0 0 0 0 0 0 0 0 0 0 0 0 0 0 0 0 0 0 0 0 0 0 0 343 342 340 340 342 342 342 342 340 342 345 343 342 345 345 345 345 347 347 345 345 348 345 345 347 347 345 345 345 343 345 345 343 345 343 345 343 345 345 347 347 350 350 348 348 350 350 355 350 353 348 347 347 347 345 345 342 343 343 343 345 343 342 343 343 342 343 347 347 345 345 347 347 347 350 353 348 350 350 348 350 348 347 347 347 347 345 348 350 350 352 352 353 350 350 350 348 350 350 350 348 347 345 345 343 342 342 342 343 347 345 350 348 350 352 352 352 352 347 347 348 348 348 350 348 350 348 348 350 345 348 345 345 345 347 348 352 355 353 353 355 353 355 353 355 353 352 350 352 353 353 353 352 350 348 347 347 345 345 347 345 345 347 348 348 350 348 348 347 348 348 345 348 347 347 347 348 348 348 347 353 345 350 347 348 347 347 347 348 347 348 348 348 348 347 348 348 347 343 345 343 343 343 345 343 343 343 345 345 345 345 343 343 343 345 347 347 347 348 347 352 347 353 350 347 347 347 347 350 350 352 348 347 348 348 350 352 348 348 348 348 348 348 352 347 347 0 0 0 0 0
    0 0 0 0 0 0 0 0 0 0 0 0 0 0 0 0 0 0 0 0 0 0 0 0 0 0 0 0 0 0 0 0 0 0 0 0 0 0 0 0 0 0 0 0 0 0 0 0 0 0 0 0 0 0 0 0 0 0 0 0 0 0 0 0 0 0 0 0 0 343 342 340 342 342 343 343 343 342 343 347 345 343 347 345 345 345 347 347 345 347 350 345 345 347 348 345 345 345 343 343 345 345 345 345 347 345 347 347 348 347 350 350 348 348 350 348 353 348 352 347 345 345 345 345 345 343 343 343 343 345 345 343 345 345 343 343 347 347 345 347 347 347 347 350 353 348 348 348 348 348 345 345 343 343 343 343 347 348 350 352 352 353 352 350 352 350 350 352 350 348 348 345 345 343 342 342 342 343 347 345 348 348 350 352 352 352 350 347 347 347 347 347 348 348 350 348 348 350 347 348 345 345 345 345 348 352 353 353 353 355 353 357 355 355 355 352 350 350 352 352 352 350 348 350 348 347 347 347 347 345 345 347 347 348 348 348 347 345 347 348 343 347 345 347 347 347 348 348 347 353 345 350 347 348 347 345 345 348 348 348 348 348 348 348 348 348 347 343 343 342 343 342 345 343 343 343 347 345 347 345 343 343 342 345 347 345 347 348 347 350 347 353 352 347 347 348 348 350 350 350 348 348 348 348 350 350 348 348 348 347 347 347 350 345 345 0 0 0 0 0
    0 0 0 0 0 0 0 0 0 0 0 0 0 0 0 0 0 0 0 0 0 0 0 0 0 0 0 0 0 0 0 0 0 0 0 0 0 0 0 0 0 0 0 0 0 0 0 0 0 0 0 0 0 0 0 0 0 0 0 0 0 0 0 0 0 0 0 0 0 342 340 340 340 342 343 343 343 343 343 347 345 343 347 345 345 345 347 347 345 347 350 345 347 347 348 345 347 347 345 345 347 345 347 345 347 347 347 347 348 347 350 348 348 347 348 347 352 347 348 345 343 345 345 343 345 343 345 345 345 347 347 345 347 347 343 343 347 347 345 347 347 347 347 350 353 348 348 348 347 347 343 343 342 342 342 342 345 347 348 352 352 352 352 350 350 350 350 350 350 347 347 345 345 343 342 342 0 0 347 345 350 348 350 352 350 352 350 347 345 347 345 347 347 347 348 347 347 350 347 350 347 345 345 345 348 350 352 352 353 355 353 355 355 355 355 352 350 350 350 348 348 348 347 348 348 347 347 347 348 347 347 347 347 347 348 347 347 345 345 347 343 347 345 347 347 347 348 348 347 353 345 350 347 348 345 343 345 347 348 348 347 348 348 348 348 348 347 343 343 343 343 343 345 343 345 345 347 347 347 347 343 342 342 343 345 345 347 348 347 350 347 353 352 348 348 348 347 348 348 350 347 348 348 348 348 347 347 347 347 347 345 345 347 343 345 0 0 0 0 0
    0 0 0 0 0 0 0 0 0 0 0 0 0 0 0 0 0 0 0 0 0 0 0 0 0 0 0 0 0 0 0 0 0 0 0 0 0 0 0 0 0 0 0 0 0 0 0 0 0 0 0 0 0 0 0 0 0 0 0 0 0 0 0 0 0 0 0 0 0 342 340 340 342 343 343 343 343 343 343 347 345 343 347 345 345 347 347 347 345 347 350 345 347 347 348 345 347 347 345 345 348 345 347 347 348 347 348 347 350 347 352 348 347 347 348 345 350 345 347 343 343 345 345 343 345 343 345 347 345 347 345 345 347 347 343 343 347 347 345 347 347 347 347 350 353 348 348 347 345 347 343 345 343 342 342 342 345 347 348 352 352 352 350 350 350 348 348 348 348 347 347 343 343 343 342 343 0 343 347 345 350 348 348 352 352 352 352 347 345 347 345 345 347 347 348 347 347 352 347 350 348 347 345 345 347 348 350 352 352 353 352 355 355 355 355 353 350 350 350 348 347 348 347 348 347 347 347 347 348 347 347 348 347 347 348 347 347 347 345 347 343 347 345 347 347 347 348 348 345 352 345 348 345 347 343 342 343 347 347 348 347 347 347 347 348 347 347 343 343 343 345 343 345 345 345 345 347 347 348 347 345 343 342 343 345 345 347 348 347 350 347 352 350 348 347 347 347 348 348 348 347 348 347 348 348 347 347 347 347 347 345 345 347 345 345 0 0 0 0 0
    0 0 0 0 0 0 0 0 0 0 0 0 0 0 0 0 0 0 0 0 0 0 0 0 0 0 0 0 0 0 0 0 0 0 0 0 0 0 0 0 0 0 0 0 0 0 0 0 0 0 0 0 0 0 0 0 0 0 0 0 0 0 0 0 0 0 0 0 0 342 340 342 343 343 345 343 345 345 343 348 345 343 347 345 345 345 345 347 345 347 348 345 347 348 348 347 347 348 345 345 348 345 347 347 348 348 348 347 350 347 352 348 347 345 347 345 350 343 343 342 342 343 343 343 343 342 343 345 343 345 345 345 347 348 345 343 347 347 347 347 347 347 347 350 353 348 348 347 347 347 345 345 343 343 343 343 345 347 348 350 350 350 348 348 348 348 347 347 347 345 347 343 343 343 342 343 343 343 347 345 348 348 348 352 352 352 352 348 345 345 345 345 345 345 347 347 345 352 348 352 348 347 345 345 347 348 348 350 350 352 352 355 357 355 355 353 350 348 348 348 347 347 345 347 348 347 347 347 348 348 348 348 348 348 348 348 348 347 347 347 343 347 345 347 347 347 348 348 347 352 343 348 345 345 342 342 343 347 347 347 347 347 347 347 348 347 345 343 343 342 345 343 345 345 345 345 347 348 350 347 347 343 342 343 345 345 347 348 347 348 347 350 348 347 347 347 347 347 347 347 348 348 348 348 348 347 348 348 348 347 345 347 348 347 347 0 0 0 0 0
    0 0 0 0 0 0 0 0 0 0 0 0 0 0 0 0 0 0 0 0 0 0 0 0 0 0 0 0 0 0 0 0 0 0 0 0 0 0 0 0 0 0 0 0 0 0 0 0 0 0 0 0 0 0 0 0 0 0 0 0 0 0 0 0 0 0 0 0 0 342 342 342 343 345 345 345 345 345 345 348 345 345 347 345 345 345 345 347 345 347 348 343 345 347 348 347 347 347 345 345 348 345 347 347 348 348 347 347 352 347 352 347 347 345 345 345 348 343 342 340 340 342 342 342 342 340 342 343 342 343 343 345 347 350 345 345 347 347 347 347 347 347 347 352 353 350 350 348 348 350 347 348 345 345 345 343 345 345 347 347 348 347 347 347 347 347 345 343 345 342 345 342 342 343 342 343 343 343 347 345 350 348 348 352 352 350 352 347 343 345 343 343 343 345 347 345 345 352 348 352 348 347 345 345 347 348 348 348 350 352 352 355 357 355 355 353 352 348 348 347 345 347 345 347 348 348 347 347 348 348 348 352 348 348 348 350 348 348 347 347 343 348 345 347 347 347 347 348 347 352 345 350 345 345 343 342 345 347 348 347 347 345 347 347 347 345 345 343 343 342 345 343 345 345 345 347 347 348 350 348 348 342 342 343 345 345 347 348 347 348 347 348 348 347 345 347 347 347 347 347 348 348 348 348 348 347 347 348 348 347 345 347 347 347 348 0 0 0 0 0
    0 0 0 0 0 0 0 0 0 0 0 0 0 0 0 0 0 0 0 0 0 0 0 0 0 0 0 0 0 0 0 0 0 0 0 0 0 0 0 0 0 0 0 0 0 0 0 0 0 0 0 0 0 0 0 0 0 0 0 0 0 0 0 0 0 0 0 0 0 342 342 343 345 345 347 345 345 347 345 348 345 345 347 347 347 347 347 347 345 347 347 343 345 347 347 345 345 347 345 345 348 345 347 347 348 348 348 347 352 347 352 347 347 345 345 343 347 342 340 340 340 340 340 340 340 340 340 342 342 343 343 345 347 350 345 343 347 347 347 347 347 347 347 352 353 350 352 350 348 352 348 350 347 347 345 345 345 345 347 347 347 347 345 343 343 343 342 340 340 337 340 0 340 342 342 343 345 345 348 347 350 348 348 352 352 350 352 347 343 345 343 343 343 343 345 345 345 352 348 352 348 347 345 345 347 348 348 348 350 352 352 355 357 355 355 353 353 350 350 348 345 347 345 348 348 348 348 348 348 350 350 352 348 348 347 350 348 348 347 347 343 348 345 347 347 347 348 348 347 352 345 350 347 347 343 343 345 348 348 348 347 345 345 345 347 345 343 342 343 342 345 343 345 345 345 347 347 348 352 348 350 343 342 342 345 345 345 347 347 347 347 347 348 345 345 345 345 345 347 347 348 348 348 348 348 347 348 348 348 347 345 345 347 347 348 0 0 0 0 0
    0 0 0 0 0 0 0 0 0 0 0 0 0 0 0 0 0 0 0 0 0 0 0 0 0 0 0 0 0 0 0 0 0 0 0 0 0 0 0 0 0 0 0 0 0 0 0 0 0 0 0 0 0 0 0 0 0 0 0 0 0 0 0 0 0 0 0 0 0 343 343 343 345 347 347 347 347 347 347 348 345 345 347 345 347 347 345 347 345 347 347 343 345 345 347 345 343 345 345 343 347 345 348 347 350 350 348 348 352 347 352 347 0 345 345 343 347 342 340 340 340 340 339 340 340 339 340 342 340 342 342 343 347 348 343 343 347 347 347 347 347 347 347 352 353 350 352 350 348 352 348 350 347 347 345 343 345 345 345 347 347 345 345 343 343 342 340 339 339 334 339 0 340 340 340 342 345 345 348 347 350 350 350 352 353 350 352 347 343 345 345 343 343 345 347 345 345 352 348 353 350 348 345 345 347 348 347 347 348 350 350 355 357 353 353 353 353 350 350 348 347 347 345 348 350 350 348 348 350 350 350 352 348 348 347 352 348 350 347 347 345 348 345 347 347 347 348 348 347 352 347 350 348 348 345 343 345 348 350 348 347 345 347 345 347 347 343 342 343 342 345 343 345 345 345 347 347 348 352 350 352 343 342 342 345 345 345 347 347 347 347 347 348 347 345 347 345 345 345 345 347 348 347 348 347 345 348 347 348 345 343 343 345 347 347 0 0 0 0 0
    0 0 0 0 0 0 0 0 0 0 0 0 0 0 0 0 0 0 0 0 0 0 0 0 0 0 0 0 0 0 0 0 0 0 0 0 0 0 0 0 0 0 0 0 0 0 0 0 0 0 0 0 0 0 0 0 0 0 0 0 0 0 0 0 0 0 0 0 0 342 342 343 343 345 347 347 347 347 345 347 343 345 345 345 345 345 345 345 345 347 345 343 343 343 345 343 343 345 345 343 347 345 348 347 348 350 348 347 352 347 0 0 0 343 343 343 345 342 340 340 340 340 339 342 342 340 342 343 343 343 345 345 348 350 345 345 348 348 348 348 348 347 347 352 353 348 350 350 348 350 347 348 347 347 343 343 343 343 345 345 347 345 345 343 343 345 343 342 340 337 0 0 340 342 340 342 345 345 348 347 350 350 350 352 353 350 352 348 343 347 345 345 345 345 347 345 345 352 348 353 352 350 345 345 347 347 347 347 348 350 350 355 355 353 353 353 353 352 350 348 345 347 345 350 350 350 348 350 350 350 350 352 348 348 347 352 348 348 347 347 345 348 347 347 347 348 348 348 348 352 347 350 348 347 345 342 343 348 348 348 347 343 345 345 347 345 343 343 343 343 345 343 347 345 347 347 348 350 353 352 353 343 343 342 345 345 345 347 347 347 347 347 348 347 347 347 345 345 345 345 347 347 347 347 345 345 347 347 347 345 343 343 347 348 347 0 0 0 0 0
    0 0 0 0 0 0 0 0 0 0 0 0 0 0 0 0 0 0 0 0 0 0 0 0 0 0 0 0 0 0 0 0 0 0 0 0 0 0 0 0 0 0 0 0 0 0 0 0 0 0 0 0 0 0 0 0 0 0 0 0 0 0 0 0 0 0 0 0 0 342 342 340 342 343 345 345 345 347 345 345 343 345 343 343 345 345 343 345 345 345 345 342 343 343 343 343 343 345 345 343 347 345 347 347 348 348 347 345 348 345 0 0 0 342 343 342 345 342 0 340 340 340 339 340 342 342 343 343 345 345 347 347 350 353 347 345 348 348 348 348 348 347 347 350 352 347 348 348 348 350 347 348 347 345 343 342 342 342 343 343 345 343 345 343 343 345 345 343 342 339 0 0 0 342 342 343 345 345 348 347 350 350 350 352 353 348 352 348 343 347 345 345 345 345 347 345 345 353 350 353 353 350 345 343 347 347 345 345 347 348 350 353 353 353 352 353 353 352 348 348 345 347 345 350 350 350 348 350 348 350 350 350 347 347 347 350 347 348 347 345 343 347 347 347 347 348 348 348 348 352 347 350 347 345 345 342 345 348 347 347 345 343 345 343 345 345 343 345 345 345 347 345 348 347 348 350 350 352 355 353 357 345 345 342 345 345 347 348 348 347 348 347 350 348 347 347 347 345 345 345 347 347 347 347 345 345 347 347 347 345 343 345 347 352 347 0 0 0 0 0
    0 0 0 0 0 0 0 0 0 0 0 0 0 0 0 0 0 0 0 0 0 0 0 0 0 0 0 0 0 0 0 0 0 0 0 0 0 0 0 0 0 0 0 0 0 0 0 0 0 0 0 0 0 0 0 0 0 0 0 0 0 0 0 0 0 0 0 0 0 342 342 340 340 343 345 345 345 347 343 345 343 343 343 342 343 343 342 345 343 343 343 340 342 343 343 343 342 345 345 343 347 345 347 347 347 348 345 345 348 345 0 343 343 342 343 343 345 342 0 343 342 342 340 342 342 342 343 343 345 345 347 347 350 353 348 347 350 348 348 348 348 347 345 350 350 347 347 348 348 352 348 348 348 347 343 342 342 342 342 342 343 342 342 342 340 342 342 342 340 339 0 0 340 342 342 343 345 345 347 347 348 348 348 350 352 348 352 350 343 347 345 345 347 347 347 347 347 353 350 353 355 350 345 343 345 345 345 345 347 348 350 353 353 353 352 352 353 353 350 350 347 348 347 350 350 350 347 350 348 348 350 350 347 348 347 352 347 348 347 345 343 347 345 347 347 348 348 348 348 353 347 350 348 343 345 343 345 348 347 347 343 343 345 343 343 342 340 343 343 345 347 345 348 348 350 352 353 353 357 355 360 348 350 343 347 345 347 348 348 348 348 347 348 348 347 347 345 343 345 345 347 347 345 345 345 345 347 347 347 343 343 345 347 353 343 0 0 0 0 0
    0 0 0 0 0 0 0 0 0 0 0 0 0 0 0 0 0 0 0 0 0 0 0 0 0 0 0 0 0 0 0 0 0 0 0 0 0 0 0 0 0 0 0 0 0 0 0 0 0 0 0 0 0 0 0 0 0 0 0 0 0 0 0 0 0 0 0 0 0 342 342 339 340 343 347 347 347 348 345 345 343 345 343 342 343 342 342 343 343 342 340 339 339 340 342 342 342 343 345 343 347 345 347 347 347 348 345 345 348 345 347 343 343 343 343 343 0 343 0 345 343 343 342 342 342 342 343 343 345 345 347 345 350 352 348 347 350 348 348 348 348 347 345 348 350 345 347 348 348 352 348 348 348 347 345 343 342 340 340 340 343 342 342 340 339 340 339 340 0 337 0 0 0 342 342 343 345 345 347 348 350 350 350 352 353 350 353 350 343 347 347 345 347 347 348 347 347 353 350 352 355 348 345 343 345 345 345 343 347 348 350 352 352 353 352 352 353 353 350 350 348 350 347 352 352 350 345 348 347 348 348 350 347 348 347 352 348 348 347 345 343 347 345 347 347 347 348 348 350 353 347 350 347 343 345 343 345 348 347 347 345 345 347 343 343 342 339 342 343 343 347 343 347 347 350 350 353 353 357 355 360 347 352 345 347 345 345 347 348 348 348 345 348 347 347 347 345 343 343 343 345 345 345 343 343 345 347 348 348 347 345 348 348 355 343 0 0 0 0 0
    0 0 0 0 0 0 0 0 0 0 0 0 0 0 0 0 0 0 0 0 0 0 0 0 0 0 0 0 0 0 0 0 0 0 0 0 0 0 0 0 0 0 0 0 0 0 0 0 0 0 0 0 0 0 0 0 0 0 0 0 0 0 0 0 0 0 0 0 0 342 342 339 340 343 347 347 347 347 345 345 343 343 343 343 343 342 342 342 342 340 339 337 337 339 339 340 340 343 345 343 347 345 347 347 347 347 345 345 347 345 345 343 0 0 343 0 0 343 0 347 345 343 342 343 343 342 345 343 345 345 347 345 348 352 348 347 350 350 348 348 350 347 347 350 353 347 347 348 350 352 348 347 347 345 343 342 340 340 340 340 342 340 340 340 340 340 340 340 340 0 0 339 340 340 342 343 345 343 347 348 350 350 350 352 352 348 352 350 343 347 347 345 347 347 348 347 347 353 350 352 355 348 347 345 345 345 345 343 345 347 348 352 350 353 352 352 353 353 350 350 348 352 348 352 352 352 345 348 347 347 347 348 345 348 347 352 347 347 347 343 343 347 345 347 347 347 347 348 348 352 345 348 345 342 343 343 343 347 345 347 345 345 347 342 340 340 337 342 342 343 345 343 347 347 348 348 352 352 0 352 359 345 352 345 347 345 345 347 348 348 348 345 348 347 347 347 343 342 342 342 343 343 343 342 342 343 345 347 345 343 342 343 343 345 337 0 0 0 0 0
    0 0 0 0 0 0 0 0 0 0 0 0 0 0 0 0 0 0 0 0 0 0 0 0 0 0 0 0 0 0 0 0 0 0 0 0 0 0 0 0 0 0 0 0 0 0 0 0 0 0 0 0 0 0 0 0 0 0 0 0 0 0 0 0 0 0 0 0 0 342 342 339 340 343 345 345 345 347 343 343 342 343 343 343 342 342 340 342 340 339 339 336 336 337 339 339 340 342 343 342 347 345 345 347 347 347 345 343 345 343 343 343 0 0 0 0 0 343 347 347 345 345 343 345 345 343 347 343 347 347 347 345 350 352 350 347 350 352 350 350 352 348 348 350 353 347 345 348 348 350 345 345 345 342 0 340 339 339 340 340 342 340 340 340 342 342 342 342 342 0 0 339 340 339 340 342 343 342 347 348 348 348 348 350 350 347 352 348 343 347 345 343 345 347 348 347 347 353 350 352 355 348 347 345 345 345 345 343 345 347 348 350 348 352 350 352 353 353 350 350 350 353 348 353 352 352 343 348 345 345 345 347 343 347 345 350 345 347 345 343 342 345 343 345 345 345 345 347 347 350 343 345 343 340 340 342 0 0 0 0 0 347 347 342 337 339 336 340 342 343 345 343 347 347 348 348 353 353 0 353 362 0 353 345 347 345 345 347 348 348 350 347 350 348 348 348 345 342 342 342 343 342 342 340 340 343 343 343 343 340 337 337 337 337 331 0 0 0 0 0
    0 0 0 0 0 0 0 0 0 0 0 0 0 0 0 0 0 0 0 0 0 0 0 0 0 0 0 0 0 0 0 0 0 0 0 0 0 0 0 0 0 0 0 0 0 0 0 0 0 0 0 0 0 0 0 0 0 0 0 0 0 0 0 0 0 0 0 0 0 0 339 337 337 340 342 343 343 345 342 343 342 342 342 342 342 340 340 340 339 339 339 336 334 336 337 339 339 342 343 342 345 345 345 345 345 345 345 343 343 342 343 342 0 75 75 75 0 343 0 345 345 347 345 345 345 345 347 345 347 347 347 345 350 352 350 348 353 353 352 352 353 350 350 352 355 347 343 347 347 347 342 342 342 340 0 339 336 337 340 340 342 340 342 342 343 343 343 342 342 0 0 0 340 339 340 342 343 342 345 348 348 348 348 350 348 347 350 348 343 347 345 343 347 347 348 347 348 353 350 352 355 348 347 347 345 345 343 343 345 347 347 348 347 352 350 350 353 353 348 348 350 353 350 353 352 352 343 348 345 345 343 345 343 347 345 348 345 345 343 343 342 345 343 343 343 345 345 345 345 345 340 340 339 333 327 0 0 0 0 0 0 0 0 337 321 324 334 340 342 342 343 343 345 347 348 348 355 0 0 0 0 0 357 347 347 347 345 347 348 348 352 347 352 350 350 350 345 342 0 0 0 0 0 0 339 342 342 342 342 339 336 334 334 334 328 0 0 0 0 0
    0 0 0 0 0 0 0 0 0 0 0 0 0 0 0 0 0 0 0 0 0 0 0 0 0 0 0 0 0 0 0 0 0 0 0 0 0 0 0 0 0 0 0 0 0 0 0 0 0 0 0 0 0 0 0 0 0 0 0 0 0 0 0 0 0 0 0 0 0 0 334 331 331 0 339 340 342 342 340 342 340 340 342 342 342 340 340 340 339 339 337 334 334 334 337 337 339 342 342 342 343 343 343 343 343 343 343 342 342 340 342 340 75 75 75 0 0 0 0 347 350 352 348 350 350 347 348 345 348 347 347 345 350 352 352 348 355 355 353 353 355 352 352 352 355 345 342 345 345 345 340 340 342 339 0 337 336 337 340 340 342 342 342 343 345 345 343 343 345 0 0 342 342 340 340 342 343 340 343 347 347 347 348 350 348 345 350 348 343 347 347 343 347 347 348 347 348 353 350 352 355 348 347 347 345 345 343 343 343 345 347 348 345 352 348 350 352 353 348 347 348 353 348 353 350 350 343 347 345 343 343 343 342 347 345 348 343 345 343 343 342 345 343 343 343 343 343 343 343 343 337 334 330 322 317 0 0 304 292 290 294 292 0 0 313 311 333 340 342 342 343 0 345 345 348 0 0 0 0 0 0 0 0 348 347 347 345 348 350 350 353 348 0 352 353 0 0 0 0 507 0 0 0 0 333 339 340 339 340 336 333 331 331 333 328 0 0 0 0 0
    0 0 0 0 0 0 0 0 0 0 0 0 0 0 0 0 0 0 0 0 0 0 0 0 0 0 0 0 0 0 0 0 0 0 0 0 0 0 0 0 0 0 0 0 0 0 0 0 0 0 0 0 0 0 0 0 0 0 0 0 0 0 0 0 0 0 0 0 0 0 330 327 0 336 337 337 340 340 339 340 339 340 342 342 342 340 340 340 339 339 337 333 333 334 337 337 0 342 343 342 343 342 342 342 342 342 342 340 340 339 340 340 0 0 0 0 0 0 0 0 0 355 352 352 352 348 350 347 350 348 348 347 352 352 355 350 355 357 355 353 357 352 352 352 355 347 342 343 343 343 340 340 340 339 336 337 334 337 340 340 342 342 343 345 347 345 343 343 345 0 0 342 342 340 340 342 342 340 342 347 345 347 347 348 347 345 348 347 343 345 345 343 345 347 348 347 348 353 350 350 355 348 347 347 345 343 343 343 343 343 345 347 345 352 347 350 350 352 347 347 348 353 348 352 348 348 342 345 342 340 342 343 342 345 345 347 343 343 343 343 342 345 343 342 342 343 342 342 340 340 333 325 322 319 314 310 0 304 292 289 293 290 293 0 310 307 325 337 340 340 0 0 0 345 0 0 0 0 0 0 0 0 0 0 0 0 345 0 0 0 0 0 0 0 0 0 0 0 0 0 0 0 0 0 0 331 336 333 336 333 330 327 327 330 325 0 0 0 0 0
    0 0 0 0 0 0 0 0 0 0 0 0 0 0 0 0 0 0 0 0 0 0 0 0 0 0 0 0 0 0 0 0 0 0 0 0 0 0 0 0 0 0 0 0 0 0 0 0 0 0 0 0 0 0 0 0 0 0 0 0 0 0 0 0 0 0 0 0 0 0 0 0 0 336 336 336 339 339 337 340 339 340 340 342 340 339 340 340 339 339 336 333 333 334 337 339 342 343 343 342 342 342 342 342 340 342 342 340 340 339 340 340 0 0 0 0 0 0 0 0 0 0 353 353 352 348 350 347 348 348 348 345 350 352 357 350 355 357 355 355 357 352 352 350 357 347 340 342 342 343 339 339 339 337 334 337 334 337 340 340 342 342 343 343 347 345 343 342 343 0 0 340 340 339 340 342 342 339 342 345 345 345 347 348 345 343 347 345 342 343 343 340 343 345 347 345 347 352 348 348 355 347 347 347 345 343 343 343 343 343 345 345 343 350 347 350 350 352 348 348 350 353 348 350 347 347 340 343 0 339 340 342 342 345 343 347 343 345 343 343 342 345 342 342 0 342 340 339 339 337 328 321 319 318 311 306 0 302 290 286 292 289 292 297 307 305 321 0 0 0 82 82 0 0 0 0 0 0 0 0 0 0 0 0 0 0 0 0 0 0 0 0 0 0 0 0 0 0 0 0 0 0 0 0 0 330 328 328 334 331 327 325 324 327 324 0 0 0 0 0
    0 0 0 0 0 0 0 0 0 0 0 0 0 0 0 0 0 0 0 0 0 0 0 0 0 0 0 0 0 0 0 0 0 0 0 0 0 0 0 0 0 0 0 0 0 0 0 0 0 0 0 0 0 0 0 0 0 0 0 0 0 0 0 0 0 0 0 0 0 0 0 0 0 0 337 334 340 337 336 340 337 339 340 340 340 339 340 339 337 0 0 0 0 334 337 337 342 345 0 0 343 342 342 342 342 342 342 342 340 340 342 0 0 0 0 0 0 0 0 0 0 0 0 353 353 348 348 345 345 345 0 0 348 348 357 348 355 357 355 355 355 352 352 350 357 347 340 343 340 342 339 339 339 0 334 337 334 339 340 342 343 342 343 343 347 343 342 340 342 0 0 0 340 339 339 342 342 339 342 347 347 347 347 348 345 342 347 345 340 343 343 340 342 343 347 343 347 352 348 348 353 348 348 348 347 345 343 343 343 342 345 343 342 350 345 350 352 353 348 348 352 355 348 348 347 345 340 343 0 337 339 340 340 345 343 345 343 345 0 343 0 345 342 340 0 0 339 336 333 333 321 317 315 315 310 0 0 300 289 284 289 287 290 0 300 300 0 0 0 0 82 82 0 0 0 0 0 0 0 0 0 0 0 0 0 0 0 0 0 0 0 0 0 0 0 0 0 0 0 0 0 0 0 0 0 333 324 325 333 331 325 322 322 324 322 0 0 0 0 0
    0 0 0 0 0 0 0 0 0 0 0 0 0 0 0 0 0 0 0 0 0 0 0 0 0 0 0 0 0 0 0 0 0 0 0 0 0 0 0 0 0 0 0 0 0 0 0 0 0 0 0 0 0 0 0 0 0 0 0 0 0 0 0 0 0 0 0 0 0 0 0 0 0 0 336 331 337 334 333 337 337 337 339 340 340 337 339 339 337 337 336 333 331 333 336 333 0 345 0 0 343 342 343 343 342 343 343 342 340 0 0 0 0 6690 6690 6133 0 8177 0 0 0 0 0 0 353 347 347 0 340 339 339 339 343 343 357 348 357 360 357 357 357 355 355 352 359 350 343 0 340 342 339 339 337 0 327 334 333 339 342 343 343 343 345 345 348 345 0 342 343 0 0 0 339 337 337 339 340 0 342 350 348 347 350 352 345 343 345 343 337 340 340 334 334 340 343 342 345 348 347 348 0 0 350 348 348 347 343 343 342 342 0 0 0 0 342 350 355 353 348 347 347 350 0 342 0 0 0 0 0 334 336 0 0 0 0 0 0 0 0 0 0 345 340 337 0 334 331 327 324 322 318 315 314 314 309 0 0 299 289 283 287 285 288 290 293 294 0 0 0 0 82 0 0 0 0 0 0 0 5661 0 0 0 0 0 0 0 0 0 0 0 0 0 0 0 0 0 0 0 0 0 0 0 0 0 0 0 0 318 333 328 322 321 321 325 322 0 0 0 0 0
    0 0 0 0 0 0 0 0 0 0 0 0 0 0 0 0 0 0 0 0 0 0 0 0 0 0 0 0 0 0 0 0 0 0 0 0 0 0 0 0 0 0 0 0 0 0 0 0 0 0 0 0 0 0 0 0 0 0 0 0 0 0 0 0 0 0 0 0 0 0 0 0 0 0 0 328 333 330 330 334 334 336 337 339 0 337 339 337 337 337 336 333 331 333 337 331 342 345 0 0 0 0 340 342 340 342 342 342 0 0 0 0 4906 5256 0 0 0 0 0 0 0 0 0 0 0 0 345 340 337 336 336 334 0 0 0 0 0 364 360 360 360 359 357 355 360 353 345 0 0 343 0 0 0 0 322 331 331 337 342 343 342 343 345 348 352 348 0 345 345 0 0 340 339 336 336 337 337 0 0 0 0 0 0 0 342 336 336 330 324 327 328 322 318 319 334 0 0 0 0 2230 0 148 0 0 0 350 0 345 0 0 107 107 107 0 0 0 0 353 0 0 0 0 0 0 0 0 0 0 0 0 0 0 0 0 0 0 0 0 0 0 0 0 337 0 0 321 321 319 318 317 315 314 313 313 306 0 302 299 290 284 286 284 287 289 287 289 292 0 0 0 0 0 0 0 0 0 0 0 0 0 0 0 0 0 0 0 0 0 0 0 0 0 0 0 0 0 0 0 0 0 0 0 0 0 0 0 0 311 321 321 319 318 319 324 322 0 0 0 0 0
    0 0 0 0 0 0 0 0 0 0 0 0 0 0 0 0 0 0 0 0 0 0 0 0 0 0 0 0 0 0 0 0 0 0 0 0 0 0 0 0 0 0 0 0 0 0 0 0 0 0 0 0 0 0 0 0 0 0 0 0 0 0 0 0 0 0 0 0 0 0 0 0 292 0 0 321 322 327 328 331 330 334 334 336 0 334 337 337 336 339 336 334 334 337 0 0 0 0 0 110 0 0 339 339 337 340 340 340 0 0 0 0 4599 0 0 0 0 0 0 0 0 0 0 0 0 1415 1388 1415 0 0 0 0 0 0 162 0 0 0 0 0 362 360 360 360 359 353 0 446 0 0 0 0 0 0 0 331 330 334 342 343 343 343 348 352 355 0 0 0 0 0 0 0 0 334 334 0 336 0 0 0 0 0 0 0 0 0 0 0 317 321 321 319 317 0 0 0 0 0 0 0 0 0 0 0 0 0 0 0 0 0 107 0 0 0 0 0 0 0 0 0 0 0 0 0 0 0 0 0 0 0 0 0 0 0 0 0 0 0 0 0 0 0 0 0 0 314 315 314 314 314 313 313 310 310 302 0 0 296 288 284 285 284 287 292 289 288 290 0 0 0 0 0 0 0 0 0 0 0 0 0 0 0 0 0 0 0 0 0 0 0 0 0 0 0 0 0 0 0 0 0 0 0 0 0 0 0 297 305 313 317 317 315 318 322 322 0 0 0 0 0
    0 0 0 0 0 0 0 0 0 0 0 0 0 0 0 0 0 0 0 0 0 0 0 0 0 0 0 0 0 0 0 0 0 0 0 0 0 0 0 0 0 0 0 0 0 0 0 0 0 0 0 0 0 0 0 0 0 0 0 0 0 0 0 0 0 0 0 0 0 0 0 0 0 0 0 0 0 321 327 328 324 331 331 333 0 334 337 336 337 342 0 0 0 0 0 0 364 0 294 0 0 0 337 0 334 337 339 339 0 0 0 0 0 0 0 0 0 0 0 0 0 0 0 0 0 0 0 0 0 0 1471 0 0 0 161 0 159 0 0 0 0 0 0 0 0 0 0 0 0 0 0 0 0 0 0 0 0 0 0 0 0 0 0 0 0 0 0 0 0 0 0 0 0 0 0 0 0 0 0 0 0 0 0 0 0 0 0 0 0 0 0 0 0 0 0 0 0 0 0 0 0 0 0 0 0 0 0 0 0 0 0 0 0 0 0 0 0 0 0 0 0 0 0 0 0 0 0 0 0 0 0 0 0 0 0 0 0 0 0 0 0 0 0 0 0 0 311 309 309 311 311 311 306 304 0 0 0 0 288 281 283 281 286 293 287 283 0 0 0 0 0 0 0 0 0 0 0 0 247 0 0 0 0 0 0 0 0 0 0 0 0 0 0 0 0 0 0 0 0 0 0 0 0 0 0 0 296 301 307 314 314 311 0 325 328 0 0 0 0 0
    0 0 0 0 0 0 0 0 0 0 0 0 0 0 0 0 0 0 0 0 0 0 0 0 0 0 0 0 0 0 0 0 0 0 0 0 0 0 0 0 0 0 0 0 0 0 0 0 0 0 0 0 0 0 0 0 0 0 0 0 0 0 0 0 0 0 0 0 0 0 110 0 0 0 0 0 0 0 0 0 328 331 0 0 0 334 339 334 0 0 0 0 0 0 0 0 0 0 0 0 0 0 687 645 0 0 334 336 331 0 0 0 0 0 0 0 0 0 0 0 0 0 0 0 0 0 0 0 0 0 0 0 0 0 0 0 0 0 0 0 0 0 0 0 0 0 0 0 0 0 0 0 0 0 0 0 0 0 0 0 0 0 0 0 0 0 0 0 0 0 0 0 0 0 0 0 0 0 0 0 0 0 0 0 0 0 0 0 0 0 0 0 0 0 0 0 0 0 0 0 0 0 0 0 0 0 0 0 0 0 0 0 0 0 0 0 0 0 0 0 0 0 0 0 0 0 0 0 0 0 0 0 0 0 0 0 0 0 0 0 0 0 0 0 0 0 313 305 307 310 310 310 304 0 0 0 0 0 0 0 0 0 0 0 0 0 0 0 0 0 0 0 0 255 253 252 0 247 248 245 246 245 0 0 0 0 0 0 0 0 0 0 0 0 0 0 0 0 0 0 0 0 0 0 0 0 0 300 299 311 307 0 0 0 0 0 0 0 0 0
    0 0 0 0 0 0 0 0 0 0 0 0 0 0 0 0 0 0 0 0 0 0 0 0 0 0 0 0 0 0 0 0 0 0 0 0 0 0 0 0 0 0 0 0 0 0 0 0 0 0 0 0 0 0 0 0 0 0 0 0 0 0 0 0 0 0 0 0 0 108 108 0 0 0 0 0 0 0 0 0 0 0 0 0 0 0 0 0 0 0 0 0 0 0 0 0 0 0 0 0 0 0 0 0 0 0 0 0 0 0 0 0 0 0 0 0 0 0 0 0 0 0 0 0 0 0 0 0 0 0 0 0 0 0 0 0 0 0 0 0 0 0 0 0 0 0 0 0 0 0 0 0 0 0 0 0 0 0 0 0 0 0 0 0 0 0 0 0 0 0 0 0 0 0 0 0 0 0 0 0 0 0 0 0 0 0 0 0 0 0 0 0 0 0 0 0 0 0 0 0 0 0 0 0 0 159 0 251 251 251 249 248 248 247 248 245 0 0 0 0 0 0 0 0 0 0 0 0 0 0 0 0 0 0 0 0 0 0 0 0 0 0 0 0 0 0 0 0 0 0 130 130 130 130 0 0 0 0 0 0 0 0 0 0 0 0 0 0 0 0 0 0 0 0 0 251 249 249 249 246 246 246 245 0 0 0 0 0 0 0 0 0 0 0 0 0 0 0 0 0 0 0 0 0 0 0 0 0 0 0 0 0 0 0 0 0 0 0 0 0
    0 0 0 0 0 0 0 0 0 0 0 0 0 0 0 0 0 0 0 0 0 0 0 0 0 0 0 0 0 0 0 0 0 0 0 0 0 0 0 0 0 0 0 0 0 0 0 0 0 0 0 0 0 0 0 0 0 0 0 0 0 0 0 0 0 0 0 0 0 0 0 0 0 0 0 0 0 0 0 0 0 0 0 0 0 0 0 0 0 0 0 0 0 0 0 0 0 0 0 0 0 0 0 0 0 0 0 0 0 0 0 0 0 0 0 0 0 0 0 0 0 0 0 0 0 0 0 0 0 0 0 0 0 0 0 0 0 0 0 0 0 0 0 0 0 0 0 0 0 0 0 0 0 0 0 0 0 0 0 0 0 0 0 0 0 0 0 0 0 0 0 0 0 0 0 0 0 0 0 0 0 0 0 0 0 0 0 0 0 0 0 0 0 0 0 0 0 0 0 0 0 0 0 175 0 244 252 251 252 252 251 249 248 247 247 244 246 245 243 0 0 0 0 80 80 80 80 80 0 0 81 80 0 81 81 81 0 252 247 0 0 0 0 0 0 0 0 0 257 252 0 0 0 0 0 0 0 0 105 104 104 104 104 105 105 0 0 0 0 0 0 0 138 0 0 0 248 249 249 246 246 246 246 0 0 0 0 0 0 0 0 0 0 0 0 0 0 0 0 481 477 0 0 0 381 371 0 0 0 0 264 0 0 0 260 0 0 0 0 0
    0 0 0 0 0 0 0 0 0 0 0 0 0 0 0 0 0 0 0 0 0 0 0 0 0 0 0 0 0 0 0 0 0 0 0 0 0 0 0 0 0 0 0 0 0 0 0 0 0 0 0 0 0 0 0 0 0 0 0 0 0 0 0 0 0 0 0 0 0 0 0 0 0 0 0 0 0 0 0 0 0 0 0 0 0 0 0 0 0 0 0 0 0 0 0 0 0 0 0 0 0 0 0 0 0 0 0 0 0 0 0 0 0 0 0 0 0 0 252 252 0 248 0 0 0 0 0 0 168 0 0 0 0 0 0 0 1051 1051 0 0 0 0 0 0 0 0 0 0 0 0 0 0 0 0 0 0 0 0 0 0 0 0 195 196 0 0 0 0 0 0 0 0 243 242 242 0 130 130 131 131 0 0 165 165 0 0 0 0 254 252 0 0 0 90 90 0 0 0 0 140 140 140 0 0 0 246 250 249 251 252 251 250 248 247 247 246 247 246 245 245 0 0 0 0 0 80 81 0 80 81 0 0 0 0 0 0 252 252 247 246 0 0 0 0 0 0 0 256 255 252 0 251 0 0 0 0 0 0 0 0 104 104 104 0 0 0 0 0 0 0 0 0 138 0 0 0 248 248 249 246 246 246 246 247 247 247 0 0 0 0 0 0 0 0 0 0 490 490 490 0 0 0 0 0 0 0 0 252 0 0 260 260 258 258 257 0 0 0 0 0
    0 0 0 0 0 0 0 0 0 0 0 0 0 0 0 0 0 0 0 0 0 0 0 0 0 0 0 0 0 0 0 0 0 0 0 0 0 0 0 0 0 0 0 0 0 0 0 0 0 0 0 0 0 0 0 0 0 0 0 0 0 0 0 0 0 0 0 0 0 0 0 0 0 0 0 0 0 0 0 0 0 0 0 0 0 0 0 0 0 0 0 0 0 0 0 0 0 0 0 0 0 0 0 0 0 0 0 0 0 0 0 0 355 350 0 0 0 0 0 0 0 0 246 0 0 0 0 0 238 0 242 0 0 245 246 0 0 0 0 85 0 84 0 0 0 0 0 0 0 0 0 88 0 0 0 81 0 82 82 82 0 0 196 196 195 82 81 0 0 0 0 0 0 0 0 0 0 0 0 131 0 0 0 0 0 0 0 0 253 252 252 0 0 0 90 0 116 0 0 0 0 0 0 84 249 246 248 247 249 250 250 249 248 248 248 248 249 248 246 246 0 0 0 0 80 0 0 0 246 0 252 251 0 0 0 0 252 252 247 246 0 0 0 0 0 0 0 255 254 252 0 251 0 0 0 0 0 0 0 0 0 104 0 0 0 246 246 0 109 0 0 0 0 0 0 249 249 249 249 246 246 246 246 247 247 247 246 0 251 0 0 0 0 0 0 0 0 0 0 0 0 0 0 0 0 0 0 251 255 254 253 252 252 252 252 0 0 0 0 0
    0 0 0 0 0 0 0 0 0 0 0 0 0 0 0 0 0 0 0 0 0 0 0 0 0 0 0 0 0 0 0 0 0 0 0 0 0 0 0 0 0 0 0 0 0 0 0 0 0 0 0 0 0 0 0 0 0 0 0 0 0 0 0 0 0 0 0 0 0 0 0 0 0 0 0 0 0 0 0 0 0 239 238 0 0 0 0 0 0 0 0 0 0 0 0 0 0 0 0 0 0 0 0 0 0 0 0 0 166 0 0 0 0 0 0 0 0 0 0 0 0 0 245 0 0 0 0 242 240 0 242 0 244 244 245 245 0 0 0 0 0 0 84 0 88 0 0 88 89 88 88 88 0 0 0 0 0 0 0 0 0 0 196 197 196 82 0 0 244 0 0 128 0 0 243 0 0 0 0 0 0 0 0 0 255 0 254 253 254 253 253 0 0 0 90 90 0 0 0 0 0 0 84 0 248 246 246 246 247 249 249 249 248 248 248 249 249 249 246 246 246 245 245 245 0 0 245 245 246 246 251 251 252 0 252 0 251 250 247 246 248 249 250 249 252 251 252 253 253 252 252 251 251 247 0 0 250 0 0 250 250 0 0 0 246 246 246 0 0 0 0 0 0 250 0 250 250 249 249 247 246 246 246 247 247 247 246 247 251 250 0 0 250 251 251 251 251 250 251 250 0 0 0 0 0 0 250 250 251 250 248 247 248 250 249 0 0 0 0 0
    0 0 0 0 0 0 0 0 0 0 0 0 0 0 0 0 0 0 0 0 0 0 0 0 0 0 0 0 0 0 0 0 0 0 0 0 0 0 0 0 0 0 0 0 0 0 0 0 0 0 0 0 0 0 0 0 0 0 0 0 0 0 0 0 0 0 0 0 0 0 0 0 0 0 0 0 0 0 0 239 238 240 238 242 244 0 0 0 0 0 0 0 0 0 0 0 0 0 0 0 198 0 0 0 0 0 0 0 0 0 165 0 0 0 0 0 0 0 0 0 0 0 245 245 0 243 242 242 241 242 242 0 244 244 244 245 245 0 246 0 246 242 0 0 0 0 0 0 0 0 0 0 0 0 245 244 0 243 0 0 0 0 0 0 0 0 0 244 245 0 0 0 0 243 244 244 245 246 246 0 0 0 0 253 254 255 253 252 253 253 253 254 0 0 90 90 0 0 0 0 0 0 0 0 248 246 246 246 246 248 248 248 248 248 248 249 249 248 246 246 246 244 245 245 245 245 245 245 246 246 250 250 252 0 251 250 249 248 246 246 246 247 247 247 249 249 250 252 252 251 251 251 252 249 251 250 251 251 250 251 250 0 249 247 246 246 245 0 245 246 247 249 249 250 250 250 250 250 250 247 247 247 246 247 247 247 246 247 251 250 250 251 250 251 251 250 251 250 250 250 249 0 0 249 249 246 247 248 248 248 247 246 246 249 249 0 0 0 0 0
    0 0 0 0 0 0 0 0 0 0 0 0 0 0 0 0 0 0 0 0 0 0 0 0 0 0 0 0 0 0 0 0 0 0 0 0 0 0 0 0 0 0 0 0 0 0 0 0 0 0 0 0 0 0 0 0 0 0 0 0 0 0 0 0 0 0 0 0 0 0 0 0 0 0 0 0 0 0 237 238 237 237 236 238 241 0 0 0 0 345 345 0 0 0 0 0 0 0 0 0 0 0 0 0 0 0 0 0 0 0 165 0 0 0 0 0 0 0 0 0 0 0 244 245 0 243 241 242 240 242 242 0 245 245 245 245 245 246 246 245 246 243 0 0 0 0 0 244 0 0 0 0 246 246 245 243 243 243 245 243 244 245 246 0 246 0 0 245 246 0 0 0 244 243 244 244 244 245 246 246 247 0 0 252 252 253 252 252 252 252 252 254 256 0 0 0 0 0 0 0 0 0 0 0 247 246 246 246 246 247 247 247 247 247 247 248 248 247 246 245 245 244 244 244 244 244 245 245 246 246 250 250 251 250 251 250 249 0 246 246 246 246 246 246 247 247 248 250 250 0 250 250 251 250 251 250 251 251 250 251 250 248 248 246 246 246 244 245 245 246 247 248 249 250 250 250 250 250 250 248 247 247 247 248 247 247 247 247 252 250 250 251 250 251 251 250 251 250 250 250 249 0 247 248 247 246 246 247 248 248 247 246 247 250 250 0 0 0 0 0
    0 0 0 0 0 0 0 0 0 0 0 0 0 0 0 0 0 0 0 0 0 0 0 0 0 0 0 0 0 0 0 0 0 0 0 0 0 0 0 0 0 0 0 0 0 0 0 0 0 0 0 0 0 0 0 0 0 0 0 0 0 0 0 0 0 0 0 0 0 0 0 0 0 0 0 0 0 0 238 239 237 238 236 238 239 0 241 242 242 0 0 246 0 0 0 242 242 238 0 0 238 238 0 237 0 0 0 246 0 245 0 0 0 0 0 0 0 0 0 0 0 0 244 245 244 243 242 242 241 242 243 244 245 245 246 246 246 246 246 245 246 244 244 244 245 244 244 243 245 0 0 246 245 245 245 243 243 243 245 245 245 0 0 0 0 0 0 246 246 246 246 245 245 243 244 244 244 244 245 245 246 0 0 250 251 252 251 251 252 252 252 254 255 252 252 0 0 0 0 0 0 0 0 248 247 246 246 246 246 247 247 247 247 247 247 248 248 247 246 246 245 244 245 244 244 244 245 245 246 246 248 249 250 249 250 249 248 246 245 245 246 246 247 246 247 248 249 250 250 0 250 250 252 251 252 251 252 252 251 251 250 248 248 246 246 245 244 245 245 246 247 248 249 249 250 250 250 251 250 249 248 248 248 249 249 249 247 249 252 251 251 251 250 251 251 251 251 250 250 250 249 0 247 248 247 246 246 247 248 248 247 247 248 250 250 0 0 0 0 0
    0 0 0 0 0 0 0 0 0 0 0 0 0 0 0 0 0 0 0 0 0 0 0 0 0 0 0 0 0 0 0 0 0 0 0 0 0 0 0 0 0 0 0 0 0 0 0 0 0 0 0 0 0 0 0 0 0 0 0 0 0 0 0 0 0 0 0 0 0 249 0 246 0 246 243 0 243 242 239 240 238 239 237 239 241 241 241 242 242 242 243 245 243 243 242 242 242 240 240 240 239 240 237 238 238 239 244 244 243 243 0 0 0 0 0 0 244 246 246 0 0 245 244 244 244 243 242 242 242 243 244 245 245 246 246 246 246 246 246 245 246 245 244 244 244 244 244 243 244 244 246 245 244 244 245 243 244 244 246 246 246 0 0 0 0 248 0 246 246 246 246 245 244 243 244 244 244 244 245 245 245 246 248 249 250 251 251 251 252 252 252 253 254 252 251 0 0 0 0 0 0 0 0 248 247 246 246 246 246 246 247 247 246 247 247 248 248 247 246 246 245 245 245 245 244 244 245 245 246 246 248 248 249 249 250 249 247 246 245 245 245 246 246 246 247 248 248 251 250 250 250 251 252 251 252 252 252 252 252 251 250 248 247 246 245 244 243 244 244 246 247 248 249 0 250 250 251 252 251 250 249 250 250 250 250 250 249 250 252 251 251 251 251 251 251 251 251 250 250 250 249 0 247 248 247 246 247 248 248 248 248 247 248 250 250 0 0 0 0 0
    0 0 0 0 0 0 0 0 0 0 0 0 0 0 0 0 0 0 0 0 0 0 0 0 0 0 0 0 0 0 0 0 0 0 0 0 0 0 0 0 0 0 0 0 0 0 0 0 0 0 0 0 0 0 0 0 0 0 0 0 0 0 0 0 0 0 0 0 0 250 248 246 0 245 242 243 242 242 240 241 240 241 238 241 242 243 242 242 242 242 242 244 243 242 242 242 242 241 242 242 241 242 238 239 238 240 242 242 240 241 238 240 0 0 0 243 244 246 245 0 244 244 243 244 243 243 242 242 242 244 245 245 246 246 246 246 246 246 246 245 245 244 243 243 244 243 243 243 245 245 245 245 244 244 245 244 244 245 246 246 246 0 0 0 248 248 0 246 246 245 245 244 244 242 244 244 244 244 245 245 245 246 248 248 249 250 250 250 252 251 252 252 252 250 250 248 0 0 0 0 0 247 247 247 247 246 246 246 246 246 246 247 246 247 247 248 247 247 246 246 245 245 246 246 244 245 246 246 247 247 248 248 249 249 249 249 247 246 245 245 245 246 246 246 246 247 248 250 249 250 250 251 251 251 252 252 252 252 252 251 250 248 247 246 245 244 242 243 244 246 246 248 249 249 250 250 251 252 251 252 250 251 252 251 251 250 250 250 252 251 251 252 252 252 252 252 252 251 250 250 249 0 0 249 248 247 248 249 249 249 248 248 248 250 250 0 0 0 0 0
    0 0 0 0 0 0 0 0 0 0 0 0 0 0 0 0 0 0 0 0 0 0 0 0 0 0 0 0 0 0 0 0 0 0 0 0 0 0 0 0 0 0 0 0 0 0 0 0 0 0 0 0 0 0 0 0 0 0 0 0 0 0 0 0 0 0 0 0 0 249 248 247 245 245 243 243 242 242 241 242 242 242 239 242 243 244 242 243 242 242 242 244 243 242 242 243 242 243 243 243 242 243 241 241 240 242 242 242 242 242 242 242 243 245 244 244 244 245 245 0 244 244 243 243 243 243 243 243 243 245 245 246 246 246 246 246 246 246 246 244 245 244 242 242 243 242 243 243 245 245 245 245 244 245 245 245 244 244 245 246 246 247 247 247 247 247 246 246 246 244 244 244 243 242 244 244 244 244 245 245 245 246 247 247 248 248 249 249 250 250 251 251 251 249 249 247 0 0 248 248 247 246 246 247 246 246 246 246 246 246 246 246 246 247 247 247 247 248 247 246 245 245 246 246 245 245 245 246 247 246 247 248 249 249 249 248 247 246 245 246 245 245 246 245 246 246 246 248 248 249 249 250 251 251 252 252 252 252 252 252 250 249 247 246 246 244 243 244 244 247 248 249 250 250 251 251 252 252 251 252 251 251 252 251 251 250 251 250 252 252 252 252 252 252 252 252 252 251 250 251 250 0 0 250 249 249 249 251 250 250 248 247 248 250 250 0 0 0 0 0
    0 0 0 0 0 0 0 0 0 0 0 0 0 0 0 0 0 0 0 0 0 0 0 0 0 0 0 0 0 0 0 0 0 0 0 0 0 0 0 0 0 0 0 0 0 0 0 0 0 0 0 0 0 0 0 0 0 0 0 0 0 0 0 0 0 0 0 0 0 249 248 247 246 246 244 243 243 242 242 242 242 243 240 242 244 244 243 243 242 242 242 244 243 243 243 244 243 244 244 244 243 244 243 242 242 243 242 242 243 244 245 245 244 245 244 244 244 244 244 0 242 243 242 242 243 244 243 244 244 246 246 246 246 246 246 245 246 245 245 243 244 244 242 242 243 242 243 243 245 244 245 245 244 244 245 244 244 244 244 245 246 246 246 246 246 246 246 246 246 244 244 244 244 242 244 244 244 244 245 245 245 246 247 246 247 247 248 248 249 249 249 249 249 248 248 247 0 247 248 247 247 246 246 246 246 246 246 246 246 246 246 246 246 247 247 248 248 248 247 246 246 245 246 246 244 244 244 245 247 246 246 246 247 248 248 248 247 246 245 246 245 245 245 245 246 246 246 247 247 248 248 249 251 251 252 252 252 252 252 252 251 250 248 247 246 245 244 244 244 248 248 250 250 250 251 251 252 252 252 252 251 251 252 250 251 250 251 250 251 252 251 251 252 251 252 252 252 251 250 251 250 250 250 251 250 250 250 251 250 250 248 247 248 250 250 0 0 0 0 0
    0 0 0 0 0 0 0 0 0 0 0 0 0 0 0 0 0 0 0 0 0 0 0 0 0 0 0 0 0 0 0 0 0 0 0 0 0 0 0 0 0 0 0 0 0 0 0 0 0 0 0 0 0 0 0 0 0 0 0 0 0 0 0 0 0 0 0 0 0 248 247 247 246 246 244 243 243 242 242 242 243 243 241 243 244 244 243 243 242 242 242 244 243 242 243 244 243 244 244 244 244 245 244 244 243 245 243 242 242 244 244 244 243 244 243 243 243 243 243 242 242 242 242 242 243 244 244 244 245 246 246 246 246 246 246 246 246 245 245 243 244 244 242 242 243 242 242 242 244 243 244 244 243 243 244 244 243 243 244 244 245 246 246 246 246 246 246 246 246 244 244 245 244 243 244 244 244 244 245 245 245 245 246 246 247 246 247 247 248 247 248 247 247 247 247 246 247 247 247 247 246 246 246 246 246 246 246 246 246 246 246 246 246 247 247 247 247 248 248 246 246 246 246 246 245 243 244 244 246 246 246 246 246 247 247 247 246 245 245 245 244 245 245 245 246 246 246 247 247 248 248 249 251 252 252 252 252 252 252 252 252 250 248 247 246 245 245 244 244 247 248 249 250 249 250 251 251 251 251 252 251 251 252 250 251 250 252 250 251 252 252 252 252 251 252 252 252 251 250 251 251 250 251 251 251 251 250 252 250 250 0 248 248 250 250 0 0 0 0 0
    0 0 0 0 0 0 0 0 0 0 0 0 0 0 0 0 0 0 0 0 0 0 0 0 0 0 0 0 0 0 0 0 0 0 0 0 0 0 0 0 0 0 0 0 0 0 0 0 0 0 0 0 0 0 0 0 0 0 0 0 0 0 0 0 0 0 0 0 0 246 246 246 245 245 243 243 242 242 242 243 243 243 241 243 244 244 242 243 242 242 242 244 243 242 242 244 243 244 244 244 244 245 245 244 244 244 242 240 240 242 242 242 242 242 242 242 242 243 242 242 242 242 242 242 243 243 243 243 245 246 246 246 246 246 246 246 246 245 245 244 245 245 242 242 243 242 242 242 244 243 243 243 242 243 244 243 243 243 244 244 245 246 246 246 246 246 246 246 246 244 244 245 244 243 245 244 245 244 245 245 245 245 246 246 246 246 246 246 247 246 247 246 246 246 246 246 246 246 247 246 246 246 246 246 246 246 246 246 246 246 246 246 246 247 247 247 247 249 248 247 246 246 247 246 246 245 244 245 247 246 246 246 246 247 246 246 246 245 245 245 244 245 245 245 246 246 246 247 246 248 247 248 250 251 252 252 252 252 252 252 251 249 247 247 246 246 245 244 244 247 248 249 249 249 250 250 250 250 250 251 250 251 252 251 251 251 252 251 252 252 252 252 252 251 252 252 252 251 250 251 250 251 252 252 251 252 251 252 251 251 0 249 249 250 251 0 0 0 0 0
    0 0 0 0 0 0 0 0 0 0 0 0 0 0 0 0 0 0 0 0 0 0 0 0 0 0 0 0 0 0 0 0 0 0 0 0 0 0 0 0 0 0 0 0 0 0 0 0 0 0 0 0 0 0 0 0 0 0 0 0 0 0 0 0 0 0 0 0 0 246 246 246 245 245 243 242 242 241 242 243 243 243 241 242 244 243 242 242 242 242 242 244 242 242 243 244 243 245 244 244 244 245 244 244 243 244 242 241 241 242 242 243 242 243 243 243 242 243 242 242 242 242 242 242 243 244 243 243 245 246 246 246 245 246 246 246 246 246 245 244 245 245 243 242 243 242 242 243 244 245 245 244 244 244 244 244 243 243 244 244 245 246 246 246 246 246 246 245 245 244 245 245 244 243 245 244 245 244 245 244 244 245 246 246 246 246 246 246 247 246 247 246 246 246 246 246 246 246 246 246 246 246 246 246 246 246 246 246 246 246 246 246 246 247 248 247 248 249 249 247 247 247 248 246 246 245 245 245 246 246 246 246 246 246 246 246 246 244 244 245 245 246 245 246 246 246 246 247 247 248 247 248 249 250 251 251 251 251 251 251 250 249 247 247 247 246 246 246 245 248 248 249 249 249 250 250 250 250 250 251 250 251 252 251 251 252 253 252 252 252 252 252 252 251 251 251 251 251 250 250 250 250 252 252 252 252 251 252 252 251 0 249 249 250 251 0 0 0 0 0
    0 0 0 0 0 0 0 0 0 0 0 0 0 0 0 0 0 0 0 0 0 0 0 0 0 0 0 0 0 0 0 0 0 0 0 0 0 0 0 0 0 0 0 0 0 0 0 0 0 0 0 0 0 0 0 0 0 0 0 0 0 0 0 0 0 0 0 0 0 246 246 246 245 245 242 242 242 242 242 243 244 244 242 243 244 244 242 243 242 242 242 243 242 242 242 244 242 245 244 245 244 245 244 244 243 244 241 241 241 242 241 0 242 244 243 243 243 243 242 242 242 242 242 242 243 244 244 243 245 246 246 246 245 246 246 246 246 246 245 244 245 245 242 242 243 242 242 244 245 245 245 245 244 244 245 244 243 244 244 244 244 246 246 246 246 246 245 245 245 244 244 245 244 244 245 244 245 245 246 245 245 245 246 246 247 246 247 247 247 246 247 246 246 246 246 246 246 246 246 245 245 245 246 246 246 246 246 246 246 246 247 247 247 247 248 248 248 251 250 249 249 249 249 247 246 246 245 245 246 246 245 245 245 246 245 245 245 244 244 245 245 246 246 246 246 246 247 248 248 249 247 248 249 250 251 250 251 251 251 252 251 250 249 249 250 247 247 246 246 249 248 249 249 249 249 250 250 249 250 251 250 251 251 251 251 252 254 252 252 252 252 252 252 250 251 251 250 250 249 249 249 250 252 251 252 252 251 252 252 252 0 249 249 250 251 0 0 0 0 0
    0 0 0 0 0 0 0 0 0 0 0 0 0 0 0 0 0 0 0 0 0 0 0 0 0 0 0 0 0 0 0 0 0 0 0 0 0 0 0 0 0 0 0 0 0 0 0 0 0 0 0 0 0 0 0 0 0 0 0 0 0 0 0 0 0 0 0 0 0 247 246 246 245 245 242 242 242 242 242 243 244 245 243 244 245 244 243 243 242 242 242 243 242 242 242 244 243 245 245 245 245 246 245 244 243 244 241 241 241 242 241 0 242 244 243 243 243 243 242 242 242 242 242 241 243 244 244 243 245 246 246 246 245 246 246 246 246 246 244 244 244 245 242 242 243 242 242 244 245 246 246 246 246 245 245 245 244 244 244 243 244 245 246 246 245 246 245 244 245 244 244 245 244 244 244 245 245 245 246 245 246 246 247 247 247 247 247 247 247 246 247 246 246 246 246 246 246 246 246 245 245 245 245 246 246 246 246 246 246 246 247 247 247 247 249 248 249 251 250 249 249 249 250 248 248 246 246 246 246 246 246 245 245 245 245 245 245 245 245 245 245 246 246 246 247 246 247 248 248 248 247 247 248 249 250 250 250 251 250 252 251 251 250 250 251 248 248 248 248 249 248 249 249 249 249 249 249 248 250 251 250 251 251 251 251 252 255 252 252 252 252 252 252 249 250 250 250 249 249 249 248 250 252 252 252 252 252 253 253 253 0 0 249 0 251 0 0 0 0 0
    0 0 0 0 0 0 0 0 0 0 0 0 0 0 0 0 0 0 0 0 0 0 0 0 0 0 0 0 0 0 0 0 0 0 0 0 0 0 0 0 0 0 0 0 0 0 0 0 0 0 0 0 0 0 0 0 0 0 0 0 0 0 0 0 0 0 0 0 0 246 246 246 245 245 242 242 242 241 242 243 244 245 243 244 245 244 242 243 242 242 242 243 242 242 242 245 243 246 245 246 245 246 245 245 244 244 242 242 242 242 242 244 243 245 245 244 244 243 243 242 242 242 242 242 243 243 244 242 245 246 246 245 245 246 246 246 246 245 244 244 244 245 242 242 243 243 243 246 246 246 246 246 246 246 246 246 244 244 244 243 244 245 245 245 245 246 244 244 245 244 244 245 244 244 244 245 246 245 246 246 246 246 247 247 248 247 248 247 247 246 247 246 246 246 246 246 246 246 246 245 245 245 245 246 246 245 246 246 246 246 247 247 247 247 249 249 249 251 250 249 249 249 249 247 247 246 246 245 246 246 246 246 245 246 245 245 246 245 245 245 245 246 246 247 247 246 247 247 248 247 246 246 247 248 248 248 250 250 250 251 251 251 250 250 251 250 250 250 249 250 249 249 249 248 248 248 248 248 250 250 250 251 251 251 252 252 257 254 254 253 252 252 252 249 249 249 249 249 249 249 249 251 252 253 255 255 255 255 255 254 0 0 0 0 0 0 0 0 0 0
    0 0 0 0 0 0 0 0 0 0 0 0 0 0 0 0 0 0 0 0 0 0 0 0 0 0 0 0 0 0 0 0 0 0 0 0 0 0 0 0 0 0 0 0 0 0 0 0 0 0 0 0 0 0 0 0 0 0 0 0 0 0 0 0 0 0 0 0 0 246 246 246 246 245 242 243 242 241 242 243 244 245 242 244 244 243 242 243 242 242 242 243 242 242 242 245 243 245 245 245 245 246 245 245 243 244 241 242 242 242 242 244 243 245 245 245 244 243 243 242 242 243 243 242 244 243 244 242 245 245 246 244 244 246 246 246 246 245 243 244 244 245 242 242 243 243 244 246 246 247 247 246 246 246 246 246 244 244 244 243 244 245 246 246 244 246 245 244 245 244 245 245 244 245 245 245 246 246 246 246 246 246 247 248 248 247 248 248 247 246 247 246 246 246 246 246 246 246 246 245 245 245 245 245 245 245 246 245 246 246 247 247 247 248 250 250 250 251 250 250 250 250 249 247 247 246 246 246 246 246 246 246 246 245 245 245 246 245 245 245 245 246 246 247 247 247 247 248 248 248 247 246 247 248 248 248 249 249 250 250 251 250 251 250 251 251 251 251 250 250 249 249 249 248 248 247 248 247 249 250 250 251 251 252 252 252 258 256 257 256 253 252 252 248 248 248 249 249 249 250 250 252 254 255 257 257 256 255 256 253 0 0 0 0 0 0 0 0 0 0
    0 0 0 0 0 0 0 0 0 0 0 0 0 0 0 0 0 0 0 0 0 0 0 0 0 0 0 0 0 0 0 0 0 0 0 0 0 0 0 0 0 0 0 0 0 0 0 0 0 0 0 0 0 0 0 0 0 0 0 0 0 0 0 0 0 0 0 0 0 246 245 246 245 245 242 244 242 242 243 243 244 244 242 243 244 243 242 242 242 242 242 243 242 242 242 245 243 245 244 244 244 245 243 244 242 243 240 241 240 242 240 244 242 244 244 244 244 244 243 243 243 243 243 242 244 243 243 242 245 245 246 244 244 246 246 246 246 246 244 245 245 245 242 242 244 244 244 246 246 247 247 246 246 246 246 246 244 244 244 243 244 245 246 246 245 246 245 245 245 245 245 245 245 245 245 246 246 246 246 246 246 246 247 248 248 247 248 248 247 247 248 247 247 247 247 246 246 246 246 245 245 245 245 246 246 245 246 246 246 247 247 247 247 248 250 250 250 252 251 250 250 250 249 246 247 247 246 246 246 246 246 246 246 246 245 245 246 245 245 244 245 246 246 247 247 248 248 249 249 249 248 247 248 249 248 249 249 249 249 249 250 249 250 250 251 251 251 251 250 250 249 249 249 248 247 247 247 246 249 249 249 250 251 252 252 252 258 257 258 257 253 253 252 248 246 247 249 248 248 248 248 250 252 255 255 256 252 251 253 252 0 0 0 0 252 0 0 0 0 0
    0 0 0 0 0 0 0 0 0 0 0 0 0 0 0 0 0 0 0 0 0 0 0 0 0 0 0 0 0 0 0 0 0 0 0 0 0 0 0 0 0 0 0 0 0 0 0 0 0 0 0 0 0 0 0 0 0 0 0 0 0 0 0 0 0 0 0 0 0 246 245 246 245 245 242 244 242 242 243 243 244 244 242 243 243 242 242 242 242 242 242 243 242 242 242 245 242 243 242 242 242 245 242 243 241 242 240 240 239 241 239 242 242 244 243 243 244 244 244 244 243 244 244 243 244 243 243 241 244 244 245 243 244 246 246 246 246 246 245 245 245 246 244 244 245 246 246 247 247 248 248 246 247 246 246 246 244 245 244 244 245 246 246 246 246 246 245 245 246 245 245 245 245 245 245 246 246 246 246 246 246 246 247 248 248 247 248 248 247 247 248 247 248 248 247 247 246 246 246 246 245 244 245 246 246 245 245 245 246 246 247 247 247 248 250 251 250 251 251 250 250 249 248 246 246 247 246 246 246 246 246 246 246 246 245 245 245 245 245 245 245 246 246 247 248 250 250 251 250 250 249 249 249 249 248 248 248 249 249 249 250 249 250 250 251 251 251 251 250 250 249 249 249 248 246 246 247 246 248 249 249 250 251 251 252 252 258 256 257 256 253 253 252 248 246 248 249 248 248 247 247 249 251 252 250 250 248 246 252 0 0 0 0 0 252 0 0 0 0 0
    0 0 0 0 0 0 0 0 0 0 0 0 0 0 0 0 0 0 0 0 0 0 0 0 0 0 0 0 0 0 0 0 0 0 0 0 0 0 0 0 0 0 0 0 0 0 0 0 0 0 0 0 0 0 0 0 0 0 0 0 0 0 0 0 0 0 0 0 0 245 244 246 245 245 242 244 243 242 243 243 243 244 242 243 243 242 242 242 242 242 242 243 242 242 242 245 243 243 242 242 242 244 241 242 239 242 241 241 241 242 239 242 241 244 243 242 244 244 244 244 244 244 244 243 244 243 243 242 244 244 245 244 244 246 246 246 246 246 245 245 245 246 244 245 246 246 247 249 248 249 249 247 247 246 246 246 244 245 245 245 246 246 246 247 246 247 246 246 246 245 245 245 244 245 244 245 246 246 246 246 246 246 248 249 249 248 249 248 247 247 248 247 248 248 247 247 246 246 246 246 246 244 246 246 246 245 245 245 246 246 247 246 247 247 249 250 249 250 250 249 249 248 247 246 246 247 246 246 246 246 246 246 246 246 245 245 245 245 245 245 245 246 246 247 248 250 250 251 250 249 249 249 249 249 248 248 248 249 249 249 250 250 251 250 251 251 251 251 250 250 250 249 249 248 246 246 246 246 249 249 249 250 251 252 252 252 257 255 256 255 252 253 252 248 247 248 249 248 248 248 247 249 251 253 250 0 0 246 252 252 0 0 0 251 252 0 0 0 0 0
    0 0 0 0 0 0 0 0 0 0 0 0 0 0 0 0 0 0 0 0 0 0 0 0 0 0 0 0 0 0 0 0 0 0 0 0 0 0 0 0 0 0 0 0 0 0 0 0 0 0 0 0 0 0 0 0 0 0 0 0 0 0 0 0 0 0 0 0 0 245 244 246 245 245 241 244 242 242 243 242 243 243 242 243 243 242 242 242 242 242 242 243 242 242 242 245 243 243 242 242 242 245 242 243 241 243 243 243 242 243 241 243 244 246 244 242 245 244 244 244 244 245 244 244 245 244 245 243 246 246 246 245 245 246 246 246 246 246 245 246 246 246 244 245 246 246 247 250 0 250 249 248 248 247 246 246 245 246 245 245 246 0 0 248 247 247 246 246 246 246 245 244 244 244 243 244 245 246 246 246 247 247 248 250 250 250 250 249 248 248 248 248 248 248 247 247 246 246 246 246 245 244 245 245 245 244 245 244 246 246 246 246 246 247 248 248 249 249 249 248 247 247 247 246 246 247 246 246 246 247 246 246 246 246 245 245 246 246 245 245 245 246 246 247 248 250 250 250 250 249 249 249 249 249 248 247 248 249 249 249 250 250 251 251 251 252 251 251 251 251 250 250 251 249 247 247 247 246 249 249 250 250 251 252 252 252 257 253 254 253 252 252 251 249 248 249 250 249 248 248 247 249 251 256 251 0 0 0 252 252 0 0 249 251 252 0 0 0 0 0
    0 0 0 0 0 0 0 0 0 0 0 0 0 0 0 0 0 0 0 0 0 0 0 0 0 0 0 0 0 0 0 0 0 0 0 0 0 0 0 0 0 0 0 0 0 0 0 0 0 0 0 0 0 0 0 0 0 0 0 0 0 0 0 0 0 0 0 0 0 245 244 245 245 244 241 244 242 242 243 242 243 243 242 243 243 243 242 242 242 242 242 242 242 242 242 244 242 242 242 241 241 244 242 242 242 244 245 244 244 244 242 245 246 246 246 241 245 243 244 244 244 244 244 244 245 244 246 245 246 246 246 246 246 246 247 246 246 246 246 246 246 246 244 245 246 246 246 248 248 248 249 248 248 247 246 246 245 246 245 245 0 0 0 0 247 248 247 247 247 246 245 244 244 244 242 244 244 245 246 246 246 246 248 251 250 250 250 250 249 248 248 248 248 248 248 247 247 0 246 246 246 244 245 244 244 243 244 243 245 246 246 246 246 246 248 248 248 248 248 247 247 247 247 246 246 247 246 246 246 247 246 246 246 246 246 246 246 246 245 245 246 246 246 248 249 250 250 250 250 249 249 249 249 249 247 247 247 248 249 248 250 249 250 250 250 251 251 251 251 251 251 251 251 250 247 247 247 246 249 249 250 250 251 252 252 252 257 252 252 252 251 252 251 250 248 250 250 250 248 248 247 249 251 254 0 0 0 0 252 252 0 0 249 251 252 0 0 0 0 0
    0 0 0 0 0 0 0 0 0 0 0 0 0 0 0 0 0 0 0 0 0 0 0 0 0 0 0 0 0 0 0 0 0 0 0 0 0 0 0 0 0 0 0 0 0 0 0 0 0 0 0 0 0 0 0 0 0 0 0 0 0 0 0 0 0 0 0 0 0 245 243 245 245 244 242 246 243 243 244 242 244 244 243 244 243 243 242 242 242 242 242 242 242 242 242 244 242 242 241 241 240 242 242 242 242 243 245 244 245 245 244 245 246 246 246 242 245 243 244 243 243 244 244 244 245 244 246 245 247 247 247 246 246 246 247 246 246 246 246 246 246 246 245 245 246 246 247 248 247 247 248 247 247 246 246 246 245 246 245 245 246 246 0 248 0 249 248 249 249 247 246 246 246 244 242 244 244 245 246 246 246 246 248 251 250 251 251 251 249 249 248 248 248 248 248 248 247 0 246 246 246 244 245 244 244 242 243 242 244 245 246 246 246 246 247 247 248 248 248 247 246 247 246 246 246 246 246 0 246 247 247 247 247 246 246 246 246 246 246 246 246 246 246 247 248 250 250 251 250 249 249 249 249 249 248 247 247 248 249 248 249 248 249 249 250 251 250 251 251 251 251 251 251 250 246 247 247 246 249 249 250 250 251 252 252 252 257 252 251 252 251 251 250 250 248 249 250 250 247 248 248 248 249 251 247 242 246 0 249 250 0 0 248 250 252 0 0 0 0 0
    0 0 0 0 0 0 0 0 0 0 0 0 0 0 0 0 0 0 0 0 0 0 0 0 0 0 0 0 0 0 0 0 0 0 0 0 0 0 0 0 0 0 0 0 0 0 0 0 0 0 0 0 0 0 0 0 0 0 0 0 0 0 0 0 0 0 0 0 0 244 243 245 245 244 243 246 243 0 243 242 244 243 243 244 243 244 243 243 243 242 242 242 242 242 242 243 242 242 241 241 240 242 242 242 242 242 244 243 244 244 244 244 245 246 245 242 245 243 243 244 243 244 244 244 245 244 246 246 0 247 247 246 246 246 247 246 246 246 246 246 246 246 246 246 246 247 247 248 247 247 247 246 247 246 246 246 245 245 245 245 246 247 0 0 0 249 249 250 250 249 248 246 246 244 242 243 243 244 245 245 246 246 247 251 251 252 252 251 250 249 249 249 249 248 248 248 247 0 247 246 246 245 246 244 244 242 243 242 244 244 245 245 246 246 247 247 248 248 248 247 246 246 246 246 246 246 246 0 247 247 0 247 247 247 246 247 246 246 246 246 246 246 246 247 248 249 250 251 250 249 249 249 249 249 248 247 247 248 249 248 249 248 249 249 250 251 250 251 251 251 251 251 251 250 246 247 247 246 250 250 250 251 251 252 252 252 256 251 250 251 250 250 250 250 248 249 250 250 247 248 248 248 248 249 246 244 244 249 249 250 249 0 248 250 252 0 0 0 0 0
    0 0 0 0 0 0 0 0 0 0 0 0 0 0 0 0 0 0 0 0 0 0 0 0 0 0 0 0 0 0 0 0 0 0 0 0 0 0 0 0 0 0 0 0 0 0 0 0 0 0 0 0 0 0 0 0 0 0 0 0 0 0 0 0 0 0 0 0 0 244 243 245 245 244 244 246 243 243 243 242 243 243 244 244 243 244 243 244 244 243 243 242 242 243 242 244 241 242 241 240 239 242 242 242 242 242 243 242 243 243 242 243 244 245 244 242 245 243 244 244 243 244 244 244 246 245 246 246 248 248 247 247 246 246 247 246 246 246 246 246 246 247 246 246 246 247 247 247 247 246 247 246 247 246 245 245 245 245 244 244 246 246 0 0 248 249 249 250 250 250 249 247 246 244 242 243 243 243 244 243 244 245 246 249 250 251 251 251 250 250 249 249 249 248 247 247 247 0 247 246 246 245 246 244 244 242 243 242 244 244 245 245 245 246 246 246 248 248 248 247 246 246 246 246 246 246 246 246 247 247 247 247 248 247 247 247 246 246 245 246 246 246 246 247 0 0 0 251 250 249 249 249 249 249 247 247 247 247 248 247 249 248 248 249 249 251 250 250 251 250 250 251 251 250 246 247 247 246 250 250 250 250 251 252 252 252 255 249 249 250 249 249 249 250 247 249 250 250 247 247 247 248 247 247 246 244 242 246 246 247 0 0 248 249 252 0 0 0 0 0
    0 0 0 0 0 0 0 0 0 0 0 0 0 0 0 0 0 0 0 0 0 0 0 0 0 0 0 0 0 0 0 0 0 0 0 0 0 0 0 0 0 0 0 0 0 0 0 0 0 0 0 0 0 0 0 0 0 0 0 0 0 0 0 0 0 0 0 0 0 245 243 245 245 244 244 246 244 243 243 243 244 243 244 244 243 244 244 245 244 243 243 243 242 243 242 244 242 242 241 240 239 242 242 242 242 242 243 243 243 243 242 243 244 244 243 242 245 243 244 243 243 243 243 243 245 244 246 246 248 248 247 247 246 246 246 246 246 246 246 246 246 247 246 246 246 246 247 247 246 246 246 246 246 245 245 245 244 245 244 244 245 246 247 248 247 248 248 249 249 249 248 247 246 244 242 243 242 242 243 242 244 244 246 248 249 250 249 250 250 250 249 249 249 247 247 247 247 0 246 246 246 245 246 244 244 242 243 242 243 244 245 245 245 245 246 246 248 248 248 247 247 246 246 246 246 246 246 246 246 246 247 247 247 247 246 246 246 246 246 246 246 246 246 247 0 0 0 0 0 0 0 0 0 0 247 246 247 247 248 247 248 247 247 248 249 250 249 249 250 249 249 250 250 249 246 247 247 246 250 250 250 250 250 252 251 252 253 248 248 250 249 249 249 250 247 249 250 250 247 248 248 248 247 248 247 245 243 246 245 246 248 248 247 250 252 0 0 0 0 0
    0 0 0 0 0 0 0 0 0 0 0 0 0 0 0 0 0 0 0 0 0 0 0 0 0 0 0 0 0 0 0 0 0 0 0 0 0 0 0 0 0 0 0 0 0 0 0 0 0 0 0 0 0 0 0 0 0 0 0 0 0 0 0 0 0 0 0 0 0 245 243 246 246 245 245 246 245 243 243 243 244 244 244 244 243 243 244 244 244 242 242 242 242 243 242 244 242 242 242 241 240 243 242 242 243 243 244 243 244 243 242 243 243 244 244 242 245 242 244 244 243 243 243 243 245 244 246 246 247 247 247 246 245 246 246 246 246 245 245 246 246 247 246 246 246 246 247 246 246 246 246 246 246 244 244 245 245 245 244 244 245 246 246 247 247 247 247 248 248 248 248 246 246 244 243 243 242 242 243 242 244 244 246 248 249 249 249 250 250 249 249 249 248 247 246 246 246 0 246 246 245 244 245 243 243 241 242 240 243 244 244 244 245 245 246 246 247 248 247 248 248 247 247 246 246 246 246 246 246 246 246 246 247 247 246 246 246 245 246 246 246 246 246 246 0 0 0 0 0 0 0 0 0 247 246 246 246 246 247 247 247 247 247 0 249 250 249 249 250 249 250 250 250 250 0 247 247 247 250 250 250 250 250 252 251 251 252 247 246 249 249 249 248 249 247 249 250 250 247 248 248 248 248 249 248 246 246 248 246 246 247 248 247 249 251 0 0 0 0 0
    0 0 0 0 0 0 0 0 0 0 0 0 0 0 0 0 0 0 0 0 0 0 0 0 0 0 0 0 0 0 0 0 0 0 0 0 0 0 0 0 0 0 0 0 0 0 0 0 0 0 0 0 0 0 0 0 0 0 0 0 0 0 0 0 0 0 0 0 0 245 243 246 245 244 244 245 244 243 243 243 244 244 244 245 243 243 244 244 243 242 242 242 242 243 243 244 242 244 243 243 241 243 243 242 243 243 243 243 243 243 242 244 243 244 244 243 245 243 244 244 242 243 243 242 245 244 247 246 247 247 246 246 246 246 246 246 246 245 245 246 246 246 246 246 246 246 246 246 246 245 246 246 245 244 244 246 0 245 0 244 244 245 246 246 246 246 246 248 248 248 248 247 246 245 244 244 242 242 243 242 244 244 246 247 248 249 249 249 250 249 249 248 248 246 246 246 246 246 246 245 245 244 245 243 242 240 242 240 242 243 244 244 245 245 246 246 247 248 248 249 249 248 248 247 247 246 246 246 246 246 246 246 246 247 246 246 246 245 245 245 245 245 245 246 0 0 0 0 0 0 246 246 246 247 246 246 246 246 247 246 247 246 246 0 249 250 250 251 250 251 251 252 252 251 0 248 247 247 249 250 250 250 250 252 251 251 252 247 246 248 248 248 247 248 246 247 249 249 247 248 248 249 249 250 248 247 248 249 246 245 246 247 246 248 250 0 0 0 0 0</data></depth>
</opencv_storage>
