<?xml version="1.0"?>
<opencv_storage>
<gps_time_stamp>17693</gps_time_stamp>
<gps_x>-9.7240330651402473e-003</gps_x>
<gps_y>6.0536641627550125e-002</gps_y>
<gps_z>-1.3836343772709370e-002</gps_z>
<image_time_stamp>5665</image_time_stamp>
<depth type_id="opencv-matrix">
  <rows>79</rows>
  <cols>320</cols>
  <dt>s</dt>
  <data>
    0 0 0 0 0 0 0 0 0 0 0 0 0 0 0 0 0 0 0 0 0 0 0 0 0 0 0 0 0 0 0 0 0 0 0 0 0 0 0 0 0 0 0 0 0 0 0 0 0 0 0 0 0 0 0 0 0 0 0 0 0 0 0 0 0 0 0 0 0 5661 5256 6133 6133 6690 6133 7359 6690 8177 6690 6133 6690 0 0 0 4906 4906 4906 4906 4906 4906 4906 4906 0 0 0 0 0 0 0 0 0 0 0 0 0 0 0 0 0 8177 7359 8177 0 0 0 0 0 0 0 0 0 0 0 0 0 0 0 0 0 0 0 0 0 0 0 8177 8177 0 8177 8177 7359 7359 7359 7359 8177 8177 6690 8177 8177 7359 6133 6690 5661 0 7359 8177 8177 8177 8177 9199 9199 0 0 0 0 0 5256 7359 8177 7359 8177 8177 8177 8177 8177 0 0 0 0 8177 6690 6690 8177 8177 8177 0 0 0 0 0 0 0 0 0 0 0 0 0 0 0 0 0 0 0 0 0 0 0 0 0 0 0 3873 3679 3679 3873 3873 3873 4088 3873 4088 3873 4329 4088 4599 4329 4088 4088 4329 4329 4329 4088 4088 3504 3873 4088 3873 3345 3066 3066 2830 2830 2725 2628 2453 2537 2537 2537 2537 2453 2374 2374 2230 2299 2164 2164 2164 2102 2102 2164 2102 2164 2102 2164 2102 2044 2102 2102 2044 2102 2230 2230 2230 2230 2230 2164 2102 2102 1989 1936 1936 1936 1887 1887 1887 1936 1989 1936 0 0 0 1711 1672 1711 1752 1711 1752 1752 1752 1752 1795 1839 1795 1795 1839 1839 1887 1936 1936 1887 1887 1989 1839 1839 1711 0 0 0 0 0
    0 0 0 0 0 0 0 0 0 0 0 0 0 0 0 0 0 0 0 0 0 0 0 0 0 0 0 0 0 0 0 0 0 0 0 0 0 0 0 0 0 0 0 0 0 0 0 0 0 0 0 0 0 0 0 0 0 0 0 0 0 0 0 0 0 0 0 0 0 5661 5256 6133 6133 6133 5661 7359 6690 7359 7359 6690 6690 7359 0 0 5256 4906 4906 4906 4906 4906 4906 4906 0 0 0 0 0 0 0 0 0 0 0 0 0 0 0 0 0 8177 7359 8177 0 0 0 0 0 0 0 0 0 0 0 0 0 0 0 0 0 0 0 0 0 0 8177 8177 7359 8177 8177 8177 6690 6690 6690 6133 6690 7359 6133 7359 6690 6133 5661 6133 5256 0 7359 0 8177 8177 8177 0 0 0 0 0 0 0 5661 8177 8177 8177 8177 8177 8177 8177 8177 0 0 0 0 0 8177 7359 0 0 0 0 0 0 0 0 0 0 0 0 0 0 0 0 0 0 0 0 0 0 0 0 0 0 0 0 0 0 3873 3504 3873 4088 4088 4088 4088 4088 4329 4329 4599 4329 4599 4329 4088 4088 4088 4088 4088 3873 3873 3504 3679 3873 3504 3066 3066 2943 2830 2725 2725 2628 2453 2537 2537 2537 2453 2453 2374 2374 2230 2299 2164 2164 2230 2164 2102 2164 2102 2164 2102 2102 2102 2044 2102 2164 2044 2102 2230 2230 2230 2230 2230 2102 2102 2044 1989 1989 1936 1936 1887 1887 1936 1989 2044 2164 0 0 0 1839 1795 1839 1839 1839 1839 1839 1795 1839 1887 1936 1887 1887 1887 1887 1887 1936 1936 1887 0 1887 0 1752 1635 0 0 0 0 0
    0 0 0 0 0 0 0 0 0 0 0 0 0 0 0 0 0 0 0 0 0 0 0 0 0 0 0 0 0 0 0 0 0 0 0 0 0 0 0 0 0 0 0 0 0 0 0 0 0 0 0 0 0 0 0 0 0 0 0 0 0 0 0 0 0 0 0 0 0 5661 5256 6133 5661 6133 5661 7359 6690 8177 7359 7359 7359 8177 0 0 5661 5256 4906 4906 4906 4906 4906 5256 0 0 0 0 0 0 0 0 0 0 0 0 0 0 0 0 0 8177 8177 8177 0 0 0 0 0 0 8177 0 0 0 0 0 0 0 0 0 0 0 0 0 8177 8177 8177 7359 7359 7359 7359 7359 6690 6690 6690 6133 6690 8177 6133 6690 6133 6133 0 5661 4906 0 7359 0 8177 8177 0 0 0 0 0 0 0 0 5661 8177 8177 8177 8177 8177 8177 8177 8177 0 0 0 0 0 8177 7359 0 0 0 0 0 0 0 0 0 0 0 0 0 0 0 0 0 0 0 0 0 0 0 0 0 0 0 0 0 3873 3873 3679 3873 4329 4329 4329 3873 4329 4329 4329 4329 4599 4329 4088 3873 3873 3873 3873 3679 3679 3679 3504 3873 3873 3679 3066 3066 3066 2943 2725 2628 2628 2453 2628 2537 2453 2374 2374 2299 2299 2230 2230 2164 2164 2164 2164 2102 2164 2102 2164 2102 2164 2102 2102 2102 2164 2102 2102 2230 2230 2230 2230 2164 2102 2102 2044 1989 1989 1936 1936 1887 1887 1936 1989 2044 2164 0 0 0 1887 1887 1887 1887 1887 1887 1887 1887 1887 1936 1936 1887 1887 1887 1887 1936 1936 1936 1887 0 1936 1752 0 1635 0 0 0 0 0
    0 0 0 0 0 0 0 0 0 0 0 0 0 0 0 0 0 0 0 0 0 0 0 0 0 0 0 0 0 0 0 0 0 0 0 0 0 0 0 0 0 0 0 0 0 0 0 0 0 0 0 0 0 0 0 0 0 0 0 0 0 0 0 0 0 0 0 0 0 5661 4906 5661 5661 5661 5661 7359 6690 8177 7359 7359 7359 8177 0 0 5661 5661 4906 4906 4906 4906 5256 5661 0 0 0 0 0 0 0 0 0 0 0 0 0 0 0 0 0 0 0 0 0 0 0 0 0 0 7359 0 0 0 0 0 0 0 0 0 0 0 0 0 0 8177 8177 8177 7359 8177 8177 8177 7359 7359 6690 6690 7359 8177 6133 0 0 0 0 0 0 0 8177 0 0 0 0 0 0 0 0 0 0 0 6133 8177 8177 8177 0 0 0 8177 8177 0 0 0 0 0 8177 7359 0 0 8177 0 0 0 8177 0 0 0 0 0 0 0 0 0 0 0 8177 0 0 0 0 0 0 0 0 0 6133 4088 3873 3873 3873 4329 4599 4329 4088 4329 4599 4329 4329 4906 4088 3873 3873 3679 3679 3679 3679 3504 3504 3504 3873 3679 3873 3199 3345 3199 3066 2725 2725 2628 2537 2628 2628 2453 2374 2374 2299 2230 2164 2164 2164 2164 2164 2164 2102 2164 2102 2164 2164 2164 2164 2102 2164 2230 2102 2164 2230 2230 2230 2230 2164 2102 2102 2044 2044 1989 1989 1936 1936 1936 1936 1936 1936 1936 1839 1839 1839 1839 1887 1887 1936 1936 1936 1936 1887 1936 1936 1936 1936 1887 1887 1887 1936 1936 1936 1887 1839 1887 1752 1711 1635 0 0 0 0 0
    0 0 0 0 0 0 0 0 0 0 0 0 0 0 0 0 0 0 0 0 0 0 0 0 0 0 0 0 0 0 0 0 0 0 0 0 0 0 0 0 0 0 0 0 0 0 0 0 0 0 0 0 0 0 0 0 0 0 0 0 0 0 0 0 0 0 0 0 0 5256 4906 5256 5661 5256 5661 8177 6690 0 8177 7359 8177 8177 0 0 5661 5661 5256 4906 4906 4906 5256 5661 0 0 0 0 0 0 0 0 0 0 0 0 0 0 0 0 0 0 0 0 0 0 0 0 0 0 6690 8177 8177 0 0 0 8177 0 0 0 0 0 0 0 0 8177 8177 8177 8177 8177 8177 8177 7359 7359 7359 6690 7359 8177 5661 0 0 0 0 0 0 0 8177 0 0 0 8177 0 0 0 0 0 0 0 6133 0 0 0 0 0 0 8177 8177 0 0 0 0 0 8177 7359 8177 8177 8177 0 0 0 7359 0 0 0 0 0 8177 8177 8177 0 0 0 6690 0 0 0 0 0 0 0 0 0 6133 4088 4088 4088 3873 4599 4599 4329 4329 4599 4599 4599 4599 4906 4088 3873 3873 3679 3873 3679 3679 3504 3504 3504 3873 3679 3679 3199 3345 3066 2943 2725 2725 2537 2537 2628 2537 2453 2374 2299 2230 2230 2164 2164 2164 2164 2102 2164 2102 2164 2102 2164 2102 2164 2102 2164 2164 2230 2102 2164 2230 2230 2230 2164 2164 2102 2102 2102 2044 2044 1989 1989 1936 1887 1936 1887 1839 1839 1752 1752 1795 1795 1887 1887 1989 1989 1989 2044 1989 1989 2044 1989 1989 1936 1936 1887 1936 1936 1936 1887 1839 1839 1752 1711 1672 0 0 0 0 0
    0 0 0 0 0 0 0 0 0 0 0 0 0 0 0 0 0 0 0 0 0 0 0 0 0 0 0 0 0 0 0 0 0 0 0 0 0 0 0 0 0 0 0 0 0 0 0 0 0 0 0 0 0 0 0 0 0 0 0 0 0 0 0 0 0 0 0 0 0 5661 4906 5256 5661 5256 5661 8177 6690 9199 8177 8177 8177 8177 0 4329 6133 5661 5661 4906 4906 4906 4906 5661 0 0 0 0 0 0 0 0 0 0 0 0 0 0 0 0 0 0 0 0 0 0 0 0 0 0 6133 7359 7359 8177 8177 0 8177 8177 8177 0 0 0 0 0 0 0 0 8177 8177 8177 8177 8177 7359 7359 7359 6690 7359 7359 5256 0 0 0 0 0 0 0 8177 0 8177 8177 8177 0 0 0 0 0 0 0 6690 0 0 0 0 0 0 0 0 0 0 0 0 8177 8177 7359 7359 8177 8177 0 0 0 6690 0 0 0 0 0 8177 8177 8177 0 8177 8177 6690 0 0 0 0 0 8177 8177 7359 0 5661 4329 4329 4088 3873 4906 4906 4599 4906 4906 4906 4599 4906 5256 4329 4088 4088 3873 3873 3873 3873 3504 3679 3504 3679 3504 3345 3066 3199 2943 2725 2628 2537 2453 2453 2537 2453 2374 2299 2299 2230 2230 2230 2164 2164 2164 2102 2164 2102 2164 2102 2102 2102 2102 2102 2102 2102 2164 2102 2164 2164 2230 2164 2164 2164 2164 2102 2164 2044 2044 2044 1989 1989 1936 1887 1839 1752 1752 1711 1752 1752 1795 1839 1887 1989 2044 2044 2102 2044 1989 2102 2102 2102 2044 2044 1936 1989 1989 1989 1887 1839 1839 1752 1711 1711 0 0 0 0 0
    0 0 0 0 0 0 0 0 0 0 0 0 0 0 0 0 0 0 0 0 0 0 0 0 0 0 0 0 0 0 0 0 0 0 0 0 0 0 0 0 0 0 0 0 0 0 0 0 0 0 0 0 0 0 0 0 0 0 0 0 0 0 0 0 0 0 0 0 0 5256 4906 5256 5661 5256 5256 8177 6690 0 8177 8177 0 8177 0 4599 6133 5661 5661 5256 4906 4599 4906 6133 0 0 0 0 0 0 0 0 0 0 0 0 0 0 0 0 0 0 0 0 0 0 0 0 0 0 5661 6690 6690 8177 8177 8177 7359 8177 7359 0 0 0 0 0 0 0 0 0 8177 8177 8177 8177 7359 7359 6690 6690 6690 7359 5256 0 0 0 0 0 0 0 8177 0 8177 8177 8177 0 0 0 0 0 0 0 7359 0 0 0 0 0 0 0 0 0 0 0 0 0 0 8177 8177 8177 8177 0 0 0 6690 8177 0 0 0 0 8177 8177 8177 0 0 9199 6133 8177 8177 8177 8177 7359 6690 6690 6133 8177 5256 4599 4329 4088 4088 4906 4906 4599 4906 4906 4599 4906 4906 5256 4088 4088 4088 3873 4088 3873 3679 3504 3504 3504 3504 3345 3199 2943 3066 2830 2725 2537 2537 2374 2374 2453 2453 2374 2299 2230 2299 2164 2230 2164 2230 2164 2164 2164 2164 2164 2102 2102 2102 2102 2102 2102 2044 2164 2044 2164 2164 2164 2164 2164 2164 2164 2102 2164 2102 2044 1989 1936 1887 1839 1839 1752 1672 1711 1672 1711 1752 1795 1839 1936 1989 2102 2044 2164 2164 2102 2164 2230 2164 2164 2164 2044 2044 2044 2044 1989 1887 1887 1795 1752 1752 0 0 0 0 0
    0 0 0 0 0 0 0 0 0 0 0 0 0 0 0 0 0 0 0 0 0 0 0 0 0 0 0 0 0 0 0 0 0 0 0 0 0 0 0 0 0 0 0 0 0 0 0 0 0 0 0 0 0 0 0 0 0 0 0 0 0 0 0 0 0 0 0 0 0 4906 4906 5256 5256 4906 5661 8177 8177 0 0 0 0 0 0 4906 6133 5661 5661 5256 5256 4906 4599 6133 0 0 0 0 0 0 0 0 0 0 0 0 0 0 0 0 0 0 0 0 0 0 0 0 0 0 5661 6690 6690 8177 8177 8177 7359 8177 7359 0 0 0 0 0 0 0 0 0 0 0 8177 8177 7359 7359 6690 6690 6690 0 0 0 0 0 0 0 0 0 8177 8177 8177 8177 8177 8177 0 0 0 0 0 0 7359 0 0 0 0 0 0 8177 8177 0 0 0 0 0 0 0 0 8177 8177 0 0 0 6690 7359 8177 8177 8177 0 8177 8177 8177 0 0 0 5661 7359 8177 6690 6133 6133 6133 6133 5661 7359 5661 4906 4599 4599 4329 5256 4906 4906 4906 4906 4906 5256 4906 5256 4329 4329 4088 3873 4088 3873 3679 3679 3504 3504 3504 3345 3066 2943 2943 2725 2628 2453 2537 2299 2374 2453 2374 2299 2299 2230 2299 2164 2299 2230 2299 2164 2164 2164 2164 2102 2102 2044 2102 2044 2102 2102 2102 2230 2044 2164 2164 2164 2164 2164 2102 2102 2044 2044 1936 1839 1752 1672 1635 1471 1443 1443 1443 1501 1599 1711 1752 1795 1887 1936 2044 2102 2102 2164 2230 2164 2230 2299 2230 2299 2299 2102 2102 2102 2044 1989 1936 1936 1839 1839 1839 0 0 0 0 0
    0 0 0 0 0 0 0 0 0 0 0 0 0 0 0 0 0 0 0 0 0 0 0 0 0 0 0 0 0 0 0 0 0 0 0 0 0 0 0 0 0 0 0 0 0 0 0 0 0 0 0 0 0 0 0 0 0 0 0 0 0 0 0 0 0 0 0 0 0 4906 4906 5661 5661 5661 6133 0 0 0 0 0 0 0 0 4906 6133 6133 5661 5661 5256 4906 4599 6133 0 0 0 0 0 0 0 0 0 0 0 0 0 0 0 0 0 0 0 0 0 0 0 0 0 0 5661 6690 6690 8177 8177 8177 7359 8177 7359 0 0 0 0 0 0 0 0 0 0 0 8177 8177 7359 7359 6690 6133 0 0 0 0 0 0 0 0 0 0 8177 8177 8177 8177 8177 8177 8177 0 0 0 0 0 6690 0 0 0 0 0 0 8177 8177 0 0 0 0 0 0 0 0 0 8177 0 0 0 6690 7359 7359 7359 8177 8177 8177 8177 8177 0 0 0 5661 7359 7359 6133 5256 5256 5256 5256 5256 6690 5661 5256 4329 4906 4329 4906 4906 4906 4906 4906 4906 5256 4906 5256 4329 4329 4329 3873 3873 3679 3679 3679 3504 3504 3345 3199 2943 2830 2943 2725 2628 2453 2537 2299 2374 2453 2374 2299 2299 2230 2299 2164 2299 2230 2299 2164 2230 2164 2164 2102 2102 2044 2102 2044 2044 2044 2044 2164 2102 2164 2102 2102 2102 2102 2102 2102 1989 1989 1887 1711 1635 1533 1443 1362 1362 1388 1388 1415 1565 1672 1711 1795 1887 1936 2044 2044 2102 2164 2299 2164 2230 2299 2230 2299 2374 2164 2102 2102 2044 1989 1936 1989 1887 1887 1936 0 0 0 0 0
    0 0 0 0 0 0 0 0 0 0 0 0 0 0 0 0 0 0 0 0 0 0 0 0 0 0 0 0 0 0 0 0 0 0 0 0 0 0 0 0 0 0 0 0 0 0 0 0 0 0 0 0 0 0 0 0 0 0 0 0 0 0 0 0 0 0 0 0 0 4599 4906 5661 6133 6133 6690 0 0 0 0 0 0 0 0 5256 6690 6133 6133 5661 5661 5256 4906 6690 0 0 0 0 0 0 0 0 0 0 0 0 0 0 0 0 0 0 0 0 0 0 0 0 0 0 5661 6690 6133 8177 8177 8177 7359 7359 7359 0 0 0 0 0 0 0 0 0 0 0 8177 0 8177 7359 6690 0 0 0 0 0 0 0 0 0 0 0 7359 7359 7359 8177 7359 8177 8177 0 0 0 0 0 6690 0 0 0 0 0 0 8177 8177 0 0 0 0 0 0 0 0 0 8177 0 8177 0 6690 6690 7359 7359 7359 8177 8177 8177 8177 0 0 0 5256 6690 6690 5256 4599 4906 4906 4906 4906 6690 5661 5256 4088 4906 4329 4906 4906 4906 4906 4906 4906 5256 4906 5256 4329 4329 4329 3873 3873 3679 3679 3504 3345 3345 3199 3199 2943 2830 2943 2725 2628 2453 2453 2299 2299 2374 2374 2230 2299 2164 2299 2164 2299 2230 2299 2164 2230 2164 2164 2164 2102 2044 2102 2044 2044 2044 2044 2164 2102 2164 2102 2102 2102 2102 2044 2044 1989 1936 1887 1635 1599 1533 1443 1388 1388 1415 1388 1443 1599 1635 1672 1752 1887 1936 1989 2044 2044 2102 2230 2164 2164 2230 2164 2299 2374 2164 2102 2102 1989 1989 1989 1989 1936 1936 1989 0 0 0 0 0
    0 0 0 0 0 0 0 0 0 0 0 0 0 0 0 0 0 0 0 0 0 0 0 0 0 0 0 0 0 0 0 0 0 0 0 0 0 0 0 0 0 0 0 0 0 0 0 0 0 0 0 0 0 0 0 0 0 0 0 0 0 0 0 0 0 0 0 0 0 4599 4906 5661 6133 6690 7359 0 0 0 0 0 0 0 0 4906 6690 6133 6133 6133 5661 5661 5256 6690 0 0 0 0 0 0 0 0 0 0 0 0 0 0 0 0 0 0 0 0 0 0 0 0 0 0 6133 6690 6690 8177 8177 8177 7359 7359 7359 0 0 0 0 0 0 0 0 0 0 0 0 0 0 8177 7359 0 0 0 0 0 0 0 0 0 0 0 6690 7359 7359 7359 7359 7359 7359 8177 0 0 0 0 6133 8177 8177 0 0 0 0 8177 8177 0 0 0 0 0 0 0 0 0 8177 0 8177 0 6690 6690 6690 6690 7359 7359 7359 8177 8177 0 0 0 4906 6133 6133 5256 4599 4599 4906 4906 4906 6690 5661 4906 4088 4906 4599 4906 4906 4906 4906 4906 4906 5256 4599 4906 4329 4599 4329 4088 4088 3679 3679 3679 3345 3345 3199 3066 2943 2830 2830 2628 2537 2453 2453 2230 2230 2299 2299 2164 2299 2164 2230 2164 2299 2164 2230 2230 2230 2164 2164 2164 2164 2102 2164 2102 2044 2102 2044 2164 2102 2164 2102 2044 2044 2102 2044 2044 1936 1887 1839 1501 1501 1443 1388 1338 1338 1362 1362 1388 1533 1565 1635 1711 1795 1887 1936 1989 1989 2044 2044 1989 1989 1989 1936 1989 2164 1989 1989 1989 1936 1936 1989 1989 1936 1936 1989 0 0 0 0 0
    0 0 0 0 0 0 0 0 0 0 0 0 0 0 0 0 0 0 0 0 0 0 0 0 0 0 0 0 0 0 0 0 0 0 0 0 0 0 0 0 0 0 0 0 0 0 0 0 0 0 0 0 0 0 0 0 0 0 0 0 0 0 0 0 0 0 0 0 0 4599 4906 5661 6133 6690 7359 0 8177 0 0 0 0 0 0 4906 6690 6690 6690 6133 6133 5661 5661 6690 0 0 0 0 0 0 0 0 0 0 0 0 0 0 0 0 0 0 0 0 0 0 0 0 0 0 6133 7359 6690 8177 8177 8177 8177 7359 7359 0 0 0 0 0 0 0 0 0 0 0 0 0 0 0 8177 0 0 0 0 0 0 0 0 0 0 0 7359 7359 7359 7359 7359 7359 7359 8177 0 0 0 0 5661 7359 7359 0 0 8177 0 8177 7359 0 0 0 0 0 0 0 0 0 8177 0 0 0 6690 6690 6690 6690 6690 7359 7359 7359 7359 0 8177 0 4906 6133 6133 4906 4599 4599 4906 4906 4906 6690 5661 4906 4329 5256 4599 4906 4906 4906 5256 5256 5256 4906 4599 4906 4088 4329 4329 3873 3873 3873 3873 3679 3345 3345 3066 3066 2830 2830 2830 2537 2537 2374 2374 2164 2164 2299 2230 2102 2299 2102 2164 2102 2230 2164 2164 2164 2299 2164 2230 2230 2230 2164 2230 2164 2102 2102 2102 2164 2102 2164 2102 2044 2044 2044 1989 1936 1839 1839 1711 1443 1415 1388 1338 1338 1314 1338 1338 1362 1443 1501 1533 1635 1711 1795 1887 1887 1936 1936 1989 1936 1887 1839 1795 1795 1989 1887 1936 1936 1887 1887 1989 1989 1989 1887 1936 0 0 0 0 0
    0 0 0 0 0 0 0 0 0 0 0 0 0 0 0 0 0 0 0 0 0 0 0 0 0 0 0 0 0 0 0 0 0 0 0 0 0 0 0 0 0 0 0 0 0 0 0 0 0 0 0 0 0 0 0 0 0 0 0 0 0 0 0 0 0 0 0 0 0 4329 5256 5661 5661 6690 7359 8177 8177 0 0 0 0 0 0 5661 7359 7359 7359 6690 6690 6133 6133 7359 0 0 0 0 0 0 0 0 0 0 0 0 0 0 0 0 0 0 0 0 0 0 0 0 0 0 6690 7359 7359 8177 8177 0 8177 7359 7359 0 0 0 0 0 0 0 0 0 0 0 0 0 0 0 8177 0 0 0 0 0 0 0 0 0 0 0 7359 8177 8177 8177 8177 8177 8177 8177 0 0 0 0 5256 7359 6690 8177 8177 8177 8177 7359 7359 0 0 0 0 8177 0 0 0 0 8177 0 8177 0 6133 6690 6133 6133 6690 6690 7359 7359 7359 0 8177 8177 4599 6133 6133 4906 4599 4599 4906 4906 4906 6690 5256 4906 4599 5256 4599 4906 4906 4906 5256 5256 4906 4906 4329 4906 4088 4329 4088 3873 3873 3679 3679 3679 3345 3345 2943 2943 2725 2725 2725 2453 2453 2374 2299 2102 2164 2230 2164 2044 2230 2044 2164 2102 2230 2164 2164 2164 2299 2230 2299 2299 2299 2230 2299 2164 2102 2102 2102 2102 2044 2102 1989 1989 1989 1989 1936 1887 1795 1711 1635 1388 1388 1362 1338 1338 1314 1338 1338 1362 1388 1415 1415 1501 1565 1672 1752 1795 1839 1887 1839 1839 1839 1752 1752 1752 1887 1795 1839 1887 1839 1887 1989 1989 1989 1887 1936 0 0 0 0 0
    0 0 0 0 0 0 0 0 0 0 0 0 0 0 0 0 0 0 0 0 0 0 0 0 0 0 0 0 0 0 0 0 0 0 0 0 0 0 0 0 0 0 0 0 0 0 0 0 0 0 0 0 0 0 0 0 0 0 0 0 0 0 0 0 0 0 0 0 0 4599 4906 5661 5661 6133 6690 7359 7359 8177 8177 0 0 0 0 5661 7359 7359 7359 6690 6690 6690 6133 7359 0 0 0 0 0 0 0 0 0 0 0 0 0 0 0 0 0 0 0 0 0 0 0 0 0 0 6690 7359 7359 0 0 0 8177 7359 7359 0 0 0 0 0 0 0 0 0 0 0 0 0 0 0 8177 7359 0 0 0 0 0 0 0 0 8177 0 8177 8177 8177 8177 8177 8177 8177 8177 0 0 0 0 4906 6690 6690 7359 8177 8177 8177 7359 6690 0 0 0 8177 8177 0 0 0 0 7359 8177 7359 0 5661 6133 6133 6133 6133 6690 7359 7359 7359 0 8177 8177 4599 6133 6133 5256 4599 4906 4906 4906 4906 6690 5256 4599 4329 4906 4599 4906 4906 4906 5256 5256 4906 4906 4329 4599 3873 4088 4088 3873 3679 3679 3679 3679 3345 3345 2943 2830 2628 2725 2725 2453 2453 2299 2299 2102 2164 2230 2102 2044 2230 2044 2164 2102 2164 2102 2164 2164 2374 2230 2374 2299 2374 2299 2299 2164 2164 2102 2102 2102 2044 2044 1936 1936 1936 1936 1887 1839 1711 1565 1565 1388 1388 1362 1338 1338 1314 1338 1338 1338 1338 1338 1338 1362 1362 1471 1565 1635 1711 1795 1711 1711 1711 1672 1672 1672 1752 1752 1752 1795 1795 1795 1936 1887 1887 1795 1839 0 0 0 0 0
    0 0 0 0 0 0 0 0 0 0 0 0 0 0 0 0 0 0 0 0 0 0 0 0 0 0 0 0 0 0 0 0 0 0 0 0 0 0 0 0 0 0 0 0 0 0 0 0 0 0 0 0 0 0 0 0 0 0 0 0 0 0 0 0 0 0 0 0 0 4599 4906 5256 5256 6133 6690 7359 7359 8177 8177 8177 0 0 0 6690 0 8177 8177 8177 7359 7359 7359 0 0 0 0 0 0 0 0 0 0 0 0 0 0 0 0 0 0 0 0 0 0 0 0 0 0 0 7359 8177 8177 0 0 0 8177 7359 7359 0 0 0 0 0 0 0 0 0 0 0 0 0 0 0 8177 7359 6133 0 0 0 0 0 0 0 8177 0 8177 8177 8177 8177 8177 8177 8177 8177 8177 8177 0 0 4599 6133 6133 6690 8177 8177 8177 6690 6690 0 0 0 8177 7359 8177 8177 0 8177 6690 7359 7359 0 5256 6133 5661 5661 5661 6133 6690 6690 6690 0 8177 8177 4329 6133 6133 4906 4599 4906 4906 4906 4906 6690 5256 4906 4599 4906 4906 4906 4906 5256 4906 5256 4906 4906 4088 4329 3679 3873 3873 3679 3504 3504 3504 3679 3199 3345 3066 2830 2628 2725 2725 2537 2537 2374 2374 2164 2230 2230 2102 2044 2164 2044 2102 2044 2164 2102 2102 2164 2299 2230 2299 2299 2374 2299 2374 2230 2230 2164 2102 2102 2044 1989 1936 1887 1887 1887 1839 1795 1635 1443 1471 1362 1362 1362 1338 1338 1338 1338 1338 1338 1314 1291 1291 1291 1291 1338 1388 1415 1471 1711 1565 1635 1565 1565 1565 1599 1672 1672 1711 1752 1752 1752 1795 0 1752 1635 1672 0 0 0 0 0
    0 0 0 0 0 0 0 0 0 0 0 0 0 0 0 0 0 0 0 0 0 0 0 0 0 0 0 0 0 0 0 0 0 0 0 0 0 0 0 0 0 0 0 0 0 0 0 0 0 0 0 0 0 0 0 0 0 0 0 0 0 0 0 0 0 0 0 0 0 4599 4906 5256 5256 6133 6690 7359 8177 8177 8177 0 0 0 0 7359 0 0 0 0 0 0 8177 0 0 0 0 0 0 0 0 0 0 0 0 0 0 8177 0 0 0 0 0 0 0 0 0 0 0 0 8177 8177 8177 0 0 0 0 7359 7359 0 0 0 0 0 0 0 0 0 0 0 0 0 0 0 8177 7359 0 0 0 0 0 0 0 0 7359 0 8177 8177 8177 8177 8177 7359 7359 8177 7359 7359 0 0 0 6133 6133 6690 8177 8177 8177 6690 6690 0 0 0 8177 7359 7359 7359 8177 8177 6690 7359 6690 8177 5256 6133 5661 5661 5256 6133 6690 6690 6690 0 8177 8177 4088 5661 5661 4906 4599 4906 4906 4906 4599 6690 5661 4906 4599 4906 4906 4906 5256 5256 5256 5256 5256 4906 4088 4088 3679 3679 3679 3504 3345 3345 3345 3504 3199 3199 3066 2943 2725 2725 2830 2628 2537 2453 2453 2164 2230 2299 2164 2044 2102 2044 2044 2044 2102 2044 2044 2164 2299 2230 2299 2299 2374 2299 2374 2299 2164 2230 2044 2044 1936 1887 1839 1795 1795 1795 1795 1752 1533 1415 1415 1338 1362 1338 1338 1338 1338 1338 1338 1338 1314 1291 1291 1291 1291 1314 1338 1338 1362 1533 1388 1471 1443 1443 1471 1471 1533 1565 1599 1635 1672 1599 1711 0 0 1443 0 0 0 0 0 0
    0 0 0 0 0 0 0 0 0 0 0 0 0 0 0 0 0 0 0 0 0 0 0 0 0 0 0 0 0 0 0 0 0 0 0 0 0 0 0 0 0 0 0 0 0 0 0 0 0 0 0 0 0 0 0 0 0 0 0 0 0 0 0 0 0 0 0 0 0 4599 4906 5256 5256 6133 6690 7359 8177 8177 8177 0 0 0 0 7359 0 0 0 8177 8177 8177 8177 0 0 0 0 0 0 0 0 0 0 0 0 0 0 8177 0 0 0 0 0 8177 0 0 0 0 0 0 0 0 0 0 0 0 0 7359 6690 0 0 0 8177 0 0 0 0 0 0 0 0 0 0 0 8177 7359 0 0 0 0 0 1247 0 8177 7359 0 7359 8177 8177 8177 7359 7359 7359 7359 6133 6133 0 0 0 6133 6133 6690 8177 8177 8177 7359 7359 0 0 0 8177 7359 7359 7359 8177 8177 6690 7359 6690 0 5256 6133 5661 5661 5256 6133 6690 6690 6690 0 8177 8177 4088 5661 5661 4906 4906 4906 4906 4599 4599 6690 5256 4906 4906 5256 4599 5256 5661 5661 5256 5661 5256 4599 3873 4088 3504 3345 3504 3345 3199 3199 3345 3345 3199 3199 3066 2943 2830 2830 2830 2725 2628 2537 2537 2230 2299 2299 2164 2044 2044 1989 1989 1989 2044 1989 1989 2102 2230 2230 2374 2299 2374 2374 2374 2374 2230 2230 2044 2044 1989 1887 1795 1752 1752 1795 1752 1672 1471 1415 1415 1338 1388 1362 1362 1362 1362 1388 1388 1362 1362 1291 1291 1291 1291 1291 1291 1314 1314 1362 1314 1388 1362 1388 1415 1415 1443 1471 1501 1565 1565 1471 0 0 0 0 0 0 0 0 0 0
    0 0 0 0 0 0 0 0 0 0 0 0 0 0 0 0 0 0 0 0 0 0 0 0 0 0 0 0 0 0 0 0 0 0 0 0 0 0 0 0 0 0 0 0 0 0 0 0 0 0 0 0 0 0 0 0 0 0 0 0 0 0 0 0 0 0 0 0 0 4599 4906 5256 5256 6133 6690 7359 8177 8177 0 0 0 0 0 0 0 0 0 8177 8177 8177 8177 0 0 0 0 0 0 0 0 0 0 0 0 0 0 8177 0 0 0 0 0 8177 0 0 0 0 0 0 8177 8177 0 0 0 0 0 7359 6690 0 0 0 8177 0 0 0 0 0 0 0 0 0 0 0 8177 7359 0 0 0 0 0 0 0 8177 7359 0 7359 8177 8177 8177 7359 7359 7359 7359 5661 5661 0 0 4599 6133 6133 6690 8177 8177 0 7359 7359 0 0 0 8177 7359 7359 7359 8177 8177 6690 7359 6690 0 4906 6133 5661 5661 5256 6133 6690 6690 6690 0 8177 8177 4088 6133 5661 4906 5256 5256 5256 4599 4906 6690 4906 4906 4599 4906 4599 5256 5661 5661 5256 5661 5256 4599 3873 4088 3345 3345 3345 3199 3199 3199 3199 3345 3199 3066 3066 3066 2943 2943 2943 2725 2628 2537 2537 2299 2299 2230 2102 2044 2044 1989 1989 1936 1989 1936 1936 2102 2164 2230 2374 2374 2453 2374 2453 2374 2299 2299 2102 2044 1936 1839 1795 1711 1752 1752 1672 1565 1443 1388 1388 1338 1388 1362 1362 1362 1362 1388 1388 1362 1338 1291 1291 1268 1291 1291 1291 1291 1291 1291 1291 1314 1338 1338 1362 1362 0 0 0 0 1501 1388 0 0 0 0 0 0 0 0 0 0
    0 0 0 0 0 0 0 0 0 0 0 0 0 0 0 0 0 0 0 0 0 0 0 0 0 0 0 0 0 0 0 0 0 0 0 0 0 0 0 0 0 0 0 0 0 0 0 0 0 0 0 0 0 0 0 0 0 0 0 0 0 0 0 0 0 0 0 0 0 4906 5256 5256 5256 6133 6690 7359 8177 7359 8177 8177 0 0 0 0 0 0 0 8177 8177 8177 8177 0 0 0 0 0 0 0 0 0 0 0 0 0 0 0 0 0 0 8177 0 8177 0 0 0 0 0 0 8177 8177 8177 0 0 0 0 7359 6690 0 0 0 8177 8177 8177 0 0 0 0 0 0 0 0 0 8177 6690 5256 5661 0 0 0 0 0 0 0 0 8177 8177 8177 8177 7359 7359 7359 7359 6133 5661 0 0 4906 6133 6133 6690 8177 8177 0 7359 7359 0 0 0 0 7359 7359 8177 8177 0 7359 7359 7359 0 4906 6133 5661 5661 5256 6690 6690 6690 6690 0 7359 8177 4088 5661 5661 4906 4906 4906 5256 4599 4906 6133 5256 5256 4906 5256 4599 5256 5661 5256 5661 5661 5256 4906 3873 4088 3345 3199 3199 3199 3199 3066 3199 3345 3199 3199 3199 3066 2943 2943 2830 2725 2628 2537 2537 2299 2299 2230 2102 2044 1989 1989 1936 1936 1989 1936 1936 2044 2164 2299 2374 2374 2453 2374 2374 2374 2374 2299 2164 2044 1936 1795 1752 1711 1711 1672 1599 1501 1415 1362 1388 1338 1362 1362 1362 1362 1362 1388 1362 1338 1314 1291 1268 1268 1268 1291 1268 1291 1268 1291 1268 1268 0 0 0 0 0 0 0 0 1471 1362 0 0 0 0 0 0 0 0 0 0
    0 0 0 0 0 0 0 0 0 0 0 0 0 0 0 0 0 0 0 0 0 0 0 0 0 0 0 0 0 0 0 0 0 0 0 0 0 0 0 0 0 0 0 0 0 0 0 0 0 0 0 0 0 0 0 0 0 0 0 0 0 0 0 0 0 0 0 0 0 4906 5256 5256 5661 6133 6690 7359 8177 8177 0 0 0 0 0 0 0 0 0 0 0 0 0 0 0 0 0 0 0 0 0 0 0 0 0 0 0 0 0 0 0 8177 8177 7359 0 0 8177 0 0 0 8177 8177 8177 0 0 0 0 7359 6690 0 0 0 7359 8177 8177 0 0 0 0 0 0 0 0 0 8177 6690 5661 6133 0 0 0 0 0 0 0 0 0 0 0 8177 8177 7359 7359 7359 6133 5661 0 0 4906 6690 6133 6690 8177 8177 0 7359 7359 0 0 0 0 8177 8177 0 0 0 8177 8177 7359 0 5661 6133 6133 5661 5256 6690 6690 6690 6690 0 8177 8177 4088 6133 5661 5256 5256 5661 5661 5256 5256 6690 5661 5661 5256 5661 4906 5661 5661 5661 5661 6133 5661 4906 3873 4329 3345 3199 3066 3199 3066 3066 3199 3345 3199 3066 3066 3066 2943 2943 2830 2725 2628 2537 2537 2374 2374 2230 2102 2044 1989 1989 1936 1936 1989 1936 1989 2044 2230 2230 2374 2374 2453 2374 2374 2374 2374 2299 2102 1989 1887 1752 1711 1672 1672 1599 1565 1471 1415 1388 1388 1362 1388 1362 1388 1388 1388 1415 1415 1362 1314 1291 1268 1268 1291 1291 1268 1291 1268 1268 1247 0 0 0 0 0 0 0 0 0 1415 1314 0 1268 0 0 0 0 0 0 0 0
    0 0 0 0 0 0 0 0 0 0 0 0 0 0 0 0 0 0 0 0 0 0 0 0 0 0 0 0 0 0 0 0 0 0 0 0 0 0 0 0 0 0 0 0 0 0 0 0 0 0 0 0 0 0 0 0 0 0 0 0 0 0 0 0 0 0 0 0 0 5256 5661 5661 6133 6690 6690 8177 0 0 0 0 0 0 0 0 0 0 0 0 0 0 0 0 0 0 0 0 0 0 0 0 0 0 0 0 0 0 0 0 0 7359 7359 6690 8177 0 8177 8177 0 0 8177 8177 8177 0 0 0 0 7359 6690 0 0 0 7359 8177 8177 0 0 0 0 0 0 0 0 0 7359 6133 5661 6690 0 0 0 0 0 0 0 0 0 0 0 8177 8177 7359 7359 7359 6133 6133 0 0 5256 6690 6690 6690 8177 0 0 7359 7359 0 0 0 0 8177 8177 0 0 0 0 8177 8177 0 5661 6690 6133 6133 5256 6690 6690 6690 6690 0 8177 8177 4329 6133 6133 5256 5256 5661 5661 5256 5256 6690 5661 5256 5256 5661 4906 5256 5661 5661 5661 5661 5661 5256 3873 4329 3504 3199 3199 3345 3199 3199 3199 3345 3199 3066 3199 3066 2943 2943 2830 2830 2725 2628 2628 2453 2453 2299 2164 2102 2044 1989 1989 1936 1989 1989 1989 2044 2230 2230 2374 2299 2453 2374 2374 2374 2374 2299 2102 1989 1839 1711 1635 1599 1599 1533 1501 1443 1415 1388 1415 1362 1415 1388 1415 1415 1443 1443 1443 1388 1338 1291 0 0 0 0 0 0 1268 1268 1247 0 321 322 324 324 324 325 327 0 1338 1268 0 1247 0 0 0 0 0 0 0 0
    0 0 0 0 0 0 0 0 0 0 0 0 0 0 0 0 0 0 0 0 0 0 0 0 0 0 0 0 0 0 0 0 0 0 0 0 0 0 0 0 0 0 0 0 0 0 0 0 0 0 0 0 0 0 0 0 0 0 0 0 0 0 0 0 0 0 0 0 0 5661 5661 5661 6133 6133 6690 8177 0 0 0 0 0 0 0 0 0 0 0 0 0 0 0 0 0 0 0 0 0 0 0 0 0 0 0 0 0 0 0 0 8177 7359 7359 6690 8177 0 8177 8177 0 0 8177 8177 8177 8177 8177 0 8177 7359 6690 0 0 0 7359 8177 8177 8177 0 0 0 0 0 0 0 0 7359 6690 6133 0 0 0 0 0 0 0 0 0 7359 8177 8177 7359 7359 7359 7359 7359 6690 6690 0 0 5256 6690 6690 7359 0 0 0 8177 8177 0 0 0 0 8177 0 0 0 0 0 8177 8177 0 6133 6690 6133 6133 5256 7359 7359 7359 7359 0 8177 7359 4599 6690 6133 4906 5256 5256 5256 4906 5256 6133 5256 5256 5661 5661 4599 5661 5661 5661 5256 5256 5661 5256 3873 4599 3679 3345 3345 3504 3345 3199 3199 3345 3199 3066 3199 3066 2943 2943 2830 2943 2725 2628 2628 2453 2537 2299 2164 2102 2044 2044 1989 1989 2044 1989 2044 2044 2164 2164 2230 2299 2374 2299 2299 2374 2299 2299 2102 1936 1795 1635 1599 1501 1501 1471 1443 1415 1415 1388 1415 1362 1415 1415 1443 1415 1443 1471 1443 1388 1338 0 0 0 0 0 0 0 0 1291 1247 322 321 324 324 324 325 325 327 325 0 1247 0 0 0 0 0 0 0 0 0 0
    0 0 0 0 0 0 0 0 0 0 0 0 0 0 0 0 0 0 0 0 0 0 0 0 0 0 0 0 0 0 0 0 0 0 0 0 0 0 0 0 0 0 0 0 0 0 0 0 0 0 0 0 0 0 0 0 0 0 0 0 0 0 0 0 0 0 0 0 0 5256 5661 5661 6133 6690 7359 8177 0 0 0 0 0 0 0 0 0 0 0 0 0 0 0 0 0 0 0 0 0 0 0 0 0 0 0 0 0 0 0 0 0 7359 7359 7359 0 0 7359 8177 0 0 7359 8177 7359 8177 8177 0 8177 7359 6690 0 0 0 7359 7359 7359 8177 8177 0 0 0 0 0 0 0 8177 7359 7359 0 0 0 0 1599 0 0 0 0 6690 8177 8177 7359 7359 7359 7359 8177 6690 7359 0 0 5661 6690 6690 7359 0 0 0 8177 8177 0 0 0 0 0 0 0 0 0 0 0 0 0 6133 6133 6133 5661 5256 7359 7359 7359 7359 0 0 0 5661 7359 6133 5256 5661 5661 5661 5661 5661 6133 5256 5661 5661 5661 4906 5661 5661 5661 5256 5256 5256 4906 3679 4599 3504 3345 3345 3345 3199 3199 3199 3199 2943 3066 3066 2943 2943 2943 2943 2943 2830 2725 2725 2537 2628 2374 2299 2164 2102 2044 1989 1936 2044 1989 2044 2044 2164 2164 2230 2299 2374 2230 2299 2299 2230 2230 1989 1839 1711 1565 1533 1471 1471 1443 1443 1443 1415 1415 1415 1388 1443 1415 1443 1443 1471 1501 1415 1388 1362 0 0 0 0 0 0 0 0 1291 1247 322 321 324 325 325 325 327 327 325 0 1226 0 0 0 0 0 0 0 0 0 0
    0 0 0 0 0 0 0 0 0 0 0 0 0 0 0 0 0 0 0 0 0 0 0 0 0 0 0 0 0 0 0 0 0 0 0 0 0 0 0 0 0 0 0 0 0 0 0 0 0 0 0 0 0 0 0 0 0 0 0 0 0 0 0 0 0 0 0 0 0 5256 5661 5661 6690 6690 7359 8177 0 0 0 0 0 0 0 0 0 0 0 0 0 0 0 0 0 0 0 0 0 0 0 0 0 0 0 0 0 0 0 0 0 8177 7359 7359 0 0 7359 8177 0 0 7359 7359 7359 7359 8177 0 8177 6690 6690 0 0 0 7359 8177 7359 8177 8177 8177 0 0 0 0 0 0 8177 8177 0 0 0 0 0 1599 0 0 0 8177 6690 8177 8177 8177 8177 8177 8177 8177 7359 8177 0 0 5661 6690 6690 7359 0 0 0 8177 8177 0 0 0 0 0 0 0 0 0 0 0 0 0 6133 6133 6133 6133 5256 8177 8177 8177 8177 0 0 0 6133 7359 5661 5256 5661 5256 5661 5661 5661 5661 4906 5256 5256 5661 4599 5256 5256 5256 4906 5256 4906 4906 3679 4599 3504 3345 3345 3345 3199 3066 3066 3066 2943 2830 2943 2943 2830 2830 2830 2943 2830 2725 2725 2628 2628 2374 2374 2164 2164 2102 2044 1989 2044 2044 2044 2044 2230 2164 2230 2299 2374 2230 2299 2230 2102 2044 1839 1752 1635 1501 1533 1443 1471 1471 1443 1443 1415 1443 1471 1415 1471 1443 1501 1443 1533 1533 1415 1388 1388 0 0 0 0 0 0 0 0 1291 1247 324 322 325 325 325 327 327 327 325 0 1247 0 0 0 0 0 0 0 0 0 0
    0 0 0 0 0 0 0 0 0 0 0 0 0 0 0 0 0 0 0 0 0 0 0 0 0 0 0 0 0 0 0 0 0 0 0 0 0 0 0 0 0 0 0 0 0 0 0 0 0 0 0 0 0 0 0 0 0 0 0 0 0 0 0 0 0 0 0 0 0 5256 5661 6133 6690 6690 6690 8177 0 0 0 0 0 0 0 0 0 0 0 0 0 0 0 0 0 0 0 0 0 0 0 0 0 0 0 0 0 0 0 0 0 8177 8177 8177 0 0 7359 8177 0 0 6690 7359 6690 7359 7359 8177 8177 6690 6690 0 0 0 8177 8177 7359 8177 8177 0 0 0 0 0 0 0 0 8177 0 0 0 0 0 0 0 0 0 8177 6690 8177 8177 8177 0 0 0 0 8177 0 0 0 6133 6690 6690 7359 0 0 0 8177 8177 0 0 0 0 0 0 0 0 0 0 0 0 0 6133 6133 6133 6133 5661 8177 8177 8177 8177 0 8177 8177 6690 6690 5661 4906 5256 4906 5256 5661 5661 5661 5256 5256 5256 5661 4906 5256 5256 5256 5256 5256 4906 5256 3679 4599 3679 3345 3345 3345 3199 3066 3066 3066 2943 2830 2830 2830 2830 2830 2725 2830 2830 2725 2725 2628 2628 2453 2453 2299 2299 2164 2102 2044 2102 2044 2102 2044 2299 2102 2164 2299 2374 2299 2299 2164 2044 1936 1752 1711 1533 1471 1501 1443 1471 1471 1443 1443 1443 1471 1501 1415 1501 1471 1501 1471 1565 1533 1415 1388 1388 0 0 0 0 0 0 0 0 1291 1247 324 322 325 325 325 327 327 327 325 325 0 0 0 0 0 0 0 0 0 0 0
    0 0 0 0 0 0 0 0 0 0 0 0 0 0 0 0 0 0 0 0 0 0 0 0 0 0 0 0 0 0 0 0 0 0 0 0 0 0 0 0 0 0 0 0 0 0 0 0 0 0 0 0 0 0 0 0 0 0 0 0 0 0 0 0 0 0 0 0 0 5661 5661 6133 6690 6690 7359 8177 0 0 0 0 0 0 0 0 0 0 0 0 0 0 0 0 0 0 0 0 0 0 0 0 0 0 0 0 0 0 0 0 0 8177 7359 7359 0 0 7359 7359 0 0 6690 7359 6690 7359 7359 8177 8177 6690 6133 0 0 0 8177 8177 7359 8177 9199 0 0 0 0 0 0 0 0 0 0 0 0 0 0 0 0 0 0 8177 6690 8177 8177 8177 0 0 0 0 0 0 0 0 6690 7359 6690 7359 0 0 0 0 0 0 0 0 0 8177 0 0 0 0 0 8177 8177 0 6133 6133 6133 6133 5661 8177 8177 8177 8177 0 6690 7359 6690 6690 5256 4599 4599 4329 4599 5256 4906 4906 4906 5256 4906 5661 4599 5256 5256 5256 5256 4906 4599 4906 3679 4329 3504 3345 3199 3199 3066 3066 3066 2943 2830 2725 2830 2830 2725 2725 2725 2725 2830 2725 2725 2725 2725 2537 2537 2299 2374 2230 2164 2102 2164 2102 2164 2044 2299 2044 2164 2299 2374 2230 2164 1989 1936 1839 1599 1599 1471 1443 1471 1443 1501 1443 1471 1471 1443 1471 1501 1415 1533 1471 1533 1471 1565 1501 1415 1388 1388 0 0 0 0 0 0 0 0 0 1247 0 322 325 325 325 325 327 327 325 325 0 183 182 0 0 0 0 0 0 0 0
    0 0 0 0 0 0 0 0 0 0 0 0 0 0 0 0 0 0 0 0 0 0 0 0 0 0 0 0 0 0 0 0 0 0 0 0 0 0 0 0 0 0 0 0 0 0 0 0 0 0 0 0 0 0 0 0 0 0 0 0 0 0 0 0 0 0 0 0 0 5661 5661 6133 6690 6690 6690 7359 0 0 0 0 0 0 0 0 0 0 0 0 0 0 0 0 0 0 0 0 0 0 0 0 0 0 0 0 0 0 0 0 0 8177 7359 7359 0 0 7359 8177 0 0 6690 7359 6690 7359 7359 8177 8177 6690 6133 0 0 0 8177 0 7359 8177 8177 8177 0 0 0 0 0 0 0 0 0 0 0 0 0 0 8177 8177 0 8177 6690 8177 8177 8177 0 0 0 0 0 0 0 0 6690 7359 7359 8177 0 0 0 0 0 0 0 0 0 8177 8177 0 8177 0 7359 8177 7359 0 6133 6133 6133 5661 5661 8177 7359 7359 7359 0 6133 6690 6133 5661 4329 4088 4088 3873 4088 4599 4329 4329 4599 4906 4906 5256 4906 5256 5256 5256 4906 4906 4906 4906 3679 4329 3504 3345 3345 3199 3066 3066 2943 2830 2830 2725 2830 2725 2725 2725 2725 2725 2830 2830 2830 2830 2830 2628 2725 2374 2453 2299 2230 2164 2164 2164 2164 2102 2374 2044 2164 2230 2164 2044 1989 1839 1795 1752 1533 1533 1471 1443 1471 1443 1501 1471 1471 1501 1471 1501 1533 1443 1533 1471 1565 1471 1533 1501 1415 1388 1388 0 0 0 0 0 0 0 0 1338 1291 0 322 325 327 325 327 327 327 325 0 0 183 182 0 0 0 0 0 0 0 0
    0 0 0 0 0 0 0 0 0 0 0 0 0 0 0 0 0 0 0 0 0 0 0 0 0 0 0 0 0 0 0 0 0 0 0 0 0 0 0 0 0 0 0 0 0 0 0 0 0 0 0 0 0 0 0 0 0 0 0 0 0 0 0 0 0 0 0 0 0 5661 5661 6133 6690 7359 7359 7359 0 0 0 0 0 0 0 0 0 0 0 0 0 0 0 0 0 0 0 0 0 0 0 0 0 0 0 0 0 0 0 0 0 8177 7359 8177 0 0 7359 8177 0 0 6690 7359 6690 7359 7359 8177 7359 6690 6690 0 0 0 8177 0 7359 8177 8177 8177 0 0 0 0 8177 0 0 0 0 0 0 0 0 6690 7359 7359 6133 7359 6690 8177 8177 0 0 0 0 0 0 0 0 0 6690 7359 7359 7359 0 0 0 0 0 0 0 0 0 7359 7359 8177 7359 7359 6690 7359 6690 8177 5661 5661 5661 5661 5661 7359 7359 7359 7359 0 5256 6133 6133 5256 4088 3873 4088 3679 3873 4329 3873 4088 4329 4599 4906 5256 4599 5256 5256 5256 4906 4906 4906 4599 3679 4329 3504 3345 3345 3199 3066 2943 2830 2830 2830 2725 2725 2725 2725 2725 2725 2830 2943 2943 2943 2943 2943 2830 2830 2453 2537 2299 2299 2164 2164 2164 2164 2102 2299 1989 2102 2102 1989 1936 1839 1752 1711 1711 1533 1565 1501 1471 1501 1471 1501 1471 1471 1501 1471 1501 1533 1443 1565 1501 1565 1471 1565 1501 1415 1388 1415 0 0 0 0 0 0 0 0 1388 1314 325 322 325 327 327 327 327 327 325 0 0 0 0 0 0 0 0 0 0 0 0
    0 0 0 0 0 0 0 0 0 0 0 0 0 0 0 0 0 0 0 0 0 0 0 0 0 0 0 0 0 0 0 0 0 0 0 0 0 0 0 0 0 0 0 0 0 0 0 0 0 0 0 0 0 0 0 0 0 0 0 0 0 0 0 0 0 0 0 0 0 5661 6133 6690 6690 7359 7359 7359 0 0 0 0 0 0 0 0 0 0 0 0 0 0 0 0 0 0 0 0 0 0 0 0 0 0 0 0 0 0 0 0 0 8177 8177 8177 0 0 7359 0 0 0 6690 7359 6690 7359 7359 8177 8177 6690 6690 0 0 0 8177 8177 7359 7359 7359 8177 8177 0 8177 0 7359 0 0 0 0 0 0 0 7359 6133 6133 7359 5661 7359 6690 7359 8177 8177 0 8177 8177 8177 7359 7359 0 0 5661 6690 6690 7359 0 0 0 0 0 0 0 0 0 6690 6690 7359 6690 7359 6133 6690 6690 8177 5661 5661 5661 5256 5661 7359 7359 7359 7359 0 4599 5256 5661 4088 3504 3345 3679 0 3679 4088 3679 3873 4329 4599 4906 5256 4906 5256 5256 4906 4906 4906 4906 4599 3873 4329 3504 3345 3345 3199 2943 2830 2830 2725 2725 2725 2725 2725 2725 2725 2830 2725 2943 2830 2943 2943 2943 2830 2830 2537 2628 2299 2299 2230 2230 2164 2102 2044 2164 1887 1936 1936 1839 1795 1711 1672 1672 1672 1533 1565 1533 1501 1501 1471 1501 1471 1471 1501 1471 1501 1533 1415 1533 1501 1565 1471 1565 1471 1415 1388 1415 0 0 0 0 0 0 0 0 1443 1338 327 324 327 327 327 327 327 327 325 0 0 0 0 0 0 0 0 0 0 0 0
    0 0 0 0 0 0 0 0 0 0 0 0 0 0 0 0 0 0 0 0 0 0 0 0 0 0 0 0 0 0 0 0 0 0 0 0 0 0 0 0 0 0 0 0 0 0 0 0 0 0 0 0 0 0 0 0 0 0 0 0 0 0 0 0 0 0 0 0 0 5256 5661 6133 6690 7359 6690 6690 8177 8177 8177 8177 8177 0 0 8177 0 0 0 0 0 0 0 0 0 0 0 0 0 0 0 8177 8177 8177 8177 8177 0 0 0 0 0 8177 8177 8177 0 0 8177 0 0 0 7359 8177 7359 8177 8177 0 8177 7359 7359 0 0 0 7359 8177 6690 7359 7359 8177 8177 8177 8177 0 8177 0 0 0 0 0 0 0 6690 5661 6133 6690 5661 7359 6133 6690 7359 7359 8177 7359 6690 6690 5256 5256 7359 7359 3873 5661 5661 6690 0 0 0 0 8177 0 0 0 0 6690 6690 7359 6690 7359 6133 7359 6690 8177 5256 5661 5256 5256 5661 7359 6690 6690 6690 0 4329 4599 5256 3504 3199 3066 0 137 3504 3873 3679 3679 4599 5256 5256 5256 4906 5256 5256 4906 4906 4906 4599 4599 3873 4088 3504 3345 3199 3066 2830 2830 2725 2628 2725 2628 2725 2725 2725 2725 2830 2830 2943 2943 2943 3066 2943 2943 2943 2628 2628 2374 2374 2374 2230 2164 2044 1989 2044 1839 1839 1752 1711 1711 1635 1635 1635 1635 1533 1565 1533 1501 1533 1471 1501 1471 1471 1501 1471 1501 1501 1415 1533 1471 1533 1471 1533 1471 1388 1388 1415 0 0 0 0 0 0 0 0 1443 1338 327 324 327 327 327 327 327 327 325 0 0 0 0 0 0 0 0 0 0 0 0
    0 0 0 0 0 0 0 0 0 0 0 0 0 0 0 0 0 0 0 0 0 0 0 0 0 0 0 0 0 0 0 0 0 0 0 0 0 0 0 0 0 0 0 0 0 0 0 0 0 0 0 0 0 0 0 0 0 0 0 0 0 0 0 0 0 0 0 0 0 5256 5661 6133 6133 6690 6690 6133 8177 7359 7359 7359 8177 8177 8177 8177 0 0 0 0 0 0 0 0 0 0 0 0 0 0 0 8177 7359 7359 7359 7359 9199 0 0 0 0 8177 8177 9199 0 0 7359 0 0 0 8177 8177 7359 8177 8177 0 0 8177 7359 0 0 0 7359 7359 6690 7359 7359 8177 8177 8177 7359 8177 8177 0 8177 0 8177 7359 0 6690 6690 6133 6133 6690 5256 6690 5256 6133 6133 6690 6690 6133 5256 5661 3504 3345 0 3873 3199 4329 4329 5256 0 0 0 8177 8177 0 0 0 0 6690 6690 7359 6690 7359 6133 7359 6690 8177 5256 5661 5256 5256 6133 6690 6690 6690 6690 0 4329 5256 5256 3345 2830 2830 138 138 0 0 3504 3679 5661 5661 5661 6133 5256 5256 5256 5256 5256 4906 4599 4599 3873 4088 3345 3199 3066 2943 2725 2725 2628 2537 2628 2628 2628 2725 2725 2725 2725 2830 2943 2943 3066 3199 3066 2943 3066 2725 2725 2453 2537 2374 2299 2164 1989 1936 1989 1795 1752 1672 1635 1672 1599 1599 1599 1635 1533 1565 1533 1533 1533 1501 1533 1471 1471 1533 1471 1501 1501 1388 1533 1471 1533 1443 1501 1443 1388 1388 1415 0 0 0 0 0 0 0 0 1443 1338 327 324 325 325 327 325 327 327 325 0 1338 0 0 0 0 0 0 0 0 0 0
    0 0 0 0 0 0 0 0 0 0 0 0 0 0 0 0 0 0 0 0 0 0 0 0 0 0 0 0 0 0 0 0 0 0 0 0 0 0 0 0 0 0 0 0 0 0 0 0 0 0 0 0 0 0 0 0 0 0 0 0 0 0 0 0 0 0 0 0 0 5256 5661 5661 5661 6690 5661 4329 7359 6690 7359 6690 8177 8177 8177 7359 0 8177 0 0 0 0 0 0 0 0 0 0 0 8177 8177 7359 7359 7359 7359 7359 8177 0 0 0 0 8177 8177 8177 0 0 7359 8177 0 0 0 0 7359 8177 8177 0 0 8177 7359 0 0 0 7359 7359 6690 7359 8177 8177 8177 0 8177 0 8177 0 7359 8177 6133 5661 4088 5661 6133 5661 5661 5661 4599 6133 4906 5661 5661 5661 5661 4906 4088 4088 3066 0 0 2943 2943 3504 3504 4329 0 0 0 8177 8177 0 0 0 0 6690 6690 7359 7359 7359 6690 7359 7359 0 5661 5661 5661 5256 6133 6690 6690 6690 6133 7359 3873 4329 3873 2943 2299 2374 0 138 0 0 0 3504 5661 5661 5661 5661 5661 5256 5256 5256 5256 4906 4906 4599 3873 4088 3504 3199 3066 2943 2725 2725 2628 2628 2725 2628 2725 2725 2830 2830 2830 2830 2943 2943 3066 3199 3066 2943 2943 2830 2725 2453 2537 2453 2299 2164 1936 1936 1936 1752 1752 1672 1599 1635 1599 1599 1635 1635 1533 1599 1565 1565 1565 1501 1533 1471 1471 1501 1471 1501 1501 1388 1501 1443 1501 1443 1533 1471 1388 1388 1415 0 0 0 0 0 0 1471 1443 1471 1362 327 322 325 325 327 325 325 0 0 0 1362 0 0 1338 1338 1338 0 0 0 0 0
    0 0 0 0 0 0 0 0 0 0 0 0 0 0 0 0 0 0 0 0 0 0 0 0 0 0 0 0 0 0 0 0 0 0 0 0 0 0 0 0 0 0 0 0 0 0 0 0 0 0 0 0 0 0 0 0 0 0 0 0 0 0 0 0 0 0 0 0 0 4906 5256 5661 4906 6690 5256 4088 7359 6133 7359 6690 7359 8177 8177 7359 0 8177 0 8177 0 0 0 0 0 0 0 0 0 8177 8177 7359 7359 7359 7359 7359 8177 0 0 8177 9199 8177 7359 8177 0 0 7359 8177 0 0 0 0 8177 0 8177 0 0 8177 7359 0 0 0 6690 7359 7359 7359 8177 0 0 0 8177 0 8177 0 7359 8177 6690 6133 0 7359 7359 6690 5661 5661 4088 5256 4088 4329 3873 3873 3873 3504 3199 0 2830 2537 0 2628 2537 0 3066 0 0 0 0 8177 7359 0 0 0 0 6690 7359 8177 7359 8177 7359 8177 8177 0 5661 5661 5256 4906 6133 6133 6133 6133 5256 6133 3504 3504 3199 2725 2102 2164 2102 0 0 115 0 0 0 6133 6133 6133 5661 5256 5256 5256 5661 4906 4906 4599 4088 4088 3504 3199 3066 2943 2725 2725 2725 2628 2830 2830 2830 2830 2943 2943 2830 2943 3066 3066 3066 3199 3066 3066 3066 2830 2830 2537 2537 2537 2230 2044 1887 1887 1887 1752 1711 1635 1599 1635 1599 1599 1635 1635 1565 1599 1565 1565 1565 1533 1533 1471 1443 1501 1443 1471 1471 1388 1501 1443 1471 1443 1533 1501 1388 1388 1415 0 0 0 0 0 0 1471 1443 1501 1362 327 322 325 325 325 325 325 0 0 1362 1362 1362 1362 1362 1338 1362 0 0 0 0 0
    0 0 0 0 0 0 0 0 0 0 0 0 0 0 0 0 0 0 0 0 0 0 0 0 0 0 0 0 0 0 0 0 0 0 0 0 0 0 0 0 0 0 0 0 0 0 0 0 0 0 0 0 0 0 0 0 0 0 0 0 0 0 0 0 0 0 0 0 0 4329 4329 4906 4329 6690 5661 4329 7359 6690 7359 7359 8177 8177 8177 8177 0 8177 0 8177 0 0 0 0 0 0 0 0 0 8177 8177 7359 7359 7359 7359 7359 8177 0 0 8177 0 8177 8177 0 0 0 8177 8177 0 0 0 0 8177 0 8177 0 0 8177 7359 8177 7359 0 6133 6690 7359 7359 8177 0 9199 0 8177 8177 8177 0 8177 0 7359 7359 6133 0 0 0 7359 7359 4599 5256 3873 3873 3199 3199 3199 2943 2628 2537 2453 2164 2044 2299 2102 0 0 0 0 0 8177 7359 6690 0 0 0 0 7359 8177 8177 8177 8177 7359 8177 8177 0 5256 4906 4599 4329 5661 5661 5256 5256 4329 4329 3199 3066 2830 2537 1989 2044 1989 1936 0 115 0 0 0 6690 6690 6690 6133 5256 5256 5256 5661 4906 4906 4329 4088 4088 3504 3199 3066 2943 2830 2830 2830 2725 2830 2830 2943 2943 2943 2943 2943 3066 3199 3066 3066 3199 2943 2943 2943 2830 2725 2453 2537 2453 2164 1989 1887 1839 1839 1711 1711 1635 1599 1635 1635 1635 1635 1635 1599 1599 1599 1599 1599 1533 1533 1443 1443 1471 1443 1471 1471 1388 1501 1471 1471 1471 1565 1533 1362 1388 1415 0 0 0 0 1415 1443 1471 1471 1533 1388 327 322 325 325 325 0 0 0 0 1362 1362 1362 1362 1362 1362 1362 0 0 0 0 0
    0 0 0 0 0 0 0 0 0 0 0 0 0 0 0 0 0 0 0 0 0 0 0 0 0 0 0 0 0 0 0 0 0 0 0 0 0 0 0 0 0 0 0 0 0 0 0 0 0 0 0 0 0 0 0 0 0 0 0 0 0 0 0 0 0 0 0 0 0 3679 3679 3679 3679 5661 5661 4329 7359 6690 7359 8177 8177 8177 8177 7359 0 8177 0 0 0 0 0 0 0 0 0 0 0 8177 8177 8177 7359 7359 7359 7359 0 0 0 0 0 0 0 0 0 0 8177 0 0 0 0 0 8177 8177 8177 0 8177 7359 7359 7359 6690 8177 6133 6690 7359 7359 8177 0 8177 0 8177 8177 8177 0 8177 8177 7359 7359 6690 0 0 0 7359 7359 4906 5256 3873 3504 2830 2725 2725 2374 2102 2102 2102 1989 1936 2044 1989 2044 2453 0 0 0 5661 6133 5661 8177 0 0 8177 6690 8177 8177 8177 8177 8177 8177 7359 0 4599 3873 3504 3504 4906 4906 4599 4329 3679 3345 3066 2725 2628 2299 1936 1989 1936 1887 0 0 0 0 0 6690 6690 6690 5661 4906 4906 4906 5256 4599 4599 4329 4088 4329 3873 3345 3199 3066 2943 2830 2943 2830 2943 2943 2943 2943 3066 3066 3066 3066 3199 3066 3066 3199 2943 2943 2943 2830 2725 2374 2537 2537 2102 1887 1839 1795 1795 1711 1711 1672 1599 1635 1635 1635 1635 1635 1599 1599 1599 1599 1599 1533 1533 1443 1443 1443 1415 1471 1471 1388 1533 1471 1501 1501 1565 1533 1362 1388 1415 0 0 0 1415 1415 1415 1471 1471 1565 1388 328 324 325 325 327 0 0 0 0 1338 1338 1362 1362 1362 1338 1362 0 0 0 0 0
    0 0 0 0 0 0 0 0 0 0 0 0 0 0 0 0 0 0 0 0 0 0 0 0 0 0 0 0 0 0 0 0 0 0 0 0 0 0 0 0 0 0 0 0 0 0 0 0 0 0 0 0 0 0 0 0 0 0 0 0 0 0 0 0 0 0 0 0 0 3066 3199 3066 0 0 3679 3504 6690 5661 7359 8177 8177 8177 7359 7359 0 8177 0 8177 0 0 0 0 0 0 0 0 0 8177 8177 8177 8177 7359 7359 7359 0 0 0 0 0 0 0 0 0 0 8177 0 0 0 0 0 8177 8177 8177 8177 8177 7359 7359 7359 6133 7359 6133 6690 7359 7359 8177 0 8177 0 8177 8177 8177 8177 7359 7359 7359 6690 6690 8177 0 0 0 0 4329 0 0 0 2230 2044 2102 1989 1936 1989 1936 1887 1887 1936 1936 1936 2164 2230 0 2830 3345 4088 4329 7359 7359 8177 6690 6690 7359 7359 7359 6690 6690 7359 6690 8177 3873 3345 2943 3066 4088 4329 3873 3679 3345 2943 2830 2374 2230 2102 1887 1887 1839 1839 0 0 0 0 0 7359 7359 6690 6133 5256 4906 5256 5256 4906 4599 4329 4088 4599 4088 3679 3504 3345 3066 3066 3066 3066 2943 2943 2943 3066 3066 3066 3066 3066 3199 3066 3066 3199 2943 3066 2943 2830 2725 2453 2628 2628 1989 1752 1752 1752 1752 1672 1672 1672 1635 1635 1672 1635 1672 1672 1635 1635 1599 1599 1565 1533 1501 1415 1415 1443 1415 1471 1471 1388 1501 1443 1471 1501 1599 1533 1362 1362 1388 0 0 0 1415 1415 1415 1471 1471 1565 1388 330 324 327 325 0 0 0 1314 1338 1338 1338 1362 1362 1362 1362 1362 0 0 0 0 0
    0 0 0 0 0 0 0 0 0 0 0 0 0 0 0 0 0 0 0 0 0 0 0 0 0 0 0 0 0 0 0 0 0 0 0 0 0 0 0 0 0 0 0 0 0 0 0 0 0 0 0 0 0 0 0 0 0 0 0 0 0 0 0 0 0 0 0 0 0 2537 2725 2164 0 0 0 0 5256 4906 6690 7359 7359 8177 7359 7359 8177 8177 0 8177 0 0 0 0 0 0 0 0 0 8177 8177 8177 8177 7359 7359 7359 0 0 0 0 0 0 0 0 0 0 8177 8177 0 0 0 0 0 8177 8177 9199 8177 8177 7359 7359 5661 7359 6133 6690 7359 8177 8177 0 0 0 8177 8177 8177 8177 7359 8177 7359 7359 7359 0 0 0 0 0 0 0 0 0 1936 1887 1936 1887 1887 1887 1887 1839 1839 1887 1887 1887 1989 1989 2164 2453 2725 3066 3345 5661 6690 8177 6690 6690 7359 7359 7359 6690 6133 6133 6133 8177 3199 2943 2628 2628 3504 3873 3679 3504 3199 2830 2628 2164 2044 1989 1839 1839 1795 1795 0 0 0 0 0 8177 7359 6690 6690 5661 5256 5256 5256 4906 4329 4088 4329 4599 3873 3679 3679 3504 3345 3345 3345 3066 3066 3066 3066 3066 2943 3066 2943 3066 3066 3066 2943 2943 2830 2830 2725 2725 2628 2374 2537 2628 1936 1635 1711 1711 1711 1635 1672 1672 1635 1672 1672 1635 1672 1635 1635 1635 1599 1599 1565 1533 1501 1443 1415 1443 1415 1471 1501 1415 1501 1443 1471 1501 1599 1501 1338 1362 1388 0 0 0 1388 1415 1415 1471 1471 1565 1388 330 325 327 327 0 0 0 1314 1362 1362 1338 1388 1388 1388 1388 1388 0 0 0 0 0
    0 0 0 0 0 0 0 0 0 0 0 0 0 0 0 0 0 0 0 0 0 0 0 0 0 0 0 0 0 0 0 0 0 0 0 0 0 0 0 0 0 0 0 0 0 0 0 0 0 0 0 0 0 0 0 0 0 0 0 0 0 0 0 0 0 0 0 0 0 2299 2628 1887 0 0 2628 0 4088 3873 6133 7359 7359 8177 7359 7359 8177 8177 0 8177 0 0 0 0 0 0 0 0 0 0 0 0 8177 7359 7359 7359 0 0 0 0 0 0 0 0 0 0 0 0 0 0 0 0 0 8177 8177 8177 8177 7359 7359 7359 6133 7359 6690 6690 8177 8177 0 0 0 0 8177 7359 7359 7359 8177 8177 8177 7359 8177 0 0 0 0 0 0 0 0 1752 1795 1839 1887 1839 1887 1887 1887 1839 1839 1887 1839 1839 1887 1887 1936 2044 2230 2725 2943 3873 5661 7359 6133 6133 6690 7359 7359 6133 5661 4906 4088 4088 2943 2453 2299 2299 2830 3066 3066 3199 2943 2453 2453 2044 1936 1989 1795 1839 1839 1795 1887 2299 0 3679 0 8177 7359 6690 6690 5661 5256 5256 5256 4599 4329 3873 4599 4329 4088 3873 3873 3679 3504 3345 3504 3199 3199 3199 3066 3066 3066 2943 2943 3199 3199 2943 2830 2830 2725 2725 2453 2453 2164 1989 1989 2164 1795 1599 1711 1752 1711 1672 1672 1711 1635 1672 1711 1672 1635 1635 1599 1599 1565 1565 1565 1533 1501 1443 1443 1471 1443 1501 1533 1415 1501 1471 1501 1501 1599 1501 1338 1362 1362 0 0 0 0 1388 1415 1443 1443 1565 1388 331 327 328 327 328 0 0 1314 1362 1362 1362 1388 1388 1388 1388 1415 0 0 0 0 0
    0 0 0 0 0 0 0 0 0 0 0 0 0 0 0 0 0 0 0 0 0 0 0 0 0 0 0 0 0 0 0 0 0 0 0 0 0 0 0 0 0 0 0 0 0 0 0 0 0 0 0 0 0 0 0 0 0 0 0 0 0 0 0 0 0 0 0 0 0 2299 2725 0 0 0 0 0 3679 3679 5661 7359 7359 8177 8177 7359 8177 9199 0 0 0 0 0 0 0 0 0 0 0 0 0 0 8177 6690 7359 7359 0 0 0 0 0 0 0 0 0 0 0 0 0 0 0 0 8177 8177 8177 8177 8177 7359 7359 7359 6690 7359 7359 7359 0 0 0 0 0 0 0 7359 7359 7359 0 8177 8177 7359 8177 8177 0 0 0 0 0 1501 0 1711 1752 1839 1887 1839 1887 1887 1887 1887 1839 1887 1839 1839 1887 1839 1887 1936 2044 2374 2628 3066 4906 6690 6133 6133 6690 6690 6690 5661 5256 4329 3504 0 2830 2374 2164 2164 2374 2830 2830 2943 2725 2164 2230 2044 1989 1989 1839 1839 1839 1795 1989 2453 2830 3345 6690 7359 6690 6133 6690 5661 5256 5256 5661 4906 4599 4088 4906 4599 4329 4088 4088 3679 3679 3504 3504 3345 3345 3345 3199 3066 3066 3066 3066 3066 3066 2830 2725 2628 2453 2453 2230 2044 1989 1887 1887 1887 1752 1635 1711 1752 1752 1672 1672 1711 1672 1672 1711 1635 1635 1635 1635 1599 1565 1565 1565 1533 1501 1443 1443 1443 1443 1533 1533 1443 1533 1501 1533 1533 1635 1501 1338 1362 1362 0 0 0 1388 1388 1415 1443 1443 1533 1388 331 328 330 328 0 0 0 1314 1362 1388 1338 1362 1362 1388 1362 1388 0 0 0 0 0
    0 0 0 0 0 0 0 0 0 0 0 0 0 0 0 0 0 0 0 0 0 0 0 0 0 0 0 0 0 0 0 0 0 0 0 0 0 0 0 0 0 0 0 0 0 0 0 0 0 0 0 0 0 0 0 0 0 0 0 0 0 0 0 0 0 0 0 0 0 2628 2943 0 0 0 0 3345 4329 4088 6690 8177 7359 0 8177 8177 0 0 0 0 0 0 0 0 0 0 0 0 0 0 0 0 8177 6690 7359 7359 0 0 0 0 0 0 0 0 0 0 0 0 0 0 0 0 0 0 8177 8177 8177 7359 7359 7359 7359 8177 8177 8177 0 0 0 0 0 0 0 7359 7359 7359 8177 7359 8177 8177 8177 8177 8177 0 0 0 0 1565 1672 1752 1752 1839 1839 1839 1887 1887 1936 1887 1887 1936 1839 1839 1887 1839 1887 1936 1989 2299 2628 3504 4329 6133 5661 6133 6690 6690 6690 5661 4906 4329 3345 2943 2830 2299 2102 2164 2164 2453 2628 2628 2537 2102 2164 2102 2044 2044 1839 1795 1795 1795 2102 2537 2943 3199 4088 6133 6133 5256 6133 5256 5256 5256 5256 4906 4599 4329 5256 4906 4329 4088 4088 3873 3679 3679 3679 3345 3345 3345 3345 3199 3066 3199 3199 3199 3199 2830 2628 2453 2299 2374 2102 1887 1887 1839 1795 1839 1752 1635 1711 1752 1711 1672 1672 1711 1672 1672 1752 1635 1635 1599 1599 1599 1565 1565 1533 1501 1501 1443 1443 1415 1443 1501 1533 1443 1533 1501 1533 1533 1635 1501 1338 1362 1362 1362 0 0 1362 1388 1388 1443 1443 1533 1388 0 330 331 330 0 0 0 1338 1338 1362 1338 1338 1338 1338 1338 1362 0 0 0 0 0
    0 0 0 0 0 0 0 0 0 0 0 0 0 0 0 0 0 0 0 0 0 0 0 0 0 0 0 0 0 0 0 0 0 0 0 0 0 0 0 0 0 0 0 0 0 0 0 0 0 0 0 0 0 0 0 0 0 0 0 0 0 0 0 0 0 0 0 0 0 0 3873 0 5256 3679 0 4599 5256 4599 7359 0 8177 0 8177 0 0 0 0 0 0 0 0 0 0 0 0 0 8177 0 0 0 0 7359 6690 6690 0 0 0 0 0 0 0 0 0 0 0 0 0 0 0 0 0 0 0 0 8177 7359 8177 8177 7359 8177 8177 8177 0 0 0 0 0 0 8177 8177 8177 8177 0 8177 0 8177 0 0 0 0 0 0 0 0 0 1795 1752 1839 1839 1839 1887 1887 1936 1887 1887 1936 1839 1839 1795 1795 1795 1839 1887 1989 1936 3066 3679 4906 4906 6133 6690 6690 6133 5256 4599 4088 3199 2830 2725 2230 2044 2102 2102 2299 2374 2374 2374 2044 2102 2299 2102 2102 1839 1839 1839 1839 2537 2830 2943 3066 3679 5661 5256 4906 6133 5661 5661 5661 5661 5256 4906 4599 5661 5256 4329 4088 4329 4088 3873 3873 3873 3504 3504 3504 3504 3199 3066 3066 3199 3199 3199 2830 2628 2374 2164 2299 2044 1839 1839 1839 1795 1839 1752 1672 1711 1752 1752 1672 1672 1711 1672 1672 1752 1635 1635 1599 1599 1599 1565 1565 1533 1501 1501 1443 1443 1415 1471 1501 1533 1443 1533 1471 1501 1533 1599 1471 1338 1338 1338 1362 0 1362 1362 1362 1388 1415 1415 1471 1388 0 333 333 0 0 0 0 1338 1338 1388 1338 1338 0 0 0 1362 0 0 0 0 0
    0 0 0 0 0 0 0 0 0 0 0 0 0 0 0 0 0 0 0 0 0 0 0 0 0 0 0 0 0 0 0 0 0 0 0 0 0 0 0 0 0 0 0 0 0 0 0 0 0 0 0 0 0 0 0 0 0 0 0 0 0 0 0 0 0 0 0 0 0 0 0 0 0 0 0 4599 5661 4599 7359 0 8177 0 8177 0 0 0 0 0 0 0 0 0 0 0 0 0 8177 0 0 0 0 7359 6690 6690 0 0 0 0 0 0 0 0 0 0 0 0 0 0 0 0 0 0 0 0 0 8177 8177 8177 7359 8177 8177 0 0 0 0 0 0 0 8177 0 0 8177 0 8177 0 8177 0 0 0 634 0 0 0 0 0 1795 1711 1839 1839 1795 1839 1839 1887 1887 1839 1936 1795 1795 1795 1752 1752 1795 1839 1839 1795 2453 3504 4599 4599 6133 6690 6690 6133 5256 4906 4088 3199 2725 2725 2230 1989 2102 2044 2164 2230 2299 2299 1989 1989 2230 2374 2374 1839 0 1839 1936 2537 2725 2830 2943 3345 5256 4599 4599 5661 5256 5661 5661 5256 5256 4599 4906 5661 5661 4599 4329 4599 4329 4088 4088 4329 3679 3679 3504 3504 3199 3066 3066 3066 3066 3066 2830 2453 2374 2102 2230 2044 1839 1839 1887 1795 1839 1795 1711 1752 1752 1711 1672 1672 1752 1672 1711 1752 1635 1635 1599 1599 1565 1565 1565 1533 1501 1501 1443 1471 1443 1501 1501 1501 1415 1533 1471 1501 1471 1565 1388 1314 1338 1338 1338 0 1362 1362 1362 1388 1415 1415 1443 1362 0 333 333 0 0 0 0 1338 0 1388 1338 0 0 0 0 0 0 0 0 0 0
    0 0 0 0 0 0 0 0 0 0 0 0 0 0 0 0 0 0 0 0 0 0 0 0 0 0 0 0 0 0 0 0 0 0 0 0 0 0 0 0 0 0 0 0 0 0 0 0 0 0 0 0 0 0 0 0 0 0 0 0 0 0 0 0 0 0 0 0 0 0 0 0 0 0 0 3873 5256 4088 7359 0 7359 0 0 0 0 0 0 0 0 0 0 0 0 0 0 0 8177 0 0 0 0 8177 7359 6690 0 0 0 0 0 0 0 0 0 0 0 0 0 0 0 0 0 0 0 0 0 0 0 8177 8177 0 8177 0 0 0 0 0 0 0 0 0 0 0 0 0 0 0 0 0 0 0 0 0 0 0 0 1795 1711 1795 1795 1795 1839 1839 1887 1839 1839 1936 1795 1839 1795 1752 1752 1795 1839 1887 1795 2453 3345 4329 4906 6690 6690 6690 6133 5661 4906 4088 3345 2830 2830 2299 1989 2044 1989 2044 2164 2230 2230 2044 1887 2230 2453 2628 1936 0 1936 2044 2230 2453 2537 2628 2725 4088 3873 4088 4906 5661 5661 5661 5661 5661 4906 4906 5661 6133 4599 4329 4599 4329 4329 4329 4599 3873 3679 3679 3679 3199 3066 2943 2943 2943 2943 2628 2299 2230 2044 2230 2102 1887 1887 1887 1839 1887 1795 1752 1711 1711 1711 1672 1672 1711 1672 1711 1711 1599 1599 1565 1599 1565 1533 1565 1501 1501 1501 1443 1501 1443 1533 1501 1501 1415 1471 1415 1471 1443 1501 1338 1291 1314 1314 1338 0 0 1362 1362 1388 1415 1415 1443 1362 0 0 334 0 0 0 0 0 0 1388 1314 0 183 183 183 0 0 0 0 0 0
    0 0 0 0 0 0 0 0 0 0 0 0 0 0 0 0 0 0 0 0 0 0 0 0 0 0 0 0 0 0 0 0 0 0 0 0 0 0 0 0 0 0 0 0 0 0 0 0 0 0 0 0 0 0 0 0 0 0 0 0 0 0 0 0 0 0 0 0 0 0 0 0 0 5256 3345 3504 4599 3679 7359 0 7359 0 0 0 0 0 0 0 0 0 0 0 0 0 0 0 8177 0 0 0 0 8177 7359 6690 0 0 0 0 0 0 0 0 0 0 0 0 0 0 0 0 0 0 0 0 0 0 0 0 0 0 8177 0 0 0 0 0 0 0 0 0 0 0 0 0 0 0 0 0 0 639 0 0 0 0 0 0 1711 1795 1752 1752 1839 1839 1936 1887 1839 1936 1839 1839 1795 1752 1711 1752 1795 1839 1795 2725 3504 4599 5256 7359 7359 6690 6133 5661 5256 4599 3504 2943 2943 2453 1989 2044 1936 2044 2102 2230 2299 2164 1989 2374 2537 2628 2102 2164 2102 2230 2164 2164 2230 2164 2164 3345 3504 3679 4599 5256 5661 5256 5256 5256 5256 4906 5661 6133 4906 4599 4906 4599 4329 4599 4906 3873 3873 3873 3873 3199 3066 2725 2943 0 2830 2537 2164 2230 2044 2164 2102 1887 1887 1887 1839 1887 1795 1752 1711 1711 1711 1672 1672 1711 1672 1711 1672 1599 1599 1565 1565 1533 1533 1565 1501 1501 1501 1471 1533 1471 1533 1501 1471 1415 1471 1415 1443 1415 1443 1338 1268 1314 1314 1338 0 0 1362 1362 1388 1415 1415 1415 1362 0 0 0 0 0 0 0 0 0 0 1314 0 183 183 183 183 0 0 0 0 0
    0 0 0 0 0 0 0 0 0 0 0 0 0 0 0 0 0 0 0 0 0 0 0 0 0 0 0 0 0 0 0 0 0 0 0 0 0 0 0 0 0 0 0 0 0 0 0 0 0 0 0 0 0 0 0 0 0 0 0 0 0 0 0 0 0 0 0 0 0 0 0 0 0 6133 3873 4088 5256 4599 8177 0 8177 0 0 0 0 0 0 0 0 0 0 0 0 0 0 0 8177 0 0 8177 8177 7359 6690 6133 0 0 0 0 0 0 0 0 0 0 0 0 0 0 0 0 0 0 0 0 0 0 0 0 0 0 8177 0 0 0 0 0 0 0 0 0 0 0 330 328 0 0 0 0 0 645 651 0 0 0 0 0 1711 1795 1752 1752 1839 1839 1936 1887 1839 1936 1839 1839 1839 1752 1752 1752 1795 1936 1887 0 3873 5256 6133 7359 8177 7359 7359 7359 6133 5256 4088 3066 3199 2725 2164 2164 1989 2102 2102 2164 2230 2102 1936 2299 2537 2725 2164 2299 2299 2374 2164 2044 1989 1936 1887 2830 3199 3504 4088 5256 5661 5256 5256 5256 5256 4906 5661 6133 4906 4088 4599 4329 4088 4088 4599 3504 3504 3504 3873 2943 2725 2044 2725 0 0 2374 2044 2102 1989 2102 2044 1887 1887 1887 0 0 1752 1752 1711 1672 1711 1672 1672 1711 1672 1711 1672 1599 1599 1533 1565 1533 1533 1533 1501 1471 1501 1443 1533 1471 1565 1501 1443 1388 1471 1415 1443 1415 1415 1314 1268 1314 1314 1338 1362 0 1338 1362 1388 1415 1388 1388 1338 0 0 0 0 0 1268 1268 1268 1268 1314 1268 0 0 183 183 0 0 0 0 0 0
    0 0 0 0 0 0 0 0 0 0 0 0 0 0 0 0 0 0 0 0 0 0 0 0 0 0 0 0 0 0 0 0 0 0 0 0 0 0 0 0 0 0 0 0 0 0 0 0 0 0 0 0 0 0 0 0 0 0 0 0 0 0 0 0 0 0 0 0 0 0 0 0 0 6133 4088 4599 6133 4906 7359 0 8177 0 0 0 0 0 0 0 0 0 0 0 0 0 0 0 0 0 8177 7359 7359 6690 5256 4088 6133 5661 7359 6690 0 0 0 0 0 0 0 0 0 0 0 0 0 0 0 0 0 0 0 8177 0 0 0 0 0 0 0 0 0 0 0 0 0 331 328 328 325 0 0 0 0 0 0 0 347 0 0 0 1711 1795 1752 1752 1839 1839 1936 1887 1839 1936 1839 1839 1839 1752 1752 1711 1795 1839 1887 0 3873 5256 5661 7359 7359 7359 7359 0 8177 7359 4329 3199 3345 2943 2453 2374 2044 2102 2044 2044 2044 1989 1839 1989 2299 2725 2164 2374 2374 2453 2164 2102 1989 1887 1887 1989 1795 3199 3345 4329 4906 4906 4906 4906 4906 4906 5661 6133 5256 4088 4599 4329 4088 4088 4329 3504 0 3345 3504 0 0 1565 0 0 0 0 2044 2164 1989 2102 2044 1887 1887 1887 0 1839 1752 1752 1711 1672 1711 1672 1672 1752 1672 1711 1672 1599 1635 1533 1565 1533 1501 1533 1501 1471 1501 1443 1501 1443 1533 1471 1443 1388 1501 1415 1471 1415 1415 1338 1291 1314 1338 1338 1338 1338 1338 1362 1362 1388 1362 1362 1314 1291 0 0 1247 1247 1247 1247 1247 1247 1226 1226 1268 0 0 184 0 0 0 0 0 0
    0 0 0 0 0 0 0 0 0 0 0 0 0 0 0 0 0 0 0 0 0 0 0 0 0 0 0 0 0 0 0 0 0 0 0 0 0 0 0 0 0 0 0 0 0 0 0 0 0 0 0 0 0 0 0 0 0 0 0 0 0 0 0 0 0 0 0 0 0 0 0 0 0 6133 4088 4329 6133 4599 6133 0 7359 8177 0 0 0 0 0 0 0 0 0 0 0 0 0 0 8177 8177 6690 6133 5661 4906 3873 3066 3066 2943 3504 3345 6133 0 0 0 0 0 0 8177 0 0 0 0 0 0 0 0 0 0 0 0 0 0 7359 8177 0 0 0 0 0 0 0 0 331 328 327 325 0 639 0 0 0 645 651 0 347 353 357 0 1711 1795 1752 1752 1839 1839 1936 1887 1839 1936 1887 1887 1839 1752 1752 1752 1839 2044 2628 0 3873 5256 5256 6690 6690 7359 6133 8177 7359 8177 4599 3199 3345 3066 2537 2374 2102 2044 2044 1989 1989 1936 1795 1936 2299 2628 2164 2374 2374 2537 2299 2164 1989 1887 1839 1887 1795 2943 3066 3873 4329 4599 4906 4906 5256 5256 5661 6133 5256 3873 4329 4329 4088 4088 4088 0 0 0 0 0 0 1291 0 0 0 0 0 2164 1989 2102 2102 1936 1887 1887 1839 1839 1752 1752 1752 1711 1711 1711 1672 1752 1672 1711 1672 1599 1635 1565 1565 1533 1533 1565 1501 1471 1501 1443 1501 1471 1565 1471 1415 1388 1471 1388 1471 1388 1388 1338 1314 1314 1338 1338 1338 1338 1338 1362 1362 1388 1362 1362 1314 1291 1268 1247 1226 1226 1206 1226 1226 1247 1206 1206 1247 1268 1268 1291 0 0 0 0 0 0
    0 0 0 0 0 0 0 0 0 0 0 0 0 0 0 0 0 0 0 0 0 0 0 0 0 0 0 0 0 0 0 0 0 0 0 0 0 0 0 0 0 0 0 0 0 0 0 0 0 0 0 0 0 0 0 0 0 0 0 0 0 0 0 0 0 0 0 0 0 0 8177 0 0 5661 3679 3679 5256 3873 4329 8177 6133 5661 6690 5256 0 0 0 0 0 0 0 0 0 0 0 0 7359 7359 6133 5661 4599 4088 3345 2830 2830 2725 2830 2830 0 0 0 0 0 0 8177 6133 0 7359 0 0 0 0 0 0 0 0 0 0 0 0 6133 7359 0 0 0 0 0 0 322 0 330 327 324 324 0 0 639 0 639 645 645 0 0 0 0 0 1711 1752 1752 1752 1795 1839 1887 1887 1795 1887 1839 1839 1795 1711 1711 1711 1795 1887 2943 3199 3345 4088 3873 4599 3679 3873 3345 5661 3504 0 3504 2830 3199 2943 2537 2299 2102 2044 1989 1936 1887 1887 1752 1795 1989 2102 1989 2164 2164 2230 2102 2044 1936 1839 1795 1795 1752 1887 0 3679 4329 4599 4906 5256 5661 5256 6133 6133 4906 3873 4329 4329 4088 4088 4088 0 0 0 0 0 0 1247 1036 0 0 0 0 2102 0 2044 2044 1887 1839 1887 1839 1839 1752 1752 1752 1711 1752 1711 1711 1752 1711 1711 1672 1599 1635 1565 1565 1533 1533 1565 1533 1471 1501 1443 1501 1471 1565 1471 1415 1362 1471 1388 1443 1388 1362 1338 1314 1314 1338 1338 1338 1338 1338 1338 1362 1362 1362 1338 1291 1268 1268 1226 1226 1226 1206 1226 1206 1247 1187 1206 1247 1247 1268 1291 1314 0 0 0 0 0
    0 0 0 0 0 0 0 0 0 0 0 0 0 0 0 0 0 0 0 0 0 0 0 0 0 0 0 0 0 0 0 0 0 0 0 0 0 0 0 0 0 0 0 0 0 0 0 0 0 0 0 0 0 0 0 0 0 0 0 0 0 0 0 0 0 0 0 0 0 0 5256 8177 6690 4329 3199 3066 3679 3066 2943 3345 3504 3066 2943 2725 2628 2628 2374 0 0 0 0 0 0 0 0 0 7359 7359 5256 4599 3679 3345 3066 2628 2628 2453 2537 2537 2628 2725 0 0 0 0 0 0 0 0 0 0 0 0 0 0 0 0 0 5661 4088 4329 4329 5661 0 0 0 0 0 0 0 0 0 0 0 0 0 0 0 0 0 639 645 0 0 0 0 0 1711 1752 1752 1752 1795 1795 1839 1839 1752 1839 1887 1839 1795 1711 1711 1711 1795 1795 2102 2230 2830 3345 3345 3199 2830 2725 2628 2725 2453 2725 2725 2537 2943 2830 2453 2102 1989 1936 1839 1839 1795 1839 1711 1711 1839 1887 1839 2044 2044 2044 1989 1936 1839 1795 1752 1795 1672 0 0 0 0 3873 4329 4906 5661 5256 5661 6133 4599 3679 4088 4088 3873 4088 4088 0 0 0 0 0 0 1115 1008 0 0 0 0 0 0 0 0 1839 1839 1839 0 1839 1752 1752 1752 1752 1752 1752 1711 1752 1711 1711 1672 1599 1635 1565 1565 1533 1533 1565 1533 1471 1533 1443 1533 1501 1565 1471 1415 1362 1471 1362 1443 1362 1362 1314 1314 1314 1338 1338 1338 1338 1338 1362 1362 1362 1362 1338 1268 1268 1247 1226 1226 1226 1206 1226 1226 1247 1226 1206 1247 1247 1247 1268 1268 0 0 0 0 0
    0 0 0 0 0 0 0 0 0 0 0 0 0 0 0 0 0 0 0 0 0 0 0 0 0 0 0 0 0 0 0 0 0 0 0 0 0 0 0 0 0 0 0 0 0 0 0 0 0 0 0 0 0 0 0 0 0 0 0 0 0 0 0 0 0 0 0 0 0 0 3066 0 3679 3504 2830 2830 2830 2830 2628 2628 2943 2725 2628 2453 2299 2299 2102 2102 2164 1887 2299 2537 2628 3066 7359 6690 7359 6133 3873 3504 3066 2943 2830 2453 2453 2299 2299 2374 2374 2453 2628 0 0 0 0 2628 0 2628 2453 2830 2943 0 0 0 0 0 0 3504 2943 2943 3066 2943 3066 0 0 0 0 0 0 0 215 217 219 0 0 0 0 0 0 0 0 0 0 1752 0 1839 1711 1752 1752 1795 1839 1839 1887 1839 1795 1887 1887 1839 1839 1752 1711 1711 1795 1795 1989 0 2044 2830 3066 2725 2628 2374 2374 2299 2230 2453 2537 2374 2628 2830 2374 0 1887 1839 1795 1795 1752 1795 1672 1672 1795 1839 1795 1936 1936 1936 1887 0 0 1711 1711 1711 0 0 0 0 272 0 3679 3873 4906 4599 5256 6133 4329 3679 3873 4088 3873 3679 3873 0 0 103 104 0 0 1036 981 955 0 0 0 0 0 0 0 0 1752 0 0 0 1711 1752 1752 1752 1752 1752 1711 1752 1711 1711 1672 1635 1635 1565 1565 1533 1533 1565 1533 1471 1501 1443 1533 1501 1565 1471 1415 1388 1501 1388 1471 1362 1362 1314 1338 1314 1338 1338 1338 1338 1338 1362 1362 1338 1362 1338 1247 1247 1226 1206 1206 1206 1206 1226 1206 1247 1226 1206 1226 1247 1226 1247 1247 0 0 0 0 0
    0 0 0 0 0 0 0 0 0 0 0 0 0 0 0 0 0 0 0 0 0 0 0 0 0 0 0 0 0 0 0 0 0 0 0 0 0 0 0 0 0 0 0 0 0 0 0 0 0 0 0 0 0 0 0 0 0 0 0 0 0 0 0 0 0 0 0 0 0 0 2537 2537 2628 2830 2537 2299 2164 2374 2230 2164 2628 2537 2374 2230 2102 2164 2044 2044 2102 1887 2044 2230 2164 2230 2453 2628 6133 4088 3066 2943 2725 2628 2628 2299 2299 2164 2164 2230 2230 2299 2374 0 0 0 2299 2230 2164 2164 2102 2299 2299 2164 2299 2453 2537 2537 2628 2725 2374 2537 2537 2453 2628 2374 2628 2374 2453 2628 2374 0 0 0 0 2299 0 0 0 0 0 0 0 0 0 1752 1711 1887 1752 1795 1795 1839 1887 1887 1887 1887 1795 1839 1887 1795 1795 1711 1711 1672 1752 1752 1795 1752 1936 1989 2628 2453 2453 2230 2299 2164 2230 2374 2374 2230 2164 2537 2164 1839 1839 1839 1795 1752 1752 1795 1672 1672 1795 1795 1752 1887 1887 1839 1839 1795 1672 1565 1533 1565 0 0 0 0 272 265 0 3345 3873 3873 5256 6133 4088 3504 3679 3873 3679 3504 0 0 0 0 0 0 0 1008 981 968 994 994 0 0 0 0 0 0 0 0 0 0 1672 1672 1711 1711 1711 1752 1711 1752 1672 1711 1635 1635 1672 1599 1565 1533 1533 1565 1533 1471 1501 1443 1501 1471 1565 1471 1443 1388 1501 1415 1501 1388 1388 1338 1338 1314 1338 1338 1338 1338 1338 1338 1362 1338 1338 1338 1247 1247 1226 1206 1206 1206 1206 1226 1206 1247 1226 1206 1226 1226 1226 1247 1247 0 0 0 0 0
    0 0 0 0 0 0 0 0 0 0 0 0 0 0 0 0 0 0 0 0 0 0 0 0 0 0 0 0 0 0 0 0 0 0 0 0 0 0 0 0 0 0 0 0 0 0 0 0 0 0 0 0 0 0 0 0 0 0 0 0 0 0 0 0 0 0 0 0 0 2102 2044 2164 2102 2102 2102 2044 1936 2044 2044 1989 2299 2299 2164 2102 2044 2102 2044 2044 2102 1936 2044 2164 2102 2102 2230 2299 2725 2725 2537 2164 2164 2164 2374 2102 2164 2102 2102 2102 2102 2102 2164 2044 2230 2102 2044 2044 1989 1989 1989 2044 1989 1989 1989 2044 2102 2102 2230 2230 2102 2164 2164 2164 2299 2044 2230 2044 2102 2230 2044 2164 2164 2044 2374 2102 2164 2102 1989 2044 1989 1936 1936 1795 1795 1795 1752 1887 1795 1795 1839 1887 1936 1936 1936 1887 1795 1795 1839 1711 1711 1672 1672 1635 1711 1711 1752 1672 1936 1936 2299 2230 2299 2164 2230 2164 2230 2299 2374 2164 2044 2374 2044 1795 1795 1795 1752 1711 1711 1752 1672 1599 1752 1711 1672 1795 1752 1711 1672 1635 1501 1415 1388 1415 0 0 1291 0 0 0 0 0 0 3345 4906 5661 3679 3345 3504 3504 3504 3345 0 0 0 0 0 0 0 1008 981 968 981 994 981 0 0 0 0 0 0 0 0 0 1565 1565 1635 1635 1672 0 1711 1711 1635 1672 1635 1635 1672 1599 1599 1533 1533 1565 1533 1471 1501 1443 1501 1471 1533 1471 1443 1388 1501 1415 1533 1415 1388 1314 1338 1314 1338 1314 1314 1314 1338 1338 1338 1314 1314 1314 1226 1226 1206 1187 1206 1206 1206 1226 1226 1247 1226 1206 1247 1247 1247 1247 1247 0 0 0 0 0
    0 0 0 0 0 0 0 0 0 0 0 0 0 0 0 0 0 0 0 0 0 0 0 0 0 0 0 0 0 0 0 0 0 0 0 0 0 0 0 0 0 0 0 0 0 0 0 0 0 0 0 0 0 0 0 0 0 0 0 0 0 0 0 0 0 0 0 0 0 1839 1839 1887 1887 1795 1795 1887 1839 1936 1936 1936 2044 2044 2044 2044 1989 2044 1989 1989 2044 1936 1989 2102 2044 1989 2044 2044 2044 1989 2044 1839 1936 1936 2102 1989 2044 2044 2044 2044 2044 1989 2044 1989 2044 1989 1989 1936 1936 1936 1989 1989 1989 1936 1989 1989 2044 2044 2102 2044 2044 2102 2044 2164 2164 1989 2102 1989 2044 2102 1989 2044 2044 1989 2230 2044 2044 1989 1936 1989 1936 1936 1936 1795 1795 1795 1752 1936 1795 1839 1887 1887 1936 1936 1887 1839 1752 1752 1795 1635 1672 1635 1635 1635 1711 1635 1711 1672 1887 1936 2102 2102 2164 2164 2164 2102 2164 2230 2299 2102 1936 2164 1989 1752 1752 1752 1711 1672 1672 1672 1599 1533 1672 1599 1565 1635 1599 1533 0 1415 1388 1338 1338 1338 0 1268 1268 1291 0 0 0 0 0 0 3679 4599 3345 3199 3199 3345 3199 0 0 0 0 0 0 0 994 994 981 968 981 994 955 0 0 1291 0 0 0 0 0 0 0 0 0 0 0 721 0 0 0 1635 1635 1635 1672 1599 1599 1533 1533 1599 1533 1501 1501 1443 1501 1471 1533 1471 1443 1415 1471 1415 1533 1415 1388 1314 1338 1314 1338 1291 1314 1314 1314 1314 1314 1291 1291 1291 1206 1226 1206 1206 1206 1206 1226 1226 1226 1247 1247 1226 1247 1268 1247 1268 1268 0 0 0 0 0
    0 0 0 0 0 0 0 0 0 0 0 0 0 0 0 0 0 0 0 0 0 0 0 0 0 0 0 0 0 0 0 0 0 0 0 0 0 0 0 0 0 0 0 0 0 0 0 0 0 0 0 0 0 0 0 0 0 0 0 0 0 0 0 0 0 0 0 0 0 1795 1795 1795 1839 1711 1795 1839 1795 1887 1887 1887 1936 1989 1989 1989 1989 2044 1936 1989 2044 1936 1989 2044 1989 1936 1936 1989 1936 1887 1887 1795 1887 1887 1989 1936 1989 1989 1989 1989 1989 1936 1989 1936 1989 1936 1936 1936 1936 1936 1936 1989 1989 1936 1989 1989 2044 2044 2164 2102 2102 2102 2102 2164 2102 1989 2044 1989 1989 2044 1989 1989 1989 1936 2164 1989 2044 1989 1936 1936 1936 1887 1936 1795 1887 1839 1795 1936 0 1839 1887 1887 1989 1936 1887 1839 1752 1752 1752 1635 1635 1635 1599 1635 1672 1635 1711 1672 1839 1887 1989 2044 2044 2102 2102 2044 2102 2164 2164 2044 1936 2044 1936 1711 1752 1711 1635 1672 1635 1672 1565 1501 1672 1565 1565 1599 1533 1471 0 0 0 1314 1314 0 0 1268 1247 1291 1226 1291 1268 1247 1226 1247 1268 3504 3199 3066 2537 3066 3066 0 0 0 0 0 0 0 994 994 981 968 968 994 931 0 0 1036 0 0 0 1008 0 994 886 826 782 743 735 743 0 0 0 0 0 1635 1635 1565 1599 1533 1533 1599 1533 1501 1501 1443 1501 1471 1533 1501 1443 1415 1471 1443 1565 1443 1415 1338 1362 1314 1338 1314 1314 1314 1314 1314 1314 1291 1314 1291 1226 1226 1206 1226 1206 1226 1226 1226 1226 1247 1247 1226 1247 1268 1247 1268 1268 0 0 0 0 0
    0 0 0 0 0 0 0 0 0 0 0 0 0 0 0 0 0 0 0 0 0 0 0 0 0 0 0 0 0 0 0 0 0 0 0 0 0 0 0 0 0 0 0 0 0 0 0 0 0 0 0 0 0 0 0 0 0 0 0 0 0 0 0 0 0 0 0 0 0 1795 1752 1795 1795 1711 1795 1795 1795 1839 1839 1839 1936 1936 1989 1936 1936 2044 1936 1936 2044 1936 1989 1989 1936 1936 1936 1936 1936 1887 1887 1839 1887 1839 1936 1887 1936 1936 1936 1936 1936 1936 1989 1936 1989 1936 1936 1936 1936 1936 1936 1936 1989 1936 1989 1989 2044 2044 2102 2102 2102 2044 2102 2102 2044 1936 1989 1936 1989 1989 1989 1989 1989 1936 2102 1989 1989 1989 1936 1936 1936 1887 1989 1795 1887 1887 1795 1936 0 1839 1936 1887 1989 1936 1887 1839 1752 1711 1711 1599 1635 1635 1599 1635 1711 1635 1752 1672 1795 1887 1936 1989 2044 2044 2044 2044 2102 2164 2102 2044 1887 1989 1887 1672 1711 1711 1635 1635 1635 1672 1599 1533 1672 1599 1565 1635 1565 1471 0 0 0 1291 1291 0 1268 1247 1226 1268 1206 1226 1226 1206 1168 1187 1206 1247 0 1839 1936 1752 0 0 0 0 0 0 0 0 981 981 981 968 981 994 955 1022 994 994 968 955 955 931 955 943 855 808 799 774 766 766 0 0 115 115 0 1635 1672 1599 1635 1565 1565 1599 1533 1501 1501 1443 1501 1471 1533 1501 1443 1443 1471 1443 1533 1443 1443 1338 1362 1314 1362 1314 1314 1314 1314 1338 1338 1314 1338 1314 1247 1226 1226 1226 1226 1226 1226 1247 1226 1247 1268 1247 1268 1268 1247 1268 1268 0 0 0 0 0
    0 0 0 0 0 0 0 0 0 0 0 0 0 0 0 0 0 0 0 0 0 0 0 0 0 0 0 0 0 0 0 0 0 0 0 0 0 0 0 0 0 0 0 0 0 0 0 0 0 0 0 0 0 0 0 0 0 0 0 0 0 0 0 0 0 0 0 0 0 1752 1711 1752 1795 1672 1752 1795 1752 1839 1839 1839 1887 1887 1936 1936 1936 1989 1936 1936 2044 1887 1989 1936 1936 1887 1936 1936 1936 1887 1936 1839 1936 1839 1936 1887 1887 1887 1887 1887 1936 1887 1936 1936 1989 1936 1936 1936 1936 1936 1936 1936 1936 1887 1936 1936 1989 1989 2044 2044 2044 1989 2044 2102 1989 1936 1936 1887 1936 1936 1936 1936 1989 1936 2102 1989 1989 1989 1936 1936 1936 1887 1989 1839 1936 1887 1839 1936 0 1839 1936 1887 1989 1887 1887 1795 1752 1672 1711 1599 1635 1635 1635 1635 1711 1635 1711 1672 1795 1887 1936 1989 1989 2044 2044 2044 2102 2102 2102 1989 1887 1936 1887 1672 1711 1672 1599 1599 1599 1635 1565 1501 1672 1565 1565 1599 1533 1443 0 1362 0 0 1291 0 0 1247 1226 1268 1206 1206 1206 1168 1149 1187 1187 1206 1247 1268 1338 1362 1226 0 0 0 943 981 955 968 968 968 981 981 994 1008 994 1051 1008 1008 994 955 908 876 908 886 845 808 799 782 766 782 0 0 0 115 0 0 1635 1565 1599 1533 1533 1599 1501 1501 1471 1443 1501 1471 1501 1471 1443 1443 1443 1443 1501 1443 1443 1338 1362 1314 1362 1338 1338 1338 1338 1362 1338 1338 1362 1314 1247 1226 1226 1226 1226 1226 1226 1247 1226 1247 1268 1247 1268 1268 1247 1247 1247 0 0 0 0 0
    0 0 0 0 0 0 0 0 0 0 0 0 0 0 0 0 0 0 0 0 0 0 0 0 0 0 0 0 0 0 0 0 0 0 0 0 0 0 0 0 0 0 0 0 0 0 0 0 0 0 0 0 0 0 0 0 0 0 0 0 0 0 0 0 0 0 0 0 0 1711 1711 1711 1795 1672 1752 1795 1752 1795 1839 1795 1839 1839 1936 1887 1887 1989 1887 1887 1989 1887 1936 1887 1887 1839 1839 1887 1887 1839 1887 1795 1887 1795 1887 1839 1839 1839 1839 1887 1887 1887 1936 1936 1989 1936 1936 1989 1936 1936 1936 1936 1936 1887 1887 1887 1887 1936 1936 1936 1936 1936 1989 1989 1936 1887 1887 1887 1887 1887 1887 1936 1936 1936 2044 1936 1936 1936 1936 1936 1936 1887 1989 1839 1989 1936 1839 1936 1887 1839 1936 1887 1989 1839 1839 1752 1752 1672 1711 1599 1635 1635 1635 1635 1711 1635 1711 1672 1795 1839 1936 1989 1989 2044 2044 2044 2102 2044 2044 1989 1887 1936 1839 1635 1711 1672 1599 1599 1599 1635 1599 1501 1672 1565 1565 1599 1533 1443 0 1338 0 0 1291 0 1268 1247 1206 1291 1268 1226 1226 1187 1149 1168 1187 1187 1206 1206 1268 1247 1115 1051 981 919 919 968 943 968 968 968 981 981 994 1008 1008 1226 1187 1082 1008 981 919 865 908 886 855 826 799 799 782 791 799 0 0 0 0 0 1599 1533 1565 1471 1501 1565 1471 1471 1443 1415 1471 1471 1501 1471 1443 1443 1443 1471 1501 1443 1415 1338 1362 1314 1388 1338 1338 1362 1362 1362 1362 1338 1388 1291 1247 1206 1226 1206 1226 1226 1226 1226 1226 1247 1291 1247 1268 1268 1247 1247 1247 0 0 0 0 0
    0 0 0 0 0 0 0 0 0 0 0 0 0 0 0 0 0 0 0 0 0 0 0 0 0 0 0 0 0 0 0 0 0 0 0 0 0 0 0 0 0 0 0 0 0 0 0 0 0 0 0 0 0 0 0 0 0 0 0 0 0 0 0 0 0 0 0 0 0 1672 1711 1711 1795 1711 1752 1795 1752 1795 1839 1795 1839 1839 1887 1839 1839 1936 1839 1839 1887 1795 1839 1795 1839 1795 1795 1839 1839 1839 1839 1795 1839 1752 1839 1795 1795 1795 1839 1839 1887 1887 1936 1887 1936 1936 1936 1936 1936 1936 1936 1936 1936 1887 1887 1887 1887 1887 1936 1936 1936 1887 1936 1936 1887 1839 1839 1839 1839 1839 1887 1887 1936 1887 1989 1936 1936 1936 1936 1936 1936 1887 1936 1839 1936 1936 1839 1887 1887 1887 1887 1887 1936 1839 1795 1752 1711 1635 1672 1565 1635 1599 1599 1599 1672 1635 1672 1672 1795 1839 1936 1989 1989 2044 2044 2044 2102 2044 2044 1989 1887 1936 1839 1635 1711 1672 1599 1635 1599 1672 1635 1501 1672 1599 1565 1599 1565 1443 0 1338 0 0 1291 1268 1268 1247 1226 1314 1291 1226 1226 1187 1149 1168 1168 1187 1187 1206 1268 1206 1098 1082 994 931 955 981 955 968 968 981 994 994 0 0 0 1362 1338 1291 1226 1168 1036 931 955 908 855 808 799 799 782 791 799 791 0 0 0 0 1565 1501 1533 1443 1471 0 1443 1443 1443 1415 1471 1443 1501 1471 1443 1443 1443 1471 1533 1471 1443 1338 1388 1338 1388 1362 1362 1362 1362 1388 1388 1338 1388 1291 1247 1206 1206 1206 1206 1226 1226 1226 1226 1247 1268 1247 1268 1268 1268 1268 1268 0 0 0 0 0
    0 0 0 0 0 0 0 0 0 0 0 0 0 0 0 0 0 0 0 0 0 0 0 0 0 0 0 0 0 0 0 0 0 0 0 0 0 0 0 0 0 0 0 0 0 0 0 0 0 0 0 0 0 0 0 0 0 0 0 0 0 0 0 0 0 0 0 0 0 1672 1711 1752 1795 1711 1795 1795 1795 1795 1839 1795 1795 1795 1839 1752 1795 1839 1795 1752 1795 1752 1795 1752 1795 1752 1795 1795 1795 1795 1839 1752 1795 1752 1795 1795 1752 1795 1795 1795 1839 1839 1887 1839 1887 1887 1887 1887 1887 1887 1936 1936 1887 1839 1839 1839 1887 1887 1887 1887 1887 1887 1887 1887 1839 1795 1795 1795 1752 1795 1795 1839 1887 1887 1936 1887 1887 1887 1887 1887 1887 1839 1887 1839 1887 1887 1839 1887 1839 1839 1887 1839 1887 1795 1752 1672 1672 1599 1635 1565 1599 1599 1599 1599 1672 1599 1672 1672 1795 1839 1887 1936 1936 1989 1989 2044 2044 2044 1989 1989 1887 1887 1839 1635 1711 1672 1635 1635 1599 1672 1672 1501 1672 1599 1599 1599 1565 1471 1362 1338 0 0 0 1291 1291 1268 1247 1338 1314 1226 1226 1206 1149 1168 1168 1187 1187 1187 1268 1187 1098 1168 1008 943 981 994 968 981 981 994 0 0 0 0 1362 1415 1388 1388 1362 1338 1247 1066 1022 968 865 808 791 799 774 791 791 791 0 0 0 0 1501 1443 1471 1415 0 0 0 1415 1388 1388 1443 1443 1471 1443 1443 1443 1443 1501 1565 1533 1443 1338 1388 1338 1388 1362 1362 1362 1362 1388 1388 1362 1415 1291 1247 1206 1226 1206 1206 1226 1226 1226 1226 1226 1291 1247 1268 1268 1268 1268 1268 0 0 0 0 0
    0 0 0 0 0 0 0 0 0 0 0 0 0 0 0 0 0 0 0 0 0 0 0 0 0 0 0 0 0 0 0 0 0 0 0 0 0 0 0 0 0 0 0 0 0 0 0 0 0 0 0 0 0 0 0 0 0 0 0 0 0 0 0 0 0 0 0 0 0 1672 1711 1752 1795 1752 1795 1795 1795 1795 1795 1752 1752 1711 1795 1711 1711 1752 1711 1672 1711 1672 1711 1672 1752 1711 1752 1752 1795 1795 1795 1752 1839 1752 1795 1795 1752 1795 1795 1795 1839 1795 1839 1839 1839 1839 1839 1839 1887 1839 1887 1887 1839 1839 1839 1839 1839 1839 1887 1839 1839 1839 1839 1839 1795 1752 1752 1711 1711 1752 1752 1752 1795 1795 1839 1795 1839 1839 1839 1839 1839 1795 1839 1795 1887 1887 1795 1839 1839 1795 1839 1795 1839 1795 1711 1672 1635 1599 1635 1565 1635 1599 1599 1599 1672 1635 1672 1672 1752 1795 1839 1887 1887 1936 1887 1936 1936 1936 1887 1936 1839 1887 1839 1672 1711 1711 1635 1672 1599 1672 1672 1501 1672 1599 1599 1565 1565 1471 1388 1362 0 0 0 1314 1314 1291 1268 1388 1338 1226 1226 1206 1149 1168 1168 1187 1168 1187 1268 1206 1132 1226 1008 955 1008 1008 994 0 0 0 0 0 0 0 1415 1443 1415 1443 1415 1388 1338 1226 1082 968 836 782 766 782 766 782 782 782 791 774 791 0 0 0 1443 0 645 629 0 0 1362 0 0 0 1471 1443 1415 1443 1415 1501 1599 1599 1471 1362 1388 1338 1388 1362 1388 1388 1388 1415 1415 1362 1415 1291 1247 1206 1226 1206 1226 1226 1226 1226 1247 1226 1291 1226 1268 1268 1247 1247 1247 0 0 0 0 0
    0 0 0 0 0 0 0 0 0 0 0 0 0 0 0 0 0 0 0 0 0 0 0 0 0 0 0 0 0 0 0 0 0 0 0 0 0 0 0 0 0 0 0 0 0 0 0 0 0 0 0 0 0 0 0 0 0 0 0 0 0 0 0 0 0 0 0 0 0 1672 1711 1711 1752 1711 1752 1795 1752 1752 1795 1752 1711 1711 1752 1672 1672 1672 1672 1672 1672 1635 1711 1672 1711 1711 1711 1752 1752 1795 1795 1752 1795 1752 1795 1795 1795 1795 1795 1795 1795 1795 1795 1795 1795 1752 1795 1795 1839 1795 1839 1839 1839 1795 1839 1839 1839 1839 1839 1839 1839 1795 1795 1795 1752 1711 1711 1711 1672 1711 1711 1711 1752 1711 1752 1752 1752 1795 1795 1795 1795 1752 1795 1795 1839 1887 1795 1839 1795 1795 1839 1795 1839 1795 1711 1672 1672 1599 1635 1599 1635 1635 1599 1635 1672 1635 1711 1672 1711 1752 1795 1795 1839 1839 1839 1839 1839 1887 1839 1887 1839 1839 1839 1752 1752 1711 1672 1672 1635 1711 1711 1533 1672 1599 1599 1565 1599 1501 1388 1362 0 0 0 1338 1338 1291 1268 1388 1338 1226 1226 1187 1132 1149 1168 1187 1168 1168 1268 1206 1149 1291 1036 955 0 0 0 0 0 0 0 0 0 0 1471 1443 1443 1471 1443 1388 1338 1206 0 0 826 774 750 774 758 774 782 782 791 766 782 782 750 774 721 707 700 687 687 687 663 0 618 584 0 1415 1415 1443 1443 1501 1599 1565 1471 1362 1415 1338 1415 1388 1415 1415 1415 1415 1415 1388 1443 1268 1268 1206 1226 1206 1226 1226 1226 1226 1247 1226 1291 1226 1247 1247 1226 1226 1226 0 0 0 0 0
    0 0 0 0 0 0 0 0 0 0 0 0 0 0 0 0 0 0 0 0 0 0 0 0 0 0 0 0 0 0 0 0 0 0 0 0 0 0 0 0 0 0 0 0 0 0 0 0 0 0 0 0 0 0 0 0 0 0 0 0 0 0 0 0 0 0 0 0 0 1635 1711 1711 1752 1672 1752 1752 1752 1711 1752 1711 1711 1711 1752 1672 1672 1635 1672 1635 1635 1635 1672 1635 1711 1672 1711 1711 1752 1752 1795 1752 1795 1752 1795 1795 1752 1752 1752 1752 1752 1711 1752 1711 1672 1711 1711 1711 1752 1752 1795 1839 1752 1795 1795 1795 1795 1795 1839 1795 1795 1795 1752 1752 1752 1711 1711 1672 1672 1711 1711 1711 1752 1672 1711 1711 1711 1752 1752 1795 1752 1752 1752 1752 1795 1839 1752 1795 1795 1795 1795 1795 1795 1795 1711 1672 1672 1599 1672 1635 1635 1635 1635 1635 1711 1635 1711 1672 1711 1752 1752 1752 1795 1839 1795 1839 1839 1839 1795 1839 1839 1839 1795 1752 1752 1711 1672 1711 1635 1752 1752 1533 1672 1635 1635 1565 1599 1501 1415 1388 1415 1362 1362 1362 1362 1314 1291 1388 1338 1187 1206 1168 1115 1132 1149 1168 1149 1149 1291 1206 1168 1314 1051 968 0 0 0 0 0 0 0 0 1268 0 1471 1471 1501 1533 1501 1443 1362 0 0 0 0 766 735 0 0 774 774 782 782 758 774 791 758 774 743 728 714 707 714 700 694 681 645 608 0 0 1362 1388 1388 1471 1565 1533 1471 1388 1415 1362 1443 1415 1415 1443 1443 1443 1443 1388 1443 1268 1268 1206 1226 1226 1226 1226 1226 1226 1247 1226 1291 1206 1247 1226 1206 1206 1206 0 0 0 0 0
    0 0 0 0 0 0 0 0 0 0 0 0 0 0 0 0 0 0 0 0 0 0 0 0 0 0 0 0 0 0 0 0 0 0 0 0 0 0 0 0 0 0 0 0 0 0 0 0 0 0 0 0 0 0 0 0 0 0 0 0 0 0 0 0 0 0 0 0 0 1635 1672 1711 1711 1672 1711 1711 1672 1672 1752 1672 1672 1711 1752 1635 1672 1635 1635 1599 1599 1565 1599 1565 1635 1635 1672 1672 1711 1711 1711 1672 1752 1672 1752 1752 1711 1711 1711 1711 1711 1672 1711 1672 1599 1672 1635 1635 1672 1672 1711 1752 1672 1711 1711 1752 1752 1752 1752 1752 1711 1752 1711 1711 1711 1711 1672 1672 1672 1672 1672 1711 1711 1635 1672 1672 1711 1711 1752 1752 1752 1711 1711 1752 1711 1795 1752 1752 1752 1752 1795 1795 1795 1795 1711 1672 1672 1635 1672 1635 1635 1635 1635 1635 1711 1635 1672 1672 1711 1752 1752 1752 1795 1795 1752 1795 1795 1795 1752 1795 1795 1795 1752 1711 1711 1711 1672 1672 1599 1711 1752 1533 1672 1599 1635 1565 1599 1501 1443 1415 1415 1362 1362 1362 1388 1314 1314 1362 1338 1168 1206 1168 1115 1132 0 1168 1149 1149 1291 1226 1187 1314 1082 968 0 0 0 0 253 254 0 0 1268 1036 1471 1471 1533 1599 1565 1443 1362 0 0 0 0 0 0 0 0 766 774 782 782 743 766 782 750 766 743 728 721 714 728 707 707 700 675 623 593 0 0 0 0 1388 1443 1471 1415 1362 1388 1362 1443 1415 1415 1443 1443 1443 1443 1388 1443 1268 1268 1187 1226 1206 1226 1226 1226 1226 1247 1226 1291 1226 1247 1247 1206 1206 1226 0 0 0 0 0
    0 0 0 0 0 0 0 0 0 0 0 0 0 0 0 0 0 0 0 0 0 0 0 0 0 0 0 0 0 0 0 0 0 0 0 0 0 0 0 0 0 0 0 0 0 0 0 0 0 0 0 0 0 0 0 0 0 0 0 0 0 0 0 0 0 0 0 0 0 1672 1672 1672 1672 1635 1672 1672 1635 1635 1672 1635 1599 1672 1711 1533 1635 1533 1533 1533 1533 1501 1533 1533 1599 1565 1599 1599 1635 1599 1599 1599 1565 1533 1599 1635 1599 1565 1565 1599 1565 1635 1599 1565 1501 1565 1533 1565 1565 1565 1565 1635 1565 1635 1635 1672 1711 1672 1711 1672 1635 1672 1635 1635 1672 1672 1672 1635 1672 1672 1635 1672 1672 1565 1599 1599 1635 1672 1672 1711 1672 1672 1672 1672 1672 1752 1711 1711 1711 1711 1752 1795 1752 1795 1672 1672 1672 1635 1672 1599 1635 1635 1599 1635 1672 1599 1635 1599 1672 1672 1711 1672 1711 1711 1711 1711 1711 1711 1711 1752 1752 1711 1711 1672 1672 1672 1635 1635 1565 1711 1711 1501 1672 1599 1599 1565 1599 1501 1443 1415 1415 1362 1388 1362 1388 1338 1338 1362 1338 1168 1206 1168 1115 1132 0 1168 1149 1168 1291 1206 1187 1291 1098 994 0 0 0 254 253 254 0 0 1268 1098 1471 1471 1501 1565 1565 1443 1362 1168 0 0 0 0 164 0 0 0 0 774 774 735 750 774 743 758 750 735 721 721 743 714 700 700 681 645 629 651 669 669 675 0 0 1362 1338 1314 1362 1338 1415 1388 1415 1443 1443 1443 1471 1415 1443 1247 1268 1187 1226 1206 1206 1206 1206 1206 1247 1206 1291 1247 1268 1247 1226 1226 1226 0 0 0 0 0
    0 0 0 0 0 0 0 0 0 0 0 0 0 0 0 0 0 0 0 0 0 0 0 0 0 0 0 0 0 0 0 0 0 0 0 0 0 0 0 0 0 0 0 0 0 0 0 0 0 0 0 0 0 0 0 0 0 0 0 0 0 0 0 0 0 0 0 0 0 1672 1672 1672 1635 1599 1599 1599 1565 1565 1635 1599 1533 1672 1635 1471 1565 1471 1471 1501 1501 1471 1501 1501 1565 1533 1565 1565 1565 1533 1533 1501 1443 1443 1471 1471 1471 1443 1443 1443 1443 1533 1471 1443 1388 1443 1443 1443 1415 1415 1388 1471 1471 1533 1599 1599 1635 1635 1672 1599 1565 1599 1565 1533 1635 1635 1635 1599 1672 1672 1635 1672 1635 1533 1565 1565 1599 1599 1635 1635 1599 1599 1565 1635 1565 1635 1635 1672 1672 1672 1672 1752 1711 1752 1635 1635 1599 1565 1599 1533 1599 1599 1565 1599 1635 1565 1599 1565 1635 1599 1635 1599 1672 1635 1635 1672 1635 1672 1672 1672 1672 1599 1635 1599 1599 1565 1501 1471 1415 1599 1672 1471 1599 1565 1599 1533 1565 1471 1443 1415 1415 1362 1388 1362 1388 1338 1362 1338 1338 1168 1206 1187 1132 1149 1149 1168 1149 1149 1291 1206 1168 1268 1098 994 0 0 0 0 0 0 0 0 1268 1082 1443 1415 1443 1471 1471 1415 1338 1168 0 0 791 743 0 0 0 0 0 758 766 728 743 766 735 750 750 735 721 721 743 714 707 714 694 681 681 687 687 681 681 687 687 0 0 0 0 0 1388 1388 1388 1415 1388 1415 1443 1388 1415 1247 0 1168 1226 1206 1206 1206 1206 1206 1247 1206 1291 1247 1268 1268 1247 1247 1247 0 0 0 0 0
    0 0 0 0 0 0 0 0 0 0 0 0 0 0 0 0 0 0 0 0 0 0 0 0 0 0 0 0 0 0 0 0 0 0 0 0 0 0 0 0 0 0 0 0 0 0 0 0 0 0 0 0 0 0 0 0 0 0 0 0 0 0 0 0 0 0 0 0 0 1635 1635 1635 1565 1533 1565 1565 1533 1501 1533 1533 1443 1599 1501 1388 1443 1415 1415 1471 1471 1471 1471 1501 1565 1533 1565 1565 1565 1471 1501 1443 1388 1415 1415 1415 1415 1388 1388 1388 1388 1501 1443 1415 1362 1388 1415 1415 1388 1388 1362 1415 1415 1501 1565 1533 1599 1599 1635 1533 1501 1501 1501 1471 1565 1565 1599 1599 1672 1672 1635 1635 1599 1501 1533 1501 1565 1565 1565 1599 1533 1565 1501 1565 1471 1565 1533 1565 1565 1599 1599 1672 1599 1672 1533 1565 1533 1471 1533 1471 1501 1533 1501 1501 1533 1471 1533 1471 1565 1533 1565 1501 1599 1565 1533 1565 1565 1599 1599 1599 1635 1533 1533 1565 1471 1443 1362 1338 1338 1388 1565 1415 1533 1533 1565 1501 1533 1471 1443 1415 1415 1362 1388 1362 1388 1338 1362 1338 1314 1168 1206 1168 1132 1149 1149 1168 1149 1149 1291 1187 1132 1247 1082 0 0 0 0 0 0 0 0 0 1247 1051 1415 1388 1388 1415 1443 1388 1338 1149 0 0 791 735 714 735 0 0 0 758 758 721 743 758 735 750 750 735 721 728 774 735 728 750 707 700 707 707 700 687 687 694 687 687 687 694 687 669 675 0 1362 1362 1362 1388 1415 1362 1388 1247 1291 1187 1226 1206 1226 1226 1226 1226 1247 1226 1291 1268 1291 1291 1268 1268 1268 0 0 0 0 0
    0 0 0 0 0 0 0 0 0 0 0 0 0 0 0 0 0 0 0 0 0 0 0 0 0 0 0 0 0 0 0 0 0 0 0 0 0 0 0 0 0 0 0 0 0 0 0 0 0 0 0 0 0 0 0 0 0 0 0 0 0 0 0 0 0 0 0 0 0 1599 1565 1565 1471 1471 1501 1501 1471 1471 1501 1471 1415 1533 1415 1362 1388 1362 1388 1443 1443 1443 1443 1471 1533 1501 1533 1533 1501 1443 1471 1415 1362 1388 1362 1388 1362 1338 0 1338 0 1443 1388 1388 1362 1388 1415 1388 1388 1388 1362 1388 1388 1443 1471 1443 1533 1501 1501 1443 1415 1443 1443 1443 1533 1533 1565 1565 1635 1635 1599 1635 1533 1471 1501 1471 1501 1501 1533 1533 1471 1501 1443 1501 1443 1471 1443 1471 1471 1533 1533 1599 1501 1599 1443 1533 1501 1443 1471 1443 1471 1471 1443 1443 1443 1388 1471 1415 1471 1443 1471 1443 1471 1471 1443 1471 1471 1533 1533 1565 1599 1471 1471 1501 1415 1388 1338 1314 1314 1338 1443 1388 1471 1471 1501 1471 1501 1443 1443 1415 1415 1388 1388 1362 1388 1362 1338 1291 1291 1132 1206 1168 1132 1149 1149 1168 1149 1149 1291 1187 1132 1226 1066 0 0 0 0 0 0 0 0 0 1206 1066 1338 1338 1338 1362 1388 1362 1314 1098 0 0 799 743 721 735 0 0 735 750 750 714 735 743 728 743 743 735 721 728 791 743 735 774 721 714 707 707 700 687 687 694 687 681 669 675 669 657 657 613 603 593 0 1338 1362 1362 1362 1247 1291 1187 1226 1226 1226 1226 1226 1226 1247 1226 1291 1268 1291 1291 1268 1268 1268 0 0 0 0 0
    0 0 0 0 0 0 0 0 0 0 0 0 0 0 0 0 0 0 0 0 0 0 0 0 0 0 0 0 0 0 0 0 0 0 0 0 0 0 0 0 0 0 0 0 0 0 0 0 0 0 0 0 0 0 0 0 0 0 0 0 0 0 0 0 0 0 0 0 0 1471 1443 1443 1388 1415 1415 1443 1443 1443 1443 1471 1415 1501 1388 1338 1338 1338 1362 1415 1415 1415 1415 1443 1471 1471 1501 1471 1415 1388 1415 1388 1314 1338 1338 1338 1314 1314 1291 1291 1291 1388 1338 1362 1338 1362 1388 1362 1362 1362 1338 1362 1362 1388 1388 1362 1415 1415 1388 1362 1362 1388 1388 1415 1471 1501 1533 1565 1635 1635 1599 1599 1471 1443 1443 1415 1443 1443 1471 1471 1415 1471 1415 1443 1415 1443 1415 1443 1443 1471 1471 1533 1443 1533 1415 1501 1471 1415 1471 1443 1443 1443 1415 1415 1415 1362 1415 1362 1415 1388 1415 1388 1415 1415 1415 1443 1443 1501 1501 1533 1565 1443 1443 1471 1388 1388 1338 1314 1314 1314 1388 1362 1415 1443 1443 1415 1443 1388 1415 1388 1388 1362 1362 1338 1388 1362 1338 1268 1268 1115 1187 1149 1132 1132 1149 1168 1149 1149 1291 1187 1132 1187 1051 0 0 0 0 0 0 0 0 0 1149 1051 0 1291 1291 1291 1314 1314 1247 1051 0 0 799 743 728 743 0 0 735 743 743 714 728 735 721 0 735 735 0 728 799 758 758 808 728 714 707 707 700 687 694 694 694 687 681 681 675 663 645 629 623 608 593 598 0 0 1338 1206 1247 1149 1206 1206 1226 1226 1226 1226 1247 1226 1314 1291 1314 1291 1268 1291 1291 0 0 0 0 0
    0 0 0 0 0 0 0 0 0 0 0 0 0 0 0 0 0 0 0 0 0 0 0 0 0 0 0 0 0 0 0 0 0 0 0 0 0 0 0 0 0 0 0 0 0 0 0 0 0 0 0 0 0 0 0 0 0 0 0 0 0 0 0 0 0 0 0 0 0 1362 1362 1388 1338 1362 1388 1415 1415 1415 1443 1471 1415 1471 1362 1314 1314 1314 1338 1388 1362 1362 1362 1388 1415 1415 1415 1415 1362 1362 1388 1362 1314 1338 1314 1314 1291 1291 1268 1268 1268 1338 1314 1338 1314 1338 1338 1338 1338 1338 1291 1314 1314 1338 1338 1314 1338 1338 1338 1338 1338 1362 1362 1388 1443 1443 1471 1533 1635 1599 1533 1565 1415 1415 1415 1388 1415 1388 1415 1415 1362 1415 1362 1388 1388 1388 1362 1388 1388 1415 1415 1443 1388 1443 1388 1443 1415 1388 1415 1388 1388 1388 1362 1362 1362 1338 1338 1314 1314 1314 1314 1338 1362 1362 1362 1388 1388 1443 1443 1471 1501 1415 1415 1415 1388 1388 1338 1314 1314 1314 1362 1362 1362 1388 1388 1388 1388 1388 1415 1388 1388 1362 1362 1338 1362 1338 1314 1268 1247 1098 1187 1149 1132 1132 1149 1187 1149 1149 1291 1168 1115 1115 1051 0 0 0 0 0 0 0 0 0 1115 1051 1291 1291 1268 1291 1291 1314 1187 1022 826 782 817 743 743 0 0 0 735 750 735 714 728 728 714 0 0 0 0 0 808 758 758 826 743 721 714 707 707 694 700 707 700 694 687 681 669 651 634 634 623 603 588 588 584 579 566 0 0 1115 1187 1187 1206 1206 1206 1206 1247 1226 1291 1314 1314 1291 1291 1291 1291 0 0 0 0 0
    0 0 0 0 0 0 0 0 0 0 0 0 0 0 0 0 0 0 0 0 0 0 0 0 0 0 0 0 0 0 0 0 0 0 0 0 0 0 0 0 0 0 0 0 0 0 0 0 0 0 0 0 0 0 0 0 0 0 0 0 0 0 0 0 0 0 0 0 0 1314 1314 1338 1314 1338 1362 1362 1415 1388 1443 1443 1388 1415 1338 1314 1314 1314 1314 1338 1338 1338 1338 1362 1362 1362 1338 1338 1314 1338 1338 1338 1291 1314 1314 1314 1291 1291 1268 1268 1268 1338 1291 1314 1291 1291 1314 1291 1291 1291 1268 1268 1291 1291 1291 1291 1291 1314 1314 1314 1314 1314 1338 1362 1388 1388 1415 1443 1533 1471 1443 1443 1362 1388 1362 1362 1362 1362 1362 1362 1338 1362 1338 1362 1362 1362 1338 1362 1362 1388 1362 1388 1362 1362 1338 1388 1362 1338 1338 1338 1338 1338 1314 1314 1314 1291 1291 1268 1291 1268 1268 1291 1291 1291 1314 1314 1338 1388 1388 1415 1415 1388 1388 1388 1362 1362 1314 1291 1291 1291 1314 1314 1314 1338 1338 1338 1338 1362 1388 1362 1362 1338 1362 1314 1362 1338 1291 1247 1247 1098 1187 1149 1132 1132 1149 1187 1149 1149 1268 1149 1098 1066 1036 0 0 0 943 0 0 968 0 0 1098 1066 1268 1268 1247 1268 1291 1291 1168 1036 855 826 826 743 750 0 0 0 743 758 735 714 728 721 0 0 0 0 0 0 808 774 0 886 799 758 735 728 721 707 707 700 694 687 681 675 663 645 629 623 623 598 588 574 574 574 561 561 557 0 1168 1168 1168 1187 1206 1187 1226 1206 1291 1314 1314 1314 1291 1291 1314 0 0 0 0 0
    0 0 0 0 0 0 0 0 0 0 0 0 0 0 0 0 0 0 0 0 0 0 0 0 0 0 0 0 0 0 0 0 0 0 0 0 0 0 0 0 0 0 0 0 0 0 0 0 0 0 0 0 0 0 0 0 0 0 0 0 0 0 0 0 0 0 0 0 0 1291 1291 1338 1314 1338 1338 1362 1415 1388 1415 1415 1388 1388 1314 1314 1314 1314 1314 1314 1314 1314 1314 1314 0 1314 1291 1291 1268 1314 1314 1314 1291 1314 1291 1314 1291 1291 1291 1268 1268 1338 1291 1291 1291 0 1291 1268 1268 1268 1247 1268 1268 1268 1268 1268 1291 1291 1291 1291 1314 1314 1314 1338 1338 1338 1362 1362 1415 1388 1362 1388 1338 1338 1338 1338 1338 1338 1338 1314 1291 1338 1291 1314 1314 1314 1291 1314 1314 1338 1338 1338 1314 1338 1314 1362 1314 1314 1314 1291 1291 1291 1268 1268 1291 1268 1268 1247 1268 1247 1247 1268 1247 1247 1268 1268 1291 1338 1338 1362 1362 1362 1362 1362 1362 1338 1314 1314 1291 1291 1291 1291 1268 1291 1291 1268 1291 1314 1338 1314 1314 1314 1314 1291 1314 1314 1247 1247 1226 1082 1168 1132 1132 1149 1149 1187 1149 1149 1268 1115 1066 1036 1022 897 0 0 931 943 955 968 0 0 1115 1082 1291 1268 1226 1268 1291 1268 1132 1022 886 855 836 750 774 766 0 0 743 758 735 714 728 714 0 0 0 0 0 0 782 743 0 0 855 817 766 750 735 714 714 707 700 687 681 669 651 634 623 623 618 603 593 579 579 579 570 574 566 566 0 0 1132 1168 1168 1149 1187 1168 1268 1314 1314 1291 1268 1314 1314 0 0 0 0 0
    0 0 0 0 0 0 0 0 0 0 0 0 0 0 0 0 0 0 0 0 0 0 0 0 0 0 0 0 0 0 0 0 0 0 0 0 0 0 0 0 0 0 0 0 0 0 0 0 0 0 0 0 0 0 0 0 0 0 0 0 0 0 0 0 0 0 0 0 0 1247 1247 1291 1268 1291 1314 1314 1388 1362 1388 1362 1338 1338 1291 1268 1247 1291 1268 1291 1268 1268 1291 1291 0 1291 1226 1268 1226 1291 1314 1314 1268 1291 1291 1291 1291 1291 1291 1268 1268 1314 1291 1291 1291 1268 1268 1247 1247 1268 1247 1247 1247 1247 1247 1226 1268 1268 1247 1268 1268 1291 1291 1314 1314 1314 1314 1314 1362 1338 1338 1338 0 0 1314 1314 1314 1314 1314 1291 1291 1291 1291 1291 1291 1291 1268 1291 1291 1314 1314 1314 1291 1314 1314 1338 1291 1291 1291 1268 1268 1247 1247 1247 1247 1247 1247 1226 1226 1226 1206 1226 1206 1187 1226 1226 1268 1291 1291 1338 1338 1338 1362 1362 1338 1338 1314 1314 1268 1268 1268 1268 1247 1268 1268 1226 1226 1268 1268 1268 1268 1268 1247 1247 1247 1247 1168 1206 1187 1066 1149 1132 1132 1149 1149 1187 1149 1149 1247 1098 1051 1008 1008 886 943 943 919 931 943 968 968 955 1066 1066 1187 1226 1187 1187 1247 1226 1098 1022 897 876 836 750 782 782 750 758 750 766 743 714 728 0 0 0 0 0 0 681 735 707 0 1051 943 0 0 774 774 728 721 714 700 681 675 663 639 634 629 623 623 608 603 593 588 593 584 584 570 566 566 553 549 0 1149 1098 1115 1115 1226 1268 1291 1268 1268 1314 1338 0 0 0 0 0
    0 0 0 0 0 0 0 0 0 0 0 0 0 0 0 0 0 0 0 0 0 0 0 0 0 0 0 0 0 0 0 0 0 0 0 0 0 0 0 0 0 0 0 0 0 0 0 0 0 0 0 0 0 0 0 0 0 0 0 0 0 0 0 0 0 0 0 0 0 1168 1187 1247 1226 1206 1247 1247 1291 1268 1247 1149 1036 1008 1132 1149 1149 1247 1187 1226 1206 1226 1247 1247 1247 1247 1168 1226 1187 1247 1268 1291 1247 1268 1268 1268 1268 1291 1268 1247 1247 1291 1268 1247 1268 1226 1268 1247 1226 1268 1226 1247 1247 1226 1226 1187 1247 1226 1168 1226 1247 1268 1268 1291 1314 1291 1314 1291 1314 1268 1268 1291 0 0 1291 0 0 1291 1291 1291 1268 1291 1268 1268 1268 1291 1247 1291 1291 1291 1291 1291 1291 1291 1291 1338 1291 1268 1268 1268 1247 1226 1226 1226 1247 1226 1226 1206 1187 1206 1168 1168 1132 1132 1187 1187 1247 1268 1291 1314 1314 1314 1338 1338 1314 1314 1314 1291 1247 1247 1247 1247 1247 1247 1247 1206 1206 1247 1206 1247 1226 1206 1206 1187 1168 1132 1098 1149 1115 1051 1132 1115 1132 1149 1149 1187 1132 1132 1226 1066 1022 994 981 886 943 931 919 919 931 955 955 955 1036 1036 1051 1149 1098 1098 1132 1098 1051 1008 908 897 845 766 791 791 758 766 758 766 743 721 728 0 0 0 0 0 681 675 721 0 1168 1066 0 1008 1022 0 865 826 791 750 721 700 694 669 634 634 623 629 623 613 608 603 598 598 593 588 574 574 566 561 561 553 557 545 0 0 1132 1168 1291 1268 1247 1291 1362 0 0 0 0 0
    0 0 0 0 0 0 0 0 0 0 0 0 0 0 0 0 0 0 0 0 0 0 0 0 0 0 0 0 0 0 0 0 0 0 0 0 0 0 0 0 0 0 0 0 0 0 0 0 0 0 0 0 0 0 0 0 0 0 0 0 0 0 0 0 0 0 0 0 0 1098 1115 1168 1132 1098 1149 1098 1149 1082 1022 1008 994 981 1051 1082 1082 1168 1098 1132 1132 1149 1206 1206 1132 1149 1098 1168 1132 1206 1206 1226 1187 1206 1206 1187 1226 1247 1226 1226 1187 1247 1226 1206 1268 1226 1247 1226 1206 1268 1206 1206 1206 1168 1168 1115 1168 1132 1066 1168 1206 1247 1247 1291 1291 1268 1291 1268 1268 1206 1149 1187 0 0 0 0 0 1226 1247 1247 1247 1247 1226 1226 1247 1226 1187 1247 1268 1247 1247 1247 1247 1247 1268 1291 1247 1226 1247 1226 1206 1206 1206 1206 1206 1187 1206 1149 1132 1149 1098 1098 1066 1066 1115 1115 1187 1247 1247 1314 1314 1314 1314 1314 1314 1314 1314 1291 1247 1247 1247 1247 1247 1247 1247 1206 1187 1226 1149 1206 1168 1168 1132 1115 1098 1066 1051 1082 1051 1036 1098 1098 1115 1132 1132 1168 1115 1115 1206 1051 1022 981 981 886 943 931 919 919 931 955 955 955 1022 1036 1036 1115 1066 1051 1036 1036 1022 994 908 908 855 782 799 799 766 774 766 774 743 721 728 700 0 0 0 0 675 669 700 0 1132 1036 1008 994 994 943 943 886 855 826 791 758 728 694 651 639 618 629 623 613 608 603 598 603 593 593 579 574 566 557 561 549 549 545 541 541 537 0 0 0 1098 1226 1338 0 0 0 0 0
    0 0 0 0 0 0 0 0 0 0 0 0 0 0 0 0 0 0 0 0 0 0 0 0 0 0 0 0 0 0 0 0 0 0 0 0 0 0 0 0 0 0 0 0 0 0 0 0 0 0 0 0 0 0 0 0 0 0 0 0 0 0 0 0 0 0 0 0 0 1051 1066 1098 1066 1036 1051 1022 1022 994 994 981 968 968 1008 1051 1051 1098 1066 1066 1082 1082 1132 1115 1066 1066 1051 1115 1082 1168 1149 1149 1115 1115 1132 1098 1098 1149 1098 1132 1115 1187 1206 1149 1268 1226 1247 1206 1187 1247 1149 1115 1132 1051 1066 1036 1066 1036 1022 1066 1115 1168 1206 1247 1247 1206 1226 1187 1187 1115 1036 1066 0 0 0 0 0 0 0 1168 0 1206 1168 1149 1168 1149 1082 1168 1206 1168 0 0 1187 1187 1206 1226 1206 1115 1226 1187 1132 1149 1168 1168 1168 1132 1149 1098 1066 1098 1051 1051 1022 1022 1051 1051 1098 1187 1187 1268 1268 1291 1314 1314 1314 1314 1314 1291 1247 1247 1226 1226 1206 1226 1206 1168 1132 1187 1082 1149 1115 1098 1066 1051 1051 1022 1022 1036 1008 1008 1066 1066 1082 1098 1098 1168 1098 1098 1187 1036 1008 981 968 897 943 931 919 919 931 955 955 955 1022 1036 1022 1066 1022 1008 994 994 994 968 897 897 855 791 808 799 774 774 766 774 750 721 728 700 694 0 687 681 675 669 700 694 1036 981 968 968 968 931 931 919 886 865 845 855 808 774 743 700 645 651 639 623 618 608 603 603 593 593 584 574 570 557 566 557 553 549 545 549 545 549 549 537 0 0 1291 0 0 0 0 0
    0 0 0 0 0 0 0 0 0 0 0 0 0 0 0 0 0 0 0 0 0 0 0 0 0 0 0 0 0 0 0 0 0 0 0 0 0 0 0 0 0 0 0 0 0 0 0 0 0 0 0 0 0 0 0 0 0 0 0 0 0 0 0 0 0 0 0 0 0 1022 1036 1051 1036 1008 1008 994 994 981 981 955 955 955 994 1008 1022 1051 1022 1036 1051 1051 1098 1066 1036 1036 1036 1098 1066 1115 1098 1082 1066 1066 1066 1051 1036 1082 1036 1066 1066 1149 1187 1132 1268 1206 1206 1168 1132 1187 1082 1051 1066 1008 1022 1008 1022 1008 994 1008 1066 1082 1115 1149 1132 1098 1132 1082 1082 1066 994 1008 981 994 1008 994 0 0 0 1066 0 1132 1082 1051 1082 1066 1022 1066 1098 1066 0 0 1115 1082 1082 1132 1115 1051 1168 1098 1066 1082 1132 1132 1132 0 0 1051 0 1051 1036 1022 1008 994 1022 1022 1036 1115 1098 1206 1206 1226 1291 1314 1314 1291 1268 1268 1187 1206 1187 1187 1168 1168 1168 1115 1082 1115 1036 1098 1082 1066 1022 1022 1008 1008 994 1008 994 981 1022 1036 1051 1066 1082 1132 1082 1066 1132 1008 981 955 955 897 931 931 931 931 943 968 968 968 1022 1022 1008 1022 994 981 955 968 968 955 886 886 855 791 808 799 774 774 766 774 750 721 728 700 694 0 687 681 675 663 700 694 968 943 955 955 955 931 931 919 897 897 865 0 836 826 817 743 687 681 657 634 623 608 608 603 593 588 579 570 566 553 553 549 545 545 541 541 541 545 541 541 557 0 0 0 0 0 0 0
    0 0 0 0 0 0 0 0 0 0 0 0 0 0 0 0 0 0 0 0 0 0 0 0 0 0 0 0 0 0 0 0 0 0 0 0 0 0 0 0 0 0 0 0 0 0 0 0 0 0 0 0 0 0 0 0 0 0 0 0 0 0 0 0 0 0 0 0 0 1008 1008 1008 1008 981 994 981 981 968 968 955 955 968 981 994 1008 1008 994 1008 1022 1022 1051 1036 1022 1008 1008 1082 1051 1066 1036 1022 1022 1022 1022 1008 1008 1036 1008 1051 1066 1132 1168 1115 1247 1187 1187 1132 1098 1115 1051 1008 1022 994 994 994 994 981 981 994 1022 1036 1051 1066 1051 1036 1066 1036 1051 1036 955 994 955 968 981 968 981 981 981 1008 0 1051 1022 1008 1036 1022 994 1008 1036 1022 0 0 1051 1036 1022 1051 1066 1036 1115 1066 1036 0 1082 1098 1082 0 0 1036 0 1036 1022 1008 994 994 1008 1008 1008 1066 1051 1132 1115 1187 1247 1247 1268 1226 1206 1206 1115 1149 1132 1132 1115 1115 1115 1082 1051 1066 1022 1066 1051 1036 994 994 994 994 968 981 968 955 994 1022 1022 1036 1051 1098 1051 1036 1066 994 943 943 943 897 931 931 931 931 943 968 968 968 1008 1022 981 994 981 955 943 955 943 943 886 886 845 791 808 799 774 774 766 774 758 721 735 700 694 700 687 687 675 663 694 694 931 931 943 943 943 931 931 931 919 919 897 886 855 845 836 817 728 700 663 634 618 603 598 593 579 574 566 561 557 545 549 545 541 541 537 541 545 545 545 549 553 561 0 0 0 0 0 0
    0 0 0 0 0 0 0 0 0 0 0 0 0 0 0 0 0 0 0 0 0 0 0 0 0 0 0 0 0 0 0 0 0 0 0 0 0 0 0 0 0 0 0 0 0 0 0 0 0 0 0 0 0 0 0 0 0 0 0 0 0 0 0 0 0 0 0 0 0 981 981 981 981 955 968 968 968 955 968 943 955 968 981 981 994 994 981 981 994 994 1008 994 994 981 981 1036 1008 981 968 968 981 981 994 981 981 1008 994 1036 1051 1066 1098 1082 1187 1132 1132 1098 1066 1066 1022 968 994 968 981 981 981 968 968 981 1008 1008 1036 1036 1022 1008 1036 1022 1036 1022 931 968 931 943 955 955 968 968 955 994 968 1008 994 994 1008 994 968 994 1008 994 994 0 1022 1008 1008 1022 1022 1008 1082 1036 1008 0 0 1051 1036 0 0 1008 981 994 994 981 981 981 994 994 994 1036 1036 1082 1082 1132 1206 1132 1132 1082 1098 1098 1066 1082 1066 1082 1066 1082 1066 1051 1036 1036 1008 1051 1036 1022 968 981 981 981 955 968 955 931 968 994 994 1008 1008 1051 1022 1008 1008 981 931 931 931 908 931 931 931 931 943 981 968 968 1008 1008 981 981 968 943 931 943 931 943 886 876 845 791 799 799 774 774 766 774 758 721 735 700 700 700 694 687 675 663 694 694 897 919 931 931 919 908 919 908 897 908 886 876 845 836 836 826 791 714 694 681 645 613 603 598 579 579 561 557 549 545 545 537 537 533 533 533 537 537 537 537 545 549 0 0 0 0 0 0
    0 0 0 0 0 0 0 0 0 0 0 0 0 0 0 0 0 0 0 0 0 0 0 0 0 0 0 0 0 0 0 0 0 0 0 0 0 0 0 0 0 0 0 0 0 0 0 0 0 0 0 0 0 0 0 0 0 0 0 0 0 0 0 0 0 0 0 0 0 955 955 968 943 931 943 943 943 943 955 931 943 955 968 968 981 981 968 968 981 981 981 981 968 955 943 981 931 876 886 897 931 943 955 955 955 981 981 1008 1022 1036 1051 1066 1132 1082 1082 1051 1022 1036 968 931 968 955 981 981 981 968 955 968 994 994 1022 1008 1008 994 1008 994 1022 1008 897 955 919 931 943 931 955 955 943 981 943 994 981 968 981 968 955 968 981 968 968 994 994 981 981 994 994 994 1022 1008 968 981 994 1008 994 994 981 981 943 968 968 968 968 968 968 968 981 1008 1008 1022 1008 1066 1115 1022 1036 1036 1066 1036 1036 1036 1036 1051 1036 1036 1036 1022 1008 1008 1008 1036 1022 1022 931 968 968 968 943 955 943 919 943 981 968 968 981 1008 981 968 981 955 908 919 919 908 931 931 931 931 943 968 968 968 994 981 955 955 955 931 919 931 919 919 876 865 845 791 799 799 774 774 758 774 758 721 735 707 700 0 694 694 681 669 700 707 865 897 919 919 908 897 897 897 876 897 876 876 855 836 845 836 817 766 0 687 681 639 623 608 584 584 566 557 549 541 541 533 533 533 529 533 533 537 533 533 0 0 0 0 0 0 0 0</data></depth>
</opencv_storage>
