<?xml version="1.0"?>
<opencv_storage>
<gps_time_stamp>29592</gps_time_stamp>
<gps_x>-7.5225038528442383e+000</gps_x>
<gps_y>1.0371752977371216e+000</gps_y>
<gps_z>-2.0162448883056641e+000</gps_z>
<image_time_stamp>17564</image_time_stamp>
<depth type_id="opencv-matrix">
  <rows>88</rows>
  <cols>320</cols>
  <dt>s</dt>
  <data>
    0 0 0 0 0 0 0 0 0 0 0 0 0 0 0 0 0 0 0 0 0 0 0 0 0 0 0 0 0 0 0 0 0 0 0 0 0 0 0 0 0 0 0 0 0 0 0 0 0 0 0 0 0 0 0 0 0 0 0 0 0 0 0 0 0 0 0 0 0 6690 7359 7359 8177 8177 8177 0 0 0 0 8177 8177 7359 8177 8177 8177 8177 8177 0 0 0 0 0 0 0 0 0 0 8177 8177 0 0 0 0 0 8177 8177 0 0 0 0 0 0 0 0 0 7359 0 8177 0 0 0 0 8177 6690 0 0 0 0 0 0 0 0 0 0 0 0 0 0 0 579 574 574 579 584 584 574 584 593 588 0 0 579 579 574 588 588 584 579 579 579 574 584 588 579 579 0 0 0 6690 0 0 0 7359 6690 6690 6690 6133 8177 6690 6690 6690 6133 0 0 0 0 0 0 0 0 0 0 0 0 0 0 0 0 0 0 0 0 7359 7359 7359 7359 6690 0 8177 8177 7359 0 7359 7359 7359 7359 5661 4599 4906 4906 4906 5256 4599 4329 4906 4088 4329 4329 3679 4329 4329 4329 4329 4599 4599 3504 2830 0 0 0 1066 955 855 0 0 0 0 0 0 3066 2453 2628 2628 3345 3873 3679 3679 3504 3504 3199 3066 3066 3066 2943 2725 2164 1989 0 0 0 0 845 808 808 808 766 750 758 750 721 0 687 675 657 639 629 603 109 0 0 0 0 0 0 0 1936 1839 1887 1936 1887 1936 1936 2044 1989 2044 2164 2164 2164 2230 2230 2299 2102 2299 2164 2102 0 0 0 0 0
    0 0 0 0 0 0 0 0 0 0 0 0 0 0 0 0 0 0 0 0 0 0 0 0 0 0 0 0 0 0 0 0 0 0 0 0 0 0 0 0 0 0 0 0 0 0 0 0 0 0 0 0 0 0 0 0 0 0 0 0 0 0 0 0 0 0 0 0 0 6690 7359 7359 8177 8177 8177 0 0 0 0 8177 0 8177 8177 8177 8177 8177 0 0 0 0 0 0 0 0 0 0 0 8177 8177 0 8177 0 0 0 8177 0 0 0 0 0 0 0 0 0 0 7359 8177 8177 8177 8177 8177 7359 7359 6133 0 0 0 0 0 0 0 0 0 0 0 0 0 0 561 579 574 570 579 584 584 579 584 593 588 0 0 584 579 574 588 588 584 579 574 574 574 584 588 579 579 0 0 0 6690 0 7359 7359 7359 6690 6690 6133 6133 7359 6690 6690 6690 6133 0 0 0 0 0 0 0 0 0 0 8177 0 0 0 0 0 0 0 0 0 7359 7359 7359 7359 6690 8177 8177 7359 7359 8177 7359 7359 7359 7359 5661 4906 4906 4906 4906 5256 4599 4329 4329 3873 4088 4088 3679 4329 4329 4329 4329 4599 4329 3504 2943 0 0 0 1066 955 0 0 0 0 0 0 0 2830 1887 2044 2164 3199 3679 3679 3679 3504 3504 3345 3199 3199 3199 3066 2830 2299 2299 1989 2044 0 0 0 817 826 817 0 0 0 0 0 0 0 675 657 639 639 613 0 0 0 0 0 0 0 0 0 1795 1839 1839 1887 1936 1936 2044 1989 2044 2164 2164 2230 2230 2164 2230 2102 2230 2164 2102 0 0 0 0 0
    0 0 0 0 0 0 0 0 0 0 0 0 0 0 0 0 0 0 0 0 0 0 0 0 0 0 0 0 0 0 0 0 0 0 0 0 0 0 0 0 0 0 0 0 0 0 0 0 0 0 0 0 0 0 0 0 0 0 0 0 0 0 0 0 0 0 0 0 0 6690 6690 6690 8177 0 0 0 0 0 0 0 0 0 0 8177 0 0 0 0 0 0 0 0 0 0 0 0 0 7359 7359 0 6690 8177 8177 8177 0 0 0 0 0 0 0 0 0 0 0 7359 8177 7359 8177 8177 7359 7359 6690 5661 0 0 0 8177 0 0 0 0 0 0 0 0 0 0 0 574 570 566 574 584 584 0 584 593 588 0 0 0 0 570 588 584 579 574 574 574 570 584 588 579 579 0 0 0 6133 8177 7359 7359 7359 6133 6690 6133 5661 7359 6133 6133 6133 6133 0 8177 0 0 0 0 9199 0 0 0 7359 0 0 0 0 0 0 0 0 0 6690 7359 7359 7359 6133 8177 7359 7359 6690 8177 6690 7359 7359 7359 5661 5256 5256 5256 5256 5256 4906 4599 4329 3873 4088 4088 3679 4329 4329 4329 4329 4599 4329 3504 2943 0 0 0 1051 943 0 0 0 0 0 0 0 2830 1795 1839 0 3345 3679 3679 3679 3504 3345 3345 3345 3345 3504 3199 2943 2230 2299 1989 2044 0 0 0 0 0 120 0 0 0 0 0 0 0 681 657 651 651 618 0 623 629 623 634 651 634 629 663 645 657 645 0 0 1936 1989 1936 1989 2102 2164 2230 2164 2164 2164 2044 2164 2102 2044 0 0 0 0 0
    0 0 0 0 0 0 0 0 0 0 0 0 0 0 0 0 0 0 0 0 0 0 0 0 0 0 0 0 0 0 0 0 0 0 0 0 0 0 0 0 0 0 0 0 0 0 0 0 0 0 0 0 0 0 0 0 0 0 0 0 0 0 0 0 0 0 0 0 0 6133 6690 7359 8177 0 0 0 0 0 0 0 0 0 0 0 0 0 0 0 0 0 0 0 0 0 0 8177 8177 7359 6690 8177 6133 7359 7359 8177 8177 0 0 0 0 0 0 0 0 0 0 7359 8177 7359 8177 8177 7359 7359 6690 6133 0 0 0 0 0 0 0 0 0 0 0 0 0 0 0 0 0 0 0 0 0 0 0 0 0 0 0 0 0 570 588 579 574 570 570 570 570 584 584 574 579 0 0 0 6133 8177 7359 7359 7359 6133 6690 6133 5661 7359 6133 6133 6133 6133 8177 8177 0 0 0 0 8177 0 0 0 7359 0 0 0 0 0 0 0 0 0 6690 7359 7359 7359 6690 8177 7359 7359 6690 8177 7359 6690 6690 7359 5661 5256 5256 5256 5256 5256 4906 4599 4088 3873 4088 4599 3679 4329 4329 4329 4599 4906 4599 3679 3066 0 0 0 1051 931 0 0 0 0 4329 3873 4329 2943 1839 2453 0 3345 3679 3679 3504 3504 3345 3345 3345 3345 3345 3066 3066 2453 2453 2044 2102 1887 0 0 0 0 120 0 0 0 0 0 0 0 681 657 657 663 623 623 634 634 629 629 639 623 623 639 629 618 618 603 608 613 0 1936 1989 2044 2102 2164 2102 2044 2044 1936 2044 2044 1989 0 0 0 0 0
    0 0 0 0 0 0 0 0 0 0 0 0 0 0 0 0 0 0 0 0 0 0 0 0 0 0 0 0 0 0 0 0 0 0 0 0 0 0 0 0 0 0 0 0 0 0 0 0 0 0 0 0 0 0 0 0 0 0 0 0 0 0 0 0 0 0 0 0 0 6133 6133 7359 8177 0 0 0 0 0 0 0 0 0 0 0 0 0 0 0 0 0 0 0 0 0 0 0 8177 7359 7359 8177 6133 6690 7359 7359 8177 0 0 0 0 0 0 0 0 0 0 7359 8177 6690 8177 8177 8177 8177 7359 6690 0 0 0 0 0 0 0 0 0 0 0 0 0 0 8177 0 7359 7359 8177 7359 7359 7359 0 0 0 0 0 0 0 0 0 0 0 0 0 570 566 579 584 574 574 0 0 0 6133 8177 7359 7359 7359 6133 6690 6133 5661 7359 6133 6690 6133 6133 8177 8177 0 0 0 0 8177 0 0 8177 6690 8177 8177 9199 8177 0 0 0 0 0 6690 7359 7359 7359 6690 8177 7359 7359 6690 7359 7359 7359 6690 6690 6133 5661 5661 5661 5661 5256 5256 4906 4088 4088 4329 4599 3679 4599 4599 4599 4599 4906 4599 3679 3066 0 0 0 1036 931 0 0 0 0 4088 3679 4088 2943 2628 2830 0 3504 3679 3679 3504 3504 3199 3345 3345 3345 3345 3066 2943 2453 2537 2164 2164 1887 0 0 0 0 120 0 0 0 0 0 0 0 687 657 657 663 629 629 634 634 629 634 639 623 623 634 629 618 618 608 608 613 608 0 0 1989 2044 2102 2044 1989 1936 1887 1989 1989 1989 0 0 0 0 0
    0 0 0 0 0 0 0 0 0 0 0 0 0 0 0 0 0 0 0 0 0 0 0 0 0 0 0 0 0 0 0 0 0 0 0 0 0 0 0 0 0 0 0 0 0 0 0 0 0 0 0 0 0 0 0 0 0 0 0 0 0 0 0 0 0 0 0 0 0 6133 6690 7359 0 0 0 0 0 0 0 0 0 0 0 0 0 0 0 0 0 0 0 0 0 0 0 0 8177 8177 7359 0 6690 6133 6690 7359 8177 0 0 0 0 0 0 0 0 0 0 8177 8177 7359 8177 8177 8177 8177 7359 6690 0 0 0 0 0 0 0 0 0 0 0 0 0 0 0 0 8177 8177 0 8177 6690 7359 0 0 0 0 0 0 0 0 0 9199 0 0 0 0 0 0 0 0 0 0 0 0 6133 8177 6690 7359 7359 6133 6690 6133 5661 7359 6133 6690 6133 6133 0 8177 0 0 0 0 8177 8177 8177 7359 6133 7359 7359 8177 8177 8177 8177 8177 8177 0 7359 7359 7359 7359 7359 8177 8177 7359 6690 7359 7359 7359 6690 7359 6690 6690 6690 6690 6690 6133 6133 6133 4329 4088 4599 4906 3679 4599 4599 4599 4599 4906 4599 3679 0 0 0 0 0 919 0 0 103 0 4088 3504 4088 2943 2830 2943 3066 3345 3504 3504 3504 3504 3199 3345 3345 3345 3345 3066 2943 2453 2537 2299 2299 1936 1839 0 0 0 0 0 0 0 0 0 0 0 687 657 657 669 629 629 639 634 634 634 645 623 618 634 634 618 618 608 608 613 588 574 553 545 0 2102 1989 1936 1887 1887 1936 1989 1989 0 0 0 0 0
    0 0 0 0 0 0 0 0 0 0 0 0 0 0 0 0 0 0 0 0 0 0 0 0 0 0 0 0 0 0 0 0 0 0 0 0 0 0 0 0 0 0 0 0 0 0 0 0 0 0 0 0 0 0 0 0 0 0 0 0 0 0 0 0 0 0 0 0 0 6133 6690 8177 0 0 0 0 0 0 0 0 0 0 0 0 0 0 0 0 0 0 0 0 0 0 0 0 8177 8177 8177 0 6690 6690 6690 7359 8177 0 0 0 0 0 0 0 0 0 0 8177 0 7359 0 0 8177 0 8177 8177 0 0 0 0 0 0 0 0 0 8177 0 0 0 0 0 0 8177 8177 0 6690 0 0 0 0 0 0 0 0 0 0 0 0 0 0 0 0 0 0 0 0 0 0 0 0 5661 7359 6690 7359 7359 6690 6690 6133 5661 7359 6133 6690 6133 6133 8177 8177 8177 0 0 0 8177 8177 8177 7359 6133 8177 8177 8177 8177 8177 8177 8177 8177 0 7359 7359 7359 8177 7359 0 7359 6690 6690 7359 6690 7359 6690 7359 6690 6690 7359 7359 7359 7359 6690 6690 4599 4329 4906 4906 3679 4599 4599 4599 4599 5256 4906 3679 0 0 0 0 0 919 0 0 0 0 3873 3504 4088 3066 2943 0 3066 3345 3679 3504 3504 3504 3199 3345 3345 3345 3345 3066 3066 2628 2628 2374 2374 1989 1887 0 0 0 0 0 0 0 0 0 0 0 687 657 651 675 639 634 651 639 634 634 651 623 613 634 634 623 623 608 603 608 561 549 537 529 525 500 0 1887 1839 0 1839 1887 1936 0 0 0 0 0
    0 0 0 0 0 0 0 0 0 0 0 0 0 0 0 0 0 0 0 0 0 0 0 0 0 0 0 0 0 0 0 0 0 0 0 0 0 0 0 0 0 0 0 0 0 0 0 0 0 0 0 0 0 0 0 0 0 0 0 0 0 0 0 0 0 0 0 0 0 5661 6133 0 0 0 0 0 0 0 0 0 0 0 0 0 0 0 0 0 0 0 0 0 0 0 0 0 8177 8177 0 0 8177 8177 7359 8177 0 0 0 0 0 0 0 0 0 0 0 8177 8177 7359 8177 0 8177 0 8177 8177 0 0 0 0 0 0 0 0 8177 8177 8177 0 0 0 8177 0 8177 0 0 0 0 0 0 886 836 799 799 743 0 0 0 0 0 0 0 0 0 0 0 0 0 0 0 0 5256 7359 6690 7359 7359 6690 6690 6133 5661 7359 6133 6690 6133 6133 8177 6690 7359 7359 9199 0 8177 7359 8177 7359 6690 8177 8177 8177 8177 8177 8177 8177 8177 0 7359 7359 7359 7359 7359 8177 6690 6690 6690 6690 6133 6690 6690 6690 6690 6690 6690 6690 6690 7359 6690 6690 4906 4599 4906 4906 3679 4599 4599 4599 4599 5256 4599 3679 0 0 0 0 0 908 0 0 0 103 3873 3504 4088 3066 0 0 0 3504 3679 3504 3504 3345 3199 3199 3345 3345 3199 3066 3066 2628 2628 2453 2453 2044 1936 0 0 0 0 0 0 0 0 0 0 0 694 663 663 681 651 645 663 645 639 639 657 623 618 634 634 629 629 613 608 613 584 561 549 545 549 533 0 0 0 0 0 0 1887 0 0 0 0 0
    0 0 0 0 0 0 0 0 0 0 0 0 0 0 0 0 0 0 0 0 0 0 0 0 0 0 0 0 0 0 0 0 0 0 0 0 0 0 0 0 0 0 0 0 0 0 0 0 0 0 0 0 0 0 0 0 0 0 0 0 0 0 0 0 0 0 0 0 0 4599 0 0 0 0 0 0 0 0 0 0 0 0 0 0 0 0 0 0 0 0 8177 0 0 0 0 8177 8177 8177 0 0 8177 8177 7359 0 0 0 0 0 0 0 0 0 0 0 0 0 8177 7359 0 0 0 0 0 0 0 0 0 0 0 0 0 9199 8177 0 0 0 0 0 0 0 0 0 0 931 0 955 886 931 876 855 845 817 0 808 0 0 0 0 0 0 0 0 0 0 0 0 0 0 0 6690 6133 7359 6690 0 0 6133 5661 7359 5661 6133 5256 5256 7359 6133 6690 6133 7359 0 8177 7359 7359 7359 6690 0 8177 8177 0 0 0 0 0 0 7359 7359 7359 7359 7359 6690 5256 6133 6133 6133 5661 6133 6133 6133 6690 6690 6690 6690 6690 7359 6690 6690 5256 4906 4906 4906 3679 4599 4906 4906 4599 5256 4599 3679 0 0 0 0 0 908 0 0 0 0 4088 3504 4329 3066 0 3066 3066 3504 3504 3345 3345 3345 3066 3066 3066 3066 3066 2943 3066 2725 2725 2628 2537 2044 1989 0 0 0 0 0 0 0 0 0 0 0 700 669 669 681 663 657 675 645 639 639 669 623 618 634 639 634 634 613 613 613 584 561 553 545 553 541 549 557 557 588 603 593 593 0 0 0 0 0
    0 0 0 0 0 0 0 0 0 0 0 0 0 0 0 0 0 0 0 0 0 0 0 0 0 0 0 0 0 0 0 0 0 0 0 0 0 0 0 0 0 0 0 0 0 0 0 0 0 0 0 0 0 0 0 0 0 0 0 0 0 0 0 0 0 0 0 0 0 3679 0 0 0 0 0 0 0 0 0 0 0 955 0 0 0 0 0 0 0 0 7359 0 0 0 0 7359 6690 7359 0 0 7359 6690 6690 8177 0 0 0 0 0 0 0 0 0 0 0 0 8177 6690 0 0 0 0 0 0 0 0 0 0 0 0 0 0 0 0 0 0 0 0 0 0 292 290 968 955 968 968 919 931 897 886 876 855 845 845 836 817 0 0 0 0 0 0 0 0 0 0 0 0 4088 6133 6133 6690 6690 0 0 5661 5256 7359 5661 5661 4906 4906 7359 6133 6133 6133 7359 8177 8177 7359 8177 7359 7359 0 0 0 0 0 0 0 0 9199 7359 7359 7359 6690 7359 4906 4088 4599 5256 4599 4599 5256 5256 5256 6690 6690 6690 6690 6690 7359 6690 6690 5256 5256 5256 5256 3679 4906 4906 4906 4599 5661 4329 3679 0 0 0 0 0 908 0 0 0 0 4599 3679 4599 3066 3066 3066 3199 3504 3504 3504 3345 3345 3066 3199 3199 3199 3199 3199 3066 2943 2943 2830 2725 2044 0 0 0 0 0 0 0 0 0 0 0 721 707 675 675 0 0 0 0 651 634 634 669 623 618 634 651 629 623 613 603 608 570 557 553 545 557 549 557 566 557 588 584 579 574 0 0 0 0 0
    0 0 0 0 0 0 0 0 0 0 0 0 0 0 0 0 0 0 0 0 0 0 0 0 0 0 0 0 0 0 0 0 0 0 0 0 0 0 0 0 0 0 0 0 0 0 0 0 0 0 0 0 0 0 0 0 0 0 0 0 0 0 0 0 0 0 0 0 0 0 0 98 0 0 0 0 0 0 0 0 955 943 943 919 0 931 943 0 0 0 0 0 0 0 0 6690 6133 6133 8177 0 6690 0 6690 0 0 0 981 968 931 0 0 0 0 0 0 0 0 0 0 0 0 0 0 135 0 0 0 0 0 0 0 0 0 0 0 0 0 0 0 292 286 0 968 968 981 968 919 943 908 897 886 865 865 855 845 836 799 0 0 0 0 0 0 0 0 0 0 0 4329 6133 6133 6690 0 0 0 0 0 7359 4599 4599 4088 4599 7359 6133 5256 5661 6690 7359 8177 8177 0 0 0 0 0 0 0 0 0 0 0 8177 8177 7359 7359 6690 7359 4329 3504 3679 4599 4088 4329 5661 5661 5661 6690 7359 7359 7359 7359 7359 6690 7359 5256 5256 5256 5256 3679 4906 4906 4599 4599 5661 4329 3679 0 0 0 0 0 897 0 0 0 0 5256 4088 5256 3345 3345 3199 3345 3679 3504 3504 3504 3345 3066 3199 3199 3199 3199 3199 3066 2943 2943 2943 2725 2044 0 0 0 0 0 0 0 0 0 0 0 0 707 675 0 0 0 0 0 645 0 634 675 618 613 639 645 623 618 613 603 603 584 584 574 553 584 570 579 584 570 593 584 579 574 0 0 0 0 0
    0 0 0 0 0 0 0 0 0 0 0 0 0 0 0 0 0 0 0 0 0 0 0 0 0 0 0 0 0 0 0 0 0 0 0 0 0 0 0 0 0 0 0 0 0 0 0 0 0 0 0 0 0 0 0 0 0 0 0 0 0 0 0 0 0 0 0 0 0 0 0 98 98 0 0 0 0 0 931 931 931 931 919 908 931 908 931 919 0 0 0 0 0 0 0 0 0 0 0 0 0 919 931 931 0 968 968 955 931 943 943 931 908 876 0 0 0 0 0 0 0 0 135 0 0 0 0 0 0 0 0 968 0 0 0 0 0 0 0 288 283 0 968 968 981 968 931 943 919 919 897 886 876 865 855 845 817 836 0 0 0 0 0 0 0 0 0 0 0 6133 6133 6133 0 0 0 0 0 0 0 0 0 0 9199 5661 4599 4906 6133 6690 7359 8177 0 0 0 0 0 0 0 0 0 0 0 0 8177 7359 7359 6690 7359 4088 3679 3873 4599 4599 4906 6690 6133 5661 7359 7359 7359 7359 6690 7359 6690 6690 5256 4906 4906 4906 3679 4599 4906 4906 4599 5661 4599 3679 0 0 0 0 0 897 0 0 0 0 5661 4599 5661 3345 3504 3345 3504 3679 3504 3504 3504 3504 3199 3199 3199 3199 3199 3345 3066 2943 2943 3066 2725 2044 0 0 0 0 0 0 0 0 0 0 0 0 700 675 0 0 0 0 0 0 0 623 663 603 598 598 0 593 588 588 579 579 557 0 588 566 608 598 598 598 593 603 588 579 579 0 0 0 0 0
    0 0 0 0 0 0 0 0 0 0 0 0 0 0 0 0 0 0 0 0 0 0 0 0 0 0 0 0 0 0 0 0 0 0 0 0 0 0 0 0 0 0 0 0 0 0 0 0 0 0 0 0 0 0 0 0 0 0 0 0 0 0 0 0 0 0 0 0 0 0 876 876 876 865 908 886 897 908 908 919 919 919 919 908 919 897 919 919 943 955 0 0 0 0 0 0 0 876 897 886 897 897 908 908 931 943 943 931 919 919 919 908 897 876 886 897 0 0 897 0 0 135 0 0 0 0 931 943 981 994 981 955 0 0 0 284 0 0 0 0 0 0 968 968 968 955 919 943 919 919 908 897 886 876 865 855 826 845 0 0 0 0 0 0 0 0 0 0 0 0 0 0 0 0 0 0 194 0 0 0 0 0 0 0 0 0 6690 7359 7359 0 0 0 0 0 0 0 0 0 0 0 0 0 0 7359 6690 6133 6690 3873 3679 3679 4599 4906 4906 7359 6690 6133 7359 8177 8177 7359 6690 7359 6133 6690 4906 4329 4599 4599 3504 4599 4599 4599 4599 5661 4599 3679 0 0 0 0 981 886 0 0 0 0 6133 4906 5661 3504 3504 3504 3679 3873 3679 3679 3679 3504 3199 3199 3199 3199 3199 3345 3066 2943 2943 3066 2725 2044 0 0 0 0 0 0 0 0 0 0 0 0 700 669 675 669 645 645 0 634 613 613 657 603 593 0 2044 1936 579 584 579 574 0 0 0 0 613 603 598 598 588 603 588 579 579 0 0 0 0 0
    0 0 0 0 0 0 0 0 0 0 0 0 0 0 0 0 0 0 0 0 0 0 0 0 0 0 0 0 0 0 0 0 0 0 0 0 0 0 0 0 0 0 0 0 0 0 0 0 0 0 0 0 0 0 0 0 0 0 0 0 0 0 0 0 0 0 0 0 0 886 876 876 886 876 908 897 908 919 908 919 919 919 908 908 919 886 908 908 943 943 955 955 955 0 0 0 931 876 897 886 897 897 908 908 919 919 919 908 908 897 886 897 897 876 886 897 886 886 897 886 886 886 908 886 897 897 908 908 931 931 931 897 886 897 0 0 908 919 0 943 931 943 955 968 955 943 908 931 919 919 908 897 897 886 876 865 845 855 845 0 0 0 0 0 0 0 931 0 943 943 897 0 0 0 0 0 0 0 0 0 0 1008 0 1149 1022 994 0 0 0 0 0 0 0 0 0 0 0 0 0 0 0 0 0 7359 6133 5661 6133 3873 3679 3679 4329 4906 4599 7359 7359 0 7359 8177 8177 7359 6690 7359 5661 6133 4906 3873 4599 4599 3504 4599 4599 4599 4599 5256 4329 0 0 0 0 0 968 897 836 0 0 0 6690 5661 6133 3504 0 3679 0 4088 3679 3873 3873 3679 3199 3345 3345 3199 3199 3345 3066 2943 2830 2943 2725 2044 2044 0 0 0 0 0 0 0 0 0 0 0 694 663 675 663 639 639 645 629 608 603 645 598 588 2102 2164 2044 0 0 579 0 0 0 0 0 623 608 598 593 588 603 584 574 574 0 0 0 0 0
    0 0 0 0 0 0 0 0 0 0 0 0 0 0 0 0 0 0 0 0 0 0 0 0 0 0 0 0 0 0 0 0 0 0 0 0 0 0 0 0 0 0 0 0 0 0 0 0 0 0 0 0 0 0 0 0 0 0 0 0 0 0 0 0 0 0 0 0 0 865 855 865 876 865 897 886 908 919 908 919 919 908 908 897 908 886 897 908 919 919 943 943 931 931 943 919 931 886 897 897 897 908 908 897 908 908 897 897 886 886 886 886 908 886 897 908 897 897 908 908 908 897 897 886 897 886 886 886 886 886 886 886 886 897 886 919 919 919 931 931 919 931 943 955 943 919 897 931 919 919 908 908 908 897 886 886 855 876 865 855 845 865 908 919 955 943 931 931 931 931 897 876 908 886 865 0 0 0 968 981 981 981 981 1008 1008 968 931 0 0 0 0 0 0 0 0 0 0 0 0 0 0 0 0 7359 6690 5256 5661 3873 0 3873 0 0 0 0 0 0 6690 7359 7359 6690 5661 6133 4599 4906 4599 3679 4599 4329 3504 4599 4906 4906 4906 0 0 0 0 106 0 931 943 886 836 0 0 0 8177 6690 7359 3504 0 0 0 0 3873 4088 4329 3679 3345 3345 3345 3345 3345 3504 3199 2943 2830 2943 2537 1989 0 0 0 0 0 0 0 0 0 0 0 0 687 663 675 651 634 0 634 623 603 593 629 593 584 2164 2299 2164 2044 0 0 0 0 0 0 0 0 623 608 603 593 603 584 570 574 0 0 0 0 0
    0 0 0 0 0 0 0 0 0 0 0 0 0 0 0 0 0 0 0 0 0 0 0 0 0 0 0 0 0 0 0 0 0 0 0 0 0 0 0 0 0 0 0 0 0 0 0 0 0 0 0 0 0 0 0 0 0 0 0 0 0 0 0 0 0 0 0 0 0 855 845 865 865 855 886 886 897 919 908 931 919 897 908 897 897 886 886 897 897 897 931 919 919 919 931 919 919 886 897 886 897 897 897 876 897 897 876 886 886 886 886 886 919 897 919 931 931 931 931 931 931 919 908 897 908 886 886 886 876 876 876 876 876 886 876 908 908 908 919 919 908 919 919 943 919 908 886 919 908 908 908 908 908 897 897 908 865 897 886 886 865 876 897 908 943 919 908 908 908 908 897 876 908 886 876 897 943 955 943 955 968 968 968 994 981 943 919 968 981 931 0 0 0 0 0 0 0 0 0 0 0 0 0 0 7359 0 0 0 0 0 908 0 0 0 0 0 6690 7359 7359 6133 4906 5256 4088 4599 4599 3504 0 4329 3504 4329 4906 0 0 0 0 0 0 0 919 919 931 886 845 855 931 0 0 8177 7359 3873 0 0 0 0 0 0 0 3679 0 3504 3345 3345 3345 3504 3066 2830 2830 2943 2453 1936 0 0 0 0 92 91 0 0 0 0 0 694 687 657 675 645 629 0 629 623 603 593 629 598 588 2230 2299 2164 2044 0 0 0 0 0 0 0 0 694 675 618 603 613 593 574 570 0 0 0 0 0
    0 0 0 0 0 0 0 0 0 0 0 0 0 0 0 0 0 0 0 0 0 0 0 0 0 0 0 0 0 0 0 0 0 0 0 0 0 0 0 0 0 0 0 0 0 0 0 0 0 0 0 0 0 0 0 0 0 0 0 0 0 0 0 0 0 0 0 0 0 865 855 865 865 855 876 886 886 908 897 919 908 876 897 886 886 876 886 886 886 886 931 908 908 908 919 897 908 876 886 876 876 876 876 865 886 876 865 876 876 876 876 886 931 897 931 943 943 931 931 931 919 908 897 886 886 865 876 876 876 865 865 865 865 876 876 908 897 897 908 908 908 908 919 931 908 897 886 908 897 897 897 908 908 897 908 919 886 919 919 919 876 876 908 908 931 908 908 897 897 908 897 876 908 897 876 897 919 931 931 931 943 931 931 968 955 919 908 931 931 886 886 855 931 897 0 931 919 931 943 943 943 943 955 943 0 955 931 943 931 897 897 908 943 0 0 0 0 0 0 6690 4599 4906 3679 0 0 0 0 0 968 0 0 0 0 0 0 0 897 897 897 908 919 886 855 865 931 931 0 0 8177 4088 0 0 0 0 968 943 0 0 0 0 0 0 3504 3679 3066 2830 2725 2830 2299 1887 0 0 0 90 92 91 0 0 0 0 0 687 681 645 669 629 623 623 623 629 603 593 634 598 598 2374 2374 2164 2044 0 0 0 0 0 0 0 845 836 782 721 0 657 603 579 566 0 0 0 0 0
    0 0 0 0 0 0 0 0 0 0 0 0 0 0 0 0 0 0 0 0 0 0 0 0 0 0 0 0 0 0 0 0 0 0 0 0 0 0 0 0 0 0 0 0 0 0 0 0 0 0 0 0 0 0 0 0 0 0 0 0 0 0 0 0 0 0 0 0 0 876 865 865 876 865 876 876 886 886 886 908 897 865 886 886 876 876 886 886 876 876 919 897 886 897 886 876 876 855 865 855 855 855 865 855 876 876 865 865 865 876 876 876 931 897 931 943 955 931 919 919 897 886 876 865 876 855 855 865 865 865 865 865 865 876 876 897 886 886 897 897 908 908 908 919 908 886 876 897 886 886 886 897 897 897 908 919 886 931 943 943 886 886 908 897 919 908 897 897 886 897 886 876 897 886 876 886 897 908 897 908 908 908 908 943 931 897 897 908 886 876 876 855 897 886 897 908 908 931 931 931 943 931 943 943 931 943 931 943 931 897 897 897 919 943 919 931 931 908 931 931 0 0 908 931 876 931 955 931 919 886 876 886 0 908 897 886 897 897 897 908 908 886 865 876 919 908 886 931 0 0 0 1022 943 943 931 919 876 0 0 0 0 0 0 4329 3199 2725 2725 2830 2102 1839 0 0 0 0 0 0 681 0 0 675 0 681 669 639 657 623 618 618 618 623 598 588 618 593 593 2453 2374 2230 2044 2044 0 0 0 0 0 908 865 865 855 836 758 700 0 0 584 0 0 0 0 0
    0 0 0 0 0 0 0 0 0 0 0 0 0 0 0 0 0 0 0 0 0 0 0 0 0 0 0 0 0 0 0 0 0 0 0 0 0 0 0 0 0 0 0 0 0 0 0 0 0 0 0 0 0 0 0 0 0 0 0 0 0 0 0 0 0 0 0 0 0 876 865 865 876 865 876 876 876 865 865 886 876 855 876 876 865 865 876 876 876 876 919 876 865 886 865 855 855 845 845 845 845 845 865 845 876 876 865 865 865 876 876 876 931 876 908 931 955 931 908 908 886 876 865 855 855 845 855 855 855 865 865 865 865 876 876 897 886 886 897 897 897 897 908 919 908 886 865 886 876 876 886 886 897 886 897 919 886 943 968 943 886 886 897 897 919 908 897 886 876 886 876 865 876 876 865 876 897 897 886 897 908 897 908 931 931 886 897 897 865 865 865 855 886 876 897 908 897 931 919 919 943 931 943 931 931 943 931 943 943 908 908 886 908 931 908 919 919 908 931 931 955 931 897 919 865 876 886 886 876 886 876 886 886 897 897 886 897 897 897 897 897 876 865 876 908 876 855 876 865 876 981 943 876 908 908 908 886 886 897 865 0 0 0 0 3199 2537 2453 2628 1989 0 0 0 0 0 0 651 675 675 675 669 663 669 663 634 651 623 618 0 618 623 603 593 613 584 593 2537 2453 2299 2102 0 0 0 0 876 919 876 855 855 845 845 808 836 774 721 700 0 0 0 0 0
    0 0 0 0 0 0 0 0 0 0 0 0 0 0 0 0 0 0 0 0 0 0 0 0 0 0 0 0 0 0 0 0 0 0 0 0 0 0 0 0 0 0 0 0 0 0 0 0 0 0 0 0 0 0 0 0 0 0 0 0 0 0 0 0 0 0 0 0 0 876 855 865 876 865 876 865 855 845 855 865 865 845 865 865 855 865 865 876 865 865 908 865 855 865 845 845 845 836 836 836 845 836 855 845 865 865 865 855 865 865 876 865 931 865 886 919 943 919 897 886 876 855 845 845 845 836 845 855 855 855 855 865 876 876 886 886 876 886 897 897 897 897 908 908 897 876 855 876 865 865 876 876 886 886 897 931 886 955 981 955 886 897 897 908 919 908 886 876 865 876 865 865 865 876 865 876 886 897 886 897 897 897 897 919 908 876 876 876 845 865 855 845 876 876 886 897 897 919 908 919 931 919 919 908 908 919 908 908 908 886 876 876 886 897 886 897 897 897 919 919 943 931 897 897 855 865 855 865 865 886 876 876 876 897 886 886 886 897 886 897 886 876 865 876 886 865 845 855 845 855 908 865 845 876 886 886 876 876 876 855 865 876 876 876 865 876 876 865 919 0 0 0 0 0 0 645 669 675 669 669 657 669 657 634 651 623 618 623 623 629 608 598 618 598 608 0 0 2299 2102 0 0 845 836 855 876 855 845 836 836 826 782 826 774 750 743 0 0 0 0 0
    0 0 0 0 0 0 0 0 0 0 0 0 0 0 0 0 0 0 0 0 0 0 0 0 0 0 0 0 0 0 0 0 0 0 0 0 0 0 0 0 0 0 0 0 0 0 0 0 0 0 0 0 0 0 0 0 0 0 0 0 0 0 0 0 0 0 0 0 0 876 865 865 876 855 865 855 845 826 836 845 845 836 855 855 855 865 865 876 865 865 908 855 855 865 845 845 845 845 836 826 845 836 855 845 865 865 855 855 865 865 876 865 931 855 876 919 955 919 886 876 865 845 845 836 836 836 845 855 855 855 855 865 876 865 886 886 876 876 886 886 897 886 908 908 908 876 855 865 865 865 865 876 886 876 886 943 886 955 994 955 876 886 886 897 908 886 886 865 855 865 855 855 855 865 865 865 876 886 876 886 886 886 886 897 886 865 865 865 836 855 855 845 865 865 876 886 886 919 897 908 919 908 908 897 897 897 886 897 876 865 855 855 865 876 876 876 886 886 908 919 919 919 886 886 855 855 845 865 865 876 865 865 876 886 876 876 876 886 876 886 886 876 876 876 897 886 855 855 836 855 876 845 836 845 855 865 865 865 865 855 855 865 855 855 855 865 855 845 855 855 0 0 0 0 700 657 675 675 675 669 663 669 657 634 651 629 623 629 629 634 613 613 645 651 651 826 817 826 836 836 836 836 836 836 836 826 836 845 845 836 799 836 782 758 743 0 0 0 0 0
    0 0 0 0 0 0 0 0 0 0 0 0 0 0 0 0 0 0 0 0 0 0 0 0 0 0 0 0 0 0 0 0 0 0 0 0 0 0 0 0 0 0 0 0 0 0 0 0 0 0 0 0 0 0 0 0 0 0 0 0 0 0 0 0 0 0 0 0 0 876 855 855 855 845 845 826 817 808 808 826 826 826 845 855 855 855 865 865 855 855 897 845 845 855 836 836 836 836 836 817 826 826 845 836 865 865 855 855 865 865 876 865 943 845 865 897 919 897 865 855 855 845 836 826 836 836 845 855 855 855 855 865 876 865 886 876 865 865 876 886 886 876 897 897 908 876 845 865 865 865 865 865 876 865 876 943 876 931 968 908 855 855 855 876 886 865 865 855 845 865 855 855 855 865 865 865 876 886 865 876 876 876 876 876 865 855 855 855 836 855 855 845 865 865 876 886 886 919 886 908 919 908 908 886 876 886 876 876 865 855 845 855 855 865 855 865 865 865 886 919 897 908 886 886 855 855 845 865 865 876 855 855 865 865 865 876 865 865 865 886 886 876 876 865 886 876 845 855 836 845 865 836 826 836 836 845 845 845 845 836 845 845 845 845 845 845 845 836 836 836 799 791 721 0 700 663 675 675 675 675 663 669 651 639 657 629 629 629 629 639 623 669 669 681 675 836 826 826 836 836 836 836 836 845 826 826 836 836 836 845 808 826 782 750 735 0 0 0 0 0
    0 0 0 0 0 0 0 0 0 0 0 0 0 0 0 0 0 0 0 0 0 0 0 0 0 0 0 0 0 0 0 0 0 0 0 0 0 0 0 0 0 0 0 0 0 0 0 0 0 0 0 0 0 0 0 0 0 0 0 0 0 0 0 0 0 0 0 0 0 865 836 836 826 826 826 799 799 791 791 808 817 817 836 845 845 855 855 865 855 855 876 826 826 826 817 817 817 817 808 799 817 808 836 826 855 855 855 855 865 865 876 865 931 845 845 845 855 855 826 817 826 817 817 808 826 826 836 855 855 855 855 865 876 865 886 865 855 855 865 876 886 876 886 886 897 865 845 855 855 855 855 865 865 855 865 943 865 876 908 855 826 817 817 836 845 836 855 845 836 855 855 855 855 855 865 855 865 886 865 876 876 865 865 865 855 845 845 845 836 855 855 845 865 865 876 876 876 919 876 897 908 897 886 876 865 876 876 876 865 855 836 855 855 855 855 855 855 855 865 919 876 897 886 876 855 855 836 855 855 855 845 845 845 845 855 855 855 845 845 865 865 855 865 855 876 845 836 836 826 836 845 826 817 817 826 826 817 836 836 826 826 836 836 836 836 845 836 826 826 826 799 782 721 714 707 669 681 681 675 669 0 669 651 639 663 634 629 634 634 645 629 681 669 681 681 826 826 826 826 836 826 826 826 836 826 817 817 808 808 826 791 808 774 743 728 0 0 0 0 0
    0 0 0 0 0 0 0 0 0 0 0 0 0 0 0 0 0 0 0 0 0 0 0 0 0 0 0 0 0 0 0 0 0 0 0 0 0 0 0 0 0 0 0 0 0 0 0 0 0 0 0 0 0 0 0 0 0 0 0 0 0 0 0 0 0 0 0 0 0 855 826 808 799 817 808 766 782 782 782 791 799 808 826 826 845 845 855 855 845 845 865 826 817 817 799 799 799 808 799 791 799 799 826 826 855 855 855 855 865 865 876 865 908 826 826 826 826 826 817 799 808 799 808 791 808 817 826 845 845 845 845 855 865 855 876 865 845 855 865 865 876 865 876 876 886 855 836 845 845 845 845 855 855 845 845 919 855 855 865 845 826 808 808 826 836 836 845 845 0 865 855 855 855 855 865 855 865 886 855 865 876 865 855 855 855 845 845 845 826 855 855 845 865 865 865 876 865 908 865 876 886 876 865 865 865 865 876 865 865 855 826 845 845 0 845 845 845 845 855 908 855 865 865 855 845 845 817 845 845 845 826 836 836 826 836 845 836 836 836 845 845 836 855 845 855 836 817 826 817 826 826 817 808 808 808 817 799 826 826 826 826 836 836 836 836 845 836 826 817 817 791 782 721 714 707 675 681 681 675 669 663 669 651 645 663 639 634 639 645 651 639 687 681 687 687 808 808 808 808 817 808 808 808 817 808 799 799 791 799 817 799 817 791 766 743 0 0 0 0 0
    0 0 0 0 0 0 0 0 0 0 0 0 0 0 0 0 0 0 0 0 0 0 0 0 0 0 0 0 0 0 0 0 0 0 0 0 0 0 0 0 0 0 0 0 0 0 0 0 0 0 0 0 0 0 0 0 0 0 0 0 0 0 0 0 0 0 0 0 0 0 817 782 766 799 791 750 782 782 774 782 791 799 808 817 836 845 845 845 845 845 845 817 808 808 799 799 799 808 791 791 799 791 817 817 845 845 845 855 855 865 865 855 876 826 817 817 826 826 808 791 799 791 799 766 799 799 808 836 836 836 836 836 855 855 865 855 845 845 855 855 865 855 855 865 865 845 817 836 836 836 836 845 845 836 836 897 836 836 836 826 817 799 799 808 826 826 845 845 0 855 855 845 845 845 855 845 855 876 845 865 876 865 865 855 855 845 845 845 826 855 855 855 855 865 865 865 855 886 836 845 855 855 845 845 855 865 865 865 855 845 826 845 845 845 0 845 845 836 845 886 836 836 836 836 826 836 808 836 836 836 826 826 826 817 826 836 826 817 817 826 817 817 826 826 836 826 808 817 817 826 817 817 799 799 799 808 782 808 817 817 817 826 836 836 836 836 826 817 808 808 782 774 721 714 707 675 681 681 675 669 0 669 645 651 669 645 639 645 651 657 651 694 681 694 694 799 799 799 799 808 799 799 791 808 791 791 791 782 791 799 782 808 774 766 743 0 0 0 0 0
    0 0 0 0 0 0 0 0 0 0 0 0 0 0 0 0 0 0 0 0 0 0 0 0 0 0 0 0 0 0 0 0 0 0 0 0 0 0 0 0 0 0 0 0 0 0 0 0 0 0 0 0 0 0 0 0 0 0 0 0 0 0 0 0 0 0 0 0 0 799 791 750 750 791 774 743 774 782 766 774 791 791 799 808 826 826 826 836 836 836 836 817 808 808 791 799 799 808 782 791 791 799 817 817 836 836 836 845 855 855 855 845 855 826 817 808 808 817 799 782 791 782 791 750 782 791 799 817 826 817 826 826 845 836 845 845 826 826 845 836 845 836 845 845 845 836 799 826 826 817 826 826 836 826 826 876 826 826 826 826 799 782 791 799 808 808 826 826 808 845 845 836 836 836 836 836 845 855 836 845 865 855 855 845 845 836 836 836 817 865 855 845 855 855 855 855 845 855 817 817 836 826 826 826 836 855 855 855 855 845 826 845 845 845 845 845 845 836 836 865 826 817 817 817 826 826 808 836 836 836 826 826 817 817 817 826 808 808 799 808 799 799 808 808 817 808 791 808 808 817 808 799 774 782 782 799 782 791 799 808 808 817 826 826 826 836 817 808 791 799 782 766 721 714 707 675 681 681 675 663 0 669 645 651 669 651 639 651 657 663 657 694 687 694 694 791 799 799 799 799 791 791 782 791 774 774 774 766 774 766 766 782 750 750 728 0 0 0 0 0
    0 0 0 0 0 0 0 0 0 0 0 0 0 0 0 0 0 0 0 0 0 0 0 0 0 0 0 0 0 0 0 0 0 0 0 0 0 0 0 0 0 0 0 0 0 0 0 0 0 0 0 0 0 0 0 0 0 0 0 0 0 0 0 0 0 0 0 0 0 782 774 743 750 782 766 743 774 774 766 766 782 782 782 799 817 817 808 817 826 826 826 808 799 799 791 799 799 799 782 782 791 799 808 817 826 826 826 836 845 845 845 836 836 817 808 808 808 808 799 774 791 782 782 750 782 782 791 808 817 808 808 808 826 826 836 826 808 808 826 817 826 0 0 817 817 817 782 817 817 808 817 817 826 817 817 865 817 808 817 808 791 774 774 782 791 799 817 808 799 826 826 817 826 826 826 817 826 836 817 826 845 836 826 826 826 808 817 817 817 855 855 845 855 845 845 836 836 836 808 808 817 808 817 817 826 836 836 845 845 836 817 845 845 845 836 845 836 826 836 855 817 808 808 817 817 817 808 836 836 836 817 826 817 808 808 817 799 799 791 799 782 782 791 791 799 791 774 799 799 799 799 791 774 774 782 791 774 782 782 791 791 799 799 808 808 817 808 799 782 791 774 766 721 714 707 675 681 681 675 663 663 669 645 657 675 657 645 657 663 663 663 694 687 694 694 782 791 791 791 791 791 791 774 791 766 766 766 758 758 750 750 766 735 735 721 0 0 0 0 0
    0 0 0 0 0 0 0 0 0 0 0 0 0 0 0 0 0 0 0 0 0 0 0 0 0 0 0 0 0 0 0 0 0 0 0 0 0 0 0 0 0 0 0 0 0 0 0 0 0 0 0 0 0 0 0 0 0 0 0 0 0 0 0 0 0 0 0 0 0 774 766 758 750 774 766 743 766 774 766 766 774 774 774 782 808 799 791 799 808 808 808 799 791 782 782 791 791 791 782 774 791 791 799 808 808 817 817 826 836 836 836 826 826 817 799 799 799 799 791 766 782 774 782 743 774 782 782 799 799 799 799 791 817 817 826 826 808 808 808 799 808 799 0 808 799 808 774 808 817 799 808 817 817 808 808 845 817 799 808 799 782 774 774 782 791 791 799 791 791 817 817 808 808 817 808 808 808 817 799 799 817 808 791 791 791 782 782 808 808 855 855 845 845 836 836 826 817 817 799 791 808 791 808 808 808 826 817 826 826 826 817 845 845 836 836 845 836 817 826 836 808 808 808 817 817 817 808 836 836 826 817 817 817 808 808 808 791 791 782 791 774 774 782 774 782 766 758 791 782 799 782 782 774 774 782 791 774 782 774 791 782 799 791 808 799 799 791 782 766 782 766 750 721 714 707 675 681 681 669 657 663 669 645 657 675 657 651 657 669 669 663 694 687 694 694 774 782 782 782 782 782 782 766 782 758 766 758 750 750 743 735 743 728 721 707 0 0 0 0 0
    0 0 0 0 0 0 0 0 0 0 0 0 0 0 0 0 0 0 0 0 0 0 0 0 0 0 0 0 0 0 0 0 0 0 0 0 0 0 0 0 0 0 0 0 0 0 0 0 0 0 0 0 0 0 0 0 0 0 0 0 0 0 0 0 0 0 0 0 0 766 774 758 750 774 758 743 766 774 766 758 774 774 766 774 808 782 766 782 791 791 791 799 782 774 774 791 782 791 774 774 782 791 799 799 791 808 799 808 817 826 826 817 817 808 799 799 799 799 791 758 782 766 774 743 766 774 774 791 791 782 782 782 808 808 808 817 799 799 799 791 0 791 791 791 791 799 758 799 808 799 799 799 799 799 799 826 808 799 808 791 774 766 766 774 782 782 791 782 782 808 799 791 799 799 799 791 799 799 791 791 799 791 774 774 774 766 750 782 782 845 845 836 836 817 817 817 799 808 791 782 791 782 799 799 799 817 817 817 826 826 817 845 845 836 836 836 826 808 817 826 808 808 808 808 817 817 817 826 826 826 808 817 808 799 799 799 791 782 782 782 758 766 774 766 774 750 743 774 766 791 774 774 774 782 782 791 774 782 774 791 774 799 774 799 791 791 774 774 758 774 758 743 714 714 707 675 681 681 669 657 663 669 645 657 675 657 651 657 669 663 663 694 687 694 700 774 774 774 766 774 774 774 758 774 750 750 758 750 743 735 728 735 721 721 707 0 0 0 0 0
    0 0 0 0 0 0 0 0 0 0 0 0 0 0 0 0 0 0 0 0 0 0 0 0 0 0 0 0 0 0 0 0 0 0 0 0 0 0 0 0 0 0 0 0 0 0 0 0 0 0 0 0 0 0 0 0 0 0 0 0 0 0 0 0 0 0 0 0 0 774 766 758 750 766 758 743 766 774 766 758 766 774 758 774 799 766 743 766 774 774 782 791 774 758 766 774 766 774 766 758 774 782 791 791 782 791 791 799 808 808 808 799 808 808 791 799 791 791 774 743 774 758 766 735 758 766 766 782 791 774 774 774 799 799 799 799 782 782 791 782 791 774 782 782 774 782 750 782 791 782 791 791 799 799 791 817 799 791 799 782 766 758 758 766 782 791 791 782 791 799 799 791 791 791 791 782 791 791 782 791 799 782 774 766 766 743 735 750 750 836 817 817 826 799 799 799 791 799 782 782 791 774 791 791 791 817 808 817 826 826 826 845 836 836 826 836 826 799 808 808 799 799 808 808 808 817 817 817 826 817 808 808 799 791 791 791 782 782 774 774 750 758 758 758 766 743 743 766 774 782 766 774 774 782 782 791 774 774 766 774 766 782 750 791 766 774 766 774 750 774 758 743 0 707 707 669 681 681 669 657 663 669 639 657 675 657 645 657 669 663 663 694 681 694 700 750 758 750 750 766 766 766 750 758 750 750 750 750 743 728 728 728 721 714 707 0 0 0 0 0
    0 0 0 0 0 0 0 0 0 0 0 0 0 0 0 0 0 0 0 0 0 0 0 0 0 0 0 0 0 0 0 0 0 0 0 0 0 0 0 0 0 0 0 0 0 0 0 0 0 0 0 0 0 0 0 0 0 0 0 0 0 0 0 0 0 0 0 0 0 750 743 735 743 758 750 735 766 774 758 758 766 766 750 766 799 750 735 750 766 758 774 782 758 735 743 750 743 743 743 743 766 782 799 799 791 791 791 799 799 791 808 774 791 791 782 791 782 782 758 735 758 750 750 735 758 766 766 782 782 766 766 766 791 782 782 791 774 774 782 766 782 774 766 766 766 774 743 774 782 766 782 782 782 782 782 808 782 782 791 774 750 750 758 766 782 791 791 782 791 799 791 782 782 782 774 782 782 774 766 782 782 766 766 758 750 728 714 728 728 799 799 791 808 782 782 791 782 791 782 774 782 766 791 791 791 808 791 808 817 817 817 836 826 817 817 826 817 782 799 799 791 791 799 799 799 808 808 808 817 808 799 808 791 782 774 782 774 774 766 758 743 750 750 750 758 735 735 750 766 758 750 750 758 766 766 774 758 758 743 750 743 758 721 750 735 735 743 758 743 766 750 735 707 707 707 675 681 681 669 657 669 675 645 663 675 657 651 663 669 663 663 694 681 687 700 743 743 743 735 750 758 758 743 750 743 743 750 743 743 721 721 728 714 714 707 0 0 0 0 0
    0 0 0 0 0 0 0 0 0 0 0 0 0 0 0 0 0 0 0 0 0 0 0 0 0 0 0 0 0 0 0 0 0 0 0 0 0 0 0 0 0 0 0 0 0 0 0 0 0 0 0 0 0 0 0 0 0 0 0 0 0 0 0 0 0 0 0 0 0 743 735 735 735 743 743 735 758 766 750 750 758 758 750 766 791 743 735 750 758 758 774 774 750 728 728 735 728 728 728 728 750 766 799 791 782 791 782 782 791 774 799 750 782 782 774 782 0 0 0 0 750 743 743 728 750 758 758 774 774 758 758 758 782 774 774 774 766 766 774 758 774 766 766 758 758 758 743 766 766 758 774 774 774 774 774 808 774 782 791 766 750 758 758 766 782 791 782 774 791 791 774 774 774 766 766 774 774 758 758 774 766 750 750 743 735 721 707 714 721 750 758 766 791 766 766 782 774 782 774 774 782 766 782 782 782 799 774 791 799 799 808 808 808 799 799 808 799 758 782 782 782 791 791 791 791 799 808 808 808 808 799 808 799 791 774 774 766 766 758 750 743 750 750 750 750 735 735 743 758 735 728 728 743 750 743 743 743 735 728 735 728 735 700 721 714 707 728 743 735 750 735 728 700 700 700 675 681 681 669 663 669 675 645 663 675 657 651 663 669 663 657 694 681 687 700 735 743 735 735 750 750 750 735 743 743 743 743 743 735 721 721 728 721 714 707 0 0 0 0 0
    0 0 0 0 0 0 0 0 0 0 0 0 0 0 0 0 0 0 0 0 0 0 0 0 0 0 0 0 0 0 0 0 0 0 0 0 0 0 0 0 0 0 0 0 0 0 0 0 0 0 0 0 0 0 0 0 0 0 0 0 0 0 0 0 0 0 0 0 0 735 735 728 728 728 728 728 750 750 743 743 750 750 743 758 782 735 728 743 750 743 750 750 735 714 714 721 714 707 714 707 728 735 791 782 774 774 766 766 782 750 791 735 774 782 774 782 0 0 0 0 743 735 735 721 743 743 750 758 758 750 750 750 774 758 766 774 766 766 774 758 774 758 758 758 750 750 735 758 758 750 766 766 766 766 766 799 766 774 791 758 743 750 750 758 782 782 774 766 782 782 758 766 766 758 758 766 766 750 750 774 758 743 743 750 735 721 707 721 714 735 728 735 774 743 750 774 766 774 766 766 774 758 774 782 766 791 758 774 791 791 799 791 791 782 782 791 774 743 766 766 782 782 791 791 791 799 817 808 817 808 808 808 799 799 766 766 766 766 758 750 750 750 743 750 743 735 728 728 728 707 707 700 721 721 721 721 728 728 714 721 721 721 700 714 714 707 721 743 728 743 728 721 700 700 687 675 681 681 669 669 675 681 651 669 675 657 657 669 669 657 657 694 675 681 694 721 728 728 728 735 735 735 721 728 728 728 728 735 728 714 721 721 721 714 707 0 0 0 0 0
    0 0 0 0 0 0 0 0 0 0 0 0 0 0 0 0 0 0 0 0 0 0 0 0 0 0 0 0 0 0 0 0 0 0 0 0 0 0 0 0 0 0 0 0 0 0 0 0 0 0 0 0 0 0 0 0 0 0 0 0 0 0 0 0 0 0 0 0 0 721 721 721 721 721 721 728 743 743 735 735 743 743 735 743 766 728 728 743 743 735 743 728 721 0 0 700 694 694 700 694 0 0 791 774 750 758 750 735 758 721 766 728 735 758 750 758 0 0 0 0 0 728 721 714 728 735 735 743 743 743 743 743 766 750 758 766 766 766 766 758 766 750 750 743 743 743 728 750 743 743 750 750 758 758 758 799 758 766 782 750 728 743 735 750 774 766 758 758 774 774 750 758 766 750 750 758 758 743 743 758 743 735 735 750 743 735 721 728 714 735 721 728 758 735 743 766 758 766 758 766 766 750 766 766 750 774 743 766 782 782 791 774 774 766 774 782 758 735 766 758 782 791 791 791 791 799 817 817 826 808 808 799 791 791 750 758 758 758 750 743 750 750 743 750 735 728 721 721 721 700 694 694 707 707 707 714 721 721 707 714 707 707 700 700 707 700 707 721 721 728 721 714 694 694 694 681 687 687 675 675 681 681 657 675 675 657 657 669 669 657 657 694 675 681 694 714 721 721 721 728 728 728 721 714 721 721 721 728 721 714 721 721 721 714 714 0 0 0 0 0
    0 0 0 0 0 0 0 0 0 0 0 0 0 0 0 0 0 0 0 0 0 0 0 0 0 0 0 0 0 0 0 0 0 0 0 0 0 0 0 0 0 0 0 0 0 0 0 0 0 0 0 0 0 0 0 0 0 0 0 0 0 0 0 0 0 0 0 0 0 714 714 714 721 714 714 721 735 743 728 728 735 735 728 735 750 721 728 735 735 728 728 714 714 681 694 694 687 687 687 681 700 0 743 721 707 700 707 700 700 700 707 700 707 0 728 743 728 0 0 0 0 721 721 714 721 721 721 728 728 735 735 735 758 735 750 758 758 766 766 750 758 750 743 743 743 743 721 735 735 735 735 735 743 743 743 782 743 743 750 728 714 714 714 728 758 758 750 750 766 774 750 758 766 743 743 750 743 735 735 743 735 728 735 743 735 728 714 714 707 714 707 721 743 728 735 758 750 766 750 750 750 743 750 750 735 758 728 750 774 782 791 774 774 766 766 774 766 743 766 766 782 791 799 791 791 799 817 808 817 799 791 782 782 782 735 758 758 758 743 743 750 750 743 750 735 728 721 721 721 700 694 694 707 700 700 707 714 707 700 700 694 694 687 694 694 687 694 707 707 714 707 707 694 687 687 687 687 687 681 675 681 687 657 675 675 657 657 669 669 657 657 687 669 675 694 714 714 721 721 721 728 721 714 700 707 707 707 728 714 700 714 714 721 714 714 0 0 0 0 0
    0 0 0 0 0 0 0 0 0 0 0 0 0 0 0 0 0 0 0 0 0 0 0 0 0 0 0 0 0 0 0 0 0 0 0 0 0 0 0 0 0 0 0 0 0 0 0 0 0 0 0 0 0 0 0 0 0 0 0 0 0 0 0 0 0 0 0 0 0 707 707 707 707 707 700 714 721 728 721 728 728 728 728 735 743 721 721 728 728 721 721 700 700 669 681 687 681 681 681 675 687 687 707 700 687 687 687 687 687 687 687 694 687 0 0 728 721 0 0 714 0 721 714 714 714 714 714 714 714 721 721 728 735 721 728 743 743 750 758 750 750 743 743 735 743 735 721 728 728 721 728 728 735 735 728 750 721 714 714 707 694 700 700 714 735 743 743 750 766 766 750 758 766 743 735 743 735 728 728 735 728 721 735 743 728 728 714 707 694 700 700 707 721 721 728 750 743 758 750 750 743 735 743 735 728 735 714 735 758 774 782 774 774 766 774 782 774 750 766 774 791 799 799 791 791 791 799 782 791 774 750 743 750 750 721 750 758 750 743 735 750 750 743 750 728 721 721 721 714 694 687 687 694 687 687 694 694 687 687 694 681 681 681 687 687 681 681 694 687 694 694 700 687 681 687 694 694 694 681 681 681 687 663 675 669 657 657 669 669 657 657 687 663 669 694 700 707 707 714 721 721 721 714 700 707 700 700 721 714 700 714 714 721 714 714 0 0 0 0 0
    0 0 0 0 0 0 0 0 0 0 0 0 0 0 0 0 0 0 0 0 0 0 0 0 0 0 0 0 0 0 0 0 0 0 0 0 0 0 0 0 0 0 0 0 0 0 0 0 0 0 0 0 0 0 0 0 0 0 0 0 0 0 0 0 0 0 0 0 0 700 700 700 700 700 694 707 714 721 714 721 721 721 721 721 728 714 714 714 714 714 707 681 687 657 681 681 681 681 681 675 687 687 700 694 687 681 687 681 687 681 681 687 675 687 0 714 0 0 0 0 0 707 700 700 707 700 700 700 694 700 707 707 714 0 707 714 714 728 735 735 743 735 735 728 735 735 721 721 714 714 714 714 721 721 714 714 700 694 694 694 687 694 700 707 728 735 743 750 766 766 743 758 758 735 728 735 721 721 721 728 721 714 728 735 728 728 714 707 700 700 700 707 714 714 728 750 743 750 743 743 735 728 728 728 714 721 707 714 743 758 766 758 766 766 766 774 766 743 758 766 782 791 791 782 782 766 774 750 750 743 735 735 735 743 721 743 750 750 735 735 750 743 743 743 728 714 714 707 700 681 675 675 681 681 681 681 687 681 681 687 681 681 681 681 687 681 681 687 687 687 687 687 681 681 687 694 694 694 681 681 681 687 657 675 669 657 657 663 669 657 657 687 663 669 687 694 694 694 700 700 714 707 707 687 700 694 694 714 721 700 721 714 728 714 714 0 0 0 0 0
    0 0 0 0 0 0 0 0 0 0 0 0 0 0 0 0 0 0 0 0 0 0 0 0 0 0 0 0 0 0 0 0 0 0 0 0 0 0 0 0 0 0 0 0 0 0 0 0 0 0 0 0 0 0 0 0 0 0 0 0 0 0 0 0 0 0 0 0 0 694 700 700 700 694 694 700 700 700 707 707 700 707 700 700 707 694 694 694 694 700 694 669 687 651 675 681 681 681 681 0 0 0 0 694 694 687 687 681 681 681 675 681 669 675 687 694 0 0 0 694 687 694 694 687 694 687 687 687 681 687 687 694 700 687 700 700 700 714 728 728 728 728 728 721 735 728 721 714 707 707 707 707 714 707 700 694 700 681 687 687 687 694 700 700 721 728 735 750 758 758 735 758 750 728 728 728 714 714 714 721 707 707 721 728 721 721 707 700 694 694 700 700 707 707 721 743 735 750 735 728 721 714 714 714 700 700 694 700 728 743 758 743 750 758 758 774 750 743 750 750 774 782 774 766 750 735 743 728 735 728 721 721 728 735 721 743 743 743 728 735 750 743 735 743 721 714 707 707 700 681 675 675 681 675 681 675 681 669 669 681 675 675 681 681 687 675 681 687 681 681 681 681 681 675 687 694 694 694 681 681 681 681 651 669 663 645 651 663 657 645 651 681 663 663 681 681 681 681 687 687 687 687 687 675 675 675 675 687 700 694 714 707 721 707 707 0 0 0 0 0
    0 0 0 0 0 0 0 0 0 0 0 0 0 0 0 0 0 0 0 0 0 0 0 0 0 0 0 0 0 0 0 0 0 0 0 0 0 0 0 0 0 0 0 0 0 0 0 0 0 0 0 0 0 0 0 0 0 0 0 0 0 0 0 0 0 0 0 0 0 0 694 694 694 694 687 700 694 694 694 694 694 694 694 687 0 669 687 687 694 694 694 675 687 657 681 681 681 681 681 0 0 0 0 694 687 681 681 675 675 675 669 681 669 675 681 687 681 687 687 687 681 687 681 681 681 681 675 675 675 681 675 687 687 681 694 694 700 707 721 728 721 728 728 721 728 728 714 707 700 700 700 700 707 700 694 694 700 687 687 694 700 700 700 700 721 721 728 735 743 743 728 743 743 721 721 714 707 707 707 707 700 700 714 721 721 714 707 707 700 694 700 694 700 700 707 721 721 735 728 714 714 700 707 700 700 700 694 700 721 735 750 743 743 750 750 750 735 728 728 735 750 758 750 735 728 714 714 714 721 714 714 714 721 721 721 735 735 735 728 735 743 735 735 735 714 707 707 700 694 681 675 675 681 675 681 675 669 657 657 669 657 663 675 681 681 669 675 681 681 681 681 681 681 675 687 694 694 687 681 681 681 669 651 663 657 645 651 657 657 645 651 681 657 663 681 675 681 675 681 681 681 681 681 669 663 663 669 675 687 687 0 700 714 700 694 0 0 0 0 0
    0 0 0 0 0 0 0 0 0 0 0 0 0 0 0 0 0 0 0 0 0 0 0 0 0 0 0 0 0 0 0 0 0 0 0 0 0 0 0 0 0 0 0 0 0 0 0 0 0 0 0 0 0 0 0 0 0 0 0 0 0 0 0 0 0 0 0 0 0 694 694 694 694 687 687 694 687 694 694 694 687 694 700 687 0 0 687 0 687 694 700 681 694 657 687 687 687 687 687 0 0 0 0 687 681 681 675 675 675 675 663 675 669 675 681 687 687 687 687 687 681 687 681 681 681 675 675 675 675 681 675 681 687 681 687 687 694 700 714 721 707 714 721 707 721 721 707 694 694 694 694 694 700 694 694 694 700 687 694 700 707 700 700 700 707 707 714 721 721 721 714 728 728 714 707 700 700 700 700 700 694 694 707 721 714 707 707 700 700 694 700 687 700 694 707 707 707 721 714 700 700 694 700 700 694 700 694 700 721 728 743 735 728 743 735 735 728 728 721 721 735 743 735 721 714 700 700 700 707 707 700 700 707 707 714 728 728 728 721 728 735 728 728 728 714 707 700 700 694 681 681 681 681 675 681 675 663 651 651 657 645 651 657 663 675 663 675 681 675 675 675 681 681 669 687 687 687 681 675 675 675 663 645 663 651 639 651 657 651 645 651 675 651 657 675 675 675 675 681 681 675 675 675 663 657 657 663 675 687 0 0 681 700 687 681 0 0 0 0 0
    0 0 0 0 0 0 0 0 0 0 0 0 0 0 0 0 0 0 0 0 0 0 0 0 0 0 0 0 0 0 0 0 0 0 0 0 0 0 0 0 0 0 0 0 0 0 0 0 0 0 0 0 0 0 0 0 0 0 0 0 0 0 0 0 0 0 0 0 0 687 687 687 687 681 681 694 675 687 687 681 675 675 694 681 0 639 669 0 675 687 694 681 694 657 687 687 687 687 687 687 687 687 0 687 681 681 681 675 675 669 663 675 669 675 687 687 681 687 687 687 675 687 675 681 681 675 675 675 675 681 669 687 687 681 687 687 694 700 707 721 707 707 721 707 714 714 700 687 687 687 687 687 694 687 687 687 694 687 694 700 707 700 700 700 700 700 707 707 707 707 700 707 714 700 694 694 694 694 694 694 694 694 700 714 707 700 707 700 700 694 700 687 700 700 707 707 694 707 707 681 694 687 687 694 694 694 694 694 707 714 728 721 714 714 721 721 721 721 714 721 728 735 735 721 714 687 694 700 700 700 694 700 700 700 707 721 714 721 714 721 728 721 721 721 707 700 700 700 694 687 687 687 681 681 687 675 657 645 645 651 639 645 651 657 675 657 675 681 675 675 675 675 675 669 681 687 681 669 669 669 663 657 645 657 645 645 651 651 651 645 651 669 651 651 669 669 669 669 669 675 663 669 669 663 651 657 663 675 681 0 0 669 687 681 675 0 0 0 0 0
    0 0 0 0 0 0 0 0 0 0 0 0 0 0 0 0 0 0 0 0 0 0 0 0 0 0 0 0 0 0 0 0 0 0 0 0 0 0 0 0 0 0 0 0 0 0 0 0 0 0 0 0 0 0 0 0 0 0 0 0 0 0 0 0 0 0 0 0 0 681 687 687 687 675 675 687 657 675 681 651 639 634 663 651 657 623 634 629 657 669 675 669 687 651 687 687 687 687 694 687 694 687 707 687 681 681 681 675 675 669 663 675 669 675 681 681 681 681 681 681 669 681 675 675 675 675 675 669 675 681 669 681 681 681 687 681 694 700 707 714 707 707 714 700 707 707 694 681 687 687 681 681 687 687 681 687 694 687 694 694 707 700 700 700 700 700 700 700 700 694 694 694 694 687 687 687 687 687 687 687 687 687 700 700 700 700 700 694 700 694 700 694 700 694 700 694 687 694 694 669 681 675 681 687 687 694 687 687 700 700 714 700 694 700 707 714 721 714 707 714 721 728 728 714 707 675 687 694 694 694 694 694 694 694 700 707 707 707 700 707 714 714 714 714 707 700 700 700 700 687 694 694 687 681 687 669 651 645 645 645 634 639 645 651 675 651 669 675 675 675 669 675 669 663 681 681 681 663 663 663 663 651 651 651 645 639 651 651 651 639 645 663 645 645 663 663 663 663 663 669 657 669 663 651 645 645 657 669 681 675 0 663 681 675 663 0 0 0 0 0
    0 0 0 0 0 0 0 0 0 0 0 0 0 0 0 0 0 0 0 0 0 0 0 0 0 0 0 0 0 0 0 0 0 0 0 0 0 0 0 0 0 0 0 0 0 0 0 0 0 0 0 0 0 0 0 0 0 0 0 0 0 0 0 0 0 0 0 0 0 681 681 681 681 675 675 681 645 663 651 623 0 608 608 613 603 608 613 618 629 639 645 651 675 645 681 681 687 687 694 687 694 687 700 687 681 681 675 669 669 663 657 669 657 657 669 657 663 669 663 663 651 675 663 669 669 669 669 669 669 675 663 681 669 675 681 675 687 687 687 707 700 700 700 694 700 694 687 675 687 681 681 681 687 687 681 687 694 687 694 694 707 700 700 700 700 700 700 700 700 687 681 681 687 681 681 681 687 681 687 687 687 687 694 694 694 694 694 687 694 687 687 687 694 694 694 694 681 694 700 681 687 681 687 694 687 694 687 687 700 700 707 700 687 694 700 707 714 714 700 714 714 721 714 707 700 669 687 694 687 694 687 694 694 694 700 700 694 700 687 700 700 700 707 707 700 694 707 707 707 694 700 694 687 687 694 669 651 639 645 639 634 634 639 645 669 645 669 669 669 669 669 669 663 651 675 663 657 645 645 651 651 645 639 645 645 639 645 645 645 639 645 663 639 645 657 657 657 657 657 657 639 651 639 634 634 634 639 651 675 657 657 663 675 669 651 0 0 0 0 0
    0 0 0 0 0 0 0 0 0 0 0 0 0 0 0 0 0 0 0 0 0 0 0 0 0 0 0 0 0 0 0 0 0 0 0 0 0 0 0 0 0 0 0 0 0 0 0 0 0 0 0 0 0 0 0 0 0 0 0 0 0 0 0 0 0 0 0 0 0 675 681 681 681 669 669 675 634 639 623 603 598 593 588 588 593 598 603 618 629 629 629 639 663 639 675 681 687 687 687 687 687 687 700 687 681 675 675 663 651 645 639 645 634 623 645 634 629 639 634 634 634 657 645 657 657 663 657 663 663 675 657 681 657 669 669 663 675 663 645 687 694 694 700 687 694 694 681 675 687 681 681 681 687 681 681 687 694 687 694 694 707 707 707 707 700 700 700 694 700 687 681 681 687 687 687 681 687 681 687 681 681 687 687 694 694 687 694 687 694 681 681 687 694 687 694 687 681 694 700 681 687 687 687 694 694 694 694 694 700 700 700 700 687 694 700 700 707 707 694 707 707 714 707 700 700 669 681 687 687 687 687 687 687 687 700 694 681 687 681 687 687 687 694 694 694 687 707 707 707 700 700 694 694 687 694 669 651 639 645 639 634 634 634 639 675 645 669 669 669 669 663 657 651 645 663 645 639 629 634 645 639 639 639 645 639 639 645 645 639 634 639 651 639 645 651 651 651 651 651 645 629 634 629 629 629 629 634 645 669 657 651 651 657 645 634 0 0 0 0 0
    0 0 0 0 0 0 0 0 0 0 0 0 0 0 0 0 0 0 0 0 0 0 0 0 0 0 0 0 0 0 0 0 0 0 0 0 0 0 0 0 0 0 0 0 0 0 0 0 0 0 0 0 0 0 0 0 0 0 0 0 0 0 0 0 0 0 0 0 0 669 675 675 675 669 663 663 623 629 608 593 593 584 579 574 593 593 598 613 623 623 623 629 651 629 669 681 681 681 687 687 687 681 0 681 669 663 651 645 634 629 623 629 618 613 629 623 618 623 623 618 623 634 634 639 639 651 645 657 657 669 657 675 651 657 651 645 645 629 608 634 0 681 687 675 687 687 675 675 687 681 681 675 681 681 681 694 694 687 694 700 714 707 707 700 687 681 675 0 0 651 657 663 675 675 681 675 681 681 681 675 675 681 681 681 687 681 687 687 694 681 681 687 687 687 687 681 675 687 700 675 687 681 687 694 694 694 694 694 700 694 700 694 681 681 687 687 700 700 694 707 707 707 707 700 694 663 687 687 687 687 687 687 687 687 700 687 675 687 675 681 675 681 681 687 694 687 0 0 714 707 707 700 694 694 694 663 645 639 645 639 629 623 623 629 669 634 663 657 657 657 651 645 634 639 639 629 623 618 623 634 634 634 634 639 639 639 645 639 634 634 639 645 639 639 645 645 651 651 645 639 629 634 629 629 634 634 639 651 669 657 657 657 657 639 629 0 0 0 0 0
    0 0 0 0 0 0 0 0 0 0 0 0 0 0 0 0 0 0 0 0 0 0 0 0 0 0 0 0 0 0 0 0 0 0 0 0 0 0 0 0 0 0 0 0 0 0 0 0 0 0 0 0 0 0 0 0 0 0 0 0 0 0 0 0 0 0 0 0 0 663 663 669 669 657 657 657 623 623 608 584 584 579 574 570 588 588 588 608 613 613 618 623 634 623 663 675 669 675 681 681 675 663 0 645 0 629 629 623 623 618 618 613 613 608 618 613 608 613 613 608 613 623 623 629 634 639 639 651 657 663 651 669 645 645 634 629 0 603 588 598 0 651 669 663 675 681 663 675 681 675 675 675 681 675 675 694 687 669 687 694 700 681 687 675 645 634 0 0 0 623 623 629 639 651 669 663 675 669 675 669 669 669 675 669 675 675 681 681 687 675 681 687 687 687 681 675 663 669 687 657 681 675 681 687 694 694 687 687 694 694 694 687 675 663 681 681 694 694 687 700 700 700 700 700 694 663 687 687 681 681 687 687 681 687 700 687 669 681 675 675 675 675 675 681 687 687 714 721 721 714 707 707 700 694 694 657 634 634 634 634 623 618 623 629 657 629 645 639 639 645 639 634 629 629 629 618 618 613 623 629 629 634 639 639 634 639 645 639 629 629 634 634 634 639 639 645 645 651 639 639 629 634 629 634 634 639 639 651 669 657 663 663 657 639 629 0 0 0 0 0
    0 0 0 0 0 0 0 0 0 0 0 0 0 0 0 0 0 0 0 0 0 0 0 0 0 0 0 0 0 0 0 0 0 0 0 0 0 0 0 0 0 0 0 0 0 0 0 0 0 0 0 0 0 0 0 0 0 0 0 0 0 0 0 0 0 0 0 0 0 651 651 657 657 645 645 645 623 623 608 588 593 584 579 570 588 584 588 603 608 608 613 618 629 618 651 663 657 657 657 657 645 634 657 623 0 613 613 613 613 608 608 603 603 598 608 608 598 603 603 603 608 613 618 623 623 639 634 645 651 657 645 663 634 629 608 613 588 584 574 584 0 634 645 651 663 669 651 663 675 669 669 663 669 669 663 681 675 634 663 651 657 645 651 639 629 618 623 618 613 618 613 618 623 629 651 639 657 651 663 657 657 657 663 657 669 663 675 675 681 675 681 687 687 681 681 669 657 657 675 639 669 669 675 681 687 687 687 681 694 687 687 687 669 663 675 681 687 694 687 694 700 700 700 700 687 663 681 681 681 681 681 681 675 681 694 675 657 663 657 657 657 663 663 675 681 687 721 721 721 714 707 707 694 687 687 657 634 634 639 634 629 623 623 623 645 623 634 629 629 623 623 623 623 618 623 613 613 613 623 629 629 634 651 651 645 645 657 645 639 639 645 634 634 639 634 639 634 639 634 629 623 629 629 634 634 634 639 651 669 645 657 657 651 634 623 0 0 0 0 0
    0 0 0 0 0 0 0 0 0 0 0 0 0 0 0 0 0 0 0 0 0 0 0 0 0 0 0 0 0 0 0 0 0 0 0 0 0 0 0 0 0 0 0 0 0 0 0 0 0 0 0 0 0 0 0 0 0 0 0 0 0 0 0 0 0 0 0 0 0 639 645 645 645 639 639 634 623 618 608 588 593 584 584 574 588 588 588 603 608 608 613 613 618 618 639 645 639 639 634 634 634 629 634 613 603 603 608 608 608 603 603 598 598 593 603 603 593 598 603 598 603 0 0 618 618 634 634 639 639 651 639 651 623 618 588 593 579 574 570 579 0 623 629 639 645 657 639 651 669 663 657 651 657 651 645 663 657 623 639 629 629 629 623 623 618 613 618 613 608 613 603 613 613 618 634 623 634 634 645 639 645 645 651 645 657 651 669 669 675 663 675 681 675 669 669 663 645 639 651 629 651 651 663 669 675 675 675 669 681 675 681 675 663 657 675 675 694 687 687 694 700 700 700 700 687 663 681 681 681 675 675 675 669 681 687 669 639 645 639 634 639 639 639 657 675 687 721 721 721 714 707 700 694 687 687 657 634 634 639 634 629 623 623 618 634 623 623 618 618 613 613 613 613 613 613 608 613 613 618 623 629 639 645 645 634 645 651 639 634 639 639 639 639 639 634 634 629 629 618 618 613 618 618 623 629 629 629 634 645 623 629 623 613 608 603 0 0 0 0 0
    0 0 0 0 0 0 0 0 0 0 0 0 0 0 0 0 0 0 0 0 0 0 0 0 0 0 0 0 0 0 0 0 0 0 0 0 0 0 0 0 0 0 0 0 0 0 0 0 0 0 0 0 0 0 0 0 0 0 0 0 0 0 0 0 0 0 0 0 0 629 634 634 634 634 634 629 623 618 608 593 593 584 579 574 588 588 588 603 608 608 608 613 613 613 623 634 623 618 618 618 618 618 618 603 598 603 603 603 608 603 603 598 603 598 603 603 593 598 603 598 603 0 0 0 618 629 629 634 634 639 629 639 613 603 584 579 574 566 566 570 0 608 613 629 634 639 634 639 657 645 645 634 639 639 634 645 645 618 623 618 618 618 613 613 608 603 608 608 603 603 598 608 603 608 618 613 623 623 634 634 639 634 639 639 645 645 663 657 663 651 657 669 657 639 639 634 629 623 623 618 629 629 639 645 651 645 645 639 657 645 645 645 639 639 657 669 681 675 681 675 687 681 681 687 675 651 681 675 675 669 669 669 663 675 681 639 623 623 618 618 618 613 618 623 669 687 721 728 721 714 707 700 694 681 681 651 634 634 634 629 623 613 618 613 623 613 613 608 613 608 613 608 613 608 608 608 608 613 618 623 629 639 639 639 634 645 645 639 634 639 639 639 645 645 634 629 618 618 613 613 613 613 613 623 623 629 629 623 629 613 608 603 593 593 588 0 0 0 0 0
    0 0 0 0 0 0 0 0 0 0 0 0 0 0 0 0 0 0 0 0 0 0 0 0 0 0 0 0 0 0 0 0 0 0 0 0 0 0 0 0 0 0 0 0 0 0 0 0 0 0 0 0 0 0 0 0 0 0 0 0 0 0 0 0 0 0 0 0 0 613 623 623 629 629 629 629 618 613 598 588 593 579 579 574 588 593 593 603 608 608 608 613 613 608 618 618 613 608 603 603 603 603 603 593 593 598 603 603 608 603 603 603 603 603 608 608 593 598 603 603 603 0 0 0 0 623 618 623 623 629 623 623 608 598 579 579 579 570 570 570 570 598 603 613 618 623 623 618 634 629 629 623 623 623 623 629 634 613 618 608 613 608 608 608 603 598 603 603 598 598 593 598 598 603 603 603 608 613 623 623 629 629 634 639 645 639 657 651 657 639 645 657 639 629 629 623 618 618 618 613 618 618 629 629 629 623 623 618 629 623 623 618 623 623 639 651 663 651 663 651 657 663 657 669 651 639 675 663 669 663 657 657 645 651 651 613 608 603 603 603 603 598 608 603 645 681 721 728 721 714 700 694 687 675 681 645 629 629 629 623 618 608 613 608 618 608 608 608 613 608 613 608 613 608 603 603 608 608 613 618 623 623 608 608 608 618 629 629 629 629 645 651 651 657 639 629 618 613 608 608 608 608 613 618 623 629 623 618 618 608 598 598 588 588 584 0 0 0 0 0
    0 0 0 0 0 0 0 0 0 0 0 0 0 0 0 0 0 0 0 0 0 0 0 0 0 0 0 0 0 0 0 0 0 0 0 0 0 0 0 0 0 0 0 0 0 0 0 0 0 0 0 0 0 0 0 0 0 0 0 0 0 0 0 0 0 0 0 0 0 613 618 623 623 629 629 629 618 613 598 588 588 579 579 579 588 593 593 603 608 608 608 613 613 608 608 608 598 593 593 593 588 593 588 584 584 598 598 603 603 603 603 603 603 603 608 608 588 598 603 603 603 0 0 0 0 618 613 618 618 623 618 618 608 603 588 588 588 584 579 579 579 598 598 608 613 618 618 613 623 618 618 613 613 613 613 613 623 608 613 608 608 608 603 608 603 598 598 598 593 593 588 588 588 593 588 598 603 603 618 618 623 623 629 634 639 634 657 639 645 634 639 639 634 618 618 618 608 608 608 603 608 613 623 618 623 613 618 613 618 613 613 608 618 618 629 639 657 645 657 639 645 651 645 657 639 634 663 645 663 651 645 645 629 623 618 603 598 593 593 593 593 593 598 598 618 663 728 728 721 714 694 694 687 669 675 639 623 623 623 618 613 608 608 603 613 608 608 603 608 608 613 613 613 603 598 598 603 603 608 608 613 608 593 588 584 598 613 613 618 623 645 657 657 657 639 634 618 608 608 603 608 608 613 623 623 634 629 623 618 608 593 593 584 588 588 0 0 0 0 0
    0 0 0 0 0 0 0 0 0 0 0 0 0 0 0 0 0 0 0 0 0 0 0 0 0 0 0 0 0 0 0 0 0 0 0 0 0 0 0 0 0 0 0 0 0 0 0 0 0 0 0 0 0 0 0 0 0 0 0 0 0 0 0 0 0 0 0 0 0 613 618 623 623 623 629 623 623 618 608 598 598 584 584 584 593 593 598 603 603 603 608 608 608 603 608 608 593 588 588 588 579 584 584 574 579 593 593 598 598 598 598 603 603 608 608 608 588 598 603 603 603 0 0 0 603 618 608 613 613 618 618 618 608 603 593 593 593 588 584 584 584 598 598 608 613 618 618 603 613 613 608 608 608 608 603 603 613 603 603 603 608 603 603 603 598 598 598 593 588 584 579 574 579 584 574 588 593 593 613 613 618 618 623 629 629 634 651 629 639 623 629 629 623 613 613 613 603 603 603 603 603 608 618 613 618 608 613 608 613 608 608 608 613 618 623 629 645 634 645 634 634 634 634 639 634 629 645 634 645 639 634 634 623 613 608 598 598 588 593 593 588 588 598 598 608 613 721 721 714 707 681 681 681 657 663 634 618 618 618 613 608 603 603 598 608 608 603 603 608 608 613 613 613 598 593 593 598 593 598 598 603 593 579 579 570 574 593 603 613 0 634 645 645 651 634 634 618 608 608 603 608 613 618 623 623 634 629 618 613 593 584 584 579 588 588 0 0 0 0 0
    0 0 0 0 0 0 0 0 0 0 0 0 0 0 0 0 0 0 0 0 0 0 0 0 0 0 0 0 0 0 0 0 0 0 0 0 0 0 0 0 0 0 0 0 0 0 0 0 0 0 0 0 0 0 0 0 0 0 0 0 0 0 0 0 0 0 0 0 0 623 623 629 629 629 629 629 629 623 613 603 603 593 593 588 593 588 593 603 603 603 603 603 603 603 608 608 588 588 588 588 579 588 584 570 579 593 598 598 598 598 598 603 603 608 608 608 584 598 603 603 603 603 598 603 598 618 608 608 613 613 613 613 608 608 598 593 593 588 593 588 588 0 603 618 618 623 618 598 608 608 603 598 598 603 598 598 608 598 603 603 608 603 603 603 598 598 593 588 584 579 579 570 570 579 570 584 588 584 608 608 613 618 623 623 623 629 645 623 634 618 618 618 613 603 603 603 598 598 598 598 603 603 613 608 608 603 603 598 608 603 608 603 608 613 618 623 639 629 634 623 623 629 623 623 623 618 629 623 634 629 623 623 613 603 603 593 598 584 593 593 593 593 603 598 608 608 700 714 707 694 663 663 663 634 639 629 613 613 613 603 603 598 598 598 603 608 603 603 608 608 608 608 608 593 579 584 588 588 584 579 588 579 570 566 561 557 570 588 598 603 618 634 634 634 629 629 618 608 608 603 613 618 623 629 629 639 623 613 608 579 570 579 574 584 584 0 0 0 0 0
    0 0 0 0 0 0 0 0 0 0 0 0 0 0 0 0 0 0 0 0 0 0 0 0 0 0 0 0 0 0 0 0 0 0 0 0 0 0 0 0 0 0 0 0 0 0 0 0 0 0 0 0 0 0 0 0 0 0 0 0 0 0 0 0 0 0 0 0 0 629 629 629 634 629 629 629 623 623 613 603 598 588 593 588 593 584 593 598 603 598 603 603 603 603 613 608 598 593 593 593 588 593 588 579 584 593 598 603 598 603 598 603 603 613 613 608 584 598 603 603 598 598 598 598 598 618 608 608 608 608 608 608 608 608 598 598 598 593 598 598 0 0 608 618 613 623 618 593 603 603 598 593 593 598 593 593 613 603 608 603 608 608 608 608 603 603 598 593 588 584 579 574 570 579 574 584 588 579 603 608 613 613 618 623 623 623 645 623 629 618 618 613 608 593 598 598 598 593 598 593 598 598 603 603 598 593 593 584 598 598 603 603 603 608 618 623 634 623 629 618 623 623 623 618 613 613 618 613 618 613 608 608 603 593 593 588 593 584 593 593 593 593 603 598 603 603 645 687 675 657 634 634 634 623 629 623 608 608 613 598 603 603 603 603 603 608 603 603 613 608 608 603 598 584 566 570 570 574 570 566 574 566 566 561 557 557 561 574 584 588 603 618 618 618 613 618 603 598 598 593 598 608 613 618 618 629 613 579 588 557 561 570 570 579 579 0 0 0 0 0
    0 0 0 0 0 0 0 0 0 0 0 0 0 0 0 0 0 0 0 0 0 0 0 0 0 0 0 0 0 0 0 0 0 0 0 0 0 0 0 0 0 0 0 0 0 0 0 0 0 0 0 0 0 0 0 0 0 0 0 0 0 0 0 0 0 0 0 0 0 629 623 629 634 629 623 623 618 618 613 603 598 593 593 588 593 584 593 598 598 598 603 603 603 603 618 608 603 598 603 603 593 598 598 588 593 598 608 608 603 603 603 608 608 613 613 613 584 598 603 603 603 598 598 598 593 0 608 603 608 603 608 608 608 608 603 603 603 603 603 603 603 0 608 618 613 618 613 584 598 598 598 593 593 593 593 593 613 608 608 608 608 613 613 613 603 603 598 598 588 588 579 574 570 579 570 584 584 574 598 603 608 613 618 623 623 623 639 623 629 618 613 603 598 579 593 593 598 593 598 593 598 593 603 598 593 584 588 579 598 598 603 603 603 608 613 618 634 623 623 618 618 618 618 618 613 608 608 603 0 603 598 598 593 584 588 588 593 579 588 593 593 593 598 598 603 598 629 651 634 623 618 618 618 613 629 618 608 608 613 593 603 603 603 603 603 603 603 603 613 603 603 603 588 579 557 561 561 566 557 561 566 561 561 557 557 557 557 566 574 574 593 598 598 598 603 603 593 579 579 570 570 579 584 593 584 588 579 549 570 553 557 566 566 574 574 0 0 0 0 0
    0 0 0 0 0 0 0 0 0 0 0 0 0 0 0 0 0 0 0 0 0 0 0 0 0 0 0 0 0 0 0 0 0 0 0 0 0 0 0 0 0 0 0 0 0 0 0 0 0 0 0 0 0 0 0 0 0 0 0 0 0 0 0 0 0 0 0 0 0 629 623 629 634 629 623 618 613 613 608 598 598 588 593 593 593 584 598 598 598 598 598 603 603 603 613 603 593 593 598 603 593 603 598 598 598 608 618 613 608 608 603 608 608 618 618 613 584 603 603 603 603 603 598 598 593 613 603 603 603 603 603 608 608 608 608 608 608 608 608 608 603 608 608 618 613 613 613 579 598 598 598 593 593 598 598 598 618 608 608 608 608 613 608 608 603 603 598 593 588 588 579 574 574 579 570 584 584 574 598 603 608 608 613 618 623 623 639 623 629 618 613 608 603 579 593 593 598 593 598 588 598 593 603 598 593 584 588 579 593 598 603 603 603 608 613 618 629 623 623 618 618 618 618 618 608 603 603 598 0 598 593 593 588 579 584 588 593 579 588 593 593 593 598 598 603 598 613 613 608 608 603 603 603 598 608 608 598 598 608 574 598 598 598 598 603 603 603 598 613 603 603 603 579 570 553 557 561 566 557 561 570 566 561 561 561 561 557 566 570 570 584 570 574 570 584 579 566 566 557 561 557 561 561 566 561 561 557 545 566 553 557 566 566 574 574 0 0 0 0 0
    0 0 0 0 0 0 0 0 0 0 0 0 0 0 0 0 0 0 0 0 0 0 0 0 0 0 0 0 0 0 0 0 0 0 0 0 0 0 0 0 0 0 0 0 0 0 0 0 0 0 0 0 0 0 0 0 0 0 0 0 0 0 0 0 0 0 0 0 0 623 623 623 629 623 613 603 603 608 603 593 593 588 588 593 593 579 598 598 598 598 598 598 598 603 608 598 584 584 588 598 588 598 598 598 598 608 0 618 0 0 608 613 608 618 618 613 584 603 603 603 603 603 598 598 588 608 598 593 598 593 603 608 603 613 608 608 608 608 608 608 603 608 608 613 613 613 613 579 598 598 598 593 593 598 598 593 618 608 608 608 608 613 608 613 603 603 593 593 593 588 579 574 574 584 574 584 588 574 598 603 608 608 613 618 618 623 639 623 629 623 618 613 608 579 593 593 598 593 598 593 598 598 603 598 598 588 588 579 593 593 603 598 603 603 608 613 629 618 623 618 618 618 618 618 608 603 598 0 0 593 593 593 593 579 584 588 593 584 593 593 593 593 598 603 603 593 608 598 598 593 593 588 593 588 593 593 584 588 593 561 593 598 598 598 603 603 603 598 608 603 598 598 570 570 553 557 557 561 557 557 566 561 561 557 561 561 557 561 566 561 566 553 557 557 561 561 553 553 553 553 553 553 0 553 553 557 553 541 561 549 557 566 570 574 574 0 0 0 0 0
    0 0 0 0 0 0 0 0 0 0 0 0 0 0 0 0 0 0 0 0 0 0 0 0 0 0 0 0 0 0 0 0 0 0 0 0 0 0 0 0 0 0 0 0 0 0 0 0 0 0 0 0 0 0 0 0 0 0 0 0 0 0 0 0 0 0 0 0 0 618 623 623 629 613 598 588 588 593 584 561 561 566 574 584 579 566 598 598 598 598 598 603 603 603 613 598 579 579 593 603 584 588 593 593 0 0 0 0 603 613 608 608 608 613 618 613 584 603 603 603 603 598 598 593 588 608 593 588 593 593 598 603 603 608 608 613 613 613 608 608 0 0 608 0 608 0 608 584 598 598 598 598 593 598 598 598 613 613 608 608 613 618 613 613 603 603 593 598 593 588 579 579 584 588 584 588 593 579 603 603 608 613 613 618 618 623 639 629 634 629 623 618 608 579 593 593 598 598 598 598 603 603 608 603 603 593 593 584 598 593 598 603 603 603 608 613 623 618 623 618 613 618 618 618 603 598 598 0 0 598 593 593 593 588 584 593 593 584 593 593 598 598 598 603 603 598 608 598 598 593 593 593 593 593 598 593 588 588 598 557 593 598 598 598 603 603 603 598 608 598 593 593 570 574 557 557 557 557 557 557 561 561 557 553 557 557 557 561 561 557 557 549 553 553 557 553 553 553 553 557 561 0 0 0 0 570 566 537 561 549 557 566 566 574 574 0 0 0 0 0
    0 0 0 0 0 0 0 0 0 0 0 0 0 0 0 0 0 0 0 0 0 0 0 0 0 0 0 0 0 0 0 0 0 0 0 0 0 0 0 0 0 0 0 0 0 0 0 0 0 0 0 0 0 0 0 0 0 0 0 0 0 0 0 0 0 0 0 0 0 618 618 623 623 603 598 584 588 593 574 545 0 0 0 0 566 553 593 593 598 593 593 593 598 598 613 593 579 574 0 0 0 0 0 0 0 0 0 0 0 0 603 603 598 608 613 608 579 603 598 603 603 598 598 598 588 608 588 579 584 588 0 603 0 0 0 618 618 613 0 603 0 0 0 0 0 0 0 0 0 0 603 598 598 598 598 598 613 613 613 613 613 623 623 618 608 608 598 593 588 588 584 579 584 598 593 598 598 584 608 608 608 613 613 618 618 623 639 623 634 629 623 618 613 588 598 593 598 603 603 603 608 608 608 608 608 598 593 584 598 598 603 603 603 603 608 613 623 618 618 613 613 613 613 618 603 603 598 0 0 603 603 603 603 603 588 598 598 588 598 598 598 598 603 608 603 603 608 603 598 593 598 598 598 593 603 598 593 593 598 557 593 598 598 598 603 603 603 598 608 598 588 593 570 574 561 561 561 557 557 557 561 561 557 553 557 557 557 557 557 553 549 545 553 549 553 553 553 553 553 561 574 566 0 553 584 588 584 545 561 549 557 561 566 570 570 0 0 0 0 0
    0 0 0 0 0 0 0 0 0 0 0 0 0 0 0 0 0 0 0 0 0 0 0 0 0 0 0 0 0 0 0 0 0 0 0 0 0 0 0 0 0 0 0 0 0 0 0 0 0 0 0 0 0 0 0 0 0 0 0 0 0 0 0 0 0 0 0 0 0 613 613 613 613 584 566 0 0 0 0 525 497 0 0 0 545 0 574 584 588 584 584 584 588 593 608 579 0 0 0 0 0 0 0 0 0 0 0 0 0 0 598 593 584 588 588 593 570 598 593 598 598 598 598 598 593 608 584 574 584 0 0 0 0 139 0 0 618 613 608 603 0 0 0 0 0 0 0 0 0 0 598 598 598 598 603 603 613 613 0 613 613 623 623 618 0 608 598 598 588 588 584 0 0 603 598 603 603 588 613 608 608 613 613 618 618 623 639 629 634 634 623 613 0 593 598 598 603 608 608 0 613 613 613 613 608 598 593 588 603 598 603 603 603 608 608 613 618 613 618 613 608 613 613 613 603 603 598 598 603 603 598 603 603 608 584 598 598 588 598 603 603 603 603 608 608 603 608 603 598 593 598 598 598 593 603 598 598 598 598 557 593 598 598 598 598 603 598 593 608 593 584 584 566 570 557 561 561 553 557 557 557 561 553 553 557 557 557 553 553 553 549 545 553 549 553 553 553 553 557 566 579 570 584 561 579 588 584 553 561 549 557 557 557 561 561 0 0 0 0 0
    0 0 0 0 0 0 0 0 0 0 0 0 0 0 0 0 0 0 0 0 0 0 0 0 0 0 0 0 0 0 0 0 0 0 0 0 0 0 0 0 0 0 0 0 0 0 0 0 0 0 0 0 0 0 0 0 0 0 0 0 0 0 0 0 0 0 0 0 0 608 608 603 0 0 0 0 0 0 521 511 500 500 511 518 529 514 557 566 579 574 579 579 579 584 603 557 0 0 0 0 0 0 0 0 0 0 0 0 0 0 574 570 557 557 553 574 557 593 588 588 593 598 598 598 593 603 570 553 561 0 0 0 0 0 0 0 613 608 603 0 0 0 0 0 0 0 0 0 0 0 0 598 598 593 603 603 618 618 629 623 623 634 629 0 0 0 0 603 593 593 588 0 0 608 603 603 603 593 613 608 608 613 613 613 618 623 634 629 634 639 629 0 0 0 0 0 0 0 0 0 0 613 613 613 603 593 588 584 598 593 598 603 603 603 603 608 613 608 613 608 603 608 608 613 598 603 603 603 603 608 603 603 603 613 584 598 598 593 603 608 608 603 608 608 608 603 608 603 598 588 593 598 598 593 603 598 603 598 603 557 598 598 598 603 603 603 603 593 608 593 579 579 566 574 561 561 561 557 557 557 557 561 557 553 561 561 557 553 553 553 549 549 553 549 553 553 553 557 557 566 574 561 570 549 561 574 579 553 557 549 557 553 553 557 557 0 0 0 0 0
    0 0 0 0 0 0 0 0 0 0 0 0 0 0 0 0 0 0 0 0 0 0 0 0 0 0 0 0 0 0 0 0 0 0 0 0 0 0 0 0 0 0 0 0 0 0 0 0 0 0 0 0 0 0 0 0 0 0 0 0 0 0 0 0 0 0 0 0 0 545 557 0 0 0 0 514 525 521 518 514 507 511 514 518 529 511 0 553 566 561 566 561 566 566 588 541 514 514 529 525 0 0 0 0 0 0 0 0 0 0 0 549 537 541 537 545 549 579 579 574 579 588 593 588 584 593 549 537 541 0 0 0 0 0 0 593 608 603 593 588 0 0 0 0 0 0 545 0 574 574 579 588 593 593 603 613 623 634 657 645 639 645 634 0 0 0 0 0 584 593 588 0 598 618 603 603 603 593 613 608 608 613 613 613 618 623 634 623 629 639 639 663 0 0 0 0 0 0 0 0 0 618 613 608 603 593 588 588 598 588 593 603 603 603 603 608 613 603 608 608 603 608 613 618 603 603 608 608 608 613 603 603 603 613 588 598 593 593 603 608 608 603 603 608 608 603 608 603 598 593 598 608 608 603 608 603 608 598 598 557 593 598 598 603 598 603 603 598 608 593 574 574 566 574 557 553 553 545 549 553 549 553 545 541 549 553 549 545 545 545 541 545 553 553 553 553 553 557 557 566 570 561 0 549 557 0 0 0 561 553 557 545 545 549 545 0 0 0 0 0
    0 0 0 0 0 0 0 0 0 0 0 0 0 0 0 0 0 0 0 0 0 0 0 0 0 0 0 0 0 0 0 0 0 0 0 0 0 0 0 0 0 0 0 0 0 0 0 0 0 0 0 0 0 0 0 0 0 0 0 0 0 0 0 0 0 0 0 0 0 529 529 533 0 525 529 514 525 521 521 518 511 514 518 521 529 511 521 541 553 545 545 545 0 0 553 525 504 504 518 518 0 0 0 0 0 0 0 0 0 0 0 537 521 529 529 529 533 557 561 553 549 570 574 570 566 566 537 521 518 0 0 0 0 0 0 0 0 593 584 570 0 0 0 0 0 545 541 533 561 561 566 574 579 584 593 613 618 623 0 651 651 657 634 0 0 0 0 574 553 566 566 570 0 618 598 588 598 588 608 603 603 603 603 613 613 618 629 618 623 634 639 669 669 618 0 0 0 0 0 0 623 618 613 608 603 593 584 588 593 584 593 598 598 598 598 603 608 598 608 608 603 608 613 623 608 603 613 613 613 613 603 608 608 613 588 593 584 593 598 608 608 603 603 608 608 603 603 603 598 588 603 608 608 603 608 598 603 598 598 0 593 598 598 598 603 603 603 598 613 598 579 579 570 570 557 553 553 545 545 549 545 549 541 537 541 541 541 537 541 541 537 545 549 549 553 553 553 553 553 561 561 553 557 537 537 0 0 537 541 541 545 533 537 541 537 0 0 0 0 0
    0 0 0 0 0 0 0 0 0 0 0 0 0 0 0 0 0 0 0 0 0 0 0 0 0 0 0 0 0 0 0 0 0 0 0 0 0 0 0 0 0 0 0 0 0 0 0 0 0 0 0 0 0 0 0 0 0 0 0 0 0 0 0 0 0 0 0 0 0 521 518 521 525 514 518 504 518 518 518 514 511 514 518 518 525 511 507 518 533 525 514 514 507 504 514 500 493 497 507 511 0 0 0 0 0 0 0 0 0 0 529 529 514 525 521 521 525 537 545 537 533 545 545 545 549 549 529 518 511 0 0 0 0 0 0 0 0 561 557 545 0 0 557 0 545 541 533 521 549 549 549 553 557 557 561 0 608 608 0 0 0 675 634 0 0 0 0 541 529 533 537 0 529 545 557 553 579 574 603 598 598 598 598 603 608 613 618 608 613 608 618 0 639 623 0 0 0 0 0 0 623 618 608 603 593 579 566 579 588 574 584 593 593 593 588 593 584 553 570 570 561 566 579 608 588 598 608 608 603 608 593 603 598 603 584 588 579 598 603 613 608 603 603 608 608 603 598 598 588 574 593 598 603 593 0 0 574 561 0 0 588 593 598 598 603 608 608 603 618 603 584 579 574 574 561 553 553 545 549 553 549 549 533 533 537 537 533 525 533 537 533 0 549 549 553 553 553 553 549 557 557 549 549 529 521 525 529 525 529 533 537 529 0 0 0 0 0 0 0 0
    0 0 0 0 0 0 0 0 0 0 0 0 0 0 0 0 0 0 0 0 0 0 0 0 0 0 0 0 0 0 0 0 0 0 0 0 0 0 0 0 0 0 0 0 0 0 0 0 0 0 0 0 0 0 0 0 0 0 0 0 0 0 0 0 0 0 0 0 0 514 511 518 521 511 514 500 511 518 514 514 511 514 518 514 521 511 500 500 507 507 497 500 497 497 497 497 497 497 511 511 507 500 507 0 0 0 0 0 0 0 525 525 511 521 521 518 521 529 529 525 525 537 533 529 533 537 525 518 0 0 0 525 518 0 514 521 529 545 541 533 521 553 545 533 533 533 525 514 537 537 537 537 537 541 537 0 588 545 0 0 0 0 0 0 0 529 541 537 521 0 0 0 518 525 533 529 537 549 584 588 584 584 584 588 593 593 603 584 584 566 570 0 0 0 0 0 0 0 0 0 618 608 603 588 561 549 541 545 557 549 561 570 584 574 566 566 545 529 529 529 529 529 533 533 533 579 598 598 593 593 574 593 588 593 574 584 566 603 603 618 608 603 603 603 603 603 598 588 579 561 588 598 603 593 0 566 566 549 557 541 579 593 598 598 603 608 608 603 618 603 588 584 579 574 566 557 553 545 541 541 533 533 525 525 525 525 521 525 525 533 529 545 549 545 549 549 553 549 549 553 553 541 537 518 514 518 521 518 521 525 529 525 0 0 0 0 0 0 0 0
    0 0 0 0 0 0 0 0 0 0 0 0 0 0 0 0 0 0 0 0 0 0 0 0 0 0 0 0 0 0 0 0 0 0 0 0 0 0 0 0 0 0 0 0 0 0 0 0 0 0 0 0 0 0 0 0 0 0 0 0 0 0 0 0 0 0 0 0 0 514 511 0 0 504 514 504 514 518 514 514 511 514 518 518 521 514 500 497 504 507 500 504 504 504 500 500 504 507 514 511 507 500 511 514 0 0 525 0 0 521 525 525 511 521 521 518 521 525 521 521 518 529 521 521 529 529 521 518 0 0 0 525 518 514 514 521 521 537 533 525 514 541 541 521 521 525 514 507 529 529 529 529 529 529 529 0 545 533 0 0 0 0 0 0 0 525 533 529 518 521 0 0 518 521 525 521 529 537 537 553 557 557 557 557 561 557 561 553 545 541 537 541 0 0 0 0 0 0 0 623 608 593 579 545 537 533 529 529 537 533 541 545 553 549 549 545 533 521 521 521 525 525 525 525 521 557 593 593 584 570 561 574 574 579 561 566 549 566 593 613 603 598 593 598 598 598 588 579 566 549 570 574 588 579 561 545 533 529 533 529 566 584 588 593 593 603 608 603 613 603 588 584 574 574 561 557 549 537 533 533 521 525 514 514 514 514 518 525 525 533 525 541 545 545 549 545 549 549 545 549 545 537 529 511 511 511 514 511 514 518 521 521 533 529 529 0 0 0 0 0
    0 0 0 0 0 0 0 0 0 0 0 0 0 0 0 0 0 0 0 0 0 0 0 0 0 0 0 0 0 0 0 0 0 0 0 0 0 0 0 0 0 0 0 0 0 0 0 0 0 0 0 0 0 0 0 0 0 0 0 0 0 0 0 0 0 0 0 0 0 514 511 514 514 500 511 500 511 514 514 514 514 518 521 518 525 521 514 504 507 511 504 507 507 504 497 500 511 514 518 514 511 504 514 518 521 521 525 514 518 521 525 525 511 521 521 518 521 525 521 521 518 529 521 521 525 529 521 521 0 0 0 525 521 518 518 525 525 533 533 529 521 533 529 514 514 521 511 507 525 525 525 525 525 525 525 533 537 525 0 0 0 0 0 0 0 521 525 521 511 511 511 507 511 518 518 518 521 529 525 533 537 541 537 537 537 537 537 541 525 529 521 529 529 525 0 0 0 0 629 613 584 549 545 533 529 525 521 525 529 529 533 533 537 533 533 537 521 518 518 518 521 518 521 521 518 0 553 574 561 549 549 553 553 553 545 545 533 533 561 598 588 574 566 561 570 584 574 557 557 541 549 545 557 553 541 533 525 518 518 518 549 570 574 579 584 593 598 603 608 598 574 570 566 561 553 549 545 533 525 529 511 518 511 511 511 511 518 521 521 533 525 541 545 545 545 541 545 545 541 545 537 529 518 507 507 511 511 511 514 518 518 521 529 525 521 0 0 0 0 0
    0 0 0 0 0 0 0 0 0 0 0 0 0 0 0 0 0 0 0 0 0 0 0 0 0 0 0 0 0 0 0 0 0 0 0 0 0 0 0 0 0 0 0 0 0 0 0 0 0 0 0 0 0 0 0 0 0 0 0 0 0 0 0 0 0 0 0 0 0 514 511 511 511 497 511 500 507 514 514 514 514 518 525 518 525 525 521 518 514 511 511 514 518 511 504 507 518 518 521 518 518 511 521 525 525 525 529 518 521 525 525 525 514 521 521 518 521 521 521 518 518 529 518 518 521 525 518 521 518 521 518 525 518 518 518 525 521 533 529 529 525 533 529 514 514 521 511 507 521 521 521 521 521 525 525 529 533 525 525 525 529 533 0 0 0 518 518 518 507 511 511 507 511 514 514 514 521 525 521 529 529 533 521 529 529 521 529 529 518 521 514 525 521 521 525 0 0 0 0 579 545 529 533 529 521 521 521 521 521 525 525 525 525 525 521 525 514 511 514 514 518 518 518 518 514 529 533 541 545 533 537 0 0 537 533 533 525 521 533 529 545 537 533 533 537 545 549 541 545 533 541 537 541 537 533 525 518 514 514 511 533 553 557 561 566 579 588 593 598 579 553 553 553 549 545 541 537 529 521 521 504 514 507 511 511 511 514 521 521 533 525 541 541 537 541 537 533 533 529 533 521 518 504 500 504 507 507 507 511 518 514 521 529 521 521 0 0 0 0 0
    0 0 0 0 0 0 0 0 0 0 0 0 0 0 0 0 0 0 0 0 0 0 0 0 0 0 0 0 0 0 0 0 0 0 0 0 0 0 0 0 0 0 0 0 0 0 0 0 0 0 0 0 0 0 0 0 0 0 0 0 0 0 0 0 0 0 0 0 0 514 511 511 511 500 514 504 507 514 514 514 514 518 525 518 525 529 521 521 514 514 518 518 521 518 514 514 518 521 525 521 521 518 521 529 529 529 533 525 525 525 525 525 514 525 525 521 521 521 518 521 518 529 518 518 521 525 518 521 518 525 521 525 518 521 521 525 521 533 529 529 525 533 533 518 518 525 514 507 521 521 521 521 521 525 521 525 533 525 525 525 529 529 529 0 511 521 518 518 507 514 511 511 511 518 514 514 521 525 521 525 529 529 518 525 521 518 525 525 514 521 514 525 521 521 525 521 521 533 529 541 533 518 525 525 521 521 521 521 521 521 525 525 521 521 518 518 507 507 514 514 518 514 514 514 514 525 529 529 533 521 533 0 0 529 529 529 521 521 529 518 529 521 521 521 521 525 533 533 537 533 537 529 533 533 529 521 518 511 514 511 521 533 537 541 549 561 574 584 584 557 541 541 545 541 537 537 533 525 518 521 507 514 507 511 511 511 518 529 529 537 529 541 0 0 537 529 525 518 511 514 504 511 500 500 507 504 507 507 507 514 514 521 529 525 525 0 0 0 0 0
    0 0 0 0 0 0 0 0 0 0 0 0 0 0 0 0 0 0 0 0 0 0 0 0 0 0 0 0 0 0 0 0 0 0 0 0 0 0 0 0 0 0 0 0 0 0 0 0 0 0 0 0 0 0 0 0 0 0 0 0 0 0 0 0 0 0 0 0 0 511 507 507 507 500 514 504 507 514 514 514 518 518 525 514 525 529 525 521 518 518 521 521 525 521 514 518 521 521 525 525 525 521 525 529 533 533 537 529 525 529 529 529 518 525 525 525 521 521 518 521 518 529 518 521 521 525 521 521 521 525 521 525 518 521 521 529 525 533 529 529 521 529 529 521 521 525 518 507 521 521 521 521 521 525 521 525 529 525 525 521 525 529 525 533 511 525 521 521 511 514 511 511 511 518 511 514 518 521 518 521 525 525 507 521 518 514 521 521 514 518 514 525 521 521 521 518 518 529 521 533 525 514 521 521 518 521 521 521 521 521 525 525 521 521 514 514 500 504 514 514 518 514 514 514 514 525 529 521 521 518 525 525 529 525 525 525 518 521 521 514 521 518 511 514 514 518 518 521 529 525 533 521 525 529 525 518 514 511 511 507 518 521 525 529 537 545 549 561 557 541 533 533 537 533 533 533 525 521 511 518 507 511 507 507 507 511 518 533 529 537 529 545 541 541 541 533 521 514 511 514 500 511 497 497 504 504 504 504 507 514 514 521 529 521 521 0 0 0 0 0
    0 0 0 0 0 0 0 0 0 0 0 0 0 0 0 0 0 0 0 0 0 0 0 0 0 0 0 0 0 0 0 0 0 0 0 0 0 0 0 0 0 0 0 0 0 0 0 0 0 0 0 0 0 0 0 0 0 0 0 0 0 0 0 0 0 0 0 0 0 511 507 507 504 497 511 500 504 514 511 514 514 518 521 514 521 529 521 521 518 518 518 521 525 521 514 518 521 521 525 525 525 521 525 529 533 533 537 529 529 529 533 533 518 529 529 525 521 525 521 521 521 529 518 518 518 525 521 521 518 525 514 521 518 521 521 529 525 529 525 525 514 521 525 518 518 525 518 511 521 521 521 521 521 525 521 525 529 521 521 518 521 529 525 529 511 525 525 521 514 514 511 511 511 514 511 511 518 518 518 521 525 525 504 518 514 511 521 521 511 518 514 525 518 518 521 518 514 525 514 529 521 514 521 521 518 521 521 521 518 521 525 525 521 525 518 514 500 504 514 514 518 514 514 514 511 525 529 518 514 511 521 521 521 521 518 518 514 518 518 511 518 514 511 511 511 514 514 518 521 521 525 514 521 525 521 514 514 511 511 507 518 514 518 518 529 537 537 545 541 537 533 533 533 529 529 529 525 521 507 518 507 514 511 511 511 511 518 533 529 541 533 545 541 541 537 525 521 521 518 514 507 511 497 500 504 504 504 504 507 511 507 514 525 518 514 0 0 0 0 0
    0 0 0 0 0 0 0 0 0 0 0 0 0 0 0 0 0 0 0 0 0 0 0 0 0 0 0 0 0 0 0 0 0 0 0 0 0 0 0 0 0 0 0 0 0 0 0 0 0 0 0 0 0 0 0 0 0 0 0 0 0 0 0 0 0 0 0 0 0 504 507 504 500 493 511 500 504 511 511 511 514 514 521 511 521 529 521 521 514 518 514 521 521 521 514 518 518 521 525 525 521 521 521 529 529 533 537 529 529 533 537 537 521 533 533 529 525 525 525 525 521 529 518 518 518 529 521 525 521 525 518 525 521 529 525 533 529 529 525 525 511 518 518 511 511 521 511 507 521 521 521 521 521 525 521 525 529 525 521 518 521 525 521 525 511 521 525 525 514 518 514 511 514 518 511 511 518 518 518 521 525 525 504 518 514 514 521 521 511 518 511 525 514 518 521 514 514 521 514 525 521 514 521 521 518 518 518 521 518 521 525 525 525 525 521 521 507 511 518 518 518 514 514 514 514 525 529 514 514 511 518 518 518 518 518 518 518 521 521 514 521 518 514 514 511 514 514 514 514 514 521 507 518 521 518 511 511 511 511 507 514 507 511 514 521 529 529 533 533 529 529 525 529 525 525 525 521 518 504 514 507 511 511 511 511 511 518 533 529 545 533 537 537 537 521 504 490 497 493 490 500 511 497 504 511 511 511 511 514 511 507 514 521 507 500 0 0 0 0 0
    0 0 0 0 0 0 0 0 0 0 0 0 0 0 0 0 0 0 0 0 0 0 0 0 0 0 0 0 0 0 0 0 0 0 0 0 0 0 0 0 0 0 0 0 0 0 0 0 0 0 0 0 0 0 0 0 0 0 0 0 0 0 0 0 0 0 0 0 0 500 511 504 500 493 507 500 504 511 511 511 514 514 521 514 525 529 521 518 514 514 514 518 521 521 514 518 521 525 525 529 525 525 525 529 529 537 537 533 533 537 541 541 525 533 533 529 525 525 525 525 521 529 514 514 518 525 518 521 518 525 521 529 533 533 533 537 533 533 525 521 507 507 507 500 500 514 504 504 521 521 525 525 525 529 521 529 529 525 521 518 518 521 521 518 511 521 521 521 514 514 514 511 514 518 514 514 518 518 521 521 525 525 504 518 514 514 521 521 514 518 514 529 518 521 521 518 514 521 514 525 518 514 521 518 514 518 521 521 518 521 529 525 525 525 525 521 511 514 518 518 518 518 518 514 514 521 525 511 511 511 518 518 521 518 518 518 518 521 521 514 518 514 511 514 514 514 514 514 518 518 521 507 514 518 518 514 514 511 511 511 518 511 511 514 521 525 525 529 525 521 525 521 521 518 514 518 518 514 500 511 504 511 511 511 511 511 518 533 529 537 529 525 529 525 504 490 481 484 487 487 493 504 493 504 514 514 511 511 514 511 504 511 514 493 490 0 0 0 0 0
    0 0 0 0 0 0 0 0 0 0 0 0 0 0 0 0 0 0 0 0 0 0 0 0 0 0 0 0 0 0 0 0 0 0 0 0 0 0 0 0 0 0 0 0 0 0 0 0 0 0 0 0 0 0 0 0 0 0 0 0 0 0 0 0 0 0 0 0 0 497 507 500 497 493 511 500 507 514 514 511 514 518 521 514 525 529 518 518 511 514 511 518 521 521 518 521 521 529 529 529 525 529 525 533 533 537 541 541 541 545 541 541 521 533 533 529 521 525 525 525 521 525 514 514 514 525 518 518 518 525 529 533 537 541 537 537 533 533 525 518 504 504 504 497 497 514 504 507 521 525 525 525 525 529 525 533 533 529 525 518 518 521 518 514 507 518 518 521 511 514 518 514 518 521 518 514 518 518 521 521 525 525 500 518 514 514 521 518 514 518 511 529 518 521 521 518 514 521 514 525 518 518 521 518 518 521 521 521 518 525 529 525 525 525 525 521 511 514 521 518 521 518 518 514 514 521 525 511 511 511 518 518 521 518 518 514 518 521 518 514 514 514 511 511 514 514 511 518 521 521 521 507 518 518 514 514 511 511 511 511 518 511 511 514 521 525 525 525 521 518 521 518 518 514 511 514 511 511 497 507 507 511 511 511 511 511 518 537 529 537 525 521 525 518 493 484 477 481 481 481 487 493 487 504 514 514 511 511 514 511 504 507 507 490 487 0 0 0 0 0
    0 0 0 0 0 0 0 0 0 0 0 0 0 0 0 0 0 0 0 0 0 0 0 0 0 0 0 0 0 0 0 0 0 0 0 0 0 0 0 0 0 0 0 0 0 0 0 0 0 0 0 0 0 0 0 0 0 0 0 0 0 0 0 0 0 0 0 0 0 497 518 504 497 490 514 500 511 514 514 514 518 518 521 511 521 525 514 514 507 507 504 514 518 521 518 521 521 525 525 529 525 529 529 533 533 541 545 545 541 545 545 541 521 533 533 529 521 525 525 525 521 525 514 514 514 525 518 518 521 529 529 533 537 537 533 533 529 529 521 518 507 507 507 504 497 518 504 511 525 525 529 529 529 533 529 533 533 529 521 514 514 514 511 507 504 511 514 518 511 514 518 514 518 521 518 518 518 518 525 521 525 529 500 518 511 514 521 518 514 514 511 525 514 521 521 518 518 521 514 529 518 518 521 521 518 521 521 525 518 525 529 529 529 529 525 521 511 514 521 518 521 518 518 514 518 521 525 507 507 507 518 518 521 514 514 514 518 521 518 514 514 511 511 511 514 514 511 518 521 525 521 507 518 518 514 514 511 511 511 511 518 511 511 514 518 525 521 521 518 518 521 518 514 514 514 518 514 514 500 511 511 511 511 511 511 511 518 533 521 529 514 507 514 500 487 484 477 481 481 481 484 487 484 500 514 514 511 514 514 511 504 507 504 484 481 0 0 0 0 0
    0 0 0 0 0 0 0 0 0 0 0 0 0 0 0 0 0 0 0 0 0 0 0 0 0 0 0 0 0 0 0 0 0 0 0 0 0 0 0 0 0 0 0 0 0 0 0 0 0 0 0 0 0 0 0 0 0 0 0 0 0 0 0 0 0 0 0 0 0 500 525 518 518 497 525 507 514 518 518 514 518 518 521 507 518 514 504 511 504 497 497 504 511 518 514 518 518 521 521 529 525 525 521 525 529 541 545 545 541 545 545 541 521 533 533 529 521 525 525 521 518 525 514 511 511 525 518 518 521 529 529 529 537 537 529 529 525 521 518 514 504 507 511 514 500 521 507 514 529 529 533 533 533 537 533 537 533 533 521 518 511 511 507 504 507 511 511 518 514 514 518 518 521 525 521 521 521 521 525 521 525 529 500 518 511 514 518 518 514 514 511 529 514 521 521 518 514 521 514 525 514 518 521 521 521 521 525 525 521 529 533 529 529 529 525 521 507 514 518 518 518 514 514 514 518 525 525 511 507 507 514 514 521 514 514 514 521 521 521 514 514 511 507 514 514 514 511 518 525 529 525 511 518 518 514 514 511 511 511 511 518 511 511 514 518 521 518 521 514 514 521 518 514 514 514 518 514 518 500 511 511 514 514 511 511 511 514 533 514 518 504 497 504 493 487 481 477 481 481 481 484 487 484 500 514 511 511 511 511 507 497 497 493 481 474 0 0 0 0 0
    0 0 0 0 0 0 0 0 0 0 0 0 0 0 0 0 0 0 0 0 0 0 0 0 0 0 0 0 0 0 0 0 0 0 0 0 0 0 0 0 0 0 0 0 0 0 0 0 0 0 0 0 0 0 0 0 0 0 0 0 0 0 0 0 0 0 0 0 0 493 529 525 541 507 537 511 518 521 518 518 518 521 521 507 514 507 497 504 497 493 490 500 504 511 511 514 511 518 518 525 518 521 514 521 525 537 541 541 541 545 549 541 521 533 529 529 518 521 521 521 514 521 511 507 504 0 0 0 0 0 529 533 537 537 529 0 521 514 511 504 497 497 507 518 504 525 511 525 533 537 537 537 533 537 537 541 537 533 521 518 511 507 507 504 507 511 514 518 514 514 521 518 521 525 525 521 521 521 525 521 525 529 500 518 511 514 518 518 514 514 511 529 514 521 521 518 514 518 514 525 514 518 521 521 521 525 525 525 525 533 533 529 533 533 525 518 500 511 518 518 518 514 514 514 518 525 525 511 511 511 518 518 525 514 514 514 521 525 525 518 514 514 511 514 518 518 514 521 521 529 521 511 518 518 514 511 511 511 511 514 521 511 511 514 518 521 518 521 514 514 521 518 514 514 514 518 514 518 500 514 514 514 514 511 511 511 514 533 507 504 500 493 504 493 484 481 481 481 481 484 487 487 487 500 511 511 507 507 504 493 484 481 481 474 465 0 0 0 0 0
    0 0 0 0 0 0 0 0 0 0 0 0 0 0 0 0 0 0 0 0 0 0 0 0 0 0 0 0 0 0 0 0 0 0 0 0 0 0 0 0 0 0 0 0 0 0 0 0 0 0 0 0 0 0 0 0 0 0 0 0 0 0 0 0 0 0 0 0 0 487 533 525 0 0 541 514 521 525 521 518 521 521 521 507 514 500 493 500 497 490 487 497 497 507 507 511 507 518 518 525 518 521 514 518 521 541 541 0 0 0 0 541 518 533 529 529 518 521 521 521 514 521 507 504 500 0 0 0 0 0 0 0 0 0 525 0 0 0 0 0 0 0 0 0 514 529 518 533 537 541 541 541 537 541 541 549 537 533 0 521 0 507 511 504 507 511 514 518 511 514 518 518 525 525 529 525 525 525 529 525 529 529 497 518 514 518 521 518 518 518 514 529 514 521 521 518 518 518 518 525 514 518 521 518 521 521 525 525 521 529 533 529 533 533 525 518 500 514 518 514 518 514 514 514 518 525 521 511 511 514 514 514 521 514 511 511 521 521 521 521 514 518 514 518 521 521 521 521 521 525 514 511 518 514 514 511 511 511 511 514 521 511 514 521 521 525 525 525 518 518 521 518 514 514 514 514 514 514 497 514 514 514 514 511 511 511 511 529 497 493 493 493 497 490 484 481 477 481 484 484 487 487 484 493 493 504 497 493 490 481 471 468 0 0 459 0 0 0 0 0
    0 0 0 0 0 0 0 0 0 0 0 0 0 0 0 0 0 0 0 0 0 0 0 0 0 0 0 0 0 0 0 0 0 0 0 0 0 0 0 0 0 0 0 0 0 0 0 0 0 0 0 0 0 0 0 0 0 0 0 0 0 0 0 0 0 0 0 0 0 500 533 529 537 504 541 511 525 525 521 521 525 525 525 507 514 493 487 493 490 484 484 490 490 500 500 504 504 514 514 525 518 521 507 507 511 0 0 0 0 0 0 541 0 529 529 529 514 518 521 518 514 518 507 500 0 0 149 149 0 0 0 0 0 0 0 0 0 0 0 0 0 0 0 0 0 533 518 541 545 545 545 545 541 545 545 557 537 0 0 0 0 0 514 507 511 511 511 518 511 511 518 518 529 529 529 0 529 529 533 529 533 533 497 521 518 518 521 518 518 518 514 529 514 518 521 518 518 518 518 525 518 521 521 518 521 525 525 525 521 529 529 529 533 529 521 518 500 514 518 514 514 514 518 514 518 525 521 507 511 511 511 511 518 511 511 511 521 521 525 521 518 521 521 521 525 521 525 525 525 529 514 511 518 514 514 514 511 511 511 518 521 507 518 521 525 525 525 525 521 521 525 518 514 514 514 514 514 511 497 514 514 514 514 511 511 511 514 525 493 490 490 487 490 484 477 477 474 477 481 481 484 484 484 487 487 497 490 487 487 477 465 459 451 462 451 0 0 0 0 0
    0 0 0 0 0 0 0 0 0 0 0 0 0 0 0 0 0 0 0 0 0 0 0 0 0 0 0 0 0 0 0 0 0 0 0 0 0 0 0 0 0 0 0 0 0 0 0 0 0 0 0 0 0 0 0 0 0 0 0 0 0 0 0 0 0 0 0 0 0 0 525 521 525 493 533 511 521 521 521 521 525 521 518 500 504 484 477 484 484 477 477 487 487 0 0 500 500 514 514 525 514 514 500 500 0 0 0 0 0 0 0 541 0 525 525 525 511 514 518 518 511 518 507 500 0 152 150 0 0 0 0 0 0 0 0 0 0 0 0 0 0 0 0 0 0 537 525 545 549 549 549 545 545 549 549 561 0 0 0 0 0 511 514 507 511 511 507 518 511 511 521 518 0 533 0 0 0 533 541 537 537 533 497 521 518 518 521 521 518 518 514 529 514 518 521 518 518 518 518 529 518 521 525 518 521 525 525 525 521 529 529 529 533 529 521 518 500 511 518 514 514 518 518 514 518 521 518 504 507 504 504 504 511 507 514 514 521 521 525 521 518 521 521 518 521 521 529 529 529 533 518 514 518 518 514 514 511 511 511 514 518 504 514 525 525 521 521 521 518 525 525 521 511 514 514 514 518 511 497 514 514 514 514 511 511 511 514 521 493 490 490 487 487 481 474 471 471 471 471 471 477 481 477 481 481 490 487 484 477 471 454 448 443 448 443 0 0 0 0 0
    0 0 0 0 0 0 0 0 0 0 0 0 0 0 0 0 0 0 0 0 0 0 0 0 0 0 0 0 0 0 0 0 0 0 0 0 0 0 0 0 0 0 0 0 0 0 0 0 0 0 0 0 0 0 0 0 0 0 0 0 0 0 0 0 0 0 0 0 0 443 0 481 477 474 0 493 507 507 507 521 521 511 504 490 484 474 468 471 471 462 465 0 0 0 0 0 0 0 0 0 0 0 0 0 0 0 286 281 0 0 252 0 0 0 518 518 507 511 514 518 511 518 511 504 0 154 0 0 0 0 0 0 0 0 0 0 0 0 0 0 0 0 0 0 0 545 533 553 549 553 549 549 549 549 549 561 0 0 0 0 0 514 518 507 514 511 507 518 507 507 521 0 0 0 0 165 0 0 545 541 541 537 497 525 518 518 521 518 518 518 514 529 514 518 521 518 518 518 518 529 521 525 525 518 521 525 525 525 521 529 529 525 533 529 514 511 493 511 514 514 518 518 514 514 514 518 511 497 497 497 497 497 500 507 514 514 521 521 525 521 521 521 521 518 518 521 529 529 529 533 521 514 521 518 518 514 511 511 511 514 518 500 514 518 511 511 504 507 504 514 518 514 507 514 514 514 518 511 500 514 514 514 511 507 511 511 514 518 490 490 490 490 490 484 474 471 468 468 468 471 474 477 477 484 484 481 484 484 471 0 0 0 435 438 0 0 0 0 0 0
    0 0 0 0 0 0 0 0 0 0 0 0 0 0 0 0 0 0 0 0 0 0 0 0 0 0 0 0 0 0 0 0 0 0 0 0 0 0 0 0 0 0 0 0 0 0 0 0 0 0 0 0 0 0 0 0 0 0 0 0 0 0 0 0 0 0 0 0 0 438 457 451 462 459 459 474 487 487 481 0 514 493 487 477 462 454 451 0 0 446 0 0 0 0 0 0 0 0 193 0 0 0 0 0 0 0 0 0 275 0 256 0 212 0 0 0 504 0 518 518 507 518 0 0 157 156 0 0 0 0 0 140 139 0 0 230 228 0 0 0 0 0 0 0 0 0 0 557 557 557 557 553 553 557 557 570 0 0 0 0 0 518 518 511 518 514 511 518 511 0 0 0 0 0 0 165 163 0 541 537 537 533 493 525 518 518 518 521 518 518 514 529 514 518 0 518 518 518 521 0 0 525 525 518 521 525 529 525 521 525 529 521 533 525 500 500 490 504 514 514 518 518 514 514 511 518 504 493 493 490 490 493 490 497 511 511 518 518 521 521 521 521 521 521 518 521 529 529 529 533 518 514 518 518 514 514 511 507 507 514 514 497 514 500 500 0 0 493 493 500 504 507 504 514 514 511 521 511 500 518 514 514 511 507 511 511 514 518 490 490 490 490 490 487 477 474 474 474 474 474 474 481 481 484 490 497 504 497 484 481 0 0 462 474 446 0 0 0 0 0
    0 0 0 0 0 0 0 0 0 0 0 0 0 0 0 0 0 0 0 0 0 0 0 0 0 0 0 0 0 0 0 0 0 0 0 0 0 0 0 0 0 0 0 0 0 0 0 0 0 0 0 0 0 0 0 0 0 0 0 0 0 0 0 0 0 0 0 0 0 435 462 451 457 454 457 465 471 477 471 465 490 481 0 0 0 0 0 0 288 0 0 0 0 0 0 0 0 0 0 0 0 0 0 0 0 0 0 275 271 0 256 0 0 0 0 213 0 0 0 0 0 0 0 159 158 157 0 0 0 140 0 140 140 0 0 0 0 0 0 0 0 0 0 0 0 0 0 0 0 0 0 0 0 0 0 0 0 0 197 0 0 0 521 511 0 0 0 0 0 0 0 0 0 203 0 0 163 0 0 0 549 537 500 529 518 521 521 521 518 518 514 529 514 514 0 514 514 514 0 0 0 0 529 521 525 529 533 529 525 529 529 525 533 525 493 493 487 500 511 511 514 518 511 514 511 514 500 493 493 490 487 490 481 487 500 507 514 518 521 525 521 525 521 521 514 518 529 529 525 533 518 514 518 518 514 514 511 511 507 514 514 500 514 497 0 0 0 487 487 493 493 500 500 511 514 507 521 514 504 521 518 518 514 511 514 511 514 518 493 490 490 490 490 487 481 477 481 481 481 484 484 490 493 500 500 497 487 487 477 474 468 465 468 474 451 0 0 0 0 0
    0 0 0 0 0 0 0 0 0 0 0 0 0 0 0 0 0 0 0 0 0 0 0 0 0 0 0 0 0 0 0 0 0 0 0 0 0 0 0 0 0 0 0 0 0 0 0 0 0 0 0 0 0 0 0 0 0 0 0 0 0 0 0 0 0 0 0 0 0 435 440 440 440 443 448 451 459 468 465 457 484 477 468 0 0 0 0 0 290 0 0 0 0 432 427 427 0 0 0 0 0 0 0 0 0 0 0 278 274 0 255 0 0 0 0 0 0 0 0 0 0 0 0 0 160 158 0 0 0 140 140 140 140 0 0 0 0 0 0 0 0 0 0 0 0 0 151 151 151 151 151 0 0 0 201 0 0 0 0 0 5661 0 0 0 0 0 0 0 0 0 0 0 0 0 0 0 0 0 0 0 0 549 497 529 518 518 521 525 514 518 507 0 507 0 0 0 0 0 0 0 0 0 0 0 0 537 537 533 529 533 537 533 537 529 493 487 484 497 504 507 507 514 507 511 504 511 497 493 490 487 481 481 474 477 484 490 500 504 0 529 518 529 525 521 511 514 529 525 525 529 518 514 518 518 518 514 511 511 511 514 514 504 518 511 0 0 0 487 487 497 493 500 504 504 514 500 525 511 507 521 518 518 518 514 514 518 518 521 497 493 493 490 490 487 481 474 477 477 481 484 490 497 507 514 511 497 487 487 474 459 448 443 440 446 438 0 0 0 0 0
    0 0 0 0 0 0 0 0 0 0 0 0 0 0 0 0 0 0 0 0 0 0 0 0 0 0 0 0 0 0 0 0 0 0 0 0 0 0 0 0 0 0 0 0 0 0 0 0 0 0 0 0 0 0 0 0 0 0 0 0 0 0 0 0 0 0 0 0 0 432 435 438 435 435 443 446 451 457 457 448 468 465 457 443 0 0 0 0 0 430 425 425 425 427 425 425 430 422 0 0 0 0 0 0 0 0 0 0 0 0 0 0 0 0 0 0 0 0 0 0 0 0 0 0 0 0 138 138 141 140 140 140 0 0 0 0 0 0 203 197 194 0 0 0 0 0 0 150 150 0 0 0 151 0 0 0 0 0 0 0 0 0 0 3873 0 0 0 0 0 0 0 0 0 0 0 0 0 0 0 826 728 0 0 0 504 507 514 0 0 0 0 0 0 0 0 0 0 0 0 3873 0 0 0 0 0 0 549 533 525 0 545 533 529 518 490 484 484 493 504 500 500 511 504 507 497 497 490 487 484 484 477 474 465 468 477 477 481 481 0 0 0 0 0 0 0 0 0 529 525 525 514 511 514 514 518 514 511 511 511 514 514 504 518 0 0 0 0 0 0 493 487 0 487 493 504 493 518 500 504 521 518 518 518 511 514 518 521 525 504 497 500 493 493 490 481 474 474 474 481 484 490 497 507 525 518 500 484 490 468 448 443 438 435 435 432 0 0 0 0 0
    0 0 0 0 0 0 0 0 0 0 0 0 0 0 0 0 0 0 0 0 0 0 0 0 0 0 0 0 0 0 0 0 0 0 0 0 0 0 0 0 0 0 0 0 0 0 0 0 0 0 0 0 0 0 0 0 0 0 0 0 0 0 0 0 0 0 0 0 0 432 432 435 432 432 438 440 448 451 451 443 454 457 451 440 0 0 0 420 427 425 420 420 422 425 425 422 430 425 0 0 0 0 0 0 432 438 438 0 0 440 438 435 0 0 0 0 0 0 0 0 0 0 0 425 425 418 0 0 0 0 0 0 0 0 440 0 0 0 201 196 0 0 0 0 0 0 0 0 149 149 0 0 150 0 0 0 0 0 0 0 143 0 0 0 0 0 0 0 0 0 0 0 0 0 0 0 0 0 0 994 876 766 0 0 462 448 0 0 0 0 454 0 0 451 451 457 0 0 0 0 0 0 0 0 0 0 618 0 0 634 0 0 484 477 474 465 451 465 490 490 481 493 487 500 490 487 484 481 477 477 465 465 457 454 457 448 448 443 443 432 406 397 395 395 389 389 379 0 529 529 511 507 511 514 518 514 511 507 507 514 511 497 0 0 0 0 0 0 459 468 471 0 474 474 477 477 487 484 493 518 514 514 514 511 511 518 521 521 504 500 504 497 497 493 484 477 477 477 481 484 490 500 514 529 518 500 487 487 459 440 435 435 432 432 432 0 0 0 0 0
    0 0 0 0 0 0 0 0 0 0 0 0 0 0 0 0 0 0 0 0 0 0 0 0 0 0 0 0 0 0 0 0 0 0 0 0 0 0 0 0 0 0 0 0 0 0 0 0 0 0 0 0 0 0 0 0 0 0 0 0 0 0 0 0 0 0 0 0 0 432 432 435 432 432 438 440 446 448 448 443 451 454 448 440 0 0 430 420 425 420 418 418 420 422 425 425 430 427 0 0 0 0 0 0 435 438 438 440 440 440 435 435 432 0 427 0 415 0 0 0 0 427 430 427 425 422 0 425 432 430 430 432 432 435 438 446 438 0 0 0 440 438 438 435 435 432 435 0 0 0 0 0 150 0 0 0 0 0 0 0 0 0 0 0 0 0 0 0 0 0 0 0 0 0 0 0 0 0 0 0 0 0 0 443 446 440 0 432 432 427 443 440 438 440 440 440 440 0 1132 0 0 0 0 0 0 0 0 0 0 0 0 0 471 443 448 446 440 438 443 448 446 440 454 0 481 471 474 471 465 465 451 454 451 446 446 440 440 438 438 432 411 395 395 395 395 393 391 0 0 533 511 500 507 514 521 514 504 500 500 0 511 0 0 0 0 0 0 0 457 0 459 451 459 457 457 457 462 465 0 507 511 507 511 507 507 514 521 518 500 497 500 490 487 490 481 474 477 477 481 487 507 521 525 529 525 504 490 487 440 435 432 432 430 430 432 0 0 0 0 0
    0 0 0 0 0 0 0 0 0 0 0 0 0 0 0 0 0 0 0 0 0 0 0 0 0 0 0 0 0 0 0 0 0 0 0 0 0 0 0 0 0 0 0 0 0 0 0 0 0 0 0 0 0 0 0 0 0 0 0 0 0 0 0 0 0 0 0 0 0 432 432 435 432 432 438 440 446 446 448 443 451 454 451 0 0 0 432 422 425 420 418 420 420 422 425 425 430 430 432 432 0 0 0 0 435 438 438 438 438 438 435 435 432 430 430 430 422 0 0 0 0 432 435 432 427 425 0 427 432 430 430 432 432 435 438 446 438 0 0 443 440 438 438 435 435 430 432 422 0 0 0 0 0 0 432 432 438 438 435 435 0 435 432 0 0 430 0 432 440 432 427 0 0 0 0 0 230 0 0 0 0 0 0 446 446 440 435 435 435 430 440 438 435 438 438 438 438 438 0 0 0 0 0 0 0 0 0 0 0 0 0 0 454 438 446 446 443 440 440 443 440 438 446 0 0 0 0 0 459 457 446 448 448 446 443 440 440 440 440 435 420 397 402 402 404 0 0 377 0 518 500 0 0 0 0 514 0 0 0 0 0 0 0 0 0 0 0 0 0 0 448 440 443 443 440 443 446 446 443 0 500 493 504 504 504 511 518 518 500 493 497 487 484 487 481 474 477 477 481 484 504 514 504 493 497 477 440 435 432 430 430 427 427 430 427 0 0 0 0 0</data></depth>
</opencv_storage>
