<?xml version="1.0"?>
<opencv_storage>
<gps_time_stamp>34496</gps_time_stamp>
<gps_x>-1.1612118721008301e+001</gps_x>
<gps_y>1.0954455137252808e+000</gps_y>
<gps_z>-2.8499257564544678e+000</gps_z>
<image_time_stamp>22468</image_time_stamp>
<depth type_id="opencv-matrix">
  <rows>88</rows>
  <cols>320</cols>
  <dt>s</dt>
  <data>
    0 0 0 0 0 0 0 0 0 0 0 0 0 0 0 0 0 0 0 0 0 0 0 0 0 0 0 0 0 0 0 0 0 0 0 0 0 0 0 0 0 0 0 0 0 0 0 0 0 0 0 0 0 0 0 0 0 0 0 0 0 0 0 0 0 0 0 0 0 8177 0 0 0 0 0 0 0 0 0 8177 8177 8177 8177 8177 7359 7359 6690 7359 7359 7359 7359 7359 5256 6690 6133 6690 7359 7359 7359 7359 7359 0 0 0 0 0 0 0 7359 6133 6133 6133 5661 6690 5661 4906 6133 7359 8177 7359 7359 7359 7359 7359 7359 6690 8177 7359 8177 8177 0 0 0 0 0 0 0 0 0 8177 7359 0 8177 8177 7359 7359 7359 8177 8177 0 0 0 0 0 0 0 0 0 0 0 0 0 579 0 0 0 0 0 0 0 290 0 0 285 286 0 0 0 0 0 0 0 0 0 0 5661 7359 6690 6690 6690 6133 6690 7359 6690 0 7359 6690 7359 7359 8177 6133 6133 6690 6690 7359 8177 8177 7359 8177 8177 8177 5256 6690 6133 6133 6133 6690 5256 5661 5661 5661 5661 4906 5661 5661 5256 5661 4329 5256 5661 4906 5661 4906 4599 4329 4329 5661 4329 3873 4088 4329 3873 4088 4329 4329 3873 4088 4599 4088 3504 3504 3873 4088 3679 3345 3504 3504 3504 3679 3679 3345 3066 3199 4906 3199 3066 3199 3066 3199 4088 4329 4329 3679 3504 3679 3504 3504 3504 2830 2830 2830 2830 2830 2725 2725 2725 2725 2725 2628 2628 2830 2943 2830 2830 2628 2830 2725 2725 2628 2537 2299 2453 2374 2628 2374 2537 2299 2453 2164 2299 2230 2044 1936 1936 1887 0 0 0 0 0
    0 0 0 0 0 0 0 0 0 0 0 0 0 0 0 0 0 0 0 0 0 0 0 0 0 0 0 0 0 0 0 0 0 0 0 0 0 0 0 0 0 0 0 0 0 0 0 0 0 0 0 0 0 0 0 0 0 0 0 0 0 0 0 0 0 0 0 0 0 0 0 0 0 0 0 7359 0 0 8177 8177 7359 7359 7359 7359 7359 6690 6690 7359 7359 7359 7359 8177 5256 6690 6133 6690 6690 7359 6690 6690 7359 0 0 0 0 0 0 0 7359 6690 6133 6133 5661 6690 5256 4906 6133 6690 7359 7359 7359 7359 7359 7359 8177 7359 8177 7359 8177 8177 0 0 0 0 0 0 0 0 0 8177 7359 0 8177 8177 7359 7359 7359 8177 8177 0 0 0 0 0 0 0 0 0 0 0 0 553 579 0 0 0 0 0 0 0 290 0 0 0 0 0 0 0 0 0 0 0 0 0 0 5661 7359 6690 6133 6133 6133 6690 7359 6690 8177 6690 6690 7359 7359 7359 6133 6133 6690 6690 7359 8177 8177 7359 8177 8177 8177 5256 7359 6690 6133 6133 7359 5661 6133 6133 5661 5661 4906 5661 5661 5256 5661 4329 5256 5661 4906 5661 4906 4599 4329 4329 5256 4329 3873 4329 4088 3873 4329 4329 4329 3873 4088 4599 3679 3345 3504 3873 4088 3679 3345 3504 3504 3504 3679 3679 3199 3066 3066 5256 3199 3066 3199 3066 3199 4088 4088 4088 3679 3504 3679 3504 3504 3679 2830 2830 2830 2830 2830 2830 2725 2830 2725 2725 2725 2725 2943 2943 2830 2943 2725 2830 2725 2725 2628 2537 2230 2374 2374 2628 2299 2628 2374 2299 2044 2102 2164 2044 1936 1887 1887 0 0 0 0 0
    0 0 0 0 0 0 0 0 0 0 0 0 0 0 0 0 0 0 0 0 0 0 0 0 0 0 0 0 0 0 0 0 0 0 0 0 0 0 0 0 0 0 0 0 0 0 0 0 0 0 0 0 0 0 0 0 0 0 0 0 0 0 0 0 0 0 0 0 0 0 0 0 0 0 7359 5256 8177 8177 6690 6690 6690 6690 6690 7359 7359 6690 6690 7359 7359 8177 8177 8177 5661 6690 6133 6690 6690 7359 6690 6690 6690 0 0 0 8177 8177 8177 8177 7359 6690 6690 6133 5661 6690 5256 4906 6133 6690 6690 7359 6690 7359 7359 8177 8177 8177 0 8177 0 0 0 0 0 0 0 0 0 0 0 8177 7359 8177 8177 7359 7359 7359 6690 8177 7359 0 7359 0 0 0 0 0 0 0 0 0 0 549 0 0 0 0 557 557 553 0 290 0 0 0 0 0 0 0 0 0 0 0 0 6690 0 5661 7359 6690 6690 6690 6133 7359 7359 7359 0 7359 6690 7359 7359 7359 6133 6133 6690 6690 7359 7359 8177 7359 8177 8177 7359 5256 7359 6690 6133 6690 7359 6690 6690 6690 6133 6133 4906 5661 5661 5256 5661 4599 5256 5661 5256 5661 4906 4329 4599 4088 5256 4088 4088 4329 4088 4088 4329 4329 4906 4088 4599 4599 3679 3345 3504 4088 4329 3679 3199 3504 3504 3504 3504 3504 3066 2943 2943 5256 3345 3199 3199 3066 3066 3873 4088 3873 3679 3504 3504 3504 3679 3873 2830 2943 2943 2943 2830 2943 2830 2830 2830 2830 2830 2830 2943 3066 2830 2943 2725 2830 2725 2725 2628 2537 2299 2453 2453 2725 2453 2725 2453 2374 2044 2102 2164 2044 1936 1887 1887 0 0 0 0 0
    0 0 0 0 0 0 0 0 0 0 0 0 0 0 0 0 0 0 0 0 0 0 0 0 0 0 0 0 0 0 0 0 0 0 0 0 0 0 0 0 0 0 0 0 0 0 0 0 0 0 0 0 0 0 0 0 0 0 0 0 0 0 0 0 0 0 0 0 0 0 9199 0 0 0 8177 4599 8177 7359 6133 6133 6133 6133 6690 6690 7359 6690 6133 7359 7359 8177 7359 8177 5661 6690 6133 6133 6690 6690 6690 6133 6690 8177 8177 0 8177 8177 8177 8177 7359 6690 6690 6690 6133 6690 4906 4906 6133 6133 6690 6690 6690 7359 7359 8177 8177 8177 0 8177 0 0 0 0 0 0 0 0 0 0 0 8177 7359 8177 8177 7359 7359 6690 6690 8177 7359 8177 7359 8177 0 0 0 0 0 0 0 0 0 0 0 0 0 0 557 557 553 0 290 0 0 0 0 0 0 0 0 0 0 0 6690 6690 7359 5661 7359 6690 6690 6690 6690 7359 7359 7359 0 7359 6690 7359 6690 7359 5661 6133 6133 6133 6690 7359 7359 6690 7359 7359 6690 4906 6690 6690 6133 6690 7359 7359 7359 7359 6690 6690 5256 6133 6133 5661 5661 4599 5256 6133 4906 5661 4599 4329 4329 4088 4906 4088 4088 4329 4329 4329 4599 4329 5256 4329 5661 5661 4906 3504 3679 4599 4599 3679 3199 3345 3345 3345 3504 3345 2943 2943 2943 5256 3345 3345 3345 3199 3066 3873 3873 3873 3504 3504 3504 3504 3679 3873 2943 2943 2943 2943 2943 3066 2943 2943 2943 2830 2830 2830 2943 2943 2830 2943 2725 2830 2725 2725 2628 2537 2299 2453 2453 2725 2537 2830 2537 2453 2102 2102 2230 2044 1989 1936 1887 0 0 0 0 0
    0 0 0 0 0 0 0 0 0 0 0 0 0 0 0 0 0 0 0 0 0 0 0 0 0 0 0 0 0 0 0 0 0 0 0 0 0 0 0 0 0 0 0 0 0 0 0 0 0 0 0 0 0 0 0 0 0 0 0 0 0 0 0 0 0 0 0 0 0 8177 8177 0 0 0 7359 3873 7359 7359 5661 6133 5661 6133 6133 6133 7359 6690 6133 8177 7359 8177 8177 8177 6133 7359 6133 6133 6690 6690 6690 6133 6133 8177 7359 0 7359 8177 8177 8177 7359 6690 6690 6690 6133 6690 4906 4906 6133 6133 6690 7359 7359 7359 8177 8177 8177 8177 0 8177 0 0 0 0 0 0 0 0 0 0 0 8177 7359 8177 8177 7359 7359 6690 6690 7359 7359 7359 6690 7359 8177 0 0 0 0 0 0 0 0 0 0 0 0 0 557 561 0 0 0 0 0 0 0 0 0 0 0 0 0 0 7359 6690 7359 5661 6690 6690 6690 6690 6690 7359 7359 7359 0 7359 6690 6690 6690 6690 6133 5661 5661 6133 6133 6690 7359 6133 7359 6690 6690 4906 6690 6690 6133 6690 7359 7359 7359 7359 7359 6690 5661 6133 6133 5661 5661 4906 5256 5661 4906 5661 4906 4329 4329 3873 4906 4088 4088 4599 4329 4329 4599 4599 5661 4329 6133 5661 4088 3345 3873 4599 4599 3873 3199 3504 3504 3345 3504 3199 2943 2943 2943 5256 3504 3345 3345 3199 3066 3679 3873 3679 3504 3345 3504 3345 3504 3873 2943 2943 2943 2943 2943 3199 3066 2943 2943 2830 2830 2830 2943 2943 2830 2830 2725 2725 2725 2628 2628 2537 2374 2537 2537 2725 2537 2830 2628 2453 2102 2102 2230 2044 1989 1936 1936 0 0 0 0 0
    0 0 0 0 0 0 0 0 0 0 0 0 0 0 0 0 0 0 0 0 0 0 0 0 0 0 0 0 0 0 0 0 0 0 0 0 0 0 0 0 0 0 0 0 0 0 0 0 0 0 0 0 0 0 0 0 0 0 0 0 0 0 0 0 0 0 0 0 0 6690 7359 7359 7359 8177 6690 3679 6690 6690 4906 5661 5661 5661 6133 6133 7359 6690 6133 8177 8177 0 8177 8177 6690 7359 6690 6690 6690 6690 6690 6133 6133 7359 7359 8177 7359 8177 8177 8177 8177 7359 6690 6690 6133 6133 4906 5256 6133 6133 6690 6690 7359 7359 8177 8177 9199 0 0 0 0 0 0 0 0 0 0 0 0 0 0 8177 7359 0 8177 7359 7359 6690 6690 8177 7359 7359 7359 7359 8177 8177 0 0 0 0 0 0 0 0 0 0 0 0 0 0 0 0 0 0 0 0 0 0 6133 0 7359 6690 7359 0 7359 6690 7359 5256 6690 6690 6690 6690 6133 6690 6690 6690 8177 6690 6690 6690 6690 6690 5661 5661 5661 5661 6133 7359 7359 6133 7359 6690 6690 4599 6690 6690 6133 6133 7359 7359 8177 8177 8177 6690 6133 6690 6133 6133 5661 5256 5661 6133 5256 6133 4906 4329 4329 3679 4599 4088 4329 4906 4599 4599 4906 4906 6133 4599 6133 5256 3679 3345 3873 4906 4906 3873 3199 3504 3504 3504 3504 3199 2943 2943 2943 4906 3345 3345 3199 3066 3066 3679 3679 3679 3345 3345 3504 3504 3679 4088 2943 3066 3066 3066 3066 3345 3066 2943 2943 2830 2830 2830 2830 2943 2725 2725 2628 2725 2628 2628 2628 2537 2374 2453 2453 2628 2537 2830 2537 2453 2044 2044 2164 2044 1989 1936 1936 0 0 0 0 0
    0 0 0 0 0 0 0 0 0 0 0 0 0 0 0 0 0 0 0 0 0 0 0 0 0 0 0 0 0 0 0 0 0 0 0 0 0 0 0 0 0 0 0 0 0 0 0 0 0 0 0 0 0 0 0 0 0 0 0 0 0 0 0 0 0 0 0 0 0 5661 6133 6133 6133 7359 5661 3345 5661 6133 4599 5661 5661 5661 5661 6133 7359 6690 6133 8177 8177 8177 8177 8177 6690 7359 6690 6690 6690 6690 6133 5661 6133 7359 6690 8177 7359 8177 8177 8177 8177 7359 6690 7359 6133 6133 4599 5256 6133 6133 6133 6690 7359 7359 8177 0 0 0 0 0 0 0 0 0 0 0 0 0 0 0 0 8177 6690 0 0 7359 7359 6690 6690 7359 7359 7359 7359 7359 8177 8177 0 0 0 0 0 0 0 0 0 0 0 0 0 0 0 0 0 0 0 0 0 0 7359 0 8177 7359 8177 8177 7359 8177 8177 5256 6690 6690 6133 6690 6133 6690 6690 6133 8177 6690 6133 6133 6133 6133 5661 5661 5661 6133 6690 7359 8177 6690 7359 6690 6690 4599 6133 6690 6133 6690 7359 8177 8177 8177 8177 7359 6133 6690 6690 6690 6133 5661 5661 5661 5661 6133 5256 4329 4329 3679 4599 4088 4599 4906 4599 4906 4906 4906 6133 4906 6133 4906 3345 3345 4088 4906 4906 3873 3199 3504 3504 3504 3679 3199 2943 2943 2943 4906 3345 3199 3066 3066 3066 3504 3504 3504 3345 3345 3345 3504 3679 4088 2943 3066 3066 3066 3345 3504 3199 2943 2943 2830 2830 2830 2830 2943 2725 2725 2628 2725 2628 2628 2628 2628 2453 2537 2453 2628 2537 2725 2537 2453 2044 2044 2164 2102 2102 1989 1989 0 0 0 0 0
    0 0 0 0 0 0 0 0 0 0 0 0 0 0 0 0 0 0 0 0 0 0 0 0 0 0 0 0 0 0 0 0 0 0 0 0 0 0 0 0 0 0 0 0 0 0 0 0 0 0 0 0 0 0 0 0 0 0 0 0 0 0 0 0 0 0 0 0 0 4599 5256 4906 5256 6690 4599 3345 5256 6133 4599 5661 5661 5661 6133 6133 8177 6690 6690 0 8177 7359 7359 7359 6690 6690 6133 6690 6690 6690 6133 5256 5661 6690 6690 8177 8177 8177 8177 8177 8177 7359 7359 7359 6133 6133 4599 5256 6133 6133 6133 6690 7359 8177 8177 0 0 0 0 0 0 0 0 0 0 0 0 0 0 0 0 7359 6690 0 0 7359 6690 6133 6133 8177 7359 7359 8177 8177 8177 8177 0 0 0 0 0 0 0 0 0 0 0 0 0 0 0 0 0 0 0 0 0 0 0 0 0 0 0 0 8177 0 8177 5256 6690 6690 6133 6690 6133 6690 6690 6133 8177 6690 6690 6690 6133 6133 5661 6133 6133 6133 6690 7359 8177 6690 7359 7359 6690 4906 6690 6690 6133 6690 7359 8177 8177 8177 0 7359 6690 6690 6690 6690 6133 6133 5256 5256 5661 5661 4906 4088 4088 3679 4329 4088 4599 4906 4906 4906 5256 5256 6690 5256 7359 4599 3345 3345 4329 4906 4906 3873 3345 3504 3504 3504 3679 3066 2943 2943 3066 4906 3199 3199 3066 3066 3066 3504 3504 3504 3504 3345 3345 3345 3679 4088 2943 2943 2943 2943 3345 3199 3066 2943 2830 2725 2830 2830 2830 2830 2725 2725 2628 2628 2628 2537 2628 2537 2374 2453 2453 2628 2537 2628 2537 2453 2102 2044 2164 2164 2164 1989 2044 0 0 0 0 0
    0 0 0 0 0 0 0 0 0 0 0 0 0 0 0 0 0 0 0 0 0 0 0 0 0 0 0 0 0 0 0 0 0 0 0 0 0 0 0 0 0 0 0 0 0 0 0 0 0 0 0 0 0 0 0 0 0 0 0 0 0 0 0 0 0 0 0 0 0 4088 4329 4599 4599 6133 4088 3199 5256 5661 4329 5256 5661 5661 6133 6133 8177 7359 6690 0 8177 7359 7359 6690 6690 6133 5661 6690 6690 6690 6133 5256 6133 6690 7359 8177 8177 8177 8177 8177 8177 8177 7359 7359 6133 6133 4599 5661 6133 6133 6690 7359 8177 0 0 0 0 0 0 0 0 0 0 0 0 0 0 0 0 0 0 7359 6133 0 0 7359 7359 6690 6690 8177 8177 7359 8177 8177 8177 8177 0 0 0 0 0 0 0 0 0 0 0 0 0 0 0 0 0 0 0 0 0 0 0 0 0 0 0 0 8177 0 0 4906 6690 6690 6133 6690 6690 6690 6133 6133 8177 6133 6690 6690 6133 6133 6133 6133 6133 6133 6690 6690 7359 6133 7359 6690 6690 4906 6690 6690 6690 6690 7359 8177 8177 8177 0 6690 6690 6690 6690 6690 6133 5661 4599 4906 5661 5256 4599 3873 3873 3504 4088 3873 4329 4906 4906 4906 5256 5256 6133 5256 6690 4599 3345 3345 4088 4906 4906 3873 3345 3504 3504 3504 3679 3199 2943 2943 3066 5256 3199 3199 3066 3066 3066 3504 3504 3504 3504 3345 3504 3504 3679 4088 2943 2830 2830 2830 0 2943 2830 2830 2830 2725 2830 2725 2830 2830 2725 2725 2628 2628 2628 2537 2628 2537 2453 2453 2453 2628 2453 2537 2453 2453 2164 2102 2299 2299 2299 2102 2102 0 0 0 0 0
    0 0 0 0 0 0 0 0 0 0 0 0 0 0 0 0 0 0 0 0 0 0 0 0 0 0 0 0 0 0 0 0 0 0 0 0 0 0 0 0 0 0 0 0 0 0 0 0 0 0 0 0 0 0 0 0 0 0 0 0 0 0 0 0 0 0 0 0 0 3679 3873 3873 3873 5256 3873 3199 4906 5256 4088 5256 5661 5661 5661 5661 8177 7359 6690 0 8177 7359 7359 6690 6690 6133 6133 7359 7359 7359 6690 5661 6690 7359 8177 8177 0 0 0 0 0 8177 8177 7359 6690 6690 4906 5661 6690 6690 6690 7359 8177 0 0 0 0 0 0 0 0 0 0 0 0 0 0 0 0 0 0 7359 6690 0 0 8177 8177 7359 6690 8177 8177 7359 0 8177 8177 8177 8177 0 8177 0 0 0 0 0 0 0 0 0 0 0 0 0 0 0 0 0 0 0 0 0 0 0 0 0 7359 0 8177 4906 6133 6133 6133 6133 6690 6690 6133 6133 8177 6690 6690 6690 6690 6690 6133 6133 6133 6690 6690 7359 7359 6133 6690 6690 7359 5256 6690 7359 6690 7359 6690 8177 8177 8177 0 6690 6690 6133 6133 6690 5661 5256 4906 5256 6133 5256 4599 4088 3873 3679 4329 3873 4329 4906 4906 5256 5256 5256 6133 4906 6690 4906 3504 3345 4088 4906 4906 4088 3345 3679 3679 3504 3679 3199 3066 3066 3199 5661 3345 3345 3199 3066 3066 3679 3679 3679 3504 3345 3504 3504 3679 4088 2943 2830 2830 2725 0 2830 2725 2725 2725 2628 2725 2725 2725 2830 2725 2725 2628 2628 2725 2628 2628 2628 2537 2537 2537 2537 2453 2537 2453 2453 2299 2230 2453 2453 2537 2230 2299 0 0 0 0 0
    0 0 0 0 0 0 0 0 0 0 0 0 0 0 0 0 0 0 0 0 0 0 0 0 0 0 0 0 0 0 0 0 0 0 0 0 0 0 0 0 0 0 0 0 0 0 0 0 0 0 0 0 0 0 0 0 0 0 0 0 0 0 0 0 0 0 0 0 0 3679 3873 3679 3873 4906 3873 3199 4599 4906 4088 4906 5256 5661 5661 5661 7359 6690 6690 0 8177 7359 7359 6690 6690 6690 6690 8177 8177 7359 7359 6690 7359 8177 0 0 0 0 0 0 0 0 0 0 8177 6690 5256 6133 6690 6690 7359 7359 8177 0 0 0 0 0 0 0 0 0 0 0 0 0 0 0 0 0 0 7359 6690 0 0 8177 8177 7359 6690 8177 8177 8177 0 0 8177 8177 8177 0 8177 0 0 0 0 0 0 0 0 0 0 0 0 0 0 0 0 0 0 0 0 0 0 0 0 0 6690 0 8177 4599 6133 6133 5661 6133 6133 6690 6133 6133 8177 6690 6690 7359 7359 6690 6690 6690 6133 6690 7359 7359 8177 6690 7359 6690 7359 5256 6690 7359 6690 6690 6133 7359 7359 7359 0 6690 6133 6133 6133 6690 5661 4906 5256 5661 6690 5661 4906 4329 4329 3873 4599 4088 4088 4906 4906 5256 4906 4906 5661 4599 6133 4906 3345 3199 4088 4906 4906 4088 3345 3679 3679 3679 3873 3345 3199 3199 3504 6133 3679 3504 3345 3199 3199 3679 3873 3679 3504 3345 3504 3504 3504 3873 2943 2830 2725 2628 0 2725 2628 2628 2628 2537 2725 2628 2725 2725 2628 2628 2628 2725 2725 2628 2725 2725 2628 2628 2628 2628 2537 2537 2453 2537 2374 2374 2537 2628 2628 2374 2374 0 0 0 0 0
    0 0 0 0 0 0 0 0 0 0 0 0 0 0 0 0 0 0 0 0 0 0 0 0 0 0 0 0 0 0 0 0 0 0 0 0 0 0 0 0 0 0 0 0 0 0 0 0 0 0 0 0 0 0 0 0 0 0 0 0 0 0 0 0 0 0 0 0 0 3679 4088 3679 3679 4599 3679 3199 4599 4906 4088 4906 5256 5256 5256 5256 7359 6690 6133 8177 7359 6133 6690 6690 6690 6690 6690 8177 8177 8177 8177 7359 8177 8177 0 0 0 0 0 0 0 0 0 0 0 6690 5661 6133 7359 7359 7359 8177 8177 0 0 0 0 0 0 0 0 0 0 0 0 0 0 0 0 0 0 7359 6133 0 8177 8177 8177 7359 6690 8177 8177 8177 0 0 8177 8177 0 0 0 0 0 7359 0 0 0 0 0 0 0 0 0 0 0 0 0 0 0 0 0 0 0 0 0 0 6690 0 0 4599 6133 6133 5661 6133 6133 6690 6133 5661 7359 6133 6133 7359 7359 6690 6690 6133 6133 6690 7359 8177 8177 7359 7359 7359 8177 5661 6690 7359 6690 6690 5661 6690 7359 7359 0 6133 6133 6133 6133 7359 5661 4906 5661 6133 6690 6133 5256 4906 4329 4088 4906 4088 4088 4906 4906 5256 4906 4906 5256 4329 6133 4906 3199 3199 3873 5256 5256 4329 3504 3873 3873 3873 4088 3504 3345 3345 3679 6133 3504 3345 3345 3199 3199 3873 3873 3873 3504 3504 3504 3504 3679 3873 2943 2830 2725 2628 2725 2537 2374 2453 2537 2537 2725 2628 2725 2725 2628 2628 2628 2725 2830 2725 2830 2725 2628 2628 2628 2628 2537 2537 2453 2537 2374 2374 2537 2628 2628 2374 2453 0 0 0 0 0
    0 0 0 0 0 0 0 0 0 0 0 0 0 0 0 0 0 0 0 0 0 0 0 0 0 0 0 0 0 0 0 0 0 0 0 0 0 0 0 0 0 0 0 0 0 0 0 0 0 0 0 0 0 0 0 0 0 0 0 0 0 0 0 0 0 0 0 0 0 3679 4088 3504 3679 4329 3504 3199 4599 4906 4088 4906 5256 5256 5256 5256 7359 6690 6133 0 7359 6133 6690 6690 6690 6690 7359 8177 8177 8177 8177 7359 8177 0 0 0 0 0 0 0 0 0 0 0 0 7359 6133 6690 7359 7359 8177 8177 8177 0 0 0 0 0 0 0 0 0 0 0 0 0 0 0 0 0 0 7359 6133 8177 7359 8177 8177 7359 6690 8177 8177 8177 0 0 0 0 0 0 0 0 0 7359 0 0 0 0 0 0 0 0 0 0 0 0 0 0 0 0 0 0 0 0 0 0 6690 0 0 4599 6133 6133 5661 6133 6133 6690 6133 5661 7359 6133 6690 7359 7359 6690 6690 6133 6133 6690 7359 8177 0 8177 8177 8177 0 5661 7359 7359 6690 6690 5256 6690 6690 6690 8177 6690 5661 6133 6133 6690 5661 5256 5661 6690 6690 6690 6133 5256 4599 4906 5256 4329 4088 4906 4906 5256 4906 5256 5256 4329 6133 4599 3199 3199 3873 5256 5256 4599 3504 4088 4088 4088 4599 3873 3504 3504 3679 6133 3345 3345 3199 3199 3199 3873 3873 3873 3679 3504 3679 3679 3679 3873 2943 2830 2725 2628 2725 2453 2374 2453 2453 2537 2628 2628 2725 2725 2628 2628 2628 2725 2830 2725 2830 2830 2725 2725 2725 2628 2537 2537 2537 2537 2374 2453 2628 2628 2725 2374 2453 0 0 0 0 0
    0 0 0 0 0 0 0 0 0 0 0 0 0 0 0 0 0 0 0 0 0 0 0 0 0 0 0 0 0 0 0 0 0 0 0 0 0 0 0 0 0 0 0 0 0 0 0 0 0 0 0 0 0 0 0 0 0 0 0 0 0 0 0 0 0 0 0 0 0 3679 4329 3345 3679 4329 3504 3199 4599 4599 4088 4906 5256 5256 5256 5256 7359 6690 6133 8177 7359 5661 6690 6690 6690 6690 6690 8177 8177 8177 8177 7359 0 0 0 0 0 0 0 0 0 0 0 0 0 7359 7359 6690 7359 7359 8177 8177 8177 0 0 0 0 0 0 0 0 0 0 0 0 0 0 0 0 0 0 7359 6133 8177 7359 7359 7359 6690 6690 8177 8177 8177 0 0 0 0 0 0 0 0 0 8177 0 0 0 0 0 6690 8177 0 0 7359 8177 8177 0 0 0 0 0 0 0 8177 0 0 6133 0 0 4599 6133 6133 5661 6133 6133 7359 6133 5661 7359 6690 6690 7359 7359 6690 6133 6133 6133 6690 7359 8177 0 0 0 0 0 6690 8177 7359 7359 6690 5256 6690 6690 6690 8177 6690 5661 6133 6133 6690 5661 4906 5661 6690 6690 7359 6690 5661 4906 5256 5661 4599 4088 4906 4906 4906 4599 5256 4599 4329 5661 4599 3066 3066 3873 5661 5661 4906 3679 4329 4329 4329 4599 3873 3679 3679 3873 6133 3345 3345 3199 3199 3345 4088 4088 4088 3679 3679 3873 3679 3873 3873 2943 2943 2725 2725 2725 2537 2537 2537 2453 2537 2628 2628 2725 2725 2628 2537 2628 2830 2830 2830 2943 2943 2830 2725 2725 2628 2628 2537 2628 2537 2374 2453 2628 2628 2725 2374 2453 0 0 0 0 0
    0 0 0 0 0 0 0 0 0 0 0 0 0 0 0 0 0 0 0 0 0 0 0 0 0 0 0 0 0 0 0 0 0 0 0 0 0 0 0 0 0 0 0 0 0 0 0 0 0 0 0 0 0 0 0 0 0 0 0 0 0 0 0 0 0 0 0 0 0 3679 4329 3199 3679 4088 3504 3199 4599 4599 3873 4906 5256 4906 5256 5256 6690 6133 5661 8177 7359 6133 7359 7359 6690 7359 7359 8177 8177 8177 8177 8177 0 0 0 0 0 0 0 0 0 0 0 0 0 7359 7359 7359 8177 7359 8177 0 0 0 0 0 0 0 0 0 0 0 0 0 0 0 0 0 0 0 0 7359 6133 8177 7359 8177 8177 7359 7359 8177 8177 8177 0 0 0 0 0 0 0 0 0 0 0 0 0 0 0 5661 7359 8177 6690 7359 8177 8177 0 0 0 0 0 0 8177 8177 8177 8177 6133 0 0 4599 6133 6133 5661 6133 6690 7359 6133 6133 7359 6690 6690 7359 7359 6690 6133 6133 6133 6690 7359 7359 0 0 0 0 0 7359 8177 8177 7359 7359 5661 6690 7359 7359 7359 6690 5661 5661 6133 6690 5256 4599 5256 6133 6133 6690 5661 5256 4599 5256 5661 4329 4088 4599 4906 4906 4329 4906 4088 4088 5661 4599 2943 3066 4088 6133 5661 5256 3679 4599 4599 4599 4906 4088 3679 3679 3873 6690 3504 3345 3345 3345 3345 4329 4329 4329 3679 3679 3873 3873 3873 3679 2943 2943 2725 2830 2830 2537 2537 2537 2537 2537 2628 2628 2725 2725 2725 2537 2725 2943 2943 2830 2943 2943 2943 2830 2830 2725 2628 2628 2628 2628 2453 2453 2628 2628 2725 2374 2453 0 0 0 0 0
    0 0 0 0 0 0 0 0 0 0 0 0 0 0 0 0 0 0 0 0 0 0 0 0 0 0 0 0 0 0 0 0 0 0 0 0 0 0 0 0 0 0 0 0 0 0 0 0 0 0 0 0 0 0 0 0 0 0 0 0 0 0 0 0 0 0 0 0 0 3679 5256 3199 4088 4329 4329 3199 4599 4599 3873 4906 4906 4599 4906 4906 6690 5256 5256 8177 8177 6690 0 8177 7359 8177 7359 8177 8177 8177 8177 8177 0 0 0 0 0 0 0 0 0 0 0 0 0 8177 8177 9199 0 8177 0 0 0 0 0 0 0 0 0 0 0 0 0 0 0 0 0 0 0 0 0 7359 6133 8177 8177 8177 7359 6690 7359 8177 8177 8177 0 0 0 0 0 0 0 0 0 8177 6690 0 0 0 4329 5661 6690 7359 5661 7359 8177 8177 0 0 0 8177 8177 0 8177 7359 8177 7359 5661 8177 8177 4329 6133 6133 5661 5661 6690 7359 6133 6133 8177 6690 6690 7359 7359 6690 6133 6133 6133 6690 7359 7359 8177 0 0 0 0 7359 0 8177 8177 7359 5661 6690 7359 7359 7359 6690 5256 5661 5661 6133 5256 4329 5256 6133 6133 6133 5256 4906 4329 5256 5661 4088 3873 4329 4599 4599 4329 4599 3873 3873 5661 4599 2830 2943 4329 6133 5661 5256 3679 4599 4599 4599 4599 3873 3679 3679 3873 6133 3066 3066 3345 3504 3345 4329 4329 4329 3679 3679 3873 3679 3679 3679 2943 2943 2830 2830 2830 2537 2537 2628 2537 2453 2628 2725 2725 2725 2725 2537 2830 2943 2943 2830 3066 0 0 0 0 2725 2628 2628 2628 2628 2453 2453 2628 2628 2725 2374 2453 0 0 0 0 0
    0 0 0 0 0 0 0 0 0 0 0 0 0 0 0 0 0 0 0 0 0 0 0 0 0 0 0 0 0 0 0 0 0 0 0 0 0 0 0 0 0 0 0 0 0 0 0 0 0 0 0 0 0 0 0 0 0 0 0 0 0 0 0 0 0 0 0 0 0 4088 6690 3873 5661 5661 6133 3345 4906 4906 3873 4599 4906 4599 4599 4906 6133 4906 4906 8177 8177 7359 0 0 8177 8177 7359 8177 8177 8177 8177 7359 9199 0 0 0 0 0 0 0 0 0 0 0 0 8177 8177 8177 8177 8177 0 0 0 0 0 0 0 0 0 0 0 0 0 0 0 0 0 0 0 0 0 7359 6133 8177 8177 8177 7359 6690 6690 7359 8177 8177 0 0 0 0 0 0 0 0 0 8177 6133 2725 0 0 3873 5661 6133 7359 5256 7359 8177 8177 8177 0 0 8177 8177 0 8177 7359 7359 6690 5661 7359 8177 4088 5661 5661 5256 5661 6690 7359 6133 6133 8177 6690 6690 7359 7359 6690 6133 5661 6133 6690 6690 7359 8177 0 0 0 0 6690 0 8177 8177 7359 5661 6690 7359 7359 6690 6690 5256 5661 5661 6133 5256 4329 5256 6133 5661 5661 4599 4906 4329 5256 5661 4088 4088 4329 4906 4599 4088 4599 3679 3679 5256 3873 2830 3066 4329 6133 5661 5256 3679 4599 4329 4329 4329 3679 3504 3504 3679 5661 2830 2453 2830 3199 3199 4088 4329 4088 3679 3679 3873 3679 3679 3679 3066 2943 2830 2830 2725 2537 2537 2537 2453 2453 2628 2725 2725 2830 2830 2453 2943 3066 3066 2943 3066 0 0 0 0 2725 2628 2628 2628 2628 2374 2453 2628 2628 2725 2299 2453 0 0 0 0 0
    0 0 0 0 0 0 0 0 0 0 0 0 0 0 0 0 0 0 0 0 0 0 0 0 0 0 0 0 0 0 0 0 0 0 0 0 0 0 0 0 0 0 0 0 0 0 0 0 0 0 0 0 0 0 0 0 0 0 0 0 0 0 0 0 0 0 0 0 0 4599 7359 4329 7359 0 8177 3504 5256 5256 4088 4906 4906 4599 4906 4906 6133 0 0 7359 7359 6690 0 0 0 0 0 8177 8177 8177 8177 7359 8177 0 0 0 0 0 0 0 0 0 0 0 0 8177 0 8177 8177 8177 0 0 0 8177 0 0 0 0 0 0 0 0 0 0 0 0 0 0 0 0 0 7359 5661 7359 7359 8177 8177 6690 7359 8177 8177 0 0 0 0 0 0 0 0 0 0 0 0 0 0 1599 0 6133 7359 7359 5661 7359 8177 8177 0 0 8177 8177 8177 0 8177 7359 7359 6690 5661 7359 8177 3873 5661 5661 5256 5661 6690 7359 6133 6133 8177 6690 6690 7359 7359 6133 5661 5256 6133 6690 6690 7359 0 0 0 0 0 6690 0 8177 8177 7359 5256 6690 7359 7359 6690 6690 5256 6133 6133 6690 5256 4088 5256 5661 5256 5256 4599 4599 4088 4906 5661 4088 4599 4599 4906 4599 4088 4599 3679 3679 5661 3345 2830 3066 4088 6133 5661 4906 3873 4599 4329 4329 4088 3345 3345 3199 3345 0 2537 2102 2453 0 3066 3873 4088 4088 3679 3679 3873 3679 3679 3679 3066 2943 2725 2725 2725 2453 2453 2453 2453 2374 2537 2725 2725 2830 2725 2453 2943 3066 3066 2943 3066 0 0 2830 0 2725 2537 2537 2537 2537 2299 2299 2537 2537 2628 2230 2453 0 0 0 0 0
    0 0 0 0 0 0 0 0 0 0 0 0 0 0 0 0 0 0 0 0 0 0 0 0 0 0 0 0 0 0 0 0 0 0 0 0 0 0 0 0 0 0 0 0 0 0 0 0 0 0 0 0 0 0 0 0 0 0 0 0 0 0 0 0 0 0 0 0 0 4906 7359 4599 8177 0 0 0 6133 6133 4329 5661 5661 5256 5256 0 0 255 0 0 0 6690 8177 8177 0 0 0 8177 8177 8177 8177 7359 8177 8177 8177 0 0 0 0 0 0 0 0 0 0 0 0 0 0 7359 0 0 8177 7359 0 8177 0 0 0 0 0 0 0 0 0 0 0 0 0 0 0 6690 4906 6690 6133 6133 7359 6690 8177 8177 0 0 0 0 0 0 0 0 0 0 0 0 0 0 0 1443 0 6690 7359 7359 5661 7359 8177 8177 0 0 8177 8177 8177 0 8177 0 0 0 0 7359 8177 3873 5661 5661 5256 5661 6133 6690 6133 5661 7359 6690 6690 7359 7359 6133 5256 5256 6133 6690 6690 6690 0 0 0 0 0 5256 7359 8177 8177 7359 5256 6690 7359 7359 6690 6690 5256 6133 6133 6690 5256 4088 4599 4906 4599 4599 4088 4088 3873 4906 5661 4088 4906 4599 5256 4599 4088 4599 3679 3679 5661 3066 2830 3066 4088 5661 5661 4906 3679 4599 4329 4329 4088 3345 0 0 3199 0 2453 2044 2299 2453 3066 3873 4088 3873 3504 3679 3679 3679 3679 3504 2943 2830 2628 2725 2628 2374 2374 2453 2537 2374 2453 2537 2628 2725 2628 2453 2943 3066 3066 2943 3066 2943 2943 2830 2943 2628 2537 2537 2453 2453 2164 2164 2453 2374 2374 2102 2299 0 0 0 0 0
    0 0 0 0 0 0 0 0 0 0 0 0 0 0 0 0 0 0 0 0 0 0 0 0 0 0 0 0 0 0 0 0 0 0 0 0 0 0 0 0 0 0 0 0 0 0 0 0 0 0 0 0 0 0 0 0 0 0 0 0 0 0 0 0 0 0 0 0 0 4599 6690 3873 8177 0 0 0 6133 6690 4906 5661 5661 5661 5256 257 259 255 254 0 6690 6133 7359 0 0 0 0 8177 8177 8177 8177 6690 7359 8177 7359 8177 0 0 0 0 0 0 0 0 0 0 0 0 0 7359 0 0 8177 6690 7359 8177 8177 8177 0 0 0 0 0 0 0 0 0 0 0 0 0 6133 3873 4906 4329 3679 5256 6133 0 0 0 0 0 0 0 0 0 0 0 0 0 0 0 0 0 0 0 5661 6690 5661 4906 6133 7359 8177 0 8177 8177 7359 0 0 8177 0 0 0 0 0 0 3679 5661 5661 5661 5661 6133 6690 6133 5661 7359 6690 6690 6690 6690 5661 4906 4906 5661 6133 5661 5256 7359 7359 8177 0 0 4329 7359 7359 7359 7359 5661 6690 7359 7359 6690 7359 5256 6133 6133 6690 4906 3873 4329 4329 4088 3873 3679 3679 3504 4329 4906 3873 4906 4599 5256 4599 4329 4906 3873 3679 6133 2943 2725 3066 3873 5661 5256 4599 3679 4329 4088 4088 3679 3199 0 0 0 0 2374 1989 2164 2374 2943 3679 3873 3873 3679 3873 3679 3679 3504 3504 2943 2830 2628 2725 2628 2374 2374 2453 2628 2453 2537 2537 2537 2628 2453 2299 2830 2943 2943 2830 3066 2943 2943 2725 2943 2628 2453 2453 2374 2299 2044 2044 2299 2230 2164 2044 2164 0 0 0 0 0
    0 0 0 0 0 0 0 0 0 0 0 0 0 0 0 0 0 0 0 0 0 0 0 0 0 0 0 0 0 0 0 0 0 0 0 0 0 0 0 0 0 0 0 0 0 0 0 0 0 0 0 0 0 0 0 0 0 0 0 0 0 0 0 0 0 0 0 0 0 4088 6133 3345 0 0 0 0 0 7359 5256 6133 6133 5661 5661 258 259 254 0 0 6133 6133 0 0 0 0 0 8177 8177 8177 7359 6133 6690 7359 6690 8177 0 0 0 0 0 0 0 0 0 0 0 0 0 7359 0 8177 7359 6133 6690 7359 7359 8177 0 0 9199 0 0 0 0 0 0 0 0 0 0 5256 3199 3504 3066 2725 0 0 0 0 0 0 0 0 0 0 0 0 0 0 0 0 0 0 0 0 0 5661 6690 6133 4906 6133 6690 7359 0 8177 8177 7359 8177 0 8177 0 0 0 0 0 0 3679 5256 5661 5661 6133 6133 6690 6133 5661 7359 6690 6690 6690 6133 5256 4906 4599 0 0 0 0 0 5661 7359 6133 8177 3873 6690 7359 7359 7359 5661 7359 7359 7359 0 0 0 6133 6133 6690 4906 3873 4088 3873 3679 3679 3504 3504 3345 3873 4599 3873 4906 4906 5256 4906 4329 5256 4088 3873 6133 2943 2725 2943 4088 6133 5661 4329 3504 4088 3873 3679 3504 0 0 0 0 0 2299 1989 2164 1887 2943 3873 3873 3873 3679 3873 3873 3679 3504 0 3066 2830 2725 2830 2628 2453 2453 2537 2725 2537 2537 2453 2453 2537 2374 2230 2725 2830 2943 2725 3066 2943 2830 2725 2943 2628 2374 2453 2299 2164 1936 1887 2044 1989 1989 1936 2102 0 0 0 0 0
    0 0 0 0 0 0 0 0 0 0 0 0 0 0 0 0 0 0 0 0 0 0 0 0 0 0 0 0 0 0 0 0 0 0 0 0 0 0 0 0 0 0 0 0 0 0 0 0 0 0 0 0 0 0 0 0 0 0 0 0 0 0 0 0 0 0 0 0 0 3873 5661 0 0 0 0 0 0 259 0 0 0 0 0 258 259 253 0 0 0 0 0 0 0 0 0 8177 8177 8177 7359 5661 6133 7359 6133 7359 0 0 0 0 0 0 0 0 0 0 0 0 0 0 0 0 7359 6133 7359 7359 8177 8177 0 0 8177 0 0 0 0 0 0 0 0 0 0 0 0 3066 2628 2102 0 0 0 0 0 0 0 0 0 0 0 0 0 0 0 0 0 0 0 0 0 0 0 0 0 0 7359 7359 0 0 8177 7359 8177 0 8177 0 186 0 0 0 0 3679 5256 5661 6133 6133 6133 6690 6133 5661 7359 6690 6133 6133 5661 4906 4599 4329 0 0 0 0 0 0 8177 5256 0 4088 7359 7359 8177 7359 5661 6690 7359 0 0 0 0 6133 6133 6690 4906 3679 3873 3679 3504 3504 3345 3345 3345 3873 4329 3679 4906 4906 5256 4906 4329 4906 4088 3873 6133 2943 2628 2725 4088 6133 5256 4088 3504 3873 3679 3504 3199 2830 2725 0 0 0 0 0 2044 0 2943 3873 3873 3873 3679 3873 3873 0 3679 0 3199 2943 2830 2830 2628 2453 2374 2537 2725 2537 2628 2453 2374 2537 2374 2230 2628 2830 2830 2628 3066 2943 2830 2725 2943 2628 2230 2299 2164 2044 1887 1839 1936 1936 1936 1936 2044 0 0 0 0 0
    0 0 0 0 0 0 0 0 0 0 0 0 0 0 0 0 0 0 0 0 0 0 0 0 0 0 0 0 0 0 0 0 0 0 0 0 0 0 0 0 0 0 0 0 0 0 0 0 0 0 0 0 0 0 0 0 0 0 0 0 0 0 0 0 0 0 0 0 0 3679 0 0 0 0 0 0 0 259 255 259 0 0 0 259 259 0 391 389 0 0 0 0 0 0 0 0 8177 7359 6690 4906 5661 6690 5661 7359 0 0 0 0 0 0 0 0 0 0 0 0 0 0 0 0 0 0 0 8177 8177 0 0 0 8177 8177 0 0 0 0 0 0 0 0 0 0 0 0 2299 1936 0 0 0 0 0 0 0 177 175 175 0 0 0 0 0 397 0 0 0 0 0 0 0 0 0 0 0 0 0 0 0 0 0 0 0 0 0 0 0 0 0 3504 5256 5661 6133 6133 5661 6133 5661 5256 6690 5661 5661 5256 5256 4599 4329 4329 0 0 0 0 0 0 0 6690 0 4599 7359 7359 8177 0 0 0 0 0 127 128 0 0 6690 7359 4906 3679 3873 0 3345 3345 3345 3345 3199 3679 4088 3679 4906 4599 5256 4599 4088 4906 3873 3873 6133 2943 2628 3066 3873 5661 5256 3873 3345 3679 3679 3504 3066 0 0 0 0 0 0 0 0 0 0 3679 3679 0 3504 3873 3873 4088 3679 0 3199 3066 2830 2830 2537 2374 2299 2537 2725 2537 2628 2374 2299 2537 2230 2230 2537 2725 2830 2537 3066 2830 2830 2628 2830 2628 2102 2164 2044 1989 1839 1795 1839 1887 1887 1887 1989 0 0 0 0 0
    0 0 0 0 0 0 0 0 0 0 0 0 0 0 0 0 0 0 0 0 0 0 0 0 0 0 0 0 0 0 0 0 0 0 0 0 0 0 0 0 0 0 0 0 0 0 0 0 0 0 0 0 0 0 0 0 0 0 0 0 0 0 0 0 0 0 0 0 0 0 0 0 0 0 0 0 0 0 0 0 0 391 387 0 0 0 397 397 399 0 0 0 0 0 0 0 0 8177 6133 3873 4599 5256 4088 6133 0 0 0 0 0 0 0 0 0 0 0 0 0 0 0 0 0 80 80 0 8177 0 0 0 7359 7359 0 0 0 0 0 0 0 0 132 0 0 0 2044 1887 0 0 0 0 0 0 0 0 0 0 0 404 402 402 397 397 399 399 397 397 397 0 0 0 0 0 399 395 0 397 399 397 0 0 0 0 0 0 0 0 0 0 0 5661 6690 6133 5661 6133 5661 4906 5661 4906 4599 4599 4088 3873 3873 0 0 0 0 0 0 94 0 0 0 6133 7359 0 0 0 0 0 0 0 128 128 128 0 0 8177 5256 3679 0 0 3345 3199 3199 3199 3199 3504 3873 3679 4906 4599 5256 4599 4088 4599 3873 3873 5661 2943 2725 2628 3679 4906 4599 3504 3345 3504 3504 0 0 0 0 0 0 0 0 0 0 0 0 0 3679 0 3679 4088 4088 4329 3679 0 0 3066 2830 2830 2374 2299 2230 2453 2725 2537 2628 2230 2102 2453 2044 2102 2374 2537 2725 2374 3066 2830 2725 2628 2830 2628 1989 2044 1936 1887 1795 1752 1795 1795 1795 1839 1936 0 0 0 0 0
    0 0 0 0 0 0 0 0 0 0 0 0 0 0 0 0 0 0 0 0 0 0 0 0 0 0 0 0 0 0 0 0 0 0 0 0 0 0 0 0 0 0 0 0 0 0 0 0 0 0 0 0 0 0 0 0 0 0 0 0 0 0 0 0 0 0 0 0 0 0 0 0 0 0 0 0 0 0 0 0 397 391 389 393 397 399 399 399 404 406 0 0 0 0 0 0 0 0 0 0 0 3873 3345 4088 0 0 0 0 0 0 0 0 0 0 0 0 207 205 0 0 81 80 80 80 0 0 0 0 6690 6690 0 0 0 0 0 0 0 0 0 0 406 402 0 0 0 402 404 406 406 408 411 406 404 408 406 404 402 402 399 397 399 399 397 397 397 397 397 395 395 395 397 397 397 397 402 399 399 399 402 0 0 0 0 0 387 0 0 0 0 0 5256 5256 4906 4599 4906 0 0 3679 3345 0 0 0 0 0 0 0 94 0 0 0 0 0 0 0 0 0 0 397 0 0 0 128 0 169 0 0 5661 0 0 109 0 3066 3066 3066 3066 3504 3679 3504 4599 4329 5256 4329 4088 4599 3873 3679 5661 2943 2830 2628 3679 4906 4329 3504 0 0 0 0 0 0 0 0 0 0 0 0 0 0 0 4599 4906 4599 4329 4906 4599 4906 4329 0 0 0 0 0 2102 2230 2102 2299 2628 2537 2453 2044 1936 2299 1839 0 2102 2374 2537 2230 3199 2830 2725 2628 2725 2628 1989 2044 1936 1887 1795 1752 1752 1795 1795 1795 1887 0 0 0 0 0
    0 0 0 0 0 0 0 0 0 0 0 0 0 0 0 0 0 0 0 0 0 0 0 0 0 0 0 0 0 0 0 0 0 0 0 0 0 0 0 0 0 0 0 0 0 0 0 0 0 0 0 0 0 0 0 0 0 0 0 0 0 0 0 0 0 0 0 0 0 418 413 0 0 0 0 406 399 0 0 395 395 391 391 395 397 402 402 402 406 408 411 418 418 415 418 420 415 413 411 413 411 411 0 0 0 0 0 0 0 0 0 0 0 0 0 415 0 0 0 0 0 80 80 0 0 413 0 0 0 0 0 0 0 0 395 397 395 0 397 397 404 404 404 402 399 402 404 406 406 406 408 404 404 408 406 404 402 402 399 399 399 399 395 395 395 395 395 393 393 393 395 395 399 397 402 402 402 402 402 399 0 397 0 389 387 389 393 389 389 393 0 0 0 0 0 0 0 0 0 0 0 0 0 164 0 0 0 0 0 0 0 0 0 0 389 391 395 397 395 391 0 0 0 0 0 0 0 0 0 109 0 0 0 0 2943 3199 3504 3345 4599 4088 4906 4088 3873 4329 3873 3873 5661 3066 0 0 0 5661 4329 3504 0 0 0 0 0 0 0 0 0 0 0 0 0 0 0 6690 6690 5661 5256 5661 5256 6133 5661 0 0 387 385 0 0 0 2044 2374 2628 2453 2374 1936 1711 0 1565 0 0 0 0 0 3504 0 0 0 2725 2628 1989 0 0 0 1795 1752 0 0 0 0 0 0 0 0 0 0
    0 0 0 0 0 0 0 0 0 0 0 0 0 0 0 0 0 0 0 0 0 0 0 0 0 0 0 0 0 0 0 0 0 0 0 0 0 0 0 0 0 0 0 0 0 0 0 0 0 0 0 0 0 0 0 0 0 0 0 0 0 0 0 0 0 0 0 0 0 418 415 418 415 415 411 406 402 399 399 397 399 395 397 399 402 406 406 406 408 408 411 413 411 411 411 411 411 411 411 411 411 411 411 411 411 411 406 0 0 0 0 0 0 0 413 413 413 413 413 418 415 0 0 411 411 408 408 408 404 404 404 399 397 397 397 397 395 397 397 395 402 402 402 402 399 399 402 404 406 406 406 404 404 406 406 404 404 402 399 399 399 399 395 395 395 393 393 393 393 393 397 395 399 397 402 402 402 402 402 399 402 397 397 391 389 393 395 391 393 395 397 397 399 399 399 399 404 406 408 0 415 0 0 0 418 408 0 0 393 0 0 0 0 0 391 391 393 397 395 393 395 395 399 0 0 0 0 399 399 397 397 393 395 391 0 0 3199 3345 4329 4088 4599 3873 3873 4088 0 3679 6133 3199 0 0 0 0 0 0 0 0 0 0 0 263 261 260 0 0 0 0 0 0 0 0 8177 6690 6133 0 0 0 0 391 391 387 385 387 0 0 0 0 2537 0 0 0 1599 0 0 0 0 0 379 373 377 375 0 230 0 0 0 381 0 381 0 0 389 385 387 387 381 0 0 0 0 0
    0 0 0 0 0 0 0 0 0 0 0 0 0 0 0 0 0 0 0 0 0 0 0 0 0 0 0 0 0 0 0 0 0 0 0 0 0 0 0 0 0 0 0 0 0 0 0 0 0 0 0 0 0 0 0 0 0 0 0 0 0 0 0 0 0 0 0 0 0 420 415 418 413 415 411 408 404 404 406 402 406 399 402 404 406 408 408 408 411 408 411 411 408 408 406 408 406 408 411 408 411 411 411 411 411 411 406 408 408 408 408 408 411 408 408 411 413 413 415 418 418 408 415 413 411 408 406 406 404 404 404 399 399 397 399 399 397 399 399 397 402 402 402 397 397 399 402 404 404 404 404 402 404 408 406 404 404 404 402 402 404 402 397 395 397 393 393 391 391 391 395 395 397 397 399 399 399 399 402 397 399 397 397 393 391 395 397 393 395 395 397 397 397 399 399 399 402 404 406 408 411 408 406 408 411 404 402 395 395 393 397 395 393 393 391 391 393 393 393 393 395 395 397 397 399 399 399 397 397 395 395 393 397 393 397 397 0 0 0 0 4906 3873 0 0 0 0 0 0 0 0 0 86 0 0 0 0 0 0 0 264 0 0 377 0 0 0 389 389 0 0 0 0 0 397 395 393 393 389 389 387 385 387 387 387 391 387 389 0 0 0 395 391 387 0 0 387 383 379 381 379 379 381 381 379 379 381 383 383 383 385 387 383 385 385 381 0 0 0 0 0
    0 0 0 0 0 0 0 0 0 0 0 0 0 0 0 0 0 0 0 0 0 0 0 0 0 0 0 0 0 0 0 0 0 0 0 0 0 0 0 0 0 0 0 0 0 0 0 0 0 0 0 0 0 0 0 0 0 0 0 0 0 0 0 0 0 0 0 0 0 418 415 415 411 413 411 408 404 406 411 408 411 404 404 406 408 411 411 411 411 408 411 411 408 408 406 406 406 408 408 406 408 406 406 408 408 408 404 406 408 406 411 408 411 411 411 413 415 415 418 420 420 411 415 413 411 408 406 406 404 404 406 402 402 399 402 404 402 404 402 399 399 402 399 395 395 399 402 402 402 404 402 402 404 408 406 404 404 404 404 404 404 402 397 397 397 393 393 391 391 391 395 395 395 395 397 397 397 397 399 397 397 397 397 395 393 395 397 395 397 397 397 397 397 399 397 397 402 402 404 406 411 408 408 406 408 404 399 395 395 393 397 393 393 393 391 393 393 393 393 395 397 397 397 397 397 397 397 397 397 395 395 395 399 397 397 399 402 397 397 395 397 395 395 395 395 395 397 395 0 389 385 0 0 0 385 385 387 385 395 395 395 385 387 389 377 389 389 391 393 393 395 393 393 395 393 393 391 387 389 387 387 389 389 387 391 387 391 391 393 393 391 389 387 389 393 389 387 383 385 383 385 387 385 383 381 381 383 383 381 381 383 381 383 385 383 0 0 0 0 0
    0 0 0 0 0 0 0 0 0 0 0 0 0 0 0 0 0 0 0 0 0 0 0 0 0 0 0 0 0 0 0 0 0 0 0 0 0 0 0 0 0 0 0 0 0 0 0 0 0 0 0 0 0 0 0 0 0 0 0 0 0 0 0 0 0 0 0 0 0 418 415 415 408 411 411 408 406 408 413 411 413 408 408 408 411 413 411 411 411 408 411 411 408 408 406 408 406 408 408 406 408 406 404 406 406 404 402 404 406 402 406 404 408 408 408 413 413 415 415 418 420 411 415 411 411 408 408 408 404 404 408 402 404 402 404 404 402 408 402 399 402 402 397 395 393 399 399 402 402 402 399 402 404 406 404 402 404 404 402 402 404 399 397 395 397 391 393 391 391 391 395 395 395 395 397 397 397 399 399 397 397 397 397 395 393 397 397 397 397 397 397 397 397 397 397 397 399 399 404 406 411 408 406 406 406 402 397 395 395 393 395 393 391 393 391 393 393 391 391 395 397 397 397 397 399 397 399 397 397 395 397 397 402 399 402 402 404 397 399 395 399 397 397 395 397 395 397 395 397 389 389 389 387 387 387 385 389 389 395 395 395 389 393 393 381 391 391 391 393 393 395 393 391 395 393 391 391 387 389 387 387 389 389 389 391 389 391 391 393 393 391 391 387 389 393 387 385 383 385 385 387 387 385 383 381 381 383 383 379 379 381 381 383 385 383 0 0 0 0 0
    0 0 0 0 0 0 0 0 0 0 0 0 0 0 0 0 0 0 0 0 0 0 0 0 0 0 0 0 0 0 0 0 0 0 0 0 0 0 0 0 0 0 0 0 0 0 0 0 0 0 0 0 0 0 0 0 0 0 0 0 0 0 0 0 0 0 0 0 0 415 413 413 408 411 411 408 406 408 415 411 413 411 408 411 411 413 411 411 411 408 411 411 408 408 406 408 408 411 408 406 408 404 404 404 404 402 402 402 404 402 404 402 406 406 408 411 411 413 413 413 415 408 413 408 408 408 408 408 404 406 408 404 406 406 406 406 406 420 404 402 404 404 399 397 395 402 402 402 399 399 399 399 402 406 402 402 402 404 402 402 404 399 397 395 397 391 393 391 391 391 395 395 395 395 399 397 399 399 399 397 397 397 397 395 393 395 397 397 397 397 397 395 397 397 397 397 397 399 402 404 408 404 404 404 402 399 395 393 393 393 395 393 391 393 391 393 393 393 391 395 397 397 397 397 397 397 397 399 397 397 397 399 402 399 402 399 402 397 399 395 397 397 395 395 397 395 397 395 397 391 391 391 391 389 391 387 391 389 397 393 395 389 393 393 381 391 391 391 393 393 395 393 391 395 393 389 389 385 387 387 387 389 389 389 391 389 393 391 393 393 391 391 387 389 393 389 387 385 387 385 387 389 387 385 381 383 383 383 381 379 381 381 383 385 385 0 0 0 0 0
    0 0 0 0 0 0 0 0 0 0 0 0 0 0 0 0 0 0 0 0 0 0 0 0 0 0 0 0 0 0 0 0 0 0 0 0 0 0 0 0 0 0 0 0 0 0 0 0 0 0 0 0 0 0 0 0 0 0 0 0 0 0 0 0 0 0 0 0 0 415 413 411 408 408 411 406 406 408 413 411 411 411 408 408 411 413 411 411 408 408 411 408 408 411 406 408 408 411 411 406 408 404 404 406 404 402 402 402 404 402 404 402 404 406 408 408 408 411 411 411 413 406 411 408 408 408 408 406 404 406 411 404 408 408 408 406 408 425 408 406 406 406 402 399 399 404 402 404 402 402 399 399 402 404 402 399 402 402 0 402 404 399 397 397 399 393 393 393 393 393 395 395 395 395 397 397 399 397 399 397 397 397 397 395 393 395 397 397 397 397 395 395 395 397 397 397 397 397 402 404 406 404 402 402 402 399 395 395 395 393 395 393 391 393 391 393 393 393 389 395 397 397 397 397 397 397 397 397 395 395 397 397 399 397 399 397 399 395 397 395 397 395 395 395 397 397 402 397 399 393 395 395 395 393 393 391 393 393 397 393 395 387 393 393 379 391 391 391 393 393 395 393 391 395 391 387 389 385 387 387 387 389 389 389 391 389 391 391 393 393 391 393 389 391 393 391 389 387 387 385 387 389 387 385 381 383 383 383 381 381 383 381 383 385 385 0 0 0 0 0
    0 0 0 0 0 0 0 0 0 0 0 0 0 0 0 0 0 0 0 0 0 0 0 0 0 0 0 0 0 0 0 0 0 0 0 0 0 0 0 0 0 0 0 0 0 0 0 0 0 0 0 0 0 0 0 0 0 0 0 0 0 0 0 0 0 0 0 0 0 411 411 408 406 406 406 404 404 406 408 411 411 408 408 408 408 411 411 411 408 408 411 408 411 411 408 411 408 411 408 406 408 404 406 408 404 404 402 404 406 404 406 404 404 406 406 408 408 408 408 408 411 406 411 406 408 408 408 408 406 406 411 406 408 408 411 406 408 425 411 408 411 406 404 402 0 404 402 404 402 402 402 399 402 404 399 399 402 404 402 404 406 402 399 399 402 395 395 395 393 393 395 395 395 395 397 397 0 397 397 395 395 395 397 393 393 395 395 397 397 397 395 395 397 397 397 397 397 397 402 404 406 402 402 402 399 399 395 395 395 393 395 395 393 393 391 393 393 391 389 395 395 395 395 395 395 395 395 397 395 395 395 397 399 399 399 397 397 395 397 395 397 397 395 395 397 397 402 397 402 395 395 397 397 393 395 395 397 395 399 395 395 389 393 393 381 391 391 389 393 391 393 391 391 395 391 385 387 385 387 387 387 389 389 389 391 389 391 391 393 393 391 393 389 391 395 391 391 387 389 385 387 387 385 385 383 383 381 385 381 383 385 383 385 385 385 0 0 0 0 0
    0 0 0 0 0 0 0 0 0 0 0 0 0 0 0 0 0 0 0 0 0 0 0 0 0 0 0 0 0 0 0 0 0 0 0 0 0 0 0 0 0 0 0 0 0 0 0 0 0 0 0 0 0 0 0 0 0 0 0 0 0 0 0 0 0 0 0 0 0 411 411 406 404 406 406 404 404 406 408 408 408 408 408 408 408 411 411 411 408 408 411 408 411 411 406 408 408 408 408 406 408 404 404 408 404 404 402 404 406 404 406 404 404 406 406 408 408 408 408 408 411 408 411 406 406 406 408 408 406 408 411 406 408 411 411 406 408 422 411 411 411 406 404 402 0 404 404 404 402 402 402 402 404 404 399 402 402 404 404 406 408 404 402 402 402 395 395 395 393 393 395 395 395 395 397 0 0 397 397 395 395 395 397 395 393 395 397 397 399 397 397 397 397 399 397 397 397 399 402 406 406 404 402 402 399 399 395 395 395 393 395 393 391 393 391 393 393 389 387 393 393 395 393 393 393 393 395 397 393 393 395 397 399 397 399 397 397 395 397 395 399 399 397 395 399 397 402 397 399 395 395 397 397 393 397 397 399 397 402 397 395 389 395 393 381 391 391 389 391 391 393 391 389 393 389 385 387 385 387 387 387 389 389 389 391 389 391 391 393 393 393 393 391 391 395 393 393 389 391 385 387 387 387 385 383 383 381 385 381 383 385 383 385 385 385 0 0 0 0 0
    0 0 0 0 0 0 0 0 0 0 0 0 0 0 0 0 0 0 0 0 0 0 0 0 0 0 0 0 0 0 0 0 0 0 0 0 0 0 0 0 0 0 0 0 0 0 0 0 0 0 0 0 0 0 0 0 0 0 0 0 0 0 0 0 0 0 0 0 0 411 411 406 406 406 406 404 404 406 406 408 408 408 408 408 408 411 411 411 411 411 413 408 411 411 406 408 408 408 408 406 406 404 404 408 404 404 402 402 404 404 406 406 404 406 406 406 408 408 408 408 411 408 411 406 406 408 411 408 406 408 411 406 408 413 411 406 408 422 411 411 411 406 404 402 402 406 404 404 402 404 402 402 404 404 402 402 402 404 404 408 411 408 404 404 404 399 399 397 395 395 397 397 395 395 0 0 0 397 397 395 395 397 399 397 395 397 397 399 399 399 397 399 399 399 399 399 397 399 402 406 404 402 399 399 397 399 395 395 397 393 395 395 391 393 391 395 393 389 389 393 393 395 395 393 393 393 393 395 393 393 395 395 397 397 399 397 395 395 397 395 399 399 397 397 402 399 404 399 399 395 395 397 397 393 395 397 399 397 404 399 397 389 393 393 381 391 391 389 391 391 393 389 389 393 387 383 387 385 387 387 387 389 389 389 391 389 391 391 393 391 391 393 393 393 395 395 393 391 391 385 387 387 385 385 383 381 381 383 381 381 385 383 383 385 385 0 0 0 0 0
    0 0 0 0 0 0 0 0 0 0 0 0 0 0 0 0 0 0 0 0 0 0 0 0 0 0 0 0 0 0 0 0 0 0 0 0 0 0 0 0 0 0 0 0 0 0 0 0 0 0 0 0 0 0 0 0 0 0 0 0 0 0 0 0 0 0 0 0 0 411 413 406 406 404 0 0 0 404 404 406 406 406 408 408 408 408 411 411 411 408 411 408 411 408 406 408 408 406 408 404 406 402 404 408 404 404 402 404 406 406 406 406 404 406 406 406 408 406 408 406 408 408 411 406 408 408 411 411 408 408 411 408 411 413 411 406 408 422 408 408 411 406 404 402 404 406 404 404 402 404 402 402 402 402 399 402 402 404 404 406 411 411 406 406 406 402 402 402 397 397 397 397 395 395 0 0 0 397 397 397 395 397 399 399 397 397 399 399 399 399 397 399 399 399 399 399 397 399 402 404 402 397 397 399 397 399 397 397 399 395 397 395 393 393 391 395 395 391 391 395 395 395 395 395 393 391 393 395 391 393 393 393 395 395 397 395 391 393 395 395 397 402 399 399 404 404 406 404 404 399 397 397 397 395 397 397 399 399 404 402 397 389 393 393 381 391 391 389 389 389 391 389 387 391 385 379 385 383 385 385 387 387 389 387 391 389 391 391 391 389 391 395 393 395 397 397 397 393 393 387 387 387 385 385 383 381 379 383 381 381 385 383 383 383 385 0 0 0 0 0
    0 0 0 0 0 0 0 0 0 0 0 0 0 0 0 0 0 0 0 0 0 0 0 0 0 0 0 0 0 0 0 0 0 0 0 0 0 0 0 0 0 0 0 0 0 0 0 0 0 0 0 0 0 0 0 0 0 0 0 0 0 0 0 0 0 0 0 0 0 413 413 406 408 404 0 0 0 0 0 404 404 404 406 406 408 408 411 411 411 408 411 406 408 408 406 406 408 406 408 404 406 404 404 408 404 404 404 404 406 406 406 406 0 0 406 406 406 406 406 406 408 411 408 406 406 408 413 411 411 411 411 411 413 415 413 408 408 422 411 411 411 408 406 404 404 406 404 404 0 402 402 399 399 399 399 402 399 402 402 406 411 408 406 406 408 402 402 402 399 397 399 399 397 397 0 0 0 397 399 397 397 399 402 399 399 399 399 402 402 399 399 399 399 402 402 402 397 399 402 402 402 399 399 402 402 402 399 402 402 397 399 397 395 393 393 397 395 391 393 395 395 397 395 395 393 393 395 395 391 391 393 393 393 395 395 393 391 393 395 395 397 402 399 399 404 404 406 402 404 399 397 399 399 395 397 399 399 397 404 399 395 385 391 391 381 389 391 389 389 389 391 387 387 391 383 377 383 383 385 385 385 387 389 387 391 389 389 389 391 389 389 393 393 395 397 397 397 393 393 385 387 385 385 385 383 381 379 383 381 381 385 383 383 383 385 0 0 0 0 0
    0 0 0 0 0 0 0 0 0 0 0 0 0 0 0 0 0 0 0 0 0 0 0 0 0 0 0 0 0 0 0 0 0 0 0 0 0 0 0 0 0 0 0 0 0 0 0 0 0 0 0 0 0 0 0 0 0 0 0 0 0 0 0 0 0 0 0 0 0 415 418 408 413 406 404 402 0 0 0 404 404 404 406 406 408 408 408 411 411 408 411 406 408 408 406 408 408 408 411 406 408 406 406 411 406 406 404 406 406 406 406 406 0 0 406 406 406 406 406 406 408 411 408 406 406 408 413 411 411 411 411 411 413 415 415 408 411 422 411 411 411 408 406 404 0 406 404 404 0 402 402 397 397 399 397 399 399 402 402 404 408 408 404 406 406 404 404 402 399 399 402 399 399 399 0 0 0 399 402 399 404 399 402 399 399 399 399 402 402 399 399 399 399 399 399 399 397 399 399 402 399 402 402 402 402 402 399 402 402 399 399 399 395 395 393 399 397 393 395 397 397 397 397 397 395 393 395 397 391 391 393 393 393 393 395 393 391 393 397 395 397 402 402 402 404 404 404 402 402 399 397 399 397 395 397 397 399 399 402 399 393 381 389 389 379 389 389 387 387 387 391 387 387 391 383 377 381 383 383 385 385 387 387 387 389 387 389 389 389 387 389 393 391 393 395 397 397 393 393 387 387 385 385 385 383 381 379 385 383 383 385 383 383 383 385 0 0 0 0 0
    0 0 0 0 0 0 0 0 0 0 0 0 0 0 0 0 0 0 0 0 0 0 0 0 0 0 0 0 0 0 0 0 0 0 0 0 0 0 0 0 0 0 0 0 0 0 0 0 0 0 0 0 0 0 0 0 0 0 0 0 0 0 0 0 0 0 0 0 0 418 418 408 0 0 0 404 0 0 0 404 404 406 406 408 408 408 411 411 411 408 411 406 408 408 406 408 408 408 411 408 408 408 408 413 408 408 408 408 408 408 406 406 404 406 406 406 406 406 406 406 406 408 408 406 406 406 413 411 411 411 411 411 411 415 415 408 411 420 411 411 408 406 406 404 0 0 402 0 0 402 402 397 397 397 397 399 0 0 0 404 408 408 406 408 408 406 406 404 402 402 404 402 402 402 0 0 0 402 404 402 408 402 404 402 399 399 402 402 399 399 402 399 399 399 397 397 397 397 397 397 397 399 399 402 402 402 399 402 402 399 399 399 397 395 395 399 397 393 395 397 397 397 397 397 395 395 395 395 391 391 393 393 393 395 395 393 393 395 397 397 399 402 402 402 406 406 406 402 402 399 397 0 399 395 397 397 399 399 399 397 393 379 389 389 379 389 389 387 387 387 391 387 387 391 381 377 381 383 385 385 385 385 387 387 389 387 387 387 387 385 387 393 391 393 395 395 395 393 393 387 387 385 385 383 383 381 379 385 383 383 385 383 383 383 385 0 0 0 0 0
    0 0 0 0 0 0 0 0 0 0 0 0 0 0 0 0 0 0 0 0 0 0 0 0 0 0 0 0 0 0 0 0 0 0 0 0 0 0 0 0 0 0 0 0 0 0 0 0 0 0 0 0 0 0 0 0 0 0 0 0 0 0 0 0 0 0 0 0 0 418 415 408 0 0 0 0 0 0 0 406 404 406 408 408 408 408 411 411 411 411 411 406 406 406 406 406 408 406 408 406 408 408 408 413 411 411 411 411 411 411 408 408 404 408 406 406 406 0 0 0 406 408 406 406 404 406 413 411 408 411 411 408 411 415 415 408 408 420 411 411 408 404 402 402 0 0 0 0 0 404 402 399 397 399 399 399 399 0 0 404 408 408 406 408 411 408 408 406 404 402 406 402 404 402 402 402 402 404 404 402 411 404 406 404 402 402 402 402 402 402 402 399 402 402 399 397 397 399 397 397 0 397 399 399 402 399 399 399 399 399 399 399 397 395 397 402 397 393 397 399 397 397 397 397 395 395 395 395 391 389 393 391 393 395 393 393 393 395 397 397 0 402 402 404 404 406 406 0 0 0 397 399 397 395 397 399 402 402 402 402 395 379 389 389 379 389 389 389 387 387 391 387 387 391 383 377 383 385 385 385 385 387 387 387 389 387 387 387 385 385 387 391 391 393 395 395 395 393 393 387 387 383 385 383 381 379 379 383 381 381 385 383 381 383 383 0 0 0 0 0
    0 0 0 0 0 0 0 0 0 0 0 0 0 0 0 0 0 0 0 0 0 0 0 0 0 0 0 0 0 0 0 0 0 0 0 0 0 0 0 0 0 0 0 0 0 0 0 0 0 0 0 0 0 0 0 0 0 0 0 0 0 0 0 0 0 0 0 0 0 415 413 408 0 0 0 0 0 0 0 0 404 406 411 411 411 0 411 411 411 0 411 406 404 404 0 404 406 404 406 0 0 0 0 0 0 0 0 413 413 413 408 408 406 408 406 406 406 0 0 0 404 406 404 402 402 404 411 408 406 408 408 408 408 413 413 406 406 418 408 408 406 402 0 0 0 0 0 0 0 404 404 399 397 402 399 402 399 0 0 0 406 408 404 408 408 408 408 408 404 404 406 404 404 404 0 402 404 404 406 404 411 404 406 404 402 402 402 402 402 402 402 399 399 402 402 399 399 402 397 399 0 399 399 399 399 399 397 397 397 397 397 397 397 395 397 399 397 393 397 399 397 397 397 395 395 395 397 395 389 387 393 391 393 393 391 391 391 393 395 395 397 397 399 402 402 402 0 0 0 0 393 395 395 393 393 395 397 402 402 404 397 379 391 389 381 389 389 389 387 389 391 389 389 393 387 381 387 387 385 387 385 387 387 387 389 387 387 387 383 385 387 393 391 393 395 393 395 393 391 385 385 383 383 381 379 379 377 381 379 379 383 381 381 381 381 0 0 0 0 0
    0 0 0 0 0 0 0 0 0 0 0 0 0 0 0 0 0 0 0 0 0 0 0 0 0 0 0 0 0 0 0 0 0 0 0 0 0 0 0 0 0 0 0 0 0 0 0 0 0 0 0 0 0 0 0 0 0 0 0 0 0 0 0 0 0 0 0 0 0 415 413 0 0 0 0 0 0 0 0 0 0 0 411 411 0 0 413 411 0 0 411 406 0 0 0 0 0 0 0 0 0 0 0 0 0 0 0 0 413 0 408 0 406 408 406 406 406 404 404 0 404 404 402 399 399 402 408 411 406 408 406 408 408 413 413 404 402 0 0 0 0 0 0 0 0 0 0 91 0 404 404 402 0 404 399 0 0 0 0 0 404 406 404 406 406 408 408 406 404 404 406 404 404 404 404 0 406 406 408 408 0 406 406 404 402 402 402 402 399 399 402 399 399 402 402 402 402 402 399 0 0 0 0 0 0 397 395 397 397 397 397 397 395 395 395 399 395 391 395 397 397 395 397 395 393 395 397 393 387 385 393 389 391 393 389 391 391 393 395 393 395 397 397 404 402 404 0 0 0 0 395 395 395 393 393 391 393 395 395 397 393 377 389 389 381 389 389 389 389 389 393 391 391 395 391 385 389 387 387 387 387 387 387 387 389 385 387 387 385 387 387 391 391 393 395 393 395 393 391 385 385 381 381 379 379 377 377 381 377 379 381 379 379 381 379 0 0 0 0 0
    0 0 0 0 0 0 0 0 0 0 0 0 0 0 0 0 0 0 0 0 0 0 0 0 0 0 0 0 0 0 0 0 0 0 0 0 0 0 0 0 0 0 0 0 0 0 0 0 0 0 0 0 0 0 0 0 0 0 0 0 0 0 0 0 0 0 0 0 0 0 0 0 0 0 0 0 0 0 0 0 406 0 0 411 0 0 413 0 0 0 0 0 0 0 0 0 319 322 325 0 0 0 0 0 123 0 0 0 0 0 408 408 406 408 406 404 404 0 0 0 0 0 0 397 397 402 411 411 408 408 408 411 408 413 411 404 0 0 0 0 0 0 0 0 0 0 91 91 91 0 0 0 0 0 0 0 0 0 0 0 0 402 399 404 404 408 408 406 0 404 408 404 404 0 0 0 406 406 408 408 0 0 0 404 402 402 402 402 399 399 402 402 402 402 402 402 402 402 0 0 0 0 0 0 0 0 0 0 0 0 395 397 397 395 395 402 397 393 395 397 395 395 397 395 393 395 397 0 383 0 393 389 0 391 389 389 389 393 393 393 393 395 397 404 404 406 0 0 0 0 0 0 0 395 391 385 389 389 391 393 391 375 387 387 379 389 389 389 389 389 393 391 391 397 393 385 389 387 387 387 385 387 385 385 389 385 387 387 383 385 385 391 389 391 395 393 391 391 387 383 381 379 381 377 377 377 375 381 377 377 379 379 379 379 379 0 0 0 0 0
    0 0 0 0 0 0 0 0 0 0 0 0 0 0 0 0 0 0 0 0 0 0 0 0 0 0 0 0 0 0 0 0 0 0 0 0 0 0 0 0 0 0 0 0 0 0 0 0 0 0 0 0 0 0 0 0 0 0 0 0 0 0 0 0 0 0 0 0 0 0 0 330 324 324 322 321 0 0 0 0 0 0 0 0 0 0 0 0 0 0 0 0 0 0 319 321 321 322 325 328 330 333 330 0 0 0 415 413 415 415 408 408 408 408 406 404 0 0 0 0 0 0 0 0 0 0 411 415 411 411 411 411 411 413 413 408 0 0 0 348 339 333 333 0 0 0 0 0 0 0 0 0 0 0 0 0 0 0 0 0 0 0 0 0 0 406 406 0 0 0 408 404 0 0 0 0 408 406 408 0 0 0 0 404 402 402 404 402 399 399 402 402 402 402 402 402 402 402 0 97 97 0 0 0 0 0 0 0 0 0 0 0 397 393 393 404 397 393 395 397 395 395 397 395 393 0 0 0 0 0 0 0 0 0 387 389 389 393 393 393 393 395 397 406 406 408 0 0 0 0 0 0 0 0 0 0 393 393 393 393 389 375 385 387 379 387 385 387 0 387 391 391 391 397 395 387 389 387 387 387 385 387 385 385 387 385 387 387 383 385 381 389 389 389 0 0 0 0 383 381 379 379 379 377 375 377 377 381 377 377 379 377 377 379 377 0 0 0 0 0
    0 0 0 0 0 0 0 0 0 0 0 0 0 0 0 0 0 0 0 0 0 0 0 0 0 0 0 0 0 0 0 0 0 0 0 0 0 0 0 0 0 0 0 0 0 0 0 0 0 0 0 0 0 0 0 0 0 0 0 0 0 0 0 0 0 0 0 0 0 325 327 328 324 324 322 322 0 0 0 0 0 0 0 0 0 0 0 0 0 0 0 0 0 0 319 322 322 324 325 327 328 331 330 337 337 337 0 0 0 0 406 0 408 411 406 0 0 0 0 0 0 0 0 0 0 0 0 0 413 413 411 413 413 415 415 408 0 0 0 343 337 333 331 325 0 0 0 90 90 0 0 0 0 0 0 0 0 0 0 0 0 0 0 0 393 0 0 0 0 0 0 0 0 0 0 0 411 411 411 0 0 0 406 404 402 402 404 404 402 402 404 404 402 404 402 404 404 402 0 0 96 0 0 0 97 0 0 0 0 0 0 0 0 391 0 404 397 393 395 397 395 393 397 395 0 0 0 574 553 0 0 0 310 0 389 391 391 393 393 393 391 391 393 0 0 0 0 0 0 0 0 0 0 397 395 389 393 393 393 391 387 0 383 385 377 383 0 0 0 0 0 0 0 0 402 393 391 389 389 389 387 387 385 385 389 387 389 391 385 387 381 389 387 0 0 0 0 0 381 379 379 379 379 377 377 379 377 381 375 377 377 377 377 379 377 0 0 0 0 0
    0 0 0 0 0 0 0 0 0 0 0 0 0 0 0 0 0 0 0 0 0 0 0 0 0 0 0 0 0 0 0 0 0 0 0 0 0 0 0 0 0 0 0 0 0 0 0 0 0 0 0 0 0 0 0 0 0 0 0 0 0 0 0 0 0 0 0 0 0 324 325 327 322 324 322 324 0 0 0 0 0 0 0 0 0 0 0 0 0 0 0 0 319 322 319 324 322 325 325 327 328 331 330 337 334 334 334 330 330 327 331 330 0 0 0 0 0 0 0 0 0 0 0 0 0 0 0 0 413 0 411 408 411 413 411 0 0 0 0 339 336 331 327 324 321 0 0 0 0 0 0 0 0 0 317 315 317 0 0 0 0 0 0 0 0 333 327 322 0 0 321 324 321 0 0 0 0 0 415 0 0 0 0 404 399 402 404 402 399 399 402 402 402 399 397 402 0 0 0 0 96 0 0 97 97 97 0 0 0 0 0 0 0 0 0 0 397 393 393 397 395 393 397 0 0 584 561 566 553 0 0 313 310 0 0 389 391 391 391 389 0 0 0 0 0 0 0 0 0 0 0 0 0 0 0 391 395 395 393 389 0 0 379 381 373 379 0 0 0 0 0 0 0 0 408 0 393 391 389 389 387 389 387 387 389 387 391 391 387 387 0 0 0 0 0 0 0 0 377 377 377 377 379 377 377 379 377 381 375 377 377 377 377 377 375 0 0 0 0 0
    0 0 0 0 0 0 0 0 0 0 0 0 0 0 0 0 0 0 0 0 0 0 0 0 0 0 0 0 0 0 0 0 0 0 0 0 0 0 0 0 0 0 0 0 0 0 0 0 0 0 0 0 0 0 0 0 0 0 0 0 0 0 0 0 0 0 0 0 0 324 325 327 322 324 324 324 325 322 324 0 0 321 0 0 0 0 321 321 319 321 322 324 319 322 319 322 322 324 325 325 327 330 328 336 333 331 331 327 328 325 327 327 324 325 324 319 317 317 0 317 318 321 321 0 0 0 0 0 0 0 0 0 411 408 0 0 0 0 334 336 333 328 324 322 322 319 321 0 319 318 315 318 315 317 315 315 315 315 318 330 327 325 325 333 333 330 325 322 322 321 321 324 321 318 318 318 0 0 0 0 0 0 0 0 0 402 402 399 397 0 0 399 0 0 0 0 313 311 313 311 0 0 0 0 0 0 0 0 318 314 314 314 314 314 314 311 0 387 389 391 393 0 0 86 0 0 0 561 549 0 0 311 309 305 304 0 301 301 0 0 0 0 0 310 314 311 310 306 0 0 0 0 0 0 0 393 393 391 389 385 0 0 379 377 371 373 0 0 0 0 0 0 78 0 422 0 0 393 391 391 389 391 389 389 391 389 0 0 0 0 0 0 0 0 0 0 0 0 0 0 375 0 375 375 375 379 375 379 373 375 375 377 377 377 375 0 0 0 0 0
    0 0 0 0 0 0 0 0 0 0 0 0 0 0 0 0 0 0 0 0 0 0 0 0 0 0 0 0 0 0 0 0 0 0 0 0 0 0 0 0 0 0 0 0 0 0 0 0 0 0 0 0 0 0 0 0 0 0 0 0 0 0 0 0 0 0 0 0 0 324 325 327 324 325 324 324 325 322 325 324 322 324 319 322 321 322 322 322 321 322 324 325 321 322 319 322 322 324 324 324 325 328 328 336 333 330 331 325 328 325 327 327 324 325 325 322 322 321 322 321 319 324 322 327 333 333 331 0 0 0 0 0 0 0 0 333 334 333 331 333 331 330 325 324 324 321 321 321 321 318 317 318 317 317 315 315 315 315 318 325 322 322 324 331 328 328 325 322 322 321 321 322 321 319 319 318 317 314 319 0 0 317 317 0 0 0 0 0 0 0 0 0 0 0 315 314 313 313 313 313 314 313 311 314 0 0 318 318 317 313 314 313 313 314 314 313 314 0 0 0 0 0 87 86 86 0 0 0 0 313 313 311 309 306 306 304 302 302 307 305 306 307 311 310 314 313 313 310 0 0 0 0 0 0 0 0 395 389 387 0 0 0 0 377 371 0 0 0 0 0 0 0 0 0 0 0 0 0 0 393 393 0 0 393 0 0 0 0 0 0 0 0 0 0 0 0 0 0 0 0 0 0 0 371 373 377 373 377 371 373 373 377 377 377 375 0 0 0 0 0
    0 0 0 0 0 0 0 0 0 0 0 0 0 0 0 0 0 0 0 0 0 0 0 0 0 0 0 0 0 0 0 0 0 0 0 0 0 0 0 0 0 0 0 0 0 0 0 0 0 0 0 0 0 0 0 0 0 0 0 0 0 0 0 0 0 0 0 0 0 324 325 327 324 327 327 325 328 325 328 327 325 325 321 324 324 324 325 324 322 324 325 325 321 322 319 322 322 322 324 322 324 325 327 333 330 325 328 324 328 324 325 325 324 325 327 324 327 322 325 322 321 324 322 325 328 330 328 328 328 328 327 0 0 328 327 325 330 330 330 331 330 328 325 324 325 322 322 322 321 319 317 317 317 317 315 315 315 315 317 322 321 321 322 328 325 325 324 322 321 319 321 321 321 321 319 318 317 315 319 317 317 317 317 317 317 318 319 315 315 0 0 311 313 314 313 313 313 314 314 314 317 315 315 317 0 0 318 318 317 313 314 314 314 314 314 314 314 0 317 0 0 0 0 86 0 0 0 0 313 311 311 311 310 307 307 305 304 306 310 309 310 310 311 311 314 314 313 310 0 309 0 307 0 307 307 311 310 0 0 310 305 306 307 0 310 307 304 309 310 311 311 313 313 0 313 314 313 0 0 0 0 0 0 0 111 0 0 0 0 0 321 0 0 0 0 0 0 0 0 0 0 0 0 0 0 0 371 375 369 371 373 377 375 375 375 0 0 0 0 0
    0 0 0 0 0 0 0 0 0 0 0 0 0 0 0 0 0 0 0 0 0 0 0 0 0 0 0 0 0 0 0 0 0 0 0 0 0 0 0 0 0 0 0 0 0 0 0 0 0 0 0 0 0 0 0 0 0 0 0 0 0 0 0 0 0 0 0 0 0 324 325 327 325 328 327 327 330 327 328 327 327 328 322 325 325 325 327 325 324 324 325 325 321 322 319 322 322 322 322 322 324 325 325 333 327 324 327 324 327 324 325 325 324 325 327 324 327 322 324 321 321 322 321 324 324 325 324 324 322 324 321 322 319 322 321 321 324 325 325 327 327 328 325 325 325 324 324 324 324 319 317 317 317 315 315 315 317 317 317 324 321 321 322 327 322 324 322 322 321 319 321 321 322 321 319 318 318 317 319 317 318 318 318 317 318 319 319 317 317 315 315 314 315 315 314 314 314 315 315 315 318 318 318 319 318 318 318 318 317 314 314 314 314 314 314 314 314 315 317 319 317 314 314 314 314 313 311 313 311 311 311 311 310 309 309 306 305 309 311 310 310 310 313 313 315 315 314 0 0 313 313 311 313 310 310 311 310 309 305 307 304 306 307 309 309 307 304 307 309 310 310 310 310 311 311 313 313 311 0 304 0 300 0 0 0 0 311 310 314 314 0 0 0 0 0 0 322 0 0 0 0 310 310 311 0 0 0 0 0 0 373 377 377 375 0 0 0 0 0 0
    0 0 0 0 0 0 0 0 0 0 0 0 0 0 0 0 0 0 0 0 0 0 0 0 0 0 0 0 0 0 0 0 0 0 0 0 0 0 0 0 0 0 0 0 0 0 0 0 0 0 0 0 0 0 0 0 0 0 0 0 0 0 0 0 0 0 0 0 0 324 324 327 325 328 327 327 330 327 328 328 327 328 322 325 325 325 328 327 324 325 327 327 324 322 319 322 322 322 322 321 322 324 324 333 327 324 327 322 327 324 325 324 324 325 327 324 327 322 324 322 321 322 321 322 322 322 322 321 321 322 319 321 319 321 319 321 324 324 324 325 325 327 324 324 324 324 324 324 322 319 314 315 315 315 315 315 317 317 317 325 322 322 324 325 322 322 321 321 319 319 321 321 321 321 319 317 317 317 319 318 319 319 318 318 319 321 319 318 318 315 315 317 317 317 315 315 315 317 317 317 318 318 318 319 318 317 317 317 314 313 314 314 314 314 315 315 315 317 317 318 315 313 313 313 313 311 311 310 310 310 310 311 310 307 307 305 305 307 310 309 310 310 313 313 315 315 315 314 314 314 314 313 314 313 311 311 310 309 305 307 304 306 306 307 307 306 304 306 309 310 310 310 310 311 311 313 314 313 314 306 306 302 305 307 310 310 311 310 314 314 315 317 315 0 317 0 318 0 0 309 306 307 309 309 307 307 305 310 0 313 0 0 0 0 0 0 0 0 0 0
    0 0 0 0 0 0 0 0 0 0 0 0 0 0 0 0 0 0 0 0 0 0 0 0 0 0 0 0 0 0 0 0 0 0 0 0 0 0 0 0 0 0 0 0 0 0 0 0 0 0 0 0 0 0 0 0 0 0 0 0 0 0 0 0 0 0 0 0 0 322 324 325 324 327 327 325 328 325 327 327 325 327 322 324 324 324 327 325 324 327 327 328 327 324 319 322 322 322 322 321 322 322 324 331 327 324 327 322 327 324 325 324 324 325 327 324 327 322 324 322 321 322 321 322 322 322 322 321 321 322 321 322 321 322 321 322 324 324 324 324 324 325 322 322 322 322 322 322 322 319 314 315 315 314 315 315 315 315 317 327 322 322 324 325 321 322 321 321 319 319 321 321 321 321 319 318 318 318 321 319 321 321 319 319 321 322 321 319 318 317 317 318 318 318 317 317 317 317 318 318 319 319 318 318 318 317 317 315 313 313 314 314 315 315 315 315 315 317 317 317 314 311 310 310 311 310 310 310 309 310 310 310 309 305 305 304 304 307 310 309 310 310 311 313 314 315 315 314 314 314 314 314 313 313 311 311 310 307 306 307 302 306 306 307 307 307 305 307 309 310 310 310 311 311 311 313 314 314 315 309 309 305 307 309 310 310 311 310 313 313 315 315 314 314 315 315 315 314 0 309 306 307 309 307 305 304 302 306 309 307 0 301 300 297 300 0 0 0 0 0
    0 0 0 0 0 0 0 0 0 0 0 0 0 0 0 0 0 0 0 0 0 0 0 0 0 0 0 0 0 0 0 0 0 0 0 0 0 0 0 0 0 0 0 0 0 0 0 0 0 0 0 0 0 0 0 0 0 0 0 0 0 0 0 0 0 0 0 0 0 324 324 325 324 327 327 325 327 324 325 325 324 327 321 324 324 322 325 324 322 325 327 327 328 324 319 322 322 322 322 321 322 322 324 333 328 324 327 322 327 325 325 325 324 325 327 324 327 324 324 321 319 322 319 321 321 322 322 322 322 325 321 322 321 322 321 321 322 322 322 322 322 322 321 321 321 321 322 322 321 318 314 315 315 314 314 314 315 315 315 327 324 324 324 324 319 321 321 321 319 321 322 321 322 322 322 321 319 319 321 319 322 321 321 319 321 322 322 319 319 317 317 318 319 319 317 318 318 318 318 318 319 319 318 319 318 317 315 315 313 313 314 314 315 315 317 315 315 318 315 315 313 311 310 310 310 310 310 310 309 310 310 310 309 305 305 304 304 307 310 309 310 310 313 313 314 315 315 315 315 314 314 314 314 313 311 311 310 309 306 307 302 306 306 307 307 307 305 307 310 311 311 311 311 311 311 314 314 313 314 309 309 305 309 310 310 310 311 310 313 313 314 314 313 311 313 311 313 311 310 309 307 309 310 307 307 306 305 309 309 307 300 299 299 297 300 0 0 0 0 0
    0 0 0 0 0 0 0 0 0 0 0 0 0 0 0 0 0 0 0 0 0 0 0 0 0 0 0 0 0 0 0 0 0 0 0 0 0 0 0 0 0 0 0 0 0 0 0 0 0 0 0 0 0 0 0 0 0 0 0 0 0 0 0 0 0 0 0 0 0 324 324 325 324 327 325 324 325 322 324 324 324 325 321 324 324 324 325 325 324 325 327 327 330 324 319 322 324 324 324 322 322 322 324 333 327 325 327 322 327 325 325 325 324 325 325 324 327 322 324 321 318 321 319 321 321 322 322 322 322 325 322 322 322 321 321 321 321 322 322 321 322 321 321 322 321 321 322 322 321 318 313 315 314 314 314 314 314 314 315 327 324 325 325 325 319 321 319 321 321 321 322 322 324 324 324 322 321 319 322 321 321 321 319 318 321 322 322 319 319 317 317 318 319 319 318 319 319 318 319 319 321 319 318 319 318 317 0 315 311 313 314 314 315 315 317 315 315 317 315 315 314 311 309 310 310 310 311 310 309 310 311 311 310 307 307 305 305 309 310 310 311 311 313 313 314 315 315 314 314 314 314 314 314 313 311 311 311 309 306 307 304 306 306 307 307 307 305 309 310 311 311 311 313 313 311 314 314 313 313 309 309 306 309 310 310 310 311 310 313 313 314 314 313 310 313 311 313 311 310 310 310 311 314 310 310 310 307 310 306 306 299 299 299 297 300 0 0 0 0 0
    0 0 0 0 0 0 0 0 0 0 0 0 0 0 0 0 0 0 0 0 0 0 0 0 0 0 0 0 0 0 0 0 0 0 0 0 0 0 0 0 0 0 0 0 0 0 0 0 0 0 0 0 0 0 0 0 0 0 0 0 0 0 0 0 0 0 0 0 0 325 324 325 325 325 325 324 324 322 324 324 324 324 321 322 324 324 325 325 325 327 330 328 331 325 319 324 324 324 324 321 322 322 324 331 327 325 327 324 328 325 327 325 324 325 325 324 325 321 322 319 318 319 318 319 319 321 321 321 321 325 321 321 322 321 319 321 321 322 322 321 322 322 324 324 322 321 322 322 322 318 313 314 314 313 314 314 314 314 314 328 325 327 327 328 321 321 319 321 321 322 322 322 324 325 325 325 322 322 324 322 322 321 319 318 321 321 321 318 318 317 317 318 319 319 319 319 319 319 319 319 319 319 318 318 317 315 315 315 311 314 314 314 315 315 317 315 315 317 317 315 314 311 310 309 310 310 311 310 309 310 311 311 311 310 309 307 306 309 310 310 311 311 311 311 313 314 314 313 314 313 314 314 314 313 311 311 311 309 306 307 304 307 307 307 307 307 305 310 310 313 311 313 313 313 313 315 314 313 313 309 309 307 309 310 311 310 311 310 313 313 314 313 311 310 311 310 311 310 310 310 311 313 315 313 311 313 309 311 306 304 299 297 297 297 300 0 0 0 0 0
    0 0 0 0 0 0 0 0 0 0 0 0 0 0 0 0 0 0 0 0 0 0 0 0 0 0 0 0 0 0 0 0 0 0 0 0 0 0 0 0 0 0 0 0 0 0 0 0 0 0 0 0 0 0 0 0 0 0 0 0 0 0 0 0 0 0 0 0 0 324 324 324 324 325 325 324 324 322 324 324 324 324 319 322 322 322 324 324 325 327 330 328 333 327 319 324 325 324 324 322 324 322 324 331 325 325 328 324 330 327 328 327 324 325 325 324 325 321 322 319 318 319 318 317 318 319 319 0 319 322 319 319 322 321 319 321 321 322 322 322 324 322 324 324 321 319 321 321 321 318 311 314 314 313 314 314 314 314 314 327 324 325 327 325 319 319 319 321 321 322 322 324 325 325 325 325 322 324 325 322 321 0 319 317 319 319 318 317 317 317 317 318 319 319 319 319 319 318 318 318 318 318 318 317 315 315 315 315 311 314 314 314 315 315 317 315 315 317 315 317 315 313 310 310 311 311 313 311 310 310 311 313 313 310 310 309 307 310 310 310 311 311 311 311 311 313 313 313 313 313 313 313 313 313 311 311 311 307 306 307 304 307 307 307 307 309 306 310 311 313 313 313 313 313 313 315 314 313 313 310 310 307 309 310 310 310 310 310 313 313 313 313 311 310 311 310 311 311 311 311 313 314 317 313 311 311 307 309 305 304 300 299 299 299 301 0 0 0 0 0
    0 0 0 0 0 0 0 0 0 0 0 0 0 0 0 0 0 0 0 0 0 0 0 0 0 0 0 0 0 0 0 0 0 0 0 0 0 0 0 0 0 0 0 0 0 0 0 0 0 0 0 0 0 0 0 0 0 0 0 0 0 0 0 0 0 0 0 0 0 324 322 324 324 325 325 325 324 322 322 322 322 322 318 319 319 319 321 322 324 327 330 327 333 328 321 325 327 325 325 322 324 322 324 331 325 325 327 325 330 327 328 327 324 325 325 324 325 322 322 319 318 319 318 0 0 319 319 0 319 322 318 318 321 319 319 319 321 321 321 322 324 321 324 322 321 319 321 321 321 318 311 314 314 314 315 314 314 314 314 327 324 327 327 325 319 319 319 322 321 322 322 324 325 324 325 324 321 322 322 321 0 0 318 314 317 318 317 317 317 317 317 318 319 319 319 319 318 318 317 317 317 317 317 317 315 315 315 315 313 314 315 314 315 315 317 317 317 317 315 315 315 313 311 311 311 313 314 313 310 311 313 313 311 310 309 310 307 311 309 309 310 311 313 313 311 313 313 313 313 313 313 313 313 313 311 311 311 307 305 307 304 309 309 309 309 309 306 310 311 313 313 313 313 313 313 315 315 314 313 310 310 307 309 310 310 310 310 310 311 311 313 311 310 309 311 310 311 311 313 313 314 315 317 313 311 307 305 304 304 302 300 300 300 300 304 0 0 0 0 0
    0 0 0 0 0 0 0 0 0 0 0 0 0 0 0 0 0 0 0 0 0 0 0 0 0 0 0 0 0 0 0 0 0 0 0 0 0 0 0 0 0 0 0 0 0 0 0 0 0 0 0 0 0 0 0 0 0 0 0 0 0 0 0 0 0 0 0 0 0 322 321 322 324 324 324 324 322 322 321 322 321 321 318 319 318 318 319 319 324 327 328 325 331 328 321 327 328 327 327 324 325 324 325 333 325 325 327 325 328 327 328 327 324 325 324 324 325 322 322 319 318 321 318 0 0 0 0 0 319 324 319 319 322 319 319 321 321 321 321 322 322 321 322 322 319 319 321 321 319 318 311 314 314 314 315 314 314 314 314 327 324 328 328 330 321 322 322 325 322 324 324 324 324 322 322 321 319 321 319 318 0 0 317 314 315 317 315 315 317 318 318 319 321 319 319 321 318 317 314 314 313 314 315 314 314 314 314 315 313 315 315 315 315 317 317 317 317 318 315 317 317 315 311 311 313 313 314 313 310 310 313 313 310 307 306 307 305 309 305 306 306 310 311 311 311 313 314 314 314 314 313 314 314 314 313 311 311 309 306 307 304 310 310 309 309 309 306 310 311 313 311 311 313 313 313 314 314 313 313 311 310 309 309 310 310 310 310 310 311 311 311 311 310 309 310 310 311 311 313 314 315 317 318 314 313 305 302 301 302 301 300 300 301 300 304 0 0 0 0 0
    0 0 0 0 0 0 0 0 0 0 0 0 0 0 0 0 0 0 0 0 0 0 0 0 0 0 0 0 0 0 0 0 0 0 0 0 0 0 0 0 0 0 0 0 0 0 0 0 0 0 0 0 0 0 0 0 0 0 0 0 0 0 0 0 0 0 0 0 0 322 322 322 322 324 324 324 322 322 321 321 321 321 318 319 318 319 319 321 325 328 328 327 331 328 321 327 328 327 327 325 327 324 325 333 325 325 327 324 328 327 328 327 324 327 325 325 327 324 324 321 321 324 321 0 0 322 322 325 322 327 322 322 324 321 319 321 321 321 321 322 322 321 322 322 319 319 321 321 321 318 313 315 314 314 315 314 314 314 314 324 322 327 325 327 321 321 322 324 321 322 322 322 322 321 321 319 318 319 318 317 0 0 315 314 315 317 315 317 317 318 318 319 321 319 319 319 318 315 313 313 313 313 314 314 313 314 314 315 313 315 315 315 315 317 317 317 317 318 317 318 318 315 313 313 313 314 314 314 311 310 313 313 310 309 306 307 306 309 306 306 306 310 310 311 311 313 314 314 314 314 313 314 314 313 313 311 313 309 309 310 306 311 311 309 310 310 307 310 311 313 311 311 313 313 311 314 314 313 313 311 310 310 311 311 311 310 311 310 311 311 311 310 310 309 311 310 313 311 313 314 315 317 318 314 313 305 304 301 304 302 301 301 302 301 305 0 0 0 0 0
    0 0 0 0 0 0 0 0 0 0 0 0 0 0 0 0 0 0 0 0 0 0 0 0 0 0 0 0 0 0 0 0 0 0 0 0 0 0 0 0 0 0 0 0 0 0 0 0 0 0 0 0 0 0 0 0 0 0 0 0 0 0 0 0 0 0 0 0 0 324 322 322 322 324 324 324 324 324 321 322 322 321 319 321 319 321 321 324 327 328 328 327 331 327 319 327 327 327 327 325 327 324 325 333 325 327 327 325 328 325 328 327 325 327 325 327 328 325 325 324 322 325 322 325 324 325 324 328 325 331 325 0 324 319 319 321 319 321 319 321 321 319 322 322 319 319 321 322 322 319 313 315 314 315 315 314 314 314 314 324 321 324 321 322 319 318 319 321 319 321 319 321 321 319 319 0 0 0 0 0 0 0 0 314 315 315 315 317 317 318 318 318 319 319 319 319 318 315 314 313 313 314 314 313 313 314 314 315 313 315 315 315 315 317 317 317 317 318 317 319 319 317 314 314 314 314 315 314 313 311 314 314 311 311 310 311 310 310 309 307 306 310 310 311 311 313 314 313 314 314 314 314 314 314 313 311 313 310 310 313 309 311 311 310 311 311 307 310 311 311 311 311 313 313 311 314 314 313 314 314 313 311 313 311 313 311 311 310 311 311 310 309 309 307 310 310 313 311 314 314 315 317 318 314 313 306 306 302 305 304 304 302 304 302 307 0 0 0 0 0
    0 0 0 0 0 0 0 0 0 0 0 0 0 0 0 0 0 0 0 0 0 0 0 0 0 0 0 0 0 0 0 0 0 0 0 0 0 0 0 0 0 0 0 0 0 0 0 0 0 0 0 0 0 0 0 0 0 0 0 0 0 0 0 0 0 0 0 0 0 322 322 321 322 324 324 324 324 324 322 322 324 322 321 322 321 321 321 324 325 328 327 328 331 327 319 327 327 327 327 325 327 324 325 333 325 325 327 324 328 325 328 327 325 328 325 327 328 325 325 322 321 324 321 325 322 324 324 327 324 330 325 0 324 319 319 321 319 321 319 319 321 319 322 322 321 319 322 324 322 319 314 315 315 315 315 314 314 314 314 322 319 322 318 319 317 315 315 317 317 317 317 318 317 0 0 0 0 0 0 0 0 0 314 313 314 315 314 315 317 317 318 318 318 318 318 318 317 314 314 313 313 313 314 313 314 314 315 315 314 315 315 315 315 315 317 317 317 318 317 321 321 319 317 317 315 317 315 315 313 313 314 314 313 314 313 314 314 313 311 310 307 313 311 313 313 314 315 314 315 315 314 315 315 315 314 313 313 310 309 313 309 310 310 309 311 313 307 310 311 311 311 311 313 313 311 314 314 313 314 314 313 313 313 311 313 311 311 310 311 311 311 309 310 310 311 311 313 313 314 315 317 318 318 315 314 309 309 306 307 306 307 305 306 306 310 0 0 0 0 0
    0 0 0 0 0 0 0 0 0 0 0 0 0 0 0 0 0 0 0 0 0 0 0 0 0 0 0 0 0 0 0 0 0 0 0 0 0 0 0 0 0 0 0 0 0 0 0 0 0 0 0 0 0 0 0 0 0 0 0 0 0 0 0 0 0 0 0 0 0 322 322 321 322 322 324 324 324 325 324 324 324 321 321 322 319 322 321 322 325 328 327 328 331 327 319 327 327 325 327 325 325 322 325 333 324 325 325 325 328 325 328 327 325 328 325 327 328 325 325 322 321 324 321 325 322 324 322 325 324 328 324 324 322 319 319 321 321 321 321 319 322 321 324 322 322 321 324 325 325 321 315 317 315 315 315 314 314 314 314 321 318 319 317 317 315 313 314 314 314 315 315 0 315 314 314 0 0 0 311 0 310 311 314 313 314 314 314 315 317 317 318 318 318 318 318 318 317 314 313 311 311 313 313 313 314 314 315 315 314 315 314 315 315 315 315 315 315 317 317 322 324 324 319 319 318 318 317 315 314 313 314 314 313 314 313 315 315 314 313 311 310 314 313 314 313 314 314 314 315 315 314 315 314 315 314 311 310 307 307 311 309 310 310 309 311 313 307 310 311 311 311 313 313 313 313 314 315 314 314 314 313 313 313 311 313 310 311 310 311 313 311 309 311 311 314 313 314 313 314 315 318 317 317 314 314 310 309 309 310 307 309 307 309 307 311 0 0 0 0 0
    0 0 0 0 0 0 0 0 0 0 0 0 0 0 0 0 0 0 0 0 0 0 0 0 0 0 0 0 0 0 0 0 0 0 0 0 0 0 0 0 0 0 0 0 0 0 0 0 0 0 0 0 0 0 0 0 0 0 0 0 0 0 0 0 0 0 0 0 0 322 322 321 322 322 324 324 325 327 324 324 322 319 319 321 319 321 321 321 322 325 325 327 330 327 319 325 325 325 325 324 325 321 324 331 324 325 325 325 328 325 328 327 327 328 327 328 328 325 327 324 321 325 321 325 322 322 322 324 322 327 322 325 322 321 321 322 322 321 321 321 322 321 322 322 321 321 324 324 324 321 315 317 315 315 315 314 315 314 314 321 318 318 317 315 315 313 313 314 314 0 0 0 314 313 313 311 313 0 313 0 313 314 317 317 317 315 315 317 318 318 318 318 318 318 318 318 317 314 314 313 313 313 314 313 314 315 315 315 315 315 314 315 315 315 315 315 317 317 318 322 322 322 319 318 318 318 317 315 314 313 314 314 313 313 313 314 315 315 313 313 310 314 313 314 314 314 314 314 315 315 314 315 314 314 313 311 309 306 306 310 309 310 310 309 310 313 306 310 311 311 311 313 313 313 313 314 315 315 315 315 313 313 313 311 313 309 311 310 311 311 311 309 310 311 313 311 313 313 313 314 315 315 314 313 313 309 309 309 310 309 310 309 309 309 311 0 0 0 0 0
    0 0 0 0 0 0 0 0 0 0 0 0 0 0 0 0 0 0 0 0 0 0 0 0 0 0 0 0 0 0 0 0 0 0 0 0 0 0 0 0 0 0 0 0 0 0 0 0 0 0 0 0 0 0 0 0 0 0 0 0 0 0 0 0 0 0 0 0 0 322 322 321 322 322 324 325 324 325 324 322 322 319 319 321 319 319 321 321 321 324 324 324 328 325 319 324 324 325 325 324 324 321 324 331 324 325 325 325 328 325 328 327 327 328 327 328 328 327 327 325 322 325 322 324 322 322 322 324 322 328 321 325 322 322 321 324 322 321 321 321 322 321 322 321 321 319 322 324 324 321 315 317 317 317 317 314 315 315 314 321 318 318 317 317 315 313 313 314 314 0 0 0 313 311 313 311 313 313 0 314 0 0 318 317 318 317 317 317 318 318 318 318 318 318 318 317 317 314 314 314 314 315 315 314 315 315 315 317 315 315 314 315 315 315 317 315 317 317 318 322 322 322 319 318 318 318 317 315 314 313 314 314 313 313 313 314 314 314 313 311 311 314 314 315 314 314 315 315 317 317 315 315 314 314 313 311 309 307 306 310 309 309 309 309 310 313 306 309 310 310 311 311 313 313 313 314 315 315 317 315 313 313 314 311 313 310 0 311 310 311 311 309 311 313 314 313 314 313 313 313 314 314 313 311 311 307 307 309 309 309 310 309 310 309 311 0 0 0 0 0
    0 0 0 0 0 0 0 0 0 0 0 0 0 0 0 0 0 0 0 0 0 0 0 0 0 0 0 0 0 0 0 0 0 0 0 0 0 0 0 0 0 0 0 0 0 0 0 0 0 0 0 0 0 0 0 0 0 0 0 0 0 0 0 0 0 0 0 0 0 322 322 321 322 324 324 325 325 327 325 324 324 321 322 322 321 321 321 322 321 322 322 322 327 324 319 324 324 324 324 324 324 319 324 331 324 325 325 325 328 325 328 327 327 328 327 328 328 327 327 325 321 324 322 324 322 322 321 324 321 328 321 325 322 322 322 324 322 322 321 321 322 321 321 321 321 319 322 322 322 319 315 317 317 317 317 314 315 315 314 322 318 319 317 317 315 313 314 314 314 314 0 0 313 313 311 310 311 311 314 313 0 0 317 318 318 318 318 318 319 318 318 318 318 318 318 317 317 314 315 317 315 317 315 314 315 315 317 315 315 315 314 315 315 315 317 317 317 318 319 324 324 324 321 319 318 318 315 314 314 313 314 314 314 313 313 314 314 313 311 311 311 313 314 315 314 314 315 315 317 317 315 315 314 314 314 311 309 307 306 310 309 307 309 307 310 313 305 307 310 310 310 311 313 311 313 314 315 315 317 315 314 314 315 313 315 313 0 314 313 313 313 310 313 314 315 313 313 313 313 311 313 311 310 309 311 306 306 309 310 309 310 309 310 309 311 0 0 0 0 0
    0 0 0 0 0 0 0 0 0 0 0 0 0 0 0 0 0 0 0 0 0 0 0 0 0 0 0 0 0 0 0 0 0 0 0 0 0 0 0 0 0 0 0 0 0 0 0 0 0 0 0 0 0 0 0 0 0 0 0 0 0 0 0 0 0 0 0 0 0 321 322 321 322 322 322 325 327 328 328 325 325 324 324 325 324 324 322 322 322 322 322 322 327 324 319 322 322 324 324 322 324 319 324 331 324 325 325 325 328 325 328 327 327 328 327 328 328 325 325 324 321 324 321 324 322 322 322 324 322 330 322 328 324 324 322 324 322 322 321 319 321 319 319 319 319 318 321 322 322 319 314 317 315 317 315 314 314 314 314 322 319 319 317 318 317 314 314 314 314 0 0 0 0 0 0 310 313 313 315 314 315 317 318 318 318 318 319 318 319 318 318 318 318 318 318 318 317 315 318 318 317 317 317 0 315 315 317 315 314 314 314 315 315 315 315 317 317 318 321 324 324 324 322 319 319 318 315 314 314 313 314 314 314 313 313 314 313 313 311 311 311 313 313 314 313 313 314 315 315 315 314 314 314 315 314 313 310 309 306 309 307 307 307 307 309 313 305 307 310 310 311 311 313 311 311 314 315 315 318 317 315 315 317 315 317 315 0 315 314 314 314 313 314 315 317 315 314 314 314 311 311 310 309 309 311 306 307 310 311 311 311 310 310 309 310 0 0 0 0 0
    0 0 0 0 0 0 0 0 0 0 0 0 0 0 0 0 0 0 0 0 0 0 0 0 0 0 0 0 0 0 0 0 0 0 0 0 0 0 0 0 0 0 0 0 0 0 0 0 0 0 0 0 0 0 0 0 0 0 0 0 0 0 0 0 0 0 0 0 0 321 322 321 322 322 322 325 327 328 328 325 325 324 324 325 322 322 322 322 321 322 322 322 327 324 319 322 322 322 322 322 322 319 322 330 324 325 325 325 328 325 328 327 327 328 327 327 327 325 324 324 321 322 322 324 322 322 322 324 322 331 325 330 324 324 322 324 322 321 319 318 318 317 317 317 317 317 319 321 321 319 314 317 317 315 315 313 314 314 315 322 319 318 318 318 318 315 315 315 315 314 0 0 0 0 0 313 314 314 317 315 315 317 317 318 319 318 319 318 321 318 319 319 318 319 318 318 317 314 317 318 317 317 315 314 315 315 317 315 314 314 314 315 315 315 315 315 317 318 321 322 322 324 321 319 321 318 315 314 313 313 313 314 314 313 313 314 314 314 313 313 313 314 313 314 313 313 314 314 315 314 314 314 314 315 314 313 310 309 307 309 307 307 309 307 310 313 305 309 310 310 311 311 313 311 311 314 315 315 318 317 315 315 318 315 318 315 0 315 314 315 315 314 317 318 318 317 317 315 313 310 309 307 307 307 310 307 307 311 311 314 313 313 311 309 310 0 0 0 0 0
    0 0 0 0 0 0 0 0 0 0 0 0 0 0 0 0 0 0 0 0 0 0 0 0 0 0 0 0 0 0 0 0 0 0 0 0 0 0 0 0 0 0 0 0 0 0 0 0 0 0 0 0 0 0 0 0 0 0 0 0 0 0 0 0 0 0 0 0 0 321 321 321 321 321 321 324 325 325 325 324 322 321 321 322 319 321 321 321 318 321 321 321 325 324 319 322 322 322 322 322 322 319 322 330 324 325 325 325 328 327 328 327 327 328 327 327 327 324 324 324 321 322 321 322 322 322 321 322 321 331 325 328 324 324 324 322 322 321 319 318 318 317 317 315 317 317 319 321 321 319 313 317 317 317 317 314 314 315 315 325 319 319 318 318 318 315 315 315 314 314 0 0 0 0 0 0 0 315 318 315 317 317 318 318 319 318 321 318 321 319 319 319 319 321 319 318 317 315 318 319 319 318 318 0 0 317 317 315 315 315 315 315 317 315 317 315 318 318 321 321 322 322 321 319 321 318 317 314 314 313 314 314 314 314 314 315 314 314 313 314 314 314 314 314 313 311 314 314 314 314 314 314 314 315 314 313 309 309 306 307 306 306 307 307 309 311 304 307 310 310 311 311 311 311 311 314 315 315 318 317 315 315 317 315 317 315 0 314 314 314 314 314 317 318 317 317 318 317 314 313 309 307 306 306 309 306 307 311 311 313 313 313 311 310 310 0 0 0 0 0
    0 0 0 0 0 0 0 0 0 0 0 0 0 0 0 0 0 0 0 0 0 0 0 0 0 0 0 0 0 0 0 0 0 0 0 0 0 0 0 0 0 0 0 0 0 0 0 0 0 0 0 0 0 0 0 0 0 0 0 0 0 0 0 0 0 0 0 0 0 319 321 319 319 319 318 319 321 319 321 321 0 0 319 319 319 319 319 319 318 319 321 321 325 322 318 322 321 322 322 321 322 319 322 330 324 325 325 327 328 327 328 327 327 328 327 327 325 324 322 324 319 321 321 321 321 321 321 321 321 328 322 324 324 322 324 324 322 321 321 319 318 318 317 315 317 317 319 319 319 318 313 317 317 317 317 314 315 317 317 325 319 319 319 319 319 317 315 315 315 315 0 317 317 0 317 0 0 317 318 317 317 317 318 318 319 318 319 318 321 319 318 319 318 319 318 318 317 315 318 319 319 318 318 0 317 318 318 315 315 315 315 315 317 317 317 317 318 319 322 321 322 322 321 321 322 319 318 315 315 314 315 314 315 314 314 315 315 314 314 314 314 314 314 314 313 313 314 314 314 314 314 313 314 314 313 311 307 309 305 307 306 306 306 306 307 310 304 307 309 309 310 311 311 311 311 314 315 314 317 315 314 314 315 315 317 315 0 314 313 314 0 0 0 0 0 318 318 318 315 314 309 307 305 305 309 307 307 311 311 314 314 313 311 310 310 0 0 0 0 0
    0 0 0 0 0 0 0 0 0 0 0 0 0 0 0 0 0 0 0 0 0 0 0 0 0 0 0 0 0 0 0 0 0 0 0 0 0 0 0 0 0 0 0 0 0 0 0 0 0 0 0 0 0 0 0 0 0 0 0 0 0 0 0 0 0 0 0 0 0 319 319 319 318 318 317 318 319 317 317 318 315 0 318 319 319 318 319 319 318 319 321 319 324 321 318 321 321 322 322 321 322 319 322 330 324 325 325 327 328 328 328 327 327 328 327 327 325 324 324 324 321 322 321 321 321 321 321 322 319 327 321 322 324 322 324 324 322 321 321 321 0 0 317 315 317 315 318 318 318 317 311 317 317 317 317 315 317 317 317 325 319 319 319 319 319 318 317 317 315 315 317 318 318 318 318 0 318 317 318 317 317 318 318 318 319 318 321 318 319 318 318 319 318 318 317 318 318 315 319 319 321 319 318 317 0 317 317 315 314 315 315 315 318 318 318 318 319 321 324 321 322 322 321 321 321 319 318 317 318 315 315 314 315 315 315 0 0 314 314 314 314 314 314 314 313 313 314 314 313 313 313 311 313 313 311 311 307 309 305 307 306 306 306 306 306 310 302 306 307 309 310 310 311 311 311 314 315 314 315 315 314 314 315 315 315 315 0 314 313 313 0 0 0 0 0 315 318 318 315 314 307 305 304 305 307 307 307 311 310 315 314 313 310 309 310 0 0 0 0 0
    0 0 0 0 0 0 0 0 0 0 0 0 0 0 0 0 0 0 0 0 0 0 0 0 0 0 0 0 0 0 0 0 0 0 0 0 0 0 0 0 0 0 0 0 0 0 0 0 0 0 0 0 0 0 0 0 0 0 0 0 0 0 0 0 0 0 0 0 0 319 319 318 317 317 315 318 319 315 317 317 313 0 318 321 319 318 321 318 317 318 319 318 322 321 318 321 321 322 322 321 322 321 324 328 324 325 325 327 328 327 328 327 327 328 327 327 325 324 324 325 321 322 322 322 321 321 321 322 321 327 321 322 324 324 324 322 322 321 321 319 0 0 0 314 314 313 315 315 315 315 310 315 315 315 317 315 317 317 318 325 319 319 319 319 319 318 317 317 315 315 317 318 318 318 318 317 318 317 318 317 317 317 317 318 319 318 319 317 318 317 315 317 315 315 315 317 318 317 319 321 321 319 319 318 317 317 318 315 314 315 317 317 318 319 319 318 319 322 324 319 321 321 321 319 319 318 317 315 315 314 314 314 315 315 317 0 0 315 0 314 315 314 314 314 313 313 314 313 313 313 313 311 313 313 313 313 309 310 306 307 306 306 306 306 306 309 301 305 307 309 309 310 310 310 311 314 315 314 315 315 315 314 315 315 317 317 0 314 314 313 0 314 314 0 314 315 317 317 317 314 305 302 302 304 306 306 305 309 309 314 313 0 307 307 310 0 0 0 0 0
    0 0 0 0 0 0 0 0 0 0 0 0 0 0 0 0 0 0 0 0 0 0 0 0 0 0 0 0 0 0 0 0 0 0 0 0 0 0 0 0 0 0 0 0 0 0 0 0 0 0 0 0 0 0 0 0 0 0 0 0 0 0 0 0 0 0 0 0 0 318 318 317 315 314 313 0 0 0 0 0 0 0 0 0 319 0 319 317 315 317 318 315 319 318 317 319 321 322 322 321 324 321 324 328 324 324 325 325 327 327 327 327 327 328 327 327 325 325 324 325 322 324 322 322 322 322 322 324 321 327 322 324 324 324 322 321 321 0 0 0 0 0 0 0 314 311 314 315 314 315 309 315 315 315 315 315 315 317 317 324 319 319 319 319 319 318 318 317 315 315 317 317 318 317 317 317 317 317 318 317 315 317 317 317 318 318 318 317 318 317 315 315 314 314 314 315 315 315 318 319 319 319 319 317 317 317 317 315 313 317 317 317 318 319 319 319 321 324 324 319 321 321 319 318 318 317 0 314 315 314 314 314 315 317 0 0 0 315 0 315 315 315 314 314 313 313 314 313 311 311 311 311 314 313 313 313 309 310 306 307 306 306 306 306 307 309 301 305 307 309 309 310 310 310 310 313 314 314 315 314 315 315 315 315 317 317 315 315 315 313 314 314 315 0 315 315 318 318 318 314 305 302 301 304 306 305 305 305 307 314 313 0 309 307 310 0 0 0 0 0
    0 0 0 0 0 0 0 0 0 0 0 0 0 0 0 0 0 0 0 0 0 0 0 0 0 0 0 0 0 0 0 0 0 0 0 0 0 0 0 0 0 0 0 0 0 0 0 0 0 0 0 0 0 0 0 0 0 0 0 0 0 0 0 0 0 0 0 0 0 317 317 314 314 313 311 0 317 313 0 0 0 0 0 0 319 0 319 0 0 0 0 313 318 317 317 319 321 322 322 322 324 322 324 330 324 324 324 325 325 325 325 327 325 328 327 327 327 325 324 327 322 324 322 322 322 322 322 324 321 325 322 324 324 324 322 321 0 0 0 0 252 0 0 0 0 0 314 315 314 315 309 315 315 315 315 314 315 317 317 322 318 318 319 319 319 319 317 317 314 315 315 315 317 317 317 317 317 317 318 317 315 315 315 317 317 317 317 0 317 317 314 315 314 313 314 315 317 315 0 319 318 318 318 0 315 315 315 314 313 317 317 317 319 319 321 319 321 324 322 319 319 319 0 318 0 0 0 314 0 0 0 314 315 317 0 0 0 315 0 315 317 315 315 314 313 313 314 313 313 311 0 311 314 313 314 313 310 310 306 309 306 306 307 306 307 309 301 305 307 307 309 309 310 310 310 313 314 313 314 314 314 314 314 314 315 317 314 314 315 313 314 313 314 314 313 314 315 314 315 310 304 302 301 305 306 305 305 304 306 311 313 0 306 305 309 0 0 0 0 0
    0 0 0 0 0 0 0 0 0 0 0 0 0 0 0 0 0 0 0 0 0 0 0 0 0 0 0 0 0 0 0 0 0 0 0 0 0 0 0 0 0 0 0 0 0 0 0 0 0 0 0 0 0 0 0 0 0 0 0 0 0 0 0 0 0 0 0 0 0 317 317 314 313 311 310 0 313 306 310 0 0 0 0 0 0 0 319 0 0 0 0 310 317 315 315 318 321 324 322 322 324 322 324 330 322 324 324 325 324 325 325 328 325 330 327 327 327 327 324 327 322 324 322 322 322 322 322 324 321 0 322 0 324 322 322 319 0 0 0 0 0 0 0 0 0 0 315 315 314 315 309 317 315 315 315 314 315 317 317 322 318 317 319 319 319 319 318 317 314 314 315 315 317 317 317 317 317 0 318 318 0 0 317 317 318 0 317 0 317 317 314 315 313 311 311 314 315 314 0 318 0 0 318 0 314 314 314 314 313 317 317 317 319 319 321 319 321 324 321 319 0 0 0 0 0 0 0 0 0 0 0 0 315 317 317 318 0 317 317 317 318 317 315 314 314 314 0 314 313 311 311 311 314 313 314 313 311 311 309 310 307 309 309 307 309 309 302 306 307 307 309 309 310 309 310 313 313 311 313 313 313 313 313 313 314 315 314 315 315 313 314 313 313 313 310 311 313 311 313 306 304 302 301 306 306 305 305 304 306 309 310 310 304 304 309 0 0 0 0 0
    0 0 0 0 0 0 0 0 0 0 0 0 0 0 0 0 0 0 0 0 0 0 0 0 0 0 0 0 0 0 0 0 0 0 0 0 0 0 0 0 0 0 0 0 0 0 0 0 0 0 0 0 0 0 0 0 0 0 0 0 0 0 0 0 0 0 0 0 0 317 0 314 311 309 307 0 310 301 301 301 0 0 0 0 0 0 0 0 301 0 0 306 311 311 313 317 321 324 322 322 324 322 325 330 322 324 324 325 325 325 325 330 327 331 328 327 327 327 325 328 324 324 322 322 322 322 322 322 321 322 321 0 322 322 322 319 0 0 0 0 251 249 247 0 0 0 0 315 314 315 309 315 315 315 315 314 315 317 317 322 317 317 319 319 319 319 317 317 314 314 315 315 317 317 317 317 0 0 0 0 0 0 0 318 318 0 0 0 317 0 313 314 310 0 307 311 315 313 0 0 0 0 318 0 315 315 315 314 313 317 317 318 319 319 321 319 321 324 321 318 0 0 0 0 0 0 0 0 425 420 420 0 317 317 318 318 319 318 318 318 319 318 317 0 315 314 0 314 314 313 313 313 314 313 0 311 307 310 307 309 306 307 306 306 307 309 301 305 306 306 307 307 309 309 309 311 311 310 310 310 310 310 311 311 310 0 0 0 0 0 0 0 0 0 309 307 310 309 311 306 304 302 302 305 305 304 304 302 304 305 307 305 300 300 304 0 0 0 0 0
    0 0 0 0 0 0 0 0 0 0 0 0 0 0 0 0 0 0 0 0 0 0 0 0 0 0 0 0 0 0 0 0 0 0 0 0 0 0 0 0 0 0 0 0 0 0 0 0 0 0 0 0 0 0 0 0 0 0 0 0 0 0 0 0 0 0 0 0 0 0 0 314 0 0 306 0 0 300 0 0 0 0 0 0 0 0 0 0 0 0 0 306 309 307 310 317 319 324 322 322 324 322 325 330 322 324 324 325 324 325 0 331 328 333 330 330 328 328 325 328 324 325 322 322 321 321 321 322 321 321 321 0 0 324 324 0 0 110 110 0 0 251 249 0 0 0 0 315 314 314 307 315 315 314 315 314 315 315 315 321 315 315 0 0 318 317 317 317 314 314 314 315 317 315 317 0 0 0 0 0 0 0 0 321 0 0 0 0 0 314 311 313 307 0 306 0 0 0 0 0 0 321 321 318 317 315 315 314 311 317 317 318 319 319 321 321 321 324 321 318 0 0 0 0 0 0 0 0 425 418 0 0 0 318 318 318 319 318 318 318 319 318 0 0 315 315 0 314 314 313 313 313 313 311 0 310 305 309 305 307 305 305 304 305 305 307 301 304 305 305 306 307 309 307 309 310 309 306 305 305 305 305 304 304 0 584 0 0 0 286 287 0 0 0 296 296 301 304 309 305 304 304 304 306 306 304 302 301 302 301 301 300 297 297 301 0 0 0 0 0
    0 0 0 0 0 0 0 0 0 0 0 0 0 0 0 0 0 0 0 0 0 0 0 0 0 0 0 0 0 0 0 0 0 0 0 0 0 0 0 0 0 0 0 0 0 0 0 0 0 0 0 0 0 0 0 0 0 0 0 0 0 0 0 0 0 0 0 0 0 0 0 0 0 0 0 0 0 0 0 0 0 0 0 0 0 0 0 0 0 150 0 305 307 304 307 315 319 324 322 322 324 324 325 328 321 322 321 324 322 0 0 330 330 336 331 333 333 331 327 331 327 327 324 322 322 322 0 325 321 0 319 0 0 0 0 0 110 110 110 0 0 255 255 0 0 0 0 0 313 314 307 315 314 314 314 314 314 315 314 319 315 314 0 318 318 317 317 317 314 314 314 314 315 314 314 0 0 0 0 0 0 0 0 0 0 0 0 0 0 314 311 311 306 305 305 0 0 0 0 0 0 0 319 317 315 314 314 313 311 315 315 317 318 319 321 319 321 324 0 0 0 0 0 0 0 0 0 0 425 0 0 0 318 318 319 319 319 318 319 319 319 318 0 0 0 315 0 314 314 310 310 311 311 310 0 310 307 310 307 307 306 306 305 306 305 306 300 304 304 305 306 307 307 307 309 310 307 305 302 302 300 300 0 0 290 0 0 0 283 281 283 281 283 281 292 292 295 300 306 304 305 306 307 309 309 306 302 300 302 300 299 297 296 0 300 0 0 0 0 0
    0 0 0 0 0 0 0 0 0 0 0 0 0 0 0 0 0 0 0 0 0 0 0 0 0 0 0 0 0 0 0 0 0 0 0 0 0 0 0 0 0 0 0 0 0 0 0 0 0 0 0 0 0 0 0 0 0 0 0 0 0 0 0 0 0 0 0 0 0 0 0 0 0 0 0 0 0 0 0 0 0 0 0 0 0 0 0 0 0 0 0 0 0 0 0 0 0 327 324 322 325 325 325 325 319 321 319 321 319 0 0 324 328 337 331 0 0 334 330 334 330 330 327 325 324 0 0 331 324 322 0 0 0 0 0 0 110 110 109 109 0 259 0 0 0 0 0 0 0 314 309 315 314 313 313 311 313 314 314 318 0 0 0 0 318 317 317 317 314 314 313 313 314 313 311 0 0 0 0 0 0 0 0 0 0 0 0 0 0 0 311 311 0 0 0 0 0 0 0 0 0 0 319 0 314 313 313 313 310 314 314 315 318 319 319 319 321 0 93 0 0 0 0 0 0 0 0 0 0 0 411 0 0 318 319 319 319 319 321 321 321 319 0 0 0 317 315 313 311 309 307 310 310 309 0 0 0 0 309 309 306 306 305 306 305 307 301 304 304 305 307 309 309 306 307 309 305 302 301 301 297 295 295 293 289 0 0 283 281 280 280 279 279 277 287 286 292 300 305 304 306 306 309 310 310 306 301 299 300 297 296 296 296 294 0 0 0 0 0 0
    0 0 0 0 0 0 0 0 0 0 0 0 0 0 0 0 0 0 0 0 0 0 0 0 0 0 0 0 0 0 0 0 0 0 0 0 0 0 0 0 0 0 0 0 0 0 0 0 0 0 0 0 0 0 0 0 0 0 0 0 0 0 0 0 0 0 0 0 0 0 0 0 336 336 0 0 233 232 233 232 233 231 229 227 0 0 0 0 0 149 148 0 0 0 0 0 0 0 0 0 0 0 0 128 127 0 0 318 0 0 0 0 319 0 0 0 0 330 327 0 0 0 0 0 0 0 0 0 0 127 0 0 0 0 0 109 109 109 109 109 0 0 0 0 0 0 0 96 95 0 94 315 314 311 311 309 310 311 313 315 314 0 0 0 0 318 318 0 0 313 313 313 313 313 311 0 0 0 0 0 0 0 0 0 0 0 0 315 317 0 311 311 306 0 0 0 0 0 0 0 164 0 0 0 311 310 310 311 309 314 314 315 317 318 319 318 0 93 93 93 0 106 0 0 0 0 0 0 0 0 408 0 0 318 319 319 321 321 321 322 322 321 0 0 0 315 314 313 311 309 307 310 0 0 0 0 0 0 0 306 305 306 304 306 306 307 302 305 304 304 306 309 309 306 306 307 304 301 300 301 296 294 294 293 288 0 284 281 281 280 280 279 278 277 285 285 290 299 306 306 310 309 310 313 0 0 0 0 300 295 295 295 0 288 0 0 0 0 0 0
    0 0 0 0 0 0 0 0 0 0 0 0 0 0 0 0 0 0 0 0 0 0 0 0 0 0 0 0 0 0 0 0 0 0 0 0 0 0 0 0 0 0 0 0 0 0 0 0 0 0 0 0 0 0 0 0 0 0 0 0 0 0 0 0 0 0 0 0 0 242 0 353 348 0 237 235 233 233 233 233 232 232 232 231 0 246 248 242 241 0 0 0 0 0 0 149 151 0 0 0 0 0 0 0 0 0 124 0 0 0 315 311 0 0 311 299 0 0 0 0 0 187 185 0 0 0 0 0 0 0 126 126 0 0 126 0 0 0 0 0 0 0 0 0 0 0 0 95 94 94 0 0 0 310 306 305 0 0 0 315 0 0 0 0 0 0 325 0 129 0 0 0 0 0 0 0 0 0 0 0 0 0 0 0 0 0 0 0 317 0 0 0 0 0 0 0 0 0 259 0 257 0 0 0 0 0 0 309 309 313 313 315 315 318 318 318 0 0 0 0 0 106 0 0 0 574 0 579 0 0 0 0 0 0 0 0 0 322 322 0 0 0 0 0 0 314 310 310 314 310 0 0 0 0 0 0 0 0 0 304 304 306 302 307 307 310 306 305 302 302 305 309 307 304 304 304 301 299 297 297 295 292 292 290 287 0 0 281 280 279 280 279 278 277 284 284 289 299 309 307 0 0 0 0 0 0 0 0 0 290 290 288 0 0 0 0 0 0 0 0
    0 0 0 0 0 0 0 0 0 0 0 0 0 0 0 0 0 0 0 0 0 0 0 0 0 0 0 0 0 0 0 0 0 0 0 0 0 0 0 0 0 0 0 0 0 0 0 0 0 0 0 0 0 0 0 0 0 0 0 0 0 0 0 0 0 0 0 0 0 239 239 238 237 238 237 235 234 234 234 233 232 232 232 232 229 245 247 243 241 243 242 243 0 0 0 0 0 0 0 0 132 0 0 0 0 0 0 0 0 330 322 0 0 310 0 0 0 0 0 0 0 190 189 0 0 0 0 0 0 0 0 0 0 0 0 116 0 0 0 0 0 0 0 0 0 0 0 0 0 0 0 0 0 0 0 0 0 0 0 0 0 0 73 0 0 0 0 0 0 9199 0 0 0 0 0 0 0 0 0 0 0 0 0 0 0 0 0 0 0 0 0 0 0 0 0 0 246 0 0 260 260 264 260 257 0 0 0 232 232 230 229 0 232 232 233 0 0 0 0 0 0 0 0 0 0 0 0 0 0 0 0 0 0 0 0 0 0 0 0 226 226 227 227 0 227 0 0 0 0 0 0 0 0 0 0 0 0 0 0 0 296 300 300 305 301 306 306 304 300 300 302 306 304 301 300 300 299 297 295 296 294 289 290 289 286 0 0 0 280 279 279 278 278 277 283 283 0 0 0 0 0 0 0 0 0 0 0 0 0 281 0 0 0 0 0 0 0 0 0 0
    0 0 0 0 0 0 0 0 0 0 0 0 0 0 0 0 0 0 0 0 0 0 0 0 0 0 0 0 0 0 0 0 0 0 0 0 0 0 0 0 0 0 0 0 0 0 0 0 0 0 0 0 0 0 0 0 0 0 0 0 0 0 0 0 0 0 0 0 0 239 240 239 238 238 238 237 235 235 235 234 233 232 232 232 229 240 243 241 239 242 242 242 241 240 239 238 0 0 0 0 0 130 0 0 0 0 0 233 0 0 0 0 235 236 238 235 235 0 0 230 0 190 0 0 0 0 0 0 0 0 0 0 0 0 0 0 0 0 0 0 0 0 0 0 0 0 0 94 0 0 0 238 236 235 235 235 234 230 0 0 0 0 0 0 0 233 234 234 233 0 3345 4599 0 0 6133 0 0 0 0 0 0 0 0 0 1247 1187 0 0 0 0 0 0 0 0 0 0 0 0 0 0 0 0 0 0 0 229 232 232 232 231 231 232 232 232 234 233 231 234 233 232 232 0 0 0 0 593 0 0 0 0 0 0 0 0 0 0 0 0 232 227 225 225 229 228 0 168 0 0 0 0 0 0 0 0 0 0 0 0 0 0 0 292 294 299 294 294 297 300 0 299 300 304 300 297 296 297 295 297 294 294 293 288 289 288 0 0 0 0 0 279 0 0 278 276 280 281 0 0 0 0 0 0 0 0 0 0 0 0 0 0 0 0 0 0 0 0 0 0 0 0
    0 0 0 0 0 0 0 0 0 0 0 0 0 0 0 0 0 0 0 0 0 0 0 0 0 0 0 0 0 0 0 0 0 0 0 0 0 0 0 0 0 0 0 0 0 0 0 0 0 0 0 0 0 0 0 0 0 0 0 0 0 0 0 0 0 0 0 0 0 239 239 239 238 238 238 237 235 235 235 235 234 233 232 232 231 237 240 238 238 241 241 241 241 240 239 238 0 0 0 0 0 0 0 0 0 0 0 233 234 0 0 233 235 0 237 236 237 235 237 235 0 0 0 0 0 0 0 0 0 0 0 0 0 0 117 0 0 115 0 0 0 233 232 0 233 228 228 0 0 0 235 235 235 234 234 234 234 229 227 228 0 235 236 236 235 235 237 236 235 0 5661 5661 9199 0 6690 0 0 0 0 0 0 0 0 0 0 0 0 0 0 0 0 0 0 0 0 0 0 0 0 231 232 230 0 234 232 231 232 232 232 232 232 232 232 232 234 234 232 234 232 232 231 232 0 0 0 230 0 0 0 0 0 0 0 0 0 0 236 235 234 231 227 225 231 231 229 0 0 0 0 0 0 0 0 0 0 0 0 0 0 0 284 286 288 292 290 289 0 0 0 295 297 301 299 295 294 295 293 296 290 286 289 0 0 0 0 0 0 0 0 278 0 0 0 276 277 0 0 0 0 0 0 0 0 0 0 0 0 0 0 0 0 0 0 2628 0 0 0 0 0 0
    0 0 0 0 0 0 0 0 0 0 0 0 0 0 0 0 0 0 0 0 0 0 0 0 0 0 0 0 0 0 0 0 0 0 0 0 0 0 0 0 0 0 0 0 0 0 0 0 0 0 0 0 0 0 0 0 0 0 0 0 0 0 0 0 0 0 0 0 0 238 239 239 238 238 238 238 236 235 236 235 234 234 232 232 232 236 238 238 238 239 241 241 240 240 239 238 238 238 238 237 0 0 0 0 0 0 0 235 235 0 0 235 235 236 236 236 236 236 237 235 233 0 0 229 231 0 0 0 0 0 0 0 0 0 0 0 0 241 238 0 0 233 232 232 233 228 229 229 234 235 235 235 234 234 234 234 234 231 229 230 234 235 236 236 235 235 238 238 236 0 0 7359 0 0 0 0 0 0 0 0 0 432 0 432 427 422 425 0 0 0 0 0 0 0 0 0 0 0 232 231 232 232 232 233 232 232 232 232 232 232 232 232 232 232 234 234 232 234 232 232 231 231 229 228 229 230 226 232 232 233 233 236 235 235 235 0 234 234 232 231 227 226 229 229 0 0 0 0 0 0 0 230 0 0 0 0 0 0 0 0 0 0 0 0 0 0 0 0 0 0 299 301 299 295 293 294 292 293 0 0 0 0 0 0 0 229 0 0 0 278 279 0 0 276 277 0 0 0 0 0 0 2453 1887 0 2537 0 0 0 0 0 0 0 0 0 0 0 0 0 0 0
    0 0 0 0 0 0 0 0 0 0 0 0 0 0 0 0 0 0 0 0 0 0 0 0 0 0 0 0 0 0 0 0 0 0 0 0 0 0 0 0 0 0 0 0 0 0 0 0 0 0 0 0 0 0 0 0 0 0 0 0 0 0 0 0 0 0 0 0 0 238 239 239 238 238 238 238 237 236 236 235 235 234 232 232 232 235 238 237 238 239 240 240 240 239 239 238 238 238 238 237 237 0 237 0 0 0 236 235 235 0 0 235 236 236 236 237 236 236 238 236 235 234 234 232 233 233 232 232 0 0 235 235 238 238 0 0 242 242 239 238 236 234 232 234 233 229 230 229 234 234 234 234 233 233 233 232 233 231 230 231 233 234 235 235 234 235 236 237 235 234 0 0 0 0 0 0 0 0 0 0 0 0 0 0 0 0 0 0 0 0 231 229 229 229 227 231 232 232 232 230 231 231 232 232 232 231 231 232 231 232 232 232 232 232 233 233 232 234 233 232 231 231 229 229 229 231 226 232 233 234 233 235 235 235 235 236 235 235 233 232 228 226 229 229 227 225 0 0 231 233 233 230 0 0 0 0 0 0 0 0 0 0 228 0 0 0 0 0 0 0 300 302 300 295 0 0 0 0 0 0 0 228 229 226 228 228 230 0 0 0 0 0 0 0 0 0 0 0 0 0 0 2453 1887 0 2453 0 0 0 0 0 0 0 0 0 0 0 0 0 0 0
    0 0 0 0 0 0 0 0 0 0 0 0 0 0 0 0 0 0 0 0 0 0 0 0 0 0 0 0 0 0 0 0 0 0 0 0 0 0 0 0 0 0 0 0 0 0 0 0 0 0 0 0 0 0 0 0 0 0 0 0 0 0 0 0 0 0 0 0 0 238 239 239 238 238 238 238 237 236 237 235 235 234 233 233 233 235 238 237 238 238 240 239 239 238 238 238 238 238 238 237 237 238 237 0 237 0 236 235 236 0 235 236 236 236 237 238 237 237 238 237 236 235 235 233 234 234 234 233 233 235 235 236 239 238 239 241 242 241 239 238 236 234 233 234 233 230 231 229 233 233 234 234 233 232 232 232 233 231 231 232 233 234 234 235 234 235 236 236 235 234 232 0 0 0 0 0 0 0 0 0 0 0 0 0 0 0 0 0 229 230 231 229 231 230 229 232 231 232 231 231 230 231 231 232 231 230 231 231 230 232 232 232 232 232 233 232 232 234 232 232 231 231 230 229 229 231 227 232 232 233 232 234 235 235 235 235 234 235 232 232 228 227 228 229 228 0 0 0 229 232 233 230 232 0 0 0 0 0 0 0 0 228 227 228 0 0 0 132 0 0 0 0 0 0 0 0 0 0 0 0 229 227 227 226 227 228 230 0 0 0 0 0 0 0 0 0 0 0 0 0 0 2453 1887 1839 2374 2299 0 570 549 0 0 0 0 231 232 0 0 0 0 0
    0 0 0 0 0 0 0 0 0 0 0 0 0 0 0 0 0 0 0 0 0 0 0 0 0 0 0 0 0 0 0 0 0 0 0 0 0 0 0 0 0 0 0 0 0 0 0 0 0 0 0 0 0 0 0 0 0 0 0 0 0 0 0 0 0 0 0 0 0 238 238 238 238 238 238 238 237 236 237 235 235 235 234 234 235 236 238 237 238 238 239 239 239 238 238 238 238 238 238 237 236 237 237 237 237 237 236 235 236 0 235 236 236 236 237 238 238 238 239 238 236 236 235 234 235 235 235 234 234 235 235 236 238 238 238 240 242 240 238 238 236 235 233 234 234 230 232 229 233 233 233 233 232 232 232 232 233 231 231 232 233 234 234 235 234 234 235 235 235 234 233 233 232 232 232 232 0 0 0 0 0 0 0 0 0 232 231 231 229 230 231 229 232 231 230 232 231 232 232 232 231 231 231 232 232 231 231 231 231 232 232 232 232 232 232 232 232 233 232 231 231 230 230 229 230 231 228 232 232 232 232 233 233 233 233 234 233 232 231 231 228 227 228 229 228 227 229 227 229 231 232 230 231 0 0 0 0 0 0 0 0 228 227 228 227 0 0 0 0 229 0 0 0 233 232 230 231 229 231 230 232 229 229 229 229 230 230 0 0 0 0 0 0 0 0 0 0 0 0 0 3873 2537 1936 1989 2374 2299 0 579 0 225 227 229 229 230 232 0 0 0 0 0
    0 0 0 0 0 0 0 0 0 0 0 0 0 0 0 0 0 0 0 0 0 0 0 0 0 0 0 0 0 0 0 0 0 0 0 0 0 0 0 0 0 0 0 0 0 0 0 0 0 0 0 0 0 0 0 0 0 0 0 0 0 0 0 0 0 0 0 0 0 238 238 238 238 238 238 238 238 236 238 236 236 235 235 235 237 237 238 237 238 238 239 238 238 238 238 238 238 238 238 237 237 238 237 238 237 237 237 236 236 236 236 236 236 236 237 238 238 238 239 238 236 236 236 235 235 235 235 234 235 235 235 236 238 238 239 239 240 239 238 238 236 235 233 234 233 231 232 229 233 233 233 233 232 232 232 232 233 230 231 232 232 233 234 234 233 234 235 235 235 234 233 233 233 232 232 232 232 232 232 0 232 0 0 232 233 232 232 231 230 230 231 230 232 231 231 232 232 232 232 232 231 231 231 232 232 232 232 232 231 232 232 232 232 232 232 232 232 232 232 231 231 230 230 229 230 231 229 231 232 232 232 232 232 232 232 232 232 230 230 230 228 227 229 229 229 227 229 228 229 231 232 231 232 232 0 0 0 0 0 0 0 227 227 227 226 0 0 0 0 227 227 227 229 232 231 229 230 229 231 231 232 230 229 229 228 229 229 0 228 0 0 0 0 0 0 0 0 0 0 0 0 2453 1839 0 2299 2164 2102 0 0 0 227 229 229 229 231 0 0 0 0 0</data></depth>
</opencv_storage>
