<?xml version="1.0"?>
<opencv_storage>
<gps_time_stamp>26692</gps_time_stamp>
<gps_x>-5.9084277153015137e+000</gps_x>
<gps_y>8.2299250364303589e-001</gps_y>
<gps_z>-1.4531832933425903e+000</gps_z>
<image_time_stamp>14664</image_time_stamp>
<depth type_id="opencv-matrix">
  <rows>85</rows>
  <cols>320</cols>
  <dt>s</dt>
  <data>
    0 0 0 0 0 0 0 0 0 0 0 0 0 0 0 0 0 0 0 0 0 0 0 0 0 0 0 0 0 0 0 0 0 0 0 0 0 0 0 0 0 0 0 0 0 0 0 0 0 0 0 0 0 0 0 0 0 0 0 0 0 0 0 0 0 0 0 0 0 0 0 0 0 0 0 1291 0 0 0 0 0 0 0 0 0 0 0 0 0 0 0 0 0 0 0 0 0 0 0 0 0 0 0 0 0 0 0 0 0 0 0 0 0 0 0 0 0 0 0 0 0 0 0 0 0 0 7359 7359 0 0 0 0 0 0 0 561 579 557 561 0 0 579 566 574 0 0 0 0 0 0 0 0 0 0 0 0 0 0 0 0 0 593 593 0 0 561 0 0 0 0 0 0 0 0 0 8177 8177 0 0 0 0 0 0 0 0 0 0 0 0 0 5661 6690 6690 6690 6133 6690 6133 6133 4599 5661 6133 6690 6690 7359 4906 5661 5256 6690 6690 5661 4906 4088 3504 3679 3066 2453 1887 0 0 1291 0 0 0 0 0 4599 4088 4329 4329 4329 4088 3199 0 0 0 0 0 0 357 931 931 931 919 886 876 897 865 897 845 845 836 836 826 799 799 782 782 766 774 774 750 735 721 721 707 687 687 0 0 1989 2230 2164 2230 2102 2164 2164 2230 2299 2299 2299 2299 2299 2230 2230 2230 2230 2230 2230 2230 2230 2164 2299 2230 2299 2230 2230 2230 2230 2230 2230 2102 1936 1936 1936 1839 1752 1501 1388 1291 1051 1022 1008 908 0 0 0 0 0 0 0
    0 0 0 0 0 0 0 0 0 0 0 0 0 0 0 0 0 0 0 0 0 0 0 0 0 0 0 0 0 0 0 0 0 0 0 0 0 0 0 0 0 0 0 0 0 0 0 0 0 0 0 0 0 0 0 0 0 0 0 0 0 0 0 0 0 0 0 0 0 0 0 0 1268 1247 1291 1268 1268 0 0 0 0 0 0 0 0 0 0 0 0 0 0 0 0 0 0 0 0 0 0 0 0 0 0 0 0 0 0 0 0 0 0 0 0 0 0 0 0 0 0 0 0 0 0 0 0 0 0 7359 0 0 0 0 0 0 0 566 579 553 0 0 0 584 0 0 0 0 0 0 0 0 0 0 0 0 0 0 0 0 0 0 0 0 0 0 0 557 0 0 0 0 0 0 0 0 0 8177 8177 0 0 0 0 0 0 0 0 0 0 0 0 0 4906 6133 6133 6690 5661 6690 6133 6133 4906 5661 5661 6133 6133 6690 4329 5256 5256 0 0 0 0 4088 3504 0 3199 2453 1887 0 0 0 0 0 0 0 4329 4906 4329 4329 4329 4329 4088 3066 0 0 0 0 0 968 0 931 919 919 919 886 876 908 865 908 855 855 855 845 845 808 799 782 782 766 774 766 758 750 735 728 714 707 707 700 0 0 2102 2102 2164 2044 2102 2102 2164 2230 2299 2299 2299 2299 2230 2299 2230 2299 2299 2230 2230 2299 2164 2299 2230 2299 2164 2164 2164 2164 2164 2164 1989 1887 1887 1839 1795 1672 1443 1362 1268 1066 1036 1036 968 0 0 0 0 0 0 0
    0 0 0 0 0 0 0 0 0 0 0 0 0 0 0 0 0 0 0 0 0 0 0 0 0 0 0 0 0 0 0 0 0 0 0 0 0 0 0 0 0 0 0 0 0 0 0 0 0 0 0 0 0 0 0 0 0 0 0 0 0 0 0 0 0 0 0 0 0 0 0 0 1268 1268 1291 1291 1268 1247 1247 0 0 0 0 0 0 0 0 0 0 0 0 0 0 0 0 0 0 0 0 0 0 0 0 0 0 0 0 0 0 0 0 0 1226 0 0 0 0 0 0 0 0 0 0 1206 0 0 1187 0 0 9199 6690 6690 0 0 0 0 0 0 0 0 0 0 0 1187 1149 1149 0 1206 1226 0 0 0 0 0 0 0 0 0 0 0 0 0 0 0 0 0 1132 1098 1098 1168 1226 0 0 0 7359 7359 0 0 0 0 0 0 0 0 0 0 0 0 0 0 4088 5661 5661 6133 5661 6690 6690 6133 4906 5661 6133 6133 5661 6690 4088 5256 4906 0 0 0 0 0 1115 0 0 0 0 0 0 0 0 0 0 0 4088 4599 4329 4329 4329 4329 4088 0 321 0 0 0 0 968 0 919 908 908 908 886 876 897 865 908 855 865 865 865 865 808 799 774 782 766 774 766 758 750 743 735 721 707 714 707 700 681 714 0 2044 2044 2044 2102 2164 2164 2230 2299 2230 2299 2230 2299 2230 2230 2299 2230 2230 2299 2164 2299 2230 2299 2164 2102 2102 2102 2102 2102 1936 1839 1839 1795 1711 1599 1415 1338 1247 1082 1036 1036 0 0 0 0 0 0 0 0
    0 0 0 0 0 0 0 0 0 0 0 0 0 0 0 0 0 0 0 0 0 0 0 0 0 0 0 0 0 0 0 0 0 0 0 0 0 0 0 0 0 0 0 0 0 0 0 0 0 0 0 0 0 0 0 0 0 0 0 0 0 0 0 0 0 0 0 0 0 0 0 1247 1247 1247 1268 1268 1268 1247 1268 1291 1291 1268 1226 1168 0 0 0 0 0 0 0 0 0 0 0 0 0 1226 0 0 0 0 0 0 0 0 0 0 1268 1226 1247 1247 1206 1187 1187 1115 1082 1098 1082 1082 1098 1098 1132 1168 1168 1187 1187 1226 1206 1206 0 1247 1168 1206 1206 1187 1206 1206 1187 1187 1168 1187 1168 1187 1168 1149 1187 1206 1206 1206 1206 1226 1226 0 0 0 0 0 1187 0 0 1098 1115 1115 1098 1098 1132 1098 1098 1149 1187 1206 0 0 0 0 0 0 0 0 0 0 0 0 0 1187 1226 0 0 8177 3873 5256 5256 6133 5661 6690 6133 5661 5256 6133 5661 5661 4906 6133 3679 0 0 0 0 0 0 1168 1098 1115 0 1206 1226 1226 1206 1206 0 0 0 6133 3873 4088 3873 4088 4329 4329 4088 0 322 324 0 0 0 955 897 908 897 897 897 876 876 897 865 908 876 886 876 886 886 817 799 758 774 750 766 758 758 750 743 743 728 714 721 714 707 694 700 700 675 0 0 2044 2102 2102 2164 2230 2164 2299 2230 2299 2164 2230 2299 2230 2230 2299 2164 2299 2230 2299 2164 2044 2102 2044 2044 2044 1839 1711 1711 1672 1599 1501 1362 1338 1226 1082 1036 0 0 0 0 0 0 0 0 0
    0 0 0 0 0 0 0 0 0 0 0 0 0 0 0 0 0 0 0 0 0 0 0 0 0 0 0 0 0 0 0 0 0 0 0 0 0 0 0 0 0 0 0 0 0 0 0 0 0 0 0 0 0 0 0 0 0 0 0 0 0 0 0 0 0 0 0 0 0 0 1168 1226 1226 1226 1247 1247 1247 1247 1247 1268 1247 1226 1206 1168 1187 1206 1149 0 0 0 0 1206 1168 0 0 0 1187 1187 1187 1187 1226 1247 1247 1226 0 0 0 1247 1226 1187 1206 1206 1206 1206 1206 1168 1132 1149 1115 1098 1115 1098 1115 1132 1149 1168 1149 1206 1168 1168 1168 1168 1149 1168 1168 1187 1187 1187 1187 1187 1187 1168 1168 1187 1168 1149 1168 1187 1187 1187 1206 1226 1206 1226 1247 1206 1206 1149 1149 1115 1115 1082 1098 1098 1082 1082 1115 1098 1115 1149 1168 1168 1168 0 0 0 0 0 0 0 1187 1149 1187 1149 1187 1187 1206 1206 0 0 4329 5256 4906 5661 5661 6690 6133 5661 5661 6133 0 0 0 0 0 1268 1132 1098 1082 1115 1132 1149 1115 1132 1132 1206 1206 1206 1206 1168 1206 0 0 0 3504 3873 3873 4088 4329 4329 4088 330 322 322 0 0 0 943 897 897 897 886 886 876 876 897 865 897 897 897 897 919 0 817 799 766 774 735 766 750 758 758 743 743 728 721 735 721 721 707 707 707 675 663 687 694 687 707 0 2164 2102 2230 2164 2299 2164 2299 2299 2230 2230 2230 2164 2299 2164 2299 2164 2044 2102 1989 2044 1936 1752 1443 1565 1533 1471 1415 1338 1314 1206 1066 0 0 0 0 0 0 0 0 0 0
    0 0 0 0 0 0 0 0 0 0 0 0 0 0 0 0 0 0 0 0 0 0 0 0 0 0 0 0 0 0 0 0 0 0 0 0 0 0 0 0 0 0 0 0 0 0 0 0 0 0 0 0 0 0 0 0 0 0 0 0 0 0 0 0 0 0 0 0 0 1206 1168 1226 1226 1206 1247 1226 1226 1226 1226 1268 1206 1226 1206 1187 1168 1206 1149 1206 1187 0 1187 1187 1132 1149 1149 1149 1132 1149 1149 1149 1168 1226 1206 1206 1206 1187 1247 1226 1206 1149 1187 1187 1187 1206 1206 1168 1132 1149 1149 1132 1132 1115 1132 1149 1149 1168 1132 1187 1149 1149 1132 1149 1132 1149 1149 1187 1168 1187 1187 1187 1168 1149 1132 1168 1149 1132 1149 1168 1168 1187 1206 1226 1206 1226 1226 1187 1187 1149 1149 1098 1098 1066 1098 1098 1082 1082 1115 1098 1115 1149 1168 1168 1149 1206 1226 0 0 1168 1187 1132 1168 1149 1168 1168 1187 1168 1206 1187 1226 1206 1247 0 4599 0 0 0 0 0 0 0 0 1268 1226 1206 1187 1226 1115 1115 1098 1115 1149 1168 1149 1149 1149 1206 1187 1206 1206 1149 1168 0 0 0 0 3873 3873 4088 4329 4329 3873 331 324 322 0 0 968 931 897 886 886 886 886 876 876 897 865 886 897 886 886 943 0 0 808 774 791 766 791 774 774 766 758 750 743 735 743 728 728 714 714 707 687 681 694 694 687 694 700 700 0 0 0 2374 2164 2299 2299 2230 2230 2230 2164 2299 2164 2299 2102 2044 2044 1936 1989 1887 1672 1388 1415 1415 1415 1338 1291 1268 1132 1036 0 0 0 0 0 0 0 0 0 0
    0 0 0 0 0 0 0 0 0 0 0 0 0 0 0 0 0 0 0 0 0 0 0 0 0 0 0 0 0 0 0 0 0 0 0 0 0 0 0 0 0 0 0 0 0 0 0 0 0 0 0 0 0 0 0 0 0 0 0 0 0 0 0 0 0 0 0 0 0 1206 1187 1226 1226 1206 1226 1226 1206 1206 1226 1247 1206 1206 1206 1206 1187 1226 1187 1206 1206 1206 1206 1187 1132 1168 1149 1149 1132 1132 1149 1132 1132 1226 1168 1187 1206 1168 1206 1187 1168 1115 1149 1149 1149 1168 1168 1149 1132 1149 1168 1132 1149 1149 1168 1168 1168 1187 1132 1187 1149 1149 1132 1132 1132 1149 1149 1187 1168 1168 1168 1187 1168 1115 1115 1149 1132 1115 1132 1149 1149 1168 1206 1206 1187 1206 1226 1187 1187 1132 1132 1082 1098 1066 1098 1098 1082 1082 1115 1115 1115 1132 1168 1149 1132 1187 1168 1168 1168 1132 1168 1115 1149 1149 1168 1168 1168 1168 1206 1168 1206 1168 1206 1132 1149 1132 1149 1149 1132 1149 1187 1187 1226 1226 1206 1115 1115 1187 1098 1115 1098 1115 1149 1149 1149 1149 1149 1187 1187 1187 1187 1132 1149 1226 1187 1168 0 0 3504 3679 4088 3873 3504 330 321 0 0 0 955 919 897 886 886 886 886 876 876 897 865 876 908 876 886 943 981 0 845 0 817 782 817 808 799 791 766 766 758 750 750 728 721 714 707 707 694 681 687 687 681 687 687 694 694 707 721 0 2164 2374 2299 2230 2230 2164 2164 2299 2164 2374 2044 1989 1936 1839 1936 1752 1501 1362 1362 1362 1338 1291 1206 1206 1098 1036 0 0 0 0 0 0 0 0 0 0
    0 0 0 0 0 0 0 0 0 0 0 0 0 0 0 0 0 0 0 0 0 0 0 0 0 0 0 0 0 0 0 0 0 0 0 0 0 0 0 0 0 0 0 0 0 0 0 0 0 0 0 0 0 0 0 0 0 0 0 0 0 0 0 0 0 0 0 0 0 1206 1187 1226 1226 1206 1226 1226 1206 1206 1206 1226 1187 1206 1206 1206 1187 1226 1187 1206 1206 1206 1206 1206 1115 1168 1149 1149 1132 1132 1132 1132 1132 1206 1132 1168 1206 1168 1168 1149 1149 1082 1149 1149 1132 1149 1149 1149 1149 1149 1187 1132 1168 1168 1168 1168 1149 1187 1115 1168 1149 1132 1132 1132 1132 1149 1149 1187 1187 1187 1168 1187 1168 1115 1115 1132 1115 1098 1115 1132 1132 1132 1187 1206 1168 1206 1206 1168 1168 1115 1115 1066 1098 1066 1098 1098 1082 1098 1115 1115 1132 1132 1168 1149 1132 1187 1132 1149 1149 1115 1149 1115 1149 1132 1149 1168 1168 1168 1187 1149 1187 1132 1168 1098 1115 1098 1115 1115 1098 1115 1132 1132 1168 1168 1168 1066 1098 1132 1082 1115 1098 1115 1132 1132 1149 1149 1149 1187 1168 1187 1168 1132 1132 1187 1132 1115 1115 1022 0 0 3679 0 0 0 0 0 0 1008 931 908 897 876 886 876 876 865 876 897 876 876 931 897 908 981 1022 1066 1036 1051 931 0 836 826 836 817 799 799 774 791 782 758 735 721 714 707 700 687 687 687 681 681 681 687 681 687 700 694 0 2453 2374 2299 2299 2164 2164 2299 2164 2374 1989 0 1795 1471 0 1471 1338 1314 1314 1338 1314 1226 1132 1149 1082 1036 0 0 0 0 0 0 0 0 0 0
    0 0 0 0 0 0 0 0 0 0 0 0 0 0 0 0 0 0 0 0 0 0 0 0 0 0 0 0 0 0 0 0 0 0 0 0 0 0 0 0 0 0 0 0 0 0 0 0 0 0 0 0 0 0 0 0 0 0 0 0 0 0 0 0 0 0 0 0 0 1206 1206 1226 1206 1187 1206 1206 1187 1187 1206 1226 1187 1206 1206 1206 1187 1247 1168 1206 1187 1187 1168 1187 1098 1149 1132 1132 1115 1132 1132 1132 1115 1206 1132 1168 1206 1187 1187 1132 1115 1066 1132 1132 1132 1132 1149 1132 1132 1132 1187 1132 1168 1168 1187 1168 1149 1187 1098 1149 1149 1132 1132 1132 1132 1149 1149 1206 1187 1187 1168 1187 1168 1098 1098 1115 1098 1098 1098 1098 1115 1115 1168 1187 1132 1168 1168 1115 1115 1082 1082 1066 1082 1066 1098 1098 1082 1098 1115 1132 1132 1132 1168 1149 1115 1168 1098 1132 1132 1115 1149 1115 1149 1132 1149 1168 1149 1149 1187 1149 1187 1115 1149 1082 1115 1098 1098 1098 1098 1098 1098 1098 1115 1098 1115 1066 1098 1115 1066 1098 1082 1098 1115 1115 1115 1132 1115 1168 1132 1149 1149 1115 1132 1168 1082 1082 1082 1036 1036 0 1066 1082 1036 1082 1051 0 1008 981 908 897 897 876 886 876 876 876 876 897 897 886 968 943 955 1008 1022 1036 1036 1051 1036 1022 943 876 886 845 836 836 817 826 808 782 750 721 707 707 700 687 681 681 681 675 681 681 675 681 694 694 0 0 0 0 2230 2164 2230 2299 2164 0 0 1168 1206 1206 1206 1247 1206 1187 1149 1247 1187 1132 1098 1115 1051 1008 0 0 0 0 0 0 0 0 0 0
    0 0 0 0 0 0 0 0 0 0 0 0 0 0 0 0 0 0 0 0 0 0 0 0 0 0 0 0 0 0 0 0 0 0 0 0 0 0 0 0 0 0 0 0 0 0 0 0 0 0 0 0 0 0 0 0 0 0 0 0 0 0 0 0 0 0 0 0 0 1206 1187 1187 1187 1168 1168 1187 1149 1187 1187 1206 1187 1187 1206 1206 1187 1226 1132 1168 1115 1149 1115 1149 1066 1132 1115 1115 1098 1115 1115 1115 1115 1206 1098 1168 1168 1149 1149 1132 1115 1066 1132 1132 1115 1132 1132 1115 1115 1132 1187 1132 1168 1149 1149 1168 1132 1168 1082 1132 1132 1115 1115 1115 1132 1149 1132 1206 1168 1168 1168 1168 1149 1082 1082 1098 1082 1082 1082 1098 1098 1098 1149 1168 1098 1132 1115 1082 1066 1066 1066 1051 1082 1066 1098 1098 1082 1098 1115 1115 1132 1115 1149 1132 1115 1168 1082 1132 1115 1115 1132 1115 1132 1132 1132 1168 1149 1149 1187 1149 1168 1098 1132 1082 1115 1098 1098 1098 1098 1098 1098 1098 1132 1098 1115 1066 1098 1115 1066 1082 1082 1098 1098 1098 1115 1098 1098 1132 1115 1132 1132 1098 1098 1132 1066 1066 1051 1036 1051 1036 1051 1066 1051 1066 1036 994 1008 968 908 897 908 876 897 886 886 876 886 908 919 897 981 955 968 1008 1022 1036 1036 1082 1066 1066 1036 1036 1022 981 943 919 919 886 836 791 758 707 700 700 694 675 675 681 675 675 675 681 669 675 687 0 0 0 1036 1022 1008 968 1008 968 994 1036 1036 1082 1098 1098 1115 1132 1132 1098 1082 1168 1082 1132 1132 1082 1036 0 0 0 0 0 0 0 0 0 0 0
    0 0 0 0 0 0 0 0 0 0 0 0 0 0 0 0 0 0 0 0 0 0 0 0 0 0 0 0 0 0 0 0 0 0 0 0 0 0 0 0 0 0 0 0 0 0 0 0 0 0 0 0 0 0 0 0 0 0 0 0 0 0 0 0 0 0 0 0 0 1187 1168 1115 1132 1115 1132 1149 1115 1149 1168 1187 1168 1168 1187 1187 1168 1206 1115 1132 1082 1098 1098 1115 1066 1115 1098 1098 1098 1098 1115 1115 1098 1187 1066 1115 1098 1098 1066 1115 1098 1082 1132 1115 1115 1132 1115 1115 1115 1115 1168 1115 1149 1132 1132 1149 1132 1149 1082 1115 1115 1098 1098 1098 1115 1132 1115 1187 1149 1149 1132 1149 1132 1066 1066 1082 1066 1066 1066 1082 1066 1082 1115 1149 1082 1115 1115 1082 1066 1066 1066 1051 1082 1066 1098 1098 1082 1098 1115 1115 1132 1115 1149 1115 1082 1132 1066 1115 1115 1098 1132 1115 1132 1132 1132 1168 1132 1149 1168 1132 1149 1082 1098 1066 1098 1082 1082 1082 1082 1082 1098 1098 1115 1082 1098 1051 1098 1098 1066 1082 1082 1082 1098 1082 1098 1082 1082 1132 1098 1115 1098 1066 1082 1082 1051 1051 1036 1022 1066 1036 1051 1082 1051 1066 1036 994 1008 955 919 897 919 886 908 897 897 886 908 919 943 908 981 955 955 1008 1008 1036 1051 1098 1082 1098 1066 1066 1036 1022 1008 994 981 968 886 845 0 700 687 687 681 669 663 669 669 669 669 675 669 675 681 0 0 0 1051 1036 1008 968 994 981 994 1036 1022 1066 1051 1066 1082 1082 1082 1066 1051 1082 1036 0 1082 1036 981 0 0 0 0 0 0 0 0 0 0 0
    0 0 0 0 0 0 0 0 0 0 0 0 0 0 0 0 0 0 0 0 0 0 0 0 0 0 0 0 0 0 0 0 0 0 0 0 0 0 0 0 0 0 0 0 0 0 0 0 0 0 0 0 0 0 0 0 0 0 0 0 0 0 0 0 0 0 0 0 0 1168 1132 1082 1098 1082 1098 1115 1098 1132 1132 1168 1168 1168 1168 1187 1149 1206 1098 1115 1082 1066 1082 1098 1051 1098 1082 1098 1082 1098 1115 1098 1098 1168 1066 1098 1082 1082 1051 1098 1082 1066 1132 1115 1098 1115 1115 1115 1098 1115 1149 1098 1132 1115 1115 1132 1098 1132 1066 1098 1098 1082 1098 1098 1098 1115 1098 1168 1098 1115 1115 1132 1115 1066 1051 1066 1066 1066 1051 1066 1051 1051 1082 1115 1051 1115 1115 1115 1082 1066 1066 1051 1066 1066 1082 1082 1082 1082 1098 1098 1132 1098 1132 1098 1066 1082 1051 1098 1098 1082 1098 1098 1115 1115 1115 1168 1115 1132 1149 1098 1115 1051 1066 1051 1082 1082 1082 1082 1082 1082 1082 1082 1098 1066 1082 1051 1098 1098 1066 1082 1066 1082 1082 1066 1082 1051 1051 1082 1066 1066 1051 1036 1051 1051 1036 1036 1022 1008 1036 1036 1066 1098 1051 1036 1022 968 994 931 919 897 919 886 919 908 908 897 919 931 955 919 994 943 955 1008 1008 1036 1051 1082 1066 1098 1066 1066 1051 1036 1022 1008 1008 981 955 931 876 782 714 694 687 669 663 669 669 663 669 675 669 669 681 0 0 0 1051 1036 994 968 994 968 981 1008 1008 1022 1022 1036 1036 1051 1051 1022 1008 1036 0 0 0 0 0 0 0 0 0 0 487 0 0 0 0 0
    0 0 0 0 0 0 0 0 0 0 0 0 0 0 0 0 0 0 0 0 0 0 0 0 0 0 0 0 0 0 0 0 0 0 0 0 0 0 0 0 0 0 0 0 0 0 0 0 0 0 0 0 0 0 0 0 0 0 0 0 0 0 0 0 0 0 0 0 0 1168 1115 1066 1098 1082 1082 1098 1098 1132 1132 1168 1168 1149 1168 1187 1132 1187 1098 1098 1066 1051 1082 1082 1051 1098 1082 1082 1082 1098 1115 1098 1082 1168 1066 1098 1098 1098 1066 1082 1082 1066 1115 1115 1098 1115 1098 1115 1098 1115 1149 1082 1115 1098 1082 1115 1082 1082 1051 1082 1082 1066 1066 1066 1082 1082 1082 1115 1066 1082 1082 1098 1098 1051 1036 1051 1051 1051 1036 1051 1036 1036 1051 1082 1036 1132 1115 1098 1066 1051 1051 1051 1066 1066 1066 1082 1082 1082 1098 1098 1115 1098 1115 1082 1051 1082 1051 1082 1082 1066 1098 1082 1098 1098 1098 1132 1082 1098 1115 1066 1082 1036 1066 1051 1082 1082 1066 1066 1066 1066 1082 1066 1082 1051 1066 1036 1098 1082 1066 1066 1066 1066 1066 1051 1066 1022 1022 1036 1022 1036 1022 1008 1008 1022 1022 1022 1008 994 1008 1008 1022 1051 1022 1008 994 955 994 908 919 886 919 897 919 919 908 908 931 931 955 919 981 955 955 1008 994 1022 1036 1066 1051 1066 1051 1051 1036 1036 1022 1008 1008 994 981 968 919 845 766 700 694 675 657 675 669 663 669 663 669 669 675 0 0 0 1008 1022 994 968 994 968 981 1008 994 1008 994 1008 1008 1008 1022 994 981 1008 0 0 0 0 0 468 448 0 0 0 0 0 0 0 0 0
    0 0 0 0 0 0 0 0 0 0 0 0 0 0 0 0 0 0 0 0 0 0 0 0 0 0 0 0 0 0 0 0 0 0 0 0 0 0 0 0 0 0 0 0 0 0 0 0 0 0 0 0 0 0 0 0 0 0 0 0 0 0 0 0 0 0 0 0 0 1149 1098 1066 1098 1082 1082 1098 1098 1115 1115 1149 1168 1149 1168 1168 1098 1168 1066 1066 1051 1036 1066 1066 1051 1082 1066 1082 1082 1082 1115 1098 1082 1168 1066 1098 1098 1082 1066 1082 1066 1066 1115 1098 1082 1098 1082 1098 1082 1098 1132 1082 1082 1082 1051 1098 1066 1051 1036 1066 1066 1051 1051 1051 1051 1066 1066 1082 1036 1036 1051 1066 1066 1036 0 1051 1036 1036 1022 1036 1022 1022 1036 1066 1008 1082 1066 1051 1036 1036 1036 1051 1051 1051 1066 1066 1066 1082 1098 1098 1115 1115 1132 1082 1051 1082 1051 1082 1066 1066 1082 1066 1082 1082 1082 1115 1066 1066 1082 1051 1066 1036 1066 1051 1082 1066 1066 1066 1066 1066 1066 1066 1082 1036 1066 1036 1098 1082 1051 1066 1051 1051 1051 1036 1036 1008 994 1008 994 1008 994 994 994 994 1022 1022 994 981 994 1008 1008 1022 994 981 968 943 981 897 919 886 919 897 919 919 908 908 931 931 955 931 994 955 968 1008 1008 1022 1036 1066 1051 1066 1051 1051 1036 1036 1022 1022 1022 1008 994 981 931 0 0 0 714 687 657 675 675 663 663 663 663 657 669 694 645 651 931 994 981 955 981 955 968 994 981 994 981 981 994 994 994 981 955 981 968 968 994 0 0 0 0 0 0 0 0 0 0 0 0 0
    0 0 0 0 0 0 0 0 0 0 0 0 0 0 0 0 0 0 0 0 0 0 0 0 0 0 0 0 0 0 0 0 0 0 0 0 0 0 0 0 0 0 0 0 0 0 0 0 0 0 0 0 0 0 0 0 0 0 0 0 0 0 0 0 0 0 0 0 0 1115 1082 1066 1082 1082 1082 1098 1098 1115 1115 1149 1187 1132 1149 1168 1082 1115 1036 1036 1036 1022 1051 1066 1051 1082 1066 1082 1082 1082 1132 1098 1082 1168 1066 1098 1082 1066 1051 1066 1066 1066 1098 1082 1082 1082 1066 1066 1066 1066 1098 1051 1051 1051 1022 1051 1051 1036 1036 1051 1051 1036 1036 1036 1036 1036 1051 1051 1022 1022 1022 1051 1051 1036 0 1036 1036 1036 1022 1022 1008 1008 1022 1051 1008 1036 1036 1022 1022 1008 1022 1036 1036 1051 1051 1066 1066 1066 1098 1098 1115 1132 1149 1098 1066 1098 1051 1082 1066 1051 1066 1066 1066 1066 1066 1082 1051 1051 1082 1051 1066 1051 1066 1051 1066 1066 1066 1066 1066 1066 1066 1051 1066 1036 1051 1036 1098 1066 1051 1051 1036 1036 1036 1036 1036 994 994 1008 994 1008 994 981 968 955 994 994 981 968 981 994 981 994 981 955 943 943 968 886 919 886 919 897 919 919 908 908 931 931 955 931 981 968 968 1008 1008 1008 1008 1051 1036 1051 1036 1036 1022 1022 1022 1008 1008 1008 994 981 955 865 0 0 721 694 651 675 675 663 663 663 663 657 663 687 634 634 919 968 955 943 968 955 955 981 968 981 968 955 968 968 968 955 919 943 931 943 994 897 865 0 0 0 0 0 0 0 0 0 0 0
    0 0 0 0 0 0 0 0 0 0 0 0 0 0 0 0 0 0 0 0 0 0 0 0 0 0 0 0 0 0 0 0 0 0 0 0 0 0 0 0 0 0 0 0 0 0 0 0 0 0 0 0 0 0 0 0 0 0 0 0 0 0 0 0 0 0 0 0 0 1082 1066 1051 1082 1082 1082 1098 1082 1115 1098 1132 1168 1098 1115 1115 1036 1036 1008 1022 1036 1022 1051 1051 1036 1066 1066 1082 1082 1082 1132 1082 1082 1149 1066 1082 1036 1051 1036 1051 1036 1051 1066 1066 1051 1066 1051 1051 1051 1051 1051 1036 1022 1022 994 1022 1022 1022 1022 1036 1036 1022 1022 1022 1022 1022 1022 1022 1008 1008 1022 1036 1051 1036 0 1036 1022 1022 1022 1022 1008 1008 1008 1036 994 1008 1008 994 994 994 1008 1022 1022 1036 1036 1051 1051 1066 1098 1098 1115 1149 1168 1132 1082 1132 1051 1082 1066 1051 1066 1051 1066 1066 1051 1066 1036 1036 1051 1036 1051 1036 1051 1036 1066 1051 1051 1066 1051 1051 1051 1051 1051 1036 1051 1036 1098 1066 1051 1036 1036 1036 1022 1036 1022 994 994 1008 994 994 994 981 968 955 968 981 955 955 968 968 955 968 955 943 919 931 955 886 919 886 919 886 919 919 908 908 931 919 955 931 981 955 968 994 994 994 1008 1036 1036 1051 1022 1022 1022 1022 1022 1008 1008 994 994 981 955 865 0 0 728 707 657 675 675 669 669 663 663 651 657 687 629 629 919 955 955 931 943 943 943 968 955 968 955 943 955 943 955 943 908 931 908 919 981 855 0 0 0 0 0 0 487 0 0 0 0 0
    0 0 0 0 0 0 0 0 0 0 0 0 0 0 0 0 0 0 0 0 0 0 0 0 0 0 0 0 0 0 0 0 0 0 0 0 0 0 0 0 0 0 0 0 0 0 0 0 0 0 0 0 0 0 0 0 0 0 0 0 0 0 0 0 0 0 0 0 0 1066 1051 1051 1066 1066 1066 1082 1082 1098 1082 1098 1132 1066 1066 1051 994 994 994 1008 1022 1008 1036 1036 1022 1051 1051 1066 1066 1066 1098 1051 1066 1115 1051 1051 1022 1022 1022 1022 1022 1022 1022 1022 1036 1051 1036 1036 1022 1036 1036 1022 1008 994 968 1008 1022 994 1008 1008 1022 1008 1008 1008 994 1008 1008 994 994 994 1008 1036 1036 1036 0 1022 1022 1022 1008 1008 994 994 994 1022 994 1008 1008 981 981 968 994 1008 1008 1022 1022 1036 1036 1051 1066 1066 1082 1115 1115 1098 1051 1115 1051 1066 1066 1036 1051 1036 1051 1051 1036 1036 1008 1008 1022 1008 1022 1022 1036 1036 1051 1051 1051 1051 1051 1051 1051 1036 1036 1036 1036 1036 1082 1051 1036 1036 1022 1022 1022 1022 1022 994 994 994 994 994 981 981 955 943 955 968 931 955 955 955 931 955 943 931 908 919 931 897 919 897 908 897 919 908 908 908 931 919 943 931 968 943 955 994 981 981 994 1008 1022 1022 1008 1008 1008 1008 1008 994 994 994 994 981 955 865 0 0 721 700 651 675 675 663 663 663 663 651 657 687 629 629 919 943 943 919 931 919 919 943 919 943 919 908 919 919 943 919 897 931 908 943 981 886 845 0 0 0 0 490 487 0 0 0 0 0
    0 0 0 0 0 0 0 0 0 0 0 0 0 0 0 0 0 0 0 0 0 0 0 0 0 0 0 0 0 0 0 0 0 0 0 0 0 0 0 0 0 0 0 0 0 0 0 0 0 0 0 0 0 0 0 0 0 0 0 0 0 0 0 0 0 0 0 0 0 1051 1051 1036 1051 1051 1066 1066 1066 1066 1051 1051 1066 1022 1022 1008 968 981 981 994 1008 1008 1022 1022 1022 1036 1036 1051 1051 1051 1082 1022 1036 1066 1036 1036 994 994 994 1008 1008 1008 1008 1008 1008 1036 1022 1022 1008 1022 1022 1008 994 968 955 981 981 968 981 981 981 981 994 994 981 981 994 981 981 981 994 1022 1036 1036 981 1022 1008 1008 1008 994 981 981 981 1008 981 994 994 968 968 955 968 981 981 1008 1008 1008 1008 1022 1036 1022 1036 1051 1022 1022 1008 1051 1022 1036 1036 1022 1022 1022 1022 1022 1008 1008 1008 994 1008 1008 1008 1008 1036 1036 1051 1051 1051 1051 1036 1036 1036 1022 1022 1022 1022 1022 1051 1036 1022 1022 1022 1022 1022 1022 1022 1008 994 994 994 994 981 968 955 931 943 955 919 943 943 931 931 943 931 919 908 919 931 897 919 897 908 897 908 908 908 908 931 919 943 931 968 943 955 981 968 955 981 981 994 1008 994 981 994 981 994 968 968 968 955 955 943 855 0 0 714 694 657 675 675 663 663 663 663 651 663 687 629 0 931 931 943 919 919 908 908 919 886 908 897 886 897 897 919 908 886 908 908 919 955 876 845 782 0 0 0 0 0 0 0 0 0 0
    0 0 0 0 0 0 0 0 0 0 0 0 0 0 0 0 0 0 0 0 0 0 0 0 0 0 0 0 0 0 0 0 0 0 0 0 0 0 0 0 0 0 0 0 0 0 0 0 0 0 0 0 0 0 0 0 0 0 0 0 0 0 0 0 0 0 0 0 0 1036 1036 1036 1036 1036 1051 1051 1051 1051 1036 1036 1036 1008 994 994 968 981 994 0 1008 1008 1022 1022 1022 1036 1036 1051 1051 1036 1082 1008 1036 1066 1036 1022 981 994 994 994 994 994 994 994 981 1008 1008 1008 994 1008 1008 1008 994 968 955 981 955 955 968 955 968 968 981 981 968 981 981 968 968 981 994 1022 0 1022 968 1008 994 994 994 994 981 981 968 994 968 981 981 955 955 955 955 981 968 994 981 994 994 994 1008 1008 1008 1008 994 1008 981 1008 994 1008 1008 981 994 994 994 1008 994 994 994 994 1008 994 994 1008 1008 1022 1036 1036 1022 1036 1022 1022 1022 994 994 994 994 1008 1008 1008 1008 1008 1022 1022 1022 1036 1022 1008 994 994 994 981 968 968 943 919 943 931 908 931 943 919 919 943 931 931 908 931 931 897 919 897 908 897 908 908 897 908 931 908 931 931 955 943 955 981 955 955 981 981 1008 1008 981 968 968 955 981 955 931 943 931 919 919 845 0 0 714 687 663 675 675 663 663 663 663 645 663 681 629 0 943 931 943 919 908 886 886 897 865 886 886 876 886 876 908 897 886 908 908 908 931 865 855 808 0 0 0 0 0 0 0 0 0 0
    0 0 0 0 0 0 0 0 0 0 0 0 0 0 0 0 0 0 0 0 0 0 0 0 0 0 0 0 0 0 0 0 0 0 0 0 0 0 0 0 0 0 0 0 0 0 0 0 0 0 0 0 0 0 0 0 0 0 0 0 0 0 0 0 0 0 0 0 0 1022 1022 1022 1022 1022 1036 1036 1036 1036 1022 1008 1008 994 981 994 968 968 981 0 1008 994 1022 1008 1008 1022 1036 1051 1036 1022 1066 1008 1036 1066 1022 1022 981 981 981 994 981 981 981 981 968 994 994 994 981 994 994 994 981 955 943 955 943 943 955 955 955 955 968 968 968 981 981 968 968 968 981 1008 0 1022 955 994 994 981 981 981 968 968 955 994 968 981 981 955 968 955 955 968 968 968 968 981 981 981 994 994 981 994 994 994 968 994 981 981 981 968 994 981 981 994 981 994 994 994 994 994 994 994 1008 1008 1022 1022 1022 1022 1022 1022 1008 981 994 994 981 994 994 981 994 981 994 994 1008 1022 1022 994 994 994 981 981 968 955 943 919 943 919 897 931 919 897 919 931 919 919 908 931 919 897 919 897 897 897 908 908 897 908 919 908 931 931 955 943 955 968 943 943 968 968 994 1008 981 968 968 955 981 943 919 919 908 908 897 845 0 735 714 681 669 675 675 663 663 663 663 645 669 681 629 955 943 919 943 908 897 865 865 876 855 865 876 865 876 876 897 897 886 897 919 908 919 876 855 817 0 0 0 0 0 0 0 0 0 0
    0 0 0 0 0 0 0 0 0 0 0 0 0 0 0 0 0 0 0 0 0 0 0 0 0 0 0 0 0 0 0 0 0 0 0 0 0 0 0 0 0 0 0 0 0 0 0 0 0 0 0 0 0 0 0 0 0 0 0 0 0 0 0 0 0 0 0 0 0 994 1008 1008 1008 1008 1008 1008 1008 1008 1008 994 981 981 968 981 955 968 981 0 994 994 1008 1008 994 1008 1036 1036 1036 1022 1051 994 1022 1051 1008 1008 955 981 981 981 981 981 968 968 968 994 981 968 968 968 981 981 968 943 931 919 931 931 955 943 943 943 955 968 968 968 968 955 968 968 981 994 0 1008 943 968 981 968 968 968 955 968 955 994 968 981 981 955 955 955 943 968 955 968 968 968 968 968 981 981 981 981 994 994 968 994 981 994 981 968 981 981 968 981 981 981 981 981 994 981 994 1008 1008 1022 1008 1022 1008 1008 1008 994 994 968 981 981 968 981 981 968 968 968 981 994 994 1022 1008 981 994 994 968 968 955 943 931 908 931 908 886 919 897 886 897 908 908 919 908 931 919 897 919 897 897 897 908 897 897 908 919 908 931 931 943 931 943 955 931 931 955 955 968 981 955 955 943 955 981 931 908 897 886 886 876 836 0 743 714 675 675 681 669 669 663 669 663 651 675 675 639 943 931 919 931 908 886 865 855 865 845 855 855 855 865 865 886 897 897 897 919 931 931 876 855 826 836 0 0 0 0 0 0 0 0 0
    0 0 0 0 0 0 0 0 0 0 0 0 0 0 0 0 0 0 0 0 0 0 0 0 0 0 0 0 0 0 0 0 0 0 0 0 0 0 0 0 0 0 0 0 0 0 0 0 0 0 0 0 0 0 0 0 0 0 0 0 0 0 0 0 0 0 0 0 0 981 994 994 981 994 994 981 994 994 981 981 968 968 968 968 955 968 981 981 994 994 994 994 994 1008 1022 1036 1022 1008 1008 981 994 1022 981 994 943 968 968 981 968 968 968 968 955 981 968 955 943 955 955 968 968 943 931 908 931 931 943 943 943 931 955 955 968 968 968 943 955 955 981 981 981 994 919 955 955 955 955 955 955 968 955 981 968 968 981 968 955 955 931 955 955 955 955 955 968 955 968 968 968 968 981 994 981 994 994 1008 994 968 981 968 955 968 968 968 968 981 981 981 981 994 994 1008 994 994 981 981 981 968 968 931 955 955 955 968 968 955 955 955 981 994 994 1022 1022 981 994 994 968 968 955 943 919 897 919 886 876 897 876 876 886 897 908 908 908 931 908 897 919 908 886 897 897 897 897 908 919 908 919 931 943 931 931 943 919 919 931 931 955 955 943 955 943 955 981 931 908 886 886 886 865 817 735 750 714 663 675 681 669 669 669 675 657 651 681 681 0 931 931 908 931 919 897 865 855 855 836 845 845 855 865 855 876 897 897 897 919 931 931 876 855 826 836 0 0 0 0 0 0 0 0 0
    0 0 0 0 0 0 0 0 0 0 0 0 0 0 0 0 0 0 0 0 0 0 0 0 0 0 0 0 0 0 0 0 0 0 0 0 0 0 0 0 0 0 0 0 0 0 0 0 0 0 0 0 0 0 0 0 0 0 0 0 0 0 0 0 0 0 0 0 0 981 0 994 968 981 981 955 968 968 968 968 955 968 955 968 955 955 968 968 981 981 994 981 994 994 1022 1036 1022 994 981 968 931 981 955 981 919 955 968 968 968 968 968 968 955 981 968 943 931 931 943 943 955 931 931 919 931 943 955 943 943 931 955 955 968 968 968 943 955 955 968 968 955 981 908 931 943 943 943 955 943 955 943 981 968 968 981 968 943 943 931 943 943 943 931 943 955 943 955 968 955 955 981 994 994 994 994 1022 994 981 968 968 943 955 955 968 968 968 968 968 968 994 981 994 955 955 943 943 943 931 943 908 943 943 943 955 955 943 955 943 994 994 1008 1022 1022 981 981 981 955 955 943 931 919 897 919 886 876 908 876 876 876 897 897 897 908 931 908 897 908 908 886 897 897 886 886 897 897 897 908 919 919 908 919 919 897 897 919 919 931 943 931 943 931 955 968 931 919 886 876 876 845 782 721 743 714 651 675 675 669 669 669 675 657 651 687 681 0 931 931 908 931 919 886 855 845 845 826 836 836 845 855 855 855 886 897 886 919 931 919 876 855 836 0 0 0 0 0 0 0 0 0 0
    0 0 0 0 0 0 0 0 0 0 0 0 0 0 0 0 0 0 0 0 0 0 0 0 0 0 0 0 0 0 0 0 0 0 0 0 0 0 0 0 0 0 0 0 0 0 0 0 0 0 0 0 0 0 0 0 0 0 0 0 0 0 0 0 0 0 0 0 0 968 968 981 955 968 955 931 943 943 955 943 943 955 955 955 955 955 968 968 981 981 981 968 981 981 994 994 994 931 886 919 855 908 897 955 897 931 943 955 955 968 955 955 943 968 955 931 908 908 931 931 955 919 931 919 931 931 943 931 931 919 943 943 955 955 955 943 943 931 943 931 931 955 886 908 931 931 931 943 943 955 943 981 968 968 968 955 943 943 919 931 931 931 919 931 931 931 943 943 943 931 968 981 968 981 981 1008 981 981 981 968 943 955 955 968 955 968 955 955 955 968 955 968 919 919 908 897 908 897 919 897 931 931 931 943 943 931 943 943 981 981 1008 1022 1008 955 981 981 943 955 931 931 908 897 919 886 886 908 876 876 876 886 886 886 908 919 897 897 908 908 876 886 886 876 876 886 886 886 886 908 886 886 897 908 886 897 908 908 919 931 919 931 908 931 943 919 908 886 865 865 845 743 0 728 707 639 675 675 669 669 669 675 657 657 694 681 886 919 919 897 919 908 876 845 836 836 826 836 826 845 845 845 855 886 897 897 931 931 908 865 845 826 808 0 0 0 0 0 0 0 0 0
    0 0 0 0 0 0 0 0 0 0 0 0 0 0 0 0 0 0 0 0 0 0 0 0 0 0 0 0 0 0 0 0 0 0 0 0 0 0 0 0 0 0 0 0 0 0 0 0 0 0 0 0 0 0 0 0 0 0 0 0 0 0 0 0 0 0 0 0 0 968 968 968 943 955 931 908 919 919 943 931 931 943 943 955 943 943 968 955 968 968 968 968 968 968 981 955 955 876 855 876 836 855 865 919 876 908 931 943 943 955 955 955 943 955 943 919 897 897 908 919 943 908 931 919 931 931 931 919 931 908 943 943 955 955 955 943 943 919 919 897 897 919 876 886 919 908 908 919 919 931 931 968 968 955 955 955 943 943 919 919 919 908 908 919 919 919 919 931 919 908 943 943 943 943 943 968 955 955 968 943 931 943 943 955 955 955 955 955 955 955 931 943 897 886 876 876 876 876 897 886 919 919 919 931 931 919 931 931 968 955 981 981 981 931 968 968 919 931 919 908 908 897 919 886 886 908 876 886 886 886 886 886 908 908 897 886 897 908 876 897 886 876 876 886 886 876 876 908 876 876 886 897 876 886 897 897 908 908 897 908 886 908 897 897 886 886 865 865 836 735 0 721 707 639 675 669 663 669 669 675 657 657 694 687 876 886 897 876 886 886 855 836 0 836 826 826 817 845 845 845 845 886 908 897 931 931 908 876 845 836 0 0 0 0 0 0 0 0 0 0
    0 0 0 0 0 0 0 0 0 0 0 0 0 0 0 0 0 0 0 0 0 0 0 0 0 0 0 0 0 0 0 0 0 0 0 0 0 0 0 0 0 0 0 0 0 0 0 0 0 0 0 0 0 0 0 0 0 0 0 0 0 0 0 0 0 0 0 0 0 955 943 943 919 931 919 897 908 908 919 919 919 931 943 943 943 943 968 955 968 968 968 955 968 968 981 908 919 845 855 865 836 836 845 886 876 897 908 931 931 955 955 943 931 943 943 908 886 886 897 908 943 897 919 908 919 919 919 908 919 908 943 943 955 943 955 943 943 919 908 897 897 897 865 876 908 908 897 908 908 919 919 955 968 955 955 955 943 943 919 919 919 908 908 908 908 908 908 919 908 897 931 931 931 919 908 943 908 931 943 919 908 943 943 955 943 955 955 943 955 955 919 931 897 886 865 865 865 865 876 876 897 908 908 908 908 908 919 919 943 931 955 955 955 897 955 955 908 931 919 908 908 897 919 886 886 897 876 876 876 865 865 865 886 886 886 876 886 876 865 886 876 865 876 876 886 865 876 897 865 876 886 886 876 886 886 886 897 897 886 886 876 886 876 886 876 876 855 865 836 735 714 728 707 639 675 669 669 669 669 675 663 663 700 694 865 876 876 865 865 865 845 836 0 0 826 826 817 836 836 836 836 886 897 886 919 919 897 865 836 836 0 0 0 0 0 0 0 0 0 0
    0 0 0 0 0 0 0 0 0 0 0 0 0 0 0 0 0 0 0 0 0 0 0 0 0 0 0 0 0 0 0 0 0 0 0 0 0 0 0 0 0 0 0 0 0 0 0 0 0 0 0 0 0 0 0 0 0 0 0 0 0 0 0 0 0 0 0 0 0 931 908 908 897 908 897 886 897 897 908 908 919 931 931 943 943 943 955 955 968 955 955 955 968 955 968 865 886 845 855 865 836 836 845 876 865 886 897 919 919 943 955 943 931 943 931 908 886 886 897 897 931 897 908 908 919 908 908 908 919 897 943 943 955 943 955 943 943 908 908 886 886 897 865 865 897 897 886 897 897 908 908 943 955 943 943 955 931 943 919 919 919 908 908 908 908 908 908 919 908 897 919 919 931 908 886 919 886 908 931 908 897 931 931 955 943 955 943 931 943 931 908 919 886 886 876 876 876 876 876 876 897 897 886 897 886 886 886 897 919 897 908 919 919 886 943 931 897 919 908 897 897 897 919 886 876 897 865 865 876 845 845 836 855 845 855 845 865 865 855 865 855 845 855 855 855 845 855 865 855 855 865 886 876 886 886 886 886 886 886 886 865 876 855 865 845 855 845 855 836 743 721 728 707 645 675 675 669 675 675 675 663 669 700 0 865 865 865 855 855 865 845 836 826 836 826 826 826 845 836 836 826 876 876 0 886 897 886 855 0 0 728 0 0 0 0 0 0 0 0 0
    0 0 0 0 0 0 0 0 0 0 0 0 0 0 0 0 0 0 0 0 0 0 0 0 0 0 0 0 0 0 0 0 0 0 0 0 0 0 0 0 0 0 0 0 0 0 0 0 0 0 0 0 0 0 0 0 0 0 0 0 0 0 0 0 0 0 0 0 0 908 886 876 876 886 876 876 886 886 908 897 919 919 931 931 931 931 943 931 955 943 943 931 955 943 955 855 876 865 876 876 845 836 845 865 865 865 876 897 897 931 943 931 919 919 919 897 876 886 886 897 919 886 897 897 919 908 908 897 908 897 943 943 943 943 943 931 931 897 897 876 876 876 855 855 886 886 876 886 886 897 897 931 943 919 919 943 919 919 919 897 908 897 908 897 908 908 908 908 908 897 919 908 931 908 886 897 886 897 919 886 897 919 919 943 919 931 919 908 919 908 897 897 886 897 876 886 897 897 886 876 886 897 886 886 876 865 876 876 886 876 876 886 897 876 931 931 886 919 897 897 897 897 919 876 876 897 865 865 865 845 836 836 855 826 826 836 845 845 845 845 836 836 836 836 836 826 826 826 836 845 855 876 865 886 876 886 886 886 886 886 855 865 845 845 826 836 826 836 817 750 735 735 714 651 681 675 675 675 675 681 669 675 700 707 855 855 865 855 855 855 845 836 826 836 826 826 817 836 836 826 826 845 855 0 0 0 0 0 0 0 0 0 0 0 493 0 0 0 0 0
    0 0 0 0 0 0 0 0 0 0 0 0 0 0 0 0 0 0 0 0 0 0 0 0 0 0 0 0 0 0 0 0 0 0 0 0 0 0 0 0 0 0 0 0 0 0 0 0 0 0 0 0 0 0 0 0 0 0 0 0 0 0 0 0 0 0 0 0 0 897 886 865 876 876 876 876 886 886 897 897 919 919 931 919 931 919 931 919 943 908 908 908 931 908 919 845 865 865 886 886 845 836 845 855 855 855 865 876 876 908 931 908 897 897 897 876 865 876 876 886 908 876 897 897 908 897 897 897 908 897 931 943 919 931 931 919 919 886 886 865 865 865 845 855 876 876 865 876 876 876 886 908 931 897 897 919 897 897 897 886 886 886 908 886 897 908 897 897 897 897 908 897 931 908 876 886 876 886 897 886 886 897 908 919 897 919 908 886 897 886 886 886 886 908 886 886 897 897 886 876 886 886 876 876 865 855 865 865 876 865 865 865 876 865 919 919 886 919 897 886 897 897 908 876 876 886 865 865 865 836 826 826 845 817 817 817 836 836 836 817 817 808 826 817 817 808 808 808 836 836 855 876 865 886 876 886 886 886 876 865 855 855 836 826 817 826 817 826 808 758 750 743 707 663 687 681 675 681 681 681 669 675 700 700 855 855 865 855 855 855 836 836 826 826 817 817 808 826 817 826 808 808 836 0 0 0 0 0 0 0 0 0 0 0 500 0 0 0 0 0
    0 0 0 0 0 0 0 0 0 0 0 0 0 0 0 0 0 0 0 0 0 0 0 0 0 0 0 0 0 0 0 0 0 0 0 0 0 0 0 0 0 0 0 0 0 0 0 0 0 0 0 0 0 0 0 0 0 0 0 0 0 0 0 0 0 0 0 0 0 897 886 855 865 865 876 876 886 876 897 886 919 919 931 919 919 908 919 908 931 886 876 876 886 876 876 855 865 876 886 886 855 845 845 845 845 845 855 865 865 897 908 886 886 876 876 865 855 865 876 876 897 876 886 897 897 897 897 886 897 886 931 931 897 919 908 897 908 876 876 865 865 855 845 855 865 876 865 876 876 876 886 908 919 897 886 897 886 886 886 865 876 886 897 876 886 897 897 886 897 886 897 886 931 897 865 886 865 876 897 886 886 886 897 897 886 908 897 886 886 876 886 886 897 908 886 886 897 908 897 876 876 886 865 865 855 855 855 855 855 855 855 855 865 865 908 919 886 919 897 886 897 897 908 876 876 886 865 865 865 836 826 826 836 817 808 808 817 808 817 791 808 799 817 808 808 799 808 808 845 845 855 876 865 886 876 886 876 876 865 855 845 845 826 826 817 817 817 817 799 758 758 743 707 675 687 681 681 681 681 681 669 681 700 700 845 845 845 845 836 836 826 826 817 808 817 808 799 817 808 808 791 791 808 714 714 0 669 0 0 0 0 0 0 0 511 0 0 0 0 0
    0 0 0 0 0 0 0 0 0 0 0 0 0 0 0 0 0 0 0 0 0 0 0 0 0 0 0 0 0 0 0 0 0 0 0 0 0 0 0 0 0 0 0 0 0 0 0 0 0 0 0 0 0 0 0 0 0 0 0 0 0 0 0 0 0 0 0 0 0 908 886 855 865 865 865 865 876 865 886 876 919 919 931 919 908 908 908 897 919 876 855 855 865 876 865 865 865 876 897 886 855 845 845 845 845 845 845 855 855 876 897 876 876 865 865 865 855 865 865 876 886 865 886 897 897 886 886 886 886 886 919 908 886 897 886 876 886 865 865 865 865 855 845 845 865 865 865 865 865 865 876 897 908 886 876 886 886 886 886 855 865 876 886 865 886 886 886 886 886 886 886 886 919 886 865 886 876 876 886 886 886 886 908 897 876 897 897 876 876 876 876 886 897 919 886 886 897 908 897 876 865 865 855 855 845 845 855 855 855 855 855 855 855 865 897 908 876 919 897 886 897 908 908 876 876 886 865 865 855 836 826 817 826 808 799 799 817 808 808 791 799 799 808 808 808 799 808 799 836 836 855 865 855 886 865 876 876 865 845 845 826 826 817 817 808 808 808 808 791 758 758 735 707 681 687 687 681 681 681 675 669 681 700 687 728 808 817 817 817 817 817 817 808 808 808 799 791 799 799 791 774 782 791 707 714 0 645 0 0 0 0 0 0 0 525 0 0 0 0 0
    0 0 0 0 0 0 0 0 0 0 0 0 0 0 0 0 0 0 0 0 0 0 0 0 0 0 0 0 0 0 0 0 0 0 0 0 0 0 0 0 0 0 0 0 0 0 0 0 0 0 0 0 0 0 0 0 0 0 0 0 0 0 0 0 0 0 0 0 0 919 897 855 865 855 855 855 865 855 865 865 897 897 919 908 897 897 897 886 897 855 845 845 845 855 855 855 855 865 876 865 855 836 845 845 845 836 845 845 845 865 876 865 865 855 865 855 855 855 855 865 876 855 876 886 876 876 876 865 876 876 897 876 865 876 865 865 865 855 855 855 855 855 845 845 855 855 855 855 855 855 865 886 897 876 876 876 886 876 876 855 855 865 876 855 876 886 876 876 886 886 886 876 908 876 855 876 865 876 876 876 886 886 897 886 876 897 886 876 876 876 876 876 886 908 876 876 886 886 876 855 845 845 836 836 836 845 845 845 855 855 855 855 855 876 897 919 886 908 897 865 908 908 897 865 876 865 855 845 855 826 817 817 826 808 799 799 808 799 799 791 799 791 808 799 799 791 799 799 817 817 817 817 826 865 855 865 865 855 836 836 817 817 817 808 799 799 799 808 791 758 766 735 707 687 694 687 681 681 681 675 669 681 694 681 700 782 799 808 817 817 817 826 817 817 817 808 799 799 791 782 766 782 758 728 743 0 634 0 0 0 0 0 0 0 529 0 0 0 0 0
    0 0 0 0 0 0 0 0 0 0 0 0 0 0 0 0 0 0 0 0 0 0 0 0 0 0 0 0 0 0 0 0 0 0 0 0 0 0 0 0 0 0 0 0 0 0 0 0 0 0 0 0 0 0 0 0 0 0 0 0 0 0 0 0 0 0 0 0 0 908 886 0 855 845 845 845 845 836 845 855 876 876 897 886 876 876 876 876 876 845 826 836 836 845 845 845 836 845 865 855 845 836 845 845 845 845 845 845 855 865 865 845 855 845 855 845 845 836 836 845 845 845 865 865 865 865 865 855 865 865 876 865 845 855 855 855 855 845 855 855 855 855 836 845 855 855 845 845 855 855 865 876 886 865 865 865 865 855 855 836 836 845 865 845 865 876 876 876 886 886 876 876 897 865 855 865 855 865 865 865 865 876 886 876 865 886 876 865 865 865 865 865 876 876 865 865 876 876 865 845 836 836 826 826 826 836 845 845 845 845 845 855 855 886 886 908 886 908 886 855 908 908 886 855 865 865 855 845 855 826 817 817 826 808 799 799 808 799 791 782 791 791 808 799 799 791 799 799 817 808 808 799 808 836 845 855 855 845 817 826 808 808 808 799 799 791 791 791 782 758 766 735 700 687 694 687 681 681 681 675 669 687 694 681 694 774 799 808 817 817 826 836 817 817 817 808 791 791 782 774 758 782 774 766 766 735 0 0 0 0 0 0 0 0 533 0 0 0 0 0
    0 0 0 0 0 0 0 0 0 0 0 0 0 0 0 0 0 0 0 0 0 0 0 0 0 0 0 0 0 0 0 0 0 0 0 0 0 0 0 0 0 0 0 0 0 0 0 0 0 0 0 0 0 0 0 0 0 0 0 0 0 0 0 0 0 0 0 0 0 897 876 0 845 836 826 836 826 826 826 836 845 855 865 865 855 855 865 855 855 836 808 817 817 826 836 826 826 836 845 845 845 836 836 836 836 836 836 845 845 845 855 836 836 836 845 836 836 826 826 836 826 826 845 845 855 845 855 845 855 855 865 855 836 855 845 845 845 845 845 845 845 845 826 836 845 845 836 845 845 845 855 865 865 845 855 845 845 845 836 826 826 836 845 836 855 855 855 865 865 876 865 865 876 855 845 855 845 845 845 855 845 855 865 855 855 865 855 855 845 855 855 855 855 855 855 855 865 876 865 836 836 836 817 826 817 826 836 836 836 836 836 845 836 855 855 865 845 855 855 836 897 886 865 845 855 845 845 836 836 817 808 817 817 799 791 791 799 791 782 774 791 791 799 799 791 791 799 799 808 799 799 782 791 826 826 845 845 836 808 808 799 799 791 791 782 782 782 782 774 758 766 735 700 694 694 687 681 681 681 675 669 687 687 681 700 782 808 817 817 826 826 845 826 817 817 808 791 791 782 766 750 774 766 758 750 743 721 735 707 663 0 0 549 0 537 0 0 0 0 0
    0 0 0 0 0 0 0 0 0 0 0 0 0 0 0 0 0 0 0 0 0 0 0 0 0 0 0 0 0 0 0 0 0 0 0 0 0 0 0 0 0 0 0 0 0 0 0 0 0 0 0 0 0 0 0 0 0 0 0 0 0 0 0 0 0 0 0 0 0 886 865 0 845 826 817 826 817 817 817 826 836 836 845 855 845 845 845 845 836 826 808 808 808 817 826 826 826 826 826 826 836 826 826 826 826 817 826 826 826 826 826 817 826 817 836 826 826 808 817 826 808 817 836 836 836 836 845 845 845 855 865 845 836 845 845 845 845 845 836 836 836 845 826 836 836 836 836 836 836 836 845 855 855 836 845 836 836 826 817 808 808 817 817 817 836 836 836 845 855 855 845 845 855 836 836 845 836 836 826 826 826 826 836 836 836 836 836 845 836 845 845 845 845 845 845 845 855 865 855 836 836 826 817 817 817 817 826 826 826 826 826 826 826 826 826 826 826 826 826 817 865 865 855 826 845 845 836 826 826 817 808 808 817 791 791 791 799 782 782 774 782 791 799 791 782 791 791 791 799 782 791 774 782 808 799 826 836 808 791 799 799 791 782 782 774 774 766 774 774 758 766 735 694 694 694 687 681 681 675 669 663 694 687 675 694 826 836 836 836 836 855 855 826 817 817 808 782 791 782 766 750 766 766 750 750 743 728 735 721 681 0 0 0 545 541 0 0 0 0 0
    0 0 0 0 0 0 0 0 0 0 0 0 0 0 0 0 0 0 0 0 0 0 0 0 0 0 0 0 0 0 0 0 0 0 0 0 0 0 0 0 0 0 0 0 0 0 0 0 0 0 0 0 0 0 0 0 0 0 0 0 0 0 0 0 0 0 0 0 0 886 865 0 836 817 817 817 808 808 808 808 817 817 826 836 826 826 836 836 826 817 808 808 808 817 817 817 817 817 817 817 817 817 817 817 817 808 817 808 817 808 817 808 808 808 826 817 817 799 808 817 791 799 817 826 826 826 836 836 836 855 855 836 826 836 836 836 826 836 826 836 826 836 817 826 826 826 826 836 836 836 836 855 845 836 845 836 826 817 808 799 799 799 808 808 817 817 826 836 836 836 836 836 836 817 817 826 808 808 799 808 808 817 817 817 817 826 826 836 826 836 836 826 826 836 836 836 845 865 845 826 836 826 808 817 808 808 817 817 817 817 817 817 817 817 817 817 817 817 817 817 855 845 845 817 836 836 836 817 826 808 808 808 808 791 782 782 791 782 782 774 782 791 799 791 782 791 791 782 799 782 782 774 774 799 774 799 799 774 782 750 782 782 774 774 766 766 766 766 766 758 766 728 694 694 694 687 681 675 675 669 663 694 681 675 687 0 0 855 845 845 865 855 826 799 808 808 782 791 782 766 758 766 766 758 750 743 735 735 721 0 0 0 0 545 541 0 0 0 0 0
    0 0 0 0 0 0 0 0 0 0 0 0 0 0 0 0 0 0 0 0 0 0 0 0 0 0 0 0 0 0 0 0 0 0 0 0 0 0 0 0 0 0 0 0 0 0 0 0 0 0 0 0 0 0 0 0 0 0 0 0 0 0 0 0 0 0 0 0 0 886 855 0 836 808 808 808 808 799 799 799 808 799 817 817 808 817 817 817 817 817 808 799 799 808 817 817 817 799 808 808 808 808 808 808 808 799 808 808 808 808 817 808 808 808 817 808 808 791 799 799 774 799 808 808 817 817 826 826 826 845 836 826 817 826 826 826 826 826 826 836 826 836 808 808 817 817 826 826 826 836 836 0 845 836 836 826 808 799 799 791 791 791 791 799 799 808 808 826 826 826 826 826 817 808 808 808 791 791 782 791 799 808 817 817 817 817 817 826 817 826 826 817 817 826 826 826 836 845 845 826 826 826 799 808 799 808 817 808 817 817 808 808 808 808 808 808 808 808 808 817 845 836 836 817 826 826 826 808 817 808 799 799 799 782 782 774 791 774 774 766 782 782 782 774 774 782 782 782 791 766 774 766 774 791 766 782 774 750 766 728 766 758 750 750 750 758 750 766 766 750 758 728 687 694 687 681 675 675 675 663 657 694 681 681 694 808 799 845 0 0 0 845 808 782 791 791 766 782 774 758 758 766 766 758 750 743 735 728 714 0 0 0 0 545 541 0 0 0 0 0
    0 0 0 0 0 0 0 0 0 0 0 0 0 0 0 0 0 0 0 0 0 0 0 0 0 0 0 0 0 0 0 0 0 0 0 0 0 0 0 0 0 0 0 0 0 0 0 0 0 0 0 0 0 0 0 0 0 0 0 0 0 0 0 0 0 0 0 0 0 886 0 0 836 791 799 808 799 791 791 791 799 791 808 808 799 799 799 799 799 808 791 791 782 799 808 799 808 791 799 799 799 799 799 799 799 799 817 808 817 808 817 808 817 817 826 808 808 791 799 799 766 791 799 799 808 808 817 808 808 826 826 817 817 826 826 826 826 826 817 836 817 826 799 799 808 808 817 817 817 826 817 0 826 808 817 808 791 791 782 782 782 782 791 791 791 799 808 817 826 817 817 826 808 799 808 808 782 774 774 791 791 808 808 808 808 808 817 817 808 817 817 808 808 808 817 817 826 836 836 826 826 826 799 808 799 808 808 808 817 817 799 808 808 808 808 808 808 799 799 808 826 817 817 808 817 817 817 799 808 799 799 791 791 782 774 774 791 766 766 766 782 774 766 758 758 774 766 766 774 758 774 766 766 782 758 766 750 743 758 721 743 735 735 735 743 750 743 758 750 735 750 721 681 687 687 681 675 669 669 663 657 694 687 687 700 791 782 845 836 855 876 845 808 782 774 782 758 766 766 750 743 758 750 743 743 743 735 728 0 0 0 0 0 541 541 0 0 0 0 0
    0 0 0 0 0 0 0 0 0 0 0 0 0 0 0 0 0 0 0 0 0 0 0 0 0 0 0 0 0 0 0 0 0 0 0 0 0 0 0 0 0 0 0 0 0 0 0 0 0 0 0 0 0 0 0 0 0 0 0 0 0 0 0 0 0 0 0 0 0 0 0 0 826 782 791 799 799 791 791 782 791 791 808 799 791 799 799 799 799 808 799 782 782 799 808 799 808 782 791 799 799 799 799 799 799 791 817 817 817 808 817 808 817 817 826 808 799 791 799 799 758 791 791 791 799 791 799 799 799 826 808 808 808 817 826 826 817 826 817 836 808 826 791 791 808 799 808 808 808 817 808 826 817 791 808 799 782 782 782 774 774 782 791 791 791 791 799 817 826 817 817 826 808 799 808 799 774 758 766 774 774 791 799 799 799 799 808 808 799 808 808 799 799 808 808 808 817 826 836 826 836 836 808 808 799 799 808 799 808 808 782 799 799 799 799 799 799 799 799 808 817 808 808 799 808 808 808 782 799 791 791 782 782 774 774 766 791 766 758 758 774 758 750 743 750 766 750 758 766 750 766 766 766 774 750 758 750 743 766 728 743 728 735 728 743 743 743 750 743 735 735 721 675 687 681 681 675 669 669 663 663 700 687 694 714 774 774 845 0 876 908 855 826 791 766 782 743 758 758 735 735 750 743 735 743 743 735 721 0 0 0 0 0 537 537 0 0 0 0 0
    0 0 0 0 0 0 0 0 0 0 0 0 0 0 0 0 0 0 0 0 0 0 0 0 0 0 0 0 0 0 0 0 0 0 0 0 0 0 0 0 0 0 0 0 0 0 0 0 0 0 0 0 0 0 0 0 0 0 0 0 0 0 0 0 0 0 0 0 0 0 0 0 817 782 791 799 799 791 791 791 799 791 808 799 791 799 799 799 808 808 799 791 782 799 799 791 799 782 791 791 799 799 791 791 799 791 817 817 817 808 817 808 808 817 817 799 791 782 799 799 758 791 791 782 791 791 799 791 791 817 808 799 817 817 826 836 817 817 808 826 782 817 782 791 799 791 799 799 799 808 799 817 817 782 799 799 774 782 782 782 782 782 791 791 791 791 799 817 817 817 817 817 808 799 808 799 766 750 766 766 774 782 791 799 799 791 808 799 791 808 799 791 791 799 808 808 817 836 836 836 845 845 817 817 808 799 808 791 799 799 758 791 791 791 791 791 799 791 791 808 799 799 799 799 808 799 808 766 791 791 791 774 774 766 766 758 782 758 750 750 766 750 735 735 743 758 743 758 758 750 766 758 758 766 750 750 750 743 774 728 735 714 721 714 735 735 735 743 735 728 735 714 675 687 681 681 675 675 669 663 663 700 694 694 721 766 791 865 0 919 943 855 0 791 750 766 728 743 750 735 735 750 743 743 743 750 735 714 0 0 0 0 0 533 525 0 0 0 0 0
    0 0 0 0 0 0 0 0 0 0 0 0 0 0 0 0 0 0 0 0 0 0 0 0 0 0 0 0 0 0 0 0 0 0 0 0 0 0 0 0 0 0 0 0 0 0 0 0 0 0 0 0 0 0 0 0 0 0 0 0 0 0 0 0 0 0 0 0 0 0 0 0 808 774 791 799 799 791 791 791 799 791 808 808 791 799 808 799 817 817 808 782 782 799 808 791 808 782 791 791 799 799 791 791 799 791 817 808 808 799 808 808 808 808 817 791 774 774 791 791 743 782 791 782 791 791 799 791 791 826 799 799 817 817 826 836 817 817 799 817 766 808 766 782 791 791 791 799 799 808 799 817 817 791 799 799 782 782 791 782 782 782 791 791 791 791 799 808 808 808 808 808 799 799 799 799 766 750 766 766 774 782 791 791 791 791 808 799 791 808 799 791 791 799 808 808 817 845 845 845 865 865 826 826 808 791 799 774 782 782 750 774 782 782 782 791 791 791 791 808 799 791 791 791 799 799 799 750 782 782 782 766 766 766 766 758 782 750 750 743 766 743 735 735 735 743 743 750 750 743 758 750 750 758 735 743 735 735 758 721 721 707 707 700 721 728 728 735 728 721 721 714 669 687 681 681 675 675 675 669 669 700 700 700 735 766 808 865 855 908 908 0 774 743 728 735 721 735 743 728 735 750 743 743 743 750 735 714 0 0 0 0 0 533 521 0 0 0 0 0
    0 0 0 0 0 0 0 0 0 0 0 0 0 0 0 0 0 0 0 0 0 0 0 0 0 0 0 0 0 0 0 0 0 0 0 0 0 0 0 0 0 0 0 0 0 0 0 0 0 0 0 0 0 0 0 0 0 0 0 0 0 0 0 0 0 0 0 0 0 0 0 0 791 766 791 799 799 791 799 791 799 791 808 808 799 799 808 799 817 0 808 782 782 791 799 791 808 782 791 791 799 791 791 791 791 782 808 799 791 791 799 808 799 808 808 782 758 758 782 782 735 782 782 774 791 791 791 791 791 817 791 799 808 808 817 817 799 791 782 808 758 799 758 774 791 782 791 791 791 799 799 808 808 791 799 799 791 791 791 791 791 782 791 791 791 791 799 808 808 808 808 808 799 799 799 791 766 750 766 774 774 782 791 791 791 791 808 799 799 808 799 791 791 799 808 808 817 836 836 845 876 876 836 826 817 791 791 766 774 774 743 774 774 774 782 782 791 782 782 799 791 782 782 791 791 782 791 743 782 782 782 758 766 766 766 758 782 750 743 743 766 743 735 735 743 743 735 743 743 743 750 750 743 750 735 728 728 721 728 707 700 694 694 687 714 721 728 735 728 721 721 707 675 687 681 681 681 675 681 675 675 707 700 714 750 766 799 836 817 855 0 743 721 721 714 714 707 714 728 721 735 743 735 735 743 750 728 0 0 0 0 0 0 533 514 0 0 0 0 0
    0 0 0 0 0 0 0 0 0 0 0 0 0 0 0 0 0 0 0 0 0 0 0 0 0 0 0 0 0 0 0 0 0 0 0 0 0 0 0 0 0 0 0 0 0 0 0 0 0 0 0 0 0 0 0 0 0 0 0 0 0 0 0 0 0 0 0 0 0 750 750 750 782 766 791 799 799 791 799 791 799 799 808 808 799 799 817 808 836 0 0 774 766 782 799 782 799 766 782 791 799 791 782 782 791 782 808 791 782 791 799 808 799 808 799 766 750 758 782 782 735 782 782 774 791 791 791 791 791 817 782 782 799 782 791 791 774 766 750 791 743 782 750 758 782 774 791 791 791 791 791 808 808 782 799 791 782 782 791 782 791 782 791 791 791 782 799 808 808 799 808 808 799 791 799 791 766 750 774 766 774 782 791 791 791 791 808 791 799 808 799 791 791 799 799 799 808 817 817 836 855 865 836 836 826 808 799 766 774 774 735 766 766 766 774 774 782 774 774 799 782 774 782 782 782 782 791 735 782 782 782 750 766 766 766 758 782 750 743 743 758 735 728 735 743 735 735 743 743 743 743 743 743 735 728 721 721 714 714 700 694 687 687 687 714 721 735 735 721 714 714 707 675 687 681 681 681 681 681 675 681 707 707 728 743 750 774 782 766 0 721 714 707 707 707 707 700 707 721 714 728 735 728 735 743 743 721 0 0 0 0 537 529 521 507 0 0 0 0 0
    0 0 0 0 0 0 0 0 0 0 0 0 0 0 0 0 0 0 0 0 0 0 0 0 0 0 0 0 0 0 0 0 0 0 0 0 0 0 0 0 0 0 0 0 0 0 0 0 0 0 0 0 0 0 0 0 0 0 0 0 0 0 0 0 0 0 0 0 0 743 750 743 766 758 791 799 791 791 799 791 799 799 808 799 791 799 808 799 0 0 782 743 728 758 774 758 774 750 774 782 791 791 782 782 782 782 808 791 774 782 791 808 799 799 791 743 728 735 758 766 735 774 774 766 782 782 791 791 782 808 766 774 782 766 766 758 750 743 735 766 728 758 735 750 766 766 782 782 782 782 782 799 791 774 782 782 782 782 791 774 782 774 782 782 782 774 799 799 799 799 799 808 791 782 791 782 758 750 766 766 766 782 782 791 791 791 808 791 791 808 799 791 791 791 791 791 799 799 774 808 826 836 836 836 826 817 808 774 774 774 735 766 766 758 774 774 782 766 766 791 766 766 766 774 774 774 782 735 782 782 782 758 774 766 766 758 774 743 743 743 750 728 728 728 735 728 735 735 743 743 743 735 735 735 721 714 714 707 707 700 694 687 694 694 714 714 735 728 714 707 707 694 675 681 681 675 675 675 675 669 687 707 700 728 743 758 791 791 774 0 714 714 707 700 700 700 700 700 714 707 728 735 0 0 0 0 0 0 0 0 549 533 518 511 500 0 0 0 0 0
    0 0 0 0 0 0 0 0 0 0 0 0 0 0 0 0 0 0 0 0 0 0 0 0 0 0 0 0 0 0 0 0 0 0 0 0 0 0 0 0 0 0 0 0 0 0 0 0 0 0 0 0 0 0 0 0 0 0 0 0 0 0 0 0 0 0 0 0 0 743 743 735 750 750 782 791 791 782 799 782 799 791 808 799 782 782 799 782 0 799 0 735 721 743 750 743 758 743 758 774 774 791 766 774 774 774 799 774 758 774 782 799 791 791 766 728 728 728 735 750 728 766 766 758 774 774 782 782 774 799 750 766 774 750 758 750 743 743 735 750 721 735 728 743 758 758 766 766 766 774 774 791 782 758 774 774 774 782 782 774 782 774 782 782 782 766 791 799 791 791 791 799 791 774 791 774 750 750 758 766 766 782 782 791 791 791 808 791 791 808 791 791 782 766 782 774 782 774 743 774 782 817 836 826 836 817 808 782 782 774 735 766 758 758 766 766 774 750 766 782 750 758 758 758 758 758 782 735 774 782 782 750 774 766 758 758 774 735 735 735 743 721 728 728 728 728 735 735 743 743 735 735 728 728 714 707 707 700 700 694 687 687 687 687 700 694 714 707 694 694 700 675 669 681 675 675 669 675 669 663 681 694 687 0 0 758 791 791 774 735 750 728 707 700 694 694 694 694 700 687 0 0 0 0 0 0 0 0 0 553 541 533 514 511 500 0 0 0 0 0
    0 0 0 0 0 0 0 0 0 0 0 0 0 0 0 0 0 0 0 0 0 0 0 0 0 0 0 0 0 0 0 0 0 0 0 0 0 0 0 0 0 0 0 0 0 0 0 0 0 0 0 0 0 0 0 0 0 0 0 0 0 0 0 0 0 0 0 0 0 735 743 735 743 735 766 782 774 774 791 782 791 791 791 782 758 766 791 766 0 0 0 735 721 750 750 743 743 735 743 758 766 782 758 758 758 758 774 743 721 721 743 766 750 750 714 707 721 721 743 758 735 766 766 758 774 774 782 774 766 799 743 758 766 750 750 750 750 743 743 758 728 743 721 743 750 758 766 758 758 766 766 791 782 766 782 774 791 791 799 782 791 782 791 782 791 758 791 791 782 782 782 782 782 766 782 758 743 743 758 758 758 766 774 766 774 774 799 774 782 799 782 782 766 750 766 758 758 750 728 743 743 791 826 826 845 836 826 791 791 782 735 758 750 750 758 758 766 743 750 766 735 743 743 743 750 750 774 728 774 782 774 750 774 766 758 758 766 735 728 728 735 721 728 728 728 728 735 735 743 743 728 728 721 714 707 694 694 687 687 681 675 675 675 681 681 675 681 687 669 694 700 663 663 675 669 669 669 669 663 657 675 681 645 0 0 0 766 774 0 0 0 743 714 694 694 687 687 687 687 663 0 0 0 0 0 0 0 0 0 541 541 533 514 511 500 0 0 0 0 0
    0 0 0 0 0 0 0 0 0 0 0 0 0 0 0 0 0 0 0 0 0 0 0 0 0 0 0 0 0 0 0 0 0 0 0 0 0 0 0 0 0 0 0 0 0 0 0 0 0 0 0 0 0 0 0 0 0 0 0 0 0 0 0 0 0 0 0 0 0 728 735 728 728 728 743 758 758 750 782 758 774 774 0 758 735 743 774 0 0 0 0 743 721 743 743 735 735 728 735 743 750 774 743 743 735 0 0 714 694 687 0 0 0 0 0 681 0 0 735 750 735 766 766 758 782 774 782 782 766 799 735 758 758 743 750 750 743 743 743 758 735 750 721 743 750 758 766 758 758 766 766 799 791 791 791 782 799 808 808 799 799 791 791 782 791 758 774 782 766 758 766 766 766 750 766 750 735 743 758 750 766 766 766 766 766 766 791 766 774 791 774 782 758 743 758 750 750 743 728 743 735 791 836 826 865 855 836 799 799 782 735 758 750 750 758 758 758 735 743 758 735 743 743 743 743 743 774 735 774 782 774 750 774 766 758 750 750 728 728 728 728 721 721 721 721 721 728 728 728 735 714 707 707 700 687 687 687 675 681 675 669 663 663 663 645 629 608 0 574 0 700 639 663 681 669 669 663 663 663 645 0 657 618 0 0 0 0 0 0 0 0 0 700 675 687 687 687 681 681 657 0 0 0 0 0 0 0 0 504 529 533 529 511 511 500 0 0 0 0 0
    0 0 0 0 0 0 0 0 0 0 0 0 0 0 0 0 0 0 0 0 0 0 0 0 0 0 0 0 0 0 0 0 0 0 0 0 0 0 0 0 0 0 0 0 0 0 0 0 0 0 0 0 0 0 0 0 0 0 0 0 0 0 0 0 0 0 0 0 0 0 728 721 721 714 0 0 728 728 758 735 0 0 0 0 0 0 0 0 0 0 0 0 0 0 0 0 735 728 735 743 0 0 0 0 0 0 0 0 0 0 0 0 0 0 0 0 0 0 0 0 735 0 774 766 782 782 791 791 766 808 735 750 750 743 743 743 743 743 735 750 735 735 714 735 743 750 758 750 750 750 758 791 782 782 766 758 799 808 808 791 799 774 774 766 791 743 766 766 750 735 743 750 750 735 750 735 728 750 0 750 758 766 766 750 766 758 774 743 750 766 758 766 750 735 750 735 743 735 728 735 721 766 826 799 865 845 817 0 0 766 728 743 743 743 750 750 750 728 743 750 735 743 743 743 743 743 774 735 774 791 774 750 782 766 758 758 750 728 721 721 721 721 721 721 714 721 728 728 728 728 700 694 687 681 675 675 675 669 675 669 657 657 651 657 634 618 593 579 557 0 681 618 663 675 669 669 663 663 657 0 0 0 0 0 0 525 521 507 514 518 518 0 0 0 694 700 694 687 681 634 0 336 0 0 0 0 0 490 493 514 525 521 504 504 500 0 0 0 0 0
    0 0 0 0 0 0 0 0 0 0 0 0 0 0 0 0 0 0 0 0 0 0 0 0 0 0 0 0 0 0 0 0 0 0 0 0 0 0 0 0 0 0 0 0 0 0 0 0 0 0 0 0 0 0 0 0 0 0 0 0 0 0 0 0 0 0 0 0 0 0 721 714 707 0 0 0 0 0 728 0 0 0 0 0 0 0 0 0 0 0 0 0 0 0 0 0 0 0 0 743 0 146 146 0 0 0 0 0 0 525 0 0 0 525 507 500 497 0 0 0 0 0 0 0 0 0 0 0 0 0 0 0 743 735 0 743 735 743 735 750 728 721 707 728 735 743 750 743 735 735 750 782 766 758 728 0 0 0 0 0 0 0 0 0 0 0 0 750 735 721 728 728 735 728 735 714 0 0 0 0 0 0 743 0 0 743 743 728 728 735 743 750 743 728 735 728 735 728 721 721 714 735 799 0 0 0 0 0 0 0 735 735 743 728 743 750 750 721 743 743 735 743 743 743 743 743 782 743 782 799 774 750 782 766 750 758 743 721 721 721 721 714 721 721 714 714 721 721 721 714 681 669 645 645 651 663 663 657 669 663 657 657 657 657 634 618 588 566 549 0 0 608 651 669 663 663 645 651 645 0 0 0 529 518 518 514 514 507 511 521 514 0 0 0 0 700 707 694 663 0 0 0 484 477 481 481 481 487 490 500 511 511 500 500 500 0 0 0 0 0
    0 0 0 0 0 0 0 0 0 0 0 0 0 0 0 0 0 0 0 0 0 0 0 0 0 0 0 0 0 0 0 0 0 0 0 0 0 0 0 0 0 0 0 0 0 0 0 0 0 0 0 0 0 0 0 0 0 0 0 0 0 0 0 0 0 0 0 0 0 0 0 0 0 0 0 0 0 0 0 0 0 0 0 0 0 0 0 0 0 0 0 487 487 0 0 0 0 0 0 0 0 0 0 0 0 0 518 514 514 514 518 507 518 511 497 493 493 0 0 0 0 0 0 0 0 0 0 0 0 0 0 0 0 0 0 0 728 735 728 735 721 0 0 0 0 0 0 0 0 0 0 0 743 0 0 537 0 0 0 0 0 0 0 0 0 0 106 0 714 0 0 0 0 0 0 0 0 0 0 0 0 0 0 0 504 500 518 0 0 0 0 743 735 728 735 728 728 721 714 714 707 714 721 0 0 0 0 500 493 490 497 0 0 0 518 500 0 0 0 0 0 0 0 743 735 743 0 0 0 0 774 0 791 758 750 758 735 721 721 721 721 714 721 721 714 714 721 714 707 669 0 0 0 0 0 645 645 645 663 657 645 651 651 651 629 613 579 557 541 545 0 584 634 663 645 645 623 0 0 0 0 0 521 511 514 507 514 507 511 521 511 0 0 0 0 0 721 700 651 0 0 0 481 474 481 477 481 484 487 493 497 500 500 497 497 0 0 0 0 0
    0 0 0 0 0 0 0 0 0 0 0 0 0 0 0 0 0 0 0 0 0 0 0 0 0 0 0 0 0 0 0 0 0 0 0 0 0 0 0 0 0 0 0 0 0 0 0 0 0 0 0 0 0 0 0 0 0 0 0 0 0 0 0 0 0 0 0 0 0 0 0 0 0 0 0 0 533 525 521 504 0 0 497 0 0 0 0 0 0 0 490 487 490 0 310 310 0 0 0 0 0 0 147 0 0 525 511 507 507 507 514 504 511 500 493 493 493 0 0 0 0 0 0 0 0 0 0 0 0 0 507 514 504 507 0 0 0 0 0 0 0 525 507 511 511 0 0 0 511 0 0 0 0 525 518 529 500 504 500 497 497 0 0 0 0 0 0 0 0 0 0 0 0 0 0 0 0 0 0 511 511 500 0 500 500 500 514 497 507 493 0 0 0 0 735 721 728 721 714 707 707 707 0 0 0 504 511 504 500 497 507 514 521 514 521 504 507 518 507 0 0 0 0 0 0 0 0 0 0 0 0 0 0 0 0 758 721 0 707 714 714 714 714 721 714 714 714 0 0 0 0 0 0 0 0 0 0 0 657 651 639 645 651 645 623 608 566 545 537 537 0 549 0 0 623 629 0 0 0 0 0 529 514 511 511 507 514 507 511 518 504 529 518 0 0 0 0 0 0 0 481 477 477 471 477 477 477 481 484 490 490 497 497 493 500 0 0 0 0 0
    0 0 0 0 0 0 0 0 0 0 0 0 0 0 0 0 0 0 0 0 0 0 0 0 0 0 0 0 0 0 0 0 0 0 0 0 0 0 0 0 0 0 0 0 0 0 0 0 0 0 0 0 0 0 0 0 0 0 0 0 0 0 0 0 0 0 0 0 0 0 529 529 525 521 521 521 521 518 518 497 504 497 497 487 490 487 0 0 493 490 490 490 493 0 0 0 0 0 0 0 0 0 0 0 518 521 507 504 507 507 511 504 511 500 493 497 497 487 0 0 0 0 0 0 0 0 0 0 0 514 507 514 504 504 500 493 507 514 504 504 507 511 497 500 507 507 500 507 507 514 511 0 529 518 507 518 497 504 497 497 497 500 500 504 0 514 0 0 0 529 0 0 0 521 518 521 521 500 507 504 507 497 500 497 500 500 514 493 507 493 497 0 0 0 735 721 728 721 714 707 700 694 0 0 514 500 507 500 500 497 507 511 518 511 518 500 507 511 504 507 0 0 0 0 0 0 0 0 0 0 511 511 507 511 518 507 0 0 0 707 714 714 714 714 714 0 0 598 529 525 0 500 484 490 0 477 0 0 0 639 629 639 639 634 613 588 553 541 537 537 0 0 0 0 566 0 561 0 0 525 507 518 507 507 507 504 511 507 507 518 500 521 511 511 0 0 0 0 0 0 481 474 477 471 477 477 477 481 484 487 487 490 490 493 497 0 0 0 0 0
    0 0 0 0 0 0 0 0 0 0 0 0 0 0 0 0 0 0 0 0 0 0 0 0 0 0 0 0 0 0 0 0 0 0 0 0 0 0 0 0 0 0 0 0 0 0 0 0 0 0 0 0 0 0 0 0 0 0 0 0 0 0 0 0 0 0 0 0 0 511 521 521 518 511 514 514 514 514 514 497 497 497 493 490 493 487 493 493 493 493 493 493 497 487 0 0 0 500 504 507 521 514 0 514 518 521 504 504 504 504 507 504 507 500 497 500 500 490 490 484 0 0 0 0 0 0 0 504 511 514 504 514 504 504 500 493 504 504 497 497 497 500 493 493 500 500 493 500 500 504 504 514 521 507 504 511 497 500 497 497 500 500 504 504 504 514 507 507 521 521 514 511 521 514 514 514 514 500 504 500 507 497 500 500 500 500 514 493 507 493 497 511 514 0 0 714 721 714 707 0 0 0 518 0 507 500 504 500 500 500 507 507 521 511 518 500 507 511 504 507 511 507 507 500 0 511 0 0 511 507 511 514 514 514 518 507 521 514 0 714 721 721 721 721 714 0 0 557 525 521 500 500 490 497 497 484 0 487 0 0 0 629 623 618 593 553 545 537 533 537 533 533 529 533 537 537 537 511 511 507 497 507 504 507 504 504 514 511 511 518 504 514 497 493 484 484 477 477 474 477 474 474 474 474 477 477 477 477 481 481 481 481 481 487 493 0 0 0 0 0
    0 0 0 0 0 0 0 0 0 0 0 0 0 0 0 0 0 0 0 0 0 0 0 0 0 0 0 0 0 0 0 0 0 0 0 0 0 0 0 0 0 0 0 0 0 0 0 0 0 0 0 0 0 0 0 0 0 0 0 0 0 0 0 0 0 0 0 0 0 504 514 514 511 507 507 511 511 511 514 497 497 497 497 490 493 490 493 493 493 493 493 493 497 490 500 497 500 504 504 507 518 511 521 507 511 514 500 500 504 504 507 504 507 504 500 504 507 493 493 490 490 493 490 493 500 497 507 504 507 511 504 511 504 504 504 497 504 504 497 493 493 497 490 490 497 497 493 497 497 497 497 504 511 497 497 500 493 500 497 500 500 500 504 504 507 511 504 507 514 518 511 504 514 507 507 511 511 500 504 500 507 500 504 504 504 504 514 497 511 497 497 507 507 504 504 0 0 0 0 521 514 504 507 500 504 500 504 504 504 504 511 511 521 514 521 504 507 507 504 504 507 504 504 500 511 504 504 511 507 504 511 514 511 511 514 504 518 511 504 0 0 0 0 0 0 0 0 533 521 511 497 497 490 497 497 490 490 493 493 521 504 0 570 584 557 541 537 533 529 529 525 525 521 521 521 521 518 493 493 493 490 497 497 500 504 507 514 518 511 518 504 507 490 484 471 474 468 468 468 468 468 471 471 474 477 477 477 477 477 477 477 474 477 477 481 0 0 0 0 0
    0 0 0 0 0 0 0 0 0 0 0 0 0 0 0 0 0 0 0 0 0 0 0 0 0 0 0 0 0 0 0 0 0 0 0 0 0 0 0 0 0 0 0 0 0 0 0 0 0 0 0 0 0 0 0 0 0 0 0 0 0 0 0 0 0 0 0 0 0 500 511 511 511 504 507 511 511 511 518 500 500 500 497 493 493 490 493 493 493 493 497 493 497 493 500 497 500 504 504 504 514 507 514 500 504 507 500 497 504 500 504 504 507 504 500 504 507 497 497 493 497 497 497 497 507 500 511 507 507 511 504 511 507 507 507 504 507 504 497 497 497 497 493 490 497 497 493 497 497 497 497 500 511 497 497 497 493 497 497 500 500 500 500 500 504 511 504 507 511 511 504 500 507 500 500 504 504 497 504 500 507 504 507 504 504 507 514 500 514 500 500 504 500 500 504 497 500 504 511 511 507 500 504 500 504 504 504 504 507 507 511 511 518 511 518 500 507 507 504 504 504 504 500 497 507 500 500 504 504 504 504 511 507 507 511 500 514 507 504 511 511 514 514 514 521 0 518 525 511 0 0 497 490 497 497 493 493 497 500 514 500 518 518 529 533 529 525 525 525 525 521 521 518 511 507 511 500 490 487 490 487 493 493 497 500 504 507 518 511 514 497 493 484 477 459 465 462 465 465 468 471 471 471 474 477 477 477 474 477 474 474 474 474 471 471 0 0 0 0 0
    0 0 0 0 0 0 0 0 0 0 0 0 0 0 0 0 0 0 0 0 0 0 0 0 0 0 0 0 0 0 0 0 0 0 0 0 0 0 0 0 0 0 0 0 0 0 0 0 0 0 0 0 0 0 0 0 0 0 0 0 0 0 0 0 0 0 0 0 0 500 511 511 511 504 507 507 511 511 518 500 500 500 500 493 497 490 493 493 497 497 497 497 497 493 500 497 497 500 500 500 511 500 507 497 500 507 497 497 500 500 504 500 504 504 500 500 507 497 497 493 497 500 500 500 511 504 511 511 511 514 507 511 507 511 511 507 507 507 500 497 500 500 493 490 497 493 493 500 497 497 493 497 511 497 497 493 490 497 493 497 500 500 500 500 504 511 504 507 507 507 500 497 500 497 500 504 500 497 504 500 507 504 507 507 504 507 514 504 514 500 500 504 504 497 500 493 493 497 500 504 504 497 504 497 504 504 504 504 504 504 511 507 514 507 514 500 507 507 507 507 507 504 504 500 511 500 500 500 500 500 504 507 507 507 511 500 511 507 504 504 504 507 507 507 511 504 507 511 504 497 493 493 490 497 497 497 497 497 500 507 497 504 497 504 507 507 511 514 518 518 514 514 511 504 500 500 493 487 484 490 487 493 493 497 500 500 504 518 507 511 490 484 477 468 451 457 459 459 462 468 471 471 471 474 477 477 474 474 474 474 471 471 471 468 465 0 0 0 0 0
    0 0 0 0 0 0 0 0 0 0 0 0 0 0 0 0 0 0 0 0 0 0 0 0 0 0 0 0 0 0 0 0 0 0 0 0 0 0 0 0 0 0 0 0 0 0 0 0 0 0 0 0 0 0 0 0 0 0 0 0 0 0 0 0 0 0 0 0 0 497 511 511 511 504 507 507 511 507 518 500 500 500 500 493 497 493 493 493 497 497 497 497 500 493 500 497 497 500 500 500 507 504 507 497 500 507 497 497 504 504 504 500 504 504 500 500 507 497 493 493 497 500 500 500 511 504 511 514 511 514 511 514 511 511 511 507 507 507 500 500 500 500 497 490 497 497 493 500 497 497 493 497 511 497 497 493 490 497 493 500 500 500 500 500 507 511 504 507 507 507 500 500 504 500 500 504 504 497 504 504 511 504 507 507 504 507 514 504 511 504 504 507 504 500 504 497 497 500 500 504 500 497 504 497 504 504 504 504 504 504 507 504 511 507 511 500 507 507 507 507 511 507 504 504 514 500 504 500 500 500 504 507 507 504 511 500 511 507 507 504 500 507 507 504 507 500 500 500 497 493 490 493 490 497 497 497 497 497 504 504 497 504 493 497 497 500 504 511 511 507 507 511 507 500 500 497 490 490 484 493 490 493 497 497 500 500 507 521 504 507 487 477 471 459 448 457 457 457 462 465 465 465 471 474 477 474 474 474 474 471 471 468 471 468 462 0 0 0 0 0
    0 0 0 0 0 0 0 0 0 0 0 0 0 0 0 0 0 0 0 0 0 0 0 0 0 0 0 0 0 0 0 0 0 0 0 0 0 0 0 0 0 0 0 0 0 0 0 0 0 0 0 0 0 0 0 0 0 0 0 0 0 0 0 0 0 0 0 0 0 497 507 511 511 504 507 507 507 507 518 504 500 497 500 493 497 493 497 497 497 497 497 497 500 493 500 500 497 500 500 500 511 504 507 497 500 504 497 497 504 504 504 500 504 504 500 504 511 500 497 497 500 504 500 500 511 504 511 514 511 514 511 514 507 511 511 507 507 507 500 500 500 500 497 490 497 497 497 500 500 500 497 500 511 497 497 493 490 493 493 497 500 497 500 500 507 511 504 507 511 507 500 500 504 500 500 504 500 497 504 504 507 504 504 504 504 507 514 504 511 504 504 511 511 504 511 500 500 507 504 507 500 497 504 497 500 500 504 504 504 504 507 504 511 511 511 500 511 511 511 511 511 511 507 504 514 500 504 504 504 500 504 507 507 504 514 500 514 507 507 507 504 507 507 504 507 497 500 500 497 493 490 497 493 497 500 500 500 500 507 511 500 511 504 504 504 507 514 514 511 511 507 511 507 500 500 497 490 490 487 493 490 493 497 497 500 500 507 521 500 497 484 474 471 459 451 459 459 457 462 465 465 465 471 474 474 474 474 471 474 471 468 468 468 465 462 0 0 0 0 0
    0 0 0 0 0 0 0 0 0 0 0 0 0 0 0 0 0 0 0 0 0 0 0 0 0 0 0 0 0 0 0 0 0 0 0 0 0 0 0 0 0 0 0 0 0 0 0 0 0 0 0 0 0 0 0 0 0 0 0 0 0 0 0 0 0 0 0 0 0 497 507 511 511 504 507 507 507 507 518 504 500 497 500 493 497 493 497 497 497 497 497 497 504 497 500 500 497 500 497 500 507 504 504 497 497 507 497 497 504 504 504 500 504 504 500 504 514 500 500 500 504 507 507 504 511 507 511 518 511 518 511 514 511 511 511 511 507 507 500 497 500 500 497 490 497 497 497 500 500 500 500 500 518 500 500 497 490 493 490 497 497 497 500 500 507 514 504 507 511 507 500 500 504 500 500 504 500 497 504 500 507 504 504 504 504 507 514 504 514 504 504 514 514 511 518 511 514 518 518 514 504 500 504 497 500 504 504 504 507 507 511 507 511 511 511 500 511 511 507 507 511 507 504 504 514 500 504 504 504 500 504 507 507 507 514 500 514 507 507 507 504 507 507 504 507 497 500 497 500 493 493 500 493 500 504 504 504 500 511 511 500 511 507 504 504 511 518 518 514 511 511 511 507 500 497 493 487 487 487 493 490 493 493 497 497 497 504 518 497 490 484 474 471 459 457 462 459 457 462 465 465 468 471 474 474 474 474 474 474 471 468 465 465 462 465 0 0 0 0 0
    0 0 0 0 0 0 0 0 0 0 0 0 0 0 0 0 0 0 0 0 0 0 0 0 0 0 0 0 0 0 0 0 0 0 0 0 0 0 0 0 0 0 0 0 0 0 0 0 0 0 0 0 0 0 0 0 0 0 0 0 0 0 0 0 0 0 0 0 0 497 504 507 507 504 504 504 507 504 514 507 500 497 500 493 497 497 497 500 497 500 500 500 504 497 500 500 497 500 497 497 504 500 504 497 497 504 500 497 504 504 504 500 500 504 500 507 514 504 500 500 504 511 511 507 514 507 511 518 514 518 514 518 511 514 511 511 507 511 500 500 500 500 497 490 500 500 497 504 504 500 500 504 521 500 500 497 490 493 490 497 497 497 500 500 507 514 504 511 511 504 500 500 504 500 500 504 500 497 504 504 507 504 504 504 504 511 514 507 514 507 511 518 518 514 521 514 518 521 521 518 507 504 507 500 504 504 504 507 507 507 511 507 511 514 507 500 511 507 507 507 511 507 504 504 514 500 507 504 504 504 507 507 507 507 518 500 514 507 507 507 504 507 507 504 507 500 500 500 500 493 497 500 497 500 504 507 504 504 511 507 500 511 507 504 504 507 518 518 514 514 514 514 507 500 497 497 487 487 487 493 490 493 493 493 493 497 504 514 493 487 481 474 471 459 457 462 459 459 462 462 462 465 471 477 474 474 474 471 471 471 465 459 457 454 454 0 0 0 0 0
    0 0 0 0 0 0 0 0 0 0 0 0 0 0 0 0 0 0 0 0 0 0 0 0 0 0 0 0 0 0 0 0 0 0 0 0 0 0 0 0 0 0 0 0 0 0 0 0 0 0 0 0 0 0 0 0 0 0 0 0 0 0 0 0 0 0 0 0 0 497 504 507 507 504 504 504 507 504 514 511 500 497 500 497 500 500 500 500 500 500 504 504 507 500 504 504 497 497 493 493 500 497 500 497 493 504 497 497 504 504 504 500 500 507 504 507 518 504 500 500 504 514 507 507 511 504 507 514 511 518 0 0 511 514 511 514 507 514 504 500 500 504 500 490 500 500 497 504 504 500 500 500 521 500 500 497 490 493 490 493 497 493 497 497 507 511 500 507 511 500 497 500 500 500 500 504 500 497 504 504 507 504 507 504 507 511 514 507 518 507 511 518 518 514 521 514 518 518 518 514 504 504 507 500 504 504 507 507 507 507 511 507 511 514 507 504 511 507 507 507 511 507 504 507 514 500 507 504 507 504 511 511 511 507 518 500 514 504 507 507 500 507 507 504 511 500 500 500 500 497 497 504 497 500 504 507 507 504 511 507 500 511 507 507 504 504 518 521 518 518 514 511 507 500 497 497 487 487 487 493 493 490 493 493 493 497 504 507 490 484 481 477 474 462 462 465 462 459 462 462 462 465 471 474 471 471 468 468 465 465 454 448 443 443 443 0 0 0 0 0
    0 0 0 0 0 0 0 0 0 0 0 0 0 0 0 0 0 0 0 0 0 0 0 0 0 0 0 0 0 0 0 0 0 0 0 0 0 0 0 0 0 0 0 0 0 0 0 0 0 0 0 0 0 0 0 0 0 0 0 0 0 0 0 0 0 0 0 0 0 497 500 507 507 504 504 504 504 504 514 514 500 497 500 497 500 504 500 504 500 504 504 504 511 504 504 507 497 497 493 493 500 497 500 497 493 504 497 497 504 500 500 500 500 507 504 507 518 507 504 504 504 511 507 507 507 500 504 511 507 514 0 0 507 511 507 514 507 514 504 504 504 504 504 493 500 500 497 504 504 504 504 500 521 500 497 497 487 490 487 487 490 490 490 493 504 507 497 507 507 500 497 500 500 500 500 504 500 500 507 504 507 507 507 507 507 511 514 507 518 507 511 518 518 514 521 514 514 514 514 511 500 504 504 500 504 504 507 511 511 511 514 507 511 514 507 500 511 507 507 507 511 507 504 507 514 500 511 504 507 507 511 511 511 507 514 500 514 504 507 507 500 507 507 504 511 504 500 504 504 497 500 504 497 500 504 507 507 504 511 504 500 511 511 511 504 504 521 518 518 514 511 511 507 497 500 497 487 487 490 493 493 493 493 493 493 497 507 500 490 484 484 477 474 465 462 465 465 459 459 462 459 462 468 471 468 465 459 465 457 459 446 440 435 435 438 0 0 0 0 0
    0 0 0 0 0 0 0 0 0 0 0 0 0 0 0 0 0 0 0 0 0 0 0 0 0 0 0 0 0 0 0 0 0 0 0 0 0 0 0 0 0 0 0 0 0 0 0 0 0 0 0 0 0 0 0 0 0 0 0 0 0 0 0 0 0 0 0 0 0 497 500 507 507 504 507 504 504 504 514 514 500 497 504 504 504 511 504 507 504 507 507 507 511 507 504 511 497 500 497 497 504 500 500 500 493 500 497 497 504 504 500 500 500 507 504 511 518 507 500 500 504 514 507 507 511 504 504 511 507 514 511 511 504 507 504 511 507 514 504 504 504 507 504 493 504 504 497 504 504 504 504 504 521 500 500 504 487 490 487 487 487 487 490 493 500 507 493 504 507 500 497 500 500 500 500 504 497 497 507 500 507 507 507 507 507 511 511 507 518 507 511 514 514 511 518 511 511 511 507 507 500 500 504 500 500 507 507 511 511 511 511 507 507 514 504 500 507 504 504 507 511 504 504 507 511 500 511 507 507 507 514 511 511 511 518 504 514 507 507 507 504 511 511 507 514 507 500 504 504 497 500 504 497 500 504 507 507 504 511 504 500 514 514 511 507 507 521 518 514 514 507 507 504 497 500 497 490 487 490 493 493 493 493 493 493 497 507 497 490 487 484 481 474 462 462 465 465 457 454 457 454 459 468 471 462 459 451 459 451 454 440 438 432 435 438 0 0 0 0 0
    0 0 0 0 0 0 0 0 0 0 0 0 0 0 0 0 0 0 0 0 0 0 0 0 0 0 0 0 0 0 0 0 0 0 0 0 0 0 0 0 0 0 0 0 0 0 0 0 0 0 0 0 0 0 0 0 0 0 0 0 0 0 0 0 0 0 0 0 0 497 500 507 507 504 507 507 507 504 514 518 500 500 507 511 507 514 507 511 507 507 507 507 514 507 507 514 500 500 500 497 504 500 500 500 493 500 497 497 504 504 504 504 500 507 507 511 518 504 497 500 500 511 504 507 511 504 504 514 507 518 514 514 504 511 504 514 507 518 507 507 507 511 507 493 504 504 497 504 504 504 504 504 521 504 504 507 497 497 493 490 487 490 490 493 507 511 497 504 511 500 500 500 500 497 500 504 497 497 507 500 507 507 507 507 511 511 511 507 518 507 507 511 511 504 511 511 507 507 504 504 497 504 507 504 500 507 511 511 511 511 511 507 507 514 504 500 507 504 504 504 507 504 500 507 511 500 507 507 507 507 514 511 511 511 518 507 514 511 511 511 507 514 514 511 518 511 504 504 507 500 504 507 500 504 507 511 507 504 514 507 504 518 518 514 514 507 521 518 511 511 507 504 500 497 500 497 487 487 490 493 493 493 493 493 493 497 507 490 490 487 484 481 474 459 462 465 465 459 454 454 457 457 465 462 454 446 440 448 443 443 435 435 430 430 435 0 0 0 0 0
    0 0 0 0 0 0 0 0 0 0 0 0 0 0 0 0 0 0 0 0 0 0 0 0 0 0 0 0 0 0 0 0 0 0 0 0 0 0 0 0 0 0 0 0 0 0 0 0 0 0 0 0 0 0 0 0 0 0 0 0 0 0 0 0 0 0 0 0 0 497 500 507 507 507 507 507 507 507 514 521 507 507 511 518 507 518 511 514 511 511 511 511 518 511 511 514 504 500 504 500 504 500 500 497 493 500 497 497 507 507 507 507 504 511 511 514 521 504 497 497 500 507 504 504 511 500 504 511 507 518 514 0 507 511 504 514 507 518 504 507 507 511 507 493 504 504 497 504 500 500 504 504 525 504 504 514 504 507 504 493 490 493 493 500 511 514 500 507 511 500 500 500 500 497 497 500 497 497 507 500 507 507 507 507 511 511 511 507 514 504 507 511 504 500 504 511 507 504 500 500 497 507 511 507 497 504 511 518 518 514 511 507 507 514 500 500 507 500 500 504 504 500 500 504 507 500 504 507 507 507 511 511 511 514 514 511 514 511 514 514 511 514 514 514 518 514 507 511 511 500 507 511 504 511 511 511 511 507 518 511 507 518 518 514 514 507 514 511 504 504 500 493 493 490 493 493 487 487 490 493 493 493 493 493 493 497 507 490 487 487 487 481 474 465 468 468 465 459 451 451 457 451 457 448 443 438 435 438 435 435 430 430 425 427 435 0 0 0 0 0
    0 0 0 0 0 0 0 0 0 0 0 0 0 0 0 0 0 0 0 0 0 0 0 0 0 0 0 0 0 0 0 0 0 0 0 0 0 0 0 0 0 0 0 0 0 0 0 0 0 0 0 0 0 0 0 0 0 0 0 0 0 0 0 0 0 0 0 0 0 504 500 507 511 507 507 511 507 507 511 521 507 507 507 514 507 518 514 518 514 511 514 514 518 514 514 518 504 500 504 500 500 497 504 497 493 497 497 497 507 511 507 507 504 511 511 518 521 504 497 500 500 504 500 0 0 0 0 0 0 518 0 0 0 0 507 514 511 518 507 511 507 511 504 490 504 504 497 504 500 500 504 507 525 507 507 518 511 514 514 500 497 497 500 504 514 514 500 507 511 500 500 500 500 497 497 500 497 497 507 500 507 507 511 507 511 511 507 504 514 504 507 0 500 493 500 507 507 504 500 0 0 0 514 0 493 504 514 521 521 518 514 511 511 518 500 500 504 500 500 500 504 500 500 504 504 500 504 507 507 507 511 511 511 514 514 514 518 514 514 514 511 518 514 514 518 518 507 514 511 504 511 511 507 511 511 514 514 511 518 511 511 518 518 518 518 504 500 500 497 497 493 487 490 484 487 490 484 484 490 493 493 490 490 493 493 497 500 487 487 487 487 481 477 468 468 471 468 459 451 451 457 451 454 446 440 435 432 435 430 430 427 425 422 425 432 0 0 0 0 0
    0 0 0 0 0 0 0 0 0 0 0 0 0 0 0 0 0 0 0 0 0 0 0 0 0 0 0 0 0 0 0 0 0 0 0 0 0 0 0 0 0 0 0 0 0 0 0 0 0 0 0 0 0 0 0 0 0 0 0 0 0 0 0 0 0 0 0 0 0 0 500 507 511 507 507 507 507 507 507 521 500 504 504 521 504 514 0 0 0 0 0 0 0 0 514 0 504 500 507 500 497 493 500 497 493 0 493 497 511 511 511 511 504 514 514 518 521 0 0 0 500 0 0 0 0 0 0 0 0 0 0 0 0 0 511 514 507 521 507 511 500 504 500 487 504 500 497 500 500 500 504 507 529 507 511 521 518 521 521 507 500 500 504 504 514 514 500 507 511 500 500 500 497 493 497 497 493 497 507 497 504 507 511 507 511 511 504 500 511 497 500 0 0 0 487 497 493 0 0 0 0 0 0 0 0 511 514 521 525 514 511 504 507 511 497 497 504 497 497 500 500 497 497 504 500 497 504 504 504 504 511 511 511 514 514 511 514 514 514 518 507 518 518 518 525 518 504 511 507 504 511 511 507 511 511 514 514 511 521 514 511 521 521 521 525 507 500 497 497 493 493 487 487 481 477 487 474 477 487 490 490 487 490 490 493 497 500 487 490 490 490 481 477 468 468 471 468 459 448 448 454 448 448 446 440 432 432 432 427 427 425 422 420 420 430 0 0 0 0 0
    0 0 0 0 0 0 0 0 0 0 0 0 0 0 0 0 0 0 0 0 0 0 0 0 0 0 0 0 0 0 0 0 0 0 0 0 0 0 0 0 0 0 0 0 0 0 0 0 0 0 0 0 0 0 0 0 0 0 0 0 0 0 0 0 0 0 0 0 0 0 0 500 504 504 500 504 504 504 507 518 497 500 504 0 504 0 0 0 0 0 120 120 0 0 0 0 0 0 0 493 0 484 0 0 0 0 0 0 0 514 511 511 504 511 511 514 514 0 0 0 0 0 0 0 0 104 0 0 0 0 0 0 0 0 507 511 504 518 507 507 497 497 493 481 497 493 490 493 493 493 500 504 533 504 511 518 514 518 518 507 497 500 504 500 511 511 497 504 507 500 500 497 497 493 493 497 493 493 504 493 504 507 511 507 507 504 497 493 504 0 0 0 477 471 474 487 484 0 0 0 0 0 0 0 0 0 507 518 525 504 497 493 497 500 490 493 497 493 497 497 497 493 493 500 497 497 500 500 500 500 507 504 504 507 504 500 507 504 511 518 504 511 518 521 533 525 504 511 500 500 511 511 511 514 514 514 514 514 525 518 518 529 529 537 533 507 0 0 0 487 487 484 481 471 465 484 462 471 487 487 487 487 490 490 493 497 500 484 487 487 487 477 474 462 462 465 468 459 448 448 454 446 446 440 435 427 427 427 425 425 422 422 420 422 430 0 0 0 0 0
    0 0 0 0 0 0 0 0 0 0 0 0 0 0 0 0 0 0 0 0 0 0 0 0 0 0 0 0 0 0 0 0 0 0 0 0 0 0 0 0 0 0 0 0 0 0 0 0 0 0 0 0 0 0 0 0 0 0 0 0 0 0 0 0 0 0 0 0 0 415 0 0 500 500 500 504 504 500 504 511 490 0 0 0 0 0 0 0 0 0 120 119 0 0 0 0 0 411 411 413 418 430 425 0 0 0 0 0 0 0 0 514 507 514 514 0 514 0 96 0 0 0 0 0 0 0 0 0 0 0 0 86 0 0 490 500 497 511 500 500 493 490 487 471 490 487 484 490 487 487 493 500 0 504 511 518 504 518 518 507 500 500 504 500 511 511 500 504 507 500 504 497 493 490 490 493 0 0 497 490 500 504 507 504 504 500 490 487 0 474 0 454 454 451 457 474 471 462 462 0 0 0 0 0 0 0 0 0 0 0 0 0 0 0 454 487 490 487 490 493 493 490 490 493 490 490 493 493 493 493 500 500 500 500 497 493 0 497 0 497 490 474 0 0 0 457 465 0 0 0 0 0 0 511 514 514 514 514 525 525 525 0 533 537 537 0 0 0 0 0 477 474 471 457 446 462 443 462 487 484 487 487 490 493 493 500 500 484 490 490 487 474 471 459 454 462 462 457 446 446 451 443 440 435 430 422 425 425 422 425 422 422 422 422 430 0 0 0 0 0
    0 0 0 0 0 0 0 0 0 0 0 0 0 0 0 0 0 0 0 0 0 0 0 0 0 0 0 0 0 0 0 0 0 0 0 0 0 0 0 0 0 0 0 0 0 0 0 0 0 0 0 0 0 0 0 0 0 0 0 0 0 0 0 0 0 0 0 0 0 418 420 0 0 493 493 504 500 497 497 493 0 0 0 0 0 0 406 404 406 406 420 408 408 408 404 406 411 411 411 411 415 422 418 0 0 0 0 0 0 0 0 0 0 0 0 0 0 0 0 96 95 95 95 0 0 0 0 0 0 82 82 0 0 0 0 0 0 0 0 0 487 484 484 457 477 484 468 0 471 457 0 0 0 0 0 511 0 0 0 511 500 500 504 497 511 511 500 504 507 500 500 497 493 490 490 0 0 0 0 0 0 500 504 500 500 493 484 0 0 443 432 440 440 440 443 446 454 446 446 0 0 0 0 0 0 430 430 422 425 422 420 427 430 435 432 443 484 481 484 487 487 484 484 487 484 484 487 487 484 487 490 490 493 493 490 0 0 0 0 0 0 0 0 432 0 435 432 432 430 427 0 0 0 507 511 511 514 518 525 529 533 0 0 545 545 0 362 0 0 0 459 462 457 446 438 440 435 443 477 477 477 484 487 490 493 500 497 484 487 490 487 468 462 451 446 451 451 448 440 443 446 438 435 430 427 420 422 422 420 422 422 420 422 420 427 0 0 0 0 0
    0 0 0 0 0 0 0 0 0 0 0 0 0 0 0 0 0 0 0 0 0 0 0 0 0 0 0 0 0 0 0 0 0 0 0 0 0 0 0 0 0 0 0 0 0 0 0 0 0 0 0 0 0 0 0 0 0 0 0 0 0 0 0 0 0 0 0 0 0 418 420 0 0 0 0 500 497 493 490 0 0 0 0 0 420 418 408 408 411 413 418 408 411 411 406 408 411 411 413 413 413 420 415 422 425 427 427 427 0 0 0 0 0 0 0 0 0 0 0 0 0 0 0 0 0 0 0 0 0 82 81 0 0 0 425 0 0 425 427 0 457 454 465 443 435 435 435 432 432 432 430 430 0 0 0 0 0 0 0 0 504 504 507 497 511 511 497 500 500 497 497 493 0 0 0 0 0 0 0 0 0 490 493 493 0 0 443 427 430 430 427 435 435 435 438 438 443 0 438 0 0 0 0 0 0 432 432 430 430 430 430 432 432 432 430 435 457 465 471 477 471 471 468 471 462 462 462 468 465 465 0 0 487 484 481 0 0 440 0 440 432 0 0 430 427 430 430 430 427 427 427 0 0 0 497 497 507 521 529 533 541 545 549 553 549 383 375 0 0 430 432 440 440 438 432 435 432 435 446 457 457 471 484 487 490 497 487 481 484 484 481 454 451 446 440 443 446 443 440 443 443 435 430 425 427 418 422 420 420 420 420 420 422 418 427 0 0 0 0 0
    0 0 0 0 0 0 0 0 0 0 0 0 0 0 0 0 0 0 0 0 0 0 0 0 0 0 0 0 0 0 0 0 0 0 0 0 0 0 0 0 0 0 0 0 0 0 0 0 0 0 0 0 0 0 0 0 0 0 0 0 0 0 0 0 0 0 0 0 0 420 422 427 0 0 0 0 0 477 465 0 0 0 0 420 418 418 411 411 413 413 418 411 411 413 406 411 411 411 413 413 411 418 413 420 422 425 425 425 0 0 0 0 0 0 0 0 0 0 0 0 0 430 425 427 0 0 0 0 0 0 0 0 0 0 420 0 422 422 427 0 438 438 443 438 430 430 430 427 427 427 425 425 425 427 425 0 430 422 0 0 0 0 0 0 0 504 490 0 490 0 0 0 0 0 0 0 0 0 0 0 459 465 471 0 0 440 425 420 427 427 425 430 432 432 435 435 438 430 432 0 430 0 0 0 0 432 435 430 432 432 435 432 432 432 430 432 440 446 446 443 440 443 438 440 438 438 438 440 0 0 0 0 0 459 446 440 435 435 435 438 430 432 430 430 427 430 427 430 425 427 427 432 430 430 432 0 0 514 521 0 0 0 0 0 0 397 406 408 415 425 425 432 432 430 430 430 430 432 435 440 440 443 481 484 487 490 481 477 477 477 474 448 451 446 443 446 446 446 443 446 448 435 430 422 425 418 420 420 420 420 420 420 422 418 425 0 0 0 0 0
    0 0 0 0 0 0 0 0 0 0 0 0 0 0 0 0 0 0 0 0 0 0 0 0 0 0 0 0 0 0 0 0 0 0 0 0 0 0 0 0 0 0 0 0 0 0 0 0 0 0 0 0 0 0 0 0 0 0 0 0 0 0 0 0 0 0 0 0 0 420 422 427 425 430 432 435 438 443 438 0 422 418 415 415 418 418 413 411 413 413 418 413 413 415 406 411 411 411 413 413 411 418 413 420 422 425 425 425 425 0 0 0 0 0 0 0 0 427 425 422 425 427 422 425 430 432 427 427 0 430 427 430 0 427 420 0 425 420 427 430 432 432 435 432 425 425 427 425 425 425 422 422 422 425 425 425 427 420 420 420 420 422 425 430 425 427 432 422 427 425 420 422 420 425 425 427 432 432 435 440 443 438 435 438 435 432 420 422 427 427 425 430 430 430 430 432 432 427 427 427 427 425 427 430 430 432 432 430 432 432 432 432 430 432 430 432 435 435 435 432 430 432 430 430 430 432 432 432 435 435 0 0 0 438 435 435 432 435 435 435 432 432 430 430 430 430 427 430 425 427 427 430 427 427 430 427 427 0 430 420 413 415 413 413 408 406 411 413 418 422 420 430 430 430 427 427 427 430 430 435 432 432 451 471 481 481 474 474 481 481 474 448 446 443 440 440 440 440 438 443 440 435 432 422 425 418 422 420 420 420 420 420 422 418 425 0 0 0 0 0
    0 0 0 0 0 0 0 0 0 0 0 0 0 0 0 0 0 0 0 0 0 0 0 0 0 0 0 0 0 0 0 0 0 0 0 0 0 0 0 0 0 0 0 0 0 0 0 0 0 0 0 0 0 0 0 0 0 0 0 0 0 0 0 0 0 0 0 0 0 422 422 425 425 430 430 430 432 435 435 430 425 420 415 415 418 418 413 411 413 413 420 415 413 418 408 413 411 413 415 413 413 418 413 422 422 425 425 422 425 0 0 0 0 0 0 0 425 425 425 422 425 425 420 425 430 430 427 427 427 427 427 427 430 427 422 427 427 420 427 427 427 427 430 430 422 425 425 425 425 425 422 422 422 425 422 425 425 420 420 418 418 420 422 427 425 425 427 418 425 420 415 418 415 418 420 422 427 427 430 432 435 432 432 432 432 427 418 422 427 427 425 427 427 427 427 430 427 425 425 425 425 425 425 427 425 430 430 430 432 430 432 432 430 432 427 432 430 430 432 427 425 427 425 427 427 430 430 430 430 430 430 432 432 432 432 432 430 432 435 435 432 432 430 432 430 430 430 432 425 430 427 430 427 427 430 425 425 427 425 415 411 415 413 415 413 411 418 415 420 425 418 427 427 427 427 427 427 427 427 432 427 427 432 440 446 454 443 440 465 474 459 440 438 438 432 432 438 438 435 438 438 435 432 420 427 420 422 422 420 420 420 420 425 418 427 0 0 0 0 0
    0 0 0 0 0 0 0 0 0 0 0 0 0 0 0 0 0 0 0 0 0 0 0 0 0 0 0 0 0 0 0 0 0 0 0 0 0 0 0 0 0 0 0 0 0 0 0 0 0 0 0 0 0 0 0 0 0 0 0 0 0 0 0 0 0 0 0 0 0 422 422 425 425 427 427 427 430 430 430 427 420 420 413 415 415 418 413 411 411 411 418 413 411 415 408 411 411 411 413 413 413 420 415 422 422 425 425 425 425 0 427 0 0 0 0 418 422 425 425 422 425 425 422 427 430 430 427 427 430 430 430 430 432 427 425 427 427 420 427 427 425 425 427 427 422 425 427 425 425 425 425 422 422 427 425 425 427 422 422 422 425 427 430 427 427 425 427 420 425 420 418 418 418 418 420 422 427 425 427 430 430 430 430 432 430 427 418 422 427 427 425 427 425 427 427 430 427 422 425 425 422 425 425 427 425 430 430 430 430 430 430 430 430 430 427 430 427 427 427 425 425 425 425 427 430 430 430 430 430 427 430 432 430 430 430 430 430 432 435 435 432 432 430 432 432 430 430 432 427 430 427 430 427 427 427 425 422 425 422 413 411 415 413 415 415 413 418 415 422 422 418 425 427 425 425 425 427 427 427 432 425 425 425 430 427 432 427 418 413 0 438 435 435 432 430 430 435 435 435 435 435 432 427 415 425 420 422 422 420 420 420 420 425 418 425 0 0 0 0 0
    0 0 0 0 0 0 0 0 0 0 0 0 0 0 0 0 0 0 0 0 0 0 0 0 0 0 0 0 0 0 0 0 0 0 0 0 0 0 0 0 0 0 0 0 0 0 0 0 0 0 0 0 0 0 0 0 0 0 0 0 0 0 0 0 0 0 0 0 0 425 425 427 425 427 425 425 427 427 427 420 413 415 413 413 415 415 411 413 413 413 418 411 408 415 408 413 411 411 413 413 413 422 418 422 422 425 425 425 425 430 422 0 0 422 408 418 422 425 425 422 422 425 422 430 432 430 427 430 430 430 430 430 430 427 427 427 425 420 427 427 422 425 427 427 425 425 427 425 425 427 425 422 425 427 427 427 430 425 427 425 427 430 432 430 427 427 427 420 425 420 420 420 418 418 422 420 427 425 425 427 427 427 430 430 430 427 415 425 430 427 425 427 425 427 427 430 425 422 422 425 422 422 422 427 425 430 430 430 430 430 430 430 427 430 425 430 425 427 427 425 422 425 422 425 427 430 430 430 430 427 430 430 430 430 430 430 430 432 435 435 432 435 432 432 432 432 430 432 427 430 430 430 427 427 427 425 422 425 422 418 413 418 415 415 420 418 420 415 422 425 418 427 427 427 425 425 427 427 427 432 425 427 425 425 422 427 425 420 422 427 430 432 438 435 430 430 432 435 435 435 432 430 427 413 425 420 422 422 422 422 420 422 427 418 427 0 0 0 0 0
    0 0 0 0 0 0 0 0 0 0 0 0 0 0 0 0 0 0 0 0 0 0 0 0 0 0 0 0 0 0 0 0 0 0 0 0 0 0 0 0 0 0 0 0 0 0 0 0 0 0 0 0 0 0 0 0 0 0 0 0 0 0 0 0 0 0 0 0 0 427 427 430 425 427 425 425 425 425 422 413 408 413 413 413 413 413 411 413 415 418 418 411 411 415 408 413 413 411 413 411 415 422 418 422 422 425 425 425 425 430 422 432 420 422 408 420 425 425 425 422 422 425 422 430 430 430 430 430 430 430 430 430 430 427 425 425 425 420 425 427 422 425 430 425 425 425 427 425 425 427 425 422 425 427 427 427 430 427 427 427 430 432 435 430 430 427 427 418 425 422 420 420 418 418 422 420 425 422 425 425 427 427 430 427 430 427 415 425 430 430 425 430 427 427 427 430 425 422 422 425 422 422 422 427 425 430 427 430 430 430 430 430 427 430 425 430 425 427 425 422 422 425 420 425 425 427 430 430 430 427 430 430 0 432 432 430 430 432 435 435 432 435 432 432 432 430 430 432 427 432 430 430 427 427 427 427 422 425 422 420 415 420 415 418 420 420 422 418 422 425 420 427 427 427 427 427 430 427 430 435 430 430 427 427 427 432 430 425 427 427 430 432 438 435 427 427 430 432 432 432 427 427 425 413 425 420 422 422 422 422 422 422 427 418 425 0 0 0 0 0
    0 0 0 0 0 0 0 0 0 0 0 0 0 0 0 0 0 0 0 0 0 0 0 0 0 0 0 0 0 0 0 0 0 0 0 0 0 0 0 0 0 0 0 0 0 0 0 0 0 0 0 0 0 0 0 0 0 0 0 0 0 0 0 0 0 0 0 0 0 430 430 430 427 430 427 427 427 427 425 418 413 418 415 415 415 413 411 413 415 420 420 413 411 415 408 415 415 413 415 411 415 422 418 422 422 425 425 425 427 427 422 435 425 427 411 422 425 427 427 425 425 425 425 430 432 430 430 430 430 430 427 430 430 425 425 422 422 418 425 427 425 427 430 425 425 425 427 425 425 425 425 422 425 427 427 427 430 427 430 430 430 432 432 427 427 427 427 418 425 422 420 420 420 418 420 420 425 420 422 422 425 427 427 427 430 427 415 427 430 430 425 430 427 427 427 430 425 420 422 425 422 422 422 427 425 430 427 430 430 430 430 430 427 430 427 430 427 427 425 422 422 422 420 422 425 427 427 427 430 427 430 430 0 432 432 432 432 432 435 435 432 435 432 432 432 432 430 432 430 432 430 430 427 427 427 427 422 425 422 418 415 418 415 415 420 418 420 418 422 425 420 427 427 427 427 427 430 430 430 435 432 432 430 430 427 430 430 425 425 427 430 430 435 430 425 425 430 430 430 430 425 425 422 413 425 422 422 422 422 422 422 422 430 420 425 0 0 0 0 0
    0 0 0 0 0 0 0 0 0 0 0 0 0 0 0 0 0 0 0 0 0 0 0 0 0 0 0 0 0 0 0 0 0 0 0 0 0 0 0 0 0 0 0 0 0 0 0 0 0 0 0 0 0 0 0 0 0 0 0 0 0 0 0 0 0 0 0 0 0 430 430 432 430 430 427 427 430 430 427 420 418 422 420 418 420 418 413 415 418 422 420 418 413 415 411 415 415 413 413 411 415 422 418 422 422 425 425 425 427 427 425 438 430 430 415 425 427 427 427 425 425 427 425 432 432 432 432 432 432 430 427 430 430 425 425 425 425 420 427 430 427 427 430 425 425 427 427 425 425 427 425 425 427 427 427 430 432 430 430 430 430 432 430 425 425 425 425 420 425 422 420 420 420 420 420 420 425 420 422 422 425 427 427 430 432 430 418 430 432 430 425 427 427 427 425 430 422 420 420 425 422 422 425 427 425 432 427 430 430 430 430 430 427 430 427 430 425 430 427 422 422 425 422 422 425 427 427 427 430 425 430 430 432 432 432 430 430 432 435 432 432 432 432 435 432 432 432 435 432 435 432 432 430 430 430 427 422 425 420 418 415 418 415 418 420 420 422 418 422 425 420 427 427 427 427 427 432 430 432 435 435 430 430 430 427 430 427 425 425 425 430 432 432 430 425 425 430 432 430 427 425 427 422 413 425 422 422 425 422 422 422 425 430 422 427 0 0 0 0 0
    0 0 0 0 0 0 0 0 0 0 0 0 0 0 0 0 0 0 0 0 0 0 0 0 0 0 0 0 0 0 0 0 0 0 0 0 0 0 0 0 0 0 0 0 0 0 0 0 0 0 0 0 0 0 0 0 0 0 0 0 0 0 0 0 0 0 0 0 0 430 430 432 427 427 427 425 427 427 422 418 420 425 420 420 422 420 418 418 420 422 420 420 415 415 413 415 420 415 413 408 415 422 418 422 422 422 422 425 427 427 425 440 435 438 420 430 432 430 430 427 427 430 430 435 435 435 435 438 435 432 430 430 430 427 427 425 427 420 427 427 425 427 427 422 425 427 430 427 427 427 427 427 430 430 430 430 432 430 432 430 430 432 430 422 422 422 425 420 427 422 422 422 420 420 422 420 425 420 422 425 427 430 430 432 435 432 420 430 432 432 425 427 425 425 425 430 422 420 420 425 422 425 425 427 425 430 427 430 427 430 430 430 427 430 427 430 427 430 427 422 425 425 422 425 425 427 427 427 427 425 430 427 430 430 430 430 430 430 432 432 432 432 432 432 432 432 432 435 435 435 435 432 430 430 430 427 422 425 420 418 418 420 418 420 422 422 422 420 425 425 422 427 430 430 430 427 430 430 432 435 435 430 430 430 427 432 430 427 427 427 432 432 435 432 430 430 430 432 430 430 425 427 422 415 425 425 422 425 425 425 422 427 432 425 430 0 0 0 0 0
    0 0 0 0 0 0 0 0 0 0 0 0 0 0 0 0 0 0 0 0 0 0 0 0 0 0 0 0 0 0 0 0 0 0 0 0 0 0 0 0 0 0 0 0 0 0 0 0 0 0 0 0 0 0 0 0 0 0 0 0 0 0 0 0 0 0 0 0 0 430 430 430 427 427 425 422 425 422 420 418 420 425 420 422 425 418 418 418 420 420 420 418 413 413 413 415 422 418 413 408 418 425 418 425 425 422 422 425 430 430 427 440 435 438 420 430 432 432 430 427 427 430 430 435 435 435 435 438 435 435 430 430 432 427 427 427 427 420 425 425 422 425 427 422 425 427 430 427 430 430 430 427 432 430 430 432 435 430 432 430 430 432 430 425 422 425 425 422 427 425 425 422 422 422 422 420 422 418 425 425 427 430 432 432 435 435 422 432 432 432 425 427 425 425 427 432 422 422 422 427 425 425 425 427 422 430 425 427 425 427 427 427 427 430 425 430 425 430 427 422 425 425 425 425 427 427 427 427 427 425 427 427 430 430 430 427 430 430 432 430 432 432 432 432 432 432 435 435 435 435 435 432 430 430 427 427 422 425 420 420 418 420 418 420 420 422 422 422 425 425 425 427 430 430 430 427 430 430 432 432 435 432 432 430 430 432 432 427 430 430 432 435 435 432 427 427 430 430 430 427 425 427 420 418 425 425 425 427 425 425 425 430 435 430 432 0 0 0 0 0
    0 0 0 0 0 0 0 0 0 0 0 0 0 0 0 0 0 0 0 0 0 0 0 0 0 0 0 0 0 0 0 0 0 0 0 0 0 0 0 0 0 0 0 0 0 0 0 0 0 0 0 0 0 0 0 0 0 0 0 0 0 0 0 0 0 0 0 0 0 432 432 432 430 427 427 425 425 422 420 420 418 425 422 422 425 418 418 415 418 418 415 413 413 413 413 415 422 415 411 408 418 425 420 425 425 425 425 425 430 430 427 438 432 435 420 430 432 432 430 427 427 430 427 435 432 430 432 435 432 432 430 430 430 427 427 425 427 422 425 425 422 427 427 420 425 427 430 427 430 430 430 427 432 430 430 430 432 430 432 430 430 432 430 425 425 425 425 422 427 425 425 425 422 422 422 422 422 418 422 422 427 430 430 432 435 435 422 432 432 432 425 430 427 427 427 432 425 422 425 430 427 427 427 427 425 430 425 427 425 427 427 427 427 427 425 430 425 430 427 425 427 427 427 425 427 430 430 427 427 425 427 427 427 427 427 427 427 430 430 430 430 432 432 432 432 432 435 432 435 435 432 430 430 430 427 427 422 425 420 420 420 420 418 420 420 420 425 422 427 425 425 427 430 430 430 427 430 427 432 432 435 430 430 427 427 432 432 430 430 430 435 435 435 432 427 427 427 430 427 425 422 427 418 420 427 427 425 427 425 427 425 430 435 432 430 0 0 0 0 0
    0 0 0 0 0 0 0 0 0 0 0 0 0 0 0 0 0 0 0 0 0 0 0 0 0 0 0 0 0 0 0 0 0 0 0 0 0 0 0 0 0 0 0 0 0 0 0 0 0 0 0 0 0 0 0 0 0 0 0 0 0 0 0 0 0 0 0 0 0 435 432 435 432 430 427 425 427 425 420 422 420 425 425 422 425 418 418 415 418 415 413 411 411 413 0 0 422 411 411 408 418 425 418 425 425 425 425 427 432 430 427 438 432 435 422 430 430 432 430 427 427 430 427 435 432 430 432 435 432 432 430 430 430 425 427 425 427 422 427 427 425 430 430 422 427 430 430 427 430 430 430 430 435 430 430 432 435 432 432 430 430 432 430 425 425 425 422 420 427 425 425 425 422 422 422 422 425 418 422 422 427 430 430 432 438 435 425 432 432 432 427 430 427 427 427 432 425 422 425 430 427 427 427 427 425 430 425 430 425 427 427 427 427 427 427 430 427 432 427 427 427 427 430 427 427 430 430 427 427 425 427 425 427 427 427 425 427 427 430 427 430 430 432 432 432 432 432 432 432 432 432 430 427 427 425 427 422 425 420 420 420 420 415 418 418 420 422 422 425 422 425 427 427 430 430 427 430 427 430 430 432 425 425 415 420 430 430 430 430 430 432 435 435 432 427 427 427 427 425 422 422 427 413 420 425 425 425 425 427 427 425 432 432 430 427 0 0 0 0 0
    0 0 0 0 0 0 0 0 0 0 0 0 0 0 0 0 0 0 0 0 0 0 0 0 0 0 0 0 0 0 0 0 0 0 0 0 0 0 0 0 0 0 0 0 0 0 0 0 0 0 0 0 0 0 0 0 0 0 0 0 0 0 0 0 0 0 0 0 0 435 432 438 0 432 432 430 430 427 422 425 425 427 0 427 427 422 422 418 420 418 415 413 418 418 0 0 427 415 413 408 415 425 418 422 425 425 425 427 432 432 430 440 435 438 427 432 432 432 430 430 430 430 430 435 432 430 432 432 432 430 430 430 427 425 427 425 425 422 427 427 427 432 435 422 430 432 432 430 432 432 430 430 435 432 432 432 435 430 432 430 430 430 430 425 422 425 420 420 427 422 425 425 422 425 422 425 425 420 425 425 427 432 432 435 438 435 425 432 432 432 427 430 427 427 430 432 427 425 425 430 427 427 427 427 427 430 425 430 425 427 427 430 427 430 427 432 430 432 430 427 430 430 430 427 427 430 430 427 427 425 427 425 430 427 427 425 427 427 430 427 430 430 430 430 432 432 432 432 432 432 430 430 427 427 425 427 422 425 420 420 422 420 418 420 418 420 422 422 425 422 425 425 427 430 430 427 427 427 430 430 430 422 422 413 415 425 422 425 425 427 430 432 432 432 430 427 425 427 425 422 422 427 413 422 425 425 425 425 427 427 425 432 432 430 427 0 0 0 0 0
    0 0 0 0 0 0 0 0 0 0 0 0 0 0 0 0 0 0 0 0 0 0 0 0 0 0 0 0 0 0 0 0 0 0 0 0 0 0 0 0 0 0 0 0 0 0 0 0 0 0 0 0 0 0 0 0 0 0 0 0 0 0 0 0 0 0 0 0 0 432 432 435 435 432 432 432 430 430 425 0 427 430 0 430 432 430 427 422 422 420 420 418 422 420 422 418 427 418 420 411 415 422 418 422 422 425 425 427 432 432 432 440 438 438 432 435 435 435 432 432 432 432 430 435 432 427 430 432 430 430 427 430 427 422 425 422 425 420 425 425 427 432 435 422 432 432 432 430 432 432 430 430 438 432 430 430 432 430 430 427 425 427 427 425 420 425 420 420 427 425 425 425 422 425 422 425 425 420 425 425 427 432 432 435 438 432 427 432 432 432 430 430 430 430 432 435 430 427 427 432 430 430 430 430 430 432 427 430 425 427 430 430 430 430 430 432 432 435 432 430 430 430 430 427 427 430 427 425 427 427 427 425 430 427 427 425 427 427 427 425 430 430 430 430 432 432 432 432 432 432 430 430 427 427 425 427 422 425 420 420 422 420 415 420 415 418 422 420 425 420 422 425 427 430 430 430 427 427 430 430 430 420 422 418 415 422 418 418 420 425 427 430 427 430 427 427 425 425 425 422 425 427 413 422 425 425 425 425 425 427 425 432 432 430 427 0 0 0 0 0</data></depth>
</opencv_storage>
