<?xml version="1.0"?>
<opencv_storage>
<gps_time_stamp>23990</gps_time_stamp>
<gps_x>-4.2746310234069824e+000</gps_x>
<gps_y>4.6107184886932373e-001</gps_y>
<gps_z>-6.6726744174957275e-001</gps_z>
<image_time_stamp>11966</image_time_stamp>
<depth type_id="opencv-matrix">
  <rows>87</rows>
  <cols>320</cols>
  <dt>s</dt>
  <data>
    0 0 0 0 0 0 0 0 0 0 0 0 0 0 0 0 0 0 0 0 0 0 0 0 0 0 0 0 0 0 0 0 0 0 0 0 0 0 0 0 0 0 0 0 0 0 0 0 0 0 0 0 0 0 0 0 0 0 0 0 0 0 0 0 0 0 0 0 0 1471 1501 1471 1471 1471 1443 1388 1443 1362 1338 1388 1388 1388 1415 1415 1443 1415 1415 1443 1388 1388 1388 1362 1362 1362 1388 1388 1388 1388 1362 1362 1388 1362 1362 1362 1362 1362 1388 1388 1388 1388 1388 1388 1388 1443 1362 1388 1338 1388 1388 1388 1388 1388 1362 1415 1388 1415 1362 1338 1314 1291 1338 1338 1314 1314 1338 1338 1362 1388 1415 1314 1338 1362 1314 1314 1314 1291 1291 1291 1291 1291 1268 1291 1291 1268 1291 1314 1338 1338 1362 1362 1388 1388 1388 1388 1388 1362 1388 1338 1338 1338 1314 1338 1362 1362 1362 1362 1338 0 0 0 0 0 0 0 0 0 529 525 525 525 514 521 529 525 525 521 514 504 504 518 511 500 500 493 504 511 518 521 507 511 518 518 525 518 511 521 518 525 529 0 0 0 1082 0 0 0 0 0 0 634 608 613 603 598 593 593 588 584 579 593 584 574 574 584 584 574 561 566 588 579 574 566 865 865 897 897 908 908 908 994 968 981 1098 1066 1066 1051 1066 1022 876 0 817 743 0 700 687 694 0 0 0 0 0 836 876 876 876 886 897 897 931 968 968 968 0 1247 1247 1247 1268 1247 1115 1066 1036 1022 955 931 955 968 994 897 0 0 0 0 0 0 557 0 0 0 0 0
    0 0 0 0 0 0 0 0 0 0 0 0 0 0 0 0 0 0 0 0 0 0 0 0 0 0 0 0 0 0 0 0 0 0 0 0 0 0 0 0 0 0 0 0 0 0 0 0 0 0 0 0 0 0 0 0 0 0 0 0 0 0 0 0 0 0 0 0 0 1443 1471 1443 1443 1443 1415 1388 1415 1362 1338 1362 1388 1362 1388 1415 1415 1388 1388 1388 1362 1338 1362 1338 1338 1338 1362 1362 1338 1338 1338 1338 1338 1338 1338 1338 1338 1362 1362 1388 1362 1362 1362 1362 1338 1388 1338 1338 1338 1362 1362 1362 1388 1388 1388 1415 1388 1415 1338 1338 1291 1291 1314 1338 1291 1314 1314 1338 1362 1388 1388 1314 1314 1338 1291 1291 1291 1268 1291 1291 1291 1268 1268 1268 1291 1268 1268 1268 1314 1314 1338 1338 1362 1362 1362 1388 1388 1362 1362 1338 1338 1314 1314 1314 1338 1338 1338 1338 1314 0 0 0 0 0 0 0 0 0 533 529 529 529 518 521 529 525 525 521 518 504 504 518 511 500 500 493 500 511 514 518 507 507 514 514 525 518 511 521 518 525 529 1115 1051 1098 1115 1036 0 0 0 0 0 618 579 598 598 593 584 584 579 579 570 588 579 574 579 584 584 584 574 584 593 593 593 588 845 845 876 886 886 886 897 994 981 994 1098 1082 1082 1051 1066 1036 897 0 826 750 0 694 687 694 0 0 0 694 0 0 876 886 886 886 897 897 943 968 968 981 1036 1206 1187 1206 1206 1206 1115 1066 1051 1036 981 981 981 981 1022 897 0 0 0 0 0 561 557 0 0 0 0 0
    0 0 0 0 0 0 0 0 0 0 0 0 0 0 0 0 0 0 0 0 0 0 0 0 0 0 0 0 0 0 0 0 0 0 0 0 0 0 0 0 0 0 0 0 0 0 0 0 0 0 0 0 0 0 0 0 0 0 0 0 0 0 0 0 0 0 0 0 0 1415 1443 1415 1415 1415 1388 1362 1415 1338 1314 1362 1388 1362 1388 1388 1388 1362 1362 1362 1338 1314 1338 1338 1314 1314 1338 1338 1338 1314 1314 1314 1314 1314 1314 1314 1314 1338 1338 1362 1362 1362 1362 1338 1314 1338 1314 1338 1314 1338 1362 1362 1362 1388 1362 1415 1362 1388 1314 1291 1268 1268 1291 1314 1268 1291 1291 1314 1338 1362 1362 1291 1291 1314 1268 1268 1268 1268 1268 1268 1268 1247 1247 1247 1268 1247 1247 1247 1291 1291 1314 1338 1338 1338 1338 1362 1388 1338 1362 1314 1314 1314 1291 1291 1291 1314 1314 1314 1291 1247 0 0 0 0 0 0 0 0 537 533 529 529 518 521 529 529 525 525 521 511 504 514 511 500 500 493 500 507 514 518 507 507 514 514 521 518 507 518 518 525 0 1168 1149 1168 1149 1082 1082 0 0 0 0 593 549 584 593 588 579 579 574 574 566 584 579 574 579 584 588 588 584 593 598 598 598 588 826 0 865 865 876 876 876 994 981 994 1098 1098 1098 1082 1098 1051 919 0 836 743 0 694 681 681 169 0 0 687 0 0 897 886 886 897 897 897 955 955 981 994 1022 1149 1132 1149 1168 1187 1132 1098 1066 1082 1022 1008 994 1008 1022 908 0 0 0 0 0 561 561 0 0 0 0 0
    0 0 0 0 0 0 0 0 0 0 0 0 0 0 0 0 0 0 0 0 0 0 0 0 0 0 0 0 0 0 0 0 0 0 0 0 0 0 0 0 0 0 0 0 0 0 0 0 0 0 0 0 0 0 0 0 0 0 0 0 0 0 0 0 0 0 0 0 0 1388 1415 1388 1388 1388 1362 1338 1362 1338 1314 1338 1362 1362 1362 1362 1362 1362 1338 1338 1314 1291 1314 1314 1314 1291 1314 1291 1314 1291 1291 1268 1291 1291 1314 1314 1314 1314 1338 1338 1338 1362 1338 1314 1291 1314 1291 1314 1314 1338 1338 1338 1362 1388 1362 1415 1362 1362 1291 1268 1247 1247 1268 1268 1247 1268 1247 1291 1291 1291 1314 1268 1268 1268 1247 1247 1247 1247 1247 1247 1268 1247 1247 1247 1247 1226 1247 1206 1268 1268 1291 1314 1338 1338 1338 1338 1362 1338 1338 1291 1314 1291 1247 1268 1291 1291 1291 1291 1291 1247 1226 0 0 0 0 0 0 0 0 533 529 529 521 521 533 529 525 525 525 514 504 514 511 500 497 493 497 507 511 518 507 511 518 518 521 518 511 521 518 0 1226 1187 1206 1226 1187 1115 1115 1098 0 0 0 0 549 579 593 593 584 579 570 574 566 584 584 579 579 588 593 593 593 603 598 598 598 588 808 808 845 855 855 865 865 981 981 994 1098 1098 1098 1082 1098 1051 931 0 836 743 0 694 681 681 0 0 0 681 0 0 931 897 897 897 897 908 955 955 981 994 1036 1115 1115 1132 1132 1168 1115 1066 1066 1051 994 994 981 994 1022 897 0 0 0 0 0 566 561 0 0 0 0 0
    0 0 0 0 0 0 0 0 0 0 0 0 0 0 0 0 0 0 0 0 0 0 0 0 0 0 0 0 0 0 0 0 0 0 0 0 0 0 0 0 0 0 0 0 0 0 0 0 0 0 0 0 0 0 0 0 0 0 0 0 0 0 0 0 0 0 0 0 0 1388 1388 1362 1362 1362 1362 1338 1362 1338 1314 1338 1338 1338 1338 1338 1338 1338 1314 1314 1314 1291 1314 1291 1291 1291 1291 1291 1291 1247 1268 1247 1268 1268 1291 1291 1291 1314 1314 1314 1338 1338 1338 1314 1268 1291 1291 1314 1314 1314 1314 1338 1338 1362 1362 1388 1338 1314 1247 1247 1226 1226 1226 1247 1247 1247 1247 1268 1268 1268 1291 1247 1247 1226 1206 1226 1226 1226 1247 1226 1247 1247 1247 1247 1247 1226 1247 1187 1268 1247 1268 1291 1314 1314 1314 1314 1338 1314 1314 1268 1291 1291 1226 1268 1268 1291 1291 1268 1268 1226 1206 0 0 0 0 0 0 0 0 537 533 529 525 525 533 533 529 529 529 518 507 511 511 500 497 493 497 504 511 514 507 511 518 518 521 521 511 521 521 1247 1226 1187 1226 1226 1187 1149 1132 1098 1082 0 0 584 545 574 593 593 588 579 574 579 561 588 584 584 584 588 598 598 593 603 598 593 593 593 774 782 836 845 845 845 855 955 981 981 1082 1082 1082 1066 1082 1036 931 0 845 750 0 694 675 675 169 169 0 675 0 897 943 908 908 908 897 919 968 955 981 994 1036 1115 1132 1132 1115 1149 1115 1082 1066 1051 1008 1008 981 1008 1022 876 0 0 0 0 0 570 566 0 0 0 0 0
    0 0 0 0 0 0 0 0 0 0 0 0 0 0 0 0 0 0 0 0 0 0 0 0 0 0 0 0 0 0 0 0 0 0 0 0 0 0 0 0 0 0 0 0 0 0 0 0 0 0 0 0 0 0 0 0 0 0 0 0 0 0 0 0 0 0 0 0 0 1362 1388 1338 1338 1338 1338 1314 1338 1314 1314 1314 1314 1314 1314 1314 1314 1314 1314 1291 1314 1291 1291 1291 1291 1291 1291 1268 1268 1226 1247 1247 1247 1268 1268 1268 1268 1291 1291 1291 1291 1314 1291 1268 1247 1291 1268 1314 1314 1314 1314 1314 1338 1362 1314 1362 1291 1268 1187 1206 1206 1206 1226 1226 1226 1226 1226 1268 1247 1247 1247 1226 1206 1206 1187 1206 1206 1187 1226 1206 1226 1226 1226 1226 1206 1206 1226 1168 1247 1247 1268 1268 1291 1291 1291 1291 1314 1291 1291 1247 1268 1268 1206 1247 1247 1268 1268 1247 1247 1206 1187 1247 0 0 0 0 0 0 0 541 537 533 529 525 533 533 533 529 529 521 511 511 514 504 500 497 497 504 511 514 507 507 518 518 521 518 514 521 525 1206 1187 1187 1206 1206 1168 1132 1098 1082 1082 0 0 0 549 566 588 593 588 579 574 574 561 588 588 584 584 593 598 598 598 608 598 598 598 593 0 735 0 826 826 836 836 886 981 994 1066 1066 1066 1066 1066 1036 931 886 845 758 0 694 675 0 169 0 0 669 0 943 955 919 908 908 908 919 981 968 981 1008 1051 1098 1115 1132 1115 1132 1115 1098 1082 1066 1022 1022 994 1008 1022 865 735 0 0 0 541 570 561 0 0 0 0 0
    0 0 0 0 0 0 0 0 0 0 0 0 0 0 0 0 0 0 0 0 0 0 0 0 0 0 0 0 0 0 0 0 0 0 0 0 0 0 0 0 0 0 0 0 0 0 0 0 0 0 0 0 0 0 0 0 0 0 0 0 0 0 0 0 0 0 0 0 0 1338 1338 1314 1314 1314 1314 1291 1291 1291 1291 1268 1291 1291 1268 1291 1268 1291 1291 1268 1291 1268 1291 1291 1268 1268 1268 1247 1247 1206 1247 1226 1247 1247 1268 1268 1268 1268 1268 1268 1268 1268 1268 1226 1226 1268 1268 1291 1291 1291 1314 1314 1338 1338 1314 1314 1247 1206 1168 1187 1187 1206 1206 1206 1206 1226 1226 1247 1226 1226 1226 1206 1187 1187 1168 1187 1187 1187 1206 1187 1226 1206 1206 1206 1206 1206 1226 1149 1226 1226 1247 1268 1291 1291 1268 1268 1291 1268 1291 1247 1268 1268 1187 1226 1226 1247 1247 1226 1247 1206 1187 1226 1187 1132 1098 1082 1115 1132 1115 0 0 0 0 514 529 529 525 521 525 521 507 507 514 507 504 500 497 504 511 514 507 511 518 518 518 518 521 521 521 1187 1187 1168 1206 1206 1149 1149 1098 1082 1132 0 0 0 561 574 593 593 584 579 574 579 561 588 588 584 584 593 598 598 598 613 598 598 598 593 0 714 0 0 808 817 817 0 994 1008 1066 1066 1082 1066 1051 1036 931 897 845 750 0 0 0 0 169 170 0 669 0 968 955 931 919 919 908 931 981 968 994 1022 1066 1098 1098 1115 1115 1132 1115 1082 1066 1066 1022 1008 981 994 968 855 743 0 0 0 545 570 561 0 0 0 0 0
    0 0 0 0 0 0 0 0 0 0 0 0 0 0 0 0 0 0 0 0 0 0 0 0 0 0 0 0 0 0 0 0 0 0 0 0 0 0 0 0 0 0 0 0 0 0 0 0 0 0 0 0 0 0 0 0 0 0 0 0 0 0 0 0 0 0 0 0 0 1314 1314 1291 1291 1291 1291 1268 1268 1268 1247 1247 1268 1268 1247 1268 1247 1268 1291 1268 1291 1268 1268 1268 1247 1247 1247 1226 1226 1206 1226 1226 1226 1247 1268 1268 1247 1268 1268 1247 1247 1268 1247 1226 1226 1247 1268 1291 1291 1291 1291 1291 1291 1291 1268 1268 1187 1168 1132 1168 1168 1187 1206 1206 1206 1226 1226 1247 1226 1226 1226 1187 1187 1187 1187 1168 1187 1168 1187 1168 1206 1187 1187 1187 1206 1206 1226 1149 1206 1226 1247 1247 1268 1268 1268 1247 1291 1268 1268 1226 1226 1226 1168 1187 1206 1226 1226 1206 1226 1206 1187 1206 1206 1149 1115 1098 1132 1149 1115 1082 1082 0 0 0 0 525 514 514 521 518 507 504 514 507 504 500 497 500 511 514 511 514 518 518 518 521 525 525 0 1149 1168 1168 1187 1187 1149 1149 1098 1082 0 0 0 634 584 584 593 593 588 584 574 579 561 588 588 588 588 593 598 598 598 608 598 593 593 593 588 681 0 0 774 782 0 0 1008 1022 1082 1082 1098 1082 1051 1022 931 886 845 743 0 0 0 169 169 170 0 663 0 968 955 931 919 919 919 943 994 981 1008 1036 1051 1082 1082 1098 1098 1098 1098 1066 1066 1051 1008 1008 981 981 955 865 750 0 0 0 545 574 561 0 0 0 0 0
    0 0 0 0 0 0 0 0 0 0 0 0 0 0 0 0 0 0 0 0 0 0 0 0 0 0 0 0 0 0 0 0 0 0 0 0 0 0 0 0 0 0 0 0 0 0 0 0 0 0 0 0 0 0 0 0 0 0 0 0 0 0 0 0 0 0 0 0 0 1291 1291 1268 1268 1268 1268 1268 1247 1226 1226 1226 1247 1247 1226 1268 1247 1268 1268 1247 1268 1247 1247 1268 1226 1226 1226 1206 1226 1187 1226 1226 1206 1226 1247 1247 1226 1247 1247 1247 1247 1247 1247 1247 1226 1247 1247 1268 1268 1291 1268 1268 1268 1268 1226 1206 1132 1149 1115 1149 1168 1187 1187 1187 1206 1226 1226 1247 1226 1226 1226 1168 1187 1187 1168 1149 1168 1149 1168 1168 1206 1187 1168 1168 1206 1187 1226 1132 1206 1226 1226 1247 1247 1247 1247 1226 1268 1247 1206 1206 1206 1206 1168 1149 1187 1206 1206 1187 1187 1187 1168 1187 1206 1149 1132 1115 1149 1149 1115 1082 1098 1082 1082 0 0 0 0 490 500 504 504 500 511 507 504 504 497 500 507 511 511 514 518 518 518 521 533 0 0 1132 1149 1149 1187 1187 1149 1149 1098 1082 0 0 0 669 593 593 598 598 588 584 579 584 566 588 588 588 588 593 598 598 598 608 593 593 593 588 584 613 0 0 728 735 0 0 1036 1051 1082 1098 1098 1082 1036 1008 908 876 845 735 0 0 0 0 0 171 0 663 0 955 955 931 919 931 919 943 994 981 1008 1036 1051 1066 1066 1082 1082 1082 1082 1066 1051 1036 994 994 981 981 943 865 774 0 0 0 541 570 557 0 0 0 0 0
    0 0 0 0 0 0 0 0 0 0 0 0 0 0 0 0 0 0 0 0 0 0 0 0 0 0 0 0 0 0 0 0 0 0 0 0 0 0 0 0 0 0 0 0 0 0 0 0 0 0 0 0 0 0 0 0 0 0 0 0 0 0 0 0 0 0 0 0 0 1291 1268 1268 1268 1247 1247 1247 1226 1206 1206 1206 1226 1226 1206 1247 1226 1247 1268 1226 1247 1226 1226 1247 1206 1206 1206 1206 1226 1187 1226 1226 1206 1247 1226 1247 1226 1226 1226 1206 1206 1226 1226 1247 1226 1247 1247 1247 1268 1268 1247 1247 1226 1226 1187 1149 1098 1132 1115 1149 1168 1187 1187 1187 1206 1226 1206 1247 1226 1206 1206 1132 1168 1168 1149 1132 1149 1132 1149 1149 1187 1168 1149 1149 1206 1187 1206 1132 1187 1206 1206 1206 1226 1206 1206 1187 1247 1226 1168 1187 1168 1187 1168 1132 1187 1187 1187 1168 1168 1168 1149 1168 1206 1149 1149 1132 1168 1168 1149 1098 1115 1098 1098 0 0 0 0 0 487 490 497 497 507 507 507 507 500 500 507 511 514 518 521 518 518 525 0 0 0 1115 1132 1149 1187 1168 1149 1149 1098 1082 0 0 0 687 598 598 603 598 588 588 579 584 570 588 588 588 593 598 598 598 598 608 593 588 588 588 579 588 603 0 0 0 0 0 1051 1036 1036 1051 1082 1051 1008 955 876 865 836 735 0 0 0 0 0 171 0 0 0 955 943 931 919 919 919 943 981 968 1008 1036 1036 1051 1066 1082 1066 1082 1082 1066 1051 1036 1008 1008 981 994 955 886 808 0 0 0 0 570 557 0 0 0 0 0
    0 0 0 0 0 0 0 0 0 0 0 0 0 0 0 0 0 0 0 0 0 0 0 0 0 0 0 0 0 0 0 0 0 0 0 0 0 0 0 0 0 0 0 0 0 0 0 0 0 0 0 0 0 0 0 0 0 0 0 0 0 0 0 0 0 0 0 0 0 1247 1247 1226 1226 1226 1226 1206 1206 1168 1187 1187 1206 1206 1206 1226 1206 1226 1247 1226 1247 1226 1206 1226 1168 1206 1187 1187 1206 1187 1226 1226 1206 1247 1226 1226 1206 1206 1206 1187 1168 1206 1206 1226 1226 1247 1247 1247 1247 1268 1247 1226 1206 1187 1132 1115 1082 1132 1115 1149 1168 1187 1187 1168 1206 1226 1206 1226 1206 1187 1187 1115 1149 1149 1132 1115 1132 1115 1132 1132 1187 1168 1132 1149 1187 1187 1206 1132 1187 1187 1187 1206 1206 1187 1187 1168 1226 1187 1132 1149 1132 1168 1149 1115 1149 1149 1149 1132 1132 1168 1132 1132 1187 1132 1132 1115 1168 1187 1168 1098 1115 1098 1115 0 0 0 0 0 487 487 493 497 507 511 511 507 500 497 507 511 514 518 518 518 514 521 0 0 0 1115 1132 1132 1168 1149 1115 1132 1066 1066 1115 994 886 808 0 608 613 603 598 588 584 579 574 588 588 588 593 593 598 593 598 603 584 584 584 584 574 570 0 0 603 0 0 0 0 1022 994 981 1022 1022 919 845 836 836 817 728 0 171 171 171 0 172 0 0 0 931 943 919 908 908 908 931 981 968 1008 1036 1036 1066 1066 1066 1066 1066 1082 1051 1051 1022 994 1008 994 994 968 886 0 0 0 0 0 566 553 0 0 0 0 0
    0 0 0 0 0 0 0 0 0 0 0 0 0 0 0 0 0 0 0 0 0 0 0 0 0 0 0 0 0 0 0 0 0 0 0 0 0 0 0 0 0 0 0 0 0 0 0 0 0 0 0 0 0 0 0 0 0 0 0 0 0 0 0 0 0 0 0 0 0 1226 1226 1187 1206 1206 1187 1187 1168 1132 1187 1187 1187 1206 1187 1206 1206 1226 1226 1206 1226 1206 1187 1206 1149 1187 1168 1187 1187 1187 1206 1206 1206 1226 1206 1206 1187 1168 1168 1149 1132 1187 1187 1226 1206 1226 1247 1226 1247 1247 1226 1206 1168 1168 1115 1098 1082 1115 1098 1132 1149 1187 1187 1168 1187 1206 1187 1206 1187 1168 1132 1082 1132 1132 1115 1098 1115 1115 1115 1115 1168 1149 1115 1132 1187 1187 1187 1115 1168 1168 1149 1168 1187 1168 1132 1132 1206 1149 1098 1115 1082 1115 1115 1098 1115 1115 1115 1115 1115 1132 1115 1098 1149 1098 1115 1098 1168 1187 1149 1098 1115 1082 1098 1066 1066 0 0 0 0 0 493 500 511 514 514 507 500 497 507 507 514 518 518 514 514 518 0 0 0 1098 1115 1098 1132 1115 1082 1098 1051 1051 1082 981 919 836 0 645 623 608 598 593 588 579 574 588 588 584 588 593 593 588 593 598 579 570 574 579 574 561 579 579 593 603 608 0 0 1008 943 886 886 855 836 791 799 808 782 721 0 0 0 172 0 0 0 0 0 908 931 908 897 897 897 931 981 968 1036 1051 1066 1098 1082 1082 1066 1066 1066 1036 1036 1008 981 1008 1008 994 968 886 0 0 0 0 0 557 549 0 0 0 0 0
    0 0 0 0 0 0 0 0 0 0 0 0 0 0 0 0 0 0 0 0 0 0 0 0 0 0 0 0 0 0 0 0 0 0 0 0 0 0 0 0 0 0 0 0 0 0 0 0 0 0 0 0 0 0 0 0 0 0 0 0 0 0 0 0 0 0 0 0 0 1206 1206 1187 1206 1187 1187 1168 1149 1132 1168 1168 1168 1187 1187 1206 1187 1206 1206 1168 1187 1168 1149 1187 1132 1149 1168 1168 1187 1187 1206 1206 1187 1206 1149 1168 1132 1115 1115 1115 1098 1132 1149 1187 1168 1206 1226 1206 1206 1226 1206 1206 1168 1132 1132 1098 1082 1115 1115 1115 1132 1168 1187 1168 1187 1206 1187 1187 1168 1168 1115 1082 1132 1132 1115 1115 1132 1115 1115 1132 1168 1132 1098 1132 1168 1168 1149 1082 1132 1149 1132 1149 1149 1115 1098 1098 1168 1098 1066 1082 1051 1082 1098 1082 1098 1098 1098 1082 1098 1115 1098 1082 1115 1082 1082 1082 1149 1149 1115 1082 1098 1066 1082 1051 1051 0 0 0 0 0 500 504 514 518 518 511 504 497 507 504 514 514 514 511 511 514 525 0 0 1098 1098 1082 1098 1082 1066 1066 1036 1036 1036 981 919 845 728 687 634 608 598 593 588 574 574 588 588 584 584 584 584 579 588 588 570 561 570 574 570 557 570 570 579 593 593 593 0 994 897 836 826 808 791 743 774 782 750 721 707 0 0 172 0 0 0 0 0 897 931 897 897 886 886 919 981 955 1036 1022 1066 1098 1098 1132 1098 1098 1082 1036 1051 1008 994 1022 1022 1008 968 886 0 0 0 0 0 553 545 0 0 0 0 0
    0 0 0 0 0 0 0 0 0 0 0 0 0 0 0 0 0 0 0 0 0 0 0 0 0 0 0 0 0 0 0 0 0 0 0 0 0 0 0 0 0 0 0 0 0 0 0 0 0 0 0 0 0 0 0 0 0 0 0 0 0 0 0 0 0 0 0 0 0 1206 1187 1187 1187 1168 1149 1149 1132 1115 1168 1149 1149 1168 1168 1187 1168 1187 1187 1132 1149 1149 1115 1149 1098 1132 1149 1149 1168 1168 1187 1206 1168 1187 1115 1132 1098 1066 1082 1082 1066 1098 1098 1132 1115 1168 1206 1187 1187 1226 1206 1206 1168 1132 1149 1115 1098 1115 1115 1132 1132 1168 1187 1168 1187 1206 1149 1132 1132 1149 1098 1082 1132 1132 1115 1115 1132 1132 1115 1132 1168 1132 1098 1115 1168 1149 1132 1082 1115 1132 1098 1115 1115 1082 1066 1082 1115 1066 1036 1036 1022 1051 1066 1051 1066 1066 1082 1066 1082 1098 1066 1066 1098 1066 1066 1066 1132 1132 1098 1082 1082 1051 1066 1036 1051 0 0 146 0 0 504 507 518 521 518 511 500 497 507 507 518 518 514 511 511 518 525 0 0 1098 1098 1066 1082 1066 1051 1051 1022 1022 1036 981 931 855 0 0 645 608 598 593 584 574 579 588 584 579 584 584 579 574 584 584 561 557 566 570 570 553 566 566 570 584 584 579 579 981 865 808 791 758 743 721 743 743 735 714 707 700 687 0 0 0 0 0 0 886 919 897 886 886 876 897 968 919 1022 981 0 0 0 1206 1051 0 0 931 0 931 943 1008 1008 1008 968 886 0 0 0 0 0 0 541 0 0 0 0 0
    0 0 0 0 0 0 0 0 0 0 0 0 0 0 0 0 0 0 0 0 0 0 0 0 0 0 0 0 0 0 0 0 0 0 0 0 0 0 0 0 0 0 0 0 0 0 0 0 0 0 0 0 0 0 0 0 0 0 0 0 0 0 0 0 0 0 0 0 0 1168 1149 1149 1168 1149 1132 1132 1115 1098 1149 1132 1115 1132 1149 1149 1132 1132 1132 1082 1098 1115 1082 1115 1082 1115 1132 1132 1149 1168 1168 1187 1149 1168 1082 1098 1066 1051 1051 1051 1051 1066 1066 1082 1082 1115 1168 1149 1149 1206 1187 1206 1187 1149 1168 1115 1082 1132 1132 1149 1149 1187 1206 1168 1206 1247 1149 1115 1115 1132 1082 1082 1149 1149 1132 1132 1149 1149 1115 1149 1168 1132 1098 1098 1149 1132 1098 1066 1098 1098 1082 1082 1082 1066 1051 1051 1082 1036 1022 1008 994 1022 1036 1036 1051 1051 1066 1051 1066 1082 1051 1036 1066 0 0 0 1115 1082 1082 1066 1066 1036 1036 1022 1036 0 0 0 0 0 504 511 518 521 518 511 500 500 507 507 521 521 518 514 511 521 525 0 0 1082 1098 1066 1066 1066 1036 1051 1022 1022 1022 968 931 855 0 0 663 613 598 593 588 579 584 593 588 584 584 584 579 574 579 574 561 553 566 566 566 553 561 561 566 574 579 566 570 0 836 782 750 735 728 714 728 735 721 714 707 707 687 700 0 700 694 694 919 865 919 886 876 876 865 876 931 855 943 0 774 766 0 0 0 766 735 799 782 808 845 865 955 1008 955 886 0 0 0 0 0 0 541 0 0 0 0 0
    0 0 0 0 0 0 0 0 0 0 0 0 0 0 0 0 0 0 0 0 0 0 0 0 0 0 0 0 0 0 0 0 0 0 0 0 0 0 0 0 0 0 0 0 0 0 0 0 0 0 0 0 0 0 0 0 0 0 0 0 0 0 0 0 0 0 0 0 0 1098 1082 1098 1115 1098 1082 1082 1082 1066 1115 1098 1066 1082 1082 1082 1082 1082 1082 1036 1066 1098 1066 1098 1082 1098 1098 1115 1132 1149 1132 1168 1115 1168 1066 1098 1066 1036 1036 1051 1036 1051 1036 1051 1036 1051 1082 1082 1051 1132 0 0 1187 1132 1206 1132 1082 1168 1149 1149 1168 1187 0 0 0 1247 1098 1051 1066 1082 1051 1066 1132 1149 1132 1132 1149 1149 1115 1149 1187 1132 1098 1098 1132 1098 1082 1051 1082 1066 1036 0 1051 1036 1036 1036 1051 1008 994 981 955 968 1022 1022 1022 1022 1036 0 0 0 1022 0 0 0 0 0 0 0 0 1036 1036 981 1008 981 994 0 0 0 0 0 514 514 521 521 518 507 497 504 507 507 521 521 521 514 514 525 529 525 0 1066 1066 1051 1051 1051 1022 1022 1008 1008 1008 955 908 845 0 0 669 613 598 593 593 588 593 598 593 588 593 593 588 574 579 570 561 553 566 566 566 553 561 561 561 566 570 561 561 0 782 735 728 721 714 707 721 721 714 707 707 700 694 700 707 700 694 694 876 845 908 876 865 855 845 845 876 826 0 808 735 735 707 0 707 707 700 707 700 700 0 0 0 1022 943 865 0 440 399 373 0 0 541 0 0 0 0 0
    0 0 0 0 0 0 0 0 0 0 0 0 0 0 0 0 0 0 0 0 0 0 0 0 0 0 0 0 0 0 0 0 0 0 0 0 0 0 0 0 0 0 0 0 0 0 0 0 0 0 0 0 0 0 0 0 0 0 0 0 0 0 0 0 0 0 0 0 0 1022 1036 1051 1066 1051 1036 1036 1036 1036 1066 1036 1008 1022 1022 1008 0 0 0 0 0 1066 1051 1082 1066 1082 1082 1082 1082 1098 1082 1098 0 1098 1036 1051 1036 1022 1022 0 0 1022 0 0 0 0 0 886 0 0 0 0 0 0 0 0 0 0 0 1149 1206 1149 0 0 0 1168 981 0 0 1036 994 1051 1098 1115 1115 1115 1132 1132 1098 1149 1168 1132 1082 1098 1082 0 0 0 84 0 0 0 0 1008 994 1022 1022 955 897 876 855 826 0 0 0 0 0 0 0 0 0 0 0 0 0 0 0 0 0 1022 981 876 943 919 908 0 0 0 0 529 521 518 521 525 518 507 497 507 507 511 521 521 521 518 518 529 529 529 0 0 1051 1022 1022 1022 981 994 981 981 981 931 886 836 0 0 669 613 603 598 593 593 598 603 598 593 598 598 598 579 579 570 561 553 561 561 557 549 557 557 557 561 566 557 553 0 735 721 714 714 707 700 714 714 714 707 707 700 694 700 714 700 694 700 836 826 876 855 855 836 826 826 836 808 791 766 700 714 687 681 687 687 687 694 694 694 694 714 721 0 943 0 0 451 411 0 355 0 537 0 0 0 0 0
    0 0 0 0 0 0 0 0 0 0 0 0 0 0 0 0 0 0 0 0 0 0 0 0 0 0 0 0 0 0 0 0 0 0 0 0 0 0 0 0 0 0 0 0 0 0 0 0 0 0 0 0 0 0 0 0 0 0 0 0 0 0 0 0 0 0 0 0 0 908 897 1022 1036 1036 1022 1008 1008 1022 1036 1008 955 943 943 886 0 0 0 0 0 0 0 0 1051 1051 1051 1066 1051 1051 0 1036 0 0 897 0 1008 981 0 0 0 955 0 0 0 0 0 808 808 774 799 791 782 0 0 0 0 0 0 0 0 0 0 0 0 0 817 817 808 0 0 0 1066 1082 1082 1098 1115 1115 1066 1149 1132 1115 0 0 808 791 758 774 0 0 0 0 0 886 876 897 908 845 826 0 817 799 0 0 0 0 0 0 0 0 0 0 0 0 0 826 808 826 817 886 876 826 855 855 0 0 0 0 0 533 525 521 525 525 518 504 500 511 507 511 521 521 521 518 518 529 529 533 0 0 0 855 955 955 886 943 955 955 955 908 876 0 0 0 663 613 603 593 598 593 598 608 603 598 603 603 603 579 574 566 557 549 561 561 557 545 553 549 553 557 561 549 549 0 728 714 714 707 707 700 707 714 707 700 700 700 700 700 707 700 694 694 782 782 817 836 836 817 791 791 808 774 743 735 694 707 681 681 681 681 687 694 694 694 694 700 714 0 943 0 0 0 0 0 0 537 537 0 0 0 0 0
    0 0 0 0 0 0 0 0 0 0 0 0 0 0 0 0 0 0 0 0 0 0 0 0 0 0 0 0 0 0 0 0 0 0 0 0 0 0 0 0 0 0 0 0 0 0 0 0 0 0 0 0 0 0 0 0 0 0 0 0 0 0 0 0 0 0 0 0 0 855 845 981 1008 1022 994 994 994 994 994 968 897 865 865 845 808 799 0 0 0 0 0 0 1036 0 1022 1036 994 0 0 826 817 808 817 836 886 855 0 0 0 0 0 0 0 808 808 799 799 766 791 791 782 791 782 0 0 0 0 0 0 808 791 791 799 799 799 808 799 0 0 0 1022 1036 1066 1098 1082 1098 1008 0 0 0 799 799 799 782 750 766 791 799 799 808 0 0 817 836 836 817 808 808 808 791 0 0 0 0 0 0 0 0 0 808 791 808 808 817 808 826 817 836 836 791 0 0 0 0 0 570 0 533 529 525 529 529 521 504 500 514 504 511 521 521 518 518 521 533 529 0 0 0 799 808 845 855 836 865 919 919 931 886 855 0 0 0 657 613 603 593 598 598 598 608 608 603 608 608 613 584 574 566 557 549 561 561 553 545 545 545 549 553 0 0 541 0 721 707 707 707 700 700 700 707 700 700 694 687 687 694 700 694 687 687 707 750 782 808 808 791 758 758 758 735 714 714 694 707 681 681 681 681 687 694 687 687 687 700 707 0 0 0 613 0 574 541 0 537 537 0 0 0 0 0
    0 0 0 0 0 0 0 0 0 0 0 0 0 0 0 0 0 0 0 0 0 0 0 0 0 0 0 0 0 0 0 0 0 0 0 0 0 0 0 0 0 0 0 0 0 0 0 0 0 0 0 0 0 0 0 0 0 0 0 0 0 0 0 0 0 0 0 0 0 826 826 897 968 968 943 943 955 968 968 908 855 845 845 826 791 791 791 0 791 0 0 0 0 0 0 0 886 855 826 808 808 791 799 808 826 808 0 0 0 817 782 808 799 791 799 791 791 766 782 782 774 782 782 791 799 782 799 791 791 799 782 782 791 791 791 799 799 808 808 799 897 876 0 1066 0 0 826 0 817 799 782 782 782 774 743 766 782 791 782 791 799 808 791 817 808 808 799 799 808 782 791 0 0 0 782 799 0 791 799 791 782 799 799 808 799 817 799 817 817 774 0 0 0 0 0 0 0 0 533 529 533 529 521 504 504 518 504 514 521 521 518 518 521 533 529 0 0 0 758 774 791 808 808 836 855 865 865 855 836 743 687 663 639 613 598 593 603 603 0 618 613 618 623 623 629 593 0 0 561 549 561 561 553 541 545 545 549 549 0 0 541 735 700 687 694 687 694 694 694 694 694 700 694 687 687 694 687 687 681 675 675 687 694 707 0 758 735 735 735 721 700 707 694 700 675 675 675 675 681 687 687 687 681 700 700 721 0 0 618 598 579 545 0 537 533 0 0 0 0 0
    0 0 0 0 0 0 0 0 0 0 0 0 0 0 0 0 0 0 0 0 0 0 0 0 0 0 0 0 0 0 0 0 0 0 0 0 0 0 0 0 0 0 0 0 0 0 0 0 0 0 0 0 0 0 0 0 0 0 0 0 0 0 0 0 0 0 0 0 0 817 799 826 836 845 855 876 886 908 908 865 836 826 826 808 782 791 782 791 782 799 0 0 0 0 0 0 836 0 817 799 791 782 782 791 791 774 0 782 799 791 766 791 791 791 791 782 782 758 774 774 758 774 766 782 791 782 799 782 791 791 774 774 782 782 782 791 791 799 791 791 817 808 799 808 791 0 799 782 791 774 766 766 766 758 735 758 766 774 766 774 782 791 774 808 782 791 782 791 791 774 782 0 766 782 758 774 758 774 782 782 766 791 782 799 791 808 791 808 791 750 0 0 0 0 0 0 0 537 533 529 533 529 518 504 507 518 504 518 525 525 521 518 525 533 533 675 0 728 735 750 758 774 774 799 817 826 836 836 799 707 663 639 634 613 603 598 608 608 0 623 629 639 639 651 657 0 0 584 570 557 566 561 553 541 541 545 0 0 0 0 0 714 687 675 681 681 687 681 687 687 687 694 694 681 681 681 675 675 669 657 645 651 651 645 634 657 0 0 728 728 707 714 687 700 669 675 669 669 675 681 681 681 681 694 694 694 0 0 613 593 574 545 0 533 533 0 0 0 0 0
    0 0 0 0 0 0 0 0 0 0 0 0 0 0 0 0 0 0 0 0 0 0 0 0 0 0 0 0 0 0 0 0 0 0 0 0 0 0 0 0 0 0 0 0 0 0 0 0 0 0 0 0 0 0 0 0 0 0 0 0 0 0 0 0 0 0 0 0 0 808 791 808 808 817 817 826 836 845 845 836 817 817 817 791 774 791 782 782 782 791 791 799 817 0 826 817 817 808 808 791 782 774 774 774 774 758 758 766 782 774 750 774 774 782 774 774 782 750 766 774 758 766 758 774 782 766 791 758 774 782 758 758 774 774 774 782 791 791 782 782 799 782 782 782 766 750 766 750 766 758 750 750 750 750 735 758 766 766 758 766 766 766 758 791 750 766 766 774 774 758 766 782 758 766 750 758 743 758 758 766 750 774 766 791 782 799 774 799 774 735 0 0 0 0 0 0 525 529 529 525 529 525 514 504 514 521 507 525 529 529 525 525 533 541 537 700 700 735 728 743 743 750 743 750 774 791 791 782 735 687 639 629 629 618 603 603 613 618 618 634 645 657 663 675 681 0 0 593 579 566 570 561 553 537 0 0 0 0 0 0 0 700 681 669 669 675 681 675 681 681 687 694 687 681 681 681 675 669 669 657 651 651 651 645 645 657 629 0 728 735 728 721 681 694 657 675 669 669 675 681 681 681 675 687 687 681 0 623 608 588 574 545 0 537 537 0 0 0 0 0
    0 0 0 0 0 0 0 0 0 0 0 0 0 0 0 0 0 0 0 0 0 0 0 0 0 0 0 0 0 0 0 0 0 0 0 0 0 0 0 0 0 0 0 0 0 0 0 0 0 0 0 0 0 0 0 0 0 0 0 0 0 0 0 0 0 0 0 0 0 808 782 791 791 791 782 799 808 817 817 808 799 799 808 782 774 782 782 782 782 791 791 799 817 817 817 808 817 799 799 791 782 774 774 774 766 750 743 743 758 750 743 758 766 774 766 766 774 758 766 774 766 766 766 766 782 766 782 750 758 766 743 750 774 774 766 774 791 791 782 782 799 774 774 774 758 743 758 743 743 743 735 743 750 750 735 758 758 758 758 758 758 758 750 782 735 750 750 758 758 743 758 766 743 750 735 743 735 743 750 750 743 766 750 774 774 799 766 791 758 735 0 0 0 0 0 525 521 525 525 521 525 525 514 507 521 525 514 529 533 533 525 529 533 541 549 707 707 735 728 743 743 735 735 735 735 735 721 721 714 669 629 623 0 0 608 608 618 618 629 651 669 675 675 687 694 0 0 598 584 570 570 566 553 537 0 0 0 0 0 0 0 694 681 669 669 681 675 669 681 681 681 687 681 675 669 669 669 669 663 657 645 651 651 651 651 657 613 0 0 0 0 0 639 681 639 669 669 669 675 681 675 681 669 681 675 657 0 618 608 588 579 545 0 537 537 0 0 0 0 0
    0 0 0 0 0 0 0 0 0 0 0 0 0 0 0 0 0 0 0 0 0 0 0 0 0 0 0 0 0 0 0 0 0 0 0 0 0 0 0 0 0 0 0 0 0 0 0 0 0 0 0 0 0 0 0 0 0 0 0 0 0 0 0 0 0 0 0 0 0 799 774 782 774 774 750 766 774 791 799 782 774 791 799 774 774 782 782 782 782 791 782 791 808 817 817 808 817 799 799 799 782 766 766 766 758 743 735 735 750 743 735 750 758 766 758 758 774 750 766 774 766 766 758 766 782 766 774 743 743 750 735 743 766 766 758 774 782 791 782 791 799 774 774 774 758 743 758 743 743 735 735 735 750 743 728 750 758 758 750 758 758 750 743 774 728 743 743 743 750 735 750 758 735 750 735 743 728 743 743 743 735 750 743 766 758 791 758 774 743 721 0 0 0 0 0 514 518 525 525 521 525 521 514 507 525 525 518 529 529 529 525 529 533 537 574 681 694 735 728 735 735 735 728 728 721 721 707 707 707 663 623 623 0 618 608 608 618 618 629 657 675 681 675 694 694 651 0 598 584 574 574 570 553 541 0 0 0 0 0 0 0 694 681 669 663 675 669 663 669 669 669 675 669 669 657 663 657 657 657 651 645 645 651 651 657 663 639 0 0 0 0 0 613 663 629 669 663 669 669 681 675 687 663 681 651 634 0 0 0 588 584 549 0 537 537 0 0 0 0 0
    0 0 0 0 0 0 0 0 0 0 0 0 0 0 0 0 0 0 0 0 0 0 0 0 0 0 0 0 0 0 0 0 0 0 0 0 0 0 0 0 0 0 0 0 0 0 0 0 0 0 0 0 0 0 0 0 0 0 0 0 0 0 0 0 0 0 0 0 0 799 766 774 766 758 735 743 750 766 766 743 743 766 774 758 758 774 774 774 774 791 782 791 808 817 808 808 808 799 791 791 758 750 743 750 743 735 728 728 743 750 735 758 758 758 758 758 774 750 766 774 758 758 758 758 774 758 766 728 728 735 721 735 758 758 758 774 782 782 782 791 799 774 774 774 758 735 758 743 735 735 735 735 743 735 721 743 750 743 743 750 750 743 735 766 721 735 735 735 735 728 743 750 735 743 728 735 728 735 735 735 728 743 735 743 743 766 735 743 721 714 0 0 0 0 0 514 521 525 525 525 529 525 518 514 529 525 518 529 529 529 529 533 0 541 618 657 669 721 714 721 721 721 721 721 714 700 694 700 694 657 623 618 623 618 608 603 613 618 629 651 675 675 675 687 694 651 613 598 584 579 574 570 553 541 0 557 0 0 0 623 663 687 681 669 657 669 651 645 651 645 645 663 663 663 657 657 657 657 657 651 645 645 645 651 657 663 639 675 694 707 0 0 613 645 623 669 657 663 663 675 669 687 657 669 623 618 0 0 0 584 579 549 0 537 537 0 0 0 0 0
    0 0 0 0 0 0 0 0 0 0 0 0 0 0 0 0 0 0 0 0 0 0 0 0 0 0 0 0 0 0 0 0 0 0 0 0 0 0 0 0 0 0 0 0 0 0 0 0 0 0 0 0 0 0 0 0 0 0 0 0 0 0 0 0 0 0 0 0 0 791 750 766 750 735 728 728 728 735 735 721 721 735 743 735 743 758 758 758 766 782 766 782 799 808 808 799 799 791 774 766 728 721 721 721 721 721 721 728 743 743 735 750 750 750 750 743 758 743 758 774 750 750 743 758 774 743 750 714 714 714 714 728 750 743 743 758 782 782 774 774 782 758 758 758 750 728 750 735 735 735 728 728 743 728 721 735 735 735 735 735 735 728 728 766 721 728 728 728 728 728 735 743 728 735 721 728 721 728 728 728 728 728 721 735 728 750 728 728 714 707 0 0 0 0 525 504 525 525 525 525 529 525 518 518 529 525 525 529 529 533 533 537 0 566 629 645 657 714 700 700 700 700 700 700 700 687 687 687 687 651 623 618 618 618 608 603 613 618 623 639 657 663 663 681 687 645 613 598 588 584 579 574 557 545 549 570 570 613 629 629 663 687 675 657 651 669 639 634 639 639 639 651 663 669 657 663 657 663 657 651 645 645 645 651 651 651 629 629 663 694 663 0 603 639 613 675 657 651 645 663 657 681 639 639 608 608 608 603 603 579 574 549 0 537 537 0 0 0 0 0
    0 0 0 0 0 0 0 0 0 0 0 0 0 0 0 0 0 0 0 0 0 0 0 0 0 0 0 0 0 0 0 0 0 0 0 0 0 0 0 0 0 0 0 0 0 0 0 0 0 0 0 0 0 0 0 0 0 0 0 0 0 0 0 0 0 0 0 0 0 766 735 750 735 728 721 728 721 728 728 714 714 728 728 721 735 743 743 743 750 758 750 766 791 791 791 782 782 766 743 728 707 700 707 700 707 714 714 721 735 743 728 750 750 743 735 735 743 728 743 758 735 728 728 743 758 735 728 700 700 707 700 721 735 728 735 743 766 766 766 766 766 743 743 743 735 728 743 728 728 735 728 721 728 721 707 721 721 721 721 721 721 721 721 750 714 714 714 714 714 714 721 721 714 721 714 721 714 721 721 721 721 721 714 721 721 735 721 714 714 707 0 0 0 0 514 500 521 525 525 525 529 525 514 521 529 525 525 533 533 533 533 0 0 603 639 651 663 700 694 694 694 687 694 687 687 681 681 681 681 645 623 618 618 618 608 608 613 618 629 645 657 657 663 675 675 634 608 593 584 584 579 574 557 549 553 579 579 618 629 629 663 681 669 657 645 663 634 629 634 629 629 645 663 663 657 663 657 663 657 651 645 645 645 651 645 645 618 618 0 634 613 584 593 598 598 634 623 623 618 629 634 663 629 623 608 608 608 603 603 579 579 549 0 537 537 0 0 0 0 0
    0 0 0 0 0 0 0 0 0 0 0 0 0 0 0 0 0 0 0 0 0 0 0 0 0 0 0 0 0 0 0 0 0 0 0 0 0 0 0 0 0 0 0 0 0 0 0 0 0 0 0 0 0 0 0 0 0 0 0 0 0 0 0 0 0 0 0 0 0 750 728 743 728 721 714 721 721 721 721 714 714 721 721 721 728 735 735 728 735 743 735 750 774 766 758 750 758 743 721 707 694 694 700 700 700 707 707 721 728 743 728 735 743 735 728 728 728 721 728 743 728 721 721 728 735 714 714 694 694 694 694 707 714 714 721 728 750 743 750 750 743 721 728 721 721 714 735 721 721 728 721 714 714 714 700 707 714 714 714 707 707 714 707 735 700 700 694 694 694 694 707 707 700 707 700 707 700 707 707 707 707 707 707 707 714 721 714 707 707 700 0 0 0 0 504 497 521 521 521 521 525 521 514 529 533 529 533 533 533 537 537 549 0 623 657 657 669 694 687 687 687 681 687 681 681 669 675 675 675 645 629 623 623 618 613 608 618 618 629 651 657 651 663 675 669 629 598 593 584 584 579 570 557 553 557 584 579 623 629 634 663 681 663 657 645 669 634 634 634 634 629 645 645 651 645 657 651 657 651 651 645 651 645 639 639 629 613 613 603 613 603 584 593 598 598 603 603 603 603 608 618 613 618 613 603 608 608 603 598 579 579 553 0 537 537 0 0 0 0 0
    0 0 0 0 0 0 0 0 0 0 0 0 0 0 0 0 0 0 0 0 0 0 0 0 0 0 0 0 0 0 0 0 0 0 0 0 0 0 0 0 0 0 0 0 0 0 0 0 0 0 0 0 0 0 0 0 0 0 0 0 0 0 0 0 0 0 0 0 0 735 721 735 721 714 714 714 714 721 721 714 714 721 721 714 728 728 728 721 728 728 728 735 750 728 728 728 728 721 700 700 687 694 700 694 700 707 707 714 721 735 714 721 728 721 714 714 714 714 714 728 721 714 714 721 721 707 700 687 687 687 687 694 700 700 707 714 728 728 728 728 721 707 714 714 707 707 721 707 707 714 707 707 700 700 687 694 700 700 700 700 700 700 694 714 694 687 681 681 681 681 687 687 694 694 694 694 694 700 700 700 694 694 700 700 707 707 707 700 694 694 0 0 0 0 507 504 521 521 518 521 525 521 518 533 533 533 537 537 537 541 545 570 608 634 657 657 669 687 681 681 681 669 675 675 675 663 675 669 675 645 629 623 623 623 618 613 618 623 634 645 651 645 657 663 645 618 593 588 584 579 574 570 561 557 566 584 579 623 629 634 663 675 657 651 645 669 623 629 629 634 629 645 639 645 639 657 645 651 651 651 645 651 645 634 629 623 613 613 603 613 603 588 598 603 603 598 598 0 593 598 603 593 608 598 598 603 603 598 598 579 579 553 0 537 537 0 0 0 0 0
    0 0 0 0 0 0 0 0 0 0 0 0 0 0 0 0 0 0 0 0 0 0 0 0 0 0 0 0 0 0 0 0 0 0 0 0 0 0 0 0 0 0 0 0 0 0 0 0 0 0 0 0 0 0 0 0 0 0 0 0 0 0 0 0 0 0 0 0 0 728 728 735 721 714 707 714 714 714 721 714 714 714 721 721 721 728 721 721 721 721 714 721 728 714 707 707 707 700 687 694 687 687 694 694 694 700 700 707 707 721 707 707 721 714 700 707 707 700 707 714 714 707 707 714 714 700 694 681 681 681 687 687 694 694 700 707 714 714 714 714 707 700 700 700 694 700 707 707 707 707 700 700 694 694 681 687 694 694 694 694 694 694 687 700 687 681 669 675 669 675 675 675 681 687 687 687 687 694 694 694 694 687 694 694 694 700 694 694 687 694 0 0 0 0 521 514 525 525 525 529 529 525 525 537 537 537 541 541 541 549 566 598 618 645 657 657 669 681 675 675 669 663 669 669 675 657 669 669 663 639 629 623 623 618 618 613 618 623 634 645 651 639 651 651 634 613 593 588 584 579 574 574 561 561 570 584 584 623 629 634 657 669 651 651 645 669 623 629 629 629 629 639 634 639 639 657 639 645 645 651 645 645 639 629 623 618 608 608 603 608 603 593 603 598 603 598 598 0 588 588 593 584 593 588 588 593 598 598 593 579 584 553 0 541 541 0 0 0 0 0
    0 0 0 0 0 0 0 0 0 0 0 0 0 0 0 0 0 0 0 0 0 0 0 0 0 0 0 0 0 0 0 0 0 0 0 0 0 0 0 0 0 0 0 0 0 0 0 0 0 0 0 0 0 0 0 0 0 0 0 0 0 0 0 0 0 0 0 0 0 721 721 728 714 714 700 707 707 707 714 707 707 714 714 714 714 721 714 714 714 714 707 707 714 700 700 700 694 694 681 687 681 687 694 687 694 694 694 700 700 700 694 694 700 694 694 694 694 694 700 707 707 700 700 700 700 694 681 675 681 675 681 687 687 687 694 700 700 700 707 707 700 694 694 694 694 700 707 707 707 714 707 700 694 694 675 681 687 687 687 687 687 687 687 700 681 681 669 675 663 669 663 663 669 675 675 675 675 687 687 694 681 681 687 681 687 694 687 687 681 0 0 0 0 0 518 521 525 525 525 529 529 525 525 533 537 537 537 537 537 545 579 608 634 657 663 657 669 675 675 669 663 657 669 663 669 651 669 663 657 634 623 623 623 618 618 613 618 623 634 645 645 634 639 639 629 608 593 588 584 579 574 574 566 566 574 584 584 623 629 639 663 663 651 651 645 669 618 629 623 623 623 634 623 629 629 645 629 634 634 639 645 645 634 623 613 613 608 608 603 608 603 593 603 603 603 598 598 0 588 588 593 584 588 584 584 588 593 588 584 574 579 553 0 541 541 0 0 0 0 0
    0 0 0 0 0 0 0 0 0 0 0 0 0 0 0 0 0 0 0 0 0 0 0 0 0 0 0 0 0 0 0 0 0 0 0 0 0 0 0 0 0 0 0 0 0 0 0 0 0 0 0 0 0 0 0 0 0 0 0 0 0 0 0 0 0 0 0 0 0 714 721 721 707 707 694 707 700 707 707 700 700 707 700 707 700 707 700 700 694 694 687 687 694 687 694 694 687 687 675 687 681 681 694 687 687 694 694 694 694 694 694 681 694 687 681 687 694 694 694 700 700 694 694 700 694 687 681 669 681 675 681 681 681 687 687 694 694 694 700 700 694 694 694 694 694 700 707 707 714 714 707 700 694 694 675 681 681 681 681 681 681 687 681 694 681 681 675 675 663 675 657 657 663 669 669 675 669 681 681 687 675 675 687 681 687 687 687 687 681 687 0 0 0 0 0 525 529 529 525 533 533 533 529 537 537 537 537 537 537 0 0 0 651 663 663 657 675 675 669 669 663 657 663 663 669 651 663 657 651 634 618 618 618 613 613 608 613 618 629 645 645 634 634 629 623 608 593 593 584 584 579 574 570 570 579 584 579 623 623 634 657 657 645 645 645 663 618 623 623 623 618 623 618 613 613 623 608 608 608 618 634 629 629 618 608 608 608 603 603 608 608 598 608 608 603 598 598 598 588 588 593 584 588 584 584 579 579 574 566 561 561 549 0 537 537 0 0 0 0 0
    0 0 0 0 0 0 0 0 0 0 0 0 0 0 0 0 0 0 0 0 0 0 0 0 0 0 0 0 0 0 0 0 0 0 0 0 0 0 0 0 0 0 0 0 0 0 0 0 0 0 0 0 0 0 0 0 0 0 0 0 0 0 0 0 0 0 0 0 0 714 721 714 707 714 700 707 707 707 707 700 700 700 700 700 694 700 694 687 687 687 687 681 687 687 687 687 687 687 675 687 681 681 694 687 687 694 694 694 694 694 694 681 687 687 687 694 694 694 694 700 694 694 694 700 694 687 675 669 681 681 681 681 687 687 687 694 694 694 694 694 694 694 687 694 694 700 707 707 707 707 700 694 687 687 669 675 675 675 675 675 675 681 681 694 681 681 675 675 663 675 657 663 663 669 675 675 675 687 687 700 675 681 687 681 694 687 687 687 681 0 0 0 0 0 0 529 529 529 529 537 537 537 537 541 541 541 541 541 537 0 0 629 657 663 669 663 675 675 669 669 663 657 663 663 669 645 663 657 651 629 623 623 623 618 618 613 618 618 629 639 639 629 629 623 618 603 593 588 584 579 574 574 566 570 574 584 579 618 618 629 651 651 639 645 639 657 618 618 618 618 618 613 608 608 608 608 598 598 603 603 623 613 623 613 603 603 603 603 603 608 603 598 603 603 598 593 598 593 588 588 593 593 593 588 579 570 570 566 557 557 557 545 0 541 537 0 0 0 0 0
    0 0 0 0 0 0 0 0 0 0 0 0 0 0 0 0 0 0 0 0 0 0 0 0 0 0 0 0 0 0 0 0 0 0 0 0 0 0 0 0 0 0 0 0 0 0 0 0 0 0 0 0 0 0 0 0 0 0 0 0 0 0 0 0 0 0 0 0 0 707 714 707 707 707 700 707 707 707 707 700 700 700 700 707 700 707 700 694 694 687 687 687 694 687 687 687 681 681 675 687 687 681 694 687 694 694 694 694 694 694 694 681 687 687 687 687 694 694 694 700 694 694 694 694 687 681 669 663 681 675 681 681 687 687 687 694 694 694 694 694 694 687 687 687 687 694 700 700 700 707 694 687 681 681 663 675 669 675 669 675 675 681 675 687 675 681 675 675 663 675 657 663 663 669 675 675 681 694 694 707 681 694 694 687 694 694 687 687 681 0 0 0 0 0 525 525 525 529 525 537 537 541 541 545 545 545 545 549 545 0 0 634 663 663 669 663 675 669 669 663 663 657 663 663 669 645 663 651 645 623 623 623 623 618 623 613 618 618 634 639 639 629 629 623 618 598 593 588 584 579 574 574 566 570 574 579 570 613 613 623 639 645 634 639 639 651 618 623 618 618 613 608 603 598 598 598 593 588 598 598 623 608 623 613 603 603 603 598 598 603 598 598 598 593 593 584 588 588 584 584 584 588 588 584 574 566 570 566 561 557 549 545 541 541 537 0 0 0 0 0
    0 0 0 0 0 0 0 0 0 0 0 0 0 0 0 0 0 0 0 0 0 0 0 0 0 0 0 0 0 0 0 0 0 0 0 0 0 0 0 0 0 0 0 0 0 0 0 0 0 0 0 0 0 0 0 0 0 0 0 0 0 0 0 0 0 0 0 0 0 700 707 700 700 700 694 707 700 0 0 700 707 707 707 707 700 714 707 707 707 700 694 687 694 687 681 681 675 675 669 681 681 681 694 687 694 694 694 694 694 694 694 681 694 694 687 694 694 694 694 700 694 694 687 681 663 657 645 651 675 669 675 675 681 687 687 694 687 694 687 687 687 681 681 681 681 687 687 700 694 707 687 681 675 675 657 669 663 663 663 669 669 675 675 687 675 681 675 675 663 675 651 651 657 663 669 669 675 694 694 707 681 687 694 687 694 687 681 681 675 0 0 0 0 0 525 525 529 529 529 537 537 541 545 545 549 545 545 553 549 0 623 639 663 663 663 657 675 663 669 657 657 651 657 657 669 639 657 645 639 618 618 618 618 618 618 613 613 618 634 639 639 629 623 613 613 593 588 588 584 579 574 574 566 570 574 574 566 608 608 618 629 634 629 634 634 651 618 618 618 613 608 603 598 593 593 593 588 584 593 598 613 608 618 608 603 598 603 598 598 598 598 598 593 593 588 584 588 584 584 579 574 588 579 574 566 557 561 557 553 553 545 541 541 541 537 0 0 0 0 0
    0 0 0 0 0 0 0 0 0 0 0 0 0 0 0 0 0 0 0 0 0 0 0 0 0 0 0 0 0 0 0 0 0 0 0 0 0 0 0 0 0 0 0 0 0 0 0 0 0 0 0 0 0 0 0 0 0 0 0 0 0 0 0 0 0 0 0 0 0 687 694 700 694 700 687 0 0 0 0 0 0 0 707 707 700 714 707 707 707 700 687 687 681 669 669 669 663 657 657 675 675 675 694 687 694 694 694 694 687 687 687 675 687 687 681 694 694 694 700 694 694 694 663 651 629 629 629 634 657 651 657 669 675 681 681 694 681 687 687 687 681 675 669 675 675 681 675 687 681 687 681 675 669 657 651 663 651 657 657 657 663 669 675 681 663 675 669 669 657 675 645 645 651 651 657 657 669 687 687 700 669 681 687 675 681 675 675 669 657 0 0 579 0 0 529 525 529 533 529 537 537 541 545 545 549 545 545 553 549 0 618 639 663 657 657 651 669 645 657 645 645 639 645 651 663 634 651 639 634 618 618 618 618 613 618 613 613 613 634 634 634 623 618 608 608 588 588 588 584 579 574 574 566 570 579 570 561 598 608 613 623 629 629 634 634 645 613 618 618 613 608 598 593 588 593 593 588 584 593 593 608 603 603 593 598 598 603 598 598 598 598 598 588 588 584 579 584 579 584 579 574 588 579 574 570 557 557 553 549 549 541 541 541 541 537 0 0 0 0 0
    0 0 0 0 0 0 0 0 0 0 0 0 0 0 0 0 0 0 0 0 0 0 0 0 0 0 0 0 0 0 0 0 0 0 0 0 0 0 0 0 0 0 0 0 0 0 0 0 0 0 0 0 0 0 0 0 0 0 0 0 0 0 0 0 0 0 0 0 0 675 669 681 675 681 669 681 0 0 0 0 687 0 0 700 694 707 694 707 694 0 669 675 669 645 651 651 645 639 645 663 663 663 687 687 687 694 687 694 681 681 681 645 651 657 645 663 663 681 687 687 675 681 639 618 613 618 618 623 645 639 645 657 669 675 681 687 681 687 681 681 681 663 663 669 669 675 663 675 663 663 663 657 651 634 639 651 645 645 651 651 651 663 669 675 657 663 663 663 645 663 634 639 639 639 645 639 651 681 669 681 634 657 675 657 669 663 663 651 645 0 0 561 0 537 529 525 529 533 529 537 537 541 545 541 545 541 541 553 549 584 613 634 651 645 639 639 651 634 639 634 634 634 634 645 651 634 645 634 623 613 613 618 618 613 618 613 608 613 629 629 623 613 613 603 603 584 588 588 584 584 579 579 570 574 584 570 561 598 603 608 613 623 623 623 629 634 608 613 613 608 598 593 588 588 593 593 588 584 588 593 603 593 593 588 593 598 598 593 598 593 593 593 584 584 584 579 584 579 579 579 574 588 584 570 570 557 557 553 549 545 533 541 541 541 533 0 0 0 0 0
    0 0 0 0 0 0 0 0 0 0 0 0 0 0 0 0 0 0 0 0 0 0 0 0 0 0 0 0 0 0 0 0 0 0 0 0 0 0 0 0 0 0 0 0 0 0 0 0 0 0 0 0 0 0 0 0 0 0 0 0 0 0 0 0 0 0 0 0 0 645 634 651 639 657 651 657 651 663 663 675 675 681 675 681 669 687 669 687 663 0 0 0 651 629 634 634 629 629 629 634 645 639 681 681 681 687 681 681 669 663 663 623 629 629 629 634 634 0 657 651 639 645 623 608 608 613 613 613 629 629 634 639 657 663 675 681 669 681 669 675 675 645 645 651 651 651 639 657 639 629 639 634 634 623 634 639 634 639 639 645 645 651 669 663 645 657 657 657 639 651 629 629 629 629 623 623 629 651 623 623 608 629 651 639 645 645 645 634 634 0 0 553 537 537 529 521 525 533 525 533 537 541 541 541 545 541 541 553 549 574 603 623 639 634 634 634 639 629 629 623 629 623 629 639 645 629 639 629 623 608 608 613 613 608 608 608 603 603 618 618 613 603 608 593 598 584 588 588 584 584 584 579 574 579 584 574 561 598 603 603 608 618 618 618 623 629 608 603 608 603 593 588 584 584 588 588 584 584 584 593 593 584 584 570 579 588 593 588 593 593 593 593 579 579 579 574 584 579 584 579 574 588 579 561 553 545 545 541 537 541 521 525 537 541 529 0 0 0 0 0
    0 0 0 0 0 0 0 0 0 0 0 0 0 0 0 0 0 0 0 0 0 0 0 0 0 0 0 0 0 0 0 0 0 0 0 0 0 0 0 0 0 0 0 0 0 0 0 0 0 0 0 0 0 0 0 0 0 0 0 0 0 0 0 0 0 0 0 0 0 629 618 629 623 634 634 634 634 639 639 651 651 663 645 645 639 651 634 645 629 0 0 0 629 618 623 623 618 618 618 623 634 629 675 669 669 675 675 669 651 639 639 618 618 623 623 623 629 0 634 0 623 623 613 603 603 608 613 608 623 623 623 623 639 639 645 645 639 651 639 651 657 629 623 629 629 629 623 629 618 608 613 623 623 613 629 634 629 634 634 634 634 639 663 645 634 651 645 645 634 645 623 623 623 618 618 613 613 629 0 608 608 613 629 629 634 634 634 629 623 0 0 549 537 537 525 521 525 533 529 537 537 541 541 541 545 541 537 549 541 561 579 618 629 623 623 629 634 618 623 618 623 618 623 634 634 629 634 623 618 608 608 608 608 603 608 603 598 598 608 608 603 588 593 579 588 584 588 593 588 588 588 579 579 579 584 574 561 588 593 598 603 613 613 613 613 623 603 598 603 598 584 584 579 579 584 584 584 579 584 593 588 579 574 561 561 574 579 579 584 588 588 588 570 574 574 570 579 570 579 574 570 593 584 553 0 0 0 525 525 533 500 0 0 537 521 0 0 0 0 0
    0 0 0 0 0 0 0 0 0 0 0 0 0 0 0 0 0 0 0 0 0 0 0 0 0 0 0 0 0 0 0 0 0 0 0 0 0 0 0 0 0 0 0 0 0 0 0 0 0 0 0 0 0 0 0 0 0 0 0 0 0 0 0 0 0 0 0 0 0 613 613 613 618 629 629 629 623 629 629 634 634 645 629 629 629 634 623 634 623 0 0 0 618 0 0 0 613 613 608 618 623 623 669 657 651 657 663 651 639 629 629 608 618 618 623 618 0 0 0 0 613 608 608 598 598 603 608 608 618 618 618 618 629 629 629 618 623 613 618 613 623 613 608 618 618 618 618 618 613 608 608 618 613 603 623 623 623 623 629 629 629 634 651 634 629 645 645 639 629 639 618 623 623 618 618 613 613 623 0 0 608 613 618 618 618 629 623 618 0 0 0 545 537 533 529 521 529 537 533 541 545 545 545 545 549 545 541 553 545 557 566 608 613 613 613 623 618 608 613 613 618 613 613 623 629 629 629 623 623 603 613 608 608 608 608 603 603 598 603 603 603 584 593 574 584 584 593 593 588 588 588 584 579 584 584 570 557 579 588 588 593 608 613 608 608 613 603 593 598 593 574 574 579 579 584 584 584 579 579 593 584 579 570 557 557 561 566 566 574 579 579 584 561 570 570 566 570 566 570 561 557 588 579 0 0 0 0 525 521 541 0 0 0 533 511 0 0 0 0 0
    0 0 0 0 0 0 0 0 0 0 0 0 0 0 0 0 0 0 0 0 0 0 0 0 0 0 0 0 0 0 0 0 0 0 0 0 0 0 0 0 0 0 0 0 0 0 0 0 0 0 0 0 0 0 0 0 0 0 0 0 0 0 0 0 0 0 0 0 0 608 608 608 613 623 629 623 618 623 0 0 623 0 0 0 0 0 618 629 618 0 0 0 0 0 0 0 603 608 608 608 613 618 651 634 629 634 639 634 623 0 618 608 0 618 618 0 0 0 0 0 603 603 598 588 598 603 608 608 618 618 618 613 623 623 618 608 608 603 603 603 613 608 603 608 618 613 613 613 608 608 608 618 613 603 623 618 623 623 623 629 623 629 651 629 623 639 645 634 623 629 613 618 618 618 613 613 608 613 0 0 608 608 608 608 0 613 613 613 0 0 566 541 533 533 529 521 533 537 537 541 545 545 545 545 553 545 541 549 545 553 561 593 598 603 598 613 608 598 603 608 613 603 608 613 613 623 623 0 0 0 0 0 618 618 613 618 613 608 613 603 603 588 598 579 584 574 593 598 593 593 593 588 579 584 588 566 549 566 579 579 588 598 603 603 603 608 598 584 593 584 561 574 574 579 584 584 584 579 579 593 579 574 566 553 557 561 557 561 561 561 566 574 553 561 561 561 566 557 561 553 549 579 0 0 0 0 0 0 0 0 0 0 0 0 500 0 0 0 0 0
    0 0 0 0 0 0 0 0 0 0 0 0 0 0 0 0 0 0 0 0 0 0 0 0 0 0 0 0 0 0 0 0 0 0 0 0 0 0 0 0 0 0 0 0 0 0 0 0 0 0 0 0 0 0 0 0 0 0 0 0 0 0 0 0 0 0 0 0 0 608 608 608 613 623 629 618 613 0 0 0 0 0 99 99 0 0 0 0 0 0 0 0 603 598 603 598 598 603 603 603 608 608 629 0 0 0 385 0 0 0 379 0 0 0 618 0 0 0 0 0 598 598 593 584 593 598 608 608 618 613 613 608 618 618 613 603 608 598 598 593 603 598 598 603 608 608 608 608 603 603 608 618 608 593 623 618 623 618 618 623 623 629 651 623 623 639 645 634 623 623 608 613 608 613 603 603 598 603 603 0 0 603 0 0 0 0 0 0 0 0 0 533 529 533 525 521 529 541 533 537 545 545 545 545 549 541 533 545 541 545 549 561 579 579 574 598 598 593 598 598 603 598 598 603 598 0 0 0 0 369 367 360 359 0 603 608 613 603 603 598 593 584 588 574 0 0 598 603 598 598 598 593 588 588 598 570 0 561 574 570 574 579 584 584 584 593 584 561 574 566 553 570 570 579 584 584 584 579 579 593 574 570 561 549 549 553 545 0 545 537 553 566 549 557 561 557 557 553 557 549 541 566 0 0 200 0 0 0 0 0 0 0 0 0 0 0 0 0 0 0
    0 0 0 0 0 0 0 0 0 0 0 0 0 0 0 0 0 0 0 0 0 0 0 0 0 0 0 0 0 0 0 0 0 0 0 0 0 0 0 0 0 0 0 0 0 0 0 0 0 0 0 0 0 0 0 0 0 0 0 0 0 0 0 0 0 0 0 0 0 608 608 608 613 623 623 618 608 0 0 0 0 0 0 0 0 0 0 0 0 0 0 0 598 588 593 593 593 593 593 0 0 0 0 0 0 391 385 385 393 395 381 369 0 0 0 0 0 0 0 0 593 593 588 579 588 598 608 608 613 613 613 608 613 613 0 603 598 593 593 584 598 593 584 593 0 603 0 0 0 0 0 0 0 588 0 0 629 629 0 629 629 639 663 623 623 645 657 639 629 623 0 613 603 613 608 608 598 603 598 0 0 0 0 0 0 0 0 0 0 0 0 0 0 0 529 525 529 541 537 537 549 541 541 0 0 537 529 537 537 537 541 545 566 561 557 588 588 588 593 598 598 593 598 603 593 0 0 375 366 369 366 362 360 360 360 0 0 598 598 584 588 0 0 0 0 0 0 603 593 593 593 0 0 0 0 0 0 0 0 0 557 553 553 557 553 561 553 549 553 545 545 566 566 574 584 584 584 579 574 593 566 570 557 545 0 0 0 0 0 533 0 561 545 553 557 553 553 549 553 541 0 0 0 0 199 197 0 0 348 348 350 357 357 0 0 0 0 0 0 0
    0 0 0 0 0 0 0 0 0 0 0 0 0 0 0 0 0 0 0 0 0 0 0 0 0 0 0 0 0 0 0 0 0 0 0 0 0 0 0 0 0 0 0 0 0 0 0 0 0 0 0 0 0 0 0 0 0 0 0 0 0 0 0 0 0 0 0 0 0 608 608 0 613 618 623 613 0 0 0 0 0 0 0 0 0 0 0 0 0 0 0 0 0 0 0 588 0 0 0 0 0 0 0 381 377 385 381 379 387 395 377 366 0 0 0 0 0 0 0 0 593 593 593 584 588 598 608 608 618 613 613 608 608 608 0 598 593 584 579 574 588 579 570 584 0 0 0 173 0 0 0 0 0 0 0 0 0 0 0 0 0 669 675 629 0 0 0 639 0 0 0 0 0 623 0 0 0 0 0 0 0 362 364 364 366 367 366 364 364 366 366 364 364 0 0 0 0 0 537 541 557 541 545 0 82 82 0 0 0 533 537 0 584 561 553 588 0 0 593 603 598 588 598 0 0 0 0 371 366 367 364 362 362 362 362 362 362 366 364 366 364 369 362 362 353 352 348 350 0 348 350 357 353 359 0 0 359 362 362 360 359 364 362 364 0 0 0 0 0 525 533 561 566 574 588 588 588 588 579 593 570 570 557 545 553 0 0 0 0 0 0 0 0 0 0 0 541 533 0 0 0 0 0 0 199 0 0 348 347 347 348 355 355 350 348 0 0 0 0 0
    0 0 0 0 0 0 0 0 0 0 0 0 0 0 0 0 0 0 0 0 0 0 0 0 0 0 0 0 0 0 0 0 0 0 0 0 0 0 0 0 0 0 0 0 0 0 0 0 0 0 0 0 0 0 0 0 0 0 0 0 0 0 0 0 0 0 0 0 0 608 608 0 613 623 623 613 0 0 0 99 0 99 99 99 0 0 0 0 0 0 0 0 0 0 0 0 0 0 0 0 0 0 377 379 375 379 377 373 377 389 373 366 367 369 377 0 0 0 0 0 0 593 593 588 593 603 613 613 623 0 618 0 0 0 0 0 0 0 0 570 579 570 557 0 0 0 173 173 174 176 0 0 0 0 0 0 0 0 0 0 0 0 0 0 0 0 0 0 0 362 360 355 0 0 0 0 0 0 0 0 360 360 362 360 364 364 362 362 362 362 364 362 362 0 76 76 0 0 0 0 0 0 0 0 82 82 82 82 82 0 0 0 0 570 0 0 0 132 0 0 0 0 0 0 0 0 366 367 364 366 362 360 362 364 362 362 362 364 362 366 364 367 359 359 353 353 350 352 347 350 348 355 353 357 359 357 357 360 360 360 359 362 359 360 362 362 355 355 355 357 0 0 561 574 588 588 588 593 584 593 574 570 557 0 0 0 0 0 0 0 364 364 362 355 359 0 0 0 0 0 0 0 0 0 0 0 348 347 345 347 347 352 353 348 347 0 0 0 0 0
    0 0 0 0 0 0 0 0 0 0 0 0 0 0 0 0 0 0 0 0 0 0 0 0 0 0 0 0 0 0 0 0 0 0 0 0 0 0 0 0 0 0 0 0 0 0 0 0 0 0 0 0 0 0 0 0 0 0 0 0 0 0 0 0 0 0 0 0 0 0 603 0 618 634 634 0 99 0 99 0 0 0 0 0 0 0 0 0 0 0 0 0 0 0 0 0 0 0 0 371 371 375 373 375 371 373 373 369 371 379 369 364 366 366 369 367 0 0 84 84 0 0 0 593 0 0 0 618 623 0 0 0 0 0 0 0 0 0 0 0 579 561 0 366 0 173 173 0 175 0 0 0 0 0 0 0 0 0 0 0 0 0 0 0 0 0 0 360 360 360 360 355 357 0 0 0 0 0 359 359 360 360 362 359 362 362 360 359 360 360 360 360 362 359 0 0 0 357 357 353 348 347 347 357 0 82 82 82 82 0 0 0 0 0 0 362 0 0 0 364 362 0 362 360 360 366 364 366 364 364 360 360 362 362 362 362 362 362 362 364 364 366 360 360 355 355 352 353 348 352 350 357 352 357 359 357 357 360 360 360 359 362 359 359 362 360 353 352 352 353 350 350 0 0 0 584 593 593 588 593 0 0 0 0 0 348 0 357 360 360 364 364 362 355 360 355 355 0 0 0 0 345 343 342 343 343 345 345 343 345 345 348 350 347 347 0 0 0 0 0
    0 0 0 0 0 0 0 0 0 0 0 0 0 0 0 0 0 0 0 0 0 0 0 0 0 0 0 0 0 0 0 0 0 0 0 0 0 0 0 0 0 0 0 0 0 0 0 0 0 0 0 0 0 0 0 0 0 0 0 0 0 0 0 0 0 0 0 0 0 0 0 0 0 0 0 0 0 0 0 0 0 0 0 0 0 0 0 0 0 0 0 0 0 0 0 0 0 367 369 369 369 371 371 371 369 369 367 366 366 369 366 362 364 364 366 366 364 364 0 0 0 0 0 0 0 0 0 0 0 0 0 0 383 0 0 371 0 0 0 364 0 0 0 364 364 0 0 0 0 359 355 0 0 0 0 0 0 0 0 0 0 0 0 0 0 0 360 360 359 359 359 355 359 355 357 357 357 359 359 357 360 360 362 360 362 362 360 360 360 360 360 360 362 359 360 359 359 357 359 357 353 350 347 357 353 359 0 0 82 0 0 0 362 364 362 362 362 0 0 364 362 362 362 360 360 364 362 364 362 362 357 359 360 362 362 362 362 362 362 364 364 366 360 360 357 357 353 355 350 355 353 357 353 359 359 357 359 360 360 359 359 362 359 357 362 360 353 350 350 352 350 350 345 345 345 347 0 0 0 0 0 0 343 343 348 347 350 355 360 360 362 362 362 355 359 353 355 352 348 348 348 347 347 343 345 343 345 345 345 345 345 347 348 345 345 0 0 0 0 0
    0 0 0 0 0 0 0 0 0 0 0 0 0 0 0 0 0 0 0 0 0 0 0 0 0 0 0 0 0 0 0 0 0 0 0 0 0 0 0 0 0 0 0 0 0 0 0 0 0 0 0 0 0 0 0 0 0 0 0 0 0 0 0 0 0 0 0 0 0 0 0 0 0 0 0 0 0 0 0 0 0 0 0 0 0 0 0 373 371 369 367 364 364 362 362 364 366 367 367 367 369 371 369 369 367 366 366 364 366 366 364 360 362 364 366 366 364 364 364 364 366 367 366 366 364 364 364 362 364 371 367 371 373 366 371 367 367 0 362 364 362 362 364 364 364 362 360 362 360 362 359 360 362 362 362 362 0 0 362 364 364 364 362 362 362 362 360 362 359 357 360 355 359 357 359 359 357 359 359 359 360 360 362 360 362 362 362 360 362 360 360 360 362 360 362 360 362 360 360 360 359 357 352 359 357 359 360 359 360 359 360 362 360 362 362 360 362 362 364 364 364 364 364 362 362 364 362 362 362 360 355 357 360 360 360 362 360 362 362 364 364 366 362 360 359 357 355 357 353 357 357 359 352 357 359 357 357 360 359 359 359 362 357 355 360 357 350 348 348 350 348 350 345 345 345 348 350 348 345 345 345 347 345 345 350 348 352 355 359 359 360 360 359 353 359 353 355 352 352 348 348 347 348 343 347 343 345 345 345 345 345 347 348 345 345 0 0 0 0 0
    0 0 0 0 0 0 0 0 0 0 0 0 0 0 0 0 0 0 0 0 0 0 0 0 0 0 0 0 0 0 0 0 0 0 0 0 0 0 0 0 0 0 0 0 0 0 0 0 0 0 0 0 0 0 0 0 0 0 0 0 0 0 0 0 0 0 0 0 0 373 373 373 371 371 367 366 366 0 0 364 366 0 369 371 371 371 373 371 369 367 366 362 362 362 362 364 366 366 367 366 367 369 369 369 367 366 366 364 366 366 364 360 362 364 366 366 364 364 366 364 366 366 366 366 364 364 364 364 364 369 367 367 369 366 367 366 367 366 362 364 362 362 364 362 362 362 360 362 360 364 362 362 362 364 362 362 362 364 362 364 366 364 362 362 362 362 360 362 359 357 360 355 360 359 359 359 359 360 360 359 362 360 362 360 362 362 362 360 362 362 360 362 362 360 362 362 362 360 362 364 362 362 357 360 360 360 360 359 359 357 359 362 359 360 360 360 362 362 364 364 364 364 362 362 362 364 360 362 360 360 355 357 360 360 360 360 360 362 360 362 362 362 360 360 359 357 355 355 353 357 357 359 352 357 359 357 359 360 359 357 359 362 357 353 357 355 348 347 347 348 348 348 347 347 347 350 352 350 348 347 347 350 347 348 355 352 355 357 360 359 360 359 357 352 357 353 355 353 352 350 350 348 350 345 347 343 345 343 343 345 345 347 348 345 343 0 0 0 0 0
    0 0 0 0 0 0 0 0 0 0 0 0 0 0 0 0 0 0 0 0 0 0 0 0 0 0 0 0 0 0 0 0 0 0 0 0 0 0 0 0 0 0 0 0 0 0 0 0 0 0 0 0 0 0 0 0 0 0 0 0 0 0 0 0 0 0 0 0 0 373 373 373 369 369 366 364 366 364 364 366 366 367 369 371 371 371 371 371 367 366 366 360 362 364 364 364 366 366 366 366 366 367 367 367 366 364 364 362 364 364 362 360 362 362 364 364 364 364 366 364 366 364 366 364 364 364 364 364 364 367 367 369 371 367 369 367 367 366 364 364 362 362 362 362 362 362 362 364 362 366 366 362 364 366 364 364 364 366 362 364 366 364 364 364 364 362 360 364 360 357 360 355 360 359 360 360 359 360 360 360 362 362 362 360 362 362 362 360 362 362 360 362 362 362 362 362 364 362 362 364 362 362 355 360 360 360 360 357 359 355 359 360 359 359 360 360 362 360 364 362 362 362 362 360 360 362 357 360 359 357 352 355 360 360 359 360 360 360 360 362 360 359 359 359 359 357 355 355 353 359 359 359 352 357 359 357 359 360 359 357 357 360 355 352 357 353 347 347 347 347 347 350 347 348 348 350 352 352 350 348 348 352 348 353 360 357 359 360 362 362 362 359 359 353 357 353 355 353 353 350 352 350 352 345 348 345 345 345 345 345 345 347 348 347 345 0 0 0 0 0
    0 0 0 0 0 0 0 0 0 0 0 0 0 0 0 0 0 0 0 0 0 0 0 0 0 0 0 0 0 0 0 0 0 0 0 0 0 0 0 0 0 0 0 0 0 0 0 0 0 0 0 0 0 0 0 0 0 0 0 0 0 0 0 0 0 0 0 0 0 373 371 371 367 0 364 362 362 364 364 366 366 367 369 371 371 371 369 371 366 366 366 360 364 364 364 364 366 366 366 364 366 366 366 366 366 364 362 362 364 364 362 360 362 362 364 366 364 364 364 364 364 364 366 364 364 364 364 364 364 366 367 369 373 367 369 367 367 366 364 364 362 362 362 362 362 362 362 364 362 366 366 364 366 366 366 364 364 366 362 364 366 364 364 364 364 364 360 366 360 357 360 355 360 359 360 360 359 360 360 360 362 362 362 360 362 362 362 360 362 362 360 362 364 362 364 362 364 362 362 364 362 362 353 360 360 359 359 357 359 355 359 360 359 359 360 360 360 360 362 362 362 360 360 359 359 360 353 357 353 353 348 353 359 359 359 359 359 359 359 360 359 357 357 357 357 357 355 355 355 359 359 359 352 357 359 357 357 360 359 357 357 359 355 352 355 352 347 347 347 347 348 350 347 348 348 350 350 352 350 348 348 352 347 355 362 359 360 364 364 362 362 360 359 353 357 353 355 355 353 352 352 352 352 347 348 347 347 345 347 347 347 348 350 347 345 0 0 0 0 0
    0 0 0 0 0 0 0 0 0 0 0 0 0 0 0 0 0 0 0 0 0 0 0 0 0 0 0 0 0 0 0 0 0 0 0 0 0 0 0 0 0 0 0 0 0 0 0 0 0 0 0 0 0 0 0 0 0 0 0 0 0 0 0 0 0 0 0 0 0 373 371 371 367 0 364 364 364 366 364 366 366 367 369 369 369 369 367 369 364 366 366 360 362 362 362 362 364 364 364 362 364 364 364 364 364 362 362 362 364 364 364 362 364 364 366 366 366 364 366 364 366 366 366 366 366 366 366 364 366 367 369 369 371 367 369 367 367 367 366 366 362 362 364 362 364 364 364 366 364 366 367 366 367 366 366 364 366 366 362 364 366 364 364 362 364 362 360 366 360 357 360 355 360 359 360 359 359 360 360 360 364 362 362 360 362 362 362 360 362 362 360 362 362 362 364 364 364 364 364 366 364 366 353 360 360 360 359 357 359 355 357 362 357 357 359 360 360 360 362 360 360 360 360 357 357 359 353 355 352 352 348 352 359 359 359 359 359 359 359 359 359 355 357 357 355 355 353 355 353 357 357 359 352 355 359 357 357 359 359 357 355 359 355 350 353 350 347 347 347 348 348 350 348 348 348 350 350 350 350 350 350 353 348 360 364 360 364 366 366 364 362 360 357 352 357 352 355 355 353 352 353 352 353 347 350 347 347 347 347 347 347 348 350 347 345 0 0 0 0 0
    0 0 0 0 0 0 0 0 0 0 0 0 0 0 0 0 0 0 0 0 0 0 0 0 0 0 0 0 0 0 0 0 0 0 0 0 0 0 0 0 0 0 0 0 0 0 0 0 0 0 0 0 0 0 0 0 0 0 0 0 0 0 0 0 0 0 0 0 0 373 371 373 369 0 0 366 0 367 366 367 366 367 367 369 367 367 366 366 364 364 364 362 362 362 360 362 362 362 362 360 362 362 362 364 364 362 362 362 364 364 366 364 364 364 366 366 366 364 366 366 367 366 367 367 366 367 367 366 366 367 367 369 371 367 369 367 367 367 366 366 364 364 364 364 364 364 364 366 366 366 367 366 367 367 367 362 366 366 362 364 366 364 362 362 364 362 360 366 360 357 360 357 360 359 359 359 359 360 362 360 364 362 362 362 362 362 362 362 362 362 360 364 364 364 364 364 366 366 366 367 366 367 352 360 360 360 359 357 359 355 357 362 359 357 359 360 360 360 360 360 360 360 360 357 359 359 353 355 350 350 348 352 359 357 359 359 359 359 357 359 359 353 355 353 353 353 350 352 352 355 357 359 348 353 357 357 357 359 357 355 355 359 357 350 353 350 348 348 348 348 350 350 350 350 350 350 350 350 350 350 352 353 348 360 364 362 366 367 366 366 364 360 357 352 355 352 355 355 355 352 355 353 355 348 352 348 348 348 348 348 348 348 350 348 347 0 0 0 0 0
    0 0 0 0 0 0 0 0 0 0 0 0 0 0 0 0 0 0 0 0 0 0 0 0 0 0 0 0 0 0 0 0 0 0 0 0 0 0 0 0 0 0 0 0 0 0 0 0 0 0 0 0 0 0 0 0 0 0 0 0 0 0 0 0 0 0 0 0 0 371 371 373 0 0 0 0 0 0 0 0 366 367 367 367 366 366 364 364 362 362 362 362 360 362 362 362 362 364 362 360 362 362 362 364 364 362 362 362 364 364 366 364 366 364 366 366 366 364 366 364 367 366 367 367 367 369 369 366 367 367 367 369 371 369 369 367 367 367 366 366 364 364 364 362 364 364 364 366 364 366 367 366 367 367 366 362 366 366 360 364 364 362 362 362 364 362 360 366 360 357 360 359 362 360 359 359 359 360 362 360 364 362 360 362 362 362 360 362 362 362 360 364 364 364 364 366 366 366 366 367 367 367 353 362 362 360 360 357 359 357 359 362 359 357 360 360 360 360 360 362 360 360 362 357 359 359 355 355 352 350 348 352 359 355 359 359 357 357 357 357 357 352 355 352 352 352 348 350 350 353 355 357 347 350 357 355 357 359 357 355 355 359 357 352 353 350 348 350 350 348 350 352 352 352 350 352 352 352 353 352 353 353 347 360 362 360 362 364 364 366 364 360 357 353 357 353 355 355 357 353 355 355 357 350 353 350 350 350 350 348 348 350 353 348 347 0 0 0 0 0
    0 0 0 0 0 0 0 0 0 0 0 0 0 0 0 0 0 0 0 0 0 0 0 0 0 0 0 0 0 0 0 0 0 0 0 0 0 0 0 0 0 0 0 0 0 0 0 0 0 0 0 0 0 0 0 0 0 0 0 0 0 0 0 0 0 0 0 0 0 371 369 0 0 0 0 0 0 0 0 0 366 366 366 366 364 364 362 362 360 362 360 360 360 360 362 360 362 362 362 360 362 360 362 362 364 362 362 362 364 364 367 366 366 366 366 366 366 364 367 364 369 366 369 369 369 371 371 369 371 367 369 371 371 371 371 367 367 367 367 367 364 364 364 364 364 364 364 366 364 366 367 366 366 366 366 360 364 366 360 364 364 362 362 362 366 362 360 366 360 357 360 359 362 359 359 359 359 360 362 360 362 362 360 362 362 364 362 362 362 362 360 364 364 364 364 366 366 366 366 369 367 367 353 362 362 362 360 359 360 359 359 364 360 359 360 360 362 360 362 362 362 360 362 357 360 359 355 357 352 350 350 352 359 353 357 357 357 357 357 357 357 348 353 350 350 350 347 350 350 352 355 355 345 350 355 355 355 357 357 355 355 359 357 352 353 350 350 350 350 348 350 352 352 353 352 353 353 353 355 355 353 355 347 359 359 357 359 360 362 364 364 360 359 353 357 353 357 357 357 353 355 355 355 348 353 352 350 350 352 350 350 350 355 352 348 0 0 0 0 0
    0 0 0 0 0 0 0 0 0 0 0 0 0 0 0 0 0 0 0 0 0 0 0 0 0 0 0 0 0 0 0 0 0 0 0 0 0 0 0 0 0 0 0 0 0 0 0 0 0 0 0 0 0 0 0 0 0 0 0 0 0 0 0 0 0 0 0 0 0 0 0 0 0 0 0 0 0 0 0 0 364 0 366 366 364 364 362 362 362 362 360 359 360 360 362 360 362 362 362 362 362 360 362 364 366 362 362 364 366 366 369 367 367 366 367 0 0 364 366 362 0 366 369 369 369 369 371 369 371 367 369 371 371 373 371 369 369 369 367 367 366 366 364 364 366 364 366 366 366 367 367 366 366 366 366 359 362 364 359 362 364 362 362 362 366 362 360 367 364 359 362 359 362 359 359 357 357 360 360 360 362 362 359 362 362 364 362 362 362 362 362 364 364 364 364 366 366 364 364 367 366 366 353 362 362 362 360 359 360 359 360 364 360 359 360 360 362 360 362 360 360 360 360 357 359 359 357 357 353 352 352 352 359 353 357 357 355 357 355 355 355 348 352 348 348 348 347 350 350 350 353 353 345 348 353 353 355 357 355 355 353 359 357 350 352 348 348 350 348 347 350 352 352 353 352 353 352 353 355 353 350 352 347 355 355 353 357 359 360 364 364 362 360 357 360 355 359 359 357 353 355 355 355 348 352 352 350 350 352 350 352 352 357 353 348 0 0 0 0 0
    0 0 0 0 0 0 0 0 0 0 0 0 0 0 0 0 0 0 0 0 0 0 0 0 0 0 0 0 0 0 0 0 0 0 0 0 0 0 0 0 0 0 0 0 0 0 0 0 0 0 0 0 0 0 0 0 0 0 0 0 0 0 0 0 0 0 0 0 0 0 0 0 0 0 0 364 366 0 0 0 364 0 366 366 364 364 362 362 362 362 360 360 360 359 362 360 364 364 364 362 362 362 364 364 366 364 364 364 366 366 371 367 367 367 367 0 0 364 366 362 0 366 367 369 367 367 369 367 371 369 371 373 373 373 371 369 369 369 367 367 366 366 364 364 366 366 0 367 367 369 367 364 364 364 364 357 360 362 357 360 362 360 362 362 366 362 360 367 364 360 362 360 360 359 357 357 357 359 360 360 360 360 359 362 362 364 362 362 362 362 362 364 364 364 364 364 364 364 362 366 364 364 350 360 360 360 360 357 360 359 360 364 360 360 360 360 362 360 360 360 360 359 360 357 359 359 357 357 353 352 352 352 359 353 357 357 355 357 355 355 355 348 352 0 350 350 348 350 350 350 353 353 345 348 353 352 353 355 355 355 353 357 355 352 352 348 348 350 350 347 352 353 353 357 355 355 355 355 359 355 350 353 347 353 355 353 357 359 360 364 364 364 0 0 362 359 360 360 359 355 357 357 357 348 353 352 350 350 352 352 352 352 357 353 348 0 0 0 0 0
    0 0 0 0 0 0 0 0 0 0 0 0 0 0 0 0 0 0 0 0 0 0 0 0 0 0 0 0 0 0 0 0 0 0 0 0 0 0 0 0 0 0 0 0 0 0 0 0 0 0 0 0 0 0 0 0 0 0 0 0 0 0 0 0 0 0 0 0 0 0 0 0 0 0 0 366 366 0 366 0 364 0 366 366 364 364 364 364 362 362 360 360 360 359 362 360 364 364 364 362 364 362 364 364 366 364 364 366 367 367 371 369 369 369 369 0 369 366 367 364 0 366 366 367 367 367 369 367 371 369 371 373 371 375 373 371 371 369 369 367 367 366 364 364 366 366 0 367 367 367 367 362 364 364 364 355 360 360 357 360 362 360 360 360 366 362 362 367 364 360 362 360 360 357 357 357 357 360 362 360 360 360 360 362 364 364 362 362 362 362 362 364 364 364 364 366 366 364 362 364 362 360 348 359 360 360 360 359 360 359 360 364 362 360 360 360 362 359 360 359 360 359 359 355 359 359 357 357 353 352 352 352 359 353 357 357 355 357 355 355 355 348 352 0 0 350 348 352 0 352 355 357 345 348 353 352 353 355 355 353 353 357 357 352 352 348 348 350 350 348 352 353 353 357 355 355 355 355 359 355 350 353 347 353 353 353 355 359 359 362 362 364 362 360 364 360 362 362 360 357 359 359 359 348 353 352 350 352 352 350 352 352 357 353 348 0 0 0 0 0
    0 0 0 0 0 0 0 0 0 0 0 0 0 0 0 0 0 0 0 0 0 0 0 0 0 0 0 0 0 0 0 0 0 0 0 0 0 0 0 0 0 0 0 0 0 0 0 0 0 0 0 0 0 0 0 0 0 0 0 0 0 0 0 0 0 0 0 0 0 367 0 369 369 0 367 367 366 366 366 0 364 366 366 366 364 364 364 364 362 362 360 360 360 359 362 360 364 364 364 364 364 362 366 364 366 364 366 366 367 367 371 369 369 371 373 369 369 367 367 364 367 366 366 366 366 366 367 367 369 369 369 371 371 373 371 371 371 369 367 367 366 366 364 364 366 364 0 366 366 367 367 362 364 362 364 355 360 360 357 360 362 360 362 362 366 364 362 366 362 360 362 362 360 359 359 359 359 360 362 360 362 362 362 364 364 364 362 362 362 362 362 364 364 364 364 366 366 364 362 362 360 359 350 359 360 360 360 359 362 360 362 364 362 360 360 360 360 359 359 359 359 357 359 355 359 357 357 357 355 353 353 353 359 355 359 357 357 357 357 357 357 352 353 353 352 350 348 352 0 353 355 359 347 350 353 353 355 355 355 355 353 357 357 352 352 348 348 352 352 348 353 353 353 357 357 355 355 353 357 353 350 353 348 352 350 350 353 355 355 360 359 360 360 357 362 359 362 360 360 357 359 359 359 350 355 353 352 352 353 352 352 353 359 355 350 0 0 0 0 0
    0 0 0 0 0 0 0 0 0 0 0 0 0 0 0 0 0 0 0 0 0 0 0 0 0 0 0 0 0 0 0 0 0 0 0 0 0 0 0 0 0 0 0 0 0 0 0 0 0 0 0 0 0 0 0 0 0 0 0 0 0 0 0 0 0 0 0 0 0 369 369 371 371 369 369 369 367 366 364 364 364 364 364 364 364 364 364 364 362 362 360 360 360 357 362 360 364 364 364 364 364 364 366 366 367 366 367 367 369 369 373 369 369 371 373 369 371 367 369 366 369 367 366 367 366 366 367 367 369 369 369 371 371 373 373 371 371 369 367 367 366 366 362 362 364 364 364 366 366 366 366 362 364 364 364 357 360 360 357 360 364 362 362 362 0 364 364 367 364 362 364 364 362 359 359 359 360 362 362 362 362 362 364 364 364 366 362 362 362 362 362 364 364 364 364 366 364 362 360 360 359 359 352 359 360 360 362 359 362 362 362 364 362 362 362 360 362 359 359 359 359 357 359 353 359 357 359 359 357 357 357 355 360 357 359 359 359 359 359 360 360 355 357 0 355 348 350 0 0 355 357 359 348 350 355 353 355 355 355 355 353 357 357 353 353 350 352 355 353 350 355 355 355 359 357 357 357 357 359 355 350 353 350 352 348 348 350 352 353 357 357 357 359 357 362 359 360 360 360 359 360 359 360 350 355 353 353 353 353 352 353 353 360 357 348 0 0 0 0 0
    0 0 0 0 0 0 0 0 0 0 0 0 0 0 0 0 0 0 0 0 0 0 0 0 0 0 0 0 0 0 0 0 0 0 0 0 0 0 0 0 0 0 0 0 0 0 0 0 0 0 0 0 0 0 0 0 0 0 0 0 0 0 0 0 0 0 0 0 0 367 369 371 371 369 367 367 366 366 364 364 364 364 366 364 364 364 364 366 362 362 362 362 362 360 364 362 366 366 366 366 366 366 367 367 369 366 367 369 369 371 371 369 371 371 373 371 373 369 371 367 371 369 366 367 366 366 366 366 369 369 369 371 371 375 373 371 371 369 367 367 366 366 362 362 364 364 364 366 366 366 364 360 364 362 364 359 360 360 359 360 364 362 362 362 0 364 364 367 364 362 364 364 362 359 359 360 360 362 362 362 362 364 366 366 366 366 362 362 362 362 364 364 364 364 364 366 364 362 360 359 357 357 355 360 360 360 362 359 364 362 362 364 364 362 362 360 362 359 360 359 359 357 359 352 359 357 359 359 357 357 357 355 360 357 360 359 359 360 359 360 362 357 360 0 362 352 357 0 0 357 359 360 348 352 355 353 355 355 353 355 355 359 357 353 355 350 353 357 355 350 357 355 357 359 359 359 359 359 360 357 352 355 352 352 348 348 350 350 350 355 353 355 357 357 362 359 360 360 360 359 360 359 360 350 355 353 353 353 353 353 353 355 360 357 347 0 0 0 0 0
    0 0 0 0 0 0 0 0 0 0 0 0 0 0 0 0 0 0 0 0 0 0 0 0 0 0 0 0 0 0 0 0 0 0 0 0 0 0 0 0 0 0 0 0 0 0 0 0 0 0 0 0 0 0 0 0 0 0 0 0 0 0 0 0 0 0 0 0 0 367 367 369 369 367 367 367 366 366 366 364 366 366 366 366 366 366 366 367 364 366 364 364 366 364 367 366 369 369 367 367 367 367 369 367 369 367 367 369 369 371 371 369 371 371 373 371 371 369 371 367 371 369 366 367 364 364 366 366 367 367 369 371 371 375 373 371 369 367 367 366 366 366 362 362 364 364 364 364 364 366 364 360 364 362 364 359 362 362 359 362 364 362 362 364 0 364 364 366 364 362 362 362 360 357 359 360 359 362 362 362 364 364 367 367 367 367 362 364 362 364 364 364 364 364 364 364 362 360 359 357 355 353 353 359 359 359 360 359 362 362 364 364 364 364 364 362 362 360 360 359 359 357 359 352 359 357 359 359 357 359 357 355 360 355 359 355 359 359 357 360 360 357 364 367 369 355 364 366 362 362 362 362 352 353 357 355 357 357 355 355 355 359 359 355 357 352 355 357 357 352 357 353 353 355 357 357 359 359 359 357 352 355 353 352 348 348 348 350 350 353 352 355 357 357 362 360 360 360 362 360 360 359 360 348 355 353 353 353 355 355 355 355 360 357 347 0 0 0 0 0
    0 0 0 0 0 0 0 0 0 0 0 0 0 0 0 0 0 0 0 0 0 0 0 0 0 0 0 0 0 0 0 0 0 0 0 0 0 0 0 0 0 0 0 0 0 0 0 0 0 0 0 0 0 0 0 0 0 0 0 0 0 0 0 0 0 0 0 0 0 367 367 367 367 366 366 366 364 364 364 364 366 366 366 366 366 366 367 371 367 369 369 367 369 367 369 367 371 371 369 369 367 369 371 369 371 367 369 371 371 373 371 369 371 371 373 371 371 369 369 367 369 367 364 366 362 362 364 364 367 367 369 369 369 373 373 369 369 367 367 366 364 364 362 362 364 364 364 366 364 364 364 362 364 364 364 360 362 362 360 362 364 364 364 364 0 366 364 366 364 362 364 362 360 357 359 360 359 362 364 362 364 366 369 371 371 367 364 364 364 364 364 364 364 362 364 364 362 362 360 359 357 353 355 359 359 359 360 359 362 360 364 364 364 364 364 362 362 360 360 359 359 355 357 350 359 357 359 359 359 359 359 355 360 355 359 355 357 355 355 357 360 357 364 367 369 360 367 367 367 364 364 364 355 355 357 355 357 357 355 355 355 359 357 357 357 353 353 357 357 355 357 355 353 353 355 355 359 359 357 355 352 355 355 353 350 348 348 350 350 353 350 353 355 357 360 360 360 362 362 360 360 359 360 350 357 355 353 355 357 355 357 357 360 357 348 0 0 0 0 0
    0 0 0 0 0 0 0 0 0 0 0 0 0 0 0 0 0 0 0 0 0 0 0 0 0 0 0 0 0 0 0 0 0 0 0 0 0 0 0 0 0 0 0 0 0 0 0 0 0 0 0 0 0 0 0 0 0 0 0 0 0 0 0 0 0 0 0 0 0 367 369 367 367 366 366 366 364 364 364 364 366 366 366 366 366 366 367 373 369 371 373 371 371 369 371 371 373 373 369 371 369 369 371 371 371 369 371 373 371 375 373 371 371 371 373 371 369 369 367 366 366 366 364 364 362 362 362 364 367 367 369 371 371 373 373 371 369 367 366 364 364 362 362 362 364 364 364 364 364 364 364 362 364 364 364 360 364 362 362 362 364 364 362 364 367 366 366 367 364 364 364 364 362 359 359 360 360 362 364 364 364 366 371 375 373 367 362 364 362 364 364 364 362 362 362 364 362 360 359 359 357 353 355 357 357 359 359 357 360 360 362 362 364 364 362 362 362 359 359 359 359 355 357 350 357 355 359 359 359 359 359 355 360 355 359 355 357 357 357 359 362 360 364 369 369 369 369 369 367 366 366 364 359 359 357 355 357 357 355 355 355 357 357 355 355 353 353 355 357 357 357 357 357 355 357 357 360 360 359 357 355 357 359 355 353 352 348 350 350 352 350 352 353 357 360 360 362 362 362 360 360 359 360 352 359 357 355 357 357 357 359 359 362 359 353 0 0 0 0 0
    0 0 0 0 0 0 0 0 0 0 0 0 0 0 0 0 0 0 0 0 0 0 0 0 0 0 0 0 0 0 0 0 0 0 0 0 0 0 0 0 0 0 0 0 0 0 0 0 0 0 0 0 0 0 0 0 0 0 0 0 0 0 0 0 0 0 0 0 0 369 369 367 367 366 366 366 364 364 364 364 364 366 366 366 366 366 367 373 371 373 375 373 373 373 373 375 375 375 371 371 369 371 371 373 371 369 371 373 373 377 375 373 371 373 373 371 369 369 367 366 366 366 364 364 362 362 364 366 369 369 371 371 371 373 375 371 371 367 367 364 364 362 362 362 364 364 364 364 364 364 366 364 364 364 364 362 364 364 362 364 364 362 362 364 367 366 366 366 364 364 364 364 362 359 359 360 360 362 364 364 364 366 371 373 373 366 360 362 360 364 362 364 362 362 362 364 362 360 359 359 355 353 355 355 355 357 359 359 360 360 362 362 364 364 362 362 360 359 359 359 359 355 357 350 357 355 359 359 359 359 359 357 362 355 359 357 359 357 359 360 362 362 366 367 369 369 371 369 367 366 367 366 362 360 359 355 357 355 353 353 353 353 352 352 353 352 352 355 355 357 359 362 360 357 359 359 360 362 359 359 357 357 360 357 353 352 348 350 350 352 348 348 352 355 359 359 362 362 362 360 360 360 360 353 359 355 355 355 357 357 359 357 359 352 0 0 0 0 0 0
    0 0 0 0 0 0 0 0 0 0 0 0 0 0 0 0 0 0 0 0 0 0 0 0 0 0 0 0 0 0 0 0 0 0 0 0 0 0 0 0 0 0 0 0 0 0 0 0 0 0 0 0 0 0 0 0 0 0 0 0 0 0 0 0 0 0 0 0 0 369 369 369 367 367 366 366 364 364 364 364 364 364 366 364 364 366 367 373 371 375 377 375 375 375 377 377 379 377 371 371 369 371 373 373 373 371 373 375 373 377 375 373 373 373 373 371 369 369 367 366 366 364 364 364 362 362 364 366 369 367 371 371 371 373 373 371 369 0 0 364 364 362 362 362 364 364 364 364 364 364 366 364 366 366 366 364 366 364 364 364 364 362 362 364 0 364 366 366 364 362 364 364 362 359 359 360 360 362 364 364 364 366 371 375 373 366 360 362 362 364 362 364 362 362 362 364 362 360 360 359 357 355 355 355 355 357 359 359 360 360 362 362 364 364 362 362 360 359 359 359 359 355 357 350 357 355 359 359 359 359 359 357 362 357 360 357 359 359 359 360 364 364 366 366 369 369 371 367 367 367 367 366 364 360 359 355 355 355 352 352 350 348 345 345 347 345 343 345 343 347 350 357 357 353 357 357 359 360 359 357 357 357 359 357 352 350 347 350 350 350 347 347 348 353 357 359 360 362 360 360 359 359 360 353 360 355 355 353 357 355 357 355 355 0 0 0 0 0 0 0
    0 0 0 0 0 0 0 0 0 0 0 0 0 0 0 0 0 0 0 0 0 0 0 0 0 0 0 0 0 0 0 0 0 0 0 0 0 0 0 0 0 0 0 0 0 0 0 0 0 0 0 0 0 0 0 0 0 0 0 0 0 0 0 0 0 0 0 0 0 369 369 369 367 367 366 366 364 364 364 364 364 364 364 364 364 364 367 375 373 377 379 377 377 379 379 379 379 377 371 371 369 371 373 373 373 371 373 375 373 377 375 373 373 371 373 371 369 369 367 366 366 366 366 367 366 0 0 0 0 0 371 371 371 373 373 0 0 0 0 364 364 0 362 0 364 366 364 366 366 364 366 366 366 367 367 366 366 366 0 0 364 362 362 364 0 364 366 366 364 362 364 364 362 359 359 360 360 360 364 364 364 364 369 373 373 364 359 362 360 364 362 364 362 362 362 364 362 360 360 360 359 355 357 355 355 357 357 359 359 360 362 360 362 364 360 362 360 359 357 359 359 355 357 348 357 355 359 359 359 359 359 357 362 357 360 357 359 359 359 360 364 364 366 366 369 369 371 367 367 367 367 366 364 362 360 353 352 353 350 350 348 343 342 342 342 340 337 340 336 340 343 352 352 350 357 357 360 360 359 359 357 357 359 357 352 350 347 348 348 348 347 347 348 353 357 357 360 360 360 360 359 359 359 355 360 357 357 357 359 359 359 357 355 0 0 0 0 0 0 0
    0 0 0 0 0 0 0 0 0 0 0 0 0 0 0 0 0 0 0 0 0 0 0 0 0 0 0 0 0 0 0 0 0 0 0 0 0 0 0 0 0 0 0 0 0 0 0 0 0 0 0 0 0 0 0 0 0 0 0 0 0 0 0 0 0 0 0 0 0 369 367 367 367 367 366 366 364 364 364 364 364 364 0 0 364 366 367 377 375 379 383 379 379 381 381 381 379 377 373 373 371 371 373 373 373 373 373 377 375 379 375 375 373 371 371 371 369 369 367 366 366 366 367 369 0 0 0 0 0 0 0 371 373 373 373 0 0 0 0 0 0 0 364 0 366 366 366 366 366 364 366 369 367 367 367 367 367 0 0 0 364 362 360 362 366 364 364 366 364 364 364 364 362 357 359 359 357 357 360 362 362 360 362 0 0 353 357 360 360 362 360 362 360 360 362 364 362 360 360 362 359 357 357 357 355 357 357 359 359 360 362 360 362 364 360 362 359 360 359 359 359 357 357 348 359 355 359 359 359 360 360 357 362 355 360 357 359 357 359 360 364 362 366 366 367 369 369 367 0 0 367 364 364 360 359 350 350 352 350 350 347 342 340 340 340 339 333 330 328 334 0 350 350 350 357 359 360 362 359 359 357 357 360 357 353 350 347 350 350 350 347 347 347 353 357 359 360 362 360 0 0 0 0 0 0 0 0 357 360 0 0 0 0 0 0 0 0 0 0 0
    0 0 0 0 0 0 0 0 0 0 0 0 0 0 0 0 0 0 0 0 0 0 0 0 0 0 0 0 0 0 0 0 0 0 0 0 0 0 0 0 0 0 0 0 0 0 0 0 0 0 0 0 0 0 0 0 0 0 0 0 0 0 0 0 0 0 0 0 0 0 367 367 366 366 364 364 364 364 364 362 364 364 0 0 364 366 369 379 377 383 385 379 381 381 381 381 379 377 0 373 371 373 373 375 373 373 375 377 375 381 377 377 373 371 371 369 367 369 366 364 364 366 367 369 0 0 0 0 0 0 0 371 371 371 0 0 0 362 0 364 366 0 364 0 366 367 0 366 366 364 366 369 367 367 367 367 367 366 0 0 362 360 359 362 366 362 364 364 364 362 362 0 362 357 0 357 355 0 359 360 360 359 359 0 0 0 352 357 359 360 359 0 359 360 362 364 0 360 359 362 359 353 357 355 355 357 357 359 357 359 360 360 362 362 360 360 359 360 359 360 360 359 357 352 357 355 357 357 357 359 359 357 360 353 359 355 357 355 357 359 362 360 364 364 367 0 371 367 0 0 367 364 364 360 357 348 348 352 350 350 345 342 339 339 339 337 327 321 322 333 339 348 350 350 359 359 360 362 359 359 359 359 362 359 357 353 348 352 352 352 350 348 348 355 359 359 362 364 0 0 0 0 0 0 0 0 0 0 0 0 0 0 0 0 0 0 0 0 0 0
    0 0 0 0 0 0 0 0 0 0 0 0 0 0 0 0 0 0 0 0 0 0 0 0 0 0 0 0 0 0 0 0 0 0 0 0 0 0 0 0 0 0 0 0 0 0 0 0 0 0 0 0 0 0 0 0 0 0 0 0 0 0 0 0 0 0 0 0 0 0 0 367 366 366 364 364 362 364 362 362 362 364 0 0 0 366 369 379 379 385 389 381 385 385 383 383 379 377 0 373 371 371 373 375 373 373 375 379 377 381 379 379 373 371 371 369 366 367 364 362 362 364 367 367 367 0 0 0 0 0 0 0 371 0 0 0 0 364 366 364 366 0 364 0 366 366 0 366 364 364 366 369 366 367 367 366 367 366 0 364 362 359 359 360 364 360 362 364 362 362 0 0 360 355 0 0 0 0 359 360 359 355 350 340 331 324 348 355 359 360 357 0 359 360 0 0 117 357 357 362 359 353 355 353 353 357 357 359 357 359 360 360 362 362 359 360 359 360 359 360 362 359 357 352 357 355 357 357 355 357 359 355 360 352 359 353 357 355 357 359 362 362 364 364 366 0 371 369 0 0 369 366 366 362 357 347 347 352 350 348 343 340 336 336 336 334 324 318 319 328 336 0 350 350 359 359 360 362 359 359 359 359 362 360 0 357 350 359 357 355 353 350 347 359 359 359 362 364 0 0 0 0 0 0 0 0 0 0 0 0 0 0 0 0 0 0 0 0 0 0
    0 0 0 0 0 0 0 0 0 0 0 0 0 0 0 0 0 0 0 0 0 0 0 0 0 0 0 0 0 0 0 0 0 0 0 0 0 0 0 0 0 0 0 0 0 0 0 0 0 0 0 0 0 0 0 0 0 0 0 0 0 0 0 0 0 0 0 0 0 0 0 371 0 366 364 0 0 0 0 0 0 0 0 0 0 0 0 377 381 385 389 383 383 385 383 383 381 0 0 373 373 371 373 377 375 375 377 381 377 381 383 381 373 371 371 371 367 367 366 362 362 362 366 362 0 0 0 0 0 0 0 0 0 0 0 0 0 0 0 0 0 0 357 0 362 0 0 0 364 364 367 373 367 367 367 366 367 366 0 362 359 359 357 0 0 0 0 0 0 0 83 83 0 0 0 0 94 93 91 0 0 0 0 0 333 333 348 355 355 359 353 360 357 359 118 118 117 0 0 364 360 359 357 355 355 359 359 359 357 359 359 359 360 0 357 0 357 360 360 0 364 362 359 353 357 353 355 353 352 353 357 353 360 353 359 357 359 357 360 360 366 366 366 366 0 0 0 0 0 0 369 0 0 0 357 345 345 348 347 345 342 339 334 333 334 333 321 317 0 0 0 0 0 0 0 360 0 0 360 0 0 0 0 0 0 357 350 360 362 357 347 0 328 0 0 0 0 0 0 0 0 0 0 0 8177 0 0 0 0 0 0 0 0 0 0 0 0 0 0 0
    0 0 0 0 0 0 0 0 0 0 0 0 0 0 0 0 0 0 0 0 0 0 0 0 0 0 0 0 0 0 0 0 0 0 0 0 0 0 0 0 0 0 0 0 0 0 0 0 0 0 0 0 0 0 0 0 0 0 0 0 0 0 0 0 0 0 0 0 0 159 0 0 0 0 0 0 0 0 0 0 0 0 0 0 107 0 0 0 0 0 0 387 385 387 385 385 385 0 0 0 377 0 373 379 375 375 377 381 377 379 387 385 0 0 0 0 0 0 362 360 359 0 0 0 0 0 0 0 0 579 553 0 0 0 0 0 0 0 0 0 0 0 0 0 0 0 79 78 78 0 0 0 0 0 0 0 0 0 0 0 0 0 0 0 0 0 0 0 0 83 0 0 0 0 0 0 0 0 0 0 0 0 0 0 0 0 0 359 355 357 353 360 357 353 0 0 0 0 0 0 0 165 0 0 357 360 359 360 359 359 359 359 359 0 0 154 0 0 0 0 0 0 366 360 360 355 353 350 347 345 0 0 0 357 0 0 0 0 371 0 375 373 371 0 0 0 0 0 0 0 0 0 0 0 0 347 343 347 345 343 340 337 333 331 333 330 319 313 313 299 0 0 288 284 0 0 0 0 0 0 0 0 0 0 0 0 0 0 0 0 0 0 0 0 0 0 0 0 0 0 0 0 0 0 8177 0 0 0 0 0 0 0 0 0 0 0 0 0 0 0
    0 0 0 0 0 0 0 0 0 0 0 0 0 0 0 0 0 0 0 0 0 0 0 0 0 0 0 0 0 0 0 0 0 0 0 0 0 0 0 0 0 0 0 0 0 0 0 0 0 0 0 0 0 0 0 0 0 0 0 0 0 0 0 0 0 0 0 0 0 0 0 0 0 0 0 0 0 272 273 273 273 274 272 275 0 0 0 0 0 0 84 0 0 0 0 0 250 250 0 0 0 0 371 377 375 371 373 375 0 0 0 0 0 0 0 0 0 0 0 0 0 0 0 0 0 0 0 0 0 0 0 0 0 0 0 0 0 0 0 0 0 0 0 0 260 0 0 79 78 0 0 0 0 0 0 0 0 0 0 0 0 0 0 266 0 0 267 268 267 266 0 0 0 0 0 0 91 0 0 0 0 0 0 0 0 0 0 362 359 360 0 0 0 0 91 0 0 0 0 0 0 0 0 0 0 0 0 0 0 0 355 0 0 0 0 0 0 0 0 73 73 0 383 383 371 366 364 357 0 0 0 0 0 279 279 276 274 0 0 0 383 377 0 0 0 0 0 0 0 0 0 0 0 0 0 0 0 342 340 339 337 334 330 327 325 324 317 309 299 299 0 294 290 286 283 281 281 0 0 0 0 0 0 0 0 0 0 0 0 0 0 0 0 0 0 0 0 0 0 0 0 0 0 0 0 0 0 0 0 0 0 0 0 0 0 0 0 0 0 0
    0 0 0 0 0 0 0 0 0 0 0 0 0 0 0 0 0 0 0 0 0 0 0 0 0 0 0 0 0 0 0 0 0 0 0 0 0 0 0 0 0 0 0 0 0 0 0 0 0 0 0 0 0 0 0 0 0 0 0 0 0 0 0 0 0 0 0 0 0 0 275 274 0 0 0 0 0 273 273 273 273 274 273 275 274 275 0 0 0 0 84 0 0 0 0 0 0 0 0 0 0 0 0 262 264 267 272 0 0 0 272 272 273 274 272 270 266 268 265 0 0 0 261 0 0 0 0 0 0 0 0 0 0 0 0 0 0 0 0 0 0 0 0 261 260 260 260 0 0 0 0 266 267 267 268 269 270 272 267 270 266 0 265 265 266 266 266 267 267 267 268 269 272 269 0 0 0 0 0 0 0 77 77 77 77 0 0 0 0 0 0 263 263 263 0 264 264 264 0 0 0 0 183 183 0 0 180 0 0 0 0 0 264 262 261 262 262 262 263 262 263 262 0 264 0 0 0 263 262 260 0 0 262 267 276 271 271 275 0 0 0 0 0 0 0 0 0 0 0 0 0 0 0 125 0 0 0 0 334 331 328 325 324 322 322 321 315 306 297 300 296 294 290 286 283 280 281 0 273 0 260 264 262 0 0 0 0 0 0 0 0 0 0 0 0 0 0 0 0 0 0 0 0 0 8177 0 0 0 0 0 0 0 0 0 0 0 0 0 0 0
    0 0 0 0 0 0 0 0 0 0 0 0 0 0 0 0 0 0 0 0 0 0 0 0 0 0 0 0 0 0 0 0 0 0 0 0 0 0 0 0 0 0 0 0 0 0 0 0 0 0 0 0 0 0 0 0 0 0 0 0 0 0 0 0 0 0 0 0 0 275 275 273 274 0 273 274 0 273 272 273 273 273 272 274 273 273 271 272 0 0 0 0 0 0 0 0 0 0 0 0 261 262 263 262 264 267 270 270 270 270 271 272 272 273 271 271 267 269 267 265 264 263 263 262 263 265 0 0 0 0 272 274 0 0 275 276 271 0 263 260 261 264 262 262 260 260 260 259 259 0 264 266 266 267 267 268 270 272 267 269 266 265 265 265 266 266 266 267 266 267 267 268 270 266 266 0 0 75 0 0 0 0 77 77 0 0 0 0 0 265 263 264 265 264 265 266 265 265 0 0 0 0 0 0 0 0 180 0 0 0 262 263 265 263 261 262 262 262 263 263 263 263 264 265 264 264 265 266 264 261 262 260 260 261 0 264 265 265 268 270 270 270 267 264 0 0 0 0 0 0 0 0 0 123 123 0 0 262 259 0 0 0 0 322 321 318 314 301 288 295 289 286 280 280 278 277 276 277 270 262 260 263 264 0 0 0 0 267 0 93 0 0 0 0 0 0 0 0 0 0 0 0 0 0 5256 4599 6133 0 0 0 6133 0 0 0 0 0 0 0 0 0
    0 0 0 0 0 0 0 0 0 0 0 0 0 0 0 0 0 0 0 0 0 0 0 0 0 0 0 0 0 0 0 0 0 0 0 0 0 0 0 0 0 0 0 0 0 0 0 0 0 0 0 0 0 0 0 0 0 0 0 0 0 0 0 0 0 0 0 0 0 275 275 273 274 0 272 273 271 272 272 272 272 272 271 273 272 272 270 270 270 271 0 272 267 268 276 274 273 0 266 267 265 265 265 263 264 268 269 270 270 269 270 270 271 272 270 270 267 269 267 266 265 265 265 264 265 267 265 0 269 272 271 272 273 274 273 274 270 269 265 264 263 265 263 263 263 264 263 262 0 266 265 267 267 268 267 268 269 272 267 269 266 266 265 265 266 265 266 266 266 266 266 266 267 265 265 0 0 0 0 0 0 0 0 0 0 266 265 266 266 265 264 264 266 265 266 266 266 266 264 265 0 0 0 0 0 0 0 0 0 0 264 263 265 264 263 264 264 263 264 264 265 265 266 266 265 265 267 268 265 263 263 263 264 265 265 264 264 264 266 266 265 266 264 263 263 261 0 0 0 0 0 0 0 0 0 0 0 261 258 258 260 261 264 0 0 0 0 0 276 0 278 277 276 0 0 274 274 273 266 261 259 262 263 263 264 264 263 265 0 0 0 0 0 0 260 259 256 251 0 0 0 0 0 0 5661 4329 6133 0 0 0 0 0 0 0 0 0 0 0 0 0
    0 0 0 0 0 0 0 0 0 0 0 0 0 0 0 0 0 0 0 0 0 0 0 0 0 0 0 0 0 0 0 0 0 0 0 0 0 0 0 0 0 0 0 0 0 0 0 0 0 0 0 0 0 0 0 0 0 0 0 0 0 0 0 0 0 0 0 0 0 275 275 273 273 274 272 273 271 273 272 273 271 272 271 273 272 272 270 270 269 271 271 273 269 271 273 273 272 270 268 269 266 267 266 264 265 268 270 270 270 269 269 269 270 271 270 269 266 268 267 266 266 266 266 264 266 268 266 268 269 271 271 271 272 272 272 272 270 270 267 267 265 267 264 264 264 266 265 265 263 267 266 268 268 269 267 268 269 272 268 269 266 266 265 265 266 265 266 266 266 266 265 266 266 265 265 265 0 0 265 265 265 0 0 0 0 266 265 266 267 265 263 265 267 266 267 267 267 267 265 265 265 264 0 0 0 0 0 0 0 0 265 264 265 264 264 265 265 264 265 265 266 266 266 267 264 265 266 266 264 262 262 263 263 265 265 264 264 263 266 264 263 265 263 263 263 262 263 263 264 270 263 0 0 0 0 0 0 260 258 257 259 260 262 263 263 264 264 267 272 272 275 274 272 0 0 272 0 269 0 0 259 261 262 263 0 0 0 264 0 0 0 0 0 260 260 259 257 253 255 258 0 255 253 0 0 0 0 0 4329 0 0 0 0 0 0 0 0 0 0 0
    0 0 0 0 0 0 0 0 0 0 0 0 0 0 0 0 0 0 0 0 0 0 0 0 0 0 0 0 0 0 0 0 0 0 0 0 0 0 0 0 0 0 0 0 0 0 0 0 0 0 0 0 0 0 0 0 0 0 0 0 0 0 0 0 0 0 0 0 0 274 274 273 273 274 272 274 272 273 272 273 271 271 271 272 272 271 270 270 269 272 271 273 270 271 273 272 272 270 268 268 266 268 266 264 265 268 270 270 270 269 268 269 269 271 270 269 266 267 267 266 266 266 267 265 266 268 267 268 269 270 270 271 272 271 271 271 270 269 267 267 265 267 265 265 264 267 266 266 264 267 267 269 268 270 267 268 269 272 268 268 266 266 265 265 265 265 265 266 265 265 265 266 266 266 266 266 265 265 266 266 266 267 266 265 264 266 265 266 267 265 264 266 268 267 268 267 268 267 266 265 264 264 0 0 0 0 0 264 264 264 266 264 265 264 264 266 265 265 265 265 266 266 266 267 264 264 265 265 264 261 262 263 264 266 266 264 265 264 266 264 263 265 263 263 264 263 263 263 264 268 262 0 0 0 0 0 0 260 260 258 259 260 261 261 261 262 261 264 269 268 273 271 269 272 270 270 268 268 0 261 259 261 262 263 263 0 0 0 0 0 0 0 261 260 260 260 259 255 257 259 259 258 257 255 257 257 258 256 0 0 0 0 0 0 0 0 0 0 0 0
    0 0 0 0 0 0 0 0 0 0 0 0 0 0 0 0 0 0 0 0 0 0 0 0 0 0 0 0 0 0 0 0 0 0 0 0 0 0 0 0 0 0 0 0 0 0 0 0 0 0 0 0 0 0 0 0 0 0 0 0 0 0 0 0 0 0 0 0 0 273 273 272 273 273 272 273 271 273 272 273 270 271 271 272 271 270 269 270 268 271 271 272 270 271 273 273 271 271 268 268 267 268 267 265 266 269 270 270 270 269 268 269 270 271 270 269 268 268 268 267 267 267 267 265 267 268 268 268 269 270 270 271 272 270 270 270 269 269 268 267 266 267 266 266 265 267 267 267 265 268 268 269 269 271 268 268 269 272 269 268 266 266 265 265 265 265 265 266 265 265 265 266 266 266 266 266 265 266 266 266 266 267 266 266 265 266 266 267 267 266 265 266 269 268 269 268 268 267 266 265 264 264 0 0 0 0 0 265 266 265 267 265 265 265 264 266 265 265 265 265 266 266 266 267 264 264 265 265 265 262 263 264 264 265 265 264 265 264 265 264 262 264 263 262 263 263 263 263 264 267 262 0 0 0 0 0 0 261 260 259 259 259 260 260 260 260 260 263 267 267 271 269 267 270 268 270 267 267 0 261 258 261 261 263 262 262 262 263 0 265 263 263 261 261 261 261 260 259 259 260 260 260 259 257 258 258 260 259 256 256 259 260 261 259 262 0 0 0 0 0
    0 0 0 0 0 0 0 0 0 0 0 0 0 0 0 0 0 0 0 0 0 0 0 0 0 0 0 0 0 0 0 0 0 0 0 0 0 0 0 0 0 0 0 0 0 0 0 0 0 0 0 0 0 0 0 0 0 0 0 0 0 0 0 0 0 0 0 0 0 272 273 272 272 273 271 273 272 273 272 272 270 271 271 271 270 270 268 270 268 271 271 272 270 272 273 273 272 271 270 269 268 269 268 266 266 269 270 269 269 268 267 268 269 271 269 269 268 268 269 268 268 267 268 266 268 269 268 268 269 269 270 270 272 269 270 269 269 268 268 267 266 267 266 266 266 268 268 268 266 268 269 270 269 271 268 268 269 271 269 268 266 266 266 265 265 265 266 266 265 266 265 266 266 267 266 267 265 266 266 267 267 267 266 266 265 267 266 267 267 267 266 267 269 270 270 268 268 267 266 265 265 264 264 0 0 0 264 265 266 266 267 266 266 265 265 266 266 265 265 265 266 266 266 267 264 265 265 266 266 263 264 264 265 265 265 264 265 263 264 263 261 264 263 262 262 262 262 263 263 266 262 0 263 0 0 0 0 261 260 260 260 259 260 260 260 260 260 262 266 266 269 268 266 269 267 269 267 266 264 261 258 261 261 263 262 262 262 263 263 265 263 263 262 262 263 263 262 261 261 261 262 261 260 260 260 260 261 260 260 260 260 261 262 260 260 0 0 0 0 0
    0 0 0 0 0 0 0 0 0 0 0 0 0 0 0 0 0 0 0 0 0 0 0 0 0 0 0 0 0 0 0 0 0 0 0 0 0 0 0 0 0 0 0 0 0 0 0 0 0 0 0 0 0 0 0 0 0 0 0 0 0 0 0 0 0 0 0 0 0 271 273 272 273 272 272 273 272 272 272 272 269 270 271 271 270 270 268 270 269 271 271 271 271 272 272 273 272 271 271 269 268 270 269 268 267 269 270 269 269 268 267 268 269 271 269 270 269 268 270 268 269 268 269 268 269 270 270 269 270 270 270 270 271 269 269 269 269 268 268 267 266 267 266 267 266 269 268 269 267 269 269 271 269 271 268 268 269 271 269 268 266 266 266 265 265 265 266 266 265 266 265 266 267 268 267 267 266 266 267 267 267 268 267 267 265 267 266 268 267 267 267 267 269 270 270 268 268 267 266 266 265 264 264 263 264 264 264 265 265 266 267 266 266 266 265 267 267 266 264 265 265 266 266 266 264 265 266 267 267 265 265 265 265 265 264 264 265 263 263 262 260 263 263 262 262 262 262 263 263 266 262 262 263 0 0 0 0 261 261 260 260 260 260 260 260 261 261 262 264 264 267 267 265 266 265 266 264 264 263 261 258 261 261 263 262 262 262 263 263 265 263 263 262 263 264 265 265 263 263 264 263 264 262 262 261 262 264 263 262 263 262 263 262 262 259 0 0 0 0 0
    0 0 0 0 0 0 0 0 0 0 0 0 0 0 0 0 0 0 0 0 0 0 0 0 0 0 0 0 0 0 0 0 0 0 0 0 0 0 0 0 0 0 0 0 0 0 0 0 0 0 0 0 0 0 0 0 0 0 0 0 0 0 0 0 0 0 0 0 0 272 273 272 273 272 272 273 272 272 271 272 269 269 271 271 270 270 268 270 269 271 272 271 271 272 272 273 271 271 271 270 269 271 270 269 268 270 270 269 269 268 267 268 270 271 269 269 270 268 270 269 270 269 270 268 270 270 271 269 271 269 270 270 271 269 269 269 269 268 268 268 266 268 266 268 266 269 269 269 268 269 269 271 269 272 267 268 268 270 268 268 266 267 267 266 265 265 266 266 265 266 265 266 266 268 267 267 266 266 267 268 268 268 267 267 266 268 267 268 268 268 267 268 270 270 270 269 267 267 266 266 266 265 265 264 265 264 264 264 265 265 266 266 265 266 265 267 267 266 265 265 266 266 266 266 264 265 266 267 267 266 266 266 266 266 265 264 264 263 263 262 261 263 263 262 263 263 263 263 263 266 262 262 263 0 0 0 0 261 260 260 260 259 260 260 260 261 260 262 263 264 266 266 265 265 264 265 263 263 261 260 257 261 261 263 262 262 262 262 263 264 263 263 262 264 264 265 266 264 263 264 264 264 262 262 261 262 263 263 262 262 261 263 262 262 258 0 0 0 0 0
    0 0 0 0 0 0 0 0 0 0 0 0 0 0 0 0 0 0 0 0 0 0 0 0 0 0 0 0 0 0 0 0 0 0 0 0 0 0 0 0 0 0 0 0 0 0 0 0 0 0 0 0 0 0 0 0 0 0 0 0 0 0 0 0 0 0 0 0 0 272 273 272 272 272 271 272 271 271 270 272 269 269 271 271 270 270 269 271 270 271 272 272 272 273 272 273 271 271 271 270 269 271 270 269 269 270 270 269 270 269 268 269 270 271 269 270 270 268 270 268 270 269 270 268 271 271 272 270 271 269 270 270 271 268 269 268 268 268 269 268 266 268 266 267 266 269 269 269 268 269 269 271 269 272 268 268 268 269 269 269 267 268 268 267 266 266 266 267 265 265 264 265 266 267 267 267 266 267 267 268 268 268 267 268 266 269 267 269 269 268 268 269 270 271 270 269 267 267 266 266 266 265 265 264 265 264 264 265 266 265 266 266 265 266 265 267 267 266 265 265 266 266 266 267 264 265 266 268 268 267 267 266 266 267 265 265 265 264 264 263 261 263 263 263 263 263 263 263 263 266 262 262 263 0 0 0 0 260 260 260 260 259 260 260 260 260 260 261 263 263 265 265 264 265 264 266 263 264 262 261 257 261 261 263 262 262 261 262 262 264 263 263 262 263 264 265 265 263 263 264 263 263 261 260 260 261 262 262 261 261 261 263 262 262 259 0 0 0 0 0
    0 0 0 0 0 0 0 0 0 0 0 0 0 0 0 0 0 0 0 0 0 0 0 0 0 0 0 0 0 0 0 0 0 0 0 0 0 0 0 0 0 0 0 0 0 0 0 0 0 0 0 0 0 0 0 0 0 0 0 0 0 0 0 0 0 0 0 0 0 272 273 272 273 272 272 272 271 271 270 272 269 269 271 271 270 271 270 272 270 271 273 272 272 272 272 273 271 271 272 271 270 271 271 270 269 271 271 270 270 270 269 270 271 271 270 270 270 268 269 268 269 268 270 268 271 271 272 270 271 269 270 270 270 268 269 268 268 268 269 268 266 268 266 267 267 269 269 269 269 269 269 271 270 272 268 269 268 269 269 270 268 268 268 267 266 266 267 267 265 266 265 265 266 267 267 268 267 268 267 269 269 269 268 269 266 269 267 269 268 268 268 268 269 271 270 269 267 267 266 265 265 265 265 264 265 265 265 265 266 266 267 266 266 266 266 268 268 266 265 265 266 266 266 267 264 265 266 268 267 266 267 266 266 267 266 265 265 264 264 263 261 264 263 262 262 263 263 263 263 265 262 262 263 0 0 0 0 260 260 260 260 260 260 260 260 260 260 261 262 263 264 264 264 265 264 267 264 265 263 262 258 261 261 263 262 262 262 262 262 264 262 263 262 263 263 264 264 263 262 263 263 263 261 261 261 261 262 262 262 262 261 264 264 264 261 0 0 0 0 0
    0 0 0 0 0 0 0 0 0 0 0 0 0 0 0 0 0 0 0 0 0 0 0 0 0 0 0 0 0 0 0 0 0 0 0 0 0 0 0 0 0 0 0 0 0 0 0 0 0 0 0 0 0 0 0 0 0 0 0 0 0 0 0 0 0 0 0 0 0 272 273 273 273 273 272 273 272 272 270 272 270 269 271 271 270 271 270 272 270 271 272 270 271 272 271 272 270 270 271 270 270 271 271 270 269 270 270 269 270 269 269 270 271 272 270 270 270 268 269 269 269 268 269 268 271 270 271 270 271 269 270 270 270 268 270 268 268 268 269 268 267 268 267 267 267 269 269 269 269 269 269 271 270 272 268 269 268 269 269 270 268 268 268 267 267 266 267 267 266 266 265 266 267 268 268 268 267 269 268 269 269 269 268 269 266 268 266 268 268 268 268 268 269 270 269 269 267 267 266 266 266 265 265 265 266 266 266 267 267 267 267 266 266 266 266 268 268 266 265 265 266 266 266 266 264 264 266 267 266 265 266 266 265 266 266 265 265 264 264 263 261 264 263 263 263 263 263 263 263 265 262 262 263 0 0 0 0 0 261 260 260 260 260 260 260 261 260 261 262 262 263 263 264 264 264 266 264 265 263 262 259 261 261 263 262 262 262 262 262 264 263 263 262 263 263 264 264 263 262 263 263 263 262 261 261 262 263 263 262 263 262 264 265 266 263 0 0 0 0 0
    0 0 0 0 0 0 0 0 0 0 0 0 0 0 0 0 0 0 0 0 0 0 0 0 0 0 0 0 0 0 0 0 0 0 0 0 0 0 0 0 0 0 0 0 0 0 0 0 0 0 0 0 0 0 0 0 0 0 0 0 0 0 0 0 0 0 0 0 0 272 273 273 273 273 273 273 272 272 270 272 270 269 272 271 271 271 270 272 270 271 272 270 271 272 271 272 270 270 271 270 271 271 270 270 269 271 270 269 270 269 269 270 271 271 270 270 270 268 270 269 270 268 269 269 271 270 271 270 271 269 270 270 270 268 269 268 268 268 269 268 267 269 266 267 267 269 269 268 269 269 269 271 271 272 268 270 269 269 269 270 268 268 268 268 267 266 267 268 266 266 266 266 267 268 269 268 267 269 268 269 270 269 268 269 267 269 266 268 267 268 268 268 268 270 269 269 266 266 265 266 266 266 266 266 267 267 267 268 268 267 267 267 266 267 266 268 268 265 264 264 265 265 265 265 264 264 265 267 266 265 266 265 265 266 266 265 265 265 265 263 262 264 264 263 263 264 263 264 263 266 262 263 263 0 0 0 0 0 261 261 260 260 260 260 261 261 260 261 261 261 262 263 263 263 262 265 263 264 263 261 258 261 261 263 262 262 262 262 263 264 263 263 262 263 264 265 265 263 263 263 263 263 261 261 261 261 262 262 262 263 263 265 265 266 264 0 0 0 0 0
    0 0 0 0 0 0 0 0 0 0 0 0 0 0 0 0 0 0 0 0 0 0 0 0 0 0 0 0 0 0 0 0 0 0 0 0 0 0 0 0 0 0 0 0 0 0 0 0 0 0 0 0 0 0 0 0 0 0 0 0 0 0 0 0 0 0 0 0 0 273 273 273 273 273 273 273 272 272 270 271 270 269 272 271 271 271 271 272 271 271 273 270 271 272 272 273 271 271 272 271 271 271 271 270 269 271 270 269 270 269 269 270 271 271 270 270 270 268 270 269 270 269 269 269 271 270 272 271 271 269 270 271 270 268 270 268 268 269 270 268 267 269 266 267 267 269 269 268 269 270 269 271 271 272 268 270 269 269 269 270 268 269 269 269 267 267 268 268 266 267 266 265 267 268 269 267 267 269 268 269 270 269 269 269 267 269 266 268 267 268 268 268 268 269 268 269 266 266 265 266 267 266 267 267 267 268 268 268 268 267 267 267 267 267 266 268 268 264 264 264 264 264 265 265 264 264 266 267 266 266 266 265 265 266 266 265 264 265 265 264 262 264 264 263 263 264 263 264 264 266 263 263 264 263 0 0 0 261 261 261 260 260 260 260 261 262 261 262 262 262 263 263 263 263 262 263 262 262 261 260 258 261 261 263 263 262 262 263 263 264 263 263 262 264 264 265 265 263 263 263 264 263 261 261 261 261 262 262 262 263 262 265 265 266 264 0 0 0 0 0</data></depth>
</opencv_storage>
