<?xml version="1.0"?>
<opencv_storage>
<gps_time_stamp>30892</gps_time_stamp>
<gps_x>-8.5601377487182617e+000</gps_x>
<gps_y>9.9713391065597534e-001</gps_y>
<gps_z>-2.0976693630218506e+000</gps_z>
<image_time_stamp>18864</image_time_stamp>
<depth type_id="opencv-matrix">
  <rows>91</rows>
  <cols>320</cols>
  <dt>s</dt>
  <data>
    0 0 0 0 0 0 0 0 0 0 0 0 0 0 0 0 0 0 0 0 0 0 0 0 0 0 0 0 0 0 0 0 0 0 0 0 0 0 0 0 0 0 0 0 0 0 0 0 0 0 0 0 0 0 0 0 0 0 0 0 0 0 0 0 0 0 0 0 0 623 629 629 623 629 639 613 608 608 603 598 557 549 553 579 561 570 584 584 588 593 584 588 584 613 629 639 651 657 657 657 657 663 663 675 651 623 613 608 623 623 618 629 623 629 629 629 0 0 0 629 634 639 629 623 639 651 651 651 651 645 645 651 675 651 645 645 645 645 645 634 634 634 623 629 623 623 629 629 634 634 629 629 634 634 634 623 629 623 623 623 634 613 613 618 618 613 623 629 623 629 634 629 629 634 634 629 623 629 629 629 629 618 629 629 629 639 639 634 639 639 669 657 651 663 657 657 651 634 639 623 613 608 613 603 608 603 608 618 623 618 618 623 618 623 618 623 618 618 618 618 613 623 608 613 608 629 629 639 645 651 663 645 645 634 634 634 639 634 618 618 623 623 629 623 623 623 623 639 639 669 675 675 675 669 675 675 669 663 645 639 623 608 608 603 603 598 598 598 593 588 603 598 593 593 593 593 588 598 598 598 593 603 588 593 588 588 579 574 566 584 593 579 588 579 584 593 598 598 588 588 593 608 603 598 603 598 598 598 593 588 566 549 545 545 541 0 0 0 0 0
    0 0 0 0 0 0 0 0 0 0 0 0 0 0 0 0 0 0 0 0 0 0 0 0 0 0 0 0 0 0 0 0 0 0 0 0 0 0 0 0 0 0 0 0 0 0 0 0 0 0 0 0 0 0 0 0 0 0 0 0 0 0 0 0 0 0 0 0 0 613 618 618 618 618 618 603 593 593 584 574 545 541 541 557 549 557 566 570 570 574 566 570 557 593 618 629 639 645 645 645 651 663 657 669 639 618 613 608 618 618 613 618 618 623 629 0 0 0 0 0 629 634 623 618 634 639 645 651 645 639 639 645 669 645 639 639 645 639 645 634 629 629 623 623 623 623 629 623 629 629 623 623 634 629 629 623 629 623 623 623 639 613 613 618 613 608 618 623 623 629 634 629 629 629 634 623 618 623 623 623 623 618 623 629 629 634 634 634 634 639 663 651 645 651 645 645 639 629 629 618 608 603 608 598 598 598 598 613 623 618 618 623 618 623 623 623 618 618 618 618 613 623 608 608 608 623 629 645 645 645 657 645 639 634 629 629 629 623 618 618 618 618 623 623 623 623 623 639 639 657 663 657 651 651 657 663 651 645 639 634 623 598 603 598 598 598 598 593 588 588 603 598 588 588 588 588 584 593 593 593 584 593 579 579 574 579 574 566 561 579 588 579 588 579 584 588 588 588 584 584 593 608 603 598 603 598 598 598 598 588 561 545 545 541 537 0 0 0 0 0
    0 0 0 0 0 0 0 0 0 0 0 0 0 0 0 0 0 0 0 0 0 0 0 0 0 0 0 0 0 0 0 0 0 0 0 0 0 0 0 0 0 0 0 0 0 0 0 0 0 0 0 0 0 0 0 0 0 0 0 0 0 0 0 0 0 0 0 0 0 603 613 613 613 613 608 598 574 574 566 561 545 537 541 557 549 553 566 566 566 570 566 566 549 574 0 0 629 639 639 639 657 669 657 657 634 613 613 608 608 603 598 0 613 623 0 0 0 0 0 0 618 623 613 618 629 634 639 645 639 634 634 639 657 634 634 634 634 634 639 634 629 629 618 623 618 618 623 623 623 623 618 613 623 623 618 613 623 618 623 618 639 608 608 618 608 598 618 623 623 634 639 629 623 629 629 618 618 618 618 618 618 618 623 623 629 634 634 634 634 639 657 645 634 639 639 639 634 623 618 0 603 603 603 598 593 593 593 613 618 618 618 623 618 623 623 623 618 618 613 618 613 618 608 608 608 629 629 645 645 639 651 639 639 634 629 623 629 618 613 613 618 618 623 623 623 623 629 639 645 645 651 639 634 634 639 645 634 634 634 629 618 593 603 598 598 598 598 593 588 588 603 593 588 588 588 584 584 588 588 588 579 588 561 566 561 570 566 557 553 561 584 574 584 579 584 584 584 588 584 579 593 603 603 598 603 598 603 603 598 584 561 541 545 541 533 0 0 0 0 0
    0 0 0 0 0 0 0 0 0 0 0 0 0 0 0 0 0 0 0 0 0 0 0 0 0 0 0 0 0 0 0 0 0 0 0 0 0 0 0 0 0 0 0 0 0 0 0 0 0 0 0 0 0 0 0 0 0 0 0 0 0 0 0 0 0 0 0 0 0 593 598 603 608 608 603 598 557 561 557 557 545 541 545 561 553 553 561 561 561 566 561 561 549 561 553 0 0 0 0 0 645 657 639 634 623 598 0 603 598 603 574 0 613 0 0 0 0 0 0 0 0 608 598 598 618 623 634 639 639 629 629 629 645 629 629 629 629 629 629 629 623 623 618 618 618 618 623 618 618 618 613 608 618 613 613 608 613 613 613 613 629 603 593 603 593 566 608 613 618 623 634 623 618 623 623 613 613 618 613 613 613 613 618 623 629 629 623 629 629 629 639 629 623 629 629 629 629 618 0 0 0 598 593 593 588 588 584 603 613 613 613 618 618 623 618 623 618 613 613 613 608 613 603 603 603 618 623 639 639 634 645 639 639 634 629 623 629 618 618 613 618 618 623 623 623 623 629 639 645 639 639 629 618 618 623 623 623 618 623 629 618 579 598 598 598 598 598 593 588 588 603 593 588 588 588 584 579 584 579 579 570 579 553 557 553 553 553 549 541 553 579 561 574 574 579 579 579 584 584 579 593 598 598 593 598 598 603 603 593 570 549 0 545 541 525 0 0 0 0 0
    0 0 0 0 0 0 0 0 0 0 0 0 0 0 0 0 0 0 0 0 0 0 0 0 0 0 0 0 0 0 0 0 0 0 0 0 0 0 0 0 0 0 0 0 0 0 0 0 0 0 0 0 0 0 0 0 0 0 0 0 0 0 0 0 0 0 0 0 0 570 574 588 593 593 593 579 537 541 549 553 545 541 545 561 549 553 561 561 561 561 557 561 549 561 553 541 553 0 0 553 0 618 0 613 613 0 0 608 603 0 0 0 0 0 0 0 0 0 566 0 588 584 584 574 603 618 629 639 634 623 623 629 639 618 618 618 623 623 623 623 623 623 618 623 618 613 618 613 0 613 608 588 603 603 603 593 603 603 603 603 618 588 574 574 566 549 557 0 0 0 618 613 613 613 613 603 603 613 608 608 608 608 618 618 623 618 613 618 618 618 623 613 608 613 613 618 618 613 0 613 0 598 588 588 588 584 584 593 608 603 608 618 613 618 618 618 613 608 608 608 598 603 593 593 593 603 618 634 634 634 645 639 639 634 629 623 623 618 613 613 618 618 623 623 629 629 629 645 651 645 639 629 623 618 618 623 618 618 623 629 613 579 598 598 598 593 598 593 588 593 603 593 584 588 588 584 579 579 566 566 561 566 541 541 537 541 541 541 537 545 561 553 570 570 574 579 574 574 579 574 588 593 593 588 593 598 603 603 579 557 549 537 545 537 525 0 0 0 0 0
    0 0 0 0 0 0 0 0 0 0 0 0 0 0 0 0 0 0 0 0 0 0 0 0 0 0 0 0 0 0 0 0 0 0 0 0 0 0 0 0 0 0 0 0 0 0 0 0 0 0 0 0 0 0 0 0 0 0 0 0 0 0 0 0 0 0 0 0 0 557 561 566 570 570 561 545 533 537 545 549 541 541 545 557 549 553 557 561 557 557 557 557 549 561 553 541 549 0 541 549 553 584 579 588 593 570 0 593 584 0 0 0 0 0 0 0 0 0 557 0 566 557 561 561 574 598 613 634 629 623 618 623 629 608 608 608 608 613 613 618 618 623 623 623 623 618 618 0 0 608 598 566 588 593 588 584 593 588 588 588 608 566 561 557 557 549 553 557 0 0 0 0 0 0 0 598 598 613 603 603 603 603 613 613 618 613 603 608 608 608 608 598 593 593 603 603 613 603 598 608 598 570 566 574 579 574 579 584 598 598 603 618 613 618 613 613 608 603 598 598 588 593 579 579 574 584 613 623 629 629 634 634 634 629 623 618 623 613 613 613 618 618 623 623 629 629 629 639 645 639 639 629 618 613 613 618 613 618 618 623 613 579 598 598 598 593 593 593 588 593 603 593 579 588 588 584 579 574 561 561 557 557 541 541 537 537 537 537 537 541 553 549 566 566 574 574 570 570 574 570 588 584 579 561 570 584 598 588 557 545 545 533 541 541 533 0 0 0 0 0
    0 0 0 0 0 0 0 0 0 0 0 0 0 0 0 0 0 0 0 0 0 0 0 0 0 0 0 0 0 0 0 0 0 0 0 0 0 0 0 0 0 0 0 0 0 0 0 0 0 0 0 0 0 0 0 0 0 0 0 0 0 0 0 0 0 0 0 0 0 553 553 557 557 557 545 533 533 533 541 545 541 537 545 553 549 549 557 557 557 557 557 0 549 561 557 545 0 0 545 553 553 574 574 579 579 566 579 579 0 0 0 0 0 533 0 0 0 561 553 557 557 553 557 557 557 574 579 618 613 608 598 603 603 593 584 593 588 593 593 603 603 613 613 618 613 608 613 593 593 593 579 553 570 574 570 570 579 574 574 574 598 553 553 553 553 545 549 549 0 0 0 0 0 0 0 579 588 608 598 598 598 603 608 613 613 603 588 588 593 593 593 579 579 574 584 574 588 570 579 588 549 549 549 561 574 570 570 561 584 588 598 613 613 613 608 608 608 593 588 588 574 574 566 561 561 557 603 618 623 618 629 629 629 629 618 613 618 613 613 613 613 618 623 629 629 629 629 639 645 639 634 0 0 603 603 603 598 603 608 613 613 570 598 593 598 593 593 593 588 588 603 588 579 584 588 579 574 574 557 557 553 553 537 537 533 533 537 537 537 541 553 549 566 566 574 574 570 570 574 570 584 574 561 545 545 549 561 549 541 537 537 529 537 541 533 0 0 0 0 0
    0 0 0 0 0 0 0 0 0 0 0 0 0 0 0 0 0 0 0 0 0 0 0 0 0 0 0 0 0 0 0 0 0 0 0 0 0 0 0 0 0 0 0 0 0 0 0 0 0 0 0 0 0 0 0 0 0 0 0 0 0 0 0 0 0 0 0 0 0 549 549 553 549 553 541 533 529 529 541 545 541 537 541 553 545 549 557 557 557 557 557 0 0 566 566 553 553 553 549 553 557 570 570 579 584 570 579 579 566 0 0 0 541 541 541 545 549 557 553 553 553 553 553 553 549 557 553 584 570 584 574 574 570 574 561 570 566 574 566 579 570 588 584 598 584 584 566 557 561 561 557 545 553 557 553 557 566 561 561 561 588 549 549 549 549 545 545 545 0 0 0 0 0 0 0 561 579 598 588 584 588 593 603 603 603 579 570 570 574 579 574 566 561 561 570 557 566 553 561 557 541 545 545 553 561 557 553 541 549 561 574 608 608 608 603 603 603 584 570 570 557 557 553 553 549 549 584 608 608 603 608 618 618 623 613 608 608 598 608 608 613 618 623 623 629 629 629 639 645 639 623 579 561 557 574 557 566 579 588 598 608 566 598 593 598 593 593 593 588 593 598 588 579 588 588 579 570 566 549 549 545 541 529 529 529 529 533 537 537 541 553 549 561 566 574 570 570 570 570 570 584 570 557 537 537 537 537 533 529 529 529 525 529 541 529 0 0 0 0 0
    0 0 0 0 0 0 0 0 0 0 0 0 0 0 0 0 0 0 0 0 0 0 0 0 0 0 0 0 0 0 0 0 0 0 0 0 0 0 0 0 0 0 0 0 0 0 0 0 0 0 0 0 0 0 0 0 0 0 0 0 0 0 0 0 0 0 0 0 0 0 0 0 549 566 553 541 537 537 541 549 541 537 545 557 549 549 557 557 557 557 557 557 553 561 561 549 553 553 549 553 557 566 570 579 588 579 584 584 574 0 0 537 537 533 537 537 545 553 553 553 553 557 557 561 553 553 557 557 553 561 557 557 553 561 557 561 561 561 553 566 557 566 566 584 557 566 545 541 545 541 541 537 545 549 545 549 557 553 557 553 574 549 549 549 549 545 549 545 0 0 0 0 0 0 566 549 561 579 570 566 570 584 593 593 584 557 553 557 561 566 561 557 553 553 557 549 553 545 553 549 541 541 545 545 549 549 541 529 533 541 549 588 593 598 593 593 593 566 553 553 545 545 545 545 545 545 561 593 588 588 593 608 598 613 598 593 593 579 598 603 608 618 623 623 623 629 629 634 634 634 598 549 545 545 553 545 549 557 561 574 603 566 593 593 598 593 593 593 588 593 598 584 579 588 584 574 566 553 541 537 537 533 529 529 529 529 537 537 541 545 557 549 561 566 570 570 566 566 566 566 579 557 549 533 529 533 533 529 525 525 525 521 525 537 529 0 0 0 0 0
    0 0 0 0 0 0 0 0 0 0 0 0 0 0 0 0 0 0 0 0 0 0 0 0 0 0 0 0 0 0 0 0 0 0 0 0 0 0 0 0 0 0 0 0 0 0 0 0 0 0 0 0 0 0 0 0 0 0 0 0 0 0 0 0 0 0 0 0 0 0 0 0 0 566 553 537 537 537 545 549 545 541 545 557 549 549 553 553 553 553 557 0 0 0 557 545 549 549 545 545 549 557 561 570 588 579 584 584 574 0 0 0 0 537 537 541 549 553 557 557 557 561 561 561 557 553 557 553 553 557 553 553 553 557 557 561 561 561 553 561 557 557 561 570 545 553 537 533 537 537 537 533 541 545 541 545 553 553 553 553 566 545 549 545 549 541 545 545 0 0 0 0 0 549 553 545 553 561 553 557 557 561 570 566 557 545 549 549 553 557 557 553 549 549 557 545 553 545 553 545 541 541 541 541 541 537 529 521 529 537 545 553 561 566 570 579 579 553 545 541 537 541 545 545 545 545 553 579 574 579 584 593 570 598 579 588 584 557 593 593 603 613 618 618 618 618 618 623 608 0 579 541 545 541 545 541 545 549 553 557 598 561 593 593 598 588 593 588 588 588 593 579 579 584 584 570 557 545 537 533 533 529 529 529 529 529 537 541 545 541 557 549 557 561 566 566 561 561 561 557 566 549 541 525 525 525 529 529 525 521 525 525 529 537 529 0 0 0 0 0
    0 0 0 0 0 0 0 0 0 0 0 0 0 0 0 0 0 0 0 0 0 0 0 0 0 0 0 0 0 0 0 0 0 0 0 0 0 0 0 0 0 0 0 0 0 0 0 0 0 0 0 0 0 0 0 0 0 0 0 0 0 0 0 0 0 0 0 0 0 0 0 0 0 561 549 529 529 533 545 553 545 541 549 557 549 549 553 553 553 553 0 0 0 0 553 545 545 549 545 545 549 553 557 566 579 579 584 584 0 0 0 0 0 541 541 545 553 553 557 561 557 561 561 561 557 553 557 553 549 557 553 553 553 557 561 561 561 561 553 557 553 553 553 561 541 553 533 529 537 533 537 529 537 541 541 545 549 549 553 549 566 545 549 545 545 541 541 541 0 0 0 537 541 545 545 545 549 553 549 549 549 553 553 553 549 541 545 549 549 553 553 549 549 553 557 545 549 545 553 545 537 537 541 537 537 533 521 514 521 533 537 541 545 545 553 561 566 545 541 537 537 541 545 545 545 545 553 566 561 570 566 566 545 537 545 561 557 541 570 579 593 603 613 608 608 603 608 608 584 557 557 537 541 541 541 541 541 545 545 549 588 553 588 588 593 584 588 584 584 584 588 570 570 574 574 561 553 537 533 529 533 533 529 533 533 533 541 541 545 537 545 545 553 557 557 557 557 557 557 553 561 545 533 521 525 525 525 525 525 521 525 525 529 537 533 0 0 0 0 0
    0 0 0 0 0 0 0 0 0 0 0 0 0 0 0 0 0 0 0 0 0 0 0 0 0 0 0 0 0 0 0 0 0 0 0 0 0 0 0 0 0 0 0 0 0 0 0 0 0 0 0 0 0 0 0 0 0 0 0 0 0 0 0 0 0 0 0 0 0 0 0 0 0 557 0 529 529 541 549 553 545 541 549 557 549 549 553 553 553 0 0 0 0 561 553 549 549 549 545 545 549 553 557 561 570 570 574 0 0 0 0 0 0 541 545 545 553 553 557 561 557 557 561 561 557 553 557 553 549 557 553 557 553 557 561 561 566 566 557 557 549 553 549 549 541 545 537 529 533 533 533 529 537 541 537 541 549 549 549 549 561 549 549 545 545 541 541 537 0 0 0 537 537 541 545 541 545 549 541 545 545 545 541 541 541 541 545 549 549 549 549 549 549 553 557 549 553 549 553 545 537 537 541 537 533 529 521 514 521 529 533 533 533 537 541 549 557 545 537 537 537 545 545 549 549 545 553 557 557 566 557 553 537 533 537 549 549 545 557 561 570 574 588 588 579 566 579 561 549 0 549 529 0 537 537 537 537 541 541 541 574 545 574 579 584 570 574 570 570 574 579 561 561 566 566 557 549 537 537 533 537 533 533 533 533 533 545 541 541 533 537 533 537 545 545 545 545 549 549 549 553 541 525 521 521 521 521 521 521 521 525 529 529 541 537 0 0 0 0 0
    0 0 0 0 0 0 0 0 0 0 0 0 0 0 0 0 0 0 0 0 0 0 0 0 0 0 0 0 0 0 0 0 0 0 0 0 0 0 0 0 0 0 0 0 0 0 0 0 0 0 0 0 0 0 0 0 0 0 0 0 0 0 0 0 0 0 0 0 0 0 0 0 0 0 0 533 529 0 549 553 549 545 545 553 545 549 549 549 549 549 0 553 549 566 549 549 549 553 549 545 553 553 557 561 570 574 574 0 0 0 0 0 0 545 549 549 557 553 557 557 557 557 557 557 557 553 557 553 549 557 553 553 549 553 557 557 561 561 553 553 549 553 549 549 545 545 537 533 537 533 537 533 537 537 541 545 549 549 553 553 561 549 553 549 545 541 0 537 0 0 0 537 537 541 545 545 549 545 545 545 545 545 541 537 537 541 545 545 549 545 549 549 549 553 553 549 553 549 553 549 545 545 545 541 537 533 525 521 521 529 529 529 529 529 533 541 549 541 533 537 537 545 549 549 549 545 553 557 553 561 553 549 537 537 537 545 549 541 545 549 553 549 549 553 0 541 545 541 541 0 541 525 0 533 533 533 533 537 537 533 561 541 557 561 570 557 557 557 557 557 561 549 549 553 553 549 545 529 533 533 537 533 533 537 533 533 545 541 541 529 529 525 521 529 525 525 525 537 541 533 541 533 514 514 518 518 518 521 521 521 525 529 533 545 545 0 0 0 0 0
    0 0 0 0 0 0 0 0 0 0 0 0 0 0 0 0 0 0 0 0 0 0 0 0 0 0 0 0 0 0 0 0 0 0 0 0 0 0 0 0 0 0 0 0 0 0 0 0 0 0 0 0 0 0 0 0 0 0 0 0 0 0 0 0 0 0 0 0 0 0 0 0 0 0 0 514 0 0 541 545 541 541 545 549 545 549 545 545 545 545 549 549 545 557 545 545 545 0 0 0 553 553 557 561 574 579 579 574 0 0 0 0 0 549 553 553 557 553 561 557 557 557 557 557 557 553 557 549 549 553 553 549 549 549 549 549 557 553 545 545 541 549 549 549 549 545 541 537 537 533 537 533 537 537 541 545 549 549 553 553 566 549 553 549 545 545 541 537 537 0 537 537 537 545 545 549 549 549 545 545 545 545 541 541 537 541 545 549 549 545 549 549 549 553 553 549 553 553 561 557 549 553 549 545 541 533 525 521 521 525 525 525 525 529 529 541 545 541 537 541 541 545 549 549 549 549 553 557 553 557 549 545 537 533 537 545 545 537 541 541 541 541 537 541 533 533 533 533 533 0 541 525 0 0 533 533 533 533 533 533 545 533 545 549 557 545 549 545 545 549 549 541 541 545 545 545 541 525 537 533 537 537 537 537 537 537 549 537 537 525 525 518 497 497 497 493 497 504 507 504 518 521 504 507 514 514 514 518 518 521 521 529 533 549 549 0 0 0 0 0
    0 0 0 0 0 0 0 0 0 0 0 0 0 0 0 0 0 0 0 0 0 0 0 0 0 0 0 0 0 0 0 0 0 0 0 0 0 0 0 0 0 0 0 0 0 0 0 0 0 0 0 0 0 0 0 0 0 0 0 0 0 0 0 0 0 0 0 0 0 0 0 0 0 497 487 497 487 507 518 533 529 533 541 545 541 545 545 541 541 541 545 541 541 549 541 537 545 0 0 0 0 553 553 561 579 579 584 579 0 0 0 0 0 553 0 557 557 553 561 561 557 557 557 557 557 553 557 549 549 553 549 549 545 545 549 545 549 541 537 533 541 549 545 549 549 545 541 537 537 533 537 533 537 537 541 545 549 549 553 553 566 553 557 549 545 541 537 537 537 0 541 541 545 553 553 553 553 553 549 545 545 545 541 541 537 541 545 549 549 549 549 549 549 557 553 553 557 557 561 561 553 557 553 545 541 529 525 525 521 525 525 525 529 533 533 541 545 541 537 541 541 549 549 549 553 549 553 557 557 561 553 545 537 537 537 545 545 541 541 537 537 537 533 537 533 529 529 529 529 529 537 525 0 0 537 533 533 533 533 533 537 529 533 537 541 537 537 537 537 537 541 537 537 537 537 537 537 518 533 533 537 537 537 541 541 537 549 537 537 529 529 514 497 497 493 490 497 497 497 497 507 518 500 507 514 511 514 518 518 518 521 525 525 533 537 0 0 0 0 0
    0 0 0 0 0 0 0 0 0 0 0 0 0 0 0 0 0 0 0 0 0 0 0 0 0 0 0 0 0 0 0 0 0 0 0 0 0 0 0 0 0 0 0 0 0 0 0 0 0 0 0 0 0 0 0 0 0 0 0 0 0 0 0 0 0 0 0 0 0 477 474 477 481 487 481 484 477 484 493 511 511 518 529 541 537 541 541 537 537 537 537 537 537 0 533 521 0 0 0 0 0 0 541 0 0 0 0 0 0 343 342 0 0 0 0 549 549 545 553 557 553 553 557 553 553 553 557 549 549 553 549 545 545 545 545 541 541 537 533 525 537 545 545 549 553 549 545 537 537 533 537 533 537 537 537 545 549 549 553 553 566 557 557 553 545 541 537 537 541 541 545 545 545 557 553 557 553 557 549 549 545 549 545 545 537 541 545 549 549 549 549 549 549 557 553 553 557 557 561 561 553 557 553 545 537 529 521 521 521 525 525 525 529 537 537 537 545 537 537 541 541 549 549 553 553 549 557 557 557 561 553 545 537 533 537 545 545 541 541 537 533 537 533 537 533 529 529 529 529 537 537 525 0 0 537 533 533 533 533 533 537 529 521 525 533 525 529 529 529 529 533 529 529 529 529 529 529 507 533 533 537 537 537 541 541 541 553 537 537 529 525 511 497 493 493 490 497 493 490 493 507 507 497 507 514 511 514 518 518 518 518 521 521 500 493 0 0 0 0 0
    0 0 0 0 0 0 0 0 0 0 0 0 0 0 0 0 0 0 0 0 0 0 0 0 0 0 0 0 0 0 0 0 0 0 0 0 0 0 0 0 0 0 0 0 0 0 0 0 0 0 0 0 0 0 0 0 0 0 0 0 0 0 0 0 0 0 0 0 0 471 465 471 477 484 477 481 477 481 487 493 493 500 511 533 529 533 537 533 533 533 533 533 529 0 525 497 0 0 0 525 0 518 521 514 0 0 0 0 0 0 0 0 0 0 0 511 518 525 0 545 545 549 553 549 553 553 553 549 549 553 549 545 545 545 545 541 537 537 529 521 529 541 541 545 549 545 541 533 537 533 533 529 533 533 537 545 545 549 549 553 566 557 561 553 541 541 537 537 537 541 545 545 545 553 553 557 553 557 553 549 549 553 549 545 541 545 549 553 549 549 549 549 549 561 553 553 557 553 557 557 553 553 545 541 537 529 521 525 525 529 529 529 533 537 541 541 545 537 541 541 541 549 549 553 553 549 557 557 557 561 549 541 533 533 533 541 545 541 541 533 533 533 533 533 533 529 529 529 533 0 537 529 0 0 537 533 533 533 533 533 537 529 521 521 529 518 525 529 525 525 525 525 525 525 529 529 529 504 537 537 541 541 541 541 541 541 553 537 533 525 521 504 493 493 490 490 493 490 487 487 500 497 490 507 514 511 514 518 521 518 521 521 514 490 484 0 0 0 0 0
    0 0 0 0 0 0 0 0 0 0 0 0 0 0 0 0 0 0 0 0 0 0 0 0 0 0 0 0 0 0 0 0 0 0 0 0 0 0 0 0 0 0 0 0 0 0 0 0 0 0 0 0 0 0 0 0 0 0 0 0 0 0 0 0 0 0 0 0 0 468 462 468 474 477 477 477 474 477 481 484 484 487 490 518 514 529 533 529 525 529 529 525 518 0 511 487 0 0 0 487 0 484 487 484 471 474 468 462 468 468 474 0 471 0 0 0 0 484 481 525 533 541 549 541 549 549 0 549 0 0 545 0 541 533 541 533 529 533 521 507 514 525 529 541 545 541 533 533 533 529 529 525 529 529 533 541 541 545 545 553 561 553 557 545 529 529 529 525 529 529 0 0 541 545 545 549 549 549 549 545 545 549 549 545 541 545 549 553 553 553 549 549 553 561 557 553 557 557 557 557 553 553 545 541 537 529 529 529 529 533 533 533 537 541 545 541 541 537 541 545 541 549 553 553 553 553 557 553 553 557 545 533 529 529 529 537 541 537 541 533 529 533 533 537 533 533 533 0 0 545 0 529 537 537 533 533 533 533 529 533 537 525 518 518 525 514 525 529 525 525 525 525 525 525 529 529 529 507 541 541 545 541 541 541 541 541 553 533 529 521 514 500 493 490 490 487 493 487 487 487 500 493 490 507 514 507 514 518 521 518 521 525 504 481 477 0 0 0 0 0
    0 0 0 0 0 0 0 0 0 0 0 0 0 0 0 0 0 0 0 0 0 0 0 0 0 0 0 0 0 0 0 0 0 0 0 0 0 0 0 0 0 0 0 0 0 0 0 0 0 0 0 0 0 0 0 0 0 0 0 0 0 0 0 0 0 0 0 0 0 471 468 471 471 477 477 474 474 474 477 477 477 481 481 493 493 514 529 525 521 525 521 518 511 0 500 481 477 477 471 474 471 474 474 474 465 468 465 462 465 465 468 459 465 0 468 471 474 474 474 477 504 504 541 533 541 0 0 0 0 0 0 0 0 525 525 525 521 525 514 500 500 511 521 525 537 533 529 525 529 525 518 511 525 525 533 537 541 541 545 549 561 549 0 0 0 518 0 507 511 0 0 0 0 0 0 541 545 537 541 537 537 545 541 537 533 537 545 545 549 545 549 549 549 561 553 553 553 549 553 549 545 545 541 537 537 529 529 533 533 537 537 0 0 541 545 537 537 533 541 545 545 549 553 553 557 553 561 553 553 549 537 533 529 525 529 533 541 537 541 533 533 537 533 537 537 533 537 541 541 545 0 533 537 537 533 533 533 533 529 533 537 525 521 514 521 511 525 525 525 525 521 521 525 521 529 529 533 507 541 541 545 541 541 541 541 541 553 529 521 518 511 497 493 490 487 487 490 487 484 487 500 497 493 511 511 507 511 514 514 514 514 514 484 477 474 0 0 0 0 0
    0 0 0 0 0 0 0 0 0 0 0 0 0 0 0 0 0 0 0 0 0 0 0 0 0 0 0 0 0 0 0 0 0 0 0 0 0 0 0 0 0 0 0 0 0 0 0 0 0 0 0 0 0 0 0 0 0 0 0 0 0 0 0 0 0 0 0 0 0 471 471 468 471 474 474 474 471 474 474 477 474 477 477 484 487 493 518 514 514 521 514 511 497 0 487 477 474 474 468 468 468 468 471 468 462 465 465 462 465 465 468 457 465 471 468 471 471 471 471 474 481 481 500 504 525 525 0 0 0 0 0 0 0 514 507 507 507 500 500 490 487 0 497 504 529 521 514 514 518 511 504 497 518 514 525 533 537 537 541 549 553 545 0 0 0 0 0 0 0 0 0 0 0 0 0 0 0 504 514 511 507 529 529 518 511 514 533 537 541 537 533 541 541 549 545 545 541 533 545 541 0 537 533 529 525 525 0 0 0 537 537 0 0 541 553 533 533 529 541 545 545 549 549 553 553 553 561 557 553 545 541 533 529 529 529 537 541 537 541 533 533 537 537 537 537 533 541 545 545 545 541 537 537 537 537 533 533 533 529 533 533 525 521 511 514 511 525 525 525 525 521 525 525 525 533 533 537 507 541 541 541 541 541 541 537 537 545 529 518 518 507 497 493 490 487 487 490 487 487 487 500 493 493 511 507 504 511 511 504 504 504 497 477 471 471 0 0 0 0 0
    0 0 0 0 0 0 0 0 0 0 0 0 0 0 0 0 0 0 0 0 0 0 0 0 0 0 0 0 0 0 0 0 0 0 0 0 0 0 0 0 0 0 0 0 0 0 0 0 0 0 0 0 0 0 0 0 0 0 0 0 0 0 0 0 0 0 0 0 0 468 468 468 471 474 474 474 474 474 474 477 474 477 477 481 481 487 500 500 500 511 504 497 490 0 481 474 471 468 465 465 462 465 465 465 459 462 462 462 465 465 468 457 468 471 468 468 471 471 471 471 477 477 481 484 487 490 0 0 0 0 0 0 0 500 493 493 493 484 487 477 477 0 0 481 490 490 493 493 500 497 493 493 511 504 514 525 529 525 533 0 545 0 0 493 0 481 0 477 474 471 468 468 465 0 465 468 474 477 477 487 481 484 504 490 493 493 511 518 533 525 514 521 521 541 533 533 521 507 525 529 0 0 521 514 514 518 525 529 529 529 533 533 545 537 549 525 518 511 529 541 541 545 545 545 549 549 557 553 545 537 533 525 518 521 518 525 533 529 537 533 533 541 537 541 537 537 545 549 549 549 541 541 541 537 537 537 533 533 533 533 533 525 529 514 521 514 529 525 529 529 525 525 525 525 533 537 541 507 541 541 541 541 537 537 533 533 541 525 514 511 504 497 493 487 487 487 487 484 484 487 493 487 484 490 484 481 484 487 484 481 484 481 471 468 468 0 0 0 0 0
    0 0 0 0 0 0 0 0 0 0 0 0 0 0 0 0 0 0 0 0 0 0 0 0 0 0 0 0 0 0 0 0 0 0 0 0 0 0 0 0 0 0 0 0 0 0 0 0 0 0 0 0 0 0 0 0 0 0 0 0 0 0 0 0 0 0 0 0 0 465 468 465 468 471 474 471 471 471 474 474 471 474 474 474 477 477 487 487 487 500 490 487 0 477 474 471 468 465 462 462 462 462 462 465 457 462 462 462 465 468 471 459 468 471 471 471 471 471 471 471 477 474 477 481 477 481 477 0 0 0 0 0 0 490 0 487 490 481 481 471 471 468 468 474 474 474 477 481 484 487 487 487 497 493 497 504 504 493 504 0 525 0 0 484 477 474 474 471 468 465 462 459 457 459 462 465 468 471 474 481 474 477 490 481 484 487 490 497 521 518 493 497 497 518 504 0 0 0 477 0 500 518 500 497 500 507 514 521 525 525 529 533 541 529 545 514 497 490 500 533 537 537 541 0 545 545 553 545 533 521 518 504 487 490 490 487 500 504 533 529 537 541 541 541 541 537 549 549 549 549 545 545 541 541 541 537 533 533 533 533 529 521 533 511 521 514 533 529 533 533 533 529 533 529 541 541 541 507 541 541 541 537 537 537 533 533 541 521 514 507 500 493 493 487 484 484 484 481 484 481 484 477 474 471 451 440 448 446 454 457 448 448 457 459 465 0 0 0 0 0
    0 0 0 0 0 0 0 0 0 0 0 0 0 0 0 0 0 0 0 0 0 0 0 0 0 0 0 0 0 0 0 0 0 0 0 0 0 0 0 0 0 0 0 0 0 0 0 0 0 0 0 0 0 0 0 0 0 0 0 0 0 0 0 0 0 0 0 0 0 468 468 465 468 471 471 471 471 471 471 471 471 471 468 465 468 468 474 474 474 487 481 477 474 471 468 468 465 465 459 459 459 462 462 465 457 465 465 465 468 471 471 459 468 474 471 471 468 471 468 468 477 474 474 477 477 477 474 477 0 0 0 0 0 487 477 481 484 474 474 468 468 465 468 471 471 471 474 474 477 481 481 477 487 484 484 487 484 481 481 487 490 477 481 481 474 474 471 468 465 462 462 454 454 457 457 462 465 462 465 474 468 471 477 474 477 481 481 484 500 504 487 484 484 484 481 477 477 477 474 481 481 490 487 484 484 493 493 504 518 514 518 525 537 518 521 497 487 481 487 525 529 529 537 0 0 545 549 541 521 500 500 490 477 481 481 477 481 481 500 518 533 537 537 537 537 533 545 545 545 545 541 545 541 541 541 537 533 533 533 533 533 529 541 0 533 514 537 529 533 533 533 533 541 533 549 545 545 507 541 541 541 537 537 533 533 529 537 521 511 504 500 493 493 487 487 487 484 481 484 481 481 474 468 462 446 438 443 443 448 448 446 446 451 457 465 0 0 0 0 0
    0 0 0 0 0 0 0 0 0 0 0 0 0 0 0 0 0 0 0 0 0 0 0 0 0 0 0 0 0 0 0 0 0 0 0 0 0 0 0 0 0 0 0 0 0 0 0 0 0 0 0 0 0 0 0 0 0 0 0 0 0 0 0 0 0 0 0 0 0 468 471 465 465 471 471 468 471 471 471 471 468 471 462 459 462 459 462 462 462 477 471 468 468 468 465 465 462 462 459 459 459 465 462 465 459 468 468 471 471 471 474 462 471 474 471 471 468 471 468 468 474 471 474 477 474 474 471 474 481 481 481 0 481 481 474 477 477 468 471 465 465 462 465 471 468 468 471 474 474 474 474 471 477 477 477 477 477 474 474 477 481 474 474 474 468 471 468 465 462 462 459 454 454 457 454 462 459 459 459 468 465 468 474 471 471 474 477 481 481 490 477 477 477 477 474 474 474 471 471 477 477 481 481 481 481 487 484 490 500 497 490 493 504 493 481 487 481 477 477 504 507 514 521 525 0 0 0 529 500 487 484 481 471 474 474 474 474 477 481 490 511 525 521 525 525 521 537 541 541 541 541 545 541 537 541 533 533 533 533 533 533 525 541 0 533 514 533 529 525 0 525 529 541 525 553 549 545 504 541 541 537 537 537 533 529 525 537 521 507 500 500 493 493 490 490 487 484 481 481 477 477 471 465 457 443 438 443 443 448 448 446 448 451 457 465 0 0 0 0 0
    0 0 0 0 0 0 0 0 0 0 0 0 0 0 0 0 0 0 0 0 0 0 0 0 0 0 0 0 0 0 0 0 0 0 0 0 0 0 0 0 0 0 0 0 0 0 0 0 0 0 0 0 0 0 0 0 0 0 0 0 0 0 0 0 0 0 0 0 0 468 471 465 465 468 471 468 471 471 471 468 468 471 462 457 459 454 454 454 457 471 462 465 465 465 462 462 459 459 459 459 459 462 459 465 459 468 468 474 471 474 474 462 471 474 471 471 471 471 468 468 477 471 474 474 474 471 471 474 477 477 474 474 477 477 471 474 471 468 468 462 462 459 462 468 465 468 468 471 471 471 471 465 474 474 471 474 471 468 471 474 474 468 471 471 462 468 462 459 459 457 454 451 451 454 451 459 459 457 457 465 465 465 471 465 468 471 474 474 474 477 468 468 471 471 471 468 468 468 468 474 474 477 477 477 477 481 481 484 487 484 481 481 481 484 474 477 474 474 471 490 493 493 500 511 0 0 0 493 481 474 471 471 465 468 468 468 471 471 471 477 477 497 490 493 490 497 500 0 514 529 525 541 541 537 537 533 529 529 529 529 525 504 518 0 484 481 497 493 487 0 0 484 0 474 0 549 545 497 541 541 537 533 533 529 525 521 533 518 500 497 497 493 493 487 487 487 484 481 481 474 471 462 451 448 443 440 443 443 448 448 448 451 454 462 468 0 0 0 0 0
    0 0 0 0 0 0 0 0 0 0 0 0 0 0 0 0 0 0 0 0 0 0 0 0 0 0 0 0 0 0 0 0 0 0 0 0 0 0 0 0 0 0 0 0 0 0 0 0 0 0 0 0 0 0 0 0 0 0 0 0 0 0 0 0 0 0 0 0 0 468 471 465 465 468 468 468 468 468 471 468 468 468 459 454 454 451 451 451 451 465 457 462 462 465 459 462 457 459 457 457 457 462 459 465 459 468 468 474 468 471 474 462 471 474 471 471 468 471 468 468 477 471 471 471 471 468 471 471 474 474 474 471 474 474 471 471 471 468 468 465 465 462 462 468 465 468 468 468 468 471 465 462 471 471 468 468 465 465 468 468 471 462 468 468 459 462 459 454 457 454 454 451 451 454 451 462 462 459 459 468 468 465 468 465 465 465 468 471 468 471 459 465 468 465 468 465 465 465 465 471 471 474 474 474 474 477 481 477 477 474 471 471 468 471 462 465 465 468 462 477 481 481 484 493 490 0 481 477 474 465 462 465 462 462 465 465 465 465 468 471 465 477 474 477 0 481 477 0 481 493 477 533 533 533 533 533 525 525 525 521 514 487 0 471 468 468 471 471 471 457 465 468 468 462 454 0 0 484 541 541 537 533 533 529 525 518 529 514 497 493 493 493 490 487 487 484 481 481 477 468 465 457 446 446 440 440 443 443 448 448 448 457 454 462 468 0 0 0 0 0
    0 0 0 0 0 0 0 0 0 0 0 0 0 0 0 0 0 0 0 0 0 0 0 0 0 0 0 0 0 0 0 0 0 0 0 0 0 0 0 0 0 0 0 0 0 0 0 0 0 0 0 0 0 0 0 0 0 0 0 0 0 0 0 0 0 0 0 0 0 468 471 462 468 471 468 468 468 468 471 468 471 468 457 454 454 451 448 451 454 465 462 465 465 465 459 462 459 459 457 457 457 462 457 465 459 468 468 471 465 471 471 459 471 474 471 471 468 471 468 468 477 471 474 471 471 471 471 471 474 474 474 471 474 474 474 474 474 468 468 468 468 462 465 471 465 468 468 468 468 468 465 462 468 468 465 468 465 465 465 468 471 462 465 468 459 462 459 454 457 457 454 451 451 457 454 462 462 462 459 465 465 462 465 462 462 462 465 465 465 468 457 462 465 462 465 462 462 462 462 471 471 471 471 471 471 474 474 471 468 465 462 465 462 465 459 462 459 462 462 471 471 474 474 484 481 474 474 471 468 459 459 462 457 459 462 459 462 462 462 468 459 471 468 471 471 474 474 0 477 481 474 493 525 521 525 529 518 514 521 514 500 481 474 465 457 459 462 462 462 448 459 459 459 457 451 459 465 471 541 541 533 529 533 525 521 514 525 511 493 490 493 490 490 487 487 484 481 477 477 462 459 451 443 446 440 440 443 443 448 448 451 459 454 465 468 0 0 0 0 0
    0 0 0 0 0 0 0 0 0 0 0 0 0 0 0 0 0 0 0 0 0 0 0 0 0 0 0 0 0 0 0 0 0 0 0 0 0 0 0 0 0 0 0 0 0 0 0 0 0 0 0 0 0 0 0 0 0 0 0 0 0 0 0 0 0 0 0 0 0 465 474 462 468 471 468 468 468 468 471 468 474 471 462 459 457 454 451 451 451 462 457 462 462 465 459 462 459 459 459 457 459 462 459 465 462 468 468 468 462 471 471 459 471 471 471 471 471 474 471 471 477 474 474 474 471 471 471 471 471 471 471 468 471 471 471 471 471 471 471 468 468 465 468 471 468 468 468 468 465 468 465 462 468 468 465 468 465 465 468 468 471 462 468 468 459 462 459 454 457 457 457 451 454 462 459 465 465 465 465 465 465 462 462 459 462 459 462 462 462 465 454 459 462 462 465 462 462 462 462 468 468 468 471 465 468 468 468 465 462 459 457 459 459 462 457 459 459 462 462 468 468 468 468 477 474 471 471 465 465 457 457 462 457 459 459 459 462 459 462 468 459 471 465 468 471 471 471 471 471 477 471 477 487 490 500 514 500 490 493 493 484 474 462 457 451 454 451 454 454 446 454 454 454 451 448 454 457 462 545 541 533 529 533 521 518 507 518 504 490 487 490 490 490 487 487 481 477 477 474 457 454 451 440 443 443 443 443 446 448 446 448 459 454 465 465 0 0 0 0 0
    0 0 0 0 0 0 0 0 0 0 0 0 0 0 0 0 0 0 0 0 0 0 0 0 0 0 0 0 0 0 0 0 0 0 0 0 0 0 0 0 0 0 0 0 0 0 0 0 0 0 0 0 0 0 0 0 0 0 0 0 0 0 0 0 0 0 0 0 0 0 471 459 468 468 468 468 468 468 474 468 474 471 462 459 459 454 451 451 451 457 454 459 459 465 459 462 459 459 462 459 459 465 462 468 465 471 471 471 465 471 468 459 471 471 471 471 471 474 471 471 477 474 477 474 471 468 468 468 468 468 468 465 468 468 468 471 471 471 471 471 471 468 471 471 471 471 471 468 465 468 465 462 468 468 468 468 468 468 468 471 471 465 468 468 459 462 459 454 457 457 454 451 457 465 465 468 471 468 471 471 471 462 462 457 459 459 462 462 462 462 451 459 462 462 462 462 459 459 462 468 468 465 468 465 468 468 468 465 459 457 457 457 459 459 457 459 457 462 462 465 465 462 462 471 468 465 465 462 462 457 457 462 457 459 459 457 459 459 462 468 459 468 465 468 468 468 468 468 468 471 465 468 471 474 477 481 481 471 471 474 474 462 451 448 448 451 448 451 451 443 451 451 454 451 448 454 457 459 549 545 533 525 525 507 500 493 507 493 484 484 487 487 487 487 484 481 477 474 474 454 454 448 440 446 443 443 446 446 448 446 448 459 451 462 462 0 0 0 0 0
    0 0 0 0 0 0 0 0 0 0 0 0 0 0 0 0 0 0 0 0 0 0 0 0 0 0 0 0 0 0 0 0 0 0 0 0 0 0 0 0 0 0 0 0 0 0 0 0 0 0 0 0 0 0 0 0 0 0 0 0 0 0 0 0 0 0 0 0 0 0 471 459 465 468 468 468 468 468 471 468 474 471 459 457 457 451 448 448 446 448 451 459 0 465 457 462 459 459 462 459 459 468 465 471 471 474 474 471 468 474 471 462 471 471 468 468 471 474 468 471 0 474 477 477 474 468 468 465 465 465 465 462 465 465 468 471 471 471 474 474 474 471 474 474 474 471 474 471 462 468 462 459 468 468 468 468 468 471 471 474 474 468 468 468 459 462 459 451 454 457 451 451 457 468 468 471 474 471 474 474 481 465 459 457 459 459 462 462 462 462 451 459 462 459 462 459 459 459 459 468 465 462 468 462 465 465 465 462 457 454 454 457 457 457 457 459 459 462 462 465 465 462 459 468 465 459 462 457 462 454 457 462 459 462 462 459 462 459 465 471 462 468 465 468 468 468 468 465 465 468 465 465 468 471 468 468 468 459 457 459 462 454 446 446 448 451 448 451 448 443 451 451 454 454 451 457 457 459 545 541 521 504 493 481 481 481 490 484 477 474 484 484 484 484 484 477 474 471 471 451 454 451 443 446 446 446 448 448 454 448 451 465 454 465 459 0 0 0 0 0
    0 0 0 0 0 0 0 0 0 0 0 0 0 0 0 0 0 0 0 0 0 0 0 0 0 0 0 0 0 0 0 0 0 0 0 0 0 0 0 0 0 0 0 0 0 0 0 0 0 0 0 0 0 0 0 0 0 0 0 0 0 0 0 0 0 0 0 0 0 462 471 459 468 468 468 468 468 468 471 468 474 468 459 457 454 448 443 443 440 443 448 0 0 465 457 462 459 462 465 462 465 468 468 471 474 474 474 471 468 474 468 462 471 468 468 468 468 471 468 471 477 471 477 477 474 468 468 465 462 462 462 459 465 465 468 468 471 474 474 477 477 477 477 477 477 474 477 471 459 468 459 459 468 468 468 468 468 471 471 471 474 468 465 462 457 459 457 451 454 457 451 454 462 471 471 474 477 474 474 474 477 465 459 457 462 459 462 462 462 462 448 459 462 459 459 459 459 457 457 468 462 459 462 457 462 459 462 459 457 454 454 457 459 459 459 462 465 468 468 471 471 468 465 471 468 459 462 457 462 457 457 462 459 462 462 462 465 459 468 471 465 468 465 468 468 468 468 465 465 468 465 465 465 465 465 462 459 454 454 454 459 454 446 446 448 451 448 451 451 443 451 451 454 454 451 459 457 457 0 0 477 468 462 462 462 459 471 471 471 471 481 481 484 481 481 477 474 471 468 448 454 451 443 448 446 448 448 448 457 448 451 465 457 465 459 0 0 0 0 0
    0 0 0 0 0 0 0 0 0 0 0 0 0 0 0 0 0 0 0 0 0 0 0 0 0 0 0 0 0 0 0 0 0 0 0 0 0 0 0 0 0 0 0 0 0 0 0 0 0 0 0 0 0 0 0 0 0 0 0 0 0 0 0 0 0 0 0 0 0 457 468 457 465 468 468 468 468 468 471 468 477 468 462 459 454 448 443 448 446 446 454 457 459 462 457 459 462 462 468 465 468 471 471 471 474 471 471 471 465 471 465 462 471 468 468 468 468 471 468 474 477 471 477 477 474 468 465 462 459 459 459 457 462 462 468 468 474 474 477 481 481 481 477 477 477 474 474 471 457 465 457 459 465 465 465 468 468 471 471 471 471 468 462 459 454 454 451 448 451 451 451 457 468 474 471 474 477 474 477 474 481 468 462 457 462 462 462 462 462 462 448 459 462 459 459 457 459 457 457 465 459 457 459 457 459 457 462 462 457 457 457 457 462 462 462 465 468 471 471 474 474 468 468 471 468 462 462 459 462 454 457 462 459 462 462 462 465 459 468 471 465 468 465 465 468 465 468 465 462 465 462 462 465 465 465 459 459 454 454 451 459 451 448 446 448 448 448 451 451 446 451 451 454 454 454 459 459 459 477 459 457 451 451 454 457 454 459 459 459 465 474 474 477 474 474 468 468 465 462 446 454 448 443 448 448 448 451 451 459 451 454 468 462 468 462 0 0 0 0 0
    0 0 0 0 0 0 0 0 0 0 0 0 0 0 0 0 0 0 0 0 0 0 0 0 0 0 0 0 0 0 0 0 0 0 0 0 0 0 0 0 0 0 0 0 0 0 0 0 0 0 0 0 0 0 0 0 0 0 0 0 0 0 0 0 0 0 0 0 0 454 468 454 468 465 468 468 468 465 468 465 477 465 462 459 457 448 448 462 459 457 468 468 468 468 0 465 465 465 468 465 471 474 471 471 474 468 468 465 459 468 462 462 471 468 468 468 468 471 471 474 477 471 477 477 474 471 468 462 459 462 459 459 462 462 468 471 474 477 477 481 0 481 481 481 477 474 474 468 457 465 457 459 465 465 465 465 468 471 468 474 471 468 462 457 451 451 448 448 451 451 451 462 471 474 471 474 477 474 477 474 477 465 462 457 462 462 462 459 462 462 448 459 462 459 459 457 459 457 457 465 457 457 459 454 459 454 459 462 454 457 454 457 462 462 462 465 468 471 471 474 474 468 468 468 468 462 462 459 462 454 459 462 459 462 462 459 462 459 468 471 465 468 465 465 465 465 465 462 462 462 462 462 462 465 465 459 462 457 457 454 459 451 448 446 448 448 446 451 451 443 451 451 454 457 457 462 459 459 477 462 454 454 454 457 459 454 457 454 454 459 459 459 457 451 454 451 454 451 454 443 451 448 446 448 448 448 451 451 459 451 454 471 465 468 457 0 0 0 0 0
    0 0 0 0 0 0 0 0 0 0 0 0 0 0 0 0 0 0 0 0 0 0 0 0 0 0 0 0 0 0 0 0 0 0 0 0 0 0 0 0 0 0 0 0 0 0 0 0 0 0 0 0 0 0 0 0 0 0 0 0 0 0 0 0 0 0 0 0 0 451 465 451 465 465 465 468 465 465 468 465 477 465 465 462 454 451 454 465 462 459 471 468 468 468 465 465 468 465 471 465 468 471 471 471 474 465 468 465 459 468 459 462 471 468 468 468 471 471 471 477 477 465 474 477 477 474 474 468 465 468 465 468 462 465 468 471 471 477 477 481 481 481 481 477 474 471 471 468 457 465 454 459 465 465 465 465 465 471 468 474 471 468 465 457 454 454 451 451 457 459 462 471 477 477 474 474 474 471 477 471 474 459 459 454 462 462 462 462 465 465 448 462 459 459 459 457 459 457 457 465 457 459 459 454 457 451 459 459 454 454 454 457 462 462 462 465 465 471 471 471 471 465 468 468 468 462 462 459 462 454 459 462 462 459 462 459 462 459 468 468 465 468 465 465 465 465 465 462 462 462 462 459 459 462 465 459 459 457 459 457 459 454 448 446 448 448 448 451 448 443 451 451 454 457 457 462 459 459 477 468 457 457 454 459 459 457 457 454 454 457 454 448 446 443 443 446 446 446 451 443 451 451 446 448 448 451 451 451 462 451 451 471 462 465 454 0 0 0 0 0
    0 0 0 0 0 0 0 0 0 0 0 0 0 0 0 0 0 0 0 0 0 0 0 0 0 0 0 0 0 0 0 0 0 0 0 0 0 0 0 0 0 0 0 0 0 0 0 0 0 0 0 0 0 0 0 0 0 0 0 0 0 0 0 0 0 0 0 0 0 451 462 448 465 462 465 468 465 462 465 465 477 462 465 462 454 451 0 465 462 459 468 465 468 0 0 0 0 465 468 462 468 468 471 471 0 0 0 0 459 468 457 462 468 465 468 468 468 471 471 477 474 465 474 477 477 477 474 471 465 0 0 471 462 465 468 471 471 474 477 474 0 477 474 471 468 465 468 465 457 465 454 459 465 462 465 465 465 471 468 474 471 468 465 457 454 454 454 451 457 462 462 477 484 477 471 468 465 459 465 465 462 454 451 451 459 462 465 462 468 468 448 462 459 459 462 457 462 457 457 468 457 462 457 451 457 448 457 457 454 454 451 457 465 462 465 468 468 471 471 471 471 465 468 465 465 459 462 459 462 454 459 462 462 459 462 459 462 462 468 471 468 468 468 468 468 465 465 465 462 462 462 459 462 462 465 459 459 459 459 457 462 454 451 446 451 448 448 451 448 446 451 451 454 457 457 459 457 459 474 468 459 457 457 459 459 457 459 457 454 459 454 448 443 443 443 446 448 448 451 443 454 451 448 451 451 451 451 451 462 451 451 465 459 457 438 0 0 0 0 0
    0 0 0 0 0 0 0 0 0 0 0 0 0 0 0 0 0 0 0 0 0 0 0 0 0 0 0 0 0 0 0 0 0 0 0 0 0 0 0 0 0 0 0 0 0 0 0 0 0 0 0 0 0 0 0 0 0 0 0 0 0 0 0 0 0 0 0 0 0 448 459 448 462 462 465 468 465 462 465 465 477 465 468 462 457 451 0 0 459 457 462 459 0 0 0 0 0 0 462 0 0 0 0 0 255 0 0 0 0 468 454 459 468 465 468 468 468 471 468 477 474 468 474 477 0 0 0 0 0 108 107 0 462 465 468 471 471 474 474 471 0 474 0 468 465 462 465 465 457 462 454 459 462 462 465 465 465 471 468 474 471 468 465 457 454 454 454 454 459 462 462 481 484 477 468 462 459 454 451 457 457 451 448 451 459 462 465 462 468 468 448 462 459 462 462 459 462 457 457 468 457 462 457 454 459 451 459 457 454 457 451 457 465 462 465 465 468 468 468 471 471 465 465 465 465 459 462 459 459 454 459 459 462 459 462 459 462 462 471 471 468 471 468 468 465 465 465 465 462 462 462 462 462 465 468 462 462 465 465 462 462 454 451 446 454 448 448 454 448 446 451 451 457 457 457 459 457 462 474 465 462 459 457 465 462 459 462 459 457 462 454 448 446 443 443 446 448 448 454 446 454 454 448 451 451 454 454 451 465 454 451 462 457 451 435 0 0 0 0 0
    0 0 0 0 0 0 0 0 0 0 0 0 0 0 0 0 0 0 0 0 0 0 0 0 0 0 0 0 0 0 0 0 0 0 0 0 0 0 0 0 0 0 0 0 0 0 0 0 0 0 0 0 0 0 0 0 0 0 0 0 0 0 0 0 0 0 0 0 0 0 459 448 462 459 465 468 465 462 465 465 474 462 465 459 0 0 0 0 459 457 465 459 0 0 0 0 0 0 0 0 0 258 254 254 254 252 0 0 0 468 454 459 468 465 465 465 468 468 468 477 474 462 468 468 471 0 0 0 0 108 107 0 0 0 0 0 0 0 0 0 0 0 0 0 0 0 468 468 462 465 454 462 465 465 468 468 468 471 468 474 471 468 462 454 454 457 454 457 459 465 468 481 481 474 462 459 457 0 454 457 457 457 454 454 462 465 465 462 468 468 448 462 459 462 462 459 462 459 457 468 457 465 459 457 459 451 462 459 457 459 451 459 465 462 462 462 465 465 468 468 471 462 465 465 465 459 462 457 457 451 457 459 459 459 462 459 462 465 471 471 468 471 468 468 465 462 462 462 459 462 462 462 465 465 471 462 468 468 465 462 462 448 451 446 457 448 451 457 448 446 454 454 457 457 459 459 457 462 471 468 465 462 459 468 465 462 462 459 459 462 454 451 446 443 443 446 451 448 457 446 454 454 451 454 451 454 454 454 468 454 451 457 451 0 435 0 0 0 0 0
    0 0 0 0 0 0 0 0 0 0 0 0 0 0 0 0 0 0 0 0 0 0 0 0 0 0 0 0 0 0 0 0 0 0 0 0 0 0 0 0 0 0 0 0 0 0 0 0 0 0 0 0 0 0 0 0 0 0 0 0 0 0 0 0 0 0 0 0 0 0 454 448 459 454 462 465 462 457 459 462 471 457 0 0 0 0 340 0 0 0 0 465 0 0 0 0 465 462 448 440 0 0 255 254 254 252 0 0 0 0 454 459 465 465 468 465 465 468 468 474 471 459 462 462 0 0 0 0 0 0 0 0 0 0 0 0 0 0 0 219 0 0 0 0 0 0 0 465 462 468 457 462 465 465 468 468 468 471 468 474 468 468 462 451 454 0 0 0 468 471 481 487 481 474 465 462 462 462 462 459 462 465 459 457 462 465 465 462 468 468 448 462 459 462 462 459 462 459 457 468 457 465 459 457 459 451 465 462 459 462 454 459 465 465 462 462 465 465 468 468 471 462 465 462 465 457 459 457 454 451 457 459 459 459 462 462 465 468 471 468 465 468 465 465 462 459 459 459 459 459 459 459 465 465 474 462 468 468 468 462 457 446 451 446 459 448 451 457 448 448 454 454 457 457 459 459 457 465 471 468 465 468 462 468 468 465 465 462 462 465 457 454 446 446 446 448 451 448 454 446 451 454 454 454 451 454 454 451 468 451 446 446 443 0 430 0 0 0 0 0
    0 0 0 0 0 0 0 0 0 0 0 0 0 0 0 0 0 0 0 0 0 0 0 0 0 0 0 0 0 0 0 0 0 0 0 0 0 0 0 0 0 0 0 0 0 0 0 0 0 0 0 0 0 0 0 0 0 0 0 0 0 0 0 0 0 0 0 0 0 0 0 446 454 448 457 459 457 451 448 454 0 0 0 337 337 339 339 337 336 0 0 0 0 0 0 0 0 0 0 0 0 0 0 0 259 259 263 271 274 0 0 0 465 465 468 465 465 468 468 477 471 462 462 462 0 0 0 0 0 111 0 0 0 0 0 0 0 0 0 0 0 0 0 0 0 0 0 465 465 468 459 465 465 468 468 468 468 471 468 471 468 465 459 451 0 0 0 0 0 0 0 0 481 474 465 465 465 465 465 462 465 471 465 459 465 468 468 465 471 471 451 465 459 462 462 462 465 459 459 468 459 468 462 462 465 459 468 468 468 468 457 462 468 465 459 459 465 465 465 468 471 465 465 465 468 457 462 457 454 454 459 459 459 459 462 462 465 468 465 462 459 465 462 459 459 457 457 459 457 457 459 459 462 459 468 459 462 462 465 457 451 446 451 448 459 446 451 454 446 448 454 454 457 457 459 459 457 465 468 468 468 468 462 471 468 465 465 465 462 468 459 457 448 446 443 448 451 448 454 443 451 454 454 454 451 451 451 448 462 446 440 438 0 0 427 0 0 0 0 0
    0 0 0 0 0 0 0 0 0 0 0 0 0 0 0 0 0 0 0 0 0 0 0 0 0 0 0 0 0 0 0 0 0 0 0 0 0 0 0 0 0 0 0 0 0 0 0 0 0 0 0 0 0 0 0 0 0 0 0 0 0 0 0 0 0 0 0 0 0 0 0 443 448 443 448 451 451 446 440 0 0 0 342 337 337 339 337 336 334 333 0 0 0 269 0 0 0 0 0 274 275 272 0 0 0 266 0 0 280 275 0 0 462 462 465 462 462 465 468 477 468 459 459 0 0 0 0 0 0 0 0 0 0 0 0 0 0 0 0 0 0 0 0 0 0 0 0 468 468 471 459 468 468 468 471 471 471 471 468 474 465 465 462 0 0 0 0 0 0 0 0 0 0 471 465 462 465 465 468 462 468 471 468 462 465 471 471 465 474 474 451 465 462 465 465 462 465 462 459 468 462 471 465 465 468 468 474 474 474 474 459 465 465 462 457 457 462 462 462 465 468 462 465 465 468 459 462 457 454 454 459 459 459 459 462 462 465 468 465 457 454 462 457 459 457 454 454 459 459 457 457 459 459 459 471 457 457 457 462 451 446 443 448 446 459 446 448 451 443 448 451 451 457 457 459 457 457 468 468 471 471 471 465 474 471 465 465 465 462 465 454 454 446 446 446 448 451 448 454 446 451 454 454 454 451 451 454 448 462 443 440 438 0 0 425 0 0 0 0 0
    0 0 0 0 0 0 0 0 0 0 0 0 0 0 0 0 0 0 0 0 0 0 0 0 0 0 0 0 0 0 0 0 0 0 0 0 0 0 0 0 0 0 0 0 0 0 0 0 0 0 0 0 0 0 0 0 0 0 0 0 0 0 0 0 0 0 0 0 0 0 0 440 440 435 0 440 440 432 408 0 0 350 345 343 340 343 340 333 331 0 0 0 0 0 0 0 283 0 0 0 0 0 0 0 0 0 0 0 0 0 0 451 457 457 459 451 451 454 462 474 462 448 0 0 0 0 0 0 0 0 0 0 0 0 0 0 0 0 0 0 0 0 0 459 451 0 0 0 477 477 465 471 471 471 477 477 474 474 474 477 471 468 468 0 0 0 0 0 0 0 0 0 0 471 465 462 465 465 468 462 468 474 471 465 465 471 474 468 0 477 454 465 462 468 465 465 468 462 462 471 465 474 468 0 0 0 0 0 0 477 465 465 465 462 454 454 459 457 459 465 468 465 468 468 471 459 465 457 454 457 459 459 459 459 462 462 465 468 462 454 448 459 454 457 454 454 457 462 462 462 462 465 462 462 471 454 451 451 446 443 440 440 446 443 457 446 448 454 443 451 451 451 457 454 457 457 457 468 468 468 471 471 468 481 474 465 465 462 462 465 457 454 446 446 448 451 451 448 454 443 451 454 454 454 451 451 454 451 462 443 440 438 435 0 425 0 0 0 0 0
    0 0 0 0 0 0 0 0 0 0 0 0 0 0 0 0 0 0 0 0 0 0 0 0 0 0 0 0 0 0 0 0 0 0 0 0 0 0 0 0 0 0 0 0 0 0 0 0 0 0 0 0 0 0 0 0 0 0 0 0 0 0 0 0 0 0 0 0 0 0 0 430 411 397 387 397 0 397 383 366 359 357 355 355 353 353 352 0 0 375 0 0 290 281 0 0 0 0 393 387 379 373 367 373 373 371 371 371 371 371 375 0 440 448 448 438 425 0 0 0 0 0 0 0 0 0 0 0 0 0 0 0 0 0 0 0 0 0 0 0 0 0 0 0 0 0 0 0 0 0 0 481 0 477 484 484 481 481 477 481 0 0 0 0 0 0 0 8177 3679 2537 0 0 0 0 0 0 0 0 477 477 474 0 0 0 0 0 0 0 0 477 451 465 459 465 465 462 468 462 462 471 465 477 471 0 0 0 0 0 0 477 465 465 465 462 454 454 459 457 459 465 468 468 474 474 477 465 471 459 454 459 459 459 457 459 465 465 465 471 462 454 443 457 448 454 457 457 459 465 465 468 468 471 468 462 471 451 446 443 438 438 435 438 440 443 457 446 454 457 446 454 454 454 457 454 457 457 457 468 465 465 468 468 465 477 471 462 462 459 462 462 459 457 448 448 451 451 454 448 451 443 454 454 454 454 448 451 451 451 462 443 440 438 438 432 425 0 0 0 0 0
    0 0 0 0 0 0 0 0 0 0 0 0 0 0 0 0 0 0 0 0 0 0 0 0 0 0 0 0 0 0 0 0 0 0 0 0 0 0 0 0 0 0 0 0 0 0 0 0 0 0 0 0 0 0 0 0 0 0 0 0 0 0 0 0 0 0 0 0 0 0 430 411 399 391 387 393 389 389 381 369 364 364 364 366 367 366 369 369 377 377 379 379 0 0 385 381 383 379 387 381 379 375 369 375 375 373 373 373 373 375 377 387 393 379 0 0 0 0 0 0 0 0 0 0 0 0 0 5661 0 0 0 1989 0 0 0 0 0 0 0 0 0 0 0 0 0 0 0 0 0 0 0 0 0 0 490 490 481 0 0 0 0 0 0 0 0 0 0 7359 0 0 0 0 0 0 0 955 886 0 0 0 1132 1206 1226 1314 1268 0 0 0 0 0 0 462 459 465 462 462 465 462 462 468 465 474 471 687 0 0 0 0 0 481 471 468 465 465 457 454 462 457 462 468 468 474 477 0 487 471 474 462 454 462 462 462 459 459 465 465 468 474 462 454 443 448 443 448 457 457 465 468 468 471 471 474 471 459 468 446 443 440 432 432 432 432 435 440 457 446 457 459 446 454 454 454 457 457 457 457 457 471 462 465 0 462 462 477 471 462 459 459 462 462 462 459 451 454 457 457 454 451 454 443 454 454 454 454 451 454 454 451 462 443 438 435 432 427 422 0 0 0 0 0
    0 0 0 0 0 0 0 0 0 0 0 0 0 0 0 0 0 0 0 0 0 0 0 0 0 0 0 0 0 0 0 0 0 0 0 0 0 0 0 0 0 0 0 0 0 0 0 0 0 0 0 0 0 0 0 0 0 0 0 0 0 0 0 0 0 0 0 0 0 389 399 399 397 391 391 395 391 389 385 375 371 369 369 371 371 369 373 373 379 379 381 381 381 383 385 383 385 379 385 379 379 375 371 375 375 377 377 375 377 377 381 389 383 375 0 0 0 0 0 0 0 0 0 0 0 0 0 0 0 0 0 0 0 0 0 0 0 213 0 0 0 0 0 0 0 0 0 0 0 0 0 0 0 0 0 0 0 0 0 0 0 1565 1443 0 0 0 0 0 0 782 750 0 0 0 0 0 981 1082 1168 1187 1206 1226 1226 1314 1268 1268 0 0 0 0 0 465 462 468 465 462 468 465 462 471 471 477 474 0 0 0 500 500 0 487 474 468 465 465 454 451 465 459 465 468 471 477 0 0 500 0 0 465 454 468 465 462 459 462 465 468 468 471 457 451 443 448 440 448 457 459 465 471 468 471 471 474 471 457 465 446 440 435 430 430 430 430 435 440 454 446 457 459 443 457 454 454 454 454 457 457 459 471 465 0 0 0 468 484 477 465 462 462 465 465 462 465 457 457 459 459 457 451 454 443 454 457 457 457 451 454 454 451 462 443 438 435 432 430 0 0 0 0 0 0
    0 0 0 0 0 0 0 0 0 0 0 0 0 0 0 0 0 0 0 0 0 0 0 0 0 0 0 0 0 0 0 0 0 0 0 0 0 0 0 0 0 0 0 0 0 0 0 0 0 0 0 0 0 0 0 0 0 0 0 0 0 0 0 0 0 0 0 0 0 0 393 393 391 389 389 393 389 389 385 379 373 373 371 375 373 373 377 375 381 379 383 383 383 385 385 383 385 381 385 379 381 377 371 377 377 379 379 377 381 379 381 389 375 375 377 385 381 373 373 375 381 381 383 0 0 0 0 0 0 0 0 0 0 0 0 0 0 0 0 0 0 0 0 0 0 0 0 0 0 0 0 0 375 369 371 367 366 0 0 0 1752 1565 1471 0 0 2230 0 0 0 782 758 0 0 0 1314 1314 1247 1268 1268 1268 1226 1226 1247 1291 1268 1268 1268 0 0 0 0 0 468 471 468 468 471 471 468 474 474 477 477 0 0 511 500 511 0 529 500 481 474 474 459 451 474 459 468 474 471 0 0 537 514 0 0 465 457 471 468 465 457 462 465 468 465 465 448 448 446 451 443 451 459 462 468 474 471 471 471 0 474 451 457 440 435 432 427 427 427 427 435 0 0 0 457 459 446 459 457 457 457 457 457 459 462 474 468 0 0 0 0 0 0 0 0 0 0 459 454 459 454 451 448 451 451 448 451 443 454 454 457 457 451 451 451 451 462 443 438 435 432 427 422 0 0 0 0 0
    0 0 0 0 0 0 0 0 0 0 0 0 0 0 0 0 0 0 0 0 0 0 0 0 0 0 0 0 0 0 0 0 0 0 0 0 0 0 0 0 0 0 0 0 0 0 0 0 0 0 0 0 0 0 0 0 0 0 0 0 0 0 0 0 0 0 0 0 0 379 389 389 385 385 385 389 385 385 383 377 371 373 371 375 373 375 377 375 381 381 383 383 383 385 385 383 385 381 383 379 381 379 373 379 379 381 379 379 381 379 381 389 373 375 379 387 383 375 375 375 383 383 383 381 0 0 385 391 387 387 387 387 389 0 0 0 0 0 389 391 395 393 0 0 0 0 0 0 0 367 373 377 375 373 377 373 373 375 391 367 0 1599 0 0 1887 0 0 0 799 766 743 750 0 0 0 1338 1291 1291 1268 1268 1247 1247 1291 1314 1291 1291 0 0 0 0 0 471 474 481 465 468 0 0 468 477 0 0 0 0 0 511 500 514 0 533 521 497 490 0 0 0 0 0 0 0 0 0 0 549 0 0 0 0 468 477 471 468 459 462 465 468 465 459 448 446 443 443 0 0 0 0 0 477 0 0 0 0 0 454 451 440 435 430 0 0 0 0 0 0 0 0 451 454 440 457 457 457 454 454 457 459 465 477 0 0 0 0 0 0 0 0 0 0 0 448 0 0 443 440 435 438 438 438 443 440 451 451 451 454 448 448 451 451 462 443 438 435 435 427 422 0 0 0 0 0
    0 0 0 0 0 0 0 0 0 0 0 0 0 0 0 0 0 0 0 0 0 0 0 0 0 0 0 0 0 0 0 0 0 0 0 0 0 0 0 0 0 0 0 0 0 0 0 0 0 0 0 0 0 0 0 0 0 0 0 0 0 0 0 0 0 0 0 0 0 379 387 387 383 385 385 389 385 385 385 377 373 375 371 377 373 375 377 377 381 381 383 385 383 385 385 383 383 379 383 379 379 379 373 379 379 381 379 379 381 379 381 389 373 375 377 385 383 377 375 375 381 383 383 381 0 0 385 391 389 389 391 389 389 387 391 393 0 0 389 389 393 391 391 393 391 375 383 0 0 369 375 379 377 377 381 375 377 379 393 383 393 0 0 0 0 0 774 774 0 0 0 379 375 0 0 0 1314 1314 1291 1338 1314 1268 1471 1443 1501 0 0 0 381 385 0 0 0 0 0 0 381 0 373 381 379 0 0 0 0 518 507 518 0 0 525 0 0 0 395 393 0 0 0 0 0 0 0 0 0 0 0 0 0 0 474 465 457 462 457 459 454 446 440 0 443 0 325 325 0 0 0 0 0 0 0 0 0 462 462 448 438 430 0 0 0 0 0 225 217 0 0 443 432 451 454 451 451 454 457 459 0 0 0 0 0 0 0 0 0 0 0 0 0 0 0 0 0 0 432 432 432 0 0 438 451 448 451 451 448 448 451 451 462 446 440 440 440 432 427 0 0 0 0 0
    0 0 0 0 0 0 0 0 0 0 0 0 0 0 0 0 0 0 0 0 0 0 0 0 0 0 0 0 0 0 0 0 0 0 0 0 0 0 0 0 0 0 0 0 0 0 0 0 0 0 0 0 0 0 0 0 0 0 0 0 0 0 0 0 0 0 0 0 0 377 385 383 383 387 387 389 387 385 387 383 377 379 375 377 375 377 379 377 381 381 385 387 385 387 387 385 385 381 385 381 381 379 373 381 381 381 379 379 381 379 381 389 375 375 377 383 381 375 375 375 379 381 383 0 0 0 387 393 389 391 0 391 391 389 391 393 391 393 389 389 391 391 391 391 391 377 383 383 381 369 377 379 377 377 381 377 377 379 393 387 395 399 399 0 0 0 0 0 0 393 385 381 375 371 371 369 0 0 0 0 0 0 0 0 383 383 383 379 379 381 385 389 383 387 379 373 381 377 373 377 379 379 379 0 0 521 504 518 0 521 0 0 0 397 393 389 381 381 377 377 387 385 375 0 0 0 387 0 0 0 0 0 0 0 0 0 0 0 0 0 0 0 0 0 0 246 244 238 0 0 0 0 0 0 0 462 438 0 0 0 0 0 0 0 0 0 0 0 422 443 446 443 438 0 0 0 0 0 0 0 0 0 0 0 8177 7359 0 0 897 0 0 0 0 0 413 0 0 0 0 0 448 446 448 448 448 448 454 454 465 454 451 454 448 438 435 0 0 0 0 0
    0 0 0 0 0 0 0 0 0 0 0 0 0 0 0 0 0 0 0 0 0 0 0 0 0 0 0 0 0 0 0 0 0 0 0 0 0 0 0 0 0 0 0 0 0 0 0 0 0 0 0 0 0 0 0 0 0 0 0 0 0 0 0 0 0 0 0 0 0 377 383 381 381 385 387 389 387 385 387 385 379 381 375 379 375 377 381 379 383 383 385 387 385 387 387 385 385 383 385 383 383 379 373 381 381 383 379 379 381 379 383 389 377 377 377 381 383 377 377 377 381 381 383 383 383 0 389 393 391 393 395 393 393 389 391 391 391 391 387 387 389 389 389 389 387 375 381 381 379 369 377 377 377 377 381 377 379 381 393 387 391 397 395 395 0 0 0 0 397 393 385 383 375 371 371 369 367 0 0 0 0 0 0 383 383 383 383 379 377 377 379 383 377 379 377 373 379 375 373 377 379 377 379 383 385 0 0 0 0 0 0 391 0 391 389 389 385 383 377 379 383 379 375 369 0 375 381 377 379 379 377 381 379 377 377 367 377 0 0 0 0 0 0 0 250 247 246 0 0 0 0 0 0 0 0 0 0 0 0 0 0 0 0 0 0 0 0 0 411 0 0 0 0 0 0 0 0 0 0 0 3345 0 0 0 0 0 0 0 931 0 0 0 0 0 0 0 0 0 0 0 440 440 446 446 446 446 451 451 465 459 454 459 448 438 435 0 0 0 0 0
    0 0 0 0 0 0 0 0 0 0 0 0 0 0 0 0 0 0 0 0 0 0 0 0 0 0 0 0 0 0 0 0 0 0 0 0 0 0 0 0 0 0 0 0 0 0 0 0 0 0 0 0 0 0 0 0 0 0 0 0 0 0 0 0 0 0 0 0 0 377 383 383 381 385 385 387 385 383 385 383 379 381 375 379 377 377 381 377 381 381 385 385 383 387 385 385 385 383 385 381 383 379 375 383 383 383 381 379 381 379 383 389 377 377 377 383 383 381 381 381 383 385 387 387 389 389 391 395 393 395 397 395 393 389 389 391 389 391 387 387 387 387 389 389 387 375 379 377 375 369 377 377 379 379 383 379 379 381 393 383 389 393 393 393 389 389 391 395 395 391 385 383 373 369 371 369 367 0 0 0 0 0 0 381 381 381 381 377 375 375 377 379 375 377 375 373 379 375 373 375 379 377 379 381 385 383 387 387 389 387 391 385 385 383 385 385 385 383 377 381 379 379 375 371 371 373 375 373 375 375 375 377 377 379 383 379 387 377 385 387 373 373 347 0 0 0 0 0 364 366 366 369 377 379 387 373 0 385 371 0 0 0 0 0 0 0 0 0 0 5661 4906 0 4088 0 0 0 0 0 3345 3504 3066 0 0 0 0 0 0 0 0 0 0 0 0 0 0 0 0 391 0 395 413 427 0 443 440 443 448 451 462 457 451 459 448 435 435 0 0 0 0 0
    0 0 0 0 0 0 0 0 0 0 0 0 0 0 0 0 0 0 0 0 0 0 0 0 0 0 0 0 0 0 0 0 0 0 0 0 0 0 0 0 0 0 0 0 0 0 0 0 0 0 0 0 0 0 0 0 0 0 0 0 0 0 0 0 0 0 0 0 0 379 383 383 383 387 383 387 383 381 383 379 377 379 375 379 375 377 379 379 381 381 385 387 383 387 385 385 385 383 385 383 383 379 375 383 383 385 381 381 381 381 385 387 375 377 377 381 383 381 381 381 383 385 387 389 391 391 391 395 393 395 397 395 393 389 389 389 387 389 385 385 385 383 385 385 383 373 377 377 373 369 379 377 379 381 383 381 381 383 393 383 387 391 389 391 389 389 391 393 393 391 385 385 373 369 371 369 367 367 369 371 373 375 379 379 379 379 379 375 375 375 375 377 375 377 375 373 379 375 375 375 379 377 379 383 385 381 385 387 389 387 389 385 383 383 385 387 385 383 379 379 377 375 373 369 369 371 373 371 373 375 373 375 375 377 379 379 381 375 377 385 373 373 359 352 348 347 0 366 364 367 367 369 373 375 381 371 369 377 369 369 373 373 366 366 387 385 389 395 0 0 0 6133 5661 0 0 0 0 3873 3504 3504 3066 0 0 0 0 0 0 0 0 0 393 391 0 0 0 0 389 387 385 387 393 397 395 0 404 418 0 443 448 443 446 459 448 438 0 0 0 0 0 0
    0 0 0 0 0 0 0 0 0 0 0 0 0 0 0 0 0 0 0 0 0 0 0 0 0 0 0 0 0 0 0 0 0 0 0 0 0 0 0 0 0 0 0 0 0 0 0 0 0 0 0 0 0 0 0 0 0 0 0 0 0 0 0 0 0 0 0 0 0 377 381 383 381 385 383 385 381 377 381 377 375 379 375 379 375 377 379 379 381 383 385 387 383 387 387 385 385 383 385 383 383 379 377 385 385 385 381 381 383 381 385 387 375 377 377 381 383 381 381 381 383 385 385 387 391 391 391 395 395 397 399 397 397 393 389 389 387 387 383 381 379 379 383 0 379 371 377 377 373 371 379 379 381 381 385 381 381 385 393 387 389 391 389 391 389 389 391 391 391 391 385 385 373 367 369 367 367 367 369 371 371 373 377 377 377 377 377 375 375 375 375 377 377 377 377 375 381 375 375 375 379 377 379 381 383 381 385 385 387 385 387 385 383 383 385 387 387 387 383 381 377 377 375 371 369 371 373 373 373 375 373 375 375 377 379 377 379 377 375 383 375 375 367 362 360 353 0 367 366 367 367 369 371 373 379 373 369 377 369 369 373 373 366 367 379 377 383 389 393 391 0 0 0 0 0 0 0 0 3345 3345 3066 0 0 0 0 0 0 381 0 0 391 389 0 0 0 389 385 385 381 381 387 391 385 383 375 387 383 0 0 0 0 0 0 0 0 0 0 0 0 0
    0 0 0 0 0 0 0 0 0 0 0 0 0 0 0 0 0 0 0 0 0 0 0 0 0 0 0 0 0 0 0 0 0 0 0 0 0 0 0 0 0 0 0 0 0 0 0 0 0 0 0 0 0 0 0 0 0 0 0 0 0 0 0 0 0 0 0 0 0 377 379 383 381 385 381 383 379 377 379 379 377 379 375 379 375 377 379 379 381 383 383 389 383 389 389 387 387 385 387 383 383 379 377 385 385 385 381 381 383 381 385 385 375 375 377 381 383 381 381 383 383 385 387 389 393 0 0 397 0 402 406 404 399 393 389 389 385 385 379 377 375 375 0 0 0 0 375 375 373 369 379 379 381 383 385 383 383 385 393 387 389 391 389 391 389 391 389 391 391 391 387 385 371 369 369 367 367 367 369 371 373 375 377 375 375 377 379 377 375 373 375 375 377 379 377 375 381 373 377 377 379 379 379 381 383 379 385 385 385 385 385 385 383 383 385 387 387 389 385 383 379 379 375 371 371 373 373 373 373 375 375 375 375 377 377 377 377 377 375 381 375 375 371 367 366 360 0 369 0 0 369 369 373 373 379 375 369 375 369 369 373 373 367 369 379 375 381 387 391 389 391 393 0 389 389 389 389 0 0 0 0 0 0 0 0 389 385 385 391 393 393 393 0 0 0 387 385 383 381 379 381 389 381 375 369 375 375 0 0 994 0 0 0 0 561 0 0 0 0 0
    0 0 0 0 0 0 0 0 0 0 0 0 0 0 0 0 0 0 0 0 0 0 0 0 0 0 0 0 0 0 0 0 0 0 0 0 0 0 0 0 0 0 0 0 0 0 0 0 0 0 0 0 0 0 0 0 0 0 0 0 0 0 0 0 0 0 0 0 0 381 381 383 383 387 383 385 381 377 381 379 379 379 377 379 375 375 379 379 379 379 381 387 383 389 389 389 387 387 387 385 385 379 379 385 385 385 381 381 383 381 385 385 373 373 375 379 381 379 379 381 381 383 389 389 0 0 0 0 0 0 406 404 399 393 389 389 385 383 379 377 375 373 0 149 0 0 373 375 373 371 379 379 381 383 385 383 383 385 393 387 389 389 387 389 389 391 389 389 389 389 387 383 369 367 369 367 367 367 369 371 375 377 379 377 377 379 379 377 375 373 375 375 377 379 377 377 379 373 379 377 381 379 379 381 383 379 385 383 383 383 385 385 381 381 385 387 385 387 385 381 379 379 377 373 371 373 375 375 375 377 375 377 377 379 379 377 379 377 375 379 375 375 371 369 369 366 369 371 369 371 371 371 373 373 379 375 369 377 369 369 375 375 371 371 381 377 383 389 391 389 391 391 0 389 389 387 387 387 385 383 381 381 383 387 387 387 383 383 387 389 387 389 379 381 379 383 381 381 377 377 377 383 379 375 369 369 369 0 0 0 0 0 0 651 613 0 0 0 0 0
    0 0 0 0 0 0 0 0 0 0 0 0 0 0 0 0 0 0 0 0 0 0 0 0 0 0 0 0 0 0 0 0 0 0 0 0 0 0 0 0 0 0 0 0 0 0 0 0 0 0 0 0 0 0 0 0 0 0 0 0 0 0 0 0 0 0 0 0 0 385 385 387 387 389 385 389 385 381 383 381 381 379 377 379 375 373 377 377 377 375 379 383 381 387 389 387 389 389 389 385 387 379 379 387 387 385 381 381 383 381 385 385 375 373 375 377 379 379 377 379 377 379 387 387 0 389 0 0 0 0 404 399 397 391 389 389 385 383 379 377 375 373 0 0 0 0 373 377 375 371 381 379 381 385 385 385 383 385 393 387 387 389 385 389 389 389 387 389 389 389 387 383 371 369 371 367 366 367 369 373 375 379 379 379 377 379 381 379 375 373 373 373 377 379 377 377 381 373 379 377 381 379 379 381 381 379 385 383 383 383 385 383 381 381 385 385 385 387 385 381 379 379 377 373 373 373 375 375 375 377 377 377 379 379 379 377 379 379 377 379 377 375 373 371 369 367 369 371 369 371 373 371 373 375 381 379 373 381 373 373 377 377 375 373 383 379 385 387 389 389 389 389 391 387 389 387 387 385 385 381 381 379 381 385 383 383 381 379 383 383 381 381 375 373 373 377 377 375 375 373 373 377 375 371 367 366 364 367 0 0 0 0 0 0 0 0 0 0 0 0
    0 0 0 0 0 0 0 0 0 0 0 0 0 0 0 0 0 0 0 0 0 0 0 0 0 0 0 0 0 0 0 0 0 0 0 0 0 0 0 0 0 0 0 0 0 0 0 0 0 0 0 0 0 0 0 0 0 0 0 0 0 0 0 0 0 0 0 0 0 389 387 389 389 393 391 393 391 383 383 385 383 381 377 377 375 373 377 377 375 375 377 379 381 383 389 387 389 391 391 387 389 379 381 387 387 387 381 383 383 383 387 385 377 375 375 377 377 379 377 379 377 379 385 387 0 387 0 0 0 0 402 397 395 391 389 387 385 383 379 379 375 0 0 0 0 0 371 377 375 371 381 379 381 385 385 383 383 385 393 387 387 387 385 387 387 389 385 387 387 389 385 379 371 371 373 371 367 367 371 373 377 381 381 379 379 381 383 381 375 373 371 373 375 377 375 375 379 373 381 379 381 379 379 381 381 379 385 381 381 383 383 383 381 379 383 383 383 387 383 381 379 379 377 373 373 373 375 375 375 377 377 377 379 379 379 379 379 379 377 379 377 375 375 373 371 367 371 373 371 371 373 373 373 375 381 381 373 381 375 373 375 375 377 375 383 379 385 387 389 389 389 389 391 389 389 389 389 387 383 379 381 379 377 381 379 381 379 379 381 381 377 379 375 373 373 375 375 375 373 373 373 375 375 371 367 366 364 366 0 0 0 387 391 395 393 0 0 0 0 0
    0 0 0 0 0 0 0 0 0 0 0 0 0 0 0 0 0 0 0 0 0 0 0 0 0 0 0 0 0 0 0 0 0 0 0 0 0 0 0 0 0 0 0 0 0 0 0 0 0 0 0 0 0 0 0 0 0 0 0 0 0 0 0 0 0 0 0 0 0 391 389 391 391 393 393 395 393 387 385 385 381 381 377 377 375 373 375 377 375 375 377 377 377 379 385 385 389 391 391 385 389 379 383 387 387 387 383 383 385 383 387 385 377 375 377 379 379 379 379 381 379 381 387 387 0 387 0 0 389 0 397 395 391 389 387 387 385 383 379 379 0 0 0 150 0 0 0 379 375 371 381 379 383 385 385 385 381 385 393 387 387 387 387 387 389 389 385 387 387 389 383 375 369 371 373 373 369 367 371 375 379 381 381 377 377 379 381 379 373 371 371 371 375 375 375 375 377 371 381 379 379 379 379 381 381 379 385 381 381 383 383 383 379 379 383 383 383 385 383 381 379 379 377 373 373 373 375 373 375 375 377 377 379 379 379 379 379 379 379 379 377 375 377 375 373 369 371 373 373 373 375 375 375 377 383 381 375 381 377 375 375 375 375 375 379 377 383 381 385 387 389 387 391 389 391 389 389 387 381 377 381 377 377 377 375 379 379 381 383 383 379 379 377 373 373 375 375 375 373 373 373 373 373 369 366 366 364 364 0 0 369 373 377 387 385 0 0 0 0 0
    0 0 0 0 0 0 0 0 0 0 0 0 0 0 0 0 0 0 0 0 0 0 0 0 0 0 0 0 0 0 0 0 0 0 0 0 0 0 0 0 0 0 0 0 0 0 0 0 0 0 0 0 0 0 0 0 0 0 0 0 0 0 0 0 0 0 0 0 0 393 391 393 391 393 393 395 393 389 385 385 381 381 377 377 373 371 375 377 375 375 377 377 377 377 387 383 387 389 391 381 389 379 383 387 387 387 383 383 385 383 387 387 375 375 377 379 381 381 0 0 0 383 387 385 387 383 0 385 387 393 393 393 391 387 387 387 383 381 375 0 0 0 0 0 0 0 0 379 375 371 383 381 383 385 385 385 383 387 395 389 389 389 389 389 391 391 385 387 389 389 383 371 369 371 375 375 371 369 371 375 379 381 381 377 377 377 379 379 373 371 371 371 377 377 375 375 377 371 381 381 381 379 379 383 383 379 387 381 381 383 383 383 379 379 381 383 381 385 383 379 381 379 375 373 373 373 373 373 373 375 375 377 377 377 377 377 377 379 377 379 377 375 379 375 375 371 373 375 373 375 377 377 377 377 385 383 377 381 379 377 377 375 377 375 379 375 383 381 383 385 387 383 389 387 391 389 387 387 381 377 383 377 377 377 377 379 379 381 383 381 377 379 377 371 373 373 373 373 371 371 371 371 373 369 366 366 364 364 0 0 0 371 377 387 385 0 0 0 0 0
    0 0 0 0 0 0 0 0 0 0 0 0 0 0 0 0 0 0 0 0 0 0 0 0 0 0 0 0 0 0 0 0 0 0 0 0 0 0 0 0 0 0 0 0 0 0 0 0 0 0 0 0 0 0 0 0 0 0 0 0 0 0 0 0 0 0 0 0 0 393 391 393 391 393 393 395 393 389 383 385 381 379 375 375 373 371 373 375 375 375 379 379 379 379 387 385 385 387 391 379 389 379 381 387 387 387 385 383 385 383 387 387 375 375 377 379 381 381 0 0 0 381 383 381 381 379 379 383 385 0 393 393 391 389 387 387 381 379 373 0 0 0 0 0 0 0 0 0 377 373 383 381 383 385 387 387 385 389 395 389 389 389 389 389 389 389 381 387 387 387 383 371 371 371 375 377 373 371 371 375 381 381 381 377 377 377 381 381 375 373 371 373 379 379 377 377 379 373 383 383 381 381 379 383 383 379 387 381 381 383 381 383 379 379 381 383 381 383 383 379 379 379 375 373 373 373 375 373 373 375 375 375 377 375 375 375 375 375 375 375 377 375 379 377 377 373 375 377 375 377 379 377 377 379 387 387 381 385 383 379 379 381 383 375 379 375 383 381 383 385 385 381 389 387 391 389 387 387 379 377 383 377 377 375 377 379 379 383 383 379 375 377 375 371 371 373 373 371 371 371 371 371 373 369 367 366 364 366 0 367 371 375 377 385 383 0 0 0 0 0
    0 0 0 0 0 0 0 0 0 0 0 0 0 0 0 0 0 0 0 0 0 0 0 0 0 0 0 0 0 0 0 0 0 0 0 0 0 0 0 0 0 0 0 0 0 0 0 0 0 0 0 0 0 0 0 0 0 0 0 0 0 0 0 0 0 0 0 0 0 393 391 393 391 395 395 397 395 389 385 387 381 379 375 375 373 371 375 375 373 375 379 379 379 379 385 381 383 385 389 377 389 381 383 387 387 387 385 385 387 385 389 389 377 377 377 381 381 383 381 383 381 381 381 381 379 379 379 381 383 385 389 389 387 385 385 385 381 379 375 0 0 0 0 0 0 0 0 383 377 375 385 383 383 385 387 389 385 389 393 385 387 385 385 383 385 381 377 385 385 385 383 371 373 375 377 379 375 371 373 377 383 383 383 379 379 379 383 383 377 375 373 373 379 379 379 377 381 373 383 383 383 381 379 383 381 379 387 379 379 383 381 381 379 379 381 381 381 383 383 379 381 379 375 373 373 375 375 375 375 375 375 375 377 373 375 373 373 375 375 375 377 375 381 379 379 373 375 377 375 377 379 377 377 379 389 389 387 389 387 381 385 385 387 375 381 377 385 383 385 385 387 383 389 387 391 389 385 385 377 375 381 377 375 375 375 377 379 383 381 377 375 377 375 371 371 371 371 371 371 369 369 371 371 367 367 366 366 367 373 371 373 381 381 387 385 0 0 0 0 0
    0 0 0 0 0 0 0 0 0 0 0 0 0 0 0 0 0 0 0 0 0 0 0 0 0 0 0 0 0 0 0 0 0 0 0 0 0 0 0 0 0 0 0 0 0 0 0 0 0 0 0 0 0 0 0 0 0 0 0 0 0 0 0 0 0 0 0 0 0 395 393 393 393 395 395 397 395 391 387 387 383 379 373 375 371 371 375 375 373 375 379 379 379 379 385 381 381 385 389 379 389 383 383 387 387 389 387 385 387 385 389 389 377 379 377 381 381 383 381 383 383 381 381 381 379 379 377 379 379 379 383 383 385 383 383 385 383 379 379 0 0 381 0 0 379 375 0 383 377 377 385 383 383 387 387 389 387 389 393 383 385 383 383 381 383 377 375 385 385 383 383 373 375 377 381 381 377 375 377 379 387 385 385 383 383 381 385 383 379 375 373 373 377 377 379 377 379 373 383 383 381 381 381 383 381 379 387 379 379 381 381 381 379 381 381 381 381 381 381 377 379 379 373 373 373 375 375 375 375 375 375 375 377 373 373 373 373 375 375 375 377 377 381 381 379 375 377 377 375 377 379 379 379 381 389 391 389 389 389 383 385 383 385 375 385 381 387 385 387 385 389 381 389 387 391 389 385 383 375 375 379 375 373 373 375 377 377 381 379 377 375 377 375 371 371 371 371 371 371 371 371 371 371 369 367 367 367 369 377 373 377 381 385 389 387 0 0 0 0 0
    0 0 0 0 0 0 0 0 0 0 0 0 0 0 0 0 0 0 0 0 0 0 0 0 0 0 0 0 0 0 0 0 0 0 0 0 0 0 0 0 0 0 0 0 0 0 0 0 0 0 0 0 0 0 0 0 0 0 0 0 0 0 0 0 0 0 0 0 0 397 395 397 395 395 393 395 393 389 385 387 381 377 373 373 371 371 375 375 371 375 379 377 377 377 381 377 379 381 387 379 389 383 383 389 389 389 389 385 387 385 389 389 377 377 377 381 381 383 383 383 383 381 381 381 379 379 379 379 379 377 381 383 383 381 383 383 383 379 379 379 383 383 387 385 383 377 377 383 379 377 385 383 383 385 387 387 385 389 391 379 385 383 383 381 383 375 375 383 387 383 383 373 377 379 381 383 379 377 379 381 389 389 387 385 385 385 385 383 379 377 373 375 377 377 377 377 379 371 383 383 381 381 381 381 381 379 387 379 379 383 379 379 379 381 379 381 379 379 381 377 379 377 373 371 373 373 375 375 375 373 375 375 377 373 373 373 373 373 377 375 379 377 381 383 379 375 377 377 377 377 381 379 379 381 389 389 389 389 387 381 381 379 383 377 383 381 385 385 387 385 389 381 389 387 389 391 383 383 375 375 379 375 373 373 375 377 375 379 377 375 375 375 373 371 371 371 371 371 369 371 371 371 371 371 369 369 367 369 379 375 379 383 387 391 391 0 0 0 0 0
    0 0 0 0 0 0 0 0 0 0 0 0 0 0 0 0 0 0 0 0 0 0 0 0 0 0 0 0 0 0 0 0 0 0 0 0 0 0 0 0 0 0 0 0 0 0 0 0 0 0 0 0 0 0 0 0 0 0 0 0 0 0 0 0 0 0 0 0 0 402 397 399 395 395 393 395 393 387 381 383 377 377 373 373 371 369 375 375 371 375 379 375 377 375 377 371 375 379 383 377 389 383 383 389 389 391 389 387 389 385 389 389 381 381 379 383 385 387 387 385 385 385 381 381 379 381 379 379 379 377 379 385 385 383 383 383 381 379 381 379 383 383 387 385 383 379 377 383 377 377 385 381 383 383 385 387 385 389 389 377 385 385 385 383 383 375 377 385 387 385 385 375 379 381 385 383 381 379 381 383 389 387 387 385 385 383 383 383 379 377 373 375 379 377 379 379 383 373 383 383 381 381 381 381 381 379 387 377 379 383 381 379 379 381 381 381 381 379 379 377 379 375 371 371 371 373 375 375 375 373 375 375 377 373 373 373 373 373 375 375 379 377 383 385 381 375 379 379 377 379 381 379 379 381 389 385 387 385 383 377 375 375 379 377 381 379 383 385 385 387 389 381 387 387 389 391 383 387 375 377 379 375 373 371 373 375 373 375 375 373 373 373 371 371 371 371 371 371 371 371 371 371 371 369 367 369 367 369 379 379 385 387 389 393 391 0 0 0 0 0
    0 0 0 0 0 0 0 0 0 0 0 0 0 0 0 0 0 0 0 0 0 0 0 0 0 0 0 0 0 0 0 0 0 0 0 0 0 0 0 0 0 0 0 0 0 0 0 0 0 0 0 0 0 0 0 0 0 0 0 0 0 0 0 0 0 0 0 0 0 404 0 0 395 395 393 393 391 385 379 381 375 377 373 373 371 369 375 373 369 377 379 375 375 371 371 367 369 375 377 373 385 381 383 389 389 389 389 387 389 385 389 389 381 381 381 383 387 387 387 387 387 387 383 383 379 383 381 381 381 377 377 381 381 379 379 379 379 377 379 379 381 381 385 383 379 375 373 379 373 377 383 381 381 383 385 387 385 389 389 377 385 385 387 385 383 377 381 385 389 387 387 377 381 383 387 385 383 381 381 381 389 387 383 383 383 381 381 381 379 377 373 377 379 377 379 379 385 373 383 383 381 383 383 383 381 379 387 377 379 381 379 377 377 381 379 381 381 377 379 377 379 377 371 371 373 373 373 373 373 373 373 373 375 371 373 373 371 371 373 375 379 379 385 387 381 375 381 379 379 379 381 379 379 381 387 383 385 383 379 377 373 375 379 377 383 383 385 387 387 389 389 381 385 387 387 389 379 385 373 375 375 371 369 369 371 371 371 373 371 371 371 371 369 371 371 371 371 371 371 371 371 373 371 371 369 369 367 371 381 381 387 387 389 393 391 0 0 0 0 0
    0 0 0 0 0 0 0 0 0 0 0 0 0 0 0 0 0 0 0 0 0 0 0 0 0 0 0 0 0 0 0 0 0 0 0 0 0 0 0 0 0 0 0 0 0 0 0 0 0 0 0 0 0 0 0 0 0 0 0 0 0 0 0 0 0 0 0 0 0 408 0 0 0 393 391 391 389 383 377 379 375 375 373 373 371 369 375 375 369 377 379 375 373 369 0 0 0 371 373 371 383 381 383 389 389 389 389 387 389 385 387 387 379 381 381 385 387 387 387 387 387 387 383 383 381 381 0 381 383 377 375 379 377 377 377 375 375 375 379 379 383 381 383 381 379 377 373 375 373 377 383 381 381 383 385 387 387 391 387 377 385 383 383 383 383 377 381 387 391 389 389 381 385 387 389 387 385 385 385 383 389 387 383 383 383 379 379 379 379 379 375 377 379 379 381 381 387 373 383 383 383 383 383 383 381 379 387 375 379 379 379 379 379 381 381 383 383 381 381 379 379 377 371 371 373 371 373 373 373 373 373 373 375 371 371 371 369 371 371 371 377 377 383 385 379 375 381 379 379 379 381 379 379 381 389 383 387 381 377 375 375 375 379 375 381 0 0 387 387 389 387 379 379 379 381 381 375 377 371 371 373 371 369 369 371 371 369 371 371 369 369 371 369 369 371 371 371 371 371 373 373 375 371 371 371 369 367 371 377 377 385 385 389 391 389 0 0 0 0 0
    0 0 0 0 0 0 0 0 0 0 0 0 0 0 0 0 0 0 0 0 0 0 0 0 0 0 0 0 0 0 0 0 0 0 0 0 0 0 0 0 0 0 0 0 0 0 0 0 0 0 0 0 0 0 0 0 0 0 0 0 0 0 0 0 0 0 0 0 0 420 408 0 0 391 387 387 385 379 375 377 373 375 373 0 371 371 375 375 369 375 377 373 373 0 0 0 0 0 373 0 383 383 383 389 389 391 391 387 391 385 389 387 379 381 381 385 387 387 387 385 387 385 381 0 0 0 0 0 0 0 0 0 375 375 377 375 0 0 377 377 381 381 381 0 0 375 371 373 371 375 381 379 381 383 385 387 387 391 387 377 385 381 379 379 381 377 379 387 389 387 389 383 385 387 389 387 385 385 385 383 389 389 385 385 385 381 381 379 381 379 377 379 381 381 385 385 389 375 385 383 383 383 383 381 381 379 387 375 379 379 379 381 381 383 383 383 385 383 381 379 379 375 371 369 371 371 373 373 373 373 373 373 375 371 371 373 369 371 371 371 377 377 381 385 377 373 379 377 379 379 381 379 377 381 387 381 387 383 375 375 377 375 381 375 0 0 0 0 387 389 387 379 379 377 379 379 373 375 371 371 371 369 369 369 371 371 369 369 371 369 371 371 369 371 371 371 373 373 373 373 373 375 373 371 371 371 369 375 387 385 389 387 391 393 389 0 0 0 0 0
    0 0 0 0 0 0 0 0 0 0 0 0 0 0 0 0 0 0 0 0 0 0 0 0 0 0 0 0 0 0 0 0 0 0 0 0 0 0 0 0 0 0 0 0 0 0 0 0 0 0 0 0 0 0 0 0 0 0 0 0 0 0 0 0 0 0 0 0 0 432 0 0 0 0 0 385 0 0 0 0 371 0 0 0 371 373 377 375 369 373 375 371 371 0 0 0 0 0 371 0 381 381 383 389 389 391 391 387 391 387 389 387 379 381 381 385 387 385 385 383 387 0 0 0 0 0 0 0 0 0 0 0 375 375 377 375 0 0 379 379 383 381 0 0 0 0 371 373 371 375 381 379 381 383 385 387 385 391 383 375 385 379 377 375 377 375 0 0 389 387 389 387 387 389 389 389 387 387 387 385 391 391 389 389 387 383 381 381 385 381 377 381 379 381 385 387 389 375 385 381 383 383 383 381 379 377 387 375 379 379 381 381 383 385 385 383 385 385 381 379 375 373 369 369 371 371 373 373 373 373 373 375 375 371 371 375 371 371 371 371 377 375 379 383 375 373 379 377 377 379 379 377 377 381 387 381 385 381 375 373 375 371 375 0 0 0 0 0 0 389 387 381 381 377 379 379 373 375 371 369 371 369 369 371 371 371 369 369 371 369 371 371 367 371 371 373 373 373 375 375 375 377 375 373 373 373 375 391 397 391 393 389 393 393 391 0 0 0 0 0
    0 0 0 0 0 0 0 0 0 0 0 0 0 0 0 0 0 0 0 0 0 0 0 0 0 0 0 0 0 0 0 0 0 0 0 0 0 0 0 0 0 0 0 0 0 0 0 0 0 0 0 0 0 0 0 0 0 0 0 0 0 0 0 0 0 0 0 0 0 438 0 0 0 0 521 0 525 525 0 0 0 0 0 0 0 377 379 375 0 0 371 367 369 0 0 0 0 0 0 371 379 379 385 389 391 391 391 389 391 385 389 387 381 379 379 383 385 385 385 383 0 0 0 0 283 284 283 279 0 0 0 0 373 375 377 375 0 0 381 381 387 385 385 0 0 377 371 373 371 375 379 377 379 381 383 385 383 389 381 373 385 379 375 0 0 0 0 0 391 389 391 389 387 389 0 0 391 389 389 389 395 397 395 395 391 387 385 387 387 381 379 381 377 379 385 387 389 375 385 381 383 383 383 381 379 377 385 375 379 379 381 383 383 383 385 383 385 387 381 379 373 373 369 369 371 371 371 373 371 373 373 375 375 371 371 377 375 373 373 373 377 375 381 383 375 373 379 377 379 379 381 379 379 383 387 379 383 379 375 373 373 369 373 0 0 0 0 0 0 389 387 381 379 375 377 375 373 373 369 367 369 367 371 371 371 371 369 369 371 371 373 371 369 371 373 375 375 375 375 377 375 381 381 377 377 379 389 397 399 395 395 389 391 393 389 0 0 0 0 0
    0 0 0 0 0 0 0 0 0 0 0 0 0 0 0 0 0 0 0 0 0 0 0 0 0 0 0 0 0 0 0 0 0 0 0 0 0 0 0 0 0 0 0 0 0 0 0 0 0 0 0 0 0 0 0 0 0 0 0 0 0 0 0 0 0 0 0 0 0 443 438 0 500 0 0 0 529 0 0 0 0 0 0 0 0 0 0 0 0 0 366 360 367 355 0 0 0 0 0 369 0 0 385 389 391 391 393 389 393 385 389 383 381 379 379 381 385 385 385 383 0 0 0 0 280 281 280 278 271 0 0 0 0 0 0 375 0 0 0 0 0 0 0 0 0 0 0 373 371 373 379 375 379 381 381 383 383 387 383 0 0 381 0 0 0 0 0 0 0 0 391 389 389 389 0 0 0 391 391 0 397 399 397 397 391 387 383 385 385 379 377 381 0 379 385 389 389 375 385 381 383 385 385 381 379 377 385 375 379 379 379 383 383 383 385 383 385 391 385 381 373 371 367 369 371 371 371 371 371 373 373 375 377 375 373 381 379 375 375 373 377 375 379 383 375 373 379 377 379 379 381 379 379 383 387 377 381 377 375 371 373 371 0 0 0 3199 3199 0 0 389 387 383 377 375 377 375 373 0 369 0 367 367 369 371 371 369 369 369 373 371 375 373 369 373 373 375 377 377 377 379 379 385 389 385 385 389 395 399 402 395 397 387 389 391 387 0 0 0 0 0
    0 0 0 0 0 0 0 0 0 0 0 0 0 0 0 0 0 0 0 0 0 0 0 0 0 0 0 0 0 0 0 0 0 0 0 0 0 0 0 0 0 0 0 0 0 0 0 0 0 0 0 0 0 0 0 0 0 0 0 0 0 0 0 0 0 0 0 0 0 451 462 504 511 0 525 0 525 0 0 0 0 0 0 234 0 0 0 0 0 0 0 0 20 0 0 0 322 319 0 0 0 0 0 385 387 391 393 391 393 385 391 379 383 379 383 385 0 385 387 0 0 0 0 0 0 276 275 271 265 262 260 0 0 0 0 0 0 0 0 0 0 0 0 0 0 0 0 0 0 369 375 373 375 377 379 379 379 385 0 0 0 0 0 0 0 0 0 0 0 0 0 391 389 0 0 0 0 0 0 0 0 0 0 397 389 385 379 385 383 381 379 0 0 381 387 389 391 377 385 383 383 385 385 381 381 377 385 375 377 379 379 383 383 383 385 383 385 393 385 379 371 371 367 369 369 369 369 369 371 373 375 375 379 375 377 383 381 373 373 369 373 373 375 379 373 373 381 379 381 381 383 381 381 383 387 379 383 379 379 373 375 0 0 0 0 3199 3199 3679 0 389 0 379 375 0 0 379 375 0 0 366 369 367 369 369 371 369 369 367 373 371 373 371 369 371 373 375 377 377 377 379 379 387 391 389 391 391 395 399 399 393 393 383 385 385 383 0 0 0 0 0
    0 0 0 0 0 0 0 0 0 0 0 0 0 0 0 0 0 0 0 0 0 0 0 0 0 0 0 0 0 0 0 0 0 0 0 0 0 0 0 0 0 0 0 0 0 0 0 0 0 0 0 0 0 0 0 0 0 0 0 0 0 0 0 0 0 0 0 0 0 459 465 511 518 0 529 0 521 0 0 0 292 292 287 0 0 0 0 0 0 0 0 0 0 143 141 0 321 322 328 336 330 321 0 0 373 373 377 385 393 379 381 0 0 0 0 0 0 0 0 0 165 165 0 0 0 267 265 264 262 260 259 0 267 0 0 0 0 0 0 0 0 0 0 0 0 0 0 0 0 0 371 369 373 375 377 375 0 0 2537 2044 0 0 0 0 0 0 0 0 0 0 0 0 0 0 0 0 0 0 0 0 0 0 0 0 0 0 0 0 0 0 0 0 0 0 0 393 391 379 387 383 385 385 385 381 381 377 385 375 377 379 381 383 383 383 387 383 387 391 383 377 369 369 367 369 369 369 367 369 371 373 375 377 379 375 377 385 381 371 367 366 369 373 0 377 375 373 381 379 383 381 383 381 381 383 387 377 381 0 0 0 0 0 2628 2725 2943 3199 3345 0 3679 0 0 375 375 0 0 377 375 0 369 0 369 0 369 371 371 369 369 367 371 371 371 371 369 373 373 375 377 377 379 381 381 389 389 387 393 391 393 397 395 389 389 381 383 0 379 0 0 0 0 0
    0 0 0 0 0 0 0 0 0 0 0 0 0 0 0 0 0 0 0 0 0 0 0 0 0 0 0 0 0 0 0 0 0 0 0 0 0 0 0 0 0 0 0 0 0 0 0 0 0 0 0 0 0 0 0 0 0 0 0 0 0 0 0 0 0 0 0 0 0 0 0 0 0 0 0 0 0 0 0 0 0 0 0 0 0 0 0 0 0 0 0 0 0 0 0 0 0 0 327 334 328 325 0 0 0 0 0 244 0 239 235 232 0 0 169 168 0 165 0 0 0 162 0 0 0 266 264 263 263 262 261 262 265 0 0 0 218 0 0 0 0 0 0 219 0 0 0 0 0 0 0 0 0 0 0 0 3679 3199 2725 2299 2230 2453 2230 1795 0 0 0 0 0 0 0 0 886 0 0 1036 931 876 0 0 613 557 507 0 0 687 675 651 0 714 0 0 0 0 0 0 393 379 387 383 385 387 387 381 381 375 385 373 375 377 379 383 0 0 0 383 385 391 383 377 369 371 367 369 369 369 367 367 371 373 375 377 381 375 377 0 383 373 369 366 369 375 373 377 373 375 381 379 381 379 379 379 377 381 381 371 0 0 4599 0 0 0 0 0 0 3504 3679 0 3679 0 0 0 0 0 0 0 0 0 0 0 0 0 371 373 373 371 371 369 373 373 373 371 369 373 373 375 377 377 379 381 381 389 389 387 393 0 393 389 389 383 0 0 0 0 0 0 0 0 0 0
    0 0 0 0 0 0 0 0 0 0 0 0 0 0 0 0 0 0 0 0 0 0 0 0 0 0 0 0 0 0 0 0 0 0 0 0 0 0 0 0 0 0 0 0 0 0 0 0 0 0 0 0 0 0 0 0 0 0 0 0 0 0 0 0 0 0 0 0 0 0 0 0 0 0 0 0 0 0 0 0 0 0 0 0 0 0 0 0 0 0 0 0 0 0 0 0 0 0 0 0 0 0 0 0 0 0 0 0 0 0 0 0 0 0 0 0 0 0 0 0 0 0 0 0 0 0 0 265 265 264 263 262 0 0 0 0 0 0 0 187 182 178 0 0 166 162 250 246 245 246 0 0 310 0 230 0 3504 3066 2830 2537 2537 2453 2453 0 0 0 273 0 0 0 0 0 845 836 1008 994 908 855 0 687 613 545 0 0 0 687 0 0 0 743 700 687 639 579 579 0 0 0 387 0 0 387 387 381 379 373 385 373 375 377 381 0 0 0 0 0 0 393 385 379 369 371 367 369 369 369 367 367 373 375 377 379 389 377 381 0 385 0 367 367 0 375 0 0 371 375 381 379 379 375 375 373 373 377 377 369 0 0 0 0 411 411 0 0 0 0 0 0 0 0 0 0 0 0 0 0 0 0 0 0 0 0 0 0 377 373 373 371 375 375 377 371 369 373 373 375 377 377 379 381 381 389 389 387 393 0 0 387 387 0 0 0 0 623 598 0 0 0 0 0
    0 0 0 0 0 0 0 0 0 0 0 0 0 0 0 0 0 0 0 0 0 0 0 0 0 0 0 0 0 0 0 0 0 0 0 0 0 0 0 0 0 0 0 0 0 0 0 0 0 0 0 0 0 0 0 0 0 0 0 0 0 0 0 0 0 0 0 0 0 0 0 0 0 0 0 0 0 0 0 0 0 0 0 0 0 0 0 0 0 0 0 0 0 0 0 0 0 0 0 0 0 0 0 0 0 0 0 0 0 0 0 0 0 0 0 0 0 0 0 0 0 0 0 0 0 0 0 0 0 0 0 0 0 0 0 0 0 0 0 0 0 0 0 0 0 0 0 0 0 0 0 6133 6133 6690 6133 4906 3345 3199 2830 2374 2453 2725 2374 0 0 0 0 0 0 0 826 845 845 845 886 943 886 897 908 0 0 0 0 0 0 0 0 0 0 782 707 687 651 618 608 634 0 0 0 0 0 0 389 381 377 373 385 375 377 383 0 663 663 639 0 0 687 0 383 373 366 366 366 369 369 371 367 367 381 383 383 385 0 381 399 404 0 0 375 369 0 0 0 0 0 375 379 377 377 371 369 367 367 367 367 366 364 0 0 391 393 393 381 379 0 367 367 366 0 0 0 0 0 0 2299 2164 2044 0 0 0 0 0 0 0 0 0 0 371 379 377 381 375 369 373 375 377 377 377 379 381 381 389 389 389 395 0 0 0 387 0 0 0 0 0 584 0 0 0 0 0
    0 0 0 0 0 0 0 0 0 0 0 0 0 0 0 0 0 0 0 0 0 0 0 0 0 0 0 0 0 0 0 0 0 0 0 0 0 0 0 0 0 0 0 0 0 0 0 0 0 0 0 0 0 0 0 0 0 0 0 0 0 0 0 0 0 0 0 0 0 379 0 0 0 0 0 0 0 0 0 0 0 0 0 0 0 0 0 0 0 0 0 0 0 0 0 0 0 0 0 0 0 0 0 0 0 0 0 0 0 0 0 0 0 0 0 0 0 0 0 0 0 0 0 0 0 0 0 0 0 0 0 0 0 0 0 0 0 0 0 0 0 0 0 0 0 0 0 0 0 0 0 0 0 0 0 0 0 0 0 0 0 0 0 0 0 0 0 0 0 0 0 855 855 865 919 955 886 876 994 0 634 561 0 681 0 0 0 0 0 774 735 700 687 694 694 707 721 0 669 0 943 968 0 393 381 375 385 0 0 385 0 629 634 618 608 0 0 0 0 369 364 362 364 371 371 371 367 369 391 391 391 389 0 385 0 427 0 0 0 373 0 0 0 0 0 377 383 383 377 369 367 362 364 362 362 355 353 352 362 0 375 373 367 364 364 364 364 364 0 0 0 0 0 2628 2230 2164 2044 0 0 0 0 0 0 0 0 0 0 0 0 0 0 0 0 375 375 377 377 377 379 381 377 385 381 387 391 0 0 0 0 0 0 0 0 608 584 0 0 0 0 0
    0 0 0 0 0 0 0 0 0 0 0 0 0 0 0 0 0 0 0 0 0 0 0 0 0 0 0 0 0 0 0 0 0 0 0 0 0 0 0 0 0 0 0 0 0 0 0 0 0 0 0 0 0 0 0 0 0 0 0 0 0 0 0 0 0 0 0 0 0 373 366 367 0 0 307 306 296 293 292 294 0 0 0 0 243 244 0 0 0 318 315 319 0 0 0 0 0 0 0 0 0 0 0 0 0 0 0 0 0 0 0 0 0 0 0 0 0 0 0 0 0 0 0 0 0 0 0 0 0 0 0 0 0 0 0 0 0 0 0 0 0 0 0 0 0 0 0 0 0 0 0 0 0 0 0 0 0 0 0 0 0 0 0 0 0 0 0 0 0 0 0 0 0 0 0 0 0 908 994 1022 0 0 0 0 0 0 0 0 0 0 0 721 700 700 707 707 714 0 651 603 0 0 0 0 0 371 371 373 0 0 603 603 608 603 0 0 0 584 541 366 364 364 362 0 0 367 364 0 399 397 397 402 418 404 406 0 0 0 0 0 0 0 0 0 0 0 387 389 379 367 366 359 362 359 359 352 350 350 357 359 366 364 362 359 355 359 0 0 0 0 0 0 0 0 2164 0 0 0 0 0 0 0 0 0 0 0 0 0 0 0 0 0 0 0 377 379 379 379 381 381 377 381 377 381 381 377 0 371 0 0 0 0 0 613 588 0 0 0 0 0
    0 0 0 0 0 0 0 0 0 0 0 0 0 0 0 0 0 0 0 0 0 0 0 0 0 0 0 0 0 0 0 0 0 0 0 0 0 0 0 0 0 0 0 0 0 0 0 0 0 0 0 0 0 0 0 0 0 0 0 0 0 0 0 0 0 0 0 0 0 373 366 0 0 0 306 306 296 294 293 293 293 293 294 0 0 0 0 0 0 0 0 307 0 318 304 297 292 0 0 253 247 0 0 0 0 203 0 0 0 0 0 0 0 0 0 0 0 0 0 0 0 0 0 0 0 0 0 0 0 0 0 0 0 0 0 0 0 0 0 0 0 0 0 0 0 0 0 0 0 0 0 0 0 0 0 0 0 0 0 0 0 0 0 0 0 0 0 0 0 0 0 0 0 0 0 0 0 0 0 0 0 0 0 0 0 0 0 0 0 0 0 0 0 0 0 0 0 629 623 603 0 0 0 0 0 0 0 0 0 623 613 608 608 603 593 0 0 0 541 0 366 366 357 336 0 318 309 0 408 406 406 422 427 422 415 430 395 0 0 0 295 275 262 0 0 0 389 391 379 366 364 355 359 357 357 353 350 348 355 357 364 362 359 352 347 347 0 0 0 0 0 0 0 0 0 0 0 0 0 0 0 0 0 0 0 0 0 0 0 0 0 0 0 0 377 377 379 377 379 377 375 375 371 375 375 371 371 369 366 366 0 0 0 0 0 0 0 0 0 0
    0 0 0 0 0 0 0 0 0 0 0 0 0 0 0 0 0 0 0 0 0 0 0 0 0 0 0 0 0 0 0 0 0 0 0 0 0 0 0 0 0 0 0 0 0 0 0 0 0 0 0 0 0 0 0 0 0 0 0 0 0 0 0 0 0 0 0 0 0 373 364 0 0 0 306 307 297 295 294 293 293 293 293 293 0 0 0 0 0 0 299 297 296 302 301 296 294 294 287 0 0 0 0 0 0 0 0 0 0 0 246 0 0 0 0 0 0 0 0 0 0 215 1338 1247 0 0 0 0 0 0 0 618 0 0 1362 0 1291 1268 0 0 0 0 0 0 0 0 0 0 0 0 0 0 0 0 0 0 0 0 0 0 0 0 0 0 0 0 0 0 0 0 0 0 0 0 0 0 0 0 0 0 0 0 0 0 0 0 0 0 0 0 0 0 0 0 0 0 0 0 0 0 0 0 0 0 0 0 0 0 0 0 0 0 0 0 0 0 0 0 0 0 0 0 0 0 0 0 0 0 427 422 420 425 425 425 420 0 395 369 337 314 294 0 0 0 0 0 0 389 377 366 364 355 359 357 357 352 350 350 355 357 364 360 357 350 345 343 0 0 330 0 0 0 0 0 0 0 0 0 0 0 0 0 0 0 0 0 0 0 0 0 0 0 0 0 0 0 375 371 371 371 0 0 364 366 366 367 366 366 362 362 362 359 0 0 0 0 0 0 0 0
    0 0 0 0 0 0 0 0 0 0 0 0 0 0 0 0 0 0 0 0 0 0 0 0 0 0 0 0 0 0 0 0 0 0 0 0 0 0 0 0 0 0 0 0 0 0 0 0 0 0 0 0 0 0 0 0 0 0 0 0 0 0 0 0 0 0 0 0 0 0 0 309 300 301 304 305 299 296 295 295 294 295 294 0 0 0 0 0 0 299 299 299 297 301 301 297 296 297 296 296 0 0 0 0 0 0 0 0 0 0 0 0 0 0 0 296 0 294 0 221 219 0 1268 1206 1226 0 0 297 0 0 0 618 613 613 0 0 1149 0 0 0 0 0 0 0 0 0 0 0 0 0 593 598 588 584 588 588 618 639 675 681 0 0 0 0 0 0 0 0 0 0 0 0 0 0 0 0 0 0 0 0 0 0 0 0 0 0 0 0 0 0 0 0 0 0 0 0 0 0 0 0 0 0 0 0 0 0 0 0 0 0 0 0 0 0 0 0 0 0 0 0 0 0 0 0 0 0 0 0 0 0 0 0 0 0 0 0 0 0 0 0 0 0 0 0 0 0 383 385 375 366 362 353 357 357 357 352 350 350 355 357 364 360 357 348 345 345 0 0 337 0 0 0 0 0 0 0 0 0 0 0 0 0 0 0 0 0 0 0 1672 1388 1268 0 0 0 0 0 0 0 0 0 0 0 359 359 362 366 364 362 359 357 360 359 359 0 0 0 0 0 0 0
    0 0 0 0 0 0 0 0 0 0 0 0 0 0 0 0 0 0 0 0 0 0 0 0 0 0 0 0 0 0 0 0 0 0 0 0 0 0 0 0 0 0 0 0 0 0 0 0 0 0 0 0 0 0 0 0 0 0 0 0 0 0 0 0 0 0 0 0 0 0 301 301 299 300 302 302 300 299 297 297 299 300 296 296 0 289 0 0 0 297 299 299 299 301 301 299 297 297 299 299 302 301 0 313 302 293 0 0 0 0 0 0 0 0 296 295 296 295 0 0 0 0 1247 1168 0 296 301 301 297 0 0 618 613 0 0 0 302 301 0 0 0 0 0 955 876 836 0 0 0 0 584 579 566 566 574 579 618 613 634 657 675 669 0 0 2725 0 0 0 657 663 0 0 0 0 0 0 0 468 493 497 487 487 0 0 0 0 0 0 0 0 0 0 0 0 0 0 0 0 0 0 0 0 0 0 0 0 0 0 0 0 0 0 0 0 0 0 0 0 0 0 0 0 0 0 0 0 0 0 0 0 0 0 0 0 0 0 0 0 0 0 0 0 0 0 0 0 375 377 371 362 360 350 355 357 357 353 352 352 357 359 364 357 353 347 345 340 336 0 0 0 0 0 0 0 0 0 0 0 0 0 0 0 0 0 0 0 0 0 0 1314 0 0 0 0 0 0 0 0 0 345 343 345 347 347 350 357 355 353 355 353 359 360 362 359 359 0 0 0 0 0
    0 0 0 0 0 0 0 0 0 0 0 0 0 0 0 0 0 0 0 0 0 0 0 0 0 0 0 0 0 0 0 0 0 0 0 0 0 0 0 0 0 0 0 0 0 0 0 0 0 0 0 0 0 0 0 0 0 0 0 0 0 0 0 0 0 0 0 0 0 299 300 301 299 301 304 302 301 300 299 297 299 300 296 295 0 290 0 0 0 297 299 299 299 300 301 299 297 297 299 299 302 302 0 309 302 294 295 299 299 297 295 296 297 295 296 295 296 295 295 296 296 0 0 0 299 296 300 302 297 301 0 0 0 299 297 299 297 297 296 294 293 0 919 886 845 782 0 0 0 0 0 584 570 557 553 553 598 584 608 629 629 629 213 209 2830 2830 0 663 645 0 0 657 639 0 0 0 0 468 474 474 474 471 481 468 471 471 0 0 0 0 0 0 0 0 0 0 0 0 292 0 0 381 385 377 377 0 0 0 0 0 0 0 0 0 0 0 0 0 0 0 0 0 0 0 0 0 0 0 0 0 0 0 0 0 0 0 0 0 0 0 0 0 0 0 0 0 0 375 371 360 362 352 359 360 362 359 357 357 360 359 364 353 347 343 342 337 318 310 301 301 0 0 0 0 0 0 0 0 0 0 0 0 0 0 0 0 0 0 0 0 0 0 0 0 0 0 0 0 0 342 339 340 339 339 339 337 339 339 340 345 343 357 359 357 360 0 0 0 0 0
    0 0 0 0 0 0 0 0 0 0 0 0 0 0 0 0 0 0 0 0 0 0 0 0 0 0 0 0 0 0 0 0 0 0 0 0 0 0 0 0 0 0 0 0 0 0 0 0 0 0 0 0 0 0 0 0 0 0 0 0 0 0 0 0 0 0 0 0 0 299 300 302 300 301 304 304 302 301 299 299 299 300 299 297 0 293 0 299 299 299 299 299 299 300 301 299 297 297 297 297 301 301 300 302 300 294 295 297 297 296 294 296 296 295 296 295 296 295 295 296 296 295 0 0 297 296 297 300 297 300 0 0 304 299 297 299 296 296 295 294 293 293 0 845 817 766 0 0 0 0 0 0 0 553 545 545 557 553 0 0 0 0 212 210 2725 2725 0 663 0 0 0 0 0 0 0 0 432 446 454 448 459 454 454 454 465 454 0 0 0 420 0 0 0 0 0 0 0 294 293 292 292 292 0 0 0 0 0 0 0 0 0 0 0 296 300 297 296 300 313 306 296 288 281 278 280 0 0 0 0 0 0 0 0 0 0 0 0 0 0 0 0 0 0 0 0 0 0 381 371 360 362 352 359 360 360 355 352 352 357 355 359 347 340 339 339 333 315 302 0 294 0 0 0 0 0 0 0 0 0 0 0 0 0 0 0 0 0 0 0 0 0 0 0 0 0 0 0 0 0 339 334 336 334 334 336 333 333 334 337 340 337 347 350 348 0 0 0 0 0 0
    0 0 0 0 0 0 0 0 0 0 0 0 0 0 0 0 0 0 0 0 0 0 0 0 0 0 0 0 0 0 0 0 0 0 0 0 0 0 0 0 0 0 0 0 0 0 0 0 0 0 0 0 0 0 0 0 0 0 0 0 0 0 0 0 0 0 0 0 0 297 297 299 299 300 302 302 302 301 299 299 299 300 300 297 296 295 297 299 300 299 299 299 299 300 301 299 296 296 296 296 299 300 299 300 299 294 294 296 297 296 294 294 295 294 296 295 296 295 295 296 296 295 0 0 297 296 299 300 297 300 0 0 302 299 299 299 297 297 295 294 293 293 295 0 0 0 0 0 0 304 301 301 0 0 0 0 549 0 0 301 0 0 211 210 0 2453 0 0 0 302 302 0 0 0 0 0 427 435 443 440 448 446 438 446 448 0 0 0 0 0 0 0 0 0 289 290 296 295 293 294 292 293 0 302 302 299 299 300 0 299 301 297 297 296 297 297 297 300 305 299 296 0 280 277 278 275 0 279 0 0 0 0 0 0 0 0 0 243 0 227 224 0 0 0 0 0 0 0 395 0 0 0 0 366 364 352 345 345 348 348 347 342 337 334 0 0 0 301 293 283 280 0 0 0 0 0 0 0 0 0 0 0 0 0 0 0 0 0 0 0 0 0 0 0 0 0 0 0 337 334 328 324 331 330 333 321 325 325 337 339 334 0 0 0 0 0 0 0 0 0
    0 0 0 0 0 0 0 0 0 0 0 0 0 0 0 0 0 0 0 0 0 0 0 0 0 0 0 0 0 0 0 0 0 0 0 0 0 0 0 0 0 0 0 0 0 0 0 0 0 0 0 0 0 0 0 0 0 0 0 0 0 0 0 0 0 0 0 0 0 297 299 300 300 301 302 302 304 302 300 297 299 300 297 296 296 295 296 299 300 299 299 299 299 299 299 297 295 295 294 295 296 297 297 297 297 292 292 294 296 295 293 293 295 294 296 295 296 294 295 295 295 295 296 296 296 296 300 300 299 300 0 305 302 299 299 299 297 297 295 294 294 294 296 296 297 0 0 0 304 302 301 300 300 0 0 0 0 0 0 300 300 0 211 211 210 0 0 0 301 301 301 0 0 0 0 0 422 432 438 440 443 0 0 438 0 0 181 181 0 155 0 0 0 0 292 292 295 295 294 295 0 294 0 300 301 299 297 297 295 297 300 297 297 296 297 297 297 300 302 299 296 0 0 287 286 0 280 279 277 0 0 281 0 0 0 0 0 0 0 0 0 0 0 0 0 0 613 0 0 0 0 425 408 399 385 0 0 0 0 0 0 0 0 0 0 0 0 0 0 0 0 0 0 0 0 0 0 0 0 0 0 0 0 0 0 0 0 0 0 0 0 0 0 0 0 0 0 0 334 328 324 317 324 322 0 0 0 0 0 321 319 315 0 314 0 0 0 0 0 0
    0 0 0 0 0 0 0 0 0 0 0 0 0 0 0 0 0 0 0 0 0 0 0 0 0 0 0 0 0 0 0 0 0 0 0 0 0 0 0 0 0 0 0 0 0 0 0 0 0 0 0 0 0 0 0 0 0 0 0 0 0 0 0 0 0 0 0 0 0 300 302 302 301 302 305 304 306 305 302 299 300 299 297 296 296 295 296 299 299 299 297 299 297 297 297 297 294 294 294 294 295 296 299 297 296 292 292 294 296 296 294 294 295 295 296 295 296 294 295 296 295 295 296 296 296 296 299 299 297 300 302 302 301 299 299 299 297 297 296 294 294 295 296 297 297 0 0 0 302 301 300 300 299 299 299 300 304 299 300 300 300 0 0 0 0 0 0 301 301 301 301 301 0 0 0 0 0 0 0 0 0 0 0 0 0 0 0 0 157 155 153 0 0 0 293 294 296 295 295 296 0 295 300 301 302 299 297 297 296 296 297 296 296 296 296 0 296 299 301 299 297 0 293 0 294 292 286 280 277 277 280 284 0 0 0 0 0 0 0 0 0 0 5661 7359 5661 0 675 0 0 0 0 0 0 0 0 0 1443 0 0 0 0 0 0 0 0 0 0 0 0 0 0 0 0 0 0 0 0 0 0 0 0 0 0 0 0 0 0 0 0 0 0 0 0 0 0 0 0 334 331 327 322 0 0 0 0 0 0 0 0 0 315 314 313 313 0 0 0 0 0 0
    0 0 0 0 0 0 0 0 0 0 0 0 0 0 0 0 0 0 0 0 0 0 0 0 0 0 0 0 0 0 0 0 0 0 0 0 0 0 0 0 0 0 0 0 0 0 0 0 0 0 0 0 0 0 0 0 0 0 0 0 0 0 0 0 0 0 0 0 0 301 302 302 301 302 304 302 305 305 302 300 301 299 0 0 296 295 296 297 299 297 297 299 297 297 297 297 295 294 294 295 296 296 299 299 296 294 295 296 297 297 296 295 296 296 296 295 296 295 295 296 296 296 296 296 297 296 299 297 296 299 301 300 299 297 297 299 299 297 296 294 295 295 297 299 297 0 0 0 301 300 299 299 299 299 299 300 304 299 299 300 300 299 0 0 0 0 300 301 300 301 300 300 0 0 0 0 0 0 0 0 295 0 0 0 0 0 0 0 156 154 0 299 297 296 294 295 297 297 295 297 0 296 300 301 301 299 297 297 295 296 297 296 296 296 0 0 296 297 301 299 297 0 295 296 295 296 292 285 279 280 288 288 0 0 286 0 0 0 0 0 0 0 0 0 0 0 0 0 0 0 0 0 0 1082 1066 0 0 1247 0 0 0 0 0 0 0 0 0 0 0 0 0 0 297 295 296 0 0 0 0 0 0 0 0 0 0 0 0 0 0 0 0 0 0 0 0 0 0 331 325 321 318 0 0 0 0 0 0 0 0 0 313 311 310 311 0 0 0 0 0 0
    0 0 0 0 0 0 0 0 0 0 0 0 0 0 0 0 0 0 0 0 0 0 0 0 0 0 0 0 0 0 0 0 0 0 0 0 0 0 0 0 0 0 0 0 0 0 0 0 0 0 0 0 0 0 0 0 0 0 0 0 0 0 0 0 0 0 0 0 0 301 302 302 301 302 302 301 304 304 302 300 301 299 0 0 296 295 295 297 297 297 297 297 297 297 297 297 294 294 294 294 295 296 297 297 297 296 296 297 299 299 296 296 296 296 296 295 295 295 296 296 296 296 296 296 297 297 299 296 297 299 300 299 299 297 297 299 299 297 296 294 295 295 297 299 297 299 299 296 300 299 299 297 297 299 297 300 304 299 299 300 300 299 0 0 0 299 299 300 300 300 299 299 0 294 292 0 0 292 294 294 295 295 0 0 300 0 0 0 0 0 0 300 299 296 295 295 299 297 295 297 296 296 299 300 300 297 296 297 295 296 297 296 296 296 296 296 296 297 300 299 297 0 294 295 294 294 293 288 283 285 290 290 292 293 287 283 0 0 0 0 0 0 0 0 0 855 0 0 0 0 0 0 0 0 0 0 0 0 0 0 0 0 0 0 0 0 0 0 0 0 299 0 296 295 295 296 296 297 297 0 0 0 0 0 0 0 0 0 0 0 0 0 0 0 0 0 0 0 319 317 0 0 0 0 309 0 0 0 0 0 309 310 309 309 307 0 0 0 0 0
    0 0 0 0 0 0 0 0 0 0 0 0 0 0 0 0 0 0 0 0 0 0 0 0 0 0 0 0 0 0 0 0 0 0 0 0 0 0 0 0 0 0 0 0 0 0 0 0 0 0 0 0 0 0 0 0 0 0 0 0 0 0 0 0 0 0 0 0 0 301 302 304 301 304 304 302 304 304 301 300 300 297 0 294 295 295 294 296 297 296 297 297 297 297 297 299 295 293 294 294 296 296 297 296 295 295 297 297 299 299 297 297 297 297 296 295 295 295 295 296 295 295 296 296 296 296 297 296 297 297 300 297 297 297 297 299 299 296 296 294 295 295 297 299 297 297 297 295 299 299 297 297 297 297 297 299 302 297 297 299 299 299 299 299 297 297 299 299 299 299 297 297 0 294 290 0 292 292 294 0 295 0 297 301 301 301 301 299 299 299 299 299 297 296 294 295 297 297 295 297 296 296 297 299 299 296 295 296 295 295 296 296 296 296 296 296 296 297 299 297 296 294 294 295 294 294 293 290 288 290 294 294 293 293 288 287 0 0 0 0 0 290 294 0 0 0 0 0 0 0 0 0 0 0 0 0 0 0 0 0 0 0 0 0 0 0 0 0 300 0 297 295 295 294 294 295 296 297 296 0 0 0 0 0 0 0 0 0 0 0 808 808 799 0 0 0 0 0 0 313 0 0 305 0 305 0 0 0 0 0 0 307 307 307 306 0 0 0 0 0
    0 0 0 0 0 0 0 0 0 0 0 0 0 0 0 0 0 0 0 0 0 0 0 0 0 0 0 0 0 0 0 0 0 0 0 0 0 0 0 0 0 0 0 0 0 0 0 0 0 0 0 0 0 0 0 0 0 0 0 0 0 0 0 0 0 0 0 0 0 304 305 306 304 306 305 304 304 304 301 300 300 297 295 295 295 295 294 296 297 296 297 297 297 297 297 299 295 294 295 295 296 296 296 296 295 295 296 296 297 297 296 296 296 296 296 295 295 294 295 295 295 295 296 296 296 296 297 295 296 297 299 297 297 297 297 299 299 296 296 294 295 295 297 297 296 297 297 295 299 297 297 296 297 297 297 299 302 297 297 299 299 297 299 299 297 297 299 299 299 297 297 299 297 294 293 293 294 293 294 0 296 297 299 301 301 301 301 300 299 299 299 297 296 296 294 295 297 296 295 297 296 296 297 299 297 295 295 295 295 295 296 296 295 296 296 296 296 297 299 297 296 295 294 296 295 296 295 293 293 293 296 295 294 294 290 290 0 0 0 0 289 290 293 0 0 0 0 0 0 0 0 0 0 0 0 294 0 0 0 0 0 0 0 0 0 0 0 306 300 299 297 294 295 294 294 294 295 296 296 0 0 0 0 0 0 0 0 0 0 0 0 808 808 0 0 0 0 0 0 305 301 0 301 0 0 0 0 0 301 0 0 0 306 307 0 0 0 0 0 0
    0 0 0 0 0 0 0 0 0 0 0 0 0 0 0 0 0 0 0 0 0 0 0 0 0 0 0 0 0 0 0 0 0 0 0 0 0 0 0 0 0 0 0 0 0 0 0 0 0 0 0 0 0 0 0 0 0 0 0 0 0 0 0 0 0 0 0 0 0 305 306 307 304 306 305 304 302 302 301 300 300 297 296 296 296 296 295 297 299 297 297 297 297 297 297 300 295 295 296 296 297 297 299 297 295 296 296 295 297 296 296 296 296 296 296 295 295 294 295 295 295 295 296 296 296 296 297 295 296 299 299 297 299 299 300 300 301 297 297 295 296 295 296 296 295 0 296 294 297 297 297 296 297 297 297 297 301 297 297 299 299 297 299 299 299 299 299 299 299 299 297 299 297 294 293 293 293 293 294 0 295 296 297 300 300 301 301 300 300 299 299 297 296 296 295 295 296 296 295 297 297 296 296 297 296 294 294 295 294 294 294 295 295 295 296 295 296 296 297 296 295 295 294 296 296 296 296 295 296 296 297 297 296 296 293 293 293 0 293 0 290 290 292 295 0 0 0 0 0 300 0 0 0 0 0 294 294 0 0 290 0 0 0 0 0 0 306 302 299 299 297 294 295 294 294 294 295 296 296 296 0 0 0 0 0 0 0 0 0 0 0 799 799 0 0 0 307 302 300 299 297 0 297 296 0 294 0 0 0 0 0 0 302 305 302 0 0 0 0 0
    0 0 0 0 0 0 0 0 0 0 0 0 0 0 0 0 0 0 0 0 0 0 0 0 0 0 0 0 0 0 0 0 0 0 0 0 0 0 0 0 0 0 0 0 0 0 0 0 0 0 0 0 0 0 0 0 0 0 0 0 0 0 0 0 0 0 0 0 0 305 307 307 304 306 305 302 302 302 301 300 300 297 296 296 296 296 294 297 297 297 297 297 297 297 299 300 296 295 296 296 297 299 299 297 296 297 296 296 297 296 296 296 296 295 295 295 294 294 296 295 295 296 296 297 296 297 299 295 296 299 299 297 299 299 300 301 301 299 299 296 297 296 297 296 295 296 295 294 296 296 296 0 296 296 296 297 300 297 297 299 299 297 297 299 299 299 299 299 299 297 296 297 296 294 293 292 292 292 293 295 295 296 297 299 300 301 301 300 299 299 297 297 296 296 295 295 295 295 295 296 297 297 295 295 294 293 293 294 293 293 292 295 294 295 295 295 295 296 296 296 295 295 295 296 297 297 296 296 296 296 299 297 296 296 294 294 294 295 294 292 290 290 292 294 294 296 296 0 299 299 0 0 0 295 294 295 294 294 292 292 295 296 294 0 0 0 300 300 296 296 296 293 295 294 294 295 295 296 296 296 313 311 0 0 0 0 0 0 0 0 0 0 0 0 0 0 0 296 294 0 0 0 0 292 292 290 0 294 294 295 0 0 0 300 300 0 0 0 0 0</data></depth>
</opencv_storage>
