<?xml version="1.0"?>
<opencv_storage>
<gps_time_stamp>18692</gps_time_stamp>
<gps_x>-2.7137035131454468e-001</gps_x>
<gps_y>2.0916903391480446e-002</gps_y>
<gps_z>-3.6287259310483932e-002</gps_z>
<image_time_stamp>6664</image_time_stamp>
<depth type_id="opencv-matrix">
  <rows>82</rows>
  <cols>320</cols>
  <dt>s</dt>
  <data>
    0 0 0 0 0 0 0 0 0 0 0 0 0 0 0 0 0 0 0 0 0 0 0 0 0 0 0 0 0 0 0 0 0 0 0 0 0 0 0 0 0 0 0 0 0 0 0 0 0 0 0 0 0 0 0 0 0 0 0 0 0 0 0 0 0 0 0 0 0 7359 8177 0 0 0 0 0 0 0 6690 7359 7359 7359 7359 6690 6690 6690 6690 0 0 0 0 0 0 0 0 0 0 0 0 0 0 0 0 0 0 0 0 0 0 0 0 0 0 0 0 0 0 0 0 0 0 0 0 0 0 0 0 0 0 0 8177 0 8177 8177 8177 7359 8177 8177 7359 0 9199 0 0 0 0 0 0 0 0 0 8177 9199 8177 8177 8177 7359 7359 7359 6690 4329 5661 6133 0 0 0 0 0 0 0 0 0 8177 0 0 8177 6690 6690 6690 7359 6690 6690 6133 5661 7359 0 0 0 0 0 0 0 0 0 0 0 0 8177 0 7359 6690 7359 7359 7359 6133 6133 6690 5256 4906 4906 4906 4329 4906 5256 5256 4906 5256 4906 4906 3873 4088 3679 3504 3504 3504 3199 3345 3199 3345 3199 3066 2943 2830 2725 2830 2628 2628 2453 2453 2453 2299 2164 2164 2044 2044 1936 1989 1887 1887 1936 1989 1989 2044 2044 2299 2299 2374 2453 2453 2453 2453 2453 2453 2374 2299 2164 1887 1795 1672 1672 1635 1501 1443 1415 1362 1362 1388 1338 1314 1314 1338 1338 1314 1338 1314 1268 1247 1314 1338 1362 1388 1388 1388 1415 1388 1443 1388 0 0 1226 0 0 0 0 0 0 1362 1338 1362 1362 0 0 0 0 0 0 0 0 0 0 0
    0 0 0 0 0 0 0 0 0 0 0 0 0 0 0 0 0 0 0 0 0 0 0 0 0 0 0 0 0 0 0 0 0 0 0 0 0 0 0 0 0 0 0 0 0 0 0 0 0 0 0 0 0 0 0 0 0 0 0 0 0 0 0 0 0 0 0 0 0 8177 8177 0 8177 0 0 0 0 0 6690 7359 8177 8177 8177 7359 7359 7359 7359 0 0 0 0 0 0 0 0 0 0 0 0 0 0 0 0 0 0 0 0 0 0 0 8177 0 0 0 0 0 0 0 0 0 0 0 0 0 0 0 0 8177 0 0 0 0 8177 8177 8177 7359 8177 8177 6690 0 9199 0 0 0 0 0 0 0 0 0 0 0 0 0 8177 8177 8177 7359 7359 4599 6133 6690 0 0 0 0 0 0 0 0 0 8177 0 0 8177 7359 7359 7359 7359 6690 6690 6133 5661 7359 0 0 0 0 8177 0 0 0 0 0 0 0 8177 0 7359 7359 7359 7359 6690 6133 6133 6690 5661 5661 4906 5256 4599 5256 5256 5256 4906 5256 4906 4906 3873 4329 3679 3504 3504 3504 3345 3345 3199 3504 3199 3066 3066 2943 2830 2830 2725 2725 2537 2537 2537 2453 2299 2230 2102 2102 1936 1989 1887 1887 1936 1989 1989 2044 1989 2230 2230 2374 2453 2453 2374 2374 2453 2453 2374 2230 2102 1839 1711 1635 1599 1565 1501 1443 1415 1388 1388 1388 1362 1338 1314 1338 1314 1314 1338 1291 1247 1226 1291 1314 1362 1388 1362 1362 1415 1388 1443 1388 0 0 0 0 0 0 0 0 0 1338 1338 1338 0 0 0 0 0 0 0 0 0 0 0 0
    0 0 0 0 0 0 0 0 0 0 0 0 0 0 0 0 0 0 0 0 0 0 0 0 0 0 0 0 0 0 0 0 0 0 0 0 0 0 0 0 0 0 0 0 0 0 0 0 0 0 0 0 0 0 0 0 0 0 0 0 0 0 0 0 0 0 0 0 0 7359 8177 0 0 0 0 0 0 0 8177 8177 0 0 8177 8177 0 0 8177 0 0 0 0 0 0 0 0 0 0 0 0 0 0 0 0 0 0 0 0 0 0 0 8177 0 0 0 0 0 0 0 0 0 0 0 0 8177 8177 0 0 0 0 0 0 0 8177 8177 8177 7359 8177 8177 6690 0 0 0 0 0 0 0 0 0 0 0 0 0 8177 8177 8177 8177 7359 7359 7359 4906 7359 7359 0 0 0 0 0 0 0 0 0 8177 0 0 8177 7359 7359 7359 7359 6690 6690 5661 5256 7359 7359 8177 8177 0 7359 0 0 0 0 0 0 0 8177 0 7359 6690 7359 6690 6690 6133 6133 6690 5661 5256 4906 5256 4599 5256 5256 5256 4906 4906 4906 4906 3873 4599 3873 3504 3504 3504 3345 3345 3199 3504 3199 2943 2943 2943 2830 2943 2830 2725 2628 2628 2628 2537 2453 2299 2164 2164 1989 1989 1887 1887 1936 1989 1936 1989 1989 2230 2230 2299 2374 2374 2299 2374 2374 2453 2299 2164 1989 1752 1672 1599 1565 1533 1501 1471 1443 1388 1388 1415 1362 1338 1314 1314 1314 1291 1314 1291 1206 1206 1291 1314 1338 1362 1362 0 1362 1388 1415 1388 0 321 0 0 0 0 0 0 1268 1314 1314 0 0 0 0 0 183 183 0 0 0 0 0 0
    0 0 0 0 0 0 0 0 0 0 0 0 0 0 0 0 0 0 0 0 0 0 0 0 0 0 0 0 0 0 0 0 0 0 0 0 0 0 0 0 0 0 0 0 0 0 0 0 0 0 0 0 0 0 0 0 0 0 0 0 0 0 0 0 0 0 0 0 0 8177 0 0 0 0 0 0 0 0 0 8177 0 0 0 0 0 0 0 0 0 0 8177 0 0 0 0 0 0 0 0 0 0 0 0 0 0 0 0 0 0 0 8177 0 0 0 0 0 0 0 0 0 0 0 0 7359 7359 0 0 8177 0 0 0 0 0 0 8177 8177 8177 8177 7359 8177 0 0 0 0 0 0 0 0 0 0 8177 8177 7359 8177 7359 6690 7359 7359 7359 5256 7359 8177 0 0 0 0 0 0 0 0 0 8177 0 0 8177 7359 7359 7359 7359 6690 6133 5661 5256 6690 6133 7359 7359 8177 6690 0 0 0 0 0 0 0 0 0 8177 7359 7359 7359 6690 6133 6133 6690 5661 5256 5256 5256 4599 5256 5256 5256 4906 4906 4906 4906 3873 4599 3873 3679 3504 3504 3345 3345 3199 3345 3199 2943 2943 2943 2830 2943 2830 2830 2628 2628 2628 2537 2453 2374 2102 2164 1936 1989 1887 1887 1936 1989 1936 1989 1989 2299 2230 2299 2374 2299 2299 2374 2299 2299 2102 1936 1839 1672 1599 1533 1501 1471 1471 1443 1443 1388 1415 1415 1362 1338 1338 1338 1314 1314 1338 1268 1187 1206 1268 1291 1338 1338 1338 0 1338 1362 1388 1362 0 319 0 0 0 0 0 0 1268 1291 1291 0 0 0 0 0 183 183 183 0 0 0 0 0
    0 0 0 0 0 0 0 0 0 0 0 0 0 0 0 0 0 0 0 0 0 0 0 0 0 0 0 0 0 0 0 0 0 0 0 0 0 0 0 0 0 0 0 0 0 0 0 0 0 0 0 0 0 0 0 0 0 0 0 0 0 0 0 0 0 0 0 0 0 7359 8177 0 0 0 0 0 0 0 0 0 0 0 0 0 0 0 0 0 0 0 0 0 0 0 0 0 0 0 0 0 0 0 0 0 0 0 0 0 0 0 8177 0 0 0 0 0 0 0 0 0 0 0 0 7359 7359 0 0 0 0 0 0 0 0 0 0 0 0 0 0 0 0 0 0 0 0 0 0 0 0 8177 7359 7359 7359 7359 7359 6690 6690 7359 7359 5256 8177 8177 0 0 0 0 0 0 0 0 0 8177 0 0 8177 7359 7359 7359 7359 6690 6133 5661 5256 6690 5661 6690 7359 7359 6133 0 0 0 0 0 0 8177 8177 0 8177 7359 8177 7359 6690 6690 6690 6690 5661 5661 5661 5256 4599 5661 5661 5256 4906 4906 4599 4906 3679 4599 3679 3504 3345 3345 3345 3345 3199 3345 3066 2943 2943 2943 2830 2943 2830 2830 2628 2628 2725 2628 2537 2374 2230 2164 1936 1989 1887 1887 1887 1936 1936 1989 1936 2299 2164 2299 2374 2299 2299 2299 2164 2102 1989 1795 1711 1599 1501 1501 1471 1443 1443 1415 1415 1388 1415 1415 1362 1338 1338 1338 1314 1291 1314 1247 1168 1187 1268 1291 1314 1338 1314 1314 1314 1362 1388 1362 0 319 0 0 0 0 0 0 1268 1291 1291 0 0 0 0 0 0 0 0 0 0 0 0 0
    0 0 0 0 0 0 0 0 0 0 0 0 0 0 0 0 0 0 0 0 0 0 0 0 0 0 0 0 0 0 0 0 0 0 0 0 0 0 0 0 0 0 0 0 0 0 0 0 0 0 0 0 0 0 0 0 0 0 0 0 0 0 0 0 0 0 0 0 0 7359 8177 0 0 0 0 0 0 0 0 0 0 0 0 0 0 0 0 0 0 0 0 0 0 0 0 0 0 0 0 0 0 0 0 0 0 0 0 0 0 0 8177 0 0 0 0 0 0 0 0 0 0 0 0 7359 6690 0 0 0 0 0 0 0 0 0 0 0 0 0 0 0 0 0 0 0 0 0 0 0 0 7359 6133 6690 6690 6690 6690 6690 6690 7359 7359 6133 0 0 0 0 0 0 0 0 0 0 0 0 0 0 8177 7359 7359 7359 7359 6690 6133 5661 5661 6690 5256 6690 7359 6690 5661 0 0 0 0 0 0 8177 0 0 8177 7359 8177 7359 6690 6690 6690 6133 5256 5256 5256 5256 4599 5256 5256 5256 4906 4906 4599 4906 3679 4906 3679 3345 3199 3345 3345 3345 3199 3345 3066 2943 2943 2943 2943 2943 2725 2830 2725 2628 2725 2628 2628 2453 2374 2230 1989 1989 1936 1887 1887 1936 1887 1887 1887 2164 2102 2230 2299 2230 2230 2164 2044 1936 1839 1635 1599 1471 1471 1443 1443 1415 1415 1415 1415 1388 1415 1415 1362 1338 1338 1338 1314 1291 1291 1247 1149 1168 1247 1268 1291 1314 1314 1291 1314 1338 1362 1362 0 0 0 0 0 0 0 0 1268 1291 1291 0 0 181 0 0 0 0 0 0 0 0 0 0
    0 0 0 0 0 0 0 0 0 0 0 0 0 0 0 0 0 0 0 0 0 0 0 0 0 0 0 0 0 0 0 0 0 0 0 0 0 0 0 0 0 0 0 0 0 0 0 0 0 0 0 0 0 0 0 0 0 0 0 0 0 0 0 0 0 0 0 0 0 8177 0 0 0 0 0 0 0 0 0 0 0 0 0 0 0 0 0 0 0 0 0 0 0 0 0 0 0 0 0 0 0 0 0 0 0 0 0 0 0 0 8177 0 0 0 0 0 0 0 0 0 0 0 0 6690 5661 0 7359 8177 0 0 0 0 0 0 0 0 0 0 0 0 0 0 0 0 0 0 8177 0 0 6133 5661 6133 6133 6690 6690 6690 6690 7359 8177 6690 0 0 0 0 0 0 0 0 0 0 0 0 0 0 0 7359 7359 6690 6690 6690 6133 5661 5661 6690 4906 6133 6690 6133 5661 0 0 0 0 0 8177 7359 0 0 0 8177 0 7359 6690 6690 6690 6133 5256 5256 4906 5256 4599 5256 5256 5256 4906 4906 4599 5256 3679 4906 3679 3504 3345 3504 3345 3345 3345 3199 3066 2830 2943 2943 2830 2830 2725 2725 2725 2628 2725 2725 2725 2537 2537 2374 2044 1989 1936 1839 1887 1887 1839 1839 1839 2102 2102 2230 2299 2230 2102 2102 1936 1795 1711 1501 1471 1415 1415 1443 1443 1415 1415 1388 1415 1388 1415 1415 1362 1314 1338 1314 1291 1291 1291 1226 1132 1168 1226 1247 1268 1291 1291 1291 1291 1338 1362 1388 0 0 0 0 0 0 0 0 1268 0 1291 0 0 181 0 0 0 0 0 0 0 0 0 0
    0 0 0 0 0 0 0 0 0 0 0 0 0 0 0 0 0 0 0 0 0 0 0 0 0 0 0 0 0 0 0 0 0 0 0 0 0 0 0 0 0 0 0 0 0 0 0 0 0 0 0 0 0 0 0 0 0 0 0 0 0 0 0 0 0 0 0 0 0 8177 0 0 0 0 0 0 0 0 0 0 0 0 0 0 0 0 0 0 0 0 0 0 0 0 0 0 0 0 0 0 0 0 0 0 0 0 0 0 0 0 0 0 0 0 0 0 0 0 0 0 0 0 0 6690 5661 8177 7359 8177 0 0 0 0 0 0 0 0 0 0 0 0 0 0 0 0 0 6690 5661 6133 0 5661 5256 6133 6690 6690 6690 6690 6690 7359 8177 7359 0 0 0 0 0 0 0 0 0 0 0 0 0 0 0 7359 7359 7359 7359 6690 6133 5661 5661 6690 4906 6133 6690 6133 5661 8177 8177 8177 8177 0 7359 6690 8177 0 8177 8177 8177 7359 6690 7359 7359 6133 5661 5661 5256 5256 4599 5256 5256 4906 4906 4906 4329 5256 3873 4906 3873 3679 3345 3504 3504 3504 3345 3199 3066 2830 2830 2943 2830 2830 2725 2725 2830 2725 2943 2830 2830 2628 2628 2374 2044 1936 1887 1887 1887 1887 1839 1795 1795 2102 2102 2230 2164 2044 1989 1936 1795 1599 1599 1443 1443 1443 1415 1443 1443 1415 1415 1415 1415 1388 1415 1415 1362 1314 1314 1314 1291 1291 1268 1206 1115 1149 1226 1247 1268 1291 1291 1291 1291 1314 1362 1388 0 0 0 0 0 0 0 0 1268 0 1291 1291 0 181 0 0 0 0 0 0 0 0 0 0
    0 0 0 0 0 0 0 0 0 0 0 0 0 0 0 0 0 0 0 0 0 0 0 0 0 0 0 0 0 0 0 0 0 0 0 0 0 0 0 0 0 0 0 0 0 0 0 0 0 0 0 0 0 0 0 0 0 0 0 0 0 0 0 0 0 0 0 0 0 8177 0 0 0 0 0 0 0 0 0 0 0 0 0 0 0 0 0 0 0 0 0 8177 8177 8177 8177 0 0 0 0 0 0 0 0 0 0 0 0 0 0 0 8177 0 0 0 0 0 0 0 0 0 0 0 0 6690 5661 8177 6690 7359 0 8177 0 0 0 0 0 0 0 0 0 0 0 0 6690 0 6133 5661 4906 5256 0 5661 5256 6133 6690 6690 6690 7359 7359 8177 8177 8177 0 0 0 0 0 0 0 0 0 0 0 0 0 0 0 7359 7359 7359 7359 6690 6133 6133 5661 6690 4906 6133 6133 6133 5661 8177 8177 8177 8177 0 6133 6133 6690 8177 8177 7359 8177 7359 6690 8177 7359 6690 6133 6133 5661 5661 4906 5661 5256 5256 4906 4906 4329 4906 3873 4906 3873 3679 3504 3504 3504 3504 3345 3199 3066 2830 2830 2943 2830 2830 2830 2725 2943 2830 2943 2943 2943 2725 2725 2453 2102 1989 1936 1887 1887 1887 1839 1795 1795 1989 1989 2102 1989 1936 1839 1795 1599 1501 1533 1415 1443 1443 1443 1471 1443 1443 1443 1415 1443 1388 1415 1443 1362 1314 1314 1314 1291 1291 1268 1206 1132 1168 1206 1226 1247 1268 1268 1268 1268 1314 1338 1388 0 0 0 0 0 0 0 0 1268 1291 1291 0 0 181 0 0 0 0 0 0 0 0 0 0
    0 0 0 0 0 0 0 0 0 0 0 0 0 0 0 0 0 0 0 0 0 0 0 0 0 0 0 0 0 0 0 0 0 0 0 0 0 0 0 0 0 0 0 0 0 0 0 0 0 0 0 0 0 0 0 0 0 0 0 0 0 0 0 0 0 0 0 0 0 8177 0 0 0 0 0 0 0 0 0 0 0 0 0 0 0 0 0 0 0 0 0 8177 8177 8177 8177 0 0 0 0 0 0 0 0 0 0 0 0 0 0 0 0 0 0 0 0 0 0 0 0 0 0 8177 8177 6690 5661 8177 6690 7359 0 8177 0 0 0 0 0 0 0 0 0 0 0 0 6133 5661 4906 4906 4599 4599 4088 5661 4906 6133 6690 6690 6690 7359 7359 8177 8177 8177 0 0 0 0 0 0 0 0 0 0 0 0 0 0 0 7359 7359 7359 7359 7359 6690 6690 6133 7359 4906 5661 6690 6133 6133 8177 8177 8177 8177 0 5661 6133 6133 6690 6690 5661 6690 5661 5661 6690 6133 6133 5661 5256 5256 5256 4599 5661 5256 5256 5256 5256 4906 5256 4088 5256 4088 3873 3679 3679 3504 3504 3345 3199 3066 2830 2830 2943 2830 2830 2830 2830 2943 2830 3066 3066 3066 2830 2830 2537 0 2044 1936 1936 1887 1887 1839 1795 1752 1936 1936 1989 1887 1795 1711 1672 1533 1501 1533 1443 1471 1471 1443 1471 1471 1443 1443 1415 1443 1388 1415 1415 1362 1314 1338 1314 1291 1291 1268 1226 1149 1168 1226 1226 1247 1268 0 1268 1268 0 1338 1362 0 0 0 0 0 0 0 0 1268 1291 1314 0 0 181 0 182 181 0 0 0 0 0 0 0
    0 0 0 0 0 0 0 0 0 0 0 0 0 0 0 0 0 0 0 0 0 0 0 0 0 0 0 0 0 0 0 0 0 0 0 0 0 0 0 0 0 0 0 0 0 0 0 0 0 0 0 0 0 0 0 0 0 0 0 0 0 0 0 0 0 0 0 0 0 8177 0 0 0 0 0 0 0 0 0 0 0 0 0 0 0 0 0 0 0 0 0 8177 8177 8177 8177 0 0 0 0 0 0 0 0 0 0 0 0 0 0 0 0 0 0 0 0 0 8177 0 0 0 0 8177 8177 6690 5661 8177 6690 7359 0 0 0 0 0 0 0 0 0 0 0 0 0 0 5256 5256 4329 4599 4329 4329 4088 5256 4906 6133 6690 6690 7359 7359 7359 8177 8177 8177 0 0 0 0 0 8177 0 0 0 0 0 0 0 0 0 8177 8177 8177 8177 8177 7359 7359 6690 8177 5256 6133 6690 6133 6133 8177 8177 8177 8177 0 5661 6133 6690 6690 6690 5661 6133 5256 4906 6133 5256 4906 4599 4599 4906 5256 4329 5661 5256 5256 5256 5256 4906 5256 4329 5256 4329 3873 3679 3679 3345 3345 3199 3066 2943 2830 2830 2830 2830 2830 2830 2830 2943 2943 2943 3066 3066 2830 2830 2628 0 2164 1989 1936 1936 1887 1839 1752 1711 1839 1795 1839 1752 1672 1599 1565 1533 1501 1501 1443 1471 1471 1443 1471 1471 1415 1415 1388 1415 1388 1415 1415 1362 1291 1314 1314 1291 1291 1268 1226 1149 1187 1226 1247 1247 1268 1268 1268 1268 0 1314 1338 0 0 0 0 0 0 1291 0 1268 1314 1314 1314 0 0 0 0 181 0 182 0 0 0 0 0
    0 0 0 0 0 0 0 0 0 0 0 0 0 0 0 0 0 0 0 0 0 0 0 0 0 0 0 0 0 0 0 0 0 0 0 0 0 0 0 0 0 0 0 0 0 0 0 0 0 0 0 0 0 0 0 0 0 0 0 0 0 0 0 0 0 0 0 0 0 8177 0 0 0 0 0 0 0 0 0 0 0 0 0 0 0 0 0 0 0 0 0 8177 8177 8177 8177 0 0 0 0 0 0 0 0 0 0 0 0 0 0 0 0 0 0 0 0 0 8177 8177 8177 0 8177 7359 7359 7359 6133 0 7359 8177 0 0 0 0 0 0 0 0 0 0 0 0 0 0 3873 4329 3679 3873 4088 3873 4088 5256 4906 6133 6690 6690 7359 7359 8177 8177 8177 8177 0 0 0 0 0 8177 0 0 0 0 0 0 0 0 0 8177 8177 8177 0 0 7359 7359 7359 8177 5256 6133 6690 6133 6133 8177 7359 7359 7359 0 5256 5661 6133 6133 5661 4599 4906 4088 3679 4906 0 0 3873 4088 4329 4906 4329 5661 5256 5256 5256 5256 4906 5256 4599 5256 4329 3873 3679 3679 3345 3345 3199 2943 2943 2830 2830 2830 2830 2830 2830 2830 2943 2943 2943 3066 3066 2943 2943 2725 2537 2299 2102 2044 1936 1887 1839 1752 1711 1839 1752 1795 1711 1635 1565 1565 1533 1501 1533 1471 1471 1471 1471 1471 1443 1415 1388 1362 1388 1362 1388 1362 1338 1268 1291 1314 1291 1291 1268 1226 1168 1187 1247 1247 1268 1268 1268 1268 1268 1314 1338 1362 0 0 0 0 0 0 1291 0 1291 1314 1314 1314 1362 0 0 0 0 0 0 0 0 0 0 0
    0 0 0 0 0 0 0 0 0 0 0 0 0 0 0 0 0 0 0 0 0 0 0 0 0 0 0 0 0 0 0 0 0 0 0 0 0 0 0 0 0 0 0 0 0 0 0 0 0 0 0 0 0 0 0 0 0 0 0 0 0 0 0 0 0 0 0 0 0 8177 0 0 0 0 0 0 0 0 0 0 0 0 0 0 0 0 0 0 0 0 0 0 0 8177 8177 0 0 0 0 0 0 0 0 0 0 0 0 0 0 0 9199 0 0 0 0 0 7359 8177 8177 0 8177 7359 7359 7359 6690 0 8177 8177 0 0 0 0 0 0 0 0 0 0 0 0 0 0 0 3873 3345 3679 3873 3873 3873 5256 4906 6133 6690 6690 7359 8177 8177 0 8177 0 0 0 0 0 0 0 0 0 0 0 0 0 0 0 0 8177 0 0 0 0 8177 7359 7359 0 5256 5661 6133 5661 6133 7359 7359 7359 7359 0 5256 5256 5661 4599 4088 3679 3504 3345 3199 0 0 0 0 3679 3873 4599 4329 5256 5256 5256 5256 5256 4906 5256 4599 5256 4329 4088 3679 3504 3345 3199 3066 2943 2943 2830 2830 2830 2830 2830 2830 2830 3066 3066 3066 3199 3199 3066 3066 2830 2725 2453 2299 2230 1989 1936 1839 1711 1711 1795 1711 1752 1672 1635 1565 1565 1533 1533 1533 1501 1501 1501 1471 1501 1471 1415 1388 1362 1388 1362 1362 1388 1338 1291 1314 1338 1314 1314 1291 1247 1187 1206 1247 1247 1268 1291 1291 1291 1291 1338 1362 1388 1314 0 0 0 0 0 0 0 1291 0 1314 1314 1362 0 0 0 0 0 0 0 0 0 0 0
    0 0 0 0 0 0 0 0 0 0 0 0 0 0 0 0 0 0 0 0 0 0 0 0 0 0 0 0 0 0 0 0 0 0 0 0 0 0 0 0 0 0 0 0 0 0 0 0 0 0 0 0 0 0 0 0 0 0 0 0 0 0 0 0 0 0 0 0 0 8177 0 0 0 0 0 0 0 0 0 0 0 0 0 0 0 0 0 0 0 0 0 0 0 0 0 0 0 0 0 0 0 0 0 0 0 0 0 0 0 0 8177 0 0 0 0 0 7359 7359 7359 0 8177 7359 6690 7359 6690 0 8177 0 0 0 0 0 0 0 0 0 0 0 0 6690 5661 4599 0 3679 3199 3504 3679 3873 3873 5256 4906 6133 6690 6690 7359 7359 8177 8177 8177 0 0 0 0 0 0 0 0 0 0 0 0 0 0 0 0 0 0 0 0 0 8177 8177 8177 0 5256 5661 6133 5661 6133 7359 7359 7359 7359 0 5256 5661 5256 4329 3873 3504 3066 3066 0 0 0 0 0 3199 3504 4329 4329 5256 5256 5256 5256 5661 5256 5661 4906 5256 4599 4329 3679 3504 3199 3199 3066 2830 2943 2830 2830 2830 2943 2943 2943 2943 3199 3066 3066 3066 3199 3066 3066 2830 2725 2537 2299 2374 2102 1936 1839 1711 1711 1795 1672 1711 1635 1599 1565 1565 1565 1533 1533 1501 1501 1501 1501 1533 1471 1443 1388 1362 1388 1362 1362 1362 1338 1268 1314 1314 1314 1314 1291 1268 1206 1206 1268 1268 1291 1291 1291 1291 1314 1362 1388 1443 1338 0 0 319 0 0 0 0 1268 0 1291 1314 1388 0 0 0 0 0 0 0 0 0 0 0
    0 0 0 0 0 0 0 0 0 0 0 0 0 0 0 0 0 0 0 0 0 0 0 0 0 0 0 0 0 0 0 0 0 0 0 0 0 0 0 0 0 0 0 0 0 0 0 0 0 0 0 0 0 0 0 0 0 0 0 0 0 0 0 0 0 0 0 0 0 8177 0 0 0 0 0 0 0 0 0 0 0 0 0 0 0 0 0 0 0 0 0 0 0 0 0 0 0 0 0 0 0 0 0 0 0 0 0 0 0 0 7359 0 0 0 0 0 6690 7359 7359 8177 7359 6690 6690 7359 6690 0 0 0 0 0 0 0 0 0 0 0 0 0 0 6133 5256 4599 0 3504 2943 3345 3873 3873 3873 5256 4599 5661 6133 6133 6690 6690 6690 7359 6133 6690 7359 6690 0 0 0 0 0 0 0 0 0 0 0 0 0 0 0 0 0 0 8177 8177 8177 0 5256 5256 5661 5256 6133 7359 6690 6690 6690 0 4906 5256 4329 3504 3199 2830 2044 2230 1989 0 2164 0 0 0 3345 4329 4088 5661 5256 5256 5256 5661 5256 5256 4906 5256 4599 4329 3873 3504 3345 3199 3066 2943 2943 2943 2943 2943 2943 2943 3066 2943 3199 3199 3066 3199 3199 3066 3066 2943 2830 2628 2299 2453 2102 1989 1839 1711 1711 1795 1672 1711 1599 1565 1533 1565 1565 1533 1533 1533 1501 1501 1501 1533 1501 1443 1388 1362 1388 1362 1362 1362 1338 1291 1314 1314 1314 1314 1291 1268 1206 1226 1268 1291 0 1314 1314 1314 1338 1388 1388 1471 0 0 319 322 0 0 0 0 1268 0 1291 1291 1362 0 0 0 0 0 0 0 0 0 0 0
    0 0 0 0 0 0 0 0 0 0 0 0 0 0 0 0 0 0 0 0 0 0 0 0 0 0 0 0 0 0 0 0 0 0 0 0 0 0 0 0 0 0 0 0 0 0 0 0 0 0 0 0 0 0 0 0 0 0 0 0 0 0 0 0 0 0 0 0 0 7359 8177 0 0 0 0 0 0 0 0 0 0 0 0 0 0 0 0 0 0 0 0 0 0 0 0 0 0 0 0 0 0 0 0 0 0 0 0 0 0 0 7359 8177 0 0 0 0 6690 7359 7359 8177 7359 6690 6690 7359 6690 0 0 0 0 0 0 0 0 0 0 0 0 0 8177 6133 5256 5661 3679 4329 3199 0 4329 4088 3873 4599 4088 4599 4599 4599 5256 5256 5256 5661 4599 5256 5256 4906 0 6690 5661 0 0 0 0 0 0 0 0 0 0 0 0 0 0 0 0 8177 8177 0 5661 5256 5661 5256 6133 6690 6133 6133 6133 8177 4599 4329 3504 2943 2537 2374 1936 1989 1936 2044 2044 1887 2102 2628 0 4329 4329 5661 5256 5256 5256 5661 5256 5256 4906 4906 4599 4088 3679 3504 3199 3066 3066 3066 3066 3066 2943 2943 3066 3066 3199 3066 3199 3199 3066 3066 3199 2943 2943 2830 2830 2537 2299 2537 2230 2044 1887 1795 1795 1795 1672 1711 1599 1599 1533 1565 1565 1533 1533 1533 1501 1501 1501 1565 1501 1443 1388 1362 1388 1362 1362 1362 1338 1291 1314 1314 1338 1338 1314 1268 1226 1247 1291 0 0 1338 1338 1338 1362 1415 1415 1501 0 324 321 324 0 0 0 0 1268 0 1291 1291 1362 0 0 0 0 0 0 0 0 0 0 0
    0 0 0 0 0 0 0 0 0 0 0 0 0 0 0 0 0 0 0 0 0 0 0 0 0 0 0 0 0 0 0 0 0 0 0 0 0 0 0 0 0 0 0 0 0 0 0 0 0 0 0 0 0 0 0 0 0 0 0 0 0 0 0 0 0 0 0 0 0 6690 7359 0 0 0 0 0 0 0 0 0 0 0 0 0 0 0 0 0 0 0 0 0 0 0 0 0 0 0 8177 8177 0 0 0 0 0 0 0 0 0 0 7359 8177 0 0 8177 8177 6690 6690 7359 8177 7359 6690 6690 7359 6690 0 0 0 0 0 0 0 0 0 0 0 0 0 6133 5661 5256 5256 4088 5256 0 0 4906 4088 3679 4088 3679 3679 3504 3504 3504 3345 3504 3873 3199 0 3345 3199 0 4599 3504 0 0 0 0 0 0 0 0 0 0 0 0 0 0 0 0 8177 7359 8177 5256 4599 4599 4329 5661 6133 5661 5661 5661 6690 4088 4329 3504 2830 2453 2299 1936 1989 1887 1989 1989 1839 1989 2164 0 3873 4088 5661 5256 5256 5256 5256 5256 4906 4906 4906 4599 4088 3504 3345 3066 3066 3066 3066 3066 3066 2943 2943 3066 3066 3066 3066 3199 3199 2943 3066 3199 3066 3066 2943 2830 2628 2453 2537 2299 2044 1887 1839 1795 1795 1672 1711 1635 1599 1533 1599 1565 1533 1533 1533 1501 1501 1501 1565 1501 1443 1388 1388 1388 1388 1362 1362 1338 1291 1338 1338 1338 1338 1338 1291 1247 1268 1314 0 0 0 0 1362 1362 1415 1415 1501 0 325 322 325 324 325 0 0 0 0 1291 1291 0 0 0 0 0 0 0 0 0 0 0 0
    0 0 0 0 0 0 0 0 0 0 0 0 0 0 0 0 0 0 0 0 0 0 0 0 0 0 0 0 0 0 0 0 0 0 0 0 0 0 0 0 0 0 0 0 0 0 0 0 0 0 0 0 0 0 0 0 0 0 0 0 0 0 0 0 0 0 0 0 0 6690 6690 0 0 0 0 0 0 0 0 0 0 0 0 0 0 0 0 0 0 0 0 0 0 0 0 0 0 0 9199 0 0 0 0 0 0 8177 0 0 0 0 7359 7359 0 0 8177 8177 6690 6690 7359 8177 7359 6690 6690 7359 6690 0 0 0 0 0 0 0 0 0 0 0 0 8177 5256 5256 5256 5256 4599 6133 0 0 5661 4329 3679 3873 3504 3345 0 0 0 0 2102 0 0 0 0 2830 1635 0 0 0 0 0 0 0 0 0 0 0 0 0 0 0 0 0 8177 7359 6690 7359 4088 3679 3504 3345 4599 5256 4599 4599 4599 5256 3504 3504 3199 2628 2164 2164 1936 1989 1936 1989 1989 1936 2044 2374 2725 3199 3345 5256 4906 5256 5256 5661 5256 4906 4906 5256 4599 4329 3679 3504 3199 3066 3199 3066 3066 3066 2943 2943 3066 3066 3066 3066 3199 3066 2943 3066 3066 2943 2943 2830 2725 2537 2453 2537 2374 2102 1887 1839 1839 1795 1672 1672 1635 1599 1565 1599 1599 1533 1533 1533 1501 1533 1501 1533 1471 1443 1415 1388 1415 1388 1388 1388 1338 1314 1338 1338 1338 1338 1362 1291 1247 1291 1314 0 0 0 0 0 0 1415 1415 1501 0 328 324 327 325 327 0 327 0 0 0 1268 0 0 0 0 183 183 183 0 0 0 0 0
    0 0 0 0 0 0 0 0 0 0 0 0 0 0 0 0 0 0 0 0 0 0 0 0 0 0 0 0 0 0 0 0 0 0 0 0 0 0 0 0 0 0 0 0 0 0 0 0 0 0 0 0 0 0 0 0 0 0 0 0 0 0 0 0 0 0 0 0 0 7359 7359 0 0 0 0 0 0 0 0 0 0 0 0 0 0 0 0 0 0 0 0 0 0 0 0 0 0 0 9199 0 0 0 0 0 0 8177 0 0 0 0 7359 7359 0 0 8177 8177 6690 7359 7359 8177 8177 6690 6690 7359 7359 0 8177 8177 0 0 0 0 0 0 0 0 0 8177 4906 4906 5661 6133 5256 6690 6690 0 6133 5256 4599 4329 3873 0 0 0 0 1839 1795 1795 1936 1887 1936 2102 1672 0 0 0 0 0 0 0 0 0 0 0 0 0 0 0 0 0 6690 6133 4906 4599 3345 3199 3066 2943 3504 4329 3873 4088 4329 4329 3345 3345 3066 2453 2102 2164 1989 1989 1936 2044 2044 1989 2164 2537 2725 3504 3504 5661 4906 5256 5256 5256 4906 4599 4329 4906 4329 4329 3679 3504 3345 3199 3345 3199 3066 3199 3066 2943 3066 3066 3199 3066 3066 3066 2830 2943 2830 2830 2725 2537 2453 2299 2164 2230 2164 1989 1887 1839 1839 1795 1672 1711 1635 1635 1533 1599 1599 1533 1533 1533 1501 1533 1501 1533 1471 1443 1415 1388 1415 1388 1388 1388 1362 1314 1362 1338 1338 1338 1362 1291 1226 1291 1314 0 0 0 0 0 0 1443 1415 1565 1362 330 325 327 327 327 0 328 0 328 0 1268 0 182 0 0 183 183 0 0 0 0 0 0
    0 0 0 0 0 0 0 0 0 0 0 0 0 0 0 0 0 0 0 0 0 0 0 0 0 0 0 0 0 0 0 0 0 0 0 0 0 0 0 0 0 0 0 0 0 0 0 0 0 0 0 0 0 0 0 0 0 0 0 0 0 0 0 0 0 0 0 0 0 7359 7359 0 0 0 0 0 0 0 0 0 0 0 0 0 0 0 0 0 0 0 0 0 0 0 0 0 0 0 0 0 0 0 0 0 0 0 0 0 0 0 7359 7359 0 0 8177 8177 6690 7359 7359 8177 8177 7359 6690 7359 7359 0 8177 8177 8177 0 0 0 0 0 0 0 0 8177 5256 4906 5661 6690 6133 0 8177 0 0 5661 4599 0 0 0 0 0 0 1795 1752 1752 1839 1839 1839 1936 1711 1635 1795 1672 0 0 0 0 0 0 0 0 0 0 0 0 0 0 6690 5661 3873 3504 2943 2830 2628 2725 3066 3504 3345 3504 3873 4088 3345 3345 3066 2628 2164 2230 2044 1989 1936 2044 2044 1989 2164 2628 2725 3679 3873 5661 4906 4906 5256 4906 4329 4088 4329 4599 4088 3873 3873 3504 3504 3345 3679 3504 3345 3345 3345 3199 3199 3199 3199 3066 3066 3066 2830 2830 2725 2537 2537 2299 2164 2044 1989 1989 2044 1936 1887 1839 1839 1795 1672 1711 1672 1635 1533 1635 1565 1501 1501 1533 1501 1501 1501 1533 1471 1443 1443 1415 1443 1388 1415 1415 1388 1338 1388 1362 1362 1362 1388 1291 1226 1291 1314 0 0 0 0 0 0 0 0 1565 1388 330 327 327 327 0 0 328 328 328 0 1268 0 0 0 0 183 183 0 0 0 0 0 0
    0 0 0 0 0 0 0 0 0 0 0 0 0 0 0 0 0 0 0 0 0 0 0 0 0 0 0 0 0 0 0 0 0 0 0 0 0 0 0 0 0 0 0 0 0 0 0 0 0 0 0 0 0 0 0 0 0 0 0 0 0 0 0 0 0 0 0 0 0 7359 7359 0 0 0 0 0 0 0 0 0 0 0 0 0 0 0 0 0 0 0 0 0 0 0 0 0 0 0 0 0 0 0 0 0 0 0 0 0 0 0 7359 8177 0 0 0 8177 7359 7359 7359 0 8177 7359 7359 7359 7359 0 8177 8177 8177 0 0 0 0 0 0 0 0 0 6133 5661 6690 8177 7359 0 0 0 0 0 0 0 0 0 1565 1711 1752 1711 1711 1711 1752 1795 1752 1795 1672 1635 1711 1635 1599 1565 1635 1635 1635 0 0 0 0 0 0 0 0 8177 6690 5256 3679 3345 2943 2725 2299 2453 2628 3066 2943 3066 3199 3345 2943 3199 3199 2830 2453 2374 2102 2044 1989 2102 2044 1989 2102 2537 2628 4088 3873 5661 4906 5256 5256 4906 4329 3873 4329 4599 4088 3873 3873 3679 3873 3504 3873 3679 3504 3504 3504 3345 3345 3199 3199 2943 2943 3066 2725 2628 2537 2299 2374 2102 1989 1989 1887 1936 2044 1936 1887 1839 1839 1795 1711 1711 1672 1635 1533 1599 1565 1471 1501 1501 1471 1501 1501 1533 1501 1471 1443 1415 1443 1415 1443 1443 1388 1362 1388 1362 1388 1362 1415 1291 1226 1291 1314 0 0 0 0 0 0 1443 1443 1565 1415 331 327 328 328 0 0 330 330 330 0 0 0 0 0 0 182 182 0 0 0 0 0 0
    0 0 0 0 0 0 0 0 0 0 0 0 0 0 0 0 0 0 0 0 0 0 0 0 0 0 0 0 0 0 0 0 0 0 0 0 0 0 0 0 0 0 0 0 0 0 0 0 0 0 0 0 0 0 0 0 0 0 0 0 0 0 0 0 0 0 0 0 0 6133 6133 0 0 0 0 0 0 0 0 0 0 0 0 0 0 0 0 0 0 0 0 0 0 0 0 0 0 0 0 0 0 0 0 0 0 0 0 0 0 0 8177 8177 0 0 0 0 7359 7359 7359 8177 8177 7359 7359 7359 7359 8177 7359 8177 8177 0 0 0 0 0 0 0 0 0 6690 6133 6690 8177 7359 0 0 0 0 0 0 0 0 1565 1565 1672 1711 1711 1711 1711 1752 1752 1752 1795 1672 1672 1711 1672 1635 1599 1635 1635 1635 1752 0 0 0 0 0 0 0 8177 6690 5661 3679 0 2943 2628 2164 2374 2453 2725 2725 2725 2830 2943 2830 3199 3066 2830 2628 2537 2230 2102 2044 2164 2102 1936 2044 2537 2537 4599 3873 5256 4906 5256 5256 5256 4599 4088 4599 4906 4329 3873 4088 3873 3873 3679 4088 3873 3504 3679 3679 3345 3345 3066 3199 2943 2943 2943 2628 2453 2374 2102 2230 1989 1936 1936 1887 1887 2044 1989 1887 1887 1887 1839 1711 1752 1672 1635 1533 1635 1565 1471 1501 1501 1471 1501 1501 1533 1471 1443 1443 1415 1471 1415 1443 1443 1415 1362 1415 1362 1388 1362 1443 1291 1226 1291 1314 0 0 0 0 0 0 1443 1443 1565 1415 333 328 328 330 0 330 331 331 331 327 0 183 182 0 0 183 182 183 0 0 0 0 0
    0 0 0 0 0 0 0 0 0 0 0 0 0 0 0 0 0 0 0 0 0 0 0 0 0 0 0 0 0 0 0 0 0 0 0 0 0 0 0 0 0 0 0 0 0 0 0 0 0 0 0 0 0 0 0 0 0 0 0 0 0 0 0 0 0 0 0 0 0 4599 4906 0 0 0 0 0 0 0 0 0 0 0 0 0 0 0 0 0 0 0 0 0 0 0 0 0 0 0 0 0 0 0 0 0 0 0 0 0 0 0 0 0 0 0 8177 8177 7359 7359 7359 8177 8177 7359 7359 8177 7359 0 8177 8177 8177 0 0 0 0 0 0 0 0 0 7359 7359 7359 8177 7359 0 0 7359 0 0 0 0 1415 1533 1533 1635 1711 1672 1711 1711 1795 1795 1795 1795 1672 1711 1752 1711 1672 1635 1711 1672 1672 1795 1752 0 0 0 0 0 0 7359 7359 6133 3873 0 2943 2628 2102 2164 2299 2537 2628 2628 2725 2830 2628 3066 3066 2830 2628 2537 2299 2102 2044 2164 2044 1887 1989 2230 2102 4599 3873 5256 4906 4906 5256 4906 4906 4088 4906 5256 4329 4088 4329 3873 4088 3679 4329 3873 3679 3679 3679 3504 3345 3066 3199 2830 2830 2943 2628 2299 2230 2044 2164 1989 1887 1936 1887 1887 2044 1936 1936 1887 1887 1839 1711 1752 1711 1635 1565 1635 1565 1471 1501 1501 1501 1501 1501 1533 1471 1443 1443 1415 1471 1415 1471 1471 1415 1388 1443 1388 1415 1388 1443 1314 1247 1314 1314 0 0 0 0 0 0 1471 1443 1565 1415 0 330 0 0 0 331 333 0 333 0 1291 183 182 183 182 183 183 183 0 0 0 0 0
    0 0 0 0 0 0 0 0 0 0 0 0 0 0 0 0 0 0 0 0 0 0 0 0 0 0 0 0 0 0 0 0 0 0 0 0 0 0 0 0 0 0 0 0 0 0 0 0 0 0 0 0 0 0 0 0 0 0 0 0 0 0 0 0 0 0 0 0 0 5256 0 0 0 0 0 0 0 0 0 0 0 0 0 0 0 0 0 0 0 0 0 0 0 0 0 0 0 0 0 0 0 8177 8177 7359 0 0 0 0 0 0 0 0 0 0 7359 8177 7359 7359 7359 8177 8177 7359 7359 0 0 0 8177 8177 8177 0 0 0 0 0 0 0 0 0 8177 8177 8177 0 0 0 8177 6690 0 0 0 0 1415 1501 1501 1599 1672 1635 1672 1672 1752 1752 1752 1752 1672 1672 1711 1711 1672 1635 1711 1711 1711 1839 1795 0 0 0 0 0 0 7359 7359 6133 3679 0 2725 2537 2102 2102 2230 2453 2453 2453 2537 2537 2374 2943 3066 2943 2725 2725 2374 2230 2164 2230 2102 1887 1936 2102 1989 3345 3504 4599 4599 4906 5256 4906 4906 4088 4906 5256 4599 4088 4329 4088 4088 3873 4329 3873 3679 3504 3504 3345 3199 2943 2830 2725 2725 2725 2537 2102 2164 1989 2102 1989 1887 1936 1887 1887 2044 1936 1936 1887 1887 1795 1711 1752 1711 1672 1599 1635 1565 1501 1533 1501 1501 1501 1501 1533 1471 1443 1443 1415 1501 1415 1471 1471 1415 1362 1415 1388 1388 1362 1415 1291 1226 1314 1314 1338 0 0 0 0 1388 1443 1443 1565 1388 0 333 0 0 0 0 0 1291 0 1268 1268 0 0 183 183 183 183 183 0 0 0 0 0
    0 0 0 0 0 0 0 0 0 0 0 0 0 0 0 0 0 0 0 0 0 0 0 0 0 0 0 0 0 0 0 0 0 0 0 0 0 0 0 0 0 0 0 0 0 0 0 0 0 0 0 0 0 0 0 0 0 0 0 0 0 0 0 0 0 0 0 0 0 0 0 0 0 0 0 0 0 0 0 0 0 0 0 0 0 0 0 0 0 0 0 0 0 0 0 0 0 0 0 0 0 7359 7359 6690 8177 0 0 0 0 0 0 0 0 0 7359 7359 6690 8177 7359 8177 8177 7359 7359 0 0 0 8177 0 0 0 0 0 0 0 0 0 0 0 8177 0 0 0 0 0 8177 6690 0 0 0 0 1415 1471 1501 1565 1635 1635 1635 1635 1752 1711 1711 1752 1672 1672 1711 1711 1711 1672 1752 1752 1711 1839 0 8177 0 0 0 0 0 8177 0 6690 3873 0 2628 2453 2044 2044 2164 2299 2299 2299 2299 2374 2164 2830 2943 2943 2943 2830 2453 2374 2164 2230 2044 1795 1887 1936 1887 2830 3199 4329 4329 4906 5256 4906 4906 4329 4906 5661 4599 4329 4599 4329 4329 3873 4599 3873 3504 3504 3504 3199 3066 2725 2537 2453 2453 2453 2230 1936 2044 1936 1989 1936 1887 1887 1887 1839 2044 1887 1887 1887 1887 1795 1711 1752 1711 1672 1599 1635 1565 1533 1565 1501 1533 1501 1501 1533 1501 1443 1443 1415 1501 1415 1501 1443 1415 1362 1443 1388 1388 1362 1388 1291 1226 1291 1314 1338 1362 1362 0 0 1388 1443 1443 1533 1388 0 0 0 0 1291 1291 1291 1268 1268 1247 1247 1247 0 0 183 183 183 183 0 0 0 0 0
    0 0 0 0 0 0 0 0 0 0 0 0 0 0 0 0 0 0 0 0 0 0 0 0 0 0 0 0 0 0 0 0 0 0 0 0 0 0 0 0 0 0 0 0 0 0 0 0 0 0 0 0 0 0 0 0 0 0 0 0 0 0 0 0 0 0 0 0 0 0 0 0 0 0 0 0 0 0 0 0 0 0 0 0 0 0 8177 0 0 0 0 0 0 0 0 0 0 0 0 0 0 6690 7359 6690 8177 0 0 0 0 0 0 0 0 0 6690 6690 6690 7359 7359 8177 8177 7359 8177 0 0 0 0 0 0 0 0 8177 8177 0 0 0 0 0 0 0 0 0 0 0 0 0 0 0 0 0 0 1533 1533 1565 1635 1635 1599 1635 1711 1672 1711 1711 1672 1672 1711 1711 1711 1672 1752 1752 1752 1795 0 7359 0 0 0 0 0 8177 0 8177 4599 2943 2537 2374 2044 2044 2102 2230 2230 2164 2230 2374 2230 2830 2943 2943 2943 2830 2537 2537 2230 2230 1989 1795 1795 1795 1752 0 3066 4088 4329 4906 5256 5256 5661 4599 5256 6133 4599 4329 4599 4329 4329 4088 4599 3873 3504 3345 3345 3066 2830 2453 2102 2164 2102 2044 1989 1887 1989 1887 1936 1887 1839 1887 1839 1839 1989 1839 1887 1839 1839 1795 1711 1752 1711 1672 1565 1635 1565 1533 1565 1501 1533 1501 1501 1533 1501 1443 1443 1415 1501 1388 1501 1443 1415 1362 1471 1388 1415 1362 1362 1291 1226 1291 1314 1314 1362 1362 1362 0 1388 1415 1443 1533 1388 1388 1362 1338 1314 1268 1291 1291 1268 1268 1247 1226 1226 1268 1291 0 183 183 183 0 0 0 0 0
    0 0 0 0 0 0 0 0 0 0 0 0 0 0 0 0 0 0 0 0 0 0 0 0 0 0 0 0 0 0 0 0 0 0 0 0 0 0 0 0 0 0 0 0 0 0 0 0 0 0 0 0 0 0 0 0 0 0 0 0 0 0 0 0 0 0 0 0 0 0 0 0 0 0 0 0 0 0 0 0 0 0 0 0 0 0 8177 0 0 0 0 0 0 0 0 0 0 0 0 0 0 6690 7359 7359 8177 0 0 0 0 0 0 0 0 0 6133 6690 6133 7359 7359 8177 8177 7359 8177 0 0 0 0 0 0 0 0 0 0 0 0 0 0 0 0 0 0 0 0 0 0 0 0 0 0 0 0 1565 1565 1565 1635 1635 1599 1635 1711 1672 1672 1711 1672 1672 1711 1711 1711 1635 1752 1752 1752 1795 1936 6690 0 0 0 8177 0 8177 0 0 6690 3504 2725 2628 2102 2044 2102 2164 2164 2102 2102 2164 2102 2537 3066 3066 3066 2943 2628 2725 2537 2453 2102 1795 1795 1795 1752 1752 3199 3873 4599 5256 5661 5661 5661 4906 5661 6690 5256 4329 4329 4329 4599 4088 4599 3679 3504 3345 3345 3066 2628 2044 0 1936 1936 1936 1887 0 1989 0 1936 1936 1887 1887 1839 1839 1936 1839 1839 1839 1795 1752 1711 1752 1711 1672 1565 1635 1565 1533 1599 1501 1533 1501 1501 1565 1501 1443 1471 1415 1501 1415 1533 1443 1415 1362 1501 1415 1415 1362 1362 1314 1247 1314 1314 1314 1338 1362 1362 1362 1362 1415 1415 1501 1388 1362 1362 1338 1314 1291 1291 1268 1268 1268 1226 1226 1226 1268 1291 1268 1268 1291 0 0 0 0 0 0
    0 0 0 0 0 0 0 0 0 0 0 0 0 0 0 0 0 0 0 0 0 0 0 0 0 0 0 0 0 0 0 0 0 0 0 0 0 0 0 0 0 0 0 0 0 0 0 0 0 0 0 0 0 0 0 0 0 0 0 0 0 0 0 0 0 0 0 0 0 5256 0 0 0 0 0 0 0 0 0 0 0 0 0 0 0 0 0 0 0 0 0 0 0 0 0 0 0 0 0 0 0 6690 7359 7359 8177 0 0 0 0 0 0 0 0 0 6133 6690 6133 6690 6690 7359 8177 6690 8177 0 0 0 0 0 0 0 0 0 0 0 0 0 0 0 0 0 0 0 0 0 0 0 0 0 0 0 0 1635 1635 1599 1635 1635 1635 1635 1711 1711 1711 1711 1672 1672 1711 1711 1711 1635 1752 1752 1752 1936 2299 0 0 0 0 8177 0 0 0 0 8177 4329 3066 2943 2374 2230 2164 2164 2164 2044 2044 2044 2044 0 3066 3066 3199 3066 2725 2830 2830 2628 2299 1839 1752 1752 1752 1752 3066 3504 4329 5661 6133 6133 6133 5256 6133 6690 5256 4088 4088 4329 4329 4088 4599 3504 3345 3199 3199 2943 2374 1839 1471 1839 1887 1887 0 0 1936 1887 0 1887 1839 1839 1839 1839 1936 1839 1839 1795 1839 1795 1752 1752 1672 1672 1565 1599 1565 1533 1599 1471 1533 1501 1501 1565 1501 1443 1443 1415 1501 1415 1501 1443 1388 1362 1471 1388 1415 1362 1362 1338 1314 1314 1338 1338 1362 1362 1362 1362 1362 1388 1415 1471 1362 1362 1338 1314 1291 1268 1268 1268 1247 1268 1206 1187 1206 1247 1268 1268 1268 1268 1247 0 0 0 0 0
    0 0 0 0 0 0 0 0 0 0 0 0 0 0 0 0 0 0 0 0 0 0 0 0 0 0 0 0 0 0 0 0 0 0 0 0 0 0 0 0 0 0 0 0 0 0 0 0 0 0 0 0 0 0 0 0 0 0 0 0 0 0 0 0 0 0 0 0 0 3873 3345 4906 4906 0 8177 8177 0 0 0 0 0 0 0 0 0 0 0 0 0 0 0 0 0 0 0 0 0 0 0 0 0 7359 8177 8177 0 0 0 0 0 0 0 0 0 0 6133 6690 6133 6690 6690 7359 8177 6690 7359 0 0 0 0 0 0 0 0 0 0 0 0 0 0 0 0 0 0 0 0 0 0 0 0 0 0 0 0 1672 1672 1672 1672 1672 1635 1672 1752 1711 1711 1711 1672 1672 1711 1711 1711 1599 1711 1711 1711 2102 0 0 0 0 0 8177 8177 0 0 0 0 5661 3199 3199 2628 2453 2374 2230 2102 1989 1989 1936 1887 1795 2725 2830 3199 2943 2725 2830 2830 2725 2374 1887 1795 1752 1752 1711 3066 3504 0 0 6690 6690 6690 5661 6133 6690 5256 4329 3873 4329 4599 4088 4599 3345 3345 3066 3199 2943 2102 1672 1291 1388 1711 1711 0 1599 0 1887 0 1839 1795 1839 1795 1839 1936 1839 1839 1795 1795 1795 1711 1711 1672 1672 1565 1599 1565 1533 1599 1471 1533 1501 1501 1533 1471 1443 1443 1388 1471 1388 1501 1415 1362 1338 1443 1362 1415 1362 1362 1338 1314 1338 1338 1338 1362 1362 1362 1388 1362 1388 1388 1443 1338 1362 1338 1314 1268 1268 1268 1268 1247 1247 1206 1187 1187 1247 1226 1226 1226 1226 1226 0 0 0 0 0
    0 0 0 0 0 0 0 0 0 0 0 0 0 0 0 0 0 0 0 0 0 0 0 0 0 0 0 0 0 0 0 0 0 0 0 0 0 0 0 0 0 0 0 0 0 0 0 0 0 0 0 0 0 0 0 0 0 0 0 0 0 0 0 0 0 0 0 0 0 3504 3199 3679 3504 6690 7359 8177 0 0 0 0 0 0 0 0 0 0 0 0 0 0 0 0 0 0 0 0 0 0 0 0 0 7359 0 8177 0 0 0 0 0 0 0 0 0 0 6133 6690 6133 6690 6690 7359 7359 6690 7359 0 0 0 0 0 0 0 0 8177 0 0 0 0 0 0 0 0 0 0 327 0 0 325 0 0 0 0 0 1752 1711 1711 1711 1711 1672 1672 1752 1711 1711 1711 1672 1672 1711 1711 1711 1599 1711 1752 1752 2943 0 0 0 0 0 6690 6690 7359 0 0 0 4906 2943 3066 0 0 0 2164 2044 1936 1887 1887 1795 1752 0 2537 3066 2628 2537 2537 2537 2537 2299 1839 1752 1711 1711 1599 0 0 0 0 6690 6690 7359 6133 6133 7359 5661 4599 3873 4599 4329 4088 4599 3345 3199 0 0 0 0 0 1226 0 0 0 0 0 0 0 0 0 1795 1795 1795 1839 1839 1795 0 1795 1795 1752 1711 1711 1635 1672 1565 1599 1565 1565 1635 1501 1565 1501 1501 1565 1501 1443 1443 1388 1471 1388 1471 1415 1362 1338 1443 1362 1388 1362 1338 1338 1338 1338 1338 1338 1362 1362 1362 1388 1362 1362 1388 1415 1338 1338 1338 1291 1268 1247 1247 1247 1226 1247 1187 1168 1187 1226 1206 1206 1206 1187 1187 0 0 0 0 0
    0 0 0 0 0 0 0 0 0 0 0 0 0 0 0 0 0 0 0 0 0 0 0 0 0 0 0 0 0 0 0 0 0 0 0 0 0 0 0 0 0 0 0 0 0 0 0 0 0 0 0 0 0 0 0 0 0 0 0 0 0 0 0 0 0 0 0 0 0 3873 3345 3873 3679 5661 6690 7359 0 0 0 0 0 0 0 0 0 0 0 0 0 0 0 0 0 0 0 0 0 0 0 8177 0 6133 7359 7359 0 0 0 0 0 0 0 8177 0 0 5661 6690 5661 6133 6133 6690 7359 6133 6690 0 0 0 0 0 0 0 0 8177 8177 0 0 0 0 0 0 0 0 0 325 324 327 0 0 0 0 0 0 0 1711 1711 1672 1711 1672 1672 1752 1711 1711 1711 1672 1672 1711 1711 1711 1599 1711 1711 1795 3345 3345 5256 0 7359 5256 4088 3345 2943 0 0 0 0 2628 0 0 0 0 0 1936 1839 1795 1795 1752 1672 1752 2102 2628 2299 2374 2374 2230 2230 2044 1795 1711 1672 1635 1533 0 0 0 0 0 6133 6690 6133 6133 7359 5256 4329 3679 4329 4088 3873 4329 3345 0 0 0 0 102 101 0 0 0 0 0 1268 0 0 0 0 1752 0 1711 1795 0 1711 0 0 1752 1711 1711 1711 1635 1672 1565 1599 1565 1565 1635 1501 1533 1501 1501 1565 1501 1443 1443 1388 1471 1388 1501 1415 1388 1338 1443 1362 1415 1362 1338 1338 1314 1338 1338 1338 1362 1362 1362 1388 1362 1362 1388 1415 1338 1362 1338 1291 1268 1247 1247 1247 1226 1226 1187 1168 1187 1206 1206 1187 1187 1168 1187 0 0 0 0 0
    0 0 0 0 0 0 0 0 0 0 0 0 0 0 0 0 0 0 0 0 0 0 0 0 0 0 0 0 0 0 0 0 0 0 0 0 0 0 0 0 0 0 0 0 0 0 0 0 0 0 0 0 0 0 0 0 0 0 0 0 0 0 0 0 0 0 0 0 0 3679 3345 3679 3504 4906 6133 6690 7359 8177 8177 0 0 0 0 0 0 0 0 0 0 0 0 0 8177 0 0 0 8177 0 6133 4599 5256 3504 4599 4906 0 0 0 0 0 0 8177 8177 0 0 5256 6133 5661 5661 6133 6690 7359 6133 6690 0 0 0 0 0 8177 0 0 7359 8177 0 0 0 0 0 0 0 0 0 324 322 0 0 0 0 0 0 0 0 1752 1711 1672 1672 1635 1635 1711 1672 1672 1672 1672 1635 1711 1752 1711 1565 1672 1711 1795 3199 3504 3504 0 6133 3066 3066 2628 2628 2164 0 0 2725 2374 2628 2628 2230 0 1936 1887 1795 1795 1752 1752 1672 1672 1887 2044 1989 2102 2102 2044 0 1887 1711 1635 1635 1599 1533 0 0 0 0 272 0 6133 6690 6133 7359 5256 4088 3679 4329 4088 3873 4088 3345 0 0 0 0 102 102 0 994 0 0 0 1187 0 0 0 0 0 0 1565 1672 1635 0 0 0 0 0 1672 1711 1635 1672 1565 1599 1565 1565 1635 1501 1533 1471 1501 1565 1471 1443 1443 1388 1471 1388 1471 1415 1388 1362 1443 1362 1443 1362 1362 1338 1338 1314 1338 1338 1362 1362 1362 1388 1388 1388 1415 1443 1362 1388 1338 1291 1268 1247 1247 1247 1226 1226 1187 1168 1187 1206 1206 1187 1206 1187 1187 0 0 0 0 0
    0 0 0 0 0 0 0 0 0 0 0 0 0 0 0 0 0 0 0 0 0 0 0 0 0 0 0 0 0 0 0 0 0 0 0 0 0 0 0 0 0 0 0 0 0 0 0 0 0 0 0 0 0 0 0 0 0 0 0 0 0 0 0 0 0 0 0 0 0 3504 3199 3345 3345 3873 5661 5661 5661 6690 6133 8177 0 0 0 0 0 0 0 0 8177 0 8177 8177 7359 0 0 6690 6133 6690 3679 2830 2830 2725 2725 2943 0 0 0 0 0 0 8177 7359 0 0 3679 5256 4906 4906 4906 6133 5661 4906 5661 0 0 0 0 0 6133 7359 0 6133 0 0 0 0 0 0 0 0 0 0 0 0 0 0 0 0 0 0 0 0 1795 1711 1711 1672 1672 1672 1711 1711 1672 1672 1672 1672 1711 1752 1711 1599 1635 1672 1795 2164 2725 1839 0 4906 2725 2628 2299 2299 2044 2299 2628 2537 2230 2453 2453 2102 0 0 1795 1752 1711 1711 1752 1635 1635 1795 0 0 1936 1989 1887 0 0 1711 1599 1565 1565 1501 0 0 273 274 270 0 5661 6133 6133 7359 5256 3873 3679 4088 4088 3873 3873 3345 0 0 0 101 101 101 0 981 994 994 1008 1066 0 1565 0 0 0 1533 1443 1533 0 0 0 0 0 0 0 0 0 0 1565 1599 1599 1599 1635 1501 1565 1471 1501 1565 1471 1443 1443 1388 1471 1388 1471 1415 1388 1362 1471 1388 1471 1388 1388 1338 1338 1338 1362 1338 1362 1362 1362 1388 1388 1388 1415 1471 1362 1388 1338 1268 1268 1247 1247 1247 1226 1226 1168 1168 1187 1187 1187 1168 1187 1168 1187 0 0 0 0 0
    0 0 0 0 0 0 0 0 0 0 0 0 0 0 0 0 0 0 0 0 0 0 0 0 0 0 0 0 0 0 0 0 0 0 0 0 0 0 0 0 0 0 0 0 0 0 0 0 0 0 0 0 0 0 0 0 0 0 0 0 0 0 0 0 0 0 0 0 0 3199 2943 2943 3066 2943 4329 4088 3873 3873 3345 3504 0 0 0 0 0 0 0 8177 7359 8177 8177 8177 7359 0 0 5661 4329 4906 3066 2537 2537 2453 2453 2628 0 0 0 0 0 0 3873 3345 0 0 2725 3504 3504 3679 3679 4088 3679 3504 3679 5256 2943 0 0 4599 3504 4329 0 3873 0 0 0 0 0 0 0 0 0 0 0 0 0 0 0 0 0 0 0 0 1795 1752 1752 1711 1711 1711 1752 1711 1672 1635 1672 1672 1752 1752 1752 1599 1635 1672 1752 1887 1752 1752 0 2628 2374 2230 2102 2102 1936 2102 2453 2374 2164 2230 2299 2044 0 0 1752 1711 1711 1672 1711 1635 1565 1752 1752 0 1795 1839 1839 0 1711 1672 1599 1565 1533 1471 0 0 274 274 270 0 0 0 5661 6133 4599 3679 3504 3873 3679 3679 3679 3199 0 0 0 101 101 101 0 968 968 955 955 1008 0 1471 1471 0 1415 1388 0 0 0 0 0 694 623 0 0 0 0 0 0 1635 1635 1599 1672 1533 1565 1471 1501 1565 1471 1443 1443 1388 1471 1415 1501 1415 1415 1388 1501 1415 1501 1415 1415 1338 1362 1338 1362 1362 1362 1388 1388 1388 1415 1388 1415 1471 1362 1362 0 1247 1247 1226 1247 1247 1206 1206 1168 1168 1187 1168 1206 1168 1187 1168 1187 0 0 0 0 0
    0 0 0 0 0 0 0 0 0 0 0 0 0 0 0 0 0 0 0 0 0 0 0 0 0 0 0 0 0 0 0 0 0 0 0 0 0 0 0 0 0 0 0 0 0 0 0 0 0 0 0 0 0 0 0 0 0 0 0 0 0 0 0 0 0 0 0 0 0 2943 2830 2725 2830 2830 3345 3199 3066 2943 2830 2725 2725 2453 2374 2453 2299 2725 2943 3066 3345 5256 5256 6133 6690 8177 7359 3873 0 3066 2628 2299 2299 2230 2299 2374 2299 0 2628 0 0 0 0 2453 2299 2299 2164 0 2725 2830 2830 2830 2725 2725 2830 2943 2537 2453 2453 2628 2725 2725 2943 2830 2830 2943 2725 2830 0 2725 2830 2537 2537 0 0 0 0 0 0 0 0 1795 1752 1887 1839 1795 1752 1711 1711 1752 1752 1752 1711 1635 1672 1672 1752 1752 1752 1635 1635 1672 1752 1839 1711 1752 1795 1839 2102 2044 1989 1989 1887 2044 2299 2299 2102 2102 2164 1989 0 0 1711 1672 1672 1635 1672 1565 1501 1711 1635 1672 1752 1752 1752 0 1672 1711 1599 1599 1599 1501 1415 0 0 0 0 0 1226 1168 0 0 3679 3345 3345 3504 3345 3345 3504 0 0 0 0 101 101 0 981 955 955 943 943 1008 0 0 0 0 0 0 0 886 931 855 836 743 694 0 0 0 700 0 109 0 0 1635 1672 1565 1533 1471 1501 1533 1471 1443 1443 1388 1443 1388 1471 1415 1415 1388 1501 1415 1533 1443 1415 1362 1362 1338 1362 1362 1388 1388 1388 1415 1415 1388 1443 1471 1362 1362 0 0 1247 1226 1226 1226 1206 1206 1187 1187 1187 1187 1187 1187 1187 1187 1206 0 0 0 0 0
    0 0 0 0 0 0 0 0 0 0 0 0 0 0 0 0 0 0 0 0 0 0 0 0 0 0 0 0 0 0 0 0 0 0 0 0 0 0 0 0 0 0 0 0 0 0 0 0 0 0 0 0 0 0 0 0 0 0 0 0 0 0 0 0 0 0 0 0 0 2830 2628 2453 2725 2537 2725 2830 2725 2628 2453 2374 2453 2230 2102 2299 2044 2102 2374 2374 2374 2725 2830 3066 0 7359 0 2725 2453 2537 2164 2044 2102 2102 2164 2230 2102 2374 2374 2299 0 2164 0 2044 1989 1989 1936 1887 2102 2044 2164 2164 2164 2164 2299 2299 2230 2102 2044 2102 2164 2102 2453 2299 2299 2374 2299 2453 2453 2299 2537 2230 2230 2230 2102 2164 2102 2044 0 1839 1795 1752 1752 1887 1839 1795 1795 1711 1752 1752 1752 1752 1672 1635 1672 1672 1711 1711 1711 1635 1635 1672 1711 1795 1672 1795 1839 1887 2044 2044 1936 1989 1936 2102 2230 2299 2102 1989 2044 1936 1672 1752 1711 1672 1672 1635 1635 1565 1471 1672 1565 1599 1672 1672 1672 1599 1635 1672 1599 1599 1599 1533 0 0 1388 0 0 1268 1226 1168 1149 1168 0 0 3066 3199 3066 3199 3199 0 0 0 0 0 0 0 968 943 955 943 943 1036 1036 1247 0 876 855 865 836 865 865 845 836 782 707 750 750 728 728 0 0 0 109 0 1672 1565 1533 1471 1501 1533 1471 1443 1443 1415 1443 1388 1471 1415 1415 1388 1501 1415 1565 1471 1443 1338 1362 1338 1362 1362 1388 1388 1415 1415 1415 1415 1443 1501 1362 0 324 0 0 1226 1226 1226 1226 1206 1187 1206 1206 1206 1206 1206 1206 1187 1226 0 0 0 0 0
    0 0 0 0 0 0 0 0 0 0 0 0 0 0 0 0 0 0 0 0 0 0 0 0 0 0 0 0 0 0 0 0 0 0 0 0 0 0 0 0 0 0 0 0 0 0 0 0 0 0 0 0 0 0 0 0 0 0 0 0 0 0 0 0 0 0 0 0 0 2628 2453 2230 2374 2299 2299 2374 2453 2374 2230 2164 2230 2102 2044 2164 1989 2044 2102 2102 2102 2230 2299 2453 2299 2628 2230 2102 2044 1989 1936 1936 1989 1989 1989 2044 1989 2102 2102 2102 2102 1989 1989 1936 1887 1887 1887 1839 1887 1839 1936 1887 1936 1936 2044 2044 2044 1989 1936 1989 1989 1936 2102 2044 2044 2102 2044 2164 2164 2044 2299 2102 2102 2102 2044 2044 1989 1936 1936 1795 1752 1752 1752 1887 1839 1795 1752 1711 1752 1752 1752 1711 1672 1599 1635 1635 1711 1711 1711 1672 1672 1672 1711 1795 1672 1795 1795 1839 1936 1936 1936 1989 1936 2102 2164 2230 2102 1936 1989 1887 1672 1711 1672 1599 1635 1599 1635 1533 1471 1635 1501 1565 1635 1599 1635 1533 1565 1599 1565 1599 1599 1533 0 0 1443 1314 1268 1247 1226 1168 1132 1149 1206 1291 1247 0 2299 0 0 0 0 0 0 0 0 0 943 931 955 943 931 0 0 1022 0 845 845 865 836 836 845 817 845 799 728 758 774 735 735 0 0 0 0 0 0 1565 1533 1471 1501 1533 1443 1415 1443 1388 1443 1388 1443 1415 1388 1415 1501 1443 1599 1501 1471 1338 1362 1338 1362 1362 1362 1388 1388 1415 1443 1415 1471 1501 1362 0 325 0 1226 1226 1226 1226 1206 1206 1187 1226 1226 1247 1247 1247 1247 1226 1247 0 0 0 0 0
    0 0 0 0 0 0 0 0 0 0 0 0 0 0 0 0 0 0 0 0 0 0 0 0 0 0 0 0 0 0 0 0 0 0 0 0 0 0 0 0 0 0 0 0 0 0 0 0 0 0 0 0 0 0 0 0 0 0 0 0 0 0 0 0 0 0 0 0 0 2374 2230 1989 2102 2044 2044 2102 2164 2164 2044 2044 2102 2044 1989 2102 1989 1989 2044 2044 2044 2044 2102 2102 2044 2102 1989 1936 1936 1887 1887 1839 1936 1887 1936 1936 1936 1989 1989 1936 1989 1887 1887 1839 1839 1887 1839 1839 1839 1839 1887 1887 1887 1936 1989 1989 1989 1989 1936 1989 1936 1936 2044 1989 1989 1989 1989 2102 2044 1989 2230 2044 2044 2044 1989 1989 1936 1936 1936 1795 1795 1752 1752 1839 1839 1752 1752 1672 1711 1711 1711 1711 1635 1565 1599 1635 1711 1711 1711 1672 1672 1672 1711 1795 1711 1795 1795 1839 1936 1936 1936 1936 1936 2044 2102 2164 2044 1936 1887 1887 1635 1672 1672 1599 1599 1565 1635 1533 1471 1635 1533 1565 1599 1565 1599 1471 1533 1565 1501 1565 1565 1501 0 0 1471 1314 1268 1247 1226 1168 1132 1149 1168 1206 1168 1247 1711 1338 1187 0 0 0 876 0 931 943 931 931 955 943 931 0 0 1388 0 0 0 897 836 855 845 826 855 826 791 782 782 743 743 0 0 0 0 0 0 0 1501 0 0 0 0 0 1415 1388 1443 1388 1443 1415 1415 1415 1565 1501 1635 1533 1501 1338 1362 1338 1362 1362 1362 1388 1415 1415 1443 1443 1471 1501 1338 0 327 0 1226 1226 1226 1226 1206 1206 1187 1226 1226 1247 1268 1268 1268 1247 1268 0 0 0 0 0
    0 0 0 0 0 0 0 0 0 0 0 0 0 0 0 0 0 0 0 0 0 0 0 0 0 0 0 0 0 0 0 0 0 0 0 0 0 0 0 0 0 0 0 0 0 0 0 0 0 0 0 0 0 0 0 0 0 0 0 0 0 0 0 0 0 0 0 0 0 1887 1936 1887 1936 1936 1936 1989 2044 2044 1989 1989 2044 1989 1989 2044 1989 1989 1989 1989 1989 1936 1989 1936 1936 1936 1887 1887 1887 1839 1839 1795 1887 1887 1887 1936 1887 1936 1887 1887 1887 1839 1839 1795 1839 1839 1839 1839 1839 1839 1887 1887 1936 1936 1989 1989 1936 1936 1887 1936 1936 1887 1989 1936 1936 1989 1989 2044 2044 1989 2164 1989 1989 1989 1989 1989 1936 1936 1936 1795 1752 1752 1711 1839 1839 1752 1752 1672 1711 1711 1711 1711 1635 1501 1599 1599 1672 1672 1672 1672 1672 1672 1711 1795 1711 1752 1795 1839 1887 1936 1887 1936 1936 2044 2102 2102 2044 1887 1887 1839 1599 1672 1635 1565 1599 1565 1599 1565 1471 1635 1501 1533 1599 1533 1565 1471 1533 1565 1501 1565 1565 1565 1533 1443 1599 1362 1291 1247 1226 1187 1115 1132 1132 1149 1132 1187 1247 1206 1082 955 981 955 855 919 919 931 931 943 968 943 943 0 0 1752 1711 1533 1443 0 0 955 886 919 897 836 791 758 774 735 743 0 0 0 0 0 0 0 0 0 0 0 0 0 1388 1388 1415 1388 1443 1415 1415 1415 1565 1533 1672 1565 1533 1338 1362 1338 1362 1362 1362 1388 1388 1415 1443 1443 1471 1501 1338 0 328 0 1226 1226 1226 1226 1206 1226 1187 1247 1226 1268 1268 1268 1291 1291 1314 0 0 0 0 0
    0 0 0 0 0 0 0 0 0 0 0 0 0 0 0 0 0 0 0 0 0 0 0 0 0 0 0 0 0 0 0 0 0 0 0 0 0 0 0 0 0 0 0 0 0 0 0 0 0 0 0 0 0 0 0 0 0 0 0 0 0 0 0 0 0 0 0 0 0 1795 1839 1839 1887 1887 1887 1936 1936 1989 1989 1989 2044 1989 1989 2044 1936 1936 1936 1887 1887 1839 1887 1839 1839 1839 1795 1795 1839 1795 1839 1795 1887 1839 1887 1887 1887 1887 1887 1887 1887 1795 1839 1795 1795 1795 1795 1795 1795 1839 1839 1839 1887 1887 1887 1887 1887 1887 1839 1887 1887 1839 1936 1887 1936 1936 1936 1989 1989 1936 2044 1936 1936 1936 1936 1936 1887 1887 1887 1752 1752 1752 1672 1795 1795 1711 1752 1672 1711 1711 1672 1711 1635 1501 1599 1599 1672 1672 1672 1672 1672 1672 1711 1795 1711 1752 1752 1795 1839 1839 1839 1887 1887 1936 1989 1989 1989 1839 1839 1839 1599 1672 1672 1565 1599 1565 1635 1599 1471 1635 1501 1501 1565 1533 1565 1443 1501 1565 1501 1565 1565 1565 1565 1471 1635 1362 1314 1247 1226 1187 1115 1115 1132 1132 1115 1168 1226 1149 1066 981 981 955 855 919 908 931 931 943 968 943 943 0 0 1839 1795 1711 1635 1599 1501 0 0 0 897 808 766 735 758 735 743 750 758 0 0 0 0 0 0 0 0 613 0 0 0 1362 1388 1362 1415 1388 1415 1415 1565 1565 1672 1599 1501 1362 1362 1338 1362 1338 1362 1362 1388 1388 1415 1415 1443 1471 1314 0 0 1226 1226 1226 1226 1226 1206 1226 1206 1247 1226 1268 1268 1291 1291 1291 1314 0 0 0 0 0
    0 0 0 0 0 0 0 0 0 0 0 0 0 0 0 0 0 0 0 0 0 0 0 0 0 0 0 0 0 0 0 0 0 0 0 0 0 0 0 0 0 0 0 0 0 0 0 0 0 0 0 0 0 0 0 0 0 0 0 0 0 0 0 0 0 0 0 0 0 1795 1839 1795 1839 1839 1839 1887 1887 1936 1936 1936 1989 1936 1936 1989 1887 1936 1887 1839 1839 1795 1795 1795 1752 1795 1752 1795 1795 1752 1795 1752 1839 1839 1839 1839 1839 1887 1887 1839 1839 1795 1795 1795 1795 1795 1795 1795 1795 1795 1839 1795 1839 1839 1839 1887 1839 1839 1839 1839 1839 1795 1887 1839 1887 1887 1887 1936 1936 1936 1989 1887 1887 1887 1887 1887 1887 1839 1839 1752 1711 1752 1672 1795 1795 1711 1752 1672 1711 1672 1672 1711 1599 1501 1599 1599 1672 1672 1635 1672 1635 1672 1711 1752 1672 1752 1711 1752 1795 1795 1795 1839 1839 1887 1936 1936 1989 1839 1839 1839 1635 1711 1672 1599 1599 1565 1635 1599 1471 1635 1533 1533 1565 1501 1565 1443 1501 1565 1501 1533 1565 1565 1599 1533 1672 1415 1338 1247 1247 1206 1132 1132 1132 1149 1115 1168 1226 1149 1066 981 981 943 855 919 908 931 931 943 968 955 943 0 0 1839 1795 1752 1672 1672 1599 1443 0 1314 0 0 774 735 758 735 750 758 766 0 0 0 0 0 0 0 0 639 639 669 645 0 0 1338 1388 1362 1388 1388 1599 1565 1672 1565 1471 1338 1362 1338 1338 1338 1362 1362 1362 1388 1388 1388 1415 1443 1268 1314 1206 1226 1226 1226 1226 1226 1206 1226 1206 1268 1226 1291 1268 1291 1291 1291 1314 0 0 0 0 0
    0 0 0 0 0 0 0 0 0 0 0 0 0 0 0 0 0 0 0 0 0 0 0 0 0 0 0 0 0 0 0 0 0 0 0 0 0 0 0 0 0 0 0 0 0 0 0 0 0 0 0 0 0 0 0 0 0 0 0 0 0 0 0 0 0 0 0 0 0 1795 1839 1795 1839 1839 1839 1839 1887 1887 1887 1887 1936 1887 1887 1989 1887 1887 1839 1839 1795 1752 1752 1752 1711 1752 1752 1752 1752 1711 1752 1711 1752 1752 1795 1795 1795 1839 1887 1839 1839 1795 1795 1795 1795 1795 1795 1795 1795 1795 1795 1795 1839 1795 1839 1839 1839 1795 1795 1795 1795 1711 1839 1795 1795 1839 1839 1887 1887 1887 1936 1839 1839 1839 1839 1839 1839 1795 1795 1711 1711 1752 1635 1752 1752 1711 1711 1635 1711 1672 1635 1711 1599 1471 1599 1599 1672 1635 1635 1635 1635 1672 1711 1711 1672 1752 1711 1752 1795 1795 1795 1795 1795 1839 1887 1887 1989 1839 1887 1887 1672 1711 1711 1635 1635 1565 1635 1599 1471 1635 1533 1533 1565 1501 1533 1443 1501 1565 1471 1533 1565 1565 1599 1533 1711 1443 1338 1226 1226 1187 1132 1132 1132 1132 1115 1168 1247 1187 1066 0 981 943 855 908 908 919 931 943 968 955 955 0 0 1839 1795 1711 1672 1599 1599 1443 1388 1314 0 0 791 735 766 743 758 766 766 758 766 750 0 728 0 0 681 663 669 675 669 675 629 623 0 0 1338 1362 1501 1471 1672 1501 1415 1338 1338 1338 1338 1338 1338 1338 1362 1362 1362 1388 1388 1415 1226 1291 1187 1226 1206 1226 1226 1206 1206 1226 1206 1268 1247 1291 1291 1314 1314 1291 1338 0 0 0 0 0
    0 0 0 0 0 0 0 0 0 0 0 0 0 0 0 0 0 0 0 0 0 0 0 0 0 0 0 0 0 0 0 0 0 0 0 0 0 0 0 0 0 0 0 0 0 0 0 0 0 0 0 0 0 0 0 0 0 0 0 0 0 0 0 0 0 0 0 0 0 1795 1795 1795 1839 1839 1839 1839 1839 1887 1887 1887 1887 1887 1887 1936 1839 1839 1795 1795 1752 1752 1752 1752 1711 1752 1752 1752 1752 1711 1752 1711 1752 1752 1752 1752 1752 1795 1839 1795 1839 1752 1795 1795 1795 1795 1795 1795 1795 1752 1795 1752 1795 1752 1795 1795 1795 1795 1795 1752 1752 1711 1752 1752 1752 1795 1795 1795 1839 1839 1839 1795 1795 1795 1795 1795 1795 1752 1752 1711 1672 1711 1635 1711 1711 1672 1672 1635 1672 1672 1635 1711 1599 1501 1599 1599 1672 1672 1672 1672 1672 1672 1711 1752 1711 1711 1711 1711 1752 1752 1752 1752 1795 1795 1839 1839 1936 1887 1887 1887 1752 1752 1711 1635 1672 1599 1635 1635 1471 1635 1533 1533 1533 1501 1533 1443 1471 1533 1471 1501 1533 1565 1565 1533 1672 1443 1362 1206 1226 1187 1115 1132 1132 1149 1115 1149 1247 1226 1082 0 994 955 855 908 908 919 931 931 968 955 955 1206 0 1839 1839 1752 1711 1635 1599 1471 1415 1314 0 0 791 721 758 743 766 774 774 766 774 750 791 735 735 707 694 687 687 687 681 687 657 651 618 0 0 0 0 0 1388 1268 1291 1314 1314 1314 1314 1338 1314 1314 1338 1362 1362 1388 1388 1388 1206 1291 1187 1226 1206 1206 1206 1206 1206 1226 1206 1291 1247 1314 1338 1362 1338 1338 1388 0 0 0 0 0
    0 0 0 0 0 0 0 0 0 0 0 0 0 0 0 0 0 0 0 0 0 0 0 0 0 0 0 0 0 0 0 0 0 0 0 0 0 0 0 0 0 0 0 0 0 0 0 0 0 0 0 0 0 0 0 0 0 0 0 0 0 0 0 0 0 0 0 0 0 1795 1839 1795 1839 1839 1839 1839 1839 1839 1839 1839 1839 1839 1839 1839 1795 1752 1711 1711 1711 1711 1711 1711 1711 1711 1711 1752 1752 1711 1752 1711 1752 1752 1752 1711 1752 1752 1795 1752 1795 1752 1795 1795 1795 1795 1795 1795 1795 1752 1752 1711 1752 1711 1752 1752 1752 1752 1752 1752 1711 1672 1711 1711 1711 1711 1752 1752 1795 1795 1795 1795 1752 1752 1752 1752 1752 1752 1711 1711 1635 1711 1599 1672 1672 1635 1672 1599 1672 1635 1599 1711 1599 1501 1599 1599 1672 1635 1635 1672 1635 1672 1711 1711 1711 1672 1711 1711 1711 1711 1752 1752 1752 1752 1795 1795 1887 1839 1887 1839 1752 1752 1752 1672 1672 1635 1635 1635 1471 1635 1533 1533 1501 1471 1501 1415 1443 1501 1415 1443 1471 1501 1533 1501 1635 1443 1362 1206 1206 1187 1115 1115 1132 1132 1115 1132 1247 1206 1082 0 994 955 855 919 908 919 931 931 968 955 955 1226 0 1839 1839 1795 1752 1672 1635 1501 1415 1314 0 0 0 0 0 0 766 774 774 766 774 750 782 728 721 714 700 694 694 687 687 694 675 675 651 657 681 657 663 663 639 0 0 0 0 0 1314 1314 1314 1291 1314 1338 1338 1362 1362 1362 1187 1268 1168 1226 1206 1206 1206 1206 1206 1226 1206 1291 1268 1314 1338 1362 1362 1338 1362 0 0 0 0 0
    0 0 0 0 0 0 0 0 0 0 0 0 0 0 0 0 0 0 0 0 0 0 0 0 0 0 0 0 0 0 0 0 0 0 0 0 0 0 0 0 0 0 0 0 0 0 0 0 0 0 0 0 0 0 0 0 0 0 0 0 0 0 0 0 0 0 0 0 0 1795 1795 1795 1795 1839 1839 1795 1795 1839 1839 1839 1839 1795 1839 1795 1711 1711 1672 1672 1672 1672 1672 1672 1672 1711 1752 1752 1752 1752 1752 1711 1752 1752 1752 1752 1752 1752 1795 1752 1795 1752 1795 1795 1839 1839 1839 1839 1795 1752 1752 1711 1711 1711 1711 1711 1711 1711 1752 1711 1711 1672 1672 1672 1672 1672 1672 1711 1752 1752 1711 1752 1711 1711 1711 1752 1752 1711 1672 1711 1599 1672 1565 1635 1672 1635 1635 1599 1635 1635 1565 1711 1635 1501 1599 1599 1672 1635 1635 1672 1635 1635 1711 1711 1711 1635 1635 1635 1635 1672 1711 1711 1711 1752 1795 1795 1839 1839 1839 1839 1752 1752 1711 1672 1672 1635 1635 1635 1471 1635 1565 1533 1501 1471 1471 1388 1415 1471 1388 1415 1415 1443 1443 1443 1565 1388 1362 1187 1206 1168 1115 1115 1115 1132 1115 1115 1247 1168 1082 1036 994 968 855 919 0 0 931 0 0 955 955 1247 1752 1839 1839 1795 1752 1711 1672 1533 1388 1291 0 0 0 0 0 0 766 774 766 766 774 735 758 721 714 714 700 700 700 687 694 700 687 687 675 675 681 669 681 675 651 675 675 681 669 634 645 0 1291 1268 1268 1291 1314 1338 1338 1338 1149 1247 1149 1206 1206 1206 1206 1206 1206 1226 1187 1291 1268 1314 1338 1338 1338 1338 1362 0 0 0 0 0
    0 0 0 0 0 0 0 0 0 0 0 0 0 0 0 0 0 0 0 0 0 0 0 0 0 0 0 0 0 0 0 0 0 0 0 0 0 0 0 0 0 0 0 0 0 0 0 0 0 0 0 0 0 0 0 0 0 0 0 0 0 0 0 0 0 0 0 0 0 1795 1795 1795 1795 1795 1795 1795 1752 1795 1795 1795 1795 1752 1795 1752 1672 1711 1635 1672 1635 1672 1672 1672 1672 1711 1752 1752 1752 1752 1795 1752 1752 1752 1752 1752 1752 1752 1752 1752 1795 1752 1795 1795 1839 1839 1887 1839 1795 1752 1711 1711 1711 1672 1711 1672 1672 1711 1711 1672 1711 1635 1672 1672 1672 1672 1672 1672 1752 1752 1711 1711 1711 1711 1711 1711 1711 1672 1672 1672 1599 1672 1533 1635 1635 1599 1599 1599 1635 1635 1565 1711 1635 1471 1599 1599 1635 1635 1635 1672 1635 1635 1711 1672 1672 1599 1599 1635 1599 1635 1635 1672 1672 1672 1752 1711 1795 1795 1795 1795 1711 1711 1711 1635 1672 1599 1599 1635 1471 1599 1565 1533 1471 1471 1443 1362 1388 1415 1362 1362 1362 1388 1388 1388 1501 1362 1338 1168 1187 1168 1132 1132 1132 1149 1115 1132 1247 1168 1082 1066 1008 981 0 0 241 0 0 0 0 0 943 1268 1443 1795 1795 1752 1672 1599 1599 1501 1388 1291 0 0 0 0 0 0 750 766 758 758 766 735 750 721 714 721 707 707 707 694 700 721 707 700 687 681 694 681 700 687 663 669 663 675 657 613 613 608 598 0 0 1247 1291 1314 1314 1314 1115 1247 1132 1206 1206 1187 1187 1206 1206 1226 1187 1291 1268 1291 1314 1314 1314 1314 1338 0 0 0 0 0
    0 0 0 0 0 0 0 0 0 0 0 0 0 0 0 0 0 0 0 0 0 0 0 0 0 0 0 0 0 0 0 0 0 0 0 0 0 0 0 0 0 0 0 0 0 0 0 0 0 0 0 0 0 0 0 0 0 0 0 0 0 0 0 0 0 0 0 0 0 1795 1795 1752 1752 1795 1795 1795 1752 1795 1752 1752 1752 1711 1752 1711 1635 1672 1635 1635 1635 1672 1672 1672 1711 1752 1752 1752 1752 1795 1795 1752 1752 1752 1752 1752 1752 1711 1752 1711 1752 1752 1752 1795 1839 1839 1887 1839 1795 1752 1672 1672 1672 1635 1672 1635 1635 1672 1711 1635 1711 1672 1672 1672 1672 1672 1672 1672 1752 1711 1711 1711 1672 1672 1672 1672 1672 1635 1635 1635 1565 1635 1501 1599 1599 1565 1565 1565 1599 1599 1533 1672 1599 1471 1599 1599 1635 1599 1599 1635 1599 1599 1672 1635 1635 1599 1599 1599 1565 1599 1599 1599 1635 1635 1672 1672 1711 1752 1711 1752 1711 1672 1711 1635 1635 1565 1565 1635 1471 1565 1533 1533 1471 1443 1415 1362 1388 1415 1338 1362 1338 1362 1362 1388 1471 1362 1338 0 0 1168 1132 1132 1132 1149 1115 1132 1247 1168 1082 1051 1008 0 238 242 241 0 0 0 0 0 943 1247 1501 1795 1795 1752 1711 1599 1565 1501 1362 1226 0 0 782 721 758 758 750 758 750 750 766 728 743 714 714 721 714 714 707 700 707 735 721 728 694 687 694 687 700 687 669 669 651 663 657 618 613 608 598 598 593 0 0 0 1268 1314 1098 1226 1115 1206 1187 1187 1187 1206 1206 1226 1187 1291 1268 1291 1291 1291 1291 1291 1291 0 0 0 0 0
    0 0 0 0 0 0 0 0 0 0 0 0 0 0 0 0 0 0 0 0 0 0 0 0 0 0 0 0 0 0 0 0 0 0 0 0 0 0 0 0 0 0 0 0 0 0 0 0 0 0 0 0 0 0 0 0 0 0 0 0 0 0 0 0 0 0 0 0 0 1752 1752 1711 1711 1752 1752 1752 1752 1752 1711 1711 1672 1635 1672 1635 1599 1635 1599 1599 1599 1672 1672 1672 1672 1711 1711 1752 1752 1752 1752 1752 1711 1711 1711 1711 1711 1711 1752 1711 1752 1752 1752 1752 1795 1795 1839 1795 1711 1672 1635 1635 1635 1599 1635 1599 1599 1635 1672 1599 1672 1635 1672 1672 1672 1635 1635 1672 1752 1672 1672 1672 1635 1635 1635 1635 1635 1599 1565 1565 1533 1599 1471 1565 1533 1501 1501 1501 1565 1533 1471 1635 1565 1471 1599 1599 1635 1599 1635 1635 1599 1599 1672 1565 1599 1565 1565 1565 1533 1565 1565 1565 1599 1599 1635 1635 1672 1711 1672 1672 1672 1599 1599 1565 1565 1501 1501 1599 1443 1533 1501 1533 1443 1443 1415 1338 1362 1388 1338 1362 1338 1338 1362 1362 1415 1338 1314 0 0 1187 1132 1132 1132 1149 1115 1115 1247 1168 1066 1051 0 0 237 242 241 0 0 0 0 0 943 1226 0 1711 1672 1672 1599 1501 1471 1415 1338 1115 0 0 791 728 766 766 743 750 743 750 750 728 735 707 707 721 714 714 707 700 700 735 721 728 687 681 687 681 700 687 663 669 651 669 657 623 623 613 603 608 593 593 588 588 593 0 0 1206 1098 1187 1187 1168 1187 1187 1187 1226 1187 1291 1291 1291 1291 1291 1268 1268 1291 0 0 0 0 0
    0 0 0 0 0 0 0 0 0 0 0 0 0 0 0 0 0 0 0 0 0 0 0 0 0 0 0 0 0 0 0 0 0 0 0 0 0 0 0 0 0 0 0 0 0 0 0 0 0 0 0 0 0 0 0 0 0 0 0 0 0 0 0 0 0 0 0 0 0 1711 1711 1672 1672 1752 1711 1752 1711 1711 1672 1672 1599 1533 1599 1565 1533 1565 1565 1565 1599 1635 1635 1635 1635 1635 1672 1672 1672 1672 1711 1672 1672 1672 1711 1672 1672 1672 1711 1672 1711 1752 1711 1711 1711 1711 1752 1711 1635 1599 1565 1599 1599 1565 1599 1533 1533 1599 1599 1533 1635 1599 1635 1635 1672 1635 1635 1635 1711 1635 1599 1599 1599 1599 1599 1599 1599 1565 1533 1501 1471 1533 1443 1501 1471 1471 1471 1471 1533 1501 1443 1565 1533 1471 1599 1565 1599 1565 1599 1599 1565 1565 1599 1533 1533 1501 1501 1501 1471 1533 1501 1533 1565 1565 1599 1599 1635 1672 1599 1565 1599 1501 1471 1415 1415 1388 1415 1471 1388 1443 1443 1501 1415 1415 1388 1338 1362 1388 1314 1338 1314 1338 1338 1338 1388 1314 1314 1115 1187 1168 1132 1132 1132 1149 1115 1115 1247 1149 1066 1022 0 0 237 0 241 0 0 0 0 943 943 1226 1247 1599 1533 1471 1415 1388 1388 1338 1206 1066 0 782 817 728 766 766 743 750 743 750 750 721 728 700 700 714 714 714 707 700 700 743 728 750 687 681 694 681 700 687 663 657 651 663 645 623 623 613 603 613 608 603 593 584 588 574 574 561 0 1149 1149 1149 1149 1168 1187 1226 1187 1291 1291 1291 1291 1291 1268 1268 1268 0 0 0 0 0
    0 0 0 0 0 0 0 0 0 0 0 0 0 0 0 0 0 0 0 0 0 0 0 0 0 0 0 0 0 0 0 0 0 0 0 0 0 0 0 0 0 0 0 0 0 0 0 0 0 0 0 0 0 0 0 0 0 0 0 0 0 0 0 0 0 0 0 0 0 1672 1635 1635 1599 1672 1635 1711 1711 1672 1599 1635 1471 1471 1501 1471 1471 1501 1501 1533 1533 1599 1599 1533 1533 1533 1565 1533 1599 1565 1635 1599 1599 1565 1599 1599 1635 1599 1635 1635 1599 1711 1635 1599 1635 1565 1635 1599 1501 1565 1501 1533 1533 1533 1533 1443 1443 1471 1501 1443 1599 1565 1599 1635 1672 1635 1635 1635 1635 1533 1533 1533 1533 1533 1533 1533 1501 1501 1471 1443 1443 1471 1415 1443 1443 1443 1443 1443 1471 1471 1415 1533 1533 1443 1565 1565 1565 1565 1565 1599 1565 1533 1565 1471 1501 1471 1471 1501 1443 1471 1471 1471 1501 1501 1533 1533 1565 1635 1565 1471 1565 1443 1388 1362 1362 1362 1362 1388 1362 1388 1388 1443 1415 1388 1362 1338 1338 1362 1314 1338 1291 1291 1314 1314 1314 1268 1268 1098 1168 1149 1115 1115 1115 1149 1115 1115 1247 1098 1051 994 0 0 0 0 0 0 0 0 0 943 943 1187 1206 1471 1415 1362 1338 1314 1338 1314 1132 1051 0 0 826 728 774 766 743 750 743 750 743 721 721 700 700 714 707 0 700 694 694 750 735 0 0 0 700 0 707 694 657 645 651 669 651 629 629 618 613 623 618 608 598 588 593 570 561 557 545 0 0 0 1132 1149 1168 1206 1149 1291 1291 1268 1291 1291 1268 1268 1291 0 0 0 0 0
    0 0 0 0 0 0 0 0 0 0 0 0 0 0 0 0 0 0 0 0 0 0 0 0 0 0 0 0 0 0 0 0 0 0 0 0 0 0 0 0 0 0 0 0 0 0 0 0 0 0 0 0 0 0 0 0 0 0 0 0 0 0 0 0 0 0 0 0 0 1599 1533 1533 1501 1599 1501 1672 1711 1672 1565 1599 1443 1443 1471 1471 1471 1471 1443 1471 1471 1533 1533 1443 1443 1443 1415 1388 1471 1443 1533 1501 1501 1471 1501 1501 1599 1533 1565 1565 1533 1672 1599 1533 1565 1471 1533 0 1415 0 0 0 1471 1443 1443 1388 1388 1415 1388 1388 1501 1471 1533 1565 1635 1599 1599 1599 1565 1471 1471 1443 1471 1471 1471 1501 1443 1471 1415 1415 1415 1415 1388 1415 1415 1415 1415 1443 1443 1443 1415 1501 1501 1443 1565 1565 1565 1565 1565 1599 1565 1533 1565 1471 1471 1471 1471 1471 1443 1443 1443 1443 1471 1471 1501 1471 1501 1565 1501 1415 1471 1415 1338 1314 1314 1314 1314 1338 1338 1338 1338 1415 1362 1362 1362 1314 1314 1338 1291 1314 1268 1268 1268 1268 1268 1226 1206 1082 1149 1132 1098 1115 1115 1132 1098 1098 1226 1066 1036 981 994 981 876 931 0 0 0 0 0 943 943 1132 1168 1338 1314 1291 1268 1268 1291 1268 1115 1036 0 0 826 735 774 766 743 750 743 743 743 728 728 700 700 714 707 707 700 700 0 758 0 0 0 0 0 0 782 694 657 639 645 669 651 634 639 623 618 629 623 613 603 593 593 574 566 561 549 549 537 525 0 0 1149 1168 1115 1268 1268 1247 1247 1247 1206 1268 1291 0 0 0 0 0
    0 0 0 0 0 0 0 0 0 0 0 0 0 0 0 0 0 0 0 0 0 0 0 0 0 0 0 0 0 0 0 0 0 0 0 0 0 0 0 0 0 0 0 0 0 0 0 0 0 0 0 0 0 0 0 0 0 0 0 0 0 0 0 0 0 0 0 0 0 1533 1471 1471 1443 1533 1443 1599 1672 1565 1471 1501 1415 1415 1443 1443 1443 1415 1415 1443 1443 1471 1471 1362 1362 1338 1362 1314 1388 1362 1415 1415 1415 1415 1443 1443 1565 1501 1533 1533 1471 1599 1533 1443 1443 1388 1388 0 0 0 0 0 1388 1362 1388 1338 1338 1338 1338 1338 1443 1415 1471 1533 1635 1565 1533 1565 1471 1415 1443 1415 1443 1443 1443 1471 1415 1443 1415 1388 1388 1388 1362 1388 1388 1388 1388 1388 1415 1415 1388 1443 1471 1415 1471 1471 1471 1471 1471 1471 1443 1443 1471 1415 1415 1415 1415 1415 1415 1415 1415 1415 1415 1415 1443 1443 1471 1501 1443 1388 1415 1388 1314 1291 1291 1291 1268 1291 1314 1291 1291 1362 1338 1338 1338 1291 1291 1291 1268 1268 1247 1247 1247 1247 1206 1187 1187 1082 1149 1132 1098 1098 1098 1132 1098 1098 1206 1051 1036 981 981 981 876 931 919 919 0 0 0 943 0 1115 1149 1291 1268 1247 1226 1226 1226 1226 1098 1022 968 855 836 735 774 766 743 750 743 743 743 728 721 700 700 0 0 700 700 694 0 766 0 1206 1149 1066 0 1008 865 714 657 0 0 687 663 634 629 629 618 629 623 613 603 593 598 584 579 574 561 566 549 537 533 518 493 0 0 0 1206 1187 1168 1115 1098 1115 1247 0 0 0 0 0
    0 0 0 0 0 0 0 0 0 0 0 0 0 0 0 0 0 0 0 0 0 0 0 0 0 0 0 0 0 0 0 0 0 0 0 0 0 0 0 0 0 0 0 0 0 0 0 0 0 0 0 0 0 0 0 0 0 0 0 0 0 0 0 0 0 0 0 0 0 1471 1443 1415 1415 1443 1388 1471 1565 1415 1362 1388 1362 1362 1388 1388 1388 1388 1388 1388 1388 1415 1362 1291 1291 1291 1291 1268 1338 1314 1362 1362 1362 1362 1388 1388 1501 1443 1471 1443 1415 1533 1443 1388 1362 1314 1314 1291 0 0 1291 1268 1291 1291 1314 1291 1314 1314 1314 1314 1362 1362 1415 1501 1565 1501 1471 1501 1388 1388 1388 1362 1388 1388 1388 1415 1362 1388 1362 1362 1362 1338 1338 1338 1338 1362 1362 1362 1362 1362 1362 1362 1415 1362 1415 1415 1415 1415 1388 1388 1388 1388 1388 1362 1362 1338 1338 1362 1362 1362 1362 1388 1388 1388 1388 1415 1443 1443 1443 1362 1388 1362 1314 1291 1268 1268 1247 1268 1268 1247 1247 1291 1291 1291 1291 1268 1268 1268 1247 1247 1226 1226 1206 1206 1149 1149 1149 1066 1149 1115 1098 1098 1098 1132 1098 1098 1206 1036 1036 968 981 981 876 931 919 919 0 0 0 931 0 1098 1132 1268 1268 1206 1206 1187 1187 1187 1082 1008 931 845 826 735 774 766 743 750 743 743 735 721 721 700 694 0 694 694 694 687 694 774 0 1168 1098 1051 1036 1066 1022 0 0 0 886 799 700 663 645 639 629 629 623 618 603 598 598 584 579 579 570 579 557 549 549 537 514 521 521 525 521 521 525 0 0 0 0 0 0 0 0 0
    0 0 0 0 0 0 0 0 0 0 0 0 0 0 0 0 0 0 0 0 0 0 0 0 0 0 0 0 0 0 0 0 0 0 0 0 0 0 0 0 0 0 0 0 0 0 0 0 0 0 0 0 0 0 0 0 0 0 0 0 0 0 0 0 0 0 0 0 0 1415 1388 1388 1362 1388 1362 1443 1443 1338 1314 1338 1338 1362 1362 1362 1362 1362 1362 1362 1362 1362 1314 1247 1247 1247 1268 1247 1291 1291 1314 1314 1338 1338 1338 1362 1415 1388 1388 1388 1388 1443 1415 1338 1338 1291 1268 1268 1268 1268 1247 1226 1268 1247 1268 1247 1268 1268 1291 1291 1338 1338 1388 1415 1501 1443 1415 1443 1362 1362 1362 1338 1362 1338 1338 1338 1314 1338 1314 1314 0 1291 1314 1291 1314 1314 1314 1314 1314 1314 1314 1314 1362 1338 1362 1362 1362 1362 1338 1338 1338 1338 1338 1314 1314 1291 1291 1314 1338 1314 1314 1338 1338 1338 1362 1388 1415 1388 1415 1362 1388 1362 1291 1268 1247 1247 1226 1247 1247 1226 1206 1247 1247 1247 1247 1247 1226 1247 1226 1247 1206 1187 1187 1149 1098 1098 1098 1051 1115 1098 1098 1098 1098 1132 1098 1098 1187 1022 1022 955 968 968 876 919 919 919 919 919 955 931 931 1066 1082 1187 1187 1132 1149 1132 1132 1132 1066 994 897 855 826 735 774 766 743 750 743 743 743 728 721 694 687 0 694 694 694 687 687 758 0 1149 1082 1051 1036 1082 1036 1051 1051 1036 968 897 0 0 657 639 618 623 618 608 603 593 593 584 574 579 570 579 561 553 553 545 529 525 525 525 521 518 518 514 518 521 529 0 0 0 0 0
    0 0 0 0 0 0 0 0 0 0 0 0 0 0 0 0 0 0 0 0 0 0 0 0 0 0 0 0 0 0 0 0 0 0 0 0 0 0 0 0 0 0 0 0 0 0 0 0 0 0 0 0 0 0 0 0 0 0 0 0 0 0 0 0 0 0 0 0 0 1362 1388 1362 1362 1362 1338 1362 1362 1314 1314 1338 1338 1338 1362 1362 1362 1338 1362 1362 1338 1338 1291 1226 1247 1247 1268 1226 1268 1268 1291 1291 1314 1314 1314 1314 1362 1338 1338 1338 1338 1388 1362 1338 1314 1291 1268 1268 1268 1247 1226 1206 1247 1226 1226 1226 1247 1247 1268 1291 1291 1314 1338 1338 1415 1362 1362 1388 1314 1338 1338 1314 1314 1291 1314 1291 1291 1291 1291 1268 0 1268 1291 1247 1291 1291 1291 1291 1291 1291 1314 1291 1338 1314 1314 1314 1314 1314 1291 1291 1291 1291 1291 1291 1291 1268 1268 1291 1291 1291 1291 1314 1314 1314 1338 1362 1362 1362 1388 1338 1362 1338 1268 1247 1247 1226 1226 1226 1226 1206 1187 1226 1206 1206 1206 1206 1187 1226 1206 1206 1168 1149 1132 1098 1066 1066 1066 1036 1098 1098 1098 1098 1098 1115 1098 1082 1149 1008 994 943 955 943 886 919 919 919 908 919 943 931 931 1036 1051 1098 1115 1066 1082 1066 1051 1051 1036 955 876 845 826 743 782 774 750 758 750 750 743 728 721 694 687 0 694 687 694 687 687 750 0 1066 1051 1008 994 1036 1022 1051 1036 1036 1008 981 968 943 0 714 694 681 663 623 613 603 588 584 574 574 561 570 553 553 553 541 533 525 529 529 521 518 511 507 514 518 529 0 0 0 0 0
    0 0 0 0 0 0 0 0 0 0 0 0 0 0 0 0 0 0 0 0 0 0 0 0 0 0 0 0 0 0 0 0 0 0 0 0 0 0 0 0 0 0 0 0 0 0 0 0 0 0 0 0 0 0 0 0 0 0 0 0 0 0 0 0 0 0 0 0 0 1338 1388 1338 1338 1362 1338 1338 1338 1291 1291 1314 1314 1338 1338 1338 1338 1338 1314 0 1314 1291 1268 1206 1226 1226 1247 1226 1268 1268 1291 1291 1314 1314 1314 1314 1362 1314 1314 1314 1314 1362 1338 1314 1291 1268 1247 1268 1247 1247 1206 1168 1226 1206 1206 1206 1247 1226 1247 1268 1268 1291 1314 1314 1362 1314 1314 1338 1314 1314 1314 1291 1291 1291 1291 1291 1268 1268 1268 1247 1268 1247 1247 1226 1268 1268 1268 1268 1291 1291 1314 1314 1314 1291 1291 1291 1291 1268 1247 1247 1247 1268 1247 1268 1247 1226 1247 1247 1247 1247 1247 1291 1291 1314 1314 1338 1362 1338 1362 1314 1338 1314 1247 1226 1247 1226 1206 1226 1226 1206 1187 1226 1226 1206 1226 1226 1187 1226 1187 1168 1132 1098 1066 1036 1022 1022 1022 1022 1082 1082 1082 1098 1082 1098 1082 1066 1115 994 968 931 943 919 886 919 919 919 908 919 943 931 931 1008 1022 1051 1051 1036 1036 1008 1008 1008 1008 931 865 845 826 750 782 774 750 758 750 758 750 728 721 694 687 0 687 687 687 681 681 735 766 994 994 968 943 968 981 1008 994 1022 994 955 0 0 931 855 826 758 707 663 634 608 593 584 574 570 561 566 553 549 553 545 537 529 529 529 525 521 514 507 511 514 521 0 0 0 0 0
    0 0 0 0 0 0 0 0 0 0 0 0 0 0 0 0 0 0 0 0 0 0 0 0 0 0 0 0 0 0 0 0 0 0 0 0 0 0 0 0 0 0 0 0 0 0 0 0 0 0 0 0 0 0 0 0 0 0 0 0 0 0 0 0 0 0 0 0 0 1314 1362 1338 1338 1338 1314 1314 1314 1314 1291 1314 1314 1338 1314 0 1338 0 0 0 1268 1268 1247 1168 1206 1226 1247 1226 1268 1268 1291 1291 1338 1314 1314 1314 1388 1314 1314 1291 1291 1314 1314 1268 1268 1247 1226 1247 1226 1206 1168 1132 1187 1149 1187 1187 1226 1226 1247 1268 1268 1291 1291 1291 1338 1291 1291 1314 1268 1291 1291 1268 1268 1268 1268 1268 1268 1268 1247 1226 1247 1226 1226 1206 1247 1247 1247 1247 1268 1291 1291 1291 1314 1291 1268 1291 1291 1247 1226 1247 1226 1226 1226 1226 1206 1168 1206 1187 1187 1187 1187 1247 1247 1291 1314 1314 1338 1338 1362 1314 1338 1314 1226 1226 1226 1206 1206 1206 1226 1206 1187 1226 1226 1206 1226 1226 1168 1187 1149 1115 1082 1051 1022 994 994 981 994 994 1051 1051 1066 1066 1066 1082 1082 1051 1082 994 955 919 931 908 886 919 919 919 908 919 943 931 931 1008 994 1008 994 994 981 968 955 968 968 919 876 836 817 750 782 774 750 758 750 750 750 728 714 694 687 0 687 687 687 681 681 728 750 886 968 955 919 931 955 968 955 994 968 919 0 0 931 876 865 845 799 700 687 634 603 593 584 579 566 566 557 549 553 545 537 529 525 525 521 518 511 504 504 507 511 0 0 0 0 0
    0 0 0 0 0 0 0 0 0 0 0 0 0 0 0 0 0 0 0 0 0 0 0 0 0 0 0 0 0 0 0 0 0 0 0 0 0 0 0 0 0 0 0 0 0 0 0 0 0 0 0 0 0 0 0 0 0 0 0 0 0 0 0 0 0 0 0 0 0 1291 1362 1314 1291 1291 1268 1268 1291 1291 1268 1314 1291 1314 1314 0 0 0 0 0 1226 1226 1206 1132 1206 1226 1247 1226 1268 1247 1268 1291 1314 1314 1314 1291 1362 1314 1314 1268 1268 1291 1291 1247 1226 1206 1187 1187 1168 1149 1115 1082 1115 1082 1115 1168 1206 1206 1226 1268 1268 1268 1291 1268 1291 1226 1226 1206 1168 0 1247 1226 1247 1247 1268 1268 1268 1268 1247 1206 1226 1206 1168 1149 1226 1206 1187 1206 1226 1247 1247 1268 1268 1247 1247 1268 1268 1226 1206 1206 1206 1206 1187 1187 1149 1098 1132 1098 1082 1082 1066 1132 1168 1226 1291 1268 1338 1314 1338 1314 1314 1314 1226 1206 1206 1187 1168 1187 1187 1168 1149 1187 1187 1168 1187 1168 1132 1149 1115 1082 1036 1008 1008 981 981 968 968 968 1022 1022 1036 1051 1051 1066 1066 1036 1051 981 943 908 908 897 886 908 919 908 908 919 943 919 931 981 955 955 897 955 943 919 919 931 943 897 865 826 817 750 782 774 743 750 743 750 750 728 714 694 687 694 687 687 687 681 681 721 750 855 931 943 908 897 919 931 886 931 908 876 855 876 897 865 865 865 836 808 743 681 623 603 593 588 566 566 553 549 549 545 537 533 525 521 521 518 514 507 507 507 511 0 0 0 0 0
    0 0 0 0 0 0 0 0 0 0 0 0 0 0 0 0 0 0 0 0 0 0 0 0 0 0 0 0 0 0 0 0 0 0 0 0 0 0 0 0 0 0 0 0 0 0 0 0 0 0 0 0 0 0 0 0 0 0 0 0 0 0 0 0 0 0 0 0 0 1247 1314 1268 1149 1051 1008 1008 1066 1206 1187 1226 1226 1291 1268 0 0 1268 1206 1187 1168 1168 1168 1082 1168 1206 1226 1187 1226 1206 1226 1247 1291 1268 1291 1268 1362 1291 1314 1268 1226 1226 1268 1187 1187 1132 1115 1115 1082 1066 1051 1036 1066 1036 1051 1115 1149 1168 1187 1226 1226 1247 1247 1206 1206 1098 1066 1051 1022 0 1098 1082 1149 1168 1226 1226 1247 1247 1206 1132 1168 1115 1066 1066 1132 1098 1066 1082 1115 1132 1132 1168 1206 1115 1168 1206 1206 1168 1149 1168 1168 1149 1115 1132 1082 1051 1066 1051 1036 1022 1008 1036 1066 1082 1226 1187 1314 1291 1314 1314 1291 1314 1206 1187 1187 1132 1132 1149 1132 1132 1115 1132 1132 1098 1132 1098 1082 1098 1066 1051 1008 981 981 968 955 943 955 943 981 1008 1022 1022 1036 1051 1051 1022 1036 968 931 897 897 886 886 908 908 908 908 908 943 931 931 968 943 919 886 931 931 908 919 919 931 897 865 826 817 750 774 766 743 750 743 743 750 721 707 694 681 694 687 687 687 681 681 721 750 845 908 919 897 886 897 897 865 897 876 865 855 876 897 876 886 897 855 855 808 0 0 687 629 608 588 579 561 557 553 545 537 529 525 518 518 518 511 504 504 507 507 0 0 0 0 0
    0 0 0 0 0 0 0 0 0 0 0 0 0 0 0 0 0 0 0 0 0 0 0 0 0 0 0 0 0 0 0 0 0 0 0 0 0 0 0 0 0 0 0 0 0 0 0 0 0 0 0 0 0 0 0 0 0 0 0 0 0 0 0 0 0 0 0 0 0 1115 0 1082 981 981 968 981 994 1008 1066 1098 1115 1187 1187 1206 1206 1206 1098 1066 1051 1051 1066 1051 1098 1149 1149 1098 1115 1098 1082 1149 1268 1206 1187 1187 1338 1247 1268 1226 1187 1149 1187 1115 1132 1098 1066 1066 1036 1022 1008 1008 1008 1008 994 1066 1066 1098 1115 1187 1168 1168 1168 1098 1051 1036 994 994 968 968 1008 994 1022 1051 0 1168 0 1206 1149 1066 1082 1051 1008 1008 1051 1036 1008 1022 1036 1036 1036 1051 1066 1036 1051 1132 1132 1098 1082 1115 1115 1098 1066 1082 1051 0 1036 1036 1008 994 994 1008 1022 1022 1149 1066 1268 1226 1268 1291 1226 1247 1168 1098 1132 1082 1098 1098 1098 1098 1082 1098 1082 0 0 0 1051 1066 1036 1036 994 955 968 955 943 931 931 919 955 981 994 994 1008 1022 1036 1008 1008 955 919 886 886 876 886 908 908 908 908 919 943 931 931 955 919 897 886 919 919 897 908 908 919 886 865 826 808 758 774 766 743 750 743 743 743 721 700 694 681 694 687 681 687 681 681 721 758 845 897 908 886 876 886 897 865 876 865 865 855 876 886 886 897 908 886 876 845 0 0 0 629 603 613 593 570 566 561 549 533 529 521 514 514 514 507 500 500 500 500 0 0 0 0 0
    0 0 0 0 0 0 0 0 0 0 0 0 0 0 0 0 0 0 0 0 0 0 0 0 0 0 0 0 0 0 0 0 0 0 0 0 0 0 0 0 0 0 0 0 0 0 0 0 0 0 0 0 0 0 0 0 0 0 0 0 0 0 0 0 0 0 0 0 0 1008 994 994 955 943 943 955 968 994 1008 1051 1051 1098 1115 1098 1115 1132 1051 1022 1008 1036 1036 1036 1066 1115 1082 1051 1036 1036 0 1051 1098 1008 994 994 1036 1115 1187 1206 1149 1115 1149 1082 1098 1066 1022 1022 994 968 968 955 968 968 955 1008 994 1008 1036 1098 1082 1066 1082 1022 1008 1022 955 981 955 943 981 968 981 994 994 1051 0 1132 1066 1008 0 1008 981 981 1008 1008 981 994 1008 994 994 1008 1008 1008 994 1098 1082 1066 1066 1098 1098 1082 0 1051 1036 0 0 1008 994 981 981 994 994 994 1022 1022 1098 1098 1187 1226 1132 1098 1082 1036 1098 1051 1051 1051 0 1051 1051 1051 1051 1008 0 0 1036 1051 1022 1022 968 931 955 943 919 919 919 897 919 955 968 968 968 994 1008 955 968 943 897 876 876 876 886 897 908 908 919 919 943 931 931 943 897 876 876 897 897 886 886 886 897 876 855 817 808 758 774 758 735 743 735 735 743 714 700 694 681 694 681 681 687 681 681 721 758 836 876 886 876 865 876 876 845 865 845 855 845 855 876 876 876 897 886 886 845 855 855 808 0 0 0 593 574 588 574 553 533 525 521 507 511 511 500 497 497 497 493 0 0 0 0 0
    0 0 0 0 0 0 0 0 0 0 0 0 0 0 0 0 0 0 0 0 0 0 0 0 0 0 0 0 0 0 0 0 0 0 0 0 0 0 0 0 0 0 0 0 0 0 0 0 0 0 0 0 0 0 0 0 0 0 0 0 0 0 0 0 0 0 0 0 0 981 968 981 931 931 931 955 955 981 994 1008 1008 0 1051 1036 1066 1082 1022 994 994 1008 1008 1008 1036 1036 1036 1008 1008 1008 981 1008 994 981 981 968 994 1008 1051 1149 1098 1082 1115 1066 1066 1036 968 981 955 931 931 931 931 931 919 981 919 955 981 1022 1022 1008 1036 981 981 994 931 968 931 931 955 943 968 968 968 994 981 0 1008 968 994 981 943 955 981 981 943 968 981 968 968 981 981 981 968 1051 1051 1036 0 1051 1051 1036 0 0 1008 994 981 981 968 968 968 968 968 968 994 1008 1008 1022 1066 1115 1066 1036 1036 1008 1066 1022 1036 0 0 0 0 0 1008 981 0 981 1008 1036 1008 1008 943 908 931 931 897 908 908 886 897 919 943 931 931 968 955 897 908 897 876 865 865 876 886 897 908 908 908 908 943 931 919 919 886 876 876 897 886 876 886 886 886 865 855 817 808 758 766 758 735 743 735 728 735 714 694 694 681 694 681 681 687 681 681 721 750 826 855 865 855 855 855 865 836 845 836 836 826 836 855 855 845 865 876 876 855 865 865 826 0 0 0 593 579 588 574 553 537 525 521 504 504 504 497 493 493 493 493 0 0 0 0 0
    0 0 0 0 0 0 0 0 0 0 0 0 0 0 0 0 0 0 0 0 0 0 0 0 0 0 0 0 0 0 0 0 0 0 0 0 0 0 0 0 0 0 0 0 0 0 0 0 0 0 0 0 0 0 0 0 0 0 0 0 0 0 0 0 0 0 0 0 0 955 943 968 919 919 919 943 943 968 981 994 968 994 1008 1008 1022 1022 1008 981 981 1008 994 994 994 981 981 955 968 981 955 968 968 955 955 943 968 981 994 1098 1066 1051 1066 1036 1036 1022 931 955 943 919 908 908 908 908 897 955 876 919 919 955 955 955 981 943 968 981 908 955 919 919 943 931 955 943 943 968 943 981 981 931 968 943 908 919 943 955 908 943 955 943 943 955 955 943 943 1008 1008 981 994 1008 1008 994 981 994 981 955 955 968 943 955 955 955 955 955 968 994 981 994 1008 1036 1022 1008 1008 994 1036 994 1008 981 968 0 981 981 981 955 0 955 981 1008 981 968 908 886 919 908 886 897 897 886 886 897 919 897 897 931 876 855 865 865 855 845 855 865 876 886 897 897 897 897 931 919 908 897 876 865 876 897 886 876 876 876 876 865 855 808 808 758 758 750 735 735 728 728 728 714 687 694 681 687 681 681 687 681 681 721 743 817 845 855 845 845 845 855 836 836 826 826 817 826 845 845 836 855 865 876 855 886 876 845 799 714 694 613 603 598 579 553 537 533 521 504 504 500 497 490 490 490 490 0 0 0 0 0
    0 0 0 0 0 0 0 0 0 0 0 0 0 0 0 0 0 0 0 0 0 0 0 0 0 0 0 0 0 0 0 0 0 0 0 0 0 0 0 0 0 0 0 0 0 0 0 0 0 0 0 0 0 0 0 0 0 0 0 0 0 0 0 0 0 0 0 0 0 943 919 955 908 919 919 943 943 955 955 968 943 968 968 968 994 981 968 955 955 981 968 968 955 919 943 919 943 943 931 931 931 931 931 919 931 931 943 1036 1022 1008 1022 994 994 994 897 943 919 908 908 908 897 897 886 931 865 886 886 897 886 897 943 897 943 968 886 943 908 919 931 919 943 931 919 955 908 955 943 897 931 919 897 908 919 931 886 919 943 919 908 931 919 919 919 981 955 919 943 968 955 943 943 955 943 931 931 943 919 931 931 931 931 931 955 968 955 981 968 994 994 981 981 955 1008 955 968 943 931 931 943 943 943 919 943 908 943 955 943 931 897 876 897 897 876 886 886 876 876 886 886 865 865 886 845 836 836 836 826 836 845 855 865 876 876 876 876 886 897 897 876 876 865 855 876 886 876 865 876 876 865 865 845 808 808 758 758 743 728 735 728 721 728 707 687 687 675 687 681 681 687 681 681 721 735 808 836 845 836 836 836 845 826 826 817 808 799 808 826 817 817 836 836 845 845 865 855 845 826 782 721 687 657 618 0 0 0 533 521 497 497 497 493 490 490 490 487 0 0 0 0 0
    0 0 0 0 0 0 0 0 0 0 0 0 0 0 0 0 0 0 0 0 0 0 0 0 0 0 0 0 0 0 0 0 0 0 0 0 0 0 0 0 0 0 0 0 0 0 0 0 0 0 0 0 0 0 0 0 0 0 0 0 0 0 0 0 0 0 0 0 0 931 919 943 897 908 919 931 931 943 943 955 919 955 943 943 968 955 955 919 931 968 943 931 908 886 897 886 908 908 897 908 908 908 919 897 897 886 886 943 919 919 931 931 919 943 876 919 897 897 886 897 886 886 876 919 855 876 876 876 865 876 908 886 919 943 876 931 897 908 919 908 931 908 908 943 886 931 919 876 908 886 876 886 897 908 865 897 919 897 897 919 908 908 897 968 908 886 919 943 931 919 919 943 931 919 908 919 908 908 908 908 908 908 931 955 919 943 943 968 968 955 955 919 968 897 919 897 897 897 897 897 897 886 908 886 897 897 908 897 886 865 897 897 865 886 886 886 876 876 886 865 855 886 836 826 826 817 817 826 836 845 845 855 855 855 865 865 886 886 865 865 865 865 876 886 876 865 865 876 865 855 845 799 799 750 750 743 728 728 728 714 721 707 681 687 675 687 675 681 687 675 681 714 728 791 817 826 826 817 826 836 817 817 808 791 782 791 799 791 799 808 817 826 817 836 836 826 836 826 758 707 700 669 0 0 0 0 514 490 490 490 487 487 490 487 484 0 0 0 0 0
    0 0 0 0 0 0 0 0 0 0 0 0 0 0 0 0 0 0 0 0 0 0 0 0 0 0 0 0 0 0 0 0 0 0 0 0 0 0 0 0 0 0 0 0 0 0 0 0 0 0 0 0 0 0 0 0 0 0 0 0 0 0 0 0 0 0 0 0 0 919 897 931 886 897 908 931 919 943 943 955 919 955 943 943 968 955 955 919 919 968 919 897 876 865 876 876 886 886 876 886 886 897 897 886 886 876 876 897 876 886 886 886 876 897 865 897 876 876 876 876 876 876 865 886 845 865 876 886 876 886 908 886 919 919 876 919 886 897 908 897 919 897 897 931 876 908 897 876 897 886 876 886 886 897 865 897 908 886 886 908 897 897 886 943 886 876 897 919 897 897 897 931 919 908 897 897 886 897 897 886 886 886 897 919 886 908 908 931 955 943 931 897 943 876 897 886 886 876 886 886 876 865 886 865 886 876 886 876 865 855 886 886 865 886 886 876 876 876 876 855 855 876 826 817 817 817 817 817 826 836 836 855 855 855 865 876 886 886 865 876 865 865 886 886 865 865 865 865 855 855 836 782 799 750 750 743 728 728 728 714 721 707 681 687 675 687 675 681 687 675 681 714 721 782 808 826 808 817 826 817 808 799 791 782 782 774 782 766 782 0 0 817 808 817 826 817 826 836 791 728 714 694 629 0 0 0 511 490 487 487 487 487 487 487 0 0 0 0 0 0
    0 0 0 0 0 0 0 0 0 0 0 0 0 0 0 0 0 0 0 0 0 0 0 0 0 0 0 0 0 0 0 0 0 0 0 0 0 0 0 0 0 0 0 0 0 0 0 0 0 0 0 0 0 0 0 0 0 0 0 0 0 0 0 0 0 0 0 0 0 908 897 931 886 897 908 931 919 943 943 955 919 955 955 955 981 968 943 908 919 968 897 886 855 855 865 865 876 876 865 886 876 886 886 876 886 876 876 897 876 886 886 876 876 886 855 876 865 865 855 865 865 855 855 865 845 865 865 876 865 876 897 886 908 908 876 908 886 897 897 886 908 886 897 908 876 908 886 865 897 886 876 886 897 897 865 897 897 886 876 897 897 886 886 919 876 876 886 908 886 886 886 919 908 908 886 886 876 876 876 876 865 865 876 897 865 876 876 886 908 897 897 876 919 876 886 886 886 876 876 865 865 855 865 855 855 855 865 855 855 845 876 876 855 876 876 876 865 865 876 855 845 865 817 808 808 808 808 808 817 826 826 845 855 855 865 876 876 876 855 876 855 855 865 865 845 845 845 845 836 836 826 766 799 750 750 743 728 728 728 714 721 707 687 687 675 687 675 681 687 675 681 714 721 782 791 817 799 808 817 799 799 791 774 766 758 758 750 750 774 0 0 808 808 808 817 817 817 826 791 743 721 714 657 0 0 0 504 487 481 484 484 484 487 0 0 0 0 0 0 0
    0 0 0 0 0 0 0 0 0 0 0 0 0 0 0 0 0 0 0 0 0 0 0 0 0 0 0 0 0 0 0 0 0 0 0 0 0 0 0 0 0 0 0 0 0 0 0 0 0 0 0 0 0 0 0 0 0 0 0 0 0 0 0 0 0 0 0 0 0 897 886 908 876 886 897 919 897 931 931 955 919 955 955 955 981 968 931 908 908 955 865 865 845 855 865 865 865 876 865 876 876 886 876 865 876 865 876 886 876 876 876 865 865 865 845 865 855 855 845 845 855 845 845 855 836 855 855 865 855 865 886 865 886 876 865 886 876 886 886 886 897 886 886 897 865 897 876 865 897 876 876 876 886 897 865 886 886 876 865 886 886 886 876 897 865 865 876 897 876 876 876 908 897 897 886 876 876 865 865 855 855 855 855 865 855 855 845 855 876 876 876 865 897 876 886 886 876 865 865 855 845 836 845 845 845 836 845 845 836 845 865 865 855 876 876 876 865 865 865 845 845 845 817 808 808 799 808 799 799 808 817 836 845 845 855 865 865 865 855 855 845 836 845 836 808 808 808 808 808 817 808 750 791 743 743 743 728 728 728 714 721 707 687 687 681 687 675 681 687 675 681 714 714 774 791 808 799 799 791 774 774 766 743 735 735 735 728 743 766 766 791 799 799 799 799 799 799 791 758 735 714 714 0 0 0 0 0 0 474 0 481 0 0 0 0 0 0 0 0 0
    0 0 0 0 0 0 0 0 0 0 0 0 0 0 0 0 0 0 0 0 0 0 0 0 0 0 0 0 0 0 0 0 0 0 0 0 0 0 0 0 0 0 0 0 0 0 0 0 0 0 0 0 0 0 0 0 0 0 0 0 0 0 0 0 0 0 0 0 0 886 876 897 865 876 876 908 886 908 908 943 897 943 919 943 968 943 897 886 876 908 845 845 836 836 855 865 865 865 865 876 876 876 876 865 865 865 865 886 876 886 876 855 865 865 845 855 845 845 845 845 845 845 836 845 826 845 845 855 845 855 865 855 876 865 865 876 865 876 876 876 886 876 886 886 865 897 876 865 897 876 865 876 876 876 855 876 865 865 855 876 876 876 865 876 855 865 865 876 855 855 865 886 876 886 876 865 865 855 855 845 845 845 845 845 845 836 836 836 845 865 876 865 886 876 876 886 876 855 855 845 836 826 836 836 836 826 845 836 836 845 865 865 855 865 876 876 865 865 865 845 836 836 808 799 799 791 799 791 791 791 799 826 836 836 855 865 855 855 845 836 826 817 817 799 791 782 782 782 799 791 782 735 782 735 743 735 721 728 728 714 721 707 687 694 681 687 681 681 687 681 681 714 714 782 791 808 799 791 774 743 735 735 721 714 714 714 714 721 743 750 766 791 782 782 791 782 782 766 743 728 714 714 0 0 0 0 0 0 0 0 477 0 0 0 0 0 0 0 0 0
    0 0 0 0 0 0 0 0 0 0 0 0 0 0 0 0 0 0 0 0 0 0 0 0 0 0 0 0 0 0 0 0 0 0 0 0 0 0 0 0 0 0 0 0 0 0 0 0 0 0 0 0 0 0 0 0 0 0 0 0 0 0 0 0 0 0 0 0 0 886 865 886 865 865 876 897 876 886 886 919 886 919 897 919 943 897 855 855 855 0 826 836 826 836 855 865 865 865 865 876 876 876 865 865 855 865 865 876 876 876 865 855 865 865 845 855 845 845 845 836 845 836 826 836 826 836 845 855 845 855 865 855 865 855 865 865 865 876 876 876 886 876 886 876 865 897 876 865 886 865 865 865 865 855 845 855 845 855 855 865 865 865 865 865 855 855 845 0 845 845 845 855 855 865 865 845 855 845 845 836 836 836 836 836 836 836 826 826 836 855 876 865 886 886 876 886 876 855 845 836 826 817 826 826 826 826 836 836 826 845 865 855 855 865 865 876 865 855 855 836 826 817 799 799 799 791 799 782 774 774 791 799 808 808 836 845 845 836 836 817 817 799 799 782 774 774 774 766 791 758 766 728 766 728 735 735 721 728 728 721 721 707 694 694 681 687 681 681 687 681 681 714 721 782 782 817 799 791 758 743 743 735 721 714 714 714 714 721 743 743 758 791 782 782 782 774 782 758 743 728 714 714 0 0 0 0 0 0 0 0 0 0 0 0 0 0 0 0 0 0
    0 0 0 0 0 0 0 0 0 0 0 0 0 0 0 0 0 0 0 0 0 0 0 0 0 0 0 0 0 0 0 0 0 0 0 0 0 0 0 0 0 0 0 0 0 0 0 0 0 0 0 0 0 0 0 0 0 0 0 0 0 0 0 0 0 0 0 0 0 876 865 865 865 855 865 876 876 876 876 897 876 886 876 897 897 855 826 845 836 0 826 826 826 836 845 855 855 865 855 876 865 865 855 855 855 855 865 865 865 855 855 845 855 855 845 845 836 836 836 836 836 826 826 826 826 845 845 855 855 855 865 855 865 855 865 865 855 865 865 865 876 865 886 865 855 886 865 865 876 865 865 855 855 845 836 845 836 845 845 855 855 855 855 855 845 855 845 0 836 836 836 826 845 845 855 836 845 836 836 826 826 826 826 826 836 826 826 826 826 845 865 855 876 876 876 876 865 836 836 826 817 808 817 817 817 826 826 836 826 845 865 855 845 855 865 876 855 855 845 826 826 808 799 791 791 782 791 766 766 766 782 774 782 766 808 817 817 817 817 799 799 782 791 766 758 750 750 750 774 735 750 721 758 728 743 735 728 728 728 721 728 714 694 694 681 694 681 681 687 687 687 714 721 782 758 808 782 774 735 728 735 728 721 721 721 721 721 728 743 743 758 791 782 782 782 766 774 750 735 728 707 707 0 0 0 0 0 0 0 0 0 87 0 0 0 0 0 0 0 0
    0 0 0 0 0 0 0 0 0 0 0 0 0 0 0 0 0 0 0 0 0 0 0 0 0 0 0 0 0 0 0 0 0 0 0 0 0 0 0 0 0 0 0 0 0 0 0 0 0 0 0 0 0 0 0 0 0 0 0 0 0 0 0 0 0 0 0 0 0 865 855 855 855 855 855 865 865 865 855 865 855 865 855 865 855 826 826 836 826 0 817 826 826 836 836 845 836 855 845 865 845 855 845 845 836 855 855 855 845 845 836 836 845 845 836 826 826 826 826 826 826 826 817 826 826 845 845 865 845 855 855 845 855 845 855 855 845 855 855 855 865 855 876 836 0 865 845 845 865 855 845 845 0 0 836 836 808 836 836 845 845 855 855 845 845 845 836 0 0 826 826 817 826 817 836 799 826 808 817 817 817 817 817 826 0 826 826 826 826 836 865 855 865 865 865 865 845 826 826 817 808 808 808 817 817 817 826 826 826 836 855 845 845 845 855 865 845 845 836 826 817 799 791 791 791 782 791 766 758 758 774 758 766 750 791 774 766 791 799 758 774 750 758 735 735 735 735 735 758 728 743 728 750 728 743 735 728 728 728 721 721 714 694 694 681 687 681 681 687 687 687 714 721 774 743 808 782 758 714 721 721 714 714 714 714 707 714 721 728 735 750 782 774 774 774 758 766 743 735 721 700 0 0 0 0 0 0 484 0 0 0 87 0 0 0 0 0 0 0 0
    0 0 0 0 0 0 0 0 0 0 0 0 0 0 0 0 0 0 0 0 0 0 0 0 0 0 0 0 0 0 0 0 0 0 0 0 0 0 0 0 0 0 0 0 0 0 0 0 0 0 0 0 0 0 0 0 0 0 0 0 0 0 0 0 0 0 0 0 0 845 845 845 845 836 845 845 855 845 845 845 826 836 826 836 817 817 808 0 808 0 808 817 817 826 826 836 826 845 836 855 836 845 836 836 826 845 836 845 836 836 826 0 845 836 826 817 817 817 817 817 826 817 817 826 826 836 845 855 845 845 845 836 845 836 855 845 845 845 845 0 855 845 0 826 0 826 817 817 836 836 836 836 0 0 826 826 791 826 826 0 0 0 845 0 836 845 826 0 0 817 817 817 826 799 817 758 808 799 808 0 0 817 817 817 0 0 0 826 826 836 855 845 855 855 845 845 836 799 808 799 791 799 808 808 817 817 826 826 817 836 845 836 836 836 845 855 845 836 826 826 817 791 791 791 791 782 791 766 750 758 774 758 758 750 782 758 750 782 782 743 750 728 728 721 721 721 721 721 743 721 735 721 743 721 743 735 721 728 728 714 721 714 0 687 681 687 681 681 687 687 687 714 714 766 707 766 735 728 700 707 707 700 700 700 707 694 700 714 721 728 750 791 774 774 774 758 750 728 728 714 694 0 0 0 0 0 0 487 0 0 0 87 0 0 0 0 0 0 0 0
    0 0 0 0 0 0 0 0 0 0 0 0 0 0 0 0 0 0 0 0 0 0 0 0 0 0 0 0 0 0 0 0 0 0 0 0 0 0 0 0 0 0 0 0 0 0 0 0 0 0 0 0 0 0 0 0 0 0 0 0 0 0 0 0 0 0 0 0 0 836 836 836 836 836 836 836 845 836 836 836 826 826 817 826 817 808 808 817 808 0 808 817 817 826 826 836 826 836 826 855 836 836 826 826 826 836 836 836 826 826 817 0 836 836 826 817 817 817 817 817 826 817 817 826 826 836 836 855 845 845 845 836 845 836 855 845 845 845 845 0 855 845 0 817 0 817 782 774 799 808 817 826 0 0 836 836 782 826 826 0 0 0 836 0 826 836 826 0 817 817 817 808 817 791 817 750 799 799 808 817 817 817 817 817 0 0 826 826 826 836 855 845 855 855 845 855 836 808 817 799 791 799 808 808 817 817 817 817 817 826 836 826 826 826 826 845 836 836 826 826 826 774 791 791 791 782 782 758 750 750 774 750 750 743 766 743 735 758 750 728 735 721 721 714 714 714 721 714 728 714 721 721 728 721 735 728 721 728 721 714 721 707 694 687 681 687 681 681 687 687 687 714 714 743 700 728 714 714 694 700 700 694 694 700 700 694 700 728 728 728 774 817 791 791 791 774 750 728 721 707 0 0 0 0 0 0 490 487 484 487 484 0 0 0 0 0 0 0 0 0
    0 0 0 0 0 0 0 0 0 0 0 0 0 0 0 0 0 0 0 0 0 0 0 0 0 0 0 0 0 0 0 0 0 0 0 0 0 0 0 0 0 0 0 0 0 0 0 0 0 0 0 0 0 0 0 0 0 0 0 0 0 0 0 0 0 0 0 0 0 836 836 836 845 836 836 836 845 836 836 826 826 817 817 817 817 808 808 808 799 817 808 826 817 826 826 836 826 845 826 855 836 845 826 826 817 826 826 826 817 817 808 0 0 826 817 817 817 817 817 817 826 817 817 826 817 826 826 836 836 836 836 826 836 836 845 845 836 845 836 0 0 0 0 808 791 808 766 743 750 791 808 817 0 0 817 826 774 817 817 826 826 0 836 826 826 836 826 0 817 817 817 799 817 774 808 743 791 791 808 817 808 808 808 817 826 817 826 817 817 826 855 855 855 865 855 855 845 808 817 799 799 799 808 808 808 817 817 817 817 826 836 826 817 817 826 836 826 826 826 826 817 774 791 791 791 782 782 750 743 743 766 743 735 735 750 735 735 743 743 721 721 714 714 714 714 707 714 714 728 714 721 721 728 714 735 728 721 721 721 714 714 707 687 687 675 687 681 681 687 687 687 714 714 735 700 721 707 714 694 694 700 694 700 700 0 700 707 743 743 743 799 836 799 808 808 782 758 735 728 707 0 0 0 0 0 0 493 487 487 487 487 0 0 0 0 0 0 0 0 0
    0 0 0 0 0 0 0 0 0 0 0 0 0 0 0 0 0 0 0 0 0 0 0 0 0 0 0 0 0 0 0 0 0 0 0 0 0 0 0 0 0 0 0 0 0 0 0 0 0 0 0 0 0 0 0 0 0 0 0 0 0 0 0 0 0 0 0 0 0 836 836 836 845 836 826 836 845 836 826 826 826 817 808 808 808 808 799 799 791 817 808 826 826 826 836 836 836 855 836 865 836 845 826 817 808 817 817 817 817 817 808 0 0 826 817 0 0 817 817 817 826 817 817 826 817 826 826 836 826 826 826 817 826 826 836 836 826 0 826 0 0 826 0 808 782 799 743 728 721 750 791 0 0 0 808 817 766 817 817 817 817 817 817 808 817 826 817 0 0 808 808 799 817 782 808 743 791 782 799 808 799 799 799 799 808 808 808 808 808 817 836 855 855 865 855 855 845 817 817 799 799 799 808 817 817 817 817 817 817 817 826 817 808 808 808 817 808 817 826 817 817 766 782 791 791 774 774 743 735 743 758 735 735 735 735 728 728 735 735 714 714 707 707 714 714 707 714 714 721 714 721 721 721 714 728 721 721 721 714 707 707 700 687 681 675 681 681 681 687 681 694 714 714 728 700 721 714 721 700 700 707 700 694 700 0 694 707 735 735 735 791 836 799 808 808 782 766 735 728 0 0 0 0 0 0 0 493 487 487 490 487 487 487 0 487 0 0 0 0 0
    0 0 0 0 0 0 0 0 0 0 0 0 0 0 0 0 0 0 0 0 0 0 0 0 0 0 0 0 0 0 0 0 0 0 0 0 0 0 0 0 0 0 0 0 0 0 0 0 0 0 0 0 0 0 0 0 0 0 0 0 0 0 0 0 0 0 0 0 0 836 836 836 845 836 826 836 845 836 836 826 826 808 808 799 791 799 791 782 774 799 808 826 826 826 826 836 836 855 836 865 836 836 826 817 799 808 799 791 799 799 799 799 0 817 817 0 0 0 817 808 817 808 817 826 817 826 817 826 826 817 817 808 808 808 826 826 817 826 817 817 817 817 826 799 774 791 735 735 721 743 774 774 808 782 808 817 774 808 808 808 808 799 808 791 799 808 799 791 799 791 791 791 808 774 791 750 774 774 791 799 799 799 791 791 799 791 799 791 791 799 817 836 855 855 855 845 836 817 817 791 791 799 799 808 808 817 817 817 817 808 817 799 799 791 791 799 791 799 817 808 808 750 782 791 782 774 774 735 735 735 750 735 735 735 728 721 728 728 721 707 707 700 700 707 707 707 714 714 721 714 721 721 714 707 728 714 714 714 714 700 700 694 687 681 675 681 681 681 681 681 694 707 707 714 700 714 707 714 707 694 700 694 687 687 681 681 0 0 721 714 743 799 766 782 782 758 750 721 721 0 0 0 0 0 487 0 493 487 490 490 487 490 487 493 490 0 0 0 0 0
    0 0 0 0 0 0 0 0 0 0 0 0 0 0 0 0 0 0 0 0 0 0 0 0 0 0 0 0 0 0 0 0 0 0 0 0 0 0 0 0 0 0 0 0 0 0 0 0 0 0 0 0 0 0 0 0 0 0 0 0 0 0 0 0 0 0 0 0 0 826 836 836 836 826 826 826 845 836 826 826 826 799 799 791 782 782 774 758 750 782 799 817 817 817 817 826 826 845 826 836 817 808 791 799 782 782 791 758 782 782 791 782 799 808 799 799 808 808 808 799 817 799 799 808 799 817 808 808 808 782 791 782 782 791 808 808 808 808 808 808 808 808 817 791 766 774 728 728 721 735 750 750 774 774 791 808 766 799 799 791 791 791 791 782 791 799 782 782 782 782 782 782 799 766 782 766 774 774 791 799 791 799 782 782 782 782 791 782 774 782 782 826 836 836 845 836 826 799 808 774 774 782 791 799 799 799 808 808 799 782 782 774 782 766 766 766 766 782 808 799 791 743 774 782 766 766 766 735 735 735 750 735 735 728 728 728 728 721 714 700 694 694 694 707 707 700 714 714 714 714 714 721 714 707 721 707 707 707 707 694 694 687 681 681 675 681 681 681 681 681 687 700 700 707 700 714 707 714 707 694 700 694 687 687 681 681 0 0 721 714 735 774 743 750 758 735 728 707 714 681 0 234 236 0 487 493 493 490 493 493 490 493 490 497 493 0 0 0 0 0
    0 0 0 0 0 0 0 0 0 0 0 0 0 0 0 0 0 0 0 0 0 0 0 0 0 0 0 0 0 0 0 0 0 0 0 0 0 0 0 0 0 0 0 0 0 0 0 0 0 0 0 0 0 0 0 0 0 0 0 0 0 0 0 0 0 0 0 0 0 826 826 826 826 826 817 826 836 836 826 817 817 791 791 774 766 766 758 743 743 766 791 799 808 808 808 808 808 826 808 808 782 774 766 774 774 774 774 750 774 766 774 774 791 791 791 782 799 791 791 782 799 791 791 799 791 799 791 791 791 743 750 750 750 758 774 791 782 791 791 799 791 799 799 774 750 750 721 721 721 728 743 743 750 758 766 782 750 782 791 774 782 774 774 766 774 782 774 766 774 766 766 774 782 758 758 766 758 766 774 782 782 791 766 766 766 774 774 766 758 758 766 808 817 817 826 817 799 782 791 750 743 750 766 774 782 782 791 774 758 750 743 743 750 743 750 743 750 766 791 791 774 743 766 774 758 758 758 728 735 743 750 743 735 728 728 721 728 707 700 694 681 687 687 694 694 687 707 707 707 707 714 721 707 700 707 694 687 694 694 687 681 681 675 675 675 675 681 681 681 681 687 700 700 700 700 707 700 707 700 687 694 687 681 687 675 681 687 0 728 721 735 758 735 735 735 721 714 694 700 675 0 233 0 0 487 493 493 490 493 493 490 493 490 497 497 0 0 0 0 0
    0 0 0 0 0 0 0 0 0 0 0 0 0 0 0 0 0 0 0 0 0 0 0 0 0 0 0 0 0 0 0 0 0 0 0 0 0 0 0 0 0 0 0 0 0 0 0 0 0 0 0 0 0 0 0 0 0 0 0 0 0 0 0 0 0 0 0 0 0 808 817 817 817 808 808 808 826 826 817 799 799 774 774 758 750 750 743 735 735 750 774 782 791 791 782 774 791 799 782 774 750 750 750 758 766 766 766 735 758 758 766 766 774 782 782 774 791 774 782 766 791 774 774 774 774 791 774 774 774 735 735 743 735 735 743 766 766 774 774 782 774 791 791 766 750 743 721 721 721 728 735 735 743 743 758 766 743 774 782 758 766 766 758 758 758 766 758 750 766 750 750 758 750 735 735 750 735 750 758 766 766 774 750 750 750 758 758 750 743 743 750 791 799 791 799 782 758 758 766 728 721 728 735 735 743 743 750 735 728 728 728 728 735 735 735 735 743 750 774 774 758 743 758 766 750 758 758 728 735 743 743 743 735 728 721 721 728 707 700 687 675 681 681 687 681 681 700 700 700 700 700 707 694 687 694 681 675 681 681 681 681 675 675 675 675 675 675 675 675 681 687 700 694 700 700 707 700 707 700 687 694 687 681 681 669 675 675 675 721 721 728 735 728 721 721 714 707 0 700 675 0 232 0 0 487 497 493 490 497 497 493 497 493 500 497 0 0 0 0 0
    0 0 0 0 0 0 0 0 0 0 0 0 0 0 0 0 0 0 0 0 0 0 0 0 0 0 0 0 0 0 0 0 0 0 0 0 0 0 0 0 0 0 0 0 0 0 0 0 0 0 0 0 0 0 0 0 0 0 0 0 0 0 0 0 0 0 0 0 0 791 808 808 808 799 782 799 808 817 799 766 774 743 758 743 735 735 735 728 735 743 766 758 774 766 766 743 766 774 750 743 728 735 735 743 758 750 750 735 750 750 750 766 766 766 774 766 782 758 766 750 774 758 758 758 766 774 758 758 774 735 735 743 728 735 735 750 750 758 766 774 758 782 782 750 750 735 721 721 721 728 735 735 735 743 750 758 735 758 766 743 750 750 743 743 743 750 743 735 750 728 728 728 721 721 721 735 728 735 743 750 750 758 743 743 743 750 743 743 735 735 735 774 782 766 743 721 714 714 721 714 700 707 714 714 714 721 728 721 721 721 721 721 728 728 728 735 743 750 758 758 750 743 750 758 743 750 750 721 735 743 743 743 735 728 721 721 735 700 694 687 675 675 681 681 681 669 694 694 694 694 687 700 681 681 687 669 669 675 681 681 675 675 675 675 681 675 675 675 675 675 687 694 694 700 700 707 700 700 700 681 687 681 675 675 669 675 675 681 707 0 714 721 714 707 707 700 700 0 700 675 639 232 0 0 487 497 493 490 497 497 493 497 493 500 497 0 0 0 0 0
    0 0 0 0 0 0 0 0 0 0 0 0 0 0 0 0 0 0 0 0 0 0 0 0 0 0 0 0 0 0 0 0 0 0 0 0 0 0 0 0 0 0 0 0 0 0 0 0 0 0 0 0 0 0 0 0 0 0 0 0 0 0 0 0 0 0 0 0 0 774 799 799 799 791 766 774 791 808 791 743 750 728 743 735 728 728 728 728 728 735 758 750 766 750 750 728 743 743 735 721 714 721 728 735 750 743 743 728 743 743 743 766 750 758 758 750 774 743 758 743 750 750 743 750 758 758 750 750 758 728 728 743 721 728 735 735 743 743 750 758 743 766 766 743 743 728 721 721 721 728 728 728 728 735 750 743 735 743 750 735 743 743 735 735 735 743 735 728 735 721 721 714 707 714 714 728 721 728 735 743 743 743 735 735 735 743 735 735 728 728 735 766 774 750 721 700 694 700 707 700 694 700 707 714 707 714 721 714 714 721 721 721 721 728 728 728 735 743 743 743 743 735 743 743 728 743 735 714 735 735 735 735 728 721 714 721 735 694 687 681 675 675 687 681 675 669 694 694 694 694 687 694 675 675 681 669 669 669 681 681 675 675 675 681 681 669 675 675 669 675 694 694 694 700 700 707 700 700 694 681 694 681 675 675 675 681 681 681 694 675 700 707 700 694 694 687 687 687 687 675 639 0 0 0 487 493 493 487 497 497 493 497 493 500 497 0 0 0 0 0</data></depth>
</opencv_storage>
