<?xml version="1.0"?>
<opencv_storage>
<gps_time_stamp>23092</gps_time_stamp>
<gps_x>-3.5129020214080811e+000</gps_x>
<gps_y>3.3056944608688354e-001</gps_y>
<gps_z>-4.4741341471672058e-001</gps_z>
<image_time_stamp>11064</image_time_stamp>
<depth type_id="opencv-matrix">
  <rows>86</rows>
  <cols>320</cols>
  <dt>s</dt>
  <data>
    0 0 0 0 0 0 0 0 0 0 0 0 0 0 0 0 0 0 0 0 0 0 0 0 0 0 0 0 0 0 0 0 0 0 0 0 0 0 0 0 0 0 0 0 0 0 0 0 0 0 0 0 0 0 0 0 0 0 0 0 0 0 0 0 0 0 0 0 0 0 0 0 0 0 0 0 0 0 0 0 0 0 0 0 0 0 0 0 0 0 0 0 0 0 0 0 0 0 0 0 0 0 0 0 0 0 0 0 0 0 0 0 0 0 0 0 0 0 0 0 0 0 0 0 0 0 0 0 0 0 0 0 0 0 0 0 0 0 0 0 0 0 0 0 0 0 0 0 0 0 0 0 0 0 0 0 0 0 0 0 0 0 0 0 0 0 0 0 0 0 0 0 0 0 0 0 0 0 0 0 0 0 0 0 0 0 0 0 0 0 0 0 0 0 0 0 0 0 0 0 0 0 0 0 0 0 0 0 0 0 0 0 0 0 0 0 0 0 0 0 0 0 0 0 0 0 0 0 0 0 0 0 0 0 0 0 0 0 0 0 0 0 0 0 0 0 0 0 0 0 0 0 0 0 0 0 0 0 0 0 0 0 0 0 0 0 0 0 0 0 0 0 0 0 0 0 0 0 0 0 0 0 0 0 0 0 0 0 0 0 0 0 0 0 0 0 0 0 0 0 0 0 0 0 0 0 0 0 0 0 0 0 0 0 0 0 0 0 0 0
    0 0 0 0 0 0 0 0 0 0 0 0 0 0 0 0 0 0 0 0 0 0 0 0 0 0 0 0 0 0 0 0 0 0 0 0 0 0 0 0 0 0 0 0 0 0 0 0 0 0 0 0 0 0 0 0 0 0 0 0 0 0 0 0 0 0 0 0 0 0 0 0 0 0 0 0 0 0 0 0 0 0 0 0 0 0 0 0 0 0 0 0 0 0 0 0 0 0 0 0 0 0 0 0 0 0 0 0 0 0 0 0 0 0 0 0 0 0 0 0 0 0 0 0 0 0 0 0 0 0 0 0 0 0 0 0 0 0 0 0 0 0 0 0 0 0 0 0 0 0 0 0 0 0 0 0 0 0 0 0 0 0 0 0 0 0 0 0 0 0 0 0 0 0 0 0 0 0 0 0 0 0 0 0 0 0 0 0 0 0 0 0 0 0 0 0 0 0 0 0 0 0 0 0 0 0 0 0 0 0 0 0 0 0 0 0 0 0 0 0 0 0 0 0 0 0 0 0 0 0 0 0 0 0 0 0 0 0 0 0 0 0 0 0 0 0 0 0 0 0 0 0 0 0 0 0 0 0 0 0 0 0 0 0 0 0 0 0 0 0 0 0 0 0 0 0 0 0 0 0 0 0 0 0 0 0 0 0 0 0 0 0 0 0 0 0 0 0 0 0 0 0 0 0 0 0 0 0 0 0 0 0 0 0 0 0 0 0 0 0
    0 0 0 0 0 0 0 0 0 0 0 0 0 0 0 0 0 0 0 0 0 0 0 0 0 0 0 0 0 0 0 0 0 0 0 0 0 0 0 0 0 0 0 0 0 0 0 0 0 0 0 0 0 0 0 0 0 0 0 0 0 0 0 0 0 0 0 0 0 0 0 0 0 0 0 0 0 0 0 0 0 0 0 0 0 0 0 0 0 0 0 0 0 0 0 0 0 0 0 0 0 0 0 0 0 0 0 0 0 0 0 0 0 0 0 0 0 0 0 0 0 0 0 0 0 0 0 0 0 0 0 0 0 0 0 0 0 0 0 0 0 0 0 0 0 0 0 0 0 0 0 0 0 0 0 0 0 0 0 0 0 0 0 0 0 0 0 0 0 0 0 0 0 0 0 0 0 0 0 0 0 0 0 0 0 0 0 0 0 0 0 0 0 0 0 0 0 0 0 0 0 0 0 0 0 0 0 0 0 0 0 0 0 0 0 0 0 0 0 0 0 0 0 0 0 0 0 0 0 0 0 0 0 0 0 0 0 0 0 0 0 0 0 0 0 0 0 0 0 0 0 0 0 0 0 0 0 0 0 0 0 0 0 0 0 0 0 0 0 0 0 0 0 0 0 0 0 0 0 0 0 0 0 0 0 0 0 0 0 0 0 0 0 0 0 0 0 0 0 0 0 0 0 0 0 0 0 0 0 0 0 0 0 0 0 0 0 0 0 0
    0 0 0 0 0 0 0 0 0 0 0 0 0 0 0 0 0 0 0 0 0 0 0 0 0 0 0 0 0 0 0 0 0 0 0 0 0 0 0 0 0 0 0 0 0 0 0 0 0 0 0 0 0 0 0 0 0 0 0 0 0 0 0 0 0 0 0 0 0 0 0 0 0 0 0 0 0 0 0 0 0 0 0 0 0 0 0 0 0 0 0 0 0 0 0 0 0 0 0 0 0 0 0 0 0 0 0 0 0 0 0 0 0 0 0 0 0 0 0 0 0 0 0 0 0 0 0 0 0 0 0 0 0 0 0 0 0 0 0 0 0 0 0 0 0 0 0 0 0 0 0 0 0 0 0 0 0 0 0 0 0 0 0 0 0 0 0 0 0 0 0 0 0 0 0 0 0 0 0 0 0 0 0 0 0 0 0 0 0 0 0 0 0 0 0 0 0 0 0 0 0 0 0 0 0 0 0 0 0 0 0 0 0 0 0 0 0 0 0 0 0 0 0 0 0 0 0 0 0 0 0 0 0 0 0 0 0 0 0 0 0 0 0 0 0 0 0 0 0 0 0 0 0 0 0 0 0 0 0 0 0 0 0 0 0 0 0 0 0 0 0 0 0 0 0 0 0 0 0 0 0 0 0 0 0 0 0 0 0 0 0 0 0 0 0 0 0 0 0 0 0 0 0 0 0 0 0 0 0 0 0 0 0 0 0 0 0 0 0 0
    0 0 0 0 0 0 0 0 0 0 0 0 0 0 0 0 0 0 0 0 0 0 0 0 0 0 0 0 0 0 0 0 0 0 0 0 0 0 0 0 0 0 0 0 0 0 0 0 0 0 0 0 0 0 0 0 0 0 0 0 0 0 0 0 0 0 0 0 0 8177 8177 9199 9199 8177 7359 6690 0 0 0 0 0 0 0 0 0 0 0 0 0 0 0 0 0 0 0 0 0 0 0 0 0 0 0 0 0 0 0 0 0 0 0 0 0 0 0 0 9199 0 0 0 0 0 0 0 0 0 0 0 0 0 0 0 0 0 0 0 0 0 0 0 0 0 0 0 0 0 0 0 0 0 0 0 0 0 8177 0 0 0 0 0 8177 8177 8177 8177 7359 7359 6133 6690 5661 6133 5661 4599 6690 3873 5256 5661 5256 5661 6133 6133 6133 6133 8177 7359 7359 7359 7359 6690 8177 0 0 0 0 0 0 0 6133 6690 7359 6690 6690 6690 6133 6133 6133 8177 7359 7359 7359 8177 0 0 0 0 0 0 0 0 0 0 0 0 0 0 0 0 0 0 0 0 0 5661 6690 7359 6133 4906 4906 5256 4599 4329 4088 4088 3873 4088 4329 4088 4088 4329 4088 4329 3679 0 2943 2537 2537 2453 2374 2299 2230 2299 2299 2299 2374 2299 2299 2230 2164 2230 2164 2102 2102 2164 2044 2102 2102 2164 2164 2164 2453 2299 2374 2453 2374 2044 1989 1989 1887 1887 1887 1839 1887 1839 1839 1795 1752 1752 1711 1672 1672 1672 1672 1672 1672 1711 1711 1711 1711 1711 1711 1752 1711 1672 1635 1672 1711 0 0 0 0 0
    0 0 0 0 0 0 0 0 0 0 0 0 0 0 0 0 0 0 0 0 0 0 0 0 0 0 0 0 0 0 0 0 0 0 0 0 0 0 0 0 0 0 0 0 0 0 0 0 0 0 0 0 0 0 0 0 0 0 0 0 0 0 0 0 0 0 0 0 0 7359 8177 8177 8177 8177 7359 6690 0 0 0 0 0 0 0 0 0 0 0 0 0 0 0 0 0 0 0 0 0 0 0 0 0 0 0 0 0 0 0 0 0 0 0 0 0 0 0 0 7359 0 0 0 0 0 0 0 0 0 0 0 0 0 0 0 0 0 0 0 0 0 0 0 0 0 0 0 0 0 0 0 0 0 0 0 0 0 8177 0 0 0 0 0 8177 8177 0 8177 7359 7359 6690 6690 6133 6690 5661 4599 6690 3873 5256 5661 5256 5661 6133 6133 6133 6133 8177 7359 7359 8177 8177 7359 0 0 0 0 0 0 0 0 6133 6690 7359 6690 6690 6690 6690 6690 6690 0 8177 7359 8177 0 0 0 0 0 0 0 0 0 0 0 0 0 0 0 0 0 0 0 0 0 4906 5256 6133 6690 5661 4906 4906 4906 4329 4329 4088 4088 3873 4088 4329 4088 4088 4329 4329 4329 3679 3345 3066 2628 2628 2453 2453 2299 2230 2299 2299 2299 2374 2299 2299 2230 2164 2230 2164 2102 2102 2164 2102 2102 2102 2164 2164 2164 2374 2164 2230 2299 2164 1936 1989 1989 1887 1936 1887 1887 1887 1887 1839 1795 1752 1752 1711 1672 1672 1672 1672 1672 1672 1711 1672 1711 1672 1711 1711 1711 1672 1672 1635 1672 1711 0 0 0 0 0
    0 0 0 0 0 0 0 0 0 0 0 0 0 0 0 0 0 0 0 0 0 0 0 0 0 0 0 0 0 0 0 0 0 0 0 0 0 0 0 0 0 0 0 0 0 0 0 0 0 0 0 0 0 0 0 0 0 0 0 0 0 0 0 0 0 0 0 0 0 6133 6133 6690 6690 7359 8177 7359 7359 0 0 0 0 0 0 0 0 0 0 0 0 0 0 0 0 0 0 0 0 0 0 0 0 0 0 0 0 0 0 0 0 0 0 0 0 0 0 8177 7359 0 0 0 0 0 0 0 0 0 0 0 0 0 8177 8177 0 0 0 0 0 0 0 0 0 0 0 0 0 0 0 0 0 0 0 0 0 0 6690 0 0 0 0 0 8177 8177 0 8177 7359 7359 6690 7359 6133 6133 5256 4906 6690 4088 5661 5661 5256 5661 6133 6133 6133 5661 7359 7359 7359 8177 7359 7359 0 0 0 0 0 0 0 0 5256 6133 6690 6690 6690 6690 6690 6690 6690 0 8177 8177 8177 0 0 0 0 0 0 0 0 0 0 0 0 0 0 0 0 0 0 0 0 4599 4906 5256 5661 5661 4906 4599 4088 4329 3873 3873 3679 3873 3679 3873 4088 4088 3873 4329 4088 4329 3679 3199 3066 2628 2537 2374 2374 2299 2164 2299 2299 2299 2374 2299 2299 2230 2164 2230 2164 2102 2164 2164 2102 2164 2164 2164 2164 2164 2299 2102 2164 2230 2044 1839 1887 1887 1839 1839 1839 1839 1887 1839 1839 1795 1795 1752 1752 1711 1711 1672 1672 1711 1672 1672 1672 1672 1672 1672 1672 1711 1635 1635 1635 1635 1672 0 0 0 0 0
    0 0 0 0 0 0 0 0 0 0 0 0 0 0 0 0 0 0 0 0 0 0 0 0 0 0 0 0 0 0 0 0 0 0 0 0 0 0 0 0 0 0 0 0 0 0 0 0 0 0 0 0 0 0 0 0 0 0 0 0 0 0 0 0 0 0 0 0 0 5661 5661 5661 6690 6690 8177 8177 8177 0 0 0 0 0 0 0 0 0 0 0 0 0 0 0 0 0 0 0 0 0 0 0 0 0 0 0 0 0 0 0 0 0 0 0 0 0 0 8177 6690 0 0 0 0 0 0 8177 0 0 0 0 0 0 8177 8177 0 0 0 0 0 0 0 0 0 0 0 0 0 0 0 0 73 0 0 0 0 0 0 0 0 0 0 0 7359 6690 8177 7359 6690 6690 5661 6133 5661 5661 4329 4599 6690 3873 5256 5256 5256 5661 6133 6690 6133 5661 7359 7359 7359 8177 7359 7359 8177 0 0 0 0 0 0 0 5256 5661 6690 6133 6690 6690 6690 6690 6690 0 8177 8177 0 0 0 0 0 0 0 0 0 0 0 0 0 0 0 0 0 0 0 0 0 5256 5256 5256 5256 5256 4906 4088 3679 3873 3679 3679 3679 3504 3504 3679 3873 3873 3873 3873 3873 3873 3504 0 2943 2453 2537 2374 2374 2299 2230 2299 2374 2299 2453 2299 2299 2230 2164 2230 2164 2102 2164 2164 2102 2164 2164 2164 2164 2102 2230 2044 2044 2044 1887 1711 1795 1795 1795 1795 1795 1795 1795 1795 1795 1795 1752 1752 1752 1711 1711 1672 1672 1711 1672 1672 1672 1672 1672 1635 1672 1672 1635 1599 1599 1635 1635 0 0 0 0 0
    0 0 0 0 0 0 0 0 0 0 0 0 0 0 0 0 0 0 0 0 0 0 0 0 0 0 0 0 0 0 0 0 0 0 0 0 0 0 0 0 0 0 0 0 0 0 0 0 0 0 0 0 0 0 0 0 0 0 0 0 0 0 0 0 0 0 0 0 0 5256 5256 5256 6133 6690 8177 8177 8177 8177 0 0 0 0 0 0 0 0 0 0 0 0 0 0 0 0 0 0 0 0 0 0 0 0 0 0 0 0 0 0 0 0 0 0 0 0 8177 6690 5661 0 8177 7359 0 0 0 8177 0 0 9199 0 0 0 7359 7359 0 0 0 0 0 0 0 0 0 0 0 0 0 0 0 0 0 0 73 0 0 0 3873 0 0 0 0 6133 6133 5661 6690 6690 5661 5661 5256 5661 5256 5256 3873 4329 6133 3873 5256 5256 5256 5661 6133 6690 6133 6133 7359 7359 8177 8177 7359 6690 8177 0 0 0 8177 8177 0 0 5256 6133 6690 6133 6690 7359 7359 7359 7359 0 0 0 0 0 0 0 0 0 0 0 0 0 0 0 0 0 0 0 0 0 0 0 4599 4906 4906 5256 4906 4906 4906 3873 3873 3873 3679 3679 3504 3504 3504 3504 3873 3679 3679 3679 3873 3873 3504 0 2830 2374 2453 2374 2299 2299 2230 2230 2453 2299 2453 2299 2230 2230 2164 2230 2164 2102 2102 2102 2044 2102 2102 2102 2044 1989 2044 1887 1887 1887 1839 1711 1711 1752 1752 1795 1795 1795 1795 1795 1752 1752 1752 1711 1752 1711 1711 1672 1672 1711 1672 1672 1672 1672 1635 1635 1672 1672 1635 1599 1635 1635 1635 0 0 0 0 0
    0 0 0 0 0 0 0 0 0 0 0 0 0 0 0 0 0 0 0 0 0 0 0 0 0 0 0 0 0 0 0 0 0 0 0 0 0 0 0 0 0 0 0 0 0 0 0 0 0 0 0 0 0 0 0 0 0 0 0 0 0 0 0 0 0 0 0 0 0 4906 4906 4906 5661 6133 8177 8177 8177 0 0 0 0 0 0 0 0 0 0 0 0 0 0 0 0 0 0 0 0 0 0 0 0 0 0 0 0 0 0 0 0 0 0 0 0 8177 7359 6133 4906 7359 7359 6133 7359 0 0 6690 8177 8177 8177 8177 0 8177 6690 6690 0 0 0 8177 8177 8177 8177 0 8177 0 0 0 0 0 0 0 0 73 73 8177 6133 6133 4088 0 9199 0 5661 5256 5661 5661 6133 6133 5661 5661 5256 5661 5661 5256 4088 4599 6133 3873 5256 5256 5256 6133 6133 6690 6133 6133 8177 7359 8177 8177 7359 7359 8177 0 0 0 8177 8177 0 0 5661 6133 6690 6133 6690 8177 8177 8177 8177 0 0 0 0 0 0 0 0 0 0 0 0 0 0 0 0 0 0 0 0 0 0 4329 4599 4599 4599 4599 4599 4906 4599 3873 3873 4088 3873 3679 3679 3679 3504 3679 3873 3679 3679 3873 3873 3873 3504 0 2830 2374 2453 2374 2374 2299 2230 2299 2453 2299 2537 2299 2230 2230 2164 2230 2164 2102 2102 2102 2044 2044 2044 2044 1989 1936 1887 1839 1795 1795 1795 1672 1711 1711 1752 1752 1752 1752 1752 1752 1752 1752 1711 1711 1711 1711 1711 1711 1672 1752 1672 1672 1711 1672 1635 1635 1635 1672 1599 1599 1635 1599 1635 0 0 0 0 0
    0 0 0 0 0 0 0 0 0 0 0 0 0 0 0 0 0 0 0 0 0 0 0 0 0 0 0 0 0 0 0 0 0 0 0 0 0 0 0 0 0 0 0 0 0 0 0 0 0 0 0 0 0 0 0 0 0 0 0 0 0 0 0 0 0 0 0 0 0 4599 4906 4599 5661 6690 8177 8177 0 0 0 0 0 0 0 0 0 0 0 0 0 0 0 0 0 0 0 0 0 0 0 0 0 0 0 0 0 0 0 0 0 0 0 0 0 8177 6690 6133 4906 6690 6690 5661 6690 0 0 6690 7359 7359 7359 7359 8177 7359 6690 6133 0 8177 0 8177 7359 8177 7359 8177 8177 0 0 0 0 0 0 0 0 0 0 6690 5661 5661 4088 7359 7359 8177 5661 5661 5661 6133 6690 6690 6133 6133 5661 6133 5661 5256 3873 4906 6690 3873 5661 5256 5661 6133 6690 6690 6133 6133 8177 8177 0 0 8177 8177 0 0 0 0 0 0 0 0 6133 6690 7359 6690 6690 8177 8177 8177 8177 0 0 0 8177 0 0 0 0 0 0 0 0 0 0 0 0 0 0 0 0 0 4906 4906 4906 4599 4599 4599 4906 4906 4329 3679 3873 3873 3679 3679 3679 3504 3504 3679 3873 3679 3679 3873 3873 3873 3504 2830 2725 2374 2453 2374 2299 2230 2164 2230 2453 2299 2453 2374 2230 2230 2164 2230 2164 2044 2044 2044 1989 1989 1989 1989 1936 1887 1887 1839 1795 1795 1752 1711 1672 1711 1752 1752 1711 1752 1752 1711 1711 1752 1711 1711 1711 1711 1711 1672 1711 1752 1672 1672 1711 1672 1635 1635 1635 1672 1599 1599 1599 1599 1635 0 0 0 0 0
    0 0 0 0 0 0 0 0 0 0 0 0 0 0 0 0 0 0 0 0 0 0 0 0 0 0 0 0 0 0 0 0 0 0 0 0 0 0 0 0 0 0 0 0 0 0 0 0 0 0 0 0 0 0 0 0 0 0 0 0 0 0 0 0 0 0 0 0 0 4599 4906 4599 5661 6690 0 0 0 0 0 0 0 0 0 0 0 0 0 0 0 0 0 0 0 0 0 0 0 0 0 0 0 0 0 0 0 0 0 0 0 0 0 0 0 8177 6690 6133 5256 6690 6690 5661 6690 0 0 6133 7359 7359 7359 7359 8177 7359 6133 6133 8177 8177 0 7359 6690 6690 6690 8177 7359 8177 8177 0 0 0 0 0 0 0 0 6133 5256 5661 4088 7359 7359 8177 6133 6133 6133 6133 6690 7359 6690 6690 5661 6690 6133 5256 3679 5256 6690 4088 5661 5661 5661 6690 7359 7359 6690 6690 8177 0 0 0 0 0 0 0 0 0 0 0 0 0 7359 7359 7359 6690 6690 8177 8177 8177 8177 0 0 0 8177 0 0 0 0 0 0 0 0 0 0 0 0 0 0 0 0 0 4906 4906 4599 4599 4599 4599 4906 4599 4088 3873 3873 4088 3873 3873 3679 3679 3679 3873 3873 3873 3679 4088 4088 3873 3679 3066 2830 2537 2537 2453 2374 2374 2299 2299 2453 2374 2453 2374 2299 2230 2164 2230 2164 2102 1989 2044 1989 1989 1936 1936 1936 1887 1839 1839 1795 1795 1795 1711 1711 1672 1711 1711 1711 1711 1711 1672 1672 1711 1711 1672 1711 1711 1711 1672 1711 1752 1711 1711 1711 1672 1635 1635 1635 1672 1599 1635 1635 1635 1635 0 0 0 0 0
    0 0 0 0 0 0 0 0 0 0 0 0 0 0 0 0 0 0 0 0 0 0 0 0 0 0 0 0 0 0 0 0 0 0 0 0 0 0 0 0 0 0 0 0 0 0 0 0 0 0 0 0 0 0 0 0 0 0 0 0 0 0 0 0 0 0 0 0 0 4599 5256 4906 5661 6690 0 0 0 0 0 0 0 0 0 0 0 0 0 0 0 0 0 0 0 0 0 0 0 0 0 0 0 0 0 0 0 0 0 0 0 0 0 0 0 8177 6690 6690 5661 6690 6690 5661 6690 0 0 6690 7359 7359 7359 7359 8177 7359 6133 6133 8177 8177 0 7359 6133 6133 6133 7359 7359 8177 8177 0 7359 0 0 0 0 0 6690 6133 5256 6133 4329 7359 7359 8177 6690 6133 6690 6690 7359 7359 6690 6690 6133 6690 6133 5256 3679 5661 7359 4599 6690 6133 6133 7359 7359 8177 7359 7359 0 0 0 0 0 0 0 0 0 0 0 0 0 0 7359 7359 7359 6690 7359 8177 8177 8177 8177 0 0 0 7359 0 8177 8177 8177 8177 8177 8177 8177 0 0 0 0 0 0 0 0 4599 4906 4599 4329 4329 4329 4599 4599 4329 4088 3873 3873 4088 3873 3873 3873 3679 3873 3873 4088 3873 3873 4329 4088 3873 3679 3066 2943 2537 2537 2537 2453 2374 2374 2299 2453 2374 2453 2374 2299 2299 2164 2230 2164 2044 1989 1989 1936 1936 1936 1936 1936 1839 1839 1839 1795 1795 1795 1711 1711 1672 1711 1672 1635 1635 1672 1599 1635 1672 1672 1672 1672 1711 1711 1672 1711 1711 1711 1672 1711 1672 1635 1635 1635 1672 1599 1635 1672 1635 1672 0 0 0 0 0
    0 0 0 0 0 0 0 0 0 0 0 0 0 0 0 0 0 0 0 0 0 0 0 0 0 0 0 0 0 0 0 0 0 0 0 0 0 0 0 0 0 0 0 0 0 0 0 0 0 0 0 0 0 0 0 0 0 0 0 0 0 0 0 0 0 0 0 0 0 4599 4906 4599 5661 6133 8177 8177 0 0 0 0 0 0 0 0 0 0 0 0 0 0 0 0 0 0 0 0 0 0 0 0 0 0 0 0 0 0 0 0 0 0 0 0 0 8177 7359 8177 6690 7359 7359 6133 6690 0 0 6690 7359 7359 7359 7359 8177 7359 6690 6133 8177 8177 0 6690 5661 5661 5661 7359 6690 7359 8177 0 0 0 0 0 0 0 6133 5661 5256 6133 4599 6690 6690 7359 6133 6133 6690 6690 6690 6690 6690 6690 6133 6690 6133 5256 3504 6690 8177 5661 7359 6690 6690 8177 8177 0 8177 8177 0 0 0 0 0 0 0 0 0 0 0 0 0 0 8177 8177 8177 7359 7359 0 0 0 0 0 0 0 6690 0 7359 7359 7359 7359 7359 7359 7359 0 0 0 0 0 0 0 4599 4906 4906 4599 4599 4329 4599 4599 4329 4088 4088 3873 4088 4088 3873 3873 3873 3873 3873 3679 3873 3679 3679 4088 3873 3504 3504 2943 2830 2537 2537 2537 2374 2374 2453 2374 2537 2453 2537 2453 2374 2374 2230 2164 2164 2044 1989 1989 1936 1936 1936 1936 1936 1839 1887 1839 1795 1839 1795 1711 1672 1635 1672 1635 1599 1599 1635 1565 1599 1672 1711 1672 1672 1711 1711 1672 1711 1711 1672 1672 1672 1672 1635 1635 1599 1672 1599 1635 1672 1672 1672 0 0 0 0 0
    0 0 0 0 0 0 0 0 0 0 0 0 0 0 0 0 0 0 0 0 0 0 0 0 0 0 0 0 0 0 0 0 0 0 0 0 0 0 0 0 0 0 0 0 0 0 0 0 0 0 0 0 0 0 0 0 0 0 0 0 0 0 0 0 0 0 0 0 0 4599 4906 4329 5661 6690 8177 8177 0 0 0 0 0 0 0 0 0 0 0 0 6690 7359 7359 7359 7359 7359 7359 0 0 0 0 0 0 0 0 0 0 0 0 0 0 0 0 0 0 0 8177 0 7359 8177 7359 6690 7359 0 0 8177 8177 7359 8177 8177 0 8177 7359 6690 8177 8177 0 6690 6133 5661 6133 6690 6690 7359 7359 8177 0 0 0 0 0 0 6133 5661 5256 6133 4906 6690 6133 6690 6133 6133 6133 6133 6690 6690 6133 6133 5661 6133 5661 4906 3345 6690 8177 7359 8177 7359 7359 0 0 0 8177 8177 0 0 0 0 0 0 0 0 0 0 0 0 0 0 0 8177 8177 8177 7359 0 0 0 0 0 0 0 5661 8177 6690 6133 6133 6133 6133 6133 6133 0 0 0 0 0 0 0 5256 5256 5256 5256 4906 4599 4599 4599 4088 4088 4088 3873 4088 4088 3873 3873 3873 3873 3679 3679 3679 3345 3504 3679 3504 3199 3199 2725 2725 2537 2537 2453 2374 2374 2453 2299 2537 2374 2453 2374 2230 2230 2102 2044 2044 1936 1887 1936 1887 1936 1936 1936 1936 1887 1887 1839 1839 1839 1795 1752 1672 1565 1635 1599 1533 1533 1565 1501 1565 1635 1672 1672 1672 1711 1711 1672 1711 1711 1672 1672 1672 1672 1635 1635 1635 1672 1599 1672 1635 1672 1635 0 0 0 0 0
    0 0 0 0 0 0 0 0 0 0 0 0 0 0 0 0 0 0 0 0 0 0 0 0 0 0 0 0 0 0 0 0 0 0 0 0 0 0 0 0 0 0 0 0 0 0 0 0 0 0 0 0 0 0 0 0 0 0 0 0 0 0 0 0 0 0 0 0 0 4906 5256 4906 6133 6690 8177 0 0 0 0 0 0 0 0 0 0 0 0 0 5661 6133 6133 6133 6133 6133 6133 0 0 0 0 0 0 0 0 0 0 0 0 0 0 0 0 0 0 0 0 0 0 0 8177 8177 9199 0 0 0 0 8177 0 0 0 0 7359 7359 8177 8177 0 6690 6133 5661 6133 6690 6690 7359 7359 8177 0 0 0 0 0 0 6133 5661 5661 6690 5661 6690 6133 6133 5661 6133 6133 6133 6133 6133 6133 6133 5661 6133 5661 4906 3504 6690 8177 0 0 8177 8177 0 0 0 0 0 8177 0 0 0 0 0 0 0 0 0 0 0 0 0 0 0 0 0 8177 0 0 0 0 0 0 0 4906 7359 6133 5256 5256 5256 5256 5256 5256 0 0 0 0 0 0 4906 4599 4599 5256 5256 4906 4906 4599 4088 4329 4329 4088 3873 4088 4088 3873 4088 4088 3873 3679 3679 3504 3199 3345 3345 3199 2943 3066 2628 2628 2453 2537 2453 2374 2453 2453 2374 2537 2374 2374 2299 2164 2102 1989 1936 1936 1839 1839 1887 1887 1936 1936 1936 1936 1887 1887 1839 1839 1839 1795 1752 1635 1565 1635 1565 1501 1533 1565 1501 1533 1635 1672 1635 1672 1711 1711 1672 1711 1711 1672 1672 1672 1672 1635 1672 1635 1672 1635 1672 1672 1672 1635 0 0 0 0 0
    0 0 0 0 0 0 0 0 0 0 0 0 0 0 0 0 0 0 0 0 0 0 0 0 0 0 0 0 0 0 0 0 0 0 0 0 0 0 0 0 0 0 0 0 0 0 0 0 0 0 0 0 0 0 0 0 0 0 0 0 0 0 0 0 0 0 0 0 0 5256 6133 5661 6690 7359 8177 0 0 0 0 0 0 0 0 0 0 0 0 0 5661 6133 6133 6133 6133 6133 6133 8177 0 0 0 0 0 0 0 0 0 0 0 0 0 0 0 0 0 0 0 0 0 0 0 0 0 0 0 0 0 0 0 0 0 0 8177 8177 8177 8177 0 6690 6133 6133 6133 6690 6690 7359 7359 8177 0 0 0 0 0 6690 6690 6133 6133 7359 6133 7359 6133 6133 5661 6690 6133 6133 6690 6133 6133 6133 6133 6690 5661 5661 3873 7359 8177 0 0 0 0 0 0 0 0 0 8177 0 0 0 0 0 0 0 0 0 0 0 0 0 0 0 0 0 0 0 0 0 0 0 0 0 4599 6690 5256 4599 4599 4599 4599 4599 4599 0 0 0 0 0 4599 4599 4088 4329 4906 4906 4599 4599 4088 4329 4329 4329 4329 4088 4329 4088 4088 4329 4088 3873 3679 3504 3345 3199 3199 3199 3066 2943 2943 2725 2725 2628 2628 2537 2453 2537 2537 2374 2537 2374 2299 2299 2164 2044 1989 1936 1887 1839 1839 1887 1839 1887 1887 1887 1887 1839 1839 1839 1795 1839 1752 1752 1635 1565 1635 1565 1501 1501 1533 1471 1501 1635 1672 1635 1672 1711 1711 1711 1711 1711 1672 1672 1711 1672 1635 1672 1635 1672 1635 1711 1672 1711 1672 0 0 0 0 0
    0 0 0 0 0 0 0 0 0 0 0 0 0 0 0 0 0 0 0 0 0 0 0 0 0 0 0 0 0 0 0 0 0 0 0 0 0 0 0 0 0 0 0 0 0 0 0 0 0 0 0 0 0 0 0 0 0 0 0 0 0 0 0 0 0 0 0 0 0 5661 6690 6690 6690 7359 8177 8177 0 0 0 0 0 0 0 0 0 0 0 0 6133 6133 6133 6133 6133 6133 6133 8177 0 0 0 0 0 0 0 0 0 0 0 0 0 0 0 0 0 0 0 0 0 0 0 0 0 0 0 0 0 0 0 0 0 0 0 0 8177 8177 0 6690 6690 6690 6690 7359 7359 7359 7359 8177 0 0 0 0 0 0 6690 6690 6133 7359 6133 6690 6133 6133 6133 7359 6690 7359 7359 6690 6690 6690 6690 7359 6133 6133 4329 8177 0 0 0 0 0 0 0 0 0 0 8177 0 0 0 0 0 0 0 0 0 0 0 0 0 0 0 0 0 0 0 0 0 0 0 8177 8177 4329 6133 5256 4599 4599 4599 4599 4599 4599 0 0 0 0 4906 5256 4599 4088 4329 4906 4906 4906 4329 4088 4329 4329 4599 4329 4088 4088 4088 3873 4088 4088 3873 3504 3504 3345 3199 3199 3199 3066 2830 2943 2725 2725 2725 2725 2628 2537 2537 2537 2453 2537 2374 2230 2230 2164 2044 1936 1936 1839 1839 1839 1887 1839 1839 1887 1887 1887 1839 1839 1795 1795 1795 1752 1752 1635 1533 1599 1501 1443 1443 1471 1443 1471 1599 1635 1635 1672 1711 1711 1711 1711 1711 1672 1711 1711 1672 1635 1672 1599 1672 1635 1711 1672 1711 1672 0 0 0 0 0
    0 0 0 0 0 0 0 0 0 0 0 0 0 0 0 0 0 0 0 0 0 0 0 0 0 0 0 0 0 0 0 0 0 0 0 0 0 0 0 0 0 0 0 0 0 0 0 0 0 0 0 0 0 0 0 0 0 0 0 0 0 0 0 0 0 0 0 0 0 6133 7359 7359 7359 8177 8177 8177 0 0 0 0 0 0 0 0 0 0 0 0 6690 6690 6690 6690 6690 6690 6690 8177 0 0 0 8177 0 0 0 0 0 0 0 0 0 0 0 0 0 0 0 0 0 0 0 0 0 0 0 0 0 0 0 0 0 0 0 0 8177 8177 0 6690 6690 6690 7359 7359 8177 8177 8177 8177 0 0 0 0 73 0 6690 6690 6690 7359 6690 6133 6690 6133 7359 0 8177 8177 8177 7359 7359 7359 7359 7359 6133 5661 0 0 0 0 0 0 0 0 0 0 0 0 8177 8177 0 0 0 0 0 0 0 0 0 0 0 0 0 0 0 0 0 0 0 0 0 8177 8177 8177 4329 6690 5256 4599 4599 4599 4599 4599 4599 0 0 0 0 4906 4906 4329 4329 4329 5256 5256 4906 4329 4329 4599 4906 4599 4599 4088 4088 4088 4088 4088 4088 3873 3504 3504 3199 3199 3199 3199 2943 2725 2830 2725 2725 2725 2628 2537 2537 2537 2537 2453 2537 2299 2230 2164 2102 1989 1936 1936 1839 1795 1839 1839 1839 1839 1839 1839 1839 1795 1795 1795 1795 1795 1752 1752 1599 1501 1533 1471 1415 1415 1443 1415 1443 1565 1635 1599 1672 1711 1711 1672 1711 1672 1672 1711 1672 1672 1635 1672 1599 1672 1635 1711 1672 1752 1672 0 0 0 0 0
    0 0 0 0 0 0 0 0 0 0 0 0 0 0 0 0 0 0 0 0 0 0 0 0 0 0 0 0 0 0 0 0 0 0 0 0 0 0 0 0 0 0 0 0 0 0 0 0 0 0 0 0 0 0 0 0 0 0 0 0 0 0 0 0 0 0 0 0 0 6690 8177 8177 8177 0 8177 0 0 0 0 0 0 0 0 0 0 0 0 0 8177 8177 8177 8177 8177 8177 7359 0 0 0 0 7359 0 0 0 0 0 0 0 0 0 0 0 0 0 0 0 0 0 0 0 0 0 0 0 0 0 0 0 0 0 0 0 0 0 0 0 7359 7359 7359 7359 8177 0 8177 0 0 0 0 0 8177 0 0 0 7359 0 7359 0 5256 6690 5661 7359 0 8177 9199 8177 8177 8177 8177 8177 8177 0 5661 0 0 0 0 0 0 0 0 0 0 0 0 8177 8177 0 0 8177 0 0 0 0 0 0 0 0 0 0 0 0 0 0 8177 8177 8177 0 8177 8177 7359 4599 6690 5661 5256 5256 5256 5256 5256 5256 0 0 0 4599 4906 4599 4329 4329 4329 5256 5256 4906 4599 4599 4906 4906 4599 4906 4329 4329 4329 4088 4088 4088 3873 3679 3504 3345 3066 3199 3066 2830 2628 2725 2628 2628 2628 2628 2537 2537 2628 2537 2453 2537 2374 2164 2164 2102 1989 1936 1936 1887 1839 1839 1887 1887 1839 1795 1795 1795 1752 1752 1752 1752 1752 1711 1711 1533 1471 1471 1415 1362 1388 1388 1388 1415 1533 1565 1599 1672 1711 1711 1672 1672 1672 1672 1672 1672 1672 1635 1672 1635 1672 1635 1711 1672 1752 1711 0 0 0 0 0
    0 0 0 0 0 0 0 0 0 0 0 0 0 0 0 0 0 0 0 0 0 0 0 0 0 0 0 0 0 0 0 0 0 0 0 0 0 0 0 0 0 0 0 0 0 0 0 0 0 0 0 0 0 0 0 0 0 0 0 0 0 0 0 0 0 0 0 0 0 6133 7359 7359 8177 8177 8177 8177 0 0 0 0 0 0 0 0 0 0 0 0 0 0 0 0 0 0 0 0 0 0 0 7359 0 0 0 0 0 0 0 0 0 0 0 0 0 0 0 0 0 0 0 0 0 0 0 0 0 0 0 0 0 0 0 0 0 0 0 7359 8177 8177 8177 8177 0 0 0 0 0 0 0 0 0 0 0 7359 7359 7359 0 5661 6690 5661 7359 0 8177 8177 8177 8177 8177 7359 8177 7359 0 0 0 0 0 0 0 0 0 0 0 0 0 0 7359 7359 0 8177 7359 8177 8177 8177 8177 0 0 0 0 0 0 0 0 0 0 0 0 0 0 8177 7359 7359 4906 7359 6133 5661 5661 5661 5661 5661 5661 0 0 4906 4906 4906 4599 4329 4329 4599 5661 5661 4906 4906 4906 5256 4906 4906 5256 4088 4329 4329 3873 4088 4088 4088 3679 3504 3345 3066 3199 3066 2830 2537 2628 2628 2628 2628 2628 2537 2537 2537 2537 2453 2537 2374 2164 2164 2102 2044 1989 1936 1887 1839 1839 1887 1887 1839 1839 1795 1795 1752 1711 1711 1672 1672 1635 1635 1443 1415 1415 1388 1338 1362 1362 1388 1388 1533 1599 1635 1711 1711 1711 1672 1635 1672 1672 1672 1672 1635 1635 1672 1635 1711 1672 1752 1711 1795 1672 0 0 0 0 0
    0 0 0 0 0 0 0 0 0 0 0 0 0 0 0 0 0 0 0 0 0 0 0 0 0 0 0 0 0 0 0 0 0 0 0 0 0 0 0 0 0 0 0 0 0 0 0 0 0 0 0 0 0 0 0 0 0 0 0 0 0 0 0 0 0 0 0 0 0 6133 7359 7359 8177 0 0 8177 0 0 0 0 0 0 0 0 0 0 0 0 0 0 0 0 0 0 0 0 0 0 0 7359 0 0 0 0 0 0 0 0 0 0 0 0 0 0 0 0 0 0 0 0 8177 0 0 0 0 0 0 0 0 0 0 0 0 0 0 8177 0 0 0 0 0 0 0 0 0 0 0 0 0 7359 0 6690 0 0 0 4906 6133 5661 6690 8177 8177 8177 8177 7359 7359 7359 8177 6690 0 0 0 0 0 0 0 0 0 0 0 0 0 0 6690 6133 8177 7359 6690 7359 7359 7359 7359 8177 0 0 0 0 0 0 0 0 0 0 0 0 0 8177 7359 7359 5661 8177 7359 6690 6690 6690 6690 6690 0 0 0 5256 4906 4906 4906 4329 4599 4906 6133 5661 5256 5256 5256 5256 5256 5256 5256 4088 4329 4329 3873 4088 4088 3873 3504 3504 3345 3066 3066 2943 2628 2453 2537 2537 2628 2628 2537 2537 2537 2628 2537 2453 2537 2374 2164 2164 2102 1989 1989 1936 1887 1839 1839 1887 1887 1839 1839 1795 1752 1711 1672 1635 1635 1599 1565 1565 1443 1415 1443 1415 1362 1388 1388 1415 1415 1635 1635 1711 1752 1752 1752 1711 1635 1672 1635 1635 1635 1635 1672 1711 1711 1795 1795 1839 1795 1839 1795 0 0 0 0 0
    0 0 0 0 0 0 0 0 0 0 0 0 0 0 0 0 0 0 0 0 0 0 0 0 0 0 0 0 0 0 0 0 0 0 0 0 0 0 0 0 0 0 0 0 0 0 0 0 0 0 0 0 0 0 0 0 0 0 0 0 0 0 0 0 0 0 0 0 0 6690 8177 8177 0 0 0 0 0 0 0 0 0 0 0 0 0 0 0 0 0 0 0 0 0 0 0 0 0 0 0 7359 0 0 0 0 0 0 0 0 0 0 0 0 0 0 0 0 0 0 0 0 7359 8177 8177 0 0 0 0 0 0 0 0 0 0 0 0 8177 0 0 0 0 0 0 0 0 0 0 0 8177 0 6690 0 6690 0 0 0 0 7359 5661 6690 7359 7359 8177 8177 8177 8177 7359 8177 6690 0 0 0 0 0 0 0 0 0 0 0 0 0 78 5661 4906 6690 6133 6133 7359 7359 7359 7359 8177 0 0 0 0 0 0 0 0 0 0 0 0 0 8177 6690 6690 6690 0 8177 8177 8177 8177 8177 7359 0 0 4599 4906 4906 4906 4906 3873 4599 4599 5661 5256 5256 5256 4906 4906 5256 5256 5256 4088 4599 4329 3873 4088 4088 3873 3504 3345 3345 2943 2943 2830 2537 2453 2537 2537 2537 2628 2537 2537 2537 2628 2453 2453 2453 2374 2164 2164 2102 1989 1989 1989 1936 1887 1887 1936 1936 1887 1887 1839 1752 1672 1565 1565 1533 1501 1471 1533 1415 1415 1443 1443 1388 1388 1415 1443 1415 1672 1635 1711 1795 1752 1752 1752 1672 1711 1672 1711 1711 1672 1752 1839 1887 1936 1936 1887 1887 1887 1839 0 0 0 0 0
    0 0 0 0 0 0 0 0 0 0 0 0 0 0 0 0 0 0 0 0 0 0 0 0 0 0 0 0 0 0 0 0 0 0 0 0 0 0 0 0 0 0 0 0 0 0 0 0 0 0 0 0 0 0 0 0 0 0 0 0 0 0 0 0 0 0 0 0 0 6690 8177 8177 8177 0 0 0 0 0 0 0 0 0 0 0 0 0 0 0 0 0 0 0 0 0 0 0 0 0 0 8177 0 0 0 0 0 0 0 0 0 0 0 0 0 0 0 0 0 0 0 0 7359 8177 8177 0 0 0 0 0 0 0 0 0 0 0 0 8177 0 0 0 0 0 0 0 0 0 0 0 8177 8177 6690 0 6690 6690 6133 0 5256 7359 5661 6690 7359 8177 8177 8177 8177 8177 8177 8177 6690 0 0 0 0 0 0 0 0 0 0 0 0 0 0 5256 4599 5661 5256 5661 7359 8177 7359 8177 8177 0 0 0 0 0 0 0 0 0 0 0 0 0 7359 6133 6690 7359 0 0 0 0 0 0 8177 8177 6690 4906 4906 4906 4906 4599 3873 4329 4088 5256 4906 4906 4906 4906 4906 5256 5256 5256 4088 4599 4329 3873 3873 3873 3504 3345 3345 3199 2830 2830 2830 2537 2537 2537 2537 2628 2628 2537 2537 2537 2628 2537 2537 2453 2374 2230 2230 2164 2044 2044 2044 1989 1989 1989 1989 1989 1887 1887 1795 1752 1672 1471 1471 1471 1443 1443 1501 1388 1443 1443 1443 1415 1415 1443 1471 1443 1672 1635 1752 1795 1752 1795 1752 1711 1711 1711 1752 1795 1795 1887 1936 2044 1989 1989 1936 1936 1887 1752 0 0 0 0 0
    0 0 0 0 0 0 0 0 0 0 0 0 0 0 0 0 0 0 0 0 0 0 0 0 0 0 0 0 0 0 0 0 0 0 0 0 0 0 0 0 0 0 0 0 0 0 0 0 0 0 0 0 0 0 0 0 0 0 0 0 0 0 0 0 0 0 0 0 0 6690 7359 7359 8177 0 0 8177 0 0 0 0 0 0 0 0 0 0 0 0 0 0 0 0 0 0 0 0 0 0 0 8177 0 0 0 0 0 0 0 0 0 0 0 0 0 0 0 0 0 0 0 0 7359 8177 8177 0 0 0 0 0 0 0 0 0 0 0 0 8177 0 0 0 0 0 0 0 0 0 0 0 8177 7359 6133 0 6133 0 5256 3873 3873 6690 5661 6690 7359 8177 8177 0 0 0 0 8177 7359 0 0 0 0 0 0 0 0 0 0 0 0 0 0 0 0 5661 4329 4906 6690 8177 8177 8177 0 8177 8177 0 0 0 0 0 0 0 0 0 0 0 0 0 6133 0 0 0 0 0 0 0 0 0 6690 4906 5256 5256 5256 4906 3873 4599 4329 5661 4906 4906 4599 4906 4906 5256 4906 4906 3873 4329 4088 3679 3679 3504 3345 3345 3199 3199 2830 2830 2830 2453 2537 2537 2537 2628 2628 2537 2628 2537 2628 2453 2537 2453 2374 2299 2299 2230 2164 2164 2164 2044 2044 2044 2044 2044 1887 1887 1795 1711 1635 1471 1501 1471 1443 1471 1501 1388 1443 1443 1443 1415 1415 1443 1471 1443 1711 1635 1887 1839 1795 1795 1752 1711 1752 1711 1795 1839 1887 1936 1989 2044 2044 1989 1936 1887 1839 0 0 0 0 0 0
    0 0 0 0 0 0 0 0 0 0 0 0 0 0 0 0 0 0 0 0 0 0 0 0 0 0 0 0 0 0 0 0 0 0 0 0 0 0 0 0 0 0 0 0 0 0 0 0 0 0 0 0 0 0 0 0 0 0 0 0 0 0 0 0 0 0 0 0 0 6690 7359 7359 8177 0 0 8177 0 0 0 0 0 0 0 0 0 8177 0 0 0 0 0 0 0 0 0 0 0 0 0 0 0 0 0 0 0 0 0 0 0 0 0 0 0 0 8177 0 0 0 0 0 7359 8177 8177 0 0 0 0 0 0 0 0 0 0 0 0 0 0 0 0 0 0 0 0 0 0 0 0 8177 6690 5661 0 4599 0 4088 3199 0 6690 5661 7359 7359 0 0 0 0 0 0 0 6690 0 0 0 0 0 0 0 0 0 0 0 0 0 743 743 743 4906 3345 4088 7359 9199 8177 8177 0 8177 8177 8177 7359 8177 8177 7359 9199 8177 0 0 0 0 0 0 0 0 0 0 0 0 0 0 0 0 6690 4906 5661 5661 5256 4599 3873 4906 4599 5256 4906 4599 4599 4906 4906 5256 4599 4599 3873 4088 3873 3504 3504 3345 3199 3066 3066 2943 2830 2725 2830 2453 2537 2453 2537 2537 2628 2537 2537 2537 2628 2453 2537 2453 2453 2299 2299 2299 2230 2230 2230 2102 2164 2102 2044 2102 1936 1887 1839 1752 1672 1501 1533 1533 1471 1471 1501 1388 1443 1443 1443 1415 1415 1443 1471 1471 1711 1672 1887 1795 1795 1795 1752 1752 1752 1672 1795 1839 1887 1936 1936 1989 1989 1936 1887 1839 1599 1247 0 0 0 0 0
    0 0 0 0 0 0 0 0 0 0 0 0 0 0 0 0 0 0 0 0 0 0 0 0 0 0 0 0 0 0 0 0 0 0 0 0 0 0 0 0 0 0 0 0 0 0 0 0 0 0 0 0 0 0 0 0 0 0 0 0 0 0 0 0 0 0 0 0 0 6690 8177 7359 8177 0 0 0 0 0 0 0 0 0 0 0 0 0 0 0 0 0 0 0 0 0 0 0 0 0 0 0 0 0 0 0 0 0 0 0 0 0 0 0 0 0 8177 0 0 0 0 0 7359 8177 8177 0 0 0 0 0 0 0 0 0 0 0 0 0 0 0 0 0 0 0 0 0 0 0 0 7359 6690 5661 4088 3679 0 3873 0 0 0 5661 7359 7359 0 0 0 0 0 0 8177 6690 0 0 0 0 0 0 0 0 0 0 0 0 0 743 743 758 0 2830 3504 7359 0 8177 0 0 8177 8177 8177 6133 6133 6690 5661 5256 4599 0 0 0 0 0 0 0 0 0 0 0 0 0 0 0 0 6690 5256 5661 5256 5661 4088 3873 4906 4599 5256 4599 4599 4906 4906 5256 5256 4599 4329 3873 4088 3679 3504 3345 3345 3199 3066 2943 2943 2830 2725 2830 2537 2537 2537 2628 2537 2537 2537 2537 2537 2628 2537 2628 2453 2453 2374 2374 2299 2299 2299 2299 2164 2230 2164 2102 2102 1989 1989 1887 1839 1752 1599 1599 1565 1501 1471 1533 1415 1471 1443 1443 1443 1443 1471 1501 1471 1752 1711 1936 1839 1795 1839 1839 1839 1839 1887 1887 1887 1887 1936 1936 1989 1936 1887 1839 1711 1415 1268 0 0 0 0 0
    0 0 0 0 0 0 0 0 0 0 0 0 0 0 0 0 0 0 0 0 0 0 0 0 0 0 0 0 0 0 0 0 0 0 0 0 0 0 0 0 0 0 0 0 0 0 0 0 0 0 0 0 0 0 0 0 0 0 0 0 0 0 0 0 0 0 0 0 0 7359 8177 8177 8177 0 0 0 0 0 0 0 0 0 0 0 0 0 0 0 0 0 0 0 0 0 0 0 0 0 0 0 0 0 0 0 0 0 0 0 0 0 0 0 0 0 8177 0 0 0 0 0 8177 0 8177 0 0 0 0 0 0 0 0 0 0 0 0 0 0 0 0 0 0 0 0 0 0 0 0 8177 7359 0 3199 0 0 3199 2725 0 6133 4906 7359 6690 8177 8177 0 0 0 8177 7359 6133 0 0 0 0 0 0 0 0 0 0 0 0 728 743 743 766 766 0 0 0 0 8177 0 0 8177 8177 6690 4906 4329 5256 4329 3679 0 0 0 0 0 0 855 855 0 0 0 0 0 0 0 0 0 6133 5661 5661 5661 4906 4088 4088 4906 4599 5256 4599 4599 4906 4906 4906 4906 4329 4329 3873 4088 3679 3345 3345 3199 3066 2943 2943 2943 2725 2725 2830 2537 2537 2537 2537 2537 2537 2537 2537 2537 2628 2537 2628 2453 2537 2374 2374 2374 2374 2374 2299 2230 2374 2230 2164 2230 2044 2044 1989 1936 1795 1672 1635 1599 1501 1471 1533 1415 1471 1443 1443 1443 1443 1471 1533 1501 1752 1752 1989 1887 1839 1887 1887 1936 1936 1936 1887 1887 1887 1936 1887 1936 1887 1839 1672 1471 1314 1247 0 0 0 0 0
    0 0 0 0 0 0 0 0 0 0 0 0 0 0 0 0 0 0 0 0 0 0 0 0 0 0 0 0 0 0 0 0 0 0 0 0 0 0 0 0 0 0 0 0 0 0 0 0 0 0 0 0 0 0 0 0 0 0 0 0 0 0 0 0 0 0 0 0 0 7359 7359 7359 8177 8177 8177 8177 8177 8177 0 0 0 0 0 0 0 8177 0 0 0 0 0 0 0 0 0 0 0 0 0 0 0 0 0 0 0 0 0 0 0 0 0 0 0 0 8177 0 0 0 0 0 0 0 8177 0 0 0 0 0 0 0 0 0 0 0 0 0 0 0 0 0 0 0 0 0 0 0 0 0 0 6133 0 0 0 0 2453 0 0 5256 0 6133 7359 7359 8177 8177 8177 7359 7359 5661 0 0 0 0 0 0 0 0 0 0 0 0 0 743 750 774 0 1711 0 0 0 0 0 0 8177 8177 6133 3873 3504 3873 3504 3199 0 0 0 0 808 836 845 845 876 0 0 0 0 0 0 0 0 6690 5661 5661 4906 4906 4329 4088 4906 4599 4906 4599 4906 4906 4906 4906 4906 4329 4329 3873 4088 3679 3345 3345 3199 2943 2830 2830 2830 2725 2628 2725 2537 2537 2537 2537 2537 2537 2537 2628 2537 2628 2537 2628 2453 2537 2374 2374 2374 2374 2299 2299 2230 2374 2230 2230 2230 2164 2164 2044 2044 1887 1711 1672 1635 1533 1471 1533 1415 1471 1443 1471 1471 1471 1501 1565 1533 1752 1752 1936 1839 1795 1887 1887 1887 1887 1936 1887 1887 1839 1887 1839 1839 1839 1711 1471 1362 1291 1226 0 0 0 0 0
    0 0 0 0 0 0 0 0 0 0 0 0 0 0 0 0 0 0 0 0 0 0 0 0 0 0 0 0 0 0 0 0 0 0 0 0 0 0 0 0 0 0 0 0 0 0 0 0 0 0 0 0 0 0 0 0 0 0 0 0 0 0 0 0 0 0 0 0 0 7359 8177 7359 8177 8177 8177 8177 0 0 0 0 0 0 0 0 8177 7359 8177 0 0 0 0 0 0 0 0 0 0 0 0 0 0 0 0 0 0 0 0 0 0 0 0 0 0 0 8177 0 0 0 0 0 0 0 8177 0 0 0 0 0 0 0 0 0 0 0 0 0 0 0 0 0 0 0 0 0 0 0 0 0 0 0 0 0 0 0 0 0 9199 6133 7359 6133 7359 7359 8177 8177 8177 7359 6690 5661 0 0 0 0 0 0 0 0 0 0 0 0 0 0 0 0 0 1635 1415 0 0 0 0 0 8177 8177 5661 3345 3066 3066 2830 2628 0 0 0 808 791 826 836 836 845 0 0 0 0 8177 8177 7359 8177 6133 5256 5256 4906 4906 4599 4329 4906 4329 4906 4599 4599 4906 4599 4599 4599 4329 4329 3873 4088 3679 3345 3199 3066 2830 2725 2725 2725 2628 2628 2725 2537 2537 2537 2537 2537 2453 2537 2537 2537 2628 2453 2628 2453 2453 2374 2374 2299 2374 2299 2299 2230 2374 2230 2299 2230 2164 2164 2044 2044 1887 1752 1752 1711 1565 1533 1599 1415 1533 1471 1501 1501 1501 1533 1565 1565 1795 1752 1936 1795 1795 1795 1795 1795 1839 1887 1839 0 0 1839 1839 1839 1752 1533 1362 1314 1268 1226 0 0 0 0 0
    0 0 0 0 0 0 0 0 0 0 0 0 0 0 0 0 0 0 0 0 0 0 0 0 0 0 0 0 0 0 0 0 0 0 0 0 0 0 0 0 0 0 0 0 0 0 0 0 0 0 0 0 0 0 0 0 0 0 0 0 0 0 0 0 0 0 0 0 0 7359 8177 8177 8177 8177 8177 0 0 0 0 0 0 0 0 0 8177 8177 8177 0 0 0 0 0 0 0 0 0 0 0 0 0 0 0 0 0 0 0 0 0 0 0 0 0 0 0 8177 8177 0 0 0 0 0 0 8177 0 0 0 0 0 0 0 0 0 0 0 0 0 0 0 0 0 0 0 0 0 0 0 0 0 0 0 0 0 0 0 0 0 8177 6690 7359 6690 8177 8177 8177 7359 7359 7359 6690 0 0 0 0 0 0 0 0 0 0 0 0 0 0 0 0 0 1635 1635 1415 0 0 0 0 0 8177 8177 5256 3199 2943 2830 2628 2299 0 0 0 774 743 817 826 826 0 0 0 8177 8177 7359 7359 6690 8177 6133 5661 4906 4906 5256 4599 4329 4906 4329 4599 4329 4599 4599 4329 4599 4599 4329 4329 3873 3873 3679 3345 3199 2943 2830 2725 2725 2628 2628 2628 2628 2537 2537 2537 2537 2537 2537 2537 2628 2537 2628 2453 2628 2453 2537 2453 2374 2299 2299 2299 2299 2299 2374 2230 2299 2230 2164 2164 2044 2044 1887 1795 1795 1711 1599 1599 1599 1415 1533 1471 1471 1471 1501 1533 1565 1565 1795 1752 1936 1795 1752 1752 1752 1752 1795 1839 1795 1752 1752 1752 1711 1635 1533 1388 1314 1291 1247 1226 0 0 0 0 0
    0 0 0 0 0 0 0 0 0 0 0 0 0 0 0 0 0 0 0 0 0 0 0 0 0 0 0 0 0 0 0 0 0 0 0 0 0 0 0 0 0 0 0 0 0 0 0 0 0 0 0 0 0 0 0 0 0 0 0 0 0 0 0 0 0 0 0 0 0 7359 8177 7359 7359 8177 8177 0 0 0 0 0 0 0 0 0 0 0 0 0 0 0 0 0 0 0 0 0 0 0 0 0 0 0 0 0 0 0 0 0 0 0 0 0 0 0 8177 8177 0 0 0 0 0 0 0 0 0 0 0 0 0 8177 8177 0 0 0 0 0 0 0 0 0 0 0 0 0 0 0 0 0 0 0 0 0 0 0 0 0 0 8177 8177 7359 8177 8177 7359 7359 7359 6690 0 0 0 0 0 0 0 0 0 758 728 735 735 0 0 0 1711 0 1672 1711 0 0 0 0 0 0 8177 8177 5661 3199 3066 2830 2628 2374 0 0 0 782 0 836 0 0 0 6690 7359 6690 6690 6690 6133 6133 7359 6133 5256 4906 4906 5256 4599 4599 4599 4599 4599 4599 4329 4329 4329 4599 4329 4329 4088 3873 3679 3679 3345 3199 3066 2830 2830 2725 2725 2725 2628 2628 2537 2537 2537 2537 2537 2537 2537 2725 2628 2725 2537 2537 2453 2537 2453 2374 2299 2299 2299 2299 2299 2374 2230 2299 2230 2164 2164 2044 2044 1936 1887 1839 1795 1711 1672 1635 1415 1533 1471 1443 1471 1471 1533 1599 1599 1795 1795 1887 1795 1795 1795 1752 1711 1711 1795 1752 1752 1711 1672 1599 1471 1415 1338 1291 1247 1226 1187 0 0 0 0 0
    0 0 0 0 0 0 0 0 0 0 0 0 0 0 0 0 0 0 0 0 0 0 0 0 0 0 0 0 0 0 0 0 0 0 0 0 0 0 0 0 0 0 0 0 0 0 0 0 0 0 0 0 0 0 0 0 0 0 0 0 0 0 0 0 0 0 0 0 0 8177 8177 8177 8177 8177 8177 0 0 0 0 0 0 0 0 0 0 0 0 0 0 0 0 0 0 0 0 0 0 0 0 0 0 0 0 0 0 0 0 0 0 0 0 0 0 0 8177 8177 0 0 0 0 0 0 8177 0 0 0 0 0 0 8177 8177 0 0 0 0 0 0 0 0 0 0 0 0 0 0 0 0 0 0 0 0 0 0 0 0 0 0 0 0 8177 8177 7359 7359 6690 0 0 0 0 0 0 0 0 0 758 766 750 728 735 743 743 0 0 0 0 0 1752 0 0 0 0 0 0 0 0 6133 3345 3345 2943 0 2830 2830 0 845 0 0 0 0 0 0 5256 6133 6133 5661 5661 6133 5661 7359 5256 4906 4906 4906 4906 4599 4599 4329 4599 4906 4599 4329 4329 4599 4599 4329 4329 4088 3873 3679 3679 3345 3199 3066 2943 2830 2830 2725 2725 2628 2628 2628 2628 2537 2537 2537 2537 2537 2725 2628 2725 2628 2628 2537 2537 2453 2374 2299 2299 2299 2299 2299 2374 2230 2230 2230 2164 2164 2102 2102 1989 1936 1936 1839 1752 1711 1672 1415 1565 1471 1443 1471 1471 1533 1599 1599 1795 1752 1839 1795 1752 1752 1672 1635 1533 1635 1635 1635 1565 1471 1415 1362 1314 1291 1247 1226 1187 1168 0 0 0 0 0
    0 0 0 0 0 0 0 0 0 0 0 0 0 0 0 0 0 0 0 0 0 0 0 0 0 0 0 0 0 0 0 0 0 0 0 0 0 0 0 0 0 0 0 0 0 0 0 0 0 0 0 0 0 0 0 0 0 0 0 0 0 0 0 0 0 0 0 0 0 8177 8177 8177 8177 0 0 0 0 0 0 0 0 0 0 0 0 0 8177 0 0 0 0 0 0 0 0 0 0 0 0 0 0 0 0 0 0 0 0 0 0 0 0 0 0 0 8177 8177 0 0 0 0 0 0 8177 0 0 0 0 0 8177 7359 7359 0 0 0 0 0 0 0 0 0 0 0 0 0 0 0 0 0 0 0 0 0 0 0 0 0 0 0 0 7359 7359 7359 6133 0 0 0 0 0 0 0 0 782 791 743 766 743 735 743 743 743 0 0 0 782 0 0 0 0 0 0 0 0 0 0 6690 3504 3679 3345 0 8177 4329 0 0 0 0 0 0 2299 3679 4599 5256 5256 5256 5256 5661 5256 6690 5256 4906 4906 4906 4906 4599 4599 4329 4906 4906 4906 4599 4599 4599 4599 4599 4329 4088 4088 3679 4088 3679 3504 3199 3066 2943 2943 2725 2830 2628 2628 2628 2628 2628 2537 2537 2537 2628 2725 2628 2725 2628 2628 2537 2537 2453 2374 2299 2374 2299 2299 2299 2299 2230 2299 2230 2230 2230 2164 2230 2102 2044 2044 1936 1839 1752 1711 1415 1565 1501 1471 1471 1501 1565 1599 1599 1795 1711 1795 1795 1752 1672 1565 1501 1415 1501 1443 1501 1415 1362 1338 1314 1268 1268 1226 1206 1187 1168 0 0 0 0 0
    0 0 0 0 0 0 0 0 0 0 0 0 0 0 0 0 0 0 0 0 0 0 0 0 0 0 0 0 0 0 0 0 0 0 0 0 0 0 0 0 0 0 0 0 0 0 0 0 0 0 0 0 0 0 0 0 0 0 0 0 0 0 0 0 0 0 0 0 0 0 0 0 0 0 0 0 0 0 0 0 0 0 0 0 0 0 8177 0 0 0 0 0 0 0 0 0 0 0 0 0 0 0 0 0 0 0 0 0 0 0 0 0 0 0 0 8177 0 0 0 0 0 0 7359 8177 8177 8177 8177 0 8177 6690 6690 0 0 0 0 0 0 0 0 0 0 0 0 0 0 0 0 0 0 0 0 0 0 0 0 0 0 0 8177 7359 6690 6133 5256 0 0 0 0 0 0 774 774 774 791 750 774 750 743 743 743 743 0 0 782 766 0 0 0 0 0 0 0 8177 0 0 6690 3873 4329 5256 0 0 0 0 0 0 0 0 2044 2537 3679 4088 4599 4906 4906 4906 5256 4906 6133 4906 4906 4599 4906 4906 4599 4599 4329 5256 5256 5256 4906 4599 4599 4599 4599 4599 4329 4088 3873 4329 3873 3873 3504 3345 3345 3066 2943 2943 2725 2725 2725 2725 2628 2537 2537 2628 2628 2725 2628 2725 2628 2537 2537 2537 2453 2374 2299 2374 2299 2299 2299 2299 2230 2299 2230 2230 2230 2230 2230 2164 2102 2164 1989 1887 1839 1795 1415 1565 1501 1501 1501 1533 1599 1599 1599 1795 1752 1795 1795 1711 1635 1443 1443 1362 1415 1362 1415 1338 1314 1291 1268 1226 1226 1206 1187 1187 1168 0 0 0 0 0
    0 0 0 0 0 0 0 0 0 0 0 0 0 0 0 0 0 0 0 0 0 0 0 0 0 0 0 0 0 0 0 0 0 0 0 0 0 0 0 0 0 0 0 0 0 0 0 0 0 0 0 0 0 0 0 0 0 0 0 0 0 0 0 0 0 0 0 0 0 0 0 0 0 0 0 0 0 0 0 0 0 0 0 0 0 0 8177 0 0 0 0 0 0 0 0 0 0 0 0 0 0 0 0 0 0 0 0 0 0 0 0 0 0 0 0 8177 0 0 0 0 0 0 7359 8177 8177 8177 8177 8177 8177 6690 6133 0 0 0 0 0 0 0 0 0 0 0 0 0 0 0 0 0 0 0 0 0 0 0 0 0 0 8177 7359 6133 5661 5256 4088 0 0 0 0 0 758 758 766 766 782 743 774 758 750 743 750 743 750 743 782 758 766 782 0 0 0 0 0 6690 0 0 7359 5256 0 0 0 0 0 0 0 0 0 1887 1711 1936 3679 3873 4329 4329 4599 4599 4906 4599 5661 4906 4906 4599 4906 4906 4906 4599 4329 5256 5256 5256 4906 4599 4599 4906 4599 4599 4599 4088 3873 4329 4088 3873 3504 3345 3345 2943 2830 2943 2725 2725 2628 2628 2628 2537 2537 2537 2537 2725 2537 2628 2537 2537 2537 2537 2453 2374 2299 2374 2230 2230 2299 2299 2230 2299 2230 2299 2230 2230 2230 2230 2164 2230 1989 1936 1887 1839 1415 1599 1533 1533 1533 1565 1599 1599 1599 1795 1752 1752 1752 1711 1565 1388 1362 1314 1314 1291 1291 1247 1247 1226 1206 1206 1187 1168 1168 1149 1149 0 0 0 0 0
    0 0 0 0 0 0 0 0 0 0 0 0 0 0 0 0 0 0 0 0 0 0 0 0 0 0 0 0 0 0 0 0 0 0 0 0 0 0 0 0 0 0 0 0 0 0 0 0 0 0 0 0 0 0 0 0 0 0 0 0 0 0 0 0 0 0 0 0 0 0 0 0 0 0 0 0 0 0 0 0 0 0 0 0 0 0 0 0 0 0 0 0 0 0 0 0 0 0 0 0 0 0 0 0 0 0 0 0 0 0 0 0 0 0 0 0 0 0 0 0 0 0 7359 8177 8177 8177 8177 0 8177 6690 6690 0 0 0 0 0 0 0 0 0 0 0 0 0 0 0 0 0 0 0 0 8177 0 0 8177 9199 8177 8177 6133 5661 0 0 0 0 0 0 0 0 750 750 750 758 766 735 766 758 750 750 758 750 750 743 782 758 766 766 782 0 0 9199 6690 4599 0 0 0 0 0 0 0 0 0 817 817 808 0 1672 1565 1672 3504 3873 4329 4599 4599 4906 4599 4599 5661 4906 4599 4599 4906 4906 4906 4906 4599 5256 5256 5256 4906 4599 4599 4906 4599 4599 4599 4329 3873 4088 4088 3873 3504 3504 3504 3066 2943 2943 2725 2725 2628 2628 2628 2453 2453 2453 2374 2537 2374 2537 2453 2453 2453 2537 2453 2453 2299 2374 2230 2230 2299 2299 2230 2299 2230 2299 2230 2299 2299 2299 2164 2299 2044 1936 1936 1839 1443 1599 1565 1533 1565 1565 1599 1599 1599 1795 1711 1752 1752 1672 1533 1362 1314 1268 1247 1226 1226 1206 1187 1168 1168 1187 1149 1149 1149 1149 1149 0 0 0 0 0
    0 0 0 0 0 0 0 0 0 0 0 0 0 0 0 0 0 0 0 0 0 0 0 0 0 0 0 0 0 0 0 0 0 0 0 0 0 0 0 0 0 0 0 0 0 0 0 0 0 0 0 0 0 0 0 0 0 0 0 0 0 0 0 0 0 0 0 0 0 0 0 0 0 0 0 0 0 0 0 0 0 0 0 0 0 0 0 0 0 0 0 0 0 0 0 0 0 0 0 0 0 0 0 0 0 0 0 0 0 0 0 0 0 0 0 0 0 0 0 0 0 0 7359 8177 8177 0 8177 0 8177 6690 6690 0 0 0 0 0 0 0 0 0 0 0 0 0 0 0 0 0 0 0 0 7359 8177 7359 6690 7359 7359 7359 5256 0 0 0 0 0 0 0 743 750 750 750 750 750 758 735 766 758 758 758 766 750 758 743 782 758 758 758 774 758 758 6690 3873 3199 0 0 0 0 0 0 0 808 799 799 799 799 791 0 1471 1565 0 3679 4329 4599 4329 4599 4599 4599 5661 4906 4906 4599 4906 5256 4906 4906 4329 5256 5256 5256 4906 4599 4599 4599 4599 4599 4329 4088 3679 4088 3873 3873 3504 3504 3504 3066 2943 2943 2830 2725 2725 2725 2628 2374 2374 0 0 0 0 0 2453 2374 2537 2453 2537 2453 2374 2453 2299 2299 2299 2299 2230 2299 2299 2299 2230 2299 2299 2299 2299 2374 2044 1936 1936 1839 1443 1599 1533 1533 1533 1533 1599 1565 1565 1752 1672 1711 1711 1599 1471 1338 1291 1268 1247 1226 1226 1206 1206 1168 1168 1187 1132 1132 1132 1132 1132 0 0 0 0 0
    0 0 0 0 0 0 0 0 0 0 0 0 0 0 0 0 0 0 0 0 0 0 0 0 0 0 0 0 0 0 0 0 0 0 0 0 0 0 0 0 0 0 0 0 0 0 0 0 0 0 0 0 0 0 0 0 0 0 0 0 0 0 0 0 0 0 0 0 0 0 0 0 0 0 0 0 0 0 0 0 0 0 0 0 0 0 0 0 0 0 0 0 0 0 0 0 0 0 0 0 0 0 0 0 0 0 0 0 0 0 0 0 0 0 0 0 0 0 8177 0 0 0 7359 8177 8177 0 0 0 8177 7359 7359 0 0 0 0 0 0 0 0 8177 7359 8177 8177 8177 8177 8177 8177 8177 8177 0 8177 7359 7359 6690 6690 6690 7359 6690 0 0 0 0 0 0 0 0 743 743 735 743 743 750 750 735 758 750 750 750 750 743 750 735 774 750 750 750 766 750 750 0 2943 2102 0 0 0 0 0 0 0 799 791 791 791 799 791 817 0 0 0 0 3873 4088 3873 4329 4329 4329 5256 4906 4906 4906 4906 4906 4599 4906 4329 5256 4906 4906 4906 4599 4599 4599 4329 4599 4088 3873 3679 3873 3873 3679 3504 3504 3504 3066 2943 2943 2830 2725 2725 2725 2628 0 0 0 0 0 0 0 0 0 2537 2537 2628 2537 2453 2537 2299 2299 2299 2299 2299 2299 2299 2299 2299 2374 2299 2374 2299 2374 2044 1936 1887 1839 1443 1565 1501 1501 1533 1533 1565 1533 1533 1711 1599 1672 1635 1533 1443 1338 1291 1268 1226 1226 1226 1206 1206 1187 1168 1187 1115 1132 1132 1115 1115 0 0 0 0 0
    0 0 0 0 0 0 0 0 0 0 0 0 0 0 0 0 0 0 0 0 0 0 0 0 0 0 0 0 0 0 0 0 0 0 0 0 0 0 0 0 0 0 0 0 0 0 0 0 0 0 0 0 0 0 0 0 0 0 0 0 0 0 0 0 0 0 0 0 0 0 0 0 0 0 0 0 0 0 0 0 0 0 0 0 0 0 0 0 0 0 0 0 0 0 0 0 0 0 0 0 0 0 0 0 0 0 0 0 0 0 0 0 0 0 0 0 0 0 8177 0 0 0 7359 8177 8177 0 0 0 0 7359 7359 0 0 0 0 0 0 0 0 8177 7359 8177 8177 8177 8177 8177 8177 8177 8177 0 0 8177 8177 7359 6690 6690 6690 0 0 0 0 0 0 0 728 735 743 743 735 743 743 743 750 735 758 750 750 750 750 743 750 735 766 750 750 750 758 743 750 750 0 1635 0 0 0 0 0 0 808 791 782 791 791 799 791 817 845 897 931 0 3504 3679 3679 4088 4088 4088 4906 4906 4906 4906 4906 4906 4599 4906 4329 4906 4906 4906 4906 4599 4906 4599 4329 4599 4088 3679 3679 3873 3873 3679 3504 3504 3504 3066 2943 2943 2725 2628 2628 2628 2537 0 0 0 0 0 0 0 0 0 2628 2628 2725 2628 2628 2628 2374 2374 2299 2299 2299 2299 2299 2299 2230 2374 2299 2453 2374 2374 2044 1936 1887 1839 1443 1565 1501 1501 1501 1501 1565 1501 1501 1672 1565 1635 1565 1443 1388 1314 1268 1268 1206 1226 1226 1206 1206 1187 1168 1187 1115 1132 1115 1115 1115 0 0 0 0 0
    0 0 0 0 0 0 0 0 0 0 0 0 0 0 0 0 0 0 0 0 0 0 0 0 0 0 0 0 0 0 0 0 0 0 0 0 0 0 0 0 0 0 0 0 0 0 0 0 0 0 0 0 0 0 0 0 0 0 0 0 0 0 0 0 0 0 0 0 0 0 0 0 0 0 0 0 0 0 0 0 0 8177 8177 0 0 0 0 0 0 0 0 0 0 0 0 0 0 0 0 0 0 0 0 0 0 0 0 0 0 0 0 0 0 0 0 0 0 0 8177 0 0 0 7359 8177 8177 0 0 0 0 8177 8177 0 0 0 0 0 0 0 0 8177 8177 8177 8177 0 8177 8177 0 0 0 0 0 0 8177 7359 6690 6133 6133 0 0 0 0 0 0 0 0 714 721 721 721 735 735 735 743 735 758 750 750 750 750 743 750 735 758 750 750 750 766 750 750 758 0 0 0 0 0 0 0 0 808 791 782 791 791 799 791 808 826 845 855 0 0 3345 3679 4088 3873 4088 4906 4906 4906 4906 4906 4906 4599 4906 4329 5256 4906 5256 5256 5256 5256 4906 4329 5256 4088 3873 3679 3873 3873 3873 3504 3504 3504 3066 2943 2830 2725 2628 2628 2628 2453 0 0 0 0 0 0 0 0 0 2628 2628 2725 2725 2628 2628 2453 2453 2299 2374 2299 2299 2374 2299 2299 2374 2299 2453 2299 2299 2044 1936 1887 1839 1443 1565 1501 1501 1533 1501 1533 1471 1471 1635 1533 1565 1443 1362 1338 1291 1247 1247 1187 1206 1206 1206 1206 1168 1168 1187 1115 1132 1115 1115 1132 0 0 0 0 0
    0 0 0 0 0 0 0 0 0 0 0 0 0 0 0 0 0 0 0 0 0 0 0 0 0 0 0 0 0 0 0 0 0 0 0 0 0 0 0 0 0 0 0 0 0 0 0 0 0 0 0 0 0 0 0 0 0 0 0 0 0 0 0 0 0 0 0 0 0 0 0 0 0 0 0 0 0 0 0 0 9199 8177 8177 0 0 0 0 0 0 0 0 0 8177 8177 0 0 0 0 0 0 0 0 0 0 0 0 0 0 0 0 0 0 0 0 0 0 0 0 8177 0 0 0 8177 8177 8177 0 0 0 0 8177 8177 0 0 0 0 0 0 0 0 0 8177 0 0 0 0 0 0 0 0 0 0 0 8177 7359 6133 6133 5661 0 0 0 0 0 0 687 707 714 728 728 721 735 735 743 750 743 758 750 750 750 750 750 750 735 750 750 750 750 766 750 750 766 0 1022 0 0 0 0 0 817 799 791 782 782 791 799 791 799 817 826 826 826 0 0 0 4329 4329 4329 5256 5256 5256 4906 4906 5256 4599 5256 4599 5256 5256 5256 5256 5256 5256 5256 4329 5256 4329 3873 3873 3873 3873 3679 3504 3345 3345 3066 2830 2830 2830 2725 2725 0 0 0 0 0 0 994 0 0 0 0 2628 2537 2725 2725 2725 2628 2537 2453 2299 2453 2374 2374 2374 2374 2374 2453 2374 2453 2299 2299 2044 1989 1936 1839 1443 1533 1501 1501 1501 1501 1501 1443 1443 1599 1471 1443 1362 1338 1314 1268 1247 1247 1187 1206 1206 1206 1206 1187 1187 1206 1115 1149 1115 1132 1132 0 0 0 0 0
    0 0 0 0 0 0 0 0 0 0 0 0 0 0 0 0 0 0 0 0 0 0 0 0 0 0 0 0 0 0 0 0 0 0 0 0 0 0 0 0 0 0 0 0 0 0 0 0 0 0 0 0 0 0 0 0 0 0 0 0 0 0 0 0 0 0 0 0 0 0 0 0 0 0 0 0 0 0 0 0 0 0 0 0 0 0 0 0 0 0 0 0 8177 8177 0 0 0 0 0 0 0 0 0 0 0 8177 8177 0 0 0 0 0 0 0 0 0 0 0 8177 0 0 0 8177 8177 8177 0 0 0 0 0 0 0 0 0 0 0 0 0 0 8177 8177 0 0 0 0 0 0 0 0 0 0 0 0 8177 6133 5661 5256 0 0 0 0 0 707 700 714 721 728 728 728 735 743 743 750 743 758 758 750 750 758 750 750 743 750 750 750 750 774 750 750 782 0 981 943 855 826 0 0 817 799 791 782 782 791 799 791 799 799 808 808 808 808 0 0 0 4906 4329 5256 5661 5256 4906 4906 4906 4599 5256 4329 4906 4906 5256 4906 4906 5256 4906 4088 4906 4329 3873 3873 3873 3873 3679 3345 3345 3345 2943 2830 2725 2725 2537 0 0 0 0 0 0 0 1022 1036 0 0 0 2374 2453 2628 2725 2725 2628 2537 2537 2374 2453 2453 2453 2453 2374 2374 2453 2374 2453 2299 2299 2044 2044 1936 1839 1471 1533 1471 1501 1501 1471 1471 1415 1415 1533 1415 1362 1338 1314 1291 1291 1247 1247 1187 1206 1206 1206 1187 1187 1168 1206 1115 1149 1115 1132 1132 0 0 0 0 0
    0 0 0 0 0 0 0 0 0 0 0 0 0 0 0 0 0 0 0 0 0 0 0 0 0 0 0 0 0 0 0 0 0 0 0 0 0 0 0 0 0 0 0 0 0 0 0 0 0 0 0 0 0 0 0 0 0 0 0 0 0 0 0 0 0 0 0 0 0 0 0 0 0 0 0 0 0 0 0 0 0 0 0 0 0 0 0 0 0 0 0 0 0 0 0 0 0 0 0 0 0 0 0 0 8177 8177 7359 0 0 0 0 0 0 0 0 0 0 0 8177 0 0 0 0 0 8177 0 0 0 0 0 0 0 0 0 0 0 0 0 0 8177 8177 0 0 0 8177 0 0 0 0 0 0 0 0 8177 6133 5661 5256 0 0 0 0 0 714 714 721 728 728 728 728 735 743 743 750 743 758 758 750 750 766 758 758 743 750 758 758 750 774 758 766 791 826 955 886 845 817 826 826 808 791 774 774 774 782 791 782 791 782 799 799 799 791 774 0 0 0 0 5661 5661 5256 4906 4906 4906 4906 5256 4329 4906 4906 4906 4906 4906 5256 4906 4088 4906 4088 3873 4088 3873 3679 3504 3199 3199 3066 2830 2628 2453 2453 2299 0 0 0 0 0 0 1082 1051 1066 1082 0 0 0 2374 2628 2725 2830 2725 2628 2628 2453 2537 2453 2453 2453 2453 2453 2453 2374 2453 2299 2299 2102 2044 1989 1839 1471 1533 1443 1471 1471 1443 1443 1388 1388 1443 1388 1338 1314 1314 1291 1291 1268 1247 1187 1206 1206 1206 1187 1187 1187 1206 1115 1168 1115 1132 1132 0 0 0 0 0
    0 0 0 0 0 0 0 0 0 0 0 0 0 0 0 0 0 0 0 0 0 0 0 0 0 0 0 0 0 0 0 0 0 0 0 0 0 0 0 0 0 0 0 0 0 0 0 0 0 0 0 0 0 0 0 0 0 0 0 0 0 0 0 0 0 0 0 0 0 8177 8177 0 0 0 0 0 8177 0 0 0 8177 8177 8177 0 0 0 0 0 0 0 0 0 0 0 0 0 0 0 0 0 0 0 0 8177 8177 8177 7359 0 8177 0 0 0 0 0 0 0 0 0 7359 8177 0 0 0 0 8177 0 0 0 0 0 0 0 0 0 0 0 0 0 0 8177 7359 8177 8177 9199 8177 0 0 0 0 0 0 0 0 0 6133 5256 4599 0 0 0 0 0 714 721 728 728 735 735 728 735 743 750 750 743 758 750 750 743 766 758 758 743 743 750 750 758 782 750 766 799 0 0 855 826 808 817 826 799 774 774 766 782 782 782 774 791 766 791 791 791 782 758 0 0 0 0 0 5661 5256 4906 4906 4599 4906 5256 4329 4906 4906 4906 4906 4906 5256 4599 4088 4906 3873 3873 4088 3873 3873 3504 3199 3066 3066 2830 2537 2230 2164 0 0 0 0 0 0 0 1082 1051 1066 1082 1051 0 0 0 0 2830 2830 2725 2725 2725 2628 2628 2537 2537 2537 2453 2537 2453 2299 2374 2299 2230 2044 2044 1936 1839 1443 1501 1415 1443 1415 1388 1388 1362 1362 1415 1338 1314 1291 1291 1291 1291 1268 1247 1187 1187 1206 1206 1187 1168 1187 1187 1115 1168 1115 1132 1132 0 0 0 0 0
    0 0 0 0 0 0 0 0 0 0 0 0 0 0 0 0 0 0 0 0 0 0 0 0 0 0 0 0 0 0 0 0 0 0 0 0 0 0 0 0 0 0 0 0 0 0 0 0 0 0 0 0 0 0 0 0 0 0 0 0 0 0 0 0 0 0 0 0 0 8177 8177 0 0 0 0 0 8177 0 8177 8177 8177 8177 8177 0 0 0 0 0 0 0 0 0 8177 8177 0 0 0 0 8177 0 0 0 8177 8177 8177 7359 7359 0 8177 0 0 0 0 0 0 0 0 0 7359 8177 0 8177 0 0 8177 0 0 0 0 0 0 0 0 0 0 0 8177 8177 0 8177 7359 8177 8177 8177 8177 8177 0 0 0 0 0 0 0 0 5661 4599 4329 0 0 0 0 0 714 728 728 728 735 735 735 735 750 750 750 758 766 758 750 735 758 743 743 735 735 750 750 750 782 750 774 799 0 0 845 817 808 817 817 799 774 774 774 782 791 782 774 782 758 791 782 782 774 758 750 0 0 0 0 5661 5256 4906 4906 4599 5256 4906 4088 4906 4906 4599 4906 4906 5256 4329 4088 4906 3873 3873 4088 3873 3679 3345 3066 2943 2943 2830 0 0 0 0 0 0 0 1115 1066 1066 1115 1066 1082 1098 1066 0 0 0 0 2830 2943 2830 2830 2830 2725 2628 2628 2628 2537 2453 2537 2453 2374 2374 2374 2299 2102 2044 1936 1752 1388 1443 1388 1388 1388 1362 1362 1338 1338 1388 1338 1314 1291 1291 1291 1268 1268 1268 1187 1187 1226 1187 1168 1168 1168 1168 1098 1149 1098 1115 1132 0 0 0 0 0
    0 0 0 0 0 0 0 0 0 0 0 0 0 0 0 0 0 0 0 0 0 0 0 0 0 0 0 0 0 0 0 0 0 0 0 0 0 0 0 0 0 0 0 0 0 0 0 0 0 0 0 0 0 0 0 0 0 0 0 0 0 0 0 0 0 0 0 0 0 6690 6690 8177 0 0 0 0 0 0 8177 8177 8177 8177 8177 0 0 0 0 0 0 0 0 0 8177 8177 8177 8177 8177 0 7359 8177 8177 8177 8177 7359 7359 7359 6690 8177 8177 0 0 0 0 0 0 0 0 0 8177 8177 0 8177 0 0 0 0 0 0 0 0 0 0 0 0 0 0 0 0 0 8177 8177 8177 8177 0 8177 0 0 0 0 0 0 0 0 0 5256 0 0 0 0 0 0 714 721 728 728 735 735 735 735 735 750 750 750 766 758 750 750 735 758 743 735 735 728 743 750 750 782 758 782 808 0 0 0 817 808 817 817 791 766 774 774 782 791 782 774 774 750 774 766 766 758 750 735 0 0 0 0 5256 5256 4906 4906 4906 5256 5256 4329 5256 4906 4906 4906 5256 5256 4599 4329 4906 4088 3873 4088 3873 3679 3345 2943 2830 0 0 0 0 0 0 0 1149 1115 1115 1082 1098 1132 1098 1098 1115 1066 0 0 0 0 2628 2830 2830 2830 2830 2628 2725 2628 2628 2537 2537 2537 2453 2374 2374 2374 2230 2102 2102 1936 1711 1362 1415 1362 1388 1362 1362 1338 1338 1338 1362 1338 1291 1291 1291 1291 1268 1268 1268 1187 1187 1226 1187 1149 1149 1168 1132 1082 1149 1098 1115 1132 0 0 0 0 0
    0 0 0 0 0 0 0 0 0 0 0 0 0 0 0 0 0 0 0 0 0 0 0 0 0 0 0 0 0 0 0 0 0 0 0 0 0 0 0 0 0 0 0 0 0 0 0 0 0 0 0 0 0 0 0 0 0 0 0 0 0 0 0 0 0 0 0 0 0 6133 6133 7359 0 0 0 0 0 0 0 0 8177 8177 0 0 0 0 0 0 0 0 0 8177 8177 7359 8177 8177 7359 8177 7359 8177 8177 8177 8177 7359 7359 7359 6690 7359 8177 0 0 0 0 0 0 0 0 0 8177 8177 0 8177 0 0 0 0 0 0 0 0 0 0 0 0 0 0 8177 0 0 8177 8177 8177 8177 0 8177 8177 0 0 0 0 0 0 0 0 0 0 0 0 0 0 0 714 721 728 728 735 735 743 743 743 750 750 758 766 758 743 743 735 750 735 728 735 728 743 750 750 782 758 791 808 0 0 826 808 799 808 808 791 766 774 774 782 782 782 774 774 750 774 766 766 758 743 0 0 0 0 0 5256 5256 5256 5256 4906 5661 5256 4329 5256 5256 4906 5256 5256 5256 4329 4329 4906 4088 4088 4329 3873 3504 3199 2725 2537 0 0 0 1168 1168 1098 1098 1115 1098 1115 1098 1098 1132 1098 1115 1132 1066 0 0 0 0 0 2830 2830 2725 2725 2628 2725 2628 2628 2628 2537 2537 2537 2374 2299 2230 2102 1989 1936 1839 1533 1338 1388 1362 1362 1362 1338 1338 1338 1314 1362 1338 1291 1268 1291 1268 1247 1268 1268 1187 1168 1226 1168 1132 1132 1168 1132 1082 1149 1098 1115 1132 0 0 0 0 0
    0 0 0 0 0 0 0 0 0 0 0 0 0 0 0 0 0 0 0 0 0 0 0 0 0 0 0 0 0 0 0 0 0 0 0 0 0 0 0 0 0 0 0 0 0 0 0 0 0 0 0 0 0 0 0 0 0 0 0 0 0 0 0 0 0 0 0 0 0 6133 5661 7359 8177 0 0 0 0 0 0 0 0 0 0 0 0 0 0 0 0 0 8177 8177 8177 8177 7359 8177 7359 8177 6690 8177 8177 8177 7359 7359 7359 6690 6690 7359 7359 0 0 8177 8177 8177 8177 0 0 0 8177 7359 0 8177 0 0 0 0 0 0 0 0 0 0 0 0 8177 0 7359 8177 8177 8177 8177 8177 8177 8177 7359 8177 0 0 0 0 0 0 0 0 0 0 0 0 0 0 721 714 728 735 735 735 743 743 743 743 758 750 758 766 758 743 743 735 750 743 728 735 728 743 750 750 774 758 791 817 0 0 826 808 808 817 817 791 782 791 791 791 791 791 782 782 750 774 774 774 766 750 0 0 0 0 0 0 5256 5661 5256 4906 5661 5256 4329 5256 5256 5256 4906 5256 5256 4599 4329 4906 4088 4329 4329 3873 3345 3066 2374 1887 0 0 1187 1115 1115 1082 1066 1098 1082 1098 1082 1066 1115 1082 1115 1149 1066 0 0 0 0 0 2830 2830 2725 2725 2628 2725 2725 2628 2628 2537 2628 2537 2299 2164 2102 1936 1887 1839 1672 1443 1338 1362 1338 1338 1338 1338 1314 1314 1314 1362 1338 1291 1268 1268 1268 1247 1268 1268 1187 1168 1206 1168 1115 1132 1149 1115 1082 1149 1098 1098 1115 0 0 0 0 0
    0 0 0 0 0 0 0 0 0 0 0 0 0 0 0 0 0 0 0 0 0 0 0 0 0 0 0 0 0 0 0 0 0 0 0 0 0 0 0 0 0 0 0 0 0 0 0 0 0 0 0 0 0 0 0 0 0 0 0 0 0 0 0 0 0 0 0 0 0 6133 6133 8177 0 0 0 0 0 0 0 0 0 0 0 0 0 0 0 0 0 0 8177 8177 8177 8177 7359 8177 7359 8177 6690 8177 8177 8177 7359 7359 6690 6690 6133 7359 7359 0 0 0 0 0 0 0 0 0 0 8177 0 8177 0 0 0 0 0 0 0 0 0 0 0 0 8177 8177 7359 7359 7359 7359 7359 7359 7359 7359 6133 6690 7359 8177 0 0 0 0 0 5661 0 0 0 0 0 721 728 721 735 743 743 750 750 750 750 750 758 750 758 766 758 743 750 735 758 743 728 735 735 743 758 750 774 766 799 817 0 0 826 817 808 817 817 791 782 799 799 799 791 799 791 782 766 774 774 782 774 750 0 0 0 0 0 0 5661 5661 5661 5256 6133 5256 4329 5256 5256 4906 4906 4906 4906 4329 4329 4599 4329 4088 4329 3679 3199 2830 1936 1599 1268 1168 1115 1066 1082 1066 1051 1082 1066 1066 1066 1066 1098 1082 1098 1149 1066 0 0 0 0 0 2830 2830 2725 2725 2628 2725 2725 2628 2628 2628 2628 2537 2230 2102 2044 1887 1752 1672 1533 1415 1338 1362 1314 1314 1314 1314 1291 1291 1268 1338 1314 1268 1268 1268 1247 1247 1247 1247 1168 1149 1206 1149 1115 1115 1132 1098 1066 1132 1082 1098 1098 0 0 0 0 0
    0 0 0 0 0 0 0 0 0 0 0 0 0 0 0 0 0 0 0 0 0 0 0 0 0 0 0 0 0 0 0 0 0 0 0 0 0 0 0 0 0 0 0 0 0 0 0 0 0 0 0 0 0 0 0 0 0 0 0 0 0 0 0 0 0 0 0 0 0 6133 6690 8177 0 0 0 0 0 0 0 0 0 0 0 0 0 0 0 0 0 0 8177 8177 8177 8177 8177 8177 8177 8177 7359 8177 8177 8177 7359 7359 6690 6690 6133 7359 7359 0 8177 0 0 0 0 0 0 0 0 8177 0 8177 0 0 0 0 0 0 0 0 0 0 0 0 7359 7359 6690 6690 6690 6690 6690 6133 6133 6133 5661 6133 6133 6133 8177 8177 8177 8177 0 4906 0 0 0 750 735 721 728 728 735 743 743 750 750 750 758 750 758 750 758 766 758 743 750 735 758 743 728 735 735 743 758 750 766 774 799 826 0 0 817 817 808 817 817 791 782 799 799 799 791 799 791 782 782 782 791 791 791 766 750 0 0 0 0 0 5661 6133 5661 5256 6133 4906 4329 4906 4906 4906 4906 4906 4906 4329 4329 4599 4088 3873 4329 3679 3199 2830 0 1388 1247 0 1098 1066 1098 1066 1066 1082 1066 1066 1082 1066 1098 1082 1098 1115 1066 0 0 0 0 0 0 2943 2830 2725 2725 2725 2628 2628 2628 2537 2628 2537 2102 1989 1989 1752 1501 1471 1443 1362 1314 1338 1314 1314 1314 1314 1291 1268 1268 1314 1291 1268 1268 1268 1247 1226 1247 1247 1168 1149 1206 1132 1098 1098 1132 1098 1066 1132 1082 1098 1098 0 0 0 0 0
    0 0 0 0 0 0 0 0 0 0 0 0 0 0 0 0 0 0 0 0 0 0 0 0 0 0 0 0 0 0 0 0 0 0 0 0 0 0 0 0 0 0 0 0 0 0 0 0 0 0 0 0 0 0 0 0 0 0 0 0 0 0 0 0 0 0 0 0 0 6133 6690 7359 8177 0 0 0 0 0 0 0 0 0 0 0 0 0 0 0 0 0 8177 8177 8177 0 8177 8177 8177 8177 7359 0 0 0 7359 6690 6690 6690 6133 7359 8177 0 8177 0 0 0 0 0 0 0 0 0 0 8177 0 0 0 0 0 0 0 0 0 0 0 0 8177 8177 7359 6690 6690 6133 6133 6133 6133 5661 5256 5661 6133 5661 7359 6690 6690 7359 0 0 0 0 0 0 735 721 728 728 735 743 743 743 750 750 758 750 758 750 758 758 750 743 750 735 750 735 728 735 735 743 758 743 766 766 799 826 0 808 817 817 808 826 817 791 782 808 808 791 791 799 799 782 791 791 791 799 791 766 750 0 0 0 0 0 0 6133 6133 5256 6133 4329 3873 4329 4599 4599 5256 4906 4906 4088 4329 4599 4088 3873 4088 3679 3199 3066 0 0 0 0 0 1082 1132 1098 1082 1082 1066 1082 1082 1051 1082 1051 1066 1082 1036 0 0 0 0 0 0 0 2725 2725 2628 2725 2628 2628 2628 2537 2537 2453 1989 1887 1839 1565 1415 1415 1415 1362 1314 1338 1314 1291 1314 1314 1291 1268 1247 1314 1291 1268 1268 1268 1247 1226 1247 1247 1168 1132 1206 1115 1098 1098 1132 1082 1066 1132 1082 1082 1098 0 0 0 0 0
    0 0 0 0 0 0 0 0 0 0 0 0 0 0 0 0 0 0 0 0 0 0 0 0 0 0 0 0 0 0 0 0 0 0 0 0 0 0 0 0 0 0 0 0 0 0 0 0 0 0 0 0 0 0 0 0 0 0 0 0 0 0 0 0 0 0 0 0 0 6133 6133 6690 8177 8177 0 0 0 0 0 0 0 0 0 0 0 0 0 0 0 0 0 9199 0 0 8177 8177 8177 0 8177 0 0 0 7359 6690 6690 6690 6690 7359 7359 0 7359 0 0 0 0 0 0 0 0 0 0 8177 0 0 0 0 0 0 0 0 0 0 0 0 0 8177 7359 6690 6690 6133 6133 6133 5661 5661 5256 5661 6133 5661 7359 6133 6690 6690 7359 0 0 0 0 0 0 721 735 728 735 743 743 750 750 750 758 750 766 750 758 758 750 743 750 735 743 735 721 735 735 743 750 735 750 758 799 836 817 808 826 826 817 826 817 791 791 808 808 799 791 808 799 791 799 791 799 799 799 782 0 0 0 0 0 0 0 0 6133 5256 5661 3504 3504 3873 4088 4599 5256 5256 4599 4088 4329 4599 4329 4088 3873 3679 3345 3066 202 199 201 207 204 0 1149 1115 1066 1082 1066 1051 1066 1022 1036 1022 1022 1051 1008 897 0 0 598 608 645 0 2725 2628 2628 2628 2537 2537 2628 2537 2453 2374 1936 1752 1711 1471 1388 1388 1415 1362 1314 1338 1314 1314 1314 1314 1291 1268 1247 1314 1291 1268 1268 1268 1247 1226 1247 1247 1168 1149 1206 1132 1098 1098 1132 1082 1066 1132 1082 1082 1082 0 0 0 0 0
    0 0 0 0 0 0 0 0 0 0 0 0 0 0 0 0 0 0 0 0 0 0 0 0 0 0 0 0 0 0 0 0 0 0 0 0 0 0 0 0 0 0 0 0 0 0 0 0 0 0 0 0 0 0 0 0 0 0 0 0 0 0 0 0 0 0 0 0 0 6133 6690 6690 8177 8177 0 0 0 0 0 0 0 0 0 0 0 0 0 0 0 0 0 0 0 0 0 0 0 0 8177 0 0 0 7359 6690 6690 6133 6690 7359 7359 8177 7359 0 0 0 0 0 0 0 0 0 0 0 0 0 0 0 0 0 0 0 0 0 0 0 0 0 8177 7359 6690 6133 6690 6133 6133 5661 5256 5661 5661 5256 6690 6133 6690 6690 6690 5256 0 0 0 0 0 0 735 735 743 750 750 750 758 758 758 750 766 750 758 758 750 735 750 735 743 735 721 735 735 743 750 735 743 750 791 845 817 808 826 836 826 845 826 799 791 808 808 799 782 808 799 791 808 799 799 808 799 799 0 0 0 0 0 0 0 1206 0 6133 6133 0 0 4088 4599 4906 5661 5661 4599 4329 4329 4329 4088 4088 3679 3679 3345 3199 202 199 201 0 0 1098 1149 1132 1066 1051 1036 1036 1036 1008 994 981 955 994 931 826 700 651 639 629 663 645 2628 2628 2537 2537 2537 2537 2628 2537 2453 2299 1887 1672 1599 1443 1388 1388 1415 1362 1338 1338 1314 1314 1314 1314 1291 1268 1226 1314 1268 1268 1268 1247 1247 1226 1247 1268 1168 1168 1206 1132 1115 1115 1132 1098 1066 1149 1082 1098 1098 0 0 0 0 0
    0 0 0 0 0 0 0 0 0 0 0 0 0 0 0 0 0 0 0 0 0 0 0 0 0 0 0 0 0 0 0 0 0 0 0 0 0 0 0 0 0 0 0 0 0 0 0 0 0 0 0 0 0 0 0 0 0 0 0 0 0 0 0 0 0 0 0 0 0 7359 7359 7359 0 0 0 0 0 0 0 0 0 0 0 0 0 0 0 0 0 0 0 0 0 0 0 0 0 0 0 0 8177 8177 7359 6690 6690 6133 6690 8177 7359 8177 7359 0 0 0 0 8177 0 0 0 0 0 0 0 0 0 0 0 0 0 0 0 0 0 0 0 0 8177 7359 6690 6133 6690 6133 6133 5661 5256 5661 5661 5256 6690 6133 6690 6690 6690 5256 0 0 0 0 0 0 743 735 750 750 750 758 758 758 766 758 774 750 758 750 750 743 758 743 758 743 728 750 743 750 766 743 750 750 791 855 817 808 836 855 836 855 826 808 791 808 808 791 774 799 799 791 808 799 799 808 808 791 0 0 0 0 0 0 0 1206 0 6133 0 0 0 4088 4599 5256 6133 5661 4906 4906 4599 4088 4329 4088 3679 3679 3504 3345 3345 0 0 205 0 1132 0 1149 1066 1051 1022 1008 1008 968 955 943 897 919 855 808 728 700 700 651 681 663 2628 2537 2453 2453 2374 2374 2628 2453 2299 2044 1795 1599 1565 1443 1388 1388 1415 1388 1338 1362 1338 1314 1314 1314 1291 1268 1226 1291 1268 1247 1268 1247 1247 1226 1226 1268 1168 1168 1206 1132 1115 1115 1149 1115 1082 1168 1098 1115 1115 0 0 0 0 0
    0 0 0 0 0 0 0 0 0 0 0 0 0 0 0 0 0 0 0 0 0 0 0 0 0 0 0 0 0 0 0 0 0 0 0 0 0 0 0 0 0 0 0 0 0 0 0 0 0 0 0 0 0 0 0 0 0 0 0 0 0 0 0 0 0 0 0 0 0 8177 8177 8177 0 8177 0 0 0 0 0 0 0 0 0 0 0 0 0 0 0 0 0 0 0 0 0 0 0 0 0 8177 8177 8177 7359 6133 6133 6133 6133 8177 7359 8177 7359 0 0 0 0 0 0 0 0 0 0 8177 0 0 0 0 0 0 0 0 0 0 0 8177 0 0 8177 6690 6690 6133 6690 6133 6133 5661 5256 5661 5661 5256 6690 6133 6133 6133 6133 0 0 0 0 0 0 0 743 743 750 750 758 766 766 766 766 758 766 750 758 750 743 743 758 743 758 743 735 758 750 758 766 743 750 750 791 876 826 0 0 886 865 886 845 817 799 817 817 799 774 799 799 799 826 808 817 817 817 0 0 0 0 0 0 0 1226 1206 0 5661 0 0 0 3504 3873 4329 4906 4599 4329 4599 4088 4088 4088 3873 3679 3679 3504 3504 3504 3199 2943 0 0 0 0 1187 1066 1036 994 981 981 943 931 931 876 886 855 826 766 728 707 681 694 681 0 2374 2299 2230 2230 2164 2374 2230 2044 1887 1672 1501 1501 1415 1388 1388 1415 1388 1338 1362 1338 1314 1314 1338 1314 1268 1226 1314 1247 1247 1247 1247 1247 1226 1226 1247 1168 1168 1206 1132 1115 1132 1132 1132 1098 1187 1132 1132 1115 0 0 0 0 0
    0 0 0 0 0 0 0 0 0 0 0 0 0 0 0 0 0 0 0 0 0 0 0 0 0 0 0 0 0 0 0 0 0 0 0 0 0 0 0 0 0 0 0 0 0 0 0 0 0 0 0 0 0 0 0 0 0 0 0 0 0 0 0 0 0 0 0 0 0 7359 8177 8177 0 8177 0 8177 0 0 8177 0 0 0 0 0 0 0 0 0 0 0 0 0 0 0 0 0 0 0 0 7359 7359 8177 6690 5661 5661 5256 5661 7359 6690 8177 7359 0 0 0 0 0 0 0 0 0 0 8177 0 0 0 0 0 0 0 0 0 0 0 8177 0 0 8177 7359 7359 6133 6690 6690 6690 5661 5661 5661 6133 5256 6690 5661 6133 6133 6133 0 0 0 0 0 0 0 743 750 750 750 766 766 766 766 766 758 766 750 750 743 743 750 766 743 774 750 743 766 758 758 766 743 750 750 791 908 0 0 0 955 919 943 876 836 808 826 817 799 782 808 799 808 836 808 817 817 817 0 0 0 0 0 0 0 1226 1206 1168 0 0 0 0 0 3345 3679 4088 3873 3679 4599 4088 4088 4088 3873 3679 3679 3679 3679 3679 3345 3066 3345 0 0 0 0 1036 994 968 955 955 931 919 908 865 876 845 826 791 750 721 700 714 700 707 0 1989 1989 2044 1936 2044 2044 1936 1839 1501 1443 1471 1443 1415 1388 1415 1388 1362 1388 1362 1314 1338 1338 1338 1291 1226 1314 1247 1247 1247 1247 1247 1226 1226 1247 1187 1187 1187 1132 1132 1132 1132 1132 1115 1187 1132 1132 1132 0 0 0 0 0
    0 0 0 0 0 0 0 0 0 0 0 0 0 0 0 0 0 0 0 0 0 0 0 0 0 0 0 0 0 0 0 0 0 0 0 0 0 0 0 0 0 0 0 0 0 0 0 0 0 0 0 0 0 0 0 0 0 0 0 0 0 0 0 0 0 0 0 0 0 7359 8177 8177 0 7359 0 0 0 0 8177 8177 8177 8177 0 9199 0 8177 8177 0 0 0 0 0 0 0 0 0 0 0 7359 6690 6690 7359 5661 4906 4599 4599 4599 7359 5256 0 7359 0 0 0 0 0 0 0 0 0 0 7359 0 0 0 0 0 0 0 0 0 0 0 9199 0 0 0 7359 8177 6690 7359 7359 6690 6133 5256 4906 5256 4599 6133 5256 5661 5661 5256 0 0 0 0 0 0 0 743 750 758 758 766 766 766 766 774 758 766 750 750 743 743 750 758 743 782 750 735 766 766 766 766 743 750 743 782 943 0 0 0 0 981 994 908 836 799 799 799 782 774 791 799 808 836 817 817 817 0 0 1388 0 0 1247 1247 1226 1226 1226 1206 0 0 1936 0 0 2943 2943 3345 3199 3199 3504 3504 4088 3873 3873 3679 3679 3873 3873 3873 3679 3345 3679 0 0 0 0 994 981 943 931 931 919 919 919 865 865 836 826 799 782 758 735 743 735 743 728 0 0 1887 1711 1839 1887 1839 1672 1388 1388 1443 1415 1388 1388 1415 1388 1362 1388 1362 1338 1338 1362 1338 1291 1247 1314 1247 1247 1268 1247 1247 1226 1226 1247 1187 1206 1206 1168 1149 1149 1149 1149 1115 1187 1149 1132 1132 0 0 0 0 0
    0 0 0 0 0 0 0 0 0 0 0 0 0 0 0 0 0 0 0 0 0 0 0 0 0 0 0 0 0 0 0 0 0 0 0 0 0 0 0 0 0 0 0 0 0 0 0 0 0 0 0 0 0 0 0 0 0 0 0 0 0 0 0 0 0 0 0 0 0 5256 7359 7359 8177 6690 0 0 0 7359 6133 7359 7359 6690 7359 8177 0 8177 8177 0 0 8177 0 0 0 0 0 0 0 0 0 5661 4088 6133 4599 3873 3679 3504 3504 6133 0 0 6133 0 0 0 0 0 0 0 8177 0 0 7359 0 0 0 0 0 0 0 0 0 0 0 8177 0 0 0 7359 0 7359 7359 6690 6133 5256 3873 3504 3679 3504 4329 4088 4329 0 0 0 0 0 0 0 0 0 743 750 758 758 766 766 766 774 774 758 766 758 750 743 743 750 750 743 782 750 735 766 766 774 766 750 758 743 766 968 0 0 0 1149 1022 1008 955 845 799 774 774 766 758 782 791 808 826 817 817 817 0 1471 1415 1362 1247 1268 1268 1247 1247 1226 0 1206 1268 1599 1599 1839 1887 2230 2628 1936 2374 3199 3199 3679 3873 3873 3679 3873 3873 3873 3873 3873 3504 4088 0 0 0 0 994 955 931 919 919 908 919 931 876 865 855 836 817 808 791 774 782 766 750 743 0 0 0 0 1415 1565 1565 1443 1338 1388 1443 1415 1415 1388 1443 1415 1362 1415 1388 1338 1362 1388 1388 1314 1247 1314 1247 1247 1268 1247 1247 1247 1247 1247 1206 1226 1206 1187 1168 1168 1168 1149 1132 1187 1149 1149 1132 0 0 0 0 0
    0 0 0 0 0 0 0 0 0 0 0 0 0 0 0 0 0 0 0 0 0 0 0 0 0 0 0 0 0 0 0 0 0 0 0 0 0 0 0 0 0 0 0 0 0 0 0 0 0 0 0 0 0 0 0 0 0 0 0 0 0 0 0 0 0 0 0 0 0 3504 4329 6133 0 0 0 0 0 0 0 4906 4599 4906 0 0 0 0 0 0 0 0 0 0 0 1533 0 0 0 0 0 0 2725 3504 3345 3199 3199 2943 2943 3345 2628 0 0 0 0 0 7359 0 8177 0 8177 8177 8177 6133 0 0 0 0 0 8177 0 0 0 8177 0 6133 0 0 0 8177 0 0 0 7359 5256 3873 2943 0 0 0 0 0 0 0 0 0 0 0 0 227 0 0 758 758 774 766 774 774 782 782 782 766 774 766 758 750 743 750 750 743 782 750 743 758 766 782 766 758 766 750 766 955 0 0 0 1187 0 1008 955 865 808 774 766 766 766 782 791 808 817 808 808 0 0 1533 1471 1388 1291 1291 1268 1268 1247 1226 0 1206 1247 1362 1388 1839 1839 1839 1936 1752 1795 1989 2830 3679 3873 3873 3504 3679 3873 3873 3873 3873 0 0 0 0 0 0 981 955 919 897 897 908 931 955 897 897 876 855 845 826 817 808 808 791 766 750 750 707 0 0 0 0 0 0 0 1388 1471 1443 1443 1415 1443 1443 1388 1443 1415 1362 1388 1388 1415 1338 1268 1314 1226 1247 1268 1247 1247 1247 1247 1247 1226 1226 1226 1187 1187 1187 1168 1168 1149 1187 1149 1149 1132 0 0 0 0 0
    0 0 0 0 0 0 0 0 0 0 0 0 0 0 0 0 0 0 0 0 0 0 0 0 0 0 0 0 0 0 0 0 0 0 0 0 0 0 0 0 0 0 0 0 0 0 0 0 0 0 0 0 0 0 0 0 0 0 0 0 0 0 0 0 0 0 0 0 0 2537 1936 0 0 0 0 0 0 1752 1672 0 0 0 0 0 0 0 0 0 0 0 0 0 1752 1533 0 0 0 1711 1752 1795 1936 1795 2299 2044 2299 2164 2299 2453 2164 1887 1936 1989 1839 0 0 0 0 0 7359 5256 6133 4599 8177 7359 0 8177 0 7359 0 0 0 4599 2299 2299 2044 1839 1989 2230 2044 0 0 0 0 2102 1795 1635 1672 1711 1635 1635 1635 1533 0 0 0 0 0 228 0 0 0 774 791 782 782 791 791 791 791 774 782 766 766 758 750 758 750 750 782 758 743 766 766 791 774 766 774 766 758 943 0 0 0 0 994 994 943 876 808 774 774 774 774 782 791 808 817 808 799 0 1752 1599 1533 1501 1338 1314 0 0 1247 0 0 1206 1247 0 1338 0 0 1752 1711 1533 1415 1565 1635 3504 3679 3679 3679 3679 3679 3679 3679 3679 0 0 0 0 0 0 955 943 908 886 897 919 943 981 943 955 919 908 886 845 826 817 817 799 766 743 743 707 707 714 0 0 0 1168 0 0 1388 1415 1443 1415 1443 1443 1388 1443 1415 1388 1388 1388 1415 1362 1291 1291 1226 1247 1247 1247 1226 1226 1226 1247 1226 1247 1226 1206 1206 1206 1187 1168 1149 1168 1149 1132 1132 0 0 0 0 0
    0 0 0 0 0 0 0 0 0 0 0 0 0 0 0 0 0 0 0 0 0 0 0 0 0 0 0 0 0 0 0 0 0 0 0 0 0 0 0 0 0 0 0 0 0 0 0 0 0 0 0 0 0 0 0 0 0 0 0 0 0 0 0 0 0 0 0 0 0 1752 1672 1672 1989 1839 0 1795 1752 1672 1635 1635 1672 1711 1672 1672 0 0 0 0 0 0 0 1599 1711 1533 1672 1672 1672 1672 1672 1711 1795 1752 1795 1752 1795 1795 1795 1887 1887 1752 1752 1752 1711 1672 1711 1795 1795 1752 0 0 4906 3873 8177 7359 0 0 0 0 0 0 0 2830 1936 2044 1887 1752 1752 1795 1752 1711 1672 1599 1672 1711 1672 1565 1599 1672 1599 1635 1635 1565 1565 1565 1533 0 0 0 0 0 0 782 799 782 791 799 799 799 791 774 782 766 774 766 750 758 750 758 782 758 750 766 766 791 782 782 782 791 774 955 0 0 0 0 0 968 931 886 808 774 774 774 782 782 791 808 808 799 799 0 0 1672 1565 1599 1362 0 0 0 1247 0 0 1187 1206 0 0 0 0 1533 1362 1268 1247 1291 1314 0 3345 3345 3504 3504 3504 3504 3504 3679 0 0 0 319 334 0 943 931 908 886 886 931 955 1008 994 994 981 981 955 897 836 817 817 791 743 728 721 700 700 707 714 774 0 0 994 876 1314 1314 1362 1388 1415 1443 1388 1443 1415 1388 1388 1388 1415 1362 1291 1291 1206 1226 1247 1226 1226 1226 1226 1247 1226 1247 1226 1206 1206 1206 1187 1168 1149 1168 1132 1132 1132 0 0 0 0 0
    0 0 0 0 0 0 0 0 0 0 0 0 0 0 0 0 0 0 0 0 0 0 0 0 0 0 0 0 0 0 0 0 0 0 0 0 0 0 0 0 0 0 0 0 0 0 0 0 0 0 0 0 0 0 0 0 0 0 0 0 0 0 0 0 0 0 0 0 0 1599 1565 1565 1711 1565 1565 1672 1672 1599 1599 1599 1599 1599 1599 1599 1599 1635 1672 1672 1711 1672 1599 1599 1672 1533 1635 1599 1599 1635 1599 1672 1711 1672 1711 1711 1752 1752 1711 1795 1795 1672 1672 1711 1635 1599 1672 1672 1711 1635 1711 1752 0 3345 0 6690 0 0 0 0 0 0 0 2102 1839 1989 1839 1711 1711 1711 1672 1635 1635 1565 1565 1672 1599 1471 1565 1599 1599 1599 1635 1565 1565 1599 1599 1565 0 0 0 0 0 0 808 782 791 799 799 799 791 766 774 766 774 766 750 750 750 758 774 766 758 766 766 791 782 791 791 808 799 968 0 0 0 0 0 931 897 876 808 766 774 774 782 774 791 808 799 791 799 0 0 0 1565 1565 0 0 0 1291 1247 0 0 1206 1206 1268 1268 0 1388 1338 1268 1168 1206 1247 1247 1226 3199 3199 3679 3504 3504 3504 3504 3679 0 0 0 0 334 0 919 908 886 865 876 919 968 1022 1036 1022 1008 1022 1008 968 908 836 826 791 735 735 728 707 714 721 735 782 782 758 791 799 0 1187 0 1338 1388 1415 1388 1415 1388 1362 1388 1388 1388 1362 1291 1291 1206 1226 1226 1226 1226 1206 1226 1226 1226 1226 1226 1206 1206 1206 1187 1168 1149 1149 1132 1115 1115 0 0 0 0 0
    0 0 0 0 0 0 0 0 0 0 0 0 0 0 0 0 0 0 0 0 0 0 0 0 0 0 0 0 0 0 0 0 0 0 0 0 0 0 0 0 0 0 0 0 0 0 0 0 0 0 0 0 0 0 0 0 0 0 0 0 0 0 0 0 0 0 0 0 0 1565 1533 1501 1635 1471 1501 1565 1599 1599 1565 1599 1599 1533 1565 1565 1533 1565 1565 1565 1599 1599 1565 1599 1599 1501 1565 1565 1565 1599 1565 1635 1635 1635 1672 1672 1711 1711 1672 1711 1711 1565 1565 1599 1533 1501 1565 1599 1635 1599 1672 1711 0 2453 0 0 0 0 0 0 0 0 1711 1795 1795 1887 1752 1672 1672 1635 1635 1599 1599 1533 1565 1635 1599 1471 1565 1599 1565 1565 1635 1565 1565 1565 1635 1599 1533 1599 0 0 0 0 0 791 0 808 808 808 799 758 766 766 766 766 743 750 743 750 766 758 750 758 758 791 782 791 791 826 0 0 1066 0 0 0 0 886 865 855 808 766 774 774 791 782 799 808 808 799 808 808 0 0 1533 0 0 0 0 1291 1268 1268 0 1226 1206 1291 1291 1268 1314 1291 1226 1098 1115 1149 1149 1149 0 0 3873 3679 3504 3345 3345 3504 2830 0 0 0 336 0 886 876 865 855 865 931 981 1036 1051 1036 1036 1036 1036 1008 1008 968 968 799 728 728 721 707 721 728 743 774 766 735 707 707 714 0 1115 0 0 1388 1362 1415 1362 1362 1388 1388 1388 1362 1291 1291 1226 1247 1247 1226 1226 1206 1206 1226 1226 1226 1226 1206 1206 1206 1187 1187 1149 1149 1132 1115 1115 0 0 0 0 0
    0 0 0 0 0 0 0 0 0 0 0 0 0 0 0 0 0 0 0 0 0 0 0 0 0 0 0 0 0 0 0 0 0 0 0 0 0 0 0 0 0 0 0 0 0 0 0 0 0 0 0 0 0 0 0 0 0 0 0 0 0 0 0 0 0 0 0 0 0 1533 1501 1501 1635 1471 1471 1565 1565 1565 1565 1565 1565 1501 1533 1565 1533 1533 1533 1533 1533 1533 1565 1565 1533 1443 1501 1471 1501 1533 1533 1599 1599 1599 1635 1635 1711 1672 1672 1635 1599 1501 1501 1533 1471 1471 1533 1533 1599 1565 1599 1635 1635 1711 1672 1672 1599 0 0 0 0 1635 1672 1752 1752 1795 1635 1599 1599 1599 1599 1533 1565 1501 1533 1635 1599 1443 1565 1599 1565 1565 1599 1565 1565 1565 1635 1599 1533 1599 1443 1388 0 0 0 0 0 0 0 817 799 750 766 766 766 766 735 743 743 750 766 758 750 758 758 791 774 791 791 0 0 0 1098 0 0 0 0 845 836 826 791 758 758 774 782 774 791 799 799 799 808 817 0 0 1388 0 0 0 0 1291 1268 1268 1268 1247 1226 1291 1268 1206 1226 1268 1206 1066 1066 1082 1082 1082 0 0 0 3873 3504 3345 3199 3199 2725 0 0 0 0 855 855 855 845 845 845 931 1008 1051 1066 1051 1036 1051 1051 1036 1036 1036 0 817 743 735 728 707 721 721 728 750 728 707 687 694 694 681 0 0 0 0 0 1388 1362 1362 1388 1388 1388 1362 1314 1291 1247 1268 1268 1247 1247 1226 1226 1226 1226 1226 1226 1206 1206 1206 1206 1187 1149 1149 1115 1115 1115 0 0 0 0 0
    0 0 0 0 0 0 0 0 0 0 0 0 0 0 0 0 0 0 0 0 0 0 0 0 0 0 0 0 0 0 0 0 0 0 0 0 0 0 0 0 0 0 0 0 0 0 0 0 0 0 0 0 0 0 0 0 0 0 0 0 0 0 0 0 0 0 0 0 0 1471 1471 1443 1599 1415 1443 1533 1533 1501 1533 1501 1533 1471 1501 1501 1471 1501 1501 1501 1501 1501 1533 1533 1501 1443 1471 1471 1471 1533 1501 1565 1599 1599 1599 1635 1672 1635 1635 1565 1471 1443 1471 1501 1471 1471 1501 1501 1565 1565 1599 1599 1565 1565 1501 1533 1501 1501 1533 1565 1565 1599 1635 1711 1711 1711 1533 1533 1565 1533 1533 1501 1533 1501 1533 1599 1565 1443 1533 1565 1533 1533 1599 1533 1565 1565 1635 1599 1565 1635 1501 1471 1471 1443 1362 0 0 0 0 0 817 750 774 774 774 774 743 743 743 750 766 750 750 750 750 791 774 782 799 0 0 0 1115 0 0 0 826 826 817 826 782 766 758 774 782 774 782 791 791 799 799 817 0 0 0 0 0 0 0 1291 1268 1314 1291 1268 1247 1338 1338 1226 1187 1226 1149 1051 1036 1036 1036 1051 0 0 0 4088 3345 3066 3066 2943 0 0 0 855 0 0 0 826 836 826 826 0 1022 1051 1066 1066 1051 1051 1066 1051 1051 1066 0 0 743 728 728 700 714 714 714 721 707 700 675 681 681 669 675 0 90 90 0 1388 1362 1362 1388 1388 1415 1362 1314 1314 1268 1268 1268 1268 1268 1247 1226 1247 1226 1226 1226 1226 1226 1206 1206 1187 1149 1149 1115 1115 1115 0 0 0 0 0
    0 0 0 0 0 0 0 0 0 0 0 0 0 0 0 0 0 0 0 0 0 0 0 0 0 0 0 0 0 0 0 0 0 0 0 0 0 0 0 0 0 0 0 0 0 0 0 0 0 0 0 0 0 0 0 0 0 0 0 0 0 0 0 0 0 0 0 0 0 1443 1471 1415 1565 1415 1415 1471 1501 1471 1471 1443 1471 1443 1471 1471 1443 1443 1471 1443 1471 1443 1471 1443 1471 1443 1443 1443 1471 1501 1501 1565 1565 1565 1599 1599 1672 1599 1565 1501 1443 1415 1415 1471 1443 1471 1501 1471 1533 1533 1565 1533 1471 1443 1415 1443 1443 1471 1501 1533 1565 1599 1635 1672 1672 1635 1471 1471 1501 1471 1471 1471 1501 1471 1501 1565 1533 1415 1501 1533 1501 1501 1533 1501 1533 1533 1635 1599 1565 1635 1533 1471 1501 1471 1388 1338 1314 0 1226 0 0 758 782 782 782 774 735 750 750 750 758 750 750 750 750 791 766 0 0 0 0 0 1082 0 0 0 826 817 808 817 774 766 758 774 782 774 774 782 774 799 791 808 817 0 1187 1226 1115 0 0 1268 1247 1268 1247 1247 1226 1362 1338 1206 1082 1082 1082 1022 1008 1008 1022 1022 1036 0 0 0 3345 2628 2628 2299 0 0 0 865 0 0 0 817 817 808 817 0 1036 1051 1082 1082 1066 1066 1082 1066 1066 1098 1168 0 0 0 721 694 700 694 700 707 681 675 651 669 675 663 663 669 0 90 0 1388 1338 1362 1388 1388 1362 1338 1291 1291 1268 1268 1268 1268 1268 1247 1247 1247 1226 1226 1226 1206 1206 1206 1206 1187 1149 1149 1115 1115 1115 0 0 0 0 0
    0 0 0 0 0 0 0 0 0 0 0 0 0 0 0 0 0 0 0 0 0 0 0 0 0 0 0 0 0 0 0 0 0 0 0 0 0 0 0 0 0 0 0 0 0 0 0 0 0 0 0 0 0 0 0 0 0 0 0 0 0 0 0 0 0 0 0 0 0 1443 1443 1415 1533 1415 1415 1471 1471 1443 1471 1443 1443 1415 1443 1443 1415 1415 1443 1415 1443 1415 1443 1415 1415 1415 1388 1388 1415 1443 1443 1501 1533 1533 1533 1565 1565 1501 1471 1443 1388 1362 1388 1415 1415 1443 1471 1471 1501 1501 1501 1471 1415 1415 1388 1415 1415 1471 1471 1533 1565 1599 1635 1635 1635 1533 1415 1443 1443 1443 1443 1443 1471 1471 1501 1533 1501 1388 1471 1471 1443 1471 1501 1471 1501 1501 1635 1599 1565 1635 1501 1471 1501 1501 1415 1362 1338 0 1268 1082 0 0 782 791 782 774 735 750 750 743 758 750 750 750 750 782 750 0 0 0 0 0 0 0 0 0 826 817 808 817 766 766 766 774 782 774 774 782 774 799 782 808 808 0 1115 1132 1066 0 0 1247 1247 1268 1226 1226 1206 1471 1338 1149 1036 1008 1008 994 968 981 994 1008 1008 0 0 0 0 1989 2164 1936 0 0 0 0 0 0 0 0 808 799 799 216 1051 1051 1082 1098 1082 1082 1115 1098 1098 1149 1206 1168 0 0 0 687 694 687 694 694 663 675 651 657 669 657 663 663 663 675 0 0 1338 1362 1362 1362 1362 1314 1291 1291 1268 1268 1268 1268 1268 1247 1247 1226 1226 1226 1226 1206 1206 1187 1206 1187 1149 1168 1132 1132 1132 0 0 0 0 0
    0 0 0 0 0 0 0 0 0 0 0 0 0 0 0 0 0 0 0 0 0 0 0 0 0 0 0 0 0 0 0 0 0 0 0 0 0 0 0 0 0 0 0 0 0 0 0 0 0 0 0 0 0 0 0 0 0 0 0 0 0 0 0 0 0 0 0 0 0 1415 1443 1388 1471 1415 1415 1471 1471 1443 1443 1415 1443 1388 1415 1415 1388 1415 1415 1388 1415 1388 1415 1388 1388 1388 1362 1362 1388 1415 1415 1443 1501 1471 1471 1501 1471 1415 1415 1388 1362 1338 1362 1388 1388 1415 1471 1443 1471 1501 1471 1471 1415 1415 1388 1415 1415 1443 1443 1533 1565 1565 1599 1599 1501 1443 1388 1415 1415 1415 1415 1443 1443 1443 1471 1501 1471 1388 1471 1471 1443 1471 1471 1471 1501 1501 1635 1599 1565 1635 1501 1471 1501 1501 1443 1388 1362 0 0 1132 0 0 774 782 782 766 735 750 750 743 758 758 750 750 750 782 743 0 0 0 0 0 0 0 0 0 817 808 799 808 750 766 758 766 774 766 766 774 774 799 774 799 808 782 1051 1066 1036 1187 1226 1226 1226 1247 1226 1226 1226 1338 1338 1206 1051 1008 1008 994 0 0 0 1008 0 0 0 0 0 0 0 1795 0 217 217 0 215 218 217 216 0 799 0 216 0 1051 1098 1115 1082 1098 1132 1132 1132 1168 1226 1206 0 0 0 681 687 694 687 687 639 669 645 645 657 651 657 657 663 675 657 663 0 1338 1338 1362 1314 1314 1291 1291 1268 1291 1291 1291 1268 1247 1247 1226 1226 1226 1206 1187 1187 1168 1187 1168 1132 1168 1132 1132 1132 0 0 0 0 0
    0 0 0 0 0 0 0 0 0 0 0 0 0 0 0 0 0 0 0 0 0 0 0 0 0 0 0 0 0 0 0 0 0 0 0 0 0 0 0 0 0 0 0 0 0 0 0 0 0 0 0 0 0 0 0 0 0 0 0 0 0 0 0 0 0 0 0 0 0 1362 1388 1362 1415 1388 1388 1415 1415 1388 1415 1388 1415 1388 1388 1388 1362 1388 1388 1362 1388 1362 1388 1362 1362 1362 1338 1362 1362 1388 1388 1415 1471 1471 1443 1471 1443 1388 1388 1362 1362 1362 1362 1388 1388 1415 1471 1415 1443 1501 1443 1443 1415 1415 1388 1388 1388 1443 1415 1501 1533 1501 1471 1471 1388 1388 1362 1388 1388 1388 1415 1415 1443 1443 1471 1471 1471 1362 1471 1443 1443 1443 1471 1471 1501 1501 1635 1565 1533 1599 1501 1471 1471 1471 1443 1388 1362 0 0 0 0 0 774 782 774 758 735 750 750 743 758 758 758 750 750 782 743 750 0 0 0 0 0 0 0 0 817 799 791 799 743 766 758 766 774 766 766 774 774 799 774 799 808 799 1022 1022 1022 1168 1206 1206 1226 1247 1226 1226 1226 1314 1314 1268 1115 1036 1036 1022 0 0 994 0 0 0 1036 1022 0 1268 0 1388 0 0 0 0 215 219 219 0 0 791 0 0 0 1051 1082 1098 1082 1098 1132 1132 1132 1187 1247 1226 0 0 0 681 687 687 681 669 634 663 639 639 651 645 651 651 657 669 645 657 0 1314 1338 1362 1314 1291 1291 1314 1291 1291 1291 1291 1268 1247 1247 1226 1206 1206 1206 1187 1168 1168 1168 1149 1132 1168 1132 1132 1132 0 0 0 0 0
    0 0 0 0 0 0 0 0 0 0 0 0 0 0 0 0 0 0 0 0 0 0 0 0 0 0 0 0 0 0 0 0 0 0 0 0 0 0 0 0 0 0 0 0 0 0 0 0 0 0 0 0 0 0 0 0 0 0 0 0 0 0 0 0 0 0 0 0 0 1338 1388 1338 1362 1362 1388 1415 1415 1388 1388 1362 1388 1362 1362 1388 1362 1362 1362 1362 1388 1362 1362 1338 1338 1338 1314 1338 1362 1362 1388 1388 1443 1443 1415 1443 1415 1388 1388 1362 1362 1362 1362 1388 1388 1388 1443 1388 1415 1443 1388 1415 1388 1415 1388 1388 1388 1415 1415 1501 1501 1471 1415 1388 1362 1338 1338 1362 1362 1388 1388 1415 1415 1443 1471 1471 1443 1362 1443 1443 1415 1443 1443 1443 1471 1471 1672 1565 1501 1599 1501 1443 1471 1443 1415 1388 0 0 0 0 0 0 782 774 766 750 728 750 750 743 766 758 750 750 750 782 743 750 0 0 0 0 0 0 0 0 817 799 791 799 743 766 758 766 766 766 774 774 774 799 766 799 808 799 1022 1022 1022 1187 1226 1226 1226 1247 1226 1247 1247 1338 1314 1314 1206 1132 1115 1036 1008 1008 1008 1022 1022 1036 1022 1022 1036 1206 1247 1291 0 774 0 0 0 219 0 0 0 791 0 0 1051 1051 1066 1098 1082 1082 1132 1132 1132 1168 1226 1226 1247 1362 1291 0 0 687 669 639 623 657 634 629 639 634 639 639 645 663 634 651 0 1314 1338 1362 1338 1314 1314 1314 1314 1314 1291 1291 1268 1247 1247 1226 1206 1187 1187 1168 1168 1149 1149 1132 1132 1168 1132 1132 1149 0 0 0 0 0
    0 0 0 0 0 0 0 0 0 0 0 0 0 0 0 0 0 0 0 0 0 0 0 0 0 0 0 0 0 0 0 0 0 0 0 0 0 0 0 0 0 0 0 0 0 0 0 0 0 0 0 0 0 0 0 0 0 0 0 0 0 0 0 0 0 0 0 0 0 1338 1362 1338 1338 1362 1362 1388 1388 1362 1388 1362 1362 1362 1362 1362 1362 1362 1362 1338 1362 1338 1338 1314 1314 1314 1314 1314 1362 1338 1362 1362 1415 1388 1388 1388 1388 1338 1362 1338 1338 1338 1338 1362 1362 1388 1415 1362 1388 1388 1338 1362 1362 1362 1362 1362 1362 1388 1388 1443 1443 1415 1362 1338 1338 1314 1338 1362 1362 1362 1362 1388 1415 1415 1471 1443 1415 1338 1415 1415 1415 1388 1415 1415 1443 1443 1635 1501 1443 1565 1471 1415 1443 1443 1415 1388 0 0 0 0 0 0 791 782 766 750 728 750 750 735 766 758 750 750 750 782 743 750 0 0 0 1314 0 0 0 0 817 799 799 799 743 766 766 774 774 766 774 774 774 808 758 791 799 791 0 1036 1022 0 1247 1226 1247 1268 1247 1268 1247 1338 1338 1314 1206 1149 1132 1036 1008 1008 1008 1022 1022 1036 1022 1022 1036 1187 1206 1268 994 0 0 0 0 0 0 0 219 0 0 0 1051 1036 1051 1082 1082 1082 1115 1115 1115 1132 1206 1206 1226 1291 1226 1132 0 0 0 613 613 651 634 623 634 629 634 639 645 657 629 645 681 1338 1338 1362 1362 1314 1338 1338 1314 1314 1291 1291 1268 1247 1247 1226 1206 1187 1187 1168 1168 1149 1149 1132 1115 1168 1149 1132 1149 0 0 0 0 0
    0 0 0 0 0 0 0 0 0 0 0 0 0 0 0 0 0 0 0 0 0 0 0 0 0 0 0 0 0 0 0 0 0 0 0 0 0 0 0 0 0 0 0 0 0 0 0 0 0 0 0 0 0 0 0 0 0 0 0 0 0 0 0 0 0 0 0 0 0 1314 1338 1338 1338 1338 1338 1362 1362 1362 1362 1338 1362 1362 1338 1362 1338 1338 1338 1314 1338 1314 1314 1291 1291 1291 1291 1291 1338 1314 1362 1338 1388 1362 1338 1362 1338 1314 1338 1338 1338 1362 1362 1388 1388 1415 1443 1388 1362 1362 1314 1338 1338 1338 1314 1338 1338 1362 1338 1388 1338 1338 1291 1291 1314 1291 1338 1338 1338 1362 1362 1362 1388 1388 1443 1388 1388 1314 1362 1362 1388 1362 1388 1388 1388 1388 1599 1443 1415 1501 1471 1388 1415 1415 1415 1362 0 0 0 1132 0 0 799 782 774 758 735 750 750 735 766 750 743 743 750 774 743 750 0 0 0 1338 0 0 0 0 0 799 799 799 743 774 774 774 774 774 774 782 774 808 750 774 791 782 0 0 0 0 1247 1247 1247 1268 1268 1268 1268 1338 1314 1314 1187 1132 1115 1036 1036 0 1022 1036 0 1051 1036 1036 1115 1168 1206 1226 1008 774 0 0 0 0 0 0 220 220 0 0 1036 1036 1051 1066 1082 1082 1098 1115 1098 1115 1187 1206 1206 1268 1206 1132 1036 0 0 0 608 645 634 0 88 88 0 0 0 0 0 0 681 1362 1362 1388 1362 1314 1338 1338 1314 1314 1291 1291 1268 1247 1247 1226 1206 1187 1187 1187 1168 1132 1132 1115 1115 1168 1132 1132 1149 0 0 0 0 0
    0 0 0 0 0 0 0 0 0 0 0 0 0 0 0 0 0 0 0 0 0 0 0 0 0 0 0 0 0 0 0 0 0 0 0 0 0 0 0 0 0 0 0 0 0 0 0 0 0 0 0 0 0 0 0 0 0 0 0 0 0 0 0 0 0 0 0 0 0 1314 1338 1314 1314 1314 1338 1338 1338 1338 1338 1314 1338 1338 1338 1338 1314 1314 1314 1291 1314 1268 1291 1268 1268 1268 1268 1268 1291 1291 1314 1291 1338 1314 1314 1314 1314 1314 1338 1314 1338 1338 1338 1362 1362 1388 1415 1362 1338 1338 1291 1338 1314 1338 1314 1314 1314 1338 1338 1362 1314 1291 1268 1291 1291 1291 1314 1338 1338 1362 1338 1362 1388 1388 1415 1362 1362 1291 1338 1338 1362 1338 1362 1362 1362 1362 1565 1415 1415 1471 1471 1362 1415 1388 1388 1362 0 0 0 1132 0 0 808 791 774 758 735 750 743 735 766 750 743 743 750 774 743 750 799 728 0 0 0 0 0 0 0 791 799 799 743 774 782 782 782 782 782 782 782 808 758 766 782 774 808 0 0 0 1268 1268 1268 1291 1268 1268 1268 1291 1291 1268 1168 1115 1098 1036 1051 0 1036 1051 1051 1066 1066 1066 1168 1168 1187 1206 1022 799 0 0 0 0 0 0 0 0 0 0 1036 1022 1036 1051 1066 1066 1082 1098 1082 1115 1187 1187 1206 1247 1187 1115 1036 0 0 0 598 645 629 0 88 88 0 0 0 0 0 0 687 1338 1338 1362 1338 1291 1314 1314 1314 1314 1268 1268 1268 1247 1247 1226 1206 1187 1187 1168 1168 1132 1132 1115 1115 1168 1132 1132 1149 0 0 0 0 0
    0 0 0 0 0 0 0 0 0 0 0 0 0 0 0 0 0 0 0 0 0 0 0 0 0 0 0 0 0 0 0 0 0 0 0 0 0 0 0 0 0 0 0 0 0 0 0 0 0 0 0 0 0 0 0 0 0 0 0 0 0 0 0 0 0 0 0 0 0 1338 1338 1314 1314 1314 1338 1338 1338 1338 1338 1314 1314 1338 1314 1314 1291 1291 1291 1247 1268 1247 1268 1247 1247 1247 1247 1247 1268 1247 1268 1226 1268 1247 1247 1268 1291 1291 1314 1314 1338 1338 1338 1362 1338 1338 1362 1314 1291 1291 1268 1291 1291 1314 1291 1291 1291 1314 1314 1338 1291 1268 1247 1247 1268 1268 0 1314 1314 1338 1338 1338 1362 1362 1388 1338 1338 1291 1338 1314 1338 1338 1362 1338 1338 1362 1501 1388 1388 1415 1415 1338 1362 1362 1362 1338 1338 0 1291 1132 0 0 808 791 774 758 735 750 743 735 766 750 743 743 750 782 750 750 799 728 0 0 0 0 0 0 0 0 799 799 743 782 782 782 782 782 791 782 782 808 758 766 774 774 791 808 799 0 1291 1291 1291 1291 1291 1268 1268 1291 1268 1268 1168 1115 1098 1036 1066 1051 1036 1066 1066 1082 1082 1082 1206 1168 1187 1187 1036 0 817 0 0 0 0 0 0 0 0 886 1022 1022 1036 1051 1066 1051 1066 1082 1066 1098 1168 1187 1206 1247 1206 1132 1051 0 0 0 593 645 629 0 0 0 0 0 0 0 0 0 0 1268 1268 1314 1314 1268 1314 1291 1314 1291 1268 1247 1247 1247 1226 1206 1187 1168 1168 1168 1168 1132 1132 1115 1132 1149 1132 1132 1149 0 0 0 0 0
    0 0 0 0 0 0 0 0 0 0 0 0 0 0 0 0 0 0 0 0 0 0 0 0 0 0 0 0 0 0 0 0 0 0 0 0 0 0 0 0 0 0 0 0 0 0 0 0 0 0 0 0 0 0 0 0 0 0 0 0 0 0 0 0 0 0 0 0 0 1314 1314 1291 1268 1291 1314 1338 1338 1314 1314 1291 1291 1314 1291 1291 1268 1247 1268 1206 1268 1226 1247 1226 1247 1226 1226 1226 1247 1226 1226 1187 1247 1226 1226 1247 1268 1291 1314 1314 1338 1314 1314 1338 1314 1338 1338 1291 1268 1268 1268 1291 1291 1314 1291 1291 1291 1314 1291 1291 1247 1226 1187 1206 1226 1226 1268 1268 1291 1291 1291 1291 0 1314 0 1291 1291 1247 1314 1314 1338 1338 1338 1338 1338 1338 1471 1362 1388 1388 1388 1338 1338 1338 1338 1314 1314 0 1268 1132 1022 0 817 791 774 758 735 750 743 735 766 743 735 743 750 782 758 766 808 750 0 0 0 0 0 0 0 0 799 799 743 782 782 782 782 782 791 791 782 817 758 758 774 782 782 799 782 0 1314 1291 1291 1291 1291 1291 1268 1291 1268 1247 1149 1115 1098 1051 1082 1066 1066 1082 1082 1098 1098 1098 1206 1149 1168 1187 1036 0 0 817 845 0 0 0 0 0 908 908 1022 1022 1036 1036 1066 1051 1051 1066 1051 1082 1132 1149 1187 1226 1168 1115 1066 0 0 0 588 639 629 0 0 0 0 0 0 0 0 0 0 1226 1268 1291 1291 1268 1314 1291 1314 1291 1268 1247 1247 1226 1226 1206 1187 1168 1168 1168 1149 1132 1115 1115 1132 1132 1115 1132 1149 0 0 0 0 0
    0 0 0 0 0 0 0 0 0 0 0 0 0 0 0 0 0 0 0 0 0 0 0 0 0 0 0 0 0 0 0 0 0 0 0 0 0 0 0 0 0 0 0 0 0 0 0 0 0 0 0 0 0 0 0 0 0 0 0 0 0 0 0 0 0 0 0 0 0 1149 1226 1226 1168 1247 1268 1291 1291 1268 1268 1247 1247 1268 1226 1226 1187 1098 1206 1132 1226 1206 1247 1206 1226 1226 1206 1206 1226 1206 1187 1149 1187 1168 1187 1206 1226 1247 1268 1268 1314 1314 1314 1338 1314 1314 1314 1291 1268 1247 1268 1268 1268 1291 1268 1268 1291 1291 1291 1268 1226 1226 1168 1187 1226 1206 1247 1268 1268 1268 1268 1268 1291 1268 0 1268 1247 1206 1268 1291 1291 1314 1314 1314 1314 1314 1443 1362 1362 1362 1388 1338 1314 1314 1314 1314 1291 1291 1268 1115 1022 0 817 791 774 758 735 750 743 735 774 743 735 735 750 782 766 782 817 0 0 1206 0 0 0 0 0 0 799 799 750 782 791 782 782 791 791 791 791 817 758 758 774 791 782 791 782 0 1314 1291 1291 1291 1291 1291 1291 1268 1247 1247 1132 1115 1115 1051 1098 1098 1082 1098 1098 1132 1115 1115 1226 1168 1168 1206 1051 0 0 826 865 0 0 855 876 919 943 955 1036 1036 1036 1036 1066 1051 1051 1051 1051 1066 1132 1132 1187 1206 1168 1132 1082 1066 0 0 0 639 623 0 0 0 0 0 0 0 0 0 0 1206 1247 1268 1291 1247 1291 1291 1314 1314 1268 1247 1226 1226 1226 1206 1187 1149 1168 1149 1132 1115 1115 1115 1132 1132 1115 1115 1132 0 0 0 0 0
    0 0 0 0 0 0 0 0 0 0 0 0 0 0 0 0 0 0 0 0 0 0 0 0 0 0 0 0 0 0 0 0 0 0 0 0 0 0 0 0 0 0 0 0 0 0 0 0 0 0 0 0 0 0 0 0 0 0 0 0 0 0 0 0 0 0 0 0 0 1036 1082 1132 1066 1168 1206 1247 0 0 0 0 0 1132 1036 1008 994 981 1066 1051 1206 1168 1206 1187 1187 1187 1187 1168 1187 1149 1149 1082 1098 1098 1115 1115 1149 1149 1168 1168 0 1226 1226 1291 0 0 0 0 1268 1247 1268 1268 1268 1291 1268 1268 1268 1291 1268 1247 1206 1206 1149 1187 1206 1206 1247 1247 1268 1268 1268 1268 1291 1268 0 1268 1226 1206 1247 1268 1268 1268 1291 1291 1268 1291 1362 1314 1338 1338 1338 1291 1291 1291 1291 1268 1268 1268 1268 1115 994 0 817 791 766 758 735 750 743 735 774 728 728 728 743 782 766 782 0 0 1115 1247 1187 1066 0 0 0 0 808 791 758 782 791 791 791 791 791 791 791 817 758 758 774 791 782 782 766 0 1314 1291 1291 1291 1291 1268 1247 1247 1206 1206 1115 1115 1115 1051 1132 1115 1098 1115 1115 1149 1132 1149 1247 1187 1187 1206 1051 0 0 836 886 876 876 865 0 943 968 968 1036 1036 1036 1036 1066 1036 1051 1051 1051 1066 1132 1132 1187 1206 1187 1149 1115 1082 0 0 0 634 623 0 0 0 0 0 0 0 0 0 694 1226 1247 1268 1268 1226 1247 1268 1291 1291 1226 1206 1226 1206 1206 1187 1168 1149 1149 1149 1132 1115 1115 1115 1132 1115 1115 1115 1132 0 0 0 0 0
    0 0 0 0 0 0 0 0 0 0 0 0 0 0 0 0 0 0 0 0 0 0 0 0 0 0 0 0 0 0 0 0 0 0 0 0 0 0 0 0 0 0 0 0 0 0 0 0 0 0 0 0 0 0 0 0 0 0 0 0 0 0 0 0 0 0 0 0 0 1008 1022 1066 1022 1098 1149 1187 0 0 0 0 994 1008 981 955 955 943 994 1008 1115 1115 1168 1132 1149 1132 1132 1098 1132 1082 1115 1066 1051 1066 1066 1066 1066 1066 1066 1036 1008 1036 1022 0 0 0 0 0 0 0 1247 1247 1247 1247 1187 1206 1206 1268 1226 1132 1132 1168 1115 1168 1206 1206 1226 1268 1268 1291 1268 1268 1268 1268 0 1247 1206 1168 1206 1226 1247 1247 1247 1247 1247 1268 1314 1291 1338 1291 1291 1268 1247 1268 1268 1247 1247 1247 1247 1098 981 799 817 791 758 750 735 743 735 735 766 721 714 721 735 782 758 782 0 1115 1149 1247 1206 1066 981 0 0 808 808 791 766 791 791 791 791 799 791 791 799 808 758 758 766 782 782 782 766 758 1291 1291 1268 1268 1247 1226 1187 1187 1082 1066 1051 1082 1082 1051 1115 1115 1098 1115 1132 1168 1149 1149 1247 1168 1149 1149 1051 0 1008 836 908 886 0 876 0 955 968 981 1051 1051 1036 1051 1066 1051 1051 1036 1036 1051 1115 1149 1187 1206 1206 1149 1132 1082 0 0 0 634 623 623 623 623 629 634 634 651 623 700 694 0 1247 1247 1226 1206 1187 1226 1247 1226 1187 1168 1206 1187 1187 1187 1168 1149 1168 1149 1132 1115 1115 1115 1115 1115 1098 1115 1132 0 0 0 0 0
    0 0 0 0 0 0 0 0 0 0 0 0 0 0 0 0 0 0 0 0 0 0 0 0 0 0 0 0 0 0 0 0 0 0 0 0 0 0 0 0 0 0 0 0 0 0 0 0 0 0 0 0 0 0 0 0 0 0 0 0 0 0 0 0 0 0 0 0 0 943 955 994 955 1008 1066 1082 0 0 0 981 943 968 943 931 919 919 955 968 1036 1051 1082 1066 1066 1082 1082 1051 1066 1036 1082 1051 1036 1036 1036 1036 1022 1022 1022 1008 968 994 981 968 0 0 225 223 0 0 1314 1247 1268 1206 0 1066 1066 1187 1098 1008 1051 1098 1066 1168 1206 1206 1206 1247 1268 1268 1247 1247 1247 1187 0 0 1115 1115 1132 1168 1187 1206 1206 1226 1187 1226 0 1226 0 1168 1206 0 1168 1226 1226 1206 1206 0 1226 1066 931 791 808 782 758 750 743 743 735 735 774 714 707 714 728 774 758 791 1082 1082 1066 1149 1098 1036 931 826 808 808 808 791 774 791 799 799 799 799 791 791 799 808 766 758 766 782 782 782 774 766 1268 1268 1226 1206 1206 1149 1082 1082 1022 994 1008 1036 1036 1022 1098 1098 1098 1115 1132 1149 1132 1132 1226 1132 1132 1098 1022 994 897 836 897 876 0 0 0 0 0 0 1066 1051 1051 1051 1066 1051 1051 1051 1051 1066 1115 1168 1187 1206 1206 1168 1149 1082 0 0 0 639 623 629 629 629 634 639 645 657 634 700 687 0 1226 1206 1187 1168 1149 1187 1187 1168 1149 1132 1187 1168 1168 1132 1168 1149 1149 1115 1132 1115 1115 1115 1132 1098 1098 1115 1132 0 0 0 0 0
    0 0 0 0 0 0 0 0 0 0 0 0 0 0 0 0 0 0 0 0 0 0 0 0 0 0 0 0 0 0 0 0 0 0 0 0 0 0 0 0 0 0 0 0 0 0 0 0 0 0 0 0 0 0 0 0 0 0 0 0 0 0 0 0 0 0 0 0 0 908 908 931 897 943 968 1008 968 955 968 931 897 931 919 908 908 919 943 931 981 1022 1022 1022 0 1036 1022 0 0 994 1022 1022 981 1008 994 981 968 968 968 955 919 968 919 931 0 0 0 0 0 0 0 1268 0 1036 0 955 955 1008 981 955 981 1022 1008 1132 1168 1168 1187 1206 1226 1226 1206 1206 0 0 0 0 1036 1051 1066 1082 1098 1132 1132 1168 1115 1149 0 1115 0 1022 1066 1082 1051 1149 1149 0 0 0 0 1022 886 791 808 782 766 750 750 743 735 743 782 721 714 714 728 791 774 826 1036 1036 1008 1022 1008 994 876 808 808 808 808 791 782 791 799 799 799 799 791 791 799 808 766 758 766 782 791 791 791 791 0 1226 1187 1115 1082 1066 1008 1008 981 931 955 994 1008 1008 1066 1082 1082 1115 1115 1149 1115 1115 1206 1082 1082 1051 968 919 876 836 886 865 0 0 0 0 0 0 1051 1051 1066 1066 1066 1066 1066 1051 1051 1082 1132 1187 1187 1206 1206 1149 1149 1082 0 0 0 639 623 634 634 634 645 651 651 663 639 694 681 0 1168 1187 1168 1149 1149 1168 1149 1149 1149 1132 1168 1132 1132 1098 1149 1149 1149 1098 1115 1115 1132 1132 1132 1098 1098 1115 1115 0 0 0 0 0
    0 0 0 0 0 0 0 0 0 0 0 0 0 0 0 0 0 0 0 0 0 0 0 0 0 0 0 0 0 0 0 0 0 0 0 0 0 0 0 0 0 0 0 0 0 0 0 0 0 0 0 0 0 0 0 0 0 0 0 0 0 0 0 0 0 0 0 0 0 876 865 876 865 886 886 955 897 897 931 897 876 908 908 897 897 908 919 908 943 981 955 955 943 968 968 943 943 943 943 981 919 968 943 919 908 931 931 919 897 931 897 897 919 931 0 0 0 0 0 0 0 943 876 876 876 919 919 908 919 968 955 1082 1098 1098 1115 1168 1168 1187 1149 1132 0 994 0 0 994 1022 1036 1036 1036 1066 1051 1082 1066 0 0 0 0 955 994 0 994 1051 0 0 0 0 0 0 855 791 799 782 766 758 766 750 743 750 799 735 728 735 774 826 836 865 994 994 968 968 955 931 865 808 817 808 808 791 782 782 791 791 799 791 782 782 799 799 774 766 774 791 791 799 808 799 0 1132 1115 1066 1036 1036 981 981 968 919 943 968 994 981 1051 1082 1082 1098 1115 1149 1115 1082 1187 1051 1051 1008 919 897 865 836 876 865 855 855 0 0 0 0 1051 1051 1066 1066 1082 1066 1082 1066 1051 1082 1115 1187 1187 1187 1206 1149 1132 1066 0 0 0 634 623 639 639 639 645 657 657 669 651 700 694 0 1115 1149 1149 1115 1115 1149 1115 1132 1115 1115 1132 1098 1098 1066 1132 1115 1098 1082 1082 1098 1115 1115 1132 1082 1082 1115 1115 0 0 0 0 0
    0 0 0 0 0 0 0 0 0 0 0 0 0 0 0 0 0 0 0 0 0 0 0 0 0 0 0 0 0 0 0 0 0 0 0 0 0 0 0 0 0 0 0 0 0 0 0 0 0 0 0 0 0 0 0 0 0 0 0 0 0 0 0 0 0 0 0 0 0 845 845 855 845 855 855 897 865 876 897 876 876 897 897 897 886 897 908 897 908 955 886 897 876 897 897 886 876 886 876 908 876 919 897 876 876 886 897 886 876 908 876 886 897 908 897 0 886 0 0 0 845 865 845 845 855 865 886 886 886 931 919 1036 1036 1036 1051 1066 1066 1082 1051 1036 981 955 943 0 955 955 994 981 981 1008 981 0 1008 0 0 931 897 908 931 943 955 994 994 0 0 0 0 0 0 791 791 782 766 758 774 743 743 743 791 735 714 714 791 845 855 865 981 981 955 931 931 908 865 817 826 817 808 791 782 782 782 791 799 791 774 782 791 799 774 774 774 791 791 791 808 808 0 1082 1082 1036 1022 1008 943 931 919 886 897 897 943 919 1036 1051 1051 1082 1098 1132 1098 1066 1149 1036 1022 981 886 886 865 836 876 855 845 855 886 0 0 0 1066 1066 1066 1066 1082 1066 1066 1051 1051 1066 1115 1187 1187 1187 1206 1168 1115 1051 0 0 0 634 618 645 645 639 651 657 663 669 663 707 707 0 1082 1115 1115 1098 1098 1115 1115 1132 1098 1098 1082 1066 1066 1036 1066 1051 1051 1051 1051 1082 1098 1098 1115 1082 1082 1115 1115 0 0 0 0 0
    0 0 0 0 0 0 0 0 0 0 0 0 0 0 0 0 0 0 0 0 0 0 0 0 0 0 0 0 0 0 0 0 0 0 0 0 0 0 0 0 0 0 0 0 0 0 0 0 0 0 0 0 0 0 0 0 0 0 0 0 0 0 0 0 0 0 0 0 0 836 836 845 845 855 845 876 855 865 886 865 865 886 886 886 876 886 886 886 897 931 865 876 855 876 865 865 855 865 845 855 845 876 865 855 865 876 876 876 865 897 865 876 886 886 876 0 876 865 845 0 826 836 826 836 836 845 865 876 876 897 886 994 994 994 1008 994 994 0 994 981 943 931 908 865 908 908 943 931 931 955 919 0 968 0 931 886 876 876 876 886 908 943 943 955 897 0 0 0 836 791 791 774 766 758 766 743 735 735 782 750 743 735 799 855 876 876 955 968 943 908 908 897 865 826 836 826 817 799 799 799 791 791 808 791 774 782 791 791 774 774 782 791 791 799 808 817 0 1036 1051 1022 994 955 908 886 886 865 865 865 886 876 994 1022 1036 1051 1082 1115 1082 1051 1132 1008 994 931 855 876 855 836 865 855 845 855 886 955 0 1008 1082 1066 1066 1066 1066 1066 1066 1036 1036 1051 1098 1187 1187 1149 1187 1149 1082 1022 0 0 623 634 618 645 645 639 651 657 669 669 669 707 707 0 1036 1066 1082 1066 1082 1098 1082 1098 1082 1082 1066 1051 1066 1036 1051 1036 1036 1036 1036 1082 1082 1066 1098 1066 1082 1115 1115 0 0 0 0 0
    0 0 0 0 0 0 0 0 0 0 0 0 0 0 0 0 0 0 0 0 0 0 0 0 0 0 0 0 0 0 0 0 0 0 0 0 0 0 0 0 0 0 0 0 0 0 0 0 0 0 0 0 0 0 0 0 0 0 0 0 0 0 0 0 0 0 0 0 0 817 826 826 826 845 836 865 845 855 865 855 865 876 876 876 865 876 876 865 876 908 845 855 845 855 845 845 836 845 826 836 826 855 845 845 855 865 865 865 865 886 865 865 876 886 865 865 855 855 826 817 817 817 808 826 826 836 855 855 865 886 865 943 943 931 943 908 897 908 931 931 897 897 886 855 886 886 908 886 897 908 876 886 919 876 876 855 855 855 855 865 886 908 897 919 876 0 0 855 836 799 791 782 774 758 766 743 735 735 774 766 758 750 774 836 855 855 931 943 908 876 886 876 865 836 836 826 817 808 817 808 799 799 808 799 774 782 791 791 774 774 782 791 791 799 817 817 836 981 1008 981 968 919 886 886 876 855 855 855 865 855 897 981 994 1008 1051 1082 1051 1022 1066 981 931 886 845 865 855 836 865 845 845 855 876 943 968 1008 1066 1066 1066 1066 1051 1051 1051 1036 1036 1036 1082 1187 1115 1098 1132 1098 1036 855 0 0 634 634 618 645 645 639 651 657 669 669 669 700 707 721 994 1036 1036 1036 1051 1066 1082 1082 1066 1066 1051 1051 1066 1036 1036 1022 1022 1022 1022 1066 1066 1066 1082 1066 1082 1115 1115 0 0 0 0 0
    0 0 0 0 0 0 0 0 0 0 0 0 0 0 0 0 0 0 0 0 0 0 0 0 0 0 0 0 0 0 0 0 0 0 0 0 0 0 0 0 0 0 0 0 0 0 0 0 0 0 0 0 0 0 0 0 0 0 0 0 0 0 0 0 0 0 0 0 0 799 808 791 817 817 817 836 826 836 855 845 855 865 865 865 855 865 865 855 865 886 826 836 836 836 826 817 817 817 808 817 817 836 836 836 855 865 865 865 855 886 865 865 876 876 855 855 855 845 826 808 799 808 799 817 826 826 845 845 855 865 855 897 876 876 886 865 855 865 876 886 876 876 865 845 865 865 876 865 865 876 855 855 876 845 845 845 845 845 845 855 876 886 886 897 876 0 0 0 836 799 782 782 774 758 758 735 728 735 758 774 774 766 782 826 855 845 886 897 876 855 865 855 855 826 826 817 808 808 817 808 799 799 817 799 774 782 791 791 774 782 782 782 791 808 817 817 836 908 968 955 943 886 876 876 876 855 845 845 845 836 845 886 897 886 1008 1036 1022 981 1008 943 876 855 836 855 845 826 845 836 836 845 865 919 943 994 1066 1066 1066 1051 1051 1051 1036 1022 1022 1022 1051 1098 994 931 865 0 0 799 728 663 651 645 623 645 645 639 651 657 669 669 669 700 700 707 908 955 1022 1022 1036 1051 1066 1082 1066 1082 1051 1051 1066 1036 1051 1022 1008 1022 1008 1066 1066 1051 1051 1051 1082 1115 1115 0 0 0 0 0</data></depth>
</opencv_storage>
