<?xml version="1.0"?>
<opencv_storage>
<gps_time_stamp>19695</gps_time_stamp>
<gps_x>-8.9354103803634644e-001</gps_x>
<gps_y>7.6007127761840820e-002</gps_y>
<gps_z>8.4861053619533777e-004</gps_z>
<image_time_stamp>7667</image_time_stamp>
<depth type_id="opencv-matrix">
  <rows>86</rows>
  <cols>320</cols>
  <dt>s</dt>
  <data>
    0 0 0 0 0 0 0 0 0 0 0 0 0 0 0 0 0 0 0 0 0 0 0 0 0 0 0 0 0 0 0 0 0 0 0 0 0 0 0 0 0 0 0 0 0 0 0 0 0 0 0 0 0 0 0 0 0 0 0 0 0 0 0 0 0 0 0 0 0 1388 1388 1501 1501 1501 1443 1415 1338 1291 1291 1226 1268 1268 1268 1268 1268 1291 0 0 1362 1362 1362 1388 1388 1362 1415 1362 1338 1338 1314 1268 1268 1268 1291 1314 1314 1338 1338 1362 1388 1314 1338 1291 1291 1291 1338 1362 1362 1362 1388 1415 1443 1415 1415 1362 1314 1338 1338 1362 1362 1362 1362 1388 1362 1388 1362 1338 1362 1362 1338 1388 1388 1388 1388 1443 1443 1415 1415 1471 1415 1443 1388 1471 1415 1388 1415 1388 1415 1415 1415 1471 1443 1443 1471 1443 1443 1415 1388 1415 1388 1388 1388 1415 1388 1388 1415 1415 1362 1338 1291 1291 1291 1247 1268 1268 1268 1291 1291 1268 1291 1268 1291 1268 1291 1291 1247 1268 1314 1314 1291 1291 1314 1314 1314 1362 1268 1168 1226 1082 968 994 994 994 981 981 981 981 981 1291 1291 1338 1314 1187 1066 1051 1022 886 943 943 908 919 919 931 919 919 994 943 955 1291 1291 1291 1291 1314 1314 1314 1314 1314 1314 1187 1066 0 0 675 0 0 0 657 663 669 669 681 669 657 657 0 0 0 608 0 603 603 0 0 663 1036 1022 1066 1098 1082 1082 1066 1066 1036 0 0 0 561 545 545 545 553 545 553 557 553 545 549 545 533 533 533 529 529 529 525 521 521 525 514 514 497 477 477 468 462 471 0 0 0 0 0
    0 0 0 0 0 0 0 0 0 0 0 0 0 0 0 0 0 0 0 0 0 0 0 0 0 0 0 0 0 0 0 0 0 0 0 0 0 0 0 0 0 0 0 0 0 0 0 0 0 0 0 0 0 0 0 0 0 0 0 0 0 0 0 0 0 0 0 0 0 1362 1338 1415 1415 1388 1362 1338 1291 1268 1226 1187 1247 1226 1226 1226 1247 1247 0 1291 1314 1314 1362 1362 1362 1338 1362 1338 1291 1291 1268 1247 1247 1247 1268 1268 1268 1291 1268 1268 1314 1247 1268 1247 1247 1268 1291 1314 1338 1338 1388 1415 1443 1388 1388 1338 1291 1314 1314 1338 1338 1338 1338 1362 1362 1388 1362 1338 1362 1338 1314 1338 1338 1362 1362 1415 1388 1388 1388 1415 1388 1415 1388 1443 1388 1388 1388 1362 1388 1388 1388 1415 1415 1415 1415 1415 1415 1388 1362 1388 1362 1362 1338 1362 1338 1338 1362 1362 1338 1314 1268 1268 1268 1226 1268 1247 1247 1268 1268 1268 1268 1247 1291 1268 1291 1291 1247 1291 1314 1314 1314 1291 1314 1291 1291 1338 1247 1149 1206 1082 981 994 1008 994 994 981 994 981 981 1247 1226 1314 1291 1132 1036 1022 1008 886 943 943 919 919 919 943 919 931 994 981 981 1187 1226 1226 1247 1268 1247 1268 1268 1291 1291 1149 1022 0 0 675 0 0 663 663 663 675 669 681 669 669 669 0 0 0 608 0 603 603 0 0 645 1066 1066 1132 1149 1132 1132 1115 1098 1098 1098 1082 0 0 0 0 533 0 537 549 553 549 537 545 537 533 533 537 529 533 529 529 521 521 525 518 514 500 481 481 471 468 474 0 0 0 0 0
    0 0 0 0 0 0 0 0 0 0 0 0 0 0 0 0 0 0 0 0 0 0 0 0 0 0 0 0 0 0 0 0 0 0 0 0 0 0 0 0 0 0 0 0 0 0 0 0 0 0 0 0 0 0 0 0 0 0 0 0 0 0 0 0 0 0 0 0 0 1338 1314 1362 1362 1314 1291 1291 1247 1226 1206 1187 1226 1206 1206 1206 1206 1226 1226 1247 1268 1268 1291 1291 1314 1268 1291 1291 1247 1268 1247 1226 1226 1226 1247 1247 1226 1247 1206 1187 1226 1149 1187 1187 1206 1226 1247 1291 1291 1314 1362 1388 1415 1362 1338 1314 1247 1268 1268 1291 1291 1291 1314 1314 1314 1338 1314 1314 1291 1291 1291 1291 1291 1291 1314 1338 1338 1338 1338 1362 1338 1388 1362 1388 1338 1338 1338 1314 1314 1314 1314 1338 1338 1338 1362 1338 1338 1338 1338 1338 1314 1291 1291 1314 1291 1291 1291 1291 1291 1268 1226 1247 1247 1206 1226 1226 1226 1226 1247 1247 1247 1247 1268 1268 1291 1291 1268 1314 1314 1314 1314 1291 1314 1291 1291 1338 1247 1149 1187 1082 968 994 994 994 981 981 981 981 981 1187 1132 1268 1226 1098 1022 1008 1008 886 943 943 919 919 919 943 931 931 1008 994 1008 1168 1187 1187 1226 1247 1226 1226 1247 1291 1291 1132 994 0 0 681 0 634 663 663 657 669 669 681 669 669 669 0 0 0 603 0 603 598 603 598 634 1098 1082 1149 1168 1168 1168 1168 1149 1149 1187 1168 1149 0 0 0 0 0 0 541 0 541 529 533 529 525 525 533 529 533 533 529 525 521 521 514 511 504 487 484 477 481 481 0 0 0 0 0
    0 0 0 0 0 0 0 0 0 0 0 0 0 0 0 0 0 0 0 0 0 0 0 0 0 0 0 0 0 0 0 0 0 0 0 0 0 0 0 0 0 0 0 0 0 0 0 0 0 0 0 0 0 0 0 0 0 0 0 0 0 0 0 0 0 0 0 0 0 0 1291 1314 1314 1291 1268 1247 1226 1206 1206 1187 1226 1206 1206 1187 1187 1206 1187 1206 1247 1206 1247 1226 1247 1206 1247 1247 1206 1226 1226 1206 1226 1206 1226 1226 1206 1226 1168 1132 1168 1098 1149 1149 1168 1187 1206 1226 1247 1268 1314 1338 1362 1314 1291 1268 1206 1247 1247 1247 1268 1247 1268 1268 1268 1291 1268 1268 1247 1247 1247 1226 1247 1247 1268 1268 1268 1268 1268 1268 1291 1314 1314 1314 1291 1268 1291 1247 1268 1268 1268 1291 1291 1268 1291 1268 1314 1291 1291 1268 1268 1268 1247 1268 1268 1268 1268 1268 1291 1247 1206 1226 1206 1168 1206 1187 1206 1187 1206 1226 1226 1226 1247 1247 1268 1268 1268 1291 1291 1291 1291 1268 1291 1268 1247 1268 1187 1082 1066 1036 943 981 981 981 981 981 981 981 981 1132 1082 1206 1187 1082 1008 1008 994 886 943 943 908 919 919 943 919 931 994 981 994 1082 1098 1082 1098 1098 1098 1082 1168 1247 1268 1098 968 0 0 0 0 639 669 663 657 669 663 675 657 663 663 0 0 0 0 0 0 603 598 598 623 1149 1115 1149 1168 1168 1168 1168 1187 1206 1226 1226 1206 0 0 0 0 0 0 0 0 0 0 574 533 529 533 537 537 537 537 525 525 521 514 507 504 500 487 487 484 487 484 0 0 0 0 0
    0 0 0 0 0 0 0 0 0 0 0 0 0 0 0 0 0 0 0 0 0 0 0 0 0 0 0 0 0 0 0 0 0 0 0 0 0 0 0 0 0 0 0 0 0 0 0 0 0 0 0 0 0 0 0 0 0 0 0 0 0 0 0 0 0 0 0 0 0 1268 1268 1291 1291 1268 1226 1226 1206 1206 1187 1168 1206 1187 1187 1206 1187 1206 1187 1206 1226 1187 1206 1149 1187 1149 1206 1206 1168 1206 1206 1187 1226 1206 1226 1226 1206 1206 1168 1115 1149 1082 1132 1132 1149 1168 1168 1187 1206 1206 1268 1268 1291 1268 1226 1226 1168 1226 1206 1206 1226 1226 1226 1247 1247 1268 1247 1247 1226 1206 1226 1187 1206 1206 1206 1206 1206 1206 1206 1206 1247 1226 1268 1247 1247 1226 1247 1206 1226 1226 1226 1247 1247 1247 1247 1226 1268 1247 1268 1226 1247 1226 1226 1247 1247 1247 1247 1247 1268 1247 1206 1226 1206 1168 1187 1187 1187 1149 1187 1206 1187 1187 1226 1206 1206 1206 1247 1226 1247 1247 1247 1247 1247 1226 1187 1149 1082 1036 0 1022 908 968 968 981 994 994 994 994 981 1098 1051 1149 1115 1051 994 994 981 886 931 931 908 908 908 931 908 931 994 968 981 1036 1036 1022 1022 994 1022 1008 1022 1132 1187 1066 908 0 663 687 0 639 669 663 651 663 663 669 651 657 657 608 0 0 0 0 0 0 598 593 623 0 1132 1149 1149 1168 1168 1168 1168 1187 1226 1226 1206 1206 1187 0 0 0 0 0 0 0 0 0 525 561 541 553 553 549 541 529 525 518 507 504 504 500 490 490 487 487 487 0 0 0 0 0
    0 0 0 0 0 0 0 0 0 0 0 0 0 0 0 0 0 0 0 0 0 0 0 0 0 0 0 0 0 0 0 0 0 0 0 0 0 0 0 0 0 0 0 0 0 0 0 0 0 0 0 0 0 0 0 0 0 0 0 0 0 0 0 0 0 0 0 0 0 0 1247 1268 1291 1268 1206 1206 1187 1206 1187 1168 1187 1168 1187 1187 1187 1206 1187 1206 1226 1187 1206 1115 1149 0 1168 1168 1115 1168 1187 1168 1206 1187 1206 1187 1168 1187 1149 1098 1132 1066 1115 1115 1132 1149 1149 1149 1187 1187 1247 1247 1247 1226 1187 1206 1149 1206 1187 1187 1206 1206 1226 1226 1247 1268 1247 1226 1226 1206 1206 1149 1187 1168 1187 1149 1168 1168 1168 1168 1226 1187 1226 1206 1226 1187 1226 1168 1187 1187 1206 1206 1206 1206 1226 1187 1247 1226 1268 1206 1226 1206 1226 1226 1247 1226 1247 1247 1268 1247 1206 1226 1187 1168 1168 1168 1187 1149 1168 1187 1168 1168 1206 1206 1187 1187 1247 1206 1226 1247 1247 1226 1226 1187 1115 1051 1022 931 845 968 876 955 955 981 981 994 994 981 981 1066 1022 1051 1036 1036 955 981 955 886 931 919 897 897 908 931 908 919 994 968 981 1022 1022 1022 994 955 943 955 955 981 968 981 855 743 687 694 694 639 669 663 651 663 663 663 651 657 657 608 0 0 0 0 0 0 598 0 639 0 1098 1132 1115 1132 1149 1132 1149 1149 1187 1187 1168 1168 1149 1187 1168 1066 0 0 0 0 0 0 0 584 549 584 603 593 561 537 533 521 504 497 500 493 487 490 487 484 481 0 0 0 0 0
    0 0 0 0 0 0 0 0 0 0 0 0 0 0 0 0 0 0 0 0 0 0 0 0 0 0 0 0 0 0 0 0 0 0 0 0 0 0 0 0 0 0 0 0 0 0 0 0 0 0 0 0 0 0 0 0 0 0 0 0 0 0 0 0 0 0 0 0 0 0 1226 1226 1268 1247 1187 1187 1168 1187 1132 1132 1168 1132 1149 1168 1187 1187 1168 1206 1226 1168 1226 1066 1098 0 1115 1132 1082 1132 1149 1115 1187 1132 1168 1132 1098 1132 1082 1051 1098 1051 1098 1098 1115 1132 1149 1149 1187 1168 1226 1206 1206 1149 1115 1149 1098 1168 1149 1168 1187 1206 1226 1226 1226 1268 1226 1226 1206 1187 1187 1132 1168 1149 1149 1115 1115 1132 1132 1115 1187 1132 1206 1168 1226 1168 1206 1132 1168 1168 1168 1168 1168 1168 1187 1132 1206 1149 1187 1098 1149 1149 1168 1206 1206 1206 1226 1226 1247 1247 1187 1206 1168 1149 1149 1168 1168 1132 1168 1187 1168 1168 1187 1187 1168 1168 1226 1168 1206 1226 1206 1206 1168 1098 1036 955 919 886 855 919 876 931 943 968 981 981 994 981 968 1036 994 1008 994 994 931 955 943 876 919 919 897 897 908 919 897 919 981 955 981 1008 994 981 0 0 0 876 886 886 886 886 845 758 707 700 700 645 669 669 651 663 663 663 651 657 657 608 0 0 0 0 0 0 598 0 663 0 1051 1082 1066 1082 1098 1098 1115 1098 1115 1149 1115 1098 1098 1098 1036 994 1008 981 919 836 0 0 0 639 593 0 608 598 579 557 545 529 514 507 511 497 490 493 487 481 481 0 0 0 0 0
    0 0 0 0 0 0 0 0 0 0 0 0 0 0 0 0 0 0 0 0 0 0 0 0 0 0 0 0 0 0 0 0 0 0 0 0 0 0 0 0 0 0 0 0 0 0 0 0 0 0 0 0 0 0 0 0 0 0 0 0 0 0 0 0 0 0 0 0 0 0 1132 1149 1168 1187 1115 1132 1149 1132 1082 1082 1132 1082 1115 1149 1149 1132 1115 1187 1187 0 1226 994 1036 0 1036 1051 1051 1066 1082 1051 1115 1051 1066 1051 1022 0 1008 994 1051 1022 1066 1066 1082 1115 1115 1115 1149 1132 1187 1149 1132 1051 1036 0 0 1098 1082 1098 1132 1149 1206 1206 1206 1247 1206 1168 1168 1132 1149 1082 1115 1098 1098 1066 1066 1066 1066 1051 1082 1036 1066 1051 1187 1132 1168 1082 1115 1132 1132 1115 1115 1098 1115 1066 1132 1066 0 0 1036 1051 1082 1115 1115 0 1168 1187 1226 1226 1187 1187 1168 1168 1149 1168 1168 1115 1149 1149 1132 1149 1149 1149 1115 1115 1206 1098 1149 1187 1149 1115 1098 1036 981 876 865 855 845 865 855 897 897 931 955 968 968 968 955 1008 955 981 968 955 908 943 919 876 908 908 897 897 897 919 897 919 981 931 955 968 919 0 0 0 0 845 855 845 845 855 836 774 721 721 707 651 675 669 657 663 663 663 651 657 657 613 0 0 0 0 0 0 0 0 681 681 0 0 1036 1036 1066 1082 1082 1066 1082 1098 1098 1082 1098 1082 1036 994 1022 994 943 886 897 886 826 700 651 675 634 618 579 0 537 521 514 514 514 500 497 497 487 481 477 0 0 0 0 0
    0 0 0 0 0 0 0 0 0 0 0 0 0 0 0 0 0 0 0 0 0 0 0 0 0 0 0 0 0 0 0 0 0 0 0 0 0 0 0 0 0 0 0 0 0 0 0 0 0 0 0 0 0 0 0 0 0 0 0 0 0 0 0 0 0 0 0 0 0 0 994 1022 0 1082 1036 1066 1082 1051 1036 1036 1066 1022 1051 1066 1051 0 0 0 0 0 0 897 955 943 981 994 1008 1022 1036 0 1036 994 994 981 968 968 968 943 0 1008 1036 1036 1051 1082 1098 1082 1115 1098 1098 0 1066 981 0 897 0 0 0 0 1051 0 1149 1115 1115 1187 1098 1098 1066 1066 1082 1036 1066 1051 1051 0 0 0 1036 1022 1036 994 981 981 1115 1082 1115 1051 1082 1082 1082 1066 1066 1051 1051 1036 1066 0 0 0 955 0 0 0 0 0 1082 1098 1187 1187 1187 1168 1149 1168 1115 1168 1149 1098 1115 1115 1098 1098 1098 1098 1051 1051 1132 1022 1051 1098 1082 1036 1051 1008 931 845 836 845 826 836 836 865 865 876 931 931 943 955 955 1008 931 968 943 931 886 908 897 865 886 897 886 886 897 908 886 908 968 897 919 897 855 836 826 826 817 826 836 826 826 836 826 774 728 721 707 651 675 669 657 663 663 663 651 651 651 608 0 0 0 0 0 0 0 0 681 687 808 0 931 968 1036 1051 1051 1036 1051 1051 1066 1051 1066 1066 1022 994 1022 994 968 943 994 943 865 750 0 0 694 0 0 0 0 507 500 500 511 507 518 514 497 484 481 0 0 0 0 0
    0 0 0 0 0 0 0 0 0 0 0 0 0 0 0 0 0 0 0 0 0 0 0 0 0 0 0 0 0 0 0 0 0 0 0 0 0 0 0 0 0 0 0 0 0 0 0 0 0 0 0 0 0 0 0 0 0 0 0 0 0 0 0 0 0 0 0 0 0 968 908 886 845 981 919 0 0 994 981 968 981 908 0 0 955 845 0 826 0 0 0 876 919 919 955 968 994 994 1008 955 0 943 908 908 886 886 908 886 968 968 1008 1022 1022 1051 1066 1051 1066 1051 0 0 0 855 865 845 0 0 0 943 981 0 1036 1022 1051 1051 1036 1036 0 0 1036 981 0 1022 1022 0 0 0 981 943 955 931 886 919 1036 1036 1066 1022 0 1051 1066 1051 1036 1022 1022 0 0 0 0 0 886 0 0 0 0 0 0 0 1149 1168 1187 1149 1115 1132 1082 1132 1115 1066 1082 1082 1066 1051 1051 1051 1008 1008 1022 994 981 1008 1022 994 1022 943 876 826 826 826 817 817 817 836 836 836 886 876 897 931 955 994 919 968 919 897 876 886 876 855 876 876 876 876 876 897 886 908 955 886 897 876 845 826 826 817 817 817 826 817 817 826 817 766 0 721 707 657 675 675 657 663 663 663 645 651 651 608 0 0 0 0 0 0 0 0 681 687 791 808 826 817 836 0 931 908 1008 1022 1051 1022 1036 1036 994 955 1008 981 943 931 955 943 886 0 0 0 707 0 0 0 514 497 497 497 507 504 507 0 0 0 481 0 0 0 0 0
    0 0 0 0 0 0 0 0 0 0 0 0 0 0 0 0 0 0 0 0 0 0 0 0 0 0 0 0 0 0 0 0 0 0 0 0 0 0 0 0 0 0 0 0 0 0 0 0 0 0 0 0 0 0 0 0 0 0 0 0 0 0 0 0 0 0 0 0 0 908 876 855 826 845 845 0 0 931 897 897 876 855 0 865 876 826 817 826 817 0 0 855 908 908 943 943 955 943 955 886 919 876 855 855 855 855 865 855 908 931 955 981 981 1022 1051 1022 1036 1022 0 0 836 836 845 836 826 0 855 865 886 897 981 968 1008 994 1008 994 955 0 994 919 0 0 981 919 0 0 908 876 876 876 855 876 0 1008 1036 1008 0 1036 1036 1036 0 0 0 0 0 0 0 886 865 845 0 886 0 0 0 0 0 0 1149 1066 1051 1066 1036 1082 1082 1051 1051 1051 1036 1036 1022 1022 994 968 981 955 908 955 968 931 943 876 855 808 817 817 808 799 808 817 817 817 855 845 855 886 931 968 897 943 897 886 865 865 865 855 855 865 855 855 865 876 865 886 908 855 855 845 826 817 817 808 808 817 817 817 808 826 808 766 0 728 714 669 681 675 663 663 663 663 645 645 645 613 0 0 613 0 0 0 0 0 687 687 782 799 817 808 817 817 817 817 817 0 0 919 968 981 931 886 919 919 886 876 865 897 865 845 817 799 750 766 743 0 0 0 493 487 511 507 0 0 0 0 0 0 0 0 0 0
    0 0 0 0 0 0 0 0 0 0 0 0 0 0 0 0 0 0 0 0 0 0 0 0 0 0 0 0 0 0 0 0 0 0 0 0 0 0 0 0 0 0 0 0 0 0 0 0 0 0 0 0 0 0 0 0 0 0 0 0 0 0 0 0 0 0 0 0 0 865 855 845 826 826 826 799 0 855 845 855 845 845 836 836 845 826 817 817 808 0 0 836 865 876 897 908 908 886 908 855 876 855 845 845 845 845 855 845 886 897 897 955 955 1008 1036 0 0 0 0 0 826 826 836 826 817 826 836 836 845 855 908 897 943 943 968 919 908 897 919 876 0 0 931 886 0 865 865 855 845 855 845 855 0 968 1008 968 0 1008 0 0 0 0 0 0 955 908 886 865 855 0 855 865 865 876 897 0 0 0 1051 981 981 981 994 1051 1051 1022 1022 1022 1008 994 994 981 955 931 943 931 876 919 931 897 908 865 855 799 817 817 808 791 799 808 808 808 836 826 826 826 865 897 855 908 865 865 865 855 855 845 836 845 845 845 845 845 845 855 865 845 836 836 808 808 808 799 799 799 808 799 799 817 799 758 0 735 714 675 687 675 669 669 663 663 645 645 645 613 613 613 618 618 623 0 0 0 681 687 774 791 808 799 817 808 799 799 799 808 808 817 826 826 855 845 855 865 845 836 826 845 845 845 836 826 808 836 826 808 0 0 0 0 0 504 0 0 0 0 0 0 0 0 0 0
    0 0 0 0 0 0 0 0 0 0 0 0 0 0 0 0 0 0 0 0 0 0 0 0 0 0 0 0 0 0 0 0 0 0 0 0 0 0 0 0 0 0 0 0 0 0 0 0 0 0 0 0 0 0 0 0 0 0 0 0 0 0 0 0 0 0 0 0 0 845 845 845 826 826 836 817 826 836 826 845 836 836 836 826 836 826 817 817 808 0 0 836 855 865 865 876 876 865 876 845 855 845 836 845 845 845 845 836 876 865 865 908 919 908 994 0 0 865 0 0 826 826 817 817 817 817 826 826 836 836 845 855 855 0 908 855 865 855 865 855 0 0 876 855 845 845 845 836 836 845 836 836 826 886 919 897 897 955 0 968 0 0 0 0 897 876 865 855 0 0 845 855 845 855 865 836 0 0 955 897 908 943 955 994 1022 1008 943 981 955 943 931 919 919 886 897 908 855 897 908 886 897 865 845 791 817 817 808 782 791 791 791 791 817 799 799 799 826 826 817 845 836 836 855 845 845 836 826 836 826 826 826 826 826 836 836 817 808 808 774 782 791 782 782 791 791 791 799 808 782 750 0 735 714 675 681 675 669 669 663 663 645 645 645 618 618 613 618 618 623 623 0 651 687 687 766 791 808 799 808 808 791 791 791 791 799 799 799 808 817 817 826 826 817 817 808 826 817 836 836 836 826 845 855 865 855 845 799 0 0 0 0 0 0 0 0 0 0 0 0 0
    0 0 0 0 0 0 0 0 0 0 0 0 0 0 0 0 0 0 0 0 0 0 0 0 0 0 0 0 0 0 0 0 0 0 0 0 0 0 0 0 0 0 0 0 0 0 0 0 0 0 0 0 0 0 0 0 0 0 0 0 0 0 0 0 0 0 0 0 0 836 836 836 836 826 836 817 817 826 817 826 826 826 826 826 826 826 826 826 817 0 0 845 855 845 855 845 845 836 845 826 836 836 836 836 836 836 845 836 865 845 845 855 855 836 855 0 0 817 0 0 826 826 808 817 808 817 826 826 826 826 826 826 836 0 865 836 845 845 845 845 0 855 855 845 836 836 826 826 826 826 826 826 826 865 876 865 865 908 897 908 897 0 0 865 865 855 845 0 0 0 836 0 845 845 855 826 836 836 865 855 865 886 908 897 968 943 865 919 886 876 876 876 876 865 865 876 845 865 876 865 865 845 845 782 808 808 808 774 782 791 782 782 808 782 782 782 808 808 799 817 817 817 836 836 826 826 817 817 817 817 817 808 808 808 766 750 750 758 743 766 774 766 782 782 791 791 799 808 782 743 0 728 714 675 681 675 669 663 663 663 645 645 645 618 618 613 623 618 623 629 618 657 687 687 774 791 799 791 799 799 782 782 782 791 791 791 791 791 808 808 817 817 808 808 808 826 817 836 836 836 817 845 855 855 845 845 791 758 758 0 0 0 0 0 0 0 0 0 0 0
    0 0 0 0 0 0 0 0 0 0 0 0 0 0 0 0 0 0 0 0 0 0 0 0 0 0 0 0 0 0 0 0 0 0 0 0 0 0 0 0 0 0 0 0 0 0 0 0 0 0 0 0 0 0 0 0 0 0 0 0 0 0 0 0 0 0 0 0 0 826 836 845 836 826 826 817 817 817 808 826 817 817 817 817 826 826 817 826 817 0 0 836 845 826 826 817 808 808 817 799 817 817 817 826 826 836 836 826 845 826 826 826 826 817 826 817 808 808 799 0 826 817 799 817 808 808 817 817 817 817 817 826 817 836 845 826 836 836 836 836 836 845 845 836 826 826 826 817 817 817 817 826 826 845 845 855 845 876 865 876 865 855 855 855 845 845 845 0 0 0 845 0 836 845 845 826 826 826 836 836 865 876 886 865 886 876 836 865 855 845 845 845 855 855 845 855 836 836 855 845 845 836 836 774 808 808 799 766 782 782 782 782 808 782 782 782 808 799 782 799 791 791 817 817 817 817 808 808 808 799 799 782 791 774 735 743 743 750 743 758 774 766 774 782 782 791 791 808 774 743 0 728 714 675 681 669 669 663 663 663 645 645 645 618 618 613 623 623 623 629 618 657 681 687 782 799 799 791 799 799 782 782 766 782 774 774 774 774 791 791 799 808 791 799 799 817 817 836 836 836 817 836 836 836 826 817 791 774 766 735 707 0 0 0 0 0 0 0 0 0
    0 0 0 0 0 0 0 0 0 0 0 0 0 0 0 0 0 0 0 0 0 0 0 0 0 0 0 0 0 0 0 0 0 0 0 0 0 0 0 0 0 0 0 0 0 0 0 0 0 0 0 0 0 0 0 0 0 0 0 0 0 0 0 0 0 0 0 0 0 826 826 836 826 817 817 808 808 808 808 817 808 817 817 817 826 0 0 817 808 0 0 826 826 817 817 817 799 799 808 791 808 808 808 808 817 817 817 817 817 808 799 808 808 808 817 808 799 808 799 782 817 799 782 799 791 799 808 808 808 808 817 817 817 826 845 826 836 836 836 836 845 845 845 836 817 826 817 817 817 808 808 808 817 826 817 826 826 855 845 845 845 836 836 836 836 836 836 0 0 0 836 0 0 826 836 817 817 817 817 826 855 865 876 845 855 845 826 845 845 836 836 836 845 845 826 836 826 826 826 826 826 817 817 766 799 799 791 750 774 782 774 774 799 774 774 774 799 782 774 791 782 774 808 799 799 808 799 799 799 791 791 774 782 766 743 743 750 750 750 750 766 750 758 766 766 774 782 799 766 743 707 728 714 681 687 669 669 663 663 663 639 639 639 623 623 618 623 623 623 629 618 645 669 675 799 808 808 791 799 799 782 782 766 774 766 758 758 758 766 774 774 791 774 782 782 799 808 836 826 836 808 826 817 817 799 782 774 758 750 743 714 0 0 0 0 0 0 0 0 0
    0 0 0 0 0 0 0 0 0 0 0 0 0 0 0 0 0 0 0 0 0 0 0 0 0 0 0 0 0 0 0 0 0 0 0 0 0 0 0 0 0 0 0 0 0 0 0 0 0 0 0 0 0 0 0 0 0 0 0 0 0 0 0 0 0 0 0 0 0 817 817 826 808 808 808 799 808 808 799 817 808 808 817 808 817 808 808 0 0 0 0 0 845 826 826 808 791 791 799 782 791 799 791 799 799 799 799 799 799 799 782 791 791 799 817 799 799 799 782 774 799 766 758 791 774 782 791 799 799 799 808 808 808 826 845 826 826 836 836 836 836 836 845 836 817 826 808 808 808 799 799 799 799 808 791 808 799 826 817 817 826 817 826 826 826 826 826 0 0 0 817 817 808 808 808 799 791 782 782 791 799 826 836 817 836 836 817 845 845 836 836 0 836 836 817 826 808 808 817 808 808 799 799 766 791 791 782 750 774 774 774 774 799 774 774 774 799 774 766 774 766 766 782 782 782 799 782 782 791 774 782 774 782 766 743 750 750 750 758 750 758 743 750 750 743 758 766 782 743 728 0 721 714 681 687 669 669 669 663 663 645 645 639 623 629 618 623 623 623 629 618 634 651 657 0 817 808 799 791 799 782 782 750 758 758 743 750 750 758 766 774 782 782 774 791 808 808 845 826 836 799 808 808 799 766 750 750 728 728 735 714 0 0 0 0 0 0 0 0 0
    0 0 0 0 0 0 0 0 0 0 0 0 0 0 0 0 0 0 0 0 0 0 0 0 0 0 0 0 0 0 0 0 0 0 0 0 0 0 0 0 0 0 0 0 0 0 0 0 0 0 0 0 0 0 0 0 0 0 0 0 0 0 0 0 0 0 0 0 0 799 808 808 791 799 791 791 799 808 799 808 799 808 799 799 799 791 0 0 0 0 0 0 855 836 817 799 766 782 791 774 782 791 774 791 791 791 791 782 791 782 758 782 774 791 808 791 782 791 750 735 782 728 743 766 758 774 774 782 791 782 799 799 791 817 836 826 826 826 836 826 836 836 836 826 808 817 799 799 799 791 791 782 791 791 774 782 766 799 799 799 808 799 817 817 826 826 817 0 0 799 799 799 782 782 791 774 766 758 758 774 758 799 791 791 817 817 808 836 836 836 836 826 826 826 799 808 799 799 799 791 799 791 782 758 782 782 774 750 774 774 774 774 791 774 774 766 791 766 758 758 750 758 750 743 743 774 750 766 774 758 774 766 774 774 743 758 750 750 758 750 750 728 735 743 735 750 750 766 735 728 0 721 707 681 687 669 675 669 669 669 645 645 645 629 634 618 629 623 629 629 618 639 645 651 0 808 791 782 782 791 774 766 735 750 743 735 743 750 750 758 766 782 782 782 791 808 817 845 836 826 791 791 799 774 743 728 728 721 721 728 707 669 0 0 0 0 0 0 0 0
    0 0 0 0 0 0 0 0 0 0 0 0 0 0 0 0 0 0 0 0 0 0 0 0 0 0 0 0 0 0 0 0 0 0 0 0 0 0 0 0 0 0 0 0 0 0 0 0 0 0 0 0 0 0 0 0 0 0 0 0 0 0 0 0 0 0 0 0 0 791 799 808 782 791 782 791 791 799 791 799 791 791 782 782 782 766 0 0 0 0 0 0 0 817 808 791 758 782 782 774 782 782 766 782 782 782 782 774 782 774 758 774 766 782 808 774 766 774 735 721 750 714 728 743 743 758 758 766 774 766 791 782 774 799 826 808 817 817 826 826 836 836 836 817 799 817 782 791 791 782 782 774 774 774 758 774 750 774 782 774 782 782 799 808 808 808 0 0 0 782 774 774 758 766 774 758 758 743 750 766 750 791 766 774 799 808 808 826 836 826 826 817 817 817 782 799 791 791 791 782 791 774 774 758 774 782 774 750 774 774 774 774 791 774 766 766 782 758 750 750 743 750 735 728 728 750 735 758 766 750 766 758 766 758 735 750 735 735 750 743 735 721 728 735 728 750 750 750 728 721 694 714 707 675 687 669 675 669 669 669 645 645 645 629 634 623 629 623 629 634 623 651 645 651 0 808 791 782 766 774 758 758 728 743 735 735 735 743 743 750 750 774 774 766 782 799 799 817 799 791 758 758 766 750 728 714 728 714 714 721 707 657 0 0 0 0 0 0 0 0
    0 0 0 0 0 0 0 0 0 0 0 0 0 0 0 0 0 0 0 0 0 0 0 0 0 0 0 0 0 0 0 0 0 0 0 0 0 0 0 0 0 0 0 0 0 0 0 0 0 0 0 0 0 0 0 0 0 0 0 0 0 0 0 0 0 0 0 0 0 791 799 808 782 791 791 791 791 791 782 791 782 791 766 766 766 0 0 0 0 0 0 0 0 808 799 782 750 782 774 766 774 774 758 774 766 774 766 766 766 758 750 758 758 782 808 766 750 758 721 714 735 707 721 735 735 743 743 750 758 750 782 758 758 782 799 799 817 817 817 817 836 826 0 808 0 799 758 782 774 766 766 758 766 758 750 766 750 766 774 766 774 774 791 799 799 791 782 0 782 766 750 766 743 750 758 750 758 743 750 766 750 782 758 766 791 799 791 808 826 808 817 808 817 817 774 791 782 782 782 774 774 758 766 758 766 774 774 750 766 774 774 774 782 766 766 766 782 750 743 743 735 743 721 721 721 728 721 743 758 743 758 750 758 750 735 743 728 728 743 735 735 721 728 735 728 750 743 743 721 714 681 707 700 675 681 669 675 669 669 669 651 651 645 634 639 623 634 629 634 634 629 657 645 645 0 817 799 782 758 774 750 743 714 735 728 721 728 735 728 735 735 750 743 743 758 766 758 766 735 743 735 735 735 728 721 707 714 714 714 721 700 639 0 0 0 0 0 0 0 0
    0 0 0 0 0 0 0 0 0 0 0 0 0 0 0 0 0 0 0 0 0 0 0 0 0 0 0 0 0 0 0 0 0 0 0 0 0 0 0 0 0 0 0 0 0 0 0 0 0 0 0 0 0 0 0 0 0 0 0 0 0 0 0 0 0 0 0 0 0 782 782 799 774 791 782 791 791 791 782 782 774 782 750 750 0 0 0 0 0 0 0 774 799 791 782 774 743 774 766 758 766 766 750 766 750 766 750 750 750 750 743 750 750 782 799 743 735 743 721 714 728 700 721 721 728 735 735 743 743 743 774 743 750 766 758 791 808 791 799 791 808 0 0 0 0 774 728 766 758 750 758 750 750 750 743 766 743 758 766 758 766 766 782 791 782 766 743 728 766 750 735 750 735 750 750 743 750 735 750 758 750 782 743 750 766 774 774 766 791 766 791 791 799 799 758 782 774 774 774 774 766 750 758 758 766 774 766 750 766 774 774 782 774 766 766 766 774 750 743 743 735 750 721 714 721 721 721 735 743 728 750 743 750 743 728 735 728 728 743 735 735 721 728 735 735 758 743 735 714 707 675 700 687 663 681 669 669 669 669 669 651 657 645 634 639 629 634 629 634 639 629 663 645 645 0 826 808 799 766 782 750 743 707 728 721 714 714 721 721 728 728 743 735 735 758 750 735 743 721 728 721 721 728 721 721 707 714 707 707 714 694 639 0 0 0 0 0 0 0 0
    0 0 0 0 0 0 0 0 0 0 0 0 0 0 0 0 0 0 0 0 0 0 0 0 0 0 0 0 0 0 0 0 0 0 0 0 0 0 0 0 0 0 0 0 0 0 0 0 0 0 0 0 0 0 0 0 0 0 0 0 0 0 0 0 0 0 0 0 0 758 750 782 750 774 774 774 782 782 774 782 758 782 743 743 0 0 0 0 0 0 0 0 766 766 750 758 735 766 758 750 758 750 743 758 743 750 743 743 743 743 743 743 750 782 791 743 721 735 714 714 721 700 721 721 728 735 728 735 743 743 774 735 750 750 721 766 782 766 766 750 735 0 0 0 721 728 714 750 743 743 750 743 750 743 743 766 743 758 766 758 758 766 782 791 774 750 728 0 758 735 728 743 728 743 743 743 750 735 750 758 743 774 0 735 743 743 750 728 743 728 750 758 782 782 743 766 758 766 766 766 766 750 750 758 758 766 766 758 774 782 782 782 774 774 766 766 774 743 743 735 735 750 721 721 721 721 714 721 728 714 728 735 743 735 728 735 728 728 735 735 735 721 728 735 728 750 735 728 714 700 675 694 687 669 681 669 669 669 669 663 651 657 645 639 645 629 634 634 639 639 634 663 634 639 681 0 0 0 728 750 728 728 700 721 721 707 707 714 714 721 721 728 728 728 750 743 728 728 714 721 714 714 714 714 714 700 707 700 707 714 694 634 0 0 0 0 0 0 0 0
    0 0 0 0 0 0 0 0 0 0 0 0 0 0 0 0 0 0 0 0 0 0 0 0 0 0 0 0 0 0 0 0 0 0 0 0 0 0 0 0 0 0 0 0 0 0 0 0 0 0 0 0 0 0 0 0 0 0 0 0 0 0 0 0 0 0 0 0 0 743 743 766 743 766 766 766 774 774 774 774 758 774 735 743 0 0 0 0 0 0 0 0 0 743 735 743 735 758 750 750 758 750 735 750 735 750 735 743 735 735 743 743 750 782 791 735 721 735 714 714 721 700 721 714 721 728 728 735 735 735 774 735 750 735 700 735 766 743 728 721 707 714 721 721 714 714 707 743 743 735 743 743 743 743 743 766 743 758 766 758 758 766 782 799 774 750 721 714 750 735 721 743 0 743 743 743 750 735 743 758 743 774 0 735 735 735 735 721 728 714 728 735 766 758 735 758 758 758 758 758 758 743 750 758 758 766 766 766 774 791 791 791 766 774 774 774 774 743 743 735 743 750 721 721 714 714 707 707 714 707 714 721 721 721 714 728 721 721 728 728 728 721 721 728 721 728 721 721 707 700 681 700 681 675 681 669 669 669 669 663 651 657 639 639 645 629 634 634 639 639 634 663 629 634 669 0 0 603 0 0 0 675 675 707 714 700 700 707 714 721 714 728 728 728 750 735 728 728 714 714 714 714 714 707 714 700 700 700 700 0 687 623 0 0 0 0 0 0 0 0
    0 0 0 0 0 0 0 0 0 0 0 0 0 0 0 0 0 0 0 0 0 0 0 0 0 0 0 0 0 0 0 0 0 0 0 0 0 0 0 0 0 0 0 0 0 0 0 0 0 0 0 0 0 0 0 0 0 0 0 0 0 0 0 0 0 0 0 0 0 735 735 750 735 758 758 758 766 766 766 774 758 774 735 743 735 728 0 0 0 0 0 0 0 728 728 735 728 758 743 743 750 743 735 750 735 750 735 743 735 735 735 743 743 782 782 728 714 721 707 707 714 700 721 721 728 735 728 735 735 743 782 735 758 728 694 721 743 721 700 700 700 707 714 714 714 714 707 743 743 735 743 743 743 735 735 766 743 750 758 750 758 766 782 799 782 758 0 714 743 728 721 743 0 743 743 743 750 735 750 758 743 774 728 735 735 728 728 714 721 714 721 728 758 743 735 750 750 758 758 758 758 743 750 758 758 766 758 766 774 791 791 791 743 774 774 774 766 735 743 743 743 758 714 714 714 714 707 700 700 694 700 700 700 700 694 714 707 707 721 714 714 707 707 714 707 714 707 707 694 687 681 694 681 681 681 675 675 675 669 663 657 663 639 639 645 629 634 634 639 639 634 663 629 629 663 618 618 588 0 0 0 0 681 714 721 707 707 707 714 714 714 721 721 721 735 721 721 721 714 721 714 714 714 707 714 700 694 700 687 0 669 0 124 0 0 0 0 0 0 0
    0 0 0 0 0 0 0 0 0 0 0 0 0 0 0 0 0 0 0 0 0 0 0 0 0 0 0 0 0 0 0 0 0 0 0 0 0 0 0 0 0 0 0 0 0 0 0 0 0 0 0 0 0 0 0 0 0 0 0 0 0 0 0 0 0 0 0 0 0 728 728 750 735 758 750 758 758 766 766 766 758 774 735 743 735 735 728 728 721 0 0 0 0 0 714 721 714 743 735 743 750 743 735 743 735 750 735 743 735 735 735 735 743 774 766 714 700 721 707 707 714 700 721 721 728 735 735 743 743 743 782 735 758 721 687 700 700 694 681 687 681 694 0 707 707 714 707 743 743 735 743 743 743 735 735 766 743 750 758 750 750 766 774 791 774 750 0 707 743 728 721 743 728 743 743 743 750 743 750 766 743 774 728 735 735 728 721 714 714 714 714 721 743 735 735 750 750 758 758 758 758 743 750 758 758 766 766 766 774 782 782 791 743 774 774 774 766 735 743 743 743 750 714 714 714 707 707 694 687 687 687 687 675 675 675 694 694 700 707 707 714 707 707 707 700 700 700 694 681 681 675 687 669 675 681 669 669 675 669 663 657 663 634 645 645 634 634 634 645 639 634 663 629 629 657 629 629 603 0 0 0 0 0 728 728 707 700 694 694 700 694 700 694 694 714 700 707 714 707 714 714 714 707 707 714 700 687 694 675 663 645 0 0 0 0 0 0 0 0 0
    0 0 0 0 0 0 0 0 0 0 0 0 0 0 0 0 0 0 0 0 0 0 0 0 0 0 0 0 0 0 0 0 0 0 0 0 0 0 0 0 0 0 0 0 0 0 0 0 0 0 0 0 0 0 0 0 0 0 0 0 0 0 0 0 0 0 0 0 0 728 0 750 735 750 750 758 758 758 766 766 750 774 728 735 735 728 728 721 714 0 0 700 0 0 0 0 707 728 721 728 735 735 728 735 728 743 728 735 728 728 735 735 735 766 735 700 694 714 707 707 714 700 721 721 728 735 728 743 735 735 782 728 750 707 681 694 694 681 675 681 669 681 681 687 700 700 700 743 743 735 743 743 743 735 735 766 735 743 758 750 750 758 766 782 758 728 700 707 735 728 721 743 728 743 743 743 750 735 743 758 743 766 728 728 728 721 714 714 714 714 714 721 743 735 728 743 743 750 750 758 750 743 750 750 758 758 758 766 774 782 782 782 735 774 774 774 758 735 743 743 735 750 714 714 707 707 700 694 681 681 681 675 663 669 663 681 681 694 707 707 707 700 700 707 694 694 694 687 681 675 675 681 663 675 675 669 669 669 669 651 651 663 634 645 645 634 639 639 645 639 639 663 634 634 651 634 634 623 634 645 0 675 681 721 714 694 681 663 669 669 669 681 675 675 694 687 707 714 714 714 714 707 707 707 707 700 681 687 663 651 634 603 0 0 0 0 0 0 0 0
    0 0 0 0 0 0 0 0 0 0 0 0 0 0 0 0 0 0 0 0 0 0 0 0 0 0 0 0 0 0 0 0 0 0 0 0 0 0 0 0 0 0 0 0 0 0 0 0 0 0 0 0 0 0 0 0 0 0 0 0 0 0 0 0 0 0 0 0 0 721 728 743 728 758 750 750 750 758 766 766 750 774 728 735 735 728 721 721 714 707 694 694 694 694 694 700 700 714 714 721 728 721 721 728 721 735 721 728 721 728 728 728 728 743 707 687 687 707 700 707 707 694 714 714 721 728 728 735 735 735 782 735 758 714 687 694 700 687 681 681 669 675 675 681 694 700 700 743 743 735 743 735 735 735 735 758 728 743 750 743 743 750 766 782 750 728 687 687 735 721 721 735 728 735 735 735 735 728 735 743 728 743 707 714 707 714 714 714 714 714 714 721 743 728 728 743 743 743 750 750 743 743 750 750 750 743 743 743 750 766 743 758 728 766 774 774 766 735 743 743 743 758 721 721 707 707 700 687 675 675 675 675 657 669 651 675 675 687 700 700 700 694 694 700 687 694 687 687 675 675 675 681 663 675 669 669 663 669 663 645 651 657 629 639 639 634 634 639 645 639 639 663 634 634 651 639 634 634 639 639 0 657 669 0 700 669 675 657 657 651 669 675 675 675 694 694 707 714 714 714 714 707 700 700 707 694 675 681 651 639 629 603 0 0 0 0 0 0 0 0
    0 0 0 0 0 0 0 0 0 0 0 0 0 0 0 0 0 0 0 0 0 0 0 0 0 0 0 0 0 0 0 0 0 0 0 0 0 0 0 0 0 0 0 0 0 0 0 0 0 0 0 0 0 0 0 0 0 0 0 0 0 0 0 0 0 0 0 0 0 700 714 735 728 750 750 750 750 750 766 758 750 774 0 0 721 714 714 707 700 694 681 681 681 681 681 687 687 707 700 714 721 721 714 728 721 728 721 721 714 721 721 721 714 707 694 675 675 694 687 694 694 687 714 707 721 721 721 728 728 735 782 735 758 714 687 694 700 687 687 687 675 681 681 687 694 700 700 743 735 728 735 728 728 721 721 735 714 728 735 728 735 743 758 774 750 735 694 694 721 714 714 721 714 728 728 728 728 721 721 728 714 728 700 700 694 707 707 714 707 714 714 721 735 721 728 735 735 743 743 743 743 735 750 743 735 721 721 721 728 735 714 721 714 758 774 766 758 735 743 750 743 758 714 714 707 700 700 681 675 675 675 669 657 669 651 663 669 663 675 687 687 687 687 694 675 681 681 687 675 675 675 675 663 681 669 669 657 663 657 645 645 651 623 639 639 634 634 639 645 639 645 663 634 639 657 645 639 645 657 651 663 657 657 687 687 663 663 645 645 639 657 675 675 663 700 694 707 721 714 714 714 707 700 700 707 694 669 675 639 639 623 598 0 0 0 0 0 0 0 0
    0 0 0 0 0 0 0 0 0 0 0 0 0 0 0 0 0 0 0 0 0 0 0 0 0 0 0 0 0 0 0 0 0 0 0 0 0 0 0 0 0 0 0 0 0 0 0 0 0 0 0 0 0 0 0 0 0 0 0 0 0 0 0 0 0 0 0 0 0 681 694 714 714 735 735 735 735 735 743 735 728 735 0 0 700 700 694 687 687 681 669 669 663 669 669 675 675 687 694 700 714 714 714 721 721 721 714 714 707 714 707 707 707 694 687 663 669 675 669 681 681 675 700 700 714 714 714 721 721 735 774 735 758 714 687 694 694 687 687 687 681 681 687 687 694 700 707 743 728 721 721 714 714 714 714 721 700 707 714 714 721 728 743 766 735 735 694 681 714 694 707 714 0 721 714 721 707 707 707 707 700 707 694 694 687 700 700 707 707 707 707 714 728 721 721 728 735 735 735 735 728 728 743 735 728 707 707 700 707 714 694 700 700 743 766 758 750 728 743 750 743 750 714 714 700 694 694 675 669 669 669 669 651 657 645 645 651 629 629 669 669 675 687 687 669 681 681 681 669 669 669 675 657 675 669 663 657 657 651 639 639 645 623 639 639 634 634 634 639 639 645 657 634 634 651 639 639 645 657 651 663 651 651 681 687 663 657 639 639 634 651 669 669 634 0 707 714 728 714 714 707 707 687 694 707 687 657 669 634 634 623 593 0 0 0 0 0 0 0 0
    0 0 0 0 0 0 0 0 0 0 0 0 0 0 0 0 0 0 0 0 0 0 0 0 0 0 0 0 0 0 0 0 0 0 0 0 0 0 0 0 0 0 0 0 0 0 0 0 0 0 0 0 0 0 0 0 0 0 0 0 0 0 0 0 0 0 0 0 0 669 681 700 694 721 714 714 707 700 714 707 694 0 675 675 681 681 675 675 675 669 657 651 651 651 657 663 663 675 681 687 700 700 700 707 714 707 700 700 694 700 694 694 694 681 681 657 663 669 651 675 669 669 694 694 700 707 707 714 707 728 758 728 750 714 687 687 687 675 681 681 675 675 681 681 687 694 707 735 721 714 714 700 707 700 700 700 687 694 700 700 707 707 728 743 721 721 694 669 694 663 700 700 694 707 700 707 700 694 700 694 694 694 687 687 681 694 694 700 700 700 707 714 721 714 721 721 728 728 721 721 714 721 728 714 700 687 694 694 694 694 687 687 694 728 750 743 735 721 735 743 735 735 700 707 694 687 687 675 663 663 663 663 645 651 645 634 634 618 613 645 639 663 675 675 663 669 669 675 663 669 669 669 657 675 657 657 651 645 645 639 634 634 623 634 634 629 634 634 634 634 639 651 629 629 639 639 639 645 651 651 657 651 651 675 675 657 645 629 634 629 651 669 663 623 0 675 681 0 707 639 639 639 639 681 694 687 651 663 634 634 618 588 0 0 0 0 0 0 0 0
    0 0 0 0 0 0 0 0 0 0 0 0 0 0 0 0 0 0 0 0 0 0 0 0 0 0 0 0 0 0 0 0 0 0 0 0 0 0 0 0 0 0 0 0 0 0 0 0 0 0 0 0 0 0 0 0 0 0 0 0 0 0 0 0 0 0 0 0 0 657 675 681 681 707 694 687 687 675 681 675 663 675 651 651 663 651 651 657 657 651 645 639 645 645 651 651 651 657 669 669 687 687 687 694 700 694 694 694 687 687 687 687 681 663 669 645 663 657 639 663 651 657 681 681 687 694 694 700 694 714 735 714 735 707 681 681 681 675 681 675 675 669 675 675 675 687 694 728 714 700 694 687 694 687 681 687 675 681 687 687 694 694 700 707 700 700 675 645 639 629 675 669 675 687 687 694 681 681 687 681 687 687 681 681 681 694 694 700 694 700 700 707 714 707 714 714 714 714 714 707 700 700 707 694 687 675 681 681 687 687 675 681 687 721 728 721 721 714 728 728 721 721 694 694 687 675 681 669 663 663 663 663 645 651 645 629 623 613 608 629 623 645 657 657 651 663 663 663 657 663 663 663 651 669 651 645 645 639 639 634 634 629 623 634 634 629 634 634 634 634 639 645 629 629 639 634 639 645 651 657 657 651 645 669 663 651 639 629 629 629 639 657 645 623 0 629 618 0 0 608 608 608 623 687 700 687 657 669 634 639 618 588 0 0 0 0 0 0 0 0
    0 0 0 0 0 0 0 0 0 0 0 0 0 0 0 0 0 0 0 0 0 0 0 0 0 0 0 0 0 0 0 0 0 0 0 0 0 0 0 0 0 0 0 0 0 0 0 0 0 0 0 0 0 0 0 0 0 0 0 0 0 0 0 0 0 0 0 0 0 651 669 669 669 687 681 669 669 663 663 651 639 651 634 639 639 634 639 645 645 645 645 639 645 639 651 651 645 645 657 657 675 675 675 681 687 681 687 681 681 687 681 681 669 651 657 639 657 645 634 657 639 651 675 669 675 681 681 687 681 700 707 694 707 694 675 681 681 675 681 681 675 669 675 663 663 669 681 707 694 687 681 675 681 675 669 675 669 669 675 681 687 675 687 687 681 669 639 629 618 618 639 634 651 663 669 675 657 669 675 675 681 681 681 681 681 694 694 694 687 687 694 694 700 687 700 700 707 707 707 694 694 687 694 681 675 669 675 675 681 675 669 675 681 707 714 707 707 707 714 714 707 707 687 687 675 663 675 663 663 663 663 663 639 645 645 618 613 608 603 618 613 629 639 639 639 657 651 657 651 657 657 657 645 663 639 639 639 629 639 634 629 629 623 634 634 629 634 629 629 629 639 645 629 629 634 634 639 645 651 651 651 639 639 657 645 634 623 613 613 608 618 623 613 603 603 623 618 608 613 613 608 613 618 663 669 651 639 657 629 639 618 588 0 0 0 0 0 0 0 0
    0 0 0 0 0 0 0 0 0 0 0 0 0 0 0 0 0 0 0 0 0 0 0 0 0 0 0 0 0 0 0 0 0 0 0 0 0 0 0 0 0 0 0 0 0 0 0 0 0 0 0 0 0 0 0 0 0 0 0 0 0 0 0 0 0 0 0 0 0 645 663 657 663 675 669 657 657 651 645 634 629 634 623 629 629 629 629 645 639 645 639 634 645 639 651 645 645 639 645 645 663 663 669 675 681 675 687 675 681 681 675 675 657 639 651 639 657 645 634 657 634 645 663 657 663 663 663 669 663 687 687 675 694 687 675 681 681 681 687 687 675 675 675 663 657 657 663 681 663 669 663 657 669 663 663 663 663 663 663 675 681 669 681 675 663 645 634 629 623 618 634 629 639 645 651 657 645 657 669 669 675 675 675 675 681 694 694 694 681 681 681 681 694 675 681 675 694 694 694 681 681 669 681 669 663 663 663 663 669 663 663 669 675 694 700 694 700 694 707 707 700 694 675 681 669 657 669 663 657 663 657 657 639 645 651 618 613 608 603 613 613 618 629 629 629 651 645 645 645 645 645 651 639 639 629 629 629 623 629 629 629 623 623 629 634 629 634 629 623 629 639 639 629 629 634 634 639 645 639 634 634 629 623 634 629 629 618 613 608 608 613 613 608 603 603 623 623 623 618 618 618 618 623 639 645 639 634 651 634 639 618 584 0 0 0 0 0 0 0 0
    0 0 0 0 0 0 0 0 0 0 0 0 0 0 0 0 0 0 0 0 0 0 0 0 0 0 0 0 0 0 0 0 0 0 0 0 0 0 0 0 0 0 0 0 0 0 0 0 0 0 0 0 0 0 0 0 0 0 0 0 0 0 0 0 0 0 0 0 0 645 657 645 657 663 663 645 645 639 634 629 623 623 618 618 618 618 623 639 634 645 639 634 639 639 651 645 645 639 645 645 663 663 669 669 681 669 681 669 675 669 663 663 645 634 645 639 651 645 634 651 629 645 657 645 651 651 651 657 645 675 669 657 675 675 669 681 681 681 687 687 681 681 681 675 663 663 663 663 645 657 651 645 657 651 657 657 657 663 663 669 675 663 675 663 651 639 639 629 629 623 634 634 639 645 651 651 639 651 657 663 669 669 669 675 675 694 694 694 687 681 681 675 681 657 657 651 675 675 681 663 669 657 669 663 657 657 663 657 669 657 657 663 669 681 687 681 687 681 694 694 687 681 669 675 663 645 669 657 663 663 657 651 639 645 651 618 613 608 608 613 613 613 618 618 623 639 639 639 639 639 639 645 634 629 618 618 618 613 623 623 623 618 623 629 629 629 634 623 618 623 639 634 629 629 634 634 634 639 634 629 623 623 618 623 623 623 618 618 613 623 623 629 618 603 613 623 623 629 623 623 623 623 629 639 645 634 634 651 639 645 618 0 0 0 0 0 0 0 0 0
    0 0 0 0 0 0 0 0 0 0 0 0 0 0 0 0 0 0 0 0 0 0 0 0 0 0 0 0 0 0 0 0 0 0 0 0 0 0 0 0 0 0 0 0 0 0 0 0 0 0 0 0 0 0 0 0 0 0 0 0 0 0 0 0 0 0 0 0 0 639 657 645 651 651 657 639 645 639 629 629 618 618 618 618 613 613 618 634 634 639 639 629 645 639 651 645 645 639 645 639 663 657 663 663 681 669 681 663 669 663 657 651 639 629 639 634 651 645 634 651 629 645 651 639 645 639 645 651 639 675 645 639 669 669 663 675 675 681 681 687 681 681 681 675 669 669 663 657 639 645 645 639 651 645 651 651 651 663 663 663 669 657 669 657 645 639 639 634 634 629 639 639 645 651 657 657 639 651 657 657 663 669 669 669 669 694 687 694 687 681 675 669 675 657 651 645 663 669 669 651 663 651 669 657 657 657 663 663 669 657 663 663 669 681 669 669 675 675 681 681 669 669 663 675 663 639 663 663 663 663 657 651 634 639 651 613 613 608 608 613 608 608 603 603 613 629 623 629 629 634 629 634 623 618 613 613 613 608 618 618 618 618 623 623 629 623 629 618 613 618 634 618 618 623 623 623 629 634 623 623 618 618 613 618 613 618 613 608 603 608 603 608 593 584 574 608 613 623 623 623 623 623 629 634 639 634 634 651 645 645 618 0 0 0 0 0 0 0 0 0
    0 0 0 0 0 0 0 0 0 0 0 0 0 0 0 0 0 0 0 0 0 0 0 0 0 0 0 0 0 0 0 0 0 0 0 0 0 0 0 0 0 0 0 0 0 0 0 0 0 0 0 0 0 0 0 0 0 0 0 0 0 0 0 0 0 0 0 0 0 639 657 645 651 645 651 639 639 639 629 623 618 618 618 618 613 608 618 634 634 639 639 634 645 639 651 651 645 639 645 639 663 651 657 663 675 663 675 663 669 657 657 645 634 629 639 634 645 639 634 651 629 645 657 645 645 645 645 651 645 675 651 639 663 663 663 669 669 675 675 681 675 0 681 669 669 669 663 651 639 645 645 639 651 645 645 651 651 657 657 663 669 657 663 651 645 639 645 639 639 634 645 645 645 651 663 651 639 651 657 663 663 669 669 669 675 694 687 694 681 675 675 669 675 657 657 645 663 663 669 645 663 651 663 657 657 657 663 657 669 657 663 663 669 675 663 663 663 663 675 675 657 663 657 669 663 639 663 663 663 663 657 651 634 634 651 613 608 613 608 613 608 608 598 593 603 608 603 608 608 618 613 623 618 608 608 613 608 608 618 618 618 618 629 629 629 629 634 618 613 618 634 603 598 608 608 608 613 618 618 623 613 613 608 613 608 608 603 603 588 593 588 588 584 579 570 598 603 613 608 613 613 613 613 623 634 629 634 651 657 657 618 0 0 0 0 0 0 0 0 0
    0 0 0 0 0 0 0 0 0 0 0 0 0 0 0 0 0 0 0 0 0 0 0 0 0 0 0 0 0 0 0 0 0 0 0 0 0 0 0 0 0 0 0 0 0 0 0 0 0 0 0 0 0 0 0 0 0 0 0 0 0 0 0 0 0 0 0 0 0 639 657 645 657 651 657 639 645 639 634 629 618 618 618 618 608 608 613 629 629 639 645 634 645 639 651 651 645 639 645 639 657 651 657 657 669 657 669 651 663 651 651 645 634 629 639 634 651 645 639 663 634 651 657 645 651 651 645 651 645 675 657 639 669 669 663 675 675 675 669 675 669 0 0 663 663 663 663 651 645 639 645 639 651 639 645 651 645 651 657 657 663 645 657 645 639 639 645 639 639 634 639 645 639 645 657 645 634 651 657 663 663 669 669 675 675 694 687 694 687 681 675 663 669 651 651 645 657 657 663 639 663 645 663 651 657 657 657 657 669 657 663 663 669 681 663 663 669 669 675 675 657 663 657 669 663 634 663 657 657 663 657 639 629 634 651 613 613 613 613 608 608 608 588 584 588 593 584 584 593 598 598 618 608 598 603 608 608 603 608 608 608 608 618 613 613 608 613 598 598 593 598 584 579 588 584 593 593 603 598 613 608 608 603 603 598 598 593 593 579 584 584 579 579 574 566 593 598 608 603 608 603 608 608 608 629 623 629 645 651 657 613 0 0 0 0 0 0 0 0 0
    0 0 0 0 0 0 0 0 0 0 0 0 0 0 0 0 0 0 0 0 0 0 0 0 0 0 0 0 0 0 0 0 0 0 0 0 0 0 0 0 0 0 0 0 0 0 0 0 0 0 0 0 0 0 0 0 0 0 0 0 0 0 0 0 0 0 0 0 0 639 657 645 657 645 657 634 639 634 629 623 618 618 613 613 608 603 613 629 634 639 645 634 645 645 651 651 645 639 645 639 657 645 651 651 663 651 663 645 651 639 645 639 634 629 639 639 651 651 651 669 639 657 663 651 657 657 651 657 645 675 663 639 669 669 663 687 687 694 675 0 675 0 0 663 657 657 663 657 651 645 645 645 651 645 651 651 645 651 657 657 657 645 651 645 639 639 645 639 639 634 639 639 639 645 657 645 634 651 663 669 669 675 669 675 675 694 694 700 694 681 675 669 669 651 651 645 657 657 663 639 657 645 663 657 657 663 663 657 669 657 669 663 675 681 663 669 669 669 675 669 651 657 651 669 657 634 657 657 657 657 651 634 629 634 651 613 613 613 613 608 608 603 579 579 584 584 570 570 579 579 579 603 584 579 593 598 598 598 603 603 603 603 608 603 598 598 593 584 584 574 584 574 570 579 579 584 584 593 588 608 603 598 593 598 593 593 588 588 579 579 579 570 574 574 566 588 588 598 598 603 603 608 0 0 618 618 618 623 618 618 598 0 0 0 0 0 0 0 0 0
    0 0 0 0 0 0 0 0 0 0 0 0 0 0 0 0 0 0 0 0 0 0 0 0 0 0 0 0 0 0 0 0 0 0 0 0 0 0 0 0 0 0 0 0 0 0 0 0 0 0 0 0 0 0 0 0 0 0 0 0 0 0 0 0 0 0 0 0 0 639 651 639 657 645 657 634 639 629 623 623 613 613 613 608 608 603 608 634 639 645 651 639 651 645 651 651 645 639 645 639 657 639 645 645 657 645 657 639 645 634 639 639 634 623 645 639 651 651 651 669 639 657 663 651 657 657 651 651 645 669 657 634 651 657 657 694 694 700 681 0 0 0 0 657 651 651 663 657 657 645 645 645 657 651 651 651 645 651 657 651 657 639 645 639 639 639 639 639 639 634 639 639 639 645 663 645 634 657 663 669 669 675 669 675 675 694 694 700 694 675 669 657 663 645 639 639 651 657 669 639 657 651 669 657 663 663 663 663 675 663 669 669 675 675 663 669 663 669 675 663 645 651 645 657 645 629 651 651 651 651 639 634 629 634 645 608 608 613 613 608 608 603 574 579 584 579 570 566 574 570 574 598 566 570 584 593 593 593 598 588 593 593 593 579 579 579 570 561 566 561 566 566 566 566 561 570 566 579 570 598 588 588 588 588 584 588 579 588 570 570 574 566 570 574 566 584 584 593 593 598 598 603 603 603 608 613 613 613 613 608 593 0 0 0 0 0 0 0 0 0
    0 0 0 0 0 0 0 0 0 0 0 0 0 0 0 0 0 0 0 0 0 0 0 0 0 0 0 0 0 0 0 0 0 0 0 0 0 0 0 0 0 0 0 0 0 0 0 0 0 0 0 0 0 0 0 0 0 0 0 0 0 0 0 0 0 0 0 0 0 639 651 639 651 639 645 629 639 629 623 618 0 0 613 608 608 598 603 639 645 657 657 639 645 645 651 651 645 639 645 639 651 639 645 639 651 639 657 634 645 629 639 634 634 623 645 639 651 645 651 669 639 651 663 651 657 657 651 651 639 669 663 634 651 651 645 694 0 707 0 0 0 0 0 0 0 0 657 0 657 645 645 639 651 645 645 645 639 645 651 645 651 634 639 634 634 634 634 634 639 629 639 639 645 651 663 651 634 651 663 669 669 669 663 669 669 687 681 681 651 639 639 634 634 629 629 634 645 651 669 634 657 645 663 657 663 663 663 657 669 657 669 663 675 675 663 657 651 663 663 651 629 634 634 639 629 623 645 645 645 639 639 629 629 629 639 608 608 608 613 608 608 598 570 574 579 574 570 566 570 566 574 588 566 566 574 588 588 588 593 579 584 579 579 566 570 570 566 557 561 561 561 566 566 557 553 561 557 566 566 588 584 584 584 584 574 584 574 579 566 566 570 561 566 570 561 574 574 584 588 588 593 598 598 598 603 608 608 608 603 603 588 0 0 0 0 0 0 0 0 0
    0 0 0 0 0 0 0 0 0 0 0 0 0 0 0 0 0 0 0 0 0 0 0 0 0 0 0 0 0 0 0 0 0 0 0 0 0 0 0 0 0 0 0 0 0 0 0 0 0 0 0 0 0 0 0 0 0 0 0 0 0 0 0 0 0 0 0 0 0 634 639 623 629 613 618 603 618 618 613 608 0 0 598 593 593 579 566 0 629 645 645 634 639 645 645 645 645 634 645 634 651 639 639 639 645 634 651 634 634 623 634 629 634 623 639 639 645 645 651 657 634 645 663 651 651 657 651 651 645 675 675 639 657 651 639 0 0 0 0 0 0 0 0 0 0 0 0 0 651 634 639 634 639 639 639 634 634 634 639 634 639 629 634 634 634 634 634 634 639 629 639 639 645 651 657 639 623 639 651 663 651 645 639 651 657 681 651 639 613 613 623 618 618 618 613 623 634 639 651 629 651 639 657 651 657 657 657 651 669 657 663 657 669 663 657 645 639 645 639 629 613 613 618 618 613 618 634 639 634 634 629 623 623 629 629 603 598 603 603 603 598 588 566 570 574 574 566 566 566 561 574 584 557 557 561 574 579 579 588 570 570 574 566 557 566 566 561 557 557 557 557 561 570 561 557 561 561 570 570 593 579 579 574 574 566 579 570 570 561 561 566 561 561 566 557 566 566 570 574 574 588 593 593 593 598 608 608 603 603 593 584 0 0 0 0 0 0 0 0 0
    0 0 0 0 0 0 0 0 0 0 0 0 0 0 0 0 0 0 0 0 0 0 0 0 0 0 0 0 0 0 0 0 0 0 0 0 0 0 0 0 0 0 0 0 0 0 0 0 0 0 0 0 0 0 0 0 0 0 0 0 0 0 0 0 0 0 0 0 0 629 629 613 0 603 598 574 0 598 598 598 588 574 584 584 574 566 0 0 603 618 629 623 629 639 639 645 639 629 639 629 634 629 629 629 634 623 634 623 623 623 629 629 629 623 639 639 639 639 639 629 623 634 651 634 639 645 639 639 639 669 663 629 0 629 603 0 0 0 0 0 0 0 0 0 0 0 0 0 639 629 629 623 629 629 629 623 623 623 623 623 629 623 623 623 629 629 634 634 639 629 639 639 645 645 645 623 613 629 634 645 634 623 623 623 634 663 618 608 598 593 603 603 593 598 598 608 623 629 634 618 634 634 639 634 645 645 645 639 657 645 657 651 657 639 639 629 618 618 613 603 598 593 603 598 593 608 623 623 623 623 618 613 613 618 613 598 584 588 593 588 588 579 566 570 570 570 566 566 566 561 570 574 557 553 553 566 570 570 579 561 561 561 561 553 561 557 557 553 557 557 557 561 570 561 566 570 570 574 579 593 574 570 566 566 561 570 561 561 557 557 561 557 557 561 553 557 557 561 566 566 574 588 584 588 598 603 603 598 598 588 579 549 0 0 0 0 0 0 0 0
    0 0 0 0 0 0 0 0 0 0 0 0 0 0 0 0 0 0 0 0 0 0 0 0 0 0 0 0 0 0 0 0 0 0 0 0 0 0 0 0 0 0 0 0 0 0 0 0 0 0 0 0 0 0 0 0 0 0 0 0 0 0 0 0 0 0 0 0 0 613 608 598 574 579 566 553 0 0 574 0 0 557 561 561 557 561 0 0 579 593 608 0 0 623 629 634 629 623 629 618 618 613 0 613 613 613 613 613 613 613 623 623 623 618 634 629 629 629 623 608 0 623 629 623 623 629 623 629 629 651 634 0 0 0 584 0 0 0 0 0 0 0 0 0 0 0 0 0 0 0 0 0 0 0 0 603 603 598 0 603 603 608 613 613 613 618 618 623 623 618 623 623 623 629 623 608 593 618 623 629 623 0 608 608 613 618 603 593 588 579 588 584 566 574 574 561 613 618 618 608 0 618 618 623 629 623 623 629 639 634 639 639 639 623 623 613 603 603 603 593 588 584 588 584 579 598 608 613 613 613 613 608 603 608 598 584 566 574 574 579 579 570 561 570 570 570 566 566 566 561 570 570 553 553 545 557 561 557 574 557 557 557 557 553 557 557 553 553 557 553 553 557 566 566 570 570 579 570 584 593 574 566 561 557 553 561 553 553 553 553 557 553 553 561 553 557 557 557 557 557 561 574 566 574 588 593 603 593 593 584 570 549 0 0 0 0 0 0 0 0
    0 0 0 0 0 0 0 0 0 0 0 0 0 0 0 0 0 0 0 0 0 0 0 0 0 0 0 0 0 0 0 0 0 0 0 0 0 0 0 0 0 0 0 0 0 0 0 0 0 0 0 0 0 0 0 0 0 0 0 0 0 0 0 0 0 0 0 0 0 0 0 579 549 0 549 0 0 0 0 0 0 541 545 537 545 557 0 0 557 570 584 593 0 0 608 623 613 618 618 608 603 598 588 598 598 598 603 603 598 603 613 613 618 613 629 623 618 618 0 537 533 0 0 593 0 0 0 0 613 0 603 0 0 593 566 0 0 0 0 0 0 0 0 0 566 570 0 0 0 588 588 588 579 588 588 574 574 574 584 584 584 593 593 593 598 603 603 608 603 598 603 598 598 598 603 593 574 598 608 613 613 593 598 598 603 603 598 584 579 570 579 566 557 557 561 549 593 603 603 598 598 608 603 608 608 608 608 613 618 618 623 623 618 603 603 603 588 593 588 584 579 570 579 570 566 588 598 603 603 603 598 598 598 603 588 574 561 566 566 570 570 566 561 570 570 570 566 566 566 561 574 570 553 545 537 541 549 545 553 545 549 549 553 549 557 557 557 553 557 553 553 557 561 557 561 561 566 557 570 579 570 566 570 557 553 557 553 553 553 553 553 549 549 557 553 553 553 549 545 549 549 557 545 553 566 574 593 588 588 579 566 549 0 0 0 0 0 0 0 0
    0 0 0 0 0 0 0 0 0 0 0 0 0 0 0 0 0 0 0 0 0 0 0 0 0 0 0 0 0 0 0 0 0 0 0 0 0 0 0 0 0 0 0 0 0 0 0 0 0 0 0 0 0 0 0 0 0 0 0 0 0 0 0 0 0 0 0 0 0 0 0 557 537 0 0 0 0 0 0 0 0 537 537 537 545 557 549 0 553 561 566 574 570 588 570 608 588 603 598 593 584 584 570 584 579 588 593 593 588 593 603 603 608 603 618 613 588 0 545 529 529 533 533 549 0 549 0 0 588 584 584 584 0 574 566 561 0 566 561 557 557 0 0 0 557 561 0 0 566 561 566 574 561 574 574 561 561 566 570 574 566 579 574 574 584 584 579 579 574 570 570 574 574 574 579 574 561 574 593 598 603 584 593 593 598 593 593 579 579 570 579 561 553 553 561 545 574 588 588 584 579 598 588 598 598 593 593 593 598 603 603 603 598 588 588 593 579 584 579 570 570 566 570 566 561 584 584 593 598 588 588 588 593 593 579 570 557 561 561 566 566 557 561 566 566 570 566 566 566 561 584 566 553 541 533 533 537 533 537 533 537 541 549 549 557 557 557 557 557 557 553 553 557 549 553 553 553 545 549 557 557 557 574 561 553 553 549 557 553 549 553 545 545 553 549 549 549 545 541 545 545 549 537 545 553 553 579 574 570 561 553 545 537 0 0 0 0 0 0 0
    0 0 0 0 0 0 0 0 0 0 0 0 0 0 0 0 0 0 0 0 0 0 0 0 0 0 0 0 0 0 0 0 0 0 0 0 0 0 0 0 0 0 0 0 0 0 0 0 0 0 0 0 0 0 0 0 0 0 0 0 0 0 0 0 0 0 0 0 0 0 0 549 537 541 0 533 529 529 533 537 537 537 537 541 545 561 553 553 549 557 557 561 557 574 553 584 566 593 574 574 566 566 557 561 561 574 579 588 579 584 593 598 598 588 0 593 557 545 541 525 529 533 533 541 537 541 0 0 561 0 566 570 561 561 561 557 561 561 561 557 553 0 0 0 553 553 566 0 561 557 557 566 553 561 561 553 557 561 561 566 557 570 561 557 566 561 553 557 553 553 557 557 561 557 561 561 553 557 570 574 584 566 584 584 588 584 584 574 574 570 574 557 553 553 557 545 566 574 579 574 566 584 574 584 584 579 579 579 584 593 588 593 588 574 579 584 570 574 570 566 566 561 566 561 561 579 579 588 588 579 579 584 584 579 561 561 553 557 557 561 561 553 566 566 566 570 566 570 566 566 588 557 549 533 529 529 533 529 529 529 533 537 553 549 557 557 561 557 561 557 557 553 557 549 549 549 549 541 541 549 553 557 570 566 557 557 557 561 557 553 557 549 549 557 549 549 549 545 541 541 541 549 537 545 549 549 566 566 561 553 549 541 529 0 0 0 0 0 0 0
    0 0 0 0 0 0 0 0 0 0 0 0 0 0 0 0 0 0 0 0 0 0 0 0 0 0 0 0 0 0 0 0 0 0 0 0 0 0 0 0 0 0 0 0 0 0 0 0 0 0 0 0 0 0 0 0 0 0 0 0 0 0 0 0 0 0 0 0 0 0 0 545 537 541 541 533 525 529 533 537 0 0 0 545 545 561 553 553 549 553 553 553 553 557 545 561 553 584 561 566 557 557 557 557 557 566 566 579 570 574 579 579 579 561 579 566 549 541 541 525 533 537 533 541 537 537 541 541 553 549 557 561 557 557 557 557 557 557 557 553 553 549 549 553 549 553 561 557 557 553 553 561 553 561 561 553 557 557 561 566 557 561 557 553 557 557 549 553 549 553 553 553 557 557 557 557 553 557 557 561 570 561 574 579 579 570 574 570 570 566 574 557 549 549 557 545 561 561 566 561 557 570 566 574 574 570 570 574 574 584 579 584 579 570 574 574 566 570 570 566 566 561 566 561 557 574 570 579 579 570 566 570 561 561 553 553 549 553 553 561 557 553 566 566 566 570 566 570 566 570 593 553 545 529 525 521 525 525 525 525 529 537 549 549 557 557 557 557 561 557 557 553 557 545 545 545 545 537 537 545 545 545 557 557 557 557 553 557 557 553 557 553 549 557 549 549 549 545 541 541 541 545 537 541 545 541 545 553 549 545 545 533 514 0 0 0 0 0 0 0
    0 0 0 0 0 0 0 0 0 0 0 0 0 0 0 0 0 0 0 0 0 0 0 0 0 0 0 0 0 0 0 0 0 0 0 0 0 0 0 0 0 0 0 0 0 0 0 0 0 0 0 0 0 0 0 0 0 0 0 0 0 0 0 0 0 0 0 0 0 0 0 545 537 541 537 533 525 525 533 537 0 0 0 545 545 561 553 549 545 549 549 553 549 553 541 549 549 588 557 570 561 557 557 557 553 561 0 566 557 557 557 549 0 549 0 561 545 541 541 521 533 537 533 541 537 537 541 541 553 549 557 561 557 557 561 557 557 553 557 553 553 549 549 549 549 553 561 553 553 553 553 561 553 561 561 553 557 561 561 566 557 561 557 553 557 557 553 553 549 553 553 553 561 557 557 561 557 557 557 557 566 557 570 574 574 566 570 566 566 561 570 553 549 549 553 545 561 561 561 561 553 566 566 570 570 566 570 570 570 584 579 584 579 570 574 574 566 574 570 566 570 566 566 561 561 574 566 570 570 561 557 561 553 549 545 553 549 553 553 561 557 553 566 570 566 570 570 574 570 570 593 549 541 521 521 518 521 521 521 521 525 529 545 541 553 553 553 557 561 553 553 549 553 541 541 541 537 533 533 537 533 533 545 549 549 549 545 549 549 549 549 545 541 549 545 545 545 541 537 541 537 545 533 537 537 533 537 541 537 537 541 525 500 0 0 0 0 0 0 0
    0 0 0 0 0 0 0 0 0 0 0 0 0 0 0 0 0 0 0 0 0 0 0 0 0 0 0 0 0 0 0 0 0 0 0 0 0 0 0 0 0 0 0 0 0 0 0 0 0 0 0 0 0 0 0 0 0 0 0 0 0 0 0 0 0 0 0 0 0 0 0 545 537 545 537 533 529 529 533 537 0 0 0 545 545 561 553 549 545 549 549 549 549 553 541 545 549 584 553 570 561 557 557 553 553 557 549 561 557 553 553 549 0 549 0 557 545 537 537 518 533 537 537 541 541 541 541 545 557 553 557 561 561 561 561 557 561 553 557 557 553 553 549 553 549 549 557 553 549 549 549 561 553 561 561 557 561 561 561 566 557 566 561 553 557 557 549 553 553 557 557 557 561 561 561 561 557 557 557 557 561 557 570 574 574 561 570 566 566 561 574 553 553 553 557 549 566 566 561 561 553 566 561 570 570 566 566 570 570 579 574 579 574 566 574 574 570 574 570 570 570 566 566 566 561 574 566 574 570 570 561 561 553 553 549 553 549 553 553 561 561 553 570 570 570 574 570 574 570 574 593 537 529 518 521 518 521 521 521 518 525 525 537 533 545 541 545 549 557 549 549 545 549 537 537 537 533 529 529 533 529 529 537 541 545 541 537 541 545 541 545 541 537 541 537 537 541 537 533 533 533 537 529 533 533 525 529 533 525 525 529 518 500 0 0 0 0 0 0 0
    0 0 0 0 0 0 0 0 0 0 0 0 0 0 0 0 0 0 0 0 0 0 0 0 0 0 0 0 0 0 0 0 0 0 0 0 0 0 0 0 0 0 0 0 0 0 0 0 0 0 0 0 0 0 0 0 0 0 0 0 0 0 0 0 0 0 0 0 0 541 0 545 537 545 541 533 529 533 533 537 0 0 541 549 545 561 553 549 545 549 549 549 549 0 537 0 545 579 549 566 557 553 557 553 553 553 549 557 553 553 553 545 549 545 0 549 541 529 533 511 533 537 537 541 541 541 545 549 561 553 557 561 561 561 561 557 561 553 557 557 553 553 549 553 549 553 561 553 549 553 553 566 557 566 566 561 561 566 566 570 561 566 561 553 557 557 549 557 553 561 561 561 561 561 561 566 561 561 557 557 561 557 570 570 570 561 566 566 566 561 574 553 553 553 561 553 570 570 566 561 553 566 561 570 570 566 566 566 570 579 574 579 570 566 574 570 566 570 574 570 570 566 566 566 566 574 566 574 574 574 570 570 561 557 553 561 553 557 557 561 561 553 570 574 570 574 570 574 570 570 593 533 521 514 518 514 518 521 518 518 525 521 529 525 0 533 537 537 549 541 541 541 541 533 533 529 529 529 525 529 529 529 533 537 537 537 537 537 541 541 541 541 533 541 537 533 537 537 529 533 529 533 525 529 525 514 521 521 518 521 521 514 504 490 0 0 0 0 0 0
    0 0 0 0 0 0 0 0 0 0 0 0 0 0 0 0 0 0 0 0 0 0 0 0 0 0 0 0 0 0 0 0 0 0 0 0 0 0 0 0 0 0 0 0 0 0 0 0 0 0 0 0 0 0 0 0 0 0 0 0 0 0 0 0 0 0 0 0 0 541 0 545 537 545 0 533 529 533 533 537 0 0 541 549 549 566 553 549 545 549 545 549 545 0 537 537 541 561 545 557 549 549 553 549 549 553 545 553 549 549 549 545 545 545 541 549 537 525 533 507 533 537 537 541 541 541 545 549 561 553 561 566 561 561 561 557 561 553 557 557 553 553 553 553 553 553 561 553 553 557 553 566 557 566 570 561 566 570 566 570 561 566 561 557 557 557 549 557 553 561 566 561 561 566 561 566 561 561 557 557 561 557 570 570 570 561 566 566 566 566 574 557 553 553 561 553 570 566 561 561 553 566 561 570 570 566 566 570 570 579 570 574 566 561 570 566 566 570 574 570 570 566 566 566 566 574 566 574 579 579 570 574 566 561 557 566 557 561 561 566 566 553 574 574 570 574 570 574 570 570 588 533 514 511 518 514 518 518 518 518 525 521 525 521 0 529 529 529 541 533 537 533 537 529 525 521 525 525 525 525 525 525 533 533 537 537 537 537 541 537 541 537 533 537 533 533 537 533 525 529 525 529 525 525 521 507 514 511 514 518 518 514 504 493 0 0 0 0 0 0
    0 0 0 0 0 0 0 0 0 0 0 0 0 0 0 0 0 0 0 0 0 0 0 0 0 0 0 0 0 0 0 0 0 0 0 0 0 0 0 0 0 0 0 0 0 0 0 0 0 0 0 0 0 0 0 0 0 0 0 0 0 0 0 0 0 0 0 0 0 541 0 549 537 545 0 0 0 533 533 537 0 0 0 545 545 561 553 0 545 549 0 0 0 0 537 533 541 553 541 553 549 549 549 545 541 545 537 545 545 541 545 537 545 549 545 549 537 525 533 511 533 533 537 541 541 541 545 549 566 557 561 570 561 561 566 561 561 553 557 557 553 553 553 553 553 553 566 553 553 557 553 566 557 566 570 561 566 570 566 570 561 566 561 553 557 557 549 557 553 561 566 561 561 566 561 566 561 561 557 557 561 557 566 570 570 557 561 566 566 566 574 557 557 557 561 557 566 557 557 557 553 561 561 570 566 566 566 566 566 579 566 570 561 557 566 561 561 566 570 566 566 566 566 566 566 574 566 570 584 579 574 574 566 566 566 570 566 570 574 574 579 553 574 574 570 574 570 570 570 566 584 529 514 511 518 511 518 518 518 518 525 518 525 518 0 529 529 529 541 529 533 537 533 525 521 518 521 521 525 525 525 525 533 533 537 537 537 537 541 537 537 541 533 533 529 529 533 533 525 525 521 529 525 529 525 511 514 507 511 514 521 518 504 493 0 0 0 0 0 0
    0 0 0 0 0 0 0 0 0 0 0 0 0 0 0 0 0 0 0 0 0 0 0 0 0 0 0 0 0 0 0 0 0 0 0 0 0 0 0 0 0 0 0 0 0 0 0 0 0 0 0 0 0 0 0 0 0 0 0 0 0 0 0 0 0 0 0 0 0 545 545 553 541 553 0 0 0 533 0 533 0 0 0 545 541 553 549 0 545 549 545 545 0 0 537 537 541 553 541 553 549 545 549 541 537 537 529 537 537 529 537 533 549 557 553 557 545 529 537 514 537 0 537 545 541 545 549 553 570 561 566 574 566 566 570 561 561 553 557 553 549 553 549 553 553 553 566 553 553 561 553 570 557 566 570 566 566 570 566 570 561 566 566 557 557 557 549 557 557 566 566 561 561 570 561 566 561 561 557 557 561 557 566 566 566 557 561 561 566 566 574 557 557 557 566 561 570 561 557 557 553 561 561 566 566 561 566 566 561 574 557 561 557 557 561 561 561 566 570 566 566 566 570 570 566 574 566 570 584 579 574 570 566 570 570 579 570 574 584 584 588 553 574 574 570 570 570 570 566 561 574 525 511 511 514 507 511 514 514 514 521 514 518 511 525 521 514 518 525 514 525 529 525 518 518 511 518 521 525 525 521 525 529 533 537 537 545 545 545 541 541 545 533 533 529 529 533 529 525 525 525 525 525 529 525 511 514 511 518 518 521 518 504 493 0 0 0 0 0 0
    0 0 0 0 0 0 0 0 0 0 0 0 0 0 0 0 0 0 0 0 0 0 0 0 0 0 0 0 0 0 0 0 0 0 0 0 0 0 0 0 0 0 0 0 0 0 0 0 0 0 0 0 0 0 0 0 0 0 0 0 0 0 0 0 0 0 0 0 0 549 553 557 549 557 0 0 0 0 0 0 0 0 0 541 541 549 549 0 545 545 545 545 545 0 537 537 541 549 541 549 549 545 549 541 537 541 533 541 541 537 545 541 557 566 574 574 553 537 541 521 541 0 541 545 545 545 553 553 579 561 570 579 570 566 574 566 561 553 557 553 549 553 553 553 553 557 566 557 557 566 557 570 557 566 570 566 566 570 566 570 561 570 566 557 557 561 549 561 561 570 566 561 557 566 557 561 557 561 557 553 557 557 566 566 566 553 557 561 561 561 574 557 557 557 570 566 574 561 557 557 553 561 561 566 566 561 561 561 561 570 557 557 557 557 561 561 566 570 574 570 570 570 570 570 566 574 561 566 584 579 574 566 561 570 570 579 574 570 584 584 588 549 574 570 566 566 566 561 557 557 566 529 518 521 518 511 514 518 514 514 521 514 511 511 518 514 507 511 521 518 525 533 533 521 521 514 521 525 525 525 525 525 533 533 537 541 549 545 549 545 541 541 533 529 525 521 529 525 525 514 518 521 521 525 511 504 511 507 518 521 521 518 507 0 0 0 0 0 0 0
    0 0 0 0 0 0 0 0 0 0 0 0 0 0 0 0 0 0 0 0 0 0 0 0 0 0 0 0 0 0 0 0 0 0 0 0 0 0 0 0 0 0 0 0 0 0 0 0 0 0 0 0 0 0 0 0 0 0 0 0 0 0 0 0 0 0 0 0 0 549 557 561 549 561 566 0 0 0 0 0 0 0 529 533 533 545 545 0 541 0 541 545 545 0 537 537 541 0 541 549 545 545 549 541 537 541 537 545 541 541 545 541 553 566 570 579 557 541 545 521 545 541 545 549 549 549 553 557 579 566 570 579 570 566 574 566 561 549 557 553 549 553 553 553 553 557 570 561 557 566 557 570 557 561 566 566 561 570 566 566 557 570 570 561 561 561 549 561 566 579 574 557 557 566 557 566 561 561 557 557 566 561 566 570 566 553 557 557 561 561 570 557 557 561 566 566 574 561 557 557 553 557 561 566 566 561 561 566 566 574 561 561 557 557 561 566 566 570 574 570 570 570 570 570 566 570 557 561 579 579 579 561 557 570 579 584 579 570 584 584 593 549 570 566 561 557 561 557 557 553 561 533 529 529 525 514 521 521 518 518 525 514 511 514 525 504 490 490 493 490 493 500 500 500 514 514 525 529 525 525 529 529 533 533 541 537 545 545 545 537 533 529 525 525 518 514 521 511 511 497 514 518 507 511 497 500 507 507 521 521 525 521 514 0 0 0 0 0 0 0
    0 0 0 0 0 0 0 0 0 0 0 0 0 0 0 0 0 0 0 0 0 0 0 0 0 0 0 0 0 0 0 0 0 0 0 0 0 0 0 0 0 0 0 0 0 0 0 0 0 0 0 0 0 0 0 0 0 0 0 0 0 0 0 0 0 0 0 0 0 549 553 557 549 557 561 545 0 545 0 0 525 525 525 529 529 541 0 0 541 545 541 545 541 541 537 533 0 0 0 0 0 0 0 0 0 545 541 553 549 545 549 545 553 566 584 584 570 545 545 525 545 545 545 549 549 549 553 557 584 566 566 579 570 566 574 561 553 549 557 553 549 553 553 553 553 557 570 557 553 561 553 566 553 561 561 561 561 570 566 570 557 574 574 570 566 561 553 561 574 588 579 557 553 566 561 570 561 566 557 557 574 566 566 570 561 553 557 561 561 561 570 561 557 561 570 566 570 557 557 553 549 557 557 561 566 561 561 566 566 574 561 561 561 557 561 566 566 570 574 570 570 570 570 570 566 566 557 557 584 584 593 570 566 588 588 593 588 579 588 588 593 549 566 561 561 557 561 553 557 553 557 537 533 533 533 521 525 521 521 521 525 514 518 518 529 507 490 490 490 487 484 484 481 484 497 507 518 521 521 521 525 525 529 529 533 533 537 541 541 529 521 514 514 0 511 504 507 497 497 493 511 514 500 497 490 497 504 504 518 518 521 521 514 0 0 0 0 0 0 0
    0 0 0 0 0 0 0 0 0 0 0 0 0 0 0 0 0 0 0 0 0 0 0 0 0 0 0 0 0 0 0 0 0 0 0 0 0 0 0 0 0 0 0 0 0 0 0 0 0 0 0 0 0 0 0 0 0 0 0 0 0 0 0 0 0 0 0 0 0 545 549 553 541 545 549 545 561 545 0 533 525 529 529 529 533 537 541 541 541 545 541 545 541 541 537 533 0 0 0 0 0 0 0 0 0 549 545 561 557 549 549 549 557 574 593 588 579 549 549 529 549 549 545 553 549 549 557 557 584 561 561 579 566 566 570 553 549 545 557 553 549 553 553 553 557 561 574 561 557 566 553 566 553 561 561 566 566 574 570 570 557 574 579 574 566 561 553 0 574 593 579 557 549 561 561 570 557 561 553 557 579 570 570 570 561 553 557 561 561 557 566 561 557 561 570 566 570 557 557 553 549 557 557 561 561 557 561 561 561 570 561 561 561 557 561 561 566 570 574 570 566 566 566 566 561 566 553 553 588 593 608 579 579 598 593 598 588 579 593 588 593 549 561 557 557 553 561 553 553 553 553 537 537 537 533 521 525 525 521 521 529 521 521 525 533 514 490 490 490 487 484 481 481 484 487 500 507 518 518 518 521 525 525 521 529 529 529 537 537 511 497 487 490 0 493 487 487 481 477 481 500 500 493 490 484 490 497 497 511 511 518 518 511 493 0 0 0 0 0 0
    0 0 0 0 0 0 0 0 0 0 0 0 0 0 0 0 0 0 0 0 0 0 0 0 0 0 0 0 0 0 0 0 0 0 0 0 0 0 0 0 0 0 0 0 0 0 0 0 0 0 0 0 0 0 0 0 0 0 0 0 0 0 0 0 0 0 0 0 0 545 549 549 541 541 545 541 0 0 0 533 521 529 529 529 533 537 541 541 545 545 541 545 545 537 537 533 0 0 0 0 0 0 0 0 0 545 0 566 561 553 553 549 561 579 593 584 579 557 557 533 553 553 549 553 553 553 557 557 584 561 557 579 561 561 566 553 549 545 553 553 549 553 557 557 557 570 579 570 566 566 553 566 553 561 561 561 561 570 570 570 557 579 584 579 0 0 0 0 0 593 579 553 545 561 561 566 557 557 549 557 584 574 574 574 561 553 557 557 561 557 566 557 557 561 570 566 570 557 557 553 549 557 557 557 561 557 561 561 561 566 561 566 561 557 561 566 566 570 574 566 566 566 561 566 561 561 549 545 0 0 0 570 574 613 603 603 588 584 598 598 603 549 561 553 553 549 557 549 549 549 553 537 537 537 533 521 525 525 521 521 529 521 525 529 541 518 490 490 487 487 481 481 477 477 481 493 504 514 514 514 518 521 521 518 525 521 518 521 521 490 484 477 477 477 481 477 477 471 471 474 484 487 484 477 474 481 487 490 500 497 504 507 500 490 0 0 0 0 0 0
    0 0 0 0 0 0 0 0 0 0 0 0 0 0 0 0 0 0 0 0 0 0 0 0 0 0 0 0 0 0 0 0 0 0 0 0 0 0 0 0 0 0 0 0 0 0 0 0 0 0 0 0 0 0 0 0 0 0 0 0 0 0 0 0 0 0 0 0 0 549 549 553 541 545 553 545 574 549 529 533 521 529 529 529 533 537 541 541 541 545 541 545 541 537 537 533 0 0 0 0 0 0 0 0 0 0 0 0 574 557 553 557 574 593 598 593 588 570 570 541 561 557 549 553 557 553 557 557 579 557 557 574 561 561 566 557 549 549 553 549 549 553 553 553 557 570 574 574 566 557 553 561 549 557 557 557 557 566 570 566 557 0 0 0 0 0 0 0 0 598 579 549 545 557 561 570 557 553 549 0 0 0 574 574 561 553 557 557 561 557 566 557 557 561 566 561 566 553 553 549 549 553 553 557 561 557 557 561 561 566 566 570 566 561 566 570 570 579 579 570 566 566 561 561 557 0 0 0 0 0 0 0 0 0 330 0 593 579 603 618 613 549 561 553 549 545 553 545 545 545 545 533 537 533 533 518 525 521 518 521 529 525 525 533 537 507 481 484 481 484 481 477 477 474 481 493 500 514 511 514 518 518 518 514 518 511 500 497 497 484 477 474 471 471 474 471 471 468 468 471 474 477 477 471 471 474 477 481 490 487 490 497 490 484 448 0 0 0 0 0
    0 0 0 0 0 0 0 0 0 0 0 0 0 0 0 0 0 0 0 0 0 0 0 0 0 0 0 0 0 0 0 0 0 0 0 0 0 0 0 0 0 0 0 0 0 0 0 0 0 0 0 0 0 0 0 0 0 0 0 0 0 0 0 0 0 0 0 0 0 549 549 549 541 541 0 0 579 549 529 529 521 529 525 529 533 533 537 537 541 545 541 545 541 541 537 537 0 0 0 0 0 0 0 0 0 0 0 0 0 561 557 561 584 598 603 593 593 588 588 549 570 566 557 561 561 557 561 561 579 553 553 566 0 553 561 549 549 549 553 553 553 553 553 549 557 570 574 574 561 557 549 561 0 557 557 557 557 566 570 566 0 0 0 0 0 0 0 0 0 0 0 0 0 0 0 0 0 0 0 82 81 81 0 579 566 553 553 557 557 557 561 557 557 561 566 557 557 549 0 0 0 0 545 545 553 549 0 553 0 0 0 0 557 557 561 570 566 579 574 566 566 561 0 0 0 85 0 0 0 468 457 459 468 457 0 0 0 0 0 0 0 0 561 553 541 537 549 541 541 537 537 525 529 525 525 511 518 514 507 521 525 521 525 525 529 493 477 477 481 481 477 474 474 477 477 493 500 511 504 511 518 514 514 507 514 504 490 487 487 477 471 471 465 471 471 471 471 468 468 471 474 477 474 468 465 468 474 477 477 474 477 484 477 474 443 0 0 0 0 0
    0 0 0 0 0 0 0 0 0 0 0 0 0 0 0 0 0 0 0 0 0 0 0 0 0 0 0 0 0 0 0 0 0 0 0 0 0 0 0 0 0 0 0 0 0 0 0 0 0 0 0 0 0 0 0 0 0 0 0 0 0 0 0 0 0 0 0 0 0 545 545 541 537 533 537 537 561 549 521 525 518 525 518 521 525 529 533 537 541 541 541 549 545 541 545 549 0 0 0 0 0 0 0 88 87 0 0 140 0 566 557 557 561 584 588 584 588 0 0 549 579 570 557 561 566 557 561 561 574 545 541 549 0 541 545 541 521 0 0 553 553 553 549 549 0 0 0 579 561 553 0 0 0 553 553 557 553 557 0 557 0 0 0 0 0 0 0 0 0 116 114 0 0 0 0 0 0 0 0 82 81 0 0 0 549 545 545 549 553 553 557 557 561 566 566 549 0 0 0 0 0 0 0 0 0 521 504 0 0 0 0 0 0 0 0 557 0 574 557 553 0 0 0 0 0 0 0 462 465 457 459 454 465 459 454 451 457 465 468 462 468 471 0 545 521 500 541 529 529 525 521 504 511 507 504 493 500 497 487 504 514 511 518 514 504 481 471 474 477 477 477 474 471 477 477 490 497 500 493 500 507 507 507 500 500 493 484 477 481 468 465 468 465 468 471 471 471 468 471 471 471 474 471 468 465 468 471 474 471 471 468 471 468 459 440 0 0 0 0 0
    0 0 0 0 0 0 0 0 0 0 0 0 0 0 0 0 0 0 0 0 0 0 0 0 0 0 0 0 0 0 0 0 0 0 0 0 0 0 0 0 0 0 0 0 0 0 0 0 0 0 0 0 0 0 0 0 0 0 0 0 0 0 0 0 0 0 0 0 0 541 541 533 525 518 518 497 471 0 0 474 487 497 490 0 0 518 521 529 529 533 529 545 541 541 549 553 557 0 0 0 0 0 0 88 0 0 0 140 139 0 0 0 0 0 0 0 0 0 0 0 570 566 553 557 557 557 561 557 561 533 507 490 490 0 484 497 487 0 0 0 0 0 0 0 0 0 0 0 0 0 0 0 545 545 545 545 533 529 0 541 504 481 477 471 0 0 0 0 0 116 114 0 0 0 0 0 0 0 0 82 82 0 0 0 0 529 541 0 545 549 549 549 557 557 549 0 0 0 0 474 471 477 474 477 0 493 493 493 493 0 0 0 0 484 477 0 481 0 518 481 477 0 0 465 462 465 462 462 462 459 462 459 465 465 457 459 459 462 468 462 465 465 468 0 487 481 487 507 514 518 504 493 500 497 490 490 487 487 477 481 493 493 511 500 477 477 468 471 474 477 477 474 471 481 481 490 497 497 487 497 500 500 497 493 490 487 477 474 474 462 465 465 465 468 471 471 471 468 474 474 471 471 468 465 462 462 468 471 462 468 462 468 462 451 440 0 0 0 0 0
    0 0 0 0 0 0 0 0 0 0 0 0 0 0 0 0 0 0 0 0 0 0 0 0 0 0 0 0 0 0 0 0 0 0 0 0 0 0 0 0 0 0 0 0 0 0 0 0 0 0 0 0 0 0 0 0 0 0 0 0 0 0 0 0 0 0 0 0 0 533 529 521 500 487 484 468 446 435 443 451 454 446 451 443 0 0 0 514 504 507 493 529 529 521 521 0 0 0 0 0 0 0 0 0 0 86 0 0 0 0 0 0 0 468 0 465 465 454 454 465 468 0 0 0 490 0 549 545 537 507 487 477 477 474 471 471 474 465 459 451 0 0 0 0 0 0 88 88 0 0 0 454 0 451 474 477 484 468 468 471 477 468 465 462 465 465 465 457 0 0 0 0 152 0 0 0 0 0 0 0 0 0 0 0 468 0 0 465 459 0 0 0 0 500 481 471 459 459 462 462 462 468 468 465 465 477 484 481 481 474 474 477 477 477 477 477 481 477 484 474 471 468 471 465 459 462 459 462 465 462 465 465 468 468 459 462 459 462 465 465 465 462 465 474 477 474 474 484 487 490 481 477 481 481 477 477 471 474 468 471 477 474 481 484 465 474 465 468 474 477 474 474 471 481 481 490 493 490 484 493 493 493 490 490 487 487 481 477 474 465 465 465 468 471 471 471 471 468 474 474 471 468 457 457 457 462 468 471 465 471 471 474 468 457 443 0 0 0 0 0
    0 0 0 0 0 0 0 0 0 0 0 0 0 0 0 0 0 0 0 0 0 0 0 0 0 0 0 0 0 0 0 0 0 0 0 0 0 0 0 0 0 0 0 0 0 0 0 0 0 0 0 0 0 0 0 0 0 0 0 0 0 0 0 0 0 0 0 0 0 490 493 484 477 465 457 446 440 438 443 446 446 440 443 440 0 0 0 0 477 481 471 471 490 484 471 457 438 0 0 0 0 98 0 0 0 0 0 0 0 0 468 0 459 459 0 0 454 446 446 454 457 465 465 465 468 468 474 477 487 487 481 477 477 474 468 465 471 462 462 451 0 0 0 0 0 0 0 0 451 454 454 0 448 443 438 448 451 448 454 459 465 462 457 457 459 459 462 454 446 0 0 0 0 0 0 0 0 124 124 0 0 0 465 462 454 451 459 446 446 448 446 448 446 454 459 459 454 457 457 457 457 465 465 462 462 474 477 474 474 474 471 474 477 474 474 474 477 474 481 471 468 462 468 465 459 462 459 465 468 465 468 465 468 468 459 465 462 462 465 465 465 465 465 474 474 471 468 474 471 474 465 465 468 471 468 471 465 465 462 465 468 468 468 474 451 468 468 468 474 477 474 474 471 484 484 490 497 490 481 490 490 487 484 484 484 481 477 474 471 462 465 465 465 468 468 468 468 468 471 474 471 465 457 462 468 468 471 474 468 471 474 474 462 448 443 0 0 0 0 0
    0 0 0 0 0 0 0 0 0 0 0 0 0 0 0 0 0 0 0 0 0 0 0 0 0 0 0 0 0 0 0 0 0 0 0 0 0 0 0 0 0 0 0 0 0 0 0 0 0 0 0 0 0 0 0 0 0 0 0 0 0 0 0 0 0 0 0 0 0 457 462 457 459 451 446 443 443 443 443 446 446 440 440 440 0 0 457 0 0 462 457 457 465 474 465 462 0 0 448 0 0 0 0 0 0 0 0 0 0 468 462 457 451 451 451 448 448 443 443 451 451 457 457 459 459 459 468 471 468 474 474 474 477 477 468 462 468 462 465 454 451 448 451 454 451 451 454 451 451 454 454 451 448 446 440 451 454 448 457 459 462 459 457 457 457 457 462 457 448 0 0 0 0 0 448 0 0 0 0 0 0 0 459 457 451 446 451 446 446 446 448 448 446 448 454 457 451 457 457 457 457 465 462 462 462 471 471 471 471 471 471 471 474 471 471 474 474 474 477 468 468 462 468 465 459 462 462 465 468 468 468 465 468 471 459 465 462 462 465 465 465 465 465 471 471 468 468 468 468 468 462 465 465 465 468 468 462 465 462 465 465 465 462 465 448 462 465 465 471 477 474 474 474 490 490 493 504 490 481 484 484 484 477 481 481 477 471 468 468 459 462 462 465 465 465 468 468 468 474 471 471 465 459 462 465 468 468 471 468 468 471 471 462 446 446 0 0 0 0 0
    0 0 0 0 0 0 0 0 0 0 0 0 0 0 0 0 0 0 0 0 0 0 0 0 0 0 0 0 0 0 0 0 0 0 0 0 0 0 0 0 0 0 0 0 0 0 0 0 0 0 0 0 0 0 0 0 0 0 0 0 0 0 0 0 0 0 0 0 0 451 454 451 451 448 448 443 446 446 446 448 446 443 443 440 443 446 448 454 448 0 448 448 451 471 465 0 0 0 454 462 0 459 454 457 451 451 451 457 457 462 459 454 448 448 451 448 446 440 443 448 448 454 454 457 457 457 465 468 462 468 465 471 471 474 465 462 465 462 465 457 451 451 451 457 451 451 451 451 451 451 454 451 446 446 438 451 454 446 454 459 462 459 457 457 457 457 462 457 448 451 0 0 454 451 451 454 0 0 0 0 124 0 465 462 454 451 457 448 446 448 448 448 446 448 454 457 451 457 457 457 459 465 462 462 462 471 468 468 468 468 468 471 471 468 468 474 474 474 474 468 468 462 468 465 457 462 459 465 468 465 468 468 468 471 459 468 462 465 465 465 465 465 465 471 471 468 468 471 471 468 462 465 465 465 465 465 459 462 459 465 462 465 462 462 448 459 465 465 471 474 474 474 474 490 493 493 511 493 481 484 484 481 477 477 481 477 471 471 468 462 462 465 468 468 468 471 471 471 474 471 471 471 468 468 468 468 471 474 468 468 459 457 451 443 446 0 0 0 0 0
    0 0 0 0 0 0 0 0 0 0 0 0 0 0 0 0 0 0 0 0 0 0 0 0 0 0 0 0 0 0 0 0 0 0 0 0 0 0 0 0 0 0 0 0 0 0 0 0 0 0 0 0 0 0 0 0 0 0 0 0 0 0 0 0 0 0 0 0 0 451 454 451 451 448 448 446 446 448 448 448 448 446 443 443 446 446 446 448 446 0 448 448 451 471 471 0 0 0 465 0 0 465 459 459 451 451 451 457 454 459 457 451 448 448 448 448 446 440 443 448 448 454 451 457 454 457 465 465 462 465 462 468 468 471 462 459 465 459 465 459 454 451 451 454 451 451 451 448 448 451 451 451 446 446 438 448 451 446 454 459 459 457 457 457 454 457 462 457 448 451 0 0 454 451 454 457 457 0 0 0 0 465 465 468 459 454 459 448 446 448 451 448 446 448 451 454 451 457 457 454 459 462 462 462 465 471 468 468 468 468 468 468 471 468 468 471 471 474 474 465 465 462 468 465 457 462 459 462 468 465 468 465 468 471 459 468 465 465 465 465 465 465 465 471 471 468 468 468 471 468 459 465 465 462 465 465 462 462 462 465 462 465 462 462 448 459 465 465 471 474 474 474 474 490 497 500 518 500 484 487 484 481 471 471 474 471 465 462 462 457 462 462 468 468 468 471 474 474 477 471 474 471 471 474 471 474 477 477 471 471 457 448 446 438 443 0 0 0 0 0
    0 0 0 0 0 0 0 0 0 0 0 0 0 0 0 0 0 0 0 0 0 0 0 0 0 0 0 0 0 0 0 0 0 0 0 0 0 0 0 0 0 0 0 0 0 0 0 0 0 0 0 0 0 0 0 0 0 0 0 0 0 0 0 0 0 0 0 0 0 451 454 451 451 451 451 448 448 451 448 448 451 446 446 443 446 446 446 448 446 0 448 448 451 471 468 0 0 0 465 0 0 462 459 462 454 454 454 459 457 462 459 454 451 451 454 451 448 440 443 448 448 454 451 457 454 457 465 468 465 468 462 468 468 471 462 459 462 459 465 459 454 451 451 454 454 451 454 451 451 451 454 451 448 446 440 446 448 443 451 457 459 457 457 457 457 459 465 459 451 454 457 451 457 454 457 459 457 457 0 459 468 465 468 468 462 457 462 454 448 454 454 448 446 448 451 454 448 457 457 454 459 462 462 462 462 471 468 468 468 468 468 468 471 465 465 471 471 471 471 465 465 459 465 465 457 462 459 465 468 465 468 468 468 471 459 471 465 465 468 465 468 465 465 471 468 468 468 471 471 468 459 465 465 465 465 465 462 462 462 465 462 462 462 462 448 457 465 465 471 474 474 474 474 487 493 497 518 500 487 487 484 474 459 454 459 457 448 448 451 448 457 462 471 471 471 474 477 477 477 471 477 474 474 474 474 477 481 477 474 471 448 443 440 438 443 0 0 0 0 0
    0 0 0 0 0 0 0 0 0 0 0 0 0 0 0 0 0 0 0 0 0 0 0 0 0 0 0 0 0 0 0 0 0 0 0 0 0 0 0 0 0 0 0 0 0 0 0 0 0 0 0 0 0 0 0 0 0 0 0 0 0 0 0 0 0 0 0 0 0 451 454 451 451 451 451 448 448 451 451 448 451 446 446 443 446 446 446 448 446 440 448 451 451 471 459 471 0 471 462 465 459 462 457 459 454 454 454 459 457 465 462 457 454 454 459 457 454 443 443 448 448 454 451 457 454 454 465 468 465 468 462 471 468 471 465 459 465 459 465 462 454 451 451 454 454 454 454 451 451 454 457 454 451 448 443 448 451 446 454 457 459 457 459 459 457 459 465 465 454 457 459 451 457 457 457 459 459 457 459 459 468 465 465 468 459 457 462 454 451 457 454 448 446 451 451 457 451 459 459 454 462 462 462 465 462 471 468 468 468 468 468 468 471 465 465 468 468 471 468 462 465 459 468 465 457 465 462 465 468 465 468 468 468 471 459 471 468 468 468 468 468 468 468 474 468 465 468 468 471 465 459 465 465 465 465 465 462 462 462 465 459 462 459 459 448 454 465 465 471 471 471 471 471 481 490 493 511 504 487 484 484 465 448 446 448 446 440 440 440 440 448 459 471 471 471 477 484 484 481 471 481 474 474 477 474 477 484 481 477 471 443 440 438 435 443 0 0 0 0 0
    0 0 0 0 0 0 0 0 0 0 0 0 0 0 0 0 0 0 0 0 0 0 0 0 0 0 0 0 0 0 0 0 0 0 0 0 0 0 0 0 0 0 0 0 0 0 0 0 0 0 0 0 0 0 0 0 0 0 0 0 0 0 0 0 0 0 0 0 0 448 451 448 451 451 451 448 448 451 451 448 451 446 446 446 446 446 446 448 446 443 448 451 451 468 457 468 0 468 459 462 459 462 457 462 454 454 454 459 457 462 462 457 454 454 462 459 459 446 446 448 448 451 451 454 454 454 465 468 465 465 462 468 468 471 465 457 462 459 465 465 457 451 451 454 457 454 454 451 451 454 457 454 454 448 446 454 454 446 454 459 459 459 459 459 457 459 465 462 454 454 457 448 457 457 457 462 459 459 459 459 465 465 462 468 459 457 459 457 454 459 457 451 448 451 451 457 451 459 459 457 462 462 462 465 462 471 465 465 465 468 468 468 468 465 465 468 468 471 468 462 465 459 468 465 459 465 462 465 468 465 471 468 471 471 459 471 468 468 468 468 468 468 468 474 468 468 468 471 474 468 462 468 468 468 465 465 462 462 462 465 462 462 462 462 451 454 468 468 471 471 471 471 471 477 487 490 504 490 481 477 468 451 440 440 440 440 438 438 435 435 443 454 468 471 471 477 490 487 481 459 484 477 477 481 474 477 484 481 474 454 435 435 432 432 440 0 0 0 0 0
    0 0 0 0 0 0 0 0 0 0 0 0 0 0 0 0 0 0 0 0 0 0 0 0 0 0 0 0 0 0 0 0 0 0 0 0 0 0 0 0 0 0 0 0 0 0 0 0 0 0 0 0 0 0 0 0 0 0 0 0 0 0 0 0 0 0 0 0 0 448 451 448 451 451 451 448 451 454 451 448 451 448 446 446 448 446 443 448 446 0 451 454 451 465 457 468 0 468 462 462 462 462 459 462 457 459 457 462 459 462 462 459 454 457 465 465 462 446 446 448 448 451 451 454 451 454 462 468 465 465 459 468 468 468 462 454 462 459 465 465 459 451 454 457 459 457 454 451 454 454 459 457 454 451 448 454 457 446 454 459 459 459 459 459 457 459 465 462 454 457 457 451 457 459 459 465 462 462 462 462 468 468 465 468 459 459 462 459 457 462 459 454 451 454 454 457 451 462 459 457 462 462 462 465 462 468 462 459 465 465 465 465 465 462 462 468 468 468 465 459 465 459 468 465 459 465 462 465 468 468 471 468 471 471 459 471 471 468 471 468 468 468 468 474 471 468 471 471 474 471 465 471 471 468 468 468 462 465 462 465 462 465 462 462 454 457 468 471 471 471 471 471 471 477 484 484 490 481 474 468 459 448 440 435 435 438 435 432 430 432 435 451 0 0 0 0 0 0 0 0 484 477 474 481 474 477 481 477 465 0 432 430 430 430 440 0 0 0 0 0
    0 0 0 0 0 0 0 0 0 0 0 0 0 0 0 0 0 0 0 0 0 0 0 0 0 0 0 0 0 0 0 0 0 0 0 0 0 0 0 0 0 0 0 0 0 0 0 0 0 0 0 0 0 0 0 0 0 0 0 0 0 0 0 0 0 0 0 0 0 448 451 448 451 451 451 448 451 454 451 448 451 446 446 446 448 446 443 446 448 0 454 457 451 465 457 468 0 465 462 462 462 462 459 465 459 462 459 465 462 465 468 465 457 459 468 465 465 448 446 451 448 451 451 451 451 451 462 468 462 462 457 465 462 465 459 451 459 457 462 462 459 451 454 457 462 457 457 454 454 457 459 457 457 457 451 457 459 448 454 459 459 459 459 459 457 457 465 462 454 462 462 451 459 462 462 465 465 462 462 462 468 468 465 468 462 462 465 462 459 465 459 454 451 454 457 459 451 462 459 457 462 462 462 465 462 471 462 459 462 462 465 462 462 459 462 465 465 468 465 459 465 459 468 465 459 465 462 465 468 465 471 468 468 471 459 471 471 471 471 468 468 471 471 474 471 471 471 474 477 471 465 471 471 468 468 468 462 465 465 468 465 465 465 465 459 454 468 471 471 468 468 468 468 474 481 465 477 471 471 462 451 446 435 432 432 432 430 430 427 430 432 443 0 0 0 0 0 0 0 418 0 477 474 481 474 477 474 471 448 432 430 427 425 425 432 0 0 0 0 0
    0 0 0 0 0 0 0 0 0 0 0 0 0 0 0 0 0 0 0 0 0 0 0 0 0 0 0 0 0 0 0 0 0 0 0 0 0 0 0 0 0 0 0 0 0 0 0 0 0 0 0 0 0 0 0 0 0 0 0 0 0 0 0 0 0 0 0 0 0 448 451 448 451 451 451 448 451 454 451 448 451 448 446 446 448 446 443 446 448 0 454 457 454 465 454 465 459 465 462 459 462 465 462 465 459 462 462 465 465 468 468 468 459 465 471 468 468 451 446 451 448 451 451 451 451 451 462 468 462 462 457 462 459 462 457 448 457 457 459 462 457 451 454 457 462 459 457 454 454 457 462 454 459 462 0 462 465 448 457 459 459 457 459 459 457 457 465 462 457 465 465 454 462 465 465 465 462 462 462 462 468 465 462 468 462 462 465 465 462 468 462 457 454 457 457 459 451 462 462 459 465 462 465 465 465 471 465 459 465 462 462 462 462 457 459 465 465 468 465 459 465 462 468 465 462 465 462 465 468 465 471 465 468 471 457 471 471 471 471 465 468 471 468 474 471 471 471 474 477 474 465 474 471 468 468 468 465 465 465 468 465 465 465 465 462 454 471 471 471 468 468 468 471 474 481 457 462 454 462 454 443 440 432 430 427 427 425 425 422 425 427 435 0 0 0 0 533 525 0 0 0 487 484 484 465 465 457 451 435 430 425 422 420 422 425 0 0 0 0 0
    0 0 0 0 0 0 0 0 0 0 0 0 0 0 0 0 0 0 0 0 0 0 0 0 0 0 0 0 0 0 0 0 0 0 0 0 0 0 0 0 0 0 0 0 0 0 0 0 0 0 0 0 0 0 0 0 0 0 0 0 0 0 0 0 0 0 0 0 0 448 454 448 454 454 451 448 451 454 451 448 451 448 448 448 448 446 443 446 448 443 454 454 451 462 451 459 457 459 462 457 459 462 459 465 459 465 462 465 465 468 468 465 459 465 471 468 471 454 446 451 451 451 451 451 451 451 459 468 462 462 454 459 459 459 457 448 457 457 459 462 457 451 454 457 462 459 454 451 454 457 462 454 0 465 0 462 465 451 457 459 459 459 459 459 459 457 465 465 459 468 468 454 462 465 465 468 462 462 462 462 465 465 462 468 462 465 468 465 465 468 462 459 457 459 459 462 451 462 465 459 465 462 465 465 465 471 465 459 465 462 462 462 459 457 459 462 465 468 465 462 468 462 471 465 462 468 462 465 468 465 468 465 468 471 457 471 468 468 471 465 468 471 468 474 471 468 471 474 477 474 468 474 474 471 468 468 465 465 462 468 465 468 468 468 462 454 471 471 471 468 468 468 468 471 481 454 451 446 451 448 440 438 432 427 425 425 422 422 420 422 425 432 0 0 0 0 525 529 0 0 0 497 0 497 0 0 0 435 427 425 422 418 418 418 418 0 0 0 0 0
    0 0 0 0 0 0 0 0 0 0 0 0 0 0 0 0 0 0 0 0 0 0 0 0 0 0 0 0 0 0 0 0 0 0 0 0 0 0 0 0 0 0 0 0 0 0 0 0 0 0 0 0 0 0 0 0 0 0 0 0 0 0 0 0 0 0 0 0 0 448 454 448 454 454 451 448 451 454 451 448 451 448 446 448 448 446 443 446 446 443 454 454 451 459 451 454 454 457 459 454 459 462 459 465 459 465 465 465 465 465 465 462 459 465 468 468 468 454 446 451 451 451 451 451 448 451 459 465 462 462 457 459 459 462 457 448 457 457 459 462 454 451 454 457 465 459 454 454 454 459 465 454 0 0 0 0 468 457 459 462 459 459 459 459 459 457 465 462 459 468 471 457 462 468 465 468 465 462 462 462 465 465 462 468 462 465 468 468 465 471 465 459 459 462 462 465 454 465 465 459 468 465 465 465 465 471 468 462 465 462 462 462 459 457 462 462 465 468 465 462 468 465 471 465 462 468 462 465 468 462 468 465 468 468 457 468 468 468 471 465 468 471 468 474 471 468 471 474 477 474 468 477 474 471 468 468 465 465 462 468 468 468 468 471 462 454 468 471 468 465 468 465 468 471 477 451 451 446 448 448 440 438 432 427 425 422 422 420 418 418 422 430 0 0 0 0 0 0 422 0 393 0 0 0 0 0 411 425 418 418 420 418 418 418 418 0 0 0 0 0
    0 0 0 0 0 0 0 0 0 0 0 0 0 0 0 0 0 0 0 0 0 0 0 0 0 0 0 0 0 0 0 0 0 0 0 0 0 0 0 0 0 0 0 0 0 0 0 0 0 0 0 0 0 0 0 0 0 0 0 0 0 0 0 0 0 0 0 0 0 448 451 448 454 457 451 448 451 454 451 448 451 448 446 448 448 446 443 443 446 443 451 451 448 454 448 451 448 451 454 454 457 459 459 462 459 465 465 468 465 468 468 462 459 465 471 468 471 454 446 451 451 448 451 451 448 448 459 465 462 465 459 459 462 462 459 451 457 457 459 459 454 451 454 457 468 459 457 454 457 462 465 454 0 468 471 468 471 459 459 462 459 459 459 457 459 457 462 462 457 468 471 457 462 468 465 468 465 465 462 462 465 465 462 468 462 468 468 468 465 471 465 462 462 465 465 468 457 465 465 462 468 465 468 465 465 474 468 462 465 462 462 462 459 457 462 462 465 468 468 462 468 468 471 465 465 468 465 468 468 462 468 462 468 468 457 468 468 468 468 468 468 471 468 474 471 471 471 474 477 477 471 481 477 474 471 471 465 468 462 471 468 468 471 471 462 457 471 474 471 468 468 468 468 471 477 448 446 443 443 446 443 440 435 427 427 425 425 422 420 420 422 430 432 432 443 0 0 0 411 395 391 0 0 0 0 0 0 415 415 415 418 418 418 418 418 0 0 0 0 0
    0 0 0 0 0 0 0 0 0 0 0 0 0 0 0 0 0 0 0 0 0 0 0 0 0 0 0 0 0 0 0 0 0 0 0 0 0 0 0 0 0 0 0 0 0 0 0 0 0 0 0 0 0 0 0 0 0 0 0 0 0 0 0 0 0 0 0 0 0 451 454 448 457 457 448 448 451 454 448 448 451 446 446 448 448 443 443 443 443 443 448 448 448 454 446 448 446 451 454 454 459 459 459 465 462 468 462 465 459 454 457 451 454 462 465 465 465 451 446 451 451 448 448 448 448 448 459 465 459 462 459 459 459 462 457 451 457 457 459 459 454 454 457 459 468 459 454 454 457 462 465 454 465 468 471 468 471 462 462 465 459 459 459 457 457 454 459 462 457 468 471 457 462 468 465 468 462 462 462 462 465 465 462 468 462 468 468 468 468 471 468 465 465 468 468 471 457 468 468 465 468 468 468 465 465 474 468 462 465 462 462 462 459 457 465 465 468 468 471 465 471 471 474 465 465 468 465 468 468 462 465 462 468 465 454 465 465 465 468 465 468 468 468 474 471 471 474 477 477 484 477 484 477 474 471 471 462 465 457 468 468 468 474 474 462 459 471 477 474 471 471 468 468 474 477 446 443 440 443 443 440 440 435 430 430 427 425 422 422 420 422 427 430 427 422 406 415 399 404 391 387 389 0 0 0 0 0 418 418 418 418 420 418 418 418 0 0 0 0 0
    0 0 0 0 0 0 0 0 0 0 0 0 0 0 0 0 0 0 0 0 0 0 0 0 0 0 0 0 0 0 0 0 0 0 0 0 0 0 0 0 0 0 0 0 0 0 0 0 0 0 0 0 0 0 0 0 0 0 0 0 0 0 0 0 0 0 0 0 0 451 457 448 457 457 448 448 451 454 451 448 451 448 446 448 448 443 443 446 443 443 448 448 448 454 448 448 446 451 454 454 459 462 462 465 462 468 465 465 462 454 454 448 451 457 459 459 462 451 448 451 451 451 451 451 451 448 459 462 459 462 459 459 459 459 454 451 457 457 457 457 454 454 454 459 465 459 454 451 454 462 462 451 465 471 474 471 474 465 462 465 459 459 459 457 457 454 457 459 454 462 465 454 459 465 462 468 462 465 462 462 465 465 465 468 462 468 468 468 468 471 468 468 468 471 474 474 459 468 468 465 468 468 471 465 468 477 468 462 468 462 465 462 462 462 468 468 468 471 474 468 474 474 474 465 468 468 465 468 468 462 465 462 465 465 454 465 462 462 465 465 465 468 468 474 474 474 474 477 481 490 481 490 481 474 468 468 459 465 454 465 465 468 477 477 462 465 474 481 477 474 474 468 468 477 477 448 443 440 440 443 440 440 435 430 430 427 427 425 425 422 425 427 430 427 0 0 0 0 404 393 393 0 0 0 399 0 0 411 413 413 418 418 420 420 418 0 0 0 0 0
    0 0 0 0 0 0 0 0 0 0 0 0 0 0 0 0 0 0 0 0 0 0 0 0 0 0 0 0 0 0 0 0 0 0 0 0 0 0 0 0 0 0 0 0 0 0 0 0 0 0 0 0 0 0 0 0 0 0 0 0 0 0 0 0 0 0 0 0 0 454 459 451 459 459 451 451 454 454 451 451 454 448 446 451 448 446 446 446 446 446 448 448 448 454 448 446 446 451 454 454 459 462 462 465 465 471 465 465 462 457 454 448 451 454 457 459 465 451 448 454 451 454 454 454 454 451 459 465 462 465 459 459 459 459 454 451 457 457 457 454 451 451 454 457 462 457 451 448 451 459 454 446 462 471 471 471 474 465 462 465 462 459 459 457 457 454 457 459 454 462 465 451 457 462 459 462 457 462 459 459 462 465 462 465 459 468 468 471 471 474 471 471 471 474 477 477 462 468 471 468 471 468 471 465 468 477 471 465 468 465 468 465 465 462 468 468 468 471 474 471 474 474 474 468 468 468 465 468 468 462 465 462 465 465 454 462 459 462 465 465 465 468 468 474 471 474 474 477 481 493 481 497 477 471 465 468 457 465 451 462 465 468 481 477 462 465 474 481 477 477 474 471 471 481 481 457 448 443 440 443 440 440 438 432 430 430 427 427 427 427 425 427 425 420 408 404 408 404 399 385 389 387 387 391 375 387 387 404 406 408 413 415 418 420 420 0 0 0 0 0
    0 0 0 0 0 0 0 0 0 0 0 0 0 0 0 0 0 0 0 0 0 0 0 0 0 0 0 0 0 0 0 0 0 0 0 0 0 0 0 0 0 0 0 0 0 0 0 0 0 0 0 0 0 0 0 0 0 0 0 0 0 0 0 0 0 0 0 0 0 454 457 451 459 459 451 451 454 454 451 451 454 451 448 454 448 446 446 446 446 446 448 448 448 454 448 446 446 451 454 454 459 462 462 462 462 468 462 462 457 451 451 446 451 454 454 457 462 454 451 454 451 457 454 457 457 451 462 465 462 465 459 459 459 459 454 454 457 457 459 454 451 451 454 457 459 451 448 446 448 454 446 443 457 468 471 468 474 468 462 465 462 459 459 457 457 454 457 462 454 462 465 451 457 462 457 459 454 459 457 457 459 462 462 465 459 471 471 474 0 0 0 0 477 474 481 477 465 471 471 468 468 468 471 465 465 477 468 468 468 0 468 465 465 465 468 468 468 474 477 474 474 477 477 468 468 468 465 468 468 462 462 459 465 462 451 462 459 459 462 462 462 465 465 474 468 471 474 477 477 490 477 490 0 0 0 462 448 462 446 451 465 468 484 481 459 465 474 481 477 477 474 471 474 484 484 462 454 443 443 443 443 440 435 432 432 430 430 427 430 430 427 430 427 415 411 406 408 406 399 393 0 0 0 383 371 381 383 0 404 406 411 411 415 418 418 0 0 0 0 0
    0 0 0 0 0 0 0 0 0 0 0 0 0 0 0 0 0 0 0 0 0 0 0 0 0 0 0 0 0 0 0 0 0 0 0 0 0 0 0 0 0 0 0 0 0 0 0 0 0 0 0 0 0 0 0 0 0 0 0 0 0 0 0 0 0 0 0 0 0 448 451 448 454 457 448 448 454 454 451 451 454 451 448 457 451 446 448 446 446 446 446 448 448 454 448 448 446 451 454 454 462 462 462 462 459 468 459 459 454 448 448 446 448 451 454 457 465 454 451 457 454 457 457 459 457 454 462 465 462 468 462 462 462 462 457 457 459 459 459 454 451 454 454 457 457 451 446 446 448 454 0 443 457 471 471 468 474 468 462 465 462 459 459 457 457 454 457 465 454 462 465 448 454 459 454 459 454 459 459 459 459 462 462 468 462 474 471 0 0 0 0 0 0 0 481 481 462 471 471 465 465 468 468 462 462 474 465 468 0 0 468 468 468 465 468 468 468 474 477 477 477 481 477 468 468 471 465 465 465 459 459 459 465 462 451 462 457 457 459 462 462 462 465 471 468 468 471 474 477 0 0 490 474 0 0 0 0 0 432 422 0 0 500 484 454 459 474 481 481 477 474 471 474 481 481 468 462 448 446 446 448 443 438 432 435 430 432 432 435 432 432 435 435 427 427 415 408 406 404 399 402 399 397 393 385 395 389 397 402 404 408 408 413 418 418 0 0 0 0 0
    0 0 0 0 0 0 0 0 0 0 0 0 0 0 0 0 0 0 0 0 0 0 0 0 0 0 0 0 0 0 0 0 0 0 0 0 0 0 0 0 0 0 0 0 0 0 0 0 0 0 0 0 0 0 0 0 0 0 0 0 0 0 0 0 0 0 0 0 0 446 448 446 454 454 448 451 451 451 454 454 457 454 448 457 448 448 448 448 446 446 446 446 448 457 451 451 446 451 454 457 462 462 462 462 459 468 459 459 451 446 446 446 448 451 451 454 462 454 454 457 454 457 457 459 457 454 462 465 462 468 465 462 465 465 457 459 462 462 462 454 451 454 454 457 454 448 446 446 448 451 446 443 454 468 468 468 474 471 459 465 462 459 462 457 457 454 457 465 454 459 462 448 454 462 457 459 457 465 462 465 465 468 465 468 465 477 474 0 0 0 0 0 0 0 481 481 459 468 465 462 462 465 465 457 459 471 462 468 0 0 468 468 468 468 471 471 471 477 481 481 481 484 477 471 471 468 465 465 465 457 457 459 465 459 451 459 457 457 459 462 462 462 465 471 468 471 474 477 477 0 0 493 0 0 0 0 0 0 413 406 402 0 0 0 0 457 474 484 481 477 477 471 474 484 0 468 462 451 451 0 462 446 440 438 438 435 438 435 435 435 435 443 440 432 435 425 427 418 413 402 402 402 404 399 393 399 395 399 402 404 408 406 413 418 420 0 0 0 0 0
    0 0 0 0 0 0 0 0 0 0 0 0 0 0 0 0 0 0 0 0 0 0 0 0 0 0 0 0 0 0 0 0 0 0 0 0 0 0 0 0 0 0 0 0 0 0 0 0 0 0 0 0 0 0 0 0 0 0 0 0 0 0 0 0 0 0 0 0 0 443 446 443 451 451 448 451 451 451 454 457 459 454 451 459 448 448 451 448 446 446 446 448 448 459 457 454 446 454 457 462 465 465 462 462 462 468 459 459 451 443 446 443 448 448 448 451 462 451 454 457 454 457 459 459 459 454 462 462 462 468 465 465 465 462 457 459 465 462 462 451 451 451 454 459 454 448 446 446 451 451 448 446 451 465 468 468 474 471 0 465 462 459 459 457 454 451 454 465 454 459 462 446 454 462 0 459 459 0 465 465 0 0 0 0 0 0 0 0 0 0 0 0 183 183 0 481 459 468 462 459 459 462 459 454 454 468 457 0 0 0 471 471 471 471 471 474 471 477 484 484 484 487 477 471 471 468 465 465 462 457 451 459 462 457 454 459 454 457 459 465 459 462 465 474 471 474 477 481 481 0 0 0 0 0 0 0 0 0 0 408 404 411 0 0 0 0 0 497 493 487 481 477 0 493 0 0 0 0 0 0 477 451 443 443 443 438 440 440 440 440 440 446 440 435 438 432 435 425 422 413 411 406 402 393 387 391 389 389 393 399 402 402 408 413 415 0 0 0 0 0
    0 0 0 0 0 0 0 0 0 0 0 0 0 0 0 0 0 0 0 0 0 0 0 0 0 0 0 0 0 0 0 0 0 0 0 0 0 0 0 0 0 0 0 0 0 0 0 0 0 0 0 0 0 0 0 0 0 0 0 0 0 0 0 0 0 0 0 0 0 440 443 440 448 448 446 448 448 448 454 457 459 454 451 462 451 451 451 448 448 448 446 448 448 462 462 459 448 457 457 465 468 468 465 465 462 468 462 462 454 446 448 448 451 448 448 0 465 454 457 459 0 0 0 0 465 457 465 465 459 471 465 465 465 459 451 457 462 462 462 451 451 451 457 459 451 448 446 446 451 448 448 446 451 468 468 471 477 471 0 0 0 459 462 457 454 451 454 465 457 459 462 446 454 0 0 0 0 0 0 0 301 295 292 0 0 0 0 0 0 0 184 181 182 183 185 0 0 465 459 457 454 457 454 451 448 465 0 0 137 137 0 0 484 477 477 481 477 487 487 487 490 490 481 0 471 471 468 0 465 457 448 459 462 451 0 0 448 448 457 462 457 459 468 477 0 0 0 490 0 0 0 0 0 0 0 0 0 3199 2453 408 404 411 0 0 0 0 0 533 529 514 497 490 0 0 0 0 0 0 623 579 507 457 446 446 446 443 448 448 443 443 454 462 446 440 440 432 438 430 430 422 422 408 402 393 389 391 385 379 377 383 389 393 399 402 404 0 0 0 0 0
    0 0 0 0 0 0 0 0 0 0 0 0 0 0 0 0 0 0 0 0 0 0 0 0 0 0 0 0 0 0 0 0 0 0 0 0 0 0 0 0 0 0 0 0 0 0 0 0 0 0 0 0 0 0 0 0 0 0 0 0 0 0 0 0 0 0 0 0 0 435 0 440 443 446 446 448 448 446 451 457 459 459 454 465 451 457 457 451 454 451 448 451 451 468 465 465 451 459 459 468 471 468 468 465 465 471 465 465 457 448 451 451 457 451 451 0 465 459 462 0 0 0 0 0 0 465 468 471 454 477 465 465 465 454 448 457 465 465 465 451 451 451 457 459 451 448 446 446 451 448 451 446 457 474 471 474 484 477 0 0 0 0 462 459 457 454 0 0 459 459 459 443 448 454 0 0 0 0 0 293 296 294 290 0 0 0 0 0 0 95 0 0 182 182 184 184 0 465 454 451 448 448 446 446 0 0 139 139 138 138 0 0 0 484 484 487 0 497 497 493 500 490 0 0 0 487 471 462 454 454 446 462 446 0 0 0 432 0 446 448 446 0 0 0 0 0 0 0 0 0 0 0 0 0 0 0 0 6133 0 3504 0 0 0 0 0 0 0 0 0 0 0 0 0 0 721 0 782 714 629 0 0 0 446 451 451 448 462 462 454 451 474 477 459 454 448 435 438 432 427 425 422 408 399 395 391 391 387 381 375 373 377 385 391 393 393 0 0 0 0 0
    0 0 0 0 0 0 0 0 0 0 0 0 0 0 0 0 0 0 0 0 0 0 0 0 0 0 0 0 0 0 0 0 0 0 0 0 0 0 0 0 0 0 0 0 0 0 0 0 0 0 0 0 0 0 0 0 0 0 0 0 0 0 0 0 0 0 0 0 0 432 0 0 0 443 446 446 446 443 451 457 462 462 457 465 451 462 459 457 459 457 454 454 457 471 471 471 457 459 459 468 474 468 468 462 465 471 465 462 459 451 454 451 457 454 454 459 471 0 0 0 0 0 0 0 0 471 474 481 0 0 0 457 459 446 446 457 465 465 465 448 448 448 457 457 448 446 0 0 448 0 0 0 0 0 468 0 0 0 0 0 0 0 0 0 462 457 0 0 462 0 0 440 443 0 0 311 0 0 289 289 290 290 288 289 0 0 0 117 0 0 0 0 0 182 183 183 183 181 443 0 0 0 0 242 242 0 142 0 0 0 0 0 0 0 0 487 0 493 0 0 0 0 0 0 0 0 0 477 471 465 459 454 430 0 0 0 0 0 147 146 0 0 0 0 0 0 0 0 0 0 0 0 0 0 0 0 0 0 0 0 0 0 0 0 0 0 774 735 728 743 743 743 743 774 791 782 791 714 634 0 0 465 451 465 468 468 471 471 465 462 481 481 468 465 451 440 440 432 427 422 422 406 399 393 387 387 383 377 373 371 373 379 381 387 387 0 0 0 0 0</data></depth>
</opencv_storage>
