<?xml version="1.0"?>
<opencv_storage>
<gps_time_stamp>33393</gps_time_stamp>
<gps_x>-1.0551270484924316e+001</gps_x>
<gps_y>1.1206153631210327e+000</gps_y>
<gps_z>-2.6689555644989014e+000</gps_z>
<image_time_stamp>21365</image_time_stamp>
<depth type_id="opencv-matrix">
  <rows>89</rows>
  <cols>320</cols>
  <dt>s</dt>
  <data>
    0 0 0 0 0 0 0 0 0 0 0 0 0 0 0 0 0 0 0 0 0 0 0 0 0 0 0 0 0 0 0 0 0 0 0 0 0 0 0 0 0 0 0 0 0 0 0 0 0 0 0 0 0 0 0 0 0 0 0 0 0 0 0 0 0 0 0 0 0 0 549 545 549 545 545 541 537 537 537 533 529 529 529 525 529 529 529 529 533 537 0 0 0 0 0 0 0 529 529 529 533 533 537 533 537 537 537 537 537 537 541 541 541 533 525 529 533 0 533 0 0 525 521 533 533 529 529 533 537 533 537 541 537 537 537 541 533 525 533 518 518 518 525 521 518 521 514 521 525 521 529 525 525 529 529 533 537 533 541 537 537 537 541 541 541 541 541 541 545 541 545 537 529 533 529 533 533 533 533 533 533 537 537 545 549 541 537 537 537 537 541 541 545 545 545 541 525 529 529 521 525 521 518 518 518 529 518 518 525 521 518 525 521 525 529 533 545 541 549 553 549 553 553 553 549 541 537 529 541 541 537 541 0 0 537 537 537 537 529 533 525 525 525 525 521 529 518 0 500 0 518 514 521 521 521 518 521 525 521 518 518 521 518 525 529 525 525 521 525 525 521 529 518 514 521 525 533 529 521 525 518 514 511 504 500 497 497 493 514 504 500 514 511 507 504 504 514 511 511 511 511 507 507 507 500 497 493 504 497 474 465 465 468 471 471 0 0 0 0 0
    0 0 0 0 0 0 0 0 0 0 0 0 0 0 0 0 0 0 0 0 0 0 0 0 0 0 0 0 0 0 0 0 0 0 0 0 0 0 0 0 0 0 0 0 0 0 0 0 0 0 0 0 0 0 0 0 0 0 0 0 0 0 0 0 0 0 0 0 0 0 545 541 545 541 541 541 537 533 537 529 529 525 525 521 525 525 529 529 533 0 0 0 0 0 0 0 0 529 529 529 529 533 537 529 537 537 533 537 537 537 541 541 541 533 525 533 537 0 0 0 0 529 525 533 537 529 529 533 537 533 537 541 537 537 537 541 533 525 533 514 511 511 518 518 514 518 511 518 521 518 525 521 521 525 525 529 533 529 537 533 537 537 541 541 541 541 541 541 541 537 541 533 525 533 529 533 533 533 533 533 537 537 533 0 0 529 521 521 525 525 533 533 541 541 541 541 529 533 533 525 525 521 521 518 518 525 514 518 525 518 518 521 518 521 518 529 533 529 0 545 537 553 549 0 0 0 0 518 537 541 0 0 0 0 0 541 541 537 533 533 529 525 529 525 521 529 0 0 0 0 518 511 514 518 521 518 521 521 521 518 521 525 521 525 529 525 521 518 521 521 514 521 497 490 497 507 533 525 511 518 500 500 500 493 493 0 0 487 511 497 500 511 507 504 500 500 511 504 504 504 504 500 497 497 493 487 487 493 484 465 454 451 468 471 468 0 0 0 0 0
    0 0 0 0 0 0 0 0 0 0 0 0 0 0 0 0 0 0 0 0 0 0 0 0 0 0 0 0 0 0 0 0 0 0 0 0 0 0 0 0 0 0 0 0 0 0 0 0 0 0 0 0 0 0 0 0 0 0 0 0 0 0 0 0 0 0 0 0 0 0 545 541 541 0 0 541 541 541 537 529 525 525 521 521 521 521 525 525 529 0 0 0 0 0 0 0 0 529 0 0 529 0 0 0 0 529 525 529 525 529 529 533 537 529 514 0 541 0 0 0 0 533 529 533 533 529 529 533 537 533 537 541 537 537 541 545 533 525 529 507 507 504 511 507 507 507 500 507 514 504 514 511 511 514 514 521 529 521 537 533 537 541 541 541 541 541 537 537 541 533 533 529 521 533 529 533 529 529 533 533 533 537 533 0 525 511 507 504 507 514 521 521 537 537 541 541 533 533 533 525 525 521 518 518 518 525 507 514 521 518 514 518 514 521 0 529 0 529 0 549 541 561 549 0 0 0 511 0 0 533 0 0 0 0 0 541 541 537 533 537 529 529 529 525 525 0 0 110 0 0 0 0 0 0 521 518 521 521 521 518 521 525 521 525 529 525 518 511 511 511 497 500 484 477 477 477 0 497 487 0 0 0 474 468 477 471 468 471 500 490 497 504 500 500 497 497 507 500 497 497 493 490 490 487 484 477 474 481 474 454 451 451 471 474 471 0 0 0 0 0
    0 0 0 0 0 0 0 0 0 0 0 0 0 0 0 0 0 0 0 0 0 0 0 0 0 0 0 0 0 0 0 0 0 0 0 0 0 0 0 0 0 0 0 0 0 0 0 0 0 0 0 0 0 0 0 0 0 0 0 0 0 0 0 0 0 0 0 0 0 0 0 0 0 0 0 545 537 541 537 525 518 521 518 518 511 518 514 518 521 0 0 0 0 0 0 0 0 0 0 0 0 0 0 0 0 514 504 0 500 0 490 487 493 490 487 518 541 0 0 0 0 533 529 533 533 525 525 529 533 533 537 541 537 537 541 545 533 521 521 504 500 497 500 500 497 500 493 497 504 497 500 493 493 497 493 504 511 497 525 521 529 537 541 537 541 537 537 537 537 533 533 525 521 529 525 529 529 529 529 529 533 533 525 0 507 497 497 493 493 500 507 497 514 533 533 533 529 533 533 525 525 518 511 507 511 518 497 500 504 500 497 497 493 497 0 0 474 474 0 553 545 570 549 0 0 0 490 0 0 0 0 0 0 0 0 545 541 533 533 537 529 529 0 0 521 0 0 0 0 0 0 0 0 0 521 518 518 521 521 518 521 525 518 525 525 521 514 500 497 497 484 484 474 468 465 462 462 465 448 438 443 438 448 451 451 454 454 451 490 484 490 497 493 493 493 493 500 493 493 490 487 481 477 474 468 457 457 465 465 446 446 454 465 474 471 0 0 0 0 0
    0 0 0 0 0 0 0 0 0 0 0 0 0 0 0 0 0 0 0 0 0 0 0 0 0 0 0 0 0 0 0 0 0 0 0 0 0 0 0 0 0 0 0 0 0 0 0 0 0 0 0 0 0 0 0 0 0 0 0 0 0 0 0 0 0 0 0 0 0 0 0 481 477 477 481 500 493 493 518 493 490 500 497 497 490 497 487 497 497 0 0 0 0 0 0 0 0 0 0 0 0 0 0 0 0 0 490 0 0 477 474 474 474 474 474 477 537 529 541 529 533 529 521 529 529 525 521 529 533 529 537 541 537 537 537 541 529 511 514 497 493 490 490 493 490 493 487 490 493 487 490 487 484 487 481 490 490 484 497 507 514 529 533 533 537 533 533 537 541 533 533 525 525 529 525 533 525 525 525 525 529 529 518 529 0 471 484 481 477 481 481 477 477 490 507 481 525 533 529 518 518 504 493 493 500 500 487 487 490 487 487 481 484 481 471 474 462 454 443 0 0 0 0 0 0 0 462 443 0 0 0 0 0 0 0 545 541 533 533 537 529 0 0 0 0 0 0 0 0 0 0 0 0 117 0 511 514 518 514 511 514 521 514 521 521 511 500 490 484 484 474 474 468 459 454 454 454 457 446 443 443 438 446 448 448 451 448 451 474 471 484 490 487 487 487 490 497 487 487 477 474 462 451 451 448 443 443 446 451 440 440 448 451 468 465 0 0 0 0 0
    0 0 0 0 0 0 0 0 0 0 0 0 0 0 0 0 0 0 0 0 0 0 0 0 0 0 0 0 0 0 0 0 0 0 0 0 0 0 0 0 0 0 0 0 0 0 0 0 0 0 0 0 0 0 0 0 0 0 0 0 0 0 0 0 0 0 0 0 0 477 474 474 471 471 474 477 474 474 481 481 477 484 484 490 484 487 481 484 484 0 0 0 0 0 0 0 0 0 0 0 514 0 0 0 0 487 484 471 474 471 468 468 468 465 465 468 487 504 525 518 529 521 511 0 518 514 511 521 533 525 533 541 537 533 533 537 518 493 0 490 487 487 487 487 487 490 481 484 487 484 481 481 477 477 474 481 484 477 484 493 500 518 525 525 529 529 529 537 537 529 529 521 525 529 521 529 521 518 521 514 521 511 497 504 477 459 474 465 468 474 474 471 471 474 481 471 493 518 518 497 497 487 481 481 490 484 477 474 481 481 481 474 474 471 462 468 454 446 440 443 435 430 425 422 438 440 443 443 443 446 0 0 0 0 0 0 537 529 0 537 0 0 0 0 0 0 0 0 0 126 0 0 0 0 0 0 500 504 500 0 0 0 507 521 521 504 490 481 468 474 465 465 462 454 451 454 451 459 446 446 446 438 443 446 443 448 446 448 462 462 474 481 481 481 484 484 487 481 484 459 451 446 440 440 440 438 438 438 443 438 438 440 435 435 443 0 0 0 0 0
    0 0 0 0 0 0 0 0 0 0 0 0 0 0 0 0 0 0 0 0 0 0 0 0 0 0 0 0 0 0 0 0 0 0 0 0 0 0 0 0 0 0 0 0 0 0 0 0 0 0 0 0 0 0 0 0 0 0 0 0 0 0 0 0 0 0 0 0 0 471 465 468 465 462 468 468 465 465 468 474 468 474 471 477 471 474 468 471 465 0 0 0 0 0 0 0 0 504 0 0 504 0 0 0 0 481 477 459 468 465 462 465 465 462 462 462 477 477 477 484 511 497 490 0 0 497 493 507 525 511 525 537 529 525 525 525 500 481 0 481 477 477 481 484 484 484 468 477 477 477 474 474 474 471 471 477 477 474 477 484 487 500 514 518 518 518 521 529 533 521 525 514 525 529 518 525 518 511 514 504 507 493 484 487 474 459 468 457 462 468 468 465 465 468 471 465 477 481 481 477 481 474 468 468 481 471 465 462 468 468 468 468 465 465 459 465 454 451 446 448 446 443 440 438 443 443 440 443 446 446 440 448 459 457 468 0 525 514 0 0 0 0 0 0 0 0 0 0 0 0 468 0 471 468 474 0 477 0 474 459 0 0 0 0 0 477 471 465 448 459 457 454 454 451 451 451 451 462 448 446 448 440 443 446 446 448 448 451 459 457 471 474 474 474 477 477 481 474 474 446 440 440 438 438 435 435 435 435 438 435 435 438 430 432 435 0 0 0 0 0
    0 0 0 0 0 0 0 0 0 0 0 0 0 0 0 0 0 0 0 0 0 0 0 0 0 0 0 0 0 0 0 0 0 0 0 0 0 0 0 0 0 0 0 0 0 0 0 0 0 0 0 0 0 0 0 0 0 0 0 0 0 0 0 0 0 0 0 0 0 465 462 465 462 459 465 465 459 459 459 465 459 465 459 465 454 459 451 451 446 440 0 0 0 0 106 0 0 0 0 0 490 0 0 474 474 474 471 454 462 462 459 462 462 459 459 459 474 468 459 471 477 474 468 474 477 481 474 481 500 487 490 514 490 484 487 484 481 474 468 471 468 465 471 474 477 477 457 468 471 471 468 468 468 465 465 474 474 468 471 474 471 484 493 500 493 497 504 518 529 507 521 497 529 533 518 0 518 504 511 0 0 481 477 481 468 457 465 451 459 462 462 459 459 462 465 457 471 468 468 465 468 465 457 457 468 454 448 448 454 451 451 454 454 454 457 457 454 451 448 448 448 448 446 440 443 443 440 440 446 446 440 446 451 451 454 459 0 465 0 0 465 457 0 448 451 454 459 0 0 0 462 465 465 462 465 462 462 446 446 443 443 440 443 440 451 448 451 448 443 451 448 448 451 448 448 451 451 462 448 448 448 443 443 443 443 448 446 451 457 454 462 468 465 468 471 471 471 462 462 440 435 438 438 438 435 435 435 435 438 438 435 435 430 430 427 0 0 0 0 0
    0 0 0 0 0 0 0 0 0 0 0 0 0 0 0 0 0 0 0 0 0 0 0 0 0 0 0 0 0 0 0 0 0 0 0 0 0 0 0 0 0 0 0 0 0 0 0 0 0 0 0 0 0 0 0 0 0 0 0 0 0 0 0 0 0 0 0 0 0 465 459 462 459 459 465 462 454 454 457 462 457 462 454 459 451 465 459 457 451 446 446 443 0 0 0 0 0 0 0 0 481 474 474 471 471 471 468 451 459 459 459 459 459 457 457 454 471 459 451 465 468 465 462 465 468 471 465 471 474 474 471 477 474 471 471 471 471 465 459 465 462 459 465 465 471 471 451 465 465 465 465 465 462 462 459 471 468 459 462 465 454 462 457 481 471 471 0 0 500 487 493 0 0 0 0 0 0 0 0 0 0 474 474 474 462 451 459 448 454 459 457 457 457 457 459 454 465 462 454 454 454 451 448 446 448 443 440 443 446 446 443 448 448 448 451 454 454 451 448 448 451 451 448 443 446 443 440 440 446 443 440 443 446 446 446 448 457 446 451 465 457 448 448 448 451 454 457 459 459 459 462 462 462 462 462 457 454 443 443 440 443 440 443 440 443 443 446 443 440 446 446 446 448 446 448 448 451 465 451 448 451 446 448 446 446 448 446 451 454 451 457 462 459 462 465 465 462 454 454 438 432 0 0 0 0 0 438 438 438 440 435 435 430 0 427 0 0 0 0 0
    0 0 0 0 0 0 0 0 0 0 0 0 0 0 0 0 0 0 0 0 0 0 0 0 0 0 0 0 0 0 0 0 0 0 0 0 0 0 0 0 0 0 0 0 0 0 0 0 0 0 0 0 0 0 0 0 0 0 0 0 0 0 0 0 0 0 0 0 0 462 459 462 459 459 465 462 454 454 454 459 454 462 454 462 454 468 468 462 459 451 451 448 0 0 0 0 0 0 474 474 474 471 468 468 468 468 465 451 459 459 457 457 457 454 451 448 465 446 446 457 462 459 459 462 465 465 459 462 459 459 459 462 462 459 462 462 462 462 457 462 459 457 462 462 468 468 448 462 462 459 459 459 459 457 457 468 459 454 454 459 451 451 446 454 451 448 448 457 468 474 481 457 0 0 0 0 0 0 0 0 0 468 468 471 457 451 457 446 451 457 457 457 457 457 459 454 465 457 451 448 448 446 443 440 440 438 438 438 443 440 440 446 446 446 448 451 451 451 451 451 454 451 448 443 446 446 440 440 446 443 443 446 448 446 446 448 454 443 446 454 451 448 448 448 451 454 459 462 462 459 462 462 462 459 462 454 451 443 443 443 443 440 443 440 443 443 443 443 438 446 446 446 448 446 448 448 451 465 451 451 451 448 451 451 446 448 446 448 451 451 454 457 454 457 457 459 454 446 443 435 430 0 0 0 0 0 0 438 440 443 435 435 432 0 430 0 0 0 0 0
    0 0 0 0 0 0 0 0 0 0 0 0 0 0 0 0 0 0 0 0 0 0 0 0 0 0 0 0 0 0 0 0 0 0 0 0 0 0 0 0 0 0 0 0 0 0 0 0 0 0 0 0 0 0 0 0 0 0 0 0 0 0 0 0 0 0 0 0 0 459 457 459 457 457 462 459 451 451 454 457 454 459 454 465 457 471 468 465 462 454 448 448 0 0 457 0 0 0 468 471 471 468 465 468 468 465 465 448 457 457 457 457 454 451 448 448 462 446 443 457 459 457 459 459 462 462 457 462 454 457 454 457 457 454 457 457 457 457 454 457 459 459 465 462 471 468 451 462 462 459 459 459 459 457 454 468 457 451 451 459 451 448 448 448 448 448 448 454 451 465 457 448 446 0 438 443 446 448 451 451 454 457 459 465 451 448 454 446 451 457 454 454 454 457 459 454 462 457 448 448 446 443 443 440 435 435 435 438 440 440 440 443 443 446 448 451 451 448 451 451 454 451 448 443 446 448 443 440 448 446 446 448 448 448 448 448 457 443 446 451 451 448 448 448 451 454 462 465 465 459 462 459 459 462 459 454 451 443 443 443 443 443 443 443 443 443 446 443 438 446 446 446 446 446 448 448 448 462 451 448 448 446 448 448 443 446 443 446 448 448 451 454 454 457 454 454 448 443 440 435 427 438 0 0 0 0 0 438 440 443 435 435 430 435 425 0 0 0 0 0
    0 0 0 0 0 0 0 0 0 0 0 0 0 0 0 0 0 0 0 0 0 0 0 0 0 0 0 0 0 0 0 0 0 0 0 0 0 0 0 0 0 0 0 0 0 0 0 0 0 0 0 0 0 0 0 0 0 0 0 0 0 0 0 0 0 0 0 0 0 457 454 459 457 457 462 459 451 451 454 457 454 459 454 462 454 468 465 462 457 448 446 446 454 457 454 0 0 0 468 471 471 468 465 468 468 465 465 448 457 457 454 454 454 451 448 446 465 446 446 457 459 459 459 462 462 462 457 462 454 457 457 459 457 457 459 457 457 457 454 457 459 459 465 462 471 471 451 462 462 459 459 459 459 457 454 471 457 454 451 459 451 448 446 448 446 443 446 448 443 451 443 443 443 440 440 443 446 448 448 451 451 457 457 462 451 448 454 446 451 457 454 454 454 457 457 451 462 454 446 446 446 443 440 440 438 435 435 438 440 440 440 443 446 446 448 451 451 451 451 451 454 451 448 446 448 448 443 440 448 448 446 448 451 448 448 451 459 443 446 454 451 448 448 448 451 454 459 462 462 459 459 457 457 462 462 459 454 448 448 446 446 446 446 443 446 446 446 443 438 446 446 446 446 446 446 448 448 459 448 448 448 443 446 448 443 446 443 446 448 448 451 454 451 454 451 451 446 440 438 435 425 0 0 0 0 0 0 438 438 443 432 435 430 435 425 0 0 0 0 0
    0 0 0 0 0 0 0 0 0 0 0 0 0 0 0 0 0 0 0 0 0 0 0 0 0 0 0 0 0 0 0 0 0 0 0 0 0 0 0 0 0 0 0 0 0 0 0 0 0 0 0 0 0 0 0 0 0 0 0 0 0 0 0 0 0 0 0 0 0 457 454 457 457 457 462 459 451 451 454 459 457 459 454 465 454 465 459 457 451 443 443 0 448 451 451 0 0 0 468 468 468 465 465 468 465 465 462 448 457 457 457 454 454 451 448 446 462 448 446 457 459 459 459 462 462 462 457 462 454 459 459 459 459 457 459 457 457 457 454 457 457 462 465 462 474 474 451 462 462 462 459 459 459 457 457 474 459 457 454 459 454 454 448 448 446 446 446 448 443 448 443 446 443 443 440 443 443 446 446 448 448 454 457 459 448 448 454 446 451 457 454 454 454 454 454 451 459 454 446 446 443 443 440 440 438 438 435 438 440 443 443 443 446 448 451 457 457 454 454 454 459 457 451 448 451 451 443 440 448 448 446 448 451 448 448 451 462 446 446 454 454 451 451 451 451 451 457 459 459 457 457 457 457 465 462 459 457 448 448 446 446 446 446 446 446 446 446 443 438 446 446 446 448 446 446 448 448 459 446 446 446 443 443 448 440 446 443 446 446 448 448 451 448 448 448 448 443 440 438 438 427 438 435 438 435 0 438 438 438 443 432 432 430 432 420 0 0 0 0 0
    0 0 0 0 0 0 0 0 0 0 0 0 0 0 0 0 0 0 0 0 0 0 0 0 0 0 0 0 0 0 0 0 0 0 0 0 0 0 0 0 0 0 0 0 0 0 0 0 0 0 0 0 0 0 0 0 0 0 0 0 0 0 0 0 0 0 0 0 0 457 454 457 457 457 462 459 451 451 451 457 457 459 454 465 454 465 457 457 0 0 0 0 0 448 448 0 0 0 465 462 462 462 459 465 462 465 462 448 457 457 457 457 454 454 448 446 462 454 448 459 462 457 459 462 462 462 457 462 457 459 462 462 459 457 459 457 457 459 454 457 457 462 468 465 474 477 454 465 465 462 462 459 459 457 457 474 462 457 454 459 451 454 448 446 446 446 446 451 446 451 446 448 448 448 446 446 448 448 446 451 448 454 457 459 448 448 454 446 448 454 454 451 454 454 454 451 459 454 446 448 446 443 443 443 440 440 440 443 443 446 443 443 446 446 451 457 457 457 459 457 462 459 457 451 454 454 446 443 451 448 448 448 451 451 451 454 465 446 448 454 454 451 448 451 451 451 457 457 457 454 454 457 457 465 462 457 454 446 448 446 446 446 443 443 443 443 446 443 438 446 446 446 446 446 446 448 448 459 446 443 443 443 443 446 438 443 440 446 446 448 448 448 446 446 446 446 443 440 438 438 430 438 438 438 435 438 438 438 438 443 432 430 427 435 420 0 0 0 0 0
    0 0 0 0 0 0 0 0 0 0 0 0 0 0 0 0 0 0 0 0 0 0 0 0 0 0 0 0 0 0 0 0 0 0 0 0 0 0 0 0 0 0 0 0 0 0 0 0 0 0 0 0 0 0 0 0 0 0 0 0 0 0 0 0 0 0 0 0 0 457 457 457 459 457 462 462 448 448 451 454 454 457 451 462 451 462 454 0 0 0 0 0 0 0 446 0 0 454 457 454 454 454 454 459 459 462 462 448 457 457 457 457 454 454 448 446 462 457 448 459 459 457 459 462 462 459 457 462 454 459 459 459 457 457 459 457 454 457 451 457 459 465 468 465 474 477 454 465 465 462 459 459 459 454 454 474 465 459 454 459 451 459 451 448 446 446 448 454 448 454 448 451 448 451 448 451 451 454 451 454 448 457 457 459 446 448 451 446 448 454 454 451 451 454 454 451 457 454 448 448 446 446 446 446 446 443 446 446 446 448 446 446 446 448 451 454 457 457 459 459 465 462 462 457 457 457 448 443 451 451 448 448 454 451 451 454 468 448 448 454 454 451 448 448 448 451 454 454 454 451 448 454 454 459 454 451 451 443 448 443 443 443 443 443 443 443 446 440 438 446 446 446 446 446 446 446 446 454 443 443 443 443 443 446 438 443 440 443 446 446 446 446 443 446 443 443 440 440 438 438 432 438 438 438 435 438 438 438 440 446 432 432 432 440 425 0 0 0 0 0
    0 0 0 0 0 0 0 0 0 0 0 0 0 0 0 0 0 0 0 0 0 0 0 0 0 0 0 0 0 0 0 0 0 0 0 0 0 0 0 0 0 0 0 0 0 0 0 0 0 0 0 0 0 0 0 0 0 0 0 0 0 0 0 0 0 0 0 0 0 459 457 459 459 457 462 462 448 448 448 454 454 457 451 465 451 462 454 0 0 0 0 0 0 0 0 0 446 451 451 451 451 454 457 462 457 465 465 451 457 459 459 457 457 457 448 448 465 462 448 459 459 459 459 462 462 457 454 459 451 457 457 457 454 454 459 457 454 457 454 459 462 465 471 465 474 477 459 462 465 462 459 459 462 454 454 471 468 459 454 462 457 462 459 454 451 454 454 459 451 454 448 451 451 451 451 451 454 457 454 454 451 459 457 459 446 448 451 446 448 454 454 451 451 451 451 451 454 454 448 448 446 446 446 446 446 443 446 446 446 448 448 446 448 448 451 454 457 457 459 459 468 465 462 459 459 459 451 443 451 451 448 451 454 451 451 454 468 448 448 454 454 454 451 451 451 451 457 454 454 448 443 448 448 451 448 446 446 443 446 443 440 440 440 440 440 440 443 440 438 446 446 446 446 446 446 446 446 451 443 443 443 443 443 446 438 440 435 438 440 443 443 443 443 443 443 440 440 438 438 438 432 438 438 438 438 438 440 440 443 448 435 432 435 443 425 0 0 0 0 0
    0 0 0 0 0 0 0 0 0 0 0 0 0 0 0 0 0 0 0 0 0 0 0 0 0 0 0 0 0 0 0 0 0 0 0 0 0 0 0 0 0 0 0 0 0 0 0 0 0 0 0 0 0 0 0 0 0 0 0 0 0 0 0 0 0 0 0 0 0 459 457 459 459 457 462 462 448 448 448 454 457 459 454 468 457 465 459 462 0 0 0 0 443 443 443 0 446 448 451 451 454 459 462 471 462 471 471 454 459 459 459 459 457 459 451 448 465 468 451 462 459 459 459 459 457 454 451 457 448 454 454 454 454 457 459 459 457 459 457 459 462 468 468 462 474 477 459 462 462 462 459 459 462 454 454 468 468 459 457 465 465 468 468 462 457 454 457 459 448 451 448 448 451 454 451 454 454 457 454 457 454 454 451 454 443 448 451 446 448 451 454 451 451 451 448 448 451 454 446 448 446 448 446 448 448 448 448 451 448 454 451 448 451 451 454 457 459 457 462 462 468 465 462 459 457 459 454 443 454 451 451 451 454 454 454 454 471 451 451 457 457 454 451 451 451 451 457 454 448 446 440 446 443 446 443 443 440 440 446 443 438 440 440 440 438 440 446 440 440 446 446 446 446 446 446 446 446 451 443 440 443 440 443 446 438 440 435 438 440 446 443 443 443 443 443 440 440 440 438 438 435 440 440 440 438 440 440 440 443 446 435 435 432 438 425 0 0 0 0 0
    0 0 0 0 0 0 0 0 0 0 0 0 0 0 0 0 0 0 0 0 0 0 0 0 0 0 0 0 0 0 0 0 0 0 0 0 0 0 0 0 0 0 0 0 0 0 0 0 0 0 0 0 0 0 0 0 0 0 0 0 0 0 0 0 0 0 0 0 0 459 457 459 459 457 462 462 448 448 448 457 457 457 454 465 454 459 454 457 0 446 446 443 440 443 443 446 446 448 451 451 454 459 462 471 459 468 471 454 457 459 459 457 457 459 451 451 465 468 451 462 457 459 457 459 457 451 448 454 451 454 454 457 457 457 459 462 457 462 457 459 462 465 468 462 471 474 459 459 462 459 457 457 459 454 454 465 468 462 459 468 468 471 474 465 462 459 457 457 448 448 448 451 451 454 451 454 454 457 454 454 448 446 446 448 440 448 451 448 446 451 454 451 448 451 448 446 448 454 446 446 446 448 448 451 454 451 451 454 451 457 454 451 454 457 457 462 462 462 462 465 468 462 459 457 457 457 454 440 454 451 451 451 454 451 451 454 471 448 451 454 451 451 446 448 448 448 451 448 446 443 440 446 443 443 440 440 440 443 446 446 440 440 438 440 438 440 446 440 440 446 446 446 448 448 443 443 443 448 443 440 440 440 440 446 435 438 435 438 440 446 443 443 446 446 446 443 443 440 438 438 438 440 440 440 440 440 440 440 443 443 435 432 430 435 420 0 0 0 0 0
    0 0 0 0 0 0 0 0 0 0 0 0 0 0 0 0 0 0 0 0 0 0 0 0 0 0 0 0 0 0 0 0 0 0 0 0 0 0 0 0 0 0 0 0 0 0 0 0 0 0 0 0 0 0 0 0 0 0 0 0 0 0 0 0 0 0 0 0 0 459 457 459 459 457 462 462 451 451 451 457 457 454 451 459 451 454 451 451 448 443 446 443 443 443 443 448 446 448 451 451 451 459 459 468 454 465 465 454 454 459 457 457 454 459 454 451 465 468 454 459 454 457 454 457 454 451 448 454 451 454 457 457 457 459 462 465 457 462 457 459 462 465 465 459 471 474 459 454 459 459 457 454 459 451 454 462 468 459 459 465 468 471 474 468 465 468 459 457 448 448 448 451 451 451 451 454 451 454 451 451 446 443 446 446 440 448 451 448 446 451 451 448 448 451 446 446 448 454 443 446 448 451 448 454 457 454 454 454 451 457 454 451 454 459 459 462 462 462 462 465 468 462 459 457 454 457 454 440 451 451 448 451 451 451 451 451 468 448 448 454 448 448 446 448 448 448 451 448 446 443 440 443 440 440 438 438 438 443 446 446 440 440 440 440 438 440 443 440 440 446 448 446 448 448 443 446 443 446 443 440 440 438 438 443 435 438 435 438 440 443 443 443 443 446 446 443 443 443 440 440 440 443 443 440 440 440 440 440 443 440 432 432 430 432 418 0 0 0 0 0
    0 0 0 0 0 0 0 0 0 0 0 0 0 0 0 0 0 0 0 0 0 0 0 0 0 0 0 0 0 0 0 0 0 0 0 0 0 0 0 0 0 0 0 0 0 0 0 0 0 0 0 0 0 0 0 0 0 0 0 0 0 0 0 0 0 0 0 0 0 459 457 459 459 457 465 465 451 454 451 457 457 454 451 457 448 451 448 448 446 443 448 446 446 446 446 448 448 448 451 448 451 457 459 462 454 462 462 454 454 459 457 459 457 459 454 454 465 468 454 459 454 459 454 457 457 454 448 454 451 457 457 457 457 459 462 468 459 468 459 462 465 468 462 457 468 471 459 451 459 459 457 454 457 451 454 459 468 459 459 465 468 471 474 468 465 468 457 457 446 448 448 451 451 454 451 454 451 457 454 454 448 446 446 446 440 451 454 454 446 451 454 448 448 451 446 446 448 454 446 446 448 451 451 454 457 451 454 451 448 457 451 451 454 457 459 462 462 465 462 465 468 462 462 457 454 454 451 440 451 451 448 448 451 451 451 451 468 448 448 451 448 448 443 446 448 448 448 446 443 440 438 440 438 435 435 438 438 443 446 448 443 443 440 440 435 438 443 440 443 446 448 448 448 448 446 446 446 448 443 440 440 438 438 443 435 440 438 440 443 448 446 446 446 446 448 443 446 443 440 440 443 443 443 443 440 440 440 440 443 435 432 432 430 430 420 0 0 0 0 0
    0 0 0 0 0 0 0 0 0 0 0 0 0 0 0 0 0 0 0 0 0 0 0 0 0 0 0 0 0 0 0 0 0 0 0 0 0 0 0 0 0 0 0 0 0 0 0 0 0 0 0 0 0 0 0 0 0 0 0 0 0 0 0 0 0 0 0 0 0 459 459 459 462 457 465 462 451 454 451 457 457 454 448 457 451 451 448 448 446 446 451 448 446 443 446 448 448 448 448 448 448 457 459 462 454 462 462 454 454 459 457 459 457 462 457 454 462 468 454 457 454 459 454 457 457 454 448 454 451 454 454 454 454 459 459 468 462 468 462 465 465 465 462 454 465 468 459 451 459 459 457 454 457 451 454 457 468 459 459 462 468 471 474 471 471 474 462 459 448 448 448 451 454 454 451 454 451 457 454 454 448 443 446 446 440 451 454 454 446 451 454 451 448 451 446 446 448 454 446 448 448 451 451 454 457 451 451 451 446 454 448 448 451 451 457 462 462 465 462 465 468 462 462 457 454 454 451 440 451 451 448 448 448 448 448 448 465 443 446 448 446 446 443 446 448 448 448 446 443 438 435 435 435 432 432 432 435 438 443 440 438 440 435 435 432 432 438 438 440 446 446 448 448 448 448 446 448 448 446 443 440 440 440 443 440 443 443 443 446 451 448 448 451 451 451 446 448 446 443 440 443 443 443 443 443 440 440 440 443 435 430 430 427 427 420 0 0 0 0 0
    0 0 0 0 0 0 0 0 0 0 0 0 0 0 0 0 0 0 0 0 0 0 0 0 0 0 0 0 0 0 0 0 0 0 0 0 0 0 0 0 0 0 0 0 0 0 0 0 0 0 0 0 0 0 0 0 0 0 0 0 0 0 0 0 0 0 0 0 0 462 459 459 462 457 465 462 451 451 448 454 457 451 448 454 448 451 448 448 446 446 451 451 446 446 446 448 451 451 451 454 451 459 462 465 457 462 465 454 454 459 457 459 457 462 457 457 465 468 454 457 454 459 457 457 457 454 448 454 451 454 454 454 454 459 459 471 462 471 468 471 471 468 462 454 465 465 459 448 459 457 457 454 457 451 454 454 468 457 457 462 468 468 471 468 471 474 462 457 448 446 448 451 454 454 451 454 451 454 454 454 451 446 446 446 440 454 457 459 446 454 454 454 451 454 448 448 451 459 451 451 451 457 454 457 459 451 451 451 446 451 448 448 448 451 457 462 462 468 465 468 468 462 462 457 454 457 454 440 451 448 446 0 446 446 446 446 454 438 440 443 443 443 443 443 448 448 448 446 440 435 435 435 435 430 432 432 435 440 443 435 432 435 427 430 427 427 432 432 438 443 446 448 448 448 446 446 446 446 446 443 440 440 440 443 0 0 0 0 446 454 451 451 454 454 457 451 451 448 443 440 446 443 443 443 443 443 440 443 446 435 432 430 427 427 418 0 0 0 0 0
    0 0 0 0 0 0 0 0 0 0 0 0 0 0 0 0 0 0 0 0 0 0 0 0 0 0 0 0 0 0 0 0 0 0 0 0 0 0 0 0 0 0 0 0 0 0 0 0 0 0 0 0 0 0 0 0 0 0 0 0 0 0 0 0 0 0 0 0 0 462 457 459 459 457 465 462 451 451 451 457 457 451 446 451 448 451 448 448 446 448 451 451 448 446 446 448 454 454 454 457 454 462 465 465 457 462 465 454 454 459 457 457 457 459 457 454 465 465 454 457 454 462 457 457 454 454 448 454 451 454 451 454 454 459 459 471 465 474 474 477 474 468 457 451 462 462 457 446 457 457 454 451 457 451 454 454 465 454 454 459 465 462 465 457 462 471 454 451 443 440 446 448 451 451 448 451 451 451 454 451 451 443 443 443 438 454 457 459 446 454 457 454 454 457 448 448 451 462 451 451 457 459 459 465 465 457 451 448 443 446 446 446 448 451 454 459 459 465 465 471 474 465 462 457 459 459 451 440 448 446 443 0 0 440 440 440 446 435 432 435 440 438 440 440 446 446 448 446 443 435 438 435 435 432 435 432 435 440 440 432 427 427 425 427 425 425 427 430 435 440 443 446 446 446 446 443 446 443 443 440 438 438 438 443 0 0 0 0 0 454 448 451 457 451 0 0 451 448 440 440 443 443 443 443 440 440 440 443 443 438 435 430 427 427 418 0 0 0 0 0
    0 0 0 0 0 0 0 0 0 0 0 0 0 0 0 0 0 0 0 0 0 0 0 0 0 0 0 0 0 0 0 0 0 0 0 0 0 0 0 0 0 0 0 0 0 0 0 0 0 0 0 0 0 0 0 0 0 0 0 0 0 0 0 0 0 0 0 0 0 459 454 457 457 454 462 459 448 457 454 462 459 454 448 454 454 457 451 0 448 451 457 457 454 448 448 451 457 454 457 462 457 465 465 468 459 462 462 451 451 457 454 457 454 459 454 454 462 459 451 454 451 462 0 0 0 0 0 457 454 454 451 451 454 459 459 471 468 477 0 0 0 0 0 451 457 457 451 443 454 454 451 451 454 448 451 451 462 448 451 454 459 454 457 448 451 457 443 0 0 0 0 0 446 446 446 448 446 448 448 448 448 440 440 0 438 448 454 457 443 0 0 0 0 0 448 446 451 468 457 454 465 0 0 0 0 0 0 0 438 440 0 440 0 448 451 459 462 468 471 477 477 468 465 459 462 459 448 438 443 443 440 0 0 438 438 435 438 432 430 432 438 435 0 440 440 0 0 443 443 432 0 0 435 435 435 432 435 438 438 432 425 425 422 425 422 425 425 427 432 438 443 446 443 446 443 443 443 443 443 438 438 438 438 443 0 0 0 0 0 462 448 0 0 0 0 0 0 0 0 0 443 440 443 443 440 440 440 440 440 438 435 430 427 425 415 0 0 0 0 0
    0 0 0 0 0 0 0 0 0 0 0 0 0 0 0 0 0 0 0 0 0 0 0 0 0 0 0 0 0 0 0 0 0 0 0 0 0 0 0 0 0 0 0 0 0 0 0 0 0 0 0 0 0 0 0 0 0 0 0 0 0 0 0 0 0 0 0 0 0 454 451 454 457 451 462 462 451 465 465 471 465 457 451 0 459 459 0 272 0 0 462 468 462 451 451 454 457 457 459 0 0 0 0 0 459 462 462 451 448 454 451 451 451 454 451 451 457 454 446 448 0 0 0 0 0 0 0 0 0 0 0 451 454 459 457 474 0 0 0 0 0 0 0 0 451 448 443 440 451 451 448 446 448 446 448 448 459 446 448 451 457 448 451 443 0 0 0 387 0 0 366 0 0 0 443 446 446 448 448 451 451 440 0 0 0 446 448 451 440 0 0 457 457 459 451 446 451 0 457 454 0 0 0 0 0 0 0 0 0 0 0 0 0 448 451 459 462 468 474 481 484 471 468 459 462 457 440 430 440 438 438 0 435 432 432 432 435 430 430 430 435 435 0 0 0 0 0 0 0 0 0 0 0 0 435 425 432 435 438 430 422 422 415 422 420 420 422 425 430 438 440 443 443 443 443 443 443 440 443 438 435 435 0 443 0 0 0 0 0 0 0 0 176 173 0 0 0 0 0 362 0 438 443 443 438 440 438 440 440 435 432 425 425 422 0 0 0 0 0 0
    0 0 0 0 0 0 0 0 0 0 0 0 0 0 0 0 0 0 0 0 0 0 0 0 0 0 0 0 0 0 0 0 0 0 0 0 0 0 0 0 0 0 0 0 0 0 0 0 0 0 0 0 0 0 0 0 0 0 0 0 0 0 0 0 0 0 0 0 0 451 448 451 457 451 462 462 448 465 468 471 465 451 446 0 0 0 0 271 0 0 462 471 465 0 0 0 0 0 0 0 0 0 0 0 0 457 457 448 446 451 448 448 448 451 448 446 451 446 0 0 0 0 0 0 0 0 0 0 0 0 0 451 451 454 451 0 0 0 0 0 0 0 371 0 0 443 0 0 448 446 446 443 443 443 446 446 457 443 443 448 448 0 0 0 1051 1036 0 383 377 379 371 0 0 0 0 0 446 0 448 457 451 0 0 0 364 0 0 0 0 0 0 457 459 465 451 446 0 0 0 0 0 0 362 362 362 362 362 0 0 0 0 0 0 0 448 459 462 471 477 487 487 474 0 462 0 0 413 0 0 430 430 422 427 427 430 430 432 430 427 427 432 0 0 0 0 0 0 0 362 364 366 0 0 0 0 404 0 430 432 427 418 418 411 418 413 413 0 415 415 430 432 440 438 438 438 438 0 438 0 427 0 0 0 0 0 0 280 0 0 0 0 0 179 176 0 0 0 0 0 362 0 0 440 443 438 438 438 438 440 435 430 422 420 418 0 0 0 0 0 0
    0 0 0 0 0 0 0 0 0 0 0 0 0 0 0 0 0 0 0 0 0 0 0 0 0 0 0 0 0 0 0 0 0 0 0 0 0 0 0 0 0 0 0 0 0 0 0 0 0 0 0 0 0 0 0 0 0 0 0 0 0 0 0 0 0 0 0 0 0 448 446 448 451 448 459 457 443 0 0 0 0 0 0 0 0 0 0 0 0 0 457 471 462 446 0 0 0 0 373 0 0 0 0 0 0 0 454 448 446 448 448 446 446 448 446 443 448 0 0 0 0 0 0 0 0 0 0 0 0 0 0 0 0 0 0 0 0 0 0 0 0 0 369 366 0 440 406 0 446 443 440 440 440 440 446 446 451 438 440 446 0 152 151 0 0 0 391 381 377 377 373 0 0 0 0 0 0 0 0 0 0 364 364 364 366 367 373 375 377 0 0 457 462 465 448 0 0 0 0 367 364 364 364 366 364 364 364 0 0 0 0 0 0 0 448 459 459 468 0 0 0 0 0 0 0 373 387 379 389 406 402 404 415 420 422 427 432 427 425 0 0 0 0 135 0 364 357 366 364 364 364 362 369 367 0 393 0 0 0 427 411 413 408 413 411 0 0 0 406 420 418 430 413 425 0 425 0 0 0 395 385 375 369 0 0 0 0 0 0 0 0 181 181 0 364 359 362 359 0 362 0 0 0 443 438 438 438 438 443 435 432 415 411 0 0 0 0 0 0 0
    0 0 0 0 0 0 0 0 0 0 0 0 0 0 0 0 0 0 0 0 0 0 0 0 0 0 0 0 0 0 0 0 0 0 0 0 0 0 0 0 0 0 0 0 0 0 0 0 0 0 0 0 0 0 0 0 0 0 0 0 0 0 0 0 0 0 0 0 0 446 443 443 446 443 448 446 422 0 0 0 0 0 0 0 0 0 435 413 0 0 451 0 454 0 0 0 0 369 373 371 369 0 0 0 0 0 459 448 446 448 446 443 446 446 443 443 0 0 381 0 0 0 0 0 0 0 0 0 0 0 0 0 0 0 0 0 375 371 369 0 371 367 369 366 366 0 387 379 0 440 432 0 427 422 0 443 446 430 408 0 0 0 0 0 0 0 387 377 377 377 375 371 375 375 375 0 0 369 367 364 369 364 362 364 366 367 371 371 373 371 0 0 0 0 0 0 366 362 364 366 364 366 366 367 366 0 0 0 0 0 0 0 0 0 0 0 459 0 0 0 0 0 373 373 379 375 381 377 381 393 393 395 404 406 411 418 427 422 420 0 0 0 136 136 0 367 362 367 366 366 366 364 369 369 371 389 0 0 0 418 404 408 0 0 408 0 0 0 0 408 406 406 395 395 391 393 379 383 375 381 371 367 364 364 0 0 0 0 0 0 0 0 0 0 362 359 360 360 364 364 364 0 0 0 430 0 438 435 446 0 0 0 0 0 0 0 0 0 0 0
    0 0 0 0 0 0 0 0 0 0 0 0 0 0 0 0 0 0 0 0 0 0 0 0 0 0 0 0 0 0 0 0 0 0 0 0 0 0 0 0 0 0 0 0 0 0 0 0 0 0 0 0 0 0 0 0 0 0 0 0 0 0 0 0 0 0 0 0 0 0 438 438 438 438 0 0 395 375 0 0 0 0 0 0 0 0 0 391 379 0 0 0 0 0 0 0 373 369 373 371 369 367 0 0 367 0 462 448 443 446 443 443 440 443 0 0 0 0 375 371 369 0 367 0 0 0 0 0 0 0 0 0 0 0 0 0 369 369 369 371 371 371 369 366 367 375 375 371 379 0 395 393 397 395 391 0 440 411 395 0 0 0 0 389 383 383 383 377 377 375 373 371 375 375 375 373 371 369 367 366 367 366 364 364 367 369 369 369 371 369 367 0 0 0 362 362 362 360 364 364 366 367 367 367 366 366 369 0 0 0 0 0 0 0 0 359 0 362 364 364 360 371 371 373 375 377 379 377 379 387 387 389 397 399 404 408 420 415 413 0 0 0 136 0 367 367 362 367 366 366 366 366 369 367 369 379 383 0 0 0 0 0 0 0 406 0 0 0 0 402 0 395 387 383 379 377 371 375 371 375 369 367 364 364 362 0 0 0 367 0 0 0 0 364 362 359 360 360 364 364 364 366 369 0 406 0 413 0 0 0 0 366 0 0 0 0 0 0 0 0
    0 0 0 0 0 0 0 0 0 0 0 0 0 0 0 0 0 0 0 0 0 0 0 0 0 0 0 0 0 0 0 0 0 0 0 0 0 0 0 0 0 0 0 0 0 0 0 0 0 0 0 0 0 0 0 0 0 0 0 0 0 0 0 0 0 0 0 0 0 0 404 404 404 399 0 395 387 373 367 0 0 0 0 0 0 369 377 377 369 0 366 364 364 366 369 364 371 367 371 371 369 369 367 369 369 367 0 0 0 443 440 438 0 438 0 0 0 381 373 369 369 367 369 0 369 369 0 0 0 0 0 367 369 367 366 366 367 369 369 371 371 371 371 367 369 373 371 369 373 377 383 383 391 389 385 395 0 395 389 387 391 383 381 381 377 375 377 375 375 373 373 371 373 373 373 371 371 367 367 366 367 366 366 366 369 369 369 369 369 367 366 364 364 360 360 359 360 357 362 364 367 367 367 369 367 367 369 366 0 366 0 0 362 0 362 364 364 364 364 364 362 367 369 371 371 375 377 375 377 379 379 379 389 393 395 399 406 404 404 0 0 0 136 0 366 366 362 366 366 366 366 366 367 367 367 373 373 373 0 0 0 0 0 0 404 0 0 0 0 397 383 391 381 375 373 369 367 369 367 371 367 366 364 366 366 0 371 369 367 0 366 0 364 364 362 359 360 360 364 364 364 364 367 366 383 371 0 366 364 364 364 364 362 0 0 0 0 0 0 0
    0 0 0 0 0 0 0 0 0 0 0 0 0 0 0 0 0 0 0 0 0 0 0 0 0 0 0 0 0 0 0 0 0 0 0 0 0 0 0 0 0 0 0 0 0 0 0 0 0 0 0 0 0 0 0 0 0 0 0 0 0 0 0 0 0 0 0 0 0 0 393 393 393 393 389 389 377 369 366 371 371 373 373 369 367 367 369 369 366 0 364 364 364 367 369 364 371 367 371 371 369 369 369 369 373 369 383 373 383 422 411 411 0 0 391 377 0 375 371 369 369 367 367 367 369 369 367 0 0 0 0 369 369 369 366 366 367 369 369 371 369 369 369 367 369 371 369 369 371 371 373 373 381 379 377 387 387 381 377 377 379 375 375 373 373 371 373 371 373 371 371 369 371 371 371 369 0 367 366 366 367 366 366 366 369 371 369 369 369 367 366 364 364 360 360 360 360 357 362 364 367 367 367 369 367 367 369 367 0 366 366 366 364 366 366 366 367 366 366 364 364 367 369 369 369 371 373 373 375 377 375 375 379 387 385 387 393 389 387 0 0 0 0 0 367 366 362 366 366 366 366 366 366 366 366 371 369 369 0 373 371 373 0 0 373 369 379 387 375 377 369 375 373 371 369 366 364 366 366 367 366 364 362 364 366 367 369 369 367 367 366 366 364 364 362 359 362 362 364 364 364 364 364 364 366 364 362 362 360 362 362 362 360 362 362 0 0 0 0 0
    0 0 0 0 0 0 0 0 0 0 0 0 0 0 0 0 0 0 0 0 0 0 0 0 0 0 0 0 0 0 0 0 0 0 0 0 0 0 0 0 0 0 0 0 0 0 0 0 0 0 0 0 0 0 0 0 0 0 0 0 0 0 0 0 0 0 0 0 0 389 385 383 381 381 377 375 371 367 366 369 369 369 371 369 367 366 367 367 366 0 364 364 364 367 367 364 371 367 371 371 369 371 371 371 373 371 381 373 377 385 393 393 391 387 383 373 373 373 371 369 369 367 367 367 367 367 367 0 0 0 0 369 369 369 367 367 369 369 369 371 369 369 369 369 369 371 367 369 369 369 369 369 375 373 371 377 375 371 371 371 371 369 371 369 369 369 371 371 371 371 371 369 371 371 371 369 0 0 367 367 369 367 367 367 369 371 371 371 369 369 366 364 364 362 362 362 362 359 364 364 367 367 367 367 366 366 369 366 0 366 366 366 366 367 367 367 369 367 367 364 366 367 369 369 367 371 373 375 375 375 375 375 375 379 375 375 375 371 367 0 0 0 0 367 367 367 364 367 367 366 366 366 366 366 366 369 367 367 367 369 367 366 364 364 366 366 367 369 366 366 364 367 367 367 366 364 362 364 364 366 364 362 362 364 366 367 369 367 367 367 367 366 366 364 362 360 362 362 364 364 364 364 364 364 364 362 360 360 359 360 360 360 360 360 360 0 0 0 0 0
    0 0 0 0 0 0 0 0 0 0 0 0 0 0 0 0 0 0 0 0 0 0 0 0 0 0 0 0 0 0 0 0 0 0 0 0 0 0 0 0 0 0 0 0 0 0 0 0 0 0 0 0 0 0 0 0 0 0 0 0 0 0 0 0 0 0 0 0 0 381 377 373 373 373 371 369 367 367 364 367 367 367 367 367 367 367 369 369 367 367 366 367 366 367 366 364 369 366 371 371 371 371 371 373 375 373 383 373 377 379 381 383 383 377 375 371 371 371 371 369 369 367 369 369 369 369 367 0 0 0 0 371 369 371 369 369 369 369 371 373 369 369 369 369 369 371 367 369 371 369 371 371 373 371 371 375 371 369 369 369 369 367 369 367 367 367 369 371 371 369 371 369 373 371 371 371 0 0 369 369 371 369 369 369 371 371 371 371 369 369 366 364 366 362 362 362 364 359 364 364 367 367 367 367 366 366 369 366 0 364 364 366 366 367 367 367 369 366 366 364 366 367 367 367 366 369 371 375 375 375 375 373 375 375 373 369 369 367 364 364 0 0 0 369 369 369 364 369 367 367 366 367 367 367 367 371 367 367 0 367 366 364 362 364 364 364 366 367 364 364 362 364 366 364 362 362 362 364 364 364 364 362 362 364 366 367 369 369 367 367 367 366 366 364 364 360 362 362 364 364 364 364 364 362 364 362 360 360 359 360 359 360 360 360 360 0 0 0 0 0
    0 0 0 0 0 0 0 0 0 0 0 0 0 0 0 0 0 0 0 0 0 0 0 0 0 0 0 0 0 0 0 0 0 0 0 0 0 0 0 0 0 0 0 0 0 0 0 0 0 0 0 0 0 0 0 0 0 0 0 0 0 0 0 0 0 0 0 0 0 0 375 373 371 371 371 369 369 369 367 369 369 369 369 367 369 369 371 371 369 369 369 369 367 367 366 362 369 366 371 371 371 373 373 373 377 375 385 375 379 379 379 377 379 373 371 371 369 369 371 369 369 367 369 369 369 369 0 0 0 0 0 371 369 369 369 369 369 371 371 373 369 369 369 0 369 371 367 369 369 369 371 371 373 371 371 375 369 367 367 367 367 366 367 367 367 367 367 371 371 369 371 369 373 371 371 371 0 0 371 369 371 371 371 369 373 373 371 371 369 369 366 366 366 362 364 364 364 359 364 364 367 367 366 366 364 364 367 364 0 364 364 364 364 366 366 367 369 366 366 364 366 367 367 367 367 369 371 375 375 373 373 373 373 373 371 369 369 367 366 366 364 0 0 369 371 369 0 369 369 367 367 367 367 367 367 373 367 367 0 367 366 364 362 362 364 362 364 366 362 362 362 362 362 362 360 360 360 362 362 364 362 362 362 364 366 367 369 369 367 369 367 367 366 366 364 362 364 364 364 364 364 364 366 362 364 360 360 360 359 359 357 359 360 360 360 0 0 0 0 0
    0 0 0 0 0 0 0 0 0 0 0 0 0 0 0 0 0 0 0 0 0 0 0 0 0 0 0 0 0 0 0 0 0 0 0 0 0 0 0 0 0 0 0 0 0 0 0 0 0 0 0 0 0 0 0 0 0 0 0 0 0 0 0 0 0 0 0 0 0 0 0 371 369 371 371 369 371 371 369 371 371 371 371 369 371 369 371 371 369 369 369 369 366 367 366 364 369 367 373 371 371 375 375 375 377 375 385 377 379 379 379 377 379 375 373 371 369 369 369 369 367 367 369 369 369 369 369 0 0 0 0 369 369 371 369 369 369 371 371 373 367 367 369 0 369 371 367 369 371 369 371 371 373 371 369 373 367 367 366 366 366 364 366 366 366 366 367 369 369 369 371 369 373 371 371 371 0 0 369 369 371 371 371 369 373 373 371 371 369 369 366 364 366 364 364 366 366 359 364 364 367 367 366 364 364 364 366 364 0 362 362 364 364 366 366 366 367 364 366 364 366 366 367 367 367 369 371 373 373 373 373 373 373 371 369 367 366 366 364 362 364 0 367 369 369 369 0 371 369 369 367 367 367 369 369 373 367 367 0 367 366 364 364 364 364 362 364 364 362 362 360 360 360 360 359 360 359 362 362 362 362 360 362 364 364 366 367 369 367 367 367 367 366 366 364 362 364 364 364 364 364 364 366 362 364 360 359 359 357 359 355 357 359 359 360 0 0 0 0 0
    0 0 0 0 0 0 0 0 0 0 0 0 0 0 0 0 0 0 0 0 0 0 0 0 0 0 0 0 0 0 0 0 0 0 0 0 0 0 0 0 0 0 0 0 0 0 0 0 0 0 0 0 0 0 0 0 0 0 0 0 0 0 0 0 0 0 0 0 0 0 0 0 367 369 371 369 371 371 369 371 371 373 371 369 371 369 369 369 367 367 367 367 366 366 366 364 369 367 373 371 373 375 377 375 379 377 385 377 379 377 377 375 377 375 375 373 371 371 371 369 369 367 369 369 369 367 369 0 369 369 369 371 371 369 369 369 369 369 371 373 367 367 369 369 369 371 367 369 371 369 371 371 373 371 369 375 369 367 367 366 366 364 366 366 366 366 367 367 369 367 369 369 371 369 369 0 0 0 0 369 369 369 371 369 373 373 371 371 369 369 364 364 364 362 364 366 366 359 364 364 366 366 364 364 362 364 366 364 366 362 362 364 366 367 366 366 367 364 366 362 364 364 366 366 366 369 369 373 373 373 373 373 371 369 366 362 364 364 362 362 362 0 367 369 369 369 0 369 369 369 367 367 369 369 369 373 367 367 0 367 366 366 364 366 366 364 364 364 362 360 359 359 359 359 357 359 359 360 362 362 362 362 362 364 366 367 367 369 366 367 367 367 366 364 364 362 364 364 364 364 364 364 366 362 364 360 0 359 357 357 353 355 357 357 359 0 0 0 0 0
    0 0 0 0 0 0 0 0 0 0 0 0 0 0 0 0 0 0 0 0 0 0 0 0 0 0 0 0 0 0 0 0 0 0 0 0 0 0 0 0 0 0 0 0 0 0 0 0 0 0 0 0 0 0 0 0 0 0 0 0 0 0 0 0 0 0 0 0 0 0 0 0 0 0 369 369 371 371 369 371 371 373 371 371 371 369 369 367 367 367 366 366 364 366 364 362 367 366 373 371 373 375 377 375 377 377 383 377 377 377 377 375 375 375 375 375 373 373 373 369 369 367 369 369 369 367 367 0 367 369 369 371 369 369 369 369 367 369 369 371 366 366 367 367 369 371 367 369 371 369 373 371 373 373 371 377 369 369 369 366 366 364 366 366 366 364 366 366 366 366 367 367 367 366 367 0 0 0 0 367 367 371 373 371 373 373 373 373 369 371 366 366 366 364 366 367 367 359 364 362 366 366 362 362 362 362 366 362 364 362 362 366 367 369 367 367 369 366 366 364 364 364 366 366 367 369 371 373 373 371 371 369 367 364 360 359 360 362 360 359 360 0 367 367 367 367 364 369 369 367 367 367 367 367 367 371 367 366 367 366 366 364 366 366 366 364 364 364 360 360 359 359 359 357 355 357 357 360 360 360 362 360 362 366 366 369 371 369 369 369 369 369 367 366 366 362 364 366 364 364 364 366 366 364 364 360 0 359 357 359 352 353 357 355 357 0 0 0 0 0
    0 0 0 0 0 0 0 0 0 0 0 0 0 0 0 0 0 0 0 0 0 0 0 0 0 0 0 0 0 0 0 0 0 0 0 0 0 0 0 0 0 0 0 0 0 0 0 0 0 0 0 0 0 0 0 0 0 0 0 0 0 0 0 0 0 0 0 0 0 0 0 0 364 0 369 0 369 371 369 371 371 373 371 371 373 369 369 367 367 367 366 364 0 364 362 360 367 364 371 371 373 375 377 377 377 377 383 377 377 379 377 377 375 377 375 375 373 373 373 369 369 367 369 369 367 366 367 367 367 367 369 369 369 369 369 369 369 369 371 371 367 367 369 369 369 371 367 371 371 369 373 373 373 373 371 377 369 369 369 367 366 364 366 366 366 364 366 364 364 364 366 366 366 364 366 364 366 0 0 367 367 371 373 373 375 375 375 373 371 373 367 367 367 366 366 367 367 359 364 362 364 364 362 360 360 362 366 362 366 362 364 366 369 373 369 369 371 367 367 364 366 366 367 366 367 371 371 373 373 369 369 367 366 359 357 357 360 360 360 359 360 0 367 367 367 367 364 369 369 367 367 367 367 367 367 371 367 366 0 366 366 364 364 366 366 364 364 364 360 360 360 359 359 357 355 357 357 359 360 360 360 360 364 366 367 369 371 371 369 369 369 369 367 366 366 362 364 366 364 364 364 366 366 364 366 360 0 360 359 359 353 352 357 355 355 0 0 0 0 0
    0 0 0 0 0 0 0 0 0 0 0 0 0 0 0 0 0 0 0 0 0 0 0 0 0 0 0 0 0 0 0 0 0 0 0 0 0 0 0 0 0 0 0 0 0 0 0 0 0 0 0 0 0 0 0 0 0 0 0 0 0 0 0 0 0 0 0 0 0 0 0 0 362 362 367 0 369 369 369 371 371 373 371 371 373 369 369 369 369 369 0 0 0 366 364 362 367 364 371 371 373 375 377 377 377 375 383 375 377 377 377 375 375 377 375 375 375 373 373 369 369 367 369 369 367 366 366 367 367 367 369 369 369 369 371 371 369 371 371 371 367 367 369 369 369 371 367 371 371 369 373 373 373 373 371 377 369 369 369 366 364 364 366 366 366 366 367 366 366 366 366 366 366 364 364 364 364 364 366 367 367 371 373 373 375 375 375 373 373 375 367 369 369 367 367 369 369 359 362 360 364 364 360 360 360 360 364 362 366 362 364 367 371 373 371 371 373 367 369 364 366 364 367 366 369 369 371 373 373 367 369 369 367 359 359 359 362 364 362 360 362 364 367 367 367 369 364 369 369 367 367 367 369 369 367 371 367 367 0 0 366 364 366 366 366 364 364 362 360 359 360 359 359 357 357 357 357 359 360 359 360 360 362 366 367 369 371 371 371 369 369 367 366 364 364 360 364 364 364 364 364 366 367 364 366 362 362 362 360 360 353 353 357 355 355 0 0 0 0 0
    0 0 0 0 0 0 0 0 0 0 0 0 0 0 0 0 0 0 0 0 0 0 0 0 0 0 0 0 0 0 0 0 0 0 0 0 0 0 0 0 0 0 0 0 0 0 0 0 0 0 0 0 0 0 0 0 0 0 0 0 0 0 0 0 0 0 0 0 0 0 0 0 359 362 367 367 371 371 371 371 371 373 373 373 375 371 373 371 371 371 0 0 0 366 364 360 366 364 371 371 371 375 375 377 377 375 383 375 375 377 377 375 375 377 375 375 375 375 375 371 371 371 371 371 369 366 367 367 367 367 367 369 369 371 371 373 371 371 373 371 369 369 369 369 369 371 369 371 371 371 373 373 373 373 371 377 369 369 369 364 364 364 366 367 367 369 369 369 367 367 367 367 366 364 366 364 364 364 366 366 366 369 371 371 373 373 375 373 373 375 369 371 371 371 369 369 369 359 362 360 362 362 360 360 360 360 364 362 366 362 364 366 371 373 371 371 371 367 369 364 366 364 366 366 369 369 373 371 371 367 371 371 369 362 362 362 0 367 366 0 364 0 369 369 367 369 366 369 369 367 369 369 371 369 369 373 369 369 371 0 367 0 367 0 366 362 364 362 360 359 360 359 359 359 359 359 359 360 362 360 362 362 364 367 366 369 369 369 0 0 0 366 366 362 364 360 364 366 366 364 364 366 367 364 367 364 364 362 362 362 353 353 359 355 355 0 0 0 0 0
    0 0 0 0 0 0 0 0 0 0 0 0 0 0 0 0 0 0 0 0 0 0 0 0 0 0 0 0 0 0 0 0 0 0 0 0 0 0 0 0 0 0 0 0 0 0 0 0 0 0 0 0 0 0 0 0 0 0 0 0 0 0 0 0 0 0 0 0 0 0 0 0 0 0 0 369 371 371 371 371 371 373 373 373 375 373 373 371 371 371 367 0 366 366 364 362 366 364 371 371 373 373 375 377 375 375 383 375 375 375 375 373 375 377 375 375 375 375 375 373 373 373 373 373 373 367 369 369 369 369 369 369 369 369 371 371 371 371 371 371 369 367 369 369 369 371 369 371 371 371 375 373 375 375 373 379 369 369 369 364 364 364 367 369 369 369 369 369 369 367 367 367 366 364 364 362 364 362 364 364 364 367 367 367 371 371 375 373 373 377 371 371 371 371 371 369 369 357 362 360 362 362 362 360 360 360 364 362 366 364 366 366 373 373 371 371 371 367 367 364 366 362 364 364 371 371 375 369 369 366 369 369 369 360 364 0 0 367 369 0 366 0 369 367 367 367 364 369 369 367 369 369 371 371 371 375 371 371 375 371 371 369 369 367 367 364 364 362 362 360 360 359 360 360 360 360 362 364 364 362 366 364 367 369 367 367 369 367 367 366 0 0 366 362 366 362 366 366 366 366 366 366 367 366 369 364 364 364 0 362 357 355 360 359 359 0 0 0 0 0
    0 0 0 0 0 0 0 0 0 0 0 0 0 0 0 0 0 0 0 0 0 0 0 0 0 0 0 0 0 0 0 0 0 0 0 0 0 0 0 0 0 0 0 0 0 0 0 0 0 0 0 0 0 0 0 0 0 0 0 0 0 0 0 0 0 0 0 0 0 0 0 0 0 0 369 369 371 371 371 371 373 373 373 373 373 373 373 369 371 369 366 366 366 366 364 362 366 364 369 371 371 373 375 375 375 373 381 373 373 373 373 371 373 375 373 373 375 375 375 373 371 373 371 373 373 369 369 369 369 369 369 371 371 371 371 373 371 371 371 371 369 367 369 371 369 371 369 371 371 371 373 373 373 373 371 379 371 371 371 366 366 367 367 369 369 369 369 369 367 367 367 366 364 362 364 360 362 362 362 364 364 366 366 367 371 371 375 373 375 377 371 371 371 371 371 369 369 357 362 360 362 362 362 360 360 362 366 364 366 366 367 367 375 375 373 373 373 369 369 366 367 362 364 364 371 367 373 366 364 362 0 367 367 359 362 362 0 367 369 0 364 364 367 366 364 366 362 367 367 367 369 369 371 373 371 375 373 373 375 373 373 369 371 369 367 366 366 364 362 360 362 360 362 362 362 362 362 364 366 364 366 364 367 369 367 367 367 367 366 366 0 0 364 362 366 362 366 367 367 366 366 366 367 366 369 364 364 362 0 364 359 357 362 360 360 0 0 0 0 0
    0 0 0 0 0 0 0 0 0 0 0 0 0 0 0 0 0 0 0 0 0 0 0 0 0 0 0 0 0 0 0 0 0 0 0 0 0 0 0 0 0 0 0 0 0 0 0 0 0 0 0 0 0 0 0 0 0 0 0 0 0 0 0 0 0 0 0 0 0 0 0 0 0 0 0 371 371 371 371 371 373 373 373 373 373 373 371 369 371 367 364 364 366 366 364 364 366 364 369 369 371 371 373 373 373 371 379 373 371 373 373 371 373 375 373 373 375 375 375 373 371 373 369 373 373 369 369 369 369 371 369 371 371 373 373 373 373 373 373 375 371 369 371 373 371 371 369 371 371 371 373 373 373 373 373 379 373 371 373 367 366 367 367 369 369 367 369 367 367 366 366 364 362 362 362 360 364 362 362 364 362 366 366 366 371 369 375 373 375 375 371 371 371 371 371 369 369 357 362 360 362 360 362 360 362 362 366 364 369 367 371 371 377 377 375 375 375 371 371 369 371 366 364 366 371 369 373 366 364 362 366 366 364 359 362 362 366 367 369 366 364 364 366 364 364 364 362 366 366 366 367 369 371 371 369 375 371 373 375 373 371 369 371 0 367 366 366 364 364 362 362 362 364 364 364 364 366 367 367 366 0 366 367 367 367 367 366 366 364 364 364 364 364 360 366 362 366 367 366 366 366 366 367 366 369 366 364 364 0 366 362 359 362 360 360 0 0 0 0 0
    0 0 0 0 0 0 0 0 0 0 0 0 0 0 0 0 0 0 0 0 0 0 0 0 0 0 0 0 0 0 0 0 0 0 0 0 0 0 0 0 0 0 0 0 0 0 0 0 0 0 0 0 0 0 0 0 0 0 0 0 0 0 0 0 0 0 0 0 0 0 0 0 379 0 371 373 371 373 371 371 373 373 373 373 371 373 371 369 371 367 366 366 366 366 366 366 367 366 367 369 369 369 371 371 371 371 377 371 369 371 369 367 369 373 371 371 373 373 375 373 371 371 369 373 373 369 369 369 371 371 369 373 373 373 373 375 375 373 375 375 373 371 373 375 373 371 369 373 371 371 373 373 373 373 373 379 373 371 373 369 367 369 369 369 369 367 367 366 366 366 364 364 364 362 364 362 364 364 364 364 364 367 367 367 373 371 375 371 375 375 371 371 371 371 371 369 369 359 362 360 362 360 362 360 362 362 366 366 371 369 373 373 377 377 377 377 379 373 375 373 377 369 367 373 375 375 375 369 367 366 367 369 367 362 366 366 367 369 371 367 367 366 367 367 366 366 362 364 366 366 367 367 369 369 369 373 371 371 373 369 369 366 367 364 366 364 364 364 364 362 362 362 366 366 366 366 367 369 371 367 371 367 369 367 369 367 366 366 366 366 364 364 364 359 364 360 366 366 366 366 366 0 0 366 369 366 366 366 366 0 364 362 366 364 362 0 0 0 0 0
    0 0 0 0 0 0 0 0 0 0 0 0 0 0 0 0 0 0 0 0 0 0 0 0 0 0 0 0 0 0 0 0 0 0 0 0 0 0 0 0 0 0 0 0 0 0 0 0 0 0 0 0 0 0 0 0 0 0 0 0 0 0 0 0 0 0 0 0 0 0 389 385 381 375 373 375 371 373 371 371 371 373 373 373 371 371 371 369 371 367 364 364 366 366 366 364 366 366 367 367 367 367 369 369 369 369 375 371 369 371 371 0 369 371 371 369 371 373 373 373 371 371 369 373 373 369 369 369 371 371 369 373 373 373 373 375 375 373 375 375 373 371 373 375 373 371 369 371 371 371 373 371 371 371 373 381 371 371 373 369 367 369 369 367 369 367 367 366 366 366 366 364 364 0 366 364 366 366 366 366 366 369 369 369 373 371 375 373 375 375 371 371 371 371 371 369 369 360 364 362 364 362 364 362 364 364 367 367 371 371 373 373 377 377 377 379 381 375 377 375 379 373 369 375 377 373 373 0 0 364 367 369 367 366 367 367 367 369 373 369 367 366 367 367 366 367 364 366 366 367 369 369 369 369 369 373 369 369 369 367 366 362 364 0 364 362 362 362 362 360 362 360 364 364 364 364 366 367 369 367 367 366 366 366 367 367 366 366 366 366 366 364 364 359 364 360 366 366 366 366 364 366 0 366 369 366 366 367 367 369 367 366 367 366 366 0 0 0 0 0
    0 0 0 0 0 0 0 0 0 0 0 0 0 0 0 0 0 0 0 0 0 0 0 0 0 0 0 0 0 0 0 0 0 0 0 0 0 0 0 0 0 0 0 0 0 0 0 0 0 0 0 0 0 0 0 0 0 0 0 0 0 0 0 0 0 0 0 0 0 0 0 385 381 375 373 375 371 373 371 371 371 371 371 371 371 371 371 369 371 366 364 364 364 366 364 364 366 364 366 367 367 367 367 369 369 367 371 371 367 369 369 0 369 373 371 369 373 373 375 375 373 371 371 373 373 371 369 371 373 373 371 373 373 375 373 377 375 375 375 377 373 371 373 375 373 369 367 371 371 371 373 371 371 371 373 379 371 369 371 367 367 369 369 367 369 367 367 367 367 366 366 366 366 0 0 0 367 366 367 367 367 371 369 371 375 371 375 373 375 373 371 371 371 369 371 369 369 362 366 364 364 364 366 364 364 366 367 367 371 369 373 373 377 377 377 377 379 375 375 373 375 371 366 369 373 0 0 0 0 0 0 367 367 367 369 367 369 369 373 369 367 366 366 366 366 367 366 366 367 367 369 369 369 369 367 369 366 367 366 366 362 362 362 360 364 364 362 360 360 360 360 360 362 362 0 0 0 366 366 366 366 364 364 366 366 366 364 364 362 364 364 364 362 357 364 359 366 366 366 366 364 366 366 366 367 366 366 366 366 0 366 366 367 367 367 0 0 0 0 0
    0 0 0 0 0 0 0 0 0 0 0 0 0 0 0 0 0 0 0 0 0 0 0 0 0 0 0 0 0 0 0 0 0 0 0 0 0 0 0 0 0 0 0 0 0 0 0 0 0 0 0 0 0 0 0 0 0 0 0 0 0 0 0 0 0 0 0 0 0 0 383 379 379 375 371 375 371 373 371 371 371 373 373 373 371 373 371 371 371 367 366 364 366 364 364 364 364 364 366 367 367 367 367 369 369 367 371 369 366 364 362 362 367 371 369 369 373 375 377 377 375 373 371 373 373 371 367 371 373 373 371 373 375 377 375 377 377 375 375 375 371 371 371 373 373 369 367 371 371 371 371 371 371 0 371 379 371 369 371 367 367 369 369 369 369 367 369 369 367 367 367 366 366 366 367 0 367 366 367 367 367 369 369 369 371 369 375 373 375 373 371 371 369 369 373 371 369 364 367 366 366 364 366 364 364 366 366 366 369 369 371 371 375 375 375 375 377 373 373 373 371 369 362 0 371 367 0 0 0 0 0 369 367 369 371 369 369 369 371 369 366 366 364 364 364 366 364 366 366 367 367 369 367 369 366 366 364 362 362 362 360 362 360 360 362 364 362 360 359 359 357 359 360 0 0 0 0 0 0 0 0 364 362 366 366 364 364 362 362 364 364 366 362 357 364 360 366 367 366 366 364 366 366 366 367 366 364 364 364 0 364 366 366 366 366 0 0 0 0 0
    0 0 0 0 0 0 0 0 0 0 0 0 0 0 0 0 0 0 0 0 0 0 0 0 0 0 0 0 0 0 0 0 0 0 0 0 0 0 0 0 0 0 0 0 0 0 0 0 0 0 0 0 0 0 0 0 0 0 0 0 0 0 0 0 0 0 0 0 0 381 381 379 377 375 371 375 371 373 371 371 371 373 373 373 373 373 373 371 371 367 366 366 364 364 364 362 362 364 364 366 367 367 367 367 367 367 369 367 362 359 357 360 366 369 369 367 375 377 379 377 375 371 371 371 0 0 367 369 373 373 371 375 375 377 375 377 377 375 375 375 369 369 369 371 373 371 367 369 371 371 371 371 369 0 0 379 371 369 371 367 367 369 369 367 369 367 369 369 367 367 367 367 366 366 367 0 367 0 367 369 367 369 369 369 371 369 373 373 375 371 369 369 369 369 373 373 371 367 369 367 367 366 367 366 366 366 366 366 367 369 371 371 375 375 375 375 375 371 371 371 369 0 360 0 0 367 0 367 366 0 364 367 366 367 0 367 367 367 369 367 366 364 362 362 364 366 364 366 366 367 367 369 367 367 364 366 362 360 362 360 360 360 359 360 362 364 362 360 359 359 0 360 0 0 0 0 0 0 0 0 2164 0 362 366 0 0 0 364 362 364 364 367 364 362 366 362 367 367 367 366 366 366 366 366 366 364 362 362 0 0 0 367 366 367 367 0 0 0 0 0
    0 0 0 0 0 0 0 0 0 0 0 0 0 0 0 0 0 0 0 0 0 0 0 0 0 0 0 0 0 0 0 0 0 0 0 0 0 0 0 0 0 0 0 0 0 0 0 0 0 0 0 0 0 0 0 0 0 0 0 0 0 0 0 0 0 0 0 0 0 379 381 379 377 375 371 373 371 373 371 371 371 373 373 373 373 375 373 371 371 367 366 366 364 364 364 362 362 364 364 366 367 367 367 367 367 367 369 367 362 359 359 360 364 367 367 367 375 377 377 375 373 369 369 371 0 0 367 369 373 373 371 375 375 377 375 377 375 373 373 375 367 369 369 369 373 371 366 369 369 369 369 369 369 0 0 381 373 371 373 369 369 369 369 367 367 367 0 0 0 366 366 366 0 0 0 0 0 0 369 371 369 371 373 371 373 371 375 373 375 371 369 369 367 367 371 371 369 367 369 369 369 367 367 366 366 366 0 367 367 369 371 371 375 375 375 375 377 373 371 373 367 0 360 0 0 367 366 0 364 0 362 362 360 362 0 364 364 364 0 366 364 362 362 362 362 364 364 364 366 366 366 367 366 367 364 364 360 357 359 357 357 359 355 359 360 364 360 359 359 359 0 360 0 0 0 0 0 0 0 0 2164 0 0 0 0 0 0 0 0 0 0 369 364 362 367 362 366 367 367 366 364 364 364 364 364 362 0 0 0 0 0 0 367 369 369 0 0 0 0 0
    0 0 0 0 0 0 0 0 0 0 0 0 0 0 0 0 0 0 0 0 0 0 0 0 0 0 0 0 0 0 0 0 0 0 0 0 0 0 0 0 0 0 0 0 0 0 0 0 0 0 0 0 0 0 0 0 0 0 0 0 0 0 0 0 0 0 0 0 0 379 381 377 375 375 371 373 371 373 373 371 373 373 373 373 373 375 373 373 371 366 366 366 364 362 362 362 360 364 364 366 367 367 367 367 367 367 367 367 362 359 359 360 364 367 367 367 373 377 377 373 371 367 367 367 0 0 366 367 371 373 371 375 377 379 377 377 377 375 375 377 369 371 371 371 375 371 366 369 369 369 369 369 369 0 0 379 373 371 373 369 371 369 369 366 366 364 0 0 0 364 366 366 0 367 369 0 0 0 371 373 373 375 377 375 373 373 375 373 375 371 369 369 367 367 371 371 369 369 369 369 369 369 369 366 366 0 0 367 367 369 369 0 375 375 377 375 377 375 373 375 367 371 362 369 367 369 367 0 0 0 360 362 360 362 0 362 362 0 0 364 362 362 362 362 362 364 364 364 366 366 366 367 364 366 362 362 359 353 355 353 353 357 353 357 359 362 360 359 357 357 0 359 0 0 0 0 0 0 1936 1989 2044 0 0 0 0 0 0 0 0 0 0 0 362 360 364 359 364 366 364 364 362 362 362 362 362 359 0 0 0 0 0 0 367 369 369 0 0 0 0 0
    0 0 0 0 0 0 0 0 0 0 0 0 0 0 0 0 0 0 0 0 0 0 0 0 0 0 0 0 0 0 0 0 0 0 0 0 0 0 0 0 0 0 0 0 0 0 0 0 0 0 0 0 0 0 0 0 0 0 0 0 0 0 0 0 0 0 0 0 0 375 377 377 373 373 371 373 371 373 373 371 373 373 373 373 373 375 375 373 371 367 366 366 366 362 364 362 360 364 364 366 367 367 367 367 367 366 367 367 362 360 360 364 366 367 367 366 373 377 375 371 369 366 366 367 0 0 0 0 369 371 371 373 375 379 375 377 375 373 373 375 0 373 373 371 373 371 366 367 369 369 369 367 369 0 0 0 373 369 371 367 367 366 367 364 366 364 0 0 0 364 366 366 0 0 0 371 0 0 373 375 375 377 381 377 375 373 375 375 377 373 369 369 367 369 373 373 371 369 371 371 371 369 369 367 367 0 0 0 0 0 0 0 0 373 375 375 379 377 377 379 369 373 366 371 371 0 0 0 0 0 0 362 360 362 0 360 360 0 0 0 362 362 362 362 362 366 364 366 366 367 367 367 364 366 360 362 359 352 353 352 352 355 352 357 357 362 359 355 355 352 0 0 0 0 0 0 0 0 1936 1989 2044 0 0 0 0 0 0 0 0 0 0 0 0 0 360 353 362 362 360 360 357 360 357 359 360 352 0 0 0 0 0 0 0 381 383 0 0 0 0 0
    0 0 0 0 0 0 0 0 0 0 0 0 0 0 0 0 0 0 0 0 0 0 0 0 0 0 0 0 0 0 0 0 0 0 0 0 0 0 0 0 0 0 0 0 0 0 0 0 0 0 0 0 0 0 0 0 0 0 0 0 0 0 0 0 0 0 0 0 0 373 375 375 371 373 369 371 371 373 371 371 373 375 375 373 377 375 377 375 371 369 367 367 366 362 364 362 360 364 364 367 367 367 367 367 367 366 367 366 362 360 360 364 366 367 367 366 371 375 375 371 369 366 366 367 0 0 0 0 0 367 367 369 371 375 375 375 373 373 373 0 0 0 373 369 373 371 366 367 369 369 369 367 367 0 0 0 371 367 369 366 367 366 367 364 366 366 0 0 0 0 0 0 0 0 0 371 0 0 375 377 377 379 383 377 377 377 379 379 379 375 371 369 369 371 375 375 371 373 373 373 373 373 371 369 367 0 0 0 0 0 0 0 0 0 0 373 0 381 381 383 362 0 0 0 0 0 0 0 0 0 0 0 0 0 0 0 359 0 0 0 362 362 362 362 364 366 366 367 367 367 367 0 0 366 362 362 357 350 353 0 0 355 352 0 0 0 355 352 350 347 0 0 0 0 0 0 0 0 0 2102 2044 0 0 0 0 0 0 0 0 0 0 0 0 0 357 348 360 360 355 353 348 355 350 352 353 342 0 0 0 0 0 0 0 0 0 0 0 0 0 0
    0 0 0 0 0 0 0 0 0 0 0 0 0 0 0 0 0 0 0 0 0 0 0 0 0 0 0 0 0 0 0 0 0 0 0 0 0 0 0 0 0 0 0 0 0 0 0 0 0 0 0 0 0 0 0 0 0 0 0 0 0 0 0 0 0 0 0 0 0 371 375 373 369 371 367 0 369 371 371 0 0 0 377 375 381 377 379 377 373 369 367 366 364 362 362 360 357 360 362 366 367 367 366 367 367 366 366 364 359 359 359 366 366 367 367 366 371 377 375 371 369 366 367 0 0 0 0 0 364 364 366 366 367 375 375 375 371 373 371 0 0 0 0 0 371 371 362 367 369 369 367 367 367 0 0 383 373 367 369 364 366 366 367 366 366 367 0 371 0 0 0 0 0 0 0 369 0 0 375 375 377 377 383 377 377 379 385 389 387 377 371 371 367 373 377 377 371 375 375 375 375 375 373 371 367 0 0 0 83 0 0 129 129 0 0 0 129 0 0 0 0 0 0 0 333 0 215 0 0 0 0 0 0 0 0 0 0 0 0 0 0 0 0 0 362 364 367 369 367 369 369 0 0 0 360 360 355 0 0 0 89 89 0 0 0 0 0 0 0 0 0 0 0 0 0 0 0 0 0 2374 2230 1989 0 0 0 2453 2102 0 0 0 0 0 0 0 0 0 0 355 345 342 340 342 340 340 342 334 328 0 0 0 0 0 0 0 0 0 0 0 0 0
    0 0 0 0 0 0 0 0 0 0 0 0 0 0 0 0 0 0 0 0 0 0 0 0 0 0 0 0 0 0 0 0 0 0 0 0 0 0 0 0 0 0 0 0 0 0 0 0 0 0 0 0 0 0 0 0 0 0 0 0 0 0 0 0 0 0 0 0 0 0 373 373 367 369 0 0 0 369 371 0 0 0 381 379 387 381 383 379 373 371 367 367 366 362 362 360 355 359 362 364 367 367 366 367 366 366 364 360 347 350 345 364 360 364 367 367 373 377 375 373 371 367 367 366 0 0 359 0 0 362 362 0 0 379 381 375 369 371 371 0 0 0 0 0 0 0 0 364 0 0 367 0 0 0 0 0 373 366 0 364 0 0 367 366 0 367 0 0 0 0 0 0 196 0 196 0 0 0 377 375 377 377 0 0 0 0 0 0 0 0 0 0 0 0 0 385 371 375 377 377 377 377 375 373 0 0 0 0 0 0 129 129 0 0 0 130 129 0 0 0 0 0 99 99 99 0 0 0 0 0 0 0 0 0 0 0 0 0 0 0 0 0 0 518 507 0 0 0 0 364 0 0 0 0 0 0 0 0 0 0 0 0 0 93 0 0 0 0 0 0 333 0 0 0 0 0 0 0 0 2453 2374 0 0 0 2537 2537 2453 1989 0 0 0 2830 2537 2537 0 0 0 0 0 337 334 333 330 334 334 324 0 0 0 0 0 0 0 0 0 0 0 0 0 0
    0 0 0 0 0 0 0 0 0 0 0 0 0 0 0 0 0 0 0 0 0 0 0 0 0 0 0 0 0 0 0 0 0 0 0 0 0 0 0 0 0 0 0 0 0 0 0 0 0 0 0 0 0 0 0 0 0 0 0 0 0 0 0 0 0 0 0 0 0 373 377 373 369 369 366 0 0 367 0 0 0 0 0 0 0 0 391 385 377 375 0 0 0 0 364 360 355 359 360 362 364 366 366 367 0 367 0 0 0 347 339 359 0 0 0 0 0 381 375 0 375 371 0 0 0 0 0 0 0 0 359 0 0 0 0 0 0 0 0 0 0 0 0 0 0 0 0 0 0 0 0 0 0 0 0 0 0 0 0 0 0 0 0 367 367 0 0 0 0 0 0 0 0 0 195 0 0 0 0 0 0 0 826 817 808 808 817 808 0 0 0 0 0 0 0 0 383 0 0 0 0 0 0 389 0 0 0 0 0 0 0 0 0 0 0 0 0 0 0 0 0 0 0 0 0 292 288 285 281 0 0 0 0 0 0 0 0 0 0 0 0 0 0 0 0 0 0 0 0 0 275 0 0 0 0 0 0 0 110 110 0 0 93 94 0 0 0 0 0 0 0 0 0 0 0 290 288 287 290 289 0 0 0 0 2537 2453 2537 2230 2164 0 0 2537 2164 2102 0 0 0 0 0 0 0 0 0 0 0 0 0 0 0 0 0 0 0 0 413 0 0 0 0 0
    0 0 0 0 0 0 0 0 0 0 0 0 0 0 0 0 0 0 0 0 0 0 0 0 0 0 0 0 0 0 0 0 0 0 0 0 0 0 0 0 0 0 0 0 0 0 0 0 0 0 0 0 0 0 0 0 0 0 0 0 0 0 0 0 0 0 0 0 0 391 393 385 0 0 0 0 0 0 0 0 0 0 0 0 0 0 0 0 0 0 0 0 0 0 273 0 350 359 357 352 348 350 0 0 86 0 0 0 0 0 0 0 0 0 0 0 0 0 0 0 0 0 0 0 0 347 0 0 0 0 0 0 0 0 200 197 0 0 0 0 0 0 0 0 0 0 0 0 0 0 0 0 0 0 0 0 0 0 0 0 0 0 0 0 0 0 0 0 0 0 0 0 0 0 0 0 0 0 0 0 0 75 0 855 855 855 845 0 0 263 265 271 0 0 0 0 0 0 0 0 280 281 284 286 284 285 285 285 284 280 280 276 277 277 276 276 278 284 284 289 294 289 0 292 288 288 286 284 283 286 287 286 279 0 0 0 0 275 275 0 0 0 0 0 0 0 0 0 0 0 0 280 0 0 280 279 0 0 0 110 0 0 0 0 0 0 95 0 0 0 0 283 288 289 286 287 286 285 288 288 288 286 285 0 2453 2299 2374 2164 2102 1989 1839 2164 1936 1839 0 0 0 0 0 0 0 0 0 0 0 0 0 0 0 0 0 0 0 0 0 0 0 0 0 0
    0 0 0 0 0 0 0 0 0 0 0 0 0 0 0 0 0 0 0 0 0 0 0 0 0 0 0 0 0 0 0 0 0 0 0 0 0 0 0 0 0 0 0 0 0 0 0 0 0 0 0 0 0 0 0 0 0 0 0 0 0 0 0 0 0 0 0 0 0 0 0 0 292 0 0 0 0 0 0 0 0 0 0 0 287 289 288 0 0 287 284 288 0 0 281 283 285 0 0 0 0 0 0 0 0 0 0 0 0 0 0 0 0 0 0 0 0 0 0 0 0 0 0 0 0 0 0 0 0 0 0 0 0 0 0 0 0 0 0 0 290 0 0 0 0 0 0 0 0 288 288 290 288 289 288 0 0 88 0 0 0 0 0 0 0 0 0 0 0 0 0 0 0 0 0 0 0 0 0 75 75 75 0 0 0 0 0 0 0 276 278 275 0 0 0 280 280 281 280 281 284 284 284 284 284 285 285 285 284 281 281 278 279 280 278 278 280 283 283 287 292 287 284 289 287 287 285 285 284 287 287 287 280 279 276 275 275 275 276 275 278 280 0 287 285 0 0 0 284 283 284 283 279 283 283 281 279 0 0 0 0 0 0 0 0 0 0 0 0 283 280 283 285 285 284 286 286 285 286 287 287 286 285 286 2453 2230 2299 2102 2102 1989 1752 1936 1839 1711 0 0 0 0 0 0 0 0 0 0 0 0 290 0 0 288 0 0 0 0 0 0 0 0 0 0
    0 0 0 0 0 0 0 0 0 0 0 0 0 0 0 0 0 0 0 0 0 0 0 0 0 0 0 0 0 0 0 0 0 0 0 0 0 0 0 0 0 0 0 0 0 0 0 0 0 0 0 0 0 0 0 0 0 0 0 0 0 0 0 0 0 0 0 0 0 286 285 286 285 285 285 283 0 0 0 0 285 286 281 287 285 286 286 285 287 285 284 289 0 0 288 287 289 289 286 289 277 0 0 0 0 0 0 0 0 0 0 0 0 0 0 0 0 0 0 0 0 0 0 0 0 0 0 0 0 0 0 0 0 0 0 287 0 0 0 288 288 287 0 0 0 283 279 284 285 286 287 289 287 288 288 294 292 289 0 0 0 0 0 286 284 0 0 289 288 0 0 0 0 0 294 290 292 0 0 0 0 0 0 0 0 0 0 0 0 279 280 279 278 279 283 283 281 283 281 283 284 284 284 284 283 284 283 284 283 280 280 277 278 279 278 278 280 283 281 286 289 285 284 288 286 286 285 284 285 287 288 288 280 280 278 278 277 278 278 278 280 283 283 288 286 285 285 284 285 284 285 284 280 283 283 283 280 0 0 0 0 0 0 0 0 0 0 281 281 283 280 281 285 285 284 285 285 284 285 287 286 286 286 286 0 2164 2230 2102 2164 1936 1711 1752 0 0 0 0 0 0 0 0 0 0 0 0 0 290 288 285 289 285 283 283 279 0 274 0 0 0 0 0
    0 0 0 0 0 0 0 0 0 0 0 0 0 0 0 0 0 0 0 0 0 0 0 0 0 0 0 0 0 0 0 0 0 0 0 0 0 0 0 0 0 0 0 0 0 0 0 0 0 0 0 0 0 0 0 0 0 0 0 0 0 0 0 0 0 0 0 0 0 284 284 285 284 285 286 284 0 0 0 0 288 286 283 286 285 285 285 285 286 284 284 288 0 0 288 287 288 288 286 289 281 284 280 280 281 0 0 0 0 0 0 0 0 0 0 0 0 0 0 0 0 0 0 0 0 0 0 0 0 0 0 0 0 0 284 286 287 288 288 287 287 287 290 289 287 284 280 285 286 286 286 288 287 287 288 294 290 288 290 290 285 285 285 287 285 287 292 290 289 290 293 0 0 0 293 290 292 0 0 0 0 0 280 279 280 278 279 280 280 281 281 281 281 280 284 285 283 284 283 284 284 284 284 283 281 283 281 283 280 279 279 278 279 280 279 280 281 283 283 285 286 284 283 288 285 285 284 284 285 287 287 287 281 283 280 280 280 280 280 280 283 284 283 288 285 284 285 284 284 283 285 284 280 283 284 283 280 278 0 0 278 278 277 0 0 0 280 281 283 283 281 281 285 284 283 284 285 284 285 287 286 286 286 287 285 0 0 2102 2230 0 0 0 0 0 0 0 0 0 0 0 0 281 0 285 287 288 288 285 288 285 283 283 279 275 275 0 0 0 0 0
    0 0 0 0 0 0 0 0 0 0 0 0 0 0 0 0 0 0 0 0 0 0 0 0 0 0 0 0 0 0 0 0 0 0 0 0 0 0 0 0 0 0 0 0 0 0 0 0 0 0 0 0 0 0 0 0 0 0 0 0 0 0 0 0 0 0 0 0 0 284 284 284 284 284 285 283 284 0 0 281 287 284 283 285 284 285 285 285 285 284 284 287 0 0 286 284 287 286 286 288 283 285 281 283 285 283 283 0 0 0 0 0 289 0 0 0 0 0 0 0 0 0 0 411 0 0 0 0 0 0 0 290 287 281 284 286 287 287 287 286 287 287 289 289 287 285 281 285 286 286 286 288 287 286 287 293 288 286 288 287 284 284 284 285 284 285 288 288 288 288 292 293 293 293 292 289 289 289 292 288 286 281 283 280 281 279 281 281 281 283 283 284 284 283 286 286 284 285 284 284 285 284 284 284 281 283 281 283 281 279 279 278 279 281 280 281 283 284 284 286 286 285 284 288 284 284 284 283 283 285 285 285 281 284 280 281 281 281 281 283 284 285 284 289 284 284 285 283 284 283 283 283 281 284 284 283 281 279 0 0 278 277 277 276 278 279 279 280 281 283 281 280 284 283 283 283 284 284 285 286 286 286 286 287 287 286 287 0 288 288 0 0 0 0 0 280 280 280 281 279 280 279 279 283 284 286 286 284 286 283 281 281 278 275 274 0 0 0 0 0
    0 0 0 0 0 0 0 0 0 0 0 0 0 0 0 0 0 0 0 0 0 0 0 0 0 0 0 0 0 0 0 0 0 0 0 0 0 0 0 0 0 0 0 0 0 0 0 0 0 0 0 0 0 0 0 0 0 0 0 0 0 0 0 0 0 0 0 0 0 284 284 284 284 284 285 281 283 283 284 281 287 284 284 285 285 285 285 285 285 284 285 286 285 286 285 283 285 286 285 287 283 285 283 284 286 284 283 285 285 286 286 0 289 289 0 0 0 0 0 0 0 0 0 0 0 0 0 0 289 289 0 290 288 283 284 285 285 285 286 285 286 286 288 288 287 285 283 285 286 285 286 287 287 286 286 292 287 285 287 286 284 284 284 285 284 284 286 287 287 286 289 290 292 290 290 288 287 287 289 286 285 281 284 280 283 280 281 283 283 283 283 284 285 283 286 286 284 285 284 284 284 284 284 283 281 283 281 283 281 280 279 278 280 281 280 283 284 284 284 286 287 287 285 288 284 284 283 283 281 284 284 283 281 283 281 281 283 281 283 283 285 286 284 289 285 284 285 284 283 283 283 283 281 283 283 283 281 280 279 279 278 277 277 277 279 279 280 280 281 281 281 280 284 283 281 283 284 284 284 285 286 286 286 287 287 286 287 287 289 288 287 283 283 284 283 280 280 280 280 279 280 279 279 281 283 284 285 283 285 283 281 281 278 277 275 0 0 0 0 0
    0 0 0 0 0 0 0 0 0 0 0 0 0 0 0 0 0 0 0 0 0 0 0 0 0 0 0 0 0 0 0 0 0 0 0 0 0 0 0 0 0 0 0 0 0 0 0 0 0 0 0 0 0 0 0 0 0 0 0 0 0 0 0 0 0 0 0 0 0 284 284 285 285 284 285 281 283 283 283 283 287 284 284 285 285 285 285 285 286 285 285 286 285 286 285 284 285 286 285 287 284 285 283 284 286 284 283 286 285 287 287 0 289 289 288 0 0 0 0 0 0 0 0 0 0 286 0 290 289 289 0 289 287 281 283 284 284 285 285 284 286 285 287 286 286 285 281 284 286 285 286 287 286 285 285 292 288 285 287 286 285 285 285 286 285 285 286 287 287 285 288 289 290 289 289 287 286 286 288 285 284 283 284 281 285 281 284 284 283 284 284 285 284 283 286 286 285 285 285 285 284 284 284 283 281 283 281 283 283 281 279 278 280 281 281 283 283 284 284 286 287 286 285 287 284 283 284 283 283 284 284 284 281 284 281 283 283 281 283 283 284 286 285 289 285 284 285 284 283 283 281 281 280 283 283 283 283 281 280 280 279 278 278 278 279 279 280 280 280 281 281 280 284 283 281 281 284 284 284 285 285 285 286 287 287 286 287 288 289 288 287 284 284 284 283 280 281 280 281 280 279 279 279 281 283 284 284 281 283 281 281 281 279 277 275 0 0 0 0 0
    0 0 0 0 0 0 0 0 0 0 0 0 0 0 0 0 0 0 0 0 0 0 0 0 0 0 0 0 0 0 0 0 0 0 0 0 0 0 0 0 0 0 0 0 0 0 0 0 0 0 0 0 0 0 0 0 0 0 0 0 0 0 0 0 0 0 0 0 0 285 285 286 285 285 286 283 283 283 284 283 287 284 284 285 285 285 285 286 286 285 285 286 286 287 286 285 285 286 286 288 285 285 283 284 286 285 284 286 285 287 287 288 288 289 288 0 0 0 0 0 0 0 0 0 0 286 287 290 289 289 0 288 286 281 283 283 284 284 285 284 286 285 287 286 286 285 281 284 285 284 286 286 286 285 285 290 288 285 287 287 286 285 285 286 286 285 286 287 286 285 288 289 289 288 288 287 285 285 288 286 285 283 285 284 286 284 286 284 284 284 284 285 284 284 287 286 285 286 285 285 284 284 284 283 281 283 281 283 283 281 278 279 280 281 281 283 283 283 283 285 286 285 284 286 284 283 284 283 283 284 284 284 283 284 283 283 284 283 283 283 284 285 284 288 284 283 284 283 283 283 281 281 280 281 283 283 283 283 280 281 280 279 280 279 280 278 279 279 280 280 281 280 281 281 280 281 284 284 283 284 285 286 286 288 288 287 287 288 289 288 287 284 283 283 281 280 280 280 280 279 279 279 279 283 283 284 285 283 283 281 281 281 278 276 275 0 0 0 0 0
    0 0 0 0 0 0 0 0 0 0 0 0 0 0 0 0 0 0 0 0 0 0 0 0 0 0 0 0 0 0 0 0 0 0 0 0 0 0 0 0 0 0 0 0 0 0 0 0 0 0 0 0 0 0 0 0 0 0 0 0 0 0 0 0 0 0 0 0 0 285 285 286 285 285 286 283 283 283 284 284 287 285 284 285 285 285 285 286 286 285 285 287 286 287 287 286 286 287 286 288 286 286 284 285 286 286 284 286 285 287 287 288 288 289 287 290 0 0 0 0 0 0 0 284 0 284 0 288 289 288 0 287 284 281 283 283 284 284 285 284 286 285 286 286 286 286 283 284 285 284 285 286 286 285 284 289 288 284 287 286 285 285 285 286 286 285 285 286 285 285 287 288 288 287 287 287 285 285 287 286 285 284 285 285 286 285 287 285 285 285 285 286 285 285 287 286 286 286 286 285 284 284 284 283 281 281 280 283 283 283 278 279 281 283 283 284 284 284 283 285 285 285 284 285 283 283 284 283 284 284 284 284 284 285 284 284 285 283 284 283 284 285 284 286 283 283 284 283 283 281 280 281 281 281 281 281 283 283 281 0 281 279 283 281 283 280 280 280 280 281 281 279 281 280 280 281 284 284 283 284 285 286 287 289 289 287 287 288 289 288 286 283 283 283 281 280 280 280 280 279 279 280 279 283 284 285 285 281 281 280 280 281 278 276 274 0 0 0 0 0
    0 0 0 0 0 0 0 0 0 0 0 0 0 0 0 0 0 0 0 0 0 0 0 0 0 0 0 0 0 0 0 0 0 0 0 0 0 0 0 0 0 0 0 0 0 0 0 0 0 0 0 0 0 0 0 0 0 0 0 0 0 0 0 0 0 0 0 0 0 285 285 286 285 284 286 284 284 283 285 284 287 284 285 285 285 285 285 286 286 286 286 287 287 287 288 286 287 287 287 288 286 287 285 286 287 286 285 287 286 288 288 288 288 289 287 290 283 281 283 281 285 284 284 284 284 285 288 288 290 290 292 289 286 283 283 281 283 284 284 284 285 285 286 286 287 286 283 284 285 284 285 286 286 284 284 288 288 284 286 286 285 285 285 285 285 284 285 286 285 285 286 287 287 286 286 287 284 284 286 285 284 284 285 286 286 285 287 286 285 285 285 286 285 285 287 286 285 286 286 286 283 284 284 283 281 281 280 281 281 284 278 280 281 283 283 284 284 284 283 285 285 285 284 285 283 283 284 283 284 284 284 284 284 285 284 284 285 284 284 284 284 285 284 286 283 283 284 283 283 281 280 281 281 281 281 281 283 284 284 284 283 281 285 285 285 283 283 283 281 283 283 280 281 280 279 281 284 284 283 284 285 286 287 289 289 288 287 288 290 288 287 284 284 284 281 280 281 280 280 279 279 280 280 283 284 284 283 279 279 278 279 280 278 277 275 0 0 0 0 0
    0 0 0 0 0 0 0 0 0 0 0 0 0 0 0 0 0 0 0 0 0 0 0 0 0 0 0 0 0 0 0 0 0 0 0 0 0 0 0 0 0 0 0 0 0 0 0 0 0 0 0 0 0 0 0 0 0 0 0 0 0 0 0 0 0 0 0 0 0 284 284 285 284 284 287 284 285 284 287 285 288 285 285 285 285 285 285 286 286 286 287 287 287 287 287 286 287 287 286 287 286 286 285 286 287 287 286 287 287 288 288 289 289 290 287 289 284 281 283 280 284 283 283 284 284 285 289 289 293 292 293 293 289 284 284 281 283 283 284 283 285 285 286 286 287 286 284 284 286 285 286 286 286 284 284 288 289 284 286 285 285 285 285 285 285 284 284 286 284 284 285 286 286 285 285 286 284 284 285 285 285 285 285 287 287 286 288 287 286 286 285 287 286 285 287 287 286 287 286 286 283 284 285 283 281 281 280 281 281 285 278 280 281 283 283 284 284 284 283 285 285 285 284 284 283 283 285 284 285 284 285 285 285 285 285 285 286 284 284 284 284 285 283 284 283 283 284 284 281 281 280 281 280 280 281 280 283 284 283 284 283 283 285 285 285 284 283 283 283 284 285 281 284 283 280 283 284 284 283 284 285 286 287 290 289 288 287 288 290 288 287 284 284 284 281 280 281 280 280 280 279 280 280 284 284 284 283 279 278 278 279 280 278 278 276 0 0 0 0 0
    0 0 0 0 0 0 0 0 0 0 0 0 0 0 0 0 0 0 0 0 0 0 0 0 0 0 0 0 0 0 0 0 0 0 0 0 0 0 0 0 0 0 0 0 0 0 0 0 0 0 0 0 0 0 0 0 0 0 0 0 0 0 0 0 0 0 0 0 0 284 285 286 285 284 289 286 285 285 288 286 288 284 285 285 286 285 286 286 286 286 287 287 287 286 287 286 286 286 286 287 285 286 285 286 287 287 286 287 287 288 288 289 289 289 287 288 284 283 284 281 284 283 283 284 284 285 289 289 293 292 293 292 289 284 285 283 283 283 283 283 285 285 286 286 287 287 284 284 286 285 286 286 286 285 284 288 289 284 286 286 286 285 285 285 285 284 284 286 284 284 284 285 286 285 285 286 284 285 286 286 286 286 287 288 288 287 289 288 287 287 286 287 286 286 287 287 287 288 287 287 283 285 286 284 283 283 280 283 284 288 279 280 283 284 283 284 284 284 284 285 285 285 285 284 284 284 285 285 285 285 285 285 285 285 285 284 285 283 283 283 283 284 283 284 281 283 284 283 281 281 280 280 280 280 280 280 281 284 283 283 283 281 285 285 285 284 284 284 284 285 286 283 284 284 280 283 284 284 283 283 285 285 286 290 288 288 287 288 290 289 288 285 285 285 283 283 284 281 280 280 278 279 280 283 283 283 280 278 278 278 279 280 279 279 277 0 0 0 0 0
    0 0 0 0 0 0 0 0 0 0 0 0 0 0 0 0 0 0 0 0 0 0 0 0 0 0 0 0 0 0 0 0 0 0 0 0 0 0 0 0 0 0 0 0 0 0 0 0 0 0 0 0 0 0 0 0 0 0 0 0 0 0 0 0 0 0 0 0 0 285 285 287 287 285 289 288 287 285 288 286 287 284 286 285 286 285 286 286 287 286 287 287 286 285 286 285 285 285 286 286 285 285 286 285 287 286 286 287 287 288 287 288 288 288 287 287 285 284 285 284 285 285 284 285 284 286 288 289 292 290 290 290 289 285 286 284 283 283 283 283 285 285 286 285 287 287 285 284 286 285 286 286 286 285 285 287 290 284 287 286 286 285 285 285 285 283 283 285 284 284 284 285 286 285 285 287 284 285 286 286 286 286 287 288 287 287 289 288 287 286 285 287 285 286 287 286 287 288 288 288 283 286 287 285 286 285 284 285 287 290 280 281 283 283 284 284 284 284 284 285 285 284 285 284 285 284 286 285 285 285 285 285 285 284 284 284 284 281 281 281 281 281 281 283 283 283 284 284 281 283 280 281 280 280 280 280 281 283 283 283 283 281 284 284 284 283 283 283 283 284 285 283 284 284 279 283 283 284 283 283 284 285 285 290 287 287 286 288 290 289 288 286 286 285 284 285 286 283 281 280 278 278 279 283 281 0 0 278 278 279 280 281 280 280 279 0 0 0 0 0
    0 0 0 0 0 0 0 0 0 0 0 0 0 0 0 0 0 0 0 0 0 0 0 0 0 0 0 0 0 0 0 0 0 0 0 0 0 0 0 0 0 0 0 0 0 0 0 0 0 0 0 0 0 0 0 0 0 0 0 0 0 0 0 0 0 0 0 0 0 285 287 290 289 288 293 292 290 289 290 287 288 285 286 286 286 286 286 287 287 286 287 287 286 285 286 285 284 284 285 286 284 284 284 283 284 284 284 285 285 286 285 286 285 286 285 286 284 285 285 285 286 286 285 285 285 287 288 288 290 289 288 287 287 284 285 283 281 281 283 284 285 284 285 285 286 287 285 283 286 285 286 286 287 286 285 287 292 285 287 287 287 286 286 286 286 284 284 286 284 284 285 285 286 285 285 287 284 285 286 286 286 286 286 288 287 287 288 287 286 286 285 286 284 285 286 286 287 288 288 289 283 286 288 286 288 286 286 285 286 289 281 280 283 283 283 283 283 283 283 284 285 283 284 283 285 285 286 286 286 286 286 286 286 284 285 283 284 280 280 280 280 281 281 281 283 283 284 284 283 283 280 281 280 280 281 280 281 283 283 283 283 281 284 284 283 283 283 284 284 285 286 284 284 285 280 284 284 284 283 283 284 284 285 289 286 286 285 286 289 287 287 286 286 285 285 286 287 284 283 283 280 280 281 286 283 281 278 279 278 279 280 281 280 280 279 0 0 0 0 0
    0 0 0 0 0 0 0 0 0 0 0 0 0 0 0 0 0 0 0 0 0 0 0 0 0 0 0 0 0 0 0 0 0 0 0 0 0 0 0 0 0 0 0 0 0 0 0 0 0 0 0 0 0 0 0 0 0 0 0 0 0 0 0 0 0 0 0 0 0 287 288 294 293 293 294 293 292 290 290 288 289 285 286 286 286 286 287 287 287 286 287 287 285 286 286 285 285 285 286 287 284 284 284 283 283 283 283 284 284 285 284 285 284 286 285 286 285 285 286 287 287 287 286 287 286 288 288 288 289 289 288 287 286 284 285 283 281 281 283 284 284 284 285 285 286 287 285 283 286 285 286 286 287 286 286 287 292 286 288 288 287 286 288 287 287 285 285 287 284 285 285 285 286 286 285 287 285 286 287 287 286 286 286 289 287 287 289 287 286 286 285 286 284 285 286 286 287 289 289 290 284 287 289 287 289 287 286 286 286 287 281 281 283 283 283 283 283 283 281 284 284 281 283 281 284 285 286 286 286 286 286 287 286 284 284 283 283 280 279 279 279 281 281 281 283 283 284 285 283 283 281 281 280 280 281 281 283 283 284 283 283 281 284 284 283 283 283 284 285 287 287 287 285 286 280 284 284 285 284 284 284 285 285 290 285 286 285 285 288 286 286 285 285 285 284 284 287 284 283 283 281 283 287 289 288 0 0 280 278 279 280 281 280 280 280 0 0 0 0 0
    0 0 0 0 0 0 0 0 0 0 0 0 0 0 0 0 0 0 0 0 0 0 0 0 0 0 0 0 0 0 0 0 0 0 0 0 0 0 0 0 0 0 0 0 0 0 0 0 0 0 0 0 0 0 0 0 0 0 0 0 0 0 0 0 0 0 0 0 0 292 293 297 296 296 294 293 292 292 293 289 289 285 286 287 286 287 287 287 287 286 287 288 285 286 286 286 286 285 286 287 285 285 284 283 283 283 283 283 284 284 284 285 285 287 286 287 287 287 287 287 288 287 287 287 286 287 288 288 289 288 287 286 285 284 286 283 283 281 283 285 285 285 286 285 286 287 286 283 286 286 286 286 286 286 286 287 292 286 287 287 286 285 287 286 286 284 285 287 284 285 285 285 286 286 285 287 286 286 286 287 286 287 286 289 286 286 288 287 286 286 285 286 284 285 285 286 286 288 289 289 285 287 289 288 288 288 286 286 286 286 283 281 283 283 284 283 283 283 283 284 284 281 283 281 285 285 286 286 286 286 286 286 286 284 284 283 283 280 279 280 279 281 281 283 283 283 284 285 284 284 283 283 281 281 283 283 283 283 284 283 283 281 283 283 281 281 283 284 286 287 288 287 285 286 280 285 284 284 284 283 284 284 284 289 285 285 284 284 287 284 285 284 284 284 283 283 286 283 283 283 283 283 286 288 285 0 275 279 278 278 279 280 280 280 280 0 0 0 0 0
    0 0 0 0 0 0 0 0 0 0 0 0 0 0 0 0 0 0 0 0 0 0 0 0 0 0 0 0 0 0 0 0 0 0 0 0 0 0 0 0 0 0 0 0 0 0 0 0 0 0 0 0 0 0 0 0 0 0 0 0 0 0 0 0 0 0 0 0 0 290 292 296 296 296 294 293 293 292 292 289 288 285 286 287 287 287 287 287 287 286 287 288 285 286 287 285 286 285 286 287 285 285 285 284 284 283 284 284 285 284 285 285 286 287 287 287 287 286 287 287 287 287 286 286 286 287 288 288 289 287 287 285 285 284 285 281 281 280 281 285 285 285 285 285 285 286 286 283 285 285 285 286 286 286 286 287 292 286 287 287 286 285 287 286 286 284 285 287 284 285 285 285 286 286 285 286 285 285 284 285 284 285 284 287 285 285 287 287 286 286 285 286 285 285 285 285 285 288 287 287 285 286 288 287 287 287 286 286 286 285 284 283 284 283 284 284 284 284 284 285 285 283 284 283 285 285 285 286 285 285 286 286 285 284 284 284 283 281 280 281 280 283 284 284 284 284 285 286 285 285 284 284 284 283 284 283 284 283 284 281 281 281 283 283 281 281 283 284 286 286 286 286 284 285 279 284 283 283 283 281 283 283 283 288 281 283 281 283 286 283 284 284 284 284 283 284 286 283 281 281 281 280 280 281 278 276 273 278 277 277 278 280 279 280 280 0 0 0 0 0
    0 0 0 0 0 0 0 0 0 0 0 0 0 0 0 0 0 0 0 0 0 0 0 0 0 0 0 0 0 0 0 0 0 0 0 0 0 0 0 0 0 0 0 0 0 0 0 0 0 0 0 0 0 0 0 0 0 0 0 0 0 0 0 0 0 0 0 0 0 288 290 293 294 294 292 290 292 289 290 287 287 284 286 287 287 287 287 287 287 0 0 0 0 286 286 284 286 284 286 285 284 284 284 283 284 283 284 284 286 285 286 286 286 287 287 287 287 286 287 287 288 288 287 288 288 289 290 289 290 289 288 286 286 284 285 283 281 279 281 284 285 285 285 285 285 286 286 283 286 285 285 286 286 287 286 287 292 286 288 288 287 286 287 287 287 287 287 288 286 286 286 286 286 286 285 286 284 284 284 284 283 283 283 284 283 284 285 287 285 286 285 286 285 285 285 285 285 288 287 286 285 285 288 287 288 287 285 286 286 285 285 283 284 283 284 284 284 284 284 285 285 284 285 284 286 285 285 286 285 285 286 286 285 283 284 284 283 283 281 283 281 284 285 285 284 284 285 286 285 286 285 285 284 284 285 284 284 283 284 281 281 281 281 281 280 280 281 283 284 285 285 285 284 284 279 283 281 281 281 281 281 283 281 287 281 283 281 283 286 284 285 284 284 285 285 285 287 283 281 281 280 279 278 279 277 276 273 277 276 277 278 280 279 280 280 0 0 0 0 0
    0 0 0 0 0 0 0 0 0 0 0 0 0 0 0 0 0 0 0 0 0 0 0 0 0 0 0 0 0 0 0 0 0 0 0 0 0 0 0 0 0 0 0 0 0 0 0 0 0 0 0 0 0 0 0 0 0 0 0 0 0 0 0 0 0 0 0 0 0 289 290 290 293 293 289 288 289 288 289 287 286 284 286 287 287 287 287 287 287 286 287 286 284 285 285 284 285 284 286 285 285 284 284 284 284 284 285 285 286 286 286 287 287 287 287 287 287 287 287 288 288 288 288 288 289 289 290 289 289 288 287 285 285 284 286 284 283 280 281 285 286 285 285 284 284 286 285 283 286 285 286 286 287 287 287 288 292 287 288 288 288 287 289 289 289 289 290 290 288 288 287 287 287 286 285 286 284 284 284 283 283 283 281 283 281 283 283 285 285 285 285 286 285 284 284 283 283 287 285 284 285 284 287 286 287 287 285 285 286 285 285 283 284 283 284 284 284 284 285 286 285 284 285 284 286 284 285 286 285 285 285 286 285 283 284 284 281 283 281 284 281 285 286 285 285 285 286 287 286 287 286 285 285 285 284 284 284 283 283 281 281 280 280 279 279 279 281 283 284 285 285 285 284 285 279 281 280 281 281 281 281 281 281 286 281 283 281 283 285 285 285 285 285 285 287 285 288 284 283 281 280 279 0 280 0 276 274 277 277 278 279 280 279 279 279 0 0 0 0 0
    0 0 0 0 0 0 0 0 0 0 0 0 0 0 0 0 0 0 0 0 0 0 0 0 0 0 0 0 0 0 0 0 0 0 0 0 0 0 0 0 0 0 0 0 0 0 0 0 0 0 0 0 0 0 0 0 0 0 0 0 0 0 0 0 0 0 0 0 0 293 292 292 294 294 289 288 289 288 288 287 285 284 285 287 286 286 287 287 287 286 287 286 284 285 285 284 285 285 287 286 286 285 285 285 284 285 285 285 286 286 286 287 286 287 287 287 286 287 287 288 288 288 288 288 289 289 288 287 286 285 286 283 284 284 285 285 284 281 284 285 287 285 285 284 283 285 285 283 285 285 286 286 287 287 287 288 290 286 288 287 288 287 289 290 290 290 292 292 290 289 289 288 287 287 285 285 285 284 284 281 283 283 281 281 281 283 283 284 284 284 284 285 284 283 283 281 281 285 284 284 284 283 286 285 287 286 285 285 285 284 285 283 284 283 284 284 284 284 284 285 284 283 284 283 285 284 284 285 284 285 285 285 284 281 283 284 281 284 283 286 283 286 287 286 286 286 286 288 287 287 286 285 285 285 284 284 284 283 283 281 280 279 279 279 279 280 281 283 284 285 284 284 283 283 278 280 280 281 281 281 281 281 281 286 283 284 281 284 285 286 0 285 285 285 289 286 289 285 284 283 283 280 0 0 0 277 275 278 278 279 280 281 279 279 279 0 0 0 0 0
    0 0 0 0 0 0 0 0 0 0 0 0 0 0 0 0 0 0 0 0 0 0 0 0 0 0 0 0 0 0 0 0 0 0 0 0 0 0 0 0 0 0 0 0 0 0 0 0 0 0 0 0 0 0 0 0 0 0 0 0 0 0 0 0 0 0 0 0 0 0 292 292 294 293 289 288 289 288 288 288 285 285 285 287 286 286 287 286 286 286 287 287 284 287 286 285 286 285 288 287 287 286 285 285 285 286 285 285 286 286 286 286 285 286 286 286 286 286 287 288 288 288 288 287 288 288 287 286 286 285 285 284 285 285 287 286 286 284 285 286 288 286 286 284 283 284 284 283 285 284 286 286 286 287 286 287 290 286 287 287 287 286 289 290 290 292 293 292 292 290 290 289 288 287 286 285 284 283 283 281 281 281 281 281 281 283 283 284 285 284 283 285 284 283 283 281 281 283 283 283 284 283 285 284 286 286 285 285 285 284 284 284 284 283 284 284 284 284 284 285 284 283 284 283 284 283 283 284 284 284 284 285 284 283 284 285 284 285 285 287 285 287 288 287 286 287 287 288 287 287 286 285 285 286 285 284 284 281 283 281 280 280 279 279 279 280 281 283 284 285 284 284 283 283 278 281 280 281 281 281 281 281 281 286 283 285 283 284 284 285 0 284 284 285 287 285 288 285 285 283 284 281 0 281 280 279 277 279 279 280 281 281 279 278 277 0 0 0 0 0
    0 0 0 0 0 0 0 0 0 0 0 0 0 0 0 0 0 0 0 0 0 0 0 0 0 0 0 0 0 0 0 0 0 0 0 0 0 0 0 0 0 0 0 0 0 0 0 0 0 0 0 0 0 0 0 0 0 0 0 0 0 0 0 0 0 0 0 0 0 0 0 0 292 290 288 287 288 288 288 289 285 286 285 287 286 286 287 286 286 287 287 288 285 287 287 286 287 286 288 287 287 286 284 286 285 286 286 285 286 286 286 286 285 286 285 286 286 286 288 288 288 289 288 288 288 288 288 287 286 285 285 285 285 286 286 286 286 285 286 286 288 287 285 284 283 284 283 283 285 284 285 285 286 286 286 287 289 285 287 286 287 286 289 290 290 292 293 292 292 289 289 288 287 286 285 284 284 283 283 281 281 281 280 281 281 284 283 284 285 285 284 286 285 284 283 281 281 283 283 283 283 283 284 284 286 286 284 285 285 284 285 284 284 283 284 285 285 285 285 286 284 285 284 284 284 283 283 284 283 283 284 285 284 283 284 286 284 286 286 288 286 288 289 288 287 288 287 289 288 287 286 286 285 286 285 285 284 283 283 281 281 280 280 279 280 280 281 285 285 287 285 284 283 281 277 280 279 281 280 281 281 281 283 286 284 285 283 284 284 283 284 283 283 283 284 283 286 284 285 284 285 284 0 283 283 280 279 280 280 281 283 283 279 277 276 0 0 0 0 0
    0 0 0 0 0 0 0 0 0 0 0 0 0 0 0 0 0 0 0 0 0 0 0 0 0 0 0 0 0 0 0 0 0 0 0 0 0 0 0 0 0 0 0 0 0 0 0 0 0 0 0 0 0 0 0 0 0 0 0 0 0 0 0 0 0 0 0 0 0 0 0 0 0 289 288 286 287 287 287 289 285 286 285 287 286 286 287 286 286 287 287 288 286 288 288 287 288 287 288 287 287 287 286 287 286 288 287 286 287 286 287 287 286 287 286 286 288 287 289 288 289 290 288 288 288 288 289 287 287 285 286 286 285 287 286 286 287 286 287 286 288 287 285 284 283 285 283 283 285 284 285 285 286 285 285 287 288 285 287 286 287 286 288 289 289 290 293 290 289 288 288 288 285 285 284 283 281 281 281 280 281 281 281 281 283 284 284 284 285 285 284 286 285 285 283 281 281 283 283 283 283 283 284 284 286 286 284 285 285 284 285 285 285 284 285 286 285 286 286 287 286 287 285 285 285 283 283 284 283 283 284 285 284 283 284 285 284 286 286 288 286 288 288 289 288 288 288 289 288 287 286 286 285 286 285 284 284 283 283 281 281 281 280 280 281 281 283 285 285 286 284 281 281 280 277 280 279 281 280 281 281 281 281 286 284 285 283 285 283 283 284 283 283 283 283 281 284 281 283 280 281 281 0 280 280 279 279 279 280 280 281 281 279 277 276 0 0 0 0 0
    0 0 0 0 0 0 0 0 0 0 0 0 0 0 0 0 0 0 0 0 0 0 0 0 0 0 0 0 0 0 0 0 0 0 0 0 0 0 0 0 0 0 0 0 0 0 0 0 0 0 0 0 0 0 0 0 0 0 0 0 0 0 0 0 0 0 0 0 0 289 289 288 290 289 288 287 288 288 287 289 285 287 285 287 286 285 286 285 285 287 286 288 286 288 288 287 288 288 288 287 287 287 287 288 287 288 288 287 288 287 287 287 287 287 286 286 287 286 288 286 288 289 286 287 287 287 288 286 286 284 285 285 285 287 286 286 286 286 286 285 288 286 284 283 283 284 281 283 285 284 285 285 286 285 285 288 288 285 287 286 287 286 288 289 289 289 292 289 288 288 287 287 285 284 283 281 281 280 281 280 281 281 281 281 283 284 284 284 285 285 284 286 284 284 281 281 281 283 283 283 283 281 283 283 285 286 284 285 285 284 285 285 285 284 285 287 286 287 287 288 287 288 286 286 286 284 283 284 283 281 283 284 284 283 284 285 284 285 286 286 285 287 288 288 287 288 288 288 288 287 286 286 284 286 284 284 283 281 283 281 281 283 280 280 283 281 283 285 285 285 283 281 281 280 278 280 280 281 280 281 281 281 281 286 284 285 283 287 285 284 285 284 285 284 0 0 283 281 281 279 279 279 278 279 279 279 279 280 280 281 283 283 280 277 276 0 0 0 0 0
    0 0 0 0 0 0 0 0 0 0 0 0 0 0 0 0 0 0 0 0 0 0 0 0 0 0 0 0 0 0 0 0 0 0 0 0 0 0 0 0 0 0 0 0 0 0 0 0 0 0 0 0 0 0 0 0 0 0 0 0 0 0 0 0 0 0 0 0 0 287 287 286 289 288 288 288 289 289 288 289 286 287 284 287 285 285 285 285 285 286 285 288 285 287 288 287 288 287 288 286 288 287 287 288 288 289 289 289 289 288 288 288 286 287 285 285 285 284 285 284 285 287 284 285 286 287 287 286 286 285 285 286 285 287 287 286 287 286 287 285 287 286 283 283 283 285 281 284 286 284 286 286 287 286 286 288 288 286 288 286 287 286 288 289 289 289 290 289 288 288 288 287 285 284 284 281 281 280 281 279 281 281 281 283 283 284 284 284 285 284 284 286 284 284 281 283 281 283 281 283 283 281 283 283 285 286 284 285 285 284 285 285 285 284 285 287 286 287 287 288 287 288 287 286 286 284 283 284 281 281 283 284 284 283 284 285 284 285 286 286 285 286 288 287 286 287 288 288 288 287 285 285 284 286 284 284 283 281 283 281 281 283 280 279 281 280 283 285 285 285 283 281 283 283 279 281 281 283 281 283 283 283 283 287 284 287 283 288 286 285 285 285 286 284 285 0 284 281 283 279 279 280 278 280 280 281 281 281 283 284 284 284 281 279 276 0 0 0 0 0
    0 0 0 0 0 0 0 0 0 0 0 0 0 0 0 0 0 0 0 0 0 0 0 0 0 0 0 0 0 0 0 0 0 0 0 0 0 0 0 0 0 0 0 0 0 0 0 0 0 0 0 0 0 0 0 0 0 0 0 0 0 0 0 0 0 0 0 0 0 288 287 287 290 289 289 289 289 290 289 290 287 288 285 287 285 284 285 285 284 285 285 287 284 287 287 287 288 287 288 286 288 288 287 289 288 290 290 289 289 288 288 288 286 286 285 285 284 284 284 285 284 287 284 285 285 286 287 286 286 285 285 286 286 288 287 286 287 286 287 285 287 286 283 283 284 285 281 284 286 285 287 286 287 286 287 289 289 286 288 286 287 286 288 288 288 288 290 289 288 288 288 288 286 285 285 284 283 281 283 280 283 283 283 283 283 284 284 284 285 284 284 285 284 285 283 283 281 283 283 283 283 281 283 283 285 286 284 285 285 285 284 285 284 285 285 286 286 287 287 288 288 288 287 286 286 284 283 284 283 281 283 284 284 283 284 285 284 285 286 286 285 286 287 287 286 288 288 288 289 286 285 285 285 287 285 285 283 281 283 281 281 283 280 279 281 280 284 285 285 286 285 284 284 285 280 284 283 285 284 284 284 285 285 289 287 289 285 289 288 287 287 286 287 284 285 284 284 283 283 280 280 280 280 281 283 284 284 284 286 286 286 285 285 283 278 0 0 0 0 0
    0 0 0 0 0 0 0 0 0 0 0 0 0 0 0 0 0 0 0 0 0 0 0 0 0 0 0 0 0 0 0 0 0 0 0 0 0 0 0 0 0 0 0 0 0 0 0 0 0 0 0 0 0 0 0 0 0 0 0 0 0 0 0 0 0 0 0 0 0 289 289 289 292 290 290 290 292 292 290 292 288 288 285 287 285 284 284 284 284 285 284 288 284 287 288 288 288 288 288 286 287 288 288 289 288 290 289 289 289 288 287 287 285 286 284 284 284 284 283 284 283 285 281 283 284 285 286 285 285 284 285 286 286 287 287 286 287 286 287 285 287 286 283 283 284 285 281 284 286 285 287 287 287 286 287 290 290 287 289 286 287 286 288 287 287 286 289 288 288 288 288 287 285 285 285 284 283 281 283 281 283 284 283 284 284 285 285 284 285 284 284 285 284 285 283 284 283 283 283 283 283 283 283 283 284 285 284 285 285 285 284 285 284 285 286 286 286 286 287 288 288 288 287 286 285 285 283 284 281 281 283 284 284 284 284 285 284 285 287 286 286 286 287 287 286 288 288 287 289 285 285 285 285 286 285 285 283 281 283 281 281 284 281 280 281 281 284 286 286 286 284 284 284 285 280 284 283 285 285 285 285 285 285 289 288 290 286 289 289 288 287 286 287 283 283 283 283 281 283 280 281 281 281 284 285 286 287 286 288 289 288 287 287 285 0 0 0 0 0 0
    0 0 0 0 0 0 0 0 0 0 0 0 0 0 0 0 0 0 0 0 0 0 0 0 0 0 0 0 0 0 0 0 0 0 0 0 0 0 0 0 0 0 0 0 0 0 0 0 0 0 0 0 0 0 0 0 0 0 0 0 0 0 0 0 0 0 0 0 0 289 289 289 292 290 292 292 292 292 290 292 289 289 285 286 285 284 284 284 284 285 285 288 286 288 289 288 289 288 288 286 286 286 287 288 288 290 288 288 288 287 286 286 284 285 284 284 284 284 283 284 283 285 283 283 284 286 286 285 285 284 285 286 285 287 286 285 286 285 287 285 286 286 283 283 285 285 281 284 286 285 287 287 287 286 287 290 290 286 289 286 287 285 287 285 285 284 288 285 286 287 287 286 285 284 286 284 284 281 283 281 284 284 284 285 284 285 285 285 286 286 285 286 285 287 284 286 283 284 283 284 283 283 283 283 283 285 284 285 285 286 284 285 284 285 286 286 286 286 286 287 287 287 286 285 284 284 283 283 283 281 283 284 284 284 284 286 285 285 287 286 286 287 287 287 286 287 289 287 288 284 284 284 284 286 286 285 283 281 283 283 281 283 280 279 280 280 283 284 284 284 283 283 283 284 280 284 284 285 285 285 285 286 285 290 288 290 286 288 289 287 286 286 286 283 283 283 283 281 283 280 281 281 281 284 285 288 288 289 289 292 289 288 288 0 0 0 0 0 0 0
    0 0 0 0 0 0 0 0 0 0 0 0 0 0 0 0 0 0 0 0 0 0 0 0 0 0 0 0 0 0 0 0 0 0 0 0 0 0 0 0 0 0 0 0 0 0 0 0 0 0 0 0 0 0 0 0 0 0 0 0 0 0 0 0 0 0 0 0 0 288 288 288 292 289 290 290 292 292 290 292 289 288 285 286 285 284 284 284 283 285 285 288 287 288 289 288 288 288 287 284 285 284 286 286 287 290 288 289 288 287 286 286 285 285 285 285 285 285 285 285 284 286 283 284 284 285 286 284 285 284 284 285 285 286 286 284 286 284 286 285 286 285 284 284 285 286 283 284 287 285 286 287 287 286 287 290 290 286 289 287 287 286 287 284 284 281 286 284 285 286 286 285 285 284 286 284 284 283 284 283 284 285 284 286 285 286 286 286 287 286 285 286 285 287 284 286 283 285 284 284 283 283 281 283 283 285 284 285 285 286 284 286 284 285 286 286 286 286 286 287 287 288 285 285 284 284 283 284 283 281 283 284 284 284 284 286 285 284 287 285 286 287 287 287 286 286 289 287 288 283 283 283 284 285 285 284 281 281 283 281 281 283 280 278 278 279 281 283 283 283 283 283 283 285 281 284 284 285 285 285 285 286 285 290 288 290 285 288 289 287 287 286 287 284 283 284 284 283 284 280 280 281 280 283 284 288 288 289 288 292 289 0 0 0 0 0 0 0 0 0
    0 0 0 0 0 0 0 0 0 0 0 0 0 0 0 0 0 0 0 0 0 0 0 0 0 0 0 0 0 0 0 0 0 0 0 0 0 0 0 0 0 0 0 0 0 0 0 0 0 0 0 0 0 0 0 0 0 0 0 0 0 0 0 0 0 0 0 0 0 287 289 288 292 289 292 292 292 292 292 292 289 288 285 286 285 284 284 284 284 285 285 288 287 287 288 287 287 287 286 284 285 284 287 286 288 292 289 289 289 287 287 286 285 285 285 286 285 286 286 286 284 286 283 284 284 285 287 284 285 284 284 285 285 286 285 284 284 284 285 284 285 284 284 284 285 286 283 284 286 285 286 286 287 286 287 292 292 288 290 288 288 287 287 284 284 281 286 284 285 286 285 285 285 284 286 284 285 284 284 283 285 285 285 286 285 287 286 286 287 286 285 286 284 286 284 286 283 285 283 283 283 283 281 283 283 285 284 285 286 287 284 286 284 286 286 286 286 286 286 287 287 288 286 286 285 284 283 283 283 281 283 284 284 284 284 286 285 284 286 285 286 286 287 287 285 286 289 287 289 283 283 283 283 284 285 283 280 280 281 280 283 284 281 278 278 279 281 283 283 283 283 283 283 285 281 284 284 285 285 285 285 285 285 290 288 290 283 284 288 289 288 287 286 284 283 284 285 283 283 279 279 280 279 280 283 288 288 289 288 289 287 0 0 0 0 0 0 0 0 0
    0 0 0 0 0 0 0 0 0 0 0 0 0 0 0 0 0 0 0 0 0 0 0 0 0 0 0 0 0 0 0 0 0 0 0 0 0 0 0 0 0 0 0 0 0 0 0 0 0 0 0 0 0 0 0 0 0 0 0 0 0 0 0 0 0 0 0 0 0 289 290 289 292 290 292 292 292 292 292 292 289 287 285 286 285 284 284 284 284 285 285 288 286 287 288 286 286 287 286 284 285 285 288 288 290 292 289 289 289 288 286 285 284 285 285 285 284 284 283 285 281 284 280 283 284 285 287 284 284 284 284 284 284 284 284 281 283 283 284 283 285 284 284 284 286 286 283 284 286 285 285 286 286 286 288 292 292 288 292 289 288 287 286 283 284 280 284 283 285 286 286 286 285 285 287 286 286 285 285 284 285 286 286 287 286 287 286 286 287 287 286 286 284 286 283 285 283 284 283 281 281 283 280 280 281 281 283 284 286 286 283 284 283 285 286 285 285 285 286 287 287 288 286 285 284 283 283 281 281 281 281 283 284 284 284 286 284 283 285 284 285 285 286 285 284 284 288 287 289 283 283 283 283 283 284 0 0 278 280 280 281 283 281 278 278 278 280 280 281 281 0 0 0 285 281 284 284 285 285 284 284 285 285 289 287 288 283 283 287 289 288 287 286 284 0 0 0 0 0 275 274 274 275 276 278 284 284 285 284 0 284 0 0 0 598 0 0 0 0 0
    0 0 0 0 0 0 0 0 0 0 0 0 0 0 0 0 0 0 0 0 0 0 0 0 0 0 0 0 0 0 0 0 0 0 0 0 0 0 0 0 0 0 0 0 0 0 0 0 0 0 0 0 0 0 0 0 0 0 0 0 0 0 0 0 0 0 0 0 0 290 290 290 293 292 292 293 293 292 292 292 289 287 284 285 284 283 284 283 283 284 285 287 286 287 288 286 286 287 286 283 285 283 285 286 288 289 288 289 289 287 286 286 284 285 285 285 284 0 283 286 283 285 281 283 284 286 286 284 284 283 283 283 283 283 283 281 283 281 284 283 285 285 285 285 286 285 281 284 285 284 284 284 285 285 287 292 292 289 292 289 288 287 285 283 285 280 284 281 285 286 286 287 286 285 288 287 288 287 286 285 286 287 287 287 287 287 287 287 288 288 286 285 284 286 284 285 283 283 280 279 279 281 0 0 279 0 280 283 285 286 283 284 283 284 285 285 285 284 285 286 286 288 285 284 281 280 280 278 280 279 279 283 284 285 285 287 285 284 286 284 285 285 285 284 281 283 287 286 290 284 283 280 281 281 283 0 0 0 278 278 281 280 281 277 276 277 280 279 283 284 283 0 285 286 283 285 285 285 285 285 284 286 287 290 289 289 286 285 288 292 289 286 285 284 0 0 0 0 0 273 274 274 274 275 277 281 281 284 0 0 0 0 0 629 598 0 0 0 0 0
    0 0 0 0 0 0 0 0 0 0 0 0 0 0 0 0 0 0 0 0 0 0 0 0 0 0 0 0 0 0 0 0 0 0 0 0 0 0 0 0 0 0 0 0 0 0 0 0 0 0 0 0 0 0 0 0 0 0 0 0 0 0 0 0 0 0 0 0 0 290 292 292 293 292 293 294 294 293 290 292 287 285 283 283 283 283 283 283 281 284 284 286 288 288 288 0 0 0 0 0 283 280 279 281 283 283 284 287 287 287 286 286 283 285 287 286 284 0 0 289 285 288 283 284 286 286 286 283 283 283 283 283 283 281 281 281 283 283 284 283 285 285 285 285 286 285 281 283 284 283 283 283 283 284 286 290 292 288 292 289 288 287 285 283 286 281 284 281 285 287 287 287 287 285 289 288 289 287 286 286 286 287 288 288 287 288 287 288 289 289 288 286 285 288 285 286 283 283 279 277 277 280 0 0 0 0 279 283 286 288 284 285 283 284 285 285 285 283 285 285 285 287 284 283 279 279 280 277 280 279 278 283 284 287 288 289 287 284 287 285 286 285 285 284 281 281 287 287 292 287 284 280 281 280 0 0 0 0 0 276 280 279 279 277 274 276 278 0 281 0 0 0 0 286 283 285 285 285 285 285 284 286 287 289 287 288 284 283 284 286 285 281 283 0 0 0 283 283 277 277 277 276 275 275 276 279 279 0 0 608 0 0 0 0 598 0 0 0 0 0
    0 0 0 0 0 0 0 0 0 0 0 0 0 0 0 0 0 0 0 0 0 0 0 0 0 0 0 0 0 0 0 0 0 0 0 0 0 0 0 0 0 0 0 0 0 0 0 0 0 0 0 0 0 0 0 0 0 0 0 0 0 0 0 0 0 0 0 0 0 292 292 292 293 293 293 294 295 293 289 290 284 283 281 281 283 281 283 283 281 284 285 287 290 290 0 0 0 0 0 0 0 279 277 278 279 277 278 281 285 286 284 284 281 0 287 287 285 0 286 293 289 290 285 0 287 287 287 283 283 281 284 283 283 281 281 281 283 283 284 283 285 285 286 286 287 284 280 283 284 281 281 281 281 283 285 290 290 287 290 289 287 287 284 283 287 283 285 281 284 286 287 287 287 285 288 287 288 287 286 286 286 287 289 288 288 289 287 289 289 290 289 286 286 289 285 285 283 284 278 275 276 279 0 0 0 0 279 281 285 287 284 285 283 284 285 285 284 283 284 284 284 286 283 281 279 278 279 277 280 279 278 284 285 288 289 290 288 284 287 285 285 284 284 281 280 281 288 288 293 289 286 283 283 279 0 0 0 0 0 0 0 277 279 277 274 277 0 0 0 0 0 0 0 285 281 284 284 284 285 284 284 286 287 289 287 287 283 280 280 283 281 279 280 280 279 0 0 284 277 277 277 276 275 274 274 276 274 272 0 0 0 0 0 0 0 0 0 0 0 0</data></depth>
</opencv_storage>
