<?xml version="1.0"?>
<opencv_storage>
<gps_time_stamp>24893</gps_time_stamp>
<gps_x>-4.8043208122253418e+000</gps_x>
<gps_y>5.4805099964141846e-001</gps_y>
<gps_z>-9.0126866102218628e-001</gps_z>
<image_time_stamp>12865</image_time_stamp>
<depth type_id="opencv-matrix">
  <rows>87</rows>
  <cols>320</cols>
  <dt>s</dt>
  <data>
    0 0 0 0 0 0 0 0 0 0 0 0 0 0 0 0 0 0 0 0 0 0 0 0 0 0 0 0 0 0 0 0 0 0 0 0 0 0 0 0 0 0 0 0 0 0 0 0 0 0 0 0 0 0 0 0 0 0 0 0 0 0 0 0 0 0 0 0 0 1291 1291 1291 1291 1268 1268 1268 1291 1291 1314 1314 1338 1338 1314 1314 1291 1291 1291 1291 1268 1291 1291 1291 1291 1314 1338 1338 1291 1362 1291 1268 1314 1268 1291 1268 1268 1268 1268 1268 1268 1247 1268 1247 1247 1247 1226 1168 1247 1268 1268 1268 1268 1247 1268 1268 0 1247 1226 1247 1247 1206 1206 1247 1268 1268 1291 1314 1314 1314 1338 1362 1338 1338 1314 1268 1268 1226 1226 1247 1226 1226 1247 1247 1291 1291 1314 1314 1291 1291 1291 1268 1268 1268 1247 1247 1268 1268 1268 1291 1291 1291 1291 1314 1291 1291 1268 1268 1268 1268 1268 1268 1247 1226 1247 1226 1226 1187 1247 1226 1247 1247 1247 1226 1247 1247 1268 1206 0 0 0 0 0 0 0 0 0 0 0 359 348 347 350 348 345 347 348 347 347 348 348 340 337 337 336 334 333 333 330 331 333 334 333 334 333 333 333 336 336 334 324 327 330 331 331 330 330 334 0 340 0 0 0 0 876 876 0 0 0 0 174 174 0 425 420 420 418 418 418 418 411 0 0 399 397 391 393 393 393 391 389 393 393 393 395 399 402 399 402 404 397 399 402 399 402 0 0 0 1132 1098 1149 1168 1149 1132 1098 1132 1115 1082 1082 1051 1051 1051 1022 1036 0 0 0 0 0 0 0 0
    0 0 0 0 0 0 0 0 0 0 0 0 0 0 0 0 0 0 0 0 0 0 0 0 0 0 0 0 0 0 0 0 0 0 0 0 0 0 0 0 0 0 0 0 0 0 0 0 0 0 0 0 0 0 0 0 0 0 0 0 0 0 0 0 0 0 0 0 0 1268 1268 1268 1268 1247 1268 1268 1268 1291 1291 1314 1314 1314 1314 1314 1268 1268 1268 1268 1268 1291 1291 1291 1291 1314 1338 1314 1291 1291 1268 1226 1268 1247 1268 1247 1247 1268 1268 1247 1268 1226 1247 1226 1226 1206 1206 1149 1226 1247 1247 1268 1268 1247 1268 1291 0 1268 1247 1247 1247 1187 1206 1247 1247 1247 1268 1291 1291 1291 1314 1338 1314 1314 1314 0 1247 1226 1226 1247 1226 1226 1226 1247 1291 1291 1314 1291 1247 1247 1268 1247 1247 1247 1247 1226 1247 1247 1268 1268 1268 1268 1268 1291 1291 1291 1268 1268 1268 1247 1247 1247 1226 1226 1247 1206 1226 1168 1247 1206 1226 1247 1226 1226 1226 1226 1268 1187 1247 1206 0 0 0 0 0 0 0 0 0 0 352 345 352 348 347 347 350 347 347 348 350 340 337 339 336 334 334 334 331 333 334 336 336 336 336 334 334 337 337 330 324 325 327 330 330 328 327 331 0 0 0 0 0 865 0 0 0 0 0 0 173 173 0 427 420 418 418 418 418 418 411 0 404 402 397 391 393 393 393 393 391 393 393 393 397 399 402 399 402 402 395 399 399 397 0 0 0 0 1115 1115 1149 1149 1168 1132 1098 1149 1132 1082 1082 1066 1098 1082 1036 1051 1022 1036 1051 0 0 0 0 0
    0 0 0 0 0 0 0 0 0 0 0 0 0 0 0 0 0 0 0 0 0 0 0 0 0 0 0 0 0 0 0 0 0 0 0 0 0 0 0 0 0 0 0 0 0 0 0 0 0 0 0 0 0 0 0 0 0 0 0 0 0 0 0 0 0 0 0 0 0 1247 1247 1247 1247 1226 1247 1268 1268 1291 1291 1291 1291 1291 1291 1291 1247 1268 1247 1247 1247 1268 1268 1268 1291 1314 1314 1291 1268 1268 1247 1206 1268 1247 1268 1247 1247 1268 1268 1247 1268 1226 1226 1187 1168 1168 1168 1115 1187 1226 1226 1247 1247 1247 1268 1291 1338 1268 1226 1247 1226 1168 1168 1206 1226 1226 1247 1268 1268 1268 1291 1314 1314 1291 1291 0 1247 1226 1226 1247 1226 1226 1226 1226 1291 1268 1291 1268 1226 1247 1247 1226 1226 1226 1226 1226 1226 1247 1247 1247 1268 1268 1268 1291 1314 1291 1268 1247 1247 1247 1247 1247 1206 1187 1226 1187 1206 1168 1247 1206 1226 1247 1226 1226 1226 1226 1247 1187 1226 1187 0 0 0 0 0 0 0 0 0 0 360 345 353 350 347 347 350 347 347 348 352 340 339 339 337 334 334 334 331 334 336 336 336 336 336 336 336 337 337 322 321 322 325 328 328 327 325 330 0 0 0 0 0 0 0 0 0 0 0 0 0 0 0 427 420 418 418 418 418 418 411 411 404 404 397 393 395 395 395 393 393 393 393 393 397 399 402 399 402 402 395 397 399 399 0 598 0 1098 1098 1098 1132 1132 1168 1115 1082 1132 1098 1082 1082 1066 1115 1082 1051 1066 1036 1051 1066 0 0 0 0 0
    0 0 0 0 0 0 0 0 0 0 0 0 0 0 0 0 0 0 0 0 0 0 0 0 0 0 0 0 0 0 0 0 0 0 0 0 0 0 0 0 0 0 0 0 0 0 0 0 0 0 0 0 0 0 0 0 0 0 0 0 0 0 0 0 0 0 0 0 0 1226 1226 1206 1226 1206 1226 1247 1247 1268 1268 1247 1268 1268 1247 1247 1226 1247 1247 1226 1247 1247 1268 1268 1268 1268 1291 1247 1226 1247 1226 1187 1247 1247 1247 1247 1247 1268 1268 1247 1247 1187 1187 1149 1115 1115 1132 1115 1149 1187 1206 1206 1226 1247 1268 1268 1338 1268 1226 1247 1206 1168 1168 1187 1206 1226 1226 1247 1247 1247 1291 1314 1314 1314 0 0 1247 1226 1226 1226 1226 1226 1226 1206 1268 1226 1247 1226 1187 1226 1226 1206 1206 1206 1206 1206 1206 1226 1226 1226 1247 1247 1268 1291 1291 1291 1268 1226 1226 1226 1226 1206 1187 1168 1187 1187 1206 1168 1226 1206 1226 1247 1206 1206 1226 1206 1247 1187 1206 1149 1132 0 0 0 0 0 0 0 0 0 0 342 353 350 347 348 350 348 348 348 353 340 337 339 337 336 334 333 331 336 337 337 337 337 336 336 337 337 334 319 319 322 322 327 327 325 324 330 0 0 0 0 0 0 0 0 0 249 0 0 0 0 430 427 422 420 418 418 418 418 411 411 406 404 399 393 395 395 395 393 393 393 393 395 397 399 402 402 402 402 395 397 399 399 0 593 0 1098 1082 1082 1115 1098 1168 1082 1066 1098 1066 1066 1066 1051 1082 1051 1036 1066 1036 1082 1082 0 0 0 0 0
    0 0 0 0 0 0 0 0 0 0 0 0 0 0 0 0 0 0 0 0 0 0 0 0 0 0 0 0 0 0 0 0 0 0 0 0 0 0 0 0 0 0 0 0 0 0 0 0 0 0 0 0 0 0 0 0 0 0 0 0 0 0 0 0 0 0 0 0 0 1206 1206 1187 1206 1206 1226 1247 1226 1247 1247 1206 1247 1226 1206 1206 1187 1206 1206 1206 1226 1226 1247 1247 1247 1247 1247 1226 1206 1206 1226 1187 1226 1226 1247 1226 1247 1268 1247 1226 1247 1132 1132 1098 1082 1098 1115 1098 1132 1149 1168 1187 1206 1226 1247 1247 1291 1247 1226 1226 1206 1149 1168 1168 1187 1206 1206 1226 1247 1247 1268 1314 1314 1314 0 0 1226 1206 1206 1226 1206 1206 1206 1187 1268 1187 1226 1206 1168 1206 1206 1168 1187 1187 1206 1187 1206 1226 1206 1206 1247 1226 1247 1268 1268 1268 1226 1206 1206 1187 1206 1187 1168 1149 1168 1168 1206 1168 1206 1187 1206 1226 1187 1187 1206 1187 1226 1187 1187 1115 1098 0 0 0 0 0 0 0 0 0 0 339 352 350 347 348 350 348 348 348 355 340 339 339 337 334 336 333 333 337 339 339 339 339 337 337 339 339 333 319 319 322 322 327 325 324 325 0 0 0 0 0 0 0 0 0 0 0 0 0 0 0 430 427 422 418 418 418 418 418 413 411 406 404 399 393 395 395 395 395 393 393 395 397 399 399 402 402 402 402 397 397 399 0 0 598 0 0 1051 1066 1082 1082 1115 1082 1066 1082 1066 1066 1066 1051 1051 1036 1036 1066 1051 1098 1115 0 0 0 0 0
    0 0 0 0 0 0 0 0 0 0 0 0 0 0 0 0 0 0 0 0 0 0 0 0 0 0 0 0 0 0 0 0 0 0 0 0 0 0 0 0 0 0 0 0 0 0 0 0 0 0 0 0 0 0 0 0 0 0 0 0 0 0 0 0 0 0 0 0 0 1187 1187 1187 1206 1187 1206 1226 1206 1247 1247 1168 1206 1187 1168 1168 1168 1187 1206 1187 1226 1206 1226 1226 1226 1226 1226 1187 1187 1168 1206 1168 1206 1206 1226 1206 1226 1247 1226 1206 1206 1098 1098 1082 1082 1098 1098 1098 1115 1132 1149 1149 1168 1226 1247 1226 1268 1247 1226 1206 1187 1132 1149 1149 1149 1187 1187 1226 1226 1247 1268 1291 1291 1314 0 1187 1226 1206 1206 1206 1187 1206 1187 1168 1247 1187 1206 1187 1149 1206 1187 1168 1187 1187 1187 1187 1187 1206 1187 1206 1247 1226 1247 1268 1268 1247 1226 1187 1187 1168 1187 1168 1149 1149 1168 1149 1187 1149 1187 1168 1187 1206 1149 1168 1168 1149 1187 1168 1168 1098 0 0 0 0 0 0 0 0 0 0 0 337 352 348 347 348 350 348 348 348 357 340 337 337 336 334 334 330 333 337 339 339 339 339 339 337 343 339 328 319 319 322 322 325 325 324 325 0 0 0 0 0 0 0 0 0 0 0 0 0 0 0 430 430 422 418 415 418 418 418 413 411 406 404 402 395 397 397 397 397 397 395 397 399 402 399 404 402 402 402 397 397 399 0 629 603 0 0 1022 1036 1051 1051 1098 1066 1051 1066 1066 1066 1066 1051 1051 1022 1036 1066 1051 1098 1115 0 0 0 0 0
    0 0 0 0 0 0 0 0 0 0 0 0 0 0 0 0 0 0 0 0 0 0 0 0 0 0 0 0 0 0 0 0 0 0 0 0 0 0 0 0 0 0 0 0 0 0 0 0 0 0 0 0 0 0 0 0 0 0 0 0 0 0 0 0 0 0 0 0 0 1187 1187 1187 1206 1187 1226 1226 1206 1226 1226 1132 1206 1168 1168 1168 1149 1187 1206 1168 1226 1187 1206 1206 1206 1206 1206 1149 1168 1149 1187 1149 1206 1206 1206 1206 1226 1247 1226 1187 1187 1082 1066 1066 1066 1082 1098 1098 1115 1115 1149 1149 1168 1226 1226 1206 1247 1206 1187 1187 1168 1115 1132 1132 1132 1168 1168 1206 1206 1226 1247 1268 1268 1291 1268 1168 1206 1187 1187 1206 1187 1187 1187 1149 1247 1187 1226 1187 1149 1206 1187 1132 1168 1168 1187 1168 1187 1206 1187 1187 1247 1226 1247 1268 1247 1247 1206 1168 1187 1168 1187 1168 1149 1149 1168 1149 1187 1168 1187 1149 1187 1187 1132 1168 1168 1149 1168 1168 1149 1082 0 0 0 0 0 0 0 0 0 0 0 0 352 348 347 348 348 348 348 348 355 340 336 336 336 333 333 325 334 339 339 340 340 340 339 339 353 337 322 319 319 322 322 324 324 322 325 0 0 0 0 0 0 0 0 0 0 0 0 0 0 0 0 430 422 415 413 415 415 415 413 408 406 404 402 395 399 402 402 402 399 397 402 404 404 402 404 402 404 402 399 399 399 0 634 608 0 0 981 1008 1022 1036 1066 1051 1051 1066 1051 1082 1082 1066 1051 1022 1036 1066 1051 1082 1098 0 0 0 0 0
    0 0 0 0 0 0 0 0 0 0 0 0 0 0 0 0 0 0 0 0 0 0 0 0 0 0 0 0 0 0 0 0 0 0 0 0 0 0 0 0 0 0 0 0 0 0 0 0 0 0 0 0 0 0 0 0 0 0 0 0 0 0 0 0 0 0 0 0 0 1187 1187 1187 1206 1187 1206 1226 1187 1206 1187 1115 1187 1149 1132 1149 1132 1168 1187 1149 1206 1168 1206 1187 1206 1187 1187 1149 1168 1168 1187 1168 1206 1206 1206 1206 1226 1247 1226 1187 1168 1051 1051 1051 1066 1082 1098 1082 1098 1115 1132 1132 1149 1187 1187 1168 1187 1168 1132 1132 1149 1098 1132 1132 1132 1149 1149 1187 1206 1206 1247 1247 1247 1268 1247 1149 1187 1168 1168 1187 1168 1168 1168 1149 1226 1168 1206 1168 1132 1187 1168 1115 1149 1149 1168 1149 1168 1187 1168 1168 1226 1206 1226 1226 1206 1226 1187 1168 1168 1149 1168 1149 1149 1149 1149 1149 1168 1149 1187 1132 1168 1187 1115 1149 1149 1132 1149 1132 1115 1066 0 0 0 0 0 0 0 0 0 0 0 0 350 348 347 348 348 350 348 348 353 340 336 334 333 331 331 324 336 340 340 342 342 342 340 340 360 337 319 318 319 321 321 322 322 322 325 0 0 144 0 0 0 817 0 0 0 0 0 0 0 0 0 432 425 415 413 415 415 413 413 404 404 402 402 395 399 402 402 402 402 402 406 408 408 404 408 404 406 404 402 402 402 0 0 0 865 908 943 981 994 1008 1051 1036 1008 1036 1036 1066 1066 1051 1036 1022 1036 1066 1051 1051 1066 0 0 0 0 0
    0 0 0 0 0 0 0 0 0 0 0 0 0 0 0 0 0 0 0 0 0 0 0 0 0 0 0 0 0 0 0 0 0 0 0 0 0 0 0 0 0 0 0 0 0 0 0 0 0 0 0 0 0 0 0 0 0 0 0 0 0 0 0 0 0 0 0 0 0 1187 1187 1168 1187 1168 1187 1187 1149 1168 1149 1098 1168 1132 1098 1115 1115 1149 1168 1132 1187 1149 1168 1168 1168 1168 1149 1132 1149 1149 1187 1168 1206 1206 1206 1206 1226 1247 1226 1168 1115 1036 1036 1036 1051 1082 1082 1082 1082 1082 1115 1098 1115 1132 1082 1082 1082 1082 1066 1098 1115 1082 1115 1115 1115 1132 1132 1187 1168 1187 1206 1187 1187 1206 1206 1098 1132 1149 1149 1149 1149 1149 1149 1132 1226 1168 1187 1132 1132 1168 1149 1115 1132 1132 1149 1149 1149 1168 1149 1149 1206 1187 1187 1168 1168 1187 1168 1132 1149 1132 1149 1132 1132 1132 1149 1132 1149 1132 1168 1115 1149 1149 1098 1132 1132 1098 1115 1115 1098 1051 1036 1036 0 0 0 0 0 0 0 0 0 0 347 348 347 347 348 350 350 348 352 342 334 333 331 330 330 322 337 340 342 342 342 342 342 342 362 337 319 319 319 322 322 324 324 322 325 0 143 0 0 0 808 808 0 0 0 249 0 0 0 0 0 0 430 415 411 415 413 411 411 402 402 0 404 397 399 402 404 404 404 404 408 413 411 404 408 406 406 404 406 404 404 415 0 0 876 919 943 968 981 981 1022 1008 981 1008 1008 1051 1036 1022 1022 1008 1022 1036 1022 1036 1036 0 0 0 0 0
    0 0 0 0 0 0 0 0 0 0 0 0 0 0 0 0 0 0 0 0 0 0 0 0 0 0 0 0 0 0 0 0 0 0 0 0 0 0 0 0 0 0 0 0 0 0 0 0 0 0 0 0 0 0 0 0 0 0 0 0 0 0 0 0 0 0 0 0 0 1168 1168 1149 1168 1149 1149 1149 1115 1132 1115 1082 1132 1098 1098 1098 1115 1115 1149 1115 1168 1115 1149 1132 1149 1132 1149 1115 1132 1132 1187 1149 1187 1187 1206 1206 1226 1247 1206 1149 1082 1036 1036 1036 1051 1082 1082 1082 1082 1066 1098 1082 1082 1082 1036 1022 1022 1036 1036 1066 1082 1066 1098 1098 1098 1115 1115 1168 1149 1149 1149 1115 1098 1115 1132 1051 1082 1098 1098 1115 1115 1132 1132 1098 1187 1149 1149 1115 1115 1149 1132 1098 1115 1115 1132 1132 1132 1132 1132 1132 1168 1149 1132 1115 1098 1132 1098 1098 1115 1098 1132 1115 1115 1115 1115 1132 1132 1115 1149 1115 1132 1149 1082 1115 1115 1098 1115 1098 1082 1051 1036 1036 0 0 0 0 0 0 0 0 0 0 343 347 347 347 348 350 350 348 352 345 334 331 330 328 330 322 337 340 342 342 342 342 342 343 362 337 318 319 319 321 321 322 322 321 325 0 143 0 0 774 791 799 808 0 817 247 242 0 0 0 0 0 0 413 411 413 411 408 411 399 402 0 404 397 402 404 404 406 406 404 411 415 411 402 408 408 404 404 408 406 411 427 443 0 876 931 955 968 968 968 981 981 968 994 981 1022 1022 1008 1008 1008 1008 1022 1008 1022 1008 0 0 0 0 0
    0 0 0 0 0 0 0 0 0 0 0 0 0 0 0 0 0 0 0 0 0 0 0 0 0 0 0 0 0 0 0 0 0 0 0 0 0 0 0 0 0 0 0 0 0 0 0 0 0 0 0 0 0 0 0 0 0 0 0 0 0 0 0 0 0 0 0 0 0 1168 1168 1149 1168 1132 1115 1132 1098 1098 1098 1066 1115 1098 1082 1098 1098 1098 1132 1098 1149 1098 1132 1115 1132 1115 1132 1098 1132 1132 1168 1149 1168 1168 1187 1187 1206 1206 1132 1098 1066 1036 1051 1051 1051 1082 1082 1066 1066 1066 1098 1066 1066 1051 1008 1008 1008 1022 1022 1051 1066 1066 1082 1082 1082 1098 1098 1149 1115 1115 1115 1082 1066 1082 1082 1036 1066 1082 1082 1082 1082 1098 1098 1082 1149 1115 1098 1098 1098 1115 1098 1082 1098 1098 1115 1115 1115 1115 1115 1115 1132 1115 1098 1066 1066 1082 1082 1082 1098 1082 1115 1098 1098 1098 1098 1115 1115 1098 1132 1082 1098 1115 1066 1115 1115 1098 1098 1082 1066 1051 1036 1036 0 0 0 0 0 0 0 0 0 0 0 345 345 347 347 352 350 348 350 348 334 327 327 325 330 322 337 340 340 342 342 342 342 342 362 337 317 318 319 321 321 321 321 321 324 0 144 144 0 766 791 799 808 817 799 245 241 0 0 0 0 0 0 0 411 415 413 408 411 399 399 0 406 399 402 404 406 406 406 406 411 418 411 402 408 408 408 406 415 413 425 432 443 443 886 955 968 968 981 968 981 968 955 968 955 994 994 994 994 994 994 1008 1008 1022 994 0 0 0 0 0
    0 0 0 0 0 0 0 0 0 0 0 0 0 0 0 0 0 0 0 0 0 0 0 0 0 0 0 0 0 0 0 0 0 0 0 0 0 0 0 0 0 0 0 0 0 0 0 0 0 0 0 0 0 0 0 0 0 0 0 0 0 0 0 0 0 0 0 0 0 1168 1168 1149 1149 1132 1098 1115 1082 1082 1082 1066 1098 1082 1066 1082 1082 1082 1098 1082 1115 1082 1098 1098 1098 1098 1098 1098 1115 1132 1149 1132 1149 1168 1187 1168 1168 1149 1082 1066 1036 1022 1051 1051 1051 1066 1066 1066 1066 1051 1082 1051 1036 1036 1008 1008 1008 1022 1022 1051 1066 1066 1082 1082 1082 1098 1098 1149 1098 1098 1098 1082 1082 1082 1098 1036 1051 1066 1066 1082 1082 1082 1082 1066 1115 1098 1082 1098 1098 1098 1098 1082 1082 1098 1115 1115 1115 1098 1115 1098 1115 1098 1082 1051 1051 1066 1066 1066 1082 1066 1098 1098 1098 1098 1098 1098 1098 1082 1132 1082 1082 1098 1066 1098 1082 1082 1082 1051 1051 1036 1022 1022 0 0 0 0 0 0 0 0 0 0 0 345 345 347 348 352 350 348 350 352 336 328 327 324 327 319 334 339 339 339 340 340 339 340 362 337 317 318 321 322 321 321 321 321 325 0 0 0 0 750 774 791 799 817 791 0 0 0 0 0 0 0 0 0 411 415 413 408 413 399 399 0 408 402 404 406 406 408 408 406 411 418 411 402 408 408 406 406 413 411 420 430 438 0 897 968 968 981 981 981 981 968 955 943 919 0 0 0 981 981 994 1008 1008 1008 994 0 0 0 0 0
    0 0 0 0 0 0 0 0 0 0 0 0 0 0 0 0 0 0 0 0 0 0 0 0 0 0 0 0 0 0 0 0 0 0 0 0 0 0 0 0 0 0 0 0 0 0 0 0 0 0 0 0 0 0 0 0 0 0 0 0 0 0 0 0 0 0 0 0 0 1168 1149 1132 1132 1115 1082 1098 1082 1066 1066 1066 1082 1066 1066 1082 1051 1066 1082 1066 1082 1066 1082 1082 1082 1082 1082 1082 1098 1115 1132 1115 1132 1149 1168 1149 1132 1115 1066 1066 1051 1036 1051 1051 1051 1066 1066 1066 1051 1051 1082 1036 1036 1022 1008 1008 1008 1022 1022 1051 1066 1066 1066 1066 1066 1082 1082 1132 1082 1082 1082 1066 1066 1082 1082 1036 1051 1066 1051 1066 1066 1066 1066 1066 1098 1098 1066 1082 1082 1098 1098 1082 1082 1098 1098 1098 1098 1098 1098 1098 1098 1082 1066 1036 1051 1051 1051 1066 1066 1066 1098 1082 1098 1082 1098 1098 1082 1082 1115 1066 1066 1082 1066 1082 1066 1066 1051 1036 1051 1036 1022 1008 0 0 0 0 0 0 0 0 0 309 0 345 345 347 348 353 350 348 348 357 336 330 327 322 322 318 330 337 337 339 339 339 339 339 362 339 319 318 321 324 322 322 322 321 325 0 0 0 0 750 766 782 799 808 782 0 0 0 0 0 0 0 0 0 411 415 413 408 415 399 399 0 411 406 406 408 408 411 411 408 411 415 408 404 408 406 404 406 408 406 413 427 438 0 908 968 968 981 968 968 955 943 931 908 886 0 897 919 931 968 968 994 994 994 981 0 0 0 0 0
    0 0 0 0 0 0 0 0 0 0 0 0 0 0 0 0 0 0 0 0 0 0 0 0 0 0 0 0 0 0 0 0 0 0 0 0 0 0 0 0 0 0 0 0 0 0 0 0 0 0 0 0 0 0 0 0 0 0 0 0 0 0 0 0 0 0 0 0 0 1115 1098 1082 1082 1082 1051 1066 1066 1066 1066 1051 1082 1066 1051 1066 1036 1051 1066 1051 1066 1051 1051 1051 1051 1066 1066 1066 1082 1098 1115 1098 1115 1132 1149 1132 1098 1082 1051 1051 1051 1036 1051 1051 1066 1066 1066 1051 1051 1036 1066 1036 1022 1008 994 994 994 1008 1008 1036 1051 1051 1051 1066 1051 1066 1066 1098 1051 1051 1051 1051 1051 1066 1066 1022 1036 1036 1036 1051 1051 1051 1051 1051 1082 1082 1066 1082 1066 1066 1082 1066 1066 1082 1082 1082 1082 1082 1082 1066 1066 1051 1051 1022 1036 1036 1036 1051 1066 1051 1082 1066 1066 1066 1066 1066 1066 1066 1082 1051 1051 1066 1066 1066 1051 1051 1036 1022 1022 1022 1008 994 0 0 0 0 0 0 0 0 0 0 0 347 347 348 350 353 350 347 347 357 336 330 325 319 319 314 325 339 339 339 339 339 339 342 359 340 324 318 321 322 322 321 322 321 324 0 0 0 758 743 766 774 791 799 774 0 0 0 0 0 0 0 430 411 408 413 411 408 415 402 402 402 413 406 406 408 408 408 408 408 408 415 406 406 411 408 406 408 408 406 415 430 438 0 931 968 955 981 955 955 931 919 897 886 886 897 886 897 908 943 931 968 994 994 968 0 0 0 0 0
    0 0 0 0 0 0 0 0 0 0 0 0 0 0 0 0 0 0 0 0 0 0 0 0 0 0 0 0 0 0 0 0 0 0 0 0 0 0 0 0 0 0 0 0 0 0 0 0 0 0 0 0 0 0 0 0 0 0 0 0 0 0 0 0 0 0 0 0 0 1036 1036 1022 1036 1036 1022 1051 1051 1051 1051 1051 1066 1066 1051 1066 1036 1036 1036 1036 1036 1022 1022 1036 1036 1036 1036 1036 1066 1066 1082 1082 1082 1098 1098 1098 1066 1051 1036 1036 1036 1022 1051 1036 1051 1051 1051 1036 1036 1022 1036 1008 994 981 981 981 981 981 994 1022 1036 1036 1036 1051 1051 1051 1066 1082 1036 1022 1036 1022 1008 1036 1036 981 1008 1022 1022 1036 1036 1036 1036 1036 1066 1066 1051 1051 1036 1036 1051 1051 1036 1051 1051 1051 1051 1051 1051 1051 1036 1036 1036 1022 1036 1036 1036 1051 1051 1051 1066 1051 1051 1051 1051 1051 1036 1036 1051 1022 1022 1051 1051 1051 1036 1036 1008 981 1008 1022 994 968 955 0 0 0 0 0 0 0 0 0 0 350 350 352 352 355 350 347 347 357 336 331 328 319 314 304 317 340 340 340 340 340 342 343 357 343 330 318 322 322 322 322 322 321 324 331 0 0 750 735 758 774 782 791 766 0 0 0 0 0 0 0 430 411 411 411 411 408 415 402 402 404 411 406 404 406 406 408 408 406 406 413 404 406 411 408 408 411 411 406 420 432 440 0 943 968 955 981 968 955 919 908 886 886 886 897 886 897 908 931 919 955 968 955 943 0 0 0 0 0
    0 0 0 0 0 0 0 0 0 0 0 0 0 0 0 0 0 0 0 0 0 0 0 0 0 0 0 0 0 0 0 0 0 0 0 0 0 0 0 0 0 0 0 0 0 0 0 0 0 0 0 0 0 0 0 0 0 0 0 0 0 0 0 0 0 0 0 0 0 994 994 994 994 1008 994 1036 1036 1036 1051 1051 1066 1066 1051 1066 1036 1022 1022 1022 0 1008 1008 1008 1022 1022 1022 1022 1036 1051 1066 1066 1082 1066 1082 1066 1051 1036 1022 1036 1036 1022 1036 1036 1036 1036 1022 1022 1022 1008 1022 994 981 968 968 981 981 968 981 1008 1008 1008 1022 1036 1036 1036 1051 1066 1022 1008 1022 1008 994 1008 1022 968 981 1008 1008 1022 1022 1022 1022 1022 1051 1051 1036 1036 1022 1022 1036 1036 1036 1051 1036 1051 1036 1036 1036 1036 1022 1022 1036 1022 1036 1036 1036 1051 1051 1036 1066 1051 1036 1036 1036 1036 1036 1022 1036 1008 1008 1036 1036 1022 1008 1008 981 955 994 1008 994 955 955 0 0 0 0 0 0 0 0 0 0 0 353 355 355 357 352 347 347 359 337 336 328 317 309 0 0 342 342 342 342 345 347 347 359 350 331 317 321 322 321 321 321 321 324 330 0 0 750 743 766 774 791 791 766 808 0 0 0 0 0 0 430 413 411 413 411 408 415 404 404 404 413 406 404 404 406 406 406 406 406 411 404 406 411 408 408 411 411 406 418 432 438 0 968 968 968 981 968 943 919 897 886 886 897 897 886 908 919 931 919 955 955 943 931 0 0 0 0 0
    0 0 0 0 0 0 0 0 0 0 0 0 0 0 0 0 0 0 0 0 0 0 0 0 0 0 0 0 0 0 0 0 0 0 0 0 0 0 0 0 0 0 0 0 0 0 0 0 0 0 0 0 0 0 0 0 0 0 0 0 0 0 0 0 0 0 0 0 0 981 994 981 981 994 981 1008 1008 1022 1036 1051 1066 1066 1066 1066 1036 1008 1022 1008 1008 1008 994 1008 1008 1008 1022 1008 1036 1036 1036 1051 1051 1051 1051 1051 1036 1036 1036 1036 1036 1022 1036 1036 1036 1022 1022 1008 1022 1008 1008 994 968 968 968 981 981 955 968 994 1008 1008 1008 1022 1022 1022 1051 1051 1008 1008 1008 1008 994 994 1008 955 981 994 994 1008 1008 1008 1008 1008 1022 1036 1036 1036 1008 1022 1022 1036 1036 1036 1036 1036 1036 1036 1022 1022 1008 1008 1008 1022 1022 1022 1022 1036 1036 1036 1051 1036 1022 1022 1022 1022 1022 1022 1036 1008 1008 1036 1036 1022 1022 1022 994 955 994 1008 981 955 955 0 0 0 0 0 0 0 0 0 0 0 353 357 357 359 352 348 347 357 339 339 328 314 300 0 0 0 343 343 343 352 350 348 352 348 333 317 321 322 321 321 321 321 324 328 0 0 0 743 774 782 791 799 774 817 0 0 0 0 0 0 430 413 411 413 411 408 418 404 406 406 413 406 404 404 404 406 404 404 404 406 402 406 411 406 408 411 408 406 415 427 430 0 0 981 981 981 955 955 919 908 897 897 908 908 897 919 931 955 931 955 955 919 908 0 0 0 0 0
    0 0 0 0 0 0 0 0 0 0 0 0 0 0 0 0 0 0 0 0 0 0 0 0 0 0 0 0 0 0 0 0 0 0 0 0 0 0 0 0 0 0 0 0 0 0 0 0 0 0 0 0 0 0 0 0 0 0 0 0 0 0 0 0 0 0 0 0 0 968 981 968 968 968 968 994 994 1008 0 1036 1051 1066 1066 1066 1036 0 1022 1008 1008 1008 1008 1008 1008 1008 1008 1008 1022 1022 1022 1036 1036 1036 1036 1051 1036 1051 1036 1036 1036 1022 1036 1036 1036 1022 1008 1008 1008 994 1008 981 968 968 968 981 994 968 981 1008 1008 1008 1008 1022 1022 1022 1036 1051 1008 1008 1008 1008 994 1008 1022 943 968 981 981 994 994 994 994 981 1008 1008 1022 1008 994 1008 1008 1022 1022 1036 1022 1022 1022 1022 1008 1008 994 994 1008 1022 1008 1022 1008 1022 1036 1022 1036 1036 1008 1008 1022 1022 1022 1022 1022 1008 1008 1036 1036 1036 1022 1036 994 968 994 1022 981 955 955 955 0 146 146 145 0 0 0 0 0 353 353 357 357 357 352 347 347 355 339 340 327 313 297 0 0 264 342 0 0 357 350 345 345 345 333 318 321 322 321 321 321 321 321 325 0 0 0 0 782 782 791 791 766 808 0 0 0 0 0 432 430 413 413 413 411 411 420 406 406 408 415 406 404 404 404 404 404 402 402 404 402 406 408 406 408 411 408 406 413 422 425 0 0 968 968 968 943 943 919 908 897 897 919 908 908 931 943 968 955 968 981 943 955 0 0 0 0 0
    0 0 0 0 0 0 0 0 0 0 0 0 0 0 0 0 0 0 0 0 0 0 0 0 0 0 0 0 0 0 0 0 0 0 0 0 0 0 0 0 0 0 0 0 0 0 0 0 0 0 0 0 0 0 0 0 0 0 0 0 0 0 0 0 0 0 0 0 0 968 968 955 943 955 955 981 981 981 0 1022 1051 1066 1051 1051 1022 0 1022 1008 994 1008 994 0 0 1008 1008 1008 1008 1022 1022 1036 1036 1036 1022 1051 1051 1051 1036 1036 1036 1022 1051 1036 1036 1022 1008 994 1008 994 1008 981 968 968 968 981 994 981 994 0 1008 1008 1008 1022 1022 1008 1022 1022 994 1008 994 994 994 1008 1022 943 968 968 968 981 981 981 981 968 994 994 994 994 981 981 981 1008 1008 1022 994 1022 1022 1022 1008 1008 994 994 1008 1022 1008 1022 1008 1022 1036 1022 1036 1022 1008 1008 1008 1008 1008 1008 1022 1008 1008 1036 1036 1022 1022 1008 981 943 968 1022 955 943 955 955 0 146 146 145 0 0 0 0 353 355 355 357 357 357 350 345 345 353 339 340 324 310 297 0 0 264 0 0 0 359 347 342 340 342 333 319 322 322 322 322 322 321 319 0 0 0 0 0 774 774 782 782 750 799 694 0 0 0 0 432 430 415 415 415 413 413 420 408 408 411 418 408 404 404 404 404 402 402 402 402 402 408 408 406 408 413 411 408 413 415 415 0 0 908 943 955 931 919 908 908 897 886 908 908 897 931 955 968 968 994 1008 968 994 0 0 0 0 0
    0 0 0 0 0 0 0 0 0 0 0 0 0 0 0 0 0 0 0 0 0 0 0 0 0 0 0 0 0 0 0 0 0 0 0 0 0 0 0 0 0 0 0 0 0 0 0 0 0 0 0 0 0 0 0 0 0 0 0 0 0 0 0 0 0 0 0 0 0 955 968 955 943 943 943 968 955 955 994 968 1036 1066 1051 1036 1008 0 1008 994 968 994 968 0 0 994 994 981 994 1008 994 0 1022 1008 1008 1022 0 0 1051 1022 1022 1008 1036 1022 1036 1008 1022 1008 1036 1022 1036 1008 0 0 0 0 1008 0 0 0 0 1008 1008 1022 1008 994 1008 1008 968 981 968 981 968 955 1022 897 955 955 943 955 955 968 968 943 981 968 968 955 943 943 955 981 994 1008 981 1008 1008 1022 994 994 981 968 994 1022 994 0 994 1008 1022 1022 1022 1008 981 994 994 1008 1008 1008 1008 1008 994 1022 1022 1022 1008 994 955 908 931 994 943 931 943 0 0 0 0 0 0 0 0 0 0 359 360 359 359 359 350 347 347 352 343 342 327 310 297 0 0 266 259 0 0 0 345 342 339 339 333 321 322 322 322 324 322 321 319 0 0 0 0 0 750 758 774 766 750 791 694 0 0 0 0 438 432 420 415 415 415 415 422 411 408 411 420 411 404 402 402 402 402 402 402 402 402 408 408 406 411 415 411 411 413 411 408 0 0 0 0 908 886 876 886 897 876 876 897 897 897 943 955 981 968 1008 1022 981 1022 0 0 0 0 0
    0 0 0 0 0 0 0 0 0 0 0 0 0 0 0 0 0 0 0 0 0 0 0 0 0 0 0 0 0 0 0 0 0 0 0 0 0 0 0 0 0 0 0 0 0 0 0 0 0 0 0 0 0 0 0 0 0 0 0 0 0 0 0 0 0 0 0 0 0 943 968 943 919 931 931 943 908 886 0 0 0 0 0 0 897 0 994 955 0 0 0 0 0 968 968 968 968 968 0 0 0 0 0 0 0 0 1082 0 0 0 0 1022 1051 0 1036 0 0 0 1082 0 0 0 0 0 0 0 0 0 0 0 0 0 994 981 994 968 931 955 931 919 897 855 943 855 908 919 897 908 908 919 931 897 943 919 886 886 886 897 886 931 981 994 919 981 981 0 0 0 931 0 0 0 0 0 0 0 1008 1008 1008 994 968 981 968 981 968 981 981 981 981 1008 968 981 1008 968 886 855 836 931 876 897 0 0 0 0 0 0 0 0 0 0 0 362 360 360 359 359 350 347 348 352 347 343 328 311 299 0 0 266 259 0 0 0 347 342 339 339 333 322 322 322 322 324 322 321 319 0 0 0 0 714 721 735 750 743 735 750 694 629 0 0 0 462 438 422 418 420 418 420 425 413 411 411 420 411 402 402 399 399 399 399 399 399 402 411 408 408 413 415 415 413 413 411 411 0 675 681 675 0 0 0 0 876 865 876 908 919 908 955 981 994 981 1008 1022 1008 1036 0 0 0 0 0
    0 0 0 0 0 0 0 0 0 0 0 0 0 0 0 0 0 0 0 0 0 0 0 0 0 0 0 0 0 0 0 0 0 0 0 0 0 0 0 0 0 0 0 0 0 0 0 0 0 0 0 0 0 0 0 0 0 0 0 0 0 0 0 0 0 0 0 0 0 0 968 919 908 908 0 0 876 0 0 782 0 0 735 743 750 721 943 886 0 0 0 0 0 0 943 931 919 908 0 0 170 169 0 0 0 0 0 0 0 0 0 0 0 0 0 0 0 0 0 0 0 0 0 0 0 0 0 0 0 0 0 0 0 0 0 0 0 0 0 0 0 0 0 0 0 876 0 876 865 865 886 865 876 865 0 0 0 0 0 0 0 955 855 0 931 0 0 0 0 0 0 0 0 0 0 0 1008 1008 981 981 943 968 943 943 919 943 943 943 943 968 836 826 0 0 0 0 700 687 694 0 0 0 0 0 0 0 0 0 0 0 0 362 360 360 359 357 350 347 350 348 345 342 328 310 299 0 0 267 0 140 138 0 348 342 339 337 333 324 322 324 322 325 322 321 321 0 0 0 0 700 700 707 721 714 714 714 681 629 0 0 0 484 446 430 420 422 422 420 425 418 411 413 420 413 399 397 397 397 397 395 397 399 402 411 408 408 415 418 418 415 413 411 413 651 657 663 657 651 603 608 618 618 645 0 0 955 943 981 1008 1022 1008 1051 1066 1066 0 0 0 0 0 0
    0 0 0 0 0 0 0 0 0 0 0 0 0 0 0 0 0 0 0 0 0 0 0 0 0 0 0 0 0 0 0 0 0 0 0 0 0 0 0 0 0 0 0 0 0 0 0 0 0 0 0 0 0 0 0 0 0 0 0 0 0 0 0 0 0 0 0 0 0 0 0 897 876 886 0 0 0 0 0 743 0 0 714 714 721 700 0 0 0 0 0 0 0 0 0 0 0 865 0 171 170 170 0 0 0 0 0 0 0 0 0 0 0 73 0 0 73 0 0 0 0 0 0 0 0 0 0 0 0 0 0 0 0 0 0 0 0 0 0 0 0 694 681 0 0 0 0 0 836 836 855 836 0 836 0 0 0 0 0 0 0 0 791 0 0 299 0 0 0 0 0 0 0 0 181 0 0 981 968 968 931 955 931 931 876 897 897 0 886 919 808 728 0 0 700 694 687 681 687 681 0 0 0 89 0 0 0 0 0 0 0 362 362 360 360 359 353 350 353 348 347 342 325 310 300 0 0 266 0 140 138 0 347 340 339 337 334 327 324 324 322 325 322 321 321 0 0 0 0 669 675 687 700 700 694 694 669 623 0 0 0 484 446 432 425 425 422 422 425 418 413 413 420 418 402 397 397 397 397 397 397 399 404 408 408 408 415 418 418 418 413 408 0 645 645 657 651 639 608 613 618 618 629 629 629 634 645 0 1066 1051 0 0 1082 0 663 0 0 0 0 0
    0 0 0 0 0 0 0 0 0 0 0 0 0 0 0 0 0 0 0 0 0 0 0 0 0 0 0 0 0 0 0 0 0 0 0 0 0 0 0 0 0 0 0 0 0 0 0 0 0 0 0 0 0 0 0 0 0 0 0 0 0 0 0 0 0 0 0 0 0 0 0 0 0 0 0 0 0 0 0 721 700 0 707 707 707 694 0 0 0 0 0 75 0 0 0 0 0 0 0 171 0 0 0 0 0 681 0 687 0 73 0 73 0 0 73 73 73 0 694 687 687 0 0 0 0 0 0 0 0 0 0 0 0 0 0 0 0 0 0 687 687 687 675 0 0 75 0 0 707 721 774 799 721 735 0 0 97 0 0 0 0 0 700 0 0 300 0 0 0 0 0 0 0 0 0 0 0 0 931 931 897 943 908 897 845 836 845 845 845 855 782 707 700 694 694 687 687 675 681 681 0 89 89 89 89 0 89 0 0 0 0 360 360 360 359 359 353 352 353 348 348 342 324 307 306 0 314 0 0 140 138 357 342 339 339 337 334 328 324 322 322 325 322 321 321 0 0 0 0 639 651 669 681 675 675 675 657 629 0 0 0 487 451 435 427 427 425 422 425 420 413 413 418 422 0 397 397 397 397 397 399 402 404 408 408 411 415 418 420 418 413 408 0 645 645 651 645 634 618 618 618 618 623 629 623 623 629 629 0 0 629 0 0 645 645 0 0 0 0 0
    0 0 0 0 0 0 0 0 0 0 0 0 0 0 0 0 0 0 0 0 0 0 0 0 0 0 0 0 0 0 0 0 0 0 0 0 0 0 0 0 0 0 0 0 0 0 0 0 0 0 0 0 0 0 0 0 0 0 0 0 0 0 0 0 0 0 0 0 0 0 0 791 750 0 0 0 721 707 0 707 694 0 700 700 700 694 694 700 669 0 0 0 0 0 0 0 0 766 0 0 0 0 0 0 687 681 681 687 675 0 0 0 0 0 0 0 73 0 687 687 681 687 0 687 675 681 669 0 0 0 0 0 0 0 0 0 0 0 694 681 687 687 675 681 687 0 0 0 694 694 700 721 694 700 687 694 0 0 0 0 0 700 694 687 0 0 0 687 0 0 687 0 687 687 687 0 0 0 0 0 845 886 865 855 808 766 782 743 758 774 728 700 687 681 687 687 675 669 681 675 0 89 89 89 89 89 89 0 89 0 0 355 355 357 355 355 350 352 352 345 345 340 324 315 319 319 318 0 0 139 0 348 339 337 337 336 334 330 325 324 322 327 324 322 322 0 86 0 0 634 639 651 675 645 657 657 651 629 0 0 0 490 459 440 432 430 427 425 425 422 413 413 418 425 0 395 395 397 397 397 399 402 406 408 408 411 415 418 420 418 413 408 651 645 645 651 639 629 613 613 613 613 618 623 618 618 623 618 629 629 623 613 618 629 634 0 0 0 0 0
    0 0 0 0 0 0 0 0 0 0 0 0 0 0 0 0 0 0 0 0 0 0 0 0 0 0 0 0 0 0 0 0 0 0 0 0 0 0 0 0 0 0 0 0 0 0 0 0 0 0 0 0 0 0 0 0 0 0 0 0 0 0 0 0 0 0 0 0 0 0 0 721 700 700 687 687 694 694 694 694 687 694 694 694 694 687 687 687 663 675 687 687 681 681 694 694 700 721 694 0 0 0 694 681 687 681 681 687 681 687 687 681 681 675 0 0 0 681 681 681 675 681 681 681 675 681 669 669 675 694 0 0 0 0 0 0 687 687 687 681 681 687 675 681 687 694 694 694 694 687 694 700 687 687 681 687 681 687 687 681 675 694 687 681 687 687 681 681 687 694 681 681 681 681 687 687 694 694 687 700 700 791 808 791 728 707 714 700 700 707 707 694 681 675 681 681 669 669 675 675 0 0 0 0 0 0 0 0 0 0 0 353 353 357 353 355 352 353 352 345 343 340 328 330 333 327 324 0 0 0 0 343 337 336 337 336 334 331 325 324 322 327 324 322 322 0 86 0 645 634 639 651 669 645 657 651 645 634 0 0 0 0 471 454 0 435 432 430 430 427 420 415 420 427 0 0 393 397 397 399 402 402 406 408 411 413 418 418 418 415 411 408 657 645 645 645 634 623 613 608 613 613 613 618 613 618 618 613 629 629 629 0 618 618 629 0 0 0 0 0
    0 0 0 0 0 0 0 0 0 0 0 0 0 0 0 0 0 0 0 0 0 0 0 0 0 0 0 0 0 0 0 0 0 0 0 0 0 0 0 0 0 0 0 0 0 0 0 0 0 0 0 0 0 0 0 0 0 0 0 0 0 0 0 0 0 0 0 0 0 694 700 707 694 687 681 675 687 681 687 687 681 687 687 687 687 681 681 681 663 675 687 681 681 681 687 687 694 700 687 687 681 687 687 681 681 681 681 681 681 681 681 675 669 669 663 681 663 675 675 681 675 681 681 681 675 687 675 675 675 694 681 687 687 687 687 694 687 687 687 681 687 687 675 675 687 687 687 687 687 681 687 687 681 681 669 681 681 681 681 675 669 687 681 675 681 675 675 675 681 694 675 681 681 681 681 687 687 681 675 694 687 700 700 700 694 687 694 687 694 694 694 687 675 669 675 675 669 663 675 669 669 0 0 0 0 0 0 0 0 0 0 355 355 357 355 355 353 355 355 347 342 339 328 336 336 330 327 0 0 0 0 342 336 336 336 334 334 331 325 324 322 327 324 322 324 0 0 0 639 629 639 651 675 645 651 651 645 629 0 0 0 533 0 0 0 0 438 435 432 432 422 418 420 427 0 0 395 397 399 402 402 404 406 411 411 415 418 418 418 418 413 411 651 645 639 645 629 618 613 608 613 613 613 618 613 618 618 618 634 0 0 0 629 629 634 0 0 0 0 0
    0 0 0 0 0 0 0 0 0 0 0 0 0 0 0 0 0 0 0 0 0 0 0 0 0 0 0 0 0 0 0 0 0 0 0 0 0 0 0 0 0 0 0 0 0 0 0 0 0 0 0 0 0 0 0 0 0 0 0 0 0 0 0 0 0 0 0 0 0 694 694 700 687 681 675 669 681 681 675 687 681 687 687 687 687 681 675 675 663 675 681 681 675 681 687 687 687 694 687 687 681 687 687 687 681 681 681 681 681 681 675 675 663 663 663 675 663 675 675 675 669 681 681 687 681 694 687 681 681 700 681 687 681 681 681 681 681 681 681 675 687 687 681 675 681 681 681 681 681 675 681 687 681 675 663 675 675 675 675 669 663 681 675 675 675 675 675 675 675 687 675 675 675 675 681 681 681 681 675 687 681 694 687 687 681 675 681 675 681 687 681 681 669 669 669 675 669 669 675 675 675 0 0 0 0 0 0 0 0 0 0 357 355 357 355 355 357 357 359 347 342 337 328 337 337 333 330 0 0 0 0 342 336 336 337 336 336 331 325 325 324 327 324 324 325 0 0 634 634 629 639 645 669 639 651 645 639 629 0 0 0 549 0 136 136 136 0 438 435 435 425 420 420 427 0 0 397 397 402 404 404 406 406 411 413 415 420 420 420 418 415 415 645 634 639 639 629 618 613 608 613 613 613 618 618 618 618 618 634 634 639 639 634 634 634 0 0 0 0 0
    0 0 0 0 0 0 0 0 0 0 0 0 0 0 0 0 0 0 0 0 0 0 0 0 0 0 0 0 0 0 0 0 0 0 0 0 0 0 0 0 0 0 0 0 0 0 0 0 0 0 0 0 0 0 0 0 0 0 0 0 0 0 0 0 0 0 0 0 0 687 694 694 681 681 675 669 681 675 675 681 675 681 681 681 681 675 675 675 663 669 681 681 675 681 681 687 687 694 687 681 681 687 687 687 681 681 681 681 681 681 675 669 669 663 669 681 657 675 675 675 669 681 681 681 675 694 687 687 687 707 687 687 687 687 681 681 681 681 681 675 681 687 681 669 681 681 681 681 681 675 681 681 681 675 669 675 675 675 675 669 663 681 675 675 675 675 675 675 675 687 675 675 675 675 675 681 681 675 669 681 675 694 687 687 681 681 687 681 681 687 687 681 675 669 669 675 663 669 675 675 675 0 0 0 0 0 0 0 0 0 360 355 353 355 353 353 359 357 357 345 342 331 321 334 334 330 325 0 0 0 0 342 339 339 339 337 337 333 327 327 325 328 325 325 327 0 639 639 634 629 639 645 663 629 634 634 629 623 101 0 0 570 0 137 136 136 0 435 438 435 427 422 420 427 0 0 399 399 404 404 404 406 406 408 413 418 420 420 420 418 418 420 634 629 634 629 623 613 613 608 613 613 613 613 613 618 618 618 623 623 629 629 623 623 623 0 0 0 0 0
    0 0 0 0 0 0 0 0 0 0 0 0 0 0 0 0 0 0 0 0 0 0 0 0 0 0 0 0 0 0 0 0 0 0 0 0 0 0 0 0 0 0 0 0 0 0 0 0 0 0 0 0 0 0 0 0 0 0 0 0 0 0 0 0 0 0 0 0 0 687 694 694 681 681 675 669 681 681 675 687 681 681 681 681 681 675 669 675 663 669 681 681 675 681 687 687 687 687 687 675 675 687 687 681 681 675 675 681 681 681 675 669 663 663 669 681 663 675 681 675 669 681 681 681 675 694 687 687 687 714 694 694 694 687 681 681 681 681 681 675 681 687 681 663 681 681 675 681 681 675 675 681 687 675 669 675 669 675 675 669 657 681 675 675 675 675 669 669 675 681 669 675 669 669 675 675 675 675 669 681 681 694 687 694 687 687 687 687 694 694 687 687 681 675 675 675 663 669 675 675 0 0 0 0 0 0 0 0 0 0 362 357 357 357 357 357 360 360 357 340 339 324 319 327 330 325 324 0 0 0 0 340 340 339 339 337 337 334 328 328 327 328 325 327 0 0 645 639 634 629 645 645 657 623 629 629 629 623 0 0 584 574 0 137 136 136 136 0 438 438 427 422 420 425 430 0 399 399 404 406 406 408 408 408 413 418 420 418 418 420 420 0 618 618 623 623 618 608 613 608 608 608 608 608 608 613 608 608 608 608 608 613 613 608 608 0 0 0 0 0
    0 0 0 0 0 0 0 0 0 0 0 0 0 0 0 0 0 0 0 0 0 0 0 0 0 0 0 0 0 0 0 0 0 0 0 0 0 0 0 0 0 0 0 0 0 0 0 0 0 0 0 0 0 0 0 0 0 0 0 0 0 0 0 0 0 0 0 0 0 687 687 694 675 681 675 669 681 681 675 687 681 681 681 675 675 669 657 663 657 663 681 681 675 681 687 687 687 687 687 669 675 687 687 681 681 675 675 681 681 675 669 663 657 657 657 675 657 675 675 675 663 675 675 681 675 694 681 681 687 714 694 694 694 687 687 681 681 681 687 681 687 687 681 657 675 675 675 675 675 669 669 669 681 669 663 675 669 675 675 669 657 681 669 669 669 663 669 669 669 675 663 669 669 669 669 675 675 675 669 681 675 694 687 687 681 681 687 681 687 694 675 681 675 669 669 675 651 663 669 669 0 0 0 0 0 0 0 0 0 364 364 360 360 360 360 360 362 364 353 340 340 327 321 327 328 327 327 0 0 334 337 339 340 340 339 339 339 334 330 330 328 330 327 327 0 0 639 639 629 629 639 639 651 623 623 623 623 613 0 588 579 579 566 0 136 136 136 0 0 440 432 425 422 425 430 0 402 402 408 408 408 408 408 411 415 420 420 420 420 425 425 0 608 608 608 613 608 598 608 603 608 603 603 603 603 603 603 598 603 598 598 603 603 598 598 0 0 0 0 0
    0 0 0 0 0 0 0 0 0 0 0 0 0 0 0 0 0 0 0 0 0 0 0 0 0 0 0 0 0 0 0 0 0 0 0 0 0 0 0 0 0 0 0 0 0 0 0 0 0 0 0 0 0 0 0 0 0 0 0 0 0 0 0 0 0 0 0 0 0 687 687 687 675 681 675 669 675 681 675 687 669 675 669 657 657 657 634 645 645 651 675 681 675 681 687 687 687 687 681 657 675 681 681 675 675 669 675 675 675 663 657 645 634 634 639 657 639 663 669 669 651 669 669 675 669 687 675 663 669 714 669 681 681 687 681 681 681 681 681 681 681 687 681 645 669 669 663 669 669 657 657 657 675 657 657 669 663 675 681 669 657 675 657 657 663 657 663 657 663 669 657 663 663 657 663 663 663 663 657 669 657 681 675 675 669 663 669 663 663 675 645 663 657 651 657 669 645 657 663 669 0 0 0 0 0 0 0 369 366 364 364 362 362 360 360 360 362 360 342 340 342 333 322 325 327 328 330 0 333 333 337 339 339 339 337 337 339 334 330 330 328 330 327 328 328 0 639 634 629 629 639 634 639 618 618 618 618 608 603 584 579 574 570 0 135 135 135 0 0 446 435 427 422 422 427 413 406 404 411 411 408 411 411 411 418 420 420 420 422 427 0 598 608 608 608 608 608 593 603 598 598 593 593 588 593 593 598 584 593 593 593 598 598 598 598 0 0 0 0 0
    0 0 0 0 0 0 0 0 0 0 0 0 0 0 0 0 0 0 0 0 0 0 0 0 0 0 0 0 0 0 0 0 0 0 0 0 0 0 0 0 0 0 0 0 0 0 0 0 0 0 0 0 0 0 0 0 0 0 0 0 0 0 0 0 0 0 0 0 0 681 681 687 669 675 675 669 675 675 663 675 645 645 634 634 629 629 618 629 629 634 669 675 669 681 681 681 681 675 675 645 663 675 675 669 669 657 663 663 663 634 634 623 618 618 618 634 629 645 651 651 639 663 663 663 657 681 657 645 645 700 629 657 651 675 669 669 669 675 675 675 675 681 669 634 663 657 657 657 657 645 645 651 675 651 651 663 663 669 681 663 651 669 645 645 657 645 651 651 657 663 651 663 657 651 657 651 651 651 645 651 634 651 645 0 0 0 623 618 608 634 613 634 634 639 645 657 639 651 657 663 0 0 0 0 0 0 0 369 367 366 366 366 364 364 364 364 364 355 342 340 345 336 327 324 327 327 328 0 333 331 334 337 337 337 337 337 337 334 331 331 331 333 328 328 328 330 639 639 629 629 634 634 634 613 613 613 613 603 598 584 574 574 566 549 0 134 0 0 457 446 435 427 422 422 427 418 411 408 413 413 411 413 413 415 420 420 422 420 420 0 603 603 608 608 613 608 608 598 598 588 593 579 579 574 584 584 588 579 593 588 593 598 598 593 593 0 0 0 0 0
    0 0 0 0 0 0 0 0 0 0 0 0 0 0 0 0 0 0 0 0 0 0 0 0 0 0 0 0 0 0 0 0 0 0 0 0 0 0 0 0 0 0 0 0 0 0 0 0 0 0 0 0 0 0 0 0 0 0 0 0 0 0 0 0 0 0 0 0 0 681 681 675 657 663 669 663 669 663 634 651 618 623 618 613 613 618 608 618 623 629 663 669 663 675 675 675 675 663 669 629 651 663 663 657 645 634 634 639 639 613 613 613 603 603 608 618 618 629 639 639 634 657 651 657 645 669 645 634 634 681 618 645 629 663 645 651 645 657 651 657 651 669 645 623 645 645 639 645 645 639 634 639 675 639 651 657 651 663 675 651 639 657 634 634 645 639 645 645 651 651 645 657 651 639 639 634 634 634 634 634 618 629 623 618 0 608 608 603 593 608 603 613 618 623 629 639 629 634 639 645 0 0 0 0 0 0 0 0 367 366 366 366 366 364 364 366 366 348 347 345 348 339 328 321 319 322 0 0 0 325 324 331 334 336 334 336 336 333 331 331 333 333 330 330 328 330 645 645 634 629 634 629 629 608 608 608 608 598 593 579 570 570 566 549 545 0 0 0 457 443 435 427 422 422 425 422 418 413 418 420 415 415 415 418 420 420 422 422 0 574 613 613 613 613 613 608 608 593 593 584 584 566 570 561 574 579 588 574 593 588 593 598 598 593 593 0 0 0 0 0
    0 0 0 0 0 0 0 0 0 0 0 0 0 0 0 0 0 0 0 0 0 0 0 0 0 0 0 0 0 0 0 0 0 0 0 0 0 0 0 0 0 0 0 0 0 0 0 0 0 0 0 0 0 0 0 0 0 0 0 0 0 0 0 0 0 0 0 0 0 669 669 663 645 645 657 645 645 639 0 623 608 613 608 608 608 608 608 613 618 623 651 657 651 657 657 657 657 645 651 623 634 645 645 645 629 623 618 623 623 603 603 603 593 598 603 608 603 618 623 623 618 639 634 639 629 645 629 623 623 639 618 634 623 645 634 639 634 634 634 639 629 651 629 618 629 629 629 634 634 629 629 629 663 634 645 639 645 657 675 645 639 645 629 629 634 634 639 634 639 639 634 645 639 629 629 623 618 618 618 618 613 0 618 608 603 603 598 603 593 603 598 608 608 618 618 629 623 623 629 634 0 0 0 0 0 0 0 0 367 366 366 369 367 367 369 0 366 343 343 0 353 340 331 318 0 319 0 0 0 321 315 318 333 333 333 336 336 331 331 331 334 334 331 330 327 328 0 645 629 629 629 623 623 603 603 598 603 588 588 574 570 566 561 549 545 537 0 484 457 440 435 430 422 420 425 425 422 415 422 425 418 418 420 420 422 422 422 0 570 561 603 603 603 603 608 598 603 0 579 561 561 545 561 553 566 570 584 574 588 588 593 593 593 588 593 0 0 0 0 0
    0 0 0 0 0 0 0 0 0 0 0 0 0 0 0 0 0 0 0 0 0 0 0 0 0 0 0 0 0 0 0 0 0 0 0 0 0 0 0 0 0 0 0 0 0 0 0 0 0 0 0 0 0 0 0 0 0 0 0 0 0 0 0 0 0 0 0 0 0 651 651 645 634 634 634 634 623 618 0 608 603 603 603 603 603 608 603 613 613 613 639 639 639 639 639 645 639 629 634 618 618 629 629 623 618 613 613 618 613 603 598 603 588 598 598 598 598 608 608 613 608 623 618 623 618 623 618 613 613 613 613 629 613 629 623 629 629 623 623 629 618 634 618 613 618 618 623 623 623 623 618 623 651 623 634 629 634 645 669 639 634 639 629 629 629 629 629 629 634 629 629 634 629 618 618 613 608 608 613 608 603 0 0 603 598 598 593 598 588 598 598 603 603 608 613 618 618 618 618 623 0 0 0 0 0 0 0 367 367 366 367 371 371 371 375 0 366 353 353 367 360 345 337 0 0 0 86 86 0 319 314 315 331 333 333 337 336 333 331 333 336 334 330 328 325 325 0 0 629 629 629 623 618 603 598 598 598 584 588 574 566 566 561 549 545 537 0 484 457 440 438 432 422 418 422 425 422 418 422 425 420 420 422 420 422 420 422 0 561 545 570 579 584 593 603 574 0 0 0 549 545 537 557 553 561 566 579 570 588 584 588 588 588 584 584 0 0 0 0 0
    0 0 0 0 0 0 0 0 0 0 0 0 0 0 0 0 0 0 0 0 0 0 0 0 0 0 0 0 0 0 0 0 0 0 0 0 0 0 0 0 0 0 0 0 0 0 0 0 0 0 0 0 0 0 0 0 0 0 0 0 0 0 0 0 0 0 0 0 0 634 634 634 623 623 618 618 608 608 593 593 598 593 603 598 598 603 603 608 608 608 623 629 629 629 629 629 629 618 623 613 613 618 618 613 608 603 608 608 603 598 593 598 584 593 593 593 593 598 603 603 603 608 603 613 613 613 613 608 608 608 608 623 613 623 618 623 618 623 618 623 613 623 618 608 613 613 618 618 618 618 613 613 629 613 618 608 618 618 634 629 623 623 623 623 623 623 623 623 629 623 623 623 618 603 608 603 598 603 603 598 593 0 0 598 593 598 588 593 588 593 593 598 598 603 603 608 608 608 608 608 0 0 0 0 0 0 0 367 367 367 367 375 375 375 383 0 0 353 367 369 364 352 342 0 0 0 86 86 86 321 314 314 330 331 333 336 336 333 331 333 334 334 330 328 327 324 0 0 0 0 623 618 608 598 593 593 593 574 584 574 566 561 557 549 545 525 0 481 457 443 440 435 425 415 420 422 422 420 425 427 420 422 425 422 425 425 422 593 561 545 553 553 553 566 579 553 545 0 545 545 541 541 557 549 557 561 570 561 579 579 584 579 579 574 579 0 0 0 0 0
    0 0 0 0 0 0 0 0 0 0 0 0 0 0 0 0 0 0 0 0 0 0 0 0 0 0 0 0 0 0 0 0 0 0 0 0 0 0 0 0 0 0 0 0 0 0 0 0 0 0 0 0 0 0 0 0 0 0 0 0 0 0 0 0 0 0 0 0 0 623 623 623 618 618 608 613 603 603 588 588 593 584 598 598 598 598 598 603 603 603 613 618 618 618 618 618 618 613 613 613 608 613 613 603 603 603 603 603 598 593 588 593 584 593 588 593 593 593 598 598 598 603 588 603 603 608 608 603 603 603 608 613 608 613 613 613 613 613 608 613 608 618 613 603 613 608 613 613 613 613 608 608 613 603 603 593 598 598 608 608 608 608 613 618 618 618 618 618 618 613 613 613 608 588 598 598 593 598 598 593 588 588 603 593 588 593 588 588 588 593 593 593 593 598 598 598 603 598 598 598 0 0 0 0 0 0 0 0 367 367 369 377 379 379 389 0 0 353 367 371 367 360 0 0 0 0 0 0 0 322 314 314 328 328 331 336 334 333 331 331 334 333 331 328 328 325 0 0 0 0 608 603 603 593 593 593 593 561 584 574 561 553 553 545 541 518 0 481 459 443 443 435 427 415 418 422 422 422 425 427 422 425 427 427 430 430 0 584 557 549 553 553 549 553 561 549 545 545 545 549 545 545 553 545 553 557 561 557 574 570 579 574 574 570 570 0 0 0 0 0
    0 0 0 0 0 0 0 0 0 0 0 0 0 0 0 0 0 0 0 0 0 0 0 0 0 0 0 0 0 0 0 0 0 0 0 0 0 0 0 0 0 0 0 0 0 0 0 0 0 0 0 0 0 0 0 0 0 0 0 0 0 0 0 0 0 0 0 0 0 608 618 618 618 618 613 618 603 603 593 584 593 584 593 593 593 598 598 603 608 603 613 613 613 613 613 613 613 603 603 603 598 603 608 598 598 598 603 603 593 593 588 588 584 593 584 588 588 593 593 593 593 593 579 598 598 598 603 603 603 603 603 613 608 608 608 608 608 608 603 608 603 613 608 603 608 608 608 608 608 608 603 598 603 593 593 588 588 593 598 598 603 603 608 613 608 608 608 608 608 608 608 603 598 574 593 593 588 593 593 593 588 588 603 598 593 598 593 593 593 593 593 598 593 598 598 598 598 588 593 593 0 0 0 0 0 0 0 0 367 367 369 379 379 379 391 0 0 353 367 373 371 364 0 0 0 0 0 0 0 0 314 313 328 327 330 336 333 333 331 331 334 333 333 330 330 330 0 0 0 0 0 593 588 588 584 584 584 557 579 570 557 549 549 545 541 521 0 0 462 446 446 0 427 415 420 422 425 420 425 425 422 425 430 427 427 425 0 570 553 549 549 553 549 553 557 549 545 545 549 549 545 545 553 545 553 557 561 557 574 570 579 570 570 561 561 0 0 0 0 0
    0 0 0 0 0 0 0 0 0 0 0 0 0 0 0 0 0 0 0 0 0 0 0 0 0 0 0 0 0 0 0 0 0 0 0 0 0 0 0 0 0 0 0 0 0 0 0 0 0 0 0 0 0 0 0 0 0 0 0 0 0 0 0 0 0 0 0 0 0 608 618 618 618 618 613 613 603 603 593 584 593 579 593 593 593 598 598 603 608 603 613 613 613 613 613 613 608 603 603 603 598 603 603 598 598 598 598 603 593 593 588 588 584 593 584 588 588 593 593 593 593 593 574 598 598 598 603 603 603 603 603 613 608 608 608 608 608 608 603 608 603 608 608 603 603 603 603 608 603 603 598 598 603 588 593 588 588 593 598 598 603 603 608 608 608 608 608 603 608 603 603 603 598 570 593 593 588 593 593 593 588 588 608 603 598 608 598 598 598 598 598 598 598 598 603 598 603 588 593 593 588 0 0 0 0 0 0 0 369 369 371 379 379 381 393 0 0 353 367 375 371 364 0 0 0 0 0 0 0 0 314 311 327 328 330 336 334 333 333 333 334 334 333 331 330 328 0 328 327 319 0 584 584 584 579 579 584 553 579 570 557 545 0 541 541 514 0 484 465 448 448 0 430 415 420 425 425 415 422 425 422 425 430 427 427 422 0 566 553 549 549 553 553 553 557 549 545 545 549 549 545 545 553 545 553 553 561 553 570 574 574 566 566 557 553 0 0 0 0 0
    0 0 0 0 0 0 0 0 0 0 0 0 0 0 0 0 0 0 0 0 0 0 0 0 0 0 0 0 0 0 0 0 0 0 0 0 0 0 0 0 0 0 0 0 0 0 0 0 0 0 0 0 0 0 0 0 0 0 0 0 0 0 0 0 0 0 0 0 0 608 618 618 618 618 613 613 603 603 593 584 593 579 593 598 593 598 598 603 608 608 618 618 618 618 618 613 608 603 603 603 593 598 603 593 593 593 598 598 593 593 588 584 579 593 584 588 588 593 593 593 593 598 574 598 598 598 603 603 603 603 603 613 608 608 608 608 608 608 603 608 598 608 608 603 603 603 603 603 603 608 598 598 603 588 588 588 584 588 593 588 598 598 603 608 608 608 608 608 613 608 608 603 603 570 593 593 588 593 593 593 588 593 613 0 603 613 603 603 603 603 603 603 598 603 603 598 603 588 593 593 588 0 0 0 0 0 0 0 371 369 375 381 381 385 395 0 0 353 367 375 371 364 0 0 0 0 0 0 0 0 313 311 325 328 330 336 334 333 333 333 334 334 331 331 331 327 0 324 322 317 0 588 584 584 584 584 584 549 579 574 557 545 0 541 537 518 0 487 468 451 0 0 432 413 420 425 425 413 420 425 425 425 432 432 430 427 574 561 549 549 549 549 549 549 553 549 545 545 545 549 545 545 553 541 549 557 561 553 561 566 566 557 557 545 545 0 0 0 0 0
    0 0 0 0 0 0 0 0 0 0 0 0 0 0 0 0 0 0 0 0 0 0 0 0 0 0 0 0 0 0 0 0 0 0 0 0 0 0 0 0 0 0 0 0 0 0 0 0 0 0 0 0 0 0 0 0 0 0 0 0 0 0 0 0 0 0 0 0 0 608 613 613 618 623 618 618 608 608 598 588 598 584 593 598 598 603 603 603 608 608 623 623 623 623 618 618 613 608 603 603 598 598 603 593 593 598 603 598 593 593 593 584 584 598 584 588 588 593 593 593 593 598 574 598 598 598 603 603 603 603 603 613 608 608 613 608 608 613 603 608 598 608 608 598 603 603 603 603 603 603 598 598 603 588 588 588 584 584 593 584 598 598 603 608 608 0 613 608 618 608 608 608 603 574 593 593 588 588 593 593 588 593 618 0 0 629 613 608 613 608 608 603 603 603 603 603 603 588 593 588 588 0 0 0 102 0 0 0 373 371 377 381 381 387 397 389 387 371 369 375 371 366 0 0 0 0 0 0 0 0 314 313 322 330 330 336 334 333 333 333 334 334 331 331 331 328 334 330 325 321 0 588 584 584 588 588 588 549 579 574 557 545 541 541 537 525 0 490 474 459 0 0 432 413 420 425 422 411 422 427 427 427 435 438 435 0 561 557 549 549 549 549 549 549 553 549 545 541 545 545 541 541 545 537 545 549 553 537 545 541 545 541 545 533 533 0 0 0 0 0
    0 0 0 0 0 0 0 0 0 0 0 0 0 0 0 0 0 0 0 0 0 0 0 0 0 0 0 0 0 0 0 0 0 0 0 0 0 0 0 0 0 0 0 0 0 0 0 0 0 0 0 0 0 0 0 0 0 0 0 0 0 0 0 0 0 0 0 0 0 608 618 618 623 623 618 618 608 608 598 588 598 584 598 598 598 603 603 603 608 608 623 623 623 629 629 623 618 608 603 608 598 603 603 593 598 603 608 603 598 598 598 584 588 598 584 588 588 593 593 593 593 593 574 598 0 598 598 603 603 608 603 613 613 613 613 613 608 613 603 603 598 608 603 598 603 603 598 603 603 603 593 598 598 584 588 588 584 584 593 584 598 598 608 608 608 613 613 608 618 613 613 608 603 574 593 588 584 588 588 588 588 593 618 0 0 634 618 613 613 608 608 603 603 603 603 598 598 588 588 588 588 0 0 0 0 0 0 377 375 375 381 385 383 389 397 381 377 371 369 373 371 366 359 0 0 0 0 0 0 0 314 313 322 330 331 336 334 333 333 333 334 334 333 331 333 333 337 337 331 325 593 593 584 588 593 588 588 549 579 574 557 545 541 541 541 533 521 493 477 468 0 459 432 413 420 422 422 411 425 430 430 432 446 446 446 0 553 553 549 545 549 549 545 545 549 545 541 537 537 537 529 533 537 529 525 533 537 525 533 529 537 537 537 525 529 0 0 0 0 0
    0 0 0 0 0 0 0 0 0 0 0 0 0 0 0 0 0 0 0 0 0 0 0 0 0 0 0 0 0 0 0 0 0 0 0 0 0 0 0 0 0 0 0 0 0 0 0 0 0 0 0 0 0 0 0 0 0 0 0 0 0 0 0 0 0 0 0 0 0 608 618 618 623 623 618 613 608 603 593 584 593 574 593 598 593 598 603 603 608 608 623 618 618 629 623 618 613 603 603 603 598 598 598 593 593 598 603 598 593 593 593 584 588 598 584 588 593 598 593 593 593 598 579 603 603 598 598 603 603 603 603 613 608 608 613 608 608 608 603 603 598 603 603 598 603 603 598 603 603 598 593 593 598 579 588 593 588 593 603 598 603 603 608 613 613 613 613 613 623 613 618 608 603 579 593 588 588 588 588 588 588 593 613 613 613 623 613 608 608 603 603 603 603 603 603 598 593 584 588 584 0 0 0 0 0 0 0 381 377 377 383 383 383 391 393 379 375 371 369 373 369 364 355 0 0 0 0 0 0 0 314 313 324 328 333 336 334 333 333 333 334 333 333 333 334 334 339 340 330 319 598 593 584 588 593 584 574 549 570 561 553 541 537 537 533 529 0 493 477 474 468 459 432 415 420 422 420 408 427 432 432 440 465 465 465 533 545 549 549 545 545 545 541 541 545 541 537 533 533 533 525 525 525 521 514 521 525 514 521 529 0 541 533 529 529 0 0 0 0 0
    0 0 0 0 0 0 0 0 0 0 0 0 0 0 0 0 0 0 0 0 0 0 0 0 0 0 0 0 0 0 0 0 0 0 0 0 0 0 0 0 0 0 0 0 0 0 0 0 0 0 0 0 0 0 0 0 0 0 0 0 0 0 0 0 0 0 0 0 0 608 613 613 618 618 608 608 603 603 588 579 588 570 588 593 588 598 598 603 603 608 623 618 618 623 618 613 603 598 593 593 593 593 593 593 588 598 593 584 574 574 574 566 574 588 574 588 588 598 598 593 598 598 584 603 603 598 603 603 603 603 603 608 608 598 608 603 603 603 598 598 598 603 598 598 603 598 598 598 598 598 588 593 593 574 584 593 588 593 603 598 608 603 613 608 608 608 608 603 618 613 613 608 598 574 588 588 584 584 579 584 584 588 608 608 608 618 608 608 603 603 603 598 603 598 598 593 593 584 579 0 0 0 0 0 0 373 381 385 383 381 387 387 385 391 393 379 375 369 367 369 366 359 350 0 0 0 0 0 0 0 0 311 322 327 331 334 334 333 333 333 333 333 333 333 334 334 337 340 324 0 588 584 570 574 584 566 549 545 557 553 545 533 533 529 529 525 514 493 481 477 471 457 432 415 420 420 415 404 420 432 435 481 481 484 487 525 541 545 549 549 545 545 545 541 545 541 541 537 533 533 521 521 518 514 507 511 511 507 514 525 533 537 533 533 533 0 0 0 0 0
    0 0 0 0 0 0 0 0 0 0 0 0 0 0 0 0 0 0 0 0 0 0 0 0 0 0 0 0 0 0 0 0 0 0 0 0 0 0 0 0 0 0 0 0 0 0 0 0 0 0 0 0 0 0 0 0 0 0 0 0 0 0 0 0 0 0 0 0 0 608 0 0 0 603 593 588 588 593 574 570 584 561 579 588 584 593 593 593 603 603 618 613 608 618 608 603 598 593 588 588 588 593 588 584 584 584 574 557 553 553 553 549 557 570 561 579 584 593 593 588 593 598 588 603 603 598 598 598 598 593 593 598 593 584 598 588 598 598 598 593 598 598 588 588 598 593 593 593 593 588 584 593 588 570 579 588 588 598 608 603 608 603 608 608 603 603 603 598 613 603 603 603 584 566 579 584 579 574 570 574 574 579 603 603 603 613 608 603 603 603 603 598 603 598 603 593 588 579 0 0 0 0 0 0 367 377 385 387 385 385 387 387 385 393 391 379 377 369 367 369 366 357 348 0 0 0 0 0 0 0 0 0 324 327 331 334 334 331 333 333 333 333 334 334 334 334 336 337 324 0 574 561 557 557 566 553 537 541 549 541 541 525 525 518 518 518 500 490 477 474 465 448 432 418 420 415 408 402 402 432 0 490 487 493 497 525 541 537 549 545 545 545 541 541 541 541 537 533 529 525 514 518 511 511 504 504 500 500 507 514 504 525 529 525 537 0 0 0 0 0
    0 0 0 0 0 0 0 0 0 0 0 0 0 0 0 0 0 0 0 0 0 0 0 0 0 0 0 0 0 0 0 0 0 0 0 0 0 0 0 0 0 0 0 0 0 0 0 0 0 0 0 0 0 0 0 0 0 0 0 0 0 0 0 0 0 0 0 0 0 0 0 0 0 561 561 549 553 561 553 557 574 561 574 584 579 584 584 588 593 593 608 603 593 0 593 593 588 584 579 579 579 579 574 570 566 561 553 545 545 545 541 541 549 553 553 566 570 579 579 584 584 593 584 598 598 598 598 593 588 584 584 584 574 557 579 561 588 588 593 584 593 588 579 579 588 584 584 584 579 574 570 584 584 557 570 584 579 593 608 603 608 603 608 603 598 598 593 593 608 598 598 593 561 557 566 570 566 561 557 557 557 566 584 584 584 598 603 603 598 598 598 598 598 593 593 584 579 561 0 0 0 0 0 0 369 383 389 389 389 389 389 387 387 395 391 379 385 371 367 369 364 357 350 0 0 0 0 0 0 0 0 0 324 325 330 331 333 331 331 331 333 333 333 333 333 333 333 0 327 0 549 541 545 545 549 541 533 533 545 533 529 514 514 504 500 497 484 481 471 465 451 443 430 420 418 415 404 397 0 0 0 497 493 504 507 525 537 537 549 545 545 545 541 541 537 537 533 525 521 518 507 511 507 507 504 500 497 500 500 511 487 511 521 504 533 0 0 0 0 0
    0 0 0 0 0 0 0 0 0 0 0 0 0 0 0 0 0 0 0 0 0 0 0 0 0 0 0 0 0 0 0 0 0 0 0 0 0 0 0 0 0 0 0 0 0 0 0 0 0 0 0 0 0 0 0 0 0 0 0 0 0 0 0 0 0 0 0 0 0 570 553 545 537 537 541 537 537 545 537 541 561 553 566 579 570 579 579 579 584 574 588 570 0 0 557 553 557 557 561 561 566 566 557 557 553 549 541 533 537 537 533 537 537 541 541 545 553 557 557 561 570 593 579 593 593 588 593 584 570 570 566 566 553 541 545 541 561 574 574 566 584 579 561 566 579 574 574 570 566 557 553 574 566 549 553 566 566 584 603 598 603 593 603 598 588 593 584 579 598 593 584 570 541 545 553 557 553 553 545 549 549 553 566 561 561 574 588 588 588 588 584 584 584 570 574 557 561 549 0 0 0 0 0 0 0 389 395 393 393 393 391 391 389 397 393 0 395 373 367 369 364 357 352 0 0 0 0 0 0 0 0 0 327 327 331 331 333 330 330 330 331 331 331 330 330 330 328 0 331 0 541 533 533 533 537 533 529 525 537 525 514 504 507 497 490 484 477 477 465 457 443 438 427 418 413 411 402 395 393 0 507 514 507 518 514 525 533 533 545 541 541 545 537 541 533 537 533 521 514 511 504 507 504 507 500 500 497 497 500 511 487 504 507 497 529 0 0 0 0 0
    0 0 0 0 0 0 0 0 0 0 0 0 0 0 0 0 0 0 0 0 0 0 0 0 0 0 0 0 0 0 0 0 0 0 0 0 0 0 0 0 0 0 0 0 0 0 0 0 0 0 0 0 0 0 0 0 0 0 0 0 0 0 0 0 0 0 0 0 0 545 537 533 533 529 533 529 533 537 533 533 549 549 557 566 561 566 570 566 566 557 561 549 0 0 0 0 0 541 545 545 549 553 545 545 545 541 533 525 529 529 525 529 529 533 529 533 537 541 545 549 553 574 574 588 584 579 579 566 557 553 553 549 541 533 537 533 545 557 557 549 566 566 553 557 566 557 557 557 549 541 541 553 545 537 537 545 541 557 579 574 579 574 584 579 566 570 561 557 0 566 545 537 529 537 541 545 541 545 537 541 541 549 553 553 553 557 561 566 561 566 557 557 553 545 549 541 549 541 529 0 0 0 0 0 0 395 399 397 395 395 393 391 389 395 393 0 402 385 0 0 0 0 0 0 0 0 0 0 0 330 324 328 325 325 330 330 331 328 327 325 327 327 327 322 325 324 319 0 0 0 533 529 529 529 533 525 521 521 529 514 500 493 497 490 481 477 474 468 457 448 440 432 425 413 411 408 399 395 395 0 514 514 507 518 518 525 533 529 541 537 537 541 529 533 525 529 525 518 511 504 500 507 504 504 500 500 497 497 500 511 490 500 500 497 518 0 0 0 0 0
    0 0 0 0 0 0 0 0 0 0 0 0 0 0 0 0 0 0 0 0 0 0 0 0 0 0 0 0 0 0 0 0 0 0 0 0 0 0 0 0 0 0 0 0 0 0 0 0 0 0 0 0 0 0 0 0 0 0 0 0 0 0 0 0 0 0 0 0 0 533 529 525 525 525 529 525 525 533 525 529 541 541 545 553 549 553 553 553 549 545 541 537 529 529 529 529 529 533 533 533 533 541 533 533 533 533 525 518 525 525 521 525 525 525 525 529 533 533 537 541 541 545 553 574 566 561 561 553 545 545 545 541 537 529 533 533 537 545 545 541 553 553 545 545 553 545 541 541 537 533 533 537 537 533 533 537 537 545 549 557 557 553 557 557 545 549 541 541 537 537 533 533 525 529 533 537 533 537 533 533 537 537 541 545 545 545 549 557 553 549 545 545 541 529 537 529 537 533 521 0 0 0 0 0 0 0 399 397 395 395 393 393 391 395 395 0 411 393 0 0 0 493 0 0 0 0 0 0 0 331 327 330 327 322 328 328 327 325 322 321 322 322 324 321 321 322 318 0 0 521 529 525 525 521 529 521 518 518 518 500 490 490 490 484 477 474 468 459 451 443 435 430 420 411 406 404 397 393 395 500 514 514 507 514 518 525 529 529 537 533 533 537 525 533 521 525 521 518 514 504 497 504 500 504 500 497 497 497 500 504 490 497 493 497 507 0 0 0 0 0
    0 0 0 0 0 0 0 0 0 0 0 0 0 0 0 0 0 0 0 0 0 0 0 0 0 0 0 0 0 0 0 0 0 0 0 0 0 0 0 0 0 0 0 0 0 0 0 0 0 0 0 0 0 0 0 0 0 0 0 0 0 0 0 0 0 0 0 0 0 525 525 518 521 521 529 525 525 529 521 525 533 529 537 541 537 541 537 537 533 533 529 529 521 525 521 525 521 525 521 525 521 529 521 525 525 525 521 514 521 525 518 525 521 525 521 525 529 525 529 533 529 533 533 545 549 545 545 541 537 537 537 537 533 525 529 529 529 537 537 533 541 541 533 537 541 537 533 533 529 529 529 533 533 529 529 533 537 545 545 549 553 549 553 549 541 541 533 533 529 529 525 525 521 525 525 529 529 533 525 529 533 533 533 541 541 541 545 549 545 541 537 537 533 518 529 518 525 521 511 0 0 0 0 0 0 0 399 395 393 395 391 393 391 395 395 0 420 0 481 484 493 497 0 0 0 0 0 0 336 333 328 325 328 322 328 328 327 325 322 319 322 321 324 321 322 324 319 0 0 514 521 521 521 518 525 518 518 514 511 497 487 487 484 477 471 468 462 454 446 440 435 425 418 411 406 402 397 393 395 511 518 511 504 511 518 521 525 525 525 518 518 525 518 525 514 521 518 514 511 504 497 504 500 500 497 497 493 493 493 493 484 487 484 487 493 0 0 0 0 0
    0 0 0 0 0 0 0 0 0 0 0 0 0 0 0 0 0 0 0 0 0 0 0 0 0 0 0 0 0 0 0 0 0 0 0 0 0 0 0 0 0 0 0 0 0 0 0 0 0 0 0 0 0 0 0 0 0 0 0 0 0 0 0 0 0 0 0 0 0 521 518 518 521 518 525 521 521 525 518 518 529 521 525 529 525 529 525 529 521 525 521 521 514 521 518 521 518 525 518 521 518 521 518 521 521 521 518 514 521 525 518 521 521 521 518 521 525 518 521 525 521 521 525 529 533 529 533 533 529 533 533 533 533 521 529 525 525 533 529 525 529 533 521 529 533 529 525 525 525 525 521 533 529 525 529 533 533 541 537 541 545 541 545 545 537 533 529 529 521 525 525 518 518 521 518 525 525 529 521 525 529 529 529 537 533 533 533 541 541 537 533 529 525 514 525 518 521 514 504 0 0 0 0 0 0 0 399 395 393 395 391 393 393 395 395 0 432 454 481 490 497 500 507 0 0 0 0 0 0 333 331 328 331 325 328 328 327 325 322 319 322 321 322 321 322 324 321 0 0 511 514 514 514 514 518 514 514 507 500 493 487 484 481 474 465 465 459 451 446 440 435 427 420 413 408 404 397 395 397 0 518 507 500 504 511 518 521 521 511 500 500 511 504 525 504 507 504 504 504 497 497 504 500 500 497 493 493 490 487 487 477 474 474 477 477 0 0 0 0 0
    0 0 0 0 0 0 0 0 0 0 0 0 0 0 0 0 0 0 0 0 0 0 0 0 0 0 0 0 0 0 0 0 0 0 0 0 0 0 0 0 0 0 0 0 0 0 0 0 0 0 0 0 0 0 0 0 0 0 0 0 0 0 0 0 0 0 0 0 0 518 518 514 518 518 525 521 521 525 518 518 529 518 521 525 521 525 518 525 518 521 518 518 514 518 518 518 514 521 518 521 514 518 514 518 521 521 518 514 518 525 518 525 521 518 518 521 521 518 514 518 514 514 518 521 521 518 525 525 521 525 529 529 529 521 525 525 521 529 525 518 521 521 514 521 525 521 518 518 514 518 518 525 521 521 525 525 529 533 529 533 537 529 533 533 529 529 521 525 518 521 518 514 514 514 514 521 521 525 518 521 521 525 525 529 529 521 518 529 529 525 521 521 518 507 521 514 518 511 500 0 0 0 0 0 0 0 399 395 391 395 391 395 395 397 397 399 435 465 484 493 497 500 504 0 0 0 0 0 0 337 336 336 334 330 331 331 328 327 324 319 322 321 322 322 324 324 322 334 0 507 511 511 511 507 514 507 507 507 500 493 490 487 484 481 468 468 462 451 446 440 435 427 422 413 408 404 399 397 397 0 0 0 497 500 507 514 518 514 504 493 497 500 493 504 484 484 481 484 487 487 487 497 497 497 490 490 490 487 484 481 468 454 459 459 459 0 0 0 0 0
    0 0 0 0 0 0 0 0 0 0 0 0 0 0 0 0 0 0 0 0 0 0 0 0 0 0 0 0 0 0 0 0 0 0 0 0 0 0 0 0 0 0 0 0 0 0 0 0 0 0 0 0 0 0 0 0 0 0 0 0 0 0 0 0 0 0 0 0 0 518 518 511 518 514 521 518 518 521 514 514 525 507 518 521 518 525 518 521 518 521 518 518 514 518 514 518 511 518 514 518 514 518 511 518 521 521 518 514 518 525 518 525 521 518 518 521 521 518 514 514 511 511 514 518 514 511 518 521 521 521 529 525 529 518 525 521 518 525 521 514 511 511 507 511 514 514 511 507 507 511 511 521 518 518 525 525 525 529 525 529 529 525 529 525 521 521 518 521 514 518 518 514 514 514 511 518 518 521 514 518 521 521 525 525 525 521 511 521 521 514 511 511 511 504 514 511 514 511 500 0 0 0 0 0 0 395 397 393 389 393 389 393 393 395 395 397 432 462 484 493 497 500 500 504 0 0 0 0 0 343 337 339 337 334 334 333 331 330 325 321 324 321 322 324 324 325 324 334 339 0 504 507 507 507 511 507 507 507 500 497 490 487 484 481 468 468 459 448 443 438 432 425 0 413 408 402 399 395 397 0 0 0 0 0 0 511 514 514 504 493 493 497 487 487 477 477 471 474 474 477 481 487 490 490 484 487 484 481 468 468 451 438 440 438 435 0 0 0 0 0
    0 0 0 0 0 0 0 0 0 0 0 0 0 0 0 0 0 0 0 0 0 0 0 0 0 0 0 0 0 0 0 0 0 0 0 0 0 0 0 0 0 0 0 0 0 0 0 0 0 0 0 0 0 0 0 0 0 0 0 0 0 0 0 0 0 0 0 0 0 518 518 511 518 514 521 514 514 518 511 507 518 497 511 521 521 525 518 525 521 521 518 518 518 518 514 514 511 518 514 518 511 514 511 518 521 521 514 514 514 525 518 525 521 518 518 521 525 518 514 514 511 511 511 514 514 507 518 518 518 521 525 525 529 518 525 521 518 525 521 514 511 507 504 507 511 511 507 507 504 511 514 521 518 518 525 525 525 529 525 529 529 525 529 525 521 521 518 518 514 518 518 514 514 514 511 514 514 518 511 514 518 518 521 525 525 518 507 518 518 511 507 507 507 500 514 507 514 511 500 0 0 0 0 0 0 0 397 393 389 391 391 393 393 393 395 395 411 440 481 493 497 500 500 500 0 0 0 0 0 347 340 340 339 336 336 336 331 330 325 321 325 321 322 322 324 324 324 333 339 337 504 504 504 504 511 504 507 507 500 497 493 487 484 481 468 468 462 451 443 440 435 0 0 413 406 402 397 395 397 391 0 0 0 0 0 507 511 514 500 493 493 497 490 493 481 477 468 471 468 471 471 481 484 484 477 481 481 465 440 440 438 430 427 425 425 0 0 0 0 0
    0 0 0 0 0 0 0 0 0 0 0 0 0 0 0 0 0 0 0 0 0 0 0 0 0 0 0 0 0 0 0 0 0 0 0 0 0 0 0 0 0 0 0 0 0 0 0 0 0 0 0 0 0 0 0 0 0 0 0 0 0 0 0 0 0 0 0 0 0 518 518 514 518 514 521 514 514 518 507 504 511 490 507 518 518 525 518 525 518 521 518 518 518 518 514 514 511 518 514 518 511 511 511 518 521 521 514 511 514 525 518 521 518 514 514 521 521 518 514 514 511 511 514 514 514 507 518 518 518 521 525 525 525 518 525 521 518 521 521 518 514 507 504 507 511 511 507 504 504 511 514 521 518 514 525 521 521 529 525 529 529 521 525 525 521 521 518 518 514 518 518 514 514 514 507 514 514 518 511 514 518 518 521 525 525 518 507 518 518 507 507 507 507 500 514 511 514 511 497 0 0 0 0 0 0 395 397 393 385 391 389 391 391 393 393 395 397 432 474 497 504 504 500 0 0 0 0 0 0 350 342 342 339 337 337 337 333 331 327 322 324 319 321 322 322 324 324 330 337 336 0 500 500 500 507 504 504 507 500 497 497 490 487 484 468 471 465 454 443 440 435 427 422 413 406 399 397 395 395 391 0 0 0 0 0 497 500 507 497 490 487 487 481 481 477 474 462 465 459 462 462 468 474 474 468 471 471 451 435 432 430 422 415 413 413 0 0 0 0 0
    0 0 0 0 0 0 0 0 0 0 0 0 0 0 0 0 0 0 0 0 0 0 0 0 0 0 0 0 0 0 0 0 0 0 0 0 0 0 0 0 0 0 0 0 0 0 0 0 0 0 0 0 0 0 0 0 0 0 0 0 0 0 0 0 0 0 0 0 0 518 518 514 518 514 521 514 511 518 507 504 504 487 504 514 518 521 514 521 518 521 518 518 521 518 518 518 511 518 514 518 511 514 511 518 521 521 514 514 514 0 518 521 518 514 0 0 0 521 514 511 511 507 511 514 511 507 514 514 518 518 525 521 525 514 525 521 514 521 521 518 514 507 504 507 511 507 504 504 500 507 511 521 518 514 525 521 521 529 525 529 529 525 525 525 521 525 518 521 518 521 521 518 518 518 507 514 514 518 514 514 518 518 521 525 525 518 507 518 521 511 511 511 511 504 518 511 514 507 497 0 0 0 0 0 0 393 395 389 381 387 389 389 389 391 391 393 395 415 430 0 511 500 0 0 0 0 0 0 0 350 342 342 339 337 337 337 333 330 325 321 324 319 322 322 322 322 322 327 336 334 325 0 0 0 504 504 504 507 497 497 497 493 487 484 471 474 468 454 443 440 435 427 422 413 406 399 397 395 395 391 0 0 0 0 0 0 490 0 0 484 481 484 474 474 474 471 457 459 451 454 454 454 465 459 457 459 457 446 430 425 425 418 411 408 411 0 0 0 0 0
    0 0 0 0 0 0 0 0 0 0 0 0 0 0 0 0 0 0 0 0 0 0 0 0 0 0 0 0 0 0 0 0 0 0 0 0 0 0 0 0 0 0 0 0 0 0 0 0 0 0 0 0 0 0 0 0 0 0 0 0 0 0 0 0 0 0 0 0 0 518 518 514 518 511 518 511 507 514 504 500 497 484 504 514 518 521 514 521 518 518 521 521 521 521 518 518 0 521 518 521 514 514 514 518 521 521 514 514 514 74 0 0 0 0 0 0 0 521 511 507 507 504 511 511 511 507 511 514 518 518 525 521 525 514 525 521 514 518 518 518 514 507 504 504 504 504 504 500 497 504 511 525 518 518 529 525 525 533 529 529 533 529 529 529 525 529 521 525 521 525 525 521 521 521 511 521 518 521 514 514 518 518 521 525 521 518 504 521 521 511 514 514 511 504 514 511 511 504 493 0 0 0 0 0 389 387 389 385 377 385 387 387 387 389 391 391 391 402 408 0 511 497 0 0 0 0 0 0 0 352 342 342 339 337 339 337 331 328 327 322 324 321 322 322 322 322 324 327 333 330 322 317 317 315 0 500 504 511 500 497 497 497 493 487 474 477 471 454 446 440 435 430 427 418 408 399 395 395 393 385 389 393 0 0 0 0 0 0 0 0 0 0 474 471 477 474 459 459 451 454 454 451 459 451 448 446 440 440 425 420 418 411 408 406 408 0 0 0 0 0
    0 0 0 0 0 0 0 0 0 0 0 0 0 0 0 0 0 0 0 0 0 0 0 0 0 0 0 0 0 0 0 0 0 0 0 0 0 0 0 0 0 0 0 0 0 0 0 0 0 0 0 0 0 0 0 0 0 0 0 0 0 0 0 0 0 0 0 0 0 518 518 514 518 511 518 507 500 511 0 497 497 484 507 521 521 521 514 521 518 518 521 518 525 525 521 0 0 0 0 0 514 514 0 518 521 521 514 518 0 74 0 0 0 0 0 0 0 0 511 504 507 504 507 511 507 507 507 511 518 518 525 521 525 518 525 525 514 518 518 514 511 504 500 500 500 500 500 497 0 497 507 525 518 518 533 533 525 533 529 529 533 0 533 533 525 529 525 525 521 529 525 525 521 521 511 521 521 525 518 514 518 518 521 525 525 518 504 521 521 507 514 511 511 500 514 511 511 504 493 0 0 0 0 0 387 385 387 383 375 383 387 385 383 389 389 389 389 397 397 0 518 500 0 0 0 0 0 0 364 353 343 342 340 339 339 337 333 330 328 325 327 322 324 322 322 322 324 327 331 327 322 317 319 318 318 325 0 504 497 493 497 493 493 490 474 477 471 454 443 440 435 432 430 420 411 402 397 395 393 387 389 391 395 0 0 0 0 0 0 0 0 0 0 0 477 471 459 459 451 454 451 443 451 443 443 440 432 435 418 411 411 408 406 404 406 0 0 0 0 0
    0 0 0 0 0 0 0 0 0 0 0 0 0 0 0 0 0 0 0 0 0 0 0 0 0 0 0 0 0 0 0 0 0 0 0 0 0 0 0 0 0 0 0 0 0 0 0 0 0 0 0 0 0 0 0 0 0 0 0 0 0 0 0 0 0 0 0 0 0 521 518 514 518 511 511 504 493 0 0 493 500 0 0 0 533 529 525 529 525 521 525 0 0 0 0 0 0 0 0 0 0 0 163 0 525 521 0 0 0 0 0 0 0 0 0 0 0 0 0 0 0 500 511 507 507 504 507 511 518 518 525 521 525 518 529 525 514 518 514 511 507 500 497 497 493 493 0 0 0 0 497 511 490 511 0 0 0 518 514 521 521 0 0 0 0 0 0 0 514 529 525 525 525 518 514 518 0 525 514 514 518 518 521 521 521 518 500 518 518 504 511 507 507 500 514 514 511 504 0 0 0 0 0 0 387 383 387 383 373 383 387 383 383 387 389 389 387 395 393 395 0 0 0 497 0 0 0 0 364 355 345 345 342 340 340 337 333 330 328 325 325 322 324 322 322 319 319 322 324 322 318 315 318 317 321 328 321 327 0 490 493 493 490 490 477 481 471 454 446 440 438 435 432 425 411 402 395 393 389 383 383 387 391 387 0 0 0 0 0 0 0 0 0 0 477 471 459 459 454 454 451 443 454 448 443 438 430 430 408 406 404 406 402 402 402 0 0 0 0 0
    0 0 0 0 0 0 0 0 0 0 0 0 0 0 0 0 0 0 0 0 0 0 0 0 0 0 0 0 0 0 0 0 0 0 0 0 0 0 0 0 0 0 0 0 0 0 0 0 0 0 0 0 0 0 0 0 0 0 0 0 0 0 0 0 0 0 0 0 0 521 521 514 518 511 0 504 0 0 0 0 0 0 0 0 537 529 533 529 0 0 131 132 0 0 0 0 0 178 174 0 0 0 163 0 0 0 0 107 107 0 0 0 0 0 0 0 0 0 0 80 80 0 0 0 0 497 504 507 518 514 521 511 521 514 0 0 514 514 511 504 500 493 493 487 0 0 219 217 215 214 484 484 0 0 0 0 0 0 0 0 0 0 0 0 0 0 0 0 0 0 0 0 0 0 0 500 251 518 504 507 511 511 518 518 518 518 504 514 514 497 493 493 493 490 507 507 500 500 0 0 0 0 0 389 387 383 385 383 373 383 387 383 381 387 387 387 387 393 389 389 0 391 379 0 0 0 362 362 362 353 342 343 342 340 340 334 330 325 324 324 324 321 322 321 321 318 317 319 319 318 315 313 315 315 321 330 322 325 330 334 336 334 324 321 319 0 462 446 438 435 435 430 427 420 406 397 387 387 383 377 377 381 385 383 389 393 0 0 0 0 0 0 0 0 0 471 457 459 454 459 454 446 454 454 448 440 430 430 406 402 402 402 399 399 399 0 0 0 0 0
    0 0 0 0 0 0 0 0 0 0 0 0 0 0 0 0 0 0 0 0 0 0 0 0 0 0 0 0 0 0 0 0 0 0 0 0 0 0 0 0 0 0 0 0 0 0 0 0 0 0 0 0 0 0 0 0 0 0 0 0 0 0 0 0 0 0 0 0 0 529 0 518 518 0 0 0 0 251 251 250 252 0 0 0 0 525 529 0 0 0 0 0 0 0 0 0 0 0 0 0 0 0 0 0 0 0 0 0 0 0 0 0 0 0 0 0 0 0 0 0 0 0 0 0 0 0 0 0 0 0 0 0 0 80 0 0 0 0 0 0 0 0 0 0 0 221 221 219 0 0 0 0 0 0 0 0 0 0 0 0 0 0 0 0 0 0 0 0 0 0 0 0 0 0 0 0 0 0 0 0 0 0 0 514 0 0 0 0 0 0 0 0 0 0 0 490 493 0 0 0 0 0 0 389 387 385 387 385 373 385 389 381 379 385 385 385 385 391 383 381 385 385 371 369 369 366 357 359 360 352 343 343 340 337 337 330 327 322 322 322 322 319 321 319 319 317 315 317 315 315 313 311 314 315 318 322 318 319 321 328 336 334 324 319 315 318 0 0 0 418 422 418 408 406 397 371 371 373 377 373 375 375 375 377 385 389 387 381 0 0 0 0 0 0 0 0 0 0 0 465 451 0 0 0 0 0 0 0 402 395 395 399 399 395 397 0 0 0 0 0
    0 0 0 0 0 0 0 0 0 0 0 0 0 0 0 0 0 0 0 0 0 0 0 0 0 0 0 0 0 0 0 0 0 0 0 0 0 0 0 0 0 0 0 0 0 0 0 0 0 0 0 0 0 0 0 0 0 0 0 0 0 0 0 0 0 0 0 0 0 0 0 0 0 0 0 0 0 0 0 0 0 0 0 0 0 0 0 0 0 0 0 0 0 0 0 0 0 0 0 0 0 0 0 0 0 0 0 0 0 0 0 0 0 0 0 0 0 0 0 0 0 0 0 0 0 0 0 0 0 0 0 0 0 0 0 0 0 0 0 0 0 0 0 0 0 0 0 0 0 0 0 0 0 0 0 0 0 0 0 0 0 0 0 0 0 0 0 0 0 0 0 0 0 0 0 0 0 0 0 0 0 0 0 0 0 0 0 0 0 0 0 0 0 0 0 0 0 0 0 0 0 0 0 389 389 391 389 387 375 385 391 383 379 385 385 385 383 391 379 377 379 379 367 366 364 362 352 353 355 350 343 343 337 336 333 322 322 319 319 319 319 318 318 317 318 314 313 314 313 311 310 309 314 314 317 319 317 315 317 321 333 322 318 317 314 321 321 318 0 0 0 0 0 0 0 0 0 375 379 375 375 373 369 371 375 381 373 0 0 0 0 0 0 0 570 0 0 0 549 504 0 0 0 0 0 0 0 430 399 395 395 402 399 397 397 0 0 0 0 0
    0 0 0 0 0 0 0 0 0 0 0 0 0 0 0 0 0 0 0 0 0 0 0 0 0 0 0 0 0 0 0 0 0 0 0 0 0 0 0 0 0 0 0 0 0 0 0 0 0 0 0 0 0 0 0 0 0 0 0 0 0 0 0 0 0 0 0 0 0 0 0 0 0 0 0 0 0 0 0 0 0 0 0 0 0 0 0 0 0 0 0 0 0 0 0 0 0 0 0 0 0 0 0 0 0 0 0 0 0 0 0 0 0 0 0 0 0 0 0 0 0 0 0 0 0 0 0 0 0 0 0 0 0 0 0 0 0 0 0 0 0 0 0 0 0 0 0 0 0 0 0 0 0 0 0 0 0 0 0 0 0 0 0 0 0 0 0 0 0 0 0 0 0 272 269 272 272 273 273 273 273 273 270 0 0 0 0 0 0 0 0 0 0 0 277 279 279 280 280 283 283 280 0 0 0 404 395 391 377 387 393 385 381 385 385 385 385 389 381 377 379 379 367 366 362 359 353 353 355 350 0 0 0 0 0 313 318 317 318 318 318 318 317 315 317 311 309 310 309 306 305 305 313 315 318 321 317 317 318 319 328 318 314 313 311 317 317 314 306 300 297 0 306 301 296 0 0 0 389 379 377 375 371 371 377 377 0 0 292 0 0 0 0 0 0 584 557 0 0 514 0 0 0 0 0 0 0 399 397 395 393 404 402 397 397 0 0 0 0 0
    0 0 0 0 0 0 0 0 0 0 0 0 0 0 0 0 0 0 0 0 0 0 0 0 0 0 0 0 0 0 0 0 0 0 0 0 0 0 0 0 0 0 0 0 0 0 0 0 0 0 0 0 0 0 0 0 0 0 0 0 0 0 0 0 0 0 0 0 0 0 0 0 0 0 0 0 0 1672 1711 111 111 0 274 275 274 274 275 276 278 0 0 0 0 0 0 0 0 0 0 0 0 0 0 0 0 0 0 0 0 0 0 0 0 0 0 0 0 0 0 0 0 0 0 0 0 0 0 0 0 0 0 0 0 0 0 0 0 0 0 0 0 0 0 271 273 271 273 272 271 272 271 271 270 0 0 0 0 0 0 0 0 0 0 0 0 270 271 0 0 0 265 268 0 271 270 272 272 272 273 0 0 273 268 273 0 135 135 0 0 275 275 0 0 278 276 278 278 279 279 281 281 279 281 283 287 292 288 287 286 0 395 387 383 387 385 385 385 389 383 379 379 381 371 367 362 359 355 355 359 0 0 289 292 290 292 293 0 313 317 318 317 318 317 313 314 307 300 304 301 300 300 300 313 314 318 321 317 317 317 319 327 318 313 311 309 0 0 307 297 294 290 284 293 292 289 287 286 285 0 387 377 375 369 0 0 0 0 294 289 288 290 290 0 0 0 579 557 0 0 507 0 0 0 0 0 0 0 0 395 395 0 0 402 397 397 0 0 0 0 0
    0 0 0 0 0 0 0 0 0 0 0 0 0 0 0 0 0 0 0 0 0 0 0 0 0 0 0 0 0 0 0 0 0 0 0 0 0 0 0 0 0 0 0 0 0 0 0 0 0 0 0 0 0 0 0 0 0 0 0 0 0 0 0 0 0 0 0 0 0 0 0 0 0 0 274 0 0 0 0 0 0 0 275 275 274 273 275 275 277 277 279 280 281 279 280 277 277 275 0 0 0 0 0 0 0 0 0 0 0 0 0 0 0 0 0 0 0 0 0 0 0 0 549 529 0 0 0 0 0 0 0 0 0 0 0 0 0 268 266 270 272 272 273 274 275 273 274 273 272 272 272 272 271 271 273 272 0 275 275 276 276 276 274 274 275 271 271 270 270 269 266 0 0 271 270 272 271 271 272 0 272 271 269 273 272 274 273 274 275 276 277 278 279 279 277 279 278 279 279 280 280 278 280 281 285 288 284 284 283 284 286 0 0 389 385 385 385 389 385 381 381 379 366 364 357 355 0 0 0 289 286 284 285 286 287 290 0 0 0 318 317 318 314 304 304 299 294 297 296 296 297 295 315 315 318 321 317 317 317 319 324 317 304 304 302 0 0 0 290 284 281 278 284 284 281 281 280 280 279 280 292 0 0 0 0 281 290 290 288 287 288 287 287 0 0 0 0 0 553 518 0 0 0 0 0 0 0 0 0 0 0 0 404 402 399 0 0 0 0 0
    0 0 0 0 0 0 0 0 0 0 0 0 0 0 0 0 0 0 0 0 0 0 0 0 0 0 0 0 0 0 0 0 0 0 0 0 0 0 0 0 0 0 0 0 0 0 0 0 0 0 0 0 0 0 0 0 0 0 0 0 0 0 0 0 0 0 0 0 0 276 276 277 278 276 273 0 276 276 274 0 0 274 275 275 274 273 274 274 276 277 277 278 280 279 279 276 276 274 271 0 0 77 0 0 0 0 0 0 0 0 276 0 0 0 270 0 273 273 0 0 0 0 0 0 0 0 0 0 0 0 0 0 0 123 279 278 275 274 272 274 275 275 276 276 276 274 275 274 273 273 273 273 272 273 274 273 275 276 277 277 277 277 275 275 275 273 273 272 272 273 271 272 274 273 272 273 272 273 273 273 273 273 272 274 274 276 275 276 276 277 278 278 279 278 277 278 278 279 279 280 280 278 280 281 285 286 281 281 281 283 283 283 283 280 0 387 0 0 0 0 0 0 0 0 0 0 0 0 284 284 283 281 281 284 284 285 285 0 0 317 315 317 306 287 281 281 286 292 292 290 292 290 0 306 311 0 310 301 0 0 0 310 294 292 295 292 287 285 280 279 279 277 280 280 280 280 280 279 279 279 285 277 277 0 278 278 286 287 286 285 286 284 285 285 289 281 283 0 0 514 487 0 0 0 0 0 0 0 0 0 0 279 0 0 0 0 0 0 0 0
    0 0 0 0 0 0 0 0 0 0 0 0 0 0 0 0 0 0 0 0 0 0 0 0 0 0 0 0 0 0 0 0 0 0 0 0 0 0 0 0 0 0 0 0 0 0 0 0 0 0 0 0 0 0 0 0 0 0 0 0 0 0 0 0 0 0 0 0 0 275 276 276 277 276 273 276 276 276 274 274 274 274 275 275 274 273 274 274 275 277 277 278 280 279 279 277 277 275 273 0 77 77 0 0 0 0 0 0 0 277 276 274 273 271 273 272 274 275 276 0 0 273 274 274 275 0 0 0 0 0 0 0 0 0 279 279 277 277 276 277 277 276 276 276 276 275 276 275 272 273 274 273 273 274 274 274 276 277 277 0 277 277 276 276 275 274 274 274 273 274 272 274 274 274 274 274 273 274 274 274 273 273 273 274 275 276 275 276 277 277 278 278 279 279 278 279 278 280 279 280 280 279 280 281 285 286 281 281 281 281 283 283 281 279 279 280 280 280 280 280 280 281 284 283 283 284 284 283 283 283 281 280 281 283 283 283 283 281 278 0 0 276 276 276 277 277 280 284 285 285 286 284 288 293 295 292 286 287 284 286 293 293 288 284 287 286 280 279 277 278 278 277 279 279 279 279 279 279 279 279 283 277 277 278 280 278 285 285 285 284 284 284 284 284 286 280 280 279 284 0 0 0 0 0 0 0 0 0 279 279 279 278 0 0 0 0 0 0 0 0
    0 0 0 0 0 0 0 0 0 0 0 0 0 0 0 0 0 0 0 0 0 0 0 0 0 0 0 0 0 0 0 0 0 0 0 0 0 0 0 0 0 0 0 0 0 0 0 0 0 0 0 0 0 0 0 0 0 0 0 0 0 0 0 0 0 0 0 0 0 274 275 275 276 275 273 276 275 275 274 274 274 274 274 275 274 274 274 274 276 277 278 279 280 279 279 278 278 276 275 276 0 0 0 0 0 0 0 276 275 277 276 273 273 271 275 274 276 276 0 0 276 273 274 274 275 276 276 0 0 0 0 0 0 0 278 279 277 277 277 278 278 277 277 277 277 275 276 275 272 273 274 273 273 274 275 275 276 277 278 278 277 277 276 276 276 274 275 275 274 275 273 275 275 275 274 274 274 275 274 275 274 275 274 275 275 277 276 277 277 278 278 278 279 279 279 279 279 280 280 280 281 280 281 281 285 285 281 281 281 281 281 281 281 279 279 0 279 279 279 279 280 280 283 281 281 283 283 281 281 280 280 280 281 283 283 283 283 281 279 277 277 276 276 275 276 277 279 280 280 281 281 280 283 284 286 283 279 280 279 281 283 284 281 280 279 280 277 277 276 277 277 276 279 279 279 280 280 280 279 279 284 278 278 281 281 278 284 284 284 283 284 283 284 283 285 280 280 280 284 284 284 284 284 284 284 284 281 279 279 279 279 278 279 278 278 0 0 0 0 0
    0 0 0 0 0 0 0 0 0 0 0 0 0 0 0 0 0 0 0 0 0 0 0 0 0 0 0 0 0 0 0 0 0 0 0 0 0 0 0 0 0 0 0 0 0 0 0 0 0 0 0 0 0 0 0 0 0 0 0 0 0 0 0 0 0 0 0 0 0 274 275 275 275 274 273 275 275 275 274 274 274 274 275 275 275 275 275 275 276 278 278 279 281 280 279 278 278 277 276 277 274 0 0 0 0 276 275 275 274 275 274 271 272 272 275 275 277 277 0 0 276 274 275 275 275 276 275 0 0 0 0 0 0 0 278 278 277 277 277 277 277 276 277 277 276 275 276 275 272 273 274 274 274 275 275 275 276 278 279 279 278 278 277 277 276 275 276 275 274 275 273 275 275 275 274 275 274 275 275 276 275 275 275 276 276 277 277 277 277 278 278 278 280 279 279 279 279 280 280 280 281 280 280 281 284 285 281 281 280 280 281 281 281 279 279 0 0 279 279 279 280 280 281 280 280 281 280 279 279 279 278 279 280 281 281 281 281 280 278 277 276 274 275 275 276 277 278 279 279 279 279 279 279 280 279 279 277 279 277 278 278 279 278 278 277 277 275 276 275 276 276 275 278 279 278 279 280 279 279 279 284 279 279 281 284 279 283 283 283 281 283 281 283 281 283 279 280 279 284 283 284 283 284 284 285 285 281 280 279 279 279 278 278 278 278 0 0 0 0 0
    0 0 0 0 0 0 0 0 0 0 0 0 0 0 0 0 0 0 0 0 0 0 0 0 0 0 0 0 0 0 0 0 0 0 0 0 0 0 0 0 0 0 0 0 0 0 0 0 0 0 0 0 0 0 0 0 0 0 0 0 0 0 0 0 0 0 0 0 0 274 275 275 275 274 274 275 275 275 274 274 274 275 275 276 275 275 275 275 276 278 277 279 280 279 279 278 278 277 276 277 274 274 276 276 276 276 275 275 273 275 274 271 271 272 274 275 276 276 0 0 276 274 275 275 275 276 276 0 276 0 0 0 0 0 277 277 277 277 277 277 277 276 276 276 277 275 276 275 273 274 274 275 275 275 276 276 277 278 279 280 278 278 277 277 277 276 276 276 274 275 273 275 275 275 274 275 275 275 275 276 276 276 276 276 276 277 277 277 277 278 278 278 279 279 279 279 279 280 279 280 280 280 280 280 284 284 281 280 280 280 281 281 280 279 279 0 279 279 279 279 280 280 281 280 280 280 280 278 278 278 277 278 279 280 280 280 281 279 278 278 276 275 275 275 277 277 279 279 279 279 279 279 279 280 279 279 278 278 277 278 278 278 277 277 276 276 275 276 276 276 277 275 278 278 278 278 279 278 278 278 283 278 279 281 283 279 283 281 281 280 281 281 281 281 281 279 279 279 281 281 283 281 284 285 285 285 283 280 280 279 279 278 278 278 277 0 0 0 0 0
    0 0 0 0 0 0 0 0 0 0 0 0 0 0 0 0 0 0 0 0 0 0 0 0 0 0 0 0 0 0 0 0 0 0 0 0 0 0 0 0 0 0 0 0 0 0 0 0 0 0 0 0 0 0 0 0 0 0 0 0 0 0 0 0 0 0 0 0 0 275 275 275 275 275 274 275 275 275 275 275 275 276 275 276 276 276 276 275 276 277 277 278 279 278 278 277 277 277 276 277 274 274 276 276 276 276 275 275 274 276 274 272 273 273 274 275 277 277 0 0 277 275 276 276 276 277 276 0 277 277 0 278 277 277 277 277 277 277 277 277 277 276 277 277 277 276 276 276 274 275 275 276 276 276 277 277 277 279 279 280 279 278 278 278 278 276 277 276 274 275 274 275 276 276 275 275 275 276 276 276 276 276 276 277 277 278 277 278 277 278 278 278 279 279 279 279 279 280 279 279 280 280 279 280 283 284 281 280 280 280 280 280 280 278 279 279 279 279 279 279 280 280 280 280 279 280 279 278 278 277 276 278 279 280 279 279 280 279 278 278 277 275 276 275 278 278 279 279 279 279 279 279 280 280 279 279 277 278 277 277 277 277 276 276 275 276 274 276 276 276 277 275 278 278 278 278 279 278 278 279 283 279 280 281 283 279 281 280 280 279 280 280 281 280 279 278 279 278 280 280 281 280 283 284 284 284 283 281 280 280 280 278 278 278 277 0 0 0 0 0
    0 0 0 0 0 0 0 0 0 0 0 0 0 0 0 0 0 0 0 0 0 0 0 0 0 0 0 0 0 0 0 0 0 0 0 0 0 0 0 0 0 0 0 0 0 0 0 0 0 0 0 0 0 0 0 0 0 0 0 0 0 0 0 0 0 0 0 0 0 275 276 275 275 275 274 275 275 275 275 274 275 276 276 276 276 276 276 275 276 277 276 277 278 277 277 276 277 277 276 276 274 274 275 275 276 276 275 275 274 276 275 274 275 275 276 276 277 278 277 0 277 276 276 277 276 277 277 278 277 277 0 278 277 278 277 278 277 277 277 277 277 277 278 277 277 277 277 276 275 276 276 277 277 277 278 278 279 279 280 281 279 279 278 278 278 277 278 277 275 276 275 276 276 276 275 276 275 276 276 277 276 277 276 277 277 278 277 278 278 278 278 278 279 279 279 279 279 279 279 279 280 280 279 279 281 281 280 279 280 280 280 280 279 278 278 278 279 278 279 279 279 280 280 279 279 279 279 278 277 277 276 277 279 279 279 278 279 279 278 278 278 275 277 276 278 278 279 280 279 279 279 279 280 280 279 279 277 278 277 277 277 276 276 275 275 275 274 276 275 276 276 275 277 278 278 279 279 279 279 279 284 280 281 283 284 280 281 280 280 279 279 279 280 279 279 278 279 278 280 280 280 280 283 283 284 284 283 281 281 280 280 279 279 278 277 0 0 0 0 0
    0 0 0 0 0 0 0 0 0 0 0 0 0 0 0 0 0 0 0 0 0 0 0 0 0 0 0 0 0 0 0 0 0 0 0 0 0 0 0 0 0 0 0 0 0 0 0 0 0 0 0 0 0 0 0 0 0 0 0 0 0 0 0 0 0 0 0 0 0 275 276 275 275 275 275 275 275 275 275 275 275 276 276 277 276 277 276 276 276 277 276 277 277 276 276 276 276 277 275 276 274 274 275 275 276 276 275 276 275 277 278 278 278 277 277 277 278 278 277 279 278 276 277 277 277 277 277 278 277 277 0 279 278 279 278 279 278 278 279 278 278 278 278 278 278 278 278 277 277 277 277 279 279 279 279 279 279 280 280 283 279 279 279 279 279 279 280 278 277 277 277 278 277 277 276 276 276 277 276 277 276 277 276 278 277 278 278 278 278 278 278 279 279 279 280 279 279 279 279 279 279 280 278 279 280 280 280 279 279 279 279 279 279 277 278 278 278 278 278 278 279 279 279 279 279 279 279 278 277 277 277 278 279 279 279 278 279 279 278 278 278 277 278 277 278 278 279 279 279 279 279 279 279 279 279 279 278 278 278 278 278 277 276 276 275 276 274 276 275 275 276 275 278 278 278 279 279 280 279 280 285 283 285 285 285 281 283 281 280 279 280 279 280 279 279 279 279 279 280 280 279 279 281 283 284 284 283 280 281 281 281 279 279 278 277 0 0 0 0 0
    0 0 0 0 0 0 0 0 0 0 0 0 0 0 0 0 0 0 0 0 0 0 0 0 0 0 0 0 0 0 0 0 0 0 0 0 0 0 0 0 0 0 0 0 0 0 0 0 0 0 0 0 0 0 0 0 0 0 0 0 0 0 0 0 0 0 0 0 0 275 276 275 275 275 276 275 275 276 276 275 276 277 277 278 278 278 277 277 276 278 276 277 277 276 276 275 276 276 275 275 273 274 275 275 276 276 275 276 276 277 278 278 278 277 0 278 278 0 0 279 278 277 277 278 277 278 278 278 277 277 278 279 278 279 278 279 279 279 280 279 279 278 278 278 278 278 278 278 277 277 277 280 280 279 279 279 280 280 281 284 279 279 279 279 279 279 281 278 277 278 277 278 277 277 276 277 276 277 277 277 277 278 277 278 277 278 278 278 278 278 278 279 278 279 280 279 279 279 279 279 279 279 278 278 280 280 280 279 279 279 279 279 278 277 277 278 278 277 278 278 279 279 279 279 278 279 279 277 277 277 277 278 279 279 279 278 279 279 278 279 279 277 278 277 278 279 279 279 278 278 278 279 279 279 279 279 278 279 278 278 278 277 277 277 276 276 275 276 276 276 277 276 278 279 279 280 280 280 280 281 287 283 286 285 285 283 283 281 281 279 280 280 280 279 279 279 280 280 281 280 280 279 281 284 284 284 281 280 280 281 281 280 279 279 278 0 0 0 0 0
    0 0 0 0 0 0 0 0 0 0 0 0 0 0 0 0 0 0 0 0 0 0 0 0 0 0 0 0 0 0 0 0 0 0 0 0 0 0 0 0 0 0 0 0 0 0 0 0 0 0 0 0 0 0 0 0 0 0 0 0 0 0 0 0 0 0 0 0 0 276 276 275 275 276 276 276 276 276 276 276 276 278 278 278 278 279 278 277 277 278 276 277 277 276 276 275 276 276 275 276 273 273 275 275 276 275 275 276 275 277 277 277 277 277 277 278 278 0 0 279 278 278 278 278 278 278 278 279 277 277 278 278 278 279 278 280 279 279 280 279 279 278 278 278 278 278 278 277 278 277 277 280 280 279 279 279 281 280 281 284 279 279 279 280 279 279 283 278 277 278 277 278 277 277 276 277 276 277 277 278 277 278 277 278 277 278 278 278 278 278 278 279 279 280 280 279 279 279 279 279 279 280 278 278 280 280 280 278 279 279 279 279 278 277 277 278 278 277 278 278 279 279 279 279 278 279 278 277 277 277 277 278 279 278 279 278 279 279 278 279 279 278 278 278 279 279 279 279 278 278 278 279 279 279 279 280 278 279 278 279 278 277 277 277 276 277 276 277 277 277 277 276 279 279 279 280 280 280 280 281 287 283 285 284 284 283 283 281 281 280 281 280 281 281 281 281 281 283 283 281 283 280 283 283 284 283 280 279 280 280 280 279 279 278 278 0 0 0 0 0
    0 0 0 0 0 0 0 0 0 0 0 0 0 0 0 0 0 0 0 0 0 0 0 0 0 0 0 0 0 0 0 0 0 0 0 0 0 0 0 0 0 0 0 0 0 0 0 0 0 0 0 0 0 0 0 0 0 0 0 0 0 0 0 0 0 0 0 0 0 276 276 276 276 276 276 276 276 276 276 276 277 279 279 278 279 279 278 277 276 277 275 276 276 275 0 275 276 276 275 276 273 273 275 275 276 275 275 276 276 277 277 276 277 276 276 277 278 278 277 279 278 278 278 278 277 278 278 279 277 278 278 278 278 279 277 279 278 279 280 278 278 278 278 279 278 278 278 277 278 278 278 280 280 280 280 280 283 280 281 285 279 279 279 280 280 280 284 279 278 278 278 278 278 278 277 277 277 278 277 278 278 279 277 279 277 278 278 278 279 278 278 280 279 280 281 279 279 278 279 279 279 279 278 278 280 280 280 278 279 278 279 278 278 277 278 278 279 277 278 278 279 279 279 279 278 279 279 277 277 278 278 279 279 278 279 278 279 279 279 279 279 278 279 279 279 280 279 279 278 278 278 279 279 280 280 280 279 280 279 279 277 276 276 277 276 277 276 278 277 277 278 276 279 279 279 280 280 280 280 281 287 283 284 284 284 283 281 281 283 280 281 281 283 283 283 284 284 285 284 283 284 281 283 283 283 281 280 279 279 279 280 279 279 278 277 0 0 0 0 0
    0 0 0 0 0 0 0 0 0 0 0 0 0 0 0 0 0 0 0 0 0 0 0 0 0 0 0 0 0 0 0 0 0 0 0 0 0 0 0 0 0 0 0 0 0 0 0 0 0 0 0 0 0 0 0 0 0 0 0 0 0 0 0 0 0 0 0 0 0 277 277 276 276 276 277 277 276 277 277 277 277 280 279 279 279 279 278 277 276 277 275 276 276 0 0 275 275 276 275 275 273 274 275 275 276 276 276 276 276 277 278 277 277 275 276 276 278 277 277 278 278 278 278 278 277 278 278 279 277 278 278 278 277 278 277 278 277 278 279 278 278 278 278 279 278 278 278 276 279 279 278 281 281 280 280 280 283 280 281 285 279 279 280 280 281 281 284 280 279 279 279 279 278 278 277 278 278 279 278 278 279 279 277 279 278 278 279 279 279 279 279 280 279 280 280 279 279 278 278 278 279 279 277 277 278 279 279 277 279 278 279 278 278 277 278 278 280 278 278 278 279 279 279 279 278 279 279 277 278 278 278 279 278 277 278 277 278 278 279 279 279 279 279 279 280 280 280 279 278 279 279 280 280 281 280 281 280 281 280 280 278 276 276 277 276 277 276 278 278 277 278 276 279 279 279 279 279 279 279 280 287 281 284 284 283 283 281 283 283 281 283 281 283 283 283 284 284 285 285 283 285 281 284 284 283 281 280 279 280 280 280 280 280 279 278 0 0 0 0 0
    0 0 0 0 0 0 0 0 0 0 0 0 0 0 0 0 0 0 0 0 0 0 0 0 0 0 0 0 0 0 0 0 0 0 0 0 0 0 0 0 0 0 0 0 0 0 0 0 0 0 0 0 0 0 0 0 0 0 0 0 0 0 0 0 0 0 0 0 0 277 277 276 276 276 277 277 277 277 277 277 277 279 279 279 278 278 277 277 275 277 275 275 275 274 275 275 275 276 274 275 273 273 275 275 276 276 277 277 278 280 280 278 277 276 276 276 277 276 276 278 277 278 278 279 278 279 278 279 278 278 0 0 277 278 276 279 278 278 279 279 279 278 279 279 278 278 278 276 279 278 278 281 281 280 280 280 284 280 281 286 279 279 280 281 281 283 284 280 279 280 279 279 279 279 278 278 278 279 278 278 278 279 276 278 277 278 279 279 279 279 279 281 279 280 281 279 280 278 279 278 279 279 277 277 279 279 280 277 279 279 279 278 278 278 278 278 280 277 278 278 279 279 279 279 279 279 279 278 278 278 278 279 278 277 277 276 277 277 278 279 279 279 279 280 280 281 280 280 279 280 279 280 280 281 281 283 281 281 280 281 279 277 276 277 277 278 277 278 278 277 278 276 279 279 278 279 279 279 279 280 288 281 283 284 283 283 283 283 283 283 284 283 285 284 285 286 286 287 285 284 286 281 284 283 281 280 279 279 279 279 280 280 280 279 279 0 0 0 0 0
    0 0 0 0 0 0 0 0 0 0 0 0 0 0 0 0 0 0 0 0 0 0 0 0 0 0 0 0 0 0 0 0 0 0 0 0 0 0 0 0 0 0 0 0 0 0 0 0 0 0 0 0 0 0 0 0 0 0 0 0 0 0 0 0 0 0 0 0 0 277 277 276 276 276 276 277 277 277 277 277 277 279 279 279 278 277 276 277 275 276 275 275 275 274 275 275 275 276 274 275 273 273 274 274 275 276 277 277 280 281 283 279 278 277 276 276 277 277 277 278 278 278 278 279 278 279 278 279 278 279 0 0 0 278 276 280 278 279 280 279 279 278 279 280 278 278 278 275 278 278 278 280 280 280 280 280 283 280 281 286 279 279 280 281 281 283 284 280 280 280 279 279 279 279 278 278 279 279 278 278 278 279 276 278 277 277 278 279 279 279 279 281 279 281 281 279 280 279 279 279 280 279 278 277 278 278 279 276 279 0 279 278 278 278 278 279 280 278 279 279 279 279 280 280 279 280 280 279 279 279 280 280 279 278 278 277 277 277 278 279 278 279 279 280 280 281 280 280 279 280 280 281 281 281 281 283 281 281 280 281 279 277 277 278 277 278 277 278 277 277 278 276 279 279 278 279 279 280 280 281 288 283 283 285 283 283 283 283 283 283 284 283 285 285 286 287 286 287 285 284 286 281 283 280 280 279 279 279 279 279 279 280 280 278 279 0 0 0 0 0
    0 0 0 0 0 0 0 0 0 0 0 0 0 0 0 0 0 0 0 0 0 0 0 0 0 0 0 0 0 0 0 0 0 0 0 0 0 0 0 0 0 0 0 0 0 0 0 0 0 0 0 0 0 0 0 0 0 0 0 0 0 0 0 0 0 0 0 0 0 277 276 275 275 275 275 276 276 276 276 276 277 278 279 279 278 277 275 277 274 276 274 275 275 274 275 275 275 276 275 275 274 273 274 274 275 276 276 277 279 279 281 278 278 277 277 277 278 277 278 279 278 278 278 279 278 279 278 279 278 279 0 0 278 279 277 280 279 280 281 280 279 278 278 279 277 277 277 274 277 277 277 280 280 279 280 280 283 280 281 286 279 280 280 280 280 281 283 280 279 279 279 279 278 278 278 278 279 279 278 278 279 279 276 278 277 277 278 279 279 279 279 281 280 281 281 280 281 279 279 278 279 278 277 277 277 277 278 275 0 0 279 279 279 278 278 279 281 279 279 280 280 280 280 281 280 281 281 280 280 280 281 281 279 279 278 277 277 278 278 279 278 279 279 281 280 281 280 280 279 280 279 281 280 281 281 283 281 283 280 281 279 278 277 279 278 279 278 278 277 277 278 276 279 279 278 279 279 280 280 281 288 283 283 285 283 283 283 283 283 283 285 284 286 285 286 287 286 286 285 284 286 283 284 283 283 279 279 278 279 279 279 279 279 278 278 0 0 0 0 0
    0 0 0 0 0 0 0 0 0 0 0 0 0 0 0 0 0 0 0 0 0 0 0 0 0 0 0 0 0 0 0 0 0 0 0 0 0 0 0 0 0 0 0 0 0 0 0 0 0 0 0 0 0 0 0 0 0 0 0 0 0 0 0 0 0 0 0 0 0 276 275 275 275 275 275 276 276 276 276 277 277 278 279 279 278 277 275 277 275 276 274 275 275 275 275 276 275 276 275 276 275 275 276 275 275 276 276 276 278 278 279 277 277 277 277 277 277 276 277 278 277 278 278 278 277 278 278 278 277 279 0 0 278 279 277 281 280 283 283 281 279 277 278 278 277 276 276 273 276 276 277 279 279 279 279 280 283 280 281 287 279 280 280 280 280 281 281 279 279 279 278 278 278 278 278 278 279 279 278 278 279 279 276 277 277 277 278 278 279 279 280 281 280 283 283 280 283 279 279 278 279 278 277 277 277 278 278 276 279 0 279 280 279 279 279 280 281 279 280 280 280 280 280 283 281 281 281 281 281 281 281 281 279 279 278 277 277 278 278 279 278 278 279 281 280 281 280 279 279 280 280 280 280 281 281 283 281 283 281 283 280 279 278 279 279 280 279 279 277 278 278 276 279 279 278 279 279 280 280 281 288 281 281 284 283 281 283 283 283 283 285 285 286 286 286 287 287 287 285 284 285 283 284 284 283 279 278 277 279 278 279 279 279 278 278 0 0 0 0 0
    0 0 0 0 0 0 0 0 0 0 0 0 0 0 0 0 0 0 0 0 0 0 0 0 0 0 0 0 0 0 0 0 0 0 0 0 0 0 0 0 0 0 0 0 0 0 0 0 0 0 0 0 0 0 0 0 0 0 0 0 0 0 0 0 0 0 0 0 0 276 275 275 275 276 275 276 277 277 277 277 277 278 279 280 279 277 276 277 275 276 274 275 275 275 275 276 275 277 276 277 277 276 276 275 275 275 275 275 277 276 277 275 275 275 275 276 276 275 276 278 276 277 278 278 276 278 277 278 277 0 0 0 0 279 278 283 281 284 284 284 280 276 277 278 276 275 275 272 275 276 276 279 279 278 279 279 283 280 281 287 280 280 281 280 280 281 281 280 279 279 278 278 277 277 278 278 278 279 278 278 279 279 276 277 277 277 278 278 279 279 280 283 281 283 283 281 284 280 280 279 280 278 277 278 277 278 278 277 279 279 280 280 280 279 279 280 281 280 280 280 280 280 280 283 280 281 281 280 281 281 280 281 279 279 278 277 277 277 278 278 277 278 279 0 280 281 279 279 279 280 280 281 280 281 281 283 281 283 280 281 279 278 278 279 278 280 279 279 278 278 278 276 279 279 278 279 279 279 280 281 287 281 281 283 280 281 281 281 281 281 285 286 286 287 287 287 287 286 285 284 284 283 283 283 281 278 278 277 279 278 279 279 279 278 278 0 0 0 0 0
    0 0 0 0 0 0 0 0 0 0 0 0 0 0 0 0 0 0 0 0 0 0 0 0 0 0 0 0 0 0 0 0 0 0 0 0 0 0 0 0 0 0 0 0 0 0 0 0 0 0 0 0 0 0 0 0 0 0 0 0 0 0 0 0 0 0 0 0 0 276 276 276 275 276 275 276 277 276 276 277 277 278 278 280 278 277 275 277 274 276 274 275 275 275 275 276 276 278 277 280 278 277 277 276 276 275 274 273 276 274 275 274 274 273 274 274 275 274 274 277 275 276 277 277 276 277 277 277 0 0 0 0 0 280 278 283 281 283 284 284 280 275 277 278 276 275 275 272 275 276 276 278 278 278 279 279 281 280 281 287 280 281 281 281 280 280 280 280 279 279 278 278 277 277 278 278 278 278 277 278 279 279 277 277 277 277 278 278 279 279 279 281 281 283 283 283 286 281 281 279 280 278 278 278 277 277 278 277 279 279 279 280 280 280 279 280 281 279 279 280 280 280 280 281 280 280 281 280 281 281 280 281 279 278 278 276 276 277 278 278 0 0 278 0 280 283 279 279 279 280 280 281 281 281 281 283 281 283 280 281 279 278 277 278 278 279 279 279 278 278 278 276 279 279 278 278 278 279 280 281 287 281 280 283 280 281 281 281 281 281 285 287 287 288 287 288 287 286 284 283 284 281 281 281 280 278 278 278 280 278 279 279 279 278 279 0 0 0 0 0
    0 0 0 0 0 0 0 0 0 0 0 0 0 0 0 0 0 0 0 0 0 0 0 0 0 0 0 0 0 0 0 0 0 0 0 0 0 0 0 0 0 0 0 0 0 0 0 0 0 0 0 0 0 0 0 0 0 0 0 0 0 0 0 0 0 0 0 0 0 276 276 276 276 276 274 276 277 276 276 276 276 278 278 280 277 276 274 276 274 276 274 274 275 275 276 276 276 279 278 283 280 277 279 277 276 275 274 273 276 276 276 275 275 274 275 274 275 274 274 276 275 276 276 277 276 277 276 277 0 0 0 0 0 279 278 280 281 283 284 284 280 275 278 279 277 276 276 273 276 276 277 278 278 278 278 279 281 280 281 287 281 281 281 281 280 280 280 280 279 279 278 278 277 278 278 278 279 279 278 279 280 279 278 278 277 277 278 278 278 278 279 281 280 283 283 283 286 284 283 279 280 278 278 278 277 277 277 277 279 279 279 280 281 280 279 281 281 279 279 280 280 280 280 281 280 281 281 281 281 281 280 281 279 278 277 275 276 277 0 0 0 0 279 281 280 283 279 280 279 280 280 281 281 281 281 284 283 283 280 283 280 278 277 278 278 279 279 279 277 278 278 276 279 279 278 279 279 279 280 281 287 281 281 283 281 283 283 283 281 283 285 287 286 288 286 287 286 284 284 283 283 280 280 280 278 277 279 278 280 279 280 280 280 279 280 0 0 0 0 0
    0 0 0 0 0 0 0 0 0 0 0 0 0 0 0 0 0 0 0 0 0 0 0 0 0 0 0 0 0 0 0 0 0 0 0 0 0 0 0 0 0 0 0 0 0 0 0 0 0 0 0 0 0 0 0 0 0 0 0 0 0 0 0 0 0 0 0 0 0 276 276 276 276 276 274 276 277 276 276 276 276 277 277 281 277 276 275 277 274 276 274 275 275 275 276 277 276 280 279 284 283 278 279 277 276 275 273 273 275 276 277 277 277 275 275 275 275 275 275 277 276 276 277 277 276 277 276 277 0 277 0 277 277 278 277 280 280 281 284 284 280 274 279 279 278 277 277 275 276 276 277 278 278 278 278 279 280 280 281 287 281 281 283 281 280 280 279 279 278 279 277 276 277 277 278 279 279 279 278 280 280 280 278 277 277 276 277 277 278 278 279 280 280 281 283 283 286 285 284 280 279 278 278 278 277 277 277 277 279 279 279 280 281 280 280 281 281 280 280 280 280 280 280 281 280 281 281 281 281 280 280 281 279 277 276 276 276 277 0 0 0 0 279 283 281 283 279 280 279 280 280 281 281 281 281 284 283 283 281 283 281 280 279 280 279 279 279 279 278 278 278 277 279 279 279 279 279 280 280 283 287 283 283 284 283 284 285 284 284 285 287 287 286 288 286 287 286 284 284 281 281 279 279 279 276 276 278 278 281 279 280 280 280 280 281 0 0 0 0 0
    0 0 0 0 0 0 0 0 0 0 0 0 0 0 0 0 0 0 0 0 0 0 0 0 0 0 0 0 0 0 0 0 0 0 0 0 0 0 0 0 0 0 0 0 0 0 0 0 0 0 0 0 0 0 0 0 0 0 0 0 0 0 0 0 0 0 0 0 0 276 276 276 276 276 275 276 277 276 276 277 277 277 277 281 278 277 276 278 275 276 275 275 275 276 276 276 276 279 278 283 281 277 278 277 276 275 273 273 276 276 277 278 278 276 276 276 276 276 276 277 276 277 277 278 276 277 276 277 276 277 277 278 278 279 278 280 281 281 284 284 280 275 279 280 279 277 278 276 277 277 278 278 278 278 278 279 280 280 281 286 281 281 283 281 279 279 278 278 276 277 275 275 276 277 278 278 279 279 278 280 280 279 278 277 277 275 276 277 278 278 279 280 280 281 283 284 286 285 285 280 280 279 279 279 277 277 277 278 279 280 279 280 281 280 280 283 281 280 280 281 281 281 281 283 281 283 283 281 283 281 280 281 279 278 277 276 277 278 0 0 278 278 279 283 280 283 279 280 279 280 280 281 281 281 283 284 283 283 283 283 283 280 280 280 279 279 279 278 277 277 277 277 279 279 279 280 280 280 280 283 286 283 284 285 283 284 286 286 286 0 0 289 288 289 288 288 287 285 284 281 280 279 278 278 275 275 277 277 280 279 279 280 280 280 281 0 0 0 0 0</data></depth>
</opencv_storage>
