<?xml version="1.0"?>
<opencv_storage>
<gps_time_stamp>28131</gps_time_stamp>
<gps_x>-6.3086409568786621e+000</gps_x>
<gps_y>1.0120600461959839e+000</gps_y>
<gps_z>-1.8916664123535156e+000</gps_z>
<image_time_stamp>16067</image_time_stamp>
<depth type_id="opencv-matrix">
  <rows>91</rows>
  <cols>320</cols>
  <dt>s</dt>
  <data>
    0 0 0 0 0 0 0 0 0 0 0 0 0 0 0 0 0 0 0 0 0 0 0 0 0 0 0 0 0 0 0 0 0 0 0 0 0 0 0 0 0 0 0 0 0 0 0 0 0 0 0 0 0 0 0 0 0 0 0 0 0 0 0 0 0 0 0 0 0 817 808 817 808 817 808 817 826 817 817 0 0 0 817 826 817 799 808 808 799 808 791 799 799 817 808 817 826 791 836 836 0 0 0 0 836 0 886 845 845 836 826 826 826 836 817 808 799 791 799 799 817 808 817 817 817 817 826 826 826 826 845 836 836 855 0 0 836 836 836 836 826 799 826 826 836 826 826 826 826 826 855 836 836 836 836 845 855 865 865 855 865 876 855 845 836 836 826 826 826 826 826 826 836 845 845 855 865 865 865 865 855 845 826 836 808 826 826 826 826 826 826 826 826 845 826 826 826 817 817 817 826 836 836 845 845 836 836 845 836 845 836 836 826 836 836 855 855 855 855 855 855 845 817 826 817 817 817 817 817 799 808 826 817 817 817 808 808 799 808 808 817 817 808 808 808 799 817 817 808 808 808 799 808 808 799 791 791 791 774 791 808 799 799 817 808 799 808 808 799 799 799 799 791 808 808 808 808 817 817 826 817 826 808 799 782 799 791 782 758 766 750 766 782 791 774 743 721 0 0 0 0 545 545 545 545 545 541 545 541 541 553 541 541 0 0 0 0 0 0 0
    0 0 0 0 0 0 0 0 0 0 0 0 0 0 0 0 0 0 0 0 0 0 0 0 0 0 0 0 0 0 0 0 0 0 0 0 0 0 0 0 0 0 0 0 0 0 0 0 0 0 0 0 0 0 0 0 0 0 0 0 0 0 0 0 0 0 0 0 0 799 799 808 799 808 799 817 817 817 817 817 817 826 817 826 817 799 808 799 791 808 791 799 791 799 791 799 817 782 826 826 836 836 836 836 836 836 876 836 826 826 808 808 808 817 799 791 782 766 782 782 799 799 799 808 808 817 826 826 826 826 855 836 836 845 845 826 836 836 826 826 826 799 826 826 826 826 826 826 826 826 855 836 836 836 836 836 845 845 845 836 845 855 845 826 826 817 817 817 817 817 817 817 826 826 836 836 855 855 845 845 836 836 817 826 799 817 817 826 826 826 826 826 817 826 817 817 808 808 808 808 817 826 826 836 836 826 836 836 836 845 836 836 826 826 836 845 836 836 845 836 836 836 791 817 808 799 817 808 808 799 808 826 817 817 808 799 791 799 799 799 808 808 791 799 799 791 799 808 791 799 791 791 799 799 791 791 791 791 774 799 808 799 799 808 799 791 799 799 791 791 791 791 791 799 808 799 799 808 808 808 808 808 791 782 758 766 766 766 735 743 743 758 774 774 758 728 714 0 0 0 0 549 553 553 549 549 545 549 549 549 574 549 549 0 766 0 0 0 0 0
    0 0 0 0 0 0 0 0 0 0 0 0 0 0 0 0 0 0 0 0 0 0 0 0 0 0 0 0 0 0 0 0 0 0 0 0 0 0 0 0 0 0 0 0 0 0 0 0 0 0 0 0 0 0 0 0 0 0 0 0 0 0 0 0 0 0 0 0 0 799 799 799 791 799 799 808 817 817 817 817 817 826 817 826 817 791 791 782 782 791 774 791 766 782 782 791 808 774 817 817 826 836 836 826 826 826 855 826 826 817 799 799 799 808 791 782 766 750 766 766 791 791 791 808 799 808 817 817 826 817 845 836 836 855 845 836 826 836 826 817 817 791 817 817 826 817 817 817 826 826 836 826 836 826 826 826 836 836 836 826 836 836 826 817 817 817 808 808 808 808 808 808 817 817 826 826 836 845 826 836 826 826 808 808 791 799 808 817 817 817 817 817 808 826 817 817 808 799 799 808 817 817 817 826 826 826 836 836 836 836 836 836 826 826 826 826 826 826 826 817 817 826 774 808 799 799 808 808 808 799 808 826 808 808 808 799 791 791 799 791 799 799 782 799 791 782 782 791 774 782 774 782 791 791 782 791 791 791 774 808 808 808 808 808 791 791 791 799 791 782 782 782 782 791 799 791 791 799 799 799 799 808 799 782 758 758 750 758 735 743 735 758 774 766 750 721 707 639 0 0 584 553 557 557 553 553 553 557 553 553 588 553 553 735 743 0 0 0 0 0
    0 0 0 0 0 0 0 0 0 0 0 0 0 0 0 0 0 0 0 0 0 0 0 0 0 0 0 0 0 0 0 0 0 0 0 0 0 0 0 0 0 0 0 0 0 0 0 0 0 0 0 0 0 0 0 0 0 0 0 0 0 0 0 0 0 0 0 0 0 791 791 791 791 799 791 808 817 817 817 817 817 817 808 817 817 791 782 758 758 766 743 766 743 766 758 774 791 766 799 808 817 826 826 826 826 826 855 826 826 817 799 799 782 791 766 774 750 743 758 766 791 782 791 799 791 808 817 817 817 808 826 826 826 855 845 836 826 826 817 817 817 782 799 799 817 808 808 808 808 808 817 817 817 808 817 808 817 817 826 817 817 817 817 808 817 808 808 799 808 808 799 808 808 808 817 817 826 826 817 817 808 808 791 791 766 782 791 799 808 799 799 799 799 817 808 808 799 799 799 799 808 808 817 817 817 817 826 836 836 836 836 836 826 826 826 826 817 817 817 799 808 817 758 799 799 799 808 808 808 799 808 817 808 799 799 791 782 782 791 782 791 791 782 791 782 774 774 774 766 774 766 782 791 782 782 791 791 799 782 817 808 799 799 799 782 782 782 791 782 774 774 766 774 774 782 782 774 782 782 791 799 799 791 766 735 743 735 743 735 735 735 758 774 774 743 714 694 629 0 0 584 553 561 561 557 557 557 561 557 557 593 561 566 728 728 0 0 0 0 0
    0 0 0 0 0 0 0 0 0 0 0 0 0 0 0 0 0 0 0 0 0 0 0 0 0 0 0 0 0 0 0 0 0 0 0 0 0 0 0 0 0 0 0 0 0 0 0 0 0 0 0 0 0 0 0 0 0 0 0 0 0 0 0 0 0 0 0 0 0 774 774 774 774 782 782 791 808 808 808 817 808 808 799 808 799 758 743 735 735 728 721 750 735 758 750 766 782 766 791 799 799 826 826 826 826 817 836 817 817 799 782 774 750 750 735 750 728 735 750 758 782 774 782 791 791 799 808 808 808 799 817 808 817 845 845 826 817 817 808 808 817 766 791 791 799 799 799 799 791 791 808 808 808 791 791 791 799 799 808 799 791 799 799 799 817 808 791 791 799 799 799 799 799 799 808 817 817 808 791 799 791 791 774 766 743 766 774 791 791 782 782 791 791 799 791 799 791 791 791 799 799 808 808 817 808 808 826 826 826 836 836 826 826 817 817 808 799 808 799 791 791 799 758 799 799 791 808 817 808 799 799 817 799 799 791 782 766 774 782 766 782 782 774 774 774 766 750 766 750 766 750 774 774 758 766 774 766 782 766 799 799 791 791 782 758 758 774 782 766 758 766 750 758 766 774 766 766 774 774 774 791 791 782 750 721 735 728 743 728 735 735 758 774 774 743 700 681 623 566 0 584 553 566 566 557 561 557 570 561 566 603 579 0 728 728 0 0 0 0 0
    0 0 0 0 0 0 0 0 0 0 0 0 0 0 0 0 0 0 0 0 0 0 0 0 0 0 0 0 0 0 0 0 0 0 0 0 0 0 0 0 0 0 0 0 0 0 0 0 0 0 0 0 0 0 0 0 0 0 0 0 0 0 0 0 0 0 0 0 0 758 758 766 758 766 766 782 799 791 799 799 799 799 791 799 782 735 728 728 728 721 714 743 728 750 743 758 766 758 774 791 791 817 817 817 817 808 826 808 791 774 750 743 728 728 721 743 721 728 743 750 766 766 766 782 774 791 799 782 791 782 791 782 799 808 817 808 808 817 808 808 817 766 782 782 791 782 782 782 774 774 799 791 782 774 774 766 774 774 782 782 774 774 782 791 808 799 782 782 791 791 791 791 791 791 799 808 808 791 774 791 774 774 766 750 735 750 766 782 774 774 774 774 774 791 774 782 774 782 791 799 799 799 799 808 808 808 826 826 826 826 826 817 817 817 808 799 791 791 791 782 791 799 758 799 799 791 817 817 817 799 799 808 799 791 791 782 766 766 774 758 782 774 766 766 750 743 743 750 735 750 743 758 750 735 743 750 743 766 743 766 766 766 758 750 735 743 766 774 758 750 758 743 750 758 766 758 750 758 766 758 782 774 766 728 714 728 728 735 728 728 728 743 766 758 735 694 675 623 561 588 584 553 570 570 561 566 561 574 570 570 603 593 0 721 728 0 0 0 0 0
    0 0 0 0 0 0 0 0 0 0 0 0 0 0 0 0 0 0 0 0 0 0 0 0 0 0 0 0 0 0 0 0 0 0 0 0 0 0 0 0 0 0 0 0 0 0 0 0 0 0 0 0 0 0 0 0 0 0 0 0 0 0 0 0 0 0 0 0 0 758 758 758 758 766 766 774 791 782 791 791 782 782 766 782 766 735 728 728 728 721 714 735 721 743 743 750 750 750 766 782 774 808 799 808 799 791 799 791 758 750 735 728 714 721 714 735 721 728 743 750 758 758 758 774 766 782 782 758 774 766 782 766 791 791 799 791 799 808 808 799 817 758 774 774 782 774 766 766 766 750 782 774 766 750 750 750 758 758 774 766 758 766 774 782 799 782 766 774 782 782 782 782 782 774 791 799 799 782 766 782 766 766 758 750 735 743 758 782 758 758 758 774 774 782 766 774 758 774 782 782 782 774 782 799 799 799 817 817 826 826 826 817 817 808 799 791 782 782 774 774 791 791 758 799 799 799 817 817 817 799 799 799 791 782 782 774 758 758 758 750 774 758 743 743 735 728 728 735 728 728 728 728 714 707 714 714 714 728 707 714 721 721 721 714 714 728 743 750 743 743 750 735 743 750 750 750 743 743 750 743 774 750 743 721 714 721 728 735 728 728 728 743 750 758 735 694 681 623 566 593 588 553 574 574 566 566 566 579 574 574 608 603 0 728 728 0 0 0 0 0
    0 0 0 0 0 0 0 0 0 0 0 0 0 0 0 0 0 0 0 0 0 0 0 0 0 0 0 0 0 0 0 0 0 0 0 0 0 0 0 0 0 0 0 0 0 0 0 0 0 0 0 0 0 0 0 0 0 0 0 0 0 0 0 0 0 0 0 0 0 758 758 758 758 766 758 774 791 782 782 782 782 774 750 766 743 728 721 728 728 714 714 735 721 743 743 743 743 743 750 766 758 799 758 774 766 766 774 766 743 735 728 728 714 721 707 735 721 735 750 750 750 758 750 766 758 774 774 743 758 758 774 758 782 782 791 782 799 799 799 791 808 750 758 758 774 758 750 750 750 743 758 758 750 743 743 743 750 750 766 758 750 750 758 774 782 774 750 766 774 774 774 774 774 766 782 799 791 774 758 782 766 766 758 750 743 743 758 774 750 750 750 766 766 774 750 758 750 766 774 774 766 758 766 791 782 799 808 808 817 826 826 808 817 799 782 774 774 774 758 758 774 774 758 799 799 799 817 817 808 808 799 791 782 774 774 766 750 758 758 750 774 758 750 743 728 728 721 728 721 721 714 714 707 700 700 700 700 714 700 707 707 707 707 694 700 721 728 735 735 728 743 728 735 743 743 743 735 735 743 735 758 735 735 721 714 721 728 735 735 728 735 735 743 743 735 700 681 623 0 593 588 553 574 574 566 570 570 579 574 579 608 613 714 721 721 0 0 0 0 0
    0 0 0 0 0 0 0 0 0 0 0 0 0 0 0 0 0 0 0 0 0 0 0 0 0 0 0 0 0 0 0 0 0 0 0 0 0 0 0 0 0 0 0 0 0 0 0 0 0 0 0 0 0 0 0 0 0 0 0 0 0 0 0 0 0 0 0 0 0 758 758 750 750 758 758 774 791 774 774 782 782 774 743 758 743 735 728 728 721 714 707 728 721 743 743 743 743 743 743 758 750 774 728 735 743 750 750 758 735 735 728 728 721 721 714 735 721 735 750 758 750 758 750 766 750 774 774 743 750 750 758 750 774 774 782 774 791 791 791 774 799 743 743 750 758 743 743 743 743 735 750 758 743 735 735 743 743 743 750 750 743 743 750 758 774 758 743 758 766 766 766 766 766 750 774 791 782 766 750 774 758 758 758 750 743 750 750 766 750 743 743 758 758 766 743 750 750 758 766 766 758 750 750 774 774 782 782 791 808 808 817 791 799 774 766 758 758 758 743 743 758 766 766 791 799 799 808 817 808 808 799 782 782 774 774 766 750 758 750 750 774 750 743 735 728 721 714 714 707 714 707 707 700 700 700 694 694 707 700 707 707 707 700 694 700 714 714 714 714 714 728 714 728 735 735 735 728 735 735 721 743 721 728 714 707 714 714 735 735 735 735 735 735 735 721 694 669 623 0 588 584 553 574 570 566 566 566 579 574 574 608 613 0 714 714 0 0 0 0 0
    0 0 0 0 0 0 0 0 0 0 0 0 0 0 0 0 0 0 0 0 0 0 0 0 0 0 0 0 0 0 0 0 0 0 0 0 0 0 0 0 0 0 0 0 0 0 0 0 0 0 0 0 0 0 0 0 0 0 0 0 0 0 0 0 0 0 0 0 0 766 758 758 758 766 758 774 774 750 758 766 774 766 743 750 735 728 721 728 721 714 707 728 728 743 743 743 743 743 743 758 750 774 721 728 735 750 750 758 743 743 735 728 721 721 714 735 721 735 750 758 758 758 758 766 750 774 774 735 750 743 758 750 774 774 782 774 782 782 791 766 791 735 735 735 743 735 735 735 735 728 743 750 743 735 735 735 735 743 743 743 743 735 743 750 766 750 735 750 758 758 758 750 750 743 758 782 766 750 735 766 758 758 758 750 750 750 758 774 750 743 743 750 758 758 743 750 743 750 766 758 750 743 743 766 758 766 750 758 774 782 791 766 782 743 750 750 750 750 743 743 750 758 766 791 799 791 808 808 799 808 791 758 774 758 766 758 750 750 750 750 774 743 743 728 721 714 707 707 700 707 700 700 700 700 700 694 694 700 700 707 707 700 700 694 700 707 700 694 700 707 721 707 721 728 735 735 728 728 728 721 735 721 728 707 707 714 714 735 735 735 735 728 728 721 707 687 657 623 566 588 579 549 570 570 561 561 566 574 570 574 608 613 694 714 714 0 0 0 0 0
    0 0 0 0 0 0 0 0 0 0 0 0 0 0 0 0 0 0 0 0 0 0 0 0 0 0 0 0 0 0 0 0 0 0 0 0 0 0 0 0 0 0 0 0 0 0 0 0 0 0 0 0 0 0 0 0 0 0 0 0 0 0 0 0 0 0 0 0 0 766 766 758 758 766 758 766 766 735 735 743 750 750 735 750 735 735 721 728 721 714 714 728 728 743 743 750 743 743 743 758 750 766 728 728 735 750 750 758 743 743 735 728 728 721 714 735 721 735 750 758 758 758 758 766 750 782 766 735 743 743 750 750 766 766 766 766 782 782 791 766 791 735 735 735 743 735 728 728 735 728 743 743 735 728 735 735 735 743 743 735 735 728 743 750 766 750 735 750 758 758 758 750 750 743 758 774 758 750 735 766 758 766 766 758 758 766 766 782 758 743 743 750 750 758 743 743 743 750 766 758 750 743 743 758 750 750 735 743 750 758 766 743 766 735 743 743 743 750 743 743 750 750 774 782 791 791 791 799 799 808 782 735 766 750 758 750 743 743 743 743 766 743 735 728 721 721 714 707 700 707 700 700 700 700 700 687 694 700 700 700 700 694 694 687 694 694 687 675 675 681 707 700 721 721 728 735 728 728 728 721 728 721 728 714 707 721 714 743 735 743 743 721 721 721 707 687 657 618 579 593 579 545 566 566 561 561 566 570 570 574 608 613 651 707 707 0 0 0 0 0
    0 0 0 0 0 0 0 0 0 0 0 0 0 0 0 0 0 0 0 0 0 0 0 0 0 0 0 0 0 0 0 0 0 0 0 0 0 0 0 0 0 0 0 0 0 0 0 0 0 0 0 0 0 0 0 0 0 0 0 0 0 0 0 0 0 0 0 0 0 766 766 758 758 766 758 758 758 728 721 728 728 728 728 735 728 728 721 728 721 721 714 728 728 750 750 750 750 750 750 758 758 766 728 728 735 743 743 750 743 735 735 728 728 714 707 728 721 735 758 758 758 766 766 766 758 782 766 735 743 743 743 743 766 750 750 758 774 774 782 766 791 728 735 735 735 728 728 728 728 721 735 735 735 728 735 735 735 743 735 735 735 735 743 750 766 750 735 750 758 758 750 750 750 743 750 774 750 750 735 774 766 766 774 766 766 774 774 782 758 750 750 750 750 758 735 735 743 750 758 758 743 743 735 750 750 743 735 743 750 750 750 743 758 728 743 743 743 743 743 743 750 743 782 758 782 774 774 782 782 799 750 714 750 735 750 743 735 735 735 735 758 728 721 714 714 714 700 694 687 694 687 694 694 694 687 681 687 694 694 700 694 694 687 687 694 694 681 651 657 669 714 700 721 721 728 728 728 721 721 714 728 714 721 714 714 721 714 735 728 735 728 714 714 714 707 687 645 0 588 593 574 545 566 566 557 561 561 566 566 574 608 608 629 700 700 0 0 0 0 0
    0 0 0 0 0 0 0 0 0 0 0 0 0 0 0 0 0 0 0 0 0 0 0 0 0 0 0 0 0 0 0 0 0 0 0 0 0 0 0 0 0 0 0 0 0 0 0 0 0 0 0 0 0 0 0 0 0 0 0 0 0 0 0 0 0 0 0 0 0 766 766 758 758 766 758 750 750 721 721 721 721 721 728 728 721 721 714 721 714 707 707 721 728 743 743 750 743 750 750 758 758 758 721 721 721 728 728 735 728 728 728 721 721 714 707 721 714 735 750 750 750 758 758 758 750 782 750 728 735 728 728 735 750 743 735 743 766 766 782 758 774 728 735 728 735 728 728 728 728 721 735 728 728 721 721 728 721 728 728 728 728 728 743 750 766 750 743 758 758 758 758 750 750 743 758 766 758 758 743 782 766 774 782 774 774 782 782 791 766 758 750 758 758 758 735 735 743 750 766 758 743 743 735 750 750 743 735 743 750 750 750 743 758 728 743 743 743 743 735 743 743 743 782 750 766 758 758 758 766 782 735 707 750 743 743 735 735 735 735 728 743 714 714 707 707 707 694 687 687 687 687 687 687 687 681 675 681 687 694 694 694 687 681 687 694 687 681 651 657 681 721 714 728 728 728 728 728 721 714 714 714 714 714 707 707 707 707 721 714 714 700 700 700 700 694 681 651 618 598 598 574 545 566 561 557 557 561 561 561 570 608 603 613 694 700 0 0 0 0 0
    0 0 0 0 0 0 0 0 0 0 0 0 0 0 0 0 0 0 0 0 0 0 0 0 0 0 0 0 0 0 0 0 0 0 0 0 0 0 0 0 0 0 0 0 0 0 0 0 0 0 0 0 0 0 0 0 0 0 0 0 0 0 0 0 0 0 0 0 0 766 766 750 758 758 750 750 743 721 721 721 721 728 728 728 721 721 707 707 700 694 694 707 714 728 735 735 735 743 743 750 750 750 714 714 721 721 721 728 721 714 721 707 707 700 700 707 707 728 735 735 735 743 743 750 750 774 735 721 721 721 721 721 735 728 728 735 750 750 774 758 758 721 728 728 728 728 721 721 721 714 735 721 721 714 714 714 714 721 721 714 714 721 728 735 758 750 743 750 758 758 750 750 750 743 750 758 758 758 743 782 774 782 791 782 782 782 782 791 774 758 750 758 758 750 735 735 743 750 758 750 743 743 735 743 750 743 735 743 750 743 750 743 758 721 743 743 743 743 743 743 743 743 782 743 766 750 750 743 750 766 728 700 750 750 750 735 728 735 728 728 735 700 700 700 700 700 687 687 681 687 681 681 675 681 675 675 681 687 694 694 694 687 681 687 694 681 687 669 675 681 707 714 728 728 728 728 721 714 707 707 707 707 707 700 700 700 700 707 700 700 687 687 687 687 687 675 645 623 598 598 574 545 561 557 553 557 561 561 557 566 603 598 603 687 694 0 0 0 0 0
    0 0 0 0 0 0 0 0 0 0 0 0 0 0 0 0 0 0 0 0 0 0 0 0 0 0 0 0 0 0 0 0 0 0 0 0 0 0 0 0 0 0 0 0 0 0 0 0 0 0 0 0 0 0 0 0 0 0 0 0 0 0 0 0 0 0 0 0 0 750 743 735 743 743 735 735 728 714 707 714 714 721 721 721 714 714 700 700 694 687 687 694 707 721 721 728 728 735 735 743 750 735 714 714 714 721 714 714 707 700 707 687 694 687 681 687 694 714 721 721 728 728 735 735 735 758 721 707 714 714 707 714 721 721 714 721 728 728 750 743 743 707 721 721 721 721 714 714 714 707 728 714 714 707 707 707 707 707 707 700 700 707 707 714 728 728 735 743 743 743 743 743 743 735 743 735 735 743 743 782 774 782 791 782 782 782 782 791 766 750 743 750 750 743 728 728 728 735 743 735 728 728 721 728 743 728 728 743 735 735 735 735 750 721 743 743 735 743 743 743 743 743 774 735 743 721 728 721 735 743 721 687 750 750 750 728 728 728 721 721 728 700 700 694 700 700 681 681 675 675 675 675 675 675 663 669 681 687 694 694 694 687 675 681 687 675 681 669 669 675 687 707 707 721 721 721 721 714 700 700 700 707 700 700 700 700 700 700 694 694 687 687 681 681 681 669 645 623 603 598 566 541 557 557 553 553 557 557 553 561 598 584 593 629 681 0 0 0 0 0
    0 0 0 0 0 0 0 0 0 0 0 0 0 0 0 0 0 0 0 0 0 0 0 0 0 0 0 0 0 0 0 0 0 0 0 0 0 0 0 0 0 0 0 0 0 0 0 0 0 0 0 0 0 0 0 0 0 0 0 0 0 0 0 0 0 0 0 0 0 728 728 721 728 728 721 728 714 700 694 700 707 707 714 714 707 707 694 700 687 687 687 687 707 707 707 721 721 728 728 728 735 714 707 707 700 707 707 707 707 694 694 681 687 681 669 681 681 700 707 707 714 721 721 728 735 743 714 700 707 707 700 700 714 707 707 707 707 0 0 721 721 687 707 707 714 714 707 707 707 700 728 714 714 700 700 700 700 700 700 694 694 694 700 700 707 714 721 728 735 735 728 728 735 728 728 721 714 721 728 774 766 774 782 774 782 774 766 774 743 735 728 728 728 721 714 707 714 721 721 714 707 707 714 714 735 721 721 735 728 728 728 728 743 714 743 735 735 743 743 735 735 735 758 721 721 700 700 694 707 707 687 681 735 735 735 721 721 721 721 721 721 700 694 694 694 694 675 675 669 669 669 675 669 675 663 675 681 694 694 700 694 687 675 681 687 675 681 669 669 669 675 700 687 694 707 700 707 707 687 700 700 700 700 700 700 694 694 700 687 687 681 681 681 675 675 657 639 623 608 603 566 541 557 553 549 553 553 553 553 557 598 579 584 603 657 0 0 0 0 0
    0 0 0 0 0 0 0 0 0 0 0 0 0 0 0 0 0 0 0 0 0 0 0 0 0 0 0 0 0 0 0 0 0 0 0 0 0 0 0 0 0 0 0 0 0 0 0 0 0 0 0 0 0 0 0 0 0 0 0 0 0 0 0 0 0 0 0 0 0 707 707 707 714 714 707 714 700 694 687 687 694 700 707 707 700 707 687 694 687 687 687 687 700 700 700 714 714 714 714 721 721 700 700 700 694 700 700 707 700 694 687 675 681 681 663 675 675 687 694 700 700 707 707 721 728 735 707 694 700 700 694 694 707 700 700 700 694 0 0 0 707 669 694 700 700 700 700 700 694 694 714 700 700 694 694 694 694 694 694 687 687 687 687 687 700 700 714 721 728 721 721 721 721 721 721 700 694 694 714 743 743 766 774 758 766 758 743 743 721 714 714 707 707 700 700 694 700 700 700 700 694 694 700 700 721 714 721 728 721 728 728 728 735 714 743 735 735 735 735 735 735 735 743 714 707 694 694 681 687 681 669 663 714 714 714 707 707 707 707 707 714 694 681 687 687 687 669 669 663 663 663 675 663 669 663 675 687 700 694 700 694 687 669 681 681 669 675 669 669 669 669 687 669 675 694 681 694 681 663 694 694 694 687 694 694 687 694 687 675 681 669 675 669 669 669 651 634 623 608 608 566 541 557 553 549 549 553 553 549 557 593 570 574 598 651 0 0 0 0 0
    0 0 0 0 0 0 0 0 0 0 0 0 0 0 0 0 0 0 0 0 0 0 0 0 0 0 0 0 0 0 0 0 0 0 0 0 0 0 0 0 0 0 0 0 0 0 0 0 0 0 0 0 0 0 0 0 0 0 0 0 0 0 0 0 0 0 0 0 0 687 687 694 694 700 694 694 687 681 675 675 681 687 694 694 687 700 681 687 687 687 687 681 687 694 687 700 700 707 707 707 714 694 694 687 681 694 694 694 694 687 681 675 681 681 657 669 675 681 687 687 687 694 694 707 714 721 700 694 700 694 687 687 694 694 687 694 681 0 0 0 700 663 681 687 687 687 687 687 687 681 700 694 687 687 687 681 687 687 687 681 681 681 681 681 687 694 700 707 721 707 707 707 714 707 700 681 675 681 700 707 714 728 750 735 743 728 714 714 694 694 694 687 694 687 687 681 687 694 694 687 681 687 687 694 714 714 714 721 721 728 728 728 728 714 743 735 735 735 735 735 728 728 735 700 694 687 681 669 681 675 657 663 694 700 694 694 694 700 700 700 700 687 675 681 687 687 669 669 663 669 669 681 669 675 669 681 687 700 694 694 687 687 663 675 675 663 669 663 669 663 663 687 657 669 687 675 687 663 651 694 694 700 687 694 694 687 694 687 669 675 669 669 663 663 663 645 634 623 613 608 570 545 557 557 553 549 549 549 549 553 588 566 570 593 657 0 0 0 0 0
    0 0 0 0 0 0 0 0 0 0 0 0 0 0 0 0 0 0 0 0 0 0 0 0 0 0 0 0 0 0 0 0 0 0 0 0 0 0 0 0 0 0 0 0 0 0 0 0 0 0 0 0 0 0 0 0 0 0 0 0 0 0 0 0 0 0 0 0 0 675 681 681 681 687 681 675 669 669 663 663 669 675 681 687 687 700 675 687 681 687 681 681 681 687 681 694 687 687 687 687 694 687 681 681 675 681 681 681 681 681 669 669 675 681 651 663 669 675 681 681 681 681 687 700 707 707 694 687 694 687 675 675 687 687 687 687 675 663 0 694 694 657 675 681 681 681 681 681 681 675 694 681 675 675 675 669 675 675 675 675 675 681 675 675 687 687 700 700 707 687 694 694 700 687 681 669 669 669 687 687 694 700 714 707 707 707 694 687 681 675 681 675 687 681 681 669 681 681 681 681 675 681 681 681 700 707 707 714 714 728 721 728 728 714 743 735 735 735 735 728 728 728 721 694 687 681 675 669 675 669 657 669 687 694 687 687 687 694 694 694 694 687 669 681 687 687 669 675 669 669 669 687 669 663 663 675 681 687 681 687 681 675 651 669 669 651 663 657 663 657 657 675 651 669 681 669 687 657 657 694 687 694 681 694 687 681 687 675 663 669 663 663 657 657 663 645 634 623 613 608 570 545 557 557 549 549 549 549 545 553 584 557 566 593 663 0 0 0 0 0
    0 0 0 0 0 0 0 0 0 0 0 0 0 0 0 0 0 0 0 0 0 0 0 0 0 0 0 0 0 0 0 0 0 0 0 0 0 0 0 0 0 0 0 0 0 0 0 0 0 0 0 0 0 0 0 0 0 0 0 0 0 0 0 0 0 0 0 0 0 675 675 681 675 681 669 663 657 657 657 657 663 669 675 681 681 700 675 681 681 681 681 675 675 675 669 687 675 675 675 669 675 681 675 669 669 669 675 669 669 669 657 663 675 675 645 663 663 663 669 675 675 675 675 694 694 694 687 681 681 681 663 663 675 681 681 681 669 657 0 687 687 651 669 675 675 675 675 681 675 663 687 675 669 669 669 657 669 669 675 681 675 681 675 675 687 687 694 700 700 675 681 681 687 675 675 663 669 669 687 681 687 687 700 681 687 687 675 675 669 669 675 669 681 675 681 669 675 675 675 675 669 675 675 675 694 700 700 700 700 714 714 714 714 707 735 728 728 728 728 728 728 721 707 694 687 681 669 669 669 669 657 669 681 687 681 681 687 687 687 687 687 681 669 675 681 681 663 675 663 663 663 681 657 645 645 663 663 675 675 675 675 669 645 669 663 651 663 651 657 657 651 669 639 651 669 663 675 645 651 687 687 687 675 681 675 675 681 663 657 663 657 663 657 651 657 639 629 623 603 603 566 549 557 553 549 549 549 549 545 549 579 553 566 593 0 0 0 0 0 0
    0 0 0 0 0 0 0 0 0 0 0 0 0 0 0 0 0 0 0 0 0 0 0 0 0 0 0 0 0 0 0 0 0 0 0 0 0 0 0 0 0 0 0 0 0 0 0 0 0 0 0 0 0 0 0 0 0 0 0 0 0 0 0 0 0 0 0 0 0 675 675 681 675 681 669 663 657 651 651 657 663 669 675 681 687 694 675 681 681 675 675 669 669 669 663 681 669 669 669 657 663 669 669 669 663 669 669 669 669 669 657 657 675 675 639 657 663 663 663 669 669 669 669 687 687 681 681 681 681 675 663 657 669 675 675 681 669 651 663 681 687 645 663 669 669 669 675 675 669 657 681 663 657 663 657 651 669 663 669 675 675 675 675 675 687 681 687 694 694 657 675 675 675 669 669 657 663 663 681 675 681 675 687 669 675 675 669 669 663 663 669 663 675 669 669 657 669 669 669 669 663 669 675 669 694 694 687 687 687 700 694 700 700 700 721 728 721 721 721 721 721 714 694 681 681 675 663 663 669 663 657 675 675 675 675 675 681 687 681 687 687 681 669 675 681 681 669 675 663 657 663 675 657 634 639 645 645 663 657 651 663 657 645 669 663 651 657 651 657 651 645 657 629 639 657 651 657 634 645 675 681 675 663 675 663 669 675 657 657 663 657 663 657 651 657 634 629 618 603 598 561 549 553 553 549 549 549 549 545 553 584 561 579 593 0 0 0 0 0 0
    0 0 0 0 0 0 0 0 0 0 0 0 0 0 0 0 0 0 0 0 0 0 0 0 0 0 0 0 0 0 0 0 0 0 0 0 0 0 0 0 0 0 0 0 0 0 0 0 0 0 0 0 0 0 0 0 0 0 0 0 0 0 0 0 0 0 0 0 0 675 675 681 675 681 669 663 657 657 651 657 663 675 681 681 681 694 675 681 681 675 675 669 669 669 663 675 669 663 669 657 663 663 669 663 663 669 669 669 663 663 651 657 669 675 639 663 663 663 663 669 669 663 669 687 681 675 681 681 675 675 663 657 663 669 675 681 669 657 663 681 681 645 663 669 669 669 669 669 663 657 681 663 657 657 657 645 663 663 663 675 669 675 675 675 681 675 687 687 687 651 669 669 669 663 663 651 657 657 681 669 669 663 681 657 669 669 663 663 663 663 669 663 675 669 669 651 663 669 669 663 657 663 675 669 687 687 675 675 675 687 669 675 681 687 707 721 721 721 721 721 714 714 681 681 681 675 669 669 669 663 657 675 669 669 669 669 675 681 681 687 681 681 663 675 681 681 669 669 651 657 657 675 651 634 639 639 639 657 645 639 657 651 645 663 657 645 657 651 657 645 639 651 629 634 645 639 639 634 639 669 669 669 651 669 663 669 675 651 651 663 657 663 651 651 651 634 623 618 598 598 557 545 553 549 549 549 549 549 545 553 579 557 574 0 0 0 0 0 0 0
    0 0 0 0 0 0 0 0 0 0 0 0 0 0 0 0 0 0 0 0 0 0 0 0 0 0 0 0 0 0 0 0 0 0 0 0 0 0 0 0 0 0 0 0 0 0 0 0 0 0 0 0 0 0 0 0 0 0 0 0 0 0 0 0 0 0 0 0 0 675 675 681 675 681 669 663 663 657 657 663 669 675 681 687 681 694 675 681 681 675 675 669 669 669 663 675 663 657 663 657 663 663 669 663 669 669 675 669 669 663 657 663 675 675 634 663 663 663 663 675 669 669 669 694 687 681 687 687 681 675 663 657 663 663 669 675 663 657 663 675 681 645 663 669 669 669 669 669 669 657 681 669 663 663 657 645 663 663 657 669 669 675 675 675 681 675 681 687 681 645 669 663 669 657 663 651 657 657 681 669 675 663 675 657 669 669 663 663 663 663 669 663 675 669 669 645 657 669 669 663 657 663 669 669 687 687 675 675 675 687 669 669 675 687 700 714 714 714 707 714 707 707 669 675 675 669 669 669 669 669 657 675 657 663 663 663 669 675 675 681 681 681 651 669 681 675 669 663 651 651 657 675 657 634 639 639 645 657 639 634 645 645 639 663 651 639 651 645 651 639 634 639 623 629 639 639 639 634 651 675 669 669 657 669 663 675 669 639 645 657 657 657 645 639 645 629 623 613 598 593 553 549 553 549 549 549 549 549 545 553 570 553 570 0 0 0 0 0 0 0
    0 0 0 0 0 0 0 0 0 0 0 0 0 0 0 0 0 0 0 0 0 0 0 0 0 0 0 0 0 0 0 0 0 0 0 0 0 0 0 0 0 0 0 0 0 0 0 0 0 0 0 0 0 0 0 0 0 0 0 0 0 0 0 0 0 0 0 0 0 675 675 681 675 687 669 657 657 657 657 663 663 669 681 681 675 687 669 675 675 675 675 675 669 669 663 675 669 651 663 651 657 663 663 663 669 669 675 675 675 675 663 675 681 681 634 663 669 663 669 675 669 669 669 694 687 687 694 694 681 681 669 657 663 657 663 675 669 657 663 669 681 645 663 663 663 663 669 669 669 657 681 669 663 663 657 645 657 663 657 669 669 675 675 675 681 675 681 687 687 639 669 663 669 657 663 657 657 657 681 669 675 669 681 663 669 669 669 669 663 663 663 663 675 669 675 645 663 669 669 663 657 663 669 663 687 687 675 675 681 700 681 681 681 687 694 700 700 700 694 700 700 700 663 675 675 669 669 669 669 663 657 675 657 657 657 657 663 669 669 675 675 681 645 669 675 675 669 663 651 657 657 681 657 634 639 639 645 657 634 629 634 639 645 657 645 639 645 639 639 629 623 629 618 623 629 634 634 634 651 675 669 669 663 669 663 675 669 639 645 651 651 651 639 634 639 623 613 613 593 588 553 549 553 549 549 549 545 545 545 553 561 549 570 0 0 0 0 0 0 0
    0 0 0 0 0 0 0 0 0 0 0 0 0 0 0 0 0 0 0 0 0 0 0 0 0 0 0 0 0 0 0 0 0 0 0 0 0 0 0 0 0 0 0 0 0 0 0 0 0 0 0 0 0 0 0 0 0 0 0 0 0 0 0 0 0 0 0 0 0 669 669 681 675 687 669 657 663 657 657 663 663 669 681 681 669 687 663 675 675 675 675 675 669 669 663 675 669 651 657 645 651 663 657 663 669 663 675 675 675 675 669 681 687 687 634 663 669 663 669 675 675 669 675 700 694 694 700 694 681 675 669 645 645 651 669 681 681 669 675 675 681 651 669 669 669 669 669 669 669 663 681 669 669 663 651 645 657 663 651 663 669 669 669 675 681 675 681 687 687 639 669 663 663 657 663 657 657 657 681 669 681 669 681 663 669 669 669 669 663 663 663 663 675 669 675 645 663 669 669 663 663 663 669 663 687 687 675 675 681 694 681 687 687 687 694 694 694 687 681 694 694 694 657 675 675 669 669 669 669 663 657 675 657 657 657 657 663 669 669 675 675 675 645 669 675 675 669 663 651 657 657 681 657 634 639 639 645 651 629 623 623 629 634 645 634 629 634 629 634 623 623 623 618 623 623 629 629 629 645 663 663 663 663 675 669 681 675 651 657 657 657 651 639 634 634 618 598 598 579 579 549 549 549 549 545 549 545 545 545 553 557 549 570 0 0 0 0 0 0 0
    0 0 0 0 0 0 0 0 0 0 0 0 0 0 0 0 0 0 0 0 0 0 0 0 0 0 0 0 0 0 0 0 0 0 0 0 0 0 0 0 0 0 0 0 0 0 0 0 0 0 0 0 0 0 0 0 0 0 0 0 0 0 0 0 0 0 0 0 0 669 669 681 675 681 669 657 663 663 663 669 669 675 687 687 675 687 663 669 675 675 675 669 669 669 663 675 669 657 657 645 651 663 657 663 663 663 669 669 675 675 669 681 681 687 639 663 669 663 669 681 675 675 675 700 700 694 0 694 675 0 0 0 0 657 675 687 694 681 681 681 687 651 669 669 669 669 675 675 669 663 687 675 669 669 645 645 651 657 645 657 663 663 663 675 681 675 681 687 687 639 669 663 663 663 663 657 657 657 681 669 681 675 675 663 675 669 669 669 663 663 663 663 675 669 681 645 663 669 663 663 657 663 663 657 681 681 669 675 675 687 675 687 681 687 700 694 694 687 681 694 687 687 657 675 675 669 669 675 669 663 663 681 657 663 657 657 657 669 669 675 669 675 639 669 675 675 669 663 645 657 657 681 651 629 634 634 639 645 618 613 618 618 629 629 618 613 618 618 618 613 613 618 613 618 623 623 623 623 639 651 645 651 657 669 663 675 669 651 663 651 651 639 629 629 629 613 579 584 570 570 549 549 549 549 545 545 545 545 541 553 549 545 574 0 0 0 0 0 0 0
    0 0 0 0 0 0 0 0 0 0 0 0 0 0 0 0 0 0 0 0 0 0 0 0 0 0 0 0 0 0 0 0 0 0 0 0 0 0 0 0 0 0 0 0 0 0 0 0 0 0 0 0 0 0 0 0 0 0 0 0 0 0 0 0 0 0 0 0 0 669 669 681 675 681 675 663 675 675 657 657 663 669 681 681 0 675 657 669 669 669 675 669 669 669 663 675 669 657 663 645 651 663 657 669 669 663 669 663 669 669 663 669 675 681 634 663 669 663 669 681 675 675 675 700 700 694 0 0 675 0 0 0 0 0 681 681 700 681 681 669 681 645 669 669 669 669 675 675 675 669 687 675 669 669 645 639 651 657 645 651 657 657 663 675 681 675 675 0 694 639 675 663 663 663 663 657 657 657 681 675 681 675 675 669 675 675 669 669 663 663 669 669 681 663 681 645 663 669 663 663 657 657 663 657 681 675 651 657 663 675 0 0 669 669 700 694 700 694 681 694 694 694 657 675 669 669 669 669 663 663 663 681 657 663 663 663 657 669 669 675 669 675 634 663 675 675 669 657 645 651 651 675 639 629 629 629 634 634 613 608 608 608 608 608 598 588 598 603 603 598 603 613 613 618 618 623 623 623 639 639 639 639 645 645 634 645 645 629 645 634 629 623 613 613 618 598 566 570 566 566 545 549 549 545 545 545 541 541 541 549 545 549 593 0 0 0 0 0 0 0
    0 0 0 0 0 0 0 0 0 0 0 0 0 0 0 0 0 0 0 0 0 0 0 0 0 0 0 0 0 0 0 0 0 0 0 0 0 0 0 0 0 0 0 0 0 0 0 0 0 0 0 0 0 0 0 0 0 0 0 0 0 0 0 0 0 0 0 0 0 675 669 687 681 687 681 681 681 675 645 634 645 645 669 657 629 645 639 663 663 663 669 663 663 669 657 663 663 651 663 645 651 0 657 669 675 669 675 657 663 663 651 639 657 669 629 651 663 663 669 681 681 681 681 700 707 0 0 0 0 0 0 0 0 0 0 0 0 0 0 663 675 639 669 669 669 669 675 675 675 669 687 675 663 663 639 639 645 645 639 645 651 651 657 669 681 675 675 687 694 639 669 663 663 657 657 657 651 651 681 675 681 681 675 669 681 675 669 669 663 663 669 669 675 663 681 645 663 663 663 657 657 651 657 651 675 663 639 645 651 663 0 0 0 623 0 687 700 694 681 694 694 694 663 675 669 669 669 669 663 663 657 675 645 663 657 657 651 669 663 669 669 675 634 663 669 669 663 651 639 651 651 669 634 629 629 629 634 634 613 603 608 603 603 598 588 584 588 593 588 588 598 608 613 613 618 618 618 623 629 629 618 618 623 623 613 613 618 613 618 618 613 603 598 613 618 598 566 566 561 561 545 549 545 545 545 545 545 545 545 561 549 566 588 645 634 0 0 0 0 0
    0 0 0 0 0 0 0 0 0 0 0 0 0 0 0 0 0 0 0 0 0 0 0 0 0 0 0 0 0 0 0 0 0 0 0 0 0 0 0 0 0 0 0 0 0 0 0 0 0 0 0 0 0 0 0 0 0 0 0 0 0 0 0 0 0 0 0 0 0 669 669 681 681 687 681 687 675 663 618 608 613 613 629 613 608 618 623 651 657 651 657 645 651 657 645 651 639 634 645 0 0 0 0 651 669 657 663 639 639 639 634 618 623 634 623 645 657 657 669 687 681 681 681 700 707 700 0 0 0 0 0 0 0 0 0 0 0 0 0 634 634 623 657 657 657 663 663 669 675 669 687 669 651 651 629 634 634 634 634 639 645 651 657 669 675 675 675 681 687 639 663 651 651 645 639 639 634 639 675 669 681 687 681 675 687 681 675 675 669 657 663 669 675 651 675 639 657 657 657 651 651 645 645 639 663 639 623 623 629 634 0 0 0 0 675 681 694 687 675 687 687 687 663 675 669 663 669 669 657 651 651 669 634 651 639 639 639 657 651 663 657 663 629 657 663 663 657 645 639 651 645 669 634 629 629 629 629 634 608 603 603 593 598 593 588 579 584 588 584 579 598 608 613 613 618 618 618 623 629 618 613 608 613 613 603 598 603 598 608 603 603 588 579 0 613 593 553 557 557 553 541 545 545 541 545 545 545 545 545 566 553 570 588 634 623 0 0 0 0 0
    0 0 0 0 0 0 0 0 0 0 0 0 0 0 0 0 0 0 0 0 0 0 0 0 0 0 0 0 0 0 0 0 0 0 0 0 0 0 0 0 0 0 0 0 0 0 0 0 0 0 0 0 0 0 0 0 0 0 0 0 0 0 0 0 0 0 0 0 0 645 634 645 651 657 645 645 0 618 598 593 598 593 598 593 593 603 608 634 645 639 651 634 639 639 629 629 618 618 629 623 0 0 0 629 639 634 629 618 613 618 613 603 0 608 613 629 639 645 657 681 681 681 681 700 714 0 185 0 0 0 0 0 0 0 0 618 618 0 0 618 618 608 634 639 639 645 645 651 657 657 687 645 634 634 623 629 629 629 629 634 639 639 645 651 663 657 657 669 669 629 651 639 639 629 629 629 623 629 651 634 657 669 675 675 687 681 669 669 663 651 657 657 663 634 657 629 651 651 645 639 639 634 634 629 634 613 603 603 608 603 608 0 0 603 629 669 687 681 669 687 687 687 669 681 669 663 669 663 651 645 639 651 623 629 618 618 623 634 629 634 634 634 618 651 657 657 657 645 639 651 651 675 634 629 629 629 634 629 598 588 593 579 588 584 579 574 574 584 584 574 598 603 613 613 618 618 618 618 623 613 608 603 608 603 598 593 593 593 603 598 603 584 584 613 613 598 553 561 566 553 541 549 545 545 545 545 545 541 545 566 549 566 574 618 613 0 0 0 0 0
    0 0 0 0 0 0 0 0 0 0 0 0 0 0 0 0 0 0 0 0 0 0 0 0 0 0 0 0 0 0 0 0 0 0 0 0 0 0 0 0 0 0 0 0 0 0 0 0 0 0 0 0 0 0 0 0 0 0 0 0 0 0 0 0 0 0 0 0 0 618 608 613 608 613 608 608 593 598 588 588 588 588 588 584 584 593 593 618 629 623 634 623 623 623 618 613 603 608 618 613 0 0 0 0 0 0 0 0 593 603 603 598 0 603 603 0 623 634 634 675 675 681 681 707 721 0 0 0 0 0 0 0 0 588 588 608 608 0 0 608 603 598 613 623 623 623 623 618 623 634 675 623 608 618 618 623 623 623 618 629 629 623 629 629 634 639 639 651 651 623 639 634 629 618 618 623 618 618 634 623 634 639 663 663 681 675 663 663 657 639 645 645 651 623 639 623 639 639 639 634 634 623 623 618 618 608 598 598 598 598 598 598 603 598 0 651 681 675 669 681 687 681 663 675 657 657 657 651 634 634 629 634 613 613 603 608 608 618 618 618 618 618 613 645 645 651 651 639 639 651 645 669 629 629 623 623 623 618 593 579 584 574 584 579 579 574 579 584 588 584 598 603 613 608 613 613 613 613 613 603 598 598 603 598 593 588 593 593 598 588 579 561 566 598 603 584 553 566 570 557 545 549 549 545 545 549 545 545 545 566 553 566 570 603 593 0 0 0 0 0
    0 0 0 0 0 0 0 0 0 0 0 0 0 0 0 0 0 0 0 0 0 0 0 0 0 0 0 0 0 0 0 0 0 0 0 0 0 0 0 0 0 0 0 0 0 0 0 0 0 0 0 0 0 0 0 0 0 0 0 0 0 0 0 0 0 0 0 0 0 603 598 603 603 603 603 598 579 593 584 584 588 584 584 584 584 593 593 608 618 608 623 608 608 608 608 603 598 603 613 608 0 0 0 0 0 0 0 584 579 593 593 584 588 593 593 0 0 613 613 0 669 669 681 0 714 0 0 0 584 0 0 0 566 579 579 603 598 0 0 603 598 584 598 608 608 608 608 603 603 608 623 608 598 603 608 608 613 613 603 613 608 608 0 613 0 618 623 634 634 613 623 623 618 608 613 618 613 613 623 618 629 634 657 645 669 669 651 639 639 629 629 629 629 613 618 613 634 629 629 623 623 618 613 608 608 598 593 593 593 593 598 593 598 603 603 629 0 651 651 669 675 663 645 663 645 639 639 634 623 623 618 623 608 603 593 598 593 603 603 603 603 603 603 634 634 645 639 639 634 645 645 663 623 623 623 618 618 608 588 579 584 574 584 579 579 579 588 588 588 588 603 603 613 608 618 613 613 608 603 598 593 593 598 593 588 584 588 588 593 574 549 545 545 574 593 566 549 566 570 557 545 549 549 549 545 549 545 545 549 566 553 566 570 593 588 0 0 0 0 0
    0 0 0 0 0 0 0 0 0 0 0 0 0 0 0 0 0 0 0 0 0 0 0 0 0 0 0 0 0 0 0 0 0 0 0 0 0 0 0 0 0 0 0 0 0 0 0 0 0 0 0 0 0 0 0 0 0 0 0 0 0 0 0 0 0 0 0 0 0 603 598 598 598 603 598 598 574 593 579 584 588 584 584 584 584 593 593 603 608 598 608 598 598 598 593 593 593 598 608 603 0 0 0 588 588 584 579 579 574 588 588 579 584 584 588 588 593 603 598 0 639 645 669 0 707 0 0 584 574 561 570 574 570 579 579 603 593 0 598 598 588 574 588 598 598 593 593 588 588 593 603 593 584 593 593 593 598 593 584 593 588 584 579 593 598 603 608 613 613 608 608 608 603 588 598 603 603 603 613 613 618 618 639 623 0 0 623 0 608 603 603 603 603 603 598 603 618 618 613 608 613 603 603 598 598 593 593 588 593 588 593 593 598 603 598 0 0 0 629 0 645 634 623 645 629 629 623 623 618 613 613 613 603 593 588 593 588 593 593 593 593 593 593 623 623 634 634 634 634 639 639 657 618 613 613 613 613 598 588 579 584 574 584 579 584 584 588 588 593 593 603 608 613 608 618 618 613 603 593 593 588 593 593 588 584 579 584 588 593 566 549 541 549 584 593 557 549 566 566 553 545 549 549 549 545 553 549 549 549 570 557 570 574 593 588 0 0 0 0 0
    0 0 0 0 0 0 0 0 0 0 0 0 0 0 0 0 0 0 0 0 0 0 0 0 0 0 0 0 0 0 0 0 0 0 0 0 0 0 0 0 0 0 0 0 0 0 0 0 0 0 0 0 0 0 0 0 0 0 0 0 0 0 0 0 0 0 0 0 0 603 598 603 598 598 598 593 574 593 579 584 588 584 584 584 584 593 588 598 598 584 593 588 588 588 584 584 584 593 598 598 593 0 588 584 588 579 579 579 570 584 584 574 584 584 584 588 588 593 588 0 613 608 0 0 0 0 0 574 566 566 574 574 574 588 584 598 588 0 593 588 579 566 584 588 584 584 584 579 579 584 593 584 574 584 579 579 584 570 570 579 570 570 570 584 588 593 598 598 603 598 588 593 588 570 579 588 593 593 598 603 608 608 0 0 0 0 603 588 588 584 588 588 593 593 588 593 608 608 603 598 603 593 593 588 588 588 588 588 593 588 593 593 598 603 593 603 0 0 0 0 0 598 598 618 608 613 608 613 608 603 603 608 598 588 584 593 584 588 588 588 584 584 588 613 613 623 623 629 629 634 634 645 608 608 608 608 603 593 584 579 584 579 584 579 584 584 593 588 593 593 603 603 608 608 613 613 608 598 588 588 588 593 593 584 579 574 574 584 584 557 541 541 557 593 593 574 561 570 570 553 549 549 549 549 545 549 545 549 553 566 557 566 570 588 584 0 0 0 0 0
    0 0 0 0 0 0 0 0 0 0 0 0 0 0 0 0 0 0 0 0 0 0 0 0 0 0 0 0 0 0 0 0 0 0 0 0 0 0 0 0 0 0 0 0 0 0 0 0 0 0 0 0 0 0 0 0 0 0 0 0 0 0 0 0 0 0 0 0 0 598 598 603 598 0 0 593 574 593 579 584 588 584 584 588 584 593 588 598 598 584 588 584 579 584 579 574 579 588 593 593 588 579 579 574 579 574 574 574 566 579 584 574 584 584 584 588 588 593 593 0 608 603 0 0 0 549 0 570 570 566 574 574 574 584 579 598 584 0 588 588 579 566 579 584 579 579 579 574 574 579 588 579 579 584 574 574 584 574 574 579 574 574 574 584 584 588 593 588 588 584 570 584 574 566 570 584 588 588 593 598 598 598 0 0 0 0 588 579 579 570 579 579 584 593 588 593 603 598 598 588 593 584 584 579 579 584 584 584 588 584 588 588 598 598 593 598 0 0 0 0 0 584 584 598 598 603 593 598 598 593 593 598 593 584 579 588 584 588 588 588 584 584 588 603 603 613 613 618 618 623 623 629 603 598 603 603 603 584 584 584 584 579 584 579 584 584 593 588 593 593 603 603 629 618 629 629 618 608 593 593 593 593 593 584 579 574 574 579 579 557 537 537 574 603 598 574 570 574 566 557 549 553 549 549 549 553 549 553 557 566 561 570 570 588 574 0 0 0 0 0
    0 0 0 0 0 0 0 0 0 0 0 0 0 0 0 0 0 0 0 0 0 0 0 0 0 0 0 0 0 0 0 0 0 0 0 0 0 0 0 0 0 0 0 0 0 0 0 0 0 0 0 0 0 0 0 0 0 0 0 0 0 0 0 0 0 0 0 0 0 598 593 598 598 598 593 593 570 588 579 584 588 588 584 588 588 593 588 598 598 579 588 584 574 579 579 579 574 584 588 588 584 574 579 570 579 570 570 574 566 579 584 574 584 584 584 588 588 593 593 0 608 603 0 0 0 0 0 0 570 566 0 570 570 0 0 593 0 0 0 0 0 566 579 584 579 579 579 574 574 579 588 574 579 584 579 574 584 574 579 584 574 574 574 584 584 584 588 584 584 574 566 579 566 561 570 584 588 584 593 598 598 593 0 0 0 579 584 579 579 570 579 579 584 593 593 593 598 598 593 588 588 584 579 570 570 584 584 584 584 584 588 588 598 598 588 588 0 0 0 0 579 570 574 579 584 588 579 584 584 579 584 593 588 579 574 593 584 588 588 588 584 584 593 598 593 598 603 603 603 608 608 608 598 593 593 598 593 570 584 584 584 579 584 584 584 584 598 593 593 598 608 608 639 623 634 629 629 618 598 593 593 598 593 584 584 584 579 579 584 561 549 553 613 618 613 584 566 579 561 557 553 553 553 553 553 557 553 557 561 570 566 570 566 584 574 0 0 0 0 0
    0 0 0 0 0 0 0 0 0 0 0 0 0 0 0 0 0 0 0 0 0 0 0 0 0 0 0 0 0 0 0 0 0 0 0 0 0 0 0 0 0 0 0 0 0 0 0 0 0 0 0 0 0 0 0 0 0 0 0 0 0 0 0 0 0 0 0 0 0 598 593 598 598 593 593 588 570 588 579 584 588 588 584 588 588 593 588 593 593 579 588 584 570 574 574 574 574 588 588 588 579 574 574 570 574 570 570 574 566 579 584 574 584 584 584 588 593 593 593 598 608 603 0 0 0 0 0 0 574 570 0 570 574 0 584 593 0 0 0 0 0 566 579 579 574 579 579 574 574 579 588 574 579 584 579 574 579 574 579 579 574 570 570 584 579 584 584 574 574 566 561 574 566 566 579 588 593 593 593 598 603 0 0 0 579 579 584 579 579 574 579 579 584 593 593 598 598 598 593 593 593 584 579 570 570 584 584 584 588 584 588 588 598 598 588 588 0 0 0 0 579 566 570 570 574 574 566 574 570 566 570 584 584 574 570 588 584 584 588 593 588 588 593 593 584 588 588 584 584 584 584 588 588 584 588 593 588 566 584 584 579 579 584 584 584 584 598 593 598 603 613 618 645 639 669 645 629 623 598 598 598 598 593 588 588 593 588 588 593 593 0 618 634 629 613 593 574 584 566 557 557 557 557 557 553 557 553 557 561 574 566 566 566 588 574 0 0 0 0 0
    0 0 0 0 0 0 0 0 0 0 0 0 0 0 0 0 0 0 0 0 0 0 0 0 0 0 0 0 0 0 0 0 0 0 0 0 0 0 0 0 0 0 0 0 0 0 0 0 0 0 0 0 0 0 0 0 0 0 0 0 0 0 0 0 0 0 0 0 0 598 593 598 603 598 593 593 566 588 584 584 593 588 584 588 588 593 588 593 593 579 584 579 570 574 574 574 579 588 588 588 579 570 574 566 574 570 570 574 566 579 584 574 588 584 584 593 593 598 593 598 608 0 0 0 0 0 0 0 574 0 0 570 0 0 0 0 0 0 0 0 0 0 574 579 574 579 574 570 570 574 588 574 579 588 579 570 574 566 579 574 570 570 570 579 574 579 579 566 566 557 557 579 570 570 588 593 598 598 603 603 603 598 603 588 579 574 579 579 579 574 579 584 588 598 593 598 598 603 598 593 593 584 579 570 570 584 584 584 588 584 588 588 598 598 588 0 0 0 0 0 579 566 570 574 574 574 566 574 570 566 566 579 579 570 570 588 584 584 588 588 588 588 593 593 579 584 584 574 570 566 566 566 574 579 584 588 584 566 584 584 579 579 588 584 584 584 598 598 603 603 618 639 694 687 694 681 687 694 608 603 603 603 598 588 593 593 588 593 593 598 0 651 657 634 618 598 584 588 570 566 561 561 561 561 557 561 553 561 561 570 561 566 566 588 579 0 0 0 0 0
    0 0 0 0 0 0 0 0 0 0 0 0 0 0 0 0 0 0 0 0 0 0 0 0 0 0 0 0 0 0 0 0 0 0 0 0 0 0 0 0 0 0 0 0 0 0 0 0 0 0 0 0 0 0 0 0 0 0 0 0 0 0 0 0 0 0 0 0 0 598 598 603 608 603 598 598 0 593 584 584 593 588 588 593 588 598 593 593 593 579 584 579 570 570 574 574 579 588 584 584 574 570 566 557 570 566 561 570 561 579 584 570 584 579 584 593 598 598 0 0 0 0 0 0 0 0 0 0 0 0 0 0 0 0 0 0 0 0 0 0 0 0 579 584 574 579 579 574 574 579 588 579 584 588 574 570 570 561 579 574 570 570 570 579 574 574 574 557 553 549 553 574 570 579 593 598 603 603 608 613 613 603 603 588 574 570 570 574 579 574 579 584 0 598 593 598 598 0 598 593 593 584 579 570 570 584 584 584 588 584 588 588 598 598 584 0 0 0 0 0 579 566 570 574 574 574 566 574 574 566 566 579 584 570 570 588 584 584 588 588 588 584 593 593 584 584 584 570 570 566 561 561 566 574 584 588 584 566 588 588 584 584 588 588 588 588 0 0 0 613 629 0 707 707 714 694 707 714 618 608 608 608 603 598 598 603 598 598 598 608 0 669 657 623 613 593 584 588 570 566 566 566 566 561 557 566 557 566 566 570 561 566 566 584 574 0 0 0 0 0
    0 0 0 0 0 0 0 0 0 0 0 0 0 0 0 0 0 0 0 0 0 0 0 0 0 0 0 0 0 0 0 0 0 0 0 0 0 0 0 0 0 0 0 0 0 0 0 0 0 0 0 0 0 0 0 0 0 0 0 0 0 0 0 0 0 0 0 0 0 613 613 613 618 608 598 0 0 593 584 584 593 588 588 593 593 598 593 593 593 579 584 584 566 570 574 570 0 0 584 584 570 566 561 557 566 561 561 566 557 574 579 566 584 574 584 593 598 598 0 0 0 0 0 0 0 0 0 0 0 0 0 0 0 0 0 0 0 94 93 93 92 0 0 584 579 584 579 574 574 579 593 584 588 0 0 566 0 0 584 574 574 570 574 574 574 0 570 549 0 541 545 0 570 579 593 603 603 608 613 613 613 598 598 0 566 566 566 570 574 570 579 579 0 593 593 598 0 0 593 588 588 579 574 566 570 579 579 584 584 584 588 588 598 598 584 0 0 0 0 0 584 570 574 574 574 579 566 574 574 566 566 584 588 570 574 588 584 584 588 593 588 588 593 593 584 584 584 570 566 566 561 557 566 574 584 588 584 566 593 593 584 588 593 588 588 593 603 0 0 618 0 758 799 808 735 707 721 714 663 639 618 613 608 608 613 618 613 613 629 669 0 681 663 629 613 593 584 588 570 566 566 566 566 561 561 566 557 566 566 570 561 566 566 584 584 0 0 0 0 0
    0 0 0 0 0 0 0 0 0 0 0 0 0 0 0 0 0 0 0 0 0 0 0 0 0 0 0 0 0 0 0 0 0 0 0 0 0 0 0 0 0 0 0 0 0 0 0 0 0 0 0 0 0 0 0 0 0 0 0 0 0 0 0 0 0 0 0 0 0 645 634 0 0 629 0 0 0 588 584 579 588 588 584 593 588 593 588 593 588 574 574 0 561 0 0 0 0 588 574 579 566 0 0 553 0 561 561 566 0 574 579 566 584 574 584 593 598 598 0 0 0 0 0 0 0 0 0 0 0 0 0 0 0 136 135 0 0 0 0 0 0 0 0 0 584 588 584 579 574 579 593 588 0 0 0 566 0 0 593 579 579 574 574 574 0 0 0 0 0 529 0 0 574 584 593 598 603 608 608 608 598 574 579 579 561 557 557 566 566 566 574 574 77 0 0 598 0 0 593 588 588 579 570 557 566 574 579 584 584 584 584 584 598 593 579 0 0 0 0 0 584 570 574 574 574 579 566 579 574 566 566 588 588 574 574 588 588 584 588 593 588 588 593 593 584 584 584 574 566 561 561 553 557 566 574 584 579 566 593 588 584 588 588 588 588 588 603 0 603 618 0 0 0 808 728 694 0 714 681 675 639 629 613 623 629 634 618 618 669 694 694 700 687 657 623 608 598 598 574 570 570 566 566 566 561 566 557 574 574 570 561 566 570 588 588 0 0 0 0 0
    0 0 0 0 0 0 0 0 0 0 0 0 0 0 0 0 0 0 0 0 0 0 0 0 0 0 0 0 0 0 0 0 0 0 0 0 0 0 0 0 0 0 0 0 0 0 0 0 0 0 0 0 0 0 0 0 0 0 0 0 0 0 0 0 0 0 0 0 0 0 0 0 0 0 0 0 0 0 0 0 588 588 584 593 588 593 588 0 588 574 0 0 0 0 0 0 0 0 0 0 0 0 0 0 0 0 0 0 158 158 574 570 584 570 584 0 0 0 0 0 0 0 0 0 0 82 82 0 0 0 0 198 0 135 134 136 0 0 0 0 0 0 0 0 0 593 593 588 584 584 0 0 0 0 0 0 0 0 0 0 0 0 0 0 0 0 0 0 138 0 0 0 0 584 588 598 603 603 0 0 593 0 579 570 557 553 553 561 566 566 579 579 77 0 0 0 0 0 0 0 0 588 566 553 561 570 574 584 584 579 579 584 603 584 0 0 0 0 0 0 584 570 574 574 574 574 566 579 574 566 566 584 588 579 574 588 588 584 593 593 588 588 593 593 588 588 584 579 570 566 566 557 0 570 574 584 574 561 588 588 584 584 588 584 584 584 0 0 598 603 0 0 0 0 0 675 694 721 707 700 675 645 657 675 687 687 645 639 694 707 707 707 687 639 613 603 598 593 570 570 570 566 570 570 566 566 557 579 574 574 566 566 574 584 588 0 0 0 0 0
    0 0 0 0 0 0 0 0 0 0 0 0 0 0 0 0 0 0 0 0 0 0 0 0 0 0 0 0 0 0 0 0 0 0 0 0 0 0 0 0 0 0 0 0 0 0 0 0 0 0 0 0 0 0 0 0 0 0 0 0 0 0 0 0 0 0 0 0 0 0 0 0 0 0 0 0 0 0 0 0 0 0 0 0 598 593 593 593 0 0 0 0 0 0 0 0 0 0 0 0 0 0 0 0 0 0 0 0 0 0 0 0 0 0 0 0 0 0 0 0 0 0 0 0 0 0 0 0 0 0 0 0 0 0 0 0 0 0 0 0 0 0 0 0 0 0 0 0 0 0 0 0 0 0 0 127 127 0 0 0 0 0 0 0 0 133 0 139 138 0 0 0 0 0 96 96 0 0 96 0 0 0 0 0 0 0 0 0 561 557 0 0 77 77 0 107 0 0 0 0 0 0 566 0 561 570 574 584 584 579 574 579 0 0 0 0 0 0 0 0 584 570 574 579 574 574 566 579 574 566 566 584 588 588 574 588 593 588 593 598 593 593 598 593 588 588 588 579 570 566 566 0 0 0 574 0 570 566 593 588 579 579 584 579 579 584 0 0 0 608 0 0 0 826 743 707 714 728 721 714 694 687 714 707 714 707 675 694 714 728 743 721 700 657 618 608 598 593 570 579 574 570 574 579 584 584 574 603 0 618 618 613 598 579 588 0 0 0 0 0
    0 0 0 0 0 0 0 0 0 0 0 0 0 0 0 0 0 0 0 0 0 0 0 0 0 0 0 0 0 0 0 0 0 0 0 0 0 0 0 0 0 0 0 0 0 0 0 0 0 0 0 0 0 0 0 0 0 0 0 0 0 0 0 0 0 0 0 0 0 0 0 0 0 0 0 0 0 0 0 0 0 0 0 0 0 0 0 0 0 0 0 0 0 0 0 0 0 0 0 0 0 0 0 0 0 0 0 0 0 0 0 0 0 0 0 0 0 0 0 0 0 0 0 0 0 0 0 0 0 0 0 0 0 0 0 0 0 0 0 0 0 0 0 0 0 0 0 0 0 0 0 0 0 0 0 0 0 0 0 111 110 0 129 131 0 0 0 0 0 0 0 0 0 0 96 96 96 96 96 0 0 0 0 357 353 352 0 0 574 588 0 0 0 0 0 0 0 0 0 0 0 0 0 0 0 0 0 0 0 0 0 0 104 0 0 1989 2044 0 0 0 0 0 574 579 574 570 557 574 570 561 566 579 588 588 574 588 593 584 598 598 593 593 598 593 588 584 584 574 0 561 0 0 0 0 0 0 0 570 598 593 579 574 579 574 579 579 0 1388 0 0 603 0 0 799 728 687 0 721 721 714 707 707 721 714 714 707 681 707 714 728 743 728 714 694 694 629 598 593 579 579 574 574 574 579 570 574 561 0 0 728 0 0 0 0 651 0 0 0 0 0
    0 0 0 0 0 0 0 0 0 0 0 0 0 0 0 0 0 0 0 0 0 0 0 0 0 0 0 0 0 0 0 0 0 0 0 0 0 0 0 0 0 0 0 0 0 0 0 0 0 0 0 0 0 0 0 0 0 0 0 0 0 0 0 0 0 0 0 0 0 0 0 0 0 0 0 0 0 0 0 0 0 0 0 0 0 0 0 0 0 0 0 0 0 0 0 0 0 0 0 0 0 0 0 0 0 0 0 0 0 0 0 0 0 0 0 0 0 0 0 0 0 0 0 0 0 0 0 0 0 0 0 0 0 0 0 0 0 0 0 0 0 0 0 0 0 0 0 0 0 0 0 0 0 0 0 0 0 0 0 0 0 0 0 0 0 0 0 0 0 0 0 0 0 0 0 0 0 0 0 0 0 0 0 0 0 0 0 0 0 0 0 0 0 0 0 0 0 0 0 0 0 0 0 0 0 0 0 0 0 0 0 0 0 0 1989 0 1887 0 0 0 0 0 574 579 570 566 557 566 0 0 0 0 0 0 574 0 584 570 588 588 588 588 593 588 588 0 0 0 0 153 0 0 0 0 0 0 0 0 0 593 561 557 561 570 579 0 0 1388 0 0 603 0 0 808 743 707 0 721 714 714 657 0 714 707 707 707 694 714 721 735 743 735 721 707 707 675 618 603 603 588 584 579 584 593 584 566 593 0 0 714 0 0 0 0 623 0 0 0 0 0
    0 0 0 0 0 0 0 0 0 0 0 0 0 0 0 0 0 0 0 0 0 0 0 0 0 0 0 0 0 0 0 0 0 0 0 0 0 0 0 0 0 0 0 0 0 0 0 0 0 0 0 0 0 0 0 0 0 0 0 0 0 0 0 0 0 0 0 0 0 0 0 0 0 0 0 0 0 0 0 0 0 0 0 0 0 0 0 0 0 0 0 0 0 0 0 0 0 0 0 0 0 0 0 0 0 0 0 0 0 0 0 0 0 0 0 0 0 0 0 0 0 0 0 0 0 0 0 0 0 0 0 0 0 0 0 0 0 0 0 0 0 0 0 0 0 0 0 0 0 0 0 0 0 0 0 0 0 0 0 0 0 0 0 0 0 0 0 0 0 0 0 0 0 0 0 0 0 0 0 0 0 0 0 0 0 0 0 0 0 0 0 0 0 0 0 0 0 0 0 0 0 0 0 0 0 0 0 0 0 0 0 0 0 0 0 0 0 0 0 0 0 0 0 0 0 0 0 0 0 0 0 0 0 0 0 0 0 0 0 0 0 0 0 0 0 0 0 0 0 0 0 0 0 0 0 0 0 0 0 0 0 669 613 566 545 598 593 588 566 561 557 566 651 0 0 0 0 721 721 714 694 0 728 714 714 714 694 721 721 735 743 728 714 700 707 669 623 603 608 598 593 588 598 613 598 579 608 0 0 714 0 0 0 0 618 0 0 0 0 0
    0 0 0 0 0 0 0 0 0 0 0 0 0 0 0 0 0 0 0 0 0 0 0 0 0 0 0 0 0 0 0 0 0 0 0 0 0 0 0 0 0 0 0 0 0 0 0 0 0 0 0 0 0 0 0 0 0 0 0 0 0 0 0 0 0 0 0 0 0 0 0 0 0 0 0 0 0 0 0 0 0 0 0 0 0 0 0 0 0 0 0 0 0 0 0 0 0 0 0 0 0 0 0 0 0 0 0 0 0 0 0 0 0 0 0 0 0 0 0 0 0 0 0 0 0 0 0 0 0 0 0 0 0 0 0 0 0 0 0 0 0 0 0 0 0 0 0 0 0 0 0 0 0 0 0 0 0 0 0 0 0 0 0 0 0 0 0 0 0 0 0 0 0 0 0 0 0 0 0 0 0 0 0 0 0 0 0 0 0 0 0 0 0 0 0 0 0 0 0 0 0 0 0 0 0 0 0 0 0 0 0 0 0 0 0 0 0 0 0 0 0 0 0 0 0 0 0 0 0 0 0 0 0 0 0 0 0 0 0 0 0 0 0 0 0 0 0 0 0 0 0 0 0 0 0 0 0 0 0 0 0 0 0 0 0 593 593 579 561 557 553 566 574 579 561 537 533 537 0 0 0 0 728 714 714 714 694 721 728 728 728 714 707 694 700 687 645 0 613 603 593 588 598 613 598 570 579 0 0 714 0 0 0 0 634 0 0 0 0 0
    0 0 0 0 0 0 0 0 0 0 0 0 0 0 0 0 0 0 0 0 0 0 0 0 0 0 0 0 0 0 0 0 0 0 0 0 0 0 0 0 0 0 0 0 0 0 0 0 0 0 0 0 0 0 0 0 0 0 0 0 0 0 0 0 0 0 0 0 0 0 0 0 0 0 0 0 0 0 0 0 0 0 0 0 0 0 0 0 0 0 0 0 0 0 92 0 0 0 160 158 0 0 0 0 0 0 0 0 0 0 0 0 0 0 0 0 0 0 0 0 0 0 0 0 0 0 0 0 0 0 0 0 0 0 0 0 0 0 0 0 0 0 0 0 0 0 0 0 0 0 0 0 0 0 0 0 0 0 0 0 0 0 0 0 0 0 0 0 0 0 0 0 0 0 0 0 0 0 0 0 0 0 0 0 0 0 0 0 0 0 0 0 0 0 0 0 0 0 0 0 0 0 0 0 0 0 0 0 0 0 0 0 0 0 0 0 0 0 0 0 0 0 0 0 0 0 0 0 0 0 0 0 0 0 0 0 0 0 0 0 0 0 0 0 0 0 0 0 0 0 0 0 0 0 0 0 0 0 0 0 0 0 0 0 0 0 0 0 0 0 0 553 553 549 553 533 537 537 537 553 529 521 0 714 707 714 707 721 721 721 721 714 721 728 728 728 714 681 645 623 603 598 603 613 574 533 0 0 0 0 0 0 0 0 657 0 0 0 0 0
    0 0 0 0 0 0 0 0 0 0 0 0 0 0 0 0 0 0 0 0 0 0 0 0 0 0 0 0 0 0 0 0 0 0 0 0 0 0 0 0 0 0 0 0 0 0 0 0 0 0 0 0 0 0 0 0 0 0 0 0 0 0 0 0 0 0 0 0 0 204 0 0 0 0 0 362 0 0 0 0 0 0 0 0 0 0 0 0 0 0 0 0 0 0 359 353 0 0 0 157 0 0 0 0 0 0 0 0 0 0 0 0 0 0 0 0 0 0 0 0 0 0 0 0 0 0 0 0 0 0 0 0 0 0 0 0 0 0 0 0 0 0 0 0 0 0 0 0 0 0 0 0 0 0 0 0 0 0 0 0 0 0 0 0 0 0 0 0 0 0 0 0 0 0 0 0 0 0 0 0 0 0 0 0 0 0 0 0 0 0 0 0 0 0 0 0 0 0 0 0 0 0 0 0 0 0 0 0 0 0 0 0 0 0 0 0 0 0 0 0 0 0 0 0 0 0 0 0 0 0 0 0 0 0 0 0 0 0 0 0 0 0 0 0 0 0 0 0 0 0 0 0 0 0 0 0 0 0 0 0 0 0 0 0 0 0 0 0 0 0 0 0 0 0 0 0 533 529 521 574 0 0 0 0 529 507 500 0 0 0 0 735 0 735 728 0 735 0 0 0 0 0 0 0 0 487 474 0 0 0 0 446 0 0 0 0 0 0 0 0
    0 0 0 0 0 0 0 0 0 0 0 0 0 0 0 0 0 0 0 0 0 0 0 0 0 0 0 0 0 0 0 0 0 0 0 0 0 0 0 0 0 0 0 0 0 0 0 0 0 0 0 0 0 0 0 0 0 0 0 0 0 0 0 0 0 0 0 0 0 0 0 0 0 362 364 362 359 359 359 0 0 0 0 0 0 0 0 0 0 0 0 0 0 357 359 355 353 350 348 353 352 345 337 334 0 0 360 0 0 0 0 0 0 360 359 359 0 355 0 0 0 0 0 0 0 0 0 0 0 0 0 0 0 0 0 0 0 0 0 0 0 0 0 0 0 0 0 0 0 0 0 0 0 0 366 367 0 0 357 0 0 0 0 86 86 0 0 0 0 84 0 0 0 366 0 0 364 362 364 364 364 364 0 0 0 0 0 0 0 0 0 0 359 357 353 0 0 0 0 0 0 0 0 0 0 0 0 0 355 0 0 0 0 0 0 0 0 0 0 0 0 0 0 0 0 0 0 0 0 0 0 0 0 0 0 0 0 0 0 0 0 0 0 0 0 0 0 0 0 0 0 0 0 0 0 0 0 0 0 0 0 0 0 0 0 0 0 0 0 0 0 0 0 0 0 0 0 0 0 0 391 0 0 0 500 497 497 0 0 0 0 0 0 0 0 0 0 0 0 0 0 0 0 0 511 490 477 0 0 0 454 440 435 435 427 0 0 0 0 0
    0 0 0 0 0 0 0 0 0 0 0 0 0 0 0 0 0 0 0 0 0 0 0 0 0 0 0 0 0 0 0 0 0 0 0 0 0 0 0 0 0 0 0 0 0 0 0 0 0 0 0 0 0 0 0 0 0 0 0 0 0 0 0 0 0 0 0 0 0 362 360 360 360 359 360 359 357 357 357 359 362 0 0 0 0 104 106 0 0 0 350 352 353 357 359 355 353 352 350 352 350 345 337 334 328 347 355 350 367 364 0 0 362 362 360 360 360 355 355 355 355 357 350 355 348 348 0 348 0 0 0 0 0 0 0 196 196 196 197 0 0 0 0 0 0 0 0 0 0 0 367 367 0 369 366 367 367 364 359 352 353 348 345 0 0 0 0 0 0 0 0 366 366 364 364 360 366 364 367 366 364 366 364 0 369 0 0 364 0 0 360 360 362 360 357 359 0 357 359 0 362 360 359 0 360 362 359 357 353 345 355 362 364 366 0 0 0 0 687 0 0 0 0 0 0 0 0 0 0 0 0 0 0 0 0 0 0 0 0 0 0 0 0 0 0 0 0 146 146 146 0 0 0 0 0 0 0 0 362 360 359 362 364 362 0 0 0 0 0 0 0 0 0 0 0 0 0 0 0 0 0 0 383 0 0 0 0 0 0 0 0 0 0 0 0 0 0 865 836 0 0 0 0 0 497 487 481 0 0 0 0 440 435 435 427 0 0 0 0 0
    0 0 0 0 0 0 0 0 0 0 0 0 0 0 0 0 0 0 0 0 0 0 0 0 0 0 0 0 0 0 0 0 0 0 0 0 0 0 0 0 0 0 0 0 0 0 0 0 0 0 0 0 0 0 0 0 0 0 0 0 0 0 0 0 0 0 0 0 0 360 359 357 359 355 359 357 355 355 355 357 360 0 0 0 0 0 0 0 353 355 353 353 355 357 359 355 355 353 352 352 352 347 337 337 333 350 357 353 366 364 366 364 360 362 359 359 360 357 355 355 355 357 352 359 355 355 353 355 347 0 362 0 0 0 0 0 0 0 0 0 0 0 0 0 0 0 0 0 0 0 366 366 369 369 364 366 364 362 359 357 357 353 350 357 360 360 362 360 364 364 364 366 364 364 364 360 364 362 364 364 362 362 364 364 367 367 364 364 364 0 362 362 364 362 359 362 357 359 360 360 362 360 359 0 360 362 360 357 353 348 357 360 360 362 357 0 694 681 0 0 0 0 0 0 352 347 348 0 0 0 0 0 357 353 355 0 0 364 0 0 0 0 0 364 357 359 360 0 0 0 0 0 0 0 0 362 364 0 362 362 360 364 364 362 364 362 360 360 362 364 366 367 375 377 377 381 379 379 381 0 383 379 379 379 379 381 379 0 373 0 371 0 0 0 0 0 0 943 876 0 0 0 0 507 481 477 468 468 462 457 446 440 435 435 425 0 0 0 0 0
    0 0 0 0 0 0 0 0 0 0 0 0 0 0 0 0 0 0 0 0 0 0 0 0 0 0 0 0 0 0 0 0 0 0 0 0 0 0 0 0 0 0 0 0 0 0 0 0 0 0 0 0 0 0 0 0 0 0 0 0 0 0 0 0 0 0 0 0 0 360 357 357 357 355 357 355 355 355 353 357 359 360 0 0 0 0 0 355 355 355 353 353 355 357 359 355 355 353 353 352 353 350 337 340 339 352 357 353 362 362 362 362 359 360 359 359 359 357 355 355 355 357 352 359 357 357 355 357 353 348 364 0 0 0 0 0 0 0 212 206 0 0 0 362 0 364 364 364 364 366 364 364 367 367 364 364 362 362 359 357 357 355 352 357 359 359 360 359 362 364 362 364 364 362 364 360 362 360 360 362 360 360 362 362 367 367 364 364 364 364 364 362 366 364 359 364 359 360 360 362 362 360 359 362 360 364 362 360 359 355 360 364 362 362 359 0 0 681 0 360 355 0 0 0 357 350 353 359 353 359 357 357 359 357 357 359 359 362 362 364 360 357 364 364 359 360 360 362 364 364 366 364 362 0 366 362 364 364 362 362 360 362 364 362 362 362 360 360 362 364 364 366 373 373 375 375 375 375 375 377 379 375 377 373 375 375 373 375 369 364 366 0 0 0 0 0 0 0 0 0 0 0 0 0 0 0 0 0 497 0 477 477 0 0 0 0 0 0 0 0
    0 0 0 0 0 0 0 0 0 0 0 0 0 0 0 0 0 0 0 0 0 0 0 0 0 0 0 0 0 0 0 0 0 0 0 0 0 0 0 0 0 0 0 0 0 0 0 0 0 0 0 0 0 0 0 0 0 0 0 0 0 0 0 0 0 0 0 0 0 360 357 357 357 0 357 355 355 355 355 357 360 360 0 0 0 0 0 353 353 355 355 353 355 357 359 355 355 355 352 352 355 350 339 343 343 355 359 357 364 362 364 364 359 362 359 359 359 357 355 357 355 357 353 357 355 357 355 357 357 355 364 364 0 0 0 0 0 0 0 0 0 0 0 360 364 364 364 364 364 364 364 364 367 366 362 364 362 362 359 359 357 357 353 357 359 357 359 359 360 362 360 362 362 360 362 360 362 359 359 362 360 360 362 362 366 366 364 364 364 364 364 364 366 364 360 364 360 360 360 362 362 360 359 362 360 364 362 360 359 357 360 364 362 364 360 366 0 0 0 362 360 0 0 362 359 357 359 364 359 362 360 359 360 359 359 359 359 360 360 362 360 0 364 364 359 360 362 362 364 364 364 364 362 364 364 362 362 362 362 362 360 362 362 360 362 362 360 362 362 364 366 367 373 373 375 375 373 373 373 375 375 371 373 369 369 369 367 369 366 362 364 0 0 0 0 0 0 0 0 0 0 0 0 0 0 484 0 0 0 493 0 0 598 584 588 0 0 0 0 0
    0 0 0 0 0 0 0 0 0 0 0 0 0 0 0 0 0 0 0 0 0 0 0 0 0 0 0 0 0 0 0 0 0 0 0 0 0 0 0 0 0 0 0 0 0 0 0 0 0 0 0 0 0 0 0 0 0 0 0 0 0 0 0 0 0 0 0 0 0 359 357 357 357 353 357 355 355 357 355 359 360 360 0 0 357 345 355 353 353 355 355 353 355 357 359 355 357 355 353 353 357 353 342 348 350 357 359 357 362 362 364 364 359 362 359 360 359 357 355 357 357 357 353 357 355 357 355 359 359 359 364 364 0 0 0 0 0 0 0 0 0 0 364 360 364 364 364 364 364 364 364 364 366 366 362 362 362 362 360 359 359 357 353 357 359 355 359 357 360 360 359 362 360 360 362 359 360 357 357 360 360 360 362 362 364 366 364 364 364 364 364 362 366 364 360 364 360 360 360 362 362 360 359 362 360 362 360 360 359 359 360 362 362 362 360 366 0 0 0 360 360 359 0 362 359 357 360 366 360 364 360 360 360 359 360 359 359 360 360 360 360 0 364 364 360 362 362 362 364 364 364 364 362 366 366 362 364 360 362 360 359 360 360 359 362 360 360 360 362 364 366 367 373 373 375 373 373 373 371 373 373 369 371 367 367 369 367 367 362 360 362 362 364 364 364 364 366 367 0 0 0 0 0 0 0 0 0 0 0 0 0 0 603 584 0 0 0 0 0 0
    0 0 0 0 0 0 0 0 0 0 0 0 0 0 0 0 0 0 0 0 0 0 0 0 0 0 0 0 0 0 0 0 0 0 0 0 0 0 0 0 0 0 0 0 0 0 0 0 0 0 0 0 0 0 0 0 0 0 0 0 0 0 0 0 0 0 0 0 0 359 357 357 357 355 357 355 355 357 357 359 360 360 362 352 355 347 353 353 353 355 355 355 357 357 359 357 359 359 355 355 359 359 347 357 357 359 360 360 364 362 364 364 359 362 359 360 359 359 355 357 357 359 353 357 355 359 355 359 359 360 364 364 0 0 0 0 0 0 0 0 0 364 362 359 364 362 362 364 362 364 364 362 366 364 360 362 362 362 359 359 359 357 353 357 357 355 359 357 360 360 359 362 362 360 362 359 360 357 357 360 360 360 360 360 364 364 362 364 364 364 362 362 366 364 360 364 359 360 360 360 360 360 359 362 360 362 360 359 359 359 360 362 360 362 360 364 0 0 0 360 360 359 360 362 360 359 362 367 362 364 362 362 362 360 362 360 360 362 362 362 360 0 364 362 360 362 362 362 364 364 364 364 362 366 366 364 364 362 362 360 360 360 362 360 362 360 360 360 362 364 366 367 373 373 375 373 373 371 371 373 373 369 371 367 369 369 367 367 362 360 362 362 364 364 362 364 364 366 369 0 393 369 366 366 366 362 362 362 362 362 0 0 0 0 0 0 0 0 0 0
    0 0 0 0 0 0 0 0 0 0 0 0 0 0 0 0 0 0 0 0 0 0 0 0 0 0 0 0 0 0 0 0 0 0 0 0 0 0 0 0 0 0 0 0 0 0 0 0 0 0 0 0 0 0 0 0 0 0 0 0 0 0 0 0 0 0 0 0 0 359 357 357 357 355 357 355 357 357 357 359 359 359 362 348 353 348 353 353 353 357 357 355 357 357 359 359 359 359 357 357 360 360 355 360 359 360 362 362 364 362 364 362 359 362 359 359 357 359 355 357 357 359 355 359 357 360 357 360 360 360 364 366 364 364 366 364 366 366 364 362 362 364 362 359 362 362 362 364 362 364 364 364 366 364 360 360 360 362 359 359 359 355 353 357 357 355 359 359 360 360 360 362 362 360 362 359 360 357 357 360 360 360 360 359 362 364 362 364 364 362 362 362 364 364 359 364 359 360 360 360 360 360 359 362 360 362 360 359 359 359 360 362 360 362 362 366 0 0 366 360 359 359 360 362 359 359 362 367 364 366 364 362 362 360 362 360 360 362 362 362 362 360 364 362 360 362 362 362 364 364 364 364 364 366 366 364 364 362 362 362 360 362 362 360 362 362 362 360 364 366 367 367 373 373 375 373 373 371 371 371 373 369 369 367 367 367 367 367 364 362 362 362 364 364 362 364 364 366 367 366 0 366 364 366 364 360 360 360 360 362 367 366 0 0 0 0 0 0 0 0
    0 0 0 0 0 0 0 0 0 0 0 0 0 0 0 0 0 0 0 0 0 0 0 0 0 0 0 0 0 0 0 0 0 0 0 0 0 0 0 0 0 0 0 0 0 0 0 0 0 0 0 0 0 0 0 0 0 0 0 0 0 0 0 0 0 0 0 0 0 359 357 357 359 355 357 355 355 355 357 359 357 357 360 347 352 348 353 353 353 357 357 355 357 357 359 359 359 360 357 355 359 360 359 360 360 360 362 362 364 362 362 362 359 360 359 359 357 359 357 359 359 359 357 359 359 360 357 360 360 360 364 366 366 366 366 364 366 366 366 364 362 362 360 357 362 362 362 364 362 364 364 364 366 364 360 360 360 362 359 359 359 355 355 357 359 355 359 359 360 360 360 362 362 360 362 359 360 357 357 360 360 359 360 359 362 364 362 364 362 362 362 362 364 364 360 364 359 360 360 360 360 360 357 362 359 362 359 359 359 359 360 360 359 362 362 364 364 364 366 360 360 360 362 364 362 360 364 367 364 366 364 362 362 362 362 360 360 362 362 362 362 360 364 362 362 362 364 362 364 364 364 364 364 366 366 364 364 362 364 362 362 362 362 362 364 364 362 362 364 366 367 369 373 373 373 373 373 371 369 371 371 367 369 366 367 367 366 366 364 362 362 362 362 362 362 362 364 366 366 366 366 366 364 364 362 357 359 359 359 362 367 364 367 364 366 0 0 0 0 0
    0 0 0 0 0 0 0 0 0 0 0 0 0 0 0 0 0 0 0 0 0 0 0 0 0 0 0 0 0 0 0 0 0 0 0 0 0 0 0 0 0 0 0 0 0 0 0 0 0 0 0 0 0 0 0 0 0 0 0 0 0 0 0 0 0 0 0 0 0 359 357 357 357 355 357 355 355 355 355 357 357 355 359 348 352 348 353 353 353 357 357 357 357 359 360 359 360 360 357 355 359 360 359 360 360 360 360 362 362 362 362 362 360 362 359 357 355 359 357 359 359 357 357 357 359 360 359 360 359 360 364 367 367 367 367 366 367 367 366 364 362 362 360 357 362 362 362 362 360 364 362 362 366 364 360 360 360 362 359 359 359 355 355 357 359 355 360 360 360 362 360 362 362 360 362 359 359 357 357 360 359 359 360 359 362 364 362 364 364 364 364 364 366 366 360 364 360 362 362 360 360 359 357 362 359 362 359 359 359 360 359 360 357 360 360 364 364 364 366 362 364 366 367 369 367 366 367 369 367 367 366 364 364 362 364 360 360 362 362 362 362 362 364 362 362 364 364 362 364 364 364 364 364 366 366 364 364 364 364 362 362 362 364 362 364 364 364 364 366 367 367 369 373 371 373 371 371 369 369 369 369 367 367 366 367 367 367 367 364 364 362 362 364 364 362 364 366 367 367 367 367 367 366 366 366 362 366 367 367 367 369 367 367 366 366 0 0 0 0 0
    0 0 0 0 0 0 0 0 0 0 0 0 0 0 0 0 0 0 0 0 0 0 0 0 0 0 0 0 0 0 0 0 0 0 0 0 0 0 0 0 0 0 0 0 0 0 0 0 0 0 0 0 0 0 0 0 0 0 0 0 0 0 0 0 0 0 0 0 0 357 359 359 357 355 357 355 355 357 357 359 357 355 359 350 353 350 353 353 353 357 359 357 357 359 360 359 360 360 359 355 359 362 359 360 360 360 360 362 360 360 360 360 359 360 359 357 352 359 357 359 359 357 357 357 357 360 359 360 360 360 366 367 369 369 369 367 367 367 366 364 362 360 359 357 360 362 362 362 360 362 362 362 366 364 359 359 360 360 359 359 359 355 355 359 359 355 360 360 360 362 360 362 362 360 362 359 357 357 357 360 360 360 360 360 362 364 362 364 364 364 364 366 366 366 362 364 360 360 362 360 360 359 357 362 359 360 359 359 359 360 360 360 357 362 364 366 366 366 367 366 367 369 373 371 371 369 369 369 367 367 367 366 364 364 364 362 362 362 362 362 364 362 364 362 364 364 364 362 364 364 364 362 364 366 366 364 366 364 366 364 364 364 364 364 366 366 366 366 366 369 367 369 371 369 371 369 369 367 367 367 367 366 367 366 369 369 369 369 366 366 364 364 366 364 364 366 367 367 367 369 371 369 367 369 367 366 369 369 369 369 369 367 369 367 367 0 0 0 0 0
    0 0 0 0 0 0 0 0 0 0 0 0 0 0 0 0 0 0 0 0 0 0 0 0 0 0 0 0 0 0 0 0 0 0 0 0 0 0 0 0 0 0 0 0 0 0 0 0 0 0 0 0 0 0 0 0 0 0 0 0 0 0 0 0 0 0 0 0 0 357 359 359 359 355 357 359 359 359 359 359 359 357 360 353 353 350 352 353 353 355 357 357 355 357 359 359 359 360 359 355 359 362 359 359 359 360 360 360 360 360 360 360 359 360 359 357 352 359 359 359 359 357 357 355 357 360 359 360 360 360 366 367 369 369 369 367 367 366 366 364 360 360 359 357 360 362 362 362 359 362 362 362 366 364 359 360 360 362 359 357 359 353 355 359 359 357 360 360 362 362 362 362 360 360 362 359 357 357 359 362 360 360 360 360 362 364 364 364 364 364 364 366 366 366 362 364 360 360 360 360 359 359 355 360 359 360 357 357 359 359 360 360 359 362 366 367 369 371 371 367 369 369 373 369 369 369 369 369 367 369 367 366 366 364 366 362 362 360 362 360 362 360 364 360 362 364 364 362 364 364 364 362 366 366 366 366 366 364 366 364 364 366 366 366 366 367 367 366 367 371 369 369 371 369 371 369 367 367 366 367 367 366 367 366 369 369 371 369 366 366 364 364 366 366 366 366 367 367 369 369 373 371 369 369 369 367 371 371 371 369 369 367 369 367 367 0 0 0 0 0
    0 0 0 0 0 0 0 0 0 0 0 0 0 0 0 0 0 0 0 0 0 0 0 0 0 0 0 0 0 0 0 0 0 0 0 0 0 0 0 0 0 0 0 0 0 0 0 0 0 0 0 0 0 0 0 0 0 0 0 0 0 0 0 0 0 0 0 0 0 357 359 360 360 357 359 360 360 360 360 360 360 357 360 352 350 350 350 352 352 355 359 357 355 359 359 360 359 360 359 357 359 362 359 359 359 360 360 360 360 360 360 360 360 360 359 355 352 359 359 359 359 357 357 355 357 360 359 360 360 360 364 366 369 367 367 366 366 366 366 364 362 362 360 357 360 362 362 362 359 362 362 362 364 362 359 359 360 362 359 357 359 353 357 360 359 359 360 362 362 362 362 360 360 360 360 357 357 357 359 362 362 362 360 360 362 362 362 362 362 362 364 364 366 366 360 362 360 360 360 359 359 357 355 360 357 359 355 357 359 359 360 360 359 360 364 367 369 373 373 371 371 373 373 369 367 367 367 369 367 367 367 366 366 366 366 362 362 362 362 362 362 362 364 360 362 364 364 362 364 364 364 362 366 366 367 366 366 366 367 366 364 366 366 366 367 367 367 367 367 373 371 371 373 371 371 369 367 367 366 367 367 366 367 366 369 369 371 369 366 367 366 364 366 366 367 367 369 369 369 371 373 373 371 0 371 369 371 371 371 371 371 369 371 369 369 0 0 0 0 0
    0 0 0 0 0 0 0 0 0 0 0 0 0 0 0 0 0 0 0 0 0 0 0 0 0 0 0 0 0 0 0 0 0 0 0 0 0 0 0 0 0 0 0 0 0 0 0 0 0 0 0 0 0 0 0 0 0 0 0 0 0 0 0 0 0 0 0 0 0 355 359 360 360 359 359 360 360 360 362 360 360 357 359 350 348 352 348 353 352 355 359 357 355 359 359 360 359 359 359 355 357 362 359 359 359 359 360 360 360 360 359 360 360 360 359 355 353 359 359 359 359 357 357 355 359 359 359 360 359 359 364 364 367 367 367 366 366 364 366 364 362 362 360 359 362 362 364 362 359 362 362 362 364 362 359 359 359 362 359 357 359 355 359 360 360 360 362 364 364 362 362 362 360 360 360 359 357 359 360 364 362 362 360 362 362 362 362 362 362 362 364 364 366 366 360 362 360 360 360 359 359 357 355 360 359 359 355 357 359 359 360 359 357 360 362 366 366 373 371 371 371 375 373 369 367 367 367 367 367 367 367 366 366 366 366 364 362 362 362 362 364 362 364 360 364 364 364 362 364 364 364 362 366 366 367 366 366 366 367 366 366 366 366 366 367 367 369 367 369 375 371 373 373 371 373 369 369 367 367 367 367 366 369 367 369 369 371 369 367 367 366 366 367 367 369 369 369 371 369 373 375 373 373 0 0 371 373 373 373 373 371 371 373 371 371 0 0 0 0 0
    0 0 0 0 0 0 0 0 0 0 0 0 0 0 0 0 0 0 0 0 0 0 0 0 0 0 0 0 0 0 0 0 0 0 0 0 0 0 0 0 0 0 0 0 0 0 0 0 0 0 0 0 0 0 0 0 0 0 0 0 0 0 0 0 0 0 0 0 0 357 359 360 360 360 360 362 362 362 362 362 360 357 359 352 352 352 348 353 352 355 359 357 353 357 359 359 357 359 357 355 357 362 359 359 359 359 359 360 359 360 359 360 360 360 357 353 353 359 359 359 359 357 357 355 359 360 359 359 359 359 362 364 367 367 367 366 366 364 366 364 362 362 360 359 362 362 364 362 359 362 362 362 364 362 359 359 359 362 359 357 359 355 360 362 362 362 364 364 364 364 362 362 360 360 362 359 359 359 362 364 364 362 360 362 364 362 364 362 362 362 364 364 366 364 360 362 360 362 362 359 360 357 357 362 359 360 357 357 359 359 360 359 359 360 362 366 366 371 371 371 371 375 375 369 369 367 366 367 366 367 367 366 366 366 366 364 362 362 362 362 364 362 364 360 364 364 364 362 362 362 364 362 366 366 366 366 366 366 367 367 367 367 367 367 369 369 369 369 369 377 373 375 373 373 373 371 371 369 367 369 367 367 369 367 371 369 371 371 369 371 367 367 369 369 369 371 371 371 371 373 375 373 0 0 0 369 373 373 373 373 371 371 375 373 373 0 0 0 0 0
    0 0 0 0 0 0 0 0 0 0 0 0 0 0 0 0 0 0 0 0 0 0 0 0 0 0 0 0 0 0 0 0 0 0 0 0 0 0 0 0 0 0 0 0 0 0 0 0 0 0 0 0 0 0 0 0 0 0 0 0 0 0 0 0 0 0 0 0 0 357 359 360 360 362 360 364 362 362 364 362 362 359 359 353 353 353 350 357 353 355 359 357 352 357 357 357 355 357 357 353 355 362 357 357 357 359 359 359 359 359 357 359 360 360 357 353 353 359 359 359 359 355 357 355 359 359 359 359 359 357 362 364 369 369 367 366 366 364 366 364 362 362 362 360 362 364 364 364 360 362 362 362 362 362 359 359 359 362 360 359 360 359 364 364 364 364 364 366 366 364 364 362 360 360 360 360 359 360 362 364 362 362 362 362 364 364 364 364 362 364 364 366 366 366 362 364 362 364 362 360 360 357 359 362 359 360 357 359 359 359 360 359 357 360 362 366 366 373 371 373 373 375 375 369 367 366 364 367 366 366 366 366 366 366 364 364 362 362 362 364 364 364 366 360 364 364 364 362 362 360 362 360 366 364 366 366 366 366 367 367 367 369 367 369 369 369 371 369 369 377 371 375 373 373 373 371 371 371 367 369 367 366 369 367 371 371 371 373 371 371 367 367 369 369 371 371 371 371 371 373 373 373 0 0 0 366 367 369 369 371 371 371 377 375 375 0 0 0 0 0
    0 0 0 0 0 0 0 0 0 0 0 0 0 0 0 0 0 0 0 0 0 0 0 0 0 0 0 0 0 0 0 0 0 0 0 0 0 0 0 0 0 0 0 0 0 0 0 0 0 0 0 0 0 0 0 0 0 0 0 0 0 0 0 0 0 0 0 0 0 357 359 360 359 360 362 364 364 362 364 362 362 360 359 355 355 355 353 359 357 357 359 359 352 357 357 357 355 357 357 353 355 362 357 357 357 359 357 359 357 357 357 359 360 360 359 355 355 359 359 359 360 355 357 353 359 359 359 359 359 357 362 364 369 367 367 366 366 364 364 364 362 362 362 362 362 364 364 364 362 362 362 362 362 364 360 360 360 364 362 360 362 362 366 366 364 366 364 366 366 364 362 360 360 360 360 360 359 359 362 364 362 362 362 364 364 364 364 364 364 366 366 367 366 366 364 364 364 364 362 360 360 357 359 362 360 360 357 359 359 359 360 359 359 360 362 366 366 373 371 375 375 377 377 369 367 366 364 367 366 366 366 366 366 366 366 364 362 362 362 364 364 364 366 360 364 364 364 362 360 360 360 359 364 364 364 366 366 366 367 367 367 369 367 367 367 367 369 369 369 375 371 373 373 371 373 371 371 373 367 369 367 366 371 367 371 371 373 373 369 371 367 367 367 369 369 371 371 371 371 373 375 373 373 367 366 366 367 367 369 371 371 373 377 375 373 0 0 0 0 0
    0 0 0 0 0 0 0 0 0 0 0 0 0 0 0 0 0 0 0 0 0 0 0 0 0 0 0 0 0 0 0 0 0 0 0 0 0 0 0 0 0 0 0 0 0 0 0 0 0 0 0 0 0 0 0 0 0 0 0 0 0 0 0 0 0 0 0 0 0 357 359 360 359 0 362 0 364 0 0 364 364 364 362 359 359 360 359 362 359 357 360 359 352 357 357 357 355 357 357 355 357 362 357 357 357 359 357 359 357 357 357 359 360 362 359 355 355 359 359 359 360 357 357 353 359 359 359 359 359 357 362 362 367 367 366 364 366 364 364 366 364 364 364 364 362 364 364 364 362 362 362 362 362 364 360 362 360 364 362 362 362 364 367 366 364 364 364 366 366 364 362 360 359 359 360 360 359 359 362 364 362 364 362 364 364 364 364 364 364 366 366 367 366 366 364 364 364 364 362 360 360 359 360 362 360 360 357 359 360 360 362 360 359 360 364 366 366 373 371 375 375 377 375 367 367 366 364 367 366 366 366 366 366 366 366 364 362 362 364 364 366 364 366 360 362 364 364 362 360 359 360 359 364 364 366 366 366 367 369 367 369 369 367 367 367 367 369 369 369 373 371 373 373 371 373 371 371 373 367 369 366 366 371 369 371 373 373 371 369 369 366 366 367 367 369 369 371 371 371 375 375 373 375 369 367 369 369 369 371 373 375 375 381 379 377 0 0 0 0 0
    0 0 0 0 0 0 0 0 0 0 0 0 0 0 0 0 0 0 0 0 0 0 0 0 0 0 0 0 0 0 0 0 0 0 0 0 0 0 0 0 0 0 0 0 0 0 0 0 0 0 0 0 0 0 0 0 0 0 0 0 0 0 0 0 0 0 0 0 0 359 360 362 360 362 364 0 366 366 367 366 366 367 364 362 362 362 360 362 359 0 0 0 0 357 357 357 355 357 359 357 357 364 359 359 357 359 357 357 357 355 355 357 359 362 359 355 357 360 360 359 360 357 359 353 359 359 359 359 359 359 360 362 366 366 366 364 366 364 364 366 364 364 364 364 362 364 364 364 362 362 362 362 362 364 360 362 360 364 364 364 364 366 367 366 364 366 362 364 364 364 360 359 359 359 360 360 359 360 362 364 362 364 364 364 364 364 364 364 364 366 366 366 366 364 362 364 364 364 362 360 362 359 360 364 362 360 359 359 360 360 362 360 359 360 362 366 366 371 369 371 371 373 371 364 362 362 360 366 364 364 364 364 364 364 364 364 362 362 364 366 366 366 366 360 362 364 364 364 360 359 360 359 366 366 366 366 367 367 369 369 369 371 369 369 367 366 369 369 369 373 371 373 373 371 373 371 371 373 367 367 366 364 367 366 367 369 369 369 366 366 362 364 366 367 369 369 369 371 371 375 375 373 375 367 367 369 369 371 371 375 379 377 381 381 379 0 0 0 0 0
    0 0 0 0 0 0 0 0 0 0 0 0 0 0 0 0 0 0 0 0 0 0 0 0 0 0 0 0 0 0 0 0 0 0 0 0 0 0 0 0 0 0 0 0 0 0 0 0 0 0 0 0 0 0 0 0 0 0 0 0 0 0 0 0 0 0 0 0 0 359 360 362 360 364 366 0 367 0 369 369 369 369 366 362 364 362 360 362 359 357 359 357 352 357 357 357 355 357 359 357 359 366 359 360 357 359 359 357 357 357 357 359 359 362 0 357 359 360 360 359 360 359 359 355 359 359 359 359 359 357 359 360 364 364 364 364 364 364 364 366 364 364 366 364 364 364 364 366 364 364 362 362 362 364 362 362 362 364 364 364 364 367 367 366 366 366 364 366 366 364 360 359 359 359 360 362 360 360 362 364 362 364 364 364 364 364 366 364 364 366 366 366 366 364 362 364 364 364 364 362 362 360 362 364 362 360 359 360 360 360 362 360 359 360 362 364 364 367 366 369 369 369 367 364 360 362 360 364 362 362 362 364 364 364 364 364 362 362 364 366 366 366 366 360 362 364 364 364 362 360 360 360 366 366 367 367 367 367 369 369 369 369 367 367 366 366 369 367 369 373 371 373 373 373 373 373 371 373 367 367 366 364 367 366 366 366 366 366 364 364 360 364 366 367 369 369 369 369 371 375 375 373 0 366 366 369 367 369 371 373 377 377 379 381 377 0 0 0 0 0
    0 0 0 0 0 0 0 0 0 0 0 0 0 0 0 0 0 0 0 0 0 0 0 0 0 0 0 0 0 0 0 0 0 0 0 0 0 0 0 0 0 0 0 0 0 0 0 0 0 0 0 0 0 0 0 0 0 0 0 0 0 0 0 0 0 0 0 0 0 360 360 364 362 364 367 367 367 367 369 369 369 369 0 364 366 364 360 362 357 357 357 357 350 357 357 357 355 357 359 357 359 366 359 360 357 359 359 357 359 357 357 359 0 362 0 357 359 360 360 359 360 359 359 355 359 359 357 359 359 357 359 360 364 364 364 364 366 364 364 366 364 366 366 366 364 364 366 366 364 364 364 364 362 364 362 362 362 364 364 364 364 366 367 366 366 366 364 366 366 364 362 359 359 359 360 362 362 360 362 364 364 364 366 364 364 364 366 364 364 366 366 364 366 364 362 364 366 366 364 362 362 360 362 364 364 362 360 362 362 362 364 362 360 360 362 366 364 366 366 367 367 367 366 362 360 364 362 364 362 362 362 364 364 364 362 0 362 364 364 367 367 366 366 362 364 364 364 364 362 362 362 362 367 367 369 367 367 367 369 369 369 369 367 367 366 366 369 369 369 375 373 373 373 373 375 373 373 375 369 369 369 366 367 364 364 364 364 366 364 364 360 364 366 367 369 369 369 369 371 377 373 371 0 367 367 369 366 367 369 371 375 373 375 375 373 0 0 0 0 0
    0 0 0 0 0 0 0 0 0 0 0 0 0 0 0 0 0 0 0 0 0 0 0 0 0 0 0 0 0 0 0 0 0 0 0 0 0 0 0 0 0 0 0 0 0 0 0 0 0 0 0 0 0 0 0 0 0 0 0 0 0 0 0 0 0 0 0 0 0 360 360 362 360 362 366 367 367 366 369 369 369 369 0 366 0 364 360 362 355 357 357 355 350 355 355 357 355 357 357 357 359 366 359 359 357 359 359 357 359 0 0 0 0 362 0 0 360 360 362 360 362 360 359 355 359 359 359 359 359 359 359 362 366 367 367 366 367 366 364 366 364 364 364 364 364 364 366 366 366 364 364 364 364 364 362 364 364 364 364 364 364 366 366 366 366 364 364 364 366 364 360 360 359 360 360 362 362 360 362 364 362 366 366 366 364 366 367 366 366 367 366 366 367 366 362 364 366 366 366 364 364 362 364 366 364 364 362 364 364 364 366 364 362 362 364 364 364 366 364 366 366 366 366 364 366 366 364 364 360 362 360 362 364 364 362 364 362 364 364 367 367 367 366 362 364 364 366 366 364 364 364 364 367 367 369 369 369 367 371 371 373 371 371 371 369 367 373 371 371 373 371 369 373 373 375 373 373 375 369 369 371 366 366 364 364 364 364 364 362 362 359 364 366 366 367 367 367 369 369 375 373 371 373 367 367 367 366 367 367 369 373 371 371 371 369 0 0 0 0 0
    0 0 0 0 0 0 0 0 0 0 0 0 0 0 0 0 0 0 0 0 0 0 0 0 0 0 0 0 0 0 0 0 0 0 0 0 0 0 0 0 0 0 0 0 0 0 0 0 0 0 0 0 0 0 0 0 0 0 0 0 0 0 0 0 0 0 0 0 0 360 360 362 360 360 364 366 366 366 367 367 367 369 367 366 366 364 362 360 357 357 357 355 350 357 357 357 357 357 357 359 359 364 357 359 357 357 359 357 359 357 0 0 0 0 0 0 0 359 362 362 362 360 359 355 359 359 359 359 359 359 360 364 366 369 367 367 367 367 364 366 364 364 364 362 362 364 364 366 366 364 364 364 364 366 364 366 364 364 366 364 364 366 367 364 366 364 364 364 366 364 362 360 360 360 360 362 362 360 362 362 362 366 366 366 366 366 367 367 367 369 367 367 369 366 362 364 366 366 366 364 364 362 364 366 364 364 362 364 364 366 367 366 364 362 364 364 362 364 362 364 364 364 364 364 366 366 364 364 360 362 362 362 364 362 362 362 362 364 364 367 367 367 367 362 364 364 366 366 366 366 366 366 369 369 369 369 369 369 371 371 373 373 373 373 371 371 375 373 373 373 371 369 371 373 373 373 373 373 371 369 373 369 367 366 367 366 366 364 362 362 359 364 364 364 366 366 367 367 369 375 371 371 373 369 367 369 366 367 367 371 373 373 371 371 369 0 0 0 0 0
    0 0 0 0 0 0 0 0 0 0 0 0 0 0 0 0 0 0 0 0 0 0 0 0 0 0 0 0 0 0 0 0 0 0 0 0 0 0 0 0 0 0 0 0 0 0 0 0 0 0 0 0 0 0 0 0 0 0 0 0 0 0 0 0 0 0 0 0 0 357 359 360 359 359 362 364 366 364 366 366 366 367 0 366 364 362 360 360 355 357 355 355 348 357 355 357 357 357 357 359 359 364 357 359 357 357 359 357 359 355 355 0 0 0 0 0 0 0 362 364 362 362 359 355 357 359 359 359 357 360 360 364 366 369 369 367 367 366 364 366 364 364 364 360 360 362 364 364 364 364 364 364 366 366 366 367 366 366 366 364 364 366 366 364 362 360 360 362 362 362 362 359 360 360 362 364 362 362 362 362 364 366 366 366 366 366 367 367 367 367 367 367 367 367 362 364 364 364 364 362 362 360 362 364 362 364 362 362 364 366 367 366 364 362 366 364 362 364 362 364 364 364 364 362 366 366 366 366 362 364 362 364 364 364 364 364 364 366 366 369 369 369 367 362 364 364 366 366 366 366 366 366 371 369 369 369 371 369 371 371 375 375 375 375 373 375 375 375 373 371 369 369 369 369 369 369 369 371 369 369 371 367 366 366 367 367 366 362 360 360 359 364 364 364 366 366 367 367 369 375 373 373 375 371 367 369 367 367 367 369 371 371 369 371 367 0 0 0 0 0
    0 0 0 0 0 0 0 0 0 0 0 0 0 0 0 0 0 0 0 0 0 0 0 0 0 0 0 0 0 0 0 0 0 0 0 0 0 0 0 0 0 0 0 0 0 0 0 0 0 0 0 0 0 0 0 0 0 0 0 0 0 0 0 0 0 0 0 0 0 355 359 359 357 357 360 362 364 364 364 366 366 0 0 366 364 362 359 359 353 353 352 352 347 355 353 355 355 357 357 359 359 364 357 359 357 357 357 357 357 355 355 0 0 0 0 0 359 0 0 0 362 364 359 357 357 359 357 359 357 360 360 364 366 369 369 367 367 364 364 364 362 362 362 359 360 362 364 364 364 364 364 364 366 366 366 367 366 366 364 364 362 364 362 362 359 357 357 359 359 360 360 359 360 360 362 364 362 364 364 364 366 366 367 366 366 366 367 367 367 367 367 366 367 367 362 364 362 364 364 362 362 360 362 364 364 364 364 364 366 366 367 366 364 364 366 364 362 362 362 364 364 364 364 362 366 367 367 367 366 366 366 364 364 366 364 366 366 366 367 369 369 369 366 360 364 364 364 366 366 366 366 366 371 369 371 371 371 371 371 373 375 377 377 375 375 375 375 375 373 369 367 366 366 366 366 367 366 369 369 367 371 369 366 366 367 367 366 364 362 362 360 364 364 364 366 366 367 367 369 375 375 375 379 375 371 371 367 366 367 367 371 369 367 371 367 0 0 0 0 0
    0 0 0 0 0 0 0 0 0 0 0 0 0 0 0 0 0 0 0 0 0 0 0 0 0 0 0 0 0 0 0 0 0 0 0 0 0 0 0 0 0 0 0 0 0 0 0 0 0 0 0 0 0 0 0 0 0 0 0 0 0 0 0 0 0 0 0 0 0 353 357 355 357 355 359 362 364 362 364 366 366 0 0 0 0 360 357 355 350 352 348 350 345 352 352 353 355 355 355 357 359 362 355 357 355 355 357 355 357 355 353 0 0 0 0 0 359 359 360 362 360 362 359 357 357 357 357 359 359 360 360 364 366 369 369 367 366 364 364 364 362 360 360 357 360 362 362 362 362 364 364 364 366 364 364 366 364 364 362 362 360 362 360 360 357 355 357 359 357 360 360 359 360 362 362 364 364 364 364 366 367 367 367 367 366 366 367 367 367 366 367 366 367 367 362 364 362 364 364 362 362 360 362 366 364 366 364 366 367 367 369 366 364 364 366 364 362 362 362 362 362 362 362 362 364 367 367 369 367 366 367 366 364 367 366 366 366 367 367 369 369 369 366 359 362 362 362 362 364 364 364 364 369 367 371 371 371 371 373 373 375 377 377 375 375 377 375 373 371 369 366 366 366 366 364 366 366 369 371 369 371 369 367 366 366 366 366 362 362 362 362 364 366 366 367 367 367 369 373 381 383 381 381 377 371 373 369 366 0 0 0 0 0 375 367 0 0 0 0 0
    0 0 0 0 0 0 0 0 0 0 0 0 0 0 0 0 0 0 0 0 0 0 0 0 0 0 0 0 0 0 0 0 0 0 0 0 0 0 0 0 0 0 0 0 0 0 0 0 0 0 0 0 0 0 0 0 0 0 0 0 0 0 0 0 0 0 0 0 0 348 353 352 355 352 359 360 362 362 362 362 366 0 0 0 0 359 355 353 348 350 347 348 345 350 350 352 353 355 353 355 357 362 355 355 355 355 357 355 357 355 353 0 0 0 0 0 0 357 360 360 359 360 357 357 357 357 357 359 359 362 360 366 366 369 369 366 366 362 362 362 360 359 359 355 359 362 362 362 360 364 364 364 366 364 364 0 0 0 0 0 0 0 0 0 357 0 0 0 0 360 360 359 360 362 362 364 364 364 364 366 367 367 367 367 366 366 367 367 367 367 367 366 367 367 362 366 362 364 364 362 362 360 362 366 362 366 364 366 369 369 371 366 364 364 366 364 362 360 360 362 362 360 362 362 364 367 369 369 367 367 0 0 366 369 0 369 367 367 367 369 369 367 364 357 362 360 360 362 362 362 362 364 367 367 369 369 369 371 371 373 375 377 377 375 375 377 373 373 371 369 366 366 366 366 364 367 367 369 373 371 373 371 367 367 367 366 364 362 362 362 362 366 366 367 367 369 369 371 375 385 389 383 383 379 371 371 367 366 0 366 0 0 0 371 0 0 0 0 0 0
    0 0 0 0 0 0 0 0 0 0 0 0 0 0 0 0 0 0 0 0 0 0 0 0 0 0 0 0 0 0 0 0 0 0 0 0 0 0 0 0 0 0 0 0 0 0 0 0 0 0 0 0 0 0 0 0 0 0 0 0 0 0 0 0 0 0 0 0 0 347 350 350 353 352 357 359 360 360 360 362 364 0 0 0 0 359 355 352 348 348 345 347 343 350 348 350 352 352 352 355 357 360 353 353 353 353 355 353 357 355 353 0 0 0 0 0 0 357 359 360 359 360 359 357 355 357 357 360 359 362 362 366 366 371 369 366 366 362 362 362 360 359 357 353 360 362 362 362 360 362 364 364 0 364 362 0 0 0 0 0 0 0 0 0 0 0 0 0 0 360 360 359 360 362 362 364 364 366 366 366 367 367 0 367 366 366 367 367 367 367 367 367 367 369 364 366 362 364 364 362 362 360 362 366 362 366 366 366 371 369 371 367 366 364 366 364 362 360 362 362 362 360 362 362 364 369 369 369 0 369 371 0 367 371 0 373 369 369 369 369 369 367 362 357 362 360 359 360 362 362 362 364 366 366 369 369 369 369 371 373 375 377 379 375 375 377 373 373 371 367 366 366 366 366 364 0 0 373 375 0 375 0 369 369 0 367 366 364 366 364 366 366 366 367 367 369 369 369 375 375 381 375 375 373 366 366 364 360 364 364 364 366 0 0 366 0 0 0 0 0
    0 0 0 0 0 0 0 0 0 0 0 0 0 0 0 0 0 0 0 0 0 0 0 0 0 0 0 0 0 0 0 0 0 0 0 0 0 0 0 0 0 0 0 0 0 0 0 0 0 0 0 0 0 0 0 0 0 0 0 0 0 0 0 0 0 0 0 0 0 343 348 347 352 350 355 359 360 360 360 359 362 364 360 360 353 357 355 352 348 348 345 345 343 348 347 347 350 350 350 353 357 359 353 352 353 353 355 353 355 353 353 353 0 357 0 0 359 357 359 360 359 360 357 357 353 355 357 360 360 364 364 367 367 375 371 367 366 360 362 362 360 357 357 352 360 360 362 360 359 362 364 364 0 364 0 0 0 0 100 0 0 0 0 0 0 0 0 0 0 0 360 359 360 362 362 364 362 366 364 366 367 366 0 367 366 366 367 367 367 367 367 367 367 369 364 366 0 362 362 362 362 360 360 366 364 0 0 367 373 371 373 367 366 366 366 364 0 0 0 362 362 362 362 362 364 369 367 369 0 0 371 369 367 0 0 373 369 369 369 369 367 367 362 357 362 360 359 359 360 362 362 362 366 364 366 367 367 369 371 373 375 379 379 377 377 377 373 373 369 366 366 364 364 364 0 0 0 0 0 0 0 0 0 0 0 0 0 364 367 364 367 367 366 367 366 367 367 367 369 366 367 369 367 369 362 359 359 355 362 360 360 362 0 0 362 0 0 0 0 0
    0 0 0 0 0 0 0 0 0 0 0 0 0 0 0 0 0 0 0 0 0 0 0 0 0 0 0 0 0 0 0 0 0 0 0 0 0 0 0 0 0 0 0 0 0 0 0 0 0 0 0 0 0 0 0 0 0 0 0 0 0 0 0 0 0 0 0 0 0 342 347 345 350 348 352 0 357 357 357 355 359 359 355 355 348 353 355 350 350 348 345 345 343 348 347 345 350 348 350 353 357 359 353 350 352 352 355 353 353 352 352 350 0 355 0 0 0 355 357 362 360 362 360 359 0 0 359 362 360 364 364 367 369 381 371 366 364 359 362 362 360 357 357 352 360 360 360 360 357 360 362 362 0 362 0 0 100 99 100 99 0 0 0 0 0 0 0 0 0 0 359 359 360 362 364 364 362 364 364 366 367 366 0 366 366 366 366 366 367 367 0 0 0 371 364 0 0 362 362 362 362 360 360 366 362 0 0 0 371 369 369 366 364 362 366 0 0 0 0 362 362 362 362 0 366 0 369 375 0 0 375 371 367 0 0 375 369 369 369 369 369 369 362 357 360 359 357 357 359 359 360 360 364 360 364 366 367 367 369 371 375 379 379 377 377 377 373 373 369 366 366 0 0 0 0 0 0 0 0 0 0 0 0 0 0 0 0 0 367 366 369 366 364 366 364 366 366 364 366 360 362 366 362 364 357 348 353 348 357 357 357 0 0 0 0 0 0 0 0 0
    0 0 0 0 0 0 0 0 0 0 0 0 0 0 0 0 0 0 0 0 0 0 0 0 0 0 0 0 0 0 0 0 0 0 0 0 0 0 0 0 0 0 0 0 0 0 0 0 0 0 0 0 0 0 0 0 0 0 0 0 0 0 0 0 0 0 0 0 0 342 348 345 0 0 350 0 0 0 353 0 0 0 0 0 347 353 355 350 348 350 345 343 342 345 343 343 347 345 347 352 357 357 353 350 352 352 353 352 350 350 348 347 0 0 0 0 0 0 0 0 359 364 360 0 0 0 0 360 360 364 360 362 0 389 373 364 362 357 362 362 360 359 357 352 360 360 359 359 353 360 360 360 0 0 93 0 100 99 99 99 99 0 0 0 0 0 0 86 86 0 359 357 360 362 362 364 360 366 364 366 367 364 0 0 366 366 366 366 366 367 0 221 221 0 366 0 0 362 362 360 360 360 360 364 360 0 0 0 369 367 367 364 360 0 364 0 0 0 0 362 362 0 0 0 0 0 0 0 381 0 0 379 375 385 0 385 373 373 373 371 371 371 364 355 359 357 353 352 353 355 357 357 360 357 362 366 366 369 369 371 373 377 377 375 375 377 371 371 369 366 366 0 0 0 0 0 0 0 0 0 0 0 0 0 0 0 0 0 367 364 367 364 360 364 362 364 362 360 362 353 355 362 359 359 350 343 348 347 357 357 357 0 0 0 0 0 0 0 0 0
    0 0 0 0 0 0 0 0 0 0 0 0 0 0 0 0 0 0 0 0 0 0 0 0 0 0 0 0 0 0 0 0 0 0 0 0 0 0 0 0 0 0 0 0 0 0 0 0 0 0 0 0 0 0 0 0 0 0 0 0 0 0 0 0 0 0 0 0 0 0 0 0 0 0 0 0 0 0 0 0 0 0 0 0 343 348 353 347 345 347 342 340 339 339 339 337 342 340 343 348 357 355 355 352 353 352 352 350 348 348 347 0 0 0 0 0 0 0 0 0 360 364 0 360 0 0 0 0 0 0 0 0 0 0 0 0 362 353 360 362 359 355 355 352 360 359 359 359 353 360 362 362 0 93 93 93 100 99 99 99 99 99 99 99 0 0 0 86 86 0 359 357 360 362 364 364 360 367 0 369 369 364 1082 366 366 366 364 364 364 366 222 0 0 0 0 0 0 360 360 360 360 360 360 362 360 0 0 0 0 0 0 0 0 0 364 362 364 0 0 364 0 0 0 0 0 0 0 0 0 383 383 379 375 385 0 0 373 375 373 373 371 371 362 352 355 352 348 347 347 348 350 350 355 352 360 362 364 369 371 371 0 379 379 375 375 375 369 369 0 364 362 0 0 0 0 0 0 0 0 0 0 0 0 0 0 0 0 0 0 0 0 360 355 359 357 359 353 352 357 345 347 360 357 353 345 342 347 345 350 352 350 357 0 0 0 0 0 0 0 0
    0 0 0 0 0 0 0 0 0 0 0 0 0 0 0 0 0 0 0 0 0 0 0 0 0 0 0 0 0 0 0 0 0 0 0 0 0 0 0 0 0 0 0 0 0 0 0 0 0 0 0 0 0 0 0 0 0 0 0 0 0 0 0 0 0 0 0 0 0 0 0 0 0 0 0 0 0 0 0 0 0 0 0 0 0 0 0 0 0 342 336 331 334 334 334 333 339 339 342 347 0 0 0 348 352 0 0 0 0 0 0 0 0 0 0 0 0 0 0 0 0 0 0 0 0 0 0 0 0 0 0 0 0 0 0 0 0 0 0 0 357 350 350 350 359 359 359 357 348 0 0 0 0 0 0 0 0 0 0 0 0 0 0 0 0 0 0 0 0 86 0 359 359 0 0 0 362 369 369 371 371 364 0 367 366 366 364 362 0 0 0 0 0 0 0 0 0 364 362 362 0 364 0 0 0 97 0 0 0 0 0 0 0 0 0 0 0 0 0 0 0 0 0 0 0 0 0 0 0 0 0 0 0 0 0 0 0 0 0 371 369 367 359 348 353 348 345 345 345 345 347 347 350 347 355 359 359 0 0 0 931 385 381 375 373 373 366 366 0 360 359 0 0 0 0 0 0 0 0 0 0 0 0 0 0 0 0 0 0 0 0 0 0 350 348 350 345 343 347 342 342 353 0 0 343 342 345 343 347 348 347 350 359 0 0 0 0 0 0 0
    0 0 0 0 0 0 0 0 0 0 0 0 0 0 0 0 0 0 0 0 0 0 0 0 0 0 0 0 0 0 0 0 0 0 0 0 0 0 0 0 0 0 0 0 0 0 0 0 0 0 0 0 0 0 0 0 0 0 0 0 0 0 0 0 0 0 0 0 0 0 0 0 0 0 0 0 0 0 0 0 0 0 0 0 0 0 0 0 0 0 0 0 0 0 0 0 0 0 0 0 0 0 0 0 0 0 0 0 0 0 0 0 0 0 0 0 0 0 0 0 0 0 0 0 0 0 0 0 0 0 0 0 0 0 0 0 0 0 0 0 0 0 0 0 0 0 0 0 0 0 0 0 0 0 0 0 0 0 0 0 0 0 0 0 0 0 0 0 0 0 0 0 0 0 0 0 0 0 0 0 0 0 0 0 0 0 0 0 0 0 0 0 0 0 0 0 0 0 0 0 0 0 0 0 0 0 0 0 0 0 0 0 0 0 0 0 0 0 0 0 0 0 0 0 0 0 0 0 0 0 0 0 0 0 0 0 0 0 0 0 360 362 357 347 353 348 348 350 347 347 348 348 352 348 353 352 350 0 0 0 0 0 0 0 0 0 0 0 0 0 0 0 0 0 0 0 0 0 0 0 0 0 0 0 0 0 2230 0 0 0 0 0 0 0 345 345 342 342 0 333 0 0 0 0 0 340 342 342 343 347 347 348 360 0 0 0 0 0 0 0
    0 0 0 0 0 0 0 0 0 0 0 0 0 0 0 0 0 0 0 0 0 0 0 0 0 0 0 0 0 0 0 0 0 0 0 0 0 0 0 0 0 0 0 0 0 0 0 0 0 0 0 0 0 0 0 0 0 0 0 0 0 0 0 0 0 0 0 0 0 0 0 0 0 0 0 0 0 0 0 0 0 0 0 0 0 0 0 0 0 0 0 0 0 0 0 0 0 0 0 0 0 0 0 0 0 0 0 0 0 0 0 0 0 0 0 0 0 0 0 0 0 0 0 0 0 0 0 0 0 0 0 0 0 0 0 0 0 0 0 0 0 0 0 0 0 0 0 0 0 0 0 0 0 0 0 0 0 0 0 0 0 0 0 0 0 0 0 0 0 0 0 0 0 0 0 0 0 0 0 0 0 0 0 0 0 0 0 0 0 0 0 0 0 0 0 0 0 0 0 0 0 0 0 0 0 0 0 0 0 0 0 0 0 0 0 0 0 0 0 0 0 0 0 0 0 0 0 0 0 0 0 0 0 0 0 0 0 0 0 0 0 0 0 0 0 0 0 0 0 0 0 0 0 0 0 0 0 0 0 0 0 0 0 0 0 0 0 0 0 0 0 0 0 0 0 0 0 0 0 0 0 0 0 0 0 5661 2628 0 0 0 0 0 0 0 0 342 0 0 0 319 0 0 0 0 334 337 339 339 340 342 343 0 352 347 0 0 0 0 0 0
    0 0 0 0 0 0 0 0 0 0 0 0 0 0 0 0 0 0 0 0 0 0 0 0 0 0 0 0 0 0 0 0 0 0 0 0 0 0 0 0 0 0 0 0 0 0 0 0 0 0 0 0 0 0 0 0 0 0 0 0 0 0 0 0 0 0 0 0 0 0 0 0 0 0 0 0 0 0 0 0 0 0 0 0 0 0 0 0 0 0 0 0 0 0 0 0 0 0 0 0 0 0 0 0 0 0 0 0 0 0 0 0 0 0 0 0 0 0 0 0 0 0 0 0 0 0 0 0 0 0 0 0 0 0 0 0 0 0 0 0 0 0 0 0 0 0 0 0 0 0 0 0 0 0 0 0 0 0 0 0 0 0 0 0 0 0 0 0 0 0 0 0 0 0 0 0 0 0 0 0 0 0 0 0 0 0 0 0 0 0 0 0 0 0 0 0 0 0 0 0 0 0 0 0 0 0 0 0 0 0 0 0 0 0 0 0 0 0 0 0 0 0 0 0 0 0 0 0 0 0 0 0 0 0 0 0 0 0 0 0 0 0 0 0 0 0 0 0 0 0 0 0 0 0 0 0 0 0 0 0 0 0 0 0 0 0 0 0 0 0 0 0 0 0 0 0 0 0 0 0 0 0 0 0 0 0 0 0 0 0 0 0 0 0 0 347 0 1443 0 319 302 0 0 334 331 334 336 336 336 336 336 330 334 336 339 0 0 0 0 0
    0 0 0 0 0 0 0 0 0 0 0 0 0 0 0 0 0 0 0 0 0 0 0 0 0 0 0 0 0 0 0 0 0 0 0 0 0 0 0 0 0 0 0 0 0 0 0 0 0 0 0 0 0 0 0 0 0 0 0 0 0 0 0 0 0 0 0 0 0 0 0 0 0 0 0 0 0 0 0 0 0 0 0 0 0 0 0 0 0 0 0 0 0 0 0 0 0 0 0 0 0 0 0 0 0 0 0 0 0 0 0 0 0 0 0 0 0 0 0 0 0 0 0 0 0 0 0 0 0 0 0 0 0 0 0 0 0 0 0 0 0 0 0 0 0 0 0 0 0 0 0 0 0 0 0 0 0 0 0 0 0 0 0 0 0 0 0 0 0 0 0 0 0 0 0 0 0 0 0 0 0 0 0 0 0 0 0 0 0 0 0 0 0 0 0 0 0 0 0 0 0 0 0 0 0 0 0 0 0 0 0 0 0 0 0 0 0 0 0 0 0 0 0 0 0 0 0 0 0 0 0 0 0 0 0 0 0 0 0 0 0 0 0 0 0 0 0 0 0 0 0 0 0 0 0 0 0 0 0 0 0 0 0 0 0 0 0 0 0 0 0 0 0 0 0 0 0 0 0 0 0 0 0 0 0 0 0 3066 0 0 0 0 0 0 0 0 0 1443 0 318 310 0 0 0 0 0 334 333 333 333 334 327 328 328 331 0 0 0 0 0
    0 0 0 0 0 0 0 0 0 0 0 0 0 0 0 0 0 0 0 0 0 0 0 0 0 0 0 0 0 0 0 0 0 0 0 0 0 0 0 0 0 0 0 0 0 0 0 0 0 0 0 0 0 0 0 0 0 0 0 0 0 0 0 0 0 0 0 0 0 0 0 0 0 0 0 0 0 0 0 0 0 0 0 0 0 0 0 0 0 0 0 0 0 0 0 0 0 0 0 0 0 0 0 0 0 0 0 0 0 0 0 0 0 0 0 0 0 0 0 0 0 0 0 0 0 0 0 0 0 0 0 0 0 0 0 0 0 0 0 0 0 0 0 0 0 0 0 0 0 0 0 0 0 0 0 0 0 0 0 0 0 0 0 0 0 0 0 0 0 0 0 0 0 0 0 0 0 0 0 0 0 0 0 0 0 0 0 0 0 0 0 0 0 0 0 0 0 0 0 0 0 0 0 0 0 0 0 0 0 0 0 0 0 0 0 0 0 0 0 0 0 0 0 0 0 0 0 0 0 0 0 0 0 0 0 0 0 0 0 0 0 0 0 0 0 0 0 0 0 0 0 0 0 0 0 0 0 0 0 0 0 0 0 0 0 0 0 0 0 0 0 0 0 0 0 0 0 0 0 0 0 0 0 0 0 0 0 0 0 0 0 0 0 0 0 0 0 1388 0 314 304 297 293 0 0 0 0 0 0 0 334 322 328 330 334 0 0 0 0 0
    0 0 0 0 0 0 0 0 0 0 0 0 0 0 0 0 0 0 0 0 0 0 0 0 0 0 0 0 0 0 0 0 0 0 0 0 0 0 0 0 0 0 0 0 0 0 0 0 0 0 0 0 0 0 0 0 0 0 0 0 0 0 0 0 0 0 0 0 0 0 0 0 0 0 0 0 0 0 0 0 0 0 0 0 0 0 0 0 0 0 0 0 0 0 0 0 0 0 0 0 0 0 0 0 0 0 0 0 0 0 0 0 0 0 0 0 0 0 0 0 0 0 0 0 0 0 0 0 0 0 0 0 0 0 0 0 0 0 0 0 0 0 0 0 0 0 0 0 0 0 0 0 0 0 0 0 0 0 0 0 0 0 0 0 0 0 0 0 0 0 0 0 0 0 0 0 0 0 0 0 0 0 0 0 0 0 0 0 0 0 0 0 0 0 0 0 0 0 0 0 0 0 0 0 0 0 0 0 0 0 0 0 0 0 0 0 0 0 0 0 0 0 0 0 0 0 0 0 0 0 0 0 0 0 0 0 0 0 0 0 0 0 0 0 0 0 0 0 0 0 0 0 0 0 0 0 0 0 0 0 0 0 0 0 0 0 0 0 0 0 0 0 0 0 0 0 0 0 0 0 0 0 0 0 0 0 0 0 0 0 0 0 0 0 0 0 0 1388 0 309 299 295 292 292 290 0 0 0 0 0 0 327 0 339 0 0 0 0 0 0
    0 0 0 0 0 0 0 0 0 0 0 0 0 0 0 0 0 0 0 0 0 0 0 0 0 0 0 0 0 0 0 0 0 0 0 0 0 0 0 0 0 0 0 0 0 0 0 0 0 0 0 0 0 0 0 0 0 0 0 0 0 0 0 0 0 0 0 0 0 0 0 0 0 0 0 0 0 0 0 0 0 0 0 0 0 0 0 0 0 0 0 0 0 0 0 0 0 0 0 0 0 0 0 0 0 0 0 0 0 0 0 0 0 0 0 0 0 0 0 0 0 0 0 0 0 0 0 0 0 0 0 0 0 0 0 0 0 0 0 0 0 0 0 0 0 0 0 0 0 0 0 0 0 0 0 0 0 0 0 0 0 0 0 0 0 0 0 0 0 0 0 0 0 0 0 0 0 0 0 0 0 0 0 0 0 0 0 0 0 0 0 0 0 0 0 0 0 0 0 0 0 0 0 0 0 0 0 0 0 0 0 0 0 0 0 0 0 0 0 0 0 0 0 0 0 0 0 0 0 0 0 0 0 0 0 0 0 0 0 0 0 0 0 0 0 0 0 0 0 0 0 0 0 0 0 0 0 0 0 0 0 0 0 0 0 0 0 0 0 0 0 0 0 0 0 0 0 0 0 0 0 0 0 0 0 0 0 0 0 0 0 0 0 0 0 0 0 0 0 301 297 295 293 293 292 0 0 0 0 0 0 319 0 340 331 0 0 0 0 0
    0 0 0 0 0 0 0 0 0 0 0 0 0 0 0 0 0 0 0 0 0 0 0 0 0 0 0 0 0 0 0 0 0 0 0 0 0 0 0 0 0 0 0 0 0 0 0 0 0 0 0 0 0 0 0 0 0 0 0 0 0 0 0 0 0 0 0 0 0 0 0 0 0 0 0 0 0 0 0 0 0 0 0 0 0 0 0 0 0 0 0 0 0 0 0 0 0 0 0 0 0 0 0 0 0 0 0 0 0 0 0 0 0 0 0 0 0 0 0 0 0 0 0 0 0 0 0 0 0 0 0 0 0 0 0 0 0 0 0 0 0 0 0 0 0 0 0 0 0 0 0 0 0 0 0 0 0 0 0 0 0 0 0 0 0 0 0 0 0 0 0 0 0 0 0 0 0 0 0 0 0 0 0 0 0 0 0 0 0 0 0 0 0 0 0 0 0 0 0 0 0 0 0 0 0 0 0 0 0 0 0 0 0 0 0 0 0 0 0 0 0 0 0 0 0 0 0 0 0 0 0 0 0 0 0 0 0 0 0 0 0 0 0 0 0 0 0 0 0 0 0 0 0 0 0 0 0 0 0 0 0 0 0 0 0 0 0 0 0 0 0 0 0 0 0 0 0 0 0 0 0 0 0 0 0 0 0 0 0 0 0 0 0 0 0 0 300 0 296 297 296 295 293 293 292 0 0 0 0 0 0 0 0 0 0 0 0 0 0 0
    0 0 0 0 0 0 0 0 0 0 0 0 0 0 0 0 0 0 0 0 0 0 0 0 0 0 0 0 0 0 0 0 0 0 0 0 0 0 0 0 0 0 0 0 0 0 0 0 0 0 0 0 0 0 0 0 0 0 0 0 0 0 0 0 0 0 0 0 0 0 0 0 0 0 0 0 0 0 0 0 0 0 0 0 0 0 0 0 0 0 0 0 0 0 0 0 0 0 0 0 0 0 0 0 0 0 0 0 0 0 0 0 0 0 0 0 0 0 0 0 0 0 0 0 0 0 0 0 0 0 0 0 0 0 0 0 0 0 0 0 0 0 0 0 0 0 0 0 0 0 0 0 0 0 0 0 0 0 0 0 0 0 0 0 0 0 0 0 0 0 0 0 0 0 0 0 0 0 0 0 0 0 0 0 0 0 0 0 0 0 0 0 0 0 0 0 0 0 0 0 0 0 0 0 0 0 0 0 0 0 0 0 0 0 0 0 0 0 0 0 0 0 0 0 0 0 0 0 0 0 0 0 0 0 0 0 0 0 0 0 0 0 0 0 0 0 0 0 0 0 0 0 0 0 0 0 0 0 0 865 845 0 0 0 0 0 0 0 0 0 0 0 0 0 0 0 0 0 0 0 0 0 0 0 0 0 0 0 379 381 383 0 0 0 0 299 299 297 296 297 297 295 293 294 293 0 0 0 0 0 0 0 0 333 313 0 0 0 0 0</data></depth>
</opencv_storage>
