<?xml version="1.0"?>
<opencv_storage>
<gps_time_stamp>27192</gps_time_stamp>
<gps_x>-6.1618704795837402e+000</gps_x>
<gps_y>8.8722652196884155e-001</gps_y>
<gps_z>-1.6201564073562622e+000</gps_z>
<image_time_stamp>15168</image_time_stamp>
<depth type_id="opencv-matrix">
  <rows>95</rows>
  <cols>320</cols>
  <dt>s</dt>
  <data>
    0 0 0 0 0 0 0 0 0 0 0 0 0 0 0 0 0 0 0 0 0 0 0 0 0 0 0 0 0 0 0 0 0 0 0 0 0 0 0 0 0 0 0 0 0 0 0 0 0 0 0 0 0 0 0 0 0 0 0 0 0 0 0 0 0 0 0 0 0 448 451 462 465 448 451 448 446 446 443 443 443 443 443 440 0 446 448 451 451 451 451 457 459 459 451 451 446 446 448 446 446 448 446 448 448 448 451 446 448 448 443 443 443 446 448 446 443 443 446 446 446 443 443 446 446 448 454 454 462 465 474 462 457 0 459 454 457 451 454 451 457 446 454 451 454 448 454 451 457 454 462 457 454 451 454 446 443 440 443 443 443 446 446 448 448 451 451 448 446 446 448 454 448 446 451 448 446 451 451 448 446 454 451 451 454 457 454 451 454 454 446 0 0 0 0 0 451 0 0 440 432 440 438 443 446 446 459 457 443 440 446 451 446 451 446 438 438 440 440 427 0 0 0 0 440 440 440 443 443 443 440 443 443 440 440 443 440 443 446 446 446 446 446 451 446 446 0 0 468 462 0 0 0 681 675 694 669 645 618 613 584 529 481 465 457 451 446 443 446 448 454 0 525 504 504 525 521 521 507 493 487 504 484 0 0 487 481 484 493 504 477 474 459 446 438 438 438 443 443 440 438 438 440 440 440 440 435 432 435 432 435 432 430 430 430 0 0 0 0 0
    0 0 0 0 0 0 0 0 0 0 0 0 0 0 0 0 0 0 0 0 0 0 0 0 0 0 0 0 0 0 0 0 0 0 0 0 0 0 0 0 0 0 0 0 0 0 0 0 0 0 0 0 0 0 0 0 0 0 0 0 0 0 0 0 0 0 0 0 0 448 451 459 462 446 448 446 446 446 443 443 443 443 443 440 443 446 446 448 448 446 448 451 454 454 448 448 446 446 451 448 446 448 448 451 451 448 451 446 446 448 440 440 440 443 446 443 440 443 446 446 446 443 446 446 448 448 454 454 462 459 471 459 454 462 459 454 457 454 457 451 454 446 454 451 454 448 454 451 454 454 462 454 451 448 451 443 440 440 443 446 446 446 446 448 451 454 451 451 448 448 451 454 448 446 448 446 446 448 451 448 446 454 451 451 454 454 451 448 451 451 446 454 443 443 440 440 446 446 443 438 435 438 435 438 440 438 443 443 438 438 448 454 451 454 448 443 443 446 446 435 438 443 440 438 443 443 443 443 446 446 443 443 448 443 443 446 446 443 446 448 448 448 448 454 448 448 457 454 459 454 454 454 451 0 0 0 0 0 0 0 0 484 457 451 446 446 443 440 443 443 446 459 474 481 484 507 504 500 490 484 477 0 474 0 474 474 468 471 474 471 459 451 443 440 438 438 438 440 443 440 440 440 440 443 440 443 435 432 438 432 435 430 427 427 425 0 0 0 0 0
    0 0 0 0 0 0 0 0 0 0 0 0 0 0 0 0 0 0 0 0 0 0 0 0 0 0 0 0 0 0 0 0 0 0 0 0 0 0 0 0 0 0 0 0 0 0 0 0 0 0 0 0 0 0 0 0 0 0 0 0 0 0 0 0 0 0 0 0 0 448 448 459 459 446 446 446 446 446 443 443 443 443 446 440 443 443 446 446 446 446 446 448 448 448 446 446 446 446 448 448 446 448 448 451 451 448 451 448 448 448 443 443 443 446 448 446 443 443 446 446 446 446 446 446 448 448 454 454 459 457 465 457 457 462 462 457 457 454 457 451 454 446 454 454 454 451 454 451 454 454 462 451 448 448 451 440 440 440 440 446 446 446 446 448 451 454 454 451 448 448 451 451 446 446 448 446 446 448 448 448 448 454 451 451 454 454 451 448 451 448 446 454 443 443 440 440 443 443 440 438 435 438 435 440 440 440 446 446 443 443 451 451 451 454 451 446 446 446 448 440 440 443 440 440 446 443 443 446 446 446 443 446 451 446 446 451 448 446 448 451 451 454 451 457 454 454 457 451 454 451 448 448 446 448 451 451 448 454 462 457 468 451 443 443 443 440 440 440 443 440 440 446 443 451 457 0 484 484 477 477 457 462 462 462 462 451 443 443 443 443 438 438 435 435 430 435 438 440 443 440 440 440 443 443 443 443 438 432 435 432 432 427 427 425 422 0 0 0 0 0
    0 0 0 0 0 0 0 0 0 0 0 0 0 0 0 0 0 0 0 0 0 0 0 0 0 0 0 0 0 0 0 0 0 0 0 0 0 0 0 0 0 0 0 0 0 0 0 0 0 0 0 0 0 0 0 0 0 0 0 0 0 0 0 0 0 0 0 0 0 448 448 457 459 446 446 446 446 446 446 443 443 443 446 443 443 443 443 446 446 443 446 446 446 446 446 446 446 443 448 448 446 448 448 451 451 448 451 448 446 451 446 443 443 446 451 448 446 446 448 446 448 448 451 448 448 448 454 451 457 451 459 451 454 457 459 454 454 454 457 451 454 446 454 454 454 451 454 451 457 454 462 454 451 451 454 440 440 440 440 443 446 446 446 448 451 454 454 454 451 448 451 451 446 446 448 446 446 448 448 446 446 451 448 451 454 454 451 451 451 451 446 454 443 443 443 440 443 443 440 440 435 440 435 438 440 440 443 446 443 443 448 451 454 454 451 448 448 448 451 446 446 446 443 440 446 446 446 446 446 446 446 448 451 448 448 454 448 446 448 451 451 451 451 457 451 451 454 451 451 448 448 446 446 446 448 448 448 448 451 448 451 440 438 443 440 440 440 440 443 443 443 446 440 448 448 440 454 454 451 448 440 443 440 438 435 432 425 425 425 422 425 425 427 432 425 435 435 440 440 440 440 440 443 446 443 443 438 432 435 432 432 427 425 422 422 0 0 0 0 0
    0 0 0 0 0 0 0 0 0 0 0 0 0 0 0 0 0 0 0 0 0 0 0 0 0 0 0 0 0 0 0 0 0 0 0 0 0 0 0 0 0 0 0 0 0 0 0 0 0 0 0 0 0 0 0 0 0 0 0 0 0 0 0 0 0 0 0 0 0 448 448 457 457 446 446 446 446 446 446 446 446 446 446 443 443 443 446 443 446 443 443 446 446 446 448 448 448 446 451 448 446 448 451 451 451 448 451 448 446 451 446 443 443 443 448 448 443 443 448 446 451 448 451 448 448 448 454 451 454 448 457 448 448 454 457 451 451 454 457 451 454 446 451 454 454 451 454 451 457 457 462 457 454 451 459 443 440 440 443 446 446 446 446 448 451 454 454 454 451 451 451 451 446 448 448 446 446 448 446 446 446 451 448 451 451 454 451 451 454 451 448 457 446 446 446 446 443 446 443 443 440 443 438 440 440 443 443 446 443 443 448 451 451 454 451 448 448 448 451 448 446 446 443 443 446 446 446 446 446 448 446 448 454 448 448 451 446 443 446 446 446 446 446 448 448 448 451 448 448 448 448 448 448 448 451 451 448 448 451 448 448 440 438 443 440 440 443 440 443 443 443 446 440 446 446 440 446 446 446 443 438 440 438 435 430 430 427 425 427 425 427 430 432 435 430 438 438 440 443 440 440 440 443 446 443 443 435 432 435 432 432 425 422 415 413 0 0 0 0 0
    0 0 0 0 0 0 0 0 0 0 0 0 0 0 0 0 0 0 0 0 0 0 0 0 0 0 0 0 0 0 0 0 0 0 0 0 0 0 0 0 0 0 0 0 0 0 0 0 0 0 0 0 0 0 0 0 0 0 0 0 0 0 0 0 0 0 0 0 0 448 448 454 454 443 443 446 446 443 446 446 446 446 448 446 446 446 446 443 443 440 443 443 446 446 451 448 451 446 454 451 446 448 451 451 451 448 448 448 446 451 446 443 440 443 446 446 443 440 446 446 448 448 451 448 448 446 451 448 454 446 454 448 448 454 454 448 451 451 454 451 451 446 451 454 454 451 454 451 454 454 462 454 451 451 462 443 443 443 443 448 448 448 448 448 451 454 454 454 448 448 451 451 446 448 448 448 448 448 448 446 448 454 448 451 451 454 451 454 454 454 451 459 448 448 446 448 446 448 443 446 443 446 443 443 440 443 446 448 443 443 448 448 451 451 451 448 446 448 448 448 446 448 443 443 448 448 446 448 448 448 446 448 454 448 446 448 440 440 443 443 443 443 443 446 446 446 448 448 448 448 448 448 448 448 451 451 448 448 451 448 448 438 438 443 440 440 443 440 443 443 443 448 440 443 446 443 446 440 440 440 438 438 438 435 430 430 430 427 430 427 430 432 435 438 432 438 438 440 443 440 440 440 446 448 443 446 438 430 432 432 430 420 411 406 402 0 0 0 0 0
    0 0 0 0 0 0 0 0 0 0 0 0 0 0 0 0 0 0 0 0 0 0 0 0 0 0 0 0 0 0 0 0 0 0 0 0 0 0 0 0 0 0 0 0 0 0 0 0 0 0 0 0 0 0 0 0 0 0 0 0 0 0 0 0 0 0 0 0 0 448 448 454 451 443 440 443 443 443 446 446 446 448 451 448 448 446 448 446 446 440 443 446 446 446 451 451 457 448 457 454 448 451 454 454 451 448 451 448 446 451 446 443 440 443 446 446 443 443 448 446 448 448 451 448 448 446 454 448 454 446 451 448 448 451 451 448 448 451 451 451 451 446 451 454 454 451 451 451 454 454 459 454 451 448 462 440 443 443 443 448 448 448 448 448 451 454 454 451 446 448 451 448 446 448 448 448 448 451 448 446 448 454 448 451 454 457 454 454 457 457 454 462 451 451 448 451 448 451 446 448 446 448 443 446 443 446 446 448 443 443 446 448 448 448 448 446 446 448 448 448 448 448 443 443 448 448 448 451 448 451 448 451 454 446 446 446 438 438 440 440 440 443 440 446 446 446 448 448 448 448 448 448 451 448 451 451 448 448 448 446 446 438 438 440 440 440 443 440 443 443 446 448 443 446 446 443 446 438 440 438 438 438 438 435 432 430 430 430 432 430 435 435 438 438 438 440 440 440 443 440 440 440 443 446 440 443 438 430 432 432 425 411 404 399 397 0 0 0 0 0
    0 0 0 0 0 0 0 0 0 0 0 0 0 0 0 0 0 0 0 0 0 0 0 0 0 0 0 0 0 0 0 0 0 0 0 0 0 0 0 0 0 0 0 0 0 0 0 0 0 0 0 0 0 0 0 0 0 0 0 0 0 0 0 0 0 0 0 0 0 446 448 451 448 440 440 443 443 443 446 446 446 448 451 451 448 448 451 446 0 0 443 446 446 446 451 451 457 448 457 454 448 451 454 454 454 448 451 448 446 454 448 443 443 443 451 451 448 448 454 448 454 448 454 451 451 446 454 448 451 446 451 446 446 448 451 446 448 451 454 451 451 446 451 454 454 451 451 451 451 451 459 451 448 448 459 440 440 443 443 451 451 448 448 448 451 454 454 451 446 448 448 448 446 448 448 446 448 448 446 446 448 451 448 451 454 457 454 457 459 457 454 462 454 454 451 454 451 454 448 451 446 451 446 448 443 446 443 448 440 443 446 446 448 448 448 448 446 448 448 448 448 448 446 446 448 448 448 451 448 448 448 451 451 448 443 446 438 438 440 440 440 443 440 446 446 448 448 448 448 448 448 448 454 451 454 451 448 446 448 446 446 438 438 440 438 440 440 440 443 440 443 446 440 443 446 440 443 438 438 438 438 435 435 435 432 432 432 432 435 435 438 438 440 440 440 443 443 443 443 443 443 440 446 446 440 440 438 430 430 427 418 404 397 395 393 0 0 0 0 0
    0 0 0 0 0 0 0 0 0 0 0 0 0 0 0 0 0 0 0 0 0 0 0 0 0 0 0 0 0 0 0 0 0 0 0 0 0 0 0 0 0 0 0 0 0 0 0 0 0 0 0 0 0 0 0 0 0 0 0 0 0 0 0 0 0 0 0 0 0 446 446 448 446 440 438 443 443 443 448 446 448 448 451 454 451 448 454 446 0 0 446 0 0 448 454 451 457 448 454 454 446 451 451 454 454 448 451 451 448 457 454 448 448 446 454 457 454 457 459 451 457 451 457 454 451 446 451 446 448 443 448 446 446 448 448 446 446 451 454 451 451 446 451 454 454 454 454 454 451 451 462 451 448 448 459 440 443 446 446 451 451 448 451 451 451 454 451 448 446 448 448 446 446 448 448 446 448 448 448 446 451 454 448 454 454 457 454 457 459 457 457 462 454 454 451 457 451 457 448 451 446 451 446 448 443 443 443 448 443 446 446 446 448 451 451 448 448 448 448 451 451 451 446 446 448 448 448 451 451 448 448 454 454 448 446 448 440 440 440 440 440 440 440 446 446 448 448 448 448 448 448 448 457 451 454 451 448 448 448 446 446 438 438 440 438 440 440 440 440 440 443 443 440 443 440 435 438 435 435 435 435 432 432 432 432 430 432 432 435 438 440 440 443 440 443 446 443 443 446 443 443 443 448 443 438 435 435 427 425 422 413 404 395 393 393 0 0 0 0 0
    0 0 0 0 0 0 0 0 0 0 0 0 0 0 0 0 0 0 0 0 0 0 0 0 0 0 0 0 0 0 0 0 0 0 0 0 0 0 0 0 0 0 0 0 0 0 0 0 0 0 0 0 0 0 0 0 0 0 0 0 0 0 0 0 0 0 0 0 0 446 446 448 446 440 435 443 446 443 448 448 448 451 454 459 454 451 457 448 448 446 448 0 0 448 457 448 457 448 451 451 446 448 451 451 451 448 451 451 451 459 459 454 451 451 459 465 462 468 465 465 468 457 465 462 0 443 448 446 446 443 446 443 443 446 448 443 443 448 451 448 451 443 451 454 454 454 451 454 451 451 462 451 448 451 457 443 443 448 446 451 451 448 448 448 451 451 451 448 446 448 448 446 446 448 448 448 451 451 448 446 451 454 448 454 454 454 454 457 459 457 457 462 454 454 454 457 454 457 448 451 448 451 446 446 440 443 443 448 443 446 446 446 448 448 451 448 448 451 448 451 454 451 446 448 448 451 448 454 451 448 448 459 454 451 448 451 443 443 440 440 440 440 438 443 443 446 446 448 448 448 448 448 457 451 454 451 448 448 451 448 446 438 440 440 440 440 440 440 440 440 443 440 438 440 440 435 438 432 435 435 435 432 435 435 435 432 435 435 438 440 443 440 443 440 443 446 446 443 446 443 443 443 448 438 435 432 435 427 422 422 411 402 393 393 391 0 0 0 0 0
    0 0 0 0 0 0 0 0 0 0 0 0 0 0 0 0 0 0 0 0 0 0 0 0 0 0 0 0 0 0 0 0 0 0 0 0 0 0 0 0 0 0 0 0 0 0 0 0 0 0 0 0 0 0 0 0 0 0 0 0 0 0 0 0 0 0 0 0 0 446 446 448 448 443 435 443 448 446 448 448 451 454 454 462 459 451 462 454 457 451 457 457 454 454 459 451 457 446 451 451 446 448 448 451 451 448 451 451 451 462 462 454 454 451 457 465 462 468 468 471 474 462 468 0 0 0 448 446 446 443 446 443 443 446 446 443 443 448 448 448 451 443 451 454 451 451 451 454 451 451 462 454 451 454 459 448 446 448 448 451 448 448 448 446 448 448 446 443 443 448 446 446 446 448 448 448 451 451 448 448 454 454 448 454 454 454 454 457 459 457 457 462 454 454 454 457 454 457 448 451 448 451 446 446 440 443 443 448 440 443 443 443 448 448 448 448 446 448 448 451 454 451 443 448 448 451 448 454 451 448 451 459 454 454 448 451 443 443 443 440 440 438 440 443 443 446 446 448 448 448 451 448 457 448 454 451 448 448 448 446 446 438 440 443 440 443 443 443 443 443 446 443 440 440 440 435 435 432 435 435 435 432 438 440 443 440 443 443 443 443 446 443 443 440 446 446 446 446 446 443 443 443 446 435 432 430 432 427 422 422 413 402 393 393 391 0 0 0 0 0
    0 0 0 0 0 0 0 0 0 0 0 0 0 0 0 0 0 0 0 0 0 0 0 0 0 0 0 0 0 0 0 0 0 0 0 0 0 0 0 0 0 0 0 0 0 0 0 0 0 0 0 0 0 0 0 0 0 0 0 0 0 0 0 0 0 0 0 0 0 448 446 448 448 446 438 446 448 448 451 451 451 454 454 462 459 457 465 462 465 459 465 465 462 459 465 457 459 448 451 448 443 446 448 448 448 448 451 451 451 462 459 454 451 451 454 462 459 465 465 0 0 0 0 0 0 0 448 446 446 443 446 443 443 446 446 446 443 448 448 448 451 443 451 454 451 451 451 454 451 451 462 454 451 457 459 451 448 454 451 454 451 448 448 446 448 448 443 440 443 448 448 446 448 451 448 451 454 451 448 448 454 451 448 454 454 454 454 457 459 457 459 462 454 454 454 457 454 454 448 451 448 451 446 446 440 443 443 446 440 443 440 443 446 448 448 448 446 451 448 454 457 451 443 448 448 451 451 454 454 451 451 462 454 454 448 451 443 446 443 440 440 440 440 443 443 448 446 448 448 451 451 448 457 451 454 451 448 448 448 446 446 440 443 443 443 443 443 443 443 443 446 443 443 443 440 435 435 432 435 435 435 432 440 443 448 443 448 446 446 446 448 443 443 443 446 446 448 446 446 443 443 443 446 435 430 427 430 425 418 415 408 402 395 395 393 0 0 0 0 0
    0 0 0 0 0 0 0 0 0 0 0 0 0 0 0 0 0 0 0 0 0 0 0 0 0 0 0 0 0 0 0 0 0 0 0 0 0 0 0 0 0 0 0 0 0 0 0 0 0 0 0 0 0 0 0 0 0 0 0 0 0 0 0 0 0 0 0 0 0 448 448 448 448 446 440 446 448 446 448 448 448 451 451 465 462 459 468 465 468 465 471 468 462 465 465 457 459 448 451 448 443 446 448 448 448 448 448 448 448 459 457 448 446 446 451 459 457 462 465 0 0 0 0 0 0 451 448 446 446 443 448 443 446 446 446 446 446 448 451 448 451 440 451 451 451 451 451 451 451 451 462 451 451 457 457 454 451 457 457 459 454 451 451 446 448 448 443 443 443 451 448 446 451 451 451 451 454 451 448 448 457 451 448 457 454 457 457 457 459 457 459 462 454 457 454 459 454 457 448 451 451 451 448 448 443 443 443 446 440 440 440 443 446 446 446 446 446 448 448 451 457 448 443 448 448 451 451 454 454 451 454 462 457 457 451 451 446 446 446 443 440 440 443 446 446 448 446 448 451 451 454 451 457 451 457 451 451 448 448 448 448 440 443 443 443 443 446 446 446 446 448 443 443 443 440 435 432 432 435 435 435 432 443 448 454 448 454 451 451 451 451 446 443 443 446 446 446 446 443 443 443 443 443 432 427 425 427 422 411 408 406 402 397 397 395 0 0 0 0 0
    0 0 0 0 0 0 0 0 0 0 0 0 0 0 0 0 0 0 0 0 0 0 0 0 0 0 0 0 0 0 0 0 0 0 0 0 0 0 0 0 0 0 0 0 0 0 0 0 0 0 0 0 0 0 0 0 0 0 0 0 0 0 0 0 0 0 0 0 0 448 448 448 446 446 438 443 446 446 446 446 448 451 451 465 465 462 471 468 471 465 471 471 462 465 462 454 457 448 454 451 446 448 448 451 451 448 448 448 448 457 451 446 443 446 448 457 0 0 0 0 0 0 0 0 0 451 448 446 446 443 448 446 446 446 448 446 448 454 451 451 451 440 451 451 451 451 448 451 448 448 462 451 451 454 457 454 451 457 457 457 454 448 451 446 448 451 446 446 446 451 451 446 451 451 448 451 454 451 448 448 459 451 448 457 454 457 457 457 457 457 457 462 454 457 454 459 454 454 448 448 451 451 448 448 446 446 446 446 443 440 440 443 446 446 446 446 446 451 448 451 454 448 443 448 448 451 451 454 454 451 454 462 457 457 451 454 448 451 451 448 446 446 446 451 448 451 448 451 451 454 454 451 457 451 457 451 451 451 446 446 446 440 446 443 443 446 446 446 446 446 451 446 446 443 440 435 435 435 435 435 435 432 446 457 462 454 457 457 454 454 451 446 443 440 446 446 446 443 443 443 443 443 443 432 427 422 427 422 413 408 406 402 399 399 395 0 0 0 0 0
    0 0 0 0 0 0 0 0 0 0 0 0 0 0 0 0 0 0 0 0 0 0 0 0 0 0 0 0 0 0 0 0 0 0 0 0 0 0 0 0 0 0 0 0 0 0 0 0 0 0 0 0 0 0 0 0 0 0 0 0 0 0 0 0 0 0 0 0 0 446 446 446 446 446 438 443 446 446 446 446 446 451 451 468 465 462 468 468 471 465 471 471 462 465 462 454 454 448 454 451 446 448 448 451 451 448 451 451 448 457 451 446 443 446 451 0 0 0 0 0 0 0 0 0 0 457 448 0 446 443 451 446 448 446 451 448 451 457 457 454 454 440 451 451 451 451 448 448 448 448 462 451 454 0 457 454 451 454 454 451 448 448 451 446 448 448 446 446 446 451 451 446 451 448 448 451 454 451 448 448 459 451 451 457 454 454 457 457 457 454 457 462 454 457 454 459 454 454 448 446 448 448 448 446 446 446 446 446 446 443 440 443 448 448 448 451 448 454 448 451 457 446 443 448 448 451 451 454 454 451 454 462 457 459 457 459 457 457 457 454 451 451 454 457 454 454 451 457 457 459 457 451 454 451 457 451 451 451 446 446 443 440 446 443 446 446 446 446 446 446 451 446 446 443 440 435 432 435 438 435 435 435 446 454 462 451 454 457 457 451 448 443 443 443 448 448 446 443 443 443 443 446 443 432 427 425 427 422 413 408 406 402 399 399 395 0 0 0 0 0
    0 0 0 0 0 0 0 0 0 0 0 0 0 0 0 0 0 0 0 0 0 0 0 0 0 0 0 0 0 0 0 0 0 0 0 0 0 0 0 0 0 0 0 0 0 0 0 0 0 0 0 0 0 0 0 0 0 0 0 0 0 0 0 0 0 0 0 0 0 443 443 446 446 446 438 440 446 446 446 446 446 448 448 465 457 454 459 462 465 462 468 465 462 462 459 451 451 448 451 451 443 448 448 451 454 448 448 451 448 457 451 446 440 443 448 0 0 0 0 0 0 0 0 0 0 0 448 0 448 446 451 446 448 448 451 451 451 459 457 454 454 443 451 451 451 451 448 451 448 448 462 451 454 0 457 454 451 454 451 451 448 446 448 443 446 448 446 446 446 454 451 446 451 448 448 451 454 448 446 448 457 451 451 457 454 454 457 457 454 454 457 459 451 457 454 457 451 454 0 446 448 448 448 446 446 446 446 443 448 443 443 443 448 448 451 451 451 454 451 454 459 446 443 451 448 451 451 454 454 451 457 465 457 462 459 462 459 462 459 459 454 457 457 459 459 457 454 462 462 462 462 451 454 454 459 451 451 451 446 446 443 443 446 443 446 446 446 446 446 446 451 443 443 440 438 435 432 435 440 440 440 438 446 454 457 454 454 454 454 448 448 440 443 443 448 448 446 443 443 443 446 446 440 432 427 422 427 422 413 406 404 402 402 399 397 0 0 0 0 0
    0 0 0 0 0 0 0 0 0 0 0 0 0 0 0 0 0 0 0 0 0 0 0 0 0 0 0 0 0 0 0 0 0 0 0 0 0 0 0 0 0 0 0 0 0 0 0 0 0 0 0 0 0 0 0 0 0 0 0 0 0 0 0 0 0 0 0 0 0 446 446 446 446 446 440 443 448 448 446 448 448 448 448 465 454 448 454 457 459 459 465 465 459 462 459 448 451 448 451 448 443 446 448 451 451 448 448 448 448 454 448 440 438 438 0 0 0 0 0 0 0 0 0 0 0 0 448 0 446 446 451 446 448 448 451 451 451 459 459 454 454 443 451 451 451 454 448 451 448 451 465 451 454 459 457 454 451 454 451 448 446 446 448 443 448 451 448 446 448 457 451 446 451 451 448 451 454 451 448 451 459 451 451 457 454 454 457 457 454 454 457 459 451 457 454 457 451 0 0 446 448 448 0 443 446 446 446 446 451 446 443 446 451 448 451 451 448 451 451 454 459 446 443 451 448 451 451 457 457 454 459 465 459 465 462 462 462 462 462 459 457 457 457 462 459 457 457 465 465 468 462 451 454 454 462 451 448 451 446 443 443 443 446 443 446 446 446 448 448 448 454 446 446 440 440 435 435 438 443 443 446 443 448 457 459 462 459 459 457 448 448 440 443 443 448 448 446 443 443 443 446 443 438 432 427 425 427 422 413 406 406 404 402 402 399 0 0 0 0 0
    0 0 0 0 0 0 0 0 0 0 0 0 0 0 0 0 0 0 0 0 0 0 0 0 0 0 0 0 0 0 0 0 0 0 0 0 0 0 0 0 0 0 0 0 0 0 0 0 0 0 0 0 0 0 0 0 0 0 0 0 0 0 0 0 0 0 0 0 0 451 451 451 451 451 443 446 451 451 448 448 448 448 448 468 451 0 0 0 0 462 0 468 462 0 462 454 454 451 454 451 446 448 448 451 454 448 446 446 446 451 443 438 430 427 0 0 0 0 0 0 0 0 0 0 0 459 448 446 446 443 451 446 451 448 451 454 454 459 459 454 454 443 451 451 451 454 448 448 448 451 465 451 457 0 457 454 451 454 451 448 446 446 448 443 448 451 448 448 448 457 454 448 451 451 448 451 454 451 446 448 457 451 448 454 451 454 457 457 454 454 457 459 451 457 454 454 451 0 0 446 451 448 0 446 448 448 448 446 454 446 443 443 448 446 448 448 446 448 448 451 459 443 443 454 448 454 454 457 457 454 462 468 459 468 462 465 465 465 462 459 457 459 459 462 462 457 457 465 465 468 459 446 448 451 462 451 448 451 446 443 440 443 446 443 446 446 448 448 448 451 457 448 448 443 440 440 438 440 446 446 448 448 454 462 465 468 471 468 465 457 451 443 443 446 446 446 443 443 443 443 446 443 438 432 430 425 425 422 413 404 408 404 404 404 402 0 0 0 0 0
    0 0 0 0 0 0 0 0 0 0 0 0 0 0 0 0 0 0 0 0 0 0 0 0 0 0 0 0 0 0 0 0 0 0 0 0 0 0 0 0 0 0 0 0 0 0 0 0 0 0 0 0 0 0 0 0 0 0 0 0 0 0 0 0 0 0 0 0 0 454 451 451 446 0 446 443 446 0 0 0 0 0 0 0 0 0 0 0 0 0 0 0 0 0 465 0 459 0 462 459 446 451 448 454 457 451 446 446 446 446 438 435 422 418 0 0 0 0 0 0 0 0 0 0 468 462 451 448 446 448 457 451 459 454 457 457 454 462 462 457 457 443 454 451 451 454 448 448 448 451 465 451 457 0 0 454 451 454 451 448 446 446 448 443 448 451 448 448 448 457 454 448 451 451 448 451 454 448 446 446 454 451 448 454 451 451 454 457 454 451 454 462 451 457 451 451 0 451 0 446 451 451 0 448 451 451 451 446 457 448 446 446 451 446 448 451 446 446 448 448 459 440 443 454 448 454 457 457 459 457 462 468 462 468 465 465 465 465 462 462 459 462 459 465 462 457 457 465 462 462 454 446 446 451 462 451 448 451 446 443 440 443 446 443 446 448 448 448 451 454 459 451 451 443 443 440 438 443 446 446 451 451 454 462 465 471 474 474 471 465 459 446 443 446 446 446 443 440 440 440 443 440 435 430 427 425 425 420 411 404 406 404 404 404 404 0 0 0 0 0
    0 0 0 0 0 0 0 0 0 0 0 0 0 0 0 0 0 0 0 0 0 0 0 0 0 0 0 0 0 0 0 0 0 0 0 0 0 0 0 0 0 0 0 0 0 0 0 0 0 0 0 0 0 0 0 0 0 0 0 0 0 0 0 0 0 0 0 0 0 457 451 446 0 0 0 0 0 0 252 0 243 238 0 0 0 0 0 0 0 0 0 0 0 0 0 0 0 0 0 468 451 457 448 454 462 457 448 443 446 443 432 425 404 0 0 0 81 0 0 0 0 0 0 0 0 0 0 0 0 0 0 0 0 0 0 0 0 465 465 459 451 443 451 451 454 454 448 448 448 451 0 0 0 0 0 0 0 454 451 448 448 446 451 443 448 451 451 448 451 457 454 446 454 451 448 451 451 448 443 446 454 448 448 454 448 451 454 457 457 454 454 465 451 459 454 451 0 0 0 0 0 0 0 0 457 454 454 448 462 451 448 448 454 448 451 454 448 446 446 446 448 438 443 454 451 454 457 459 459 457 465 468 459 468 465 465 468 468 462 462 459 462 462 465 462 457 457 465 462 462 454 446 448 454 465 454 451 457 448 446 443 443 446 443 446 448 448 451 451 454 462 451 451 443 443 440 438 443 446 443 448 448 451 457 462 471 474 477 477 474 465 448 446 448 446 443 440 438 438 440 440 438 435 432 430 425 425 420 411 404 406 404 406 406 406 0 0 0 0 0
    0 0 0 0 0 0 0 0 0 0 0 0 0 0 0 0 0 0 0 0 0 0 0 0 0 0 0 0 0 0 0 0 0 0 0 0 0 0 0 0 0 0 0 0 0 0 0 0 0 0 0 0 0 0 0 0 0 0 0 0 0 0 0 0 0 0 0 0 0 448 438 0 0 0 0 0 0 0 246 245 242 238 0 0 0 0 0 0 0 156 0 0 0 148 0 0 0 0 0 0 0 0 0 0 0 465 448 440 443 0 0 0 0 0 81 81 81 80 0 0 0 0 0 0 184 181 180 180 179 0 0 0 0 0 0 0 0 0 465 454 440 440 446 446 451 451 446 0 0 0 0 0 0 0 943 0 0 0 0 0 0 443 448 440 446 448 451 451 454 459 454 446 454 451 448 451 451 446 443 443 454 451 451 457 448 451 457 459 0 454 454 0 0 0 0 0 0 0 0 0 0 0 0 0 0 454 0 0 0 454 451 448 454 448 446 451 0 440 435 432 435 427 443 454 451 457 459 459 459 459 465 468 459 468 465 465 468 468 462 462 462 465 462 465 462 457 457 468 465 468 465 451 454 465 477 462 462 468 457 448 443 443 443 443 446 448 448 448 448 454 459 451 448 443 443 443 438 443 0 0 0 0 0 454 459 468 477 0 481 481 474 451 451 451 448 446 440 438 438 440 440 435 432 430 427 422 425 415 406 402 404 402 404 404 408 0 0 0 0 0
    0 0 0 0 0 0 0 0 0 0 0 0 0 0 0 0 0 0 0 0 0 0 0 0 0 0 0 0 0 0 0 0 0 0 0 0 0 0 0 0 0 0 0 0 0 0 0 0 0 0 0 0 0 0 0 0 0 0 0 0 0 0 0 0 0 0 0 0 0 0 0 402 0 389 0 0 0 244 238 0 238 0 0 0 0 0 0 0 0 0 0 0 0 0 0 0 0 0 0 0 0 0 0 0 0 0 0 0 0 0 0 0 0 0 0 0 0 0 0 0 0 0 0 185 183 181 0 0 0 0 0 0 108 107 0 107 108 108 0 0 411 375 0 0 360 0 0 0 0 0 0 0 0 0 0 0 0 0 0 0 0 0 0 0 0 446 446 451 454 459 457 443 454 448 446 448 448 443 0 0 0 0 448 454 0 446 454 457 0 0 0 90 0 0 0 0 0 0 0 0 0 0 0 0 0 0 0 0 74 0 0 427 0 0 0 0 0 0 413 404 0 404 0 459 454 459 465 465 462 465 468 468 457 471 465 465 465 468 459 462 462 465 462 0 0 462 462 0 477 497 497 497 500 518 507 490 490 490 477 448 0 443 440 440 440 443 443 446 446 448 454 448 451 451 454 457 454 454 0 0 0 0 0 0 0 459 0 477 474 471 465 446 451 454 454 446 440 438 438 440 443 435 432 432 430 425 427 408 397 391 399 397 402 399 404 0 0 0 0 0
    0 0 0 0 0 0 0 0 0 0 0 0 0 0 0 0 0 0 0 0 0 0 0 0 0 0 0 0 0 0 0 0 0 0 0 0 0 0 0 0 0 0 0 0 0 0 0 0 0 0 0 0 0 0 0 0 0 0 0 0 0 0 0 0 0 0 0 0 0 0 0 0 0 0 357 348 0 0 0 352 0 0 0 0 362 0 0 367 0 364 366 0 369 0 0 0 0 0 0 0 0 0 134 133 0 0 0 0 0 0 0 0 353 0 0 0 0 0 0 0 0 0 0 0 0 0 0 121 120 120 0 0 0 0 0 0 0 0 0 0 379 367 362 360 359 359 360 362 362 0 83 83 83 0 0 0 0 0 0 0 0 0 0 0 0 0 0 0 0 0 0 0 0 448 0 0 0 0 0 0 0 0 448 0 0 0 0 0 0 0 0 381 373 369 0 369 0 0 0 0 0 0 0 0 0 0 0 0 0 0 0 0 371 360 359 364 359 348 377 371 364 367 367 0 448 454 468 468 0 0 0 0 0 0 465 462 459 457 451 0 454 459 0 0 0 0 0 0 0 0 537 541 541 541 537 529 0 518 493 0 435 438 435 435 435 438 440 440 443 443 448 446 448 451 457 462 0 459 0 0 0 0 0 0 0 0 0 0 0 446 443 440 451 457 457 446 440 438 440 440 443 435 432 432 430 425 0 397 387 379 389 393 397 395 397 0 0 0 0 0
    0 0 0 0 0 0 0 0 0 0 0 0 0 0 0 0 0 0 0 0 0 0 0 0 0 0 0 0 0 0 0 0 0 0 0 0 0 0 0 0 0 0 0 0 0 0 0 0 0 0 0 0 0 0 0 0 0 0 0 0 0 0 0 0 0 0 0 0 0 0 0 366 366 367 362 357 366 366 362 355 357 0 0 0 362 364 366 366 366 364 364 366 367 367 366 364 366 369 0 0 0 0 134 0 0 0 0 369 0 366 366 366 359 353 0 0 357 359 0 0 0 0 0 0 0 148 0 0 119 119 0 0 0 0 0 0 0 0 0 377 377 369 366 364 362 366 366 366 366 367 0 0 0 0 0 0 0 0 0 362 360 359 360 373 371 369 371 369 369 0 0 369 0 0 166 162 0 0 0 159 0 0 0 119 117 0 0 0 387 387 371 375 371 369 371 371 373 373 0 0 0 379 377 377 379 377 373 373 369 366 0 0 362 357 353 360 357 360 375 369 364 366 366 367 0 0 0 0 0 0 0 0 0 0 0 0 0 0 0 0 0 0 0 0 0 0 0 0 0 0 549 0 561 557 0 0 0 0 0 0 0 0 418 415 425 427 427 432 438 440 446 443 0 0 0 0 0 0 0 0 0 0 0 0 0 0 0 0 0 0 0 0 446 448 451 440 435 432 435 438 438 432 432 430 427 425 0 393 381 377 387 395 397 395 399 0 0 0 0 0
    0 0 0 0 0 0 0 0 0 0 0 0 0 0 0 0 0 0 0 0 0 0 0 0 0 0 0 0 0 0 0 0 0 0 0 0 0 0 0 0 0 0 0 0 0 0 0 0 0 0 0 0 0 0 0 0 0 0 0 0 0 0 0 0 0 0 0 0 0 0 0 362 364 366 360 359 364 366 362 357 362 366 362 0 362 364 366 366 364 364 364 366 367 367 366 364 366 369 367 0 373 0 0 0 373 0 0 371 0 367 367 367 364 362 366 364 364 366 0 0 0 0 0 0 0 0 0 0 0 0 0 0 109 0 108 0 0 0 377 381 377 371 369 367 367 369 367 369 367 369 369 371 371 377 367 366 0 0 362 364 360 359 359 369 369 367 369 367 367 0 369 367 364 0 0 0 0 0 0 0 0 0 0 0 0 0 0 373 373 377 369 371 369 369 369 369 371 373 373 379 377 375 375 377 377 377 373 373 369 367 0 369 366 360 359 364 364 369 373 369 367 366 366 366 366 366 360 355 357 355 359 359 359 360 362 364 366 366 373 375 377 377 377 375 381 381 383 381 381 373 369 0 0 0 0 0 0 0 0 366 366 366 371 381 0 385 377 369 379 0 448 0 350 0 0 0 0 0 0 0 0 0 0 0 0 369 0 0 387 391 389 0 0 0 0 420 406 418 430 438 432 432 435 435 430 0 0 391 377 373 395 397 399 397 402 0 0 0 0 0
    0 0 0 0 0 0 0 0 0 0 0 0 0 0 0 0 0 0 0 0 0 0 0 0 0 0 0 0 0 0 0 0 0 0 0 0 0 0 0 0 0 0 0 0 0 0 0 0 0 0 0 0 0 0 0 0 0 0 0 0 0 0 0 0 0 0 0 0 0 0 0 0 364 364 360 359 364 366 362 359 362 366 0 0 362 0 366 366 366 364 364 366 367 367 366 364 367 369 367 0 371 0 0 0 375 371 371 371 371 369 369 369 366 366 367 366 367 369 0 0 0 0 0 373 373 0 0 0 0 0 0 0 0 0 0 0 379 379 377 381 379 373 373 369 369 369 369 369 369 369 371 371 373 0 367 366 366 366 0 366 362 360 360 369 367 366 367 367 366 367 367 366 364 0 0 0 0 0 366 0 0 0 0 373 0 0 373 371 371 375 369 371 369 367 367 367 369 371 371 377 375 373 373 375 375 375 373 373 371 369 375 373 371 367 366 367 367 371 373 371 369 369 367 367 366 366 362 359 359 357 359 360 360 362 366 366 366 369 371 373 375 375 373 373 377 377 379 379 375 371 367 0 0 364 0 0 360 362 362 364 362 364 367 369 367 369 367 366 367 367 366 360 348 343 343 340 0 343 0 0 0 0 0 0 371 371 369 0 0 383 381 375 377 377 379 393 373 375 0 0 418 413 0 427 422 0 0 385 373 371 383 391 395 393 0 0 0 0 0 0
    0 0 0 0 0 0 0 0 0 0 0 0 0 0 0 0 0 0 0 0 0 0 0 0 0 0 0 0 0 0 0 0 0 0 0 0 0 0 0 0 0 0 0 0 0 0 0 0 0 0 0 0 0 0 0 0 0 0 0 0 0 0 0 0 0 0 0 0 0 353 0 364 366 366 362 360 364 366 364 360 364 366 362 364 362 364 366 366 366 364 366 366 367 366 364 364 366 367 367 0 0 0 0 0 375 371 371 371 371 369 369 369 367 367 369 367 369 371 367 0 0 375 373 375 373 375 375 379 0 0 0 0 0 0 0 379 379 379 377 381 377 373 373 371 369 371 369 371 369 371 371 371 373 377 369 367 367 367 366 367 364 360 362 366 366 364 366 366 364 366 366 366 364 364 0 0 0 0 369 0 0 0 375 379 0 373 373 371 371 375 369 369 367 367 366 367 367 369 369 373 371 369 371 373 373 373 373 373 371 369 375 373 371 369 369 369 369 371 373 371 371 371 369 369 369 367 366 362 360 359 360 362 362 366 366 367 367 371 371 373 375 373 373 371 373 375 377 375 373 369 366 0 0 362 360 360 360 360 360 362 362 362 366 367 367 367 367 366 367 367 366 360 352 345 347 343 345 350 355 360 0 0 369 369 373 371 369 0 373 377 377 373 373 371 371 383 367 369 360 0 404 0 0 406 0 393 0 379 373 371 373 375 383 379 379 0 0 0 0 0
    0 0 0 0 0 0 0 0 0 0 0 0 0 0 0 0 0 0 0 0 0 0 0 0 0 0 0 0 0 0 0 0 0 0 0 0 0 0 0 0 0 0 0 0 0 0 0 0 0 0 0 0 0 0 0 0 0 0 0 0 0 0 0 0 0 0 0 0 0 362 367 366 367 367 364 362 366 366 364 362 364 364 360 362 362 364 366 366 366 364 366 366 367 366 364 364 366 367 367 0 0 0 0 377 377 373 371 371 371 371 371 371 369 369 369 369 369 371 367 373 369 375 373 375 373 375 375 377 375 377 371 371 371 0 375 375 375 377 375 379 377 373 373 371 369 371 371 371 369 369 371 371 373 375 369 367 367 367 366 367 364 362 362 364 366 364 366 366 364 366 366 366 364 0 367 369 369 373 371 0 0 0 381 383 369 373 371 371 371 373 369 369 369 367 366 367 367 369 369 373 371 369 371 373 373 373 373 373 371 371 375 373 369 369 367 367 367 369 371 371 371 371 369 371 371 371 367 366 362 362 362 364 364 366 366 367 367 371 371 373 375 373 371 371 373 373 375 375 373 369 366 0 0 362 362 360 360 360 360 362 362 362 366 367 366 367 367 366 367 366 366 362 353 348 352 347 350 355 360 362 364 367 369 367 373 371 369 371 371 375 375 371 373 371 371 375 366 366 362 357 0 362 0 0 0 369 0 373 373 371 373 375 381 377 375 0 0 0 0 0
    0 0 0 0 0 0 0 0 0 0 0 0 0 0 0 0 0 0 0 0 0 0 0 0 0 0 0 0 0 0 0 0 0 0 0 0 0 0 0 0 0 0 0 0 0 0 0 0 0 0 0 0 0 0 0 0 0 0 0 0 0 0 0 0 0 0 0 0 0 364 367 367 369 367 366 364 366 366 366 366 366 364 360 362 362 366 367 366 366 364 366 366 367 366 364 364 367 367 367 0 369 369 375 379 377 373 373 371 373 373 373 373 371 371 371 369 371 371 367 371 369 373 373 375 373 375 375 377 375 375 371 371 371 373 373 375 375 375 375 377 375 371 373 371 371 371 371 371 369 369 371 371 371 373 369 367 367 367 366 367 364 362 362 366 366 366 367 366 366 367 367 366 366 0 0 369 369 371 371 371 0 383 377 383 366 373 373 371 371 371 369 369 369 369 366 367 367 369 369 373 371 369 371 373 373 373 373 373 371 371 375 373 371 369 367 367 367 369 369 369 369 371 369 371 371 371 369 367 364 362 362 364 366 367 367 367 369 373 371 373 375 373 371 371 373 373 373 373 373 369 366 0 0 364 364 362 362 364 364 364 364 364 366 367 366 367 367 366 366 366 366 364 355 352 355 348 357 359 362 366 366 369 369 369 375 371 371 373 373 375 375 373 373 371 371 373 366 366 362 359 364 362 362 367 366 367 364 367 369 369 371 371 375 373 371 0 0 0 0 0
    0 0 0 0 0 0 0 0 0 0 0 0 0 0 0 0 0 0 0 0 0 0 0 0 0 0 0 0 0 0 0 0 0 0 0 0 0 0 0 0 0 0 0 0 0 0 0 0 0 0 0 0 0 0 0 0 0 0 0 0 0 0 0 0 0 0 0 0 0 362 0 0 369 367 366 364 366 366 366 366 366 366 360 364 362 366 367 366 366 366 366 367 367 366 366 366 367 369 369 0 371 369 377 381 379 375 373 371 373 373 375 373 371 373 373 371 373 371 367 369 369 373 373 375 373 375 375 377 375 375 371 371 371 371 373 373 373 375 375 377 375 373 375 373 371 373 371 371 369 371 373 371 371 373 369 369 369 369 367 369 366 366 366 366 366 366 367 367 367 367 367 367 0 0 367 369 369 369 369 369 371 373 371 373 364 371 373 371 371 371 367 369 369 369 367 367 367 369 369 373 371 369 369 373 373 373 371 373 371 371 375 373 371 369 369 367 369 369 369 371 371 371 371 371 373 373 371 369 366 364 364 366 366 367 367 369 371 375 371 373 373 373 371 371 373 373 373 373 373 369 369 369 0 366 366 366 366 366 366 367 367 366 367 369 367 367 369 367 367 367 369 364 359 359 360 355 362 364 366 367 367 371 371 371 375 371 371 375 373 375 375 373 373 371 371 373 366 366 364 362 369 366 371 383 373 373 371 369 369 367 369 369 371 371 366 0 0 0 0 0
    0 0 0 0 0 0 0 0 0 0 0 0 0 0 0 0 0 0 0 0 0 0 0 0 0 0 0 0 0 0 0 0 0 0 0 0 0 0 0 0 0 0 0 0 0 0 0 0 0 0 0 0 0 0 0 0 0 0 0 0 0 0 0 0 0 0 0 0 0 364 367 0 369 367 367 364 366 366 366 366 366 364 362 362 362 364 367 367 367 366 367 367 369 366 366 366 367 369 369 369 369 369 379 381 379 373 373 371 373 373 375 373 373 373 373 373 377 373 369 371 369 373 373 375 373 375 375 377 375 375 371 371 371 371 373 373 373 375 375 377 375 373 375 375 373 373 373 371 369 371 373 369 371 373 369 369 369 371 369 371 369 367 366 366 366 366 366 367 367 367 369 367 367 0 367 369 369 369 369 369 371 371 371 373 366 371 375 373 373 369 369 371 371 371 367 369 369 369 369 373 371 367 369 373 371 371 371 373 371 371 375 373 371 371 371 369 369 371 371 371 373 373 373 373 375 375 375 371 367 364 364 366 367 367 367 369 371 377 371 371 373 373 371 371 371 371 371 373 373 369 371 369 369 367 367 367 367 367 367 367 369 367 369 369 369 369 369 369 369 369 371 366 364 364 367 362 367 367 369 369 371 371 371 369 375 371 371 373 373 375 373 373 373 371 373 375 366 369 367 366 379 371 387 391 377 377 377 373 373 373 375 375 371 373 0 0 0 0 0 0
    0 0 0 0 0 0 0 0 0 0 0 0 0 0 0 0 0 0 0 0 0 0 0 0 0 0 0 0 0 0 0 0 0 0 0 0 0 0 0 0 0 0 0 0 0 0 0 0 0 0 0 0 0 0 0 0 0 0 0 0 0 0 0 0 0 0 0 0 0 366 367 367 369 367 367 366 366 366 366 366 364 364 362 362 362 364 367 367 369 367 367 367 369 366 367 366 367 369 369 369 369 369 377 379 377 373 373 371 373 373 375 375 373 375 375 373 379 375 369 371 371 373 373 375 373 375 375 377 375 375 373 371 373 371 373 373 373 375 377 377 375 373 377 375 373 373 373 371 369 371 373 369 371 373 371 371 371 373 373 373 371 369 367 367 367 367 367 367 367 367 367 367 367 0 367 369 369 367 369 367 369 369 369 371 366 371 377 373 373 369 369 371 371 371 367 369 369 369 369 371 369 367 369 371 369 371 371 373 371 373 375 375 373 373 371 369 371 371 373 373 373 375 375 375 377 377 377 371 369 367 367 369 369 369 369 369 373 377 371 371 373 373 0 371 371 371 371 373 373 369 371 371 369 369 367 369 367 369 367 367 369 367 369 369 369 369 369 369 369 369 369 366 364 364 367 364 367 367 369 369 371 371 369 369 373 369 371 373 371 373 373 373 373 371 373 375 367 375 373 377 387 379 389 391 381 381 381 375 375 375 377 377 369 373 362 0 0 0 0 0
    0 0 0 0 0 0 0 0 0 0 0 0 0 0 0 0 0 0 0 0 0 0 0 0 0 0 0 0 0 0 0 0 0 0 0 0 0 0 0 0 0 0 0 0 0 0 0 0 0 0 0 0 0 0 0 0 0 0 0 0 0 0 0 0 0 0 0 0 0 367 367 369 369 367 367 366 366 366 364 366 364 364 362 360 364 366 369 369 371 369 367 369 369 366 367 367 369 369 369 369 369 369 377 375 375 371 373 369 373 373 375 375 373 375 375 375 383 377 369 371 369 373 371 373 373 373 373 375 373 375 373 373 373 371 373 375 373 375 377 377 375 373 377 375 373 373 373 371 369 371 373 369 371 373 373 373 373 375 375 375 373 371 369 369 369 367 367 367 367 367 367 367 367 367 367 369 367 367 367 367 369 367 367 369 366 371 377 375 375 369 371 371 373 371 367 369 369 369 369 369 367 366 367 369 367 369 369 371 371 373 375 375 373 373 373 371 371 371 373 373 373 375 375 375 377 377 377 373 371 369 369 371 371 371 371 371 375 379 373 371 373 373 371 371 371 369 369 373 371 369 371 371 369 369 369 369 369 369 369 369 369 369 371 371 369 369 369 371 369 367 369 366 364 366 369 366 369 369 369 371 371 371 369 369 373 369 371 373 371 373 373 373 373 371 373 377 369 377 377 383 389 383 387 391 383 381 381 377 375 375 379 379 371 371 362 0 0 0 0 0
    0 0 0 0 0 0 0 0 0 0 0 0 0 0 0 0 0 0 0 0 0 0 0 0 0 0 0 0 0 0 0 0 0 0 0 0 0 0 0 0 0 0 0 0 0 0 0 0 0 0 0 0 0 0 0 0 0 0 0 0 0 0 0 0 0 0 0 0 0 371 371 371 371 369 369 367 366 366 366 367 364 364 359 357 362 364 369 371 371 369 369 371 369 367 369 369 369 369 369 371 369 369 377 373 373 371 373 369 373 375 375 375 375 375 375 375 385 375 369 369 369 369 371 373 371 373 373 375 373 375 375 373 373 371 373 375 373 373 375 377 375 373 375 375 373 373 373 371 371 371 375 371 373 375 375 375 373 375 375 375 375 371 369 369 369 369 367 367 367 367 367 367 367 367 367 369 367 367 367 367 369 367 367 369 366 371 377 375 375 369 371 373 373 373 367 369 369 369 369 369 367 366 367 369 367 367 369 371 371 373 373 375 373 373 373 371 373 373 373 373 375 377 377 377 379 377 379 375 373 373 371 373 371 373 373 373 377 379 373 373 375 373 371 373 371 371 369 373 371 369 371 371 371 371 371 373 371 373 371 371 371 371 371 371 371 369 369 371 369 367 369 366 366 366 369 366 369 369 371 371 371 371 369 369 373 369 371 373 373 373 373 373 373 371 375 375 369 375 377 383 387 383 387 391 383 385 383 379 377 377 381 383 373 371 362 0 0 0 0 0
    0 0 0 0 0 0 0 0 0 0 0 0 0 0 0 0 0 0 0 0 0 0 0 0 0 0 0 0 0 0 0 0 0 0 0 0 0 0 0 0 0 0 0 0 0 0 0 0 0 0 0 0 0 0 0 0 0 0 0 0 0 0 0 0 0 0 0 0 0 373 373 373 373 371 371 369 367 367 367 367 366 364 360 359 362 0 369 371 371 369 369 371 371 367 371 369 369 369 369 371 369 369 377 371 373 371 373 371 373 375 377 377 375 375 375 375 385 375 369 367 367 369 371 373 373 373 373 375 373 375 373 373 373 371 371 373 371 373 375 375 373 371 375 375 373 373 373 371 371 0 377 371 375 375 379 377 375 377 377 375 375 371 369 369 369 369 369 369 369 369 369 367 367 367 367 367 367 367 367 367 369 369 369 371 369 375 379 377 377 371 371 375 375 375 369 371 371 369 371 369 367 0 367 371 367 367 369 371 371 373 373 375 373 373 373 371 373 373 373 373 375 377 379 377 381 379 381 375 375 373 373 373 371 373 373 373 377 379 371 373 375 373 371 371 371 369 369 373 371 369 373 373 373 375 375 375 375 375 373 375 373 371 371 371 371 369 371 371 369 369 369 367 369 369 371 369 371 371 371 371 371 371 369 369 375 369 371 373 373 373 373 373 375 371 375 373 369 375 379 383 387 387 389 391 385 385 383 379 379 377 379 379 371 369 360 0 0 0 0 0
    0 0 0 0 0 0 0 0 0 0 0 0 0 0 0 0 0 0 0 0 0 0 0 0 0 0 0 0 0 0 0 0 0 0 0 0 0 0 0 0 0 0 0 0 0 0 0 0 0 0 0 0 0 0 0 0 0 0 0 0 0 0 0 0 0 0 0 0 0 373 373 371 371 369 371 369 369 369 369 369 366 366 362 360 362 0 369 371 371 369 369 373 373 369 371 371 371 371 371 373 369 369 377 369 371 371 373 371 375 375 377 377 375 375 377 375 385 373 369 367 369 369 371 373 371 371 371 375 373 373 373 373 373 371 371 373 371 371 373 375 373 371 375 373 373 371 373 371 371 0 375 371 375 377 379 377 375 377 377 375 377 373 371 371 371 373 371 369 369 369 369 369 367 367 367 367 366 366 366 366 367 367 369 371 369 375 379 379 379 371 373 377 377 375 371 373 373 373 373 373 369 369 369 371 367 369 369 371 371 373 373 375 371 373 373 371 373 373 373 373 375 377 379 377 381 379 381 375 375 375 373 373 371 373 373 371 377 377 371 371 373 373 371 373 371 369 371 373 371 371 373 373 373 375 375 377 377 377 375 377 375 373 373 371 371 371 371 373 371 369 371 369 369 371 373 369 371 371 371 371 371 369 369 369 373 369 371 373 373 375 375 375 373 371 375 371 369 373 377 381 385 387 389 393 387 387 385 379 379 377 377 377 367 366 359 0 0 0 0 0
    0 0 0 0 0 0 0 0 0 0 0 0 0 0 0 0 0 0 0 0 0 0 0 0 0 0 0 0 0 0 0 0 0 0 0 0 0 0 0 0 0 0 0 0 0 0 0 0 0 0 0 0 0 0 0 0 0 0 0 0 0 0 0 0 0 0 0 0 0 375 373 373 371 369 371 371 369 371 371 371 369 367 364 364 364 0 0 371 371 369 371 373 375 371 373 371 371 371 371 373 369 369 377 367 371 371 373 371 375 377 377 377 375 375 375 373 381 371 369 367 369 369 371 373 373 0 371 373 373 373 373 373 373 371 373 375 371 373 375 375 371 371 373 373 371 371 373 371 371 0 375 373 375 377 381 377 375 377 379 375 379 373 371 373 373 373 371 369 369 369 369 367 367 366 366 366 366 366 364 364 366 367 369 369 369 373 379 379 379 371 373 377 377 377 373 375 375 375 375 375 369 369 369 371 367 367 369 371 371 373 373 375 373 373 373 373 375 375 375 375 375 377 379 379 381 377 379 375 375 373 373 373 371 373 373 373 377 375 371 373 373 373 371 373 371 369 369 373 371 371 373 373 373 375 377 377 377 379 375 377 375 375 373 373 373 373 371 373 373 371 371 369 371 371 373 371 373 371 373 371 371 371 369 369 373 369 371 373 373 375 375 375 373 371 373 369 366 367 371 375 381 385 389 393 387 387 385 381 379 377 377 377 367 364 359 0 0 0 0 0
    0 0 0 0 0 0 0 0 0 0 0 0 0 0 0 0 0 0 0 0 0 0 0 0 0 0 0 0 0 0 0 0 0 0 0 0 0 0 0 0 0 0 0 0 0 0 0 0 0 0 0 0 0 0 0 0 0 0 0 0 0 0 0 0 0 0 0 0 0 377 375 375 371 369 371 371 369 371 371 371 369 366 364 0 0 0 0 369 369 367 369 373 375 371 375 373 371 373 373 373 371 369 377 366 371 371 373 371 375 375 375 375 375 375 375 373 381 373 371 371 371 371 371 373 373 371 371 373 371 373 373 373 375 373 373 375 373 373 375 375 371 371 373 373 371 371 373 371 371 375 375 373 377 379 381 379 375 375 379 375 377 371 371 371 371 373 371 369 369 369 367 367 367 366 366 366 366 364 364 364 366 367 367 369 369 371 377 375 375 371 373 377 377 377 375 377 375 375 377 375 371 371 371 371 367 367 369 369 369 373 371 375 373 373 375 373 377 377 377 377 377 379 381 381 383 377 379 375 375 373 373 373 371 373 373 373 375 375 371 373 373 373 371 371 371 369 369 371 371 371 373 373 373 375 377 377 377 377 375 377 375 375 375 373 373 373 373 375 373 371 371 369 371 371 373 373 373 373 373 373 371 371 369 369 373 369 371 371 371 373 373 373 373 369 373 369 366 366 366 369 371 375 383 391 387 387 385 383 379 379 381 383 375 371 360 0 0 0 0 0
    0 0 0 0 0 0 0 0 0 0 0 0 0 0 0 0 0 0 0 0 0 0 0 0 0 0 0 0 0 0 0 0 0 0 0 0 0 0 0 0 0 0 0 0 0 0 0 0 0 0 0 0 0 0 0 0 0 0 0 0 0 0 0 0 0 0 0 0 0 377 377 375 371 369 373 373 371 373 371 371 371 0 0 0 0 0 0 369 366 364 369 371 375 371 375 373 371 373 373 373 371 369 375 366 369 371 373 371 375 375 375 375 373 373 373 373 379 373 371 371 371 371 371 373 373 373 373 373 371 373 375 375 377 373 375 377 373 375 377 375 371 373 373 373 371 371 373 371 371 375 375 373 377 379 381 379 375 375 377 375 375 371 371 371 371 371 371 369 369 369 367 367 367 366 366 366 366 366 364 366 367 369 369 369 371 371 375 375 375 371 373 377 377 377 375 377 375 375 377 375 371 371 373 373 369 369 369 369 369 371 371 373 371 373 373 375 377 377 377 379 379 381 383 381 381 377 379 373 375 373 373 371 371 373 373 373 375 373 371 373 373 373 371 371 371 369 369 371 371 371 373 373 373 375 377 375 377 377 375 379 377 377 377 375 375 375 375 375 375 373 373 371 373 373 375 373 375 373 375 373 371 371 369 369 371 369 371 371 371 373 373 373 371 369 373 367 366 364 364 364 366 367 371 379 379 383 383 383 379 377 381 387 381 375 366 0 0 0 0 0
    0 0 0 0 0 0 0 0 0 0 0 0 0 0 0 0 0 0 0 0 0 0 0 0 0 0 0 0 0 0 0 0 0 0 0 0 0 0 0 0 0 0 0 0 0 0 0 0 0 0 0 0 0 0 0 0 0 0 0 0 0 0 0 0 0 0 0 0 0 377 375 373 371 369 373 375 371 375 377 377 377 0 0 0 0 0 0 369 367 364 369 373 377 371 375 373 371 373 373 373 371 369 375 366 371 373 375 371 375 375 375 373 373 373 373 371 377 375 373 373 371 373 373 375 375 375 375 375 373 375 377 377 379 375 377 377 375 377 375 375 371 373 373 373 373 371 373 373 373 379 375 375 377 379 383 379 377 375 377 375 375 371 371 371 373 373 371 369 371 369 367 369 367 367 367 366 366 366 366 366 366 367 369 369 371 371 375 375 375 369 373 377 377 375 375 377 375 375 379 377 373 373 375 375 371 371 369 371 369 371 369 371 369 371 373 375 377 377 377 379 379 379 383 381 381 375 377 373 373 373 373 371 373 373 373 371 373 373 371 373 373 373 371 371 371 371 371 371 369 373 371 373 373 375 377 375 377 377 375 379 377 379 377 377 375 375 375 375 375 373 373 371 373 373 375 373 375 373 375 375 373 373 371 371 373 369 371 371 371 373 373 373 371 369 373 369 367 364 364 364 366 366 367 373 371 377 377 377 373 371 375 383 377 373 364 0 0 0 0 0
    0 0 0 0 0 0 0 0 0 0 0 0 0 0 0 0 0 0 0 0 0 0 0 0 0 0 0 0 0 0 0 0 0 0 0 0 0 0 0 0 0 0 0 0 0 0 0 0 0 0 0 0 0 0 0 0 0 0 0 0 0 0 0 0 0 0 0 0 0 379 379 375 371 371 371 377 373 377 381 381 381 375 0 0 0 0 359 367 366 364 371 373 377 373 375 373 373 373 375 373 373 369 375 369 373 377 377 373 375 375 375 375 373 373 373 373 377 375 373 373 373 373 373 375 375 375 373 375 373 375 377 377 377 375 375 375 373 375 375 375 371 373 373 373 373 371 373 373 373 381 377 377 379 379 383 379 377 375 377 375 375 369 371 371 373 373 371 369 371 369 369 369 369 367 367 367 367 366 366 367 366 367 369 369 371 371 373 373 373 369 373 377 377 375 375 377 375 377 379 377 373 375 375 377 373 373 371 371 369 371 369 371 369 371 373 373 377 377 377 379 377 379 381 379 381 375 375 373 373 373 373 371 373 373 373 373 373 373 373 375 373 373 373 373 371 371 371 371 371 373 371 373 373 375 377 375 379 377 375 381 377 379 377 377 375 375 375 375 375 375 373 373 373 375 377 375 377 375 375 375 373 373 371 373 373 369 371 371 371 375 373 375 373 371 373 371 369 366 364 364 366 366 364 367 366 371 371 371 371 367 373 383 379 371 362 0 0 0 0 0
    0 0 0 0 0 0 0 0 0 0 0 0 0 0 0 0 0 0 0 0 0 0 0 0 0 0 0 0 0 0 0 0 0 0 0 0 0 0 0 0 0 0 0 0 0 0 0 0 0 0 0 0 0 0 0 0 0 0 0 0 0 0 0 0 0 0 0 0 0 381 381 381 377 377 377 381 377 381 383 381 379 377 371 375 0 0 362 369 367 367 371 375 377 375 377 375 373 373 375 375 373 369 375 371 375 381 381 375 375 377 377 375 373 375 375 373 377 377 373 373 373 373 375 375 375 375 373 375 371 375 375 373 375 373 373 375 373 375 373 375 371 373 375 375 373 373 373 375 373 385 377 377 379 381 383 379 377 375 375 373 375 369 371 371 373 373 373 371 373 371 369 371 371 369 369 369 369 367 367 369 0 369 369 369 371 371 373 373 371 371 373 377 377 375 377 377 375 377 381 377 375 375 377 377 375 375 373 373 373 373 371 373 371 371 373 375 377 377 377 377 377 379 381 379 383 377 375 373 373 373 373 371 373 373 373 371 373 373 373 375 375 375 373 373 373 371 373 371 371 373 371 373 373 375 377 377 379 379 377 383 379 379 377 377 375 375 377 375 377 375 375 375 375 377 377 375 377 377 375 375 373 375 373 373 373 371 371 373 371 375 375 375 373 373 375 373 369 0 364 364 366 364 364 366 364 369 366 367 367 366 367 377 375 369 360 0 0 0 0 0
    0 0 0 0 0 0 0 0 0 0 0 0 0 0 0 0 0 0 0 0 0 0 0 0 0 0 0 0 0 0 0 0 0 0 0 0 0 0 0 0 0 0 0 0 0 0 0 0 0 0 0 0 0 0 0 0 0 0 0 0 0 0 0 0 0 0 0 0 0 381 379 379 375 377 375 379 377 381 381 377 377 379 373 379 375 373 369 375 373 371 375 375 379 377 377 375 373 373 377 375 375 369 375 375 377 383 383 377 377 377 377 377 375 375 375 375 379 381 377 375 375 375 377 375 375 373 371 373 369 373 373 369 373 371 371 373 373 375 373 373 371 373 375 373 373 371 373 373 373 381 375 375 379 379 381 377 375 373 375 373 375 369 371 373 373 375 373 371 373 371 371 373 373 371 371 371 371 367 367 369 366 367 367 367 371 369 373 373 371 371 375 377 377 375 377 377 377 379 381 379 377 377 381 379 377 377 375 377 375 375 373 373 373 373 375 375 377 377 379 379 379 379 381 379 381 375 375 373 373 373 373 371 373 373 373 373 375 375 375 377 375 375 373 373 373 373 373 371 371 375 371 373 375 375 377 377 379 377 375 379 377 377 377 377 375 375 379 377 377 377 375 375 375 377 379 375 377 375 377 377 375 377 373 373 373 371 371 373 371 375 373 375 373 373 373 373 369 0 0 0 367 367 366 367 367 369 366 366 366 366 364 367 367 366 360 0 0 0 0 0
    0 0 0 0 0 0 0 0 0 0 0 0 0 0 0 0 0 0 0 0 0 0 0 0 0 0 0 0 0 0 0 0 0 0 0 0 0 0 0 0 0 0 0 0 0 0 0 0 0 0 0 0 0 0 0 0 0 0 0 0 0 0 0 0 0 0 0 0 0 381 381 377 375 375 373 375 375 379 379 375 377 381 375 383 377 375 373 377 377 373 377 377 381 377 379 377 373 375 379 375 377 371 377 379 377 383 383 377 375 377 379 377 375 375 375 375 379 381 377 375 0 0 0 375 0 0 0 0 367 371 373 369 375 373 373 375 373 377 375 373 371 373 375 373 373 371 373 373 373 379 373 375 377 375 377 373 373 373 375 373 375 371 373 375 375 375 375 373 375 373 371 373 375 373 373 373 373 371 369 371 367 366 366 366 367 367 371 371 371 371 373 375 377 375 377 377 377 379 381 379 377 377 381 379 377 379 377 377 373 373 373 371 373 373 375 375 377 377 377 377 377 377 377 375 377 373 373 371 371 371 371 371 373 375 375 373 375 375 377 377 375 375 373 373 375 373 373 371 371 375 373 373 375 375 377 375 379 375 373 377 375 377 375 375 375 375 379 377 379 377 375 375 375 375 379 375 377 375 377 377 377 377 375 373 373 373 371 373 373 375 373 375 373 375 373 375 369 369 0 369 371 0 0 371 371 373 369 367 367 366 366 369 367 366 362 0 0 0 0 0
    0 0 0 0 0 0 0 0 0 0 0 0 0 0 0 0 0 0 0 0 0 0 0 0 0 0 0 0 0 0 0 0 0 0 0 0 0 0 0 0 0 0 0 0 0 0 0 0 0 0 0 0 0 0 0 0 0 0 0 0 0 0 0 0 0 0 0 0 0 383 383 379 377 375 371 375 375 377 377 0 375 381 375 387 381 377 373 379 379 373 377 377 379 377 377 379 373 375 381 377 377 371 379 383 377 383 381 377 375 377 377 377 373 373 375 375 379 381 377 0 0 0 0 0 0 0 0 0 0 369 0 367 379 373 373 373 373 377 375 373 371 373 375 373 373 373 371 373 373 0 373 375 375 375 375 373 375 373 373 373 373 373 373 373 375 373 373 373 375 373 373 375 375 375 375 375 377 373 371 371 367 366 366 366 367 366 371 369 371 371 373 375 375 373 377 375 377 377 381 381 377 377 383 379 379 381 377 377 373 371 371 369 371 371 373 375 375 377 377 377 377 375 375 373 375 373 373 371 371 373 373 371 375 377 375 373 375 377 377 377 375 375 373 373 375 371 373 371 371 377 373 375 375 377 379 377 379 375 373 377 377 377 377 377 375 375 379 377 377 375 373 375 375 375 379 375 377 375 377 377 377 377 375 373 373 373 371 375 373 375 375 375 375 377 375 379 371 373 373 373 373 375 0 375 373 375 371 366 367 366 366 369 367 366 362 0 0 0 0 0
    0 0 0 0 0 0 0 0 0 0 0 0 0 0 0 0 0 0 0 0 0 0 0 0 0 0 0 0 0 0 0 0 0 0 0 0 0 0 0 0 0 0 0 0 0 0 0 0 0 0 0 0 0 0 0 0 0 0 0 0 0 0 0 0 0 0 0 0 0 383 385 377 377 377 371 375 0 379 0 0 0 385 377 389 385 379 373 379 379 375 377 377 379 377 377 379 373 375 379 377 377 373 379 383 377 383 381 375 373 377 377 377 373 375 375 377 379 383 0 0 0 0 0 0 0 0 0 0 0 369 0 367 381 373 371 373 373 377 373 373 371 373 375 373 373 373 373 373 375 0 373 375 375 375 375 373 375 373 375 373 375 373 373 375 375 373 373 373 375 375 373 375 377 377 377 377 377 373 373 373 369 366 366 364 367 366 371 369 371 371 371 375 375 373 377 375 377 377 379 381 377 377 383 381 381 381 379 379 375 371 369 371 373 371 373 373 375 375 377 377 375 373 375 373 373 373 373 373 371 373 375 373 377 379 377 373 377 377 377 375 375 375 373 373 373 371 371 369 371 375 373 375 377 379 381 379 383 379 375 377 377 377 377 375 375 375 377 375 377 375 373 375 375 375 379 375 379 377 379 379 377 379 375 373 373 373 371 375 373 375 375 375 377 379 377 383 373 375 375 377 375 375 377 377 373 373 367 364 362 362 364 367 364 364 360 0 0 0 0 0
    0 0 0 0 0 0 0 0 0 0 0 0 0 0 0 0 0 0 0 0 0 0 0 0 0 0 0 0 0 0 0 0 0 0 0 0 0 0 0 0 0 0 0 0 0 0 0 0 0 0 0 0 0 0 0 0 0 0 0 0 0 0 0 0 0 0 0 0 0 383 383 375 375 375 371 375 0 0 381 0 0 389 381 391 389 381 375 381 383 377 379 379 379 377 377 379 373 373 379 375 377 373 377 383 0 0 383 377 373 377 379 379 375 375 377 377 379 383 0 0 0 0 0 0 0 144 0 0 0 0 0 366 377 371 371 371 371 373 373 373 371 373 375 373 373 373 373 373 375 0 373 375 377 375 375 373 375 373 375 375 375 375 373 375 375 375 375 375 375 375 373 375 379 379 379 377 379 375 375 375 371 366 366 364 367 367 371 369 371 371 371 375 375 373 375 375 377 377 379 381 377 377 383 381 381 383 381 381 375 373 371 371 373 371 373 373 373 375 377 375 373 373 373 371 373 373 371 373 373 375 375 373 377 381 379 373 377 377 377 375 375 375 371 373 373 371 371 371 371 375 373 377 379 381 383 381 383 381 377 377 377 377 375 375 373 373 377 375 375 373 373 375 375 377 381 375 379 379 379 379 377 377 375 371 371 373 371 375 373 375 373 375 377 377 375 383 375 375 375 377 375 377 377 377 373 369 366 362 360 360 359 362 359 357 353 0 0 0 0 0
    0 0 0 0 0 0 0 0 0 0 0 0 0 0 0 0 0 0 0 0 0 0 0 0 0 0 0 0 0 0 0 0 0 0 0 0 0 0 0 0 0 0 0 0 0 0 0 0 0 0 0 0 0 0 0 0 0 0 0 0 0 0 0 0 0 0 0 0 0 387 389 379 377 377 369 0 0 0 377 0 0 0 375 389 387 381 375 383 385 377 379 381 379 377 377 379 375 373 381 377 375 373 377 0 0 0 0 377 373 379 381 381 377 377 379 377 381 383 0 0 0 0 0 0 0 144 144 0 0 0 0 364 369 369 367 369 369 371 371 371 371 373 375 373 373 375 375 375 377 0 375 377 377 375 373 373 375 375 375 375 377 379 375 377 375 375 375 375 375 375 375 377 379 379 379 377 379 375 373 375 371 366 364 362 366 366 369 369 371 371 371 375 375 373 375 375 377 375 377 381 377 377 383 381 383 385 383 385 379 375 373 373 375 371 373 373 373 375 377 375 373 371 371 369 373 373 371 373 373 375 377 375 379 383 381 375 377 377 377 375 375 375 371 373 375 371 371 371 373 375 373 381 381 385 387 385 385 383 377 377 375 373 373 371 371 371 375 375 375 373 373 373 375 375 381 375 379 377 379 381 377 377 375 369 369 371 369 373 373 373 373 373 375 377 375 381 375 375 375 377 375 377 375 375 371 366 364 359 360 360 359 360 359 353 352 0 0 0 0 0
    0 0 0 0 0 0 0 0 0 0 0 0 0 0 0 0 0 0 0 0 0 0 0 0 0 0 0 0 0 0 0 0 0 0 0 0 0 0 0 0 0 0 0 0 0 0 0 0 0 0 0 0 0 0 0 0 0 0 0 0 0 0 0 0 0 0 0 0 0 393 393 387 381 379 0 0 0 377 375 0 0 377 371 387 383 379 373 381 385 377 379 381 379 377 377 381 375 375 385 381 379 381 389 0 0 0 0 383 375 381 385 383 379 379 381 379 381 383 0 0 0 0 0 0 0 145 145 0 0 364 0 360 362 367 0 0 0 0 0 371 371 373 375 375 373 375 375 375 379 0 375 377 377 373 371 371 373 373 373 373 375 377 375 375 375 375 377 375 375 377 375 377 379 379 381 379 379 377 373 375 0 364 362 357 360 360 369 367 371 371 371 375 375 373 377 375 377 375 377 381 377 377 383 381 383 387 385 387 379 375 375 373 375 371 373 373 375 375 377 375 373 371 371 0 373 373 0 373 375 377 377 375 379 385 383 375 379 379 377 375 377 375 371 373 375 371 371 371 373 375 375 385 385 387 389 387 385 383 373 375 373 371 371 369 369 371 373 375 375 373 371 373 375 375 379 375 379 377 379 379 375 375 373 369 369 371 371 373 373 375 373 373 375 377 375 381 375 375 375 375 375 375 371 369 366 362 360 355 357 359 359 359 359 352 353 0 0 0 0 0
    0 0 0 0 0 0 0 0 0 0 0 0 0 0 0 0 0 0 0 0 0 0 0 0 0 0 0 0 0 0 0 0 0 0 0 0 0 0 0 0 0 0 0 0 0 0 0 0 0 0 0 0 0 0 0 0 0 0 0 0 0 0 0 0 0 0 0 0 0 393 391 385 383 379 373 375 375 377 375 0 0 379 0 387 383 379 0 385 387 379 381 383 381 379 379 385 377 375 391 381 385 0 0 0 0 0 0 387 377 383 385 385 379 379 383 379 383 0 0 149 0 0 0 0 0 146 0 0 0 362 0 360 0 0 0 0 0 0 0 369 371 371 375 373 373 375 375 375 381 0 0 375 377 373 371 369 371 371 373 373 375 377 375 375 375 375 377 375 375 377 375 375 379 379 381 379 379 377 373 375 0 366 360 352 350 353 367 367 371 373 371 375 375 375 377 375 379 377 377 383 377 379 385 383 385 387 387 389 381 375 373 371 373 371 373 373 375 375 377 375 373 371 371 0 0 0 0 0 375 379 377 375 379 387 383 375 381 379 377 375 375 375 371 371 373 369 369 369 373 375 375 387 385 389 389 387 385 385 373 373 373 373 371 371 371 371 373 375 375 371 369 0 0 0 0 373 375 375 377 377 373 0 0 0 369 371 371 373 373 375 373 373 375 375 371 377 371 371 373 371 371 371 369 366 364 359 357 352 352 357 353 353 355 348 350 0 0 0 0 0
    0 0 0 0 0 0 0 0 0 0 0 0 0 0 0 0 0 0 0 0 0 0 0 0 0 0 0 0 0 0 0 0 0 0 0 0 0 0 0 0 0 0 0 0 0 0 0 0 0 0 0 0 0 0 0 0 0 0 0 0 0 0 0 0 0 0 0 0 0 0 0 0 0 0 0 0 0 0 0 0 0 0 0 0 0 0 0 0 391 385 385 385 385 383 385 389 383 379 393 0 0 0 0 0 0 0 0 0 0 385 387 385 379 379 383 379 0 0 148 148 0 148 0 0 0 0 0 0 0 0 0 0 0 0 0 0 0 0 0 367 369 367 369 369 369 373 371 0 0 0 0 377 0 0 0 0 0 0 375 373 373 381 377 375 375 375 375 375 375 377 373 375 379 377 381 379 379 377 373 373 0 0 0 350 347 350 367 367 371 371 369 375 375 373 377 375 379 375 377 385 375 379 387 385 389 389 387 389 377 371 369 369 371 371 371 371 373 375 375 373 373 369 0 0 0 162 0 0 0 379 375 375 377 387 383 375 379 379 375 373 375 373 369 369 369 366 366 367 371 373 373 387 385 389 389 385 385 383 371 373 373 371 369 369 371 373 373 375 373 367 0 0 0 0 0 0 0 0 0 0 0 0 0 0 0 371 369 373 373 373 373 373 373 373 369 375 369 369 371 369 369 369 0 364 360 353 353 348 348 352 348 350 352 345 345 0 0 0 0 0
    0 0 0 0 0 0 0 0 0 0 0 0 0 0 0 0 0 0 0 0 0 0 0 0 0 0 0 0 0 0 0 0 0 0 0 0 0 0 0 0 0 0 0 0 0 0 0 0 0 0 0 0 0 0 0 0 0 0 0 0 0 0 0 0 0 0 0 0 0 0 0 0 0 0 0 0 0 0 0 0 0 0 0 0 0 0 0 0 0 0 0 0 0 0 0 0 0 0 0 0 0 0 0 0 0 0 0 0 0 0 0 0 0 0 0 0 0 0 0 0 0 0 0 0 0 0 0 0 0 0 0 0 0 0 0 0 0 0 0 0 369 366 366 367 369 0 0 0 0 0 0 0 0 0 0 0 0 0 0 0 0 0 0 0 0 373 375 0 0 379 373 375 381 381 383 383 383 385 375 0 0 0 0 0 0 0 0 364 371 371 369 373 373 373 375 375 379 375 377 387 375 379 387 0 0 0 387 0 371 0 0 0 369 367 369 369 369 373 373 371 0 0 0 362 0 162 0 0 0 0 375 0 0 0 0 373 377 377 373 371 371 369 367 367 366 364 364 364 367 367 369 387 387 391 387 385 385 387 375 375 377 375 371 371 373 373 371 373 369 0 0 0 0 0 0 0 0 0 0 0 0 0 0 0 0 0 0 373 373 375 373 373 371 371 369 377 367 367 369 367 366 366 360 355 352 343 347 345 345 348 345 345 347 343 343 0 0 0 0 0
    0 0 0 0 0 0 0 0 0 0 0 0 0 0 0 0 0 0 0 0 0 0 0 0 0 0 0 0 0 0 0 0 0 0 0 0 0 0 0 0 0 0 0 0 0 0 0 0 0 0 0 0 0 0 0 0 0 0 0 0 0 0 0 0 0 0 0 0 0 0 0 0 0 0 0 0 0 0 0 0 0 0 0 0 0 0 0 0 0 0 0 0 0 0 0 0 0 0 0 0 0 0 0 0 0 0 0 0 0 0 0 0 0 0 0 0 0 0 0 0 0 0 0 0 0 0 0 0 0 0 0 0 0 0 0 0 0 0 0 0 0 0 0 0 0 0 0 0 0 0 0 0 0 0 0 0 0 0 0 0 0 0 0 0 0 0 0 0 0 0 0 0 0 0 0 0 0 0 0 0 0 0 0 0 0 0 0 0 0 0 0 375 373 373 375 377 379 375 379 389 0 0 0 0 0 0 0 0 0 0 0 0 0 0 0 0 0 0 0 0 0 0 0 0 0 0 0 0 0 0 0 0 0 0 0 375 377 375 371 367 369 369 364 364 364 362 362 362 366 362 362 0 0 0 0 0 389 389 383 377 381 377 373 371 371 369 366 0 0 0 0 0 0 0 1936 0 0 0 0 0 0 0 0 0 0 0 0 0 0 375 375 371 371 371 367 373 366 359 366 355 347 348 348 345 345 342 345 345 343 347 343 345 347 343 343 0 0 0 0 0
    0 0 0 0 0 0 0 0 0 0 0 0 0 0 0 0 0 0 0 0 0 0 0 0 0 0 0 0 0 0 0 0 0 0 0 0 0 0 0 0 0 0 0 0 0 0 0 0 0 0 0 0 0 0 0 0 0 0 0 0 0 0 0 0 0 0 0 0 0 0 0 0 0 0 0 0 0 0 0 0 0 0 0 0 0 0 0 0 0 0 0 0 0 0 0 0 0 0 0 0 0 0 0 0 0 0 0 0 0 0 0 0 0 0 0 0 0 0 0 0 0 0 0 0 0 0 0 0 0 0 0 0 0 0 0 0 0 0 0 0 0 0 0 0 0 0 0 0 0 0 0 0 0 0 0 0 0 0 0 0 0 0 0 0 0 0 0 0 0 0 0 0 0 0 0 0 0 0 0 0 0 0 0 0 0 0 0 0 0 0 0 0 0 0 0 0 0 0 0 0 0 0 0 0 0 0 0 0 0 0 0 0 0 0 0 0 0 0 0 0 0 0 0 0 0 0 0 0 0 0 0 0 0 0 389 379 379 375 371 367 369 367 364 364 362 362 360 362 366 0 0 0 0 0 0 0 0 0 0 0 0 0 0 0 0 0 0 0 0 0 0 0 0 0 1887 0 0 0 0 0 0 0 0 0 0 0 0 0 0 0 0 369 366 367 362 364 360 342 337 339 336 337 339 337 339 336 340 342 342 345 343 343 345 342 343 0 0 0 0 0
    0 0 0 0 0 0 0 0 0 0 0 0 0 0 0 0 0 0 0 0 0 0 0 0 0 0 0 0 0 0 0 0 0 0 0 0 0 0 0 0 0 0 0 0 0 0 0 0 0 0 0 0 0 0 0 0 0 0 0 0 0 0 0 0 0 0 0 0 0 0 0 0 0 0 0 0 0 0 0 0 0 0 0 0 0 0 0 0 0 0 0 0 0 0 0 0 0 0 0 0 0 0 0 0 0 0 0 0 0 0 0 0 0 0 0 0 0 0 0 0 0 0 0 0 0 0 0 0 0 0 0 0 0 0 0 0 0 0 0 0 0 0 0 0 0 0 0 0 0 0 0 0 0 0 0 0 0 0 0 0 0 0 0 0 0 0 0 0 0 0 0 0 0 0 0 0 0 0 0 0 0 0 0 0 0 0 0 0 0 0 0 0 0 0 0 0 0 0 0 0 0 0 0 0 0 0 0 0 0 0 0 0 0 0 0 0 0 0 0 0 0 0 0 0 0 0 0 0 0 0 0 0 0 0 0 0 0 0 0 0 0 0 0 0 0 0 0 0 0 0 0 0 0 0 0 0 0 0 0 0 0 0 0 0 0 0 0 0 0 0 0 0 0 0 1839 0 0 0 0 0 0 0 0 0 0 0 0 0 0 0 0 0 359 355 348 347 343 336 333 331 328 330 330 327 330 331 0 342 342 345 343 345 347 343 343 0 0 0 0 0
    0 0 0 0 0 0 0 0 0 0 0 0 0 0 0 0 0 0 0 0 0 0 0 0 0 0 0 0 0 0 0 0 0 0 0 0 0 0 0 0 0 0 0 0 0 0 0 0 0 0 0 0 0 0 0 0 0 0 0 0 0 0 0 0 0 0 0 0 0 0 0 0 0 0 0 0 0 0 0 0 0 0 0 0 0 0 0 0 0 0 0 0 0 0 0 0 0 0 0 0 0 0 0 0 0 0 0 0 0 0 0 0 0 0 0 0 0 0 0 0 0 0 0 0 0 0 0 0 0 0 0 0 0 0 0 0 0 0 0 0 0 0 0 0 0 0 0 0 0 0 0 0 0 0 0 0 0 0 0 0 0 0 0 0 0 0 0 0 0 0 0 0 0 0 0 0 0 0 0 0 0 0 0 0 0 0 0 0 0 0 0 0 0 0 0 0 0 0 0 0 0 0 0 0 0 0 0 0 0 0 0 0 0 0 0 0 0 0 0 0 0 0 0 0 0 0 0 0 0 0 0 0 0 0 0 0 0 0 0 0 0 0 0 0 0 0 0 0 0 0 0 0 0 0 0 0 0 0 0 0 0 0 0 0 0 0 0 0 0 0 0 0 0 0 1936 0 1887 0 0 0 0 0 0 0 0 0 0 0 0 0 0 0 348 343 340 337 334 327 325 324 321 322 322 319 319 0 0 0 340 343 342 0 0 340 342 0 0 0 0 0
    0 0 0 0 0 0 0 0 0 0 0 0 0 0 0 0 0 0 0 0 0 0 0 0 0 0 0 0 0 0 0 0 0 0 0 0 0 0 0 0 0 0 0 0 0 0 0 0 0 0 0 0 0 0 0 0 0 0 0 0 0 0 0 0 0 0 0 0 0 0 0 0 0 0 0 0 0 0 0 0 0 0 0 0 0 0 0 0 0 0 0 0 0 0 0 0 0 0 0 0 0 0 0 0 0 0 0 0 0 0 0 0 0 0 0 0 0 0 0 0 0 0 0 0 0 0 0 0 0 0 0 0 0 0 0 0 0 0 0 0 0 0 0 0 0 0 0 0 0 0 0 0 0 0 0 0 0 0 0 0 0 0 0 0 0 0 0 0 0 0 0 0 0 0 0 0 0 0 0 0 0 0 0 0 0 0 0 0 0 0 0 0 0 0 0 0 0 0 0 0 0 0 0 0 0 0 0 0 0 0 0 0 0 0 0 0 0 0 0 0 0 0 0 0 0 0 0 0 0 0 0 0 0 0 0 0 0 0 0 0 0 0 0 0 0 0 0 0 0 0 0 0 0 0 0 0 0 0 0 0 0 0 0 0 0 0 0 0 0 0 0 0 0 0 0 0 0 0 0 0 0 0 0 0 0 0 0 0 0 0 0 0 343 0 337 333 328 322 322 321 319 321 321 317 317 318 0 0 0 0 0 0 0 333 0 0 0 0 0 0
    0 0 0 0 0 0 0 0 0 0 0 0 0 0 0 0 0 0 0 0 0 0 0 0 0 0 0 0 0 0 0 0 0 0 0 0 0 0 0 0 0 0 0 0 0 0 0 0 0 0 0 0 0 0 0 0 0 0 0 0 0 0 0 0 0 0 0 0 0 0 0 0 0 0 0 0 0 0 0 0 0 0 0 0 0 0 0 0 0 0 0 0 0 0 0 0 0 0 0 0 0 0 0 0 0 0 0 0 0 0 0 0 0 0 0 0 0 0 0 0 0 0 0 0 0 0 0 0 0 0 0 0 0 0 0 0 0 0 0 0 0 0 0 0 0 0 0 0 0 0 0 0 0 0 0 0 0 0 0 0 0 0 0 0 0 0 0 0 0 0 0 0 0 0 0 0 0 0 0 0 0 0 0 0 0 0 0 0 0 0 0 0 0 0 0 0 0 0 0 0 0 0 0 0 0 0 0 0 0 0 0 0 0 0 0 0 0 0 0 0 0 0 0 0 0 0 0 0 0 0 0 0 0 0 0 0 0 0 0 0 0 0 0 0 0 0 0 0 0 0 0 0 0 0 0 0 0 0 0 0 0 0 0 0 0 0 0 0 0 0 0 0 0 0 0 0 0 1635 0 0 0 0 0 0 0 0 0 0 0 0 0 0 0 0 334 330 324 319 319 319 319 318 319 315 314 315 314 314 0 0 0 311 0 317 0 0 0 0 0 0
    0 0 0 0 0 0 0 0 0 0 0 0 0 0 0 0 0 0 0 0 0 0 0 0 0 0 0 0 0 0 0 0 0 0 0 0 0 0 0 0 0 0 0 0 0 0 0 0 0 0 0 0 0 0 0 0 0 0 0 0 0 0 0 0 0 0 0 0 0 0 0 0 0 0 0 0 0 0 289 288 288 288 287 289 0 0 0 0 0 0 0 0 0 0 0 0 0 0 0 0 0 0 0 0 0 0 0 0 0 0 0 0 0 0 0 0 0 0 0 0 0 0 0 0 0 0 0 0 0 0 0 0 0 0 0 0 0 0 0 0 0 0 0 0 0 0 0 0 0 0 0 0 0 0 0 0 0 0 0 0 0 0 0 0 0 0 0 0 0 0 0 0 0 0 0 0 0 0 0 0 0 0 0 0 0 0 0 0 0 0 0 0 0 0 0 0 0 0 0 0 0 0 0 0 0 0 0 0 0 0 0 0 0 0 0 0 0 0 0 0 0 0 0 0 0 0 0 0 0 0 0 0 0 0 0 0 0 0 0 0 0 0 0 0 0 0 0 0 0 0 0 0 0 0 0 0 0 0 0 0 0 0 0 0 0 0 0 0 0 0 0 0 0 0 0 0 0 1565 0 0 0 2628 2374 2453 2830 2537 0 0 0 0 0 0 0 0 0 0 319 317 318 318 318 317 317 314 314 314 313 313 311 309 310 309 311 310 0 0 0 0 0 0
    0 0 0 0 0 0 0 0 0 0 0 0 0 0 0 0 0 0 0 0 0 0 0 0 0 0 0 0 0 0 0 0 0 0 0 0 0 0 0 0 0 0 0 0 0 0 0 0 0 0 0 0 0 0 0 0 0 0 0 0 0 0 0 0 0 0 0 0 0 0 0 299 295 0 0 294 287 290 289 287 288 288 287 289 286 290 284 0 0 0 0 0 0 0 0 0 0 0 0 0 0 0 0 0 0 0 0 0 0 0 0 0 0 0 0 0 0 0 0 0 0 0 0 0 0 0 0 0 0 0 0 0 0 0 0 0 0 0 0 0 0 0 0 0 0 0 0 0 0 0 0 0 0 0 0 0 0 0 0 0 0 0 0 0 0 0 0 0 0 0 0 0 0 0 0 0 0 0 0 0 0 0 0 0 0 0 0 0 0 0 0 0 0 0 0 0 0 0 0 0 0 0 281 0 283 285 284 286 286 288 287 0 0 0 0 0 0 0 0 0 0 0 0 0 0 0 0 0 0 0 0 0 0 0 0 0 0 0 0 0 0 0 0 0 0 0 0 0 0 0 0 0 0 0 0 0 0 0 0 0 0 0 0 0 0 0 0 0 0 0 0 0 0 0 0 0 0 0 0 0 0 0 0 0 1989 0 0 0 0 0 0 0 0 0 0 0 0 310 310 311 311 310 310 309 311 310 310 310 310 309 309 309 310 307 307 0 0 0 0 0
    0 0 0 0 0 0 0 0 0 0 0 0 0 0 0 0 0 0 0 0 0 0 0 0 0 0 0 0 0 0 0 0 0 0 0 0 0 0 0 0 0 0 0 0 0 0 0 0 0 0 0 0 0 0 0 0 0 0 0 0 0 0 0 0 0 0 0 0 0 0 0 297 295 294 293 293 288 290 290 288 289 289 288 289 288 292 286 286 287 288 289 290 290 290 290 290 292 293 290 292 289 288 288 292 0 293 294 295 295 0 0 0 296 290 292 290 290 289 289 290 288 0 0 0 0 0 0 0 0 99 98 0 0 0 0 0 0 0 0 301 0 300 301 300 300 0 297 296 0 0 0 0 0 0 0 0 0 0 0 0 0 0 0 0 0 0 0 0 0 0 0 0 0 0 0 0 0 0 0 0 0 0 0 0 0 0 0 0 118 118 294 290 0 0 280 283 284 287 286 287 284 287 285 288 287 288 285 287 287 288 288 290 290 0 0 0 0 0 0 0 0 302 0 377 0 0 0 0 0 0 0 0 0 0 0 0 0 0 1115 1132 0 0 0 0 0 0 0 0 0 0 0 0 0 0 0 0 0 0 0 306 301 297 296 289 284 281 279 278 277 0 0 0 0 0 0 0 0 0 0 0 0 0 0 0 0 0 0 0 0 0 0 0 0 0 0 0 0 299 299 301 304 301 302 305 309 306 307 307 307 306 306 306 307 307 307 0 0 0 0 0
    0 0 0 0 0 0 0 0 0 0 0 0 0 0 0 0 0 0 0 0 0 0 0 0 0 0 0 0 0 0 0 0 0 0 0 0 0 0 0 0 0 0 0 0 0 0 0 0 0 0 0 0 0 0 0 0 0 0 0 0 0 0 0 0 0 0 0 0 0 0 0 295 294 294 293 293 289 290 290 288 289 290 289 290 289 293 289 288 288 288 289 290 290 290 289 290 292 293 290 290 289 289 290 293 294 295 295 297 297 0 0 0 297 293 293 292 290 290 290 290 289 0 0 0 0 0 0 0 0 0 0 0 0 0 0 0 98 0 0 299 0 299 299 297 297 294 295 293 293 293 289 289 292 294 0 0 0 0 0 0 0 0 0 0 0 0 0 0 0 0 0 0 0 0 0 289 288 290 290 289 290 290 294 0 297 297 0 0 0 295 294 290 288 284 285 285 286 289 290 292 290 292 288 290 290 290 288 288 289 289 289 292 292 0 293 0 507 0 0 0 0 302 0 0 300 297 293 0 295 0 293 0 0 0 0 0 0 0 0 0 0 0 0 0 0 0 0 0 0 0 0 0 0 0 0 0 162 304 302 302 299 297 296 289 289 289 289 288 286 287 285 0 1206 0 0 0 0 0 0 0 0 0 0 0 0 0 0 0 0 0 0 0 0 0 0 0 0 297 297 300 301 300 302 305 309 306 306 306 306 306 306 306 306 306 307 0 0 0 0 0
    0 0 0 0 0 0 0 0 0 0 0 0 0 0 0 0 0 0 0 0 0 0 0 0 0 0 0 0 0 0 0 0 0 0 0 0 0 0 0 0 0 0 0 0 0 0 0 0 0 0 0 0 0 0 0 0 0 0 0 0 0 0 0 0 0 0 0 0 0 290 293 294 293 293 292 292 289 292 292 289 290 290 289 290 290 294 292 290 290 290 290 292 292 292 290 292 292 293 290 292 290 289 292 294 294 295 295 297 297 299 299 297 296 293 293 293 292 292 290 290 289 289 293 294 0 0 0 0 0 0 0 0 0 0 0 0 0 0 297 296 297 297 297 297 296 295 294 293 293 292 289 289 290 293 294 0 295 295 0 295 0 0 293 286 287 284 290 290 289 289 0 0 0 292 0 290 288 292 292 290 292 290 294 296 297 299 297 297 295 295 294 292 289 285 287 287 288 290 292 293 293 294 292 293 292 293 292 290 290 290 290 293 292 294 293 0 0 0 0 0 309 304 0 0 297 296 293 292 294 292 292 0 0 0 0 299 0 0 0 0 0 0 0 0 0 0 0 0 0 0 0 0 238 238 238 0 162 0 301 301 299 299 297 293 294 295 295 295 294 294 293 0 0 300 0 294 292 290 292 293 0 0 0 0 0 0 0 0 0 0 0 0 305 0 0 0 295 295 295 296 297 299 300 302 307 305 306 305 305 305 304 305 305 304 305 0 0 0 0 0
    0 0 0 0 0 0 0 0 0 0 0 0 0 0 0 0 0 0 0 0 0 0 0 0 0 0 0 0 0 0 0 0 0 0 0 0 0 0 0 0 0 0 0 0 0 0 0 0 0 0 0 0 0 0 0 0 0 0 0 0 0 0 0 0 0 0 0 0 0 290 293 293 290 292 292 290 289 290 292 290 290 292 289 290 292 294 293 292 292 292 292 293 293 293 292 293 293 294 293 293 293 290 292 294 294 295 295 295 296 296 297 296 296 293 293 293 293 293 292 292 290 290 293 294 295 0 0 0 0 301 301 0 294 292 290 294 295 295 296 295 296 297 297 297 297 296 295 294 293 292 290 290 290 292 293 294 294 294 295 296 297 295 293 288 290 288 293 292 290 290 293 293 294 293 292 290 288 290 290 290 290 290 293 295 296 297 297 297 295 296 295 293 292 287 289 289 289 292 293 294 294 294 293 293 293 293 292 292 290 290 292 293 292 294 293 295 0 0 297 299 304 301 300 299 297 296 293 292 293 292 290 294 294 0 296 299 299 0 300 301 300 304 0 0 634 639 0 0 0 0 0 0 0 0 0 0 0 300 300 300 299 300 297 294 295 296 296 296 295 295 294 294 296 299 295 294 293 290 292 293 295 0 0 0 0 0 0 0 0 1501 0 305 300 300 296 292 293 293 292 293 294 295 297 300 305 302 304 304 304 304 304 304 304 302 302 0 0 0 0 0
    0 0 0 0 0 0 0 0 0 0 0 0 0 0 0 0 0 0 0 0 0 0 0 0 0 0 0 0 0 0 0 0 0 0 0 0 0 0 0 0 0 0 0 0 0 0 0 0 0 0 0 0 0 0 0 0 0 0 0 0 0 0 0 0 0 0 0 0 0 292 292 293 290 292 292 290 289 290 292 290 292 292 290 292 292 294 293 293 293 292 292 293 293 293 293 294 294 294 294 294 294 293 293 294 294 294 294 294 294 295 295 295 295 293 293 293 293 293 292 292 289 290 293 294 0 0 0 0 0 300 299 0 293 289 287 293 294 295 295 295 296 297 297 297 297 297 295 294 294 293 290 290 290 292 293 293 294 294 295 295 296 294 293 289 292 289 293 293 292 292 293 293 293 292 292 290 289 290 290 290 290 292 293 294 295 296 296 296 294 295 294 293 292 288 290 290 290 293 293 294 294 294 294 294 293 294 293 292 292 292 292 294 293 294 293 295 295 296 296 299 301 300 300 299 296 296 294 293 293 292 292 294 293 296 296 297 299 299 300 301 300 302 299 0 0 0 0 0 0 0 0 0 301 0 0 0 0 300 300 300 299 299 296 293 295 295 295 295 294 294 294 294 295 297 295 294 293 290 292 293 295 297 0 0 0 301 302 0 0 0 0 301 297 297 295 292 292 292 290 292 292 294 295 297 304 302 302 304 302 302 301 302 302 299 300 0 0 0 0 0
    0 0 0 0 0 0 0 0 0 0 0 0 0 0 0 0 0 0 0 0 0 0 0 0 0 0 0 0 0 0 0 0 0 0 0 0 0 0 0 0 0 0 0 0 0 0 0 0 0 0 0 0 0 0 0 0 0 0 0 0 0 0 0 0 0 0 0 0 0 293 293 293 290 293 292 290 289 292 290 292 292 293 290 292 292 293 293 293 292 292 292 293 293 293 292 293 293 293 294 294 294 293 294 294 294 293 293 294 293 294 294 294 295 293 293 292 293 293 292 292 289 290 293 293 0 0 0 0 0 297 297 0 292 288 287 294 294 296 296 296 296 297 297 297 297 297 295 295 294 294 293 292 292 293 293 294 294 294 295 295 296 294 294 290 292 289 293 293 292 292 293 293 293 292 292 290 289 290 290 292 290 292 293 294 295 295 295 295 294 294 294 292 292 288 292 292 292 293 294 295 295 295 294 294 294 294 293 293 292 292 292 294 293 294 294 295 295 296 296 297 300 300 299 299 296 296 294 294 294 293 293 295 294 297 296 297 299 299 300 300 300 302 297 300 0 0 0 0 0 0 0 0 300 300 299 0 0 300 300 300 297 297 295 292 293 294 294 294 294 294 293 294 295 296 294 295 294 292 292 293 295 296 296 299 297 300 302 302 0 0 301 299 295 295 294 292 292 292 290 293 292 294 295 297 304 302 304 304 302 302 301 302 302 299 299 0 0 0 0 0
    0 0 0 0 0 0 0 0 0 0 0 0 0 0 0 0 0 0 0 0 0 0 0 0 0 0 0 0 0 0 0 0 0 0 0 0 0 0 0 0 0 0 0 0 0 0 0 0 0 0 0 0 0 0 0 0 0 0 0 0 0 0 0 0 0 0 0 0 0 293 293 294 292 293 292 290 290 292 290 292 293 293 290 292 292 293 293 293 292 290 290 292 292 292 292 292 292 292 293 293 293 293 293 294 293 293 293 293 293 293 294 294 295 293 293 292 293 294 293 292 290 292 292 293 294 294 0 0 0 296 295 295 293 289 289 293 294 296 296 296 296 297 297 297 297 297 295 295 295 294 293 293 293 293 294 294 294 294 295 296 296 295 294 292 293 290 293 293 290 292 293 293 292 292 292 290 289 292 292 292 292 293 294 294 295 295 295 295 294 294 294 293 292 288 292 292 292 294 294 295 295 295 295 294 294 295 294 294 293 293 293 294 293 295 294 295 295 296 296 297 299 299 297 297 296 296 295 295 294 293 293 295 294 296 296 297 297 299 299 299 299 301 297 299 0 0 0 0 0 0 0 0 297 299 297 295 296 299 299 299 296 295 294 290 292 294 294 293 293 294 293 294 294 295 294 294 293 292 293 293 295 296 296 299 299 300 302 302 306 0 300 297 294 294 293 292 290 292 290 293 292 294 295 297 304 302 304 305 304 305 302 304 302 299 300 0 0 0 0 0
    0 0 0 0 0 0 0 0 0 0 0 0 0 0 0 0 0 0 0 0 0 0 0 0 0 0 0 0 0 0 0 0 0 0 0 0 0 0 0 0 0 0 0 0 0 0 0 0 0 0 0 0 0 0 0 0 0 0 0 0 0 0 0 0 0 0 0 0 0 293 293 293 292 293 293 290 290 292 292 292 293 294 292 292 293 293 293 293 293 292 292 292 292 292 292 292 292 292 292 292 293 292 293 293 294 293 294 294 293 294 294 295 295 294 294 293 294 294 293 293 292 292 292 293 294 294 293 294 294 296 295 295 293 290 290 294 294 296 296 296 296 297 297 297 297 297 295 294 294 294 293 292 293 293 293 294 294 294 295 296 296 295 294 293 294 293 294 293 292 293 294 294 293 293 292 292 290 292 292 292 292 293 294 295 296 296 296 296 295 295 294 293 293 289 293 292 293 294 294 295 295 295 295 295 294 295 294 294 294 294 294 295 294 295 293 295 295 295 296 297 299 299 299 299 297 297 296 295 294 295 294 296 294 297 296 297 297 299 297 299 297 301 297 299 299 295 0 0 0 0 295 295 297 297 297 295 296 297 297 297 295 294 293 290 293 294 294 293 294 294 294 294 295 295 294 294 294 292 293 293 294 296 296 299 299 300 301 302 305 301 300 297 294 293 293 292 290 292 292 293 293 294 295 296 301 300 302 302 301 305 302 304 302 300 300 0 0 0 0 0
    0 0 0 0 0 0 0 0 0 0 0 0 0 0 0 0 0 0 0 0 0 0 0 0 0 0 0 0 0 0 0 0 0 0 0 0 0 0 0 0 0 0 0 0 0 0 0 0 0 0 0 0 0 0 0 0 0 0 0 0 0 0 0 0 0 0 0 0 0 293 293 293 292 293 293 290 292 292 292 293 294 294 292 292 293 293 294 294 293 292 292 293 293 293 293 293 292 292 293 293 294 293 294 294 294 294 294 294 294 295 295 295 296 295 296 294 295 295 294 294 293 293 293 293 295 294 294 294 294 296 295 295 294 292 292 293 294 296 296 296 296 297 297 297 297 297 295 294 294 294 293 293 293 293 293 294 294 294 295 296 296 295 294 293 294 294 294 294 293 293 294 294 293 293 293 292 290 292 292 292 293 294 294 295 296 296 297 296 295 295 294 293 293 290 293 293 293 294 294 295 295 295 295 295 295 296 295 295 295 295 295 295 294 295 293 294 295 295 296 297 299 299 300 299 297 297 297 297 296 296 296 296 295 297 297 296 297 297 296 297 297 299 296 297 297 295 295 0 293 295 295 295 297 297 297 295 296 297 297 296 294 293 293 289 293 294 294 294 294 294 294 295 295 295 294 294 294 293 294 293 295 296 297 300 299 300 301 302 304 300 299 297 294 294 294 293 293 293 293 294 293 294 294 295 299 299 300 301 300 304 302 305 310 305 0 0 0 0 0 0
    0 0 0 0 0 0 0 0 0 0 0 0 0 0 0 0 0 0 0 0 0 0 0 0 0 0 0 0 0 0 0 0 0 0 0 0 0 0 0 0 0 0 0 0 0 0 0 0 0 0 0 0 0 0 0 0 0 0 0 0 0 0 0 0 0 0 0 0 0 293 293 293 292 294 293 290 292 292 292 293 294 294 292 292 294 294 294 294 294 293 293 293 294 293 293 293 293 293 294 293 294 294 295 294 294 294 294 294 293 294 294 294 295 295 295 294 295 295 295 294 293 293 293 293 295 294 294 294 295 296 295 296 295 293 292 294 294 296 297 296 297 297 297 297 297 299 295 295 295 294 293 293 294 293 293 294 294 294 295 296 296 295 294 294 295 294 295 294 293 294 295 294 294 294 293 293 292 292 293 293 293 294 295 296 297 297 299 297 296 295 294 293 293 290 294 293 294 295 295 295 295 295 295 295 295 296 295 296 295 296 296 297 295 296 294 294 294 295 296 297 299 299 299 299 297 296 297 297 296 297 296 296 295 297 296 296 296 297 296 296 296 297 295 296 296 295 295 295 294 295 295 295 297 297 297 296 296 297 297 296 295 294 292 289 293 294 294 294 295 295 295 296 296 295 295 295 295 295 0 0 0 297 300 302 301 301 302 302 305 301 299 297 295 295 295 295 294 294 294 295 294 296 295 295 297 0 0 300 0 301 299 302 307 0 0 0 0 0 0 0
    0 0 0 0 0 0 0 0 0 0 0 0 0 0 0 0 0 0 0 0 0 0 0 0 0 0 0 0 0 0 0 0 0 0 0 0 0 0 0 0 0 0 0 0 0 0 0 0 0 0 0 0 0 0 0 0 0 0 0 0 0 0 0 0 0 0 0 0 0 294 293 294 292 294 293 290 292 292 292 294 294 294 293 293 294 294 295 295 294 293 293 293 294 293 293 293 293 293 294 294 295 294 295 294 294 293 293 293 292 293 293 293 295 295 295 294 295 296 295 295 294 293 293 293 295 294 295 295 295 296 296 296 296 294 293 295 294 297 297 297 297 297 297 299 299 300 296 296 296 295 294 294 294 294 293 294 294 294 295 295 296 295 294 294 295 294 295 294 294 295 295 295 295 294 294 294 293 293 294 294 294 295 296 296 297 297 300 297 296 296 295 294 294 292 295 294 295 295 295 295 295 295 295 295 295 295 295 296 296 297 297 299 296 297 294 295 295 295 296 297 297 297 297 299 297 296 296 296 295 296 296 296 295 296 296 296 296 297 296 296 296 297 295 296 296 296 295 295 295 296 296 295 299 299 299 297 297 300 299 297 296 294 292 290 293 294 294 295 295 296 296 297 297 297 297 297 297 297 0 0 297 299 300 302 300 300 300 301 301 300 299 297 295 295 296 295 295 295 295 295 295 299 297 295 296 0 0 299 0 0 295 299 302 0 0 0 0 0 0 0
    0 0 0 0 0 0 0 0 0 0 0 0 0 0 0 0 0 0 0 0 0 0 0 0 0 0 0 0 0 0 0 0 0 0 0 0 0 0 0 0 0 0 0 0 0 0 0 0 0 0 0 0 0 0 0 0 0 0 0 0 0 0 0 0 0 0 0 0 0 294 293 294 293 294 294 292 293 293 293 294 295 295 293 293 295 294 295 295 294 293 293 293 293 293 294 293 293 294 294 294 295 295 295 294 294 293 293 293 292 292 293 293 295 295 295 294 295 296 295 295 294 294 293 294 295 295 295 295 295 296 296 296 296 295 294 295 295 297 299 297 297 297 297 299 299 300 296 297 297 296 295 295 0 294 293 294 294 294 295 296 296 295 294 295 295 295 295 295 294 295 295 295 295 295 294 294 293 293 294 294 294 295 296 296 297 297 300 299 296 296 295 294 295 293 295 295 296 296 295 295 295 295 295 295 295 295 295 296 296 297 297 301 297 297 295 295 295 296 296 296 296 296 297 297 297 296 296 296 296 297 296 296 295 297 297 296 296 297 296 296 296 299 297 297 299 299 296 297 296 297 296 296 299 300 299 299 299 300 300 299 296 294 292 290 293 293 294 294 295 295 296 297 299 297 299 300 301 301 300 299 299 300 300 301 299 297 299 300 300 300 299 299 296 296 297 296 296 296 296 297 296 300 299 296 296 299 299 299 0 0 0 300 0 302 0 0 0 0 0 0
    0 0 0 0 0 0 0 0 0 0 0 0 0 0 0 0 0 0 0 0 0 0 0 0 0 0 0 0 0 0 0 0 0 0 0 0 0 0 0 0 0 0 0 0 0 0 0 0 0 0 0 0 0 0 0 0 0 0 0 0 0 0 0 0 0 0 0 0 0 294 294 294 293 294 294 292 293 293 293 294 295 295 294 294 295 295 295 295 294 292 292 293 293 292 293 293 293 293 294 294 295 294 295 294 293 293 293 293 292 292 292 293 294 294 295 294 295 296 295 295 294 294 293 293 295 294 295 295 295 295 295 296 296 295 295 295 295 299 299 297 297 297 297 297 297 299 296 297 299 296 296 295 0 0 294 294 294 294 296 296 296 295 295 295 295 295 295 295 295 296 296 295 295 295 295 295 294 293 294 295 295 297 297 297 299 299 301 299 297 296 295 295 296 294 296 296 296 297 296 296 295 295 295 296 296 296 295 296 296 299 299 301 297 299 295 295 295 296 297 296 296 296 296 297 297 296 295 296 296 297 297 296 296 297 297 297 296 297 296 296 297 299 297 299 301 301 299 297 297 297 296 297 300 300 299 299 299 301 301 300 296 294 292 292 293 293 293 294 294 295 296 297 299 299 299 300 302 304 302 301 300 302 302 304 300 299 300 301 300 301 299 300 299 299 299 297 297 299 297 300 299 300 300 297 297 300 300 300 299 300 299 302 306 304 0 0 0 0 0 0
    0 0 0 0 0 0 0 0 0 0 0 0 0 0 0 0 0 0 0 0 0 0 0 0 0 0 0 0 0 0 0 0 0 0 0 0 0 0 0 0 0 0 0 0 0 0 0 0 0 0 0 0 0 0 0 0 0 0 0 0 0 0 0 0 0 0 0 0 0 294 294 294 293 294 293 293 294 293 293 294 295 295 295 295 295 295 295 295 294 292 293 293 293 292 293 293 293 293 293 293 294 294 294 294 294 293 293 294 293 292 292 294 295 294 295 294 295 296 296 296 295 294 293 293 295 294 294 294 294 294 295 295 296 295 295 296 296 299 300 297 297 299 299 299 299 300 297 297 299 296 296 295 0 296 295 295 294 295 296 296 296 295 295 295 296 296 296 296 295 296 296 295 295 295 295 295 294 294 295 295 297 297 297 299 300 300 304 300 300 297 296 296 296 296 296 296 297 297 297 297 296 296 295 297 296 296 297 297 297 299 299 304 297 297 294 293 293 295 296 296 295 295 295 296 296 295 295 295 296 297 297 297 297 297 297 297 297 297 297 297 297 299 297 300 302 302 300 297 296 296 296 297 299 299 299 299 299 301 301 299 296 294 293 292 293 293 293 294 294 295 296 297 299 299 299 300 301 302 302 301 300 302 302 304 302 300 302 302 301 302 300 301 300 299 300 299 299 300 299 301 300 301 301 297 299 300 300 301 301 301 0 305 309 305 0 0 0 0 0 0
    0 0 0 0 0 0 0 0 0 0 0 0 0 0 0 0 0 0 0 0 0 0 0 0 0 0 0 0 0 0 0 0 0 0 0 0 0 0 0 0 0 0 0 0 0 0 0 0 0 0 0 0 0 0 0 0 0 0 0 0 0 0 0 0 0 0 0 0 0 293 294 294 294 294 293 293 294 293 293 294 294 295 294 295 296 295 295 295 294 293 293 293 293 292 293 293 293 293 293 293 294 294 294 295 294 294 294 295 294 293 293 294 295 295 295 295 295 296 296 296 295 295 294 293 295 295 295 295 295 295 295 296 297 296 296 296 296 299 300 297 297 297 297 297 297 299 296 296 297 295 295 294 0 295 294 294 295 295 296 296 296 295 295 296 296 296 296 296 296 296 296 295 295 295 295 295 294 294 295 296 297 299 297 299 300 300 305 301 300 299 297 297 296 296 296 296 296 297 296 296 295 296 295 297 297 297 297 299 297 299 299 305 297 297 294 293 293 295 295 295 295 295 295 296 295 295 294 295 296 297 297 297 297 297 297 297 296 297 296 297 297 299 299 300 302 302 299 297 296 297 296 296 299 299 299 299 299 301 300 299 296 294 293 293 293 294 294 294 294 296 297 299 300 299 300 300 301 302 302 302 300 302 304 304 302 302 302 302 302 305 301 302 300 300 301 301 300 302 301 304 301 302 300 297 299 300 300 300 300 300 0 301 301 300 297 0 0 0 0 0
    0 0 0 0 0 0 0 0 0 0 0 0 0 0 0 0 0 0 0 0 0 0 0 0 0 0 0 0 0 0 0 0 0 0 0 0 0 0 0 0 0 0 0 0 0 0 0 0 0 0 0 0 0 0 0 0 0 0 0 0 0 0 0 0 0 0 0 0 0 293 293 294 293 294 293 292 294 292 293 293 294 294 294 295 296 295 295 295 294 293 293 293 294 293 293 294 294 294 294 294 294 294 295 295 295 294 295 295 295 294 294 295 295 295 295 295 295 296 296 297 296 295 294 294 295 295 296 296 296 296 296 296 297 296 297 297 297 299 299 297 297 296 296 296 296 297 295 296 0 294 294 293 295 294 293 294 294 294 295 296 296 295 295 295 296 296 296 297 296 297 297 295 295 295 295 295 294 294 295 296 299 299 297 299 299 300 304 300 299 297 297 297 297 296 296 296 296 297 296 296 0 296 295 297 296 296 296 297 296 297 297 301 296 296 294 294 294 295 295 295 294 295 295 295 295 294 294 294 295 296 296 296 296 297 297 297 296 297 297 297 297 299 300 301 304 302 299 297 296 296 296 296 297 296 297 297 297 299 299 297 295 294 293 293 293 294 294 294 295 296 297 299 299 299 299 299 300 300 300 300 299 301 302 301 300 300 300 300 300 302 300 301 300 301 302 302 301 304 302 304 301 301 300 297 297 299 297 297 297 297 297 299 297 296 295 0 0 0 0 0
    0 0 0 0 0 0 0 0 0 0 0 0 0 0 0 0 0 0 0 0 0 0 0 0 0 0 0 0 0 0 0 0 0 0 0 0 0 0 0 0 0 0 0 0 0 0 0 0 0 0 0 0 0 0 0 0 0 0 0 0 0 0 0 0 0 0 0 0 0 293 294 294 293 294 293 292 293 292 293 293 293 294 294 295 296 295 296 295 295 294 294 293 294 293 294 295 295 295 294 294 295 295 295 295 295 294 295 295 295 294 293 294 295 294 294 295 295 295 296 297 296 295 295 294 296 296 296 296 296 296 296 296 297 296 297 297 297 297 297 296 296 295 295 295 296 296 295 296 0 0 0 0 0 294 293 294 294 295 295 296 296 295 295 295 296 296 296 297 297 297 297 295 295 295 295 295 294 294 295 296 299 299 297 299 299 299 302 300 299 297 297 297 297 296 296 296 296 297 296 296 0 296 296 297 297 296 296 297 296 297 296 300 296 296 294 294 294 295 294 295 294 294 294 294 294 294 293 294 295 296 296 296 296 296 297 297 296 297 297 299 299 300 301 301 302 301 299 296 295 295 295 296 297 295 296 297 296 295 295 295 294 293 293 293 293 294 294 294 294 295 297 299 299 299 299 299 299 299 297 297 297 299 300 300 299 297 299 299 299 301 300 301 299 301 301 301 302 302 302 304 301 301 300 297 297 296 296 296 295 295 295 296 295 294 294 0 0 0 0 0
    0 0 0 0 0 0 0 0 0 0 0 0 0 0 0 0 0 0 0 0 0 0 0 0 0 0 0 0 0 0 0 0 0 0 0 0 0 0 0 0 0 0 0 0 0 0 0 0 0 0 0 0 0 0 0 0 0 0 0 0 0 0 0 0 0 0 0 0 0 293 294 293 290 293 290 290 292 290 292 292 292 294 295 295 297 296 296 295 295 294 293 293 293 292 293 295 295 294 294 294 295 295 295 295 294 294 294 295 294 293 293 294 294 294 294 294 294 295 296 297 296 295 295 294 296 296 296 296 296 295 296 296 297 297 297 297 299 299 297 296 296 295 295 295 296 296 295 296 0 0 0 0 0 294 294 294 295 295 296 296 297 296 295 296 297 296 296 297 297 297 297 295 295 295 295 295 294 295 295 297 300 300 297 297 299 297 301 300 297 297 299 299 297 297 296 296 297 297 296 296 0 297 296 297 297 297 297 297 296 297 296 300 296 295 294 294 294 295 294 294 293 294 294 294 294 293 292 294 295 296 295 296 296 296 297 297 297 297 299 299 300 300 301 301 301 300 299 296 294 294 294 295 295 293 294 296 293 294 294 294 293 293 293 293 293 294 295 295 295 296 299 299 299 299 299 299 297 297 296 296 296 297 299 299 297 299 300 300 300 301 300 301 299 301 300 301 302 304 304 305 302 302 301 297 297 296 296 296 293 294 295 295 294 294 294 0 0 0 0 0
    0 0 0 0 0 0 0 0 0 0 0 0 0 0 0 0 0 0 0 0 0 0 0 0 0 0 0 0 0 0 0 0 0 0 0 0 0 0 0 0 0 0 0 0 0 0 0 0 0 0 0 0 0 0 0 0 0 0 0 0 0 0 0 0 0 0 0 0 0 292 293 293 289 292 290 290 290 289 290 289 292 294 295 296 297 296 295 294 295 294 293 293 292 292 293 295 295 294 293 294 294 294 294 295 294 294 294 295 294 292 292 294 294 293 293 294 294 295 296 297 296 295 295 294 295 296 296 296 296 295 295 295 0 296 297 297 299 297 296 295 296 294 294 294 295 295 294 295 0 0 0 0 0 293 293 295 295 296 296 0 297 296 296 296 297 297 297 299 297 297 297 294 295 295 295 0 294 0 295 0 300 300 297 297 297 297 300 299 297 297 300 299 297 297 297 296 297 297 297 297 0 299 297 299 299 297 297 297 297 297 296 299 295 295 294 294 293 294 293 294 293 294 293 293 293 293 292 293 295 296 295 296 296 296 297 297 297 299 299 300 301 301 302 302 302 301 299 296 294 294 294 294 294 292 294 295 292 294 294 294 293 293 294 293 293 294 295 295 295 296 297 297 297 297 299 297 297 296 295 296 296 297 299 299 297 299 300 300 300 301 300 301 299 300 300 301 304 305 306 307 306 305 301 297 297 296 296 295 293 294 294 294 294 294 294 0 0 0 0 0
    0 0 0 0 0 0 0 0 0 0 0 0 0 0 0 0 0 0 0 0 0 0 0 0 0 0 0 0 0 0 0 0 0 0 0 0 0 0 0 0 0 0 0 0 0 0 0 0 0 0 0 0 0 0 0 0 0 0 0 0 0 0 0 0 0 0 0 0 0 290 292 292 288 290 289 289 289 289 289 288 290 294 294 295 296 295 294 294 295 294 293 293 293 293 293 295 295 293 293 294 294 294 294 295 294 294 295 295 294 293 292 294 294 294 294 294 294 295 296 299 296 295 294 294 295 295 296 295 295 295 295 295 296 296 297 296 297 296 294 294 294 292 292 292 293 293 293 293 0 0 0 289 0 0 293 294 296 296 0 0 297 297 296 297 297 297 297 299 297 297 297 294 294 294 294 0 0 0 0 0 300 0 296 296 296 296 299 299 296 296 299 299 297 297 297 296 297 297 297 0 0 300 297 299 300 299 299 299 297 297 296 297 295 294 294 293 293 294 293 294 292 293 293 292 292 292 292 294 295 296 295 296 297 296 297 297 297 299 300 301 301 302 304 302 302 301 299 296 293 294 294 294 294 290 293 294 290 293 293 293 292 292 294 293 293 294 294 294 294 295 296 296 296 296 297 296 0 0 0 0 296 297 299 299 297 299 301 300 300 301 300 300 299 300 299 300 304 305 306 307 306 304 301 297 297 295 295 295 292 293 294 293 294 293 293 0 0 0 0 0
    0 0 0 0 0 0 0 0 0 0 0 0 0 0 0 0 0 0 0 0 0 0 0 0 0 0 0 0 0 0 0 0 0 0 0 0 0 0 0 0 0 0 0 0 0 0 0 0 0 0 0 0 0 0 0 0 0 0 0 0 0 0 0 0 0 0 0 0 0 290 292 292 286 289 288 288 288 287 287 285 287 293 290 293 294 293 292 293 295 0 0 0 0 293 292 295 294 290 290 293 293 293 293 295 294 294 295 296 295 293 292 294 294 294 294 295 293 294 295 297 295 294 293 293 294 295 295 294 295 294 294 294 295 296 297 296 299 296 293 294 294 292 292 292 293 293 293 293 0 0 0 0 0 0 0 0 296 0 0 0 297 296 296 297 297 297 297 299 297 297 297 292 293 293 293 0 0 0 0 0 0 0 0 0 297 296 299 299 296 296 299 299 297 297 296 296 296 297 296 0 0 300 297 300 300 299 300 300 297 296 295 297 295 294 294 293 293 294 292 294 292 293 293 290 289 290 289 292 294 295 295 296 297 296 296 297 297 297 300 301 301 302 304 302 301 300 297 295 293 293 293 294 294 290 293 294 290 293 293 293 292 292 293 292 292 294 294 293 293 295 295 295 294 294 296 0 0 0 0 0 0 0 299 299 297 300 302 300 301 301 300 300 297 299 296 297 300 0 304 309 306 302 301 297 297 295 295 295 290 293 293 293 293 292 293 0 0 0 0 0
    0 0 0 0 0 0 0 0 0 0 0 0 0 0 0 0 0 0 0 0 0 0 0 0 0 0 0 0 0 0 0 0 0 0 0 0 0 0 0 0 0 0 0 0 0 0 0 0 0 0 0 0 0 0 0 0 0 0 0 0 0 0 0 0 0 0 0 0 0 290 292 292 285 289 288 288 288 287 286 285 286 290 287 289 290 287 289 293 295 294 294 293 292 293 293 295 293 288 290 292 293 293 294 296 296 296 297 300 297 295 294 295 0 0 0 0 0 294 295 299 295 294 293 294 295 295 296 295 296 295 0 0 0 297 299 299 304 297 295 295 296 293 293 292 294 293 293 0 0 0 0 0 0 0 0 0 0 0 199 198 296 0 296 297 297 296 299 300 299 0 296 0 290 292 0 0 109 108 0 0 0 0 865 0 0 296 296 297 295 295 297 299 0 0 0 295 295 296 295 0 209 299 297 299 299 299 299 300 297 296 295 296 294 293 294 294 294 294 292 294 292 293 293 290 290 289 290 293 293 295 294 296 296 294 296 296 297 297 299 301 300 301 304 301 300 299 296 295 292 293 293 293 293 290 293 294 289 290 290 290 289 290 293 292 290 293 294 293 293 295 295 295 293 294 0 0 0 0 0 0 0 0 0 0 297 300 302 300 300 301 299 299 296 295 294 293 293 0 0 0 300 300 299 295 294 294 294 293 288 290 292 290 292 290 292 0 0 0 0 0
    0 0 0 0 0 0 0 0 0 0 0 0 0 0 0 0 0 0 0 0 0 0 0 0 0 0 0 0 0 0 0 0 0 0 0 0 0 0 0 0 0 0 0 0 0 0 0 0 0 0 0 0 0 0 0 0 0 0 0 0 0 0 0 0 0 0 0 0 0 288 290 290 284 288 287 287 287 286 286 284 285 290 285 286 287 286 288 292 295 294 294 293 293 292 0 295 292 285 0 0 294 294 296 297 296 297 0 304 0 0 0 0 0 0 0 0 0 0 0 300 299 294 0 0 299 300 300 299 300 299 299 94 93 0 0 300 0 297 289 293 293 289 290 289 290 290 289 84 84 0 0 0 0 0 0 126 126 202 0 0 0 0 0 299 297 295 294 302 0 0 0 0 0 0 0 109 0 0 0 0 0 0 0 0 0 0 295 297 293 0 0 297 0 295 294 294 294 0 293 0 0 0 297 0 297 296 296 297 296 295 294 294 294 293 294 294 294 295 292 294 292 294 293 290 290 292 292 293 292 294 292 293 294 289 294 295 296 296 299 300 300 300 305 300 299 296 294 294 290 292 292 293 292 287 292 293 287 288 289 289 288 290 292 292 290 293 294 293 294 295 0 0 0 0 0 0 0 0 0 0 0 0 0 0 0 301 302 300 300 300 299 297 294 292 287 0 0 275 0 0 0 0 290 288 288 290 293 290 285 287 289 288 288 289 289 0 0 0 0 0
    0 0 0 0 0 0 0 0 0 0 0 0 0 0 0 0 0 0 0 0 0 0 0 0 0 0 0 0 0 0 0 0 0 0 0 0 0 0 0 0 0 0 0 0 0 0 0 0 0 0 0 0 0 0 0 0 0 0 0 0 0 0 0 0 0 0 0 0 0 0 290 288 281 286 286 285 285 285 284 283 284 290 281 283 284 285 0 0 0 0 0 0 0 0 0 0 0 0 0 0 0 0 0 0 0 0 0 0 0 0 0 0 0 0 0 0 0 0 0 0 0 0 0 0 0 0 0 0 0 0 0 0 0 0 0 0 0 297 286 292 290 287 287 287 288 288 288 290 0 0 0 0 0 0 0 0 125 0 0 0 0 0 0 193 0 0 0 0 0 0 0 0 0 0 108 108 0 0 81 0 0 0 0 0 0 0 0 0 0 0 0 0 0 0 295 294 294 0 0 0 0 0 297 0 0 295 295 295 294 293 292 293 294 293 294 294 294 295 292 294 292 294 293 290 290 292 292 294 289 290 288 288 290 285 292 294 296 296 299 301 301 301 305 301 299 0 0 293 289 290 292 292 290 285 292 293 286 286 288 287 287 289 0 292 290 0 0 0 0 0 0 0 0 0 0 0 0 0 0 0 0 0 0 0 0 0 302 299 0 0 0 0 293 288 281 276 0 0 0 0 0 280 279 281 286 286 292 287 283 284 286 285 285 286 287 0 0 0 0 0
    0 0 0 0 0 0 0 0 0 0 0 0 0 0 0 0 0 0 0 0 0 0 0 0 0 0 0 0 0 0 0 0 0 0 0 0 0 0 0 0 0 0 0 0 0 0 0 0 0 0 0 0 0 0 0 0 0 0 0 0 0 0 0 0 0 0 0 0 0 0 0 286 280 285 285 284 284 284 284 281 283 290 279 281 0 0 0 0 0 0 0 0 0 0 0 0 0 0 0 0 0 0 0 0 0 0 0 0 0 0 0 0 0 0 0 0 0 0 0 0 0 0 0 0 0 0 0 0 0 0 0 0 0 0 0 0 0 0 0 0 0 0 0 0 0 0 0 0 0 0 0 0 0 0 0 0 0 0 0 0 0 0 0 0 0 0 0 0 0 0 0 0 0 0 0 0 0 0 0 0 0 0 0 0 0 0 0 0 0 0 0 0 0 0 0 0 0 0 0 0 0 0 0 0 300 300 299 297 297 295 0 0 0 0 0 0 0 0 0 0 0 0 0 0 0 0 0 0 0 0 0 0 0 0 0 0 0 300 301 304 304 302 301 301 297 0 0 0 285 288 290 290 289 285 292 292 286 286 287 286 287 289 0 0 0 230 0 0 0 0 0 0 0 0 0 0 0 0 0 0 0 0 0 0 0 0 0 0 0 0 0 0 287 280 277 274 0 0 0 277 277 277 278 279 285 284 293 285 281 283 284 281 281 284 285 0 0 0 0 0
    0 0 0 0 0 0 0 0 0 0 0 0 0 0 0 0 0 0 0 0 0 0 0 0 0 0 0 0 0 0 0 0 0 0 0 0 0 0 0 0 0 0 0 0 0 0 0 0 0 0 0 0 0 0 0 0 0 0 0 0 0 0 0 0 0 0 0 0 0 0 0 0 0 284 283 281 281 281 283 280 281 288 0 0 0 0 0 0 0 0 0 0 0 0 0 0 0 0 0 0 0 0 0 0 0 0 0 0 0 0 0 0 0 0 0 0 0 0 0 0 0 0 0 0 0 0 0 0 0 0 0 0 0 0 0 0 0 0 0 0 0 0 0 0 0 0 0 0 0 0 0 0 0 0 0 0 0 0 0 0 0 0 0 0 0 0 0 0 0 0 0 0 0 0 0 0 0 0 0 0 0 0 0 0 0 0 0 0 0 0 0 0 0 0 0 0 0 0 0 0 0 0 0 0 0 0 0 0 0 0 0 0 0 0 0 0 0 0 0 0 0 0 0 0 0 0 0 0 0 0 0 0 0 0 0 0 0 0 0 0 0 0 0 0 0 0 0 0 0 0 294 292 290 289 292 292 288 290 284 280 0 0 0 0 0 0 0 0 0 0 0 0 0 0 0 0 0 0 0 0 0 0 0 0 0 0 0 0 0 0 0 0 279 275 274 272 274 0 0 276 277 277 277 278 285 287 295 286 283 280 281 280 279 280 281 0 0 0 0 0
    0 0 0 0 0 0 0 0 0 0 0 0 0 0 0 0 0 0 0 0 0 0 0 0 0 0 0 0 0 0 0 0 0 0 0 0 0 0 0 0 0 0 0 0 0 0 0 0 0 0 0 0 0 0 0 0 0 0 0 0 0 0 0 0 0 0 0 0 0 0 0 0 0 0 0 0 0 0 0 0 0 0 0 0 0 0 0 0 0 0 0 0 0 0 0 0 0 0 0 0 0 0 0 0 0 0 0 0 0 0 0 0 0 0 0 0 0 0 0 0 0 0 0 0 0 0 0 0 0 0 0 0 0 0 0 0 0 0 0 0 0 0 0 0 0 0 0 0 0 0 0 0 0 0 0 0 0 0 0 0 0 0 0 0 0 0 0 0 0 0 0 0 0 0 0 0 0 0 0 0 0 0 0 0 0 0 0 0 0 0 0 0 0 0 0 0 0 0 0 0 0 0 0 0 0 0 0 0 0 0 0 0 0 0 0 0 0 0 0 0 0 0 0 0 0 0 0 0 0 0 0 0 0 0 0 0 0 0 0 0 0 0 0 0 0 0 0 0 0 0 0 0 0 0 0 0 0 0 0 0 0 0 0 0 0 0 0 0 0 0 3066 0 0 0 0 0 0 0 0 0 0 0 0 0 0 0 0 0 0 0 0 0 0 273 272 270 273 271 274 275 276 276 276 276 283 289 295 285 281 278 277 278 276 277 277 0 0 0 0 0
    0 0 0 0 0 0 0 0 0 0 0 0 0 0 0 0 0 0 0 0 0 0 0 0 0 0 0 0 0 0 0 0 0 0 0 0 0 0 0 0 0 0 0 0 0 0 0 0 0 0 0 0 0 0 0 0 0 0 0 0 0 0 0 0 0 0 0 0 0 0 0 0 0 0 0 0 0 0 0 0 0 0 0 0 0 0 0 0 0 0 0 0 0 0 0 0 0 0 0 0 0 0 0 0 0 0 0 0 0 0 0 0 0 0 0 0 0 0 0 0 0 0 0 0 0 0 0 0 0 0 0 0 0 0 0 0 0 0 0 0 0 0 0 0 0 0 0 0 0 0 0 0 0 0 0 0 0 0 0 0 0 0 0 0 0 0 0 0 0 0 0 0 0 0 0 0 0 0 0 0 0 0 0 0 0 0 0 0 0 0 0 0 0 0 0 0 0 0 0 0 0 0 0 0 0 0 0 0 0 0 0 0 0 0 0 0 0 0 0 0 0 0 0 0 0 0 0 0 0 0 0 0 0 0 0 0 0 0 0 0 0 0 0 0 0 0 0 0 0 0 0 0 0 0 0 0 0 0 0 0 0 0 0 0 0 0 0 0 0 0 2943 2628 3504 3504 0 0 0 0 0 0 0 0 0 0 314 0 0 6690 8177 5256 0 0 0 274 273 271 274 271 274 274 275 274 275 274 0 0 296 280 280 275 274 274 274 275 275 0 0 0 0 0
    0 0 0 0 0 0 0 0 0 0 0 0 0 0 0 0 0 0 0 0 0 0 0 0 0 0 0 0 0 0 0 0 0 0 0 0 0 0 0 0 0 0 0 0 0 0 0 0 0 0 0 0 0 0 0 0 0 0 0 0 0 0 0 0 0 0 0 0 0 0 0 0 0 0 0 0 0 0 0 0 0 0 0 0 0 0 0 0 0 0 0 0 0 0 0 0 0 0 0 0 0 0 0 0 0 0 0 0 0 0 0 0 0 0 0 0 0 0 0 0 0 0 0 0 0 0 0 0 0 0 0 0 0 0 0 0 0 0 0 0 0 0 0 0 0 0 0 0 0 0 0 0 0 0 0 0 0 0 0 0 0 0 0 0 0 0 0 0 0 0 0 0 0 0 0 0 0 0 0 0 0 0 0 0 0 0 0 0 0 0 0 0 0 0 0 0 0 0 0 0 0 0 0 0 0 0 0 0 0 0 0 0 0 0 0 0 0 0 0 0 0 0 0 0 0 0 0 0 0 0 0 0 0 0 0 0 0 0 0 0 0 0 0 0 0 0 0 0 0 0 0 0 0 0 0 0 0 0 0 0 0 0 0 0 0 0 0 0 0 0 2830 2374 0 3199 0 0 0 0 0 0 0 0 0 0 313 304 0 0 0 0 0 0 277 274 273 271 273 271 272 273 273 272 273 271 274 273 296 278 280 275 273 274 273 274 273 0 0 0 0 0
    0 0 0 0 0 0 0 0 0 0 0 0 0 0 0 0 0 0 0 0 0 0 0 0 0 0 0 0 0 0 0 0 0 0 0 0 0 0 0 0 0 0 0 0 0 0 0 0 0 0 0 0 0 0 0 0 0 0 0 0 0 0 0 0 0 0 0 0 0 0 0 0 0 0 0 0 0 0 0 0 0 0 0 0 0 0 0 0 0 0 0 0 0 0 0 0 0 0 0 0 0 0 0 0 0 0 0 0 0 0 0 0 0 0 0 0 0 0 0 0 0 0 0 0 0 0 0 0 0 0 0 0 0 0 0 0 0 0 0 0 0 0 0 0 0 0 0 0 0 0 0 0 0 0 0 0 0 0 0 0 0 0 0 0 0 0 0 0 0 0 0 0 0 0 0 0 0 0 0 0 0 0 0 0 0 0 0 0 0 0 0 0 0 0 0 0 0 0 0 0 0 0 0 0 0 0 0 0 0 0 0 0 0 0 0 0 0 0 0 0 0 0 0 0 0 0 0 0 0 0 0 0 0 0 0 0 0 0 0 0 0 0 0 0 0 0 0 0 0 0 0 0 0 0 0 0 0 0 0 0 0 0 0 0 0 0 0 0 0 0 2725 2102 0 0 0 0 0 0 0 0 0 0 0 0 311 304 0 0 0 0 0 0 277 274 273 271 273 270 272 272 272 271 272 270 273 272 297 272 0 273 271 273 272 273 272 0 0 0 0 0
    0 0 0 0 0 0 0 0 0 0 0 0 0 0 0 0 0 0 0 0 0 0 0 0 0 0 0 0 0 0 0 0 0 0 0 0 0 0 0 0 0 0 0 0 0 0 0 0 0 0 0 0 0 0 0 0 0 0 0 0 0 0 0 0 0 0 0 0 0 0 0 0 0 0 0 0 0 0 0 0 0 0 0 0 0 0 0 0 0 0 0 0 0 0 0 0 0 0 0 0 0 0 0 0 0 0 0 0 0 0 0 0 0 0 0 0 0 0 0 0 0 0 0 0 0 0 0 0 0 0 0 0 0 0 0 0 0 0 0 0 0 0 0 0 0 0 0 0 0 0 0 0 0 0 0 0 0 0 0 0 0 0 0 0 0 0 0 0 0 0 0 0 0 0 0 0 0 0 0 0 0 0 0 0 0 0 0 0 0 0 0 0 0 0 0 0 0 0 0 0 0 0 0 0 0 0 0 0 0 0 0 0 0 0 0 0 0 0 0 0 0 0 0 0 0 0 0 0 0 0 0 0 0 0 0 0 0 0 0 0 0 0 0 0 0 0 0 0 0 0 0 0 0 0 0 0 0 0 0 0 0 0 0 0 0 0 0 0 0 0 2830 2230 0 0 0 0 0 0 0 0 0 0 0 0 311 304 0 0 0 0 279 0 277 274 272 270 272 269 271 271 271 272 273 272 0 0 297 273 280 271 267 268 269 270 269 0 0 0 0 0
    0 0 0 0 0 0 0 0 0 0 0 0 0 0 0 0 0 0 0 0 0 0 0 0 0 0 0 0 0 0 0 0 0 0 0 0 0 0 0 0 0 0 0 0 0 0 0 0 0 0 0 0 0 0 0 0 0 0 0 0 0 0 0 0 0 0 0 0 0 0 0 0 0 0 0 0 0 0 0 0 0 0 0 0 0 0 0 0 0 0 0 0 0 0 0 0 0 0 0 0 0 0 0 0 0 0 0 0 0 0 0 0 0 0 0 0 0 0 0 0 0 0 0 0 0 0 0 0 0 0 0 0 0 0 0 0 0 0 0 0 0 0 0 0 0 0 0 0 0 0 0 0 0 0 0 0 0 0 0 0 0 0 0 0 0 0 0 0 0 0 0 0 0 0 0 0 0 0 0 0 0 0 0 0 0 0 0 0 0 0 0 0 0 0 0 0 0 0 0 0 0 0 0 0 0 0 0 0 0 0 0 0 0 0 0 0 0 0 0 0 0 0 0 0 0 0 0 0 0 0 0 0 0 0 0 0 0 0 0 0 0 0 0 0 0 0 0 0 0 0 0 0 0 0 0 0 0 0 0 0 0 0 0 0 0 0 0 0 0 0 3066 2537 0 0 0 0 0 0 0 0 0 0 0 0 309 304 0 0 0 0 279 0 0 274 273 271 272 268 268 269 269 270 271 268 0 0 299 0 0 268 265 263 266 265 266 0 0 0 0 0
    0 0 0 0 0 0 0 0 0 0 0 0 0 0 0 0 0 0 0 0 0 0 0 0 0 0 0 0 0 0 0 0 0 0 0 0 0 0 0 0 0 0 0 0 0 0 0 0 0 0 0 0 0 0 0 0 0 0 0 0 0 0 0 0 0 0 0 0 0 0 0 0 0 0 0 0 0 0 0 0 0 0 0 0 0 0 0 0 0 0 0 0 0 0 0 0 0 0 0 0 0 0 0 0 0 0 0 0 0 0 0 0 0 0 0 0 0 0 0 0 0 0 0 0 0 0 0 0 0 0 0 0 0 0 0 0 0 0 0 0 0 0 0 0 0 0 0 0 0 0 0 0 0 0 0 0 0 0 0 0 0 0 0 0 0 0 0 0 0 0 0 0 0 0 0 0 0 0 0 0 0 0 0 0 0 0 0 0 0 0 0 0 0 0 0 0 0 0 0 0 0 0 0 0 0 0 0 0 0 0 0 0 0 0 0 0 0 0 0 0 0 0 0 0 0 0 0 0 0 0 0 0 0 0 0 0 0 0 0 0 0 0 0 0 0 0 0 0 0 0 0 0 0 0 0 0 0 0 0 0 0 0 0 0 0 0 0 0 0 0 3066 2537 2453 0 0 0 0 0 0 0 0 0 0 0 0 0 0 0 0 0 279 0 0 273 272 270 271 266 264 265 0 264 263 262 260 0 0 0 0 263 260 259 263 260 261 0 0 0 0 0
    0 0 0 0 0 0 0 0 0 0 0 0 0 0 0 0 0 0 0 0 0 0 0 0 0 0 0 0 0 0 0 0 0 0 0 0 0 0 0 0 0 0 0 0 0 0 0 0 0 0 0 0 0 0 0 0 0 0 0 0 0 0 0 0 0 0 0 0 0 0 0 0 0 0 0 0 0 0 0 0 0 0 0 0 0 0 0 0 0 0 0 0 0 0 0 0 0 0 0 0 0 0 0 0 0 0 0 0 0 0 0 0 0 0 0 0 0 0 0 0 0 0 0 0 0 0 0 0 0 0 0 0 0 0 0 0 0 0 0 0 0 0 0 0 0 0 0 0 0 0 0 0 0 0 0 0 0 0 0 0 0 0 0 0 0 0 0 0 0 0 0 0 0 0 0 0 0 0 0 0 0 0 0 0 0 0 0 0 0 0 0 0 0 0 0 0 0 0 0 0 0 0 0 0 0 0 0 0 0 0 0 0 0 0 0 0 0 0 0 0 0 0 0 0 0 0 0 0 0 0 0 0 0 0 0 0 0 0 0 0 0 0 0 0 0 0 0 0 0 0 0 0 0 0 0 0 0 0 0 0 0 0 0 0 0 0 0 0 0 0 2628 2102 2044 1839 0 0 0 0 0 0 0 0 0 0 0 0 0 0 0 280 279 0 0 0 274 271 271 265 261 260 256 256 258 256 252 253 0 254 248 259 259 257 260 260 260 0 0 0 0 0
    0 0 0 0 0 0 0 0 0 0 0 0 0 0 0 0 0 0 0 0 0 0 0 0 0 0 0 0 0 0 0 0 0 0 0 0 0 0 0 0 0 0 0 0 0 0 0 0 0 0 0 0 0 0 0 0 0 0 0 0 0 0 0 0 0 0 0 0 0 0 0 0 0 0 0 0 0 0 0 0 0 0 0 0 0 0 0 0 0 0 0 0 0 0 0 0 0 0 0 0 0 0 0 0 0 0 0 0 0 0 0 0 0 0 0 0 0 0 0 0 0 0 0 0 0 0 0 0 0 0 0 0 0 0 0 0 0 0 0 0 0 0 0 0 0 0 0 0 0 0 0 0 0 0 0 0 0 0 0 0 0 0 0 0 0 0 0 0 0 0 0 0 0 0 0 0 0 0 0 0 0 0 0 0 0 0 0 0 0 0 0 0 0 0 0 0 0 0 0 0 0 0 0 0 0 0 0 0 0 0 0 0 0 0 0 0 0 0 0 0 0 0 0 0 0 0 0 0 0 0 0 0 0 0 0 0 0 0 0 0 0 0 0 0 0 0 0 0 0 0 0 0 0 0 0 0 0 0 0 0 0 0 0 0 0 0 0 0 0 0 0 0 0 0 0 0 0 0 0 0 0 0 0 0 0 0 0 0 0 280 0 0 0 0 273 269 268 263 259 259 253 252 252 252 250 250 248 252 247 252 254 254 259 259 258 0 0 0 0 0</data></depth>
</opencv_storage>
