<?xml version="1.0"?>
<opencv_storage>
<gps_time_stamp>31492</gps_time_stamp>
<gps_x>-8.9141120910644531e+000</gps_x>
<gps_y>1.1253217458724976e+000</gps_y>
<gps_z>-2.3762338161468506e+000</gps_z>
<image_time_stamp>19464</image_time_stamp>
<depth type_id="opencv-matrix">
  <rows>87</rows>
  <cols>320</cols>
  <dt>s</dt>
  <data>
    0 0 0 0 0 0 0 0 0 0 0 0 0 0 0 0 0 0 0 0 0 0 0 0 0 0 0 0 0 0 0 0 0 0 0 0 0 0 0 0 0 0 0 0 0 0 0 0 0 0 0 0 0 0 0 0 0 0 0 0 0 0 0 0 0 0 0 0 0 0 0 0 0 0 0 0 0 0 0 6690 8177 7359 0 0 0 0 8177 8177 0 0 0 0 0 0 0 0 0 0 0 0 0 0 0 0 0 0 0 0 0 0 0 0 0 0 0 0 6690 8177 7359 8177 0 8177 8177 7359 6690 0 0 0 0 0 0 0 8177 0 0 7359 7359 7359 0 0 561 561 557 557 0 566 574 566 588 0 0 0 0 0 0 579 0 0 570 579 574 566 566 588 574 579 588 0 0 0 6133 7359 6690 7359 6690 0 6690 6133 5661 8177 8177 8177 7359 7359 7359 7359 7359 7359 6690 7359 7359 0 0 0 8177 7359 8177 8177 7359 8177 7359 7359 7359 6133 6690 6133 6690 6690 6690 4906 5661 5661 6690 6133 6133 5256 5661 5661 8177 6133 5661 5661 5661 5256 6133 5256 5256 5256 5661 4329 4599 4599 3679 4599 4599 4599 4329 4329 4906 4906 4599 7359 3504 3679 3199 3345 3345 3345 3199 3066 3066 3066 2943 2943 2943 2943 2943 2830 3066 2830 2374 1711 0 0 0 0 0 0 728 728 721 721 721 728 735 0 0 0 2299 2164 2102 2299 2164 2230 2230 2164 2164 2102 2102 2164 2044 2102 2044 1989 1989 2044 1989 1989 1936 1887 1839 1752 1752 1711 1711 1752 1839 1752 1752 1795 0 0 0 0 579 0 0 0 0 0
    0 0 0 0 0 0 0 0 0 0 0 0 0 0 0 0 0 0 0 0 0 0 0 0 0 0 0 0 0 0 0 0 0 0 0 0 0 0 0 0 0 0 0 0 0 0 0 0 0 0 0 0 0 0 0 0 0 0 0 0 0 0 0 0 0 0 0 0 0 8177 8177 0 0 0 0 0 0 0 0 7359 0 7359 0 0 0 0 0 0 0 0 0 0 0 0 0 0 0 0 0 0 0 0 0 0 0 0 0 0 0 0 0 0 0 0 0 0 6690 8177 7359 8177 0 7359 8177 7359 6690 0 0 0 0 0 0 0 8177 0 0 7359 7359 0 0 0 561 561 557 557 557 570 574 566 588 579 0 0 0 0 0 579 0 0 570 574 574 566 566 588 574 579 588 593 0 0 6133 7359 6690 7359 6690 6133 6690 6133 5661 8177 6690 7359 6690 6690 7359 6690 6690 6690 6690 7359 7359 8177 0 0 8177 8177 0 0 7359 8177 7359 7359 7359 5661 6133 6133 6690 6690 6133 4906 6133 6133 6690 6690 6690 5661 6133 6133 7359 5661 5661 5661 5256 4906 5661 4906 4906 4906 5256 4329 4329 4599 3679 4329 4599 4329 4329 4599 4906 4906 4599 7359 3679 3873 3199 3345 3345 3345 3199 2943 3066 2943 2943 2943 2943 2943 2943 2830 3199 2943 2299 0 0 0 0 0 0 721 735 735 728 728 728 735 743 0 0 0 2299 2230 2102 2299 2164 2164 2230 2164 2164 2102 2102 2102 2044 2102 2044 1989 2044 2044 1989 1989 1936 1887 1839 1795 1752 1752 1711 1795 1839 1795 1839 1839 1887 1839 1795 0 0 0 0 0 0 0
    0 0 0 0 0 0 0 0 0 0 0 0 0 0 0 0 0 0 0 0 0 0 0 0 0 0 0 0 0 0 0 0 0 0 0 0 0 0 0 0 0 0 0 0 0 0 0 0 0 0 0 0 0 0 0 0 0 0 0 0 0 0 0 0 0 0 0 0 0 7359 8177 8177 0 0 0 0 0 0 0 7359 0 8177 0 0 0 0 0 0 0 0 0 0 0 0 0 0 0 0 0 0 0 0 0 0 0 0 0 0 0 0 0 0 0 0 0 0 6690 7359 6690 7359 8177 6690 7359 6690 6133 0 0 0 0 0 0 0 8177 0 0 7359 7359 0 0 0 566 561 557 0 561 570 579 570 588 579 584 0 0 0 0 579 0 0 574 574 574 570 566 588 579 579 588 593 0 0 6133 7359 6690 7359 6690 6133 6690 6133 5661 8177 6690 7359 6133 6690 7359 6690 6690 6690 6690 7359 7359 0 0 0 8177 0 0 0 7359 8177 7359 7359 7359 5661 6133 6133 6133 6690 6133 4906 6133 6133 6690 6690 6690 5661 5661 6133 7359 5256 5256 5256 4906 4906 5256 4906 4599 4906 4906 4329 4329 4599 3679 4599 4599 4599 4329 4599 4906 4599 4599 6690 3873 3873 3199 3345 3345 3345 3199 2943 3066 2943 2943 2943 2943 2943 2943 2943 3199 3066 2299 1565 0 0 0 0 0 728 750 743 735 735 735 750 750 0 0 0 2374 2164 2164 2230 2164 2102 2230 2102 2164 2044 2044 2044 2044 2044 2044 2044 2044 2102 2044 2044 1989 1989 1936 1839 1839 1839 1795 1839 1887 1839 1839 1839 1936 1936 1887 1989 1795 0 0 0 0 0
    0 0 0 0 0 0 0 0 0 0 0 0 0 0 0 0 0 0 0 0 0 0 0 0 0 0 0 0 0 0 0 0 0 0 0 0 0 0 0 0 0 0 0 0 0 0 0 0 0 0 0 0 0 0 0 0 0 0 0 0 0 0 0 0 0 0 0 0 0 7359 7359 7359 0 0 0 0 0 0 0 0 0 0 0 0 0 0 0 0 0 0 0 0 0 0 0 0 0 0 0 0 0 0 0 0 0 0 0 0 0 0 0 0 0 0 0 0 7359 7359 6690 7359 8177 6690 7359 6690 6133 0 0 0 0 0 0 0 8177 0 7359 6690 7359 8177 0 0 566 0 557 0 0 574 579 570 588 579 584 0 0 0 0 579 0 0 0 579 579 570 566 588 579 579 588 593 0 0 0 7359 6690 7359 6690 6133 6690 6133 5661 7359 6690 6690 6133 6133 7359 6690 7359 6690 6690 7359 6690 8177 0 8177 7359 0 0 0 6690 8177 7359 8177 8177 5661 6133 6133 6133 6690 6133 5256 6133 6133 7359 6690 6690 5661 5661 6133 6690 5256 5256 5256 4906 4906 4906 4906 4329 5256 4329 4088 4329 4599 3679 4599 4599 4599 4599 4906 4906 4599 4599 6690 4088 3873 3199 3504 3504 3504 3345 2943 3066 2943 2943 2943 2943 2830 2830 2830 3199 3066 2374 0 0 0 0 0 0 728 750 750 743 743 750 766 766 0 0 0 2230 2164 2164 2164 2164 2102 2164 2102 2164 2044 2044 2044 1989 2044 2102 2044 2044 2102 2102 2102 2102 2044 1989 1936 1936 1936 1887 1936 1989 1936 1887 1936 1936 1936 1887 1989 0 0 0 0 0 0
    0 0 0 0 0 0 0 0 0 0 0 0 0 0 0 0 0 0 0 0 0 0 0 0 0 0 0 0 0 0 0 0 0 0 0 0 0 0 0 0 0 0 0 0 0 0 0 0 0 0 0 0 0 0 0 0 0 0 0 0 0 0 0 0 0 0 0 0 0 6690 7359 7359 0 8177 0 0 0 0 0 0 0 0 0 0 0 0 0 0 0 0 0 0 0 0 0 0 0 0 0 0 0 0 0 0 0 0 0 0 0 0 0 0 0 0 0 0 7359 7359 6690 7359 8177 6690 7359 6690 6133 0 0 0 0 8177 0 0 8177 0 6690 6690 7359 8177 0 0 0 0 557 0 0 0 584 570 588 0 0 0 0 0 0 0 0 0 0 0 0 574 570 593 579 584 593 0 0 0 0 7359 6690 7359 6690 6133 6690 6133 5661 7359 6690 6690 6133 6133 6690 6690 7359 6690 6690 8177 6690 8177 0 8177 7359 0 8177 0 6690 0 8177 8177 8177 5661 6690 6133 6690 7359 6690 5256 6133 6133 7359 6690 6690 5661 5256 5661 6133 5256 5256 5256 4906 4906 4906 4906 4329 5661 4088 3873 4329 4599 3679 4599 4599 4599 4599 4906 4906 4599 4329 6690 4088 4088 3199 3504 3504 3504 3345 3066 3066 2943 2943 2943 2943 2830 2725 2830 3199 3066 2628 0 0 0 0 0 0 735 750 750 743 750 758 774 774 0 0 0 2164 2164 2102 2230 2164 2102 2164 2044 2164 1989 1989 2044 1989 2044 2044 2044 2044 2102 2102 2102 2102 2044 1989 1989 1989 1936 1936 1989 1989 1936 1936 1989 1989 1936 1936 1989 0 0 0 0 0 0
    0 0 0 0 0 0 0 0 0 0 0 0 0 0 0 0 0 0 0 0 0 0 0 0 0 0 0 0 0 0 0 0 0 0 0 0 0 0 0 0 0 0 0 0 0 0 0 0 0 0 0 0 0 0 0 0 0 0 0 0 0 0 0 0 0 0 0 0 0 6690 7359 6690 0 8177 0 0 0 0 0 0 0 0 0 0 0 8177 0 0 0 0 0 0 0 0 0 0 0 0 0 0 0 0 0 0 0 0 0 0 0 0 0 0 0 0 0 0 7359 7359 6690 7359 8177 7359 7359 6690 6133 0 0 0 8177 7359 0 8177 7359 8177 7359 6690 7359 8177 0 8177 0 0 0 0 0 0 0 0 0 8177 7359 8177 0 0 7359 0 0 0 0 0 0 0 570 0 0 579 0 0 0 0 6133 7359 6690 7359 7359 6690 6690 6133 5661 7359 6133 6690 6133 6133 6690 6690 7359 7359 7359 8177 6690 8177 8177 8177 7359 0 8177 8177 6690 9199 0 0 0 6133 6690 6133 6690 7359 6690 5256 6133 6133 6690 6690 6133 5661 5256 5661 5256 4906 4906 5256 4906 4906 4599 5256 4329 5661 3873 3873 4329 4599 3504 4329 4329 4329 4329 4906 4906 4599 4329 6690 4088 3873 3199 3679 3679 3679 3345 3066 3066 2943 2943 2943 2830 2628 2628 2830 3066 3066 0 0 0 0 0 0 728 735 750 750 750 758 758 782 774 0 0 0 2164 2164 2102 2230 2164 2102 2164 2044 2102 1989 1989 2044 1989 1989 2044 2044 2044 2044 2102 2044 2044 1989 1989 1989 1989 1989 1936 1989 2044 1989 1936 1936 1936 1887 1936 1936 0 0 0 0 0 0
    0 0 0 0 0 0 0 0 0 0 0 0 0 0 0 0 0 0 0 0 0 0 0 0 0 0 0 0 0 0 0 0 0 0 0 0 0 0 0 0 0 0 0 0 0 0 0 0 0 0 0 0 0 0 0 0 0 0 0 0 0 0 0 0 0 0 0 0 0 6690 6690 6690 0 8177 8177 0 0 0 0 0 0 0 0 0 0 8177 0 0 0 0 0 0 0 0 0 0 0 0 0 0 0 0 0 0 0 0 0 0 0 0 0 0 0 0 0 0 7359 7359 6690 7359 8177 7359 7359 6690 6690 0 0 0 0 8177 0 0 7359 8177 7359 7359 7359 0 0 8177 0 0 0 0 0 0 0 0 0 8177 8177 0 0 0 7359 0 0 0 0 0 0 0 0 0 8177 0 0 0 0 0 6133 7359 6690 7359 7359 6690 6690 6133 5661 7359 6690 7359 6133 6133 6690 7359 7359 7359 7359 0 6690 8177 8177 8177 7359 0 8177 8177 6133 0 0 0 0 6690 6690 6690 6690 7359 6690 5256 6133 6133 6690 6690 6133 5661 4599 5661 4906 4906 4906 5256 4906 4906 4599 5256 4329 6133 3679 3873 4599 4599 3504 4599 4599 4599 4599 4906 4906 4329 4329 6690 3873 3873 3199 3679 3679 3679 3504 3066 3066 2943 2943 2943 2830 2537 2537 2725 2943 2943 0 0 0 0 0 758 728 735 750 750 750 758 766 782 774 0 0 0 2164 2230 2164 2230 2164 2102 2102 2044 2102 1989 1989 1989 1989 1989 1989 2044 2044 2044 2044 1989 2044 1989 1989 1989 1989 1989 1989 1989 1989 1989 1936 1936 1936 1887 1887 1936 1795 0 0 0 0 0
    0 0 0 0 0 0 0 0 0 0 0 0 0 0 0 0 0 0 0 0 0 0 0 0 0 0 0 0 0 0 0 0 0 0 0 0 0 0 0 0 0 0 0 0 0 0 0 0 0 0 0 0 0 0 0 0 0 0 0 0 0 0 0 0 0 0 0 0 0 6690 6690 6133 8177 8177 8177 0 0 0 0 0 0 0 0 0 0 0 0 0 0 0 0 0 0 0 0 0 0 0 0 0 0 0 0 0 0 0 0 0 0 0 0 0 0 0 0 0 7359 7359 6690 7359 8177 8177 8177 7359 6690 0 0 0 0 8177 0 0 8177 8177 8177 7359 7359 0 0 8177 0 0 8177 8177 0 0 0 0 0 8177 8177 0 0 0 7359 8177 8177 8177 0 0 0 0 0 0 0 0 0 0 0 0 5256 6690 6690 7359 7359 6690 6690 6133 5661 8177 6690 7359 6133 6133 6690 7359 7359 7359 8177 0 6690 8177 8177 8177 7359 0 8177 8177 6133 0 0 0 0 7359 7359 7359 7359 8177 7359 5661 6690 6133 6690 6690 6133 5661 4329 5256 4329 4599 4906 4906 4906 4906 4599 5661 4599 6690 3679 4329 4906 4906 3679 4599 4599 4599 4599 5256 4906 4088 4329 6690 3873 3679 3199 3679 3679 3679 3504 3066 3066 2943 3066 3066 2830 2453 2537 2725 2943 2943 0 0 0 0 0 766 728 735 758 750 750 766 766 782 774 0 0 0 2164 2230 2164 2230 2164 2102 2164 2044 2102 1989 2044 1989 1989 1989 1989 1989 1989 2044 2044 1989 2044 1989 1989 1989 2044 1989 1989 1989 1989 1936 1936 1936 1887 1839 1887 1936 1795 0 0 0 0 0
    0 0 0 0 0 0 0 0 0 0 0 0 0 0 0 0 0 0 0 0 0 0 0 0 0 0 0 0 0 0 0 0 0 0 0 0 0 0 0 0 0 0 0 0 0 0 0 0 0 0 0 0 0 0 0 0 0 0 0 0 0 0 0 0 0 0 0 0 0 6133 6133 6133 8177 7359 8177 0 8177 8177 0 0 0 0 0 0 0 0 0 0 0 0 0 0 0 0 0 0 0 0 0 0 0 8177 0 0 0 0 0 0 0 0 0 0 0 0 0 0 8177 8177 6690 8177 0 8177 8177 7359 7359 0 0 0 0 0 0 0 8177 0 8177 7359 7359 0 8177 8177 8177 0 7359 7359 0 0 0 0 8177 7359 7359 8177 8177 8177 6133 7359 8177 8177 0 0 0 0 0 0 0 0 0 0 0 0 4906 6690 6690 7359 7359 6690 7359 6133 6133 8177 7359 8177 6133 6690 7359 7359 7359 7359 8177 0 7359 8177 8177 8177 8177 0 0 0 6690 0 0 0 0 8177 7359 8177 7359 8177 7359 6690 7359 6133 7359 7359 6133 6133 4599 5661 4599 4906 5256 5256 4906 5256 5256 5661 4906 7359 3679 4599 4906 4906 3679 4599 4599 4599 4599 5256 4599 4088 4329 6690 3873 3679 3199 3873 3873 3873 3504 3199 3199 3066 3199 3199 2830 2537 2537 2725 3066 2943 0 0 0 0 0 0 728 735 758 750 758 766 766 791 0 0 0 0 2164 2230 2164 2164 2164 2102 2102 2044 2102 1989 2044 1989 1989 1989 1989 1989 1989 2044 1989 1989 1989 1989 1989 1989 2044 1989 1989 1989 1989 1936 1936 1936 1887 1887 1936 1887 1795 0 0 0 0 0
    0 0 0 0 0 0 0 0 0 0 0 0 0 0 0 0 0 0 0 0 0 0 0 0 0 0 0 0 0 0 0 0 0 0 0 0 0 0 0 0 0 0 0 0 0 0 0 0 0 0 0 0 0 0 0 0 0 0 0 0 0 0 0 0 0 0 0 0 0 6133 6133 5661 8177 7359 8177 0 8177 8177 0 0 0 0 0 0 0 0 0 0 0 0 0 0 0 0 0 0 0 0 0 0 0 0 0 0 0 0 0 0 0 0 0 0 0 0 0 0 8177 8177 7359 8177 0 0 0 7359 7359 0 0 0 0 0 0 0 0 0 0 8177 8177 0 0 8177 8177 0 7359 7359 0 0 8177 7359 6690 6690 5661 6133 6690 6690 5661 7359 0 8177 0 0 0 0 0 0 0 0 0 0 0 0 0 6690 6690 0 0 0 7359 6690 6133 8177 8177 0 7359 7359 8177 8177 0 0 0 0 8177 0 0 0 0 0 0 0 7359 0 0 0 0 0 0 0 8177 0 8177 7359 7359 6690 6690 6690 6133 5661 4329 5661 4329 5256 5256 5256 5256 5661 5661 6133 5256 0 3679 4906 4906 4906 3679 4599 4599 4599 4599 5256 4329 4088 4329 6690 3873 3679 3199 3873 3873 3873 3679 3199 3199 3199 3345 3504 2830 2628 2628 2725 3066 2943 0 0 0 0 0 0 0 735 750 750 750 758 758 791 0 0 0 0 2230 2299 2164 2230 2230 2102 2102 2044 2044 1989 2044 1989 1989 1989 1989 1989 1989 2044 1989 1989 1989 1989 1936 1989 1989 1989 1989 1936 1989 1936 1936 1936 1887 1887 1936 1887 1795 0 0 0 0 0
    0 0 0 0 0 0 0 0 0 0 0 0 0 0 0 0 0 0 0 0 0 0 0 0 0 0 0 0 0 0 0 0 0 0 0 0 0 0 0 0 0 0 0 0 0 0 0 0 0 0 0 0 0 0 0 0 0 0 0 0 0 0 0 0 0 0 0 0 0 6133 6133 6133 8177 7359 7359 0 0 8177 0 0 0 0 0 0 0 0 0 0 0 0 0 0 0 0 0 0 0 0 0 0 0 0 0 0 0 0 0 0 0 0 0 0 0 0 0 0 0 8177 7359 8177 0 0 0 8177 8177 0 0 0 0 0 0 0 0 0 0 8177 8177 0 0 0 0 0 8177 8177 0 0 7359 6133 5661 5661 4329 4906 6690 6690 5256 0 0 0 0 0 0 0 0 0 0 0 0 8177 0 0 0 6690 6690 0 0 0 0 6690 6133 0 0 0 7359 7359 8177 8177 0 0 0 0 8177 8177 0 8177 0 0 0 0 8177 0 0 0 0 0 0 0 0 0 0 7359 7359 6690 6690 6133 5256 4906 3873 5256 4329 5256 5256 5256 5256 5661 5661 6690 5661 0 3679 4906 4906 4906 3679 4599 4906 4906 4599 5256 4329 4088 4329 6690 3679 3679 3199 3873 3873 3873 3679 3199 3345 3345 3345 3679 2943 2725 2725 2830 3066 2943 0 0 0 0 0 0 0 735 750 743 750 758 758 0 0 0 0 0 2299 2374 2230 2230 2230 2102 2044 2044 1989 2044 2044 1989 1989 1989 2044 2044 2044 2102 2044 1989 2044 1989 1989 1989 1989 1936 1989 1936 1989 1936 1936 1989 1887 1887 1936 1887 1795 0 0 0 0 0
    0 0 0 0 0 0 0 0 0 0 0 0 0 0 0 0 0 0 0 0 0 0 0 0 0 0 0 0 0 0 0 0 0 0 0 0 0 0 0 0 0 0 0 0 0 0 0 0 0 0 0 0 0 0 0 0 0 0 0 0 0 0 0 0 0 0 0 0 0 6690 6690 6133 8177 7359 8177 0 0 8177 0 0 0 0 0 0 0 0 0 0 0 0 0 0 0 0 0 0 0 0 0 0 0 0 0 0 0 0 0 0 0 0 0 0 0 0 0 0 0 0 7359 8177 0 0 0 7359 7359 0 0 0 0 0 0 0 0 0 0 8177 0 0 0 0 0 0 7359 7359 0 0 7359 4088 4906 5256 3199 4906 7359 7359 5661 0 0 0 0 0 0 0 0 0 0 0 0 7359 0 0 0 6690 6690 0 84 83 0 6690 6133 0 0 0 7359 7359 7359 7359 8177 9199 0 0 8177 8177 8177 8177 8177 0 8177 0 0 0 0 0 0 0 0 0 0 0 0 6690 6690 6133 6133 5661 4599 4088 3679 4906 4088 4906 5256 5256 5256 6133 6133 6690 5661 0 4088 5256 5256 5256 3679 4906 4906 4906 4599 5256 4329 4088 4329 6690 3679 3679 3199 4088 4088 4088 3873 3345 3504 3345 3504 3873 2943 2725 2725 2830 3066 2943 0 0 0 0 0 0 0 728 743 743 750 750 758 0 0 0 0 0 2374 2453 2374 2299 2230 2044 2044 2044 1989 2044 2044 2044 2044 2044 2044 2044 2044 2102 1989 1989 1989 1989 1936 1936 1936 1936 1936 1936 1989 1936 1989 1989 1887 1887 1936 1839 1752 0 0 0 0 0
    0 0 0 0 0 0 0 0 0 0 0 0 0 0 0 0 0 0 0 0 0 0 0 0 0 0 0 0 0 0 0 0 0 0 0 0 0 0 0 0 0 0 0 0 0 0 0 0 0 0 0 0 0 0 0 0 0 0 0 0 0 0 0 0 0 0 0 0 0 0 0 0 0 0 0 0 8177 8177 0 0 8177 0 0 8177 0 8177 0 0 0 0 0 0 0 0 0 0 0 0 0 0 0 0 0 0 0 0 0 0 0 0 0 0 0 0 0 0 0 0 7359 8177 0 8177 8177 7359 7359 8177 8177 0 0 0 0 0 0 0 0 0 0 0 0 0 0 0 6690 0 0 0 0 2725 2453 0 0 0 0 0 0 0 0 0 0 0 0 0 0 0 0 0 0 7359 0 0 0 6690 0 0 83 83 0 6690 6133 0 0 0 7359 7359 7359 7359 7359 8177 0 8177 7359 8177 8177 7359 8177 8177 8177 9199 0 0 0 0 0 0 0 0 0 0 0 6133 6133 6133 6133 5256 4599 3873 3504 4906 4329 4906 5661 5661 6133 6690 7359 7359 6690 0 4329 5256 5256 5256 3679 4906 4906 4906 4599 5256 4329 4088 4329 6690 3679 3679 3199 4088 4329 4088 3873 3345 3504 3504 3679 4329 3066 2943 2943 2943 3504 3199 0 0 0 0 0 0 0 728 743 743 750 750 750 0 0 0 0 0 2537 2628 2453 2299 2299 2044 2044 2044 1989 2102 2102 2044 2102 2044 2102 2044 2044 2102 1989 1989 1989 1936 1936 1936 1936 1936 1936 1936 1936 1936 1989 1989 1887 1887 1887 1839 1752 0 0 0 0 0
    0 0 0 0 0 0 0 0 0 0 0 0 0 0 0 0 0 0 0 0 0 0 0 0 0 0 0 0 0 0 0 0 0 0 0 0 0 0 0 0 0 0 0 0 0 0 0 0 0 0 0 0 0 0 0 0 0 0 0 0 0 0 0 0 0 0 0 0 0 0 0 0 0 0 0 0 8177 0 0 0 0 0 8177 8177 0 9199 0 0 0 0 0 0 0 0 0 0 0 0 0 0 0 0 0 0 0 0 0 0 0 0 0 0 0 0 0 0 0 0 6690 8177 0 8177 8177 7359 7359 8177 7359 0 0 0 0 0 0 0 0 8177 0 0 0 0 8177 8177 0 0 0 0 0 0 2044 808 782 782 0 0 0 0 0 0 0 0 0 0 0 0 0 0 0 7359 0 0 0 0 0 0 83 83 0 6690 6133 0 8177 0 7359 7359 7359 6690 7359 8177 8177 8177 7359 8177 8177 7359 8177 8177 8177 0 0 0 0 0 0 0 0 0 0 0 0 5661 5661 6133 6133 5661 4906 4088 3873 5256 4906 5661 6133 6133 6690 7359 8177 8177 7359 0 4599 5256 5256 5256 3679 4906 4906 4906 4599 5661 4329 4329 4329 6690 3873 3873 3345 4329 4329 4329 3873 3504 3504 3504 3679 4329 3066 3066 3066 3199 4088 3504 3873 0 0 0 0 0 0 728 735 0 743 0 0 0 0 0 0 0 2628 2628 2537 2299 2230 2102 2102 2102 1989 2102 2102 2044 2102 2102 2102 2044 2044 2102 2044 1989 1989 1936 1936 1989 1989 1989 1989 1989 1989 1989 1989 1989 1887 1936 1887 1795 1711 0 0 0 0 0
    0 0 0 0 0 0 0 0 0 0 0 0 0 0 0 0 0 0 0 0 0 0 0 0 0 0 0 0 0 0 0 0 0 0 0 0 0 0 0 0 0 0 0 0 0 0 0 0 0 0 0 0 0 0 0 0 0 0 0 0 0 0 0 0 0 0 0 0 0 0 0 7359 0 0 8177 0 0 0 0 73 0 0 8177 8177 0 0 0 0 0 0 0 0 0 0 0 0 0 0 0 0 0 7359 8177 0 8177 0 0 0 0 0 0 0 663 669 0 0 0 0 6690 7359 0 0 8177 8177 8177 7359 6690 0 0 0 0 0 0 0 0 0 0 0 0 0 0 0 0 254 0 0 0 0 0 791 766 758 743 0 0 0 0 203 203 0 0 0 0 0 0 0 0 6690 0 0 0 0 0 0 83 83 0 6690 6133 0 0 0 7359 7359 7359 6690 7359 0 8177 7359 7359 8177 8177 7359 7359 8177 8177 0 0 0 0 0 0 0 0 0 0 0 0 5256 5661 5661 6133 5661 4906 4088 4088 5256 5661 6133 6690 6690 7359 8177 0 8177 8177 0 4906 5256 5256 5256 3679 4906 4906 4906 4599 5661 4599 4329 4599 6690 3873 3873 3345 4329 4329 4329 3873 3504 3504 3679 3679 4599 3199 3199 3199 3504 5256 4088 4906 6133 5256 0 0 0 0 721 0 0 0 0 0 0 2453 0 2299 2374 2628 2628 2537 2374 2299 2102 2164 2102 2044 2164 2164 2102 2164 2102 2164 2102 2102 2164 2044 1989 2044 1989 1989 1989 1989 2044 1989 1989 2044 2044 2044 2044 1936 1936 1887 1795 1672 0 0 0 0 0
    0 0 0 0 0 0 0 0 0 0 0 0 0 0 0 0 0 0 0 0 0 0 0 0 0 0 0 0 0 0 0 0 0 0 0 0 0 0 0 0 0 0 0 0 0 0 0 0 0 0 0 0 0 0 0 0 0 0 0 0 0 0 0 0 0 0 0 0 0 0 0 7359 0 8177 0 0 0 74 73 0 0 0 0 0 0 0 0 0 0 0 0 0 0 0 0 0 0 0 0 0 0 5256 0 0 7359 0 0 0 0 700 687 669 675 681 0 0 0 0 7359 0 0 0 0 8177 8177 6690 5256 0 0 0 0 0 0 0 0 0 0 0 0 0 0 0 0 0 260 0 0 0 782 774 750 750 735 0 0 204 0 204 204 0 0 0 0 0 0 0 0 0 0 0 266 0 0 0 83 83 0 7359 6133 8177 0 0 0 0 0 0 0 0 0 0 8177 0 0 7359 7359 7359 7359 0 0 0 0 0 0 0 0 0 0 0 0 5661 5661 6133 6690 5661 4906 4088 4329 5256 6133 7359 7359 7359 8177 0 0 0 0 0 4906 5256 5256 5256 3679 4906 4906 4906 4599 5661 4599 4329 4599 6690 4088 4329 3345 4329 4329 4088 3873 3504 3679 3679 3679 4906 3345 3345 3345 4088 5661 4329 5661 6690 5661 0 0 0 0 0 0 0 0 0 0 0 2453 2164 2299 2299 2628 2628 2628 2537 2374 2164 2230 2164 2102 2164 2230 2164 2230 2164 2230 2164 2102 2164 2102 2044 2044 1989 1989 1989 2044 2044 2044 2044 2102 2044 2102 2044 1936 1936 1887 1752 1599 0 0 0 0 0
    0 0 0 0 0 0 0 0 0 0 0 0 0 0 0 0 0 0 0 0 0 0 0 0 0 0 0 0 0 0 0 0 0 0 0 0 0 0 0 0 0 0 0 0 0 0 0 0 0 0 0 0 0 0 0 0 0 0 0 0 0 0 0 0 0 0 0 0 0 0 0 0 0 0 0 0 0 0 73 0 0 0 0 0 0 0 8177 0 0 0 0 0 0 0 0 0 0 0 0 0 7359 0 0 0 0 0 0 0 707 707 694 687 687 694 687 0 0 0 0 0 0 8177 8177 8177 7359 6133 4088 0 0 0 0 0 0 0 0 0 0 0 0 0 0 0 0 0 255 0 743 758 774 758 743 743 735 743 743 0 206 205 205 205 0 0 0 0 0 0 0 0 0 0 0 6690 6133 6690 0 83 0 7359 5661 8177 0 97 0 0 0 0 0 0 0 0 0 0 0 7359 7359 6690 6690 0 0 0 0 0 0 0 0 0 0 0 0 6690 6690 7359 7359 6133 5256 4088 4906 5661 6690 0 8177 8177 0 0 0 0 0 0 5256 5256 5661 5256 3679 4906 5256 4906 4906 6133 4906 4599 4906 7359 4599 4329 3345 4329 4088 4088 3873 3504 3679 3679 3679 4906 3345 3504 3504 4088 5256 4088 0 5661 5256 0 0 735 0 0 0 0 0 0 0 0 2453 2102 2299 2299 2725 2725 2725 2628 2453 2230 2299 2230 2102 2164 2164 2164 2230 2164 2230 2164 2164 2164 2102 2044 2044 2044 2044 1989 2044 2044 2044 2044 2102 2044 2102 2044 1989 1989 1887 1752 1599 0 0 0 0 0
    0 0 0 0 0 0 0 0 0 0 0 0 0 0 0 0 0 0 0 0 0 0 0 0 0 0 0 0 0 0 0 0 0 0 0 0 0 0 0 0 0 0 0 0 0 0 0 0 0 0 0 0 0 0 0 0 0 0 0 0 0 0 0 0 0 0 0 0 0 0 0 0 0 0 0 0 0 0 0 0 0 0 0 0 735 0 0 0 8177 0 0 0 0 0 0 0 0 0 0 0 0 0 0 0 0 0 735 728 721 714 700 700 700 707 700 0 0 0 0 721 0 7359 7359 7359 6690 4906 0 0 0 0 126 0 758 750 0 0 0 0 0 0 0 0 0 0 0 774 735 743 758 750 743 735 735 743 743 750 0 206 205 205 0 0 0 0 0 0 0 0 0 0 0 6133 6133 6133 0 0 0 0 0 0 0 0 557 0 0 0 0 700 669 0 0 0 8177 6133 6690 5661 5661 7359 7359 7359 0 0 0 0 0 0 0 0 0 7359 7359 8177 8177 6690 5256 4088 4599 5256 6690 8177 8177 7359 0 0 0 0 0 0 5661 5661 6133 6133 4088 5256 5256 5256 4906 6133 5256 4599 4599 7359 4329 4088 3345 4088 4088 4088 3873 3679 3679 3679 3679 4906 3679 3679 3504 4599 5661 4599 5661 6133 5256 0 0 735 5256 0 4599 0 0 0 2725 2830 2537 2230 2374 2453 2830 2830 2830 2830 2537 2374 2453 2374 2102 2230 2230 2230 2230 2230 2299 2230 2164 2230 2164 2102 2102 2044 2044 2044 2044 2102 2044 2044 2102 2102 2102 2044 1989 1989 1887 1752 1565 0 0 0 0 0
    0 0 0 0 0 0 0 0 0 0 0 0 0 0 0 0 0 0 0 0 0 0 0 0 0 0 0 0 0 0 0 0 0 0 0 0 0 0 0 0 0 0 0 0 0 0 0 0 0 0 0 0 0 0 0 0 0 0 0 0 0 0 0 0 0 0 0 0 0 721 714 728 735 750 758 758 758 750 782 799 766 774 735 728 728 721 728 721 0 0 0 0 0 0 0 0 0 0 0 0 0 0 0 743 735 0 735 735 728 721 714 714 714 714 714 707 707 714 714 728 721 0 6690 6690 0 0 774 799 0 0 0 0 743 750 735 735 0 0 0 0 0 0 0 0 766 758 728 735 750 743 735 735 728 735 735 750 721 207 205 205 0 0 0 0 0 112 0 108 108 0 0 6690 5661 5661 0 0 0 0 0 0 0 0 593 0 147 0 728 707 700 728 758 0 0 4906 4906 4906 5256 6133 6133 6133 8177 0 0 0 0 0 0 0 0 0 8177 8177 0 7359 5661 4329 4906 5661 7359 8177 7359 6690 0 0 0 7359 8177 0 5661 6133 6690 6690 4329 5661 5661 5661 5256 6133 5661 4599 4599 7359 4088 3873 3345 3873 3873 3873 3873 3679 3679 3679 3873 5256 4088 4088 3873 4599 5661 0 5661 0 0 0 714 735 4906 0 4329 0 0 0 2830 2943 2537 2299 2374 2453 2830 2830 2830 2830 2537 2374 2537 2374 2164 2230 2230 2230 2230 2230 2374 2230 2164 2299 2230 2102 2164 2102 2102 2044 2102 2102 2102 2102 2102 2102 2164 2044 2044 1989 1887 1711 1533 0 0 0 0 0
    0 0 0 0 0 0 0 0 0 0 0 0 0 0 0 0 0 0 0 0 0 0 0 0 0 0 0 0 0 0 0 0 0 0 0 0 0 0 0 0 0 0 0 0 0 0 0 0 0 0 0 0 0 0 0 0 0 0 0 0 0 0 0 0 0 0 0 0 0 735 721 735 743 758 766 758 758 750 766 774 758 774 735 728 728 728 728 728 728 728 728 735 750 758 758 774 766 774 774 0 0 0 735 743 735 735 728 735 728 721 721 728 721 728 728 728 721 728 728 735 735 743 0 0 758 758 766 782 0 0 0 743 743 750 735 743 743 750 758 750 758 758 728 750 750 743 721 735 743 735 735 735 728 735 735 750 728 714 0 0 743 750 0 0 0 0 108 0 0 0 0 0 0 0 0 735 0 0 0 0 681 634 623 0 0 0 735 721 714 735 766 791 766 0 0 4906 5256 6133 6133 5661 6690 0 0 0 0 0 0 0 0 0 0 0 0 8177 6690 5256 5661 5661 6690 7359 6690 5661 6690 8177 0 6690 6690 0 6133 6133 7359 7359 4906 6133 6133 6133 5661 6690 5661 4329 4088 7359 3504 3504 0 0 3504 3679 3873 3679 3873 3873 3873 5661 4599 4329 0 0 0 0 728 728 728 721 714 728 0 714 4329 0 0 2830 2725 2830 2537 2230 2453 2453 2830 2830 2830 2943 2628 2453 2628 2374 2230 2230 2230 2230 2230 2299 2374 2230 2164 2299 2299 2164 2230 2102 2102 2102 2102 2164 2102 2102 2102 2102 2164 2102 2102 1989 1839 1711 1501 0 0 0 0 0
    0 0 0 0 0 0 0 0 0 0 0 0 0 0 0 0 0 0 0 0 0 0 0 0 0 0 0 0 0 0 0 0 0 0 0 0 0 0 0 0 0 0 0 0 0 0 0 0 0 0 0 0 0 0 0 0 0 0 0 0 0 0 0 0 0 0 0 0 0 735 728 743 750 766 782 766 766 758 766 774 758 766 735 728 728 735 735 735 735 735 735 735 743 750 743 758 766 774 766 0 0 0 735 743 743 735 735 735 728 728 735 743 735 735 735 735 735 743 743 743 735 750 735 750 750 750 750 750 750 728 728 728 735 750 735 743 743 750 758 750 758 758 728 743 743 735 721 728 735 735 735 735 728 728 728 750 728 714 728 743 750 750 735 735 728 728 0 0 0 0 0 0 0 743 750 743 728 0 714 714 707 681 681 721 728 743 743 728 728 735 766 791 758 758 0 0 5256 6133 5661 4906 5256 0 0 8177 0 0 0 0 0 750 743 750 0 0 0 0 0 7359 8177 0 8177 6690 6690 7359 0 0 0 0 0 0 0 0 5256 6690 7359 6690 6133 6690 5661 4088 3873 6690 3345 0 0 0 0 0 0 3873 4088 4088 4088 0 0 0 0 0 0 0 728 721 721 714 707 721 707 707 0 0 3199 2830 2725 2725 2453 2230 2453 2537 2943 2943 0 0 2830 2830 0 2537 2374 0 2299 2299 2299 2374 2374 2230 2230 2299 2374 2230 2299 2164 2164 2102 2102 2164 2102 2102 2164 2102 2164 2102 2102 1989 1839 1672 1415 0 0 0 0 0
    0 0 0 0 0 0 0 0 0 0 0 0 0 0 0 0 0 0 0 0 0 0 0 0 0 0 0 0 0 0 0 0 0 0 0 0 0 0 0 0 0 0 0 0 0 0 0 0 0 0 0 0 0 0 0 0 0 0 0 0 0 0 0 0 0 0 0 0 0 721 714 728 743 766 782 766 774 750 758 766 758 766 735 728 728 735 735 735 735 735 735 735 743 743 735 750 758 766 766 0 0 0 743 750 743 743 735 735 735 735 743 743 735 743 735 743 735 743 743 743 735 743 728 735 735 735 735 728 728 721 721 721 728 743 735 743 750 743 758 750 758 758 728 743 743 735 721 735 735 728 728 735 728 728 728 750 735 721 743 750 758 766 743 743 735 728 0 0 721 721 728 0 735 743 750 750 735 728 728 721 721 707 707 728 735 743 743 735 735 735 758 782 750 750 758 766 782 0 0 0 0 758 758 0 0 0 728 750 750 743 735 743 750 758 758 0 0 8177 8177 8177 7359 5661 5661 6133 5661 0 0 154 155 156 0 0 0 0 0 7359 6690 7359 6133 4088 3873 6690 3345 0 0 0 0 0 0 0 0 0 4329 0 0 0 0 0 0 721 721 714 714 707 707 714 700 694 0 0 3066 2628 2628 2628 2374 2164 2453 2537 2943 0 0 0 0 0 0 0 0 0 0 2453 2299 0 0 2374 2299 2299 2453 2299 2374 2230 2230 2102 2164 2164 2164 2102 2164 2102 2230 2102 2164 1989 1839 1635 1362 0 0 0 0 0
    0 0 0 0 0 0 0 0 0 0 0 0 0 0 0 0 0 0 0 0 0 0 0 0 0 0 0 0 0 0 0 0 0 0 0 0 0 0 0 0 0 0 0 0 0 0 0 0 0 0 0 0 0 0 0 0 0 0 0 0 0 0 0 0 0 0 0 0 0 700 700 700 721 743 766 758 758 743 743 743 743 750 721 721 721 728 728 735 735 728 728 728 728 728 714 721 728 735 735 735 0 735 743 758 750 743 735 735 735 743 735 743 735 743 735 743 735 735 735 728 721 728 714 714 714 714 714 707 714 707 714 721 728 750 743 743 750 743 750 750 758 758 728 743 743 735 721 728 735 728 728 728 721 728 728 750 735 728 750 758 766 774 750 750 735 735 735 728 721 721 728 728 735 743 750 758 750 743 735 728 735 721 721 735 735 743 743 735 743 735 750 774 743 735 750 750 766 750 743 728 735 743 750 721 721 728 721 743 743 743 735 743 743 750 750 774 0 0 0 0 0 4906 4599 0 0 0 0 0 0 0 0 0 750 743 735 735 0 0 0 0 0 6133 0 0 743 728 0 0 0 721 728 0 0 0 0 0 0 721 721 721 721 714 714 707 707 714 700 694 700 0 0 2374 2374 2453 2164 1989 2374 2537 0 0 0 0 0 0 750 743 707 694 675 681 675 663 663 663 669 0 0 2374 2453 2299 2299 2164 2164 2164 2164 2102 2164 2044 2230 2044 2164 1989 1839 1599 1338 0 0 0 0 0
    0 0 0 0 0 0 0 0 0 0 0 0 0 0 0 0 0 0 0 0 0 0 0 0 0 0 0 0 0 0 0 0 0 0 0 0 0 0 0 0 0 0 0 0 0 0 0 0 0 0 0 0 0 0 0 0 0 0 0 0 0 0 0 0 0 0 0 0 0 694 687 687 700 728 743 743 743 728 728 714 714 721 700 707 707 721 721 728 728 721 721 714 714 714 700 700 700 707 707 707 0 721 728 743 743 735 735 735 728 743 735 743 735 743 735 743 735 735 728 721 707 714 707 707 700 700 700 694 694 707 714 714 728 743 735 735 743 743 750 743 750 750 721 728 728 721 714 721 728 721 721 721 714 721 721 735 728 728 750 758 766 774 758 758 743 735 735 728 721 721 721 728 728 735 735 735 728 721 728 721 728 714 714 735 743 743 743 735 743 735 750 774 735 728 743 743 766 750 743 728 721 728 735 721 721 721 714 728 735 735 728 735 743 750 743 774 735 735 743 735 728 728 728 735 743 750 735 735 750 728 750 750 735 743 743 743 743 743 750 728 721 0 721 714 735 721 721 758 735 721 728 721 714 721 721 0 714 721 721 714 714 714 714 714 707 707 700 694 694 700 700 0 0 0 0 0 0 0 0 0 0 743 728 721 735 728 707 694 675 681 675 669 675 675 675 694 694 707 0 0 0 0 2230 2164 2164 2102 2164 2044 2230 1989 2102 1887 1839 1599 0 0 0 0 0 0
    0 0 0 0 0 0 0 0 0 0 0 0 0 0 0 0 0 0 0 0 0 0 0 0 0 0 0 0 0 0 0 0 0 0 0 0 0 0 0 0 0 0 0 0 0 0 0 0 0 0 0 0 0 0 0 0 0 0 0 0 0 0 0 0 0 0 0 0 0 681 681 681 694 707 714 735 728 714 707 694 687 694 681 681 687 0 707 714 721 714 714 700 700 700 687 687 687 687 687 687 700 707 0 728 735 735 735 735 728 743 743 743 743 743 743 743 735 728 714 714 687 694 687 687 687 687 687 687 687 700 707 714 721 735 728 735 735 735 743 743 743 735 714 714 707 707 707 714 714 707 714 707 707 707 707 721 714 714 743 750 758 774 758 766 743 735 735 728 721 721 721 721 721 728 714 707 707 700 707 700 707 707 714 735 743 743 743 743 743 735 743 766 735 721 728 728 750 743 735 714 714 721 721 714 707 714 707 721 728 728 728 735 735 750 743 774 743 735 743 735 728 735 735 743 743 750 735 735 743 728 743 735 735 735 735 743 735 743 758 728 728 743 728 721 735 728 714 743 728 721 728 714 714 714 714 714 714 714 721 714 714 714 707 707 707 700 694 694 687 694 700 681 669 669 0 0 0 0 0 0 721 721 721 714 714 714 700 694 681 687 681 675 681 675 675 681 687 700 700 707 721 721 758 735 0 0 0 0 2299 1989 2044 1887 0 0 0 0 0 0 0 0
    0 0 0 0 0 0 0 0 0 0 0 0 0 0 0 0 0 0 0 0 0 0 0 0 0 0 0 0 0 0 0 0 0 0 0 0 0 0 0 0 0 0 0 0 0 0 0 0 0 0 0 0 0 0 0 0 0 0 0 0 0 0 0 0 0 0 0 0 0 675 675 675 687 687 694 721 721 700 694 675 669 675 669 663 669 675 694 700 714 714 714 681 694 694 681 681 681 681 681 675 694 694 694 714 721 721 721 728 728 743 735 735 735 735 728 735 721 714 700 694 663 681 675 681 675 675 681 675 675 700 707 707 714 728 721 721 728 728 735 728 735 721 707 707 700 700 694 700 707 700 700 700 700 700 700 714 707 707 735 750 758 766 758 766 743 735 735 721 721 714 721 721 714 714 700 694 694 687 687 681 687 694 707 728 743 743 735 735 735 728 735 743 707 700 700 700 707 721 714 694 694 700 700 700 694 707 700 714 714 721 721 728 735 743 735 766 735 728 743 735 728 735 735 735 743 743 735 735 743 721 735 728 728 728 728 735 735 735 758 735 735 750 735 728 728 728 721 743 728 714 728 714 707 714 714 714 707 707 714 707 714 714 707 707 707 694 694 687 687 694 694 687 681 675 663 629 629 669 687 700 700 707 707 707 714 707 700 694 681 687 681 675 681 675 681 687 687 700 700 707 707 707 721 700 687 681 663 663 675 669 669 669 675 651 663 0 0 0 0 0
    0 0 0 0 0 0 0 0 0 0 0 0 0 0 0 0 0 0 0 0 0 0 0 0 0 0 0 0 0 0 0 0 0 0 0 0 0 0 0 0 0 0 0 0 0 0 0 0 0 0 0 0 0 0 0 0 0 0 0 0 0 0 0 0 0 0 0 0 0 669 669 669 681 681 675 700 700 681 675 645 645 651 651 645 657 657 681 681 0 0 707 663 681 681 675 675 675 675 675 669 694 681 675 694 700 700 707 714 714 728 728 728 728 728 721 728 714 700 694 681 651 675 669 675 669 675 675 669 669 700 694 700 707 714 714 714 721 721 721 721 714 707 700 700 694 694 681 694 700 694 694 694 694 694 694 707 700 707 728 735 743 750 750 766 735 735 728 721 714 714 714 714 707 700 694 681 681 675 675 669 681 681 694 721 735 728 728 721 721 714 721 721 700 694 694 687 687 700 700 687 687 681 681 687 687 694 694 707 707 707 714 721 721 735 728 758 721 721 735 728 728 735 728 735 735 735 728 728 735 714 728 721 714 721 721 728 721 721 750 728 728 735 728 721 721 721 714 743 728 714 721 714 707 707 707 707 707 707 707 700 707 707 700 700 700 687 694 687 687 694 694 675 663 663 651 629 623 645 657 681 687 694 700 700 700 700 694 694 675 687 681 681 681 675 681 687 687 700 694 700 694 694 700 681 675 663 657 651 669 657 651 645 657 634 651 0 0 0 0 0
    0 0 0 0 0 0 0 0 0 0 0 0 0 0 0 0 0 0 0 0 0 0 0 0 0 0 0 0 0 0 0 0 0 0 0 0 0 0 0 0 0 0 0 0 0 0 0 0 0 0 0 0 0 0 0 0 0 0 0 0 0 0 0 0 0 0 0 0 0 669 669 675 681 669 663 687 681 651 645 623 629 629 634 629 639 634 651 651 0 0 687 634 669 675 669 663 669 669 675 669 694 675 669 687 687 694 700 700 707 714 721 714 714 721 707 714 694 681 681 669 639 669 669 669 669 669 675 663 669 700 694 694 700 714 707 707 714 714 714 714 707 700 694 694 687 687 669 681 687 687 687 687 687 687 687 700 700 707 721 728 735 743 743 750 728 735 721 714 707 700 707 700 700 694 681 663 669 669 669 663 669 675 687 707 721 721 714 714 707 707 707 700 694 687 687 687 687 700 687 681 681 669 675 681 675 687 681 700 700 700 707 714 714 721 721 735 714 714 721 714 714 721 721 728 728 728 721 721 728 707 714 714 707 707 707 714 714 707 728 714 714 721 707 707 707 707 707 728 721 714 714 707 700 707 707 700 700 700 700 700 700 707 700 700 700 681 687 687 681 687 681 651 645 645 645 634 629 639 645 669 675 681 687 694 694 694 687 687 669 681 675 675 675 669 675 681 675 681 669 669 663 663 669 657 645 639 639 634 657 651 651 639 645 634 645 0 0 0 0 0
    0 0 0 0 0 0 0 0 0 0 0 0 0 0 0 0 0 0 0 0 0 0 0 0 0 0 0 0 0 0 0 0 0 0 0 0 0 0 0 0 0 0 0 0 0 0 0 0 0 0 0 0 0 0 0 0 0 0 0 0 0 0 0 0 0 0 0 0 0 669 669 675 681 669 657 0 663 639 639 623 629 629 634 629 634 634 639 639 0 0 669 629 663 669 663 663 669 669 669 663 694 675 669 681 681 687 694 694 694 700 707 700 694 707 687 700 675 669 675 669 639 663 663 669 663 669 669 663 663 700 687 687 694 707 700 707 707 707 700 707 700 694 687 687 681 681 657 675 681 681 681 681 681 687 681 700 700 700 714 728 735 735 735 743 728 735 721 714 707 700 700 694 694 681 675 651 663 663 657 657 663 675 681 694 707 707 707 700 694 694 694 687 681 681 681 675 675 694 681 675 675 651 669 675 669 681 675 694 694 687 700 707 707 714 707 721 700 700 707 700 700 700 707 721 721 721 721 721 721 707 707 700 694 700 700 700 700 694 707 700 700 700 687 687 687 687 694 714 714 707 707 700 694 694 700 694 694 694 694 694 694 700 694 694 694 669 675 681 675 681 675 629 634 645 645 639 629 639 639 663 669 669 669 675 675 681 675 675 651 669 663 669 663 657 669 669 663 675 651 645 645 645 651 639 634 634 629 629 639 634 634 629 623 618 634 0 0 0 0 0
    0 0 0 0 0 0 0 0 0 0 0 0 0 0 0 0 0 0 0 0 0 0 0 0 0 0 0 0 0 0 0 0 0 0 0 0 0 0 0 0 0 0 0 0 0 0 0 0 0 0 0 0 0 0 0 0 0 0 0 0 0 0 0 0 0 0 0 0 0 669 669 675 687 669 657 0 657 639 651 629 634 634 634 634 639 634 639 634 639 634 657 629 663 663 663 663 663 663 669 663 687 669 663 675 669 675 687 675 675 681 687 681 675 687 669 675 651 651 663 663 634 663 663 663 663 669 669 663 663 700 681 681 681 694 694 700 700 700 687 694 0 687 681 681 669 675 645 669 675 675 675 675 675 681 675 694 694 694 707 721 728 728 728 743 728 728 714 714 700 694 694 687 681 669 663 639 657 657 657 651 657 669 675 687 700 700 694 687 687 687 681 675 675 669 669 669 669 681 663 663 669 645 657 663 657 675 669 681 681 681 694 694 694 700 694 700 687 681 687 687 687 694 700 714 714 714 714 714 714 700 700 694 687 687 687 694 687 681 694 687 681 681 651 651 639 651 663 694 700 700 694 687 687 687 687 687 687 687 687 687 687 687 687 681 675 645 657 669 663 669 651 618 629 639 634 634 629 634 639 657 657 657 651 663 651 669 651 651 639 657 651 663 663 657 663 669 663 675 651 651 639 639 645 634 629 629 623 618 623 618 623 623 618 618 634 0 0 0 0 0
    0 0 0 0 0 0 0 0 0 0 0 0 0 0 0 0 0 0 0 0 0 0 0 0 0 0 0 0 0 0 0 0 0 0 0 0 0 0 0 0 0 0 0 0 0 0 0 0 0 0 0 0 0 0 0 0 0 0 0 0 0 0 0 0 0 0 0 0 0 669 669 669 687 669 657 687 669 645 669 639 645 645 639 639 639 639 634 634 634 634 657 629 657 663 657 657 663 663 669 663 687 663 657 669 663 669 681 663 663 663 669 669 663 675 657 663 639 645 663 663 634 663 663 669 663 669 675 663 663 700 675 675 675 681 675 687 687 687 675 0 0 675 675 669 657 669 639 663 675 669 669 669 675 681 675 694 694 687 694 707 721 714 714 721 714 714 700 694 687 687 687 681 675 663 663 639 657 657 657 651 657 663 675 681 700 694 694 681 681 681 675 669 663 663 663 657 657 669 645 645 657 634 651 657 651 669 663 675 675 675 687 687 687 694 681 687 675 669 675 669 681 681 694 707 707 707 707 707 707 687 687 687 681 681 681 681 681 675 681 681 657 657 634 634 629 634 639 675 694 687 675 675 675 681 681 681 681 675 675 675 681 681 675 669 657 629 634 645 645 639 623 613 618 629 629 629 623 634 634 651 651 645 639 645 639 651 639 639 634 657 657 669 669 663 669 669 657 663 639 639 629 623 629 618 618 618 618 613 613 608 618 618 618 623 634 0 0 0 0 0
    0 0 0 0 0 0 0 0 0 0 0 0 0 0 0 0 0 0 0 0 0 0 0 0 0 0 0 0 0 0 0 0 0 0 0 0 0 0 0 0 0 0 0 0 0 0 0 0 0 0 0 0 0 0 0 0 0 0 0 0 0 0 0 0 0 0 0 0 0 669 669 669 687 669 669 694 681 669 681 651 657 651 645 639 645 639 634 634 0 0 657 629 663 663 657 657 663 663 669 657 687 651 645 657 657 663 675 651 651 651 663 663 657 669 657 663 651 645 669 669 634 669 663 669 669 675 675 669 669 700 675 675 675 675 663 675 675 675 657 0 0 657 663 669 651 663 639 663 675 669 669 669 675 675 675 687 687 681 687 700 707 700 707 707 700 694 687 681 675 675 675 675 669 663 663 639 663 663 663 657 657 669 669 675 700 687 694 681 681 681 675 663 663 663 663 651 651 657 639 639 651 629 645 651 645 663 657 669 669 669 687 681 681 687 669 675 663 657 663 651 669 675 687 700 694 694 694 694 700 675 675 675 675 675 669 675 669 663 675 669 645 645 629 629 623 634 634 669 687 687 657 663 663 669 669 669 669 657 657 669 675 663 657 651 634 623 623 623 618 613 608 608 608 613 618 618 623 629 629 645 639 639 634 634 634 639 634 639 634 663 663 681 681 669 669 669 651 645 634 634 629 618 623 618 613 613 613 603 603 603 613 613 608 613 623 0 0 0 0 0
    0 0 0 0 0 0 0 0 0 0 0 0 0 0 0 0 0 0 0 0 0 0 0 0 0 0 0 0 0 0 0 0 0 0 0 0 0 0 0 0 0 0 0 0 0 0 0 0 0 0 0 0 0 0 0 0 0 0 0 0 0 0 0 0 0 0 0 0 0 669 669 669 687 669 681 700 687 681 687 669 669 669 657 651 657 645 639 639 0 0 663 629 663 663 657 663 663 663 663 657 687 651 645 657 651 657 669 645 639 651 663 663 663 669 663 663 657 651 669 669 634 669 663 669 669 675 675 669 669 700 675 681 675 669 663 675 681 675 0 0 0 657 657 669 645 657 639 657 669 669 669 669 675 675 669 694 694 687 687 700 707 700 707 707 700 694 687 675 669 669 669 675 669 669 663 639 663 669 669 663 663 669 669 675 694 681 687 681 681 681 669 663 663 657 663 651 645 657 639 645 657 629 645 651 651 663 657 663 663 663 681 681 669 681 657 657 645 645 645 629 657 657 675 694 687 687 681 687 687 663 663 669 669 663 663 669 663 657 669 669 645 639 634 629 618 629 634 657 669 675 639 645 657 657 657 663 651 645 645 663 663 634 639 634 623 618 618 608 608 603 603 603 603 603 608 613 618 623 623 639 634 634 629 629 629 629 623 634 618 0 629 669 657 651 645 645 623 634 629 629 623 618 623 618 613 608 608 598 598 598 603 603 603 608 613 0 0 0 0 0
    0 0 0 0 0 0 0 0 0 0 0 0 0 0 0 0 0 0 0 0 0 0 0 0 0 0 0 0 0 0 0 0 0 0 0 0 0 0 0 0 0 0 0 0 0 0 0 0 0 0 0 0 0 0 0 0 0 0 0 0 0 0 0 0 0 0 0 0 0 663 663 669 687 669 687 707 694 687 694 675 681 675 663 657 663 657 0 0 0 0 657 629 657 657 657 657 657 663 663 663 694 657 651 669 651 663 669 645 639 645 657 657 0 669 663 663 657 645 669 669 634 669 663 669 669 675 681 669 669 700 681 687 681 669 663 675 675 675 663 663 657 657 657 669 645 657 639 651 669 669 669 669 669 675 669 687 694 687 687 700 714 707 714 714 707 694 687 681 675 675 675 675 669 669 669 639 669 669 669 663 663 669 669 675 694 681 687 681 681 681 669 663 663 657 657 651 645 657 645 651 657 629 645 651 651 663 657 663 663 657 681 675 663 675 651 651 639 639 639 623 639 657 675 694 687 687 681 687 687 657 657 669 663 663 657 663 663 657 669 669 645 639 634 629 618 623 629 651 663 669 634 651 657 657 663 663 645 639 639 663 645 623 623 618 613 608 608 598 598 593 598 598 598 598 608 608 613 623 623 634 623 629 623 623 618 618 618 618 608 0 603 603 608 613 618 618 613 618 623 623 623 618 618 613 608 603 603 593 593 593 598 598 598 603 608 0 0 0 0 0
    0 0 0 0 0 0 0 0 0 0 0 0 0 0 0 0 0 0 0 0 0 0 0 0 0 0 0 0 0 0 0 0 0 0 0 0 0 0 0 0 0 0 0 0 0 0 0 0 0 0 0 0 0 0 0 0 0 0 0 0 0 0 0 0 0 0 0 0 0 663 663 669 687 663 687 700 687 694 700 681 681 681 669 657 0 0 0 0 0 0 639 629 651 657 651 657 657 663 663 657 694 651 645 663 639 651 663 639 634 639 0 657 0 669 669 663 0 0 669 663 634 663 663 663 669 669 681 675 675 707 687 694 687 675 663 681 681 675 663 663 657 657 651 663 639 651 634 645 669 669 669 669 669 675 669 687 694 681 681 694 707 700 714 714 707 694 694 687 681 681 675 675 669 669 669 639 669 669 669 663 669 669 669 675 700 687 687 681 681 681 675 669 663 657 657 651 645 657 645 651 657 629 651 657 651 663 657 663 657 657 687 675 663 675 651 651 645 639 639 629 645 663 681 700 694 694 681 687 687 663 657 669 663 657 657 663 657 657 669 663 645 639 639 634 618 618 623 639 651 663 629 651 657 657 663 657 645 639 639 663 634 618 618 618 613 608 603 593 593 588 593 593 593 593 598 598 608 613 618 629 618 618 618 613 613 608 0 0 598 0 0 0 593 603 603 613 613 618 623 623 623 618 618 613 608 603 598 588 593 593 598 598 603 603 613 0 0 0 0 0
    0 0 0 0 0 0 0 0 0 0 0 0 0 0 0 0 0 0 0 0 0 0 0 0 0 0 0 0 0 0 0 0 0 0 0 0 0 0 0 0 0 0 0 0 0 0 0 0 0 0 0 0 0 0 0 0 0 0 0 0 0 0 0 0 0 0 0 0 0 663 663 669 681 639 681 700 669 681 700 675 687 687 663 651 651 645 629 623 0 629 634 623 651 651 645 651 651 657 657 651 694 634 629 623 618 618 629 618 618 629 0 645 657 669 675 651 0 0 0 651 623 651 657 657 669 669 675 675 675 707 694 700 694 675 669 0 675 669 663 651 651 645 645 657 634 651 634 639 669 669 663 669 669 669 663 681 687 669 669 687 694 694 707 707 700 681 694 694 687 681 675 669 669 675 675 634 669 669 669 669 669 669 669 675 700 687 694 687 687 687 675 669 663 657 657 651 645 657 645 651 657 629 651 657 651 663 657 663 663 657 687 675 663 675 657 651 645 639 639 629 651 669 681 700 700 700 687 687 694 663 663 669 663 657 657 663 657 651 663 663 639 639 639 634 623 618 623 634 645 657 623 645 651 651 657 657 645 639 639 663 634 618 623 618 613 608 603 593 593 588 588 588 584 584 588 593 598 603 608 618 608 613 608 608 608 603 603 0 0 0 0 0 0 603 603 608 613 618 623 623 623 613 613 613 603 598 598 588 598 598 603 603 603 608 608 0 0 0 0 0
    0 0 0 0 0 0 0 0 0 0 0 0 0 0 0 0 0 0 0 0 0 0 0 0 0 0 0 0 0 0 0 0 0 0 0 0 0 0 0 0 0 0 0 0 0 0 0 0 0 0 0 0 0 0 0 0 0 0 0 0 0 0 0 0 0 0 0 0 0 651 657 651 669 608 629 618 603 0 681 663 687 687 651 634 0 629 613 613 0 0 623 618 645 645 645 651 645 651 651 645 681 618 613 603 608 608 613 608 613 618 623 634 645 639 663 629 0 0 0 623 613 639 645 645 663 663 675 669 675 700 675 681 675 657 645 669 663 645 645 634 639 0 0 651 634 645 634 634 663 663 657 657 657 657 651 669 681 645 639 657 669 663 687 694 675 651 675 675 675 669 663 651 651 681 681 634 669 669 669 669 669 669 669 669 700 681 687 687 681 681 669 663 657 645 657 645 639 651 639 645 657 629 651 657 651 663 657 663 663 657 681 675 657 675 651 645 639 629 629 623 634 663 675 687 687 694 681 687 687 663 663 669 669 657 657 663 657 651 663 657 639 639 645 634 0 0 0 629 645 651 629 645 651 651 657 657 645 639 639 657 629 618 618 618 613 608 598 588 588 584 584 579 574 570 579 579 584 579 588 608 598 603 598 603 598 603 603 603 593 0 0 588 588 603 603 608 613 608 618 618 618 603 603 598 593 593 593 588 598 598 603 603 603 603 608 0 0 0 0 0
    0 0 0 0 0 0 0 0 0 0 0 0 0 0 0 0 0 0 0 0 0 0 0 0 0 0 0 0 0 0 0 0 0 0 0 0 0 0 0 0 0 0 0 0 0 0 0 0 0 0 0 0 0 0 0 0 0 0 0 0 0 0 0 0 0 0 0 0 0 639 645 639 639 603 608 603 593 598 608 618 657 675 629 618 0 603 588 588 588 0 608 0 634 639 634 639 639 639 639 629 651 608 608 598 603 603 608 608 608 618 618 629 639 629 0 0 588 593 608 603 603 623 629 634 651 657 663 657 663 687 645 657 639 629 623 634 629 0 618 613 618 0 0 623 618 634 623 618 645 645 639 639 639 639 634 651 669 618 618 618 618 608 613 608 603 608 623 634 651 639 634 623 629 669 681 629 669 669 663 663 663 663 657 657 694 663 663 675 681 681 663 657 651 639 651 645 634 645 634 634 645 623 645 651 645 657 657 657 663 651 675 663 634 657 634 629 623 618 623 623 623 657 663 675 675 687 675 681 681 657 663 669 663 651 651 657 657 651 663 651 634 634 0 0 0 0 0 629 645 651 629 645 651 657 651 651 645 639 639 651 629 618 618 618 613 608 598 588 588 584 584 579 570 570 570 570 574 566 574 598 588 598 598 598 598 598 603 598 588 588 579 579 570 588 570 579 584 588 603 598 598 584 584 584 579 579 588 579 593 593 598 598 603 603 603 0 0 0 0 0
    0 0 0 0 0 0 0 0 0 0 0 0 0 0 0 0 0 0 0 0 0 0 0 0 0 0 0 0 0 0 0 0 0 0 0 0 0 0 0 0 0 0 0 0 0 0 0 0 0 0 0 0 0 0 0 0 0 0 0 0 0 0 0 0 0 0 0 0 0 634 634 629 613 598 598 593 584 593 598 598 613 629 608 588 588 584 579 574 579 584 598 603 623 629 629 629 629 623 629 618 623 603 598 593 598 598 608 603 608 618 618 623 639 629 0 613 588 593 603 598 598 613 618 623 634 645 651 634 639 663 613 618 0 618 608 613 608 603 603 603 603 598 603 603 603 613 613 603 629 629 623 623 623 623 623 634 651 608 608 608 608 603 603 598 588 593 603 608 613 608 608 603 608 645 681 618 657 657 651 645 651 645 634 639 681 629 623 629 663 675 657 657 639 634 645 639 629 639 634 629 639 623 645 651 645 657 651 651 657 639 663 634 613 623 608 608 603 603 603 613 608 634 634 657 663 675 657 669 675 651 657 669 663 651 651 657 657 651 663 651 634 629 639 0 0 0 0 618 634 639 629 651 651 657 651 651 639 639 639 651 629 618 618 618 618 608 598 584 588 579 579 574 566 566 570 570 579 566 574 588 584 593 593 598 593 593 598 593 584 579 566 566 557 570 557 557 566 579 588 588 588 574 579 579 579 574 584 574 593 593 598 598 598 598 598 0 0 0 0 0
    0 0 0 0 0 0 0 0 0 0 0 0 0 0 0 0 0 0 0 0 0 0 0 0 0 0 0 0 0 0 0 0 0 0 0 0 0 0 0 0 0 0 0 0 0 0 0 0 0 0 0 0 0 0 0 0 0 0 0 0 0 0 0 0 0 0 0 0 0 618 618 608 598 584 588 584 579 584 588 584 598 603 593 574 584 574 579 574 574 579 588 593 0 618 0 623 618 0 618 0 0 598 593 588 593 593 603 603 603 613 613 618 629 618 0 608 584 588 598 593 593 603 608 613 613 629 634 623 623 623 603 603 603 608 603 603 603 593 598 598 598 593 593 598 598 603 608 588 613 613 613 613 613 613 613 618 634 603 598 598 598 593 588 584 579 579 588 593 598 598 598 593 603 618 651 613 645 645 639 634 634 629 623 623 651 613 608 608 618 639 639 645 634 629 634 634 629 639 629 629 634 629 645 651 645 651 645 645 651 634 639 623 608 608 603 603 598 598 598 603 598 608 608 618 623 639 634 645 663 639 645 663 657 645 651 657 657 651 663 651 634 623 629 608 598 593 603 603 618 618 623 651 657 657 651 651 639 639 645 651 629 618 618 618 613 603 598 579 584 574 574 570 566 566 574 570 579 566 570 579 570 584 584 588 588 584 588 584 579 574 566 566 557 570 561 557 570 584 593 584 588 579 579 584 584 574 584 570 593 588 593 588 588 588 588 0 0 0 0 0
    0 0 0 0 0 0 0 0 0 0 0 0 0 0 0 0 0 0 0 0 0 0 0 0 0 0 0 0 0 0 0 0 0 0 0 0 0 0 0 0 0 0 0 0 0 0 0 0 0 0 0 0 0 0 0 0 0 0 0 0 0 0 0 0 0 0 0 0 0 598 598 588 579 570 574 574 570 574 584 579 588 593 584 566 579 574 579 574 574 574 584 588 603 603 608 0 0 603 608 603 603 593 588 588 588 588 598 593 593 603 603 603 613 608 603 598 574 588 588 588 584 598 598 603 603 618 618 608 608 608 593 593 593 598 598 598 598 588 593 593 588 588 588 588 588 593 598 584 603 603 603 603 603 603 603 608 618 598 588 593 593 584 579 574 574 574 579 584 593 593 593 593 598 608 613 603 623 623 629 618 618 613 608 613 618 603 598 598 603 608 618 629 623 618 629 623 623 634 623 618 623 623 639 645 639 651 639 639 645 629 629 613 603 598 593 593 593 588 593 603 593 598 598 598 603 613 608 629 651 634 639 651 651 639 651 651 651 645 651 634 623 613 608 593 588 588 593 593 603 603 618 645 651 651 645 645 639 639 639 645 623 613 613 618 613 598 593 574 574 574 570 570 566 566 574 566 579 566 570 579 566 574 579 584 579 579 584 574 570 570 566 566 561 566 561 553 570 579 584 574 579 570 570 574 579 566 579 566 593 584 584 584 579 579 579 0 0 0 0 0
    0 0 0 0 0 0 0 0 0 0 0 0 0 0 0 0 0 0 0 0 0 0 0 0 0 0 0 0 0 0 0 0 0 0 0 0 0 0 0 0 0 0 0 0 0 0 0 0 0 0 0 0 0 0 0 0 0 0 0 0 0 0 0 0 0 0 0 0 0 579 584 574 566 566 570 570 566 570 579 574 579 584 574 561 574 570 574 574 574 574 579 584 593 598 598 603 598 593 603 598 593 588 588 584 588 588 588 588 588 588 588 593 603 598 593 593 570 584 584 584 579 588 588 588 588 603 598 593 593 598 588 588 588 593 593 593 593 584 588 588 584 584 584 584 584 588 593 574 593 598 598 593 598 598 593 598 608 593 588 588 588 574 574 570 570 566 570 579 588 588 588 588 593 598 603 593 613 613 618 608 608 608 603 603 608 598 588 588 598 598 603 613 608 608 613 613 618 629 618 613 613 618 634 639 634 645 634 634 645 623 613 603 598 593 588 588 588 584 588 598 588 588 593 588 588 593 588 613 623 623 629 634 634 634 639 639 634 634 639 623 618 603 603 588 588 588 588 593 598 598 613 645 651 651 639 639 639 639 639 639 618 613 608 613 608 588 584 570 574 570 570 566 566 566 579 566 574 566 561 574 557 557 561 570 561 566 574 561 557 561 561 557 557 561 557 553 566 566 566 561 566 561 557 561 566 557 566 0 0 574 579 579 574 579 579 0 0 0 0 0
    0 0 0 0 0 0 0 0 0 0 0 0 0 0 0 0 0 0 0 0 0 0 0 0 0 0 0 0 0 0 0 0 0 0 0 0 0 0 0 0 0 0 0 0 0 0 0 0 0 0 0 0 0 0 0 0 0 0 0 0 0 0 0 0 0 0 0 0 0 574 579 570 561 566 570 570 566 566 574 570 574 574 566 557 570 570 570 570 570 570 574 584 588 588 593 593 588 584 593 588 584 579 584 574 584 584 588 584 584 584 584 588 598 593 593 588 570 584 584 584 574 579 579 584 579 593 584 574 579 588 579 579 584 584 584 584 588 579 584 584 579 579 579 579 579 584 588 570 588 588 588 588 593 588 588 593 603 588 588 588 584 570 570 570 566 570 570 574 579 579 584 584 588 588 593 588 598 603 613 598 603 598 598 598 598 588 584 584 593 593 593 598 598 593 603 603 608 618 613 603 603 608 629 634 629 634 629 623 629 618 598 598 588 584 579 579 584 579 584 598 584 588 593 584 588 588 588 593 603 608 613 613 618 618 623 623 623 618 623 613 613 593 598 588 588 588 588 588 593 593 608 634 639 639 629 629 634 634 634 634 613 608 603 608 603 579 579 570 570 570 566 566 566 566 574 561 566 557 549 0 541 537 537 545 541 545 549 545 549 549 553 553 553 561 553 549 561 553 553 545 0 545 541 553 549 549 557 0 0 566 566 574 566 570 570 0 0 0 0 0
    0 0 0 0 0 0 0 0 0 0 0 0 0 0 0 0 0 0 0 0 0 0 0 0 0 0 0 0 0 0 0 0 0 0 0 0 0 0 0 0 0 0 0 0 0 0 0 0 0 0 0 0 0 0 0 0 0 0 0 0 0 0 0 0 0 0 0 0 0 561 566 566 561 566 566 566 561 566 574 570 574 574 566 561 570 570 570 570 570 570 574 579 588 584 588 588 579 584 593 584 584 579 584 579 584 584 588 579 579 584 579 584 593 588 588 584 570 584 588 584 579 579 579 579 579 588 579 570 579 588 579 579 584 584 584 584 584 584 584 584 579 579 584 584 579 584 584 566 584 584 579 579 584 584 579 584 598 579 584 584 579 570 570 566 566 566 570 570 574 574 579 579 584 579 584 579 588 593 603 579 593 588 588 588 593 588 584 584 593 588 588 593 593 588 598 593 598 608 603 593 598 598 618 623 623 623 613 608 618 608 574 588 584 574 579 579 579 579 584 593 584 584 593 579 584 579 584 579 588 598 593 598 603 603 613 613 613 608 613 603 608 588 593 588 588 588 588 588 588 588 603 623 629 629 618 623 623 629 629 623 608 603 598 603 598 570 579 570 570 570 566 566 561 561 574 553 557 549 541 537 533 529 529 529 529 533 537 537 541 545 549 553 553 557 553 549 557 545 541 533 525 533 529 537 537 533 541 537 549 549 545 557 549 553 549 0 0 0 0 0
    0 0 0 0 0 0 0 0 0 0 0 0 0 0 0 0 0 0 0 0 0 0 0 0 0 0 0 0 0 0 0 0 0 0 0 0 0 0 0 0 0 0 0 0 0 0 0 0 0 0 0 0 0 0 0 0 0 0 0 0 0 0 0 0 0 0 0 0 0 549 561 561 561 566 570 566 566 570 579 574 579 574 566 561 570 570 570 570 570 566 570 579 584 579 588 584 579 584 593 588 584 579 588 584 588 588 588 584 584 584 584 584 588 588 588 584 574 588 588 584 579 584 579 579 584 588 574 566 574 588 584 584 588 588 588 588 588 584 584 584 579 584 584 584 584 588 584 570 584 584 579 574 579 574 574 584 593 574 579 579 574 566 566 561 566 561 566 566 570 570 574 579 584 574 579 574 584 584 593 561 579 579 584 584 588 584 584 584 593 588 588 584 588 579 588 584 588 598 598 588 593 593 608 608 608 603 593 579 598 588 561 584 579 574 579 579 584 579 584 593 584 584 593 579 584 579 579 570 579 588 579 588 588 584 593 598 598 598 598 598 603 584 593 588 584 588 588 588 588 588 603 608 618 618 608 613 613 618 613 608 603 593 593 598 593 561 579 570 570 566 566 566 566 561 579 553 557 549 537 537 529 525 529 525 525 529 533 537 541 545 553 553 553 557 549 545 549 537 533 521 521 525 525 529 529 525 525 521 529 529 529 537 533 537 0 0 0 0 0 0
    0 0 0 0 0 0 0 0 0 0 0 0 0 0 0 0 0 0 0 0 0 0 0 0 0 0 0 0 0 0 0 0 0 0 0 0 0 0 0 0 0 0 0 0 0 0 0 0 0 0 0 0 0 0 0 0 0 0 0 0 0 0 0 0 0 0 0 0 0 549 561 566 566 570 570 570 570 574 588 579 579 574 566 561 570 566 570 566 566 566 570 574 584 579 584 584 579 579 593 588 579 574 584 579 584 588 588 584 584 584 588 584 588 588 588 584 574 588 588 588 584 584 579 579 584 588 574 570 574 588 584 584 588 588 588 588 588 584 588 584 579 584 584 584 579 588 579 570 579 584 574 574 579 574 574 584 593 574 579 579 574 566 566 561 566 561 566 566 570 570 574 579 579 570 574 574 579 579 584 557 574 570 579 579 584 579 579 579 593 584 588 579 584 574 579 574 584 593 593 588 598 0 613 603 598 588 574 570 584 574 557 579 579 574 579 579 584 579 584 593 579 584 588 579 584 574 574 561 570 579 566 574 574 566 579 588 584 588 588 593 593 579 588 584 584 588 584 588 588 584 598 603 608 608 598 603 598 603 603 598 598 588 588 593 588 557 579 574 574 566 570 570 570 566 584 553 557 549 537 533 529 525 525 525 521 525 533 537 537 541 549 545 545 549 545 541 545 533 529 518 521 521 525 525 525 521 521 514 525 518 521 533 529 533 533 0 0 0 0 0
    0 0 0 0 0 0 0 0 0 0 0 0 0 0 0 0 0 0 0 0 0 0 0 0 0 0 0 0 0 0 0 0 0 0 0 0 0 0 0 0 0 0 0 0 0 0 0 0 0 0 0 0 0 0 0 0 0 0 0 0 0 0 0 0 0 0 0 0 0 553 561 566 566 570 570 574 574 579 588 584 579 570 566 557 566 566 570 566 566 566 570 574 584 579 584 574 570 574 588 579 570 570 579 579 584 588 584 584 579 584 584 584 584 588 584 579 574 588 588 588 584 584 584 579 584 593 579 574 579 588 588 588 588 588 593 593 593 588 588 588 584 588 588 584 584 588 579 570 579 579 574 570 574 574 574 584 593 570 579 579 574 566 566 561 566 561 566 570 570 570 574 579 579 566 574 570 579 579 584 557 574 570 579 579 579 579 579 579 593 584 588 584 588 574 579 574 584 593 593 593 598 0 613 608 603 588 579 570 579 579 557 574 579 570 579 579 584 579 579 593 579 579 588 579 584 574 574 561 566 579 566 574 570 566 570 584 574 588 584 588 593 574 588 584 584 588 584 588 588 584 598 598 598 598 588 593 588 588 584 584 584 574 574 584 574 553 574 570 570 566 570 570 570 561 579 549 553 545 537 533 529 525 525 525 521 525 529 533 537 541 545 545 541 545 545 541 541 529 525 514 521 521 521 521 521 521 521 518 525 518 521 529 525 529 521 0 0 0 0 0
    0 0 0 0 0 0 0 0 0 0 0 0 0 0 0 0 0 0 0 0 0 0 0 0 0 0 0 0 0 0 0 0 0 0 0 0 0 0 0 0 0 0 0 0 0 0 0 0 0 0 0 0 0 0 0 0 0 0 0 0 0 0 0 0 0 0 0 0 0 557 0 566 566 566 570 570 574 579 584 584 579 566 566 557 566 566 570 566 566 566 570 570 584 579 579 570 566 574 588 584 570 570 579 579 579 588 584 584 579 584 579 579 579 584 584 579 570 588 588 588 588 588 584 584 588 593 579 579 584 593 593 588 593 593 593 598 598 588 593 588 584 588 588 588 584 588 579 570 584 579 574 574 574 574 574 584 588 570 579 579 574 566 566 561 570 561 570 570 570 570 574 579 579 566 570 574 579 579 584 557 574 570 579 579 579 579 579 579 593 584 588 584 584 579 579 574 584 593 593 598 603 613 618 613 603 579 570 566 574 579 557 574 579 570 579 579 579 579 579 588 579 579 588 584 584 579 574 566 570 579 570 574 570 566 574 584 579 588 579 584 588 574 584 584 584 588 584 588 584 584 593 593 588 588 579 584 574 579 570 570 574 566 561 570 561 545 570 570 566 566 566 570 570 561 579 545 545 541 533 533 525 525 525 529 525 529 529 0 533 537 545 545 541 545 545 537 537 529 525 514 521 521 521 521 521 521 525 518 529 521 525 533 525 525 514 0 0 0 0 0
    0 0 0 0 0 0 0 0 0 0 0 0 0 0 0 0 0 0 0 0 0 0 0 0 0 0 0 0 0 0 0 0 0 0 0 0 0 0 0 0 0 0 0 0 0 0 0 0 0 0 0 0 0 0 0 0 0 0 0 0 0 0 0 0 0 0 0 0 0 0 0 557 557 557 561 561 566 570 574 579 574 566 561 553 561 566 570 566 566 566 570 574 588 584 588 579 570 579 593 584 566 566 574 574 579 588 584 584 579 584 584 584 584 584 584 579 574 588 588 593 588 588 588 584 588 593 584 579 584 593 593 593 598 593 598 598 598 588 588 588 584 588 588 588 584 588 574 570 584 579 574 574 579 574 574 588 588 570 584 584 574 570 570 566 570 566 566 566 566 566 574 574 574 566 570 574 574 579 584 557 574 570 584 579 579 574 579 579 593 584 588 584 584 579 579 579 588 593 598 603 608 618 618 618 603 570 570 561 570 579 553 570 574 570 574 574 579 574 579 588 584 584 588 584 588 579 574 566 570 574 566 570 566 566 570 584 579 584 579 584 584 574 584 584 579 588 584 588 584 584 593 588 584 588 574 579 570 574 566 566 570 561 561 570 561 549 570 570 570 566 566 570 570 561 579 541 541 541 533 533 525 525 525 529 521 529 529 0 529 537 541 541 541 541 541 537 533 525 525 511 518 518 521 521 521 521 525 518 529 521 525 529 514 514 493 0 0 0 0 0
    0 0 0 0 0 0 0 0 0 0 0 0 0 0 0 0 0 0 0 0 0 0 0 0 0 0 0 0 0 0 0 0 0 0 0 0 0 0 0 0 0 0 0 0 0 0 0 0 0 0 0 0 0 0 0 0 0 0 0 0 0 0 0 0 0 0 0 0 0 0 0 0 0 0 545 541 545 541 545 549 537 557 557 549 561 566 570 566 566 566 570 574 588 588 593 0 0 0 0 0 549 561 0 570 574 584 579 579 579 584 584 584 584 584 579 574 574 588 588 593 588 584 584 584 588 593 579 574 579 593 598 593 598 593 593 598 598 588 588 588 584 588 588 588 584 588 570 570 579 579 574 574 579 574 574 593 593 574 584 588 574 574 574 570 570 566 570 566 566 566 570 570 574 561 570 570 574 574 579 557 574 570 584 579 579 579 574 579 593 579 584 579 584 579 579 584 593 598 603 613 613 623 623 629 608 588 579 561 570 574 553 570 574 566 574 574 579 574 579 588 584 584 593 588 588 579 574 561 570 570 566 570 561 566 570 579 579 584 574 579 579 574 579 584 579 584 584 588 584 584 593 588 584 584 570 570 566 570 566 566 566 561 561 570 566 549 570 570 570 566 566 570 566 557 574 537 537 537 533 533 525 521 521 525 518 521 525 529 525 529 533 537 537 541 537 533 529 525 521 511 518 518 518 518 521 525 525 521 533 521 521 0 0 481 481 0 0 0 0 0
    0 0 0 0 0 0 0 0 0 0 0 0 0 0 0 0 0 0 0 0 0 0 0 0 0 0 0 0 0 0 0 0 0 0 0 0 0 0 0 0 0 0 0 0 0 0 0 0 0 0 0 0 0 0 0 0 0 0 0 0 0 0 0 0 0 0 0 0 0 0 0 0 0 0 0 0 533 529 533 537 529 545 549 545 557 561 566 561 557 561 566 570 584 584 0 570 0 570 0 0 0 0 0 561 566 584 574 570 570 579 574 574 574 574 566 566 570 584 588 588 588 584 584 579 588 593 579 574 579 593 598 598 603 593 593 593 593 584 588 584 584 588 588 588 584 584 566 566 574 574 566 570 570 570 570 593 588 570 588 593 579 584 579 570 570 566 570 566 561 561 566 566 566 557 566 566 566 570 574 553 570 566 579 574 574 574 570 574 593 574 584 570 579 574 570 579 584 593 603 613 613 623 623 623 603 584 570 557 561 570 553 566 570 566 570 574 574 574 574 588 584 584 593 593 588 579 574 561 566 570 561 566 561 566 566 579 579 579 574 570 579 570 579 584 579 584 584 584 588 584 593 588 584 588 574 574 566 574 566 566 566 561 566 570 566 549 566 570 570 566 566 566 566 557 570 537 537 533 529 533 525 521 525 525 518 518 521 525 521 521 525 533 529 533 529 521 521 518 518 507 514 514 518 518 521 521 525 521 533 521 525 0 484 481 481 0 0 0 0 0
    0 0 0 0 0 0 0 0 0 0 0 0 0 0 0 0 0 0 0 0 0 0 0 0 0 0 0 0 0 0 0 0 0 0 0 0 0 0 0 0 0 0 0 0 0 0 0 0 0 0 0 0 0 0 0 0 0 0 0 0 0 0 0 0 0 0 0 0 0 0 525 0 0 0 0 0 0 521 0 529 518 533 545 541 553 557 561 557 553 557 561 561 579 579 0 0 0 0 0 0 514 0 0 557 557 574 566 561 561 566 0 561 561 557 553 553 561 579 579 584 584 579 579 579 588 593 579 574 584 598 603 603 603 598 593 598 593 584 588 584 584 588 584 584 574 579 557 557 566 561 557 561 566 561 561 588 579 557 574 584 574 579 574 561 561 561 566 561 561 557 561 561 561 557 561 561 561 561 566 549 566 561 574 566 566 566 566 566 588 561 566 553 557 561 557 557 557 557 557 593 574 0 0 0 0 557 561 553 557 566 553 566 570 566 570 574 574 574 574 588 588 588 598 598 593 584 570 557 566 566 561 561 557 561 566 579 579 574 570 566 574 570 574 584 574 579 579 584 584 584 588 588 584 588 579 574 570 574 570 570 566 566 566 570 570 549 566 566 570 566 561 566 561 553 561 537 533 533 529 529 525 525 525 529 518 521 525 525 514 511 511 521 521 525 521 514 514 514 514 507 514 514 518 518 521 521 521 521 533 518 518 481 484 484 481 0 0 0 0 0
    0 0 0 0 0 0 0 0 0 0 0 0 0 0 0 0 0 0 0 0 0 0 0 0 0 0 0 0 0 0 0 0 0 0 0 0 0 0 0 0 0 0 0 0 0 0 0 0 0 0 0 0 0 0 0 0 0 0 0 0 0 0 0 0 0 0 0 0 0 0 514 0 0 0 0 0 0 514 0 0 511 521 533 518 549 553 557 557 549 553 561 557 574 0 0 0 514 0 525 514 497 0 521 553 549 566 557 553 0 553 0 0 549 545 0 0 553 566 566 574 570 566 561 561 570 579 557 557 566 588 598 593 598 593 588 593 588 579 579 579 579 584 574 570 561 570 549 549 557 553 549 553 557 553 549 579 557 541 541 549 0 553 549 553 549 553 557 557 557 553 557 557 557 553 557 557 557 557 557 541 561 557 570 561 557 557 557 557 574 549 549 537 537 545 545 545 545 537 533 0 570 0 0 477 0 0 561 553 553 561 553 561 570 566 570 570 574 574 574 584 584 579 588 593 584 570 557 549 557 557 561 557 557 557 561 570 566 561 557 553 570 561 570 579 570 579 579 579 584 579 588 588 579 588 574 570 566 574 570 566 566 566 566 570 570 549 566 566 570 566 561 561 561 553 557 537 529 529 529 529 525 521 525 525 514 518 521 518 507 500 493 511 518 521 518 511 511 514 511 507 514 514 518 518 518 521 521 521 529 514 507 477 477 481 477 0 0 0 0 0
    0 0 0 0 0 0 0 0 0 0 0 0 0 0 0 0 0 0 0 0 0 0 0 0 0 0 0 0 0 0 0 0 0 0 0 0 0 0 0 0 0 0 0 0 0 0 0 0 0 0 0 0 0 0 0 0 0 0 0 0 0 0 0 0 0 0 0 0 0 0 500 0 497 504 0 507 507 507 511 514 507 521 525 504 545 549 553 553 0 0 557 553 0 0 0 0 0 0 518 504 497 514 518 537 541 549 545 541 0 541 0 0 0 484 481 481 0 553 553 566 557 553 553 553 553 561 0 0 553 574 574 566 584 584 566 579 570 561 566 566 570 574 561 557 553 561 545 545 549 545 541 545 549 545 541 549 541 533 525 529 525 525 525 533 518 0 0 0 549 549 549 549 549 549 549 549 549 549 549 537 557 557 566 557 549 549 549 549 557 537 537 529 525 533 537 537 537 529 521 0 0 0 0 477 471 0 0 545 545 549 549 561 570 566 570 566 570 570 570 579 570 561 561 557 553 549 541 545 545 549 557 553 549 553 553 561 549 545 545 545 561 557 566 574 566 574 574 579 579 574 584 584 574 584 570 566 557 557 557 553 557 553 557 557 557 545 566 566 570 566 561 566 561 553 557 537 529 529 525 525 521 521 521 525 511 511 511 500 497 490 487 500 507 511 511 507 507 511 507 507 514 514 518 518 518 525 521 521 533 518 511 481 477 481 474 0 0 0 0 0
    0 0 0 0 0 0 0 0 0 0 0 0 0 0 0 0 0 0 0 0 0 0 0 0 0 0 0 0 0 0 0 0 0 0 0 0 0 0 0 0 0 0 0 0 0 0 0 0 0 0 0 0 0 0 0 0 0 0 0 0 0 0 0 0 0 0 0 0 0 0 497 504 493 500 504 504 504 504 507 507 504 514 507 490 0 0 0 0 0 0 0 0 0 0 0 0 0 0 507 497 490 500 511 518 529 529 533 521 507 511 0 0 0 481 481 481 481 511 521 553 545 541 0 0 0 0 529 533 533 549 0 541 545 566 549 557 553 553 553 561 570 570 553 0 549 553 541 533 537 537 537 537 541 537 533 533 533 525 511 518 514 507 511 514 500 500 0 0 0 0 0 0 533 541 0 541 537 537 537 529 553 553 561 553 545 541 541 541 545 529 525 521 514 525 529 529 529 521 514 0 537 0 514 481 481 484 521 525 529 533 541 553 566 561 566 566 561 566 566 574 557 545 545 533 533 533 529 529 533 533 545 541 545 545 549 549 0 529 533 537 557 553 561 566 561 566 570 570 574 566 574 570 561 570 553 557 545 541 0 537 541 537 533 541 533 541 561 566 566 566 561 566 561 553 553 537 529 525 525 525 521 518 518 521 504 500 500 487 490 487 487 493 500 504 507 500 507 504 504 507 511 511 514 518 518 525 521 525 533 521 511 484 474 474 474 0 0 0 0 0
    0 0 0 0 0 0 0 0 0 0 0 0 0 0 0 0 0 0 0 0 0 0 0 0 0 0 0 0 0 0 0 0 0 0 0 0 0 0 0 0 0 0 0 0 0 0 0 0 0 0 0 0 0 0 0 0 0 0 0 0 0 0 0 0 0 0 0 0 0 0 490 497 490 500 500 500 500 500 500 504 500 514 504 490 490 0 0 0 0 0 0 0 0 0 0 0 0 0 507 504 493 504 511 511 518 518 518 507 493 493 0 0 481 477 477 481 481 487 0 0 0 0 507 514 507 514 511 507 511 525 525 533 533 537 537 545 545 549 549 557 561 557 545 0 0 545 533 518 529 529 529 529 533 525 521 521 529 518 497 507 504 497 500 504 497 490 0 0 493 514 514 0 514 529 529 533 529 529 529 521 545 549 553 545 533 537 533 533 537 525 518 514 507 521 521 521 518 511 500 518 525 500 500 487 487 490 507 514 511 518 533 545 557 557 561 557 557 557 561 566 549 533 533 518 518 518 518 514 518 521 533 525 529 529 533 529 525 518 514 521 545 549 553 561 557 561 561 561 566 557 557 553 549 553 537 537 529 504 0 500 504 507 507 521 511 518 557 557 561 561 561 566 557 553 549 537 525 521 525 521 521 518 514 518 500 493 497 487 490 487 487 493 493 497 504 493 504 500 500 504 511 504 511 514 518 521 518 521 525 504 500 484 474 474 474 0 0 0 0 0
    0 0 0 0 0 0 0 0 0 0 0 0 0 0 0 0 0 0 0 0 0 0 0 0 0 0 0 0 0 0 0 0 0 0 0 0 0 0 0 0 0 0 0 0 0 0 0 0 0 0 0 0 0 0 0 0 0 0 0 0 0 0 0 0 0 0 0 0 0 481 484 490 487 497 497 497 497 497 500 500 500 514 500 487 487 497 0 0 497 0 0 518 521 521 511 0 507 529 507 504 497 504 511 511 518 514 518 504 490 490 0 481 481 477 481 481 484 490 0 0 497 493 493 493 490 493 490 493 497 511 514 525 521 529 529 533 533 545 537 549 553 549 529 0 525 529 521 500 518 518 518 518 521 514 507 511 521 500 490 497 493 493 493 493 493 490 493 0 490 500 500 500 504 500 518 518 507 514 511 507 533 541 537 537 518 525 525 525 525 514 507 507 500 518 514 511 500 497 490 497 487 487 493 487 487 490 500 507 500 511 525 541 553 553 557 557 557 557 557 557 541 507 518 497 500 500 504 500 500 511 525 518 525 525 525 521 521 518 511 518 533 541 549 553 553 557 557 557 557 553 549 545 537 541 521 521 507 487 490 487 490 493 493 504 493 497 549 553 557 557 557 561 553 549 545 533 521 518 521 518 518 514 511 514 500 493 497 487 493 490 490 493 497 497 504 493 504 497 497 504 504 500 507 511 514 518 514 521 521 497 497 484 474 474 477 0 0 0 0 0
    0 0 0 0 0 0 0 0 0 0 0 0 0 0 0 0 0 0 0 0 0 0 0 0 0 0 0 0 0 0 0 0 0 0 0 0 0 0 0 0 0 0 0 0 0 0 0 0 0 0 0 0 0 0 0 0 0 0 0 0 0 0 0 0 0 0 0 0 0 0 487 493 487 497 497 497 500 500 500 500 500 518 504 487 484 490 487 490 490 497 500 500 504 507 504 504 504 521 500 497 493 500 504 504 511 507 514 504 493 490 0 484 481 481 481 484 484 487 487 0 490 487 487 487 487 487 487 490 493 500 507 514 507 514 511 511 514 533 525 541 545 541 511 507 514 514 511 493 507 504 504 507 507 504 497 497 511 493 487 493 490 487 490 490 490 487 490 500 490 500 500 500 500 497 504 500 497 497 497 497 518 525 525 525 500 511 511 511 511 500 500 500 497 511 504 500 493 490 487 487 481 484 487 487 487 490 497 504 497 504 518 521 541 545 549 549 549 553 549 549 529 493 504 490 493 493 497 497 497 507 518 507 518 518 521 514 511 511 500 514 533 533 545 549 549 553 553 553 549 545 541 533 525 525 504 507 497 484 487 484 487 487 490 493 487 487 545 549 549 549 553 557 549 545 537 529 514 514 518 511 514 511 507 511 500 490 497 487 490 490 490 493 493 497 504 493 504 500 497 504 500 497 500 507 511 514 514 521 518 497 497 484 477 474 477 0 0 0 0 0
    0 0 0 0 0 0 0 0 0 0 0 0 0 0 0 0 0 0 0 0 0 0 0 0 0 0 0 0 0 0 0 0 0 0 0 0 0 0 0 0 0 0 0 0 0 0 0 0 0 0 0 0 0 0 0 0 0 0 0 0 0 0 0 0 0 0 0 0 0 490 490 497 487 497 497 497 497 497 500 500 497 514 500 484 484 484 487 487 487 493 497 493 497 500 500 500 504 518 500 500 500 507 507 504 507 504 511 500 493 493 487 487 484 484 484 484 487 487 487 490 487 490 487 487 487 487 487 490 490 497 500 507 500 504 497 497 500 518 511 0 0 0 493 497 500 500 500 490 497 497 497 497 497 493 490 490 500 490 487 490 487 487 487 487 490 487 490 497 490 497 497 497 500 493 500 493 490 490 490 490 500 504 507 511 493 497 500 504 500 497 497 497 497 507 500 497 493 490 487 487 481 481 484 487 487 487 493 500 497 500 507 504 525 537 541 541 541 541 541 541 511 490 497 490 490 493 493 497 493 500 511 500 511 514 511 511 504 500 497 500 521 521 0 541 541 545 541 541 537 537 533 521 507 511 493 497 490 481 484 484 484 487 487 490 487 484 533 541 541 545 553 553 545 541 529 521 507 507 511 507 511 511 507 511 500 490 497 487 490 490 490 493 493 493 504 493 500 497 493 497 493 490 493 500 504 504 504 518 511 490 487 481 474 474 477 0 0 0 0 0
    0 0 0 0 0 0 0 0 0 0 0 0 0 0 0 0 0 0 0 0 0 0 0 0 0 0 0 0 0 0 0 0 0 0 0 0 0 0 0 0 0 0 0 0 0 0 0 0 0 0 0 0 0 0 0 0 0 0 0 0 0 0 0 0 0 0 0 0 0 490 490 493 487 497 497 497 497 497 497 497 497 514 493 484 477 481 487 487 487 493 493 493 493 497 497 497 500 511 497 504 500 511 511 504 511 504 507 500 493 493 490 490 487 487 487 487 487 490 490 493 487 490 487 487 487 487 490 490 490 493 497 504 497 497 493 490 493 507 493 0 0 490 490 493 497 493 493 487 493 493 490 490 490 490 487 487 493 487 484 490 487 487 490 487 490 487 490 497 490 493 497 493 497 490 493 484 484 484 484 484 493 493 497 500 490 493 497 497 497 493 497 497 497 507 500 497 493 490 487 484 481 481 484 484 487 487 490 493 490 493 500 493 507 507 525 518 518 525 521 521 497 487 493 490 490 493 493 493 493 500 507 497 507 507 504 507 500 497 497 497 507 504 514 521 521 529 525 525 525 521 518 504 493 497 490 493 490 481 484 0 487 487 487 487 484 484 514 521 529 533 545 549 537 529 521 514 500 500 504 500 504 507 504 507 500 490 493 487 490 490 490 493 493 493 504 493 504 497 493 493 484 477 471 471 474 474 474 477 474 457 471 468 465 471 474 0 0 0 0 0
    0 0 0 0 0 0 0 0 0 0 0 0 0 0 0 0 0 0 0 0 0 0 0 0 0 0 0 0 0 0 0 0 0 0 0 0 0 0 0 0 0 0 0 0 0 0 0 0 0 0 0 0 0 0 0 0 0 0 0 0 0 0 0 0 0 0 0 0 0 490 490 493 487 497 497 497 497 497 497 497 497 514 493 484 477 477 487 490 490 493 497 493 493 497 500 500 500 514 504 507 507 514 511 504 507 500 504 497 493 490 487 490 487 487 490 487 490 490 490 493 490 490 487 487 487 487 490 490 490 497 500 507 500 500 493 493 493 504 487 477 471 481 487 493 497 493 493 487 493 493 490 490 490 487 487 487 490 487 484 490 487 487 487 487 490 487 490 493 490 493 497 493 497 487 490 481 481 481 481 484 490 490 497 493 487 490 493 497 493 493 493 493 497 507 497 497 490 490 490 487 481 481 484 487 487 490 493 493 490 493 493 490 493 490 493 490 490 490 490 493 490 487 490 487 490 490 493 493 493 497 504 497 504 504 500 504 497 497 497 497 504 500 500 507 507 511 507 507 507 507 504 497 490 490 487 490 487 481 0 0 484 487 487 487 484 484 504 497 507 518 537 545 521 511 504 497 493 493 493 490 493 497 493 497 497 487 490 487 490 490 490 490 490 493 500 497 504 497 490 487 477 468 462 448 451 451 451 451 454 448 462 465 468 471 474 0 0 0 0 0
    0 0 0 0 0 0 0 0 0 0 0 0 0 0 0 0 0 0 0 0 0 0 0 0 0 0 0 0 0 0 0 0 0 0 0 0 0 0 0 0 0 0 0 0 0 0 0 0 0 0 0 0 0 0 0 0 0 0 0 0 0 0 0 0 0 0 0 0 0 490 493 497 487 497 497 497 497 497 500 497 497 518 490 484 477 477 490 493 490 497 500 497 497 500 504 504 500 514 504 507 507 511 511 504 504 500 504 497 493 490 490 490 490 490 490 490 490 490 493 497 490 490 490 490 490 490 490 493 490 497 507 507 500 500 493 493 490 497 487 477 471 481 487 497 497 497 497 487 493 490 490 490 487 487 484 487 490 487 487 490 487 487 484 487 490 487 490 493 493 497 497 493 497 487 490 481 481 477 481 484 490 490 497 493 487 490 493 493 493 490 493 493 493 504 493 493 490 490 487 484 481 481 484 487 490 490 493 490 490 493 493 490 487 484 487 484 484 484 484 490 487 487 490 487 490 490 490 493 490 493 500 493 500 500 500 497 490 490 490 490 497 493 497 497 500 504 497 497 497 497 497 490 487 487 487 490 487 481 0 0 0 487 487 487 484 484 500 484 490 497 521 0 487 484 490 484 490 487 484 481 484 487 487 487 493 484 484 484 487 487 487 490 490 490 497 493 497 490 484 481 468 462 457 443 446 443 443 446 446 443 454 462 468 471 474 0 0 0 0 0
    0 0 0 0 0 0 0 0 0 0 0 0 0 0 0 0 0 0 0 0 0 0 0 0 0 0 0 0 0 0 0 0 0 0 0 0 0 0 0 0 0 0 0 0 0 0 0 0 0 0 0 0 0 0 0 0 0 0 0 0 0 0 0 0 0 0 0 0 0 497 497 500 487 497 497 497 497 497 497 497 493 518 493 487 487 487 497 497 493 504 500 500 500 500 504 504 500 514 504 511 507 514 511 500 504 500 504 497 493 490 490 493 490 490 493 490 493 493 497 500 493 493 497 493 493 493 493 497 490 497 507 504 497 493 490 487 487 490 484 474 474 481 487 497 497 493 493 487 490 490 490 487 487 487 484 484 487 484 484 487 484 484 484 484 487 487 490 497 493 500 500 493 497 487 487 477 477 477 481 484 490 493 500 493 487 493 493 493 493 490 490 493 493 504 490 493 490 487 487 484 481 484 484 490 490 490 490 490 490 493 493 490 487 484 487 487 487 484 484 490 487 487 490 487 487 490 490 490 490 493 497 490 500 504 500 497 493 493 490 490 497 493 497 497 500 500 493 493 497 493 493 487 487 487 487 490 487 477 484 484 487 487 487 487 484 484 504 487 487 490 500 507 477 474 484 477 481 481 477 477 477 481 481 481 490 481 484 484 487 487 487 490 487 487 493 490 493 487 477 471 459 457 451 443 446 443 440 443 446 443 451 459 468 471 0 0 0 0 0 0
    0 0 0 0 0 0 0 0 0 0 0 0 0 0 0 0 0 0 0 0 0 0 0 0 0 0 0 0 0 0 0 0 0 0 0 0 0 0 0 0 0 0 0 0 0 0 0 0 0 0 0 0 0 0 0 0 0 0 0 0 0 0 0 0 0 0 0 0 0 497 500 500 487 497 497 497 497 493 497 497 497 521 497 497 497 493 504 504 500 504 504 500 500 500 504 504 504 518 511 518 514 518 518 507 507 504 504 497 493 493 490 493 490 487 493 490 493 493 497 500 497 497 497 497 497 497 493 497 490 493 507 500 493 490 490 484 487 487 484 481 481 484 487 493 493 490 493 487 490 490 490 487 484 484 484 484 487 484 484 484 484 481 481 484 490 487 493 497 497 500 500 493 493 481 481 474 474 474 481 484 490 493 500 497 490 493 493 493 493 493 493 493 493 500 490 490 487 487 487 484 481 481 484 487 487 487 490 490 490 493 493 490 487 487 487 490 490 487 484 493 490 487 490 487 487 490 490 490 490 493 497 490 504 504 500 500 497 500 497 493 500 497 507 500 504 500 493 493 493 493 490 484 484 484 484 487 484 477 484 484 487 487 487 487 487 487 507 487 490 490 497 493 481 477 484 474 481 477 474 474 477 477 481 481 490 484 484 484 484 487 487 487 487 487 487 487 490 487 474 471 459 457 448 446 446 446 443 448 446 446 451 465 474 0 0 0 0 0 0 0
    0 0 0 0 0 0 0 0 0 0 0 0 0 0 0 0 0 0 0 0 0 0 0 0 0 0 0 0 0 0 0 0 0 0 0 0 0 0 0 0 0 0 0 0 0 0 0 0 0 0 0 0 0 0 0 0 0 0 0 0 0 0 0 0 0 0 0 0 0 497 497 500 487 493 493 493 493 493 497 493 493 518 493 490 493 490 500 500 497 500 500 497 497 497 500 500 500 511 507 514 511 518 514 507 507 504 504 500 497 493 493 493 490 490 493 490 493 493 497 497 493 493 500 497 493 497 493 493 490 490 497 490 487 484 484 481 487 487 484 484 484 484 487 490 490 487 487 484 487 487 487 487 484 484 484 484 490 487 484 484 484 481 481 487 490 490 493 504 500 504 504 493 497 481 477 474 474 474 481 481 487 490 497 493 490 493 493 497 493 493 493 497 497 500 493 493 487 487 487 484 481 481 481 487 484 484 490 490 493 497 493 493 490 490 490 490 493 487 484 493 490 490 493 487 487 490 490 490 487 493 493 487 497 497 493 497 487 497 493 493 500 500 514 504 507 504 497 493 493 490 490 484 484 484 484 487 484 477 484 484 487 487 487 487 487 487 500 484 487 487 490 487 477 474 481 474 477 477 474 474 474 477 481 481 490 484 481 484 484 484 484 487 484 484 484 487 487 487 474 471 459 454 446 446 446 446 443 448 446 443 451 471 0 0 0 0 0 0 0 0
    0 0 0 0 0 0 0 0 0 0 0 0 0 0 0 0 0 0 0 0 0 0 0 0 0 0 0 0 0 0 0 0 0 0 0 0 0 0 0 0 0 0 0 0 0 0 0 0 0 0 0 0 0 0 0 0 0 0 0 0 0 0 0 0 0 0 0 0 0 497 497 497 487 493 493 490 493 490 493 490 490 511 487 484 490 487 497 493 493 497 497 497 493 493 500 500 500 507 507 514 511 518 514 507 507 504 504 500 497 493 493 497 493 490 493 490 493 490 493 497 493 497 500 497 497 497 497 497 490 487 493 484 481 474 477 477 487 487 487 487 484 484 484 487 487 484 484 481 484 484 484 487 484 484 484 484 493 487 487 487 484 481 484 487 490 493 493 504 504 507 507 497 497 484 481 477 477 477 481 484 487 490 497 493 490 493 493 493 497 497 493 497 497 500 493 493 490 487 487 484 481 484 484 487 484 487 490 490 493 497 493 493 490 490 493 493 493 490 487 497 490 493 497 490 490 490 490 490 487 490 490 484 490 487 481 0 481 484 487 487 493 497 511 507 507 504 500 497 497 493 493 487 484 484 484 484 484 474 484 484 487 487 487 487 487 490 500 484 487 484 487 490 477 477 481 477 481 477 474 474 474 477 477 481 487 484 471 481 481 481 481 481 481 481 481 484 484 484 471 468 462 454 446 446 446 443 443 448 446 443 446 465 0 0 0 0 0 0 0 0
    0 0 0 0 0 0 0 0 0 0 0 0 0 0 0 0 0 0 0 0 0 0 0 0 0 0 0 0 0 0 0 0 0 0 0 0 0 0 0 0 0 0 0 0 0 0 0 0 0 0 0 0 0 0 0 0 0 0 0 0 0 0 0 0 0 0 0 0 0 497 497 493 487 490 490 490 490 487 490 487 487 500 484 484 490 487 493 490 490 497 497 493 493 0 0 500 500 507 507 518 514 518 514 507 507 504 504 500 497 493 493 497 493 487 493 490 493 490 497 497 497 497 504 500 500 504 500 500 493 487 497 487 484 471 477 481 487 490 487 487 484 484 484 487 487 484 481 477 481 484 484 484 484 484 484 484 493 490 487 487 487 484 487 493 497 500 497 507 507 507 504 493 490 481 477 477 474 477 481 481 484 487 493 490 487 490 490 493 493 493 493 493 497 497 493 493 490 484 487 487 484 487 484 487 484 484 490 490 490 493 493 493 493 493 497 497 497 497 490 497 493 493 497 490 490 490 490 490 487 490 487 481 484 484 481 0 481 484 484 484 487 490 504 504 507 504 500 497 500 497 493 487 484 484 484 484 484 477 484 484 487 487 487 487 490 490 500 487 487 484 487 490 481 481 484 477 481 477 477 474 474 477 477 481 484 484 465 477 477 477 477 481 477 477 477 481 481 481 465 465 459 451 443 443 443 443 443 448 443 443 446 462 465 0 0 0 0 0 0 0
    0 0 0 0 0 0 0 0 0 0 0 0 0 0 0 0 0 0 0 0 0 0 0 0 0 0 0 0 0 0 0 0 0 0 0 0 0 0 0 0 0 0 0 0 0 0 0 0 0 0 0 0 0 0 0 0 0 0 0 0 0 0 0 0 0 0 0 0 0 497 500 493 484 490 490 487 487 487 490 487 487 497 484 0 493 490 0 487 487 493 493 493 493 493 507 511 507 514 514 521 518 521 514 511 507 504 504 497 497 493 490 493 490 487 490 490 493 493 493 497 497 497 507 500 504 504 500 500 0 0 0 0 0 0 0 0 0 0 0 0 484 484 484 487 487 481 481 474 481 481 484 484 484 487 484 487 497 490 490 490 490 487 487 500 500 511 500 511 511 514 504 493 487 477 477 477 474 477 477 481 484 487 490 487 487 490 490 490 493 493 493 493 497 497 493 493 490 484 484 484 481 484 481 484 481 484 487 490 493 497 493 500 497 497 500 504 500 500 493 500 493 493 497 490 490 490 490 490 487 487 484 481 481 484 481 484 481 487 487 487 487 490 504 507 507 504 504 497 500 497 497 490 487 487 484 481 481 477 484 484 487 487 487 487 490 497 500 490 493 487 490 493 484 484 487 484 484 481 477 477 474 477 477 481 484 484 462 477 477 477 477 477 477 477 474 481 477 477 465 465 462 451 443 443 443 443 443 446 443 443 446 462 465 465 468 0 0 0 0 0
    0 0 0 0 0 0 0 0 0 0 0 0 0 0 0 0 0 0 0 0 0 0 0 0 0 0 0 0 0 0 0 0 0 0 0 0 0 0 0 0 0 0 0 0 0 0 0 0 0 0 0 0 0 0 0 0 0 0 0 0 0 0 0 0 0 0 0 0 0 497 500 493 484 490 490 487 487 487 490 487 487 497 487 487 0 490 0 487 484 493 493 490 493 497 514 518 514 518 518 525 518 521 514 511 507 504 504 497 497 497 493 493 490 487 490 490 493 493 493 497 497 497 507 500 0 507 0 0 0 0 0 0 0 0 0 0 0 0 0 0 0 484 484 484 487 484 481 471 481 481 484 487 487 487 487 487 504 493 493 490 0 0 0 0 504 518 0 0 521 529 518 507 493 484 481 481 481 481 481 484 487 490 493 487 490 490 490 493 497 497 493 497 500 497 493 493 493 484 484 484 481 484 481 484 481 484 490 493 497 500 500 507 507 504 507 511 507 514 500 507 493 493 497 490 487 490 487 487 487 487 484 477 481 484 481 484 481 487 484 484 487 490 500 500 500 500 500 493 493 497 493 487 487 484 484 477 477 481 484 484 487 487 487 490 490 500 504 490 497 487 490 497 484 487 487 484 487 481 481 477 474 477 474 481 487 484 462 477 481 481 477 477 477 477 477 481 477 474 462 465 462 451 440 440 440 440 443 446 440 440 443 465 468 465 468 0 0 0 0 0
    0 0 0 0 0 0 0 0 0 0 0 0 0 0 0 0 0 0 0 0 0 0 0 0 0 0 0 0 0 0 0 0 0 0 0 0 0 0 0 0 0 0 0 0 0 0 0 0 0 0 0 0 0 0 0 0 0 0 0 0 0 0 0 0 0 0 0 0 0 500 500 493 484 490 487 487 487 487 487 484 487 493 487 0 0 487 0 484 481 490 490 487 490 493 511 518 514 518 514 525 514 518 0 0 0 0 504 500 500 497 0 493 490 484 490 490 493 493 493 497 497 500 511 500 0 0 0 0 0 0 0 0 0 0 112 113 113 112 111 0 487 484 484 484 487 481 481 471 481 481 484 487 487 487 487 490 507 493 0 0 0 0 0 0 0 0 0 0 529 533 525 518 504 493 484 484 484 487 484 484 490 490 493 490 490 490 493 493 497 497 497 500 500 497 497 497 493 484 481 481 477 0 0 0 0 0 490 497 497 500 500 507 507 504 511 514 507 521 507 511 493 493 497 490 487 490 487 487 487 487 490 481 481 484 481 481 481 484 484 484 481 490 497 500 497 493 493 487 487 490 487 484 487 484 484 477 474 481 484 484 487 487 487 490 490 504 504 493 497 487 490 493 484 487 487 481 484 481 484 481 477 484 484 490 497 487 471 481 481 484 481 481 477 477 477 481 474 468 457 462 457 448 440 440 440 440 440 443 440 438 443 468 462 465 468 0 0 0 0 0
    0 0 0 0 0 0 0 0 0 0 0 0 0 0 0 0 0 0 0 0 0 0 0 0 0 0 0 0 0 0 0 0 0 0 0 0 0 0 0 0 0 0 0 0 0 0 0 0 0 0 0 0 0 0 0 0 0 0 0 0 0 0 0 0 0 0 0 0 0 500 497 490 484 487 487 484 484 0 484 0 0 0 0 0 0 0 0 0 0 487 487 484 487 0 0 514 511 514 511 521 511 0 0 0 0 0 0 0 0 0 0 0 0 0 0 0 0 0 497 497 0 500 511 500 0 0 0 129 0 0 0 0 0 0 0 0 0 0 0 0 0 484 484 484 487 481 477 468 477 477 481 484 487 487 487 487 511 493 0 0 0 0 0 0 0 0 0 0 533 537 525 521 507 497 487 487 484 487 481 484 487 490 490 487 490 490 493 497 500 497 497 500 504 500 500 500 497 484 484 0 0 0 0 0 0 0 493 500 500 504 500 507 507 504 511 514 507 525 511 514 493 490 497 493 487 490 487 487 487 493 497 487 487 487 484 484 484 490 490 487 484 497 500 504 497 490 490 484 484 487 484 481 484 481 481 474 468 477 484 484 487 487 487 490 490 504 500 490 497 490 490 493 490 497 490 490 497 490 490 493 490 487 484 487 490 484 477 484 484 484 481 481 481 481 481 484 471 462 454 462 454 446 438 440 443 443 443 446 443 443 446 471 471 477 481 0 0 0 0 0
    0 0 0 0 0 0 0 0 0 0 0 0 0 0 0 0 0 0 0 0 0 0 0 0 0 0 0 0 0 0 0 0 0 0 0 0 0 0 0 0 0 0 0 0 0 0 0 0 0 0 0 0 0 0 0 0 0 0 0 0 0 0 0 0 0 0 0 0 0 490 487 484 468 484 481 477 474 474 477 0 178 0 0 0 0 0 0 0 0 477 484 481 484 0 0 0 0 221 0 0 0 0 0 0 0 0 0 0 0 0 0 0 0 0 0 0 0 0 0 0 0 0 0 0 0 0 0 0 0 205 205 203 200 0 0 0 0 0 0 0 0 0 0 484 484 477 474 462 474 474 481 484 487 487 487 490 518 500 0 0 0 0 0 0 0 0 0 0 0 537 525 525 511 504 490 497 487 490 484 487 0 490 490 487 487 487 490 493 497 497 497 500 504 500 504 504 500 487 0 0 0 0 0 0 0 0 493 504 500 504 504 511 511 507 511 518 507 525 511 511 493 490 497 493 490 490 490 490 490 497 504 490 487 490 484 487 487 493 493 490 490 507 507 511 493 490 487 484 481 484 481 481 484 481 481 471 468 477 484 481 487 487 487 487 490 504 497 487 493 490 487 490 493 500 497 497 504 497 497 504 500 490 484 487 490 484 481 484 484 484 481 481 481 481 481 484 471 462 457 465 454 448 440 440 440 443 446 446 443 446 440 468 474 481 481 0 0 0 0 0
    0 0 0 0 0 0 0 0 0 0 0 0 0 0 0 0 0 0 0 0 0 0 0 0 0 0 0 0 0 0 0 0 0 0 0 0 0 0 0 0 0 0 0 0 0 0 0 0 0 0 0 0 0 0 0 0 0 0 0 0 0 0 0 0 0 0 0 0 0 0 0 0 0 471 471 468 459 462 0 0 179 180 0 0 0 0 0 0 446 0 0 0 0 0 0 0 223 220 216 0 0 0 0 0 0 0 0 0 0 0 0 0 0 0 0 0 0 0 0 0 0 0 0 0 0 0 0 0 206 206 205 203 199 0 0 0 0 0 0 0 0 0 0 0 0 474 459 446 462 468 471 481 484 0 0 0 521 0 0 0 0 0 0 0 0 0 100 99 0 0 521 518 504 500 493 507 493 493 484 0 0 0 490 0 0 0 0 490 493 490 493 497 0 0 0 0 0 0 0 0 0 0 0 0 0 0 0 504 500 504 507 511 514 507 514 518 507 529 511 511 490 490 493 490 490 490 487 490 487 493 497 487 484 484 481 481 484 487 490 487 481 490 490 497 487 0 484 477 477 481 481 481 484 484 484 474 468 477 484 481 487 487 487 487 490 504 500 487 493 487 487 487 490 497 493 497 500 493 493 504 500 493 484 490 490 487 484 487 484 484 484 484 484 484 481 484 474 462 457 462 451 446 440 440 438 440 443 443 443 446 440 459 468 471 474 0 0 0 0 0
    0 0 0 0 0 0 0 0 0 0 0 0 0 0 0 0 0 0 0 0 0 0 0 0 0 0 0 0 0 0 0 0 0 0 0 0 0 0 0 0 0 0 0 0 0 0 0 0 0 0 0 0 0 0 0 0 0 0 0 0 0 0 0 0 0 0 0 0 0 404 406 406 404 0 438 438 438 443 0 181 179 179 0 0 0 0 0 0 418 411 0 408 408 402 0 0 0 0 0 406 406 408 404 0 415 413 0 0 0 0 0 0 0 0 0 0 0 0 0 0 0 0 0 0 0 209 0 0 0 206 205 203 0 0 0 0 0 0 0 0 0 0 0 0 0 454 435 406 0 0 0 0 0 0 0 0 0 0 0 0 0 0 0 110 0 0 0 0 0 0 0 0 0 0 0 0 0 0 0 0 0 0 0 0 0 0 0 0 0 0 487 0 0 0 0 0 0 0 0 0 0 0 0 0 0 0 0 504 497 504 507 514 518 511 514 514 507 529 500 507 484 0 490 487 484 487 484 487 487 487 490 484 481 481 477 477 477 481 481 481 474 477 474 474 474 462 468 462 465 471 474 471 484 484 0 471 465 0 481 481 487 487 487 490 493 514 511 497 497 490 490 0 0 500 493 493 497 490 490 500 497 487 0 0 493 487 487 490 487 487 487 487 487 484 484 484 474 465 459 465 448 446 440 438 438 440 443 443 440 446 438 448 457 465 462 0 0 0 0 0
    0 0 0 0 0 0 0 0 0 0 0 0 0 0 0 0 0 0 0 0 0 0 0 0 0 0 0 0 0 0 0 0 0 0 0 0 0 0 0 0 0 0 0 0 0 0 0 0 0 0 0 0 0 0 0 0 0 0 0 0 0 0 0 0 0 0 0 0 0 402 399 399 397 406 415 422 418 415 411 181 179 0 404 0 402 406 406 404 408 406 404 404 402 397 397 0 0 402 404 404 404 406 404 411 411 408 411 0 0 408 408 425 415 0 0 0 0 0 0 0 0 0 0 0 0 0 0 0 0 0 204 201 0 0 0 0 0 0 0 0 0 0 0 0 0 408 406 397 395 0 0 402 406 0 0 0 0 0 0 0 0 110 0 108 108 108 0 0 0 0 0 0 0 0 0 0 0 0 0 0 0 0 0 0 0 0 0 0 0 440 0 0 121 0 0 0 0 121 121 121 0 0 0 0 0 0 0 504 500 507 514 521 521 0 518 518 511 533 0 0 432 418 0 0 0 0 0 484 481 484 490 484 481 484 477 474 0 481 481 477 465 459 451 443 446 443 448 446 446 443 448 446 0 0 0 0 0 0 0 481 487 0 0 490 493 514 511 497 0 0 0 171 168 500 490 493 497 490 484 0 0 477 0 0 0 487 484 487 487 487 487 487 484 484 484 481 474 465 462 465 446 446 440 438 438 440 443 440 443 446 438 443 0 468 443 0 0 0 0 0
    0 0 0 0 0 0 0 0 0 0 0 0 0 0 0 0 0 0 0 0 0 0 0 0 0 0 0 0 0 0 0 0 0 0 0 0 0 0 0 0 0 0 0 0 0 0 0 0 0 0 0 0 0 0 0 0 0 0 0 0 0 0 0 0 0 0 0 0 0 402 399 399 397 399 402 408 406 404 404 0 0 0 406 404 406 408 406 406 408 411 408 404 402 397 397 397 399 402 402 402 404 406 404 408 411 408 408 406 406 406 408 422 411 0 0 0 0 0 0 0 0 0 0 0 0 0 0 0 0 0 202 199 0 0 0 0 0 0 0 0 0 0 402 404 402 404 404 395 397 399 399 399 402 0 0 0 0 0 0 0 0 110 0 0 108 108 0 0 0 0 0 0 0 0 0 0 0 0 0 0 0 0 0 0 0 0 0 420 418 427 418 420 408 420 415 415 0 0 0 0 415 422 420 422 422 0 0 504 500 0 0 0 0 0 525 518 0 0 0 411 422 411 422 430 430 0 0 0 457 0 484 477 0 0 474 0 0 0 0 468 451 440 440 438 440 443 446 446 443 443 443 440 0 465 0 0 432 0 0 477 484 481 0 487 493 514 511 0 192 0 0 0 0 0 490 0 493 0 0 0 0 438 430 425 0 465 0 487 487 487 487 490 487 484 487 481 474 459 462 465 443 443 440 438 438 440 443 440 443 446 435 435 474 440 425 0 0 0 0 0
    0 0 0 0 0 0 0 0 0 0 0 0 0 0 0 0 0 0 0 0 0 0 0 0 0 0 0 0 0 0 0 0 0 0 0 0 0 0 0 0 0 0 0 0 0 0 0 0 0 0 0 0 0 0 0 0 0 0 0 0 0 0 0 0 0 0 0 0 0 399 399 399 397 399 399 406 404 404 404 402 406 406 406 406 406 408 406 406 408 408 406 402 399 399 399 399 399 402 402 402 404 406 404 408 408 406 408 406 408 406 408 420 411 411 0 0 0 0 0 0 0 0 0 0 0 0 0 0 0 0 0 0 0 0 0 422 413 0 0 408 404 404 402 402 399 402 399 393 395 397 397 397 399 399 0 0 0 0 0 0 0 0 0 0 0 0 0 0 422 420 0 0 0 0 0 411 0 0 0 0 0 0 0 408 404 408 411 420 418 422 415 415 406 413 411 411 413 411 0 0 411 418 418 415 415 413 415 0 0 0 0 0 0 0 404 406 406 402 402 406 415 408 413 418 415 413 420 422 420 0 0 0 0 0 0 0 391 404 413 418 427 425 430 430 432 438 440 440 440 440 438 435 432 435 0 0 420 0 0 446 462 468 468 484 487 504 497 0 192 190 0 0 0 0 0 0 0 0 0 415 408 427 422 422 422 430 0 477 484 487 490 497 490 487 487 477 471 457 459 462 440 443 443 440 440 440 443 440 440 446 435 430 0 422 406 0 0 0 0 0
    0 0 0 0 0 0 0 0 0 0 0 0 0 0 0 0 0 0 0 0 0 0 0 0 0 0 0 0 0 0 0 0 0 0 0 0 0 0 0 0 0 0 0 0 0 0 0 0 0 0 0 0 0 0 0 0 0 0 0 0 0 0 0 0 0 0 0 0 0 402 402 402 402 402 402 408 406 406 406 404 406 406 406 406 406 406 404 404 406 404 404 402 399 399 397 399 402 402 402 402 406 406 404 408 408 406 408 408 408 408 408 422 411 411 415 413 415 418 0 0 0 0 0 408 408 411 406 0 0 0 422 418 415 420 411 418 413 413 408 406 404 404 402 402 402 402 402 393 395 399 399 399 399 399 0 0 0 413 415 420 425 425 420 411 413 413 420 418 415 413 411 415 425 415 411 406 406 413 402 406 404 408 411 411 408 411 411 418 415 418 413 413 406 408 408 408 411 411 408 411 411 418 418 415 415 413 413 425 422 420 402 402 415 408 404 408 406 404 404 406 413 408 411 411 408 408 411 413 408 399 402 391 391 395 399 397 395 402 408 411 420 418 422 422 425 432 435 432 435 432 432 427 427 427 0 422 418 422 422 427 432 432 435 0 0 0 0 0 0 0 0 0 0 152 0 0 0 0 0 408 406 422 418 420 420 425 430 443 0 0 484 497 490 481 481 457 0 0 0 438 438 440 443 440 440 440 443 440 440 443 432 422 427 411 404 0 0 0 0 0
    0 0 0 0 0 0 0 0 0 0 0 0 0 0 0 0 0 0 0 0 0 0 0 0 0 0 0 0 0 0 0 0 0 0 0 0 0 0 0 0 0 0 0 0 0 0 0 0 0 0 0 0 0 0 0 0 0 0 0 0 0 0 0 0 0 0 0 0 0 404 404 404 404 406 404 413 406 411 406 406 408 406 408 406 406 406 404 404 404 404 402 399 397 397 397 399 399 402 399 404 406 406 404 411 408 408 408 408 408 408 408 422 411 411 415 411 413 413 0 0 0 0 0 408 408 411 0 0 0 0 418 413 411 413 406 413 408 411 406 406 404 404 402 404 402 404 404 397 397 399 399 399 399 402 402 404 411 413 413 418 422 422 418 408 411 411 415 413 413 411 408 411 418 408 408 404 404 408 402 404 404 408 411 408 408 411 411 415 413 415 411 411 404 406 408 408 411 411 408 411 411 418 418 415 415 411 411 418 408 406 397 399 406 406 404 408 406 404 404 406 411 406 408 408 408 406 408 411 408 399 402 393 395 397 402 402 397 402 406 406 415 413 413 415 415 425 427 427 427 425 427 425 422 422 0 418 418 420 420 420 425 420 420 425 420 0 0 0 0 0 0 0 0 153 0 0 0 0 408 406 404 418 415 418 418 420 427 0 0 0 0 0 0 457 0 430 415 420 418 415 418 438 443 440 438 440 440 440 440 440 427 415 422 408 402 0 0 0 0 0
    0 0 0 0 0 0 0 0 0 0 0 0 0 0 0 0 0 0 0 0 0 0 0 0 0 0 0 0 0 0 0 0 0 0 0 0 0 0 0 0 0 0 0 0 0 0 0 0 0 0 0 0 0 0 0 0 0 0 0 0 0 0 0 0 0 0 0 0 0 404 404 404 406 406 406 418 408 413 408 408 408 408 408 408 406 406 404 404 406 404 402 397 397 395 397 399 399 399 399 402 404 406 404 411 408 408 408 408 408 408 408 422 408 408 413 408 408 408 408 0 0 0 404 406 408 411 0 0 406 0 413 411 408 408 406 413 408 411 408 408 404 404 404 406 404 406 404 397 399 402 399 399 402 402 402 404 411 411 411 413 418 418 413 408 411 408 413 411 411 408 408 408 413 408 406 404 404 404 399 404 404 408 408 408 406 408 411 415 413 413 411 411 406 406 408 408 411 411 408 411 411 418 418 415 415 411 411 415 408 404 397 399 406 404 402 406 404 404 404 404 408 406 408 408 408 406 408 411 411 404 406 395 397 402 404 404 399 402 406 404 411 408 411 411 411 420 422 420 422 420 420 420 418 420 0 0 413 418 415 411 415 408 406 408 406 0 413 0 0 0 0 0 0 0 0 0 0 404 406 406 404 415 413 415 415 418 425 427 0 0 0 0 0 438 430 425 413 0 422 418 413 413 435 430 425 427 430 425 427 425 415 411 413 406 402 0 0 0 0 0
    0 0 0 0 0 0 0 0 0 0 0 0 0 0 0 0 0 0 0 0 0 0 0 0 0 0 0 0 0 0 0 0 0 0 0 0 0 0 0 0 0 0 0 0 0 0 0 0 0 0 0 0 0 0 0 0 0 0 0 0 0 0 0 0 0 0 0 0 0 404 404 404 404 406 404 415 406 411 406 404 408 408 408 408 406 406 406 406 406 404 402 397 395 395 395 397 397 397 397 402 404 404 402 408 408 406 408 408 408 408 411 422 411 408 411 408 408 406 406 404 402 399 404 404 406 408 406 406 406 408 411 408 408 408 408 411 408 411 408 411 406 406 404 404 402 404 404 399 399 402 402 402 402 402 404 404 411 408 411 411 415 413 413 408 408 408 411 411 408 408 406 406 408 406 406 404 402 404 399 404 406 408 408 408 408 411 411 415 413 413 413 413 406 408 408 408 408 408 408 411 411 415 415 413 415 411 408 415 408 406 402 402 406 404 402 404 404 404 404 404 406 406 408 408 408 408 411 411 411 406 406 397 399 402 404 406 402 402 406 404 411 408 408 408 406 415 418 415 418 415 418 415 415 418 413 413 0 415 413 0 411 404 402 402 399 402 404 0 0 397 402 404 0 402 404 402 404 404 404 406 404 413 411 415 415 415 422 425 425 0 0 0 0 427 422 418 406 408 411 411 408 404 404 404 402 408 408 406 404 402 406 408 411 406 399 0 0 0 0 0
    0 0 0 0 0 0 0 0 0 0 0 0 0 0 0 0 0 0 0 0 0 0 0 0 0 0 0 0 0 0 0 0 0 0 0 0 0 0 0 0 0 0 0 0 0 0 0 0 0 0 0 0 0 0 0 0 0 0 0 0 0 0 0 0 0 0 0 0 0 404 404 404 404 406 404 415 406 411 408 404 408 408 408 408 406 406 406 406 406 406 404 0 397 395 397 0 399 397 397 399 404 404 402 408 408 406 408 408 408 408 411 425 411 411 413 411 411 408 406 404 404 399 404 404 406 408 408 408 408 411 411 411 408 411 408 413 411 413 411 413 408 406 404 406 402 404 404 399 402 404 404 404 404 404 404 406 413 408 411 411 413 413 411 408 408 408 411 408 408 408 406 406 408 406 406 404 406 411 404 408 411 415 415 413 413 413 413 418 415 415 413 415 406 408 408 408 408 408 408 408 408 413 413 411 413 411 408 413 408 406 404 406 408 404 404 404 404 402 404 404 404 404 408 408 408 408 411 411 413 408 408 399 402 404 404 406 402 402 406 406 411 408 408 408 406 413 415 413 413 413 415 415 415 418 413 413 411 413 411 408 408 402 402 399 397 399 404 404 404 399 402 404 402 404 402 402 402 402 404 404 404 411 411 415 415 415 420 425 422 430 425 427 425 415 415 413 406 404 404 406 408 404 404 402 397 402 402 399 397 397 399 399 404 404 397 0 0 0 0 0
    0 0 0 0 0 0 0 0 0 0 0 0 0 0 0 0 0 0 0 0 0 0 0 0 0 0 0 0 0 0 0 0 0 0 0 0 0 0 0 0 0 0 0 0 0 0 0 0 0 0 0 0 0 0 0 0 0 0 0 0 0 0 0 0 0 0 0 0 0 404 406 406 406 406 406 415 408 411 408 404 408 408 408 408 408 406 406 406 406 404 402 0 395 395 395 0 399 397 397 399 404 404 402 408 408 406 406 408 408 408 411 422 411 411 413 413 411 408 406 404 404 399 404 404 404 406 406 408 408 411 411 413 411 411 411 415 413 418 415 420 413 413 408 413 406 408 408 402 404 406 406 406 406 408 406 408 418 411 411 411 411 411 408 408 406 406 408 406 406 408 406 406 408 406 406 408 411 415 408 413 418 420 418 415 415 415 415 418 418 413 415 418 406 408 411 408 408 408 408 408 408 413 411 408 411 408 406 411 408 408 406 406 408 404 404 404 404 402 404 402 404 404 406 408 411 411 413 413 415 411 408 402 402 404 404 406 404 404 406 406 408 408 408 408 406 411 413 411 411 411 413 413 413 413 411 411 411 411 411 408 411 404 402 402 399 402 404 404 404 399 402 404 402 404 399 399 399 402 402 404 402 411 411 413 415 415 420 422 420 427 422 422 418 408 408 406 406 404 404 404 406 402 404 402 397 399 397 397 397 395 397 397 402 404 399 0 0 0 0 0
    0 0 0 0 0 0 0 0 0 0 0 0 0 0 0 0 0 0 0 0 0 0 0 0 0 0 0 0 0 0 0 0 0 0 0 0 0 0 0 0 0 0 0 0 0 0 0 0 0 0 0 0 0 0 0 0 0 0 0 0 0 0 0 0 0 0 0 0 0 406 408 406 408 408 408 418 411 413 411 406 411 411 411 411 408 406 406 404 406 404 402 0 397 395 397 399 402 397 397 402 404 404 402 408 408 406 406 408 408 408 411 422 408 408 413 411 408 408 406 404 404 399 404 406 406 408 406 408 411 413 413 415 413 413 415 418 418 420 418 420 415 415 411 418 408 408 411 402 406 408 408 408 408 408 408 408 420 411 411 408 408 408 408 406 406 404 406 404 406 406 406 404 408 404 404 408 411 415 408 413 418 420 418 415 415 415 415 418 415 411 413 415 406 408 411 408 408 408 408 408 406 413 411 406 411 408 406 408 406 408 406 406 408 406 404 404 404 402 404 402 404 404 406 408 411 411 413 413 415 413 411 402 404 404 406 408 404 404 406 406 408 408 406 406 404 408 411 408 408 408 408 411 411 411 411 411 411 411 411 408 413 406 406 404 404 404 406 406 404 399 404 404 402 406 402 402 402 402 402 404 402 408 408 413 413 413 418 420 418 427 420 418 413 406 408 406 406 406 404 404 406 402 404 399 397 395 395 393 393 393 395 395 399 402 399 0 0 0 0 0
    0 0 0 0 0 0 0 0 0 0 0 0 0 0 0 0 0 0 0 0 0 0 0 0 0 0 0 0 0 0 0 0 0 0 0 0 0 0 0 0 0 0 0 0 0 0 0 0 0 0 0 0 0 0 0 0 0 0 0 0 0 0 0 0 0 0 0 0 0 406 408 408 408 411 411 418 411 413 413 408 411 413 411 411 408 408 406 406 406 404 399 397 397 395 397 402 404 399 399 402 404 404 402 408 408 406 406 408 408 408 411 422 408 406 411 411 408 408 408 404 406 402 406 406 406 408 408 411 411 411 413 415 413 415 418 420 418 425 420 425 418 418 415 418 408 408 408 402 406 408 408 408 408 411 408 411 420 411 411 411 408 408 406 406 404 404 404 404 404 406 404 404 406 404 404 408 411 413 408 411 418 415 413 413 411 411 411 413 413 408 413 413 404 408 408 406 406 408 408 408 406 413 411 408 411 411 406 408 408 408 408 408 408 406 404 406 404 404 404 404 404 404 406 408 411 411 413 413 415 415 411 404 406 404 406 411 406 404 408 406 411 408 408 406 404 408 408 408 408 406 408 408 411 411 411 411 411 411 413 408 413 406 406 406 406 406 408 408 406 399 406 408 406 411 402 402 402 402 402 404 402 408 408 411 413 413 418 418 415 427 422 420 415 408 411 408 408 408 406 406 408 404 406 399 397 393 393 393 393 393 395 395 397 402 399 0 0 0 0 0
    0 0 0 0 0 0 0 0 0 0 0 0 0 0 0 0 0 0 0 0 0 0 0 0 0 0 0 0 0 0 0 0 0 0 0 0 0 0 0 0 0 0 0 0 0 0 0 0 0 0 0 0 0 0 0 0 0 0 0 0 0 0 0 0 0 0 0 0 0 408 411 411 411 413 413 418 413 415 415 411 411 415 413 411 408 408 406 406 406 404 399 397 397 397 399 406 406 404 402 402 406 404 402 408 408 406 406 408 408 406 411 422 406 406 408 408 404 406 406 402 406 402 404 406 406 408 408 411 408 411 413 415 413 413 420 420 420 427 425 427 420 422 422 420 411 408 411 404 406 408 408 408 408 411 411 411 420 413 411 411 408 408 406 406 404 399 402 399 402 402 404 402 404 404 406 406 408 411 406 406 411 408 408 406 406 406 408 411 411 406 411 411 404 408 408 408 406 408 408 408 406 415 411 408 413 411 408 411 408 411 408 406 408 406 404 404 404 404 404 404 404 404 406 408 411 411 413 411 415 418 413 406 408 406 408 413 408 406 408 408 411 408 408 406 404 408 408 408 408 406 408 411 411 411 413 413 411 411 413 411 415 406 408 406 406 406 408 408 406 399 408 411 406 411 402 399 399 399 402 402 399 406 406 411 411 413 415 418 415 425 422 422 418 408 413 408 411 408 408 406 408 404 406 399 395 393 393 391 393 393 395 395 397 404 402 0 0 0 0 0
    0 0 0 0 0 0 0 0 0 0 0 0 0 0 0 0 0 0 0 0 0 0 0 0 0 0 0 0 0 0 0 0 0 0 0 0 0 0 0 0 0 0 0 0 0 0 0 0 0 0 0 0 0 0 0 0 0 0 0 0 0 0 0 0 0 0 0 0 0 411 413 411 411 413 411 415 411 413 413 411 411 415 413 411 411 408 408 408 406 406 399 397 397 397 402 406 406 404 402 402 406 404 402 408 406 406 406 408 408 406 411 420 404 406 404 404 402 402 402 399 402 397 399 402 402 404 404 408 408 408 411 413 413 413 420 420 420 425 422 425 418 420 420 415 408 406 408 404 406 408 408 408 408 411 411 411 420 413 411 411 408 408 406 406 402 399 399 399 402 402 404 402 406 406 408 406 408 411 406 406 408 406 406 404 404 406 406 408 408 406 408 411 404 411 411 408 408 408 408 408 408 415 408 408 411 411 411 413 411 413 411 408 408 404 404 404 402 402 402 402 402 402 404 408 408 411 413 408 413 418 413 408 408 408 411 413 408 406 408 408 408 408 408 406 404 406 406 406 408 406 408 411 411 411 413 413 411 411 413 411 413 406 406 404 404 404 406 406 406 399 408 413 408 413 402 402 402 402 402 402 402 406 406 411 411 413 415 415 415 425 420 420 418 408 415 411 411 411 408 406 408 404 404 399 395 393 393 391 393 393 395 395 399 404 402 0 0 0 0 0</data></depth>
</opencv_storage>
