<?xml version="1.0"?>
<opencv_storage>
<gps_time_stamp>25195</gps_time_stamp>
<gps_x>-5.0560879707336426e+000</gps_x>
<gps_y>5.9356135129928589e-001</gps_y>
<gps_z>-1.0340584516525269e+000</gps_z>
<image_time_stamp>13167</image_time_stamp>
<depth type_id="opencv-matrix">
  <rows>91</rows>
  <cols>320</cols>
  <dt>s</dt>
  <data>
    0 0 0 0 0 0 0 0 0 0 0 0 0 0 0 0 0 0 0 0 0 0 0 0 0 0 0 0 0 0 0 0 0 0 0 0 0 0 0 0 0 0 0 0 0 0 0 0 0 0 0 0 0 0 0 0 0 0 0 0 0 0 0 0 0 0 0 0 0 645 657 663 651 651 651 645 651 651 657 645 645 634 645 657 657 645 645 645 645 639 651 634 623 634 634 639 634 634 634 634 634 639 629 639 629 634 629 629 618 634 623 634 639 639 634 645 645 651 645 651 645 629 629 634 623 623 623 623 634 629 629 634 634 639 639 634 651 651 634 639 651 645 651 651 645 634 639 651 639 629 629 629 634 639 645 639 639 639 645 645 634 639 639 639 639 639 651 639 645 645 639 639 639 639 639 618 634 629 634 639 657 657 651 639 663 651 657 651 651 651 639 651 645 651 657 634 651 645 645 657 645 657 645 645 651 639 645 645 639 651 639 645 639 651 651 651 0 0 0 0 0 0 0 0 0 0 263 264 275 276 277 277 277 275 275 274 270 265 263 262 263 262 264 268 272 273 274 275 275 273 276 278 278 274 265 0 0 707 714 694 639 623 613 613 603 0 0 0 0 369 369 367 369 371 371 375 381 375 375 377 375 0 352 350 350 345 348 348 348 350 357 360 360 357 357 357 355 355 353 352 345 345 345 359 0 327 325 330 331 330 327 333 333 334 334 0 0 0 0 0
    0 0 0 0 0 0 0 0 0 0 0 0 0 0 0 0 0 0 0 0 0 0 0 0 0 0 0 0 0 0 0 0 0 0 0 0 0 0 0 0 0 0 0 0 0 0 0 0 0 0 0 0 0 0 0 0 0 0 0 0 0 0 0 0 0 0 0 0 0 645 651 663 651 651 645 645 651 651 651 645 645 634 645 657 663 645 645 645 645 645 651 639 623 634 634 639 634 634 634 634 634 639 629 645 634 634 629 629 618 634 623 634 639 639 634 639 645 651 645 651 645 629 629 634 629 623 623 623 629 629 629 629 629 634 639 629 651 651 634 634 651 645 651 651 645 634 639 645 645 629 629 634 639 639 645 639 639 639 651 645 634 639 634 634 634 639 645 634 639 645 639 639 639 639 639 623 634 629 634 639 651 651 651 639 657 651 657 657 651 651 645 657 645 651 651 639 651 645 645 657 645 657 645 651 657 645 651 645 639 651 639 645 639 639 634 634 0 0 0 0 0 0 0 0 0 0 261 0 274 275 277 277 276 275 275 274 271 265 264 263 263 262 265 271 273 274 276 276 276 274 276 277 277 270 262 259 0 687 700 681 618 608 603 598 588 0 0 0 0 373 371 369 371 373 373 377 383 377 375 377 375 0 355 350 350 345 348 348 350 352 359 360 359 357 0 357 355 353 353 352 345 345 347 0 0 325 327 331 331 328 328 333 334 334 336 0 0 0 0 0
    0 0 0 0 0 0 0 0 0 0 0 0 0 0 0 0 0 0 0 0 0 0 0 0 0 0 0 0 0 0 0 0 0 0 0 0 0 0 0 0 0 0 0 0 0 0 0 0 0 0 0 0 0 0 0 0 0 0 0 0 0 0 0 0 0 0 0 0 0 639 651 657 645 645 639 639 639 639 639 639 639 634 645 657 663 645 645 645 645 645 651 639 623 634 634 639 634 634 634 634 629 639 629 639 629 629 623 623 618 634 623 629 639 639 634 639 645 651 645 651 645 629 629 639 629 623 623 623 629 629 629 629 629 629 634 629 645 645 634 634 651 645 651 645 645 634 639 645 645 629 629 634 634 634 639 634 634 639 645 645 634 634 634 634 634 639 645 629 639 639 634 634 634 634 639 623 639 629 634 645 651 651 651 639 657 651 651 651 651 657 645 657 645 651 651 639 651 645 645 651 645 657 645 651 663 645 657 651 645 657 639 645 634 629 629 623 0 0 0 0 0 0 0 0 0 260 261 0 275 275 277 277 277 276 276 275 272 266 266 264 264 263 269 274 275 276 278 278 278 275 276 276 274 265 260 257 0 0 0 651 608 588 584 593 561 537 0 0 387 377 375 371 371 375 375 377 383 377 377 377 373 0 357 352 350 345 348 348 350 352 359 359 359 357 0 357 357 353 352 353 347 347 348 0 0 324 327 331 331 327 330 333 334 336 337 0 0 0 0 0
    0 0 0 0 0 0 0 0 0 0 0 0 0 0 0 0 0 0 0 0 0 0 0 0 0 0 0 0 0 0 0 0 0 0 0 0 0 0 0 0 0 0 0 0 0 0 0 0 0 0 0 0 0 0 0 0 0 0 0 0 0 0 0 0 0 0 0 0 0 634 645 645 634 634 634 629 634 629 629 629 634 629 639 657 657 645 645 645 645 639 651 639 623 629 634 639 639 639 634 629 629 634 623 629 618 618 618 613 613 629 618 629 634 634 629 639 639 645 639 645 639 623 623 634 629 618 623 623 629 629 629 623 623 623 629 623 639 639 629 629 645 639 645 645 645 634 634 639 645 623 623 623 629 629 629 629 629 634 639 634 634 634 634 634 634 634 639 629 634 634 629 634 634 629 634 618 634 623 634 639 651 645 651 639 657 645 651 651 645 651 645 651 639 657 651 639 651 645 645 651 645 657 645 657 663 651 657 651 645 657 645 645 634 629 623 618 0 0 0 0 0 0 0 0 0 260 261 0 278 278 279 279 279 278 278 279 273 269 270 268 269 269 275 277 277 278 279 279 278 276 275 273 268 264 260 257 0 608 0 618 598 579 584 584 561 541 0 0 0 377 379 373 373 377 377 377 383 377 377 375 373 359 357 353 350 347 350 350 352 353 359 359 359 357 0 355 357 353 352 353 347 347 350 0 0 324 328 331 331 327 330 333 334 336 337 0 0 0 0 0
    0 0 0 0 0 0 0 0 0 0 0 0 0 0 0 0 0 0 0 0 0 0 0 0 0 0 0 0 0 0 0 0 0 0 0 0 0 0 0 0 0 0 0 0 0 0 0 0 0 0 0 0 0 0 0 0 0 0 0 0 0 0 0 0 0 0 0 0 0 618 629 634 623 623 618 618 623 618 623 618 623 629 634 657 657 645 645 639 639 639 645 634 618 623 629 634 639 639 629 629 623 623 618 0 0 608 603 598 603 613 613 623 629 629 629 634 639 639 639 639 629 618 618 629 618 613 618 613 623 618 623 618 613 618 623 618 629 629 623 618 639 639 639 639 639 634 634 634 645 618 618 618 623 618 623 618 618 629 634 629 629 629 629 634 629 634 634 629 634 629 629 629 629 629 629 618 629 618 629 634 639 634 639 629 651 639 645 645 639 645 639 645 634 651 645 634 651 645 645 651 645 657 645 651 657 645 651 645 645 657 639 645 634 629 623 0 0 0 0 0 0 0 0 0 260 260 261 0 278 278 279 281 280 280 279 283 274 269 270 269 268 271 277 278 278 279 280 280 279 277 276 273 269 265 0 0 598 598 603 608 588 579 579 584 557 541 0 0 0 377 379 377 375 379 379 377 381 377 375 375 373 360 359 355 352 348 352 350 352 353 357 357 357 355 353 353 355 352 352 353 347 347 352 0 0 321 330 331 331 327 331 333 334 0 339 0 0 0 0 0
    0 0 0 0 0 0 0 0 0 0 0 0 0 0 0 0 0 0 0 0 0 0 0 0 0 0 0 0 0 0 0 0 0 0 0 0 0 0 0 0 0 0 0 0 0 0 0 0 0 0 0 0 0 0 0 0 0 0 0 0 0 0 0 0 0 0 0 0 0 598 613 0 0 0 603 598 603 603 608 603 603 618 629 651 651 639 639 634 634 629 634 623 608 613 618 623 629 629 623 618 618 618 608 0 598 593 588 588 598 603 603 613 623 623 623 629 629 634 629 0 623 608 613 618 613 603 613 608 618 608 613 603 598 603 608 608 613 613 613 613 634 629 634 629 629 629 629 629 639 618 618 613 618 613 618 613 613 623 629 623 623 629 629 629 629 629 629 623 629 623 623 618 623 618 623 613 623 613 618 629 629 629 629 618 634 629 634 639 629 634 629 634 629 645 634 634 645 639 645 645 639 651 634 645 651 639 645 639 639 645 634 645 629 623 618 0 0 0 0 0 0 0 0 0 260 261 262 0 278 279 280 281 281 280 280 285 274 270 270 270 267 272 278 278 279 280 281 281 280 278 278 276 0 0 598 598 598 598 598 603 584 579 579 579 553 545 545 0 0 0 387 387 379 383 383 379 383 377 377 375 373 362 360 357 353 350 352 352 353 353 355 353 353 353 350 350 353 350 350 352 347 348 355 0 0 321 330 331 330 327 0 0 0 0 339 0 0 0 0 0
    0 0 0 0 0 0 0 0 0 0 0 0 0 0 0 0 0 0 0 0 0 0 0 0 0 0 0 0 0 0 0 0 0 0 0 0 0 0 0 0 0 0 0 0 0 0 0 0 0 0 0 0 0 0 0 0 0 0 0 0 0 0 0 0 0 0 0 0 0 584 588 593 584 588 588 584 588 588 593 588 588 603 608 639 634 629 629 623 623 618 618 608 598 598 608 613 613 618 613 613 613 608 603 584 588 584 579 584 593 593 598 603 613 613 613 618 623 0 0 0 608 598 598 603 603 593 598 598 603 598 598 593 588 588 598 598 598 603 598 593 618 618 623 618 623 618 618 623 629 613 608 608 608 603 608 613 608 618 618 618 623 623 623 623 618 623 623 618 623 618 613 613 613 613 613 608 0 598 603 613 613 608 613 603 613 608 618 629 618 623 618 623 623 634 629 629 634 634 639 639 634 639 629 634 639 629 634 629 629 629 623 634 623 608 608 0 0 0 0 0 0 0 0 0 262 263 263 278 278 279 280 281 281 280 280 288 274 270 270 270 267 273 278 279 279 281 283 283 280 280 279 0 0 0 593 593 593 593 588 593 574 574 570 566 549 545 541 0 0 0 0 0 381 383 381 379 381 377 377 375 371 364 362 359 353 352 352 352 353 352 353 350 350 350 348 348 352 348 350 352 348 348 357 0 0 321 331 331 330 328 0 0 0 0 339 0 0 0 0 0
    0 0 0 0 0 0 0 0 0 0 0 0 0 0 0 0 0 0 0 0 0 0 0 0 0 0 0 0 0 0 0 0 0 0 0 0 0 0 0 0 0 0 0 0 0 0 0 0 0 0 0 0 0 0 0 0 0 0 0 0 0 0 0 0 0 0 0 0 0 574 574 579 570 579 579 574 579 574 579 579 579 593 588 0 618 613 613 613 613 608 603 598 588 588 603 608 603 608 608 598 608 593 593 566 579 570 570 574 584 584 588 593 603 603 608 613 613 0 0 0 598 588 584 588 593 588 593 588 598 593 593 588 579 579 588 584 584 588 584 579 603 608 613 608 613 613 608 618 623 608 598 593 593 584 593 603 598 613 613 608 613 613 613 613 613 618 613 613 618 613 603 603 603 598 603 593 598 584 579 598 593 593 598 588 593 593 598 613 603 613 608 613 608 618 618 618 623 629 629 629 629 629 618 0 629 618 618 618 618 618 608 623 613 593 593 574 0 0 0 0 0 0 0 0 271 267 264 279 279 280 280 283 283 281 281 292 275 271 269 269 267 272 278 278 279 281 283 283 281 281 280 279 0 0 584 588 588 588 579 584 570 570 570 561 549 545 541 0 0 0 0 0 0 383 381 377 381 377 375 375 371 364 362 360 353 352 353 352 353 353 353 350 348 350 348 350 352 348 352 352 348 350 359 0 0 322 331 333 330 330 0 0 0 0 339 0 0 0 0 0
    0 0 0 0 0 0 0 0 0 0 0 0 0 0 0 0 0 0 0 0 0 0 0 0 0 0 0 0 0 0 0 0 0 0 0 0 0 0 0 0 0 0 0 0 0 0 0 0 0 0 0 0 0 0 0 0 0 0 0 0 0 0 0 0 0 0 0 0 0 570 570 574 566 570 574 566 570 566 570 570 570 584 570 593 598 593 598 598 598 593 593 588 584 579 593 593 588 598 598 584 593 579 579 557 570 561 566 570 579 579 584 588 598 598 603 608 603 598 598 593 588 579 570 579 584 584 588 584 593 588 588 584 574 574 584 579 579 584 570 570 588 598 598 598 598 603 598 608 608 598 588 584 579 574 584 588 584 603 598 598 608 608 608 608 608 613 608 608 613 608 593 593 588 588 588 584 584 570 566 584 579 584 584 579 579 584 584 598 588 598 593 598 593 603 608 608 613 618 618 618 618 618 0 0 0 0 0 608 608 603 598 0 598 574 574 561 0 0 0 0 0 0 0 0 277 275 269 280 280 281 281 283 283 283 283 292 276 273 272 273 268 273 277 278 279 280 281 283 283 283 283 280 279 593 579 584 584 584 574 574 566 566 566 561 549 545 545 0 0 0 0 0 0 383 379 375 381 377 377 373 369 366 362 360 352 352 352 350 353 353 353 348 348 350 348 350 352 350 352 350 348 350 360 0 0 322 333 333 330 331 0 0 0 0 337 0 0 0 0 0
    0 0 0 0 0 0 0 0 0 0 0 0 0 0 0 0 0 0 0 0 0 0 0 0 0 0 0 0 0 0 0 0 0 0 0 0 0 0 0 0 0 0 0 0 0 0 0 0 0 0 0 0 0 0 0 0 0 0 0 0 0 0 0 0 0 0 0 0 0 570 566 570 561 566 570 561 566 561 566 561 561 574 557 566 579 574 579 584 584 579 584 579 574 570 584 579 574 584 584 566 579 566 570 557 566 557 566 566 574 574 579 579 588 588 598 598 588 588 588 579 579 570 566 570 574 574 574 574 584 584 579 579 570 566 579 574 570 574 566 566 579 588 588 588 593 593 588 598 598 588 579 570 566 561 574 574 574 588 588 588 598 598 603 603 603 608 603 598 603 603 584 584 579 574 579 574 570 561 561 574 570 574 579 570 574 574 579 588 584 588 584 588 584 588 598 593 603 608 608 608 608 613 598 0 0 598 598 598 598 588 588 598 588 561 561 549 0 0 0 0 0 0 0 0 281 277 274 281 281 283 281 281 281 281 281 290 276 274 274 274 270 274 277 278 279 280 281 283 283 285 285 284 281 0 579 579 579 579 566 570 561 566 566 561 549 545 545 0 0 0 0 0 0 383 381 375 383 379 377 373 369 366 362 360 350 352 352 350 352 352 352 348 348 350 348 350 352 350 352 350 348 352 360 0 0 325 334 334 331 333 0 0 0 0 337 0 0 0 0 0
    0 0 0 0 0 0 0 0 0 0 0 0 0 0 0 0 0 0 0 0 0 0 0 0 0 0 0 0 0 0 0 0 0 0 0 0 0 0 0 0 0 0 0 0 0 0 0 0 0 0 0 0 0 0 0 0 0 0 0 0 0 0 0 0 0 0 0 0 0 566 566 570 557 566 566 561 561 561 561 561 557 570 557 561 566 561 566 570 570 566 570 566 566 566 574 566 566 579 574 561 570 557 561 557 566 557 561 566 570 570 574 574 579 579 588 579 570 574 570 566 566 561 557 557 561 566 561 561 574 574 574 570 566 561 570 566 566 570 561 566 570 579 584 579 584 579 574 588 584 574 570 561 557 557 566 566 566 579 579 584 584 588 588 593 593 603 593 593 598 598 574 574 570 566 570 566 561 557 557 570 566 570 574 570 574 570 574 584 579 584 579 584 579 579 588 579 588 593 593 593 598 598 584 588 593 588 588 588 588 574 574 588 579 557 553 545 0 0 0 0 0 0 0 0 294 281 277 284 285 285 283 281 281 281 281 289 275 274 273 274 271 274 277 278 278 280 280 281 284 287 287 286 283 281 0 579 584 584 566 561 561 566 566 557 545 545 541 0 0 0 0 0 0 383 379 375 383 377 375 371 367 366 362 359 350 352 352 350 352 352 352 348 348 350 350 352 353 350 352 348 348 352 362 0 0 328 334 334 333 334 0 0 0 0 337 0 0 0 0 0
    0 0 0 0 0 0 0 0 0 0 0 0 0 0 0 0 0 0 0 0 0 0 0 0 0 0 0 0 0 0 0 0 0 0 0 0 0 0 0 0 0 0 0 0 0 0 0 0 0 0 0 0 0 0 0 0 0 0 0 0 0 0 0 0 0 0 0 0 0 566 561 570 557 566 566 561 561 561 561 561 557 570 561 561 561 561 561 561 566 561 561 561 561 561 570 566 566 574 574 561 570 557 557 553 561 557 561 561 566 570 574 570 574 574 584 570 561 566 561 557 557 557 553 553 557 561 557 557 566 570 566 566 566 561 570 561 561 566 553 561 566 570 574 570 574 570 566 584 570 566 561 557 557 557 566 561 561 574 570 574 574 579 574 579 579 588 579 584 588 588 566 570 566 561 561 561 557 557 557 570 566 566 570 566 570 570 574 574 574 579 574 579 574 574 579 570 579 579 579 584 588 588 570 579 584 574 579 579 579 566 570 579 566 553 549 0 0 0 0 0 0 0 0 0 297 285 279 286 287 288 284 281 281 280 281 288 275 273 273 273 271 273 276 277 278 280 279 281 284 288 288 288 285 285 284 0 588 588 561 561 561 566 566 557 545 545 541 0 0 504 0 0 381 383 381 377 387 377 375 371 367 366 364 359 350 352 352 350 353 352 352 348 348 350 350 353 353 352 352 348 348 352 0 0 331 331 336 334 334 0 0 124 0 0 337 0 0 0 0 0
    0 0 0 0 0 0 0 0 0 0 0 0 0 0 0 0 0 0 0 0 0 0 0 0 0 0 0 0 0 0 0 0 0 0 0 0 0 0 0 0 0 0 0 0 0 0 0 0 0 0 0 0 0 0 0 0 0 0 0 0 0 0 0 0 0 0 0 0 0 566 566 570 557 566 566 561 566 561 561 561 557 574 561 561 561 561 566 561 561 557 561 561 561 561 566 561 561 570 570 561 566 557 553 553 561 557 561 561 566 566 570 570 574 574 584 570 557 561 561 553 553 553 553 553 557 561 553 557 561 570 566 566 561 561 570 561 561 566 553 561 561 561 566 566 570 566 561 579 561 561 561 561 557 557 570 557 557 570 566 566 561 566 561 566 566 574 566 574 579 584 557 561 561 557 561 561 557 557 557 570 566 566 570 566 566 566 570 570 570 574 570 574 574 570 574 561 570 570 566 570 574 574 561 570 574 566 570 574 570 561 561 574 561 553 545 0 0 0 0 0 0 0 0 0 301 288 281 288 290 289 285 280 281 280 280 288 275 273 273 274 271 273 276 277 278 279 279 281 285 289 289 289 287 288 287 0 0 0 557 557 557 561 561 553 545 541 541 0 0 0 395 389 383 381 381 377 389 377 375 371 369 367 366 360 353 353 353 0 355 353 353 350 350 350 352 353 353 352 352 348 348 353 0 0 331 333 336 334 334 0 124 124 123 0 337 0 0 0 0 0
    0 0 0 0 0 0 0 0 0 0 0 0 0 0 0 0 0 0 0 0 0 0 0 0 0 0 0 0 0 0 0 0 0 0 0 0 0 0 0 0 0 0 0 0 0 0 0 0 0 0 0 0 0 0 0 0 0 0 0 0 0 0 0 0 0 0 0 0 0 566 561 574 557 566 566 561 566 561 561 566 557 574 561 557 561 557 561 561 561 557 561 557 561 561 566 561 561 570 570 561 566 557 553 557 561 553 566 566 566 570 574 574 574 574 584 570 557 566 561 553 553 557 553 553 557 561 553 557 561 570 561 566 566 561 570 561 561 566 553 561 561 561 566 566 570 566 561 579 561 561 566 561 557 557 570 553 557 566 561 566 561 566 561 561 566 574 561 570 570 579 553 561 561 557 557 561 557 557 557 570 566 561 570 566 566 566 570 570 570 574 570 574 574 570 574 561 566 566 561 566 570 570 557 566 570 566 570 574 570 561 561 574 561 553 549 0 0 0 0 0 0 0 0 0 0 0 285 289 293 292 286 280 281 280 281 287 275 274 274 274 272 273 276 277 278 279 279 283 286 292 290 290 290 290 289 0 0 0 549 553 557 557 557 553 541 541 0 0 0 0 397 389 383 381 381 379 389 377 373 371 369 369 367 362 357 357 355 0 357 357 357 355 353 353 355 357 355 353 352 348 348 353 0 0 334 334 336 336 336 0 124 124 124 0 339 0 0 0 0 0
    0 0 0 0 0 0 0 0 0 0 0 0 0 0 0 0 0 0 0 0 0 0 0 0 0 0 0 0 0 0 0 0 0 0 0 0 0 0 0 0 0 0 0 0 0 0 0 0 0 0 0 0 0 0 0 0 0 0 0 0 0 0 0 0 0 0 0 0 0 570 561 574 561 566 570 566 566 561 561 566 557 570 561 557 557 557 561 557 561 557 561 561 561 566 566 566 570 570 574 566 570 557 557 561 566 553 566 566 566 570 570 570 574 570 584 566 561 566 561 557 553 557 553 553 557 561 553 557 561 566 561 566 566 557 566 557 561 566 553 566 561 561 566 566 570 566 566 584 561 566 566 561 557 557 570 549 557 566 561 566 566 566 561 566 570 574 561 570 570 579 553 561 561 557 557 561 557 557 557 574 566 561 570 566 570 566 570 570 574 574 570 574 574 570 579 561 566 566 561 566 570 566 557 566 570 566 570 574 570 561 561 574 566 557 549 0 0 0 0 0 0 0 0 0 0 0 0 292 294 293 287 281 281 280 283 285 274 273 274 274 272 274 277 278 278 280 279 284 288 293 293 293 292 0 0 0 0 0 545 553 557 553 557 549 541 0 0 0 0 0 0 391 381 381 381 379 391 375 373 371 369 371 367 364 359 359 359 360 360 360 359 359 357 357 357 359 357 355 352 348 350 352 0 336 334 336 336 336 336 337 0 0 0 342 340 0 0 0 0 0
    0 0 0 0 0 0 0 0 0 0 0 0 0 0 0 0 0 0 0 0 0 0 0 0 0 0 0 0 0 0 0 0 0 0 0 0 0 0 0 0 0 0 0 0 0 0 0 0 0 0 0 0 0 0 0 0 0 0 0 0 0 0 0 0 0 0 0 0 0 574 566 579 561 561 566 566 561 557 561 566 557 570 561 553 557 557 561 557 561 557 566 566 566 570 570 574 574 574 584 574 579 566 561 570 570 553 570 566 566 566 570 570 570 570 579 566 561 566 566 557 557 557 557 557 557 561 553 557 561 566 566 566 566 561 570 561 561 566 553 566 566 561 570 566 574 566 566 584 566 566 570 561 561 561 574 553 557 566 561 570 566 570 561 561 570 574 561 570 570 574 553 561 561 557 557 561 557 557 557 574 566 566 574 570 574 566 570 570 574 574 570 574 574 570 579 561 566 566 557 566 570 566 557 566 566 566 570 570 570 561 561 574 566 557 553 0 0 0 0 0 0 0 0 0 0 0 0 292 294 293 288 281 281 281 283 283 274 274 274 274 273 275 278 279 279 280 280 285 288 292 292 292 0 0 0 0 0 0 545 553 557 557 561 553 0 0 0 0 0 0 0 391 381 381 383 381 391 375 373 371 371 371 367 366 362 362 362 362 362 362 362 360 359 359 359 359 357 355 352 350 350 348 0 334 334 336 336 336 337 339 340 340 342 342 340 0 0 0 0 0
    0 0 0 0 0 0 0 0 0 0 0 0 0 0 0 0 0 0 0 0 0 0 0 0 0 0 0 0 0 0 0 0 0 0 0 0 0 0 0 0 0 0 0 0 0 0 0 0 0 0 0 0 0 0 0 0 0 0 0 0 0 0 0 0 0 0 0 0 0 574 561 574 557 561 566 561 561 557 561 566 557 570 561 553 557 561 566 561 566 561 566 566 570 574 574 579 579 579 584 579 579 570 566 570 566 557 570 566 566 566 566 570 570 570 579 566 561 570 566 561 557 557 557 557 557 561 553 557 561 566 566 570 570 566 570 561 561 566 557 566 566 561 566 566 574 566 566 584 566 566 574 566 566 566 584 553 561 566 566 570 566 566 561 561 566 570 561 566 566 566 549 561 561 557 557 561 557 557 561 579 570 566 579 574 574 566 574 570 574 570 570 574 574 570 579 561 570 566 561 566 570 566 557 566 566 566 570 570 570 561 561 574 566 561 553 0 0 0 0 0 0 0 0 0 0 0 0 292 293 293 288 281 281 281 283 280 274 274 274 274 274 276 278 279 279 280 281 286 289 293 292 292 0 0 0 0 0 566 545 557 561 557 561 553 0 0 0 0 0 0 0 393 385 383 385 383 391 375 373 373 371 373 369 367 364 364 364 364 364 364 364 362 360 359 359 359 357 355 352 350 350 0 339 334 333 334 336 336 337 337 340 342 342 342 342 0 0 0 0 0
    0 0 0 0 0 0 0 0 0 0 0 0 0 0 0 0 0 0 0 0 0 0 0 0 0 0 0 0 0 0 0 0 0 0 0 0 0 0 0 0 0 0 0 0 0 0 0 0 0 0 0 0 0 0 0 0 0 0 0 0 0 0 0 0 0 0 0 0 0 570 557 570 557 557 566 566 561 557 561 566 557 570 566 553 557 566 570 566 570 561 566 566 570 574 574 579 579 579 584 584 584 574 574 574 566 557 570 566 566 566 570 570 570 570 579 570 561 570 566 557 553 553 553 553 553 561 553 557 561 566 566 570 570 566 570 561 566 566 557 570 566 561 566 566 574 561 566 584 566 566 574 566 566 570 588 561 566 570 566 570 566 566 557 557 561 566 557 561 561 561 549 561 561 557 557 557 557 557 561 584 570 566 584 579 579 570 574 566 574 570 574 574 574 570 579 566 570 570 561 566 570 566 557 566 566 566 566 570 566 561 566 574 566 561 553 0 0 0 0 0 0 0 0 0 0 0 0 290 292 292 288 281 281 280 283 277 273 273 273 273 273 275 277 279 279 281 283 287 289 293 293 293 293 0 0 0 0 561 545 557 561 561 561 553 0 0 0 0 0 0 0 395 387 385 387 387 391 375 373 373 373 373 369 369 367 367 367 367 366 366 366 364 360 360 359 360 359 357 352 352 350 0 337 334 333 336 336 337 337 339 342 342 343 343 343 0 0 0 0 0
    0 0 0 0 0 0 0 0 0 0 0 0 0 0 0 0 0 0 0 0 0 0 0 0 0 0 0 0 0 0 0 0 0 0 0 0 0 0 0 0 0 0 0 0 0 0 0 0 0 0 0 0 0 0 0 0 0 0 0 0 0 0 0 0 0 0 0 0 0 0 553 570 557 557 566 566 557 557 561 566 557 570 570 553 553 570 570 566 570 561 566 566 570 570 574 579 579 574 579 574 579 574 574 574 566 561 574 570 570 570 570 574 570 574 579 570 566 570 570 557 553 553 553 553 553 561 553 557 561 570 566 574 579 570 574 566 570 566 557 574 566 566 566 566 570 561 566 579 561 561 566 566 566 574 588 566 570 570 566 570 566 566 557 557 561 561 557 561 561 557 549 561 561 557 557 557 557 557 561 579 570 570 584 579 579 570 574 566 570 570 570 574 574 574 584 570 574 574 566 570 574 566 557 566 561 566 566 566 566 561 566 570 566 561 553 0 0 0 0 0 0 0 0 0 0 0 0 290 292 290 288 281 281 281 284 277 273 274 273 274 272 275 277 278 278 281 284 288 289 293 293 293 293 294 292 0 0 561 541 561 561 561 566 553 0 0 0 0 0 0 0 395 391 387 389 389 393 377 373 373 373 375 371 369 367 367 367 367 367 367 367 0 362 360 360 360 359 357 353 350 350 342 336 333 333 336 337 337 339 339 342 343 343 345 0 0 0 0 0 0
    0 0 0 0 0 0 0 0 0 0 0 0 0 0 0 0 0 0 0 0 0 0 0 0 0 0 0 0 0 0 0 0 0 0 0 0 0 0 0 0 0 0 0 0 0 0 0 0 0 0 0 0 0 0 0 0 0 0 0 0 0 0 0 0 0 0 0 0 0 0 549 561 553 553 566 566 557 557 557 566 557 570 570 553 553 566 570 566 570 566 566 566 570 574 574 584 579 574 574 570 0 0 570 566 561 557 570 570 570 570 570 574 574 574 584 574 566 570 570 561 553 557 553 553 553 561 557 557 566 570 566 574 584 570 579 570 574 570 557 574 570 566 566 566 570 561 566 579 561 566 570 570 570 579 593 570 574 574 566 570 566 566 557 553 561 561 557 557 557 553 549 557 561 557 557 557 557 557 561 579 570 570 584 574 574 566 574 566 574 570 574 570 574 574 588 574 579 579 566 570 579 561 561 566 561 566 566 566 561 557 566 566 566 557 549 0 0 0 0 0 0 0 0 0 0 0 0 290 292 290 288 283 283 281 285 277 273 274 273 273 271 275 277 277 278 281 286 289 290 294 294 294 295 295 293 0 570 561 545 566 566 566 566 553 541 0 0 0 0 0 0 0 395 391 393 391 393 379 375 375 375 377 371 369 367 367 367 367 366 366 366 0 360 360 360 360 359 357 353 348 350 342 336 334 334 337 339 339 340 340 343 345 347 348 474 0 0 0 0 0
    0 0 0 0 0 0 0 0 0 0 0 0 0 0 0 0 0 0 0 0 0 0 0 0 0 0 0 0 0 0 0 0 0 0 0 0 0 0 0 0 0 0 0 0 0 0 0 0 0 0 0 0 0 0 0 0 0 0 0 0 0 0 0 0 0 0 0 0 0 0 545 561 553 553 561 566 557 553 557 561 553 561 561 549 549 557 561 561 566 0 566 561 566 0 0 0 574 561 553 0 0 0 0 0 0 0 0 566 566 566 570 570 570 574 584 579 566 570 566 0 0 0 0 0 0 0 553 0 566 566 566 584 584 570 574 566 570 561 557 570 566 561 566 566 566 561 566 584 566 566 570 570 570 584 593 574 579 574 570 574 566 561 553 553 557 557 553 553 553 549 545 557 557 553 553 553 553 553 557 574 566 566 584 574 574 566 574 566 570 566 574 570 574 579 588 574 584 584 570 570 579 566 561 566 561 566 561 566 561 557 566 566 566 557 549 0 0 0 0 0 0 0 0 0 0 0 290 290 290 290 288 284 283 283 286 277 273 274 273 274 271 276 277 277 277 281 286 289 290 294 295 295 295 296 293 0 570 557 545 566 570 566 566 553 545 545 545 549 0 465 430 0 397 395 395 393 393 379 375 375 375 377 373 369 367 367 367 367 366 366 366 0 362 360 360 360 359 355 350 347 348 339 334 334 334 337 339 340 340 340 345 347 347 0 481 0 0 0 0 0
    0 0 0 0 0 0 0 0 0 0 0 0 0 0 0 0 0 0 0 0 0 0 0 0 0 0 0 0 0 0 0 0 0 0 0 0 0 0 0 0 0 0 0 0 0 0 0 0 0 0 0 0 0 0 0 0 0 0 0 0 0 0 0 0 0 0 0 0 0 0 541 557 549 549 557 561 553 549 553 553 549 549 549 537 537 0 549 0 0 0 0 557 0 0 0 0 0 549 0 0 0 511 500 500 511 0 0 0 553 557 561 561 561 561 570 570 561 0 0 0 0 0 0 0 0 0 533 533 541 545 557 584 579 566 566 561 561 553 549 561 557 557 557 561 557 553 566 579 561 561 561 561 566 584 593 570 574 566 566 570 561 557 545 545 553 549 549 545 541 545 541 553 553 549 549 549 549 545 549 566 557 557 579 566 570 566 574 570 574 570 579 574 579 579 588 579 584 584 570 574 579 566 566 561 561 561 561 561 557 557 561 561 561 553 0 0 0 0 0 0 0 0 0 0 0 0 290 290 289 289 288 284 284 284 285 277 273 275 274 274 272 276 277 277 277 281 287 289 292 296 297 296 297 297 294 0 557 549 541 561 566 561 561 553 545 545 545 549 0 474 432 415 404 399 397 395 393 381 375 377 377 377 373 367 366 366 367 367 366 366 366 0 0 362 362 359 359 352 350 347 348 339 334 333 334 337 339 340 342 340 345 348 348 484 484 0 0 0 0 0
    0 0 0 0 0 0 0 0 0 0 0 0 0 0 0 0 0 0 0 0 0 0 0 0 0 0 0 0 0 0 0 0 0 0 0 0 0 0 0 0 0 0 0 0 0 0 0 0 0 0 0 0 0 0 0 0 0 0 0 0 0 0 0 0 0 0 0 0 0 0 529 549 545 545 553 557 545 545 545 541 537 533 529 518 521 529 525 0 0 0 0 0 0 0 0 0 0 541 0 0 0 497 493 493 497 0 0 0 545 545 545 553 549 553 0 561 0 0 0 0 0 0 0 518 521 525 521 514 525 529 537 566 557 545 549 549 553 541 541 549 549 549 549 0 545 0 557 0 0 545 545 549 553 574 593 566 574 561 561 566 553 549 541 541 545 541 537 533 529 529 525 541 541 537 541 533 537 533 541 545 545 549 557 549 557 557 570 566 566 566 574 566 570 574 584 570 0 579 566 570 574 561 566 561 561 561 557 557 553 553 557 553 553 549 0 0 0 0 0 0 0 0 0 0 0 0 292 290 289 289 288 285 284 284 286 277 273 275 275 275 273 277 278 278 279 284 288 289 290 295 296 296 297 297 294 0 541 541 537 557 557 557 557 549 541 541 541 545 0 477 438 432 415 406 399 397 395 383 375 377 377 377 373 367 366 366 367 366 366 366 366 0 362 362 362 359 359 350 348 347 347 337 336 334 336 337 339 340 343 342 348 353 0 484 484 0 0 0 0 0
    0 0 0 0 0 0 0 0 0 0 0 0 0 0 0 0 0 0 0 0 0 0 0 0 0 0 0 0 0 0 0 0 0 0 0 0 0 0 0 0 0 0 0 0 0 0 0 0 0 0 0 0 0 0 0 0 0 0 0 0 0 0 0 0 0 0 0 0 0 0 487 0 514 518 525 545 533 533 533 525 525 514 514 500 504 504 500 0 0 0 0 0 0 0 0 0 0 500 487 481 487 493 493 493 490 0 0 0 525 525 521 541 533 0 0 0 0 0 88 0 0 0 497 500 504 511 507 504 514 518 521 541 537 525 507 525 545 514 529 537 541 541 541 537 533 525 0 0 0 525 521 525 0 0 588 553 557 553 553 553 545 541 533 529 533 529 529 521 507 497 500 518 521 514 521 507 521 518 525 533 529 537 541 533 545 0 557 549 549 0 0 533 545 0 0 0 0 0 0 557 566 553 566 557 557 557 557 553 549 549 553 545 541 0 525 0 0 0 0 0 0 0 0 0 0 284 292 290 289 288 288 285 284 284 286 277 275 276 275 275 273 277 278 278 279 286 289 289 292 296 297 297 297 296 0 497 511 533 525 553 553 553 553 549 541 541 541 541 507 477 451 440 427 415 404 399 395 385 377 377 377 377 373 367 364 366 367 364 364 364 364 0 362 364 362 357 359 352 350 347 348 339 337 336 337 339 340 340 347 345 357 0 487 481 481 0 0 0 0 0
    0 0 0 0 0 0 0 0 0 0 0 0 0 0 0 0 0 0 0 0 0 0 0 0 0 0 0 0 0 0 0 0 0 0 0 0 0 0 0 0 0 0 0 0 0 0 0 0 0 0 0 0 0 0 0 0 0 0 0 0 0 0 0 0 0 0 0 0 0 507 487 484 487 493 490 497 497 500 507 497 504 497 497 490 493 493 493 0 0 0 0 0 0 0 0 0 493 490 487 481 487 493 490 490 487 0 0 0 511 507 497 518 511 514 500 0 0 0 0 0 0 0 487 493 493 493 497 493 504 504 507 529 514 504 490 504 533 493 518 525 529 525 529 521 521 514 525 518 507 507 504 500 504 0 584 549 0 537 0 541 533 533 518 514 518 518 514 504 497 487 490 493 497 497 497 493 504 504 514 518 514 518 521 511 525 493 504 504 497 497 497 493 497 493 0 0 0 0 0 0 553 545 570 557 557 553 553 549 545 545 549 537 529 521 507 497 0 0 0 0 0 0 0 0 288 284 290 290 289 288 288 285 284 285 286 277 274 275 275 275 273 277 277 278 281 292 293 292 294 299 299 301 299 300 0 487 487 507 500 545 549 549 545 545 537 533 533 537 504 481 471 448 432 422 408 402 395 385 379 377 377 379 375 367 364 366 366 364 364 362 0 357 362 364 362 357 359 352 350 347 348 340 339 337 339 339 339 340 350 0 451 471 481 481 481 0 0 0 0 0
    0 0 0 0 0 0 0 0 0 0 0 0 0 0 0 0 0 0 0 0 0 0 0 0 0 0 0 0 0 0 0 0 0 0 0 0 0 0 0 0 0 0 0 0 0 0 0 0 0 0 0 0 0 0 0 0 0 0 0 0 0 0 0 0 0 0 0 0 0 507 484 481 487 490 487 484 487 487 490 487 493 490 490 487 487 487 490 487 487 487 487 481 0 0 0 0 487 484 484 481 487 490 490 490 487 490 487 490 497 493 487 493 490 493 484 0 0 0 0 0 0 484 484 490 487 487 490 490 497 497 497 518 497 497 487 493 518 487 511 514 514 514 518 511 511 504 514 497 493 497 493 490 490 0 0 525 497 507 493 514 518 514 504 500 500 504 500 493 490 484 487 490 487 490 487 487 493 493 500 500 500 497 500 497 507 490 493 493 490 490 493 487 490 487 0 0 0 0 0 0 525 500 574 553 553 549 545 545 541 537 541 529 514 507 497 490 0 0 0 0 0 0 0 0 287 284 290 289 288 288 287 285 284 284 284 277 274 275 275 275 273 276 277 278 284 294 294 294 295 300 300 305 300 0 481 484 481 490 490 533 545 541 541 541 533 529 525 525 504 484 481 462 440 430 411 402 395 385 381 379 379 379 375 367 364 366 366 362 362 0 0 0 362 364 362 355 357 352 350 347 347 342 340 339 342 340 340 340 0 451 459 471 477 477 477 0 0 0 0 0
    0 0 0 0 0 0 0 0 0 0 0 0 0 0 0 0 0 0 0 0 0 0 0 0 0 0 0 0 0 0 0 0 0 0 0 0 0 0 0 0 0 0 0 0 0 0 0 0 0 0 0 0 0 0 0 0 0 0 0 0 0 0 0 0 0 0 0 0 0 507 481 481 487 490 487 481 484 484 487 487 490 487 487 484 487 487 487 487 487 487 484 481 477 474 0 0 481 481 481 477 484 490 490 490 484 487 487 484 490 487 484 487 487 487 481 481 487 0 0 477 477 481 481 487 487 484 487 487 493 493 493 507 490 490 487 490 504 487 507 507 504 504 504 500 504 497 504 490 490 493 490 484 487 484 490 497 487 490 487 493 500 500 497 493 493 497 497 493 490 484 487 487 487 487 484 484 490 490 493 490 493 490 493 493 504 487 493 490 490 487 490 487 490 487 484 0 0 484 484 484 490 481 570 545 549 541 537 537 533 533 533 521 504 500 493 484 481 0 0 0 0 0 0 0 0 284 289 289 288 288 286 285 283 283 283 278 275 275 274 274 274 276 278 280 287 294 295 294 295 300 300 306 301 0 484 484 481 487 487 497 525 525 529 533 525 518 518 514 497 487 484 471 446 432 411 402 395 385 383 381 381 381 377 367 366 366 366 362 362 0 0 0 362 364 360 355 355 350 348 345 347 343 342 342 343 342 340 0 451 459 465 474 477 481 481 0 0 0 0 0
    0 0 0 0 0 0 0 0 0 0 0 0 0 0 0 0 0 0 0 0 0 0 0 0 0 0 0 0 0 0 0 0 0 0 0 0 0 0 0 0 0 0 0 0 0 0 0 0 0 0 0 0 0 0 0 0 0 0 0 0 0 0 0 0 0 0 0 0 0 497 481 481 487 487 487 484 484 484 487 487 490 487 484 484 487 487 487 487 484 484 484 481 477 474 474 477 481 481 477 477 484 490 487 490 487 487 487 484 490 487 484 484 484 484 481 481 484 481 481 481 481 484 484 490 490 490 490 490 497 490 490 500 484 487 487 487 490 484 500 500 497 497 500 497 500 497 504 490 487 493 490 484 487 484 487 490 484 487 484 487 493 493 493 490 487 493 493 490 490 487 487 487 487 487 487 487 490 487 490 487 490 487 487 487 493 487 490 490 490 490 490 487 490 487 484 484 484 484 481 481 484 481 0 500 518 507 511 518 514 514 514 507 497 493 490 484 477 0 0 0 0 0 0 0 0 284 289 289 288 288 287 286 284 284 284 279 275 275 275 275 275 278 280 285 290 295 296 295 296 301 300 309 0 0 484 484 484 487 487 490 507 504 507 511 518 511 511 504 493 487 487 474 446 427 402 397 391 381 383 381 379 381 379 371 367 371 371 366 0 0 0 0 0 362 359 352 352 350 348 345 348 345 343 343 347 343 342 459 459 468 471 477 477 481 481 0 0 0 0 0
    0 0 0 0 0 0 0 0 0 0 0 0 0 0 0 0 0 0 0 0 0 0 0 0 0 0 0 0 0 0 0 0 0 0 0 0 0 0 0 0 0 0 0 0 0 0 0 0 0 0 0 0 0 0 0 0 0 0 0 0 0 0 0 0 0 0 0 0 0 487 477 477 484 487 487 484 487 487 490 490 490 487 487 484 487 487 487 487 484 484 481 481 477 474 474 477 481 481 477 481 484 490 490 490 487 487 487 487 487 484 481 484 484 484 481 481 481 481 481 481 484 487 484 493 493 493 493 490 497 490 490 493 481 481 481 484 484 481 493 493 490 493 493 493 493 493 500 490 487 493 490 484 487 484 487 490 484 484 484 487 493 490 490 490 487 490 490 490 487 487 487 487 487 487 487 487 487 487 490 487 490 484 487 484 490 487 487 487 490 487 487 487 490 487 484 484 484 481 481 484 481 477 477 481 484 484 487 493 493 493 493 493 490 487 487 484 481 0 0 98 0 0 0 0 0 286 290 290 289 288 288 287 285 285 284 280 276 275 276 276 277 280 284 292 294 296 297 296 297 301 300 311 0 481 484 484 481 484 484 484 490 490 490 493 500 497 500 490 487 487 487 468 440 404 393 391 381 377 379 379 379 381 383 377 377 385 385 0 0 0 0 0 0 362 357 350 350 348 348 345 348 345 343 345 348 345 0 465 465 468 471 474 477 477 477 0 0 0 0 0
    0 0 0 0 0 0 0 0 0 0 0 0 0 0 0 0 0 0 0 0 0 0 0 0 0 0 0 0 0 0 0 0 0 0 0 0 0 0 0 0 0 0 0 0 0 0 0 0 0 0 0 0 0 0 0 0 0 0 0 0 0 0 0 0 0 0 0 0 0 481 474 477 484 487 487 487 490 487 490 490 493 490 487 487 487 487 490 487 484 484 484 481 477 477 474 477 481 481 481 481 484 490 490 490 487 487 487 487 487 484 481 484 481 484 477 477 481 477 481 481 484 487 484 493 497 493 493 490 493 490 487 490 481 481 481 477 481 477 490 490 490 490 493 490 493 493 500 490 487 493 487 484 487 484 487 487 481 484 484 487 490 490 490 493 490 490 493 490 487 487 487 487 484 484 484 484 484 484 484 481 484 481 484 481 487 487 487 487 487 484 487 487 490 487 484 484 484 484 484 484 484 477 477 481 481 481 484 487 484 487 487 490 487 487 487 484 481 0 0 0 0 0 0 0 0 0 292 292 289 290 288 287 285 285 286 280 276 275 276 277 278 283 287 294 295 296 297 297 299 302 300 0 0 481 484 484 481 481 481 481 481 481 481 481 484 484 487 481 481 484 484 457 432 393 389 383 373 373 375 375 375 381 385 381 385 393 393 0 0 0 0 0 364 362 357 348 350 348 347 345 348 345 343 345 347 343 0 465 468 471 471 474 474 477 474 0 0 0 0 0
    0 0 0 0 0 0 0 0 0 0 0 0 0 0 0 0 0 0 0 0 0 0 0 0 0 0 0 0 0 0 0 0 0 0 0 0 0 0 0 0 0 0 0 0 0 0 0 0 0 0 0 0 0 0 0 0 0 0 0 0 0 0 0 0 0 0 0 0 0 477 468 471 481 484 487 484 490 490 493 493 497 493 490 487 490 487 490 487 487 487 484 481 477 477 474 477 481 481 481 481 487 493 493 493 487 487 490 487 490 484 481 484 481 484 477 474 477 477 481 481 484 487 484 493 500 497 497 490 497 490 487 487 477 477 477 477 474 474 487 487 487 490 490 490 490 493 500 490 490 493 490 487 490 487 487 487 481 481 481 487 490 490 493 497 490 493 497 493 490 487 487 487 484 481 481 481 481 481 481 481 481 477 484 481 484 487 487 487 487 484 487 484 490 487 487 484 484 484 484 484 484 477 477 481 481 481 481 487 484 484 487 487 487 487 487 481 477 0 0 0 207 0 0 0 0 0 293 292 289 290 288 287 285 285 285 279 276 275 276 278 279 284 289 295 295 296 299 299 300 304 0 0 477 477 481 481 477 481 477 477 477 474 477 474 481 481 484 481 477 481 481 457 438 393 389 383 373 373 377 375 379 383 389 385 389 393 395 0 0 0 0 0 364 362 355 348 348 348 347 345 347 345 343 345 348 345 0 468 468 474 474 477 474 477 471 0 0 0 0 0
    0 0 0 0 0 0 0 0 0 0 0 0 0 0 0 0 0 0 0 0 0 0 0 0 0 0 0 0 0 0 0 0 0 0 0 0 0 0 0 0 0 0 0 0 0 0 0 0 0 0 0 0 0 0 0 0 0 0 0 0 0 0 0 0 0 0 0 0 0 474 465 474 481 484 484 487 490 490 493 493 497 493 490 487 490 487 487 487 484 484 481 477 474 474 474 477 481 481 481 484 487 493 493 493 487 487 487 487 487 0 0 0 481 481 477 474 477 477 481 481 484 487 484 493 500 497 497 490 497 490 487 0 477 477 477 477 474 474 487 487 487 490 490 490 490 493 500 490 490 493 490 484 490 487 487 487 481 484 481 487 490 490 493 497 493 493 497 497 493 490 487 487 484 477 481 481 477 477 477 477 477 474 484 481 484 487 487 487 487 487 487 484 493 490 487 484 484 484 484 484 484 477 477 481 477 481 481 487 481 484 487 487 487 487 487 481 477 0 0 212 0 0 0 0 0 0 292 290 289 289 287 285 284 283 283 279 276 275 276 278 279 284 290 296 296 296 300 300 301 304 0 0 0 477 481 481 477 477 477 477 477 474 477 474 481 481 484 477 474 477 477 454 438 395 389 381 371 373 377 375 377 381 385 381 387 393 395 389 391 0 0 364 364 360 353 347 348 348 347 345 347 345 343 345 350 347 0 471 468 474 474 477 474 477 474 0 0 0 0 0
    0 0 0 0 0 0 0 0 0 0 0 0 0 0 0 0 0 0 0 0 0 0 0 0 0 0 0 0 0 0 0 0 0 0 0 0 0 0 0 0 0 0 0 0 0 0 0 0 0 0 0 0 0 0 0 0 0 0 0 0 0 0 0 0 0 0 0 0 0 471 462 474 481 487 487 487 493 490 493 493 493 490 487 484 487 484 487 484 481 484 477 477 474 474 474 477 0 481 481 484 487 493 493 493 487 487 487 487 0 0 0 0 0 481 474 471 477 477 0 481 484 487 484 497 500 497 497 490 493 487 487 0 477 477 481 477 474 474 487 487 487 490 490 490 490 493 500 493 490 497 490 484 490 487 487 487 481 481 481 487 493 490 493 497 493 497 500 500 0 0 490 487 484 477 481 481 477 477 477 477 477 474 484 477 481 487 487 487 487 487 487 487 493 490 487 487 487 484 484 487 487 477 477 481 477 481 484 487 484 487 487 490 490 490 490 0 0 0 0 0 0 0 0 0 0 0 293 290 290 290 287 285 283 281 281 279 277 275 276 278 281 285 292 296 296 296 299 299 300 301 304 0 0 0 481 481 477 481 477 477 474 474 477 474 481 481 484 477 477 477 477 454 438 391 387 379 371 373 377 375 377 379 381 377 383 389 391 383 389 375 366 364 364 360 352 347 347 347 347 345 347 343 343 345 350 348 0 471 471 477 477 477 474 477 471 0 0 0 0 0
    0 0 0 0 0 0 0 0 0 0 0 0 0 0 0 0 0 0 0 0 0 0 0 0 0 0 0 0 0 0 0 0 0 0 0 0 0 0 0 0 0 0 0 0 0 0 0 0 0 0 0 0 0 0 0 0 0 0 0 0 0 0 0 0 0 0 0 0 0 459 454 465 477 484 487 484 493 490 493 493 493 490 484 484 484 484 484 481 477 481 474 477 471 474 471 474 0 481 477 481 484 493 493 497 487 487 487 484 0 0 0 0 0 0 474 471 477 477 0 481 0 0 487 500 507 500 500 490 493 487 487 0 477 474 477 474 471 471 484 484 487 487 490 487 490 493 500 493 490 497 490 484 487 487 487 487 484 481 481 487 493 493 497 500 497 500 504 507 0 0 0 490 487 477 481 481 474 477 474 477 477 474 484 477 481 490 484 484 487 484 484 484 493 490 490 490 490 487 487 490 487 481 477 481 477 481 484 487 484 487 487 490 487 490 487 0 0 0 0 0 0 0 0 0 0 296 295 292 290 290 287 285 284 281 281 281 278 277 278 281 285 288 293 295 296 295 299 299 299 300 301 301 0 0 481 481 477 481 481 477 474 474 477 474 477 481 484 481 474 474 0 448 432 389 383 379 371 373 375 373 375 377 377 375 377 383 387 377 385 375 367 364 366 360 350 345 347 347 345 345 345 343 342 345 352 352 0 468 468 471 477 484 477 481 474 0 0 0 0 0
    0 0 0 0 0 0 0 0 0 0 0 0 0 0 0 0 0 0 0 0 0 0 0 0 0 0 0 0 0 0 0 0 0 0 0 0 0 0 0 0 0 0 0 0 0 0 0 0 0 0 0 0 0 0 0 0 0 0 0 0 0 0 0 0 0 0 0 0 0 459 451 462 471 481 487 487 497 493 493 493 493 490 484 484 487 484 484 484 477 481 0 477 471 471 471 474 0 477 481 484 487 493 493 497 490 484 487 0 0 0 124 0 0 0 474 471 474 0 0 481 0 0 0 500 511 504 504 490 493 487 487 0 477 471 471 471 468 468 477 477 484 487 487 487 487 0 0 493 493 497 0 0 487 487 490 0 484 481 481 490 493 493 0 504 497 497 507 511 0 500 0 0 487 477 481 477 474 477 474 477 477 474 484 477 477 490 481 481 484 481 481 484 493 490 490 490 490 490 490 493 490 484 481 481 481 484 484 487 484 487 487 487 487 487 0 0 0 0 0 0 0 0 0 0 0 296 295 292 290 289 287 286 283 281 281 281 280 278 280 284 287 289 293 295 295 295 299 299 297 299 301 299 0 0 481 481 481 481 481 477 474 474 477 471 477 477 481 477 474 468 0 0 406 385 383 379 371 373 375 373 373 373 373 369 371 377 379 373 377 373 367 366 366 362 352 345 345 347 345 345 345 343 342 345 350 353 352 0 481 481 487 490 481 474 454 0 0 0 0 0
    0 0 0 0 0 0 0 0 0 0 0 0 0 0 0 0 0 0 0 0 0 0 0 0 0 0 0 0 0 0 0 0 0 0 0 0 0 0 0 0 0 0 0 0 0 0 0 0 0 0 0 0 0 0 0 0 0 0 0 0 0 0 0 0 0 0 0 0 0 454 446 451 454 474 487 504 514 507 0 504 500 500 487 487 487 487 487 484 471 477 0 477 0 474 474 0 99 484 0 490 500 500 504 504 497 0 0 0 0 0 124 0 0 0 471 468 471 0 0 0 0 0 0 500 511 507 507 493 497 490 0 0 474 468 465 465 462 465 468 471 477 0 0 0 0 0 0 493 0 0 0 0 0 493 493 0 0 477 477 493 497 493 0 507 500 497 511 511 0 0 0 0 484 471 477 474 468 474 474 474 477 474 484 477 481 487 481 481 481 481 477 481 490 490 490 490 490 490 490 493 490 484 481 481 484 484 484 487 484 487 490 487 484 487 0 0 0 0 0 0 0 0 0 0 0 295 296 292 289 287 285 284 281 280 280 279 279 278 281 286 289 290 293 295 295 295 297 299 297 297 301 297 287 0 477 481 477 477 477 477 474 471 474 471 477 477 481 477 471 465 0 0 402 385 383 379 371 371 373 371 371 371 371 367 369 375 375 371 373 371 369 366 367 364 355 345 345 347 345 345 345 342 342 345 350 350 347 347 353 0 0 0 481 0 0 0 0 0 0 0
    0 0 0 0 0 0 0 0 0 0 0 0 0 0 0 0 0 0 0 0 0 0 0 0 0 0 0 0 0 0 0 0 0 0 0 0 0 0 0 0 0 0 0 0 0 0 0 0 0 0 0 0 0 0 0 0 0 0 0 0 0 0 0 0 0 0 0 0 0 0 432 427 427 0 126 125 123 511 0 504 504 0 0 0 0 0 0 484 0 474 0 0 0 471 0 0 99 0 0 0 0 0 0 238 238 0 0 0 125 124 125 0 0 74 0 459 462 0 0 0 0 0 0 0 511 504 504 490 493 0 0 0 0 465 459 459 454 459 462 459 468 0 0 0 0 0 0 0 0 0 126 0 0 0 0 0 110 0 0 0 0 0 0 514 500 0 0 511 0 0 143 0 0 457 471 468 462 471 468 474 474 474 484 481 0 487 477 474 474 471 471 474 490 490 490 487 490 490 490 497 490 481 481 487 487 487 487 490 484 490 490 487 481 0 0 0 0 0 0 0 0 0 0 0 0 295 295 290 288 284 283 281 279 278 278 278 277 278 283 286 289 289 293 295 295 295 297 299 297 297 301 297 289 0 0 474 474 477 474 474 471 468 474 471 474 477 481 477 468 0 0 0 0 385 385 379 369 371 371 371 371 367 367 366 367 369 369 369 369 369 367 367 369 366 359 345 347 345 345 345 343 342 340 343 347 343 343 340 343 352 359 0 0 0 369 0 0 0 0 0
    0 0 0 0 0 0 0 0 0 0 0 0 0 0 0 0 0 0 0 0 0 0 0 0 0 0 0 0 0 0 0 0 0 0 0 0 0 0 0 0 0 0 0 0 0 0 0 0 0 0 0 0 0 0 0 0 0 0 0 0 0 0 0 0 0 0 0 0 0 0 0 0 0 0 0 0 0 0 0 0 0 0 0 0 0 0 0 0 0 0 0 0 0 0 0 0 0 0 0 0 0 0 0 0 0 0 0 0 0 0 0 0 0 0 0 0 0 0 0 0 0 0 0 0 0 0 0 0 0 0 0 0 0 459 0 0 0 0 0 0 0 208 207 210 212 213 0 0 0 0 0 124 0 0 111 110 109 0 0 0 0 0 0 0 0 0 0 0 0 0 0 0 0 451 465 465 457 465 465 471 471 471 0 91 91 490 0 0 0 471 471 471 493 493 487 487 490 490 490 493 490 0 477 481 481 484 0 487 481 0 0 484 477 0 129 0 0 0 0 0 205 93 93 0 296 295 294 287 285 281 280 279 278 277 276 276 277 277 281 285 287 287 292 294 294 293 295 296 295 296 300 296 288 284 0 0 0 471 471 471 468 465 474 468 474 474 477 481 465 0 0 0 0 385 385 379 371 371 371 371 371 366 366 364 364 366 366 366 367 366 367 367 369 366 360 345 347 347 345 345 343 340 340 342 345 340 339 336 340 347 353 357 0 367 369 0 0 0 0 0
    0 0 0 0 0 0 0 0 0 0 0 0 0 0 0 0 0 0 0 0 0 0 0 0 0 0 0 0 0 0 0 0 0 0 0 0 0 0 0 0 0 0 0 0 0 0 0 0 0 0 0 0 0 0 0 0 0 0 0 0 0 0 0 0 0 0 0 0 0 0 0 0 0 0 0 0 0 0 0 0 0 0 0 0 0 0 0 0 0 0 0 0 0 0 0 0 0 0 0 0 0 0 0 0 0 0 0 0 0 0 0 0 0 0 0 0 0 0 0 0 0 0 0 0 0 0 0 0 0 0 0 0 0 0 0 0 0 0 0 0 0 0 0 0 0 0 0 0 0 0 0 0 0 0 0 0 0 0 0 0 0 0 0 0 0 0 0 0 0 0 0 0 0 0 0 465 459 465 465 471 474 474 0 0 0 0 0 0 0 0 477 0 497 497 490 493 497 493 0 0 0 481 0 0 0 0 0 0 0 0 0 0 0 129 129 129 129 0 0 0 0 93 93 0 293 294 293 285 284 279 279 278 277 276 275 276 277 278 283 286 287 288 293 294 294 293 294 295 293 294 299 295 287 286 280 0 0 0 0 0 468 465 474 468 474 474 477 477 459 227 227 223 391 389 387 385 375 375 375 373 373 366 366 364 364 366 366 366 366 366 367 367 371 367 360 345 347 347 348 347 343 342 340 343 347 343 339 334 337 345 352 355 0 0 367 0 0 0 0 0
    0 0 0 0 0 0 0 0 0 0 0 0 0 0 0 0 0 0 0 0 0 0 0 0 0 0 0 0 0 0 0 0 0 0 0 0 0 0 0 0 0 0 0 0 0 0 0 0 0 0 0 0 0 0 0 0 0 0 0 0 0 0 0 0 0 0 0 0 0 0 0 0 0 0 0 0 0 0 0 0 0 0 0 0 0 0 0 0 0 0 0 0 0 0 0 0 0 0 0 0 0 0 0 0 0 0 0 0 0 0 0 0 0 0 0 0 0 0 0 0 0 0 0 0 0 0 0 0 0 0 0 0 0 0 0 0 0 0 0 0 0 0 0 0 0 0 0 0 0 0 0 0 0 0 0 0 0 0 0 0 0 0 0 0 0 0 0 0 0 0 0 0 0 0 0 0 0 0 0 0 0 0 0 0 0 0 0 0 0 0 0 0 0 0 0 0 0 0 0 0 0 0 0 0 0 0 0 0 0 0 0 0 0 0 0 0 0 0 0 0 94 93 0 292 293 293 292 284 283 279 279 277 276 275 275 276 277 277 284 287 289 289 293 294 293 293 294 293 290 292 295 293 287 286 283 285 286 295 292 285 0 0 474 468 0 468 471 471 0 0 227 221 383 381 383 385 377 375 377 375 373 364 366 362 362 364 364 364 364 364 367 366 369 371 362 345 347 347 348 347 345 342 342 343 348 343 339 334 337 342 347 350 353 362 366 0 0 0 0 0
    0 0 0 0 0 0 0 0 0 0 0 0 0 0 0 0 0 0 0 0 0 0 0 0 0 0 0 0 0 0 0 0 0 0 0 0 0 0 0 0 0 0 0 0 0 0 0 0 0 0 0 0 0 0 0 0 0 0 0 0 0 0 0 0 0 0 0 0 0 0 0 0 0 0 0 0 0 0 0 0 0 0 0 0 0 0 0 0 0 0 0 0 0 0 0 0 0 0 0 0 0 0 0 0 0 0 0 0 0 0 0 0 0 0 0 0 0 0 0 0 0 0 0 0 0 0 0 0 0 0 0 0 0 0 0 0 0 0 0 0 0 0 0 0 0 0 0 0 0 0 0 0 0 0 0 0 0 0 0 0 0 0 0 0 0 0 0 0 0 0 0 0 0 0 0 0 0 0 0 0 0 0 0 0 0 0 0 0 0 0 0 0 0 0 0 0 0 0 0 0 0 0 0 0 0 0 0 0 0 0 0 0 0 0 0 0 0 0 0 0 0 0 0 288 290 290 288 284 283 279 278 277 276 275 274 276 277 277 287 290 290 290 293 294 294 293 293 293 289 290 294 293 289 287 285 286 287 293 290 286 284 290 0 0 0 0 0 0 0 0 0 0 375 375 379 383 377 375 377 377 373 366 366 364 362 364 364 364 364 364 371 369 375 385 366 343 347 348 348 347 345 343 343 347 350 343 339 334 337 342 347 350 350 360 366 0 0 0 0 0
    0 0 0 0 0 0 0 0 0 0 0 0 0 0 0 0 0 0 0 0 0 0 0 0 0 0 0 0 0 0 0 0 0 0 0 0 0 0 0 0 0 0 0 0 0 0 0 0 0 0 0 0 0 0 0 0 0 0 0 0 0 0 0 0 0 0 0 0 0 0 0 0 0 0 0 0 0 0 0 0 0 0 0 0 0 0 0 0 0 0 0 0 0 0 0 0 0 0 0 0 0 0 0 0 0 0 0 0 0 0 0 0 0 0 0 0 0 0 0 0 0 0 0 0 0 0 0 0 0 0 0 0 0 0 0 0 0 0 0 0 0 0 0 0 0 0 0 0 0 0 0 0 0 0 0 0 0 0 0 0 0 0 0 0 0 0 0 0 0 0 0 0 0 0 0 0 0 0 0 0 0 0 0 0 0 0 0 0 0 0 0 0 0 0 0 0 0 0 0 0 0 0 0 0 0 0 0 0 0 0 0 0 0 0 0 0 0 0 0 0 0 0 0 287 288 288 286 283 281 277 277 276 274 273 272 274 276 0 289 292 292 293 295 295 294 294 294 294 290 292 294 294 292 290 287 288 288 293 292 287 287 292 293 0 0 0 0 0 0 0 0 0 375 373 377 381 377 373 375 377 371 360 362 360 359 362 364 364 364 364 377 377 389 402 381 348 350 350 350 348 347 345 343 345 348 343 339 334 339 342 345 350 350 359 364 0 0 0 0 0
    0 0 0 0 0 0 0 0 0 0 0 0 0 0 0 0 0 0 0 0 0 0 0 0 0 0 0 0 0 0 0 0 0 0 0 0 0 0 0 0 0 0 0 0 0 0 0 0 0 0 0 0 0 0 0 0 0 0 0 0 0 0 0 0 0 0 0 0 0 0 0 0 0 0 0 0 0 0 0 0 0 0 0 0 0 0 0 0 0 0 0 0 0 0 0 0 0 0 0 0 0 0 0 0 0 0 0 0 0 0 0 0 0 0 0 0 0 0 0 0 0 0 0 0 0 0 0 0 0 0 0 0 0 0 0 0 0 0 0 0 0 0 0 0 0 0 0 0 0 0 0 0 0 0 0 0 0 0 0 0 0 0 0 0 0 0 0 0 0 0 0 0 0 0 0 0 0 0 0 0 0 0 0 0 0 0 0 0 0 0 0 0 0 0 0 0 0 0 0 0 0 0 0 0 0 0 0 0 0 0 0 0 0 0 0 0 0 0 0 0 0 0 283 286 286 286 284 281 279 276 0 275 272 270 269 270 272 0 284 292 290 294 295 295 294 294 294 294 292 293 294 294 292 290 289 289 290 293 292 289 290 293 294 0 432 415 402 0 0 0 0 0 367 367 373 375 373 371 373 379 371 357 362 360 357 360 362 362 364 364 379 381 389 404 387 359 355 355 352 350 348 347 345 347 348 343 339 336 340 342 343 345 345 353 362 0 0 0 0 0
    0 0 0 0 0 0 0 0 0 0 0 0 0 0 0 0 0 0 0 0 0 0 0 0 0 0 0 0 0 0 0 0 0 0 0 0 0 0 0 0 0 0 0 0 0 0 0 0 0 0 0 0 0 0 0 0 0 0 0 0 0 0 0 0 0 0 0 0 0 0 0 0 0 0 0 0 0 0 0 0 0 0 0 0 0 0 0 0 0 0 0 0 0 0 0 0 0 0 0 0 0 0 0 0 0 0 0 0 0 0 0 0 0 0 0 0 0 0 0 0 0 0 0 0 0 0 0 0 0 0 0 0 0 0 0 0 0 0 0 0 0 0 0 0 0 0 0 0 0 0 0 0 0 0 0 0 0 0 0 0 0 0 0 0 0 0 0 0 0 0 0 0 0 0 0 0 0 0 0 0 0 0 0 0 0 0 0 0 0 0 0 0 0 0 0 0 0 0 0 0 0 0 0 0 0 0 0 0 0 0 0 0 0 0 0 0 0 0 0 0 290 0 285 287 287 286 284 281 279 276 276 274 270 267 266 266 268 0 0 295 294 294 295 295 294 294 293 294 292 293 293 293 290 289 288 289 289 292 289 289 292 294 0 0 425 408 397 393 0 279 0 287 0 362 360 362 364 369 375 397 371 0 0 0 0 0 0 362 362 364 391 393 402 408 395 367 362 359 355 353 350 345 345 347 352 342 339 339 342 343 345 347 347 357 364 0 0 0 0 0
    0 0 0 0 0 0 0 0 0 0 0 0 0 0 0 0 0 0 0 0 0 0 0 0 0 0 0 0 0 0 0 0 0 0 0 0 0 0 0 0 0 0 0 0 0 0 0 0 0 0 0 0 0 0 0 0 0 0 0 0 0 0 0 0 0 0 0 0 0 0 0 0 0 0 0 0 0 0 0 0 0 0 0 0 0 0 0 0 0 0 0 0 0 0 0 0 0 0 0 0 0 0 0 0 0 0 0 0 0 0 0 0 0 0 0 0 0 0 0 0 0 0 0 0 0 0 0 0 0 0 0 0 0 0 0 0 0 0 0 0 0 0 0 0 0 0 0 0 0 0 0 0 0 0 0 0 0 0 0 0 0 0 0 0 0 0 0 0 0 0 0 0 0 0 0 0 0 0 0 0 0 0 0 0 0 0 0 0 0 0 0 0 0 0 0 0 0 0 0 0 0 0 0 0 0 0 0 0 0 0 0 0 0 0 0 0 0 0 0 0 289 284 286 288 288 287 285 283 281 278 279 275 272 270 267 267 270 270 280 292 290 292 293 294 294 293 292 293 292 292 290 292 289 287 285 287 288 289 287 290 293 294 295 0 418 0 0 0 0 301 300 296 0 352 347 0 0 0 0 360 0 0 0 0 0 0 0 0 0 0 0 0 0 418 399 381 369 366 360 362 357 348 352 352 360 345 0 0 0 0 347 345 348 359 367 0 0 0 0 0
    0 0 0 0 0 0 0 0 0 0 0 0 0 0 0 0 0 0 0 0 0 0 0 0 0 0 0 0 0 0 0 0 0 0 0 0 0 0 0 0 0 0 0 0 0 0 0 0 0 0 0 0 0 0 0 0 0 0 0 0 0 0 0 0 0 0 0 0 0 0 0 0 0 0 0 0 0 0 0 0 0 0 0 0 0 0 0 0 0 0 0 0 0 0 0 0 0 0 0 0 0 0 0 0 0 0 0 0 0 0 0 0 0 0 0 0 0 0 0 0 0 0 0 0 0 0 0 0 0 0 0 0 0 0 0 0 0 0 0 0 0 0 0 0 0 0 0 0 0 0 0 0 0 0 0 0 0 0 0 0 0 0 0 0 0 0 0 0 0 0 0 0 0 0 0 0 0 0 0 0 0 0 0 0 0 0 0 0 0 0 0 0 0 0 0 0 0 0 0 0 0 0 0 0 0 0 0 0 0 0 0 0 0 0 0 0 0 0 0 0 288 284 287 287 287 287 285 284 283 281 280 275 271 270 266 265 267 265 268 280 283 287 289 293 293 293 292 292 290 292 289 289 288 286 285 287 288 289 288 292 294 294 295 0 393 0 0 0 310 300 299 296 296 0 0 302 0 283 288 0 0 0 289 286 0 0 0 0 0 0 0 0 0 0 418 0 383 0 360 364 353 0 0 0 0 0 0 0 0 0 0 0 0 343 0 0 0 0 0 0
    0 0 0 0 0 0 0 0 0 0 0 0 0 0 0 0 0 0 0 0 0 0 0 0 0 0 0 0 0 0 0 0 0 0 0 0 0 0 0 0 0 0 0 0 0 0 0 0 0 0 0 0 0 0 0 0 0 0 0 0 0 0 0 0 0 0 0 0 0 0 0 0 0 0 0 0 0 0 0 0 0 0 0 0 0 0 0 0 0 0 0 0 0 0 0 0 0 0 0 0 0 0 0 0 0 0 0 0 0 0 0 0 0 0 0 0 0 0 0 0 0 0 0 0 0 0 0 0 0 0 0 0 0 0 0 0 0 0 0 0 0 0 0 0 0 0 0 0 0 0 0 0 0 0 0 0 0 0 0 0 0 0 0 0 0 0 0 0 0 0 0 0 0 0 0 0 0 0 0 0 0 0 0 0 0 0 0 0 0 0 0 0 0 0 0 0 0 0 0 0 0 0 0 0 0 0 0 0 0 0 0 0 0 0 0 0 0 0 0 0 288 284 287 287 287 287 285 285 284 283 280 274 271 270 267 264 268 267 268 274 277 281 286 293 293 293 290 290 289 289 286 286 288 286 286 287 289 290 289 293 295 294 295 0 391 0 0 0 311 300 299 295 295 297 293 293 284 277 280 279 277 281 283 283 281 281 288 284 289 0 0 0 0 484 451 427 0 0 0 0 0 309 304 301 301 305 304 0 0 0 0 0 0 0 0 0 0 0 0 0
    0 0 0 0 0 0 0 0 0 0 0 0 0 0 0 0 0 0 0 0 0 0 0 0 0 0 0 0 0 0 0 0 0 0 0 0 0 0 0 0 0 0 0 0 0 0 0 0 0 0 0 0 0 0 0 0 0 0 0 0 0 0 0 0 0 0 0 0 0 0 0 0 0 0 0 0 0 0 0 0 0 0 0 0 0 0 0 0 0 0 0 0 0 0 0 0 0 0 0 0 0 0 0 0 0 0 0 0 0 0 0 0 0 0 0 0 0 0 0 0 0 0 0 0 0 0 0 0 0 0 0 0 0 0 0 0 0 0 0 0 0 0 0 0 0 0 0 0 0 0 0 0 0 0 0 0 0 0 0 0 0 0 0 0 0 0 0 0 0 0 0 0 0 0 0 0 0 0 0 0 0 0 0 0 0 0 0 0 0 0 0 0 0 0 0 0 0 0 0 0 0 0 0 0 0 0 0 0 0 0 0 0 0 0 0 0 0 0 0 0 288 284 287 287 287 286 285 285 284 281 278 273 271 270 268 265 267 267 267 272 275 277 279 288 293 292 290 290 287 287 284 284 286 286 286 287 288 289 287 293 294 292 292 0 0 0 0 0 311 297 296 295 294 296 292 290 280 274 277 277 276 277 279 280 280 280 287 284 287 286 0 0 0 0 446 0 0 348 325 313 302 300 297 296 293 295 294 294 290 293 0 0 0 0 0 0 0 0 0 0
    0 0 0 0 0 0 0 0 0 0 0 0 0 0 0 0 0 0 0 0 0 0 0 0 0 0 0 0 0 0 0 0 0 0 0 0 0 0 0 0 0 0 0 0 0 0 0 0 0 0 0 0 0 0 0 0 0 0 0 0 0 0 0 0 0 0 0 0 0 0 0 0 0 0 0 0 0 0 0 0 0 0 0 0 0 0 0 117 0 0 0 93 93 93 0 0 0 0 0 104 104 105 104 105 104 0 0 0 0 0 0 0 0 0 0 0 0 0 0 0 0 0 0 0 0 0 0 0 0 0 0 0 0 0 0 0 0 0 0 0 0 0 0 0 0 0 0 0 0 0 0 0 0 0 0 0 0 0 0 0 0 0 0 0 0 0 0 0 0 0 0 0 0 0 0 0 0 0 0 0 0 0 0 0 0 0 0 0 0 0 0 0 0 0 0 0 0 0 0 0 0 0 0 0 0 0 0 0 0 0 0 0 0 0 0 0 0 0 296 0 288 285 287 287 287 286 285 284 283 281 277 271 270 269 269 265 267 267 267 271 274 276 277 279 290 289 288 288 284 285 280 283 285 286 287 287 287 288 285 292 293 285 0 0 0 0 0 0 0 0 290 290 290 294 287 284 279 273 276 276 275 276 278 278 278 279 284 281 283 283 281 0 0 0 0 0 0 0 319 310 299 297 295 286 280 279 279 283 280 277 279 0 0 0 0 0 0 0 0 0
    0 0 0 0 0 0 0 0 0 0 0 0 0 0 0 0 0 0 0 0 0 0 0 0 0 0 0 0 0 0 0 0 0 0 0 0 0 0 0 0 0 0 0 0 0 0 0 0 0 0 0 0 0 0 0 0 0 0 0 0 0 0 0 0 0 0 0 0 0 0 0 0 0 0 0 0 0 0 245 0 241 237 242 243 244 0 0 0 243 243 244 244 245 93 93 0 93 94 94 0 104 105 104 105 105 0 0 0 0 245 244 244 0 0 0 0 0 0 0 0 0 0 0 0 0 0 0 0 0 0 0 0 0 0 0 0 0 0 0 0 0 0 87 0 0 0 0 151 0 0 73 0 73 0 0 0 0 0 0 0 0 0 0 0 0 0 0 0 0 0 0 0 0 0 0 0 0 0 0 0 0 0 0 0 0 0 0 0 0 0 0 0 0 0 0 0 0 0 0 0 0 0 0 0 0 0 0 0 0 0 0 0 0 0 0 0 0 0 0 0 287 0 287 287 287 285 284 284 283 279 276 268 267 266 266 264 266 265 265 267 271 272 275 276 289 289 286 286 283 283 279 281 286 286 288 288 286 287 284 289 289 0 264 262 0 0 0 0 0 0 0 280 284 283 278 277 276 267 269 271 269 268 272 273 274 274 279 278 0 0 0 0 0 0 0 0 0 0 0 306 294 0 0 277 275 275 275 279 278 275 278 0 0 0 0 0 0 0 0 0
    0 0 0 0 0 0 0 0 0 0 0 0 0 0 0 0 0 0 0 0 0 0 0 0 0 0 0 0 0 0 0 0 0 0 0 0 0 0 0 0 0 0 0 0 0 0 0 0 0 0 0 0 0 0 0 0 0 0 0 0 0 0 0 0 0 0 0 0 0 245 244 0 245 0 0 0 0 0 246 243 242 238 242 243 245 0 0 0 244 244 244 245 245 0 0 0 0 0 0 0 104 104 104 105 0 0 241 0 245 244 243 243 243 246 0 0 0 0 0 0 0 0 0 0 0 0 0 0 242 242 238 0 245 241 243 244 243 243 0 246 0 245 0 0 0 0 0 0 0 73 0 0 0 73 0 0 0 0 0 0 0 0 0 0 0 0 0 0 0 514 497 0 0 0 0 0 0 0 0 0 0 0 247 0 0 0 0 0 0 0 0 0 250 251 258 256 252 262 0 0 0 0 0 0 0 0 0 145 0 248 249 249 249 251 0 0 0 98 0 0 0 0 287 287 287 285 284 283 281 277 273 266 265 264 264 262 264 263 264 264 263 262 262 263 0 0 0 0 0 0 0 0 280 281 283 283 281 283 280 284 280 267 261 260 260 0 0 0 275 266 266 275 278 275 273 270 268 263 0 264 264 262 262 262 263 264 275 273 271 276 276 274 0 0 0 0 0 0 0 0 0 0 263 265 268 270 272 277 275 271 276 0 0 0 0 0 0 0 0 0
    0 0 0 0 0 0 0 0 0 0 0 0 0 0 0 0 0 0 0 0 0 0 0 0 0 0 0 0 0 0 0 0 0 0 0 0 0 0 0 0 0 0 0 0 0 0 0 0 0 0 0 0 0 0 0 0 0 0 0 0 0 0 0 0 0 0 0 0 0 244 244 0 244 0 0 0 0 246 245 242 241 238 241 242 243 0 0 0 244 244 245 245 245 245 244 244 244 0 0 0 104 104 104 104 0 241 239 242 243 243 242 242 242 246 244 0 0 0 0 0 0 0 0 0 0 0 245 0 245 245 246 242 246 242 244 245 245 245 246 246 246 245 245 246 246 0 0 0 0 0 0 0 0 0 0 0 0 0 0 0 0 0 0 0 0 0 0 0 0 518 0 0 0 248 0 0 250 0 0 0 247 248 247 248 246 246 247 0 246 245 248 249 249 250 252 252 251 250 0 244 241 0 0 0 0 0 248 0 249 248 249 249 250 251 250 0 254 0 0 0 0 0 0 285 286 285 285 285 281 276 266 264 263 262 262 262 263 262 262 263 260 260 260 260 260 257 252 253 251 253 252 251 0 0 0 281 281 280 280 280 276 261 260 258 257 258 255 253 260 261 0 264 267 267 266 264 0 256 249 260 260 260 260 259 260 260 0 265 263 268 276 273 275 0 0 0 0 0 0 0 0 260 260 0 263 264 269 272 270 266 270 0 0 0 0 0 0 0 0 0
    0 0 0 0 0 0 0 0 0 0 0 0 0 0 0 0 0 0 0 0 0 0 0 0 0 0 0 0 0 0 0 0 0 0 0 0 0 0 0 0 0 0 0 0 0 0 0 0 0 0 0 0 0 0 0 0 0 0 0 0 0 0 0 0 0 0 0 0 0 243 242 244 242 244 0 0 0 246 244 241 241 239 241 242 242 244 244 245 244 244 245 246 246 246 245 245 244 0 0 0 104 104 104 0 0 242 242 243 244 243 242 243 243 246 245 246 246 244 245 246 246 246 246 246 0 0 246 246 246 246 248 246 247 244 245 245 245 245 246 246 246 245 246 246 245 245 246 245 245 246 0 249 0 0 0 0 0 0 0 0 0 0 0 0 0 0 0 0 0 0 0 250 248 248 0 0 250 0 249 249 248 249 248 249 248 248 249 247 248 247 249 250 249 248 249 249 249 248 250 246 245 246 248 247 249 249 249 249 249 249 250 250 251 251 251 254 254 253 257 254 253 253 252 258 258 259 0 0 0 265 260 263 262 262 262 262 263 262 262 263 260 260 259 260 260 256 252 253 250 250 249 248 247 252 0 0 0 279 0 0 267 260 259 256 256 257 254 253 256 259 255 259 260 261 261 259 258 252 248 253 257 255 256 256 258 259 260 263 262 267 277 274 275 271 0 0 260 256 257 256 257 260 259 261 261 261 265 265 265 264 263 0 0 0 254 0 0 0 0 0
    0 0 0 0 0 0 0 0 0 0 0 0 0 0 0 0 0 0 0 0 0 0 0 0 0 0 0 0 0 0 0 0 0 0 0 0 0 0 0 0 0 0 0 0 0 0 0 0 0 0 0 0 0 0 0 0 0 0 0 0 0 0 0 0 0 0 0 0 0 242 242 243 242 243 244 245 246 245 244 242 241 239 241 241 242 243 243 244 244 244 245 245 246 246 245 245 245 245 246 0 0 0 0 0 0 243 243 243 244 244 242 243 244 245 244 245 246 245 245 246 246 246 246 246 246 0 246 246 246 246 247 246 248 245 245 246 245 245 246 246 246 244 246 246 245 245 246 245 245 246 247 248 0 0 0 0 0 0 0 0 0 0 0 0 249 248 248 0 0 0 0 249 248 248 248 249 249 248 249 249 248 249 249 249 248 248 248 247 248 248 248 249 249 248 248 248 248 247 248 246 246 246 249 248 249 249 249 249 250 249 250 250 251 251 251 252 252 252 253 252 252 252 252 253 253 254 255 255 256 257 253 258 259 258 260 259 262 261 260 262 259 259 257 258 258 254 251 251 249 249 248 247 247 248 250 250 251 0 259 260 260 259 257 254 254 255 252 252 252 254 251 252 252 253 253 249 251 250 248 250 252 252 252 252 253 254 256 260 260 260 0 272 0 264 260 259 255 252 253 252 252 255 255 260 260 260 261 261 262 261 260 260 259 256 252 0 0 0 0 0
    0 0 0 0 0 0 0 0 0 0 0 0 0 0 0 0 0 0 0 0 0 0 0 0 0 0 0 0 0 0 0 0 0 0 0 0 0 0 0 0 0 0 0 0 0 0 0 0 0 0 0 0 0 0 0 0 0 0 0 0 0 0 0 0 0 0 0 0 0 242 242 243 242 243 244 244 245 245 243 242 241 240 241 241 242 242 243 243 244 243 244 245 245 245 245 245 245 246 246 0 0 0 0 0 0 244 243 243 244 244 242 243 243 244 244 244 245 244 245 246 246 245 245 245 246 245 246 246 246 246 247 246 248 246 246 246 246 245 246 246 246 244 246 246 245 245 246 245 246 246 247 248 0 0 0 248 249 0 0 0 0 0 0 246 248 247 248 0 0 0 0 249 248 248 248 249 249 248 249 249 247 249 248 248 248 248 248 247 247 248 248 248 248 248 248 248 248 247 247 246 246 247 249 248 248 249 249 249 250 250 250 250 251 251 250 252 252 251 252 252 251 251 251 252 251 251 252 251 251 252 251 251 252 252 254 254 259 258 257 260 256 256 254 253 254 252 249 250 248 249 248 248 248 248 249 249 249 254 252 253 253 253 252 251 251 252 252 252 252 252 250 251 251 251 250 248 249 249 248 249 250 250 251 251 252 252 252 255 258 256 260 260 259 259 255 256 252 252 252 252 252 252 252 256 257 259 260 259 260 259 259 260 256 252 250 0 0 0 0 0
    0 0 0 0 0 0 0 0 0 0 0 0 0 0 0 0 0 0 0 0 0 0 0 0 0 0 0 0 0 0 0 0 0 0 0 0 0 0 0 0 0 0 0 0 0 0 0 0 0 0 0 0 0 0 0 0 0 0 0 0 0 0 0 0 0 0 0 0 0 243 242 244 243 244 244 244 244 244 243 242 241 240 242 241 242 242 243 242 243 243 244 244 245 245 245 245 246 246 246 0 0 0 0 0 0 245 0 243 244 244 242 243 243 244 243 244 245 244 244 245 245 244 245 245 245 245 246 246 246 245 246 246 248 246 246 246 246 246 246 246 246 244 246 246 245 245 246 246 246 246 247 247 247 247 248 247 0 0 0 0 0 0 247 247 248 247 248 0 0 0 0 0 247 247 247 248 247 247 247 248 246 248 248 247 247 247 248 247 247 248 248 248 248 247 247 247 247 246 247 247 246 247 248 247 248 248 248 249 250 249 250 250 251 251 250 252 252 250 251 251 250 250 250 251 250 250 250 250 250 251 250 250 251 251 252 252 253 252 251 253 251 252 251 251 252 250 249 250 248 249 248 249 249 249 250 250 250 254 252 253 252 252 251 249 251 252 252 252 252 252 251 251 251 250 249 248 249 249 248 249 249 250 250 250 251 251 252 253 256 254 257 257 254 256 252 253 252 251 252 252 252 252 251 253 252 255 256 253 255 252 252 252 250 248 247 0 0 0 0 0
    0 0 0 0 0 0 0 0 0 0 0 0 0 0 0 0 0 0 0 0 0 0 0 0 0 0 0 0 0 0 0 0 0 0 0 0 0 0 0 0 0 0 0 0 0 0 0 0 0 0 0 0 0 0 0 0 0 0 0 0 0 0 0 0 0 0 0 0 0 243 242 243 242 243 244 244 244 243 243 242 242 242 242 242 244 243 244 242 244 244 244 245 245 245 245 245 246 246 246 0 0 0 0 246 0 246 244 244 245 245 243 244 244 245 243 244 245 244 244 245 245 244 244 245 245 245 246 246 246 246 246 246 248 246 246 246 246 246 246 246 246 245 246 246 246 246 246 246 246 246 247 248 0 247 247 247 0 0 0 0 246 246 247 247 248 247 247 247 0 0 0 248 247 247 247 247 247 246 247 247 246 247 247 247 248 248 248 248 248 248 248 248 248 247 248 248 247 246 247 247 246 246 248 247 248 248 248 249 250 250 250 250 251 251 250 252 251 250 250 251 250 250 250 250 250 249 250 250 249 250 249 249 249 249 249 250 249 248 247 247 248 249 249 250 250 250 250 250 249 249 249 249 249 249 250 250 250 252 252 252 252 251 250 249 250 251 252 252 252 252 252 252 252 251 250 248 249 249 248 249 249 250 250 250 251 251 251 253 255 252 255 254 252 253 251 252 251 250 251 250 252 251 250 252 252 252 252 251 252 250 250 250 248 247 246 0 0 0 0 0
    0 0 0 0 0 0 0 0 0 0 0 0 0 0 0 0 0 0 0 0 0 0 0 0 0 0 0 0 0 0 0 0 0 0 0 0 0 0 0 0 0 0 0 0 0 0 0 0 0 0 0 0 0 0 0 0 0 0 0 0 0 0 0 0 0 0 0 0 0 243 243 243 243 243 244 244 244 243 243 243 243 243 244 242 244 244 245 243 244 244 245 245 245 245 246 246 246 246 246 0 0 0 0 246 246 246 245 244 245 245 244 245 244 245 244 244 245 244 245 246 245 244 244 245 245 245 246 246 246 246 246 247 248 247 246 246 246 246 246 246 246 245 246 246 246 246 246 246 246 247 247 247 247 247 247 247 247 247 247 246 246 247 247 247 248 246 247 247 247 247 246 247 247 247 247 247 247 246 247 247 246 247 247 247 248 248 248 248 248 249 248 248 248 248 248 248 248 247 247 247 247 247 248 248 249 249 249 249 250 250 250 250 251 251 250 252 252 250 250 251 250 250 250 250 250 249 249 250 249 250 249 249 249 248 248 249 248 248 246 247 247 247 247 248 249 249 249 249 248 249 249 249 249 249 250 249 250 251 250 250 251 250 249 248 250 251 252 251 252 251 252 252 252 251 250 248 249 249 248 249 249 250 250 250 251 251 251 253 254 252 254 253 252 253 252 252 251 249 250 250 251 251 250 250 250 252 251 251 251 250 249 250 248 247 246 0 0 0 0 0
    0 0 0 0 0 0 0 0 0 0 0 0 0 0 0 0 0 0 0 0 0 0 0 0 0 0 0 0 0 0 0 0 0 0 0 0 0 0 0 0 0 0 0 0 0 0 0 0 0 0 0 0 0 0 0 0 0 0 0 0 0 0 0 0 0 0 0 0 0 244 244 244 243 243 244 244 244 244 243 243 244 244 245 243 245 244 245 243 245 245 245 245 245 245 246 246 246 246 246 246 246 246 0 246 246 246 245 244 246 245 244 245 244 245 244 245 245 244 245 246 245 245 244 245 245 246 246 246 246 246 247 248 249 247 247 247 247 246 247 247 246 246 247 247 247 247 247 247 247 247 247 247 247 247 246 246 247 247 247 246 246 247 247 247 248 246 246 246 246 246 246 247 247 246 247 247 247 246 247 247 246 247 247 247 248 248 248 248 248 249 248 248 248 247 248 247 247 247 247 247 247 247 248 248 249 249 249 249 250 250 250 250 251 251 250 251 252 250 250 250 250 250 250 250 250 250 250 250 249 250 249 249 249 247 248 248 248 247 246 247 247 247 247 248 249 249 249 249 249 250 249 250 250 249 250 249 249 250 249 249 249 249 249 248 250 251 252 252 252 251 252 252 252 250 249 248 249 249 248 249 250 250 250 250 251 251 251 253 253 252 252 252 251 252 252 252 250 249 249 249 250 249 249 249 249 250 251 251 251 250 249 249 249 248 247 0 0 0 0 0
    0 0 0 0 0 0 0 0 0 0 0 0 0 0 0 0 0 0 0 0 0 0 0 0 0 0 0 0 0 0 0 0 0 0 0 0 0 0 0 0 0 0 0 0 0 0 0 0 0 0 0 0 0 0 0 0 0 0 0 0 0 0 0 0 0 0 0 0 0 244 244 244 244 243 244 243 243 244 243 244 244 244 246 243 245 244 245 243 245 245 245 245 245 245 246 246 246 246 246 246 246 246 0 246 246 246 245 244 246 245 245 245 245 245 244 245 245 245 245 246 245 245 244 245 245 246 246 246 246 247 247 249 249 248 247 247 247 247 247 247 246 247 248 248 249 248 248 248 248 248 248 247 247 247 246 246 246 246 246 246 246 247 247 247 248 247 246 247 246 246 246 247 247 246 247 247 246 246 247 247 246 247 247 247 248 248 248 248 248 249 248 248 248 247 247 247 247 247 247 247 248 248 249 249 249 250 249 249 250 250 250 250 251 250 250 251 252 250 250 250 250 250 250 251 251 250 250 250 250 250 250 249 249 247 248 248 248 247 246 247 247 247 247 248 249 249 250 250 249 250 250 250 250 250 250 249 249 250 249 249 249 248 249 249 250 251 252 252 252 251 252 251 251 249 249 248 249 249 248 249 249 250 251 251 251 251 251 252 252 251 252 251 250 251 251 251 250 249 248 248 249 249 248 248 248 250 250 250 250 249 248 248 248 247 246 0 0 0 0 0
    0 0 0 0 0 0 0 0 0 0 0 0 0 0 0 0 0 0 0 0 0 0 0 0 0 0 0 0 0 0 0 0 0 0 0 0 0 0 0 0 0 0 0 0 0 0 0 0 0 0 0 0 0 0 0 0 0 0 0 0 0 0 0 0 0 0 0 0 0 245 245 244 245 243 244 243 244 244 243 244 244 244 246 243 246 244 244 243 245 244 244 244 245 245 246 246 247 246 246 246 246 246 0 246 246 245 245 244 246 245 245 245 245 245 245 245 245 245 245 246 244 244 244 245 245 246 246 246 246 247 247 248 248 248 247 247 247 247 247 247 246 248 249 248 250 249 249 249 249 249 248 248 248 246 246 246 0 246 247 246 246 247 247 247 249 248 247 248 247 247 246 247 247 246 247 247 246 246 247 247 246 247 247 247 247 247 248 248 248 249 248 248 248 247 247 247 247 247 247 248 248 249 249 249 249 250 249 249 250 250 250 250 250 250 250 251 252 250 250 251 251 250 251 251 251 250 251 251 250 251 250 250 249 248 249 249 249 249 247 248 248 248 247 248 249 249 249 250 249 250 250 251 251 250 250 249 250 250 249 249 249 249 249 249 251 251 252 251 251 251 252 251 251 249 249 248 249 249 248 249 250 250 251 251 252 251 251 252 252 251 251 250 249 250 250 251 250 249 248 248 249 249 248 248 248 249 249 250 250 249 248 248 247 246 245 0 0 0 0 0
    0 0 0 0 0 0 0 0 0 0 0 0 0 0 0 0 0 0 0 0 0 0 0 0 0 0 0 0 0 0 0 0 0 0 0 0 0 0 0 0 0 0 0 0 0 0 0 0 0 0 0 0 0 0 0 0 0 0 0 0 0 0 0 0 0 0 0 0 0 246 246 245 246 244 245 244 244 244 244 244 245 244 246 244 246 244 245 242 244 244 243 243 244 244 246 246 247 246 247 246 246 246 0 246 246 245 245 243 246 245 245 245 245 245 244 245 245 244 245 245 243 244 244 245 244 246 246 246 246 246 246 248 248 248 248 248 248 248 248 248 247 249 249 248 250 250 250 249 249 249 248 248 249 246 246 246 0 247 247 247 246 247 247 247 248 247 247 247 247 247 246 247 247 246 247 246 246 246 246 246 246 246 246 246 247 247 247 247 248 248 247 247 247 247 246 247 247 246 247 248 248 249 249 249 249 250 250 249 250 250 250 249 250 250 249 250 251 250 250 251 251 251 251 251 251 250 251 251 250 251 251 251 250 249 250 250 250 251 249 249 249 249 248 249 250 250 249 250 249 250 250 250 251 250 249 249 250 250 249 249 249 249 249 249 250 250 251 251 250 250 251 250 250 248 249 248 249 249 249 250 250 251 252 251 252 252 252 252 252 251 250 250 249 250 249 250 250 248 248 248 249 248 248 248 248 249 249 250 250 250 249 249 247 246 245 0 0 0 0 0
    0 0 0 0 0 0 0 0 0 0 0 0 0 0 0 0 0 0 0 0 0 0 0 0 0 0 0 0 0 0 0 0 0 0 0 0 0 0 0 0 0 0 0 0 0 0 0 0 0 0 0 0 0 0 0 0 0 0 0 0 0 0 0 0 0 0 0 0 0 246 246 245 246 244 245 244 244 244 244 245 245 245 246 245 246 245 245 243 244 244 243 243 244 244 246 246 247 246 247 246 246 246 246 246 246 245 245 244 246 246 245 246 245 245 245 245 245 244 244 245 242 244 243 244 244 245 245 246 246 247 246 248 248 248 248 248 248 248 248 248 247 249 250 248 251 250 250 250 250 250 249 249 250 247 246 246 0 247 247 247 246 247 246 246 247 246 246 247 246 247 246 247 247 246 247 246 246 246 246 246 246 246 246 246 247 247 247 247 248 248 247 247 247 247 247 247 247 247 247 248 248 249 249 249 249 250 250 249 250 250 249 249 250 249 249 250 252 251 250 251 252 251 251 252 251 250 251 251 249 250 251 250 250 249 250 250 249 251 249 249 249 249 249 249 250 250 250 250 250 250 251 250 250 249 249 249 249 249 249 248 249 248 249 249 250 250 250 250 250 250 251 251 250 249 249 249 249 249 248 250 251 251 252 251 252 252 252 254 252 252 251 251 250 250 250 251 250 248 248 249 249 249 248 248 249 250 250 250 250 250 249 249 247 246 245 0 0 0 0 0
    0 0 0 0 0 0 0 0 0 0 0 0 0 0 0 0 0 0 0 0 0 0 0 0 0 0 0 0 0 0 0 0 0 0 0 0 0 0 0 0 0 0 0 0 0 0 0 0 0 0 0 0 0 0 0 0 0 0 0 0 0 0 0 0 0 0 0 0 0 246 246 245 246 244 245 244 245 245 245 245 246 246 247 246 247 246 246 244 245 245 244 243 244 244 246 246 247 246 246 246 246 245 246 245 245 245 245 244 246 246 246 246 246 246 245 245 245 244 245 245 243 245 244 245 244 246 246 246 246 247 247 248 248 248 248 248 248 248 248 248 247 250 250 249 251 251 251 250 251 251 250 249 252 247 246 247 0 248 248 247 247 247 246 246 247 246 246 246 246 247 246 247 247 246 247 246 246 246 246 246 246 246 246 247 247 247 247 247 248 248 247 248 247 247 247 248 247 247 247 248 248 249 249 249 250 250 250 249 250 250 249 249 250 250 249 251 252 252 250 251 252 252 252 252 252 251 251 251 249 250 250 250 250 249 249 249 248 250 249 249 249 249 249 250 250 251 251 251 251 251 251 250 250 249 249 249 249 249 249 248 249 249 249 250 251 250 251 251 250 251 251 251 251 249 250 249 249 249 248 250 251 251 252 252 252 252 252 255 252 252 252 252 251 251 251 252 251 249 249 249 249 249 249 249 250 250 250 250 250 250 249 248 247 246 244 0 0 0 0 0
    0 0 0 0 0 0 0 0 0 0 0 0 0 0 0 0 0 0 0 0 0 0 0 0 0 0 0 0 0 0 0 0 0 0 0 0 0 0 0 0 0 0 0 0 0 0 0 0 0 0 0 0 0 0 0 0 0 0 0 0 0 0 0 0 0 0 0 0 0 246 246 245 246 244 245 245 245 245 245 246 246 246 248 246 248 246 246 245 246 245 244 243 245 244 246 246 246 246 246 246 246 245 246 245 245 245 246 245 246 246 246 246 246 246 245 245 245 245 246 246 244 245 245 246 245 246 246 246 246 248 247 248 248 249 249 248 248 248 248 248 248 251 251 249 252 251 251 251 252 252 250 250 252 247 247 247 0 248 248 248 247 247 246 246 246 246 246 246 246 247 246 248 248 247 247 247 248 248 247 246 246 247 247 247 247 247 247 247 249 248 247 247 247 247 248 248 248 248 248 248 249 249 250 249 250 250 250 249 250 251 250 249 250 250 250 251 252 252 250 251 252 252 252 252 251 251 251 251 249 250 250 250 249 248 248 248 248 249 248 248 249 249 249 250 250 252 252 252 251 251 251 250 249 249 248 249 249 249 248 248 249 249 250 251 251 250 250 250 250 251 251 251 250 249 250 250 249 249 248 250 251 251 252 252 252 252 252 255 252 252 252 252 250 251 251 252 252 250 249 250 249 250 250 250 251 251 251 251 250 251 249 249 247 246 244 0 0 0 0 0
    0 0 0 0 0 0 0 0 0 0 0 0 0 0 0 0 0 0 0 0 0 0 0 0 0 0 0 0 0 0 0 0 0 0 0 0 0 0 0 0 0 0 0 0 0 0 0 0 0 0 0 0 0 0 0 0 0 0 0 0 0 0 0 0 0 0 0 0 0 246 246 245 246 244 245 245 245 245 245 246 246 246 247 246 247 246 246 245 246 246 244 243 244 244 246 246 246 245 246 245 246 245 246 245 246 245 246 245 246 246 246 246 246 246 246 246 246 245 246 246 246 246 245 246 246 246 246 246 246 248 248 248 248 248 249 248 248 248 248 248 248 251 250 248 251 251 251 250 252 252 250 250 253 248 248 248 248 248 248 248 247 247 246 246 246 246 246 246 246 247 246 249 249 249 249 248 249 250 249 247 247 248 247 248 248 247 247 247 249 247 247 247 247 247 248 248 248 248 248 248 249 250 250 249 249 250 250 249 250 251 250 249 250 249 250 251 252 252 251 252 252 252 252 252 251 251 251 251 250 250 250 250 250 249 249 249 248 249 248 248 249 250 249 250 250 252 252 252 251 250 250 249 249 249 248 249 249 249 249 248 250 250 251 251 251 248 249 248 248 250 250 250 250 249 250 250 250 249 248 251 251 251 252 252 252 252 253 256 253 253 252 252 249 250 250 251 252 250 249 250 249 250 250 250 251 252 252 252 251 251 250 250 0 246 245 0 0 0 0 0
    0 0 0 0 0 0 0 0 0 0 0 0 0 0 0 0 0 0 0 0 0 0 0 0 0 0 0 0 0 0 0 0 0 0 0 0 0 0 0 0 0 0 0 0 0 0 0 0 0 0 0 0 0 0 0 0 0 0 0 0 0 0 0 0 0 0 0 0 0 246 245 245 246 244 245 245 245 245 245 245 246 246 246 246 246 244 244 243 244 243 242 242 242 242 245 245 245 245 246 246 246 245 246 246 246 246 246 246 246 246 246 246 246 246 246 246 246 246 246 246 246 246 246 246 246 246 246 247 246 247 247 248 248 248 249 248 248 248 248 247 248 250 250 248 251 250 250 250 252 251 250 250 253 248 248 248 248 248 247 248 247 247 246 246 247 246 246 247 246 248 247 250 250 250 250 250 251 252 250 247 248 248 247 248 248 247 247 247 249 247 247 247 246 247 248 248 248 248 248 248 248 249 250 249 249 250 250 249 250 251 250 249 250 249 250 251 252 252 251 252 252 252 252 252 252 252 251 251 250 251 251 251 251 250 250 251 249 249 249 249 251 251 250 250 251 252 252 253 252 250 250 250 250 249 248 249 250 250 250 250 251 252 252 252 251 247 247 246 246 249 249 250 250 249 251 250 250 250 248 251 251 251 252 252 252 252 253 257 253 253 252 252 249 250 250 251 252 250 250 252 250 251 250 251 252 252 252 252 251 251 250 250 0 0 0 0 0 0 0 0
    0 0 0 0 0 0 0 0 0 0 0 0 0 0 0 0 0 0 0 0 0 0 0 0 0 0 0 0 0 0 0 0 0 0 0 0 0 0 0 0 0 0 0 0 0 0 0 0 0 0 0 0 0 0 0 0 0 0 0 0 0 0 0 0 0 0 0 0 0 245 245 245 245 244 245 245 245 245 245 245 246 245 246 245 245 243 243 243 243 242 242 242 243 243 245 245 246 246 246 246 247 246 248 246 246 246 246 246 247 247 247 246 246 246 246 247 246 246 246 246 0 0 246 247 246 246 247 248 247 247 247 247 248 248 248 247 247 247 247 247 248 249 249 247 250 250 249 249 251 250 249 249 253 248 248 248 249 248 247 248 247 247 246 246 247 247 247 247 247 248 248 250 251 251 251 251 251 252 251 248 249 249 248 248 248 247 247 247 249 247 247 248 247 247 249 249 249 249 248 248 249 249 250 249 249 250 249 249 250 251 250 249 250 250 250 251 252 252 251 252 252 252 252 252 252 252 252 252 251 251 251 251 252 251 251 252 250 249 250 249 251 251 251 251 251 252 253 253 252 250 250 250 250 249 249 250 250 251 251 251 252 252 253 252 251 247 247 246 246 249 249 250 250 250 251 251 251 250 249 251 251 251 252 252 252 252 254 257 253 253 252 252 249 250 250 252 252 251 251 253 250 252 251 252 252 252 252 252 252 252 251 251 250 0 0 0 0 0 0 0
    0 0 0 0 0 0 0 0 0 0 0 0 0 0 0 0 0 0 0 0 0 0 0 0 0 0 0 0 0 0 0 0 0 0 0 0 0 0 0 0 0 0 0 0 0 0 0 0 0 0 0 0 0 0 0 0 0 0 0 0 0 0 0 0 0 0 0 0 0 245 245 245 245 244 245 245 245 245 245 245 246 245 246 245 246 244 244 244 244 243 243 243 244 243 246 245 246 246 247 247 249 248 250 249 249 248 248 249 248 248 248 247 247 247 246 247 246 246 246 246 0 0 246 0 246 247 0 249 248 247 248 248 248 248 248 247 247 247 247 246 248 249 249 246 249 249 249 249 251 250 249 249 253 249 249 249 249 248 247 247 247 247 246 246 247 247 247 247 247 248 248 250 251 251 251 252 252 253 251 248 249 249 248 249 248 247 247 247 249 247 247 248 247 248 250 250 249 249 249 249 248 249 249 248 248 249 249 249 250 251 250 250 250 250 250 252 252 251 250 251 251 252 252 252 251 252 251 251 251 251 252 251 252 251 251 252 251 250 250 250 252 252 251 251 251 252 253 253 252 250 250 250 250 249 249 250 250 251 251 252 253 252 255 252 252 248 249 247 247 250 249 251 251 251 252 251 251 250 249 252 251 251 252 252 252 253 255 258 254 254 252 252 250 250 251 252 252 251 252 254 251 252 252 252 253 252 253 252 252 252 252 252 252 249 0 0 0 0 0 0
    0 0 0 0 0 0 0 0 0 0 0 0 0 0 0 0 0 0 0 0 0 0 0 0 0 0 0 0 0 0 0 0 0 0 0 0 0 0 0 0 0 0 0 0 0 0 0 0 0 0 0 0 0 0 0 0 0 0 0 0 0 0 0 0 0 0 0 0 0 245 245 244 245 244 245 245 245 245 245 245 246 246 246 246 246 245 245 245 245 244 243 244 243 243 245 244 245 245 246 246 248 248 250 249 250 250 249 250 249 249 249 247 247 247 246 247 246 246 246 246 247 247 247 0 246 0 248 249 248 248 249 248 248 248 248 247 247 247 247 246 248 248 249 246 248 248 248 248 250 249 249 249 253 249 249 249 0 247 246 246 246 246 246 246 246 246 246 247 247 247 248 250 251 252 252 252 252 253 252 249 250 249 248 249 248 248 247 248 249 248 248 249 248 249 251 251 250 250 249 249 248 248 249 247 247 248 248 249 250 251 251 251 251 250 250 252 252 250 250 251 251 251 251 251 250 251 251 251 251 252 252 251 252 252 251 252 251 249 250 249 251 251 251 251 251 252 254 252 252 250 250 250 250 250 249 250 250 251 251 251 252 252 254 252 252 249 250 249 248 251 251 252 252 252 252 251 252 250 249 252 251 252 252 252 253 253 255 259 256 255 254 252 251 252 252 253 254 252 252 255 251 252 252 253 254 253 254 253 252 253 252 253 252 250 0 0 0 0 0 0
    0 0 0 0 0 0 0 0 0 0 0 0 0 0 0 0 0 0 0 0 0 0 0 0 0 0 0 0 0 0 0 0 0 0 0 0 0 0 0 0 0 0 0 0 0 0 0 0 0 0 0 0 0 0 0 0 0 0 0 0 0 0 0 0 0 0 0 0 0 244 244 244 244 244 245 245 245 245 245 245 246 245 246 246 246 246 246 0 246 246 245 245 244 244 245 244 245 245 246 247 248 248 250 250 250 250 249 250 249 249 249 248 248 248 247 248 246 246 246 246 247 247 247 247 246 247 248 249 248 248 249 248 248 248 248 247 247 247 247 246 248 248 249 246 248 248 248 248 0 248 249 248 252 249 248 248 0 246 246 246 246 246 246 246 246 246 246 247 247 248 249 251 252 252 252 252 253 254 252 250 250 249 248 249 248 248 248 248 249 248 249 250 249 250 252 252 250 250 249 249 247 247 248 246 246 247 247 248 250 251 251 251 251 250 250 252 252 250 250 250 250 251 251 250 250 251 251 251 251 252 252 252 252 252 252 252 252 249 250 249 251 251 251 251 251 252 254 252 252 251 250 250 251 250 250 250 250 251 251 252 253 252 255 252 252 251 252 250 250 252 251 252 254 252 252 251 252 250 249 252 251 252 252 252 253 253 255 258 255 254 254 253 252 252 252 255 255 253 253 255 252 253 252 253 254 253 254 253 253 254 253 253 253 251 250 0 0 0 0 0
    0 0 0 0 0 0 0 0 0 0 0 0 0 0 0 0 0 0 0 0 0 0 0 0 0 0 0 0 0 0 0 0 0 0 0 0 0 0 0 0 0 0 0 0 0 0 0 0 0 0 0 0 0 0 0 0 0 0 0 0 0 0 0 0 0 0 0 0 0 244 244 244 244 244 245 245 245 246 245 245 246 245 246 246 246 246 0 0 247 246 246 246 246 245 246 246 246 246 247 248 249 248 250 249 250 250 249 250 249 249 250 249 248 248 0 248 247 246 246 246 247 247 247 247 247 247 248 249 249 249 249 249 248 248 248 247 247 247 247 246 248 248 248 246 248 248 248 248 0 248 248 248 252 248 248 0 0 246 246 246 246 246 246 246 246 247 247 247 248 248 250 251 251 252 252 252 252 253 252 250 250 249 248 249 248 248 248 248 249 248 248 250 249 251 252 252 250 251 250 250 248 248 248 246 246 247 247 248 249 250 250 251 251 251 250 252 252 250 250 250 250 250 250 250 250 251 251 251 252 252 252 252 253 252 252 253 252 249 250 249 251 252 251 251 251 252 255 253 253 251 250 251 252 251 251 251 251 252 252 253 254 253 256 252 253 252 252 251 250 251 251 252 253 252 252 250 252 250 250 252 252 252 252 253 253 253 256 258 254 253 253 252 251 252 252 255 254 253 253 255 252 253 252 253 254 254 255 254 254 255 255 255 255 252 251 0 0 0 0 0
    0 0 0 0 0 0 0 0 0 0 0 0 0 0 0 0 0 0 0 0 0 0 0 0 0 0 0 0 0 0 0 0 0 0 0 0 0 0 0 0 0 0 0 0 0 0 0 0 0 0 0 0 0 0 0 0 0 0 0 0 0 0 0 0 0 0 0 0 0 245 246 245 245 245 245 245 246 246 245 246 246 245 246 245 246 246 246 0 247 247 0 247 247 246 246 246 246 246 247 248 248 247 249 249 249 249 249 250 249 249 250 249 249 249 0 248 247 246 246 246 246 247 247 247 247 247 248 249 249 250 249 249 248 247 248 248 247 247 247 246 248 248 249 246 247 247 247 247 0 248 248 247 252 247 247 247 247 246 246 246 246 246 246 247 247 248 248 249 249 249 250 251 252 252 252 252 252 253 252 250 251 250 249 249 248 248 248 249 249 248 248 250 249 250 251 252 249 250 250 250 249 248 249 246 246 247 247 248 249 249 250 250 251 250 250 252 252 250 250 251 250 250 250 250 250 251 251 252 252 252 253 253 254 253 252 253 253 249 251 249 252 252 252 251 252 252 255 252 253 251 250 251 252 251 251 251 251 252 252 253 254 253 256 252 253 252 252 250 250 251 251 252 253 252 252 250 252 250 250 252 252 252 252 252 253 252 255 257 252 252 252 252 250 252 252 254 253 253 252 254 251 252 252 252 254 0 255 254 254 256 257 257 257 253 252 0 0 0 0 0
    0 0 0 0 0 0 0 0 0 0 0 0 0 0 0 0 0 0 0 0 0 0 0 0 0 0 0 0 0 0 0 0 0 0 0 0 0 0 0 0 0 0 0 0 0 0 0 0 0 0 0 0 0 0 0 0 0 0 0 0 0 0 0 0 0 0 0 0 0 246 246 246 246 246 246 246 246 246 245 246 246 245 246 245 246 244 245 246 246 246 0 246 247 246 246 246 247 247 247 248 248 247 249 248 248 249 249 249 249 249 250 249 249 249 0 248 246 246 246 246 246 247 247 248 247 0 248 250 249 250 250 250 248 247 249 248 247 247 247 246 248 248 249 246 248 248 248 248 0 248 248 248 252 248 247 247 247 246 245 246 246 246 246 248 248 249 249 250 250 250 251 252 252 252 252 252 252 252 252 251 250 250 248 249 248 249 248 249 250 249 249 251 250 251 251 252 249 250 250 250 249 248 249 247 247 248 248 248 249 249 249 250 251 250 250 252 251 250 250 251 250 251 251 251 250 251 252 252 252 253 253 253 254 253 252 254 253 250 252 250 252 252 252 251 252 252 254 252 252 251 250 251 252 251 251 252 251 252 252 253 253 252 255 252 253 252 252 251 250 251 251 252 254 252 252 250 252 250 251 252 252 252 252 252 253 252 255 256 252 252 252 252 251 252 252 255 254 253 252 253 250 252 250 0 0 0 254 253 254 257 258 258 259 256 254 0 0 0 0 0
    0 0 0 0 0 0 0 0 0 0 0 0 0 0 0 0 0 0 0 0 0 0 0 0 0 0 0 0 0 0 0 0 0 0 0 0 0 0 0 0 0 0 0 0 0 0 0 0 0 0 0 0 0 0 0 0 0 0 0 0 0 0 0 0 0 0 0 0 0 247 247 246 246 246 246 246 246 246 246 246 246 246 246 246 246 244 245 246 246 246 246 246 247 246 247 246 247 247 247 248 248 247 248 248 248 248 248 249 249 249 249 249 249 249 0 248 246 246 246 246 246 246 246 247 247 0 248 249 249 251 250 250 249 247 249 248 247 247 247 246 248 248 249 246 248 248 248 248 0 248 249 248 252 249 248 248 0 246 246 246 246 246 246 248 249 249 249 250 250 250 251 251 252 252 252 252 252 252 252 251 250 250 248 249 248 249 248 249 250 249 250 251 251 252 251 252 249 250 251 251 250 249 249 247 248 249 248 248 0 249 249 249 250 250 250 252 252 250 251 251 251 251 251 251 251 251 252 252 252 253 253 254 255 253 253 254 254 251 252 251 252 252 252 252 252 252 255 252 252 251 250 251 252 251 251 251 251 252 252 252 252 252 253 251 252 252 252 251 250 251 252 253 254 251 252 250 252 249 251 252 252 252 252 252 253 252 255 256 253 254 255 254 253 254 255 258 255 255 252 252 250 251 0 0 0 0 0 252 253 257 259 258 259 258 256 0 0 0 0 0
    0 0 0 0 0 0 0 0 0 0 0 0 0 0 0 0 0 0 0 0 0 0 0 0 0 0 0 0 0 0 0 0 0 0 0 0 0 0 0 0 0 0 0 0 0 0 0 0 0 0 0 0 0 0 0 0 0 0 0 0 0 0 0 0 0 0 0 0 0 248 248 247 247 247 247 247 247 247 246 247 247 246 248 0 0 0 0 0 0 248 248 247 249 246 247 247 247 246 246 247 247 246 248 248 248 248 248 248 249 248 248 248 248 248 247 247 246 246 246 246 246 246 247 248 247 248 248 249 249 251 250 250 249 248 249 249 248 248 247 246 248 248 249 246 248 248 248 248 250 249 249 249 252 250 249 249 249 247 246 246 246 246 246 247 248 249 249 250 250 250 250 251 252 252 252 252 252 252 252 252 250 249 248 249 248 249 248 250 250 250 250 251 251 252 252 253 251 251 252 252 252 250 250 249 249 250 249 249 0 249 249 249 250 250 249 251 251 250 251 251 251 251 251 251 251 251 252 252 252 252 253 253 254 253 253 253 253 251 252 252 252 252 252 252 252 252 255 252 253 251 251 251 252 251 251 251 250 250 251 251 251 250 251 250 252 252 252 251 251 252 252 254 255 252 252 251 253 250 252 252 252 252 253 252 253 252 255 256 252 253 255 254 254 256 257 259 257 0 252 0 0 0 0 0 0 0 0 250 252 258 260 259 260 257 255 0 0 0 0 0
    0 0 0 0 0 0 0 0 0 0 0 0 0 0 0 0 0 0 0 0 0 0 0 0 0 0 0 0 0 0 0 0 0 0 0 0 0 0 0 0 0 0 0 0 0 0 0 0 0 0 0 0 0 0 0 0 0 0 0 0 0 0 0 0 0 0 0 0 0 248 248 248 247 247 248 247 247 247 247 247 247 246 250 0 0 0 0 0 0 0 0 0 8 247 247 247 247 246 246 246 246 245 246 246 246 247 248 248 249 248 248 248 248 248 247 248 246 246 246 247 246 247 247 248 247 248 248 249 250 251 250 250 249 248 249 249 248 248 247 247 248 248 249 246 248 248 248 248 249 249 249 249 252 250 250 250 249 247 246 246 246 247 246 247 248 248 249 250 250 251 250 252 251 251 252 252 252 251 251 251 249 249 248 249 248 249 249 250 250 250 251 252 252 253 252 254 252 252 253 252 252 251 251 250 249 251 250 249 249 249 249 250 250 250 249 251 251 250 251 251 251 251 251 251 251 251 252 252 252 252 252 253 254 252 253 252 252 251 252 252 252 252 252 252 252 252 255 253 253 252 252 252 252 251 251 250 249 249 249 249 248 248 248 249 251 252 252 251 251 252 252 253 255 252 252 250 253 250 252 253 253 253 254 253 253 252 255 255 252 253 254 253 255 257 258 260 0 0 0 0 0 0 0 0 0 0 0 251 254 260 0 0 0 258 256 0 0 0 0 0
    0 0 0 0 0 0 0 0 0 0 0 0 0 0 0 0 0 0 0 0 0 0 0 0 0 0 0 0 0 0 0 0 0 0 0 0 0 0 0 0 0 0 0 0 0 0 0 0 0 0 0 0 0 0 0 0 0 0 0 0 0 0 0 0 0 0 0 0 0 248 248 248 247 248 248 248 247 247 247 248 248 0 251 0 0 0 0 0 0 0 252 248 249 247 247 248 247 246 246 246 245 245 246 246 246 247 247 248 249 248 248 248 248 249 247 248 247 247 247 248 247 248 248 249 247 248 248 249 250 251 250 249 248 248 249 250 248 248 248 248 248 248 249 246 248 248 248 248 249 249 249 250 252 250 250 250 250 248 246 246 246 247 246 247 248 248 249 250 250 251 251 252 251 251 251 251 251 250 250 250 248 249 248 249 248 250 249 250 251 251 252 252 252 253 252 253 252 252 254 252 252 251 251 250 250 251 250 250 249 249 249 250 250 250 249 251 251 250 251 251 251 251 251 252 252 251 252 252 252 252 252 252 253 252 253 252 252 251 252 252 252 252 252 252 252 252 255 252 252 252 252 252 253 252 251 251 250 249 248 248 247 246 247 247 249 251 251 250 250 251 252 253 253 252 251 250 252 250 252 253 253 253 254 254 254 253 255 255 252 253 254 253 255 258 258 260 0 0 0 0 0 0 0 0 0 0 0 251 255 259 0 260 0 258 257 0 0 0 0 0
    0 0 0 0 0 0 0 0 0 0 0 0 0 0 0 0 0 0 0 0 0 0 0 0 0 0 0 0 0 0 0 0 0 0 0 0 0 0 0 0 0 0 0 0 0 0 0 0 0 0 0 0 0 0 0 0 0 0 0 0 0 0 0 0 0 0 0 0 0 249 249 249 248 248 248 248 248 248 247 248 248 0 251 0 0 0 0 0 0 0 251 0 250 247 248 249 248 246 246 246 246 246 246 246 246 247 247 247 248 248 248 0 247 248 247 248 248 247 248 248 248 249 249 249 248 248 248 249 250 251 250 249 248 248 250 250 248 248 248 248 248 249 249 247 248 248 248 248 249 249 249 250 252 250 250 250 250 249 247 247 247 248 247 248 248 249 249 250 251 251 251 251 251 251 251 251 250 249 249 249 248 249 248 248 248 250 249 250 251 251 252 252 252 253 252 253 252 251 253 252 253 252 251 250 250 252 251 250 249 249 249 250 251 250 250 251 251 251 251 252 251 251 252 252 252 251 252 252 252 252 252 252 253 252 252 252 252 251 252 252 252 252 252 252 252 252 255 252 252 252 252 252 253 252 252 252 252 251 249 249 247 246 246 246 247 249 249 248 249 250 251 252 252 252 250 251 252 251 252 254 254 254 254 254 254 253 255 255 252 252 0 252 254 256 256 259 0 0 0 0 0 0 0 0 0 0 0 251 253 255 257 257 0 256 256 0 0 0 0 0
    0 0 0 0 0 0 0 0 0 0 0 0 0 0 0 0 0 0 0 0 0 0 0 0 0 0 0 0 0 0 0 0 0 0 0 0 0 0 0 0 0 0 0 0 0 0 0 0 0 0 0 0 0 0 0 0 0 0 0 0 0 0 0 0 0 0 0 0 0 250 249 249 248 248 249 248 248 249 248 249 248 0 251 0 0 246 244 245 0 0 0 0 0 246 247 248 247 246 246 246 246 246 246 246 246 247 247 247 248 248 247 246 247 248 0 248 248 248 249 249 249 249 249 250 249 249 249 250 250 251 250 250 248 249 250 250 249 248 248 248 249 250 250 248 249 249 249 249 249 249 249 251 253 251 251 251 251 250 248 248 248 248 248 248 249 249 250 250 251 251 251 251 251 250 251 250 250 249 249 249 248 248 247 248 248 250 249 250 251 251 252 252 252 252 252 252 252 251 252 252 252 252 251 250 250 251 251 250 249 249 249 250 251 251 250 251 252 252 252 252 252 252 252 252 252 252 252 252 252 252 252 252 252 252 252 252 252 251 252 252 252 252 252 252 252 253 255 252 252 252 252 253 253 252 252 252 252 252 249 248 246 245 245 245 245 246 246 246 248 249 251 252 252 252 251 252 254 252 254 255 255 254 255 255 254 253 255 254 252 252 0 0 254 0 256 258 255 0 0 0 0 0 0 0 0 0 0 251 253 252 0 0 0 0 252 0 0 0 0 0
    0 0 0 0 0 0 0 0 0 0 0 0 0 0 0 0 0 0 0 0 0 0 0 0 0 0 0 0 0 0 0 0 0 0 0 0 0 0 0 0 0 0 0 0 0 0 0 0 0 0 0 0 0 0 0 0 0 0 0 0 0 0 0 0 0 0 0 0 0 250 249 249 248 248 248 248 248 249 248 248 248 0 250 247 0 245 243 244 244 246 245 244 246 245 246 247 245 246 245 246 246 246 246 246 246 247 248 248 249 248 247 247 247 248 248 249 248 248 249 250 250 250 250 250 249 250 250 250 250 251 250 250 249 249 250 250 249 249 248 249 250 251 250 248 249 249 249 249 249 249 250 251 252 252 252 251 251 251 249 249 249 249 248 248 249 249 250 250 251 251 251 251 252 251 251 250 249 248 248 248 247 247 246 247 248 250 250 251 251 251 252 252 252 253 251 252 251 250 252 252 252 252 251 251 251 251 251 250 249 249 249 250 251 250 251 251 252 252 252 252 252 252 252 252 252 251 252 252 252 252 252 252 252 251 252 251 251 251 252 252 252 252 252 252 252 253 255 253 252 252 252 253 253 252 252 252 252 252 250 248 246 245 245 243 243 244 244 244 248 249 250 252 253 253 252 252 255 252 256 256 256 255 255 254 253 252 253 253 251 252 0 0 253 257 257 259 257 255 253 252 253 253 252 252 252 251 252 251 252 252 252 0 0 0 252 0 0 0 0 0
    0 0 0 0 0 0 0 0 0 0 0 0 0 0 0 0 0 0 0 0 0 0 0 0 0 0 0 0 0 0 0 0 0 0 0 0 0 0 0 0 0 0 0 0 0 0 0 0 0 0 0 0 0 0 0 0 0 0 0 0 0 0 0 0 0 0 0 0 0 250 249 249 248 248 248 248 248 248 248 248 247 247 249 247 247 246 244 245 245 246 245 243 244 243 244 245 243 245 243 246 246 246 247 247 247 248 249 249 249 249 248 248 248 248 248 249 249 249 250 250 250 251 251 251 250 250 250 250 250 251 250 249 249 249 250 250 249 249 248 249 250 251 250 249 249 249 249 249 249 249 250 252 252 252 252 252 252 252 251 250 249 249 249 249 249 250 250 251 251 251 251 251 251 250 250 249 248 246 246 246 246 246 245 246 248 250 250 251 252 251 252 252 252 252 251 252 251 250 252 252 252 252 252 251 251 252 251 251 250 250 250 250 251 250 251 252 252 252 252 252 251 251 252 251 251 250 251 251 251 251 251 251 252 250 251 251 251 251 252 252 252 252 252 252 253 254 255 254 252 252 252 253 253 253 252 252 252 254 251 250 246 245 245 243 242 245 243 243 247 249 249 252 254 254 252 253 255 254 257 257 257 255 256 256 254 254 253 253 252 252 252 0 252 255 256 259 257 256 255 254 256 256 255 254 252 252 253 252 254 252 252 252 252 253 254 0 0 0 0 0
    0 0 0 0 0 0 0 0 0 0 0 0 0 0 0 0 0 0 0 0 0 0 0 0 0 0 0 0 0 0 0 0 0 0 0 0 0 0 0 0 0 0 0 0 0 0 0 0 0 0 0 0 0 0 0 0 0 0 0 0 0 0 0 0 0 0 0 0 0 249 248 248 247 248 248 247 247 248 248 248 247 247 249 248 247 246 246 246 246 247 245 244 0 242 242 243 242 244 242 246 245 246 246 246 246 247 247 248 248 249 248 0 0 0 0 250 249 250 250 251 250 251 251 251 250 250 250 251 250 251 249 249 248 249 249 249 249 248 248 249 250 251 250 249 249 249 249 249 248 248 249 251 252 252 252 251 251 251 251 250 250 250 249 249 250 250 250 251 251 251 251 251 251 250 250 249 247 246 246 246 246 246 246 246 248 250 250 251 252 251 252 252 252 252 251 252 251 251 252 252 252 252 252 252 251 251 251 250 250 250 250 250 251 251 252 252 252 252 252 252 251 251 252 250 251 250 250 251 251 251 251 251 252 250 251 251 251 251 252 252 252 252 252 253 253 255 255 254 252 253 253 254 254 254 253 253 253 255 251 250 246 245 245 245 245 246 245 246 249 250 249 252 254 255 252 254 254 254 257 257 257 255 257 256 255 255 253 253 252 251 252 249 250 251 252 256 254 254 254 257 258 258 257 256 255 254 255 256 256 254 253 254 254 256 257 0 0 0 0 0
    0 0 0 0 0 0 0 0 0 0 0 0 0 0 0 0 0 0 0 0 0 0 0 0 0 0 0 0 0 0 0 0 0 0 0 0 0 0 0 0 0 0 0 0 0 0 0 0 0 0 0 0 0 0 0 0 0 0 0 0 0 0 0 0 0 0 0 0 0 249 247 247 247 247 247 247 247 248 247 247 246 246 248 247 247 246 246 246 246 247 245 243 241 241 240 240 240 242 241 244 244 246 245 246 246 246 246 246 247 247 0 0 0 0 0 249 249 251 250 251 251 252 252 252 251 251 251 251 251 251 249 248 248 248 248 249 248 247 248 249 250 251 249 248 248 248 248 248 247 247 248 249 250 250 250 250 250 249 250 249 249 249 249 249 250 250 250 251 251 251 251 251 250 250 250 249 248 247 247 247 248 247 247 248 249 250 250 251 251 251 251 252 252 252 251 252 251 251 252 251 252 252 251 251 251 251 250 250 250 250 250 251 251 251 252 252 252 252 252 252 252 252 252 251 251 250 250 251 251 252 251 250 251 249 250 250 250 251 252 252 252 252 252 253 253 255 255 254 252 253 253 255 254 254 253 253 254 254 251 250 246 246 246 246 247 248 248 249 251 251 251 251 252 252 251 252 252 252 255 255 255 254 256 256 255 254 253 252 251 250 250 247 247 248 250 251 252 253 255 258 259 259 258 258 257 256 257 257 257 255 254 256 255 255 255 0 0 0 0 0
    0 0 0 0 0 0 0 0 0 0 0 0 0 0 0 0 0 0 0 0 0 0 0 0 0 0 0 0 0 0 0 0 0 0 0 0 0 0 0 0 0 0 0 0 0 0 0 0 0 0 0 0 0 0 0 0 0 0 0 0 0 0 0 0 0 0 0 0 0 248 247 247 246 246 246 246 246 247 246 247 246 246 247 246 246 246 246 246 245 246 242 241 238 239 239 238 239 242 242 245 245 246 245 246 246 245 246 246 246 246 246 0 0 0 246 247 248 249 249 251 250 251 252 252 251 252 251 252 251 251 248 248 247 248 248 248 247 246 247 249 250 250 248 248 247 248 248 248 247 246 247 247 248 248 248 248 248 248 249 248 248 249 249 249 250 250 250 251 251 251 251 250 250 249 249 249 247 247 247 247 248 248 249 249 250 250 250 251 251 250 251 251 252 252 251 251 250 250 251 251 250 250 250 250 250 250 250 250 249 249 250 250 250 250 251 251 251 252 252 252 252 252 252 251 252 251 251 251 252 251 251 250 250 249 249 249 250 251 251 252 252 252 252 253 253 255 254 254 252 253 253 255 254 254 253 253 254 255 251 252 247 247 247 248 249 250 250 252 252 252 252 252 252 252 251 252 252 252 253 253 254 253 255 255 253 252 252 251 250 249 249 247 247 247 249 250 250 252 253 257 259 259 258 258 257 257 258 258 258 257 255 256 256 256 255 0 0 0 0 0
    0 0 0 0 0 0 0 0 0 0 0 0 0 0 0 0 0 0 0 0 0 0 0 0 0 0 0 0 0 0 0 0 0 0 0 0 0 0 0 0 0 0 0 0 0 0 0 0 0 0 0 0 0 0 0 0 0 0 0 0 0 0 0 0 0 0 0 0 0 247 246 247 246 246 246 246 246 247 246 0 246 246 247 246 246 246 245 245 244 245 240 239 0 238 0 238 239 242 242 245 245 246 246 246 246 246 246 246 246 246 246 0 0 0 245 245 246 0 248 250 250 251 251 251 251 252 251 252 250 250 248 246 246 247 247 247 246 246 247 248 250 250 248 247 247 247 247 247 246 245 246 247 247 247 247 247 247 248 249 249 248 249 249 249 250 250 251 251 251 251 251 251 250 250 249 249 248 247 247 247 248 248 249 249 250 250 250 251 251 250 250 250 251 251 250 250 250 250 250 250 250 250 250 250 250 250 249 249 249 249 250 249 249 249 251 251 251 252 252 251 251 252 252 251 251 251 251 251 251 251 249 248 249 247 247 248 249 250 251 252 252 252 252 253 253 255 254 253 252 253 252 254 254 254 253 253 253 255 251 252 248 248 248 248 249 250 250 253 253 253 255 253 252 252 252 253 252 252 252 252 252 252 253 253 252 251 251 250 250 249 248 247 247 248 250 250 251 251 251 254 256 257 257 256 254 254 257 258 257 255 253 255 255 257 256 0 0 0 0 0
    0 0 0 0 0 0 0 0 0 0 0 0 0 0 0 0 0 0 0 0 0 0 0 0 0 0 0 0 0 0 0 0 0 0 0 0 0 0 0 0 0 0 0 0 0 0 0 0 0 0 0 0 0 0 0 0 0 0 0 0 0 0 0 0 0 0 0 0 0 247 246 247 246 246 246 246 246 248 247 247 247 247 247 246 246 246 244 244 244 244 239 238 0 0 0 237 238 240 240 245 245 246 246 246 246 246 246 246 246 246 246 246 0 0 0 244 245 247 248 250 249 250 251 251 251 252 251 252 250 250 247 246 246 246 246 246 246 246 246 248 250 249 247 247 247 247 247 247 246 245 246 246 247 247 247 246 247 248 249 249 248 249 249 250 250 250 251 251 251 251 251 251 251 250 250 250 248 248 248 248 250 250 251 249 250 250 250 251 251 250 249 250 250 251 250 250 249 250 250 250 250 250 250 250 250 250 249 249 249 249 250 249 249 249 250 250 251 252 251 250 251 251 252 251 251 251 251 251 251 250 249 248 248 247 247 248 249 250 251 252 252 252 252 253 253 255 254 254 252 253 252 254 253 254 254 253 253 253 251 252 247 248 247 247 249 250 251 255 253 255 258 255 254 253 252 253 251 251 251 250 250 250 251 251 249 249 249 249 248 248 247 247 247 249 250 251 251 250 251 252 254 255 254 253 252 252 256 255 254 252 252 253 254 257 255 0 0 0 0 0
    0 0 0 0 0 0 0 0 0 0 0 0 0 0 0 0 0 0 0 0 0 0 0 0 0 0 0 0 0 0 0 0 0 0 0 0 0 0 0 0 0 0 0 0 0 0 0 0 0 0 0 0 0 0 0 0 0 0 0 0 0 0 0 0 0 0 0 0 0 246 246 247 246 246 246 246 246 248 248 0 247 247 248 246 247 246 244 244 243 243 239 238 0 0 0 0 239 240 240 245 244 245 245 246 246 246 246 246 246 246 246 0 0 0 0 0 244 0 248 250 250 251 251 252 252 252 252 252 250 250 247 246 246 246 246 246 246 246 246 248 250 248 247 246 246 246 246 246 246 244 246 246 246 247 247 246 247 247 249 250 249 249 249 250 251 250 251 251 251 251 252 251 251 251 250 250 249 249 250 249 252 252 252 250 250 251 250 251 251 250 249 250 250 251 250 250 250 250 250 250 250 250 249 250 250 249 249 249 248 249 250 249 249 249 250 250 251 251 251 250 250 0 0 250 251 250 250 250 251 250 248 247 248 246 246 248 248 250 251 252 252 252 253 253 254 256 254 255 252 253 253 255 254 254 254 253 253 253 250 251 247 248 247 248 251 252 252 259 258 258 261 258 256 254 252 252 249 248 248 248 248 248 248 247 246 246 246 246 246 246 246 246 247 249 251 251 251 250 250 251 252 253 252 252 251 252 254 254 252 252 252 252 253 255 253 0 0 0 0 0
    0 0 0 0 0 0 0 0 0 0 0 0 0 0 0 0 0 0 0 0 0 0 0 0 0 0 0 0 0 0 0 0 0 0 0 0 0 0 0 0 0 0 0 0 0 0 0 0 0 0 0 0 0 0 0 0 0 0 0 0 0 0 0 0 0 0 0 0 0 246 245 246 246 246 246 246 246 247 247 246 246 247 248 246 247 246 245 244 245 244 239 238 0 0 0 0 239 239 241 244 244 245 245 246 246 246 246 246 246 246 246 0 0 0 0 0 243 0 248 250 249 250 251 252 252 252 252 252 250 249 246 245 245 245 245 245 245 246 246 248 249 247 246 246 246 246 246 246 245 243 245 246 246 246 246 246 246 247 249 250 248 249 249 250 251 251 251 251 251 252 252 252 251 251 250 250 249 248 250 248 252 253 253 250 251 251 251 251 251 249 249 249 250 251 251 250 250 250 251 250 250 250 250 251 250 250 249 249 248 249 250 249 248 248 249 250 250 251 250 249 250 0 0 250 250 250 249 250 250 249 247 246 247 246 246 246 248 249 250 252 252 252 253 254 254 257 255 255 253 254 254 256 255 255 255 254 253 0 0 0 247 248 248 249 252 254 255 260 260 260 262 259 0 0 0 0 0 0 0 246 246 246 246 0 244 244 244 244 244 245 245 246 246 247 250 251 251 249 249 251 251 252 251 252 250 250 253 253 252 252 251 252 252 254 253 0 0 0 0 0
    0 0 0 0 0 0 0 0 0 0 0 0 0 0 0 0 0 0 0 0 0 0 0 0 0 0 0 0 0 0 0 0 0 0 0 0 0 0 0 0 0 0 0 0 0 0 0 0 0 0 0 0 0 0 0 0 0 0 0 0 0 0 0 0 0 0 0 0 0 246 245 247 246 246 246 246 246 248 247 246 246 248 248 246 247 247 246 245 246 244 240 238 0 0 0 0 239 238 0 244 244 245 246 246 246 246 246 245 246 246 245 245 0 0 0 0 242 0 0 249 249 250 251 251 252 252 252 252 249 249 246 243 244 243 243 242 242 244 245 246 248 246 246 246 245 245 245 246 244 243 245 245 246 246 246 245 246 246 248 249 248 248 249 250 251 251 252 251 251 252 252 251 251 251 250 249 249 249 251 252 0 257 256 251 252 251 251 251 250 249 249 249 250 251 251 251 250 251 0 250 250 250 249 250 250 250 249 249 249 248 249 249 247 248 249 249 249 250 251 249 250 251 252 251 251 251 251 250 251 249 248 246 247 246 246 247 247 249 249 251 252 252 252 253 254 256 254 255 253 255 255 256 255 255 255 254 252 0 0 0 247 248 249 250 252 256 257 260 260 260 263 260 0 0 0 0 0 0 0 0 246 246 246 0 0 243 242 242 242 243 244 244 245 246 248 249 250 248 248 249 250 251 251 252 251 251 254 254 252 252 250 252 252 253 252 0 0 0 0 0
    0 0 0 0 0 0 0 0 0 0 0 0 0 0 0 0 0 0 0 0 0 0 0 0 0 0 0 0 0 0 0 0 0 0 0 0 0 0 0 0 0 0 0 0 0 0 0 0 0 0 0 0 0 0 0 0 0 0 0 0 0 0 0 0 0 0 0 0 0 246 245 247 247 246 247 247 246 248 247 0 247 248 248 245 246 246 245 244 246 242 238 236 0 0 0 0 240 237 240 242 242 244 245 245 245 245 245 245 246 245 245 0 0 0 0 0 241 0 0 0 0 250 251 251 251 252 252 252 249 248 246 243 243 242 242 240 241 242 243 242 245 242 244 243 244 244 244 245 244 243 245 244 245 244 244 243 243 245 246 246 246 246 247 249 250 249 251 250 250 251 252 252 251 252 252 251 0 252 256 260 0 259 258 252 252 252 251 251 250 249 249 250 251 252 251 252 251 251 0 0 250 250 249 250 250 250 249 248 248 246 249 248 246 246 248 248 249 250 251 249 250 252 253 252 252 254 254 252 252 250 249 247 247 246 246 246 247 248 249 251 252 251 252 252 253 254 253 253 253 255 255 256 255 255 0 0 0 0 0 0 246 247 247 250 254 258 258 261 260 261 263 259 0 0 0 0 0 0 0 0 0 245 0 0 0 242 240 239 240 242 242 242 244 246 247 248 248 247 246 247 247 248 248 249 249 249 253 254 252 250 248 249 250 251 250 0 0 0 0 0</data></depth>
</opencv_storage>
