<?xml version="1.0"?>
<opencv_storage>
<gps_time_stamp>22592</gps_time_stamp>
<gps_x>-3.0489792823791504e+000</gps_x>
<gps_y>3.5098114609718323e-001</gps_y>
<gps_z>-3.5782328248023987e-001</gps_z>
<image_time_stamp>10564</image_time_stamp>
<depth type_id="opencv-matrix">
  <rows>91</rows>
  <cols>320</cols>
  <dt>s</dt>
  <data>
    0 0 0 0 0 0 0 0 0 0 0 0 0 0 0 0 0 0 0 0 0 0 0 0 0 0 0 0 0 0 0 0 0 0 0 0 0 0 0 0 0 0 0 0 0 0 0 0 0 0 0 0 0 0 0 0 0 0 0 0 0 0 0 0 0 0 0 0 0 324 324 324 322 321 319 321 321 319 318 318 318 318 317 318 317 317 317 318 319 319 319 321 319 321 321 322 321 324 324 327 328 328 325 324 322 325 322 324 322 322 322 322 322 322 319 321 318 318 318 318 321 318 321 321 321 321 321 322 319 315 318 315 315 318 318 318 318 319 319 318 319 321 318 318 318 318 318 321 322 324 324 325 325 325 325 327 327 331 331 333 327 331 327 328 328 328 325 325 325 325 325 328 325 322 322 322 322 321 324 321 322 321 321 322 0 321 324 321 324 321 322 322 321 322 322 321 322 321 324 322 322 324 321 321 325 321 324 325 325 325 325 328 331 330 336 0 328 324 333 334 331 331 328 328 328 330 328 328 324 324 322 325 325 324 322 325 325 327 327 330 325 327 325 328 324 322 325 325 325 325 325 327 327 328 333 328 331 331 330 330 330 0 0 0 0 0 0 0 0 319 319 0 330 325 328 327 333 330 325 327 325 324 325 327 324 325 325 328 327 327 328 331 328 330 328 327 327 325 325 324 322 322 322 321 322 321 322 322 322 321 319 322 321 322 324 0 0 0 0 0
    0 0 0 0 0 0 0 0 0 0 0 0 0 0 0 0 0 0 0 0 0 0 0 0 0 0 0 0 0 0 0 0 0 0 0 0 0 0 0 0 0 0 0 0 0 0 0 0 0 0 0 0 0 0 0 0 0 0 0 0 0 0 0 0 0 0 0 0 0 322 322 322 322 321 319 321 319 319 318 317 317 317 315 0 315 315 0 0 318 318 319 321 319 321 321 322 321 322 324 325 327 327 324 324 322 327 324 324 324 322 322 324 324 324 319 321 317 318 318 318 321 318 319 319 319 319 319 321 318 315 318 317 317 318 319 318 318 319 321 319 319 322 318 318 319 319 318 321 322 322 324 324 324 324 325 327 325 330 330 330 324 330 324 327 327 328 325 325 325 327 325 330 327 324 322 322 324 321 324 322 322 322 322 324 325 324 327 324 325 321 324 324 322 324 322 321 322 322 324 324 322 324 321 321 325 321 324 325 324 325 324 328 331 330 336 333 327 324 330 331 330 330 328 327 328 328 328 325 322 322 322 324 325 324 324 325 325 327 327 330 325 325 325 328 324 321 324 324 324 325 325 327 327 327 331 328 330 328 327 0 0 0 322 0 321 319 0 0 0 0 321 321 325 321 325 324 328 327 324 325 325 325 327 330 327 330 327 330 328 328 328 331 328 330 327 327 325 325 324 324 322 322 321 321 322 321 322 324 322 322 321 322 322 322 324 0 0 0 0 0
    0 0 0 0 0 0 0 0 0 0 0 0 0 0 0 0 0 0 0 0 0 0 0 0 0 0 0 0 0 0 0 0 0 0 0 0 0 0 0 0 0 0 0 0 0 0 0 0 0 0 0 0 0 0 0 0 0 0 0 0 0 0 0 0 0 0 0 0 0 321 321 321 321 319 318 319 319 318 318 317 317 317 315 0 315 314 0 0 318 318 321 321 321 321 321 322 321 324 324 325 325 327 324 324 322 327 325 325 324 324 324 325 325 325 321 321 318 319 318 318 319 317 318 317 318 318 318 319 318 314 318 318 317 319 321 319 319 321 322 319 321 324 319 318 319 319 318 321 321 322 322 324 324 322 322 324 322 325 324 325 321 325 322 325 325 325 325 324 324 325 324 327 324 322 322 321 322 321 324 324 324 324 324 324 325 325 328 325 328 322 324 324 322 324 324 322 324 322 324 324 322 322 321 321 324 321 322 324 322 324 324 327 330 328 334 331 327 324 328 330 330 328 328 327 327 328 327 324 322 321 321 324 324 324 324 325 325 327 327 330 325 325 325 327 322 321 324 324 324 325 325 325 327 327 330 327 328 327 324 325 324 321 322 319 321 319 0 0 0 0 319 319 322 318 321 321 324 324 322 322 322 325 325 331 328 331 328 330 328 328 327 330 328 328 325 327 325 325 324 324 322 322 321 321 322 322 324 324 324 322 321 324 322 322 324 0 0 0 0 0
    0 0 0 0 0 0 0 0 0 0 0 0 0 0 0 0 0 0 0 0 0 0 0 0 0 0 0 0 0 0 0 0 0 0 0 0 0 0 0 0 0 0 0 0 0 0 0 0 0 0 0 0 0 0 0 0 0 0 0 0 0 0 0 0 0 0 0 0 0 321 321 321 321 319 318 318 318 318 317 317 317 317 315 0 315 314 315 0 317 318 319 321 321 321 322 322 321 324 325 325 325 325 324 324 324 327 325 325 325 324 325 327 327 327 322 322 318 319 318 318 319 315 317 315 315 317 317 318 317 314 318 318 317 319 321 319 319 321 322 319 321 324 318 318 319 319 319 321 321 322 322 322 322 321 321 322 319 321 321 322 319 322 321 324 324 325 324 324 322 324 322 324 322 321 321 319 322 321 325 324 325 325 325 325 327 325 330 327 330 322 324 324 322 324 324 322 324 322 324 324 322 324 321 321 324 321 322 324 322 324 324 327 328 328 333 330 327 325 328 330 330 328 328 327 327 327 327 325 322 322 322 324 325 324 324 325 325 327 327 330 325 325 325 327 322 321 324 324 324 325 325 325 327 327 330 325 327 327 322 324 322 319 321 319 321 319 0 0 0 0 319 319 321 317 319 318 319 321 319 321 322 325 324 330 327 331 328 331 328 330 327 330 328 328 325 327 325 327 324 324 322 322 321 321 322 321 322 324 322 321 319 322 321 321 322 0 0 0 0 0
    0 0 0 0 0 0 0 0 0 0 0 0 0 0 0 0 0 0 0 0 0 0 0 0 0 0 0 0 0 0 0 0 0 0 0 0 0 0 0 0 0 0 0 0 0 0 0 0 0 0 0 0 0 0 0 0 0 0 0 0 0 0 0 0 0 0 0 0 0 322 321 321 321 319 318 318 318 318 317 317 317 317 317 317 317 315 315 0 317 318 319 321 321 321 322 322 321 324 324 325 324 324 324 322 324 327 325 325 324 324 324 325 327 327 322 322 319 321 319 318 319 315 317 317 317 318 318 319 319 317 322 319 317 319 321 319 319 321 321 319 319 324 318 318 319 319 319 321 321 322 322 322 322 321 321 321 318 319 321 321 319 322 321 324 324 324 324 322 322 324 322 322 321 321 321 319 322 321 324 324 325 325 325 325 328 325 330 327 328 322 324 324 322 324 324 322 325 322 325 325 324 324 321 321 322 319 322 324 322 324 324 325 328 328 331 330 328 327 328 328 330 328 328 327 327 327 327 325 324 322 322 324 325 324 325 325 327 328 327 328 325 325 327 327 324 322 325 325 325 325 325 325 327 325 330 324 325 325 321 322 321 319 319 319 321 319 321 0 0 0 319 318 321 317 319 318 318 322 321 322 322 325 324 330 327 331 327 331 328 330 327 330 327 327 325 327 324 325 322 324 322 322 321 321 322 321 322 324 322 321 319 321 319 319 321 0 0 0 0 0
    0 0 0 0 0 0 0 0 0 0 0 0 0 0 0 0 0 0 0 0 0 0 0 0 0 0 0 0 0 0 0 0 0 0 0 0 0 0 0 0 0 0 0 0 0 0 0 0 0 0 0 0 0 0 0 0 0 0 0 0 0 0 0 0 0 0 0 0 0 324 322 322 322 321 318 319 319 318 317 317 317 317 317 317 315 314 315 317 317 318 319 321 321 321 322 322 321 322 324 324 322 324 322 322 324 325 325 324 324 324 324 325 327 325 322 322 319 322 321 318 319 317 318 318 319 319 321 322 322 319 327 321 318 321 321 321 319 321 321 319 319 324 318 318 319 319 319 322 322 324 324 322 322 321 321 321 318 319 321 321 319 321 319 322 322 322 324 322 321 322 321 322 319 321 321 319 322 321 324 324 325 325 325 325 328 325 330 325 328 322 325 324 324 324 324 322 325 322 327 325 325 325 322 322 324 321 324 324 322 324 324 325 327 327 330 328 327 325 325 327 328 327 327 325 327 325 327 324 324 322 322 325 325 325 327 327 327 328 328 330 325 325 327 325 325 322 325 325 325 327 325 325 327 325 328 322 322 324 319 321 321 318 321 321 322 321 322 322 321 319 319 319 321 318 319 318 318 322 321 324 322 325 324 328 327 331 327 331 327 328 325 328 327 325 325 325 324 325 322 324 322 322 322 321 322 321 322 324 322 321 319 319 319 321 321 0 0 0 0 0
    0 0 0 0 0 0 0 0 0 0 0 0 0 0 0 0 0 0 0 0 0 0 0 0 0 0 0 0 0 0 0 0 0 0 0 0 0 0 0 0 0 0 0 0 0 0 0 0 0 0 0 0 0 0 0 0 0 0 0 0 0 0 0 0 0 0 0 0 0 324 322 324 322 321 318 319 319 318 317 317 317 315 317 317 315 314 315 317 317 317 318 321 321 321 322 321 321 322 322 324 322 322 322 322 322 324 324 324 324 322 324 324 327 325 324 324 321 324 322 319 321 317 319 319 319 321 322 322 324 321 328 322 318 321 321 321 321 321 321 319 319 324 319 318 319 321 319 322 322 324 324 322 324 322 322 322 319 319 321 319 319 319 319 321 321 321 322 322 321 321 321 321 319 321 321 319 322 321 324 324 325 325 325 325 328 325 330 327 330 322 325 325 324 325 325 324 325 322 327 325 325 327 322 322 324 321 325 325 322 324 324 324 325 325 327 324 324 324 322 324 325 325 325 324 325 324 325 324 324 322 322 324 327 325 328 328 330 330 330 331 328 328 330 325 327 322 325 325 325 327 325 325 327 325 328 322 322 322 321 322 321 318 322 322 325 322 324 322 321 321 321 321 322 318 319 318 318 322 321 324 322 324 324 327 327 333 328 333 327 328 324 328 325 324 324 325 324 325 322 324 322 322 321 321 321 321 322 322 322 321 319 321 319 321 322 0 0 0 0 0
    0 0 0 0 0 0 0 0 0 0 0 0 0 0 0 0 0 0 0 0 0 0 0 0 0 0 0 0 0 0 0 0 0 0 0 0 0 0 0 0 0 0 0 0 0 0 0 0 0 0 0 0 0 0 0 0 0 0 0 0 0 0 0 0 0 0 0 0 0 325 324 324 324 322 318 319 319 318 318 318 317 315 317 318 315 314 315 317 318 318 318 321 321 321 322 321 321 322 322 322 321 321 321 321 322 324 322 322 322 322 322 324 325 324 322 322 321 322 321 318 319 315 318 318 319 321 321 321 324 321 330 322 318 321 321 321 321 322 321 319 319 325 319 319 321 321 321 322 322 324 325 324 324 321 322 321 319 318 318 318 318 318 318 321 319 321 322 322 321 321 321 321 321 322 321 319 322 321 324 324 325 325 325 327 328 327 330 328 330 324 327 325 324 325 325 324 327 324 328 325 327 327 324 322 324 321 325 325 322 324 322 324 324 324 325 324 322 324 322 324 325 325 325 324 324 322 324 322 322 322 322 324 327 325 330 330 331 331 331 333 333 330 333 327 328 322 325 325 325 327 325 325 327 324 327 321 321 322 321 322 321 319 322 324 327 325 325 324 322 321 322 321 322 319 319 318 318 321 321 322 322 322 322 327 327 333 328 333 325 328 324 328 325 324 325 325 324 327 322 325 322 322 321 319 321 321 322 322 321 319 319 321 321 321 324 0 0 0 0 0
    0 0 0 0 0 0 0 0 0 0 0 0 0 0 0 0 0 0 0 0 0 0 0 0 0 0 0 0 0 0 0 0 0 0 0 0 0 0 0 0 0 0 0 0 0 0 0 0 0 0 0 0 0 0 0 0 0 0 0 0 0 0 0 0 0 0 0 0 0 325 322 324 322 321 318 319 319 318 318 318 317 317 318 318 317 315 317 318 318 318 318 321 321 321 322 322 321 322 322 322 321 321 321 321 322 322 322 322 322 322 322 324 325 322 322 321 319 321 319 318 318 315 317 317 317 318 319 321 324 322 331 324 318 321 321 321 321 322 321 319 319 327 319 321 321 321 321 324 322 325 325 324 324 321 322 322 319 319 319 319 319 319 319 321 321 321 322 322 321 321 322 321 319 322 321 321 322 321 325 324 325 325 325 327 328 327 330 328 331 324 327 325 325 325 325 325 327 324 328 325 328 327 324 322 324 321 325 325 322 324 324 324 324 324 327 324 322 324 322 324 327 325 325 322 324 322 324 322 322 322 322 324 327 325 330 330 331 331 333 334 334 333 336 327 328 322 327 325 325 325 325 325 325 324 325 321 321 322 321 321 319 319 324 324 328 327 325 325 324 322 322 321 322 319 319 318 318 319 319 321 321 322 322 325 325 331 328 333 324 328 324 327 325 325 325 325 324 327 322 327 324 322 321 319 319 321 321 322 321 319 319 321 321 322 324 0 0 0 0 0
    0 0 0 0 0 0 0 0 0 0 0 0 0 0 0 0 0 0 0 0 0 0 0 0 0 0 0 0 0 0 0 0 0 0 0 0 0 0 0 0 0 0 0 0 0 0 0 0 0 0 0 0 0 0 0 0 0 0 0 0 0 0 0 0 0 0 0 0 0 324 322 324 322 321 318 319 319 318 318 318 318 317 318 319 318 317 318 318 318 318 318 319 321 319 321 321 321 322 322 322 321 321 321 321 322 322 322 322 322 322 322 322 324 321 322 321 319 321 319 318 317 315 317 317 317 318 319 321 322 324 331 324 318 322 321 321 321 322 321 319 319 327 319 321 321 321 321 324 324 325 325 324 324 322 324 322 321 321 321 321 321 319 321 321 321 322 322 322 319 319 321 319 319 321 321 319 321 321 325 324 325 327 325 327 328 327 330 328 330 322 327 325 325 325 325 325 325 324 330 325 330 328 325 324 324 321 325 325 322 324 324 325 325 325 328 325 324 325 324 324 325 325 325 322 324 322 324 322 322 322 322 322 325 324 328 330 331 330 331 333 334 333 336 325 327 322 327 325 325 325 325 325 325 324 325 319 321 324 321 321 319 319 322 322 327 325 324 324 322 322 322 321 322 321 321 319 319 321 321 322 321 322 322 324 324 328 327 330 322 327 322 325 324 324 325 325 324 327 324 327 325 324 322 321 321 321 321 324 321 319 321 322 322 322 324 0 0 0 0 0
    0 0 0 0 0 0 0 0 0 0 0 0 0 0 0 0 0 0 0 0 0 0 0 0 0 0 0 0 0 0 0 0 0 0 0 0 0 0 0 0 0 0 0 0 0 0 0 0 0 0 0 0 0 0 0 0 0 0 0 0 0 0 0 0 0 0 0 0 0 324 322 322 322 322 319 319 321 319 318 319 319 319 319 321 318 317 318 318 317 318 317 319 319 319 321 321 321 322 322 324 321 321 322 321 322 322 322 322 322 324 324 322 325 321 324 322 321 321 319 318 317 315 317 318 318 319 319 322 324 325 333 324 318 322 321 321 322 322 321 319 321 328 319 321 321 321 322 325 325 328 328 327 325 324 327 324 324 322 324 322 324 322 322 322 322 324 322 322 318 318 319 318 318 319 319 319 321 321 325 324 327 327 325 327 328 327 328 327 330 322 325 324 325 324 325 325 325 324 330 325 330 328 325 324 324 321 325 325 324 324 325 325 327 327 330 327 325 325 324 324 325 325 325 322 322 322 324 324 322 322 322 322 325 324 328 328 331 330 331 333 334 333 334 327 327 322 327 325 325 325 325 325 325 324 325 319 322 324 321 321 319 319 322 322 325 324 322 322 322 321 322 321 322 321 322 321 319 321 321 322 322 322 322 324 324 328 327 330 322 325 321 324 324 324 324 325 324 327 324 328 325 324 322 321 321 321 322 324 322 322 324 324 322 322 324 0 0 0 0 0
    0 0 0 0 0 0 0 0 0 0 0 0 0 0 0 0 0 0 0 0 0 0 0 0 0 0 0 0 0 0 0 0 0 0 0 0 0 0 0 0 0 0 0 0 0 0 0 0 0 0 0 0 0 0 0 0 0 0 0 0 0 0 0 0 0 0 0 0 0 324 322 322 322 322 319 321 321 321 319 319 319 319 321 321 319 317 318 318 318 318 317 319 321 321 321 322 321 322 322 324 321 321 322 321 322 322 322 322 322 324 324 324 325 321 0 322 321 321 319 318 318 317 319 321 321 322 322 324 324 327 333 322 318 322 322 322 322 322 321 319 321 328 319 321 322 321 324 327 327 330 330 330 328 327 328 325 325 325 325 325 327 324 325 325 325 325 324 324 319 319 0 318 318 319 319 319 321 322 325 324 327 328 327 327 330 327 330 327 328 321 325 324 324 324 325 325 325 324 330 325 330 328 327 322 322 321 325 325 324 324 325 325 327 327 330 327 325 327 325 325 325 324 325 321 322 322 324 324 324 322 322 324 327 325 328 330 331 330 331 333 334 333 334 327 327 324 327 324 325 325 325 325 325 324 325 319 322 321 321 319 318 319 322 321 324 322 322 321 322 321 321 321 322 321 322 321 321 322 322 324 324 324 324 324 325 328 327 331 322 324 321 324 324 324 324 325 324 327 324 328 325 325 324 322 322 322 322 324 322 324 324 325 324 324 324 0 0 0 0 0
    0 0 0 0 0 0 0 0 0 0 0 0 0 0 0 0 0 0 0 0 0 0 0 0 0 0 0 0 0 0 0 0 0 0 0 0 0 0 0 0 0 0 0 0 0 0 0 0 0 0 0 0 0 0 0 0 0 0 0 0 0 0 0 0 0 0 0 0 0 324 322 324 322 322 319 321 321 321 319 319 319 321 321 322 321 318 319 319 319 319 318 321 321 321 322 322 321 324 322 324 321 321 322 322 322 322 322 322 324 324 324 324 325 322 0 0 0 322 319 0 319 318 321 322 324 324 322 325 324 327 331 324 319 322 322 322 322 324 321 321 321 327 321 322 322 322 324 327 327 330 330 330 328 328 328 325 324 325 327 327 328 327 327 327 327 327 324 324 319 319 0 319 319 321 321 321 322 322 325 324 327 327 327 327 330 327 328 327 328 321 325 324 324 324 325 325 325 324 330 325 330 330 328 322 322 321 325 325 324 324 324 325 327 325 328 327 325 327 325 325 325 324 325 321 322 322 324 322 324 322 322 324 327 325 330 330 331 330 333 333 334 333 336 328 327 324 328 325 325 324 325 324 325 324 325 319 322 321 321 319 318 319 321 321 324 321 321 319 321 319 321 321 322 321 322 322 322 322 322 324 324 324 324 325 325 330 328 331 322 324 321 324 324 324 325 325 325 327 325 328 327 325 324 322 322 322 322 325 324 325 325 327 325 324 325 0 0 0 0 0
    0 0 0 0 0 0 0 0 0 0 0 0 0 0 0 0 0 0 0 0 0 0 0 0 0 0 0 0 0 0 0 0 0 0 0 0 0 0 0 0 0 0 0 0 0 0 0 0 0 0 0 0 0 0 0 0 0 0 0 0 0 0 0 0 0 0 0 0 0 324 322 322 322 321 319 321 321 322 319 319 319 321 322 324 321 319 319 319 319 321 319 321 322 322 322 322 322 324 322 324 322 321 322 322 324 324 322 322 324 325 325 324 327 322 0 0 0 0 319 0 321 318 322 322 324 325 324 325 324 327 331 324 321 322 324 324 324 325 321 321 322 327 321 321 321 322 324 327 327 330 330 330 330 330 328 327 325 325 327 327 328 327 327 327 327 328 325 325 319 319 321 319 321 321 321 321 322 322 325 324 327 327 325 325 328 325 327 325 327 319 324 324 324 324 325 325 325 324 330 325 330 330 328 321 322 321 325 325 324 324 324 325 325 325 328 325 324 325 325 325 325 324 325 321 322 322 324 322 324 322 322 322 327 325 328 330 331 330 331 333 334 333 336 328 327 324 327 324 324 324 324 324 325 324 325 321 324 324 322 321 319 319 321 319 322 319 319 318 319 318 319 319 321 321 322 321 322 322 324 324 325 325 325 325 327 330 328 331 322 324 319 324 325 325 325 327 325 328 325 330 327 325 324 324 322 322 322 325 324 325 327 327 327 325 325 0 0 0 0 0
    0 0 0 0 0 0 0 0 0 0 0 0 0 0 0 0 0 0 0 0 0 0 0 0 0 0 0 0 0 0 0 0 0 0 0 0 0 0 0 0 0 0 0 0 0 0 0 0 0 0 0 0 0 0 0 0 0 0 0 0 0 0 0 0 0 0 0 0 0 322 322 322 321 319 318 319 321 321 318 318 318 321 321 322 321 318 319 319 321 321 319 321 322 322 322 322 322 324 324 324 322 321 322 322 324 324 322 322 324 325 324 324 325 321 0 0 0 321 319 318 319 318 0 321 322 324 322 325 322 327 330 324 321 322 324 324 322 325 322 322 322 327 321 321 321 321 322 325 325 328 330 331 330 331 330 327 325 325 327 328 330 328 328 328 328 328 327 327 321 321 321 321 321 322 322 321 322 322 324 325 327 327 325 325 328 324 325 324 325 319 324 322 324 324 325 325 325 324 330 325 328 330 325 321 321 321 325 325 324 324 324 325 325 325 327 325 324 325 325 325 325 324 325 321 322 321 322 322 322 321 321 322 325 324 327 328 330 328 330 333 333 333 334 327 324 322 325 322 324 322 324 324 325 325 325 322 325 325 324 321 319 319 321 319 319 318 318 317 319 318 319 319 321 321 322 321 322 321 322 324 325 325 325 325 327 328 328 330 321 322 319 324 325 325 327 327 327 328 327 330 328 327 325 324 324 324 322 325 324 325 325 327 325 324 324 0 0 0 0 0
    0 0 0 0 0 0 0 0 0 0 0 0 0 0 0 0 0 0 0 0 0 0 0 0 0 0 0 0 0 0 0 0 0 0 0 0 0 0 0 0 0 0 0 0 0 0 0 0 0 0 0 0 0 0 0 0 0 0 0 0 0 0 0 0 0 0 0 0 0 321 321 319 319 317 317 318 319 319 318 318 318 319 321 321 319 318 318 319 319 321 319 321 322 322 322 322 322 324 322 324 322 321 321 322 324 324 322 322 324 325 324 324 325 321 0 319 0 318 317 317 317 315 0 319 321 324 322 325 321 325 328 322 321 322 324 324 322 325 322 322 322 327 321 319 321 321 322 325 325 328 330 331 330 330 328 325 324 325 327 328 330 330 330 330 330 328 327 325 321 321 321 321 321 321 321 321 322 322 324 325 325 325 325 325 327 324 324 324 325 319 322 322 322 324 325 325 325 322 328 325 327 328 324 319 321 321 324 325 322 322 324 325 325 327 327 327 325 327 328 328 327 325 327 322 322 322 322 321 321 319 319 321 324 324 327 327 328 327 330 331 333 331 333 325 322 322 325 322 324 322 324 324 325 325 327 322 328 325 324 319 317 318 318 318 317 315 315 314 318 317 319 319 321 321 322 321 322 322 322 324 325 325 325 325 327 327 327 328 321 321 318 322 324 325 327 327 327 328 327 330 330 328 327 325 325 324 324 325 325 325 325 325 324 321 322 0 0 0 0 0
    0 0 0 0 0 0 0 0 0 0 0 0 0 0 0 0 0 0 0 0 0 0 0 0 0 0 0 0 0 0 0 0 0 0 0 0 0 0 0 0 0 0 0 0 0 0 0 0 0 0 0 0 0 0 0 0 0 0 0 0 0 0 0 0 0 0 0 0 0 319 319 318 318 315 317 317 318 319 317 317 317 318 319 319 318 317 318 318 319 319 319 321 322 322 321 321 321 322 322 322 321 321 321 322 324 324 324 324 324 325 325 324 325 321 0 321 315 318 317 317 318 317 0 321 322 324 322 325 321 325 327 324 321 322 324 324 322 325 322 322 322 327 322 319 319 321 322 325 327 328 330 330 330 330 328 325 325 325 328 330 331 333 331 331 330 327 325 324 321 321 321 321 319 321 321 321 322 322 322 324 324 325 324 324 325 324 324 325 324 319 322 322 322 324 325 325 324 322 328 325 327 328 324 319 321 321 322 324 322 322 322 324 325 327 327 327 325 327 328 328 328 327 328 325 324 324 324 322 322 321 321 322 324 324 325 325 327 325 328 330 330 331 330 325 322 322 324 322 324 322 324 325 325 327 327 324 328 324 321 317 315 317 317 317 315 314 313 314 318 317 318 318 319 321 322 322 324 322 322 324 325 325 325 325 327 327 325 328 321 321 318 322 324 324 325 327 327 328 327 330 331 328 328 327 325 325 325 327 325 325 325 324 322 319 321 0 0 0 0 0
    0 0 0 0 0 0 0 0 0 0 0 0 0 0 0 0 0 0 0 0 0 0 0 0 0 0 0 0 0 0 0 0 0 0 0 0 0 0 0 0 0 0 0 0 0 0 0 0 0 0 0 0 0 0 0 0 0 0 0 0 0 0 0 0 0 0 0 0 0 319 319 318 318 315 315 315 317 317 315 315 315 317 318 318 318 317 317 318 318 319 319 321 322 322 321 321 321 322 322 322 321 321 321 322 324 324 322 324 324 325 325 324 325 322 327 321 318 321 318 318 321 318 322 321 322 324 322 324 321 324 325 322 321 322 322 322 322 324 322 322 322 325 322 319 319 322 324 324 325 325 327 325 327 328 325 324 324 325 330 331 331 333 330 330 328 327 324 322 319 319 319 321 319 319 321 319 321 321 322 324 324 324 324 324 325 322 322 324 322 319 322 322 322 324 325 325 324 324 328 325 325 327 322 319 321 321 322 322 322 322 322 324 325 325 325 327 325 325 328 328 327 327 328 327 325 324 325 324 322 321 321 322 322 322 324 324 325 325 327 330 328 330 328 325 321 322 324 322 324 324 324 325 325 330 328 324 330 324 321 318 317 317 315 315 315 314 314 314 317 314 317 318 319 321 322 322 324 324 324 324 325 325 325 325 327 327 325 328 322 322 319 322 324 324 325 327 327 327 327 328 330 328 328 327 325 325 324 327 325 325 324 324 322 319 319 0 0 0 0 0
    0 0 0 0 0 0 0 0 0 0 0 0 0 0 0 0 0 0 0 0 0 0 0 0 0 0 0 0 0 0 0 0 0 0 0 0 0 0 0 0 0 0 0 0 0 0 0 0 0 0 0 0 0 0 0 0 0 0 0 0 0 0 0 0 0 0 0 0 0 322 321 318 317 314 313 314 314 314 313 313 313 315 317 315 315 314 317 318 319 321 319 322 324 324 322 321 321 322 321 321 321 321 319 321 322 322 322 324 324 325 325 324 325 322 327 321 318 321 317 318 319 318 0 0 321 322 321 322 319 322 322 321 319 321 321 321 319 322 321 321 322 325 324 318 319 325 325 324 321 319 324 321 0 324 322 321 321 324 327 328 330 331 327 328 327 325 324 322 319 319 319 321 319 319 319 318 321 319 321 322 321 322 321 322 324 321 321 322 321 319 322 322 322 324 325 327 325 324 327 325 324 327 322 319 319 321 321 322 322 321 322 324 324 325 325 327 325 325 327 325 325 324 327 325 325 322 324 322 322 321 321 322 324 321 325 324 325 325 327 328 328 330 328 327 322 322 324 322 324 324 324 327 325 330 330 325 330 324 321 318 317 317 317 315 315 314 313 313 314 314 314 314 0 319 319 321 322 322 322 324 324 325 324 327 328 327 327 330 322 322 319 322 324 324 324 325 325 325 325 327 328 327 327 325 325 325 324 325 325 324 324 322 321 318 318 0 0 0 0 0
    0 0 0 0 0 0 0 0 0 0 0 0 0 0 0 0 0 0 0 0 0 0 0 0 0 0 0 0 0 0 0 0 0 0 0 0 0 0 0 0 0 0 0 0 0 0 0 0 0 0 0 0 0 0 0 0 0 0 0 0 0 0 0 0 0 0 0 0 0 324 322 319 317 314 311 313 313 313 311 310 310 314 315 315 315 313 317 319 321 0 0 0 4 324 322 321 319 321 319 319 321 319 319 321 321 322 322 324 324 324 324 324 325 322 325 321 318 319 317 318 319 317 0 0 0 322 319 322 319 321 321 319 319 319 321 321 318 321 319 321 322 325 325 317 0 0 0 0 0 0 0 318 0 0 319 319 319 321 324 325 327 328 325 327 325 325 324 322 319 319 321 321 319 319 319 318 319 319 319 321 319 321 321 321 322 321 321 324 322 319 322 322 322 324 325 327 325 324 327 325 324 327 322 319 319 319 321 322 321 321 322 322 324 325 324 327 324 324 324 324 322 321 324 322 321 319 321 319 321 319 321 324 325 322 328 325 328 327 328 328 327 328 327 325 322 322 324 322 324 324 325 327 325 330 330 325 330 324 321 318 315 315 315 314 314 311 310 311 309 311 299 301 0 315 315 0 0 0 0 321 322 324 324 327 327 327 327 331 324 322 319 321 322 322 324 325 324 325 324 325 328 325 325 324 324 322 322 324 322 321 319 318 315 314 315 0 0 0 0 0
    0 0 0 0 0 0 0 0 0 0 0 0 0 0 0 0 0 0 0 0 0 0 0 0 0 0 0 0 0 0 0 0 0 0 0 0 0 0 0 0 0 0 0 0 0 0 0 0 0 0 0 0 0 0 0 0 0 0 0 0 0 0 0 0 0 0 0 0 0 325 324 319 317 314 311 313 313 313 311 310 310 313 314 315 314 314 317 0 0 324 321 322 324 322 322 319 319 319 319 319 319 319 318 319 321 322 321 324 324 324 324 322 325 322 327 321 318 319 0 317 319 0 0 0 0 0 0 0 318 321 319 319 318 318 319 319 318 319 319 321 321 325 327 315 0 0 0 0 0 0 0 0 0 319 319 318 318 321 324 324 327 328 324 325 325 325 324 322 319 319 321 322 319 319 319 318 318 318 318 318 318 319 319 319 321 319 319 324 321 319 322 322 322 324 325 327 324 324 327 325 324 327 322 321 319 321 321 322 321 321 322 322 322 324 324 325 322 322 322 321 321 319 321 319 319 318 319 318 319 319 319 324 327 322 330 327 330 328 328 330 327 328 325 325 322 322 324 322 325 325 325 328 327 330 330 325 330 322 0 317 314 314 314 314 313 311 310 310 306 311 299 0 0 0 0 0 0 0 0 319 321 322 322 327 325 325 325 330 321 321 319 321 322 322 322 324 324 325 324 325 328 327 325 324 322 321 319 321 319 317 315 314 313 313 313 0 0 0 0 0
    0 0 0 0 0 0 0 0 0 0 0 0 0 0 0 0 0 0 0 0 0 0 0 0 0 0 0 0 0 0 0 0 0 0 0 0 0 0 0 0 0 0 0 0 0 0 0 0 0 0 0 0 0 0 0 0 0 0 0 0 0 0 0 0 0 0 0 0 0 325 324 319 317 314 311 313 311 311 311 310 310 311 313 313 311 309 313 0 0 0 0 0 0 321 319 0 317 318 318 318 319 318 317 318 319 321 321 322 322 322 322 322 324 322 325 321 318 318 315 0 0 0 0 0 0 0 87 0 0 319 318 318 317 317 319 319 317 318 318 319 321 0 327 0 0 0 0 0 0 0 0 0 0 0 318 318 318 322 325 324 327 328 324 327 325 324 324 322 319 319 321 322 319 319 318 317 317 318 318 317 317 318 318 319 319 319 319 322 321 319 322 322 321 324 325 327 324 324 327 324 324 327 322 321 319 321 321 322 321 321 322 322 322 324 322 325 322 322 321 319 319 319 319 319 319 318 319 317 319 318 319 324 327 321 330 327 330 328 328 330 327 327 325 325 322 322 324 322 324 324 325 327 325 328 327 322 325 319 317 315 313 314 314 313 313 310 310 313 313 314 301 0 0 0 0 0 0 0 0 318 319 321 321 325 0 324 0 331 321 321 319 321 322 322 322 324 324 325 325 327 331 328 327 324 321 319 0 0 315 314 313 313 311 311 311 0 0 0 0 0
    0 0 0 0 0 0 0 0 0 0 0 0 0 0 0 0 0 0 0 0 0 0 0 0 0 0 0 0 0 0 0 0 0 0 0 0 0 0 0 0 0 0 0 0 0 0 0 0 0 0 0 0 0 0 0 0 0 0 0 0 0 0 0 0 0 0 0 0 0 325 324 319 317 314 311 313 311 311 310 310 309 310 310 311 310 0 0 0 0 0 0 0 0 0 315 313 314 317 317 317 318 318 317 317 318 321 319 0 0 0 0 0 322 0 324 321 318 317 315 0 0 0 0 0 86 87 87 87 0 0 317 317 315 314 317 318 315 317 317 318 0 0 0 0 0 0 0 0 0 0 90 0 0 0 313 314 315 319 324 322 325 327 322 325 324 324 322 321 319 318 319 321 318 318 318 0 0 317 317 315 315 317 317 318 319 319 319 324 321 319 322 322 321 324 325 327 324 324 327 324 324 325 322 321 319 321 319 321 321 321 322 322 324 324 324 328 322 321 321 319 319 318 319 318 318 317 318 315 0 315 0 324 327 319 330 325 330 328 328 330 327 327 324 325 322 322 324 322 324 324 324 324 322 324 321 318 321 317 314 313 309 313 314 311 311 309 309 313 314 315 309 0 0 0 0 318 318 317 314 318 318 319 319 0 0 0 0 331 0 0 319 321 322 322 322 324 324 327 327 328 333 330 330 325 0 0 0 0 315 313 311 311 310 310 310 0 0 0 0 0
    0 0 0 0 0 0 0 0 0 0 0 0 0 0 0 0 0 0 0 0 0 0 0 0 0 0 0 0 0 0 0 0 0 0 0 0 0 0 0 0 0 0 0 0 0 0 0 0 0 0 0 0 0 0 0 0 0 0 0 0 0 0 0 0 0 0 0 0 0 325 322 319 317 314 311 313 310 310 310 309 307 309 310 310 0 0 0 525 0 0 0 0 0 310 313 311 313 315 315 317 318 317 0 0 318 319 319 0 0 0 0 0 0 0 325 321 319 0 0 0 0 0 0 0 86 0 87 87 88 0 0 314 313 311 0 317 314 0 0 0 88 88 0 0 0 0 0 0 0 0 0 0 0 0 307 310 313 317 321 319 322 325 321 325 324 322 321 319 0 0 319 321 318 318 317 0 0 0 0 315 315 317 317 318 318 319 319 324 321 319 322 322 321 324 327 327 324 325 327 325 0 0 322 321 319 319 319 321 319 321 321 321 324 324 325 330 324 321 321 319 318 318 318 317 318 317 318 315 315 0 0 0 0 0 331 324 330 330 330 328 325 327 324 325 322 322 324 322 322 322 322 322 319 321 318 315 314 311 295 297 295 299 302 305 302 302 304 310 309 313 302 305 0 0 0 0 0 318 313 318 317 0 0 0 0 0 0 0 0 0 321 321 322 322 322 324 324 328 328 328 333 331 330 325 0 0 0 0 314 311 309 310 309 309 309 0 0 0 0 0
    0 0 0 0 0 0 0 0 0 0 0 0 0 0 0 0 0 0 0 0 0 0 0 0 0 0 0 0 0 0 0 0 0 0 0 0 0 0 0 0 0 0 0 0 0 0 0 0 0 0 0 0 0 0 0 0 0 0 0 0 0 0 0 0 0 0 0 0 0 327 0 321 317 314 311 313 310 309 309 307 305 307 311 0 0 0 0 0 0 0 0 0 307 310 314 313 313 0 315 317 318 318 0 0 318 319 319 0 0 0 0 0 0 0 0 0 0 0 0 0 0 0 0 0 0 0 87 87 88 0 0 0 0 0 0 0 0 88 0 88 88 88 0 0 0 0 0 0 0 0 0 0 90 0 306 307 311 317 322 321 322 324 321 324 324 322 321 319 0 0 319 322 318 318 0 0 0 0 0 315 315 315 315 317 318 318 318 321 318 318 321 321 321 324 327 0 0 0 0 0 0 0 0 0 319 319 0 0 321 322 322 322 327 325 328 331 324 321 319 318 317 315 317 314 317 315 318 0 0 0 0 0 0 0 333 322 328 328 327 327 324 325 324 325 322 322 324 322 321 321 321 319 317 318 315 309 299 297 293 290 289 0 296 302 299 300 305 309 307 309 297 0 0 0 0 0 0 0 0 0 0 0 0 4906 4088 0 0 3873 3504 0 0 0 0 0 322 0 0 330 328 328 0 331 330 0 0 0 0 309 309 305 302 305 305 305 305 0 0 0 0 0
    0 0 0 0 0 0 0 0 0 0 0 0 0 0 0 0 0 0 0 0 0 0 0 0 0 0 0 0 0 0 0 0 0 0 0 0 0 0 0 0 0 0 0 0 0 0 0 0 0 0 0 0 0 0 0 0 0 0 0 0 0 0 0 0 0 0 0 0 0 0 0 321 317 0 311 311 309 307 307 305 300 0 0 0 0 0 0 0 0 0 0 0 0 0 318 318 0 319 0 318 319 319 0 0 318 318 317 0 0 0 0 0 0 0 0 0 0 0 0 85 85 85 85 0 0 0 87 0 0 0 0 0 88 0 0 88 87 88 0 0 88 0 0 0 0 0 0 0 0 0 0 0 0 0 305 306 309 315 321 318 319 321 318 322 322 324 321 319 318 0 319 322 318 0 0 0 0 0 0 0 313 314 0 0 0 315 0 0 314 313 317 0 318 322 0 0 0 6690 4906 4329 0 0 0 0 0 0 0 0 324 325 325 327 330 327 331 331 322 319 317 315 314 313 314 311 313 313 0 0 0 0 0 0 0 0 0 321 330 330 327 327 324 325 324 325 322 322 324 322 321 319 319 318 314 315 309 300 295 294 292 290 289 292 294 296 294 295 296 299 296 297 294 280 0 0 0 0 0 0 0 0 0 0 6133 5256 4599 4329 3873 4088 3504 3679 3345 0 0 0 0 0 0 0 330 0 0 0 0 0 0 0 302 301 301 300 297 300 300 301 300 0 0 0 0 0
    0 0 0 0 0 0 0 0 0 0 0 0 0 0 0 0 0 0 0 0 0 0 0 0 0 0 0 0 0 0 0 0 0 0 0 0 0 0 0 0 0 0 0 0 0 0 0 0 0 0 0 0 0 0 0 0 0 0 0 0 0 0 0 0 0 0 0 0 0 0 0 0 0 0 0 311 309 0 306 304 0 0 0 0 0 0 0 0 0 0 0 0 0 0 0 0 0 0 0 0 0 0 0 0 0 0 0 0 0 0 0 0 0 0 0 0 0 0 0 0 0 0 0 0 0 0 0 0 0 0 0 0 0 0 0 0 0 87 87 87 0 0 0 0 0 0 0 0 0 0 0 0 0 0 0 0 305 311 317 314 315 317 315 318 321 324 322 0 0 0 0 118 118 0 0 0 309 0 0 0 0 0 0 0 0 0 0 0 0 0 0 0 290 0 0 0 6133 7359 5661 0 0 0 0 0 0 0 0 0 0 331 0 333 334 331 334 330 322 318 0 0 0 0 0 311 311 310 0 0 0 0 0 0 0 0 352 0 337 336 327 327 324 324 0 0 324 0 324 322 0 0 318 317 309 307 299 297 294 294 292 290 289 290 294 295 293 293 294 295 293 294 293 0 0 0 0 0 0 0 0 0 0 0 6690 5661 4906 4599 4088 4088 3504 3679 3345 2628 0 0 0 0 613 0 0 0 0 0 0 0 0 0 300 299 299 297 296 299 299 300 299 0 0 0 0 0
    0 0 0 0 0 0 0 0 0 0 0 0 0 0 0 0 0 0 0 0 0 0 0 0 0 0 0 0 0 0 0 0 0 0 0 0 0 0 0 0 0 0 0 0 0 0 0 0 0 0 0 0 0 0 0 0 0 0 0 0 0 0 0 0 0 0 0 0 0 0 0 0 0 0 0 0 0 0 0 0 0 0 0 0 0 0 0 0 0 0 0 0 0 0 0 0 0 0 0 0 0 0 0 0 0 0 0 0 0 0 0 0 0 0 0 0 0 0 0 0 0 0 0 0 0 0 0 0 0 0 0 0 0 0 0 0 0 0 0 0 0 0 0 0 0 0 0 0 0 0 0 0 0 0 0 0 0 0 0 0 0 0 0 0 0 0 0 0 0 0 0 0 0 0 0 0 0 0 0 0 0 0 0 0 0 0 0 0 0 0 0 0 0 0 0 0 0 0 0 0 0 0 0 0 0 0 0 0 0 0 0 0 0 0 0 0 0 317 310 310 0 310 309 309 0 0 0 0 0 0 0 0 0 0 0 0 0 0 0 0 0 0 0 0 0 0 0 0 0 0 311 310 301 297 294 295 293 293 290 289 289 289 293 294 292 292 294 295 293 293 293 0 0 0 0 0 0 0 0 0 0 0 0 6690 5661 5661 4599 4906 3679 4088 3345 2725 0 0 0 0 0 0 0 0 0 0 0 0 0 0 297 297 297 296 295 297 297 300 297 0 0 0 0 0
    0 0 0 0 0 0 0 0 0 0 0 0 0 0 0 0 0 0 0 0 0 0 0 0 0 0 0 0 0 0 0 0 0 0 0 0 0 0 0 0 0 0 0 0 0 0 0 0 0 0 0 0 0 0 0 0 0 0 0 0 0 0 0 0 0 0 0 0 0 0 0 0 0 0 0 0 0 0 0 0 0 0 0 0 0 0 0 0 0 0 0 0 0 0 0 0 0 0 0 0 0 0 0 0 0 0 0 0 0 0 0 0 0 0 0 0 0 0 0 0 0 0 0 0 0 0 0 0 0 0 0 0 0 0 0 0 0 0 0 0 0 0 0 0 0 0 0 0 0 0 0 0 0 0 0 0 0 0 0 0 0 0 0 0 0 0 0 0 0 0 0 0 0 0 0 0 0 0 0 0 0 0 0 0 0 0 0 0 0 0 0 0 0 0 0 0 0 0 0 0 0 0 0 0 0 0 0 0 0 0 0 0 0 0 0 0 0 0 0 0 0 0 0 0 0 0 0 0 0 0 0 0 0 0 0 0 0 0 0 0 0 0 0 0 0 0 0 0 0 0 305 304 299 295 293 294 293 292 289 288 286 287 292 292 288 286 293 294 292 292 293 0 0 0 0 0 0 0 0 0 0 0 0 0 7359 6690 4906 4906 3345 3679 3066 2628 0 0 0 0 0 0 0 0 0 0 0 0 0 300 295 294 295 294 289 294 295 297 0 0 0 0 0 0
    0 0 0 0 0 0 0 0 0 0 0 0 0 0 0 0 0 0 0 0 0 0 0 0 0 0 0 0 0 0 0 0 0 0 0 0 0 0 0 0 0 0 0 0 0 0 0 0 0 0 0 0 0 0 0 0 0 0 0 0 0 0 0 0 0 0 0 0 0 0 0 0 0 0 0 0 0 0 0 0 0 0 0 0 0 0 0 0 0 0 0 0 0 0 0 0 0 0 0 0 0 0 0 0 0 0 0 0 0 0 0 0 0 0 0 0 0 0 0 0 0 0 0 0 0 0 0 0 0 0 0 0 0 0 0 0 0 0 0 0 0 0 0 0 0 0 0 0 0 0 0 0 0 0 0 0 0 0 0 0 0 0 0 0 0 0 0 0 0 0 0 0 0 0 0 0 0 0 0 0 0 0 0 0 0 0 0 0 0 0 0 0 0 0 0 0 0 0 0 0 0 0 0 0 0 0 0 0 0 0 0 0 0 0 0 0 0 0 0 0 0 0 0 0 0 0 0 0 0 0 0 0 0 0 0 0 0 0 0 0 0 0 0 0 0 0 0 0 0 0 302 301 297 293 292 293 292 290 288 285 284 284 289 288 283 281 288 290 290 290 292 279 0 0 0 0 0 0 0 0 0 0 0 0 0 6690 4906 4599 3504 3679 3199 2830 0 0 0 0 0 0 0 0 0 0 0 0 0 0 294 288 285 283 279 283 283 283 0 0 0 0 0 0
    0 0 0 0 0 0 0 0 0 0 0 0 0 0 0 0 0 0 0 0 0 0 0 0 0 0 0 0 0 0 0 0 0 0 0 0 0 0 0 0 0 0 0 0 0 0 0 0 0 0 0 0 0 0 0 0 0 0 0 0 0 0 0 0 0 0 0 0 0 0 0 0 0 0 0 0 0 0 0 0 0 0 0 0 0 0 0 0 0 0 0 0 0 0 0 0 0 0 0 0 0 0 0 0 0 0 0 0 0 0 0 0 0 0 0 0 0 0 0 0 0 0 0 0 0 0 0 0 0 0 0 0 0 0 0 0 0 0 0 0 0 0 0 0 0 0 0 0 0 0 0 0 0 0 0 0 0 0 0 0 0 0 0 0 0 0 0 0 0 0 0 0 0 0 0 0 0 0 0 0 0 0 0 0 0 0 0 0 0 0 0 0 0 0 0 0 0 0 0 0 0 0 0 0 0 0 0 0 0 0 0 0 0 0 0 0 0 0 0 0 0 0 0 0 0 0 0 0 0 0 0 0 0 0 0 0 0 0 0 0 0 0 0 0 0 0 0 0 0 0 0 306 299 290 290 292 290 288 286 284 284 283 289 288 283 281 287 289 287 287 289 279 0 0 0 0 0 0 0 0 0 0 0 0 0 0 0 7359 4088 3679 3199 2943 2830 2374 2102 0 0 0 0 0 0 0 0 0 0 0 289 278 0 276 273 277 276 276 275 0 0 0 0 0
    0 0 0 0 0 0 0 0 0 0 0 0 0 0 0 0 0 0 0 0 0 0 0 0 0 0 0 0 0 0 0 0 0 0 0 0 0 0 0 0 0 0 0 0 0 0 0 0 0 0 0 0 0 0 0 0 0 0 0 0 0 0 0 0 0 0 0 0 0 0 0 0 0 0 0 0 0 0 0 0 0 0 0 0 0 0 0 0 0 0 0 0 0 0 0 0 0 0 0 0 0 0 0 0 0 0 0 0 0 0 0 0 0 0 0 0 0 0 0 0 0 0 0 0 0 0 0 0 0 0 0 0 0 0 0 0 0 0 0 0 0 0 0 0 0 0 0 0 0 0 0 0 0 0 0 0 0 0 0 0 0 0 0 0 0 0 0 0 0 0 0 0 0 0 0 0 0 0 0 0 0 0 0 0 0 0 0 0 0 0 0 0 0 0 0 0 0 0 0 0 0 0 0 0 0 0 0 0 0 0 0 0 0 0 0 0 0 0 0 0 0 0 0 0 0 0 0 0 0 0 0 0 0 0 0 0 0 0 0 0 0 0 0 0 0 0 0 0 0 0 0 307 299 289 288 290 289 287 285 284 283 283 289 288 283 280 286 287 285 284 286 277 0 0 0 0 0 0 0 0 0 0 0 0 0 0 0 0 0 3199 2830 2725 2537 2044 1936 0 0 1635 0 0 0 0 0 0 0 0 289 0 0 276 269 0 276 276 275 0 0 0 0 0
    0 0 0 0 0 0 0 0 0 0 0 0 0 0 0 0 0 0 0 0 0 0 0 0 0 0 0 0 0 0 0 0 0 0 0 0 0 0 0 0 0 0 0 0 0 0 0 0 0 0 0 0 0 0 0 0 0 0 0 0 0 0 0 0 0 0 0 0 0 0 0 0 0 0 0 0 0 0 0 0 0 0 0 0 0 0 0 0 0 0 0 0 0 0 0 0 0 0 0 0 0 0 0 0 0 0 0 0 0 0 0 0 0 0 0 0 0 0 0 0 0 0 0 0 0 0 0 0 0 0 0 0 0 0 0 0 0 0 0 0 0 0 0 0 0 0 0 0 0 0 0 0 0 0 0 0 0 0 0 0 0 0 0 0 0 0 0 0 0 0 0 0 0 0 0 0 0 0 0 0 0 0 0 0 0 0 0 0 0 0 0 0 0 0 0 0 0 0 0 0 0 0 0 0 0 0 0 0 0 0 0 0 0 0 0 0 0 0 0 0 0 0 0 0 0 0 0 0 0 0 0 0 0 0 0 0 0 0 0 0 0 0 0 0 0 0 0 0 0 0 0 0 299 289 287 292 289 286 284 283 281 281 289 289 283 280 284 287 285 284 285 0 0 0 0 0 0 0 0 0 0 0 0 0 0 0 0 0 0 3066 2725 2537 2374 1989 1839 0 0 1565 1338 1268 0 0 0 0 0 0 0 0 0 0 0 0 0 275 270 0 0 0 0 0
    0 0 0 0 0 0 0 0 0 0 0 0 0 0 0 0 0 0 0 0 0 0 0 0 0 0 0 0 0 0 0 0 0 0 0 0 0 0 0 0 0 0 0 0 0 0 0 0 0 0 0 0 0 0 0 0 0 0 0 0 0 0 0 0 0 0 0 0 0 0 0 0 0 0 0 0 0 0 0 0 0 0 0 0 0 0 0 0 0 0 0 0 0 0 0 0 0 0 0 0 0 0 0 0 0 0 0 0 0 0 0 0 0 0 0 0 0 0 0 0 0 0 0 0 0 0 0 0 0 0 0 0 0 0 0 0 0 0 0 0 0 0 0 0 0 0 0 0 0 0 0 0 0 0 0 0 0 0 0 0 0 0 0 0 0 0 0 0 0 0 0 0 0 0 0 0 0 0 0 0 0 0 0 0 0 0 0 0 0 0 0 0 0 0 0 0 0 0 0 0 0 0 0 0 0 0 0 0 0 0 0 0 0 0 0 0 0 0 0 0 0 0 0 0 0 0 0 0 0 0 0 0 0 0 0 0 0 0 0 0 0 0 0 0 0 0 0 0 0 0 0 0 0 0 0 0 0 0 288 296 292 283 289 288 285 284 285 285 281 280 0 0 0 0 0 0 0 0 0 0 0 0 0 0 0 0 0 0 0 0 0 2725 2537 2044 1936 0 0 0 0 0 0 0 0 0 0 0 0 0 0 0 260 0 0 0 0 0 0 0 0 0
    0 0 0 0 0 0 0 0 0 0 0 0 0 0 0 0 0 0 0 0 0 0 0 0 0 0 0 0 0 0 0 0 0 0 0 0 0 0 0 0 0 0 0 0 0 0 0 0 0 0 0 0 0 0 0 0 0 0 0 0 0 0 0 0 0 0 0 0 0 0 0 0 0 0 0 0 0 0 0 0 0 0 0 0 0 0 0 0 0 0 0 0 0 0 0 0 0 0 0 0 0 0 0 0 0 0 0 0 0 0 0 0 0 0 0 0 0 0 0 0 0 0 0 0 0 0 0 0 0 0 0 0 0 0 0 0 0 0 0 0 0 0 0 0 0 0 0 0 0 0 0 0 0 0 0 0 0 0 0 0 0 0 0 0 0 0 0 0 0 0 0 0 0 0 0 0 0 0 0 0 0 0 0 0 0 0 0 0 0 0 0 0 0 0 0 0 0 0 0 0 0 0 0 0 0 0 0 0 0 0 0 0 0 0 0 0 0 0 0 0 0 0 0 0 0 0 0 0 0 0 0 0 0 0 0 0 0 0 0 0 0 0 0 0 0 0 0 0 0 0 0 0 0 0 0 0 0 0 0 0 0 0 0 0 287 287 0 0 0 0 0 0 0 0 0 0 0 0 0 0 0 0 0 0 0 0 0 0 0 3345 0 2830 2725 2453 0 0 0 2830 0 0 0 0 0 0 0 0 0 0 0 0 256 252 255 257 256 0 0 0 0 0
    0 0 0 0 0 0 0 0 0 0 0 0 0 0 0 0 0 0 0 0 0 0 0 0 0 0 0 0 0 0 0 0 0 0 0 0 0 0 0 0 0 0 0 0 0 0 0 0 0 0 0 0 0 0 0 0 0 0 0 0 0 0 0 0 0 0 0 0 0 0 0 0 0 0 0 0 0 0 0 0 0 0 0 0 0 0 0 0 0 0 0 0 0 0 0 0 0 0 0 0 0 0 0 0 0 0 0 0 0 0 0 0 0 0 0 0 0 0 0 0 0 0 0 0 0 0 0 0 0 0 0 0 0 0 0 0 0 0 0 0 0 0 0 0 0 0 0 0 0 0 0 0 0 0 0 0 0 0 0 0 0 0 0 0 0 0 0 0 0 0 0 0 0 0 0 0 0 0 0 0 0 0 0 0 0 0 0 0 0 0 0 0 0 0 0 0 0 0 0 0 0 0 0 0 0 0 0 0 0 0 0 0 0 0 0 0 0 0 0 0 0 0 0 0 0 0 0 0 0 0 0 0 0 0 0 0 0 0 0 0 0 0 0 0 0 0 0 0 0 0 0 0 0 0 0 0 0 0 0 0 0 0 0 0 0 0 0 0 0 0 0 0 0 0 0 0 0 0 0 0 0 0 0 0 0 0 0 0 0 3873 3066 2830 2725 0 0 0 0 2725 0 0 0 0 0 0 0 0 0 0 0 253 255 252 252 254 254 0 0 0 0 0
    0 0 0 0 0 0 0 0 0 0 0 0 0 0 0 0 0 0 0 0 0 0 0 0 0 0 0 0 0 0 0 0 0 0 0 0 0 0 0 0 0 0 0 0 0 0 0 0 0 0 0 0 0 0 0 0 0 0 0 0 0 0 0 0 0 0 0 0 0 0 0 0 0 0 0 0 0 0 0 0 0 0 0 0 0 0 0 0 0 0 0 0 0 0 0 0 0 0 0 0 0 0 0 0 0 0 0 0 0 0 0 0 0 0 0 0 0 0 0 0 0 0 0 0 0 0 0 0 0 0 0 0 0 0 0 0 0 0 0 0 0 0 0 0 0 0 0 0 0 0 0 0 0 0 0 0 0 0 0 0 0 0 0 0 0 0 0 0 0 0 0 0 0 0 0 0 0 0 0 0 0 0 0 0 0 0 0 0 0 0 0 0 0 0 0 0 0 0 0 0 0 0 0 0 0 0 0 0 0 0 0 0 0 0 0 0 0 0 0 0 0 0 0 0 0 0 0 0 0 0 0 0 0 0 0 0 0 0 0 0 0 0 0 0 0 0 0 0 0 0 0 0 0 0 0 0 0 0 0 0 0 0 0 0 0 0 0 0 0 0 0 0 0 0 0 0 0 0 0 0 0 0 0 0 0 0 0 0 0 0 0 0 0 0 0 0 0 0 0 0 0 0 0 0 0 0 252 253 250 249 250 249 250 251 252 0 0 0 0 0
    0 0 0 0 0 0 0 0 0 0 0 0 0 0 0 0 0 0 0 0 0 0 0 0 0 0 0 0 0 0 0 0 0 0 0 0 0 0 0 0 0 0 0 0 0 0 0 0 0 0 0 0 0 0 0 0 0 0 0 0 0 0 0 0 0 0 0 0 0 0 0 0 0 0 0 0 0 0 0 0 0 0 0 0 0 0 0 0 0 0 0 0 0 0 0 0 0 0 0 0 0 0 0 0 0 0 0 0 0 0 0 0 0 0 0 0 0 0 0 0 0 0 0 0 0 0 123 0 0 124 124 0 0 223 0 0 0 0 0 0 0 0 0 0 0 0 0 0 0 0 0 0 0 0 0 0 0 0 0 0 0 0 0 0 0 0 0 0 0 0 0 0 0 0 0 0 0 0 0 0 0 0 0 0 0 0 0 0 0 0 0 0 0 0 0 0 0 0 0 0 0 0 0 0 0 0 0 0 0 0 0 0 0 0 0 0 0 0 0 0 0 0 0 0 0 0 0 0 0 0 0 0 0 0 0 0 0 0 0 0 0 0 0 0 0 0 0 0 0 0 0 0 0 0 0 0 0 0 0 0 0 0 0 0 0 0 0 0 0 0 0 0 0 0 0 0 0 0 0 0 0 0 0 0 0 0 0 0 0 0 0 0 0 0 0 5661 4906 4088 0 0 0 0 0 0 0 0 250 252 248 247 248 247 248 248 0 0 0 0 0 0
    0 0 0 0 0 0 0 0 0 0 0 0 0 0 0 0 0 0 0 0 0 0 0 0 0 0 0 0 0 0 0 0 0 0 0 0 0 0 0 0 0 0 0 0 0 0 0 0 0 0 0 0 0 0 0 0 0 0 0 0 0 0 0 0 0 0 0 0 0 217 216 216 215 215 215 216 218 217 0 0 217 0 218 219 219 0 0 0 0 0 0 0 0 0 223 0 88 0 0 0 0 0 0 0 89 0 0 0 0 0 0 0 0 0 0 1168 0 0 0 0 0 0 0 0 0 0 0 222 222 222 0 223 223 223 221 221 223 0 0 0 0 0 0 0 0 0 0 0 0 0 0 0 2725 0 0 454 0 451 0 0 0 0 0 228 229 0 0 0 0 0 0 0 0 0 0 139 0 0 0 0 300 0 0 0 0 227 228 228 227 227 226 225 227 224 221 221 220 221 0 0 0 0 0 0 0 0 0 0 0 224 223 224 225 224 224 222 223 223 223 0 0 0 0 0 0 0 0 0 0 0 0 0 0 0 0 0 0 0 0 0 0 0 0 0 0 0 0 0 0 0 0 0 0 404 404 0 0 0 0 0 0 0 0 0 0 0 0 0 0 0 0 0 0 0 0 0 0 0 0 0 0 0 0 0 0 0 0 0 0 0 0 0 0 0 0 4906 4599 4599 7359 7359 0 0 0 0 0 0 246 0 246 246 246 246 247 246 0 0 0 0 0 0
    0 0 0 0 0 0 0 0 0 0 0 0 0 0 0 0 0 0 0 0 0 0 0 0 0 0 0 0 0 0 0 0 0 0 0 0 0 0 0 0 0 0 0 0 0 0 0 0 0 0 0 0 0 0 0 0 0 0 0 0 0 0 0 0 0 0 0 0 0 218 217 217 216 215 215 217 219 219 217 218 217 218 219 219 219 0 0 0 0 0 0 0 0 0 223 0 0 0 0 0 0 0 88 0 0 0 0 0 0 0 0 0 0 0 0 0 0 0 0 0 0 0 0 0 0 0 223 222 222 222 223 223 222 223 221 221 222 218 220 221 222 221 222 225 0 0 0 0 0 0 2830 0 0 0 0 0 0 0 0 0 0 0 227 227 227 227 226 227 227 0 0 0 0 0 0 0 221 222 222 0 300 301 0 0 0 227 227 228 226 225 225 224 225 224 222 221 221 221 0 0 0 0 0 0 0 0 0 225 225 224 223 223 224 224 224 222 223 223 223 224 0 0 0 107 0 107 107 107 0 0 0 0 0 0 0 0 0 0 0 0 0 0 79 0 0 0 0 0 0 0 0 0 422 404 411 411 0 0 0 0 230 0 0 0 0 0 231 229 232 0 0 0 0 0 0 0 0 0 0 0 0 0 0 0 0 0 0 0 0 0 0 0 228 0 0 4088 3679 3679 5661 6133 0 0 0 1066 1022 908 0 0 0 235 0 237 239 0 0 0 0 0 0 0
    0 0 0 0 0 0 0 0 0 0 0 0 0 0 0 0 0 0 0 0 0 0 0 0 0 0 0 0 0 0 0 0 0 0 0 0 0 0 0 0 0 0 0 0 0 0 0 0 0 0 0 0 0 0 0 0 0 0 0 0 0 0 0 0 0 0 0 0 0 219 218 218 217 216 216 217 220 219 218 218 217 0 218 219 219 0 220 0 0 0 0 0 0 0 224 0 0 0 0 0 0 0 0 0 0 0 0 0 0 0 0 0 0 0 0 0 220 0 0 0 0 0 0 222 221 0 223 222 222 222 223 222 222 222 220 221 221 218 220 221 222 222 223 225 225 225 0 0 0 0 0 0 0 0 0 0 0 0 0 225 0 0 226 226 226 226 226 227 226 225 223 0 0 0 222 222 221 221 221 0 301 0 0 0 0 227 227 227 225 225 225 224 225 223 222 222 221 222 0 73 73 0 0 0 225 225 226 225 225 224 223 223 224 224 224 223 223 223 223 225 0 0 224 0 225 0 0 0 0 0 0 0 0 0 0 0 0 0 0 0 0 0 0 0 225 226 226 0 227 227 0 0 422 408 415 413 0 224 225 227 229 232 232 229 229 232 231 229 231 231 229 229 228 229 229 0 0 0 227 227 229 230 0 0 0 228 229 228 0 0 0 0 228 0 229 0 3345 3345 5661 0 0 0 1082 1066 1022 0 0 0 0 232 232 233 234 0 234 0 0 0 0 0
    0 0 0 0 0 0 0 0 0 0 0 0 0 0 0 0 0 0 0 0 0 0 0 0 0 0 0 0 0 0 0 0 0 0 0 0 0 0 0 0 0 0 0 0 0 0 0 0 0 0 0 0 0 0 0 0 0 0 0 0 0 0 0 0 0 0 0 0 0 220 218 218 217 216 216 217 219 219 217 218 217 0 219 219 219 0 221 0 0 0 0 0 0 0 224 0 0 0 226 0 0 0 0 0 0 0 0 0 0 0 0 0 0 0 0 0 219 0 0 0 0 0 0 222 221 223 223 222 222 222 222 222 221 222 220 221 221 219 220 221 222 221 222 224 224 224 225 0 0 0 0 0 0 0 0 0 0 0 0 223 224 225 226 226 226 226 225 226 226 225 223 222 0 222 222 222 221 222 222 223 0 0 0 224 225 226 226 227 225 225 225 223 225 223 222 222 222 0 0 0 73 73 0 225 225 225 225 225 225 224 222 223 223 224 224 223 223 223 224 225 225 0 224 224 225 0 0 223 221 223 0 0 0 222 227 227 227 226 0 0 0 0 0 225 0 226 227 0 227 0 226 0 0 0 0 415 224 223 225 227 229 232 232 230 230 232 231 229 230 230 229 229 228 229 228 229 229 227 228 227 229 230 0 0 0 228 228 228 231 225 228 229 228 229 229 231 0 0 6690 7359 0 0 0 0 0 0 0 0 0 232 232 232 0 0 232 0 0 0 0 0
    0 0 0 0 0 0 0 0 0 0 0 0 0 0 0 0 0 0 0 0 0 0 0 0 0 0 0 0 0 0 0 0 0 0 0 0 0 0 0 0 0 0 0 0 0 0 0 0 0 0 0 0 0 0 0 0 0 0 0 0 0 0 0 0 0 0 0 0 0 220 219 218 217 216 217 217 219 219 217 219 218 0 220 220 221 219 221 0 0 0 0 0 0 0 223 222 0 0 0 0 0 0 222 0 0 0 0 0 0 0 0 0 222 0 221 219 219 217 0 221 0 0 220 221 221 222 223 221 222 222 222 222 222 222 221 221 221 221 221 221 222 221 221 223 223 223 224 225 225 0 0 0 0 0 0 0 217 0 220 222 223 224 225 225 225 225 225 225 225 224 223 222 223 222 222 222 221 222 222 223 0 0 224 224 225 226 227 227 225 225 225 224 225 224 223 223 222 0 168 0 0 0 0 225 225 225 225 225 225 223 222 223 223 224 224 223 223 223 224 225 225 224 223 223 224 223 223 223 221 223 223 223 223 223 226 226 226 226 225 0 0 0 0 225 226 227 227 227 227 227 227 225 0 0 0 0 225 224 225 229 230 233 233 231 231 233 232 230 230 231 229 229 228 229 228 229 229 227 228 227 229 231 229 229 228 228 228 227 231 225 227 229 229 229 229 231 229 0 0 0 0 0 0 0 0 0 231 230 0 0 0 230 0 0 0 0 0 0 0 0
    0 0 0 0 0 0 0 0 0 0 0 0 0 0 0 0 0 0 0 0 0 0 0 0 0 0 0 0 0 0 0 0 0 0 0 0 0 0 0 0 0 0 0 0 0 0 0 0 0 0 0 0 0 0 0 0 0 0 0 0 0 0 0 0 0 0 0 0 0 220 219 219 218 217 217 218 219 219 218 219 219 219 220 220 221 219 221 221 0 0 0 0 0 0 223 221 0 0 0 222 0 223 222 223 222 0 0 0 0 0 0 221 222 0 221 219 219 217 219 220 219 218 220 221 221 221 222 221 221 222 222 221 222 222 221 221 222 221 221 222 222 221 221 223 223 223 223 224 224 225 0 226 225 224 0 0 218 218 220 221 222 223 223 224 225 225 225 225 225 223 223 222 223 222 222 222 221 222 222 223 223 222 223 223 225 226 226 226 225 225 225 224 225 224 223 223 223 223 0 0 0 0 0 224 224 223 225 224 224 223 222 223 223 223 223 223 223 223 223 225 224 223 223 223 224 223 223 223 222 223 223 223 225 223 226 226 226 226 226 226 0 0 0 225 226 227 227 227 227 227 227 226 225 225 226 226 225 225 226 229 229 233 233 232 231 233 232 231 231 232 230 229 228 229 229 229 229 227 229 227 229 231 229 229 228 228 228 228 231 225 227 229 229 229 229 230 229 229 232 227 229 0 229 228 229 229 230 229 0 0 230 229 0 0 229 0 0 0 0 0
    0 0 0 0 0 0 0 0 0 0 0 0 0 0 0 0 0 0 0 0 0 0 0 0 0 0 0 0 0 0 0 0 0 0 0 0 0 0 0 0 0 0 0 0 0 0 0 0 0 0 0 0 0 0 0 0 0 0 0 0 0 0 0 0 0 0 0 0 0 220 220 219 219 217 218 219 220 219 219 219 219 219 219 220 221 219 221 221 0 0 223 222 222 222 222 221 222 221 222 221 223 222 222 222 221 221 0 223 0 0 0 222 222 223 221 219 219 217 219 220 219 218 219 221 221 221 222 221 221 222 222 221 221 222 221 221 222 222 221 222 222 221 221 223 223 223 223 223 224 225 225 226 225 225 223 222 221 219 221 221 221 222 223 224 224 225 225 225 225 223 223 222 223 223 222 222 222 222 223 223 223 223 223 223 225 225 226 226 225 225 225 225 225 225 223 223 223 223 0 0 0 0 223 223 223 223 224 223 223 223 222 222 223 223 223 223 223 223 223 225 224 223 223 223 225 224 224 223 223 224 223 223 225 223 225 226 226 226 226 226 226 225 226 226 226 227 227 227 227 227 227 226 225 226 227 227 226 226 227 230 231 234 233 231 231 232 232 230 231 231 229 229 228 229 229 229 229 227 228 227 229 230 229 229 228 228 228 228 230 225 227 228 228 229 229 229 229 229 231 227 228 227 229 227 228 228 229 228 229 228 229 228 229 0 229 0 0 0 0 0
    0 0 0 0 0 0 0 0 0 0 0 0 0 0 0 0 0 0 0 0 0 0 0 0 0 0 0 0 0 0 0 0 0 0 0 0 0 0 0 0 0 0 0 0 0 0 0 0 0 0 0 0 0 0 0 0 0 0 0 0 0 0 0 0 0 0 0 0 0 221 221 220 219 219 219 219 221 219 219 219 219 219 219 220 220 220 221 221 221 222 223 222 221 221 221 221 222 221 221 221 222 222 222 223 222 222 0 223 223 222 222 222 222 223 221 219 219 218 219 220 219 219 219 221 221 221 222 221 221 222 222 221 221 222 221 221 221 222 221 221 222 221 221 223 223 223 223 223 223 224 225 225 225 225 223 223 222 221 221 221 221 222 223 224 224 225 225 225 225 223 223 223 223 223 223 222 222 223 223 223 223 223 224 224 225 226 226 226 225 225 225 225 226 225 224 223 223 223 0 0 0 0 0 0 223 223 224 223 224 223 223 223 223 223 224 223 223 223 223 225 224 223 224 223 225 225 224 223 223 224 223 223 224 223 225 225 226 225 226 226 227 226 226 226 226 227 227 227 227 227 227 226 226 226 227 227 226 226 227 230 230 233 232 231 231 232 232 230 231 231 229 229 228 229 228 228 228 227 228 227 228 229 228 228 227 227 228 228 229 226 227 229 229 229 229 230 229 229 231 227 228 227 228 227 227 227 228 227 227 227 228 227 228 0 227 0 0 0 0 0
    0 0 0 0 0 0 0 0 0 0 0 0 0 0 0 0 0 0 0 0 0 0 0 0 0 0 0 0 0 0 0 0 0 0 0 0 0 0 0 0 0 0 0 0 0 0 0 0 0 0 0 0 0 0 0 0 0 0 0 0 0 0 0 0 0 0 0 0 0 221 221 0 221 0 220 221 221 220 220 219 220 219 220 220 221 220 221 221 221 221 222 221 221 220 220 220 221 221 221 221 222 223 223 223 222 222 223 223 223 223 222 222 221 222 220 218 218 217 218 219 218 219 219 221 221 221 221 221 221 222 222 221 221 222 221 221 221 222 221 221 222 221 221 222 223 223 223 223 223 224 225 225 224 224 223 223 222 221 221 221 221 222 222 223 223 224 224 225 224 223 223 223 223 223 223 223 223 223 223 223 225 224 225 225 225 226 225 225 225 225 225 225 225 225 225 224 224 223 225 0 0 0 0 0 224 223 224 224 224 224 223 223 223 223 224 223 223 223 223 225 225 224 225 224 225 225 224 223 223 225 223 223 224 223 225 225 225 225 226 226 227 226 227 227 227 227 227 227 228 227 227 227 227 227 227 227 227 226 227 229 229 232 232 230 230 230 231 230 231 230 229 229 228 228 227 227 227 226 227 226 227 229 227 227 227 227 227 228 230 227 228 229 229 229 230 230 228 228 229 227 228 227 227 226 227 227 228 227 227 227 228 227 228 227 227 0 0 0 0 0
    0 0 0 0 0 0 0 0 0 0 0 0 0 0 0 0 0 0 0 0 0 0 0 0 0 0 0 0 0 0 0 0 0 0 0 0 0 0 0 0 0 0 0 0 0 0 0 0 0 0 0 0 0 0 0 0 0 0 0 0 0 0 0 0 0 0 0 0 0 221 221 221 221 221 221 222 222 221 221 220 221 219 220 220 221 221 221 221 221 221 221 220 220 219 219 220 221 221 221 221 221 222 221 222 221 221 221 222 222 222 221 222 221 221 220 219 218 218 218 219 218 219 219 220 220 221 221 221 221 222 222 222 222 222 221 221 221 222 221 221 221 221 221 222 223 223 223 223 223 225 225 225 224 224 223 223 222 221 221 221 220 221 221 222 221 223 223 224 223 223 223 223 223 223 222 222 223 223 224 224 225 225 225 225 225 225 225 225 225 225 225 225 225 225 225 225 225 224 225 0 0 0 0 0 0 0 224 223 224 224 223 223 223 223 224 223 223 223 224 225 225 225 225 225 225 225 225 224 223 225 223 223 223 223 224 225 225 225 226 226 227 227 227 226 227 227 227 227 227 227 227 227 227 227 227 227 227 226 227 228 228 230 230 229 229 229 230 229 229 229 228 228 228 228 227 227 227 227 228 227 228 228 227 227 227 227 227 227 229 227 228 229 230 230 231 231 229 228 228 227 227 227 227 226 227 227 227 227 227 227 228 227 228 227 228 0 0 0 0 0
    0 0 0 0 0 0 0 0 0 0 0 0 0 0 0 0 0 0 0 0 0 0 0 0 0 0 0 0 0 0 0 0 0 0 0 0 0 0 0 0 0 0 0 0 0 0 0 0 0 0 0 0 0 0 0 0 0 0 0 0 0 0 0 0 0 0 0 0 0 221 222 221 221 221 221 222 222 220 221 219 220 219 220 220 221 221 222 221 221 221 221 221 221 219 220 220 221 221 221 221 221 221 221 221 220 221 221 221 222 221 221 222 221 221 221 219 219 219 219 220 218 219 219 221 221 221 221 221 221 223 222 222 222 222 222 221 221 222 221 221 221 221 221 222 222 223 223 223 223 224 224 225 224 223 222 222 221 221 220 221 219 220 220 221 221 222 223 223 223 222 223 223 223 223 223 222 223 223 225 224 225 225 225 225 225 225 225 225 225 225 225 225 225 225 225 225 225 224 225 0 0 0 0 0 0 0 224 223 224 224 223 223 223 224 224 224 224 224 225 226 227 225 225 225 225 225 225 225 224 225 224 223 223 224 224 224 225 225 227 226 227 226 226 226 227 227 227 226 227 227 227 227 227 227 227 227 227 226 227 227 227 229 229 227 228 228 229 228 228 228 227 227 227 228 227 227 227 227 228 227 227 228 227 227 227 227 227 227 228 227 228 229 231 231 231 231 229 229 227 227 228 227 227 227 227 227 227 227 227 227 228 227 228 227 228 0 0 0 0 0
    0 0 0 0 0 0 0 0 0 0 0 0 0 0 0 0 0 0 0 0 0 0 0 0 0 0 0 0 0 0 0 0 0 0 0 0 0 0 0 0 0 0 0 0 0 0 0 0 0 0 0 0 0 0 0 0 0 0 0 0 0 0 0 0 0 0 0 0 0 221 222 222 221 221 221 221 221 219 220 219 220 219 220 220 221 221 222 221 221 221 221 221 221 220 220 221 221 221 221 221 221 221 221 221 220 221 221 221 222 221 222 222 221 222 221 220 220 219 219 221 219 220 220 221 221 221 221 221 221 223 223 222 222 222 222 221 222 222 221 221 221 221 221 221 222 223 222 223 223 223 223 224 223 223 221 222 221 221 221 221 219 220 220 221 221 222 223 223 223 222 223 223 223 223 223 223 223 0 225 224 225 225 225 225 225 225 225 225 226 225 225 225 225 225 225 225 225 224 0 0 223 0 223 0 223 0 224 223 224 224 223 224 224 224 224 224 224 224 225 226 227 225 226 225 225 226 226 225 226 225 225 223 224 224 224 225 225 225 227 227 227 227 227 227 227 227 228 226 227 227 227 227 227 227 227 227 227 226 227 227 227 228 227 227 227 227 228 227 227 227 227 227 227 227 227 227 227 227 228 226 227 227 227 226 226 226 226 226 227 227 227 229 231 231 230 231 229 229 228 228 229 228 228 227 228 228 228 228 228 227 229 228 228 227 228 0 0 0 0 0
    0 0 0 0 0 0 0 0 0 0 0 0 0 0 0 0 0 0 0 0 0 0 0 0 0 0 0 0 0 0 0 0 0 0 0 0 0 0 0 0 0 0 0 0 0 0 0 0 0 0 0 0 0 0 0 0 0 0 0 0 0 0 0 0 0 0 0 0 0 221 222 222 221 221 221 221 221 219 220 219 220 219 220 220 221 221 222 221 221 221 221 221 221 219 220 220 221 221 221 221 221 221 221 221 221 221 221 221 222 221 221 222 221 221 221 220 220 219 219 221 219 220 220 221 221 221 221 221 221 223 223 223 222 222 222 221 222 222 221 220 221 221 221 221 222 223 222 223 223 223 223 223 223 223 221 221 221 221 221 221 220 221 221 221 221 222 223 223 223 222 223 223 223 223 223 223 0 0 225 224 224 225 225 225 225 225 225 225 226 226 226 226 225 225 225 225 225 223 0 0 223 223 222 222 223 223 223 223 224 224 224 224 224 224 225 225 225 225 225 226 227 226 226 225 226 226 226 225 226 226 225 223 223 224 224 225 225 225 226 227 227 227 227 227 227 227 228 226 227 226 226 227 227 227 227 227 227 226 227 227 0 0 227 227 0 227 227 227 227 227 227 227 227 227 227 226 227 227 227 226 226 227 226 225 226 226 227 227 227 228 228 229 230 230 229 231 229 229 227 228 229 228 228 227 228 228 228 228 228 227 229 229 228 227 229 0 0 0 0 0
    0 0 0 0 0 0 0 0 0 0 0 0 0 0 0 0 0 0 0 0 0 0 0 0 0 0 0 0 0 0 0 0 0 0 0 0 0 0 0 0 0 0 0 0 0 0 0 0 0 0 0 0 0 0 0 0 0 0 0 0 0 0 0 0 0 0 0 0 0 221 222 222 222 222 221 221 221 219 220 219 220 219 219 220 221 221 221 221 221 221 221 221 221 219 219 220 220 221 220 221 221 221 221 222 221 221 222 221 222 222 222 222 221 221 221 221 221 220 220 221 219 220 220 221 221 221 221 221 221 223 223 223 222 222 222 222 222 222 221 221 221 221 221 222 222 223 223 223 223 223 223 223 223 222 221 221 221 221 221 221 221 221 221 221 222 223 223 223 223 222 223 223 223 223 223 223 0 0 225 224 225 225 225 224 225 225 225 225 226 226 226 226 225 226 225 225 224 223 0 223 223 222 222 221 223 223 223 223 224 224 0 0 0 0 225 225 225 225 225 226 227 227 227 227 226 226 226 225 225 225 224 223 223 224 225 225 225 225 226 227 227 227 227 226 227 227 227 226 227 226 226 227 227 227 227 227 227 225 226 226 226 226 227 226 227 226 227 227 227 227 227 225 226 225 227 225 225 225 226 225 225 226 226 225 226 226 227 227 228 229 228 229 230 230 229 231 229 229 227 228 229 228 228 227 227 228 228 229 229 228 229 229 229 228 229 0 0 0 0 0
    0 0 0 0 0 0 0 0 0 0 0 0 0 0 0 0 0 0 0 0 0 0 0 0 0 0 0 0 0 0 0 0 0 0 0 0 0 0 0 0 0 0 0 0 0 0 0 0 0 0 0 0 0 0 0 0 0 0 0 0 0 0 0 0 0 0 0 0 0 222 222 222 222 222 221 221 221 219 221 219 220 219 219 220 220 221 222 221 221 221 221 221 221 220 219 220 220 221 219 220 219 220 220 221 221 221 221 221 221 221 221 221 220 221 219 221 221 221 0 221 220 221 220 221 221 221 221 221 222 223 223 223 223 223 222 222 223 222 221 221 221 221 222 222 222 223 223 223 223 223 222 223 223 223 222 222 222 222 222 222 221 221 222 223 223 223 223 223 223 223 223 223 223 223 223 223 0 0 225 224 225 225 225 224 225 225 225 225 226 226 226 226 226 226 225 225 224 223 0 223 223 223 222 222 223 224 224 224 224 225 225 225 0 0 225 225 226 226 226 227 229 228 228 227 226 226 226 225 225 224 223 223 222 223 224 224 225 224 226 227 227 227 226 226 227 227 227 226 227 226 226 227 227 227 227 227 227 225 226 226 226 225 227 226 226 225 227 226 226 225 225 225 225 224 225 224 225 225 225 225 225 226 226 225 226 226 226 227 228 229 228 229 230 229 229 231 230 229 227 229 229 228 229 228 228 228 229 229 229 229 229 230 229 229 229 0 0 0 0 0
    0 0 0 0 0 0 0 0 0 0 0 0 0 0 0 0 0 0 0 0 0 0 0 0 0 0 0 0 0 0 0 0 0 0 0 0 0 0 0 0 0 0 0 0 0 0 0 0 0 0 0 0 0 0 0 0 0 0 0 0 0 0 0 0 0 0 0 0 0 222 222 222 222 223 221 221 221 219 220 219 220 219 220 220 221 221 222 221 221 221 221 221 221 221 220 220 221 221 221 221 219 220 220 221 221 221 221 221 221 221 219 220 219 220 0 0 221 221 0 222 221 221 221 222 222 222 222 222 222 223 223 223 223 223 222 223 223 222 221 221 221 222 222 223 223 223 223 223 223 223 222 223 223 222 221 222 222 222 222 222 221 222 222 223 223 223 223 223 223 223 223 223 223 223 223 223 0 0 225 224 225 225 225 225 225 225 225 225 226 226 226 226 225 225 225 224 223 223 223 223 223 223 222 222 223 224 224 225 225 225 225 225 225 225 225 226 227 227 227 227 230 229 229 227 226 226 226 225 225 224 223 223 222 223 223 223 224 224 225 226 226 227 225 226 226 226 227 226 226 226 227 227 227 227 227 227 227 226 226 225 226 225 226 225 225 225 226 225 226 225 225 224 225 224 226 224 225 225 225 225 225 225 225 225 225 225 225 227 227 229 228 229 231 230 229 232 231 230 228 229 229 229 229 229 228 229 230 230 230 229 230 230 229 229 229 0 0 0 0 0
    0 0 0 0 0 0 0 0 0 0 0 0 0 0 0 0 0 0 0 0 0 0 0 0 0 0 0 0 0 0 0 0 0 0 0 0 0 0 0 0 0 0 0 0 0 0 0 0 0 0 0 0 0 0 0 0 0 0 0 0 0 0 0 0 0 0 0 0 0 223 223 223 222 223 222 221 221 219 220 219 220 219 220 220 220 221 222 221 221 221 221 221 221 221 220 221 221 221 221 221 219 219 219 221 221 221 220 220 219 219 217 0 218 219 0 0 0 0 0 0 221 222 0 222 222 222 222 222 222 223 223 223 223 223 222 223 223 222 221 221 221 221 221 223 223 223 223 223 223 223 221 223 222 221 221 221 222 222 222 222 221 222 222 223 222 222 222 223 223 222 223 223 223 223 223 223 0 0 225 224 224 225 225 225 225 225 226 226 226 226 226 225 225 225 224 223 223 223 223 223 223 223 222 222 223 224 224 224 225 225 225 225 225 226 226 226 227 227 227 228 231 229 229 227 227 227 227 227 225 224 224 223 223 224 224 223 224 224 225 226 225 0 225 225 226 225 226 225 226 226 227 227 227 227 227 227 227 226 226 225 225 225 225 225 225 225 226 226 226 225 225 225 225 225 227 225 225 225 225 224 225 225 225 224 225 225 225 227 227 228 228 229 230 229 229 232 230 229 227 229 229 229 229 229 229 229 230 230 231 229 229 229 229 229 229 0 0 0 0 0
    0 0 0 0 0 0 0 0 0 0 0 0 0 0 0 0 0 0 0 0 0 0 0 0 0 0 0 0 0 0 0 0 0 0 0 0 0 0 0 0 0 0 0 0 0 0 0 0 0 0 0 0 0 0 0 0 0 0 0 0 0 0 0 0 0 0 0 0 0 223 223 222 222 223 222 221 221 219 219 219 219 219 219 220 220 221 221 221 221 221 221 221 221 221 220 221 221 221 221 221 219 219 219 221 220 221 219 219 0 0 0 0 218 219 219 220 0 0 0 0 222 223 0 223 223 223 223 222 223 223 223 223 223 223 222 223 223 222 221 221 221 222 221 223 223 223 224 223 223 223 222 223 223 222 222 222 222 223 222 223 222 222 223 222 222 222 222 222 222 222 223 222 223 223 223 223 0 0 224 223 224 224 224 224 225 225 225 225 225 226 226 225 225 224 224 223 223 223 223 223 223 222 222 221 222 223 223 223 224 224 225 225 225 226 226 226 227 227 227 228 231 229 229 227 227 227 227 227 226 225 225 224 223 224 225 224 224 224 225 225 225 225 225 225 226 225 226 225 226 227 227 227 227 227 227 227 227 226 226 225 225 225 225 225 225 225 226 226 226 225 226 225 226 226 227 226 226 225 225 225 225 225 225 224 225 225 225 227 228 229 228 229 230 229 229 232 230 229 227 229 229 229 229 229 228 229 229 229 231 229 229 229 228 229 229 0 0 0 0 0
    0 0 0 0 0 0 0 0 0 0 0 0 0 0 0 0 0 0 0 0 0 0 0 0 0 0 0 0 0 0 0 0 0 0 0 0 0 0 0 0 0 0 0 0 0 0 0 0 0 0 0 0 0 0 0 0 0 0 0 0 0 0 0 0 0 0 0 0 0 223 223 222 222 223 221 221 221 218 219 219 219 219 219 220 221 221 222 221 221 221 222 221 221 221 220 220 220 220 220 221 220 220 219 221 220 221 219 219 0 0 0 0 218 218 219 220 221 0 0 0 223 0 0 224 223 223 223 222 223 223 223 223 223 223 223 223 223 222 221 222 222 222 222 223 223 222 0 223 223 222 222 223 223 223 223 223 223 223 223 223 223 223 223 223 222 222 222 222 222 222 223 223 223 224 224 224 225 224 224 223 223 223 223 223 224 224 225 225 225 226 226 225 225 225 225 223 223 223 223 223 223 222 221 221 222 223 223 223 223 0 225 225 225 226 226 226 227 227 227 227 229 229 227 227 227 226 226 227 226 225 225 225 223 224 225 224 0 224 225 225 225 225 225 225 226 225 227 226 227 227 229 228 229 228 228 227 227 226 226 226 226 225 225 225 225 226 227 227 226 226 227 225 226 225 227 225 226 225 225 225 225 225 225 225 226 226 225 227 228 229 228 229 229 229 229 232 230 230 228 229 229 229 230 229 229 229 229 229 230 229 229 228 228 229 229 0 0 0 0 0
    0 0 0 0 0 0 0 0 0 0 0 0 0 0 0 0 0 0 0 0 0 0 0 0 0 0 0 0 0 0 0 0 0 0 0 0 0 0 0 0 0 0 0 0 0 0 0 0 0 0 0 0 0 0 0 0 0 0 0 0 0 0 0 0 0 0 0 0 0 222 222 221 221 222 221 220 221 218 219 219 219 219 219 220 221 221 222 222 222 222 222 222 221 221 219 220 219 220 220 221 220 220 220 221 220 220 219 219 215 0 216 0 219 219 219 220 221 0 0 0 223 0 0 224 224 224 224 223 223 223 223 224 224 223 223 223 224 223 222 223 223 223 223 223 223 222 223 223 223 222 222 223 223 223 223 224 224 224 224 224 224 224 225 224 223 223 222 223 222 222 223 223 224 225 225 225 225 225 224 223 223 223 223 223 224 224 225 225 225 226 226 226 225 225 225 224 223 223 223 223 223 222 222 221 222 223 223 223 223 0 0 225 226 227 226 226 227 227 227 227 229 229 227 227 226 226 225 226 225 225 224 225 224 224 225 225 0 225 225 225 225 225 226 226 226 226 227 227 227 227 229 229 229 229 229 229 227 227 227 227 227 226 226 226 227 227 228 228 227 227 227 226 226 225 226 225 225 225 225 224 225 225 225 225 226 226 226 227 228 229 228 229 230 229 229 232 230 232 228 231 230 230 232 229 229 229 229 229 230 229 229 228 228 229 229 0 0 0 0 0
    0 0 0 0 0 0 0 0 0 0 0 0 0 0 0 0 0 0 0 0 0 0 0 0 0 0 0 0 0 0 0 0 0 0 0 0 0 0 0 0 0 0 0 0 0 0 0 0 0 0 0 0 0 0 0 0 0 0 0 0 0 0 0 0 0 0 0 0 0 221 221 221 220 221 221 220 221 218 219 219 219 219 219 219 220 221 222 222 221 221 221 221 221 221 219 221 219 220 220 221 220 220 219 221 219 220 219 219 216 0 217 0 219 220 220 221 221 222 223 0 0 0 0 224 224 223 223 223 223 224 224 224 224 224 223 223 224 223 223 223 223 223 223 223 223 0 224 223 223 223 223 224 223 223 224 225 225 225 225 225 225 225 225 225 223 223 222 223 222 222 223 223 224 225 225 225 225 225 225 224 224 223 223 223 224 225 225 226 225 225 226 225 225 225 225 224 223 223 223 223 223 223 222 221 222 223 223 223 223 224 225 225 226 227 227 227 227 227 227 227 229 229 227 227 226 225 225 225 225 225 224 225 224 225 225 225 225 225 225 225 225 225 226 226 226 225 226 227 227 227 229 229 229 229 229 229 228 228 228 228 227 227 227 227 227 228 228 229 228 227 228 226 226 226 226 225 225 225 225 224 225 225 225 225 226 226 226 227 227 229 228 229 230 229 229 232 230 232 227 231 229 231 0 229 229 229 229 230 230 229 229 229 229 229 230 0 0 0 0 0
    0 0 0 0 0 0 0 0 0 0 0 0 0 0 0 0 0 0 0 0 0 0 0 0 0 0 0 0 0 0 0 0 0 0 0 0 0 0 0 0 0 0 0 0 0 0 0 0 0 0 0 0 0 0 0 0 0 0 0 0 0 0 0 0 0 0 0 0 0 221 221 221 220 222 222 221 221 219 220 220 220 220 219 219 220 221 222 221 221 221 221 221 221 221 217 220 219 220 219 221 219 220 219 221 219 220 0 221 218 0 219 0 220 221 221 221 221 221 222 223 0 0 0 0 223 223 223 223 223 224 224 224 225 224 224 224 224 223 223 223 223 223 223 224 223 0 0 223 223 223 223 224 223 223 225 225 225 225 225 225 225 225 225 225 223 223 222 222 222 222 223 223 224 225 225 225 225 225 225 224 224 224 224 224 225 225 225 226 225 225 225 225 225 225 225 224 223 223 223 223 223 223 221 221 222 223 223 223 223 224 0 225 226 227 227 227 227 227 227 227 228 228 227 226 226 225 225 225 225 225 225 225 225 225 225 225 225 225 225 225 225 225 226 225 226 225 226 227 227 227 228 229 229 229 229 229 228 229 228 229 229 227 227 227 227 227 228 228 227 227 227 226 226 226 226 225 225 225 225 224 225 225 224 224 225 226 225 227 227 228 228 229 230 229 229 232 230 232 227 232 229 230 233 230 230 229 230 231 231 230 229 229 229 229 231 0 0 0 0 0
    0 0 0 0 0 0 0 0 0 0 0 0 0 0 0 0 0 0 0 0 0 0 0 0 0 0 0 0 0 0 0 0 0 0 0 0 0 0 0 0 0 0 0 0 0 0 0 0 0 0 0 0 0 0 0 0 0 0 0 0 0 0 0 0 0 0 0 0 0 221 221 221 220 222 222 221 221 219 221 220 220 220 220 219 220 220 221 221 220 220 220 220 220 221 219 221 220 221 220 221 220 221 220 221 220 221 0 222 221 0 221 0 221 221 221 221 221 222 222 0 223 0 0 0 223 223 223 223 223 224 224 224 224 224 223 223 224 222 221 223 223 223 223 223 223 0 0 223 222 223 223 223 223 223 225 226 225 226 226 226 226 225 225 225 223 223 222 222 222 222 224 224 225 225 225 225 225 225 225 224 224 224 225 225 225 225 225 226 225 225 225 224 225 225 225 224 223 223 0 223 223 223 221 221 222 223 223 223 223 224 0 225 226 227 227 227 227 227 228 227 227 227 226 226 226 225 225 226 225 225 225 225 225 225 225 225 225 226 225 225 225 225 226 225 225 225 225 226 227 227 228 228 229 229 230 229 228 229 229 229 229 228 227 227 227 228 228 228 227 227 227 227 226 227 226 225 225 225 225 224 225 225 225 0 225 226 225 227 227 227 227 229 230 229 229 232 230 232 227 232 228 230 233 231 230 230 230 231 231 231 230 229 229 230 232 0 0 0 0 0
    0 0 0 0 0 0 0 0 0 0 0 0 0 0 0 0 0 0 0 0 0 0 0 0 0 0 0 0 0 0 0 0 0 0 0 0 0 0 0 0 0 0 0 0 0 0 0 0 0 0 0 0 0 0 0 0 0 0 0 0 0 0 0 0 0 0 0 0 0 221 221 221 220 222 222 221 221 220 221 221 221 221 220 220 221 221 222 221 221 220 221 221 221 221 221 221 221 222 221 222 221 222 221 221 221 221 0 222 221 221 221 0 221 222 221 222 222 223 223 0 223 0 223 0 223 223 223 223 223 223 224 224 224 224 223 223 223 222 221 222 222 222 221 222 222 0 0 223 222 222 222 223 223 223 224 225 225 227 226 226 226 226 226 225 223 223 222 223 223 223 224 225 225 225 225 224 224 224 224 224 223 224 224 225 225 225 226 226 225 226 225 224 225 225 225 224 223 223 0 223 223 223 222 221 222 223 223 223 223 224 0 225 226 227 227 227 227 227 227 227 227 227 226 226 226 226 225 226 226 226 225 225 225 225 225 226 225 226 225 225 225 225 226 225 225 225 225 226 226 226 227 227 229 229 229 229 228 229 229 229 229 228 228 228 228 229 229 229 229 228 229 228 227 227 226 225 225 225 225 225 225 225 0 0 225 226 225 227 227 227 227 229 229 229 229 232 229 232 228 232 229 231 232 231 230 230 231 232 231 231 230 228 229 229 232 0 0 0 0 0
    0 0 0 0 0 0 0 0 0 0 0 0 0 0 0 0 0 0 0 0 0 0 0 0 0 0 0 0 0 0 0 0 0 0 0 0 0 0 0 0 0 0 0 0 0 0 0 0 0 0 0 0 0 0 0 0 0 0 0 0 0 0 0 0 0 0 0 0 0 220 221 221 220 221 222 221 222 221 221 221 221 221 221 221 221 221 221 221 220 220 220 220 219 220 220 221 221 221 221 222 222 223 222 223 222 223 0 223 221 221 221 0 0 222 222 222 223 0 223 223 223 223 223 222 223 223 223 222 223 224 224 224 224 224 223 223 223 221 221 222 222 222 222 222 222 222 223 223 221 222 222 222 222 223 224 225 225 226 226 225 226 226 226 225 223 223 222 223 223 222 223 224 225 225 224 223 223 223 224 223 223 223 223 225 225 225 226 226 225 226 225 225 225 225 225 224 223 0 0 223 223 223 222 221 223 223 223 223 223 224 0 225 225 226 226 226 227 226 227 227 226 227 225 226 226 225 225 226 226 226 225 225 225 225 226 226 226 226 225 225 225 225 226 225 225 225 225 226 227 226 227 227 229 229 229 228 228 229 229 229 229 228 228 228 229 229 229 231 229 229 230 228 227 227 226 226 225 225 226 0 225 226 0 0 225 226 225 227 227 227 227 229 229 228 229 232 229 231 227 231 229 230 232 231 230 230 231 232 231 232 230 229 229 230 233 0 0 0 0 0
    0 0 0 0 0 0 0 0 0 0 0 0 0 0 0 0 0 0 0 0 0 0 0 0 0 0 0 0 0 0 0 0 0 0 0 0 0 0 0 0 0 0 0 0 0 0 0 0 0 0 0 0 0 0 0 0 0 0 0 0 0 0 0 0 0 0 0 0 0 0 220 220 220 221 222 0 222 221 222 221 222 221 221 221 221 221 222 221 220 220 220 219 218 219 220 220 221 221 221 223 223 223 223 223 223 223 0 223 221 222 221 0 0 0 221 222 0 0 223 223 223 223 223 222 222 223 223 222 223 223 224 224 224 224 224 223 224 222 222 223 223 223 223 223 223 223 223 223 222 223 223 222 223 223 224 225 225 227 226 226 227 226 226 225 223 223 223 223 223 222 223 224 225 225 223 223 223 223 223 223 223 223 223 225 225 225 226 225 225 225 225 225 225 225 225 0 223 0 0 223 223 223 223 222 223 223 222 223 223 224 0 225 225 225 226 226 226 226 227 227 226 227 225 225 226 225 225 225 225 226 225 225 225 225 226 226 226 227 226 225 226 225 226 226 226 226 226 227 227 226 227 227 228 228 229 228 228 229 229 229 229 228 228 228 228 229 229 230 228 228 229 227 226 226 225 225 225 225 226 0 227 227 225 0 227 227 225 227 227 227 227 229 229 228 228 232 229 231 227 231 228 230 231 230 229 230 231 232 231 232 231 230 231 232 234 0 0 0 0 0
    0 0 0 0 0 0 0 0 0 0 0 0 0 0 0 0 0 0 0 0 0 0 0 0 0 0 0 0 0 0 0 0 0 0 0 0 0 0 0 0 0 0 0 0 0 0 0 0 0 0 0 0 0 0 0 0 0 0 0 0 0 0 0 0 0 0 0 0 0 0 220 220 220 221 0 0 223 222 223 223 223 223 222 222 222 222 223 221 220 220 220 220 218 220 220 220 221 221 221 223 223 223 223 223 223 223 0 223 222 0 0 0 0 221 221 0 0 0 0 223 222 223 222 221 222 222 222 222 223 223 223 224 224 224 223 223 224 223 223 223 223 223 0 223 223 0 223 223 222 223 223 222 222 223 224 225 225 227 226 226 227 226 226 225 224 223 223 223 223 223 223 224 225 224 223 223 223 223 223 223 223 223 223 225 226 226 227 226 227 226 225 225 225 0 225 0 0 0 0 0 0 223 223 222 223 223 222 223 0 223 0 0 225 225 226 226 227 226 227 225 225 226 225 225 225 225 225 225 225 225 225 225 225 225 226 227 227 227 227 227 227 226 226 226 226 226 226 226 226 225 226 227 228 228 229 228 228 229 229 229 229 228 227 227 227 228 228 230 228 228 228 226 225 225 224 225 224 225 225 0 227 229 226 0 227 227 225 227 227 227 227 229 229 228 228 232 229 230 226 229 227 229 230 229 228 230 231 232 231 232 232 231 232 233 235 0 0 0 0 0
    0 0 0 0 0 0 0 0 0 0 0 0 0 0 0 0 0 0 0 0 0 0 0 0 0 0 0 0 0 0 0 0 0 0 0 0 0 0 0 0 0 0 0 0 0 0 0 0 0 0 0 0 0 0 0 0 0 0 0 0 0 0 0 0 0 0 0 0 0 0 220 220 220 222 0 0 0 223 223 223 223 223 223 223 223 222 223 221 220 220 219 220 218 219 219 220 221 221 221 223 0 0 223 224 0 224 0 223 0 0 0 0 220 0 0 0 0 0 0 223 221 223 221 221 222 222 222 222 223 223 223 224 224 223 223 223 224 223 223 223 223 223 0 224 223 224 224 223 223 223 223 221 221 222 223 224 225 226 225 226 226 226 225 225 224 223 223 223 223 223 223 224 224 224 223 223 222 223 223 223 223 223 224 225 227 227 227 227 227 227 226 225 225 225 225 0 0 0 0 0 0 223 223 223 223 223 223 0 0 223 0 0 225 225 226 226 227 226 227 226 225 226 225 225 225 225 225 225 225 225 225 225 225 226 226 227 227 228 227 227 227 226 226 225 225 225 225 225 225 225 226 227 227 229 229 229 229 229 229 229 229 228 227 227 227 227 227 229 228 229 229 227 225 225 225 225 224 225 225 0 227 229 226 0 227 227 225 227 226 227 227 229 229 228 229 232 229 229 225 229 227 227 228 227 227 229 230 231 230 231 231 230 231 233 234 0 0 0 0 0
    0 0 0 0 0 0 0 0 0 0 0 0 0 0 0 0 0 0 0 0 0 0 0 0 0 0 0 0 0 0 0 0 0 0 0 0 0 0 0 0 0 0 0 0 0 0 0 0 0 0 0 0 0 0 0 0 0 0 0 0 0 0 0 0 0 0 0 0 0 219 221 221 221 222 0 0 0 223 0 223 223 223 223 223 223 222 223 221 220 219 219 219 217 219 219 219 221 221 221 223 0 225 225 225 225 225 0 225 0 0 0 0 0 0 0 0 0 0 0 222 221 223 221 221 221 221 222 221 222 223 223 223 223 223 223 223 224 223 223 223 223 223 0 0 0 224 224 224 223 223 222 221 221 222 222 223 224 225 225 225 225 225 225 224 223 223 223 223 223 223 223 224 224 224 223 223 222 223 223 223 223 223 224 225 227 227 227 227 227 227 226 225 225 225 225 0 0 0 75 0 0 223 223 223 224 223 223 0 0 223 224 225 225 225 225 225 226 225 227 226 226 226 225 225 225 225 225 225 225 226 225 226 226 226 227 227 227 228 227 228 227 225 225 225 225 224 224 224 224 225 225 226 227 228 229 229 228 229 229 229 229 228 228 227 227 227 227 229 228 229 229 227 225 225 225 225 225 225 225 227 227 230 227 0 227 227 225 227 227 227 227 229 230 229 229 232 229 229 225 229 227 227 228 227 227 229 229 231 229 230 229 229 230 232 233 0 0 0 0 0
    0 0 0 0 0 0 0 0 0 0 0 0 0 0 0 0 0 0 0 0 0 0 0 0 0 0 0 0 0 0 0 0 0 0 0 0 0 0 0 0 0 0 0 0 0 0 0 0 0 0 0 0 0 0 0 0 0 0 0 0 0 0 0 0 0 0 0 0 0 220 221 221 221 223 0 0 0 223 224 224 224 223 223 223 223 223 222 221 220 219 219 219 217 219 219 219 221 221 222 223 0 225 225 225 225 225 225 225 0 0 0 0 0 0 0 0 0 0 0 223 222 222 221 221 221 221 221 221 221 223 223 223 223 223 223 223 224 223 223 223 223 223 0 0 0 0 223 223 223 223 222 221 221 222 222 223 223 224 224 225 225 224 223 223 222 222 223 223 223 223 223 223 224 223 223 222 222 223 222 223 222 222 223 225 225 226 226 226 227 226 226 225 225 225 225 0 0 0 0 0 0 223 223 223 224 223 223 223 224 223 224 224 225 225 225 225 226 225 227 226 226 226 225 225 225 225 226 225 226 227 226 226 227 227 227 227 227 228 227 227 226 225 225 225 225 224 224 225 225 0 0 0 228 229 229 229 229 229 228 229 228 227 227 227 227 227 227 229 229 229 229 227 225 225 225 225 225 225 226 228 228 232 227 0 227 227 225 227 227 227 227 229 230 229 229 232 229 228 225 229 227 227 228 227 226 229 229 231 229 230 230 230 230 233 233 0 0 0 0 0
    0 0 0 0 0 0 0 0 0 0 0 0 0 0 0 0 0 0 0 0 0 0 0 0 0 0 0 0 0 0 0 0 0 0 0 0 0 0 0 0 0 0 0 0 0 0 0 0 0 0 0 0 0 0 0 0 0 0 0 0 0 0 0 0 0 0 0 0 0 221 221 221 222 0 0 0 0 223 224 224 224 224 223 223 223 222 222 221 220 219 219 219 217 219 219 219 221 221 223 224 225 225 225 225 226 225 226 225 0 0 0 0 0 0 0 0 0 0 0 223 222 222 221 221 221 221 221 221 222 223 223 223 223 223 223 223 224 223 223 223 223 223 0 0 0 223 223 223 223 223 222 221 221 222 222 223 223 224 224 224 224 223 223 222 222 222 223 223 223 223 223 223 223 223 223 222 221 222 222 222 222 221 223 224 225 225 225 226 226 226 226 225 225 225 224 0 0 0 0 0 0 223 223 223 223 223 223 221 223 223 224 224 224 225 225 225 227 226 228 227 226 227 225 225 226 225 226 225 227 227 226 227 227 227 227 226 227 227 227 227 226 225 225 226 226 225 225 225 226 0 0 0 228 229 229 228 228 228 227 227 227 227 227 227 227 227 227 230 229 230 229 227 225 225 224 225 224 0 225 227 227 232 228 0 227 227 225 227 227 227 227 229 230 228 228 232 229 227 225 229 227 227 229 228 227 231 231 232 229 231 231 231 231 234 233 0 0 0 0 0
    0 0 0 0 0 0 0 0 0 0 0 0 0 0 0 0 0 0 0 0 0 0 0 0 0 0 0 0 0 0 0 0 0 0 0 0 0 0 0 0 0 0 0 0 0 0 0 0 0 0 0 0 0 0 0 0 0 0 0 0 0 0 0 0 0 0 0 0 0 221 221 221 221 222 0 0 0 223 224 224 224 224 223 223 222 222 221 221 219 219 219 219 216 219 219 220 221 221 223 224 225 225 225 225 0 225 225 225 0 0 0 0 0 0 0 0 0 0 0 223 222 222 221 221 222 222 222 221 222 223 223 223 223 223 223 223 225 223 223 223 223 224 0 0 0 0 224 224 223 223 223 222 222 223 223 223 223 224 224 224 223 223 223 222 222 222 223 223 223 223 223 223 223 223 223 222 221 222 221 221 222 221 222 223 225 225 225 225 226 226 226 226 225 225 224 0 223 0 0 0 0 0 223 223 223 223 223 221 223 222 223 223 224 224 225 225 226 226 228 227 227 227 226 226 226 225 226 225 226 226 226 226 226 226 226 226 227 227 227 226 225 225 0 226 226 225 225 226 227 0 0 0 227 229 228 227 227 227 227 227 227 227 227 227 227 227 228 231 229 229 229 227 225 225 224 225 224 0 0 227 226 232 227 0 227 227 225 227 227 228 228 229 230 228 228 232 228 227 225 228 227 227 229 229 227 232 232 232 230 232 232 231 231 233 233 0 0 0 0 0
    0 0 0 0 0 0 0 0 0 0 0 0 0 0 0 0 0 0 0 0 0 0 0 0 0 0 0 0 0 0 0 0 0 0 0 0 0 0 0 0 0 0 0 0 0 0 0 0 0 0 0 0 0 0 0 0 0 0 0 0 0 0 0 0 0 0 0 0 0 221 221 221 221 222 222 0 0 223 224 224 224 224 223 0 222 222 221 221 219 219 219 219 217 219 219 220 220 221 222 224 225 225 225 0 0 225 0 225 0 0 0 0 0 0 0 0 0 0 223 222 222 0 221 221 223 223 223 222 223 223 223 224 223 223 223 224 225 224 224 224 224 225 225 0 0 224 224 223 223 222 222 222 222 223 223 223 223 224 224 224 223 223 223 222 222 222 222 223 223 223 223 223 223 223 223 222 222 223 222 222 222 221 222 223 225 225 225 225 225 225 226 225 225 224 224 223 223 0 0 0 0 0 223 223 224 223 223 222 223 223 224 223 224 224 225 225 226 226 229 227 228 228 226 226 226 225 225 225 226 226 225 226 226 226 226 226 227 227 227 227 226 225 225 227 227 227 227 228 230 0 0 0 228 229 229 227 227 227 227 227 226 226 226 227 227 227 227 229 228 229 227 226 225 225 224 225 224 0 225 227 227 231 229 0 227 227 225 227 227 228 228 229 231 229 229 232 228 227 225 228 227 227 229 229 227 231 231 232 230 231 231 231 230 232 232 0 0 0 0 0
    0 0 0 0 0 0 0 0 0 0 0 0 0 0 0 0 0 0 0 0 0 0 0 0 0 0 0 0 0 0 0 0 0 0 0 0 0 0 0 0 0 0 0 0 0 0 0 0 0 0 0 0 0 0 0 0 0 0 0 0 0 0 0 0 0 0 0 0 0 221 221 221 221 222 222 0 0 0 0 223 223 224 223 0 222 222 222 221 221 220 219 219 218 221 221 221 221 223 0 225 226 225 225 225 0 0 0 225 0 0 0 0 0 0 0 0 0 0 223 222 222 0 221 222 223 223 223 222 223 224 224 224 223 223 223 224 225 224 224 224 224 225 225 0 0 225 225 223 223 222 222 222 222 223 223 223 223 224 225 225 224 223 223 222 222 222 222 223 223 224 223 223 225 224 224 223 223 223 223 223 223 221 222 223 224 224 224 225 225 225 225 225 225 225 225 0 0 0 0 0 0 0 223 223 223 223 222 222 223 223 224 223 224 224 225 225 226 226 228 227 227 227 226 225 225 225 225 225 225 225 225 226 226 227 227 227 229 228 228 227 227 226 226 227 227 227 227 0 0 0 0 0 229 230 231 228 228 227 226 225 225 225 225 225 226 226 225 227 227 228 226 225 225 224 223 224 224 0 0 225 225 228 227 0 227 226 225 227 227 228 228 228 231 229 229 232 229 227 225 228 227 227 229 228 227 230 230 232 229 231 230 230 230 232 231 0 0 0 0 0
    0 0 0 0 0 0 0 0 0 0 0 0 0 0 0 0 0 0 0 0 0 0 0 0 0 0 0 0 0 0 0 0 0 0 0 0 0 0 0 0 0 0 0 0 0 0 0 0 0 0 0 0 0 0 0 0 0 0 0 0 0 0 0 0 0 0 0 0 0 221 221 221 222 222 222 0 223 222 0 223 223 223 222 0 221 222 0 221 221 221 220 221 220 223 223 223 224 224 225 226 227 227 227 225 225 225 225 225 0 0 0 0 0 0 0 0 0 222 222 221 221 221 220 221 222 222 223 222 223 224 224 224 223 223 223 223 224 223 223 223 223 0 224 0 0 224 224 223 223 222 222 222 223 223 223 224 224 225 225 225 223 223 223 221 221 221 222 223 223 225 225 225 225 225 225 224 223 223 223 223 223 222 222 223 223 223 223 224 225 225 226 225 225 225 225 0 0 0 0 0 0 0 0 0 0 0 223 223 224 223 225 224 225 225 225 225 226 226 227 226 227 227 225 225 225 225 225 225 225 225 225 226 226 227 228 228 231 229 228 227 227 227 226 0 228 0 0 0 0 0 0 0 231 0 0 229 229 228 227 226 225 224 225 225 225 225 225 227 227 229 227 226 225 225 223 224 223 223 223 224 224 225 225 0 225 225 225 227 227 227 227 227 231 229 229 232 228 226 225 228 227 227 227 227 227 230 230 231 229 231 230 230 230 232 231 0 0 0 0 0
    0 0 0 0 0 0 0 0 0 0 0 0 0 0 0 0 0 0 0 0 0 0 0 0 0 0 0 0 0 0 0 0 0 0 0 0 0 0 0 0 0 0 0 0 0 0 0 0 0 0 0 0 0 0 0 0 0 0 0 0 0 0 0 0 0 0 0 0 0 222 222 222 222 223 223 223 223 221 222 222 222 223 221 221 221 221 0 221 221 221 220 221 221 223 225 225 225 225 227 226 227 227 227 225 225 225 225 225 225 0 0 0 0 0 183 0 0 222 221 221 220 220 219 221 222 222 223 223 223 224 224 224 223 223 223 223 223 223 223 222 223 223 223 223 223 223 223 222 223 222 223 223 223 224 224 225 225 225 225 225 223 223 223 222 222 221 222 223 223 225 225 224 225 225 225 223 223 223 223 223 223 222 222 222 223 223 223 223 224 224 225 225 225 225 225 0 0 0 0 0 0 223 0 0 0 0 224 225 225 224 225 225 225 225 225 225 226 226 228 227 227 227 226 225 226 225 225 225 225 226 226 227 226 227 228 227 230 228 227 227 226 226 225 0 0 0 0 0 0 0 0 0 230 231 232 229 229 229 227 227 225 225 225 225 226 227 226 227 229 230 228 227 225 225 224 0 0 0 224 225 225 226 225 0 225 225 224 226 227 227 227 227 230 229 229 232 227 226 225 229 228 228 228 229 229 232 231 232 229 231 231 231 231 232 231 0 0 0 0 0
    0 0 0 0 0 0 0 0 0 0 0 0 0 0 0 0 0 0 0 0 0 0 0 0 0 0 0 0 0 0 0 0 0 0 0 0 0 0 0 0 0 0 0 0 0 0 0 0 0 0 0 0 0 0 0 0 0 0 0 0 0 0 0 0 0 0 0 0 0 222 223 223 0 223 223 222 222 221 221 221 221 221 219 221 220 221 221 221 220 0 221 222 222 225 226 226 225 226 227 226 227 227 227 225 225 225 225 225 225 0 0 0 0 0 184 0 0 0 222 221 221 221 220 221 222 222 223 223 223 224 224 225 223 223 223 223 223 223 223 222 223 223 223 223 223 223 223 222 223 223 223 0 224 225 225 225 225 225 225 225 223 223 223 223 222 223 223 223 223 225 225 223 225 225 223 223 223 223 223 223 223 223 222 222 223 223 222 223 224 223 225 225 224 225 0 0 0 0 0 0 0 223 0 0 0 0 0 225 225 225 225 225 225 225 226 226 226 226 228 227 227 228 227 226 227 226 226 225 225 225 226 227 226 227 227 227 229 228 227 227 225 227 0 0 0 0 0 0 0 0 0 0 230 230 230 229 229 229 227 227 225 225 225 226 227 228 227 228 228 229 227 226 225 224 223 223 223 223 224 225 225 227 226 225 225 225 224 226 227 226 226 226 229 228 228 231 227 226 226 229 229 229 229 231 232 233 232 233 232 232 232 232 232 233 232 0 0 0 0 0
    0 0 0 0 0 0 0 0 0 0 0 0 0 0 0 0 0 0 0 0 0 0 0 0 0 0 0 0 0 0 0 0 0 0 0 0 0 0 0 0 0 0 0 0 0 0 0 0 0 0 0 0 0 0 0 0 0 0 0 0 0 0 0 0 0 0 0 0 0 222 222 0 0 0 0 0 222 220 221 221 221 221 219 220 220 220 221 221 221 221 0 0 0 226 227 226 225 226 227 226 227 227 227 225 225 225 225 225 225 0 0 0 0 0 0 0 0 0 222 221 221 221 220 221 222 222 223 223 223 224 224 225 223 223 224 224 224 223 223 223 223 0 0 223 223 223 223 222 223 223 223 224 224 225 225 225 225 225 225 225 223 223 223 223 223 223 223 223 223 225 225 223 223 224 223 223 223 223 223 223 223 223 222 222 223 222 221 222 223 223 225 225 224 224 0 0 0 0 0 222 222 222 222 0 0 0 0 225 224 224 225 225 225 225 225 225 225 226 228 227 227 227 227 227 227 227 226 225 225 226 226 227 226 227 227 227 228 227 227 226 226 227 0 0 0 0 0 0 0 0 0 231 229 229 229 228 227 228 227 228 225 225 225 227 227 229 227 227 227 227 227 226 223 223 223 223 223 223 225 225 226 227 226 224 224 224 224 225 226 225 225 225 227 227 227 230 226 226 226 229 229 229 230 232 232 233 233 233 232 233 233 233 232 233 232 0 0 0 0 0
    0 0 0 0 0 0 0 0 0 0 0 0 0 0 0 0 0 0 0 0 0 0 0 0 0 0 0 0 0 0 0 0 0 0 0 0 0 0 0 0 0 0 0 0 0 0 0 0 0 0 0 0 0 0 0 0 0 0 0 0 0 0 0 0 0 0 0 0 0 223 223 223 223 223 222 221 221 220 220 220 220 220 219 219 220 220 221 221 221 222 222 223 225 226 227 226 225 226 226 225 227 227 227 225 225 225 225 225 225 0 0 0 0 224 0 223 0 223 221 221 220 221 220 221 222 221 222 222 223 224 224 225 224 223 224 224 224 224 223 223 223 223 0 223 0 0 223 222 223 223 223 224 225 225 225 225 225 225 225 225 224 224 0 223 223 223 223 223 223 225 225 223 224 224 223 223 223 224 224 223 223 223 222 222 222 221 220 221 223 223 225 225 225 225 0 0 0 0 0 0 223 223 223 0 0 0 0 225 225 224 225 225 225 225 225 225 225 225 227 227 227 227 227 227 227 227 227 226 225 225 226 226 225 227 226 226 227 227 226 226 225 226 0 0 0 227 228 230 229 231 229 230 229 229 228 228 227 228 227 229 226 227 226 228 227 228 227 227 227 226 227 226 225 225 224 224 223 224 225 225 225 226 225 224 223 223 224 225 225 225 225 225 227 227 227 229 226 227 227 228 229 229 229 231 232 233 232 233 232 233 233 233 232 232 232 0 0 0 0 0
    0 0 0 0 0 0 0 0 0 0 0 0 0 0 0 0 0 0 0 0 0 0 0 0 0 0 0 0 0 0 0 0 0 0 0 0 0 0 0 0 0 0 0 0 0 0 0 0 0 0 0 0 0 0 0 0 0 0 0 0 0 0 0 0 0 0 0 0 0 223 223 223 223 223 222 221 221 219 220 219 219 219 218 219 219 219 221 221 221 222 222 223 224 225 226 226 225 225 0 225 227 227 227 225 225 225 225 224 225 0 224 224 224 224 223 223 223 222 221 221 220 221 220 221 221 221 221 222 223 223 224 224 223 223 224 224 224 223 223 223 223 223 0 223 0 0 223 222 223 224 224 225 225 225 225 225 225 225 225 225 225 225 224 224 224 223 223 223 223 223 223 223 224 224 223 223 223 223 224 224 223 223 223 223 223 223 222 223 224 224 225 225 225 0 226 0 0 0 0 0 0 224 224 0 225 225 225 225 225 225 225 226 225 225 225 225 225 225 227 226 227 227 227 227 227 227 227 226 225 225 225 226 225 227 225 226 226 227 226 225 225 225 0 0 0 227 227 229 229 230 228 229 229 229 228 229 228 229 227 229 227 227 226 227 226 227 226 227 227 226 227 0 0 225 225 225 225 225 226 225 226 226 225 224 224 223 224 225 225 225 225 225 227 227 227 229 226 226 227 227 227 228 229 230 232 232 232 232 232 233 232 233 232 233 232 0 0 0 0 0
    0 0 0 0 0 0 0 0 0 0 0 0 0 0 0 0 0 0 0 0 0 0 0 0 0 0 0 0 0 0 0 0 0 0 0 0 0 0 0 0 0 0 0 0 0 0 0 0 0 0 0 0 0 0 0 0 0 0 0 0 0 0 0 0 0 0 0 0 0 223 223 0 0 0 222 221 221 219 219 219 219 219 218 219 219 219 220 221 221 221 222 223 223 224 225 225 225 0 0 225 226 226 226 225 225 225 226 224 225 224 224 223 223 223 222 221 222 221 221 221 220 221 221 221 221 221 221 221 222 223 223 224 223 223 223 223 223 223 223 222 222 222 222 223 223 223 223 222 223 224 224 225 225 225 225 225 225 225 225 225 225 225 224 223 223 223 223 221 220 220 221 220 223 223 223 222 222 223 223 223 223 223 222 222 223 223 223 224 225 224 225 225 225 225 225 226 225 0 226 0 0 224 223 224 224 225 225 225 225 225 225 225 225 225 225 225 225 225 225 225 226 227 226 226 227 227 226 226 225 225 225 225 225 226 225 225 225 225 225 225 224 0 223 0 0 227 227 228 228 229 227 229 229 229 229 229 229 229 227 229 227 228 226 227 225 226 225 225 227 225 0 0 0 225 225 225 225 225 226 225 226 227 226 225 224 223 224 225 225 225 225 225 226 227 227 228 225 225 226 227 227 227 227 228 230 231 231 232 231 232 232 232 232 232 232 0 0 0 0 0
    0 0 0 0 0 0 0 0 0 0 0 0 0 0 0 0 0 0 0 0 0 0 0 0 0 0 0 0 0 0 0 0 0 0 0 0 0 0 0 0 0 0 0 0 0 0 0 0 0 0 0 0 0 0 0 0 0 0 0 0 0 0 0 0 0 0 0 0 0 0 0 0 0 0 222 221 221 219 219 219 219 219 218 219 219 219 220 221 221 221 221 222 223 223 225 225 223 0 0 225 225 226 226 225 225 226 226 225 225 223 223 221 222 221 221 221 221 221 220 221 220 220 220 220 220 220 219 219 220 222 222 223 223 223 223 223 223 222 222 221 221 221 221 221 222 222 223 0 224 225 225 225 225 225 225 224 224 224 224 224 223 223 223 223 222 222 223 220 219 219 218 218 219 221 219 219 220 221 221 222 222 222 221 221 221 222 222 224 225 224 224 224 225 225 225 225 225 225 225 0 0 0 223 223 223 224 224 225 225 225 225 225 224 225 224 224 224 224 224 224 225 226 225 225 226 225 225 225 223 223 222 223 222 224 223 222 223 0 223 223 223 0 222 222 225 226 227 227 227 229 227 229 229 229 228 229 229 229 227 229 226 227 225 225 223 225 0 0 226 0 0 0 0 222 222 222 223 223 225 224 226 227 226 225 224 224 224 225 225 225 224 224 225 226 227 227 0 0 0 0 227 227 227 227 228 230 230 230 231 231 230 232 232 232 231 0 0 0 0 0
    0 0 0 0 0 0 0 0 0 0 0 0 0 0 0 0 0 0 0 0 0 0 0 0 0 0 0 0 0 0 0 0 0 0 0 0 0 0 0 0 0 0 0 0 0 0 0 0 0 0 0 0 0 0 0 0 0 0 0 0 0 0 0 0 0 0 0 0 0 0 0 0 0 0 221 220 221 219 219 219 219 219 218 219 219 218 219 220 221 220 221 221 222 223 224 224 223 0 0 0 225 225 225 224 0 225 225 224 224 222 220 219 219 219 220 221 221 221 220 220 219 219 219 219 219 218 218 218 218 221 221 221 222 223 221 221 222 221 220 219 219 219 219 221 221 221 0 0 223 224 224 225 225 225 224 224 224 223 223 223 223 222 221 221 221 221 222 220 220 220 218 217 218 218 217 217 218 219 218 220 220 219 219 219 219 219 220 223 224 224 224 224 224 225 225 224 223 223 223 222 222 222 221 221 221 223 223 223 224 224 224 224 223 223 223 223 223 223 223 223 223 226 225 225 226 225 225 225 0 0 0 222 221 222 221 221 221 221 221 221 221 0 221 221 224 226 227 227 227 229 227 229 229 229 228 229 229 228 226 226 223 224 224 224 221 222 0 0 0 0 0 221 0 219 219 220 220 220 224 0 225 225 225 224 223 224 224 0 225 224 224 224 225 225 226 227 0 0 0 0 0 227 227 227 228 229 229 229 230 229 229 231 231 232 230 0 0 0 0 0
    0 0 0 0 0 0 0 0 0 0 0 0 0 0 0 0 0 0 0 0 0 0 0 0 0 0 0 0 0 0 0 0 0 0 0 0 0 0 0 0 0 0 0 0 0 0 0 0 0 0 0 0 0 0 0 0 0 0 0 0 0 0 0 0 0 0 0 0 0 225 223 222 0 221 219 219 219 218 217 218 220 219 219 219 219 218 219 219 220 219 220 221 221 223 223 223 221 0 0 219 0 0 0 217 0 0 223 223 221 219 215 215 216 218 219 219 220 221 220 220 219 219 219 217 218 217 217 217 217 219 220 221 222 222 221 221 221 221 219 219 218 218 217 219 219 219 0 221 223 223 223 223 225 224 224 223 223 223 222 222 223 222 221 221 221 221 222 220 219 219 217 218 218 217 217 217 217 217 217 219 218 217 217 216 216 218 219 223 223 223 223 224 223 224 223 223 223 223 222 221 221 221 221 220 221 222 222 223 223 223 223 223 223 223 223 223 223 223 223 223 223 226 225 225 226 225 0 0 0 0 0 221 220 221 221 220 220 221 221 221 221 0 221 221 0 225 226 227 227 228 227 229 229 229 228 229 229 227 225 225 222 223 223 223 220 220 0 0 0 0 0 220 219 218 219 219 219 219 223 219 222 223 224 222 222 223 222 0 224 223 223 223 223 224 225 226 225 0 0 0 0 227 227 227 227 229 229 229 230 229 229 230 231 232 230 0 0 0 0 0
    0 0 0 0 0 0 0 0 0 0 0 0 0 0 0 0 0 0 0 0 0 0 0 0 0 0 0 0 0 0 0 0 0 0 0 0 0 0 0 0 0 0 0 0 0 0 0 0 0 0 0 0 0 0 0 0 0 0 0 0 0 0 0 0 0 0 0 0 0 225 223 221 0 220 218 218 218 217 216 217 220 219 220 220 219 218 219 220 221 219 220 220 221 222 223 223 221 0 0 215 0 217 214 213 212 0 222 223 220 217 0 212 215 216 219 219 219 221 220 220 219 218 219 217 217 217 217 217 216 218 219 220 221 222 220 221 221 221 219 218 217 217 217 219 219 219 0 221 223 223 223 0 224 224 223 223 223 222 222 222 223 222 221 221 221 221 222 220 219 219 217 217 217 217 217 217 217 217 215 217 217 216 216 215 215 217 218 223 223 222 223 224 224 224 224 224 223 223 222 221 221 221 221 220 221 221 221 222 223 223 223 223 222 223 222 222 222 222 223 222 0 0 0 225 225 225 0 0 0 0 0 0 219 221 221 219 0 220 220 0 0 0 0 0 0 0 226 227 227 228 227 229 229 229 227 228 228 226 223 222 221 221 223 222 220 219 0 0 0 0 0 0 219 217 219 218 217 217 218 215 218 220 221 219 220 221 220 221 223 223 223 222 222 223 224 225 225 0 224 0 0 227 227 227 227 227 227 229 230 228 228 229 229 229 228 0 0 0 0 0
    0 0 0 0 0 0 0 0 0 0 0 0 0 0 0 0 0 0 0 0 0 0 0 0 0 0 0 0 0 0 0 0 0 0 0 0 0 0 0 0 0 0 0 0 0 0 0 0 0 0 0 0 0 0 0 0 0 0 0 0 0 0 0 0 0 0 0 0 0 226 223 0 0 0 218 217 218 217 216 217 219 219 221 220 220 218 219 219 220 218 219 219 221 221 222 222 220 0 0 214 0 0 0 212 212 0 214 221 217 214 212 212 214 215 217 217 219 219 219 220 219 217 219 217 217 217 217 216 216 217 218 219 221 222 219 219 221 219 218 217 217 217 216 219 219 219 0 221 222 222 222 0 224 224 223 223 223 222 222 222 223 221 221 221 220 220 221 219 219 219 217 217 218 217 216 216 217 217 215 217 216 215 215 215 215 215 216 221 221 221 223 223 224 225 225 224 223 223 223 222 221 222 221 219 220 221 221 222 223 222 222 223 222 222 221 221 221 221 222 221 219 0 0 0 225 0 0 0 0 0 0 0 218 220 220 219 0 219 220 0 0 0 0 0 0 0 0 0 0 227 227 0 229 229 227 229 229 0 0 218 217 219 0 221 219 218 0 0 0 0 0 0 0 217 219 217 216 216 215 215 215 217 219 218 219 221 219 220 223 222 222 222 221 221 223 225 225 0 223 0 0 225 225 225 226 226 227 227 229 227 227 226 227 227 226 0 0 0 0 0
    0 0 0 0 0 0 0 0 0 0 0 0 0 0 0 0 0 0 0 0 0 0 0 0 0 0 0 0 0 0 0 0 0 0 0 0 0 0 0 0 0 0 0 0 0 0 0 0 0 0 0 0 0 0 0 0 0 0 0 0 0 0 0 0 0 0 0 0 0 226 0 0 0 219 218 217 217 217 216 217 219 219 221 220 219 217 218 219 219 217 217 217 219 220 221 221 219 0 215 213 0 213 212 212 212 212 213 0 214 213 212 212 214 214 216 216 217 219 219 219 218 217 218 217 217 217 216 216 215 217 217 219 221 0 218 217 219 219 217 217 216 216 215 218 218 219 0 0 223 222 222 0 224 224 224 223 223 223 222 222 222 221 221 220 219 219 221 219 218 219 217 217 217 217 216 0 216 216 215 217 216 215 215 214 214 214 215 218 218 217 221 223 223 225 225 224 223 224 223 0 222 223 221 220 220 221 221 222 223 222 223 223 221 222 221 221 221 221 221 220 217 0 0 0 219 0 0 0 0 0 0 0 218 219 219 218 0 0 219 0 0 0 0 0 0 0 0 0 0 0 0 0 0 0 0 0 0 0 0 213 0 215 0 0 217 0 0 0 0 0 0 0 0 0 217 216 215 216 215 214 215 216 218 218 219 221 219 220 223 223 223 0 0 0 0 0 0 0 0 0 0 0 225 0 225 225 226 227 229 226 227 225 226 226 225 0 0 0 0 0
    0 0 0 0 0 0 0 0 0 0 0 0 0 0 0 0 0 0 0 0 0 0 0 0 0 0 0 0 0 0 0 0 0 0 0 0 0 0 0 0 0 0 0 0 0 0 0 0 0 0 0 0 0 0 0 0 0 0 0 0 0 0 0 0 0 0 0 0 0 0 0 0 0 0 217 0 217 216 216 217 220 219 0 221 219 217 217 218 219 217 217 216 217 219 220 220 217 213 213 212 212 212 211 212 211 211 212 211 212 212 212 212 213 213 216 215 217 219 219 219 218 217 218 216 217 216 216 215 215 0 217 218 0 0 217 216 217 217 215 215 215 215 215 217 217 217 0 0 222 222 221 0 0 223 223 223 223 222 221 222 222 221 220 219 219 219 221 217 217 219 216 217 217 216 216 0 0 215 214 215 215 215 215 213 213 215 215 218 217 217 220 222 223 223 223 223 223 223 222 222 221 222 221 217 219 221 221 221 222 223 221 222 221 221 221 220 219 219 0 218 215 0 212 0 0 0 0 0 0 0 0 0 0 0 0 217 0 0 0 0 0 0 0 0 0 0 0 0 0 0 0 0 0 0 0 0 0 0 0 212 212 0 0 0 0 0 0 0 0 0 0 0 0 0 216 215 215 215 215 214 215 215 217 216 217 219 217 217 222 221 221 0 0 0 0 0 0 0 0 0 0 0 225 0 224 224 225 226 227 225 225 224 225 225 223 0 0 0 0 0
    0 0 0 0 0 0 0 0 0 0 0 0 0 0 0 0 0 0 0 0 0 0 0 0 0 0 0 0 0 0 0 0 0 0 0 0 0 0 0 0 0 0 0 0 0 0 0 0 0 0 0 0 0 0 0 0 0 0 0 0 0 0 0 0 0 0 0 0 0 0 0 0 0 0 0 0 0 0 0 0 0 0 0 0 0 0 0 0 0 217 216 215 216 218 219 0 215 212 211 210 209 211 210 211 210 210 212 210 212 212 212 212 213 213 216 215 217 219 221 219 218 216 217 215 215 215 215 215 214 0 215 216 0 0 215 215 217 217 215 215 215 215 215 216 215 215 0 0 0 221 0 0 0 223 223 223 223 221 221 221 221 220 219 219 218 218 220 217 217 219 216 217 217 215 215 0 0 215 214 215 214 214 213 212 212 212 212 213 213 0 219 221 221 223 223 223 221 222 221 219 217 219 217 213 215 216 217 217 217 219 217 219 217 219 217 217 217 217 0 0 0 0 0 0 0 0 0 0 0 0 0 0 0 0 0 0 0 0 0 0 0 0 0 0 0 0 0 0 0 0 0 0 0 0 0 0 0 0 0 0 211 0 0 0 0 0 0 0 0 0 0 0 0 215 215 215 214 215 214 213 214 214 215 215 215 215 214 215 219 215 217 0 0 0 0 0 0 0 0 0 0 0 223 222 223 223 224 225 225 223 223 222 222 222 221 0 0 0 0 0
    0 0 0 0 0 0 0 0 0 0 0 0 0 0 0 0 0 0 0 0 0 0 0 0 0 0 0 0 0 0 0 0 0 0 0 0 0 0 0 0 0 0 0 0 0 0 0 0 0 0 0 0 0 0 0 0 0 0 0 0 0 0 0 0 0 0 0 0 0 0 0 0 0 216 0 0 117 117 117 0 0 0 0 0 0 0 0 0 0 0 0 0 0 0 0 0 0 0 0 0 0 0 209 210 210 211 212 211 212 212 212 212 213 213 215 215 218 0 221 219 216 0 0 0 214 213 214 214 213 0 215 215 0 217 215 0 216 216 214 214 213 213 213 215 214 0 0 0 0 0 0 0 0 0 0 222 222 220 219 220 219 219 217 218 217 217 220 219 219 221 217 0 217 216 215 0 0 214 213 0 213 212 212 210 209 209 210 0 212 210 217 223 222 222 223 223 221 221 219 217 215 216 215 211 212 213 213 215 215 215 215 215 0 0 216 216 215 216 0 0 0 0 0 0 0 0 0 0 0 0 0 0 0 0 0 0 0 0 0 0 0 0 0 0 0 0 0 0 0 0 0 0 0 0 0 0 0 0 0 0 0 0 0 0 0 0 0 0 0 0 0 0 216 215 215 215 214 214 214 212 213 213 215 214 215 0 213 214 216 0 0 0 0 0 0 0 0 0 0 210 0 0 216 218 219 221 223 223 224 222 221 219 218 217 217 0 0 0 0 0
    0 0 0 0 0 0 0 0 0 0 0 0 0 0 0 0 0 0 0 0 0 0 0 0 0 0 0 0 0 0 0 0 0 0 0 0 0 0 0 0 0 0 0 0 0 0 0 0 0 0 0 0 0 0 0 0 0 0 0 0 0 0 0 0 0 0 0 0 0 0 0 0 0 215 0 0 117 117 117 0 0 0 0 0 0 106 0 0 0 0 0 0 0 0 0 0 0 0 0 0 0 0 0 210 211 212 212 0 214 213 0 0 0 0 0 213 0 0 0 219 213 0 0 0 0 0 0 0 0 0 215 215 0 0 0 0 0 0 213 213 212 212 0 0 0 0 0 0 0 0 0 0 0 0 0 222 223 221 219 221 219 219 217 0 0 0 0 0 219 0 0 0 0 217 217 0 0 0 0 88 213 212 212 210 210 0 0 0 0 0 0 226 224 221 222 222 221 221 218 217 215 216 215 212 210 212 212 213 213 215 215 215 0 0 0 217 0 0 0 0 0 0 0 0 0 0 0 0 0 0 0 0 0 0 0 0 0 0 0 0 0 0 0 0 0 0 0 0 0 0 0 0 0 0 0 0 0 0 0 0 0 0 0 0 0 0 0 0 0 0 0 0 217 215 0 214 213 213 213 212 213 213 213 214 214 0 213 213 216 213 215 0 0 0 210 206 0 0 0 209 0 0 212 215 215 216 219 220 221 219 217 216 215 215 215 0 0 0 0 0
    0 0 0 0 0 0 0 0 0 0 0 0 0 0 0 0 0 0 0 0 0 0 0 0 0 0 0 0 0 0 0 0 0 0 0 0 0 0 0 0 0 0 0 0 0 0 0 0 0 0 0 0 0 0 0 0 0 0 0 0 0 0 0 0 0 0 0 0 0 0 0 0 0 0 0 118 117 117 117 0 232 0 0 0 0 0 0 0 0 0 0 0 0 0 0 0 0 0 0 0 0 0 0 0 0 0 0 0 0 0 0 0 0 0 0 0 0 0 0 0 212 0 0 588 0 0 0 214 0 0 0 0 0 219 0 0 0 0 214 213 213 212 213 212 211 210 0 0 0 0 0 0 0 0 0 0 224 221 0 0 0 0 0 0 83 0 0 0 0 0 0 0 85 0 219 0 0 0 0 0 0 0 0 0 0 0 0 0 0 0 0 0 0 221 0 0 0 0 0 0 0 0 0 0 0 0 0 0 0 0 0 0 0 0 0 0 0 0 0 0 0 0 0 0 0 0 0 0 0 0 0 0 0 0 0 0 0 0 0 0 0 0 0 0 0 0 0 0 0 0 0 0 0 0 0 0 0 0 0 0 0 0 0 0 0 0 0 0 0 0 0 0 0 0 0 0 212 213 213 212 212 212 213 213 0 0 212 211 215 0 0 0 0 0 212 0 0 205 203 208 207 210 211 213 213 213 214 214 213 214 214 213 214 213 213 0 0 0 0 0
    0 0 0 0 0 0 0 0 0 0 0 0 0 0 0 0 0 0 0 0 0 0 0 0 0 0 0 0 0 0 0 0 0 0 0 0 0 0 0 0 0 0 0 0 0 0 0 0 0 0 0 0 0 0 0 0 0 0 0 0 0 0 0 0 0 0 0 0 0 0 142 0 0 0 0 0 0 0 0 0 0 0 0 0 0 0 0 0 0 0 0 0 0 0 0 0 0 0 0 0 0 0 0 0 0 0 0 0 0 0 0 0 0 0 0 0 0 0 0 0 0 0 0 0 0 0 0 0 0 0 0 0 0 0 0 0 0 0 0 0 0 0 0 0 0 0 0 0 0 0 0 0 0 0 0 0 0 0 0 0 0 0 0 0 0 0 0 0 0 0 0 0 0 0 0 0 0 0 0 0 0 0 0 0 0 0 0 0 0 0 0 0 0 0 0 0 0 0 0 0 0 0 0 0 0 0 0 0 0 0 0 0 0 0 0 0 0 0 0 0 0 0 0 0 0 0 0 0 0 0 0 0 0 0 0 0 0 0 0 0 0 0 0 0 0 0 0 0 0 0 0 0 0 0 0 0 0 0 0 0 0 0 0 0 0 0 0 0 0 0 0 0 0 0 0 0 209 212 212 210 210 211 210 211 0 0 0 0 0 0 0 0 0 0 0 0 0 204 203 206 206 208 209 211 212 212 212 212 210 212 212 212 213 213 212 0 0 0 0 0</data></depth>
</opencv_storage>
