<?xml version="1.0"?>
<opencv_storage>
<gps_time_stamp>30190</gps_time_stamp>
<gps_x>-8.0729207992553711e+000</gps_x>
<gps_y>9.4754081964492798e-001</gps_y>
<gps_z>-2.0069622993469238e+000</gps_z>
<image_time_stamp>18166</image_time_stamp>
<depth type_id="opencv-matrix">
  <rows>88</rows>
  <cols>320</cols>
  <dt>s</dt>
  <data>
    0 0 0 0 0 0 0 0 0 0 0 0 0 0 0 0 0 0 0 0 0 0 0 0 0 0 0 0 0 0 0 0 0 0 0 0 0 0 0 0 0 0 0 0 0 0 0 0 0 0 0 0 0 0 0 0 0 0 0 0 0 0 0 0 0 0 0 0 0 4906 4906 4329 4329 3873 0 593 0 0 0 0 0 0 0 0 0 0 897 897 0 0 919 919 897 897 897 865 876 876 0 0 0 0 0 0 0 0 0 0 0 0 0 0 0 0 0 90 90 0 0 0 0 0 0 0 0 0 0 0 0 0 0 0 7359 8177 7359 0 8177 0 0 0 1082 1008 955 865 865 865 876 865 865 0 0 845 876 865 865 836 845 845 845 845 836 836 826 836 855 836 836 845 836 855 845 0 0 0 7359 7359 0 8177 7359 5256 8177 0 0 0 8177 7359 8177 0 0 6690 5256 4599 4088 4599 5256 4906 5256 6133 6690 7359 8177 0 0 0 7359 0 7359 6690 8177 8177 8177 8177 7359 0 7359 7359 8177 7359 6690 5661 6133 5661 5661 6133 5661 5661 6690 5256 6133 6133 6133 6133 6133 6133 5661 4906 6133 3679 3679 4088 4088 3504 4329 4329 4329 4329 4599 4599 4088 4088 6690 3504 3504 3199 4906 3679 0 0 0 0 0 0 0 0 0 0 0 0 0 0 0 0 3066 3066 3066 3066 2943 2943 2943 2830 2628 2299 2374 2164 2299 2299 2164 2230 2164 2102 2102 2044 2102 1936 1936 1936 0 0 0 0 0 0 557 593 593 588 584 579 579 579 579 584 557 557 557 0 0 0 0 0
    0 0 0 0 0 0 0 0 0 0 0 0 0 0 0 0 0 0 0 0 0 0 0 0 0 0 0 0 0 0 0 0 0 0 0 0 0 0 0 0 0 0 0 0 0 0 0 0 0 0 0 0 0 0 0 0 0 0 0 0 0 0 0 0 0 0 0 0 0 886 0 5256 4329 0 700 0 0 782 0 0 845 855 876 876 876 886 897 897 897 931 919 908 886 886 886 876 876 886 876 0 0 0 0 0 0 0 0 8177 0 0 0 0 943 955 0 0 90 89 0 0 0 0 0 0 0 0 0 0 0 0 0 0 7359 8177 8177 0 0 0 0 981 1008 968 919 855 855 855 855 855 855 845 845 845 876 865 876 836 855 855 855 855 845 855 845 855 876 865 865 865 865 876 865 865 855 0 0 0 0 0 7359 4599 7359 8177 0 0 0 0 0 0 0 0 0 0 0 3873 5256 4906 4599 5661 6690 6690 6690 0 0 8177 7359 0 8177 7359 0 0 0 0 0 0 8177 8177 8177 7359 6690 5256 5661 5256 5256 5256 5256 5256 6690 5256 6133 6133 6133 6133 6133 6133 6133 4906 6690 3679 3873 4088 4088 3504 4329 4329 4329 4329 4906 4329 4088 4088 6690 3504 3345 0 4599 3679 0 0 0 0 0 0 0 0 0 0 0 0 0 0 0 0 3066 3199 3066 3199 2943 3066 2943 2830 2628 2299 2374 2164 2299 2164 2102 2164 2164 2102 2102 2044 2102 1936 1936 1936 0 0 0 0 0 0 570 598 593 593 584 579 579 584 584 584 561 561 561 0 0 0 0 0
    0 0 0 0 0 0 0 0 0 0 0 0 0 0 0 0 0 0 0 0 0 0 0 0 0 0 0 0 0 0 0 0 0 0 0 0 0 0 0 0 0 0 0 0 0 0 0 0 0 0 0 0 0 0 0 0 0 0 0 0 0 0 0 0 0 0 0 0 0 876 855 865 836 826 826 817 836 845 845 865 845 865 876 876 886 886 897 897 886 897 886 876 876 865 876 865 865 876 865 865 865 0 0 0 0 0 7359 0 897 876 897 876 897 897 886 0 0 0 0 855 0 817 817 826 0 876 876 0 0 0 0 0 0 0 0 0 0 0 968 955 968 943 897 855 855 845 855 855 855 855 845 845 876 876 886 845 855 865 865 865 855 865 865 865 897 876 876 876 886 886 876 865 855 0 0 855 865 855 0 0 0 0 0 0 0 0 0 0 0 0 0 994 981 0 0 4906 3873 5661 6133 6133 6133 0 0 0 8177 0 0 0 0 0 0 0 0 0 0 0 0 8177 6690 4599 4906 4906 4906 4906 5256 5256 7359 5256 6133 6690 6133 6690 6690 6690 6133 4906 6690 3345 3873 4329 4329 3504 4329 4599 4329 4329 4906 4599 4088 4088 6133 3345 3345 0 0 3679 0 0 0 0 0 0 0 0 0 0 0 0 0 0 0 3345 3199 3199 3066 3066 2943 2943 2943 2830 2628 2374 2453 2230 2299 2164 2102 2164 2102 2102 2102 2044 2044 1936 1936 1936 1887 0 0 0 0 0 0 598 598 593 584 584 584 584 584 584 566 566 566 0 0 0 0 0
    0 0 0 0 0 0 0 0 0 0 0 0 0 0 0 0 0 0 0 0 0 0 0 0 0 0 0 0 0 0 0 0 0 0 0 0 0 0 0 0 0 0 0 0 0 0 0 0 0 0 0 0 0 0 0 0 0 0 0 0 0 0 0 0 0 0 0 0 0 845 836 836 826 826 817 808 826 817 826 855 845 876 876 876 886 886 886 886 876 876 865 855 855 855 865 865 865 865 865 865 865 865 865 845 845 855 855 865 876 855 865 855 865 865 845 0 0 0 836 836 826 817 826 826 845 876 876 897 908 897 908 919 0 0 0 0 0 908 943 943 919 908 876 845 855 845 855 855 855 855 855 855 876 876 886 845 855 865 865 865 865 865 865 876 897 876 876 876 886 886 876 865 865 865 0 855 855 855 0 0 0 0 0 0 0 0 0 0 0 0 0 968 955 955 0 0 0 0 0 6690 6133 0 0 0 0 0 0 0 0 0 0 0 0 0 0 0 0 8177 6690 4329 4599 4088 4088 4599 4906 5661 8177 5661 6690 6690 6690 6690 6690 6690 6133 5256 7359 3199 3873 4329 4329 3504 4329 4599 4599 4329 5256 4599 4329 4329 6133 3679 3504 0 0 3679 0 0 0 0 2044 0 0 0 0 0 0 0 0 0 0 3504 3345 3345 3199 3199 3066 3066 2943 2830 2628 2453 2453 2374 2299 2102 2102 2164 2102 2102 2102 2044 2044 1989 1989 1936 1936 0 0 0 0 0 0 598 593 593 584 584 584 584 584 584 570 570 570 0 0 0 0 0
    0 0 0 0 0 0 0 0 0 0 0 0 0 0 0 0 0 0 0 0 0 0 0 0 0 0 0 0 0 0 0 0 0 0 0 0 0 0 0 0 0 0 0 0 0 0 0 0 0 0 0 0 0 0 0 0 0 0 0 0 0 0 0 0 0 0 0 0 0 836 826 826 808 808 808 799 808 808 808 836 836 855 876 876 876 876 865 865 855 865 845 845 845 855 855 865 865 865 876 865 865 865 855 845 845 845 845 855 855 845 845 836 836 836 826 817 817 808 826 817 817 817 826 826 845 876 876 897 897 897 897 897 919 897 886 886 855 855 865 876 865 865 865 845 855 845 855 855 855 855 855 865 876 876 886 845 855 865 865 865 865 876 865 865 897 876 876 886 886 886 876 865 865 855 855 855 855 855 845 0 0 0 0 0 0 836 799 0 0 0 943 943 943 931 968 994 0 994 968 0 0 0 0 0 0 0 0 0 0 0 0 0 0 0 0 0 0 0 7359 5256 4599 3873 0 4088 4599 5256 7359 5661 6690 6690 6690 6690 6690 7359 6690 5256 6690 3199 3873 4329 4329 3345 4329 4599 4599 4329 5256 4599 4329 4329 6133 3873 0 0 0 0 0 0 0 0 2044 0 0 0 0 791 0 876 0 876 0 3873 3504 3679 3345 3679 3345 3199 2943 2830 2628 2628 2537 2453 2299 2044 2102 2164 2164 2102 2102 2044 2044 1989 1989 1989 0 0 0 0 0 0 0 593 593 588 584 584 588 588 588 588 579 579 579 0 0 0 0 0
    0 0 0 0 0 0 0 0 0 0 0 0 0 0 0 0 0 0 0 0 0 0 0 0 0 0 0 0 0 0 0 0 0 0 0 0 0 0 0 0 0 0 0 0 0 0 0 0 0 0 0 0 0 0 0 0 0 0 0 0 0 0 0 0 0 0 0 0 0 826 817 808 799 808 799 799 808 799 799 826 826 855 865 865 865 865 855 855 845 845 826 826 836 836 845 855 855 855 865 855 855 855 845 836 836 845 845 845 845 826 826 826 826 817 808 808 799 799 817 817 808 817 826 826 845 865 876 897 897 897 886 886 897 865 855 855 845 845 845 855 845 845 855 845 845 845 855 855 855 855 855 865 876 865 886 845 855 855 855 865 855 865 865 865 897 876 876 886 886 886 865 865 865 865 865 855 855 855 845 855 865 855 836 826 855 845 826 855 876 886 908 908 908 886 919 968 968 955 931 931 968 0 0 0 0 0 0 0 0 0 0 0 0 0 0 0 0 0 7359 5661 4329 3679 0 3873 4088 4906 0 0 6690 7359 7359 7359 7359 8177 6690 5256 6690 3199 3679 4088 4088 3345 4088 4599 4906 4329 5256 4906 4906 0 0 0 0 0 0 0 0 0 0 0 0 0 0 0 774 791 799 855 836 855 0 0 3873 4088 3873 4599 3873 3679 3504 2943 2725 2830 2725 2725 2453 2044 2102 2299 2299 2164 2102 2044 2044 1989 1989 1936 0 0 0 0 0 0 570 593 588 584 584 588 593 593 593 588 584 584 584 0 0 0 0 0
    0 0 0 0 0 0 0 0 0 0 0 0 0 0 0 0 0 0 0 0 0 0 0 0 0 0 0 0 0 0 0 0 0 0 0 0 0 0 0 0 0 0 0 0 0 0 0 0 0 0 0 0 0 0 0 0 0 0 0 0 0 0 0 0 0 0 0 0 0 817 808 808 799 808 799 799 808 799 799 826 826 845 855 855 855 855 836 836 826 817 817 808 817 817 826 845 845 845 855 855 855 855 845 826 826 836 836 836 836 799 799 808 799 799 799 791 799 791 817 808 808 808 817 826 836 865 876 908 908 897 876 876 876 836 836 826 826 826 826 836 826 817 845 826 836 836 845 845 845 855 845 865 865 865 876 836 845 855 845 855 855 865 855 855 886 865 876 886 886 886 865 855 865 855 865 865 855 855 855 855 865 855 845 836 855 845 826 855 876 876 886 886 886 876 886 943 931 897 886 886 897 955 0 0 0 0 80 0 0 0 0 0 0 0 0 0 0 0 7359 6690 4599 0 0 0 4088 0 0 0 0 0 0 8177 0 0 0 5256 6133 3066 3345 3679 3679 3199 3873 0 5256 4599 6133 5661 0 107 107 107 95 0 855 836 0 817 799 799 758 0 0 0 774 782 791 836 817 817 791 0 4599 5256 0 0 0 0 0 0 0 0 2830 2830 2628 2164 2230 2299 2299 2230 2164 2044 2044 1989 1989 0 0 0 0 0 598 598 566 588 584 584 584 588 593 593 593 588 584 584 584 0 0 0 0 0
    0 0 0 0 0 0 0 0 0 0 0 0 0 0 0 0 0 0 0 0 0 0 0 0 0 0 0 0 0 0 0 0 0 0 0 0 0 0 0 0 0 0 0 0 0 0 0 0 0 0 0 0 0 0 0 0 0 0 0 0 0 0 0 0 0 0 0 0 0 817 808 799 791 808 799 799 808 799 791 817 817 836 836 836 836 836 808 817 808 799 799 791 799 791 799 826 826 826 836 836 836 836 826 817 817 817 817 799 808 774 791 799 791 791 791 791 791 782 808 799 799 808 817 817 826 855 876 897 897 886 855 855 855 817 817 817 817 808 817 817 808 808 826 808 826 826 826 826 836 836 836 845 855 855 855 826 845 845 836 845 845 855 845 845 886 855 865 886 886 876 855 855 855 855 865 855 855 855 855 855 865 855 855 836 845 836 826 845 865 876 865 865 876 865 876 919 908 876 865 865 865 865 836 836 817 0 0 808 0 0 0 0 0 0 0 0 0 0 0 0 0 886 855 0 0 0 826 0 0 836 817 0 0 845 0 0 0 2943 0 3504 3504 3066 0 0 0 4906 6690 0 0 107 107 0 0 0 845 836 836 826 817 799 774 766 782 782 774 774 791 826 799 782 774 735 0 0 735 735 728 728 743 743 743 774 0 3066 2943 2164 2230 2299 2374 2299 2230 2044 2044 1989 1989 0 0 0 0 0 598 598 570 588 588 584 584 588 593 593 593 588 588 588 588 0 0 0 0 0
    0 0 0 0 0 0 0 0 0 0 0 0 0 0 0 0 0 0 0 0 0 0 0 0 0 0 0 0 0 0 0 0 0 0 0 0 0 0 0 0 0 0 0 0 0 0 0 0 0 0 0 0 0 0 0 0 0 0 0 0 0 0 0 0 0 0 0 0 0 808 799 799 791 808 799 799 808 791 791 817 808 826 826 826 826 826 774 799 791 782 782 782 782 782 791 817 808 808 817 817 817 817 817 808 808 808 808 791 808 758 791 791 782 782 782 791 791 782 817 791 791 799 808 817 826 836 865 855 865 855 836 836 836 799 808 808 799 799 808 808 791 799 817 808 817 817 817 817 826 826 826 836 845 836 845 808 826 836 826 836 836 845 845 836 876 855 855 876 876 865 845 836 845 845 855 855 855 845 845 845 845 836 836 817 826 817 808 836 855 855 855 845 855 845 845 876 865 845 845 845 836 826 791 808 799 799 808 799 817 826 0 0 0 0 0 845 876 855 845 876 865 886 855 855 845 836 817 0 0 826 817 826 836 845 845 865 897 0 0 0 886 0 0 0 0 0 0 0 0 0 0 0 0 845 836 826 826 817 817 799 782 774 782 782 782 766 799 817 791 766 766 743 743 743 743 743 735 735 743 750 750 774 766 0 0 0 2299 2453 2453 2374 2299 2164 2102 1989 1989 0 0 0 0 0 603 608 579 593 588 588 588 593 593 593 593 588 584 584 584 0 0 0 0 0
    0 0 0 0 0 0 0 0 0 0 0 0 0 0 0 0 0 0 0 0 0 0 0 0 0 0 0 0 0 0 0 0 0 0 0 0 0 0 0 0 0 0 0 0 0 0 0 0 0 0 0 0 0 0 0 0 0 0 0 0 0 0 0 0 0 0 0 0 0 808 799 799 791 808 799 799 808 791 791 808 799 826 799 808 817 817 750 782 782 774 782 782 782 774 782 808 799 791 799 799 799 799 808 799 808 808 808 791 808 0 0 0 0 782 782 791 791 782 817 791 782 799 808 817 826 836 845 845 845 845 826 826 826 782 799 799 799 799 799 808 791 791 817 808 808 808 817 808 808 817 808 817 826 817 836 791 817 826 817 0 826 826 836 826 865 845 845 865 865 855 836 826 836 836 845 845 845 836 845 0 826 826 817 799 799 799 799 817 855 845 845 845 855 845 845 865 845 836 826 826 817 808 774 799 791 791 799 791 808 817 817 826 817 826 836 836 865 855 855 876 865 876 865 855 845 826 817 808 0 826 817 826 836 845 845 865 886 855 897 919 865 0 826 826 774 750 0 0 0 0 0 0 0 836 836 826 836 826 817 808 791 782 791 791 774 758 782 799 782 750 758 743 750 758 766 766 758 750 766 766 758 774 758 758 766 0 0 0 2537 2453 2374 2164 2102 1936 0 0 0 0 0 0 608 608 584 598 593 593 593 593 593 593 593 584 584 584 584 0 0 0 0 0
    0 0 0 0 0 0 0 0 0 0 0 0 0 0 0 0 0 0 0 0 0 0 0 0 0 0 0 0 0 0 0 0 0 0 0 0 0 0 0 0 0 0 0 0 0 0 0 0 0 0 0 0 0 0 0 0 0 0 0 0 0 0 0 0 0 0 0 0 0 808 808 799 791 817 799 808 817 791 791 799 791 808 774 791 808 808 743 782 782 782 782 782 782 774 774 808 791 791 791 791 782 791 799 791 799 799 799 782 808 0 0 0 0 791 791 791 799 791 826 799 782 799 808 817 826 845 845 845 845 845 817 826 826 782 791 799 799 799 799 808 782 791 808 799 799 799 799 799 799 808 799 808 817 808 826 774 808 817 808 0 817 817 826 817 855 836 836 855 855 836 826 817 836 826 845 845 845 826 836 808 817 808 799 774 791 791 799 808 845 845 845 845 845 845 836 855 836 817 817 808 808 791 766 791 782 782 799 791 808 808 808 826 817 826 836 836 865 855 855 865 855 876 855 855 845 817 808 808 826 826 826 826 836 836 845 855 876 845 855 855 845 826 817 826 791 774 799 791 791 791 0 817 817 826 826 826 826 817 817 808 791 782 782 782 774 750 766 766 750 735 750 735 743 750 766 766 766 750 758 766 758 774 758 750 750 782 808 817 0 2830 2628 2230 2044 0 0 0 0 0 0 0 603 603 584 598 593 593 593 593 593 593 593 579 579 579 579 0 0 0 0 0
    0 0 0 0 0 0 0 0 0 0 0 0 0 0 0 0 0 0 0 0 0 0 0 0 0 0 0 0 0 0 0 0 0 0 0 0 0 0 0 0 0 0 0 0 0 0 0 0 0 0 0 0 0 0 0 0 0 0 0 0 0 0 0 0 0 0 0 0 0 808 808 799 791 826 808 808 817 791 782 782 774 0 735 766 799 791 735 782 782 782 782 791 791 782 782 817 791 791 791 791 782 791 791 791 791 791 782 766 791 743 782 0 782 782 782 791 799 791 826 799 782 799 808 817 826 845 855 845 845 845 817 817 826 774 791 799 799 799 799 799 782 782 808 791 791 782 791 791 791 799 791 799 808 791 817 758 799 808 799 808 808 808 817 808 836 817 817 836 836 826 817 799 826 817 836 836 836 808 817 791 799 799 791 766 782 782 791 799 836 836 836 836 845 836 836 845 836 817 817 808 799 782 766 782 782 782 791 782 799 799 808 817 808 817 826 826 855 845 845 855 845 855 845 836 826 808 799 799 808 817 808 817 826 826 826 836 855 826 836 845 836 817 817 826 799 791 808 791 799 799 808 817 817 817 817 817 817 817 817 799 782 774 782 791 774 743 758 743 743 735 750 743 750 758 774 774 766 766 766 766 766 766 750 743 750 766 782 791 0 0 0 2374 0 735 721 707 0 0 0 0 603 598 588 598 598 593 598 593 593 593 593 574 579 579 579 0 0 0 0 0
    0 0 0 0 0 0 0 0 0 0 0 0 0 0 0 0 0 0 0 0 0 0 0 0 0 0 0 0 0 0 0 0 0 0 0 0 0 0 0 0 0 0 0 0 0 0 0 0 0 0 0 0 0 0 0 0 0 0 0 0 0 0 0 0 0 0 0 0 0 799 808 799 791 826 808 799 817 766 735 735 728 0 707 728 766 758 728 782 774 774 782 782 791 774 782 817 791 799 791 791 782 782 791 782 782 774 766 750 782 735 774 782 774 782 782 782 791 791 817 799 774 791 799 808 808 845 845 836 836 845 808 817 817 766 791 791 791 791 791 799 782 782 799 791 782 774 782 782 782 782 774 791 799 782 808 743 791 799 799 799 808 799 808 799 826 808 799 817 817 799 782 774 799 808 836 826 817 799 808 774 791 791 782 766 782 782 791 791 836 836 826 826 836 836 826 836 826 817 817 799 791 774 758 774 774 774 791 782 791 791 799 808 799 817 817 817 845 836 826 826 826 826 826 808 808 791 774 782 799 799 799 808 808 817 817 826 836 817 817 826 826 799 808 817 782 791 799 791 791 791 799 808 799 808 808 799 808 808 808 799 774 766 782 782 774 743 758 743 735 735 766 758 758 774 791 782 782 782 774 774 766 766 750 735 743 750 766 774 766 758 758 766 774 766 743 721 700 675 618 0 603 593 593 598 598 598 598 598 593 593 598 574 574 574 579 0 0 0 0 0
    0 0 0 0 0 0 0 0 0 0 0 0 0 0 0 0 0 0 0 0 0 0 0 0 0 0 0 0 0 0 0 0 0 0 0 0 0 0 0 0 0 0 0 0 0 0 0 0 0 0 0 0 0 0 0 0 0 0 0 0 0 0 0 0 0 0 0 0 0 799 808 799 799 826 808 791 817 735 714 714 707 700 700 707 743 735 721 782 774 782 782 791 791 774 774 808 774 782 774 766 766 774 782 758 758 750 735 735 758 728 766 774 774 774 774 782 791 782 817 782 766 774 791 808 799 836 845 836 836 836 799 808 808 766 782 791 791 791 791 791 782 782 799 782 782 774 782 782 782 782 766 782 782 766 791 735 782 791 791 791 799 799 799 791 817 799 791 808 799 782 750 750 766 774 826 817 808 799 808 758 782 782 782 766 774 782 791 791 826 826 817 826 826 826 817 817 817 799 808 782 782 766 758 774 766 774 782 774 791 791 799 808 791 808 808 799 826 817 799 808 799 808 808 791 799 774 766 782 782 791 791 791 799 799 808 817 817 808 808 817 817 791 791 808 766 791 799 791 774 774 791 799 791 799 782 791 791 799 799 791 758 758 774 782 758 735 750 735 728 735 774 750 758 766 791 782 791 782 774 758 758 750 735 728 735 735 743 743 743 735 743 750 758 766 743 728 707 687 623 0 608 598 603 603 603 603 603 598 593 593 598 570 574 574 574 0 0 0 0 0
    0 0 0 0 0 0 0 0 0 0 0 0 0 0 0 0 0 0 0 0 0 0 0 0 0 0 0 0 0 0 0 0 0 0 0 0 0 0 0 0 0 0 0 0 0 0 0 0 0 0 0 0 0 0 0 0 0 0 0 0 0 0 0 0 0 0 0 0 0 808 817 808 808 836 808 791 808 735 707 707 707 694 694 707 728 721 714 774 766 774 782 791 782 766 774 808 766 782 758 750 750 766 766 743 735 728 721 721 743 721 750 766 766 766 774 782 791 774 808 766 750 750 758 782 758 0 0 0 817 817 782 799 799 758 774 782 782 782 782 791 774 774 791 782 774 766 774 774 774 774 758 766 766 750 774 728 766 782 774 782 782 791 791 791 817 791 774 791 782 758 728 735 743 735 799 799 799 791 808 750 782 782 782 774 774 782 782 782 826 817 817 817 826 817 808 808 799 791 791 774 774 758 758 774 766 774 782 774 782 782 791 799 774 791 799 766 791 799 782 799 799 808 799 791 791 774 758 782 782 782 782 782 791 791 799 808 808 799 808 808 808 791 791 799 758 782 791 782 766 766 774 782 774 791 766 766 766 782 782 766 743 743 750 758 743 728 743 728 721 728 750 728 735 728 758 766 766 782 758 750 750 743 728 721 721 728 728 728 721 721 714 728 728 735 721 721 707 694 629 623 618 603 608 608 608 603 603 603 593 588 598 570 574 574 574 0 0 0 0 0
    0 0 0 0 0 0 0 0 0 0 0 0 0 0 0 0 0 0 0 0 0 0 0 0 0 0 0 0 0 0 0 0 0 0 0 0 0 0 0 0 0 0 0 0 0 0 0 0 0 0 0 0 0 0 0 0 0 0 0 0 0 0 0 0 0 0 0 0 0 808 808 817 808 826 799 782 791 735 707 707 707 700 700 700 714 707 707 774 758 766 782 791 782 766 766 799 758 782 750 750 750 766 758 743 735 728 721 721 735 714 743 750 758 758 758 766 782 766 808 750 735 735 743 758 728 0 0 750 766 782 750 782 782 750 766 774 774 774 774 782 766 766 782 766 758 750 766 758 758 758 743 750 743 735 750 721 758 766 766 766 774 774 782 774 808 774 758 774 766 750 728 735 735 728 774 774 774 774 791 750 782 782 774 774 774 782 782 782 826 808 808 817 817 817 808 808 799 791 799 774 782 758 758 782 766 774 782 782 782 774 791 791 750 782 766 735 728 774 766 791 799 799 799 791 799 774 750 774 774 766 774 774 782 782 791 808 791 782 799 791 791 782 774 774 743 774 774 766 750 758 758 758 750 766 743 743 743 750 743 735 728 735 743 735 728 728 735 714 707 707 0 700 0 687 0 0 721 721 743 743 743 735 721 721 721 728 728 721 714 714 714 721 721 721 714 721 707 694 634 634 623 603 608 608 608 603 603 603 593 588 598 566 574 574 574 0 0 0 0 0
    0 0 0 0 0 0 0 0 0 0 0 0 0 0 0 0 0 0 0 0 0 0 0 0 0 0 0 0 0 0 0 0 0 0 0 0 0 0 0 0 0 0 0 0 0 0 0 0 0 0 0 0 0 0 0 0 0 0 0 0 0 0 0 0 0 0 0 0 0 799 808 817 817 826 782 766 774 735 707 707 707 700 700 700 700 700 700 758 735 750 774 791 774 766 766 799 758 774 750 750 758 766 750 735 728 728 721 721 735 714 735 743 758 758 758 0 774 766 799 743 728 728 728 743 721 0 721 728 743 750 728 750 758 743 758 766 758 758 758 774 758 750 774 758 743 743 750 750 750 743 735 735 728 728 735 714 743 750 750 758 758 758 766 758 799 750 735 750 743 743 714 721 714 707 721 721 728 743 758 735 766 774 758 758 766 774 774 766 808 782 782 808 808 808 799 799 791 782 791 766 774 750 758 782 774 774 782 782 782 774 791 782 735 750 735 714 700 735 750 766 791 791 791 791 791 766 750 774 774 758 766 774 774 774 782 799 774 774 799 782 782 782 774 758 750 766 774 758 743 750 750 743 743 743 728 721 721 728 721 714 714 721 721 721 721 721 721 707 700 700 700 694 687 681 0 0 700 700 721 728 728 721 714 714 714 721 728 721 721 714 721 721 728 728 714 721 707 700 634 645 629 608 608 608 608 603 603 603 593 588 598 561 574 574 574 0 0 0 0 0
    0 0 0 0 0 0 0 0 0 0 0 0 0 0 0 0 0 0 0 0 0 0 0 0 0 0 0 0 0 0 0 0 0 0 0 0 0 0 0 0 0 0 0 0 0 0 0 0 0 0 0 0 0 0 0 0 0 0 0 0 0 0 0 0 0 0 0 0 0 799 799 817 817 808 774 750 758 728 707 714 707 700 700 700 700 700 694 735 721 735 758 782 766 774 766 791 758 774 750 750 758 758 743 728 728 721 721 721 728 721 735 743 758 758 758 0 774 758 791 735 728 728 728 735 721 714 728 728 743 735 721 735 743 728 743 750 743 743 743 758 743 735 750 743 728 735 743 735 735 728 721 721 721 714 721 707 735 743 743 743 750 750 750 750 791 728 721 735 728 728 707 707 700 694 694 700 700 721 728 721 758 758 750 750 750 758 758 750 791 743 750 799 791 799 782 782 782 766 774 750 758 735 758 782 766 774 782 774 782 766 782 766 728 735 721 700 700 721 735 750 774 774 774 782 791 766 750 774 774 758 774 774 774 766 774 791 766 766 791 766 766 774 774 750 750 774 774 766 750 750 743 735 743 735 714 714 714 714 700 700 700 707 707 714 714 707 714 700 700 700 700 694 675 675 681 687 694 687 700 707 700 707 700 707 707 714 721 721 721 714 721 721 721 721 714 714 700 694 634 645 629 0 608 608 608 603 603 603 588 588 598 561 570 570 570 0 0 0 0 0
    0 0 0 0 0 0 0 0 0 0 0 0 0 0 0 0 0 0 0 0 0 0 0 0 0 0 0 0 0 0 0 0 0 0 0 0 0 0 0 0 0 0 0 0 0 0 0 0 0 0 0 0 0 0 0 0 0 0 0 0 0 0 0 0 0 0 0 0 0 791 791 799 799 791 758 743 750 728 707 714 707 700 700 700 700 694 694 707 700 700 714 758 743 774 758 782 758 766 735 750 750 750 735 728 721 721 721 721 721 714 728 735 750 750 743 0 758 758 774 735 728 728 728 735 721 721 721 728 735 721 707 721 721 721 728 728 728 721 728 743 728 728 735 721 721 728 728 721 728 721 707 714 707 707 714 700 728 735 735 735 735 743 743 735 782 721 714 721 721 721 700 694 694 687 694 700 700 714 714 721 743 750 735 743 743 750 743 743 774 728 728 782 758 758 750 758 750 750 750 735 743 728 750 774 766 766 774 766 766 758 774 750 721 728 714 700 700 714 728 735 758 758 766 774 791 766 750 774 774 758 766 766 766 758 758 774 750 750 782 750 750 758 766 743 750 774 774 758 743 750 743 735 735 728 714 707 707 707 694 694 700 707 707 707 714 700 707 700 694 694 694 687 669 663 675 687 687 681 687 687 687 694 687 700 700 714 714 714 714 714 714 721 714 714 707 707 694 687 634 645 629 0 603 603 603 598 598 603 588 584 598 557 566 566 566 0 0 0 0 0
    0 0 0 0 0 0 0 0 0 0 0 0 0 0 0 0 0 0 0 0 0 0 0 0 0 0 0 0 0 0 0 0 0 0 0 0 0 0 0 0 0 0 0 0 0 0 0 0 0 0 0 0 0 0 0 0 0 0 0 0 0 0 0 0 0 0 0 0 0 791 791 799 799 782 750 743 743 728 714 714 714 707 700 700 700 694 694 700 687 681 687 700 700 728 714 743 735 735 728 735 735 743 728 721 721 721 721 721 721 714 721 721 735 735 0 0 735 743 750 728 728 721 721 728 721 714 721 721 728 714 700 707 714 714 721 714 714 714 714 721 714 714 714 707 707 721 721 714 714 714 707 707 707 700 707 694 721 721 728 728 728 728 728 728 774 714 707 714 714 714 700 700 694 694 694 700 700 714 714 721 735 743 728 743 735 735 735 735 750 721 714 750 728 728 728 735 728 735 728 721 735 721 743 766 758 758 766 758 758 743 750 735 714 714 707 700 694 700 714 721 735 735 743 766 782 766 750 774 766 750 766 758 758 743 743 758 735 735 766 735 743 750 758 743 750 766 766 750 743 750 743 735 735 721 707 707 707 707 694 694 694 700 700 707 714 700 700 694 694 687 694 681 669 669 675 687 687 681 681 681 681 687 681 694 700 707 714 714 714 714 714 714 707 707 700 700 694 681 634 651 623 0 603 603 603 598 598 598 584 584 593 549 561 561 561 0 0 0 0 0
    0 0 0 0 0 0 0 0 0 0 0 0 0 0 0 0 0 0 0 0 0 0 0 0 0 0 0 0 0 0 0 0 0 0 0 0 0 0 0 0 0 0 0 0 0 0 0 0 0 0 0 0 0 0 0 0 0 0 0 0 0 0 0 0 0 0 0 0 0 791 782 791 799 782 743 743 750 728 714 721 714 707 700 700 700 694 694 700 687 675 681 700 694 700 700 714 714 714 714 721 721 728 721 721 721 721 728 728 721 714 721 714 728 714 0 0 714 721 728 714 721 714 714 721 714 714 707 714 721 714 694 707 707 707 714 707 707 707 707 714 707 707 707 700 700 707 707 707 707 707 700 707 700 700 707 694 721 721 721 721 721 721 728 721 758 707 700 707 707 714 694 694 694 687 687 700 700 707 707 714 728 728 721 728 721 721 721 721 728 714 700 728 714 707 714 714 707 714 707 714 721 714 743 766 750 758 758 743 743 735 728 721 700 700 700 694 694 700 700 714 721 728 735 758 774 766 743 774 766 743 758 758 750 735 735 743 728 728 750 728 735 743 758 743 750 758 758 750 743 743 735 728 735 721 707 707 700 700 694 687 694 694 694 700 700 694 681 681 681 675 681 681 669 669 681 687 687 681 681 681 675 687 681 694 694 700 707 707 707 707 707 707 700 700 700 700 694 681 0 651 623 598 598 598 598 593 593 593 584 579 588 549 557 557 557 0 0 0 0 0
    0 0 0 0 0 0 0 0 0 0 0 0 0 0 0 0 0 0 0 0 0 0 0 0 0 0 0 0 0 0 0 0 0 0 0 0 0 0 0 0 0 0 0 0 0 0 0 0 0 0 0 0 0 0 0 0 0 0 0 0 0 0 0 0 0 0 0 0 0 758 758 766 774 758 735 735 750 728 714 721 714 707 700 700 700 694 694 700 687 675 681 694 694 700 694 707 700 694 700 700 707 714 714 714 721 728 735 735 728 721 721 714 728 0 687 0 700 0 0 0 0 707 714 714 707 707 700 714 714 707 687 700 700 700 700 700 700 700 700 707 700 700 700 694 694 700 700 700 700 700 700 700 700 700 707 700 714 714 721 721 714 721 721 721 743 707 707 700 707 707 687 681 681 675 681 687 687 694 694 707 714 721 707 721 714 707 707 714 707 700 694 714 700 694 707 707 700 700 694 694 707 707 735 758 750 758 750 735 735 721 721 714 700 700 694 694 694 700 700 714 721 728 735 758 774 766 743 774 766 735 750 750 735 728 728 728 721 721 735 721 728 735 750 735 750 750 750 743 735 743 735 728 728 714 700 700 700 700 687 687 687 687 687 694 687 681 663 663 663 663 669 663 657 663 675 681 687 681 681 681 675 681 687 694 694 700 700 700 700 707 707 700 694 700 694 694 687 675 0 645 623 593 598 593 593 588 593 593 584 579 588 545 553 553 0 0 0 0 0 0
    0 0 0 0 0 0 0 0 0 0 0 0 0 0 0 0 0 0 0 0 0 0 0 0 0 0 0 0 0 0 0 0 0 0 0 0 0 0 0 0 0 0 0 0 0 0 0 0 0 0 0 0 0 0 0 0 0 0 0 0 0 0 0 0 0 0 0 0 0 714 721 728 728 728 707 721 735 721 707 714 707 707 700 700 700 694 694 700 681 663 669 687 675 681 663 681 669 663 675 681 687 694 700 707 714 728 735 735 728 721 721 714 0 700 681 0 687 700 694 694 694 707 707 707 700 700 700 707 714 707 687 700 700 700 700 700 694 694 694 700 694 694 694 694 694 700 700 700 707 707 700 707 700 700 707 700 714 707 714 714 714 714 714 714 735 700 707 700 700 700 681 675 681 675 675 681 681 687 687 700 707 707 700 707 700 700 700 700 694 694 687 700 700 694 707 700 694 687 681 681 694 694 721 735 735 743 743 728 728 714 707 707 694 694 694 694 694 700 700 714 714 721 728 750 758 750 735 758 750 728 735 735 728 714 714 714 714 707 721 714 721 728 743 728 743 750 743 735 735 743 728 728 728 707 700 700 700 694 681 681 681 681 681 694 681 669 657 657 657 663 651 651 645 657 663 681 681 675 669 675 669 675 687 694 694 694 707 707 707 707 707 700 694 700 694 694 687 663 0 639 618 588 593 593 593 588 588 588 579 579 584 541 545 545 0 0 0 0 0 0
    0 0 0 0 0 0 0 0 0 0 0 0 0 0 0 0 0 0 0 0 0 0 0 0 0 0 0 0 0 0 0 0 0 0 0 0 0 0 0 0 0 0 0 0 0 0 0 0 0 0 0 0 0 0 0 0 0 0 0 0 0 0 0 0 0 0 0 0 0 687 687 707 700 707 694 707 714 707 700 714 707 707 694 700 694 694 694 694 681 651 657 681 669 657 634 651 634 634 651 657 663 669 681 694 700 721 728 728 728 721 721 0 0 700 675 687 681 694 681 687 687 694 694 694 687 694 687 700 700 700 675 687 694 700 700 700 694 694 694 700 694 694 694 694 694 700 700 707 707 707 707 707 707 707 707 700 707 707 714 0 0 0 0 714 728 707 714 707 707 700 687 681 681 675 675 681 681 681 687 694 700 700 694 700 694 694 694 694 694 694 687 700 700 694 707 694 694 681 675 675 681 681 694 0 721 728 735 714 714 707 700 700 694 694 694 687 694 700 694 707 700 707 714 735 743 735 728 735 735 721 728 721 707 700 694 700 700 700 707 707 714 721 735 728 743 735 735 728 728 728 721 714 721 700 687 694 694 694 681 675 675 675 669 687 669 657 645 651 657 657 645 645 645 651 657 669 675 663 657 669 657 663 675 681 681 681 687 687 694 707 714 707 700 700 700 694 687 651 0 629 613 584 588 588 588 584 588 588 579 579 579 541 545 0 0 0 0 0 0 0
    0 0 0 0 0 0 0 0 0 0 0 0 0 0 0 0 0 0 0 0 0 0 0 0 0 0 0 0 0 0 0 0 0 0 0 0 0 0 0 0 0 0 0 0 0 0 0 0 0 0 0 0 0 0 0 0 0 0 0 0 0 0 0 0 0 0 0 0 0 663 663 675 675 687 675 700 707 700 700 707 700 700 694 694 694 694 694 694 675 645 651 675 663 634 618 629 623 629 634 639 639 639 657 669 669 714 721 721 714 721 721 0 0 700 681 681 675 0 675 681 681 694 694 687 0 681 675 687 694 687 657 675 687 687 687 694 687 687 687 694 687 694 694 694 694 700 700 700 707 707 707 707 707 707 700 694 707 700 0 0 0 0 0 714 728 707 707 707 700 694 681 675 675 669 669 681 681 675 681 694 694 694 687 694 694 687 694 694 687 694 687 700 700 694 700 694 687 681 675 669 669 663 669 675 0 707 714 707 707 700 694 700 694 694 687 687 694 694 694 700 694 700 707 721 728 728 721 721 721 714 714 707 694 687 681 694 694 694 700 700 707 714 728 721 743 728 728 721 721 714 714 707 707 694 681 687 687 687 681 681 675 675 669 681 663 657 645 651 657 663 645 645 651 651 651 663 663 651 645 657 645 639 657 663 657 645 657 657 657 687 707 700 694 694 694 681 669 629 0 618 613 579 588 588 588 584 584 584 579 579 574 541 541 0 0 0 0 0 0 0
    0 0 0 0 0 0 0 0 0 0 0 0 0 0 0 0 0 0 0 0 0 0 0 0 0 0 0 0 0 0 0 0 0 0 0 0 0 0 0 0 0 0 0 0 0 0 0 0 0 0 0 0 0 0 0 0 0 0 0 0 0 0 0 0 0 0 0 0 0 651 645 651 657 675 657 694 700 694 694 707 700 700 687 694 694 687 694 687 669 639 639 663 634 618 608 613 613 623 629 629 629 629 639 651 645 707 714 714 700 707 700 0 700 694 675 681 663 0 0 669 669 681 681 0 0 675 657 681 681 669 639 663 669 675 675 687 681 675 681 687 681 687 687 694 687 700 700 700 707 707 707 707 700 700 700 687 700 694 700 700 700 700 0 0 728 707 700 694 681 681 669 669 675 669 669 675 681 675 681 687 694 694 687 694 694 687 694 694 687 687 687 700 694 687 700 687 687 675 669 663 663 651 657 651 669 681 694 687 694 694 687 694 687 687 687 687 687 694 687 700 694 694 700 714 721 728 721 714 721 707 707 694 681 675 669 681 687 687 694 694 700 707 721 721 735 721 707 707 707 700 700 694 700 694 675 687 687 687 681 675 675 675 669 681 657 651 645 645 645 651 634 634 645 639 645 651 657 645 639 651 639 629 645 645 634 623 629 629 629 645 687 669 663 675 675 657 639 618 603 608 603 574 588 588 588 584 584 584 579 579 574 541 541 0 0 0 0 0 0 0
    0 0 0 0 0 0 0 0 0 0 0 0 0 0 0 0 0 0 0 0 0 0 0 0 0 0 0 0 0 0 0 0 0 0 0 0 0 0 0 0 0 0 0 0 0 0 0 0 0 0 0 0 0 0 0 0 0 0 0 0 0 0 0 0 0 0 0 0 0 639 634 639 639 657 639 681 687 675 681 700 694 694 687 687 694 681 687 681 657 634 629 634 623 618 608 618 613 618 623 629 629 629 634 639 634 694 687 687 657 657 651 663 669 669 651 657 639 0 645 657 651 657 663 0 651 657 639 651 651 639 629 639 651 651 657 675 663 663 675 681 681 681 687 687 687 694 700 700 707 707 707 700 700 700 700 681 694 687 694 694 694 694 694 700 707 694 687 681 657 657 651 651 663 657 657 675 675 669 681 687 694 694 687 694 694 687 694 687 681 681 681 687 687 681 694 681 681 669 669 663 669 651 657 645 657 675 694 681 681 694 687 687 687 687 681 681 687 694 681 700 694 694 707 721 721 721 721 714 714 700 700 687 669 669 663 681 681 687 694 694 694 700 714 721 728 700 694 687 694 687 687 687 694 687 669 687 687 687 681 675 675 675 669 681 651 651 645 645 639 634 623 623 634 623 629 629 634 629 629 634 629 618 639 629 623 618 623 623 623 634 663 639 645 651 663 634 623 613 593 603 593 570 588 584 584 579 584 579 574 579 570 545 545 0 0 0 0 0 0 0
    0 0 0 0 0 0 0 0 0 0 0 0 0 0 0 0 0 0 0 0 0 0 0 0 0 0 0 0 0 0 0 0 0 0 0 0 0 0 0 0 0 0 0 0 0 0 0 0 0 0 0 0 0 0 0 0 0 0 0 0 0 0 0 0 0 0 0 0 0 634 634 634 634 639 629 645 645 629 629 669 675 681 675 675 681 669 681 663 645 623 618 623 608 613 608 613 613 618 623 629 629 629 629 634 629 681 663 663 639 639 639 645 651 651 645 645 634 651 634 639 645 645 651 639 639 639 629 634 634 629 623 629 634 634 639 663 657 657 669 669 675 681 681 681 681 694 700 700 707 707 707 700 700 700 694 669 687 681 687 681 687 687 681 687 694 669 663 651 629 634 629 634 645 645 645 663 663 663 675 687 687 687 687 694 687 675 687 681 675 675 675 681 675 669 687 675 675 663 663 651 651 634 634 629 629 657 687 669 675 687 681 681 681 681 675 675 675 687 669 694 681 681 700 714 721 721 721 714 714 700 694 687 663 663 657 675 681 681 687 694 694 700 707 714 707 681 675 669 669 669 669 675 681 681 663 681 681 687 681 675 675 669 669 675 645 645 639 639 634 623 618 618 623 613 618 613 618 623 623 634 629 618 634 623 623 618 629 629 629 634 651 634 639 639 645 623 613 603 593 598 588 574 588 588 584 584 584 579 579 579 566 549 549 549 0 0 0 0 0 0
    0 0 0 0 0 0 0 0 0 0 0 0 0 0 0 0 0 0 0 0 0 0 0 0 0 0 0 0 0 0 0 0 0 0 0 0 0 0 0 0 0 0 0 0 0 0 0 0 0 0 0 0 0 0 0 0 0 0 0 0 0 0 0 0 0 0 0 0 0 634 634 629 629 634 623 0 623 613 613 623 629 645 639 645 651 634 645 634 623 613 608 608 603 608 603 608 608 618 623 623 629 629 629 634 629 675 651 657 634 639 639 639 645 645 639 639 634 0 634 634 639 639 639 634 634 634 623 629 623 618 618 623 623 629 629 651 645 645 663 651 657 675 675 675 675 681 687 700 707 700 700 694 694 694 687 651 675 669 675 675 675 675 669 669 675 634 629 629 613 618 618 618 629 634 639 651 657 657 669 681 681 681 681 687 681 669 681 669 663 669 669 669 663 657 681 669 663 651 645 639 634 623 623 618 618 645 675 663 663 687 675 681 681 675 669 663 669 675 657 681 669 663 681 707 714 721 714 707 714 694 694 681 657 657 651 669 675 681 687 687 687 694 700 700 681 663 657 651 657 657 657 663 675 675 663 681 681 681 681 675 669 669 663 669 639 639 639 634 629 618 613 613 618 608 608 608 613 618 618 634 629 618 634 623 623 618 623 629 623 629 629 613 618 613 618 608 598 598 593 593 588 579 588 588 588 584 588 579 584 579 566 553 553 553 549 0 0 0 0 0
    0 0 0 0 0 0 0 0 0 0 0 0 0 0 0 0 0 0 0 0 0 0 0 0 0 0 0 0 0 0 0 0 0 0 0 0 0 0 0 0 0 0 0 0 0 0 0 0 0 0 0 0 0 0 0 0 0 0 0 0 0 0 0 0 0 0 0 0 0 634 629 629 629 634 623 0 623 608 613 613 613 623 618 618 618 613 613 613 613 608 603 608 603 613 608 608 608 618 623 623 623 629 629 634 629 669 639 645 634 634 634 634 639 639 634 634 629 0 0 634 634 634 634 629 629 623 618 623 623 618 618 618 618 623 623 634 634 634 639 629 634 651 657 657 657 663 669 675 694 687 681 669 669 675 669 634 663 657 657 657 657 657 651 645 651 613 613 613 603 608 608 613 623 629 634 639 645 651 669 681 675 675 681 681 675 663 675 663 657 657 663 663 651 651 669 657 645 639 634 629 623 618 618 618 618 639 663 657 657 681 675 675 675 675 657 651 657 663 639 657 645 639 651 700 707 707 707 700 714 694 694 675 645 645 639 663 669 675 681 681 687 694 694 694 663 651 645 639 645 645 645 651 669 675 657 681 681 681 681 669 669 669 669 669 639 639 639 639 634 623 618 613 613 603 603 608 613 618 613 623 618 613 629 618 618 613 618 618 618 618 613 603 603 598 603 593 593 593 593 588 588 584 593 588 588 584 584 574 584 579 561 557 557 557 553 0 0 0 0 0
    0 0 0 0 0 0 0 0 0 0 0 0 0 0 0 0 0 0 0 0 0 0 0 0 0 0 0 0 0 0 0 0 0 0 0 0 0 0 0 0 0 0 0 0 0 0 0 0 0 0 0 0 0 0 0 0 0 0 0 0 0 0 0 0 0 0 0 0 0 629 629 629 629 634 618 0 623 608 608 613 608 613 613 608 0 598 608 613 0 0 613 613 618 618 618 618 613 623 623 623 623 629 0 0 0 669 634 634 629 629 629 634 634 634 634 629 623 0 0 629 629 629 623 623 623 618 618 618 618 618 618 618 618 618 623 623 629 623 623 618 623 629 639 645 645 639 645 639 663 645 645 629 634 634 629 618 645 639 639 639 645 639 634 634 634 608 608 608 598 598 603 608 0 623 629 634 639 645 669 675 675 669 675 681 669 651 669 657 645 651 651 651 639 645 663 645 634 629 629 623 618 618 618 618 618 639 651 645 645 669 663 663 669 663 639 634 634 639 629 634 629 629 629 687 694 700 700 687 707 681 681 663 634 639 634 651 663 669 675 675 681 687 687 681 634 634 634 629 629 634 634 639 651 663 645 675 681 681 675 669 669 669 669 669 645 639 639 634 629 613 608 608 608 598 598 603 608 608 618 618 618 608 623 613 613 613 613 613 613 618 608 598 598 593 598 593 588 593 588 588 588 584 593 593 588 588 584 574 584 579 557 557 557 557 557 0 0 0 0 0
    0 0 0 0 0 0 0 0 0 0 0 0 0 0 0 0 0 0 0 0 0 0 0 0 0 0 0 0 0 0 0 0 0 0 0 0 0 0 0 0 0 0 0 0 0 0 0 0 0 0 0 0 0 0 0 0 0 0 0 0 0 0 0 0 0 0 0 0 0 629 629 629 629 629 618 0 613 603 603 603 603 598 603 598 0 0 0 613 0 0 613 623 623 629 629 623 618 629 629 629 629 629 629 0 629 669 634 634 629 629 629 634 634 634 634 629 629 634 634 634 629 629 623 618 618 618 613 613 613 618 618 618 618 618 618 623 623 623 618 613 618 618 623 629 634 634 629 623 629 618 623 613 613 613 613 608 629 629 629 634 634 629 629 629 629 608 608 608 593 593 593 598 603 613 613 618 623 634 663 675 669 669 675 675 657 639 651 645 639 639 639 639 634 639 651 634 623 0 618 618 618 613 613 613 618 634 639 639 634 645 645 645 651 639 618 618 618 623 618 623 623 623 623 675 675 694 694 669 687 645 657 639 623 629 623 639 651 663 669 669 669 675 675 663 623 623 623 623 623 623 629 629 639 657 639 669 675 681 675 663 669 663 663 663 639 639 634 629 623 608 608 603 603 598 598 603 608 608 618 618 618 613 623 618 618 613 618 613 613 613 603 593 598 588 593 588 588 593 593 588 588 588 593 593 588 588 584 574 584 579 557 561 561 561 557 0 0 0 0 0
    0 0 0 0 0 0 0 0 0 0 0 0 0 0 0 0 0 0 0 0 0 0 0 0 0 0 0 0 0 0 0 0 0 0 0 0 0 0 0 0 0 0 0 0 0 0 0 0 0 0 0 0 0 0 0 0 0 0 0 0 0 0 0 0 0 0 0 0 0 629 629 629 629 629 618 0 608 598 598 593 579 570 574 0 0 0 0 0 0 0 0 0 623 629 634 629 618 634 629 629 629 634 634 634 634 675 634 639 634 634 634 634 634 634 634 629 629 634 629 629 623 623 618 618 618 613 613 613 613 618 618 618 618 618 623 623 623 623 618 613 613 608 613 0 629 623 623 618 618 613 618 608 613 608 608 603 623 623 623 629 629 629 623 623 629 608 603 608 593 593 588 593 593 603 603 608 608 618 629 657 651 657 663 663 639 629 639 634 629 629 629 629 629 634 645 629 618 608 608 613 613 613 608 608 618 629 634 629 629 634 634 629 629 623 608 608 613 613 618 618 618 618 623 657 651 681 681 651 645 623 629 629 618 623 618 629 634 651 651 657 657 657 657 639 613 618 618 618 618 618 623 623 634 651 639 663 669 675 669 663 663 663 663 663 639 639 629 623 613 603 603 598 598 598 598 598 608 603 608 603 608 603 613 608 608 608 613 613 608 608 598 593 593 593 593 593 593 598 598 593 593 593 598 593 588 584 584 570 584 579 553 561 561 561 561 0 0 0 0 0
    0 0 0 0 0 0 0 0 0 0 0 0 0 0 0 0 0 0 0 0 0 0 0 0 0 0 0 0 0 0 0 0 0 0 0 0 0 0 0 0 0 0 0 0 0 0 0 0 0 0 0 0 0 0 0 0 0 0 0 0 0 0 0 0 0 0 0 0 0 629 629 629 629 629 618 618 608 593 598 588 561 553 553 0 0 561 0 0 0 0 0 629 629 629 639 634 618 634 634 634 634 634 634 634 634 681 634 639 634 634 634 634 629 634 629 629 629 629 623 623 618 618 618 613 613 608 608 608 613 618 618 618 618 618 623 618 623 623 618 613 613 608 613 0 623 618 618 618 613 613 618 608 613 608 608 603 623 623 623 623 623 623 623 618 623 603 603 603 593 593 588 588 593 598 598 603 598 608 613 639 639 645 651 651 629 623 629 629 629 623 623 623 623 629 639 623 608 603 603 603 603 603 603 603 608 618 629 623 623 623 623 623 623 618 603 603 608 608 613 613 613 613 613 639 634 657 663 629 623 613 608 618 613 618 613 618 618 629 634 645 634 634 634 623 0 618 618 618 613 618 618 618 629 639 634 657 663 669 657 657 663 657 657 651 634 634 629 618 608 598 598 593 598 593 593 593 603 593 598 588 593 584 593 593 593 603 608 603 608 608 598 593 598 593 598 598 598 598 603 598 598 598 598 593 588 584 579 566 579 570 553 561 566 566 561 0 0 0 0 0
    0 0 0 0 0 0 0 0 0 0 0 0 0 0 0 0 0 0 0 0 0 0 0 0 0 0 0 0 0 0 0 0 0 0 0 0 0 0 0 0 0 0 0 0 0 0 0 0 0 0 0 0 0 0 0 0 0 0 0 0 0 0 0 0 0 0 0 0 0 629 629 634 629 629 618 618 608 593 593 574 553 549 541 529 533 549 0 593 598 613 618 623 629 629 634 634 623 639 634 634 634 634 639 634 634 681 634 645 634 634 634 629 629 629 629 623 623 623 618 618 613 618 613 613 613 603 608 608 608 613 613 618 618 618 623 623 623 623 618 613 608 608 608 0 613 613 618 618 618 618 618 608 608 608 608 603 623 623 618 623 623 623 623 618 618 603 603 603 593 593 588 593 593 603 598 603 598 608 608 634 634 634 639 634 618 618 623 629 623 623 623 618 618 629 634 618 603 593 598 598 598 603 598 598 608 613 623 618 623 623 618 618 618 613 593 598 603 608 608 608 613 613 613 629 623 639 634 613 608 603 603 613 608 613 603 608 613 618 623 634 623 623 623 618 0 613 618 613 613 613 618 618 623 639 629 645 651 657 645 645 651 651 651 645 629 629 623 608 608 598 598 593 593 593 593 593 598 593 593 570 579 566 574 574 584 598 598 598 603 603 593 593 593 593 598 598 598 603 603 598 593 598 593 588 584 574 574 561 574 561 549 561 561 561 561 0 0 0 0 0
    0 0 0 0 0 0 0 0 0 0 0 0 0 0 0 0 0 0 0 0 0 0 0 0 0 0 0 0 0 0 0 0 0 0 0 0 0 0 0 0 0 0 0 0 0 0 0 0 0 0 0 0 0 0 0 0 0 0 0 0 0 0 0 0 0 0 0 0 0 629 634 634 634 629 618 618 608 593 0 566 545 545 537 525 529 541 541 557 566 574 603 613 613 618 629 634 618 634 634 634 629 634 639 634 634 681 634 645 639 634 634 629 623 623 623 613 613 0 0 608 603 608 603 598 603 593 598 603 603 613 608 613 613 618 623 623 623 623 613 613 608 603 603 603 608 603 613 613 613 613 613 603 608 603 603 603 618 618 618 623 623 618 618 618 618 603 603 603 588 593 588 593 593 603 598 603 603 608 613 629 623 623 629 623 618 618 623 623 623 623 618 618 623 629 629 618 603 593 598 598 598 598 598 598 608 613 623 618 623 618 613 618 613 608 588 603 603 608 608 613 613 613 613 629 618 634 629 613 608 608 603 603 598 603 598 598 603 608 613 623 613 613 613 613 598 608 608 608 608 613 613 613 613 629 623 634 634 645 639 639 645 639 639 639 629 629 618 603 603 598 598 593 593 593 593 593 598 588 584 557 566 557 561 561 570 593 588 588 598 598 584 588 593 588 593 593 598 598 603 593 598 598 593 588 579 570 570 561 570 553 549 561 561 561 561 0 0 0 0 0
    0 0 0 0 0 0 0 0 0 0 0 0 0 0 0 0 0 0 0 0 0 0 0 0 0 0 0 0 0 0 0 0 0 0 0 0 0 0 0 0 0 0 0 0 0 0 0 0 0 0 0 0 0 0 0 0 0 0 0 0 0 0 0 0 0 0 0 0 0 629 634 634 629 629 613 613 608 584 0 557 545 545 537 529 533 541 537 549 553 553 579 588 603 613 623 629 618 634 634 634 634 634 639 634 634 675 629 634 634 629 623 613 0 613 613 603 598 0 0 593 579 584 566 574 579 570 584 593 593 608 603 608 613 613 623 618 623 623 613 608 603 598 593 593 598 588 603 603 608 608 608 603 603 603 603 598 613 613 613 618 618 618 618 618 613 603 598 603 588 593 588 593 593 603 598 603 603 608 613 623 618 618 623 618 613 613 618 623 623 623 618 618 623 629 629 618 608 598 603 598 598 598 593 598 608 613 618 618 623 618 618 618 618 608 588 603 603 608 608 613 613 613 618 629 623 634 634 613 613 608 598 598 588 593 588 588 593 598 598 608 603 603 603 603 588 603 603 608 603 608 608 608 608 623 618 623 623 634 629 634 634 634 634 634 623 623 613 593 603 598 598 593 593 593 593 593 603 588 574 553 561 553 553 557 561 574 574 574 593 584 574 579 584 584 588 593 598 598 603 593 593 588 588 579 566 557 557 553 561 549 549 561 561 561 557 0 0 0 0 0
    0 0 0 0 0 0 0 0 0 0 0 0 0 0 0 0 0 0 0 0 0 0 0 0 0 0 0 0 0 0 0 0 0 0 0 0 0 0 0 0 0 0 0 0 0 0 0 0 0 0 0 0 0 0 0 0 0 0 0 0 0 0 0 0 0 0 0 0 0 623 629 629 629 623 608 608 598 566 570 553 545 545 537 533 533 541 541 545 549 545 557 561 588 593 613 629 618 634 634 634 629 634 639 629 629 669 618 0 0 0 0 598 0 598 593 588 584 0 0 574 561 557 553 557 557 553 566 579 574 603 603 608 613 613 618 618 618 618 608 608 598 588 584 584 588 579 593 598 603 603 608 593 598 598 598 593 608 613 613 613 618 613 618 613 613 603 598 598 584 588 584 588 593 598 593 598 598 603 608 613 613 613 623 623 618 618 618 618 623 623 623 623 623 629 629 618 608 598 603 598 598 598 598 598 608 613 618 618 623 623 623 623 623 608 588 603 603 608 608 613 613 613 618 634 623 639 639 618 613 613 603 593 593 588 588 588 593 598 598 603 603 598 598 598 584 603 603 603 603 603 603 608 608 618 608 613 618 623 623 623 629 629 629 623 618 613 608 570 593 593 598 593 593 598 593 593 603 588 570 553 561 553 557 557 566 570 570 574 588 574 574 579 584 579 588 593 598 598 598 593 588 584 579 566 553 549 553 553 557 549 549 557 557 557 557 0 0 0 0 0
    0 0 0 0 0 0 0 0 0 0 0 0 0 0 0 0 0 0 0 0 0 0 0 0 0 0 0 0 0 0 0 0 0 0 0 0 0 0 0 0 0 0 0 0 0 0 0 0 0 0 0 0 0 0 0 0 0 0 0 0 0 0 0 0 0 0 0 0 0 623 623 623 623 613 603 598 584 553 553 545 541 541 537 529 537 541 541 545 545 545 549 549 566 557 0 629 618 634 629 634 629 634 639 629 623 651 608 0 0 0 588 574 570 579 570 566 570 553 0 561 549 545 545 549 549 549 553 561 557 588 588 598 603 608 613 613 613 613 603 598 588 574 566 561 566 561 579 579 598 598 598 588 593 593 588 584 608 608 608 613 613 613 613 613 613 603 598 598 579 584 579 579 588 588 584 588 584 598 593 603 598 598 613 618 613 613 618 618 618 618 618 618 623 629 623 613 608 598 603 598 598 598 598 603 613 613 618 623 623 618 618 623 618 608 588 603 603 608 613 613 613 618 618 639 623 634 639 623 623 618 608 598 593 588 588 588 588 593 598 603 603 593 593 593 584 603 603 603 603 603 603 608 608 618 613 613 613 618 618 618 618 618 618 613 603 603 593 557 588 593 593 593 593 598 593 588 603 584 566 557 561 557 557 557 566 574 570 579 593 584 584 588 588 584 588 598 593 593 593 588 566 553 553 549 541 541 549 549 553 549 549 557 557 557 557 0 0 0 0 0
    0 0 0 0 0 0 0 0 0 0 0 0 0 0 0 0 0 0 0 0 0 0 0 0 0 0 0 0 0 0 0 0 0 0 0 0 0 0 0 0 0 0 0 0 0 0 0 0 0 0 0 0 0 0 0 0 0 0 0 0 0 0 0 0 0 0 0 0 0 608 608 613 608 603 588 584 557 541 541 537 537 533 533 529 533 541 541 545 545 545 549 549 557 549 557 613 613 629 623 629 629 629 634 623 618 0 598 0 0 0 557 553 553 561 557 557 557 549 0 553 545 541 541 545 545 545 545 549 549 570 574 584 593 598 603 603 603 608 593 588 574 557 553 545 553 553 566 557 570 588 588 579 584 584 579 574 603 598 603 608 613 613 613 613 608 598 584 588 566 570 561 561 574 574 570 584 579 593 584 593 579 579 593 603 593 603 603 608 608 608 613 613 618 618 618 608 603 588 0 0 0 593 593 598 608 0 618 618 618 613 618 623 613 603 584 608 608 608 608 613 613 618 618 634 623 634 639 629 629 618 608 593 593 584 588 584 584 593 598 603 603 593 593 593 588 603 603 603 603 603 608 608 608 618 613 613 613 623 618 618 623 623 618 613 603 603 593 557 593 598 598 598 598 598 598 593 603 584 557 557 561 557 557 561 566 566 566 574 593 579 579 579 584 579 588 598 598 593 584 574 553 549 549 545 541 541 549 553 553 545 549 553 553 553 553 0 0 0 0 0
    0 0 0 0 0 0 0 0 0 0 0 0 0 0 0 0 0 0 0 0 0 0 0 0 0 0 0 0 0 0 0 0 0 0 0 0 0 0 0 0 0 0 0 0 0 0 0 0 0 0 0 0 0 0 0 0 0 0 0 0 0 0 0 0 0 0 0 0 0 566 570 574 570 561 561 557 541 541 537 533 533 533 533 529 533 541 541 545 545 545 549 549 553 545 545 598 588 623 613 618 618 618 634 613 608 0 0 0 0 0 545 549 549 553 553 553 553 549 545 545 541 541 537 541 541 541 541 545 545 557 561 570 574 584 588 588 593 603 584 574 566 553 549 541 553 549 553 0 0 570 574 574 579 574 570 566 598 593 598 603 603 603 603 603 603 584 566 570 557 557 553 553 561 561 561 579 579 588 579 588 570 566 579 593 574 588 588 598 598 598 603 608 613 613 608 588 593 0 0 0 0 588 588 593 603 0 0 0 618 613 608 618 608 603 579 603 603 603 603 608 608 613 618 629 618 623 634 629 623 618 613 588 593 588 593 588 588 593 598 598 603 593 588 584 584 603 603 603 603 603 608 608 613 618 618 618 613 623 623 623 623 623 623 613 598 603 593 557 593 603 603 598 598 598 598 593 603 584 553 553 561 561 561 557 561 566 561 574 584 561 566 0 0 545 553 579 574 579 561 549 545 541 545 541 541 541 545 549 549 545 553 553 553 549 549 0 0 0 0 0
    0 0 0 0 0 0 0 0 0 0 0 0 0 0 0 0 0 0 0 0 0 0 0 0 0 0 0 0 0 0 0 0 0 0 0 0 0 0 0 0 0 0 0 0 0 0 0 0 0 0 0 0 0 0 0 0 0 0 0 0 0 0 0 0 0 0 0 0 0 549 549 549 549 541 545 545 537 541 533 529 529 529 533 529 533 541 541 541 545 545 545 545 549 545 545 574 561 598 593 603 608 598 623 0 0 0 0 529 533 537 541 541 541 545 545 545 549 545 541 541 541 537 537 537 541 537 537 541 541 553 557 557 561 561 566 566 579 584 566 561 557 549 545 537 553 549 549 0 0 561 566 570 574 570 566 561 588 588 588 593 593 588 593 588 588 561 553 553 545 549 541 545 545 549 553 570 574 588 579 588 566 561 566 584 561 574 570 584 588 584 588 588 598 593 570 561 566 0 0 574 584 579 584 593 603 0 0 0 608 603 598 603 593 593 566 593 598 598 603 608 608 613 618 618 613 613 618 618 0 570 566 570 584 588 598 593 593 593 598 598 603 593 584 574 579 598 598 603 603 603 608 608 613 618 618 618 613 618 623 618 618 618 613 608 593 598 593 557 598 603 603 598 598 598 598 593 598 579 553 553 561 561 561 557 561 557 561 566 570 549 545 529 525 521 529 533 537 545 541 537 537 537 537 537 541 541 541 549 549 545 557 553 553 549 549 0 0 0 0 0
    0 0 0 0 0 0 0 0 0 0 0 0 0 0 0 0 0 0 0 0 0 0 0 0 0 0 0 0 0 0 0 0 0 0 0 0 0 0 0 0 0 0 0 0 0 0 0 0 0 0 0 0 0 0 0 0 0 0 0 0 0 0 0 0 0 0 0 0 0 545 545 545 545 537 541 541 533 541 537 533 533 533 533 533 537 541 537 541 545 545 545 545 545 545 541 553 549 553 557 561 570 553 0 0 0 0 0 533 533 537 537 541 537 537 541 537 541 541 537 537 533 533 537 533 537 537 537 541 541 549 549 553 553 553 553 549 557 561 549 545 545 541 533 529 545 541 541 0 0 545 553 557 561 557 553 549 579 574 574 579 570 570 570 570 579 549 545 545 541 537 533 533 533 537 541 549 553 574 566 570 557 557 557 570 553 566 557 570 579 570 570 566 570 566 549 549 553 545 557 557 570 570 570 588 598 593 0 598 598 593 579 588 557 574 553 584 593 593 598 603 603 608 618 618 608 598 603 598 584 553 557 561 579 579 593 588 588 588 588 588 598 584 584 570 579 593 598 603 603 598 603 608 608 613 613 613 603 608 613 608 608 603 603 603 584 593 593 557 598 603 603 603 598 598 593 593 598 574 553 553 561 561 561 557 557 553 557 561 557 537 533 521 518 518 525 525 525 533 533 529 533 533 537 537 537 537 541 545 549 545 553 545 545 541 537 0 0 0 0 0
    0 0 0 0 0 0 0 0 0 0 0 0 0 0 0 0 0 0 0 0 0 0 0 0 0 0 0 0 0 0 0 0 0 0 0 0 0 0 0 0 0 0 0 0 0 0 0 0 0 0 0 0 0 0 0 0 0 0 0 0 0 0 0 0 0 0 0 0 0 545 545 545 545 541 541 545 537 545 541 537 537 533 533 533 537 541 537 541 541 541 541 541 541 541 537 541 537 537 537 541 541 537 0 0 537 537 0 537 537 541 541 541 537 541 541 537 541 541 533 537 533 533 537 533 537 537 537 537 537 549 549 545 549 545 545 541 545 545 537 533 533 533 525 525 533 537 533 533 0 537 545 549 549 549 545 541 557 557 557 553 0 0 549 553 561 545 541 541 533 533 533 529 529 533 533 537 541 557 553 553 549 549 549 557 549 553 549 557 561 557 557 553 549 549 537 541 541 537 537 545 549 557 553 588 588 584 588 584 584 579 561 570 549 557 549 566 579 579 584 588 593 598 608 598 574 549 557 537 537 533 537 545 553 557 570 570 570 574 570 570 584 570 574 557 574 593 598 598 598 598 603 603 608 608 603 598 584 584 579 584 574 570 574 574 561 584 588 557 598 603 608 603 598 598 593 593 598 574 553 557 561 561 561 557 553 549 553 557 553 537 533 525 525 525 529 529 529 529 537 529 533 533 533 533 537 537 537 537 549 545 553 545 545 537 533 0 0 0 0 0
    0 0 0 0 0 0 0 0 0 0 0 0 0 0 0 0 0 0 0 0 0 0 0 0 0 0 0 0 0 0 0 0 0 0 0 0 0 0 0 0 0 0 0 0 0 0 0 0 0 0 0 0 0 0 0 0 0 0 0 0 0 0 0 0 0 0 0 0 0 545 545 549 549 545 545 549 541 545 545 541 0 533 533 533 537 545 537 541 541 537 541 541 541 537 533 537 533 529 533 533 533 525 525 529 525 529 529 533 533 537 541 541 537 537 541 533 0 537 529 533 529 533 537 537 537 537 537 0 0 549 545 541 541 541 537 537 541 541 533 533 529 529 525 525 529 529 529 529 533 533 541 541 541 541 541 533 541 541 541 537 537 0 537 541 553 537 537 533 533 533 529 529 525 529 533 537 537 545 545 545 541 541 541 541 537 545 541 545 549 545 545 545 541 537 533 533 533 533 0 537 537 541 541 574 566 566 566 561 561 561 549 553 541 549 545 553 561 553 561 566 579 579 579 557 541 537 537 533 533 533 533 537 537 545 549 549 549 553 549 549 557 553 557 549 566 588 593 598 598 593 598 603 608 603 593 579 553 553 545 553 549 549 549 553 549 566 570 557 598 603 603 603 598 598 593 593 598 574 553 553 557 561 557 557 549 541 545 545 537 525 521 518 518 521 529 525 529 525 537 529 533 533 533 533 533 533 529 529 537 533 537 521 529 521 521 0 0 0 0 0
    0 0 0 0 0 0 0 0 0 0 0 0 0 0 0 0 0 0 0 0 0 0 0 0 0 0 0 0 0 0 0 0 0 0 0 0 0 0 0 0 0 0 0 0 0 0 0 0 0 0 0 0 0 0 0 0 0 0 0 0 0 0 0 0 0 0 0 0 0 545 549 553 553 549 549 553 545 549 545 541 541 533 0 0 537 545 537 541 541 541 541 541 541 537 533 537 529 529 529 529 525 521 521 525 525 525 0 529 529 537 537 537 533 533 0 529 0 533 521 529 521 533 537 537 537 537 537 0 0 553 545 541 541 541 537 537 541 541 533 533 525 529 525 525 525 529 525 529 529 537 541 545 541 541 541 529 537 533 533 529 525 529 529 533 537 529 529 529 529 529 529 525 525 529 529 533 537 537 537 537 537 533 533 533 533 533 533 537 541 541 541 537 533 533 529 529 529 529 533 533 533 537 537 553 549 549 549 549 553 549 545 541 537 545 541 549 549 545 553 553 566 561 549 545 533 533 533 529 529 529 529 533 533 537 537 537 537 541 533 537 541 541 545 537 557 579 588 598 598 588 598 598 603 593 566 557 537 541 529 537 537 537 537 541 541 553 553 557 593 603 603 603 593 593 588 593 593 566 549 553 553 557 553 549 545 537 541 533 529 518 518 518 518 518 525 521 529 525 537 529 537 533 533 533 533 533 533 529 537 533 529 514 525 521 518 0 0 0 0 0
    0 0 0 0 0 0 0 0 0 0 0 0 0 0 0 0 0 0 0 0 0 0 0 0 0 0 0 0 0 0 0 0 0 0 0 0 0 0 0 0 0 0 0 0 0 0 0 0 0 0 0 0 0 0 0 0 0 0 0 0 0 0 0 0 0 0 0 0 0 545 549 553 553 549 549 553 545 553 549 541 541 533 0 0 533 545 537 541 541 541 541 541 541 541 533 537 529 529 529 525 525 518 521 521 525 529 525 529 529 533 537 537 533 533 0 529 0 529 518 529 518 533 533 537 537 537 0 0 107 557 545 545 541 541 537 537 541 541 533 533 525 529 525 525 525 525 525 529 533 537 545 549 545 545 541 529 533 529 529 525 521 525 525 525 533 525 525 525 525 529 525 525 525 525 529 533 533 537 533 533 533 533 529 529 529 529 529 537 537 533 537 537 533 533 529 529 529 529 533 533 529 529 529 533 533 533 537 537 541 541 541 537 537 537 541 545 545 537 545 545 549 545 537 537 529 529 529 529 529 529 529 533 529 533 533 529 529 529 525 529 533 533 537 533 549 566 574 588 588 579 588 588 598 584 549 545 525 529 518 529 525 529 529 533 533 545 541 553 588 598 598 603 593 588 584 588 588 557 545 549 549 553 549 545 537 529 533 525 525 518 518 518 518 521 525 521 533 525 537 529 537 533 533 529 533 533 529 529 533 529 525 514 521 521 518 0 0 0 0 0
    0 0 0 0 0 0 0 0 0 0 0 0 0 0 0 0 0 0 0 0 0 0 0 0 0 0 0 0 0 0 0 0 0 0 0 0 0 0 0 0 0 0 0 0 0 0 0 0 0 0 0 0 0 0 0 0 0 0 0 0 0 0 0 0 0 0 0 0 0 545 545 549 549 545 545 549 545 549 549 541 541 533 529 533 529 545 541 541 541 541 541 541 545 541 537 537 529 533 533 529 525 518 521 525 529 529 525 529 529 533 537 533 529 525 0 525 525 521 518 525 511 529 533 533 537 537 537 0 107 557 545 545 541 541 541 537 541 541 533 533 525 533 525 525 529 525 521 529 533 541 545 549 541 541 541 529 533 529 525 525 521 525 525 525 533 525 525 525 525 525 525 525 525 525 529 533 533 533 533 533 533 529 525 525 525 529 529 533 537 529 533 537 533 533 533 533 529 529 533 533 525 525 525 525 525 525 529 529 533 537 533 529 533 533 533 537 537 529 533 537 541 533 529 529 521 525 525 525 525 525 525 529 529 533 529 525 525 529 525 533 533 533 537 533 545 557 561 570 574 566 570 574 588 561 537 533 518 525 518 521 521 525 525 529 529 537 537 549 584 598 598 603 584 584 579 584 579 549 541 545 545 549 545 541 533 521 529 518 521 514 514 518 518 521 525 521 533 525 537 529 533 529 529 525 529 529 525 525 529 525 518 511 518 518 514 0 0 0 0 0
    0 0 0 0 0 0 0 0 0 0 0 0 0 0 0 0 0 0 0 0 0 0 0 0 0 0 0 0 0 0 0 0 0 0 0 0 0 0 0 0 0 0 0 0 0 0 0 0 0 0 0 0 0 0 0 0 0 0 0 0 0 0 0 0 0 0 0 0 0 545 549 553 553 549 549 553 545 549 553 545 545 537 533 533 529 541 541 541 541 537 541 541 541 541 537 537 533 533 533 529 529 521 521 525 529 533 529 529 529 529 537 529 525 521 521 521 521 518 521 525 511 529 533 533 537 537 537 0 107 561 549 549 545 545 541 541 541 545 537 533 529 533 529 529 529 525 521 529 533 541 545 549 541 541 541 525 533 529 525 525 521 525 525 525 537 525 525 525 525 525 525 525 521 525 529 529 529 529 529 529 529 525 521 514 525 529 529 533 533 525 533 533 533 533 533 533 529 529 533 533 525 525 525 525 525 525 525 525 529 533 529 529 529 529 529 533 533 525 529 529 533 525 525 525 514 525 525 525 525 525 525 529 529 533 529 525 529 529 529 537 537 537 0 537 545 549 553 557 561 557 553 553 566 545 529 529 514 521 514 518 521 521 525 529 529 537 533 545 574 593 588 593 561 561 561 566 557 541 537 537 541 541 541 537 529 518 525 514 518 514 514 514 514 518 525 521 529 521 533 525 521 521 521 518 521 521 521 521 525 521 511 504 514 514 511 0 0 0 0 0
    0 0 0 0 0 0 0 0 0 0 0 0 0 0 0 0 0 0 0 0 0 0 0 0 0 0 0 0 0 0 0 0 0 0 0 0 0 0 0 0 0 0 0 0 0 0 0 0 0 0 0 0 0 0 0 0 0 0 0 0 0 0 0 0 0 0 0 0 0 545 549 553 553 549 549 549 541 545 549 545 545 541 529 533 525 541 541 541 537 537 537 541 541 541 537 537 533 537 537 529 533 525 525 525 529 533 529 529 529 529 533 525 521 518 518 518 518 514 521 525 511 529 533 533 537 537 537 537 0 566 553 557 549 549 545 541 545 545 537 533 529 533 529 525 529 525 525 529 533 537 545 545 537 537 541 521 529 525 525 525 521 525 525 525 537 525 525 521 521 525 521 521 521 521 525 529 529 525 525 525 525 525 518 511 521 525 525 533 533 521 533 533 533 533 533 533 529 529 533 529 525 525 525 525 525 525 525 525 529 533 529 525 529 529 529 529 529 521 521 525 525 521 521 521 514 525 525 525 525 525 525 525 529 533 529 529 529 529 533 533 537 533 0 533 541 541 545 545 545 545 541 541 545 533 518 521 511 521 514 518 518 521 521 525 525 533 529 537 553 579 566 549 541 537 541 545 537 529 529 529 537 537 537 533 521 511 525 511 518 514 514 518 518 521 525 521 529 518 525 507 487 497 504 500 500 507 514 518 518 511 504 500 511 511 507 0 0 0 0 0
    0 0 0 0 0 0 0 0 0 0 0 0 0 0 0 0 0 0 0 0 0 0 0 0 0 0 0 0 0 0 0 0 0 0 0 0 0 0 0 0 0 0 0 0 0 0 0 0 0 0 0 0 0 0 0 0 0 0 0 0 0 0 0 0 0 0 0 0 0 549 549 553 553 549 545 545 537 533 541 541 545 537 521 525 525 541 541 541 537 533 537 537 541 541 537 537 529 537 537 529 529 525 525 521 525 529 525 525 529 525 529 521 518 514 514 514 514 514 521 529 511 529 529 533 537 537 537 537 533 561 553 557 549 549 545 541 545 545 537 533 525 529 525 525 529 525 521 529 533 537 541 545 537 533 541 518 529 525 525 525 521 525 525 525 537 525 525 521 521 521 521 521 521 521 525 529 525 525 525 521 521 521 518 507 518 521 521 529 533 514 529 533 533 533 529 529 529 529 533 529 525 525 525 525 521 525 525 525 529 529 529 525 529 529 525 529 525 521 521 525 525 518 521 518 514 525 521 525 521 525 525 525 529 533 529 529 529 529 529 533 533 533 533 533 537 537 537 0 0 533 529 529 529 521 507 514 507 518 511 514 518 521 521 525 525 529 525 537 537 541 533 529 525 518 521 525 521 521 521 521 529 533 533 529 518 507 521 511 518 514 514 518 518 521 529 521 529 511 514 487 471 481 484 484 487 490 500 504 500 497 493 497 507 504 504 0 0 0 0 0
    0 0 0 0 0 0 0 0 0 0 0 0 0 0 0 0 0 0 0 0 0 0 0 0 0 0 0 0 0 0 0 0 0 0 0 0 0 0 0 0 0 0 0 0 0 0 0 0 0 0 0 0 0 0 0 0 0 0 0 0 0 0 0 0 0 0 0 0 0 549 553 553 553 549 545 541 529 521 525 533 0 537 514 504 500 541 541 541 537 533 533 541 541 541 537 537 525 533 537 529 0 521 0 518 0 521 0 0 0 0 0 0 0 0 511 0 0 0 0 529 511 529 529 533 533 533 537 533 533 557 549 553 549 545 545 541 541 545 537 533 525 529 525 525 529 525 521 529 529 537 541 541 533 533 537 518 529 525 525 525 525 525 525 525 537 525 529 525 521 525 525 525 525 525 529 533 529 529 525 521 521 521 518 514 518 521 521 529 529 511 529 529 533 529 529 529 529 525 0 525 525 521 525 525 521 521 521 525 525 529 525 521 525 529 525 529 525 521 521 525 525 518 521 518 514 521 521 525 521 525 525 525 529 529 529 529 529 529 529 533 533 533 533 529 537 533 533 529 0 525 525 521 518 514 504 511 507 518 507 514 514 518 518 521 521 525 521 533 529 521 511 507 504 497 500 500 497 504 507 507 518 521 521 514 511 500 514 507 514 511 514 514 514 518 529 518 525 500 500 484 474 477 477 477 477 484 490 490 490 487 487 497 504 497 497 0 0 0 0 0
    0 0 0 0 0 0 0 0 0 0 0 0 0 0 0 0 0 0 0 0 0 0 0 0 0 0 0 0 0 0 0 0 0 0 0 0 0 0 0 0 0 0 0 0 0 0 0 0 0 0 0 0 0 0 0 0 0 0 0 0 0 0 0 0 0 0 0 0 0 545 545 553 545 541 541 525 514 497 0 0 511 529 507 0 462 0 0 541 533 529 533 537 541 537 537 533 518 533 541 0 0 0 0 0 0 0 0 0 0 0 0 0 0 0 0 285 287 287 290 0 0 529 529 533 533 533 533 533 529 553 545 553 549 549 545 545 545 545 541 533 525 529 525 0 529 525 525 529 529 537 537 541 533 533 533 518 529 525 529 529 525 529 529 529 537 529 529 529 525 525 525 529 529 525 529 533 529 529 525 525 521 525 521 518 521 525 525 525 529 511 529 529 529 529 529 529 525 525 0 525 521 521 525 521 521 521 521 525 525 529 525 521 525 529 525 529 525 525 521 525 525 518 521 518 514 521 521 521 521 525 525 525 529 533 529 529 529 529 529 533 533 533 533 533 537 533 533 533 533 529 525 521 514 511 504 511 504 518 507 511 514 518 518 521 521 525 518 529 525 518 507 504 504 497 500 497 497 500 497 497 500 500 500 497 500 497 511 504 511 511 511 514 514 514 525 511 521 497 493 484 477 477 477 477 474 477 487 484 484 481 484 493 500 497 493 0 0 0 0 0
    0 0 0 0 0 0 0 0 0 0 0 0 0 0 0 0 0 0 0 0 0 0 0 0 0 0 0 0 0 0 0 0 0 0 0 0 0 0 0 0 0 0 0 0 0 0 0 0 0 0 0 0 0 0 0 0 0 0 0 0 0 0 0 0 0 0 0 0 0 537 0 0 0 0 0 484 0 477 462 0 0 0 493 468 443 0 415 541 529 529 529 541 541 541 537 533 514 537 0 0 0 0 0 299 294 0 295 294 295 294 292 290 289 288 287 286 287 286 289 0 0 0 529 537 533 537 537 529 529 553 549 557 557 557 553 545 545 0 0 0 0 0 0 0 0 1008 0 0 0 0 0 0 0 529 529 514 529 525 529 529 529 529 529 533 537 533 533 529 529 529 529 529 533 529 533 537 533 533 529 529 529 529 529 525 529 529 529 529 529 511 529 529 529 529 525 529 525 525 0 525 525 521 525 521 521 521 521 521 521 525 521 521 525 529 525 529 529 529 525 529 525 521 521 518 514 521 521 521 521 525 521 521 529 533 529 529 529 529 533 533 537 537 537 537 541 537 537 537 537 533 529 525 521 514 511 511 507 514 504 511 511 518 518 518 521 521 518 529 521 518 507 504 504 497 497 497 497 500 497 497 497 500 500 500 500 497 511 507 514 511 514 514 514 514 525 511 518 497 493 481 474 474 474 474 471 474 481 477 477 477 481 487 493 490 487 0 0 0 0 0
    0 0 0 0 0 0 0 0 0 0 0 0 0 0 0 0 0 0 0 0 0 0 0 0 0 0 0 0 0 0 0 0 0 0 0 0 0 0 0 0 0 0 0 0 0 0 0 0 0 0 0 0 0 0 0 0 0 0 0 0 0 0 0 0 0 0 0 0 0 525 500 0 462 465 462 459 457 457 448 454 454 462 462 451 446 0 0 541 521 529 529 541 545 541 541 0 0 0 0 0 0 0 295 296 293 294 294 293 295 293 290 290 289 289 287 285 285 285 286 0 0 0 0 0 533 537 537 529 529 553 549 0 0 0 0 0 0 0 0 0 0 0 0 0 0 1022 0 0 0 0 0 0 0 521 518 500 525 521 525 529 529 533 533 0 545 537 537 533 533 533 533 533 533 0 0 541 537 537 533 529 533 537 537 529 533 533 533 533 533 514 529 525 529 529 525 529 525 525 0 525 525 521 525 525 521 521 521 521 521 525 518 518 525 525 525 529 529 529 525 533 529 521 525 518 514 521 521 525 521 525 521 521 529 529 529 529 533 529 533 537 537 541 541 541 549 541 549 549 549 537 533 533 533 521 518 511 511 514 504 511 511 518 518 518 521 521 518 529 521 518 504 500 500 493 497 497 493 500 497 497 504 504 511 504 507 497 514 511 514 511 514 514 514 514 525 511 507 493 490 481 474 474 474 474 471 477 481 474 474 474 477 481 484 481 481 0 0 0 0 0
    0 0 0 0 0 0 0 0 0 0 0 0 0 0 0 0 0 0 0 0 0 0 0 0 0 0 0 0 0 0 0 0 0 0 0 0 0 0 0 0 0 0 0 0 0 0 0 0 0 0 0 0 0 0 0 0 0 0 0 0 0 0 0 0 0 0 0 0 0 504 477 471 451 454 451 451 451 451 448 454 451 459 454 451 448 440 0 0 497 511 511 529 541 537 537 0 0 0 0 0 0 0 294 293 286 283 286 290 294 292 289 288 0 0 0 0 0 0 0 0 0 0 0 0 537 537 533 525 0 0 0 0 0 0 0 0 0 0 0 0 0 0 0 0 0 1051 981 0 0 0 0 0 0 507 504 0 518 0 0 525 529 0 0 0 553 0 545 541 541 0 0 0 0 0 0 0 0 537 537 529 533 0 541 537 537 537 533 537 537 518 529 525 529 525 525 529 525 525 0 525 525 525 529 529 525 529 529 525 521 525 518 518 521 525 521 525 529 529 525 529 529 521 525 518 518 521 521 525 521 525 525 521 529 529 529 529 533 529 533 533 537 541 545 541 549 545 557 557 553 541 537 537 533 521 521 511 514 518 500 514 514 518 521 521 525 521 518 529 518 521 504 500 500 493 497 497 497 500 500 500 507 507 514 504 507 497 514 511 514 511 514 514 514 514 529 507 500 493 490 481 474 474 474 474 471 477 477 471 471 471 471 471 474 474 474 0 0 0 0 0
    0 0 0 0 0 0 0 0 0 0 0 0 0 0 0 0 0 0 0 0 0 0 0 0 0 0 0 0 0 0 0 0 0 0 0 0 0 0 0 0 0 0 0 0 0 0 0 0 0 0 0 0 0 0 0 0 0 0 0 0 0 0 0 0 0 0 0 0 0 481 465 462 448 451 451 451 451 451 448 451 451 457 454 448 446 440 446 0 477 490 484 487 511 514 0 0 0 0 0 0 0 296 294 290 283 0 283 288 294 292 292 288 0 487 477 0 0 0 0 0 0 0 0 541 537 533 529 514 0 0 0 0 0 0 0 0 0 0 0 0 0 0 0 0 0 1066 968 0 0 0 0 0 0 0 0 0 0 0 0 0 0 0 0 0 561 553 0 557 0 0 0 0 0 0 0 549 541 0 0 0 0 0 557 0 549 545 537 537 541 525 529 525 529 525 525 525 525 521 0 0 529 529 533 533 0 533 537 529 525 525 518 521 525 529 525 529 533 533 533 533 533 525 529 521 521 525 521 525 525 525 525 521 533 529 529 529 533 529 533 533 537 537 541 541 553 549 557 557 553 545 537 537 529 521 521 514 518 521 500 518 514 521 521 521 525 521 518 529 518 521 507 504 504 497 497 500 500 504 504 504 504 504 511 500 507 493 514 514 514 511 514 514 518 514 529 507 493 0 490 481 474 474 474 474 471 474 474 468 471 471 471 468 471 468 468 0 0 0 0 0
    0 0 0 0 0 0 0 0 0 0 0 0 0 0 0 0 0 0 0 0 0 0 0 0 0 0 0 0 0 0 0 0 0 0 0 0 0 0 0 0 0 0 0 0 0 0 0 0 0 0 0 0 0 0 0 0 0 0 0 0 0 0 0 0 0 0 0 0 0 468 459 457 448 448 448 448 448 448 448 451 448 454 451 448 443 440 443 454 459 468 462 465 474 481 0 0 0 0 0 0 296 295 293 289 285 285 284 286 0 292 293 0 0 474 457 457 454 459 465 0 0 0 0 533 525 518 504 490 0 0 0 0 0 0 0 0 0 0 0 0 0 0 0 0 0 1022 0 0 0 0 0 0 0 0 0 0 0 0 0 521 529 533 0 0 561 557 0 570 0 0 0 0 0 0 0 553 545 0 0 0 0 0 0 0 0 553 541 545 545 529 529 525 529 525 525 525 525 521 0 0 0 0 0 0 0 0 545 533 529 529 521 521 525 529 529 533 537 537 533 537 537 533 533 525 525 525 521 525 525 525 525 521 533 529 529 529 533 529 529 529 537 537 541 541 553 553 557 557 553 541 537 537 529 525 521 518 521 521 500 521 514 521 521 518 521 521 518 529 511 518 504 500 504 500 497 500 500 507 504 504 507 504 507 497 507 493 514 514 514 511 514 514 518 514 529 511 493 493 497 487 477 474 474 471 471 477 474 468 471 471 471 468 468 468 468 0 0 0 0 0
    0 0 0 0 0 0 0 0 0 0 0 0 0 0 0 0 0 0 0 0 0 0 0 0 0 0 0 0 0 0 0 0 0 0 0 0 0 0 0 0 0 0 0 0 0 0 0 0 0 0 0 0 0 0 0 0 0 0 0 0 0 0 0 0 0 0 0 0 0 462 457 457 448 448 448 448 448 448 448 454 451 457 454 448 443 440 443 446 443 443 443 443 446 454 451 443 440 440 0 0 0 0 0 0 0 0 0 0 0 0 0 0 462 459 448 448 446 448 451 457 454 0 471 500 493 0 0 0 0 0 0 0 0 0 0 0 0 0 0 0 0 0 0 0 0 981 0 0 0 0 0 0 0 0 0 0 0 0 0 500 511 521 0 553 561 0 0 0 0 0 0 0 0 0 0 566 0 0 0 0 0 0 0 0 0 0 545 549 545 533 533 525 525 525 525 525 525 521 0 0 533 533 0 0 0 629 549 537 533 529 525 525 529 529 529 533 537 537 537 541 541 533 537 529 529 525 521 521 525 525 525 525 529 521 525 521 533 529 529 529 537 541 553 553 561 557 557 553 549 541 541 537 533 529 525 521 521 529 500 521 518 521 521 518 521 518 518 529 507 514 504 500 504 497 497 500 504 504 504 500 507 504 507 500 507 490 514 514 514 511 511 514 518 514 529 507 493 493 497 487 477 474 474 471 471 477 474 468 471 471 471 468 468 468 468 0 0 0 0 0
    0 0 0 0 0 0 0 0 0 0 0 0 0 0 0 0 0 0 0 0 0 0 0 0 0 0 0 0 0 0 0 0 0 0 0 0 0 0 0 0 0 0 0 0 0 0 0 0 0 0 0 0 0 0 0 0 0 0 0 0 0 0 0 0 0 0 0 0 0 462 454 457 448 448 448 451 451 451 451 454 451 457 457 451 443 440 440 443 440 438 435 435 435 440 440 435 435 438 440 0 0 0 0 0 0 0 0 225 0 0 451 454 459 454 446 446 446 448 448 448 446 448 448 471 459 0 0 0 0 0 0 0 0 0 0 0 0 0 0 0 0 0 0 0 0 0 0 0 0 0 0 0 0 0 0 0 0 468 468 474 477 0 0 549 557 0 0 0 0 0 0 7359 0 0 0 0 0 0 1247 1314 1314 1291 1291 1338 0 0 0 0 549 537 533 525 525 521 525 529 525 0 0 0 0 0 0 0 0 629 553 533 533 529 525 525 525 529 529 533 541 541 541 549 545 541 541 529 529 521 518 518 521 525 521 521 533 507 514 511 533 529 533 537 545 553 570 566 579 566 566 557 549 541 541 541 537 533 533 521 525 529 507 525 518 521 521 518 518 518 518 529 511 518 507 500 507 504 500 500 504 504 504 500 504 504 507 500 504 490 514 514 518 511 514 514 518 514 529 504 493 493 493 484 477 474 477 474 471 474 474 474 477 477 474 471 471 471 471 0 0 0 0 0
    0 0 0 0 0 0 0 0 0 0 0 0 0 0 0 0 0 0 0 0 0 0 0 0 0 0 0 0 0 0 0 0 0 0 0 0 0 0 0 0 0 0 0 0 0 0 0 0 0 0 0 0 0 0 0 0 0 0 0 0 0 0 0 0 0 0 0 0 0 459 454 454 448 448 451 451 451 451 451 457 451 459 457 451 446 446 443 443 440 438 435 438 435 438 438 435 435 435 440 443 0 438 0 0 0 0 230 0 0 448 454 454 457 454 446 448 448 448 448 448 446 446 446 457 446 446 0 0 0 0 0 0 0 0 0 0 0 0 0 0 0 0 0 0 0 0 0 0 0 0 0 0 0 0 0 0 448 451 451 454 451 454 465 0 0 0 0 0 0 0 0 0 0 0 0 0 0 0 1362 1415 1388 1362 1415 1471 0 0 0 0 545 541 533 525 525 518 521 525 525 518 0 0 0 0 0 0 0 0 549 525 525 525 518 521 525 521 525 529 545 541 541 545 545 541 541 525 529 514 511 511 514 521 518 514 525 490 481 484 518 521 529 537 541 549 561 557 570 561 561 557 549 541 541 541 541 537 533 525 521 529 507 529 521 521 521 518 518 518 521 533 518 0 0 0 0 0 511 500 500 500 504 500 500 500 504 497 507 490 514 518 514 511 511 511 514 511 525 500 490 490 490 484 477 477 477 474 474 477 474 477 477 477 474 468 468 471 468 0 0 0 0 0
    0 0 0 0 0 0 0 0 0 0 0 0 0 0 0 0 0 0 0 0 0 0 0 0 0 0 0 0 0 0 0 0 0 0 0 0 0 0 0 0 0 0 0 0 0 0 0 0 0 0 0 0 0 0 0 0 0 0 0 0 0 0 0 0 0 0 0 0 0 459 454 457 448 451 451 451 451 451 451 457 451 459 457 454 451 451 446 446 443 440 440 440 440 440 438 438 438 438 443 443 440 438 440 440 0 0 0 448 448 448 454 454 459 454 446 451 448 451 448 451 448 448 448 454 446 446 451 448 0 0 0 0 0 0 0 0 0 0 0 0 0 0 0 0 0 0 0 468 0 0 0 0 0 0 0 446 443 446 446 446 443 443 448 454 435 0 0 0 0 0 0 0 0 0 0 0 0 0 1565 1635 1565 1635 1635 1672 0 0 0 0 0 0 529 514 514 500 521 537 525 521 0 525 0 0 0 0 0 0 537 511 500 504 504 511 518 514 518 521 541 533 533 533 521 500 507 490 514 500 497 500 500 511 504 500 500 481 477 477 484 497 507 521 525 541 549 549 561 553 553 549 545 0 0 0 0 0 0 0 518 529 514 529 521 521 521 518 514 514 521 533 0 1187 1098 0 0 0 0 0 493 493 500 493 493 0 0 0 507 493 514 514 514 511 511 511 514 511 521 497 487 487 487 484 481 477 477 474 474 481 474 477 477 477 477 468 468 468 462 0 0 0 0 0
    0 0 0 0 0 0 0 0 0 0 0 0 0 0 0 0 0 0 0 0 0 0 0 0 0 0 0 0 0 0 0 0 0 0 0 0 0 0 0 0 0 0 0 0 0 0 0 0 0 0 0 0 0 0 0 0 0 0 0 0 0 0 0 0 0 0 0 0 0 459 454 459 448 451 451 454 451 454 454 457 451 459 457 457 454 457 448 448 448 446 443 446 443 443 440 438 438 438 440 443 440 438 443 443 448 448 454 451 451 451 457 454 459 451 446 451 451 451 451 451 448 446 448 457 446 446 451 448 446 0 0 0 0 0 0 0 451 454 451 448 446 454 459 462 465 471 471 462 457 459 0 0 448 440 440 443 443 446 446 446 443 443 446 451 440 443 0 0 0 0 0 0 0 0 0 0 451 0 0 1795 1752 1839 0 0 0 0 0 0 465 468 474 471 454 459 440 0 0 0 0 0 0 0 0 0 0 0 0 490 481 481 481 490 500 497 493 493 521 500 484 484 471 468 465 465 471 481 477 487 481 493 493 493 490 477 471 465 465 481 477 487 481 484 521 537 557 545 0 0 0 0 0 0 0 0 0 0 507 0 525 533 525 525 525 518 514 511 0 0 0 1132 0 0 0 0 0 0 0 487 493 0 0 0 0 0 0 490 511 514 511 507 507 504 511 507 521 500 487 490 487 487 481 477 481 474 474 477 474 474 477 477 474 468 468 465 457 0 0 0 0 0
    0 0 0 0 0 0 0 0 0 0 0 0 0 0 0 0 0 0 0 0 0 0 0 0 0 0 0 0 0 0 0 0 0 0 0 0 0 0 0 0 0 0 0 0 0 0 0 0 0 0 0 0 0 0 0 0 0 0 0 0 0 0 0 0 0 0 0 0 0 462 454 459 451 454 454 454 454 454 454 459 454 462 459 459 457 457 448 451 451 448 446 446 443 443 440 440 438 438 440 443 440 440 446 446 454 451 457 454 451 454 457 454 459 451 446 451 451 451 448 448 448 446 448 457 448 448 454 451 448 451 459 459 462 457 454 451 454 457 454 451 448 454 457 459 462 468 465 457 451 454 446 448 446 440 440 443 446 446 446 448 446 446 451 454 443 446 446 443 0 0 0 0 0 0 446 454 454 448 446 0 0 0 0 0 0 465 462 459 459 459 465 462 448 454 443 438 457 451 446 446 448 451 448 454 0 0 462 471 465 462 462 468 465 471 468 459 457 465 462 468 454 454 451 451 454 465 468 471 459 477 484 487 484 474 465 451 451 468 462 465 462 465 468 468 0 514 0 0 471 0 0 0 0 0 0 0 0 0 541 541 533 529 521 514 500 497 0 0 0 1098 0 0 0 0 0 0 0 484 490 0 477 471 0 0 490 487 507 514 511 507 504 504 511 507 521 500 487 487 487 487 484 477 477 474 471 474 468 471 474 471 468 457 454 454 446 0 0 0 0 0
    0 0 0 0 0 0 0 0 0 0 0 0 0 0 0 0 0 0 0 0 0 0 0 0 0 0 0 0 0 0 0 0 0 0 0 0 0 0 0 0 0 0 0 0 0 0 0 0 0 0 0 0 0 0 0 0 0 0 0 0 0 0 0 0 0 0 0 0 0 459 454 459 451 454 454 454 454 454 457 459 454 462 459 459 457 459 451 451 454 451 446 446 443 443 440 440 438 438 440 443 443 440 446 446 457 451 457 454 454 454 457 454 457 448 446 448 448 448 446 448 446 446 451 454 451 451 457 457 454 454 462 462 465 457 454 451 451 454 454 451 448 451 454 457 459 462 459 457 451 451 446 448 446 440 440 446 446 448 448 448 446 448 451 454 446 446 446 446 446 448 443 0 0 448 443 448 451 448 446 448 448 0 454 462 457 459 457 457 457 454 462 459 448 454 446 440 454 451 448 446 446 448 446 448 457 446 448 454 451 448 448 454 446 454 448 443 440 443 448 457 448 448 446 448 448 451 457 457 448 462 474 477 474 471 462 448 448 459 457 454 454 454 448 451 462 477 454 446 451 454 448 0 0 0 0 0 0 0 561 545 541 529 514 497 0 0 0 0 0 0 0 0 0 0 0 0 454 448 474 0 454 446 0 465 477 477 504 511 504 500 497 497 504 507 518 497 487 484 484 487 481 477 477 471 468 471 462 468 471 462 454 443 438 440 435 0 0 0 0 0
    0 0 0 0 0 0 0 0 0 0 0 0 0 0 0 0 0 0 0 0 0 0 0 0 0 0 0 0 0 0 0 0 0 0 0 0 0 0 0 0 0 0 0 0 0 0 0 0 0 0 0 0 0 0 0 0 0 0 0 0 0 0 0 0 0 0 0 0 0 457 451 459 451 454 454 454 454 454 454 459 454 462 459 462 462 465 454 451 457 454 451 448 443 443 440 440 440 438 440 443 443 440 446 448 459 454 459 454 454 454 459 454 457 448 446 451 451 448 446 448 446 446 451 454 451 451 457 459 457 457 462 462 465 457 454 451 448 451 451 451 448 448 451 451 457 462 459 459 451 451 448 448 448 440 440 446 446 448 448 448 446 448 451 454 443 446 446 443 446 446 443 0 440 440 440 446 446 446 443 446 448 448 451 457 451 454 454 454 454 451 459 457 451 454 446 440 454 448 448 446 443 446 443 446 451 443 446 448 446 446 446 451 446 451 446 443 443 443 446 448 446 446 446 446 446 446 451 451 446 454 468 465 468 465 462 446 446 454 454 451 448 451 443 446 451 462 443 435 440 443 440 0 0 0 0 0 0 0 0 588 0 525 0 454 440 443 0 0 0 0 0 0 0 0 0 462 443 440 448 443 446 443 443 454 454 451 493 497 497 493 490 490 493 497 507 490 481 481 481 481 481 474 474 471 468 468 459 471 471 454 443 435 432 438 432 0 0 0 0 0
    0 0 0 0 0 0 0 0 0 0 0 0 0 0 0 0 0 0 0 0 0 0 0 0 0 0 0 0 0 0 0 0 0 0 0 0 0 0 0 0 0 0 0 0 0 0 0 0 0 0 0 0 0 0 0 0 0 0 0 0 0 0 0 0 0 0 0 0 0 454 448 457 448 454 454 454 454 454 454 459 454 465 459 465 462 465 457 451 454 454 451 451 443 446 440 443 443 443 443 446 446 443 446 448 459 454 457 451 451 454 459 454 457 446 446 451 451 448 446 448 448 446 454 454 451 451 457 459 454 457 459 459 462 454 451 446 446 446 448 446 446 446 446 448 457 459 459 457 454 451 448 448 451 443 440 446 446 448 448 448 446 448 451 454 446 446 446 446 446 446 443 440 440 440 440 443 443 443 443 446 446 448 451 454 451 451 451 454 451 448 454 454 451 451 446 440 451 446 448 443 443 443 440 443 446 440 443 443 443 443 443 451 446 454 446 446 446 443 443 446 443 443 443 443 443 446 451 448 446 451 462 462 459 459 459 446 446 451 451 448 446 448 443 443 448 457 440 438 438 440 440 0 0 0 0 0 0 0 0 0 0 0 446 443 440 443 0 0 0 0 0 0 0 0 0 451 440 438 440 440 443 440 440 448 448 448 477 484 487 484 484 477 481 487 493 481 477 474 471 468 474 471 468 465 459 459 454 465 465 446 438 432 430 435 432 0 0 0 0 0
    0 0 0 0 0 0 0 0 0 0 0 0 0 0 0 0 0 0 0 0 0 0 0 0 0 0 0 0 0 0 0 0 0 0 0 0 0 0 0 0 0 0 0 0 0 0 0 0 0 0 0 0 0 0 0 0 0 0 0 0 0 0 0 0 0 0 0 0 0 454 448 454 448 454 454 454 454 454 457 462 454 465 454 462 459 462 457 451 454 457 454 454 448 448 446 446 446 446 446 446 446 443 446 448 454 457 454 451 454 459 462 457 462 446 448 451 451 448 446 448 448 446 454 451 451 451 457 459 457 457 465 459 468 457 451 446 443 443 443 443 440 440 446 446 457 457 459 457 454 448 448 448 448 443 440 446 443 446 448 448 446 446 451 454 446 448 448 446 446 446 443 440 440 440 440 440 443 443 440 446 446 446 451 451 448 451 451 451 451 446 451 448 448 448 443 438 448 443 446 443 443 443 440 443 446 440 443 443 443 443 443 448 446 457 448 448 446 443 443 446 443 443 443 443 443 443 448 448 446 448 457 459 457 457 459 446 443 451 448 446 446 446 440 443 443 451 438 438 438 440 440 438 0 0 0 0 0 0 0 0 0 443 440 440 438 440 438 0 0 0 0 0 454 0 0 446 440 435 438 438 440 438 438 446 443 443 451 462 471 471 474 468 462 474 481 474 468 457 448 443 459 462 457 454 451 448 448 457 454 438 432 430 425 435 432 0 0 0 0 0
    0 0 0 0 0 0 0 0 0 0 0 0 0 0 0 0 0 0 0 0 0 0 0 0 0 0 0 0 0 0 0 0 0 0 0 0 0 0 0 0 0 0 0 0 0 0 0 0 0 0 0 0 0 0 0 0 0 0 0 0 0 0 0 0 0 0 0 0 0 454 448 454 448 454 457 454 457 454 457 462 454 465 451 459 459 459 457 451 457 459 457 457 451 451 448 448 446 448 446 446 446 443 446 448 454 462 454 454 459 462 465 457 465 446 448 451 451 448 446 448 448 446 454 451 451 451 457 462 459 459 465 459 468 0 0 0 0 0 440 440 438 440 446 446 457 457 457 454 454 448 446 446 448 440 438 443 443 446 446 448 446 446 451 454 446 448 448 446 446 446 443 443 440 440 440 440 443 443 440 446 446 446 451 451 448 448 448 451 448 443 448 446 446 446 443 435 443 440 443 440 443 443 440 443 446 440 446 443 443 443 443 448 443 451 446 446 443 440 440 443 443 443 443 443 443 446 451 451 446 451 459 462 459 457 459 446 443 451 448 446 446 446 443 443 446 454 438 440 440 440 440 440 438 438 435 0 0 0 0 0 435 435 435 435 438 440 440 440 0 0 446 446 451 451 443 443 438 435 438 438 440 438 438 443 440 440 446 446 454 451 465 457 446 459 468 462 457 443 440 432 440 443 443 440 443 443 443 443 440 435 430 427 422 432 430 0 0 0 0 0
    0 0 0 0 0 0 0 0 0 0 0 0 0 0 0 0 0 0 0 0 0 0 0 0 0 0 0 0 0 0 0 0 0 0 0 0 0 0 0 0 0 0 0 0 0 0 0 0 0 0 0 0 0 0 0 0 0 0 0 0 0 0 0 0 0 0 0 0 0 451 448 454 448 457 457 454 457 454 457 459 454 462 448 457 457 457 457 454 457 459 459 457 451 451 448 448 448 448 446 446 446 443 448 451 457 462 457 457 465 465 468 454 465 446 446 451 448 448 446 446 448 446 454 448 448 451 454 462 459 459 465 457 465 0 0 0 430 432 435 438 438 440 446 448 459 457 459 454 454 448 448 443 446 440 438 443 443 446 446 448 448 446 451 454 448 451 448 448 446 446 443 446 443 440 440 440 443 443 440 446 446 448 448 448 446 448 448 448 448 443 446 446 443 446 443 435 443 440 443 440 440 440 440 443 446 443 446 443 443 443 443 448 443 448 443 446 440 440 440 443 440 443 443 443 443 446 451 451 448 451 459 462 459 459 462 446 443 448 448 446 446 446 443 443 448 459 440 443 440 443 440 440 440 438 432 435 432 0 432 432 432 432 432 432 435 440 440 440 438 438 440 443 448 448 440 440 438 438 438 438 440 438 438 443 440 440 443 443 446 443 457 451 443 451 459 454 451 443 438 430 432 438 438 435 435 435 438 435 435 432 425 427 422 430 430 0 0 0 0 0
    0 0 0 0 0 0 0 0 0 0 0 0 0 0 0 0 0 0 0 0 0 0 0 0 0 0 0 0 0 0 0 0 0 0 0 0 0 0 0 0 0 0 0 0 0 0 0 0 0 0 0 0 0 0 0 0 0 0 0 0 0 0 0 0 0 0 0 0 0 451 451 454 451 457 457 457 457 457 457 459 457 462 448 454 454 454 457 454 457 457 459 457 454 454 448 448 448 448 446 446 446 446 448 454 459 462 462 459 471 471 471 457 468 446 446 448 448 446 446 446 446 443 451 448 448 448 454 462 459 459 459 457 459 0 0 0 432 432 435 438 438 440 446 448 457 457 457 454 454 448 448 443 446 440 440 443 443 446 446 448 448 448 454 454 451 457 451 451 448 448 446 446 443 440 443 440 443 443 443 443 446 446 448 446 443 443 446 446 446 440 443 446 443 448 443 432 440 438 443 440 440 440 438 440 446 443 446 440 440 440 443 446 440 446 443 446 443 440 440 443 443 443 443 443 443 446 451 451 448 451 459 462 457 457 465 443 443 448 448 446 446 448 446 443 451 462 443 451 446 446 443 443 443 438 435 438 435 0 435 435 435 435 435 435 438 440 443 443 443 440 443 443 448 448 440 440 438 438 438 438 438 438 438 440 440 440 440 440 443 440 443 440 435 435 440 440 438 438 435 430 432 435 435 432 435 432 432 432 432 430 420 425 420 430 427 0 0 0 0 0
    0 0 0 0 0 0 0 0 0 0 0 0 0 0 0 0 0 0 0 0 0 0 0 0 0 0 0 0 0 0 0 0 0 0 0 0 0 0 0 0 0 0 0 0 0 0 0 0 0 0 0 0 0 0 0 0 0 0 0 0 0 0 0 0 0 0 0 0 0 448 448 454 448 457 457 457 457 457 457 459 457 459 446 451 451 448 454 451 454 454 459 457 454 454 448 451 448 451 448 446 448 446 448 454 457 459 459 459 471 471 471 454 468 446 446 448 448 446 446 446 448 443 451 448 448 448 454 462 459 457 454 454 454 451 0 0 432 435 435 440 438 440 443 446 454 454 454 454 454 448 448 446 448 440 443 446 443 446 448 448 448 448 454 454 451 457 454 451 448 448 448 448 446 443 443 443 443 443 443 443 446 446 446 443 440 440 443 443 443 440 443 446 446 451 443 432 440 438 443 440 440 440 438 440 446 443 443 440 443 440 443 446 443 446 443 446 443 443 443 443 443 443 443 443 443 446 451 448 451 451 459 459 459 459 465 443 443 448 446 446 446 448 446 446 454 465 446 454 446 446 443 443 440 435 432 435 0 0 0 435 435 438 438 438 438 440 440 443 443 443 440 443 446 446 440 440 438 438 438 438 438 438 438 440 440 440 440 440 440 440 440 435 432 432 435 435 432 432 430 427 432 432 432 432 432 432 430 430 427 427 415 425 420 427 427 0 0 0 0 0
    0 0 0 0 0 0 0 0 0 0 0 0 0 0 0 0 0 0 0 0 0 0 0 0 0 0 0 0 0 0 0 0 0 0 0 0 0 0 0 0 0 0 0 0 0 0 0 0 0 0 0 0 0 0 0 0 0 0 0 0 0 0 0 0 0 0 0 0 0 443 446 451 446 454 454 454 457 454 454 457 454 457 443 448 448 446 451 448 451 451 457 454 454 451 448 451 448 451 448 446 448 446 448 454 454 457 454 454 471 468 465 451 462 446 446 448 448 446 446 446 448 446 454 451 448 451 454 459 459 457 454 457 454 454 446 438 435 435 435 440 438 443 440 443 451 451 454 454 457 448 446 443 448 440 443 446 446 448 448 448 451 448 457 454 448 459 451 448 448 446 448 448 446 443 443 443 446 446 443 443 446 446 446 440 440 440 440 443 443 440 443 443 0 451 443 430 438 438 440 438 438 438 435 438 443 443 443 440 440 440 440 446 443 446 443 446 443 443 443 443 443 440 443 443 443 446 448 448 448 451 457 459 459 457 465 446 443 448 446 446 446 448 446 446 454 465 448 454 443 443 440 440 438 432 430 435 0 0 0 438 438 438 440 438 440 440 440 446 446 443 440 440 446 446 440 440 438 438 438 438 438 438 438 440 438 440 440 440 440 440 440 435 432 435 435 435 432 432 432 430 432 432 432 432 432 432 430 432 427 425 413 425 420 427 427 0 0 0 0 0
    0 0 0 0 0 0 0 0 0 0 0 0 0 0 0 0 0 0 0 0 0 0 0 0 0 0 0 0 0 0 0 0 0 0 0 0 0 0 0 0 0 0 0 0 0 0 0 0 0 0 0 0 0 0 0 0 0 0 0 0 0 0 0 0 0 0 0 0 0 440 446 448 446 454 454 454 454 454 457 457 454 457 443 448 448 446 448 448 448 448 454 451 451 448 448 448 448 448 448 446 451 448 451 451 451 457 451 448 468 465 459 446 459 443 446 448 448 446 446 446 448 446 451 451 448 451 454 462 459 457 454 457 454 454 446 438 435 435 438 443 443 446 443 446 451 448 451 448 454 448 443 443 448 440 446 448 446 448 448 448 451 446 457 451 448 459 451 446 446 446 448 448 446 443 446 443 446 446 443 443 443 446 446 440 440 440 440 443 440 438 0 443 443 448 443 430 435 435 440 438 438 438 435 438 443 443 443 438 440 440 443 446 443 446 443 448 443 443 443 443 443 440 443 443 443 446 448 448 448 451 457 457 457 457 459 446 443 446 446 446 446 448 446 446 454 465 451 454 446 440 440 440 440 432 432 435 435 0 443 440 443 443 443 440 440 443 440 446 446 440 438 438 440 443 440 440 438 438 438 438 438 438 438 440 440 440 443 440 440 440 443 438 435 438 438 438 438 438 435 435 438 438 435 435 432 435 432 432 430 427 413 425 422 430 427 0 0 0 0 0
    0 0 0 0 0 0 0 0 0 0 0 0 0 0 0 0 0 0 0 0 0 0 0 0 0 0 0 0 0 0 0 0 0 0 0 0 0 0 0 0 0 0 0 0 0 0 0 0 0 0 0 0 0 0 0 0 0 0 0 0 0 0 0 0 0 0 0 0 0 438 446 451 446 457 457 457 457 457 457 457 454 457 443 446 446 440 446 446 446 446 454 448 448 448 448 448 446 448 448 443 448 446 448 0 0 448 443 0 0 454 448 440 454 443 443 446 448 446 443 446 448 443 448 451 446 448 451 459 459 457 451 454 0 451 0 0 432 435 438 443 443 448 446 448 454 451 451 446 0 446 440 440 448 440 446 446 446 448 448 448 451 446 457 451 451 462 454 448 448 446 451 451 446 446 446 443 446 446 443 443 443 446 443 440 440 438 440 440 440 438 438 438 438 446 440 427 432 432 438 435 438 0 435 435 443 440 443 438 440 438 440 443 443 446 446 448 443 443 443 440 443 440 440 440 443 446 448 446 448 448 454 457 454 454 457 443 443 446 443 443 443 446 443 443 454 465 454 457 446 443 440 440 438 432 432 432 435 438 443 440 440 440 443 438 435 435 438 440 440 435 435 432 438 443 438 440 435 435 438 438 438 438 438 440 438 440 443 440 443 443 446 443 440 443 443 440 438 440 438 438 438 438 435 432 432 432 432 432 430 427 415 425 422 427 427 0 0 0 0 0
    0 0 0 0 0 0 0 0 0 0 0 0 0 0 0 0 0 0 0 0 0 0 0 0 0 0 0 0 0 0 0 0 0 0 0 0 0 0 0 0 0 0 0 0 0 0 0 0 0 0 0 0 0 0 0 0 0 0 0 0 0 0 0 0 0 0 0 0 0 0 451 454 448 457 457 457 459 457 457 457 454 454 443 443 446 438 446 446 446 446 451 446 448 446 451 446 446 446 446 440 446 0 0 0 0 0 0 0 0 454 446 0 451 443 443 446 448 446 443 443 446 443 446 448 443 446 446 457 0 454 448 0 0 0 0 0 0 0 0 0 0 0 0 0 462 451 451 0 0 0 440 440 448 440 446 446 446 446 448 448 451 446 459 451 451 462 457 451 454 448 457 454 448 448 446 446 448 446 446 440 443 446 443 440 440 438 438 438 438 435 435 435 435 443 440 425 432 432 438 435 435 0 432 435 443 440 440 438 438 438 440 440 443 443 443 448 443 440 443 440 440 440 440 440 440 443 448 446 448 448 451 457 454 454 454 443 440 443 443 443 443 443 443 443 454 465 459 459 448 443 440 440 438 432 432 432 435 438 443 440 440 440 443 438 432 432 432 435 438 432 432 430 435 440 438 438 435 435 438 438 438 438 438 440 438 443 443 440 443 443 448 443 440 446 443 440 440 438 438 438 438 438 435 432 430 432 430 432 430 427 415 425 425 427 427 0 0 0 0 0
    0 0 0 0 0 0 0 0 0 0 0 0 0 0 0 0 0 0 0 0 0 0 0 0 0 0 0 0 0 0 0 0 0 0 0 0 0 0 0 0 0 0 0 0 0 0 0 0 0 0 0 0 0 0 0 0 0 0 0 0 0 0 0 0 0 0 0 0 0 430 454 454 448 457 454 454 457 454 454 454 451 451 443 446 446 440 448 448 446 446 451 446 446 443 448 446 446 446 446 438 0 0 0 0 0 0 0 0 0 0 0 0 448 443 0 446 446 446 443 443 446 443 446 448 443 446 448 457 0 454 0 0 0 0 0 0 0 0 0 0 0 0 0 0 0 0 0 0 0 0 0 0 448 440 446 446 446 448 448 448 451 448 462 454 454 462 459 451 454 448 457 454 446 446 448 446 448 448 451 443 443 451 446 440 440 438 438 438 438 435 435 438 438 446 440 427 435 435 438 435 438 0 432 432 440 440 440 435 435 435 438 440 440 443 446 448 443 440 443 440 443 440 440 440 440 443 446 446 448 448 451 457 454 454 454 443 440 443 440 440 440 440 440 443 451 459 457 454 448 443 440 440 438 432 432 432 435 440 443 440 440 440 443 435 432 430 430 435 438 432 432 430 435 438 438 438 432 432 438 438 0 438 0 0 438 440 443 440 443 443 451 446 443 448 443 440 440 440 438 438 438 438 432 430 430 430 430 430 430 427 415 427 425 427 427 0 0 0 0 0
    0 0 0 0 0 0 0 0 0 0 0 0 0 0 0 0 0 0 0 0 0 0 0 0 0 0 0 0 0 0 0 0 0 0 0 0 0 0 0 0 0 0 0 0 0 0 0 0 0 0 0 0 0 0 0 0 0 0 0 0 0 0 0 0 0 0 0 0 0 425 457 454 446 457 451 451 454 451 451 451 448 448 443 448 448 440 451 448 446 446 451 440 443 438 446 443 443 446 446 438 0 0 0 0 0 0 0 0 322 0 0 0 0 0 0 0 446 446 440 443 446 443 446 451 443 446 448 0 0 0 0 0 0 0 0 0 0 0 0 0 0 0 0 0 0 0 0 0 0 0 0 0 448 440 448 448 446 448 448 448 451 448 465 457 457 465 462 457 0 0 0 454 446 448 451 451 454 457 459 448 446 459 448 443 443 440 440 440 440 440 438 440 440 451 443 430 435 438 438 435 435 435 432 432 440 438 438 435 435 435 440 440 440 443 446 448 443 443 446 443 443 440 440 440 440 443 443 443 446 446 451 454 451 451 451 440 440 440 440 438 438 438 438 440 451 457 457 457 448 446 443 443 438 432 432 435 438 443 443 440 440 440 446 438 432 430 430 435 438 435 435 430 432 435 435 435 432 432 438 435 0 438 438 438 438 443 443 438 443 440 446 443 443 446 443 440 443 440 440 438 440 438 432 430 430 430 430 427 427 427 415 427 427 427 427 0 0 0 0 0
    0 0 0 0 0 0 0 0 0 0 0 0 0 0 0 0 0 0 0 0 0 0 0 0 0 0 0 0 0 0 0 0 0 0 0 0 0 0 0 0 0 0 0 0 0 0 0 0 0 0 0 0 0 0 0 0 0 0 0 0 0 0 0 0 0 0 0 0 0 430 448 446 440 448 443 440 446 443 446 446 443 443 440 448 451 443 0 0 0 0 465 438 432 415 0 440 443 446 448 440 0 0 0 0 0 0 319 318 319 321 0 0 0 0 0 0 446 446 440 443 446 443 446 451 443 446 448 0 0 0 0 0 0 0 0 0 0 0 0 0 0 0 0 0 0 0 0 0 0 0 0 0 448 440 448 448 448 448 451 451 451 448 468 459 459 465 0 0 0 1051 0 0 448 454 0 0 459 462 465 451 451 465 451 443 446 440 443 440 0 443 440 446 448 462 446 435 438 438 438 435 438 435 432 432 440 440 438 438 438 438 440 443 446 446 446 451 443 443 448 443 443 443 440 440 440 443 443 443 446 446 451 451 451 451 448 440 440 440 438 438 440 440 440 440 454 457 459 459 454 451 448 448 440 435 438 438 440 443 443 440 440 440 446 438 438 432 432 435 0 438 435 430 432 435 432 435 430 430 435 435 435 435 438 438 438 443 443 438 443 440 443 440 443 446 440 440 443 440 443 440 440 440 432 430 427 430 427 425 427 425 415 427 427 427 427 0 0 0 0 0
    0 0 0 0 0 0 0 0 0 0 0 0 0 0 0 0 0 0 0 0 0 0 0 0 0 0 0 0 0 0 0 0 0 0 0 0 0 0 0 0 0 0 0 0 0 0 0 0 0 0 0 0 0 0 0 0 0 0 0 0 0 0 0 0 0 0 0 0 0 427 440 438 435 440 435 432 435 438 440 432 0 0 0 0 0 0 0 0 0 0 0 0 0 0 353 0 0 0 0 0 0 0 0 0 0 0 321 321 324 327 325 0 0 0 0 0 448 446 440 446 446 443 446 451 446 448 0 0 0 0 0 0 0 0 0 0 0 0 0 0 0 0 0 0 0 0 0 0 0 0 0 0 451 440 446 448 448 448 451 451 451 448 468 462 462 468 0 0 0 1066 1022 0 0 0 0 0 0 465 468 457 457 471 457 448 451 446 446 0 0 0 446 451 457 468 448 438 440 440 440 438 438 435 432 432 440 440 438 438 440 440 443 448 451 451 454 454 443 443 446 443 443 440 440 440 440 443 443 443 446 451 451 451 451 451 446 440 440 440 438 438 438 438 438 440 451 451 454 457 451 451 448 451 443 435 438 438 440 443 443 440 440 438 446 438 438 435 435 435 0 438 435 430 432 432 432 432 427 427 432 432 435 435 435 435 435 440 440 435 438 438 440 440 443 446 443 443 446 443 443 440 440 438 432 430 427 430 427 422 427 425 415 427 427 427 427 0 0 0 0 0
    0 0 0 0 0 0 0 0 0 0 0 0 0 0 0 0 0 0 0 0 0 0 0 0 0 0 0 0 0 0 0 0 0 0 0 0 0 0 0 0 0 0 0 0 0 0 0 0 0 0 0 0 0 0 0 0 0 0 0 0 0 0 0 0 0 0 0 0 0 435 443 440 438 435 427 420 0 0 0 0 0 359 352 357 355 360 360 353 357 359 353 359 352 350 345 343 0 347 0 0 0 0 257 255 0 0 319 321 324 324 321 318 331 331 328 0 0 0 0 0 446 0 443 451 448 448 0 0 0 0 0 0 0 0 0 0 0 7359 0 0 0 0 0 238 237 0 0 0 0 0 0 0 0 438 446 448 448 448 451 448 451 448 471 465 465 468 0 0 1082 1082 1036 1008 0 1008 0 0 0 0 0 465 465 481 465 457 459 451 448 0 0 0 0 454 457 468 448 438 443 443 443 438 438 438 435 435 440 440 438 440 440 440 443 448 454 454 459 459 443 443 446 440 440 440 440 440 440 443 443 446 448 457 454 454 448 448 446 440 438 440 438 438 438 438 438 440 451 451 451 454 451 448 446 448 438 432 435 0 438 440 440 440 440 440 446 440 440 438 438 438 435 438 438 432 432 435 432 432 425 427 432 432 435 435 435 435 435 440 440 435 435 432 438 440 443 446 443 443 446 443 443 438 438 435 432 427 430 430 427 420 427 422 418 427 427 427 427 0 0 0 0 0
    0 0 0 0 0 0 0 0 0 0 0 0 0 0 0 0 0 0 0 0 0 0 0 0 0 0 0 0 0 0 0 0 0 0 0 0 0 0 0 0 0 0 0 0 0 0 0 0 0 0 0 0 0 0 0 0 0 0 0 0 0 0 0 0 0 0 0 0 0 432 0 435 430 422 408 397 0 389 371 0 0 0 0 0 364 366 364 355 359 360 357 360 352 350 347 343 353 348 0 0 0 0 0 0 0 318 321 322 324 324 321 319 322 330 324 0 0 0 0 0 0 0 0 0 0 0 0 0 0 0 0 0 0 0 0 0 0 9199 0 0 0 0 0 663 0 0 0 0 0 0 0 0 0 427 0 443 446 446 448 446 0 0 0 468 0 0 0 0 1149 1132 1066 1036 1036 1036 1008 955 0 0 0 774 0 0 0 0 0 459 454 0 0 0 0 0 457 468 448 440 446 443 443 440 440 440 435 438 440 440 0 440 440 440 446 451 459 459 468 465 446 443 446 440 440 440 440 443 440 443 446 446 451 457 454 448 446 446 443 440 0 440 438 438 438 438 438 440 451 451 454 459 457 454 451 0 0 0 0 0 0 0 443 443 443 443 446 440 440 435 435 435 435 438 438 432 435 435 432 432 425 427 432 432 435 432 435 435 435 440 438 435 435 430 438 440 443 443 443 440 443 443 443 435 432 430 427 422 425 425 425 413 425 420 418 427 427 427 427 0 0 0 0 0
    0 0 0 0 0 0 0 0 0 0 0 0 0 0 0 0 0 0 0 0 0 0 0 0 0 0 0 0 0 0 0 0 0 0 0 0 0 0 0 0 0 0 0 0 0 0 0 0 0 0 0 0 0 0 0 0 0 0 0 0 0 0 0 0 0 0 0 0 0 402 402 411 415 408 399 393 389 387 371 364 360 364 0 0 364 366 364 352 355 359 353 359 350 348 347 347 364 357 350 0 0 0 330 319 0 0 322 328 330 330 325 0 334 337 0 0 283 277 271 0 0 0 0 0 0 0 0 0 0 0 0 0 0 0 0 0 0 0 0 0 0 0 0 0 0 0 0 239 0 0 0 0 0 0 0 0 0 0 0 826 750 700 0 4599 3504 2725 1132 0 1206 1187 1098 1066 1066 1051 1022 1008 0 836 799 758 0 0 0 799 0 0 0 0 0 0 0 0 0 471 451 446 451 448 446 443 443 440 438 438 440 440 0 443 443 443 0 454 459 462 468 465 446 446 446 440 440 443 443 446 443 448 448 448 462 462 454 448 443 0 443 0 0 440 438 438 435 438 438 440 448 446 443 440 440 440 438 440 432 435 435 0 0 440 443 446 443 443 443 438 438 435 432 435 435 438 440 435 438 435 435 438 427 427 432 430 432 432 432 435 435 438 438 432 0 0 432 435 438 438 440 435 438 438 438 430 422 418 418 415 420 422 422 411 425 418 420 430 430 430 427 0 0 0 0 0
    0 0 0 0 0 0 0 0 0 0 0 0 0 0 0 0 0 0 0 0 0 0 0 0 0 0 0 0 0 0 0 0 0 0 0 0 0 0 0 0 0 0 0 0 0 0 0 0 0 0 0 0 0 0 0 0 0 0 0 0 0 0 0 0 0 0 0 0 0 387 395 397 402 402 397 393 391 389 375 367 367 367 366 367 366 366 364 355 357 360 357 359 353 350 350 350 366 360 357 353 0 0 0 0 0 0 0 0 0 0 0 0 0 0 0 0 0 0 0 0 0 0 0 0 0 0 0 0 0 0 0 0 0 0 0 0 0 0 0 0 0 0 0 0 0 0 0 239 242 242 242 242 0 2044 1887 1795 1989 1887 0 0 766 714 0 6133 3345 2453 0 0 1132 1115 1082 1051 1036 1036 1022 1036 1036 855 808 766 782 758 743 758 735 721 721 721 735 714 721 707 645 0 0 0 465 457 448 446 443 443 438 440 443 443 0 0 0 0 0 0 0 465 468 462 446 443 446 440 440 443 443 446 446 451 451 454 465 465 457 451 443 440 440 0 0 440 438 438 435 435 438 435 440 438 435 432 430 432 430 430 430 430 435 0 0 446 448 446 443 443 440 438 440 438 0 0 440 443 446 440 443 440 438 440 430 427 430 430 432 432 432 432 435 438 440 0 0 0 0 430 435 432 0 430 432 430 432 422 413 411 411 411 418 422 422 411 422 415 422 430 432 430 430 0 0 0 0 0
    0 0 0 0 0 0 0 0 0 0 0 0 0 0 0 0 0 0 0 0 0 0 0 0 0 0 0 0 0 0 0 0 0 0 0 0 0 0 0 0 0 0 0 0 0 0 0 0 0 0 0 0 0 0 0 0 0 0 0 0 0 0 0 0 0 0 0 0 0 385 393 395 395 397 395 391 391 391 381 371 369 367 367 369 367 367 366 359 359 362 360 360 357 355 357 357 366 364 360 357 359 0 357 362 360 0 347 347 0 0 0 0 0 342 0 0 0 275 0 0 0 0 0 0 0 0 0 0 0 0 0 0 1268 0 360 359 364 0 0 0 0 0 0 0 1066 1022 1008 0 243 242 241 0 0 1672 1672 1635 1887 1752 2102 1936 0 2453 2628 2374 0 0 0 0 0 1036 1036 1022 994 1022 1036 1066 1098 919 808 750 743 728 707 735 0 0 0 0 728 728 735 721 687 0 0 0 481 471 457 448 446 443 440 443 446 443 0 0 750 707 694 694 0 0 0 462 443 443 446 440 440 440 448 451 448 459 459 462 471 474 459 454 440 0 440 0 0 440 438 438 432 435 435 432 435 432 430 427 425 427 425 427 430 425 438 0 0 454 459 448 446 446 440 435 440 0 0 0 0 0 0 443 446 440 440 440 430 427 430 430 432 432 432 435 0 0 440 0 0 0 0 0 0 430 432 427 432 432 435 425 415 413 415 413 420 427 422 408 422 413 422 432 432 430 430 0 0 0 0 0
    0 0 0 0 0 0 0 0 0 0 0 0 0 0 0 0 0 0 0 0 0 0 0 0 0 0 0 0 0 0 0 0 0 0 0 0 0 0 0 0 0 0 0 0 0 0 0 0 0 0 0 0 0 0 0 0 0 0 0 0 0 0 0 0 0 0 0 0 0 387 393 395 393 395 393 391 387 385 377 369 369 367 367 369 367 367 366 359 360 364 364 364 360 360 362 364 369 366 364 360 360 360 359 359 360 357 357 353 355 353 0 0 0 350 0 0 0 0 0 367 364 0 0 359 0 0 0 0 0 0 0 0 0 362 360 360 364 362 0 0 0 0 0 0 1066 1008 994 994 1008 1008 1008 994 0 0 1599 1635 1989 1839 2164 2044 0 2230 2453 1989 0 0 0 0 799 855 826 826 817 817 0 0 0 0 799 728 0 0 669 0 0 0 477 465 0 0 0 0 0 0 0 0 0 0 477 454 440 435 440 440 446 446 0 0 0 714 687 687 700 0 0 465 438 440 443 438 438 0 465 468 471 484 487 487 0 0 471 457 440 430 0 0 0 443 440 438 432 438 438 432 435 432 427 425 422 427 422 425 427 0 0 0 0 0 465 448 443 443 440 0 0 0 0 0 0 0 0 0 448 443 440 443 430 427 430 430 432 0 0 0 1082 1098 0 0 0 0 0 0 0 425 427 427 432 435 438 430 422 420 425 420 430 430 422 406 415 408 422 430 432 430 430 0 0 0 0 0
    0 0 0 0 0 0 0 0 0 0 0 0 0 0 0 0 0 0 0 0 0 0 0 0 0 0 0 0 0 0 0 0 0 0 0 0 0 0 0 0 0 0 0 0 0 0 0 0 0 0 0 0 0 0 0 0 0 0 0 0 0 0 0 0 0 0 0 0 0 0 387 391 389 391 389 387 381 379 373 367 367 367 367 369 367 367 366 360 362 364 364 364 362 362 364 364 367 366 366 360 360 360 360 359 362 359 362 359 360 360 360 0 0 359 367 366 369 0 369 364 362 364 362 355 0 0 0 0 362 0 362 362 0 362 362 362 364 364 0 0 0 360 353 350 0 0 0 0 353 0 0 0 0 235 235 0 2044 2044 2374 0 651 0 0 0 629 681 681 0 0 826 808 799 799 808 808 0 0 0 782 728 0 0 0 0 0 0 474 462 454 0 0 0 0 0 0 728 663 0 507 471 446 435 440 0 0 0 0 0 0 0 0 0 518 0 0 0 427 395 381 373 364 355 0 0 484 493 507 504 507 0 0 465 0 0 340 330 0 454 448 443 432 440 438 430 432 430 427 422 420 425 420 425 430 0 0 0 0 0 0 0 0 0 0 0 0 0 0 0 2044 0 0 0 0 0 0 448 432 430 430 0 0 1314 0 0 0 0 0 0 0 0 0 0 0 0 427 422 438 438 440 427 420 420 427 420 430 425 408 397 408 404 420 430 432 430 430 0 0 0 0 0
    0 0 0 0 0 0 0 0 0 0 0 0 0 0 0 0 0 0 0 0 0 0 0 0 0 0 0 0 0 0 0 0 0 0 0 0 0 0 0 0 0 0 0 0 0 0 0 0 0 0 0 0 0 0 0 0 0 0 0 0 0 0 0 0 0 0 0 0 0 377 383 385 383 387 383 381 377 377 375 371 369 369 369 369 369 367 366 362 362 364 366 364 362 362 364 364 367 366 364 360 360 362 362 362 364 362 364 362 364 364 364 364 364 362 366 364 367 364 366 360 362 362 360 357 0 0 0 0 364 0 362 364 364 364 362 364 366 364 366 367 364 360 357 355 355 353 0 359 355 352 0 0 0 0 0 362 0 0 0 669 651 634 629 0 639 0 0 0 362 0 799 791 782 791 782 791 774 735 735 0 0 0 0 375 0 0 0 0 373 375 0 0 0 0 0 0 0 0 477 443 0 0 355 343 359 360 362 360 0 0 0 0 0 0 0 0 391 379 367 364 359 348 0 0 474 0 0 0 0 0 0 0 359 340 330 315 0 0 0 0 0 0 427 420 430 427 422 415 413 420 413 420 425 0 0 0 0 0 0 0 0 0 0 0 0 0 0 0 1936 1362 0 0 0 0 0 454 435 0 0 0 1533 1338 0 0 0 0 0 0 0 0 0 0 0 0 0 0 0 454 443 425 404 411 422 0 418 411 399 389 397 402 415 430 430 430 430 0 0 0 0 0</data></depth>
</opencv_storage>
