<?xml version="1.0"?>
<opencv_storage>
<gps_time_stamp>15990</gps_time_stamp>
<gps_x>-7.5240619480609894e-003</gps_x>
<gps_y>3.9159953594207764e-002</gps_y>
<gps_z>-7.9803420230746269e-003</gps_z>
<image_time_stamp>3966</image_time_stamp>
<depth type_id="opencv-matrix">
  <rows>80</rows>
  <cols>320</cols>
  <dt>s</dt>
  <data>
    0 0 0 0 0 0 0 0 0 0 0 0 0 0 0 0 0 0 0 0 0 0 0 0 0 0 0 0 0 0 0 0 0 0 0 0 0 0 0 0 0 0 0 0 0 0 0 0 0 0 0 0 0 0 0 0 0 0 0 0 0 0 0 0 0 0 0 0 0 4599 4329 3873 4088 3873 3679 3504 3679 3873 4088 4088 4599 4599 5256 6133 6690 8177 7359 8177 0 0 0 0 0 0 0 0 0 0 0 0 0 0 0 0 0 0 0 0 8177 7359 6690 6690 6690 8177 4906 6133 6133 7359 0 0 8177 0 0 0 0 0 0 0 0 0 0 0 0 0 0 0 0 0 0 0 8177 8177 8177 7359 8177 7359 7359 7359 7359 7359 0 0 0 0 0 1711 0 0 0 5661 5256 5661 6690 6690 7359 7359 8177 8177 8177 0 0 0 0 0 0 0 0 0 0 0 0 0 0 0 0 0 0 0 0 0 0 0 0 8177 7359 7359 7359 4329 4906 4906 4906 4906 5661 6133 6133 6133 8177 8177 8177 4329 6133 6133 4906 4906 5256 5256 4906 4906 6133 4599 4599 5256 4906 4599 4906 5256 5661 5661 5661 6133 5256 4329 4088 3679 3199 3066 2943 2943 2943 2943 2943 2943 2943 2830 2943 2830 2830 2830 2830 2725 2628 2537 2537 2230 2164 2164 2044 1989 1887 1936 1887 1887 1887 1936 1936 1989 1989 2102 2230 2230 2299 2374 2374 2374 2374 2374 2374 2102 2164 1936 1839 1795 1711 1672 1672 1672 1599 1443 1362 1362 1338 1338 1338 1338 1338 1338 1338 1338 1314 1338 1338 1362 1362 1362 1388 1388 1388 1415 1443 1471 1388 1388 1362 1362 1388 0 0 0 0 0
    0 0 0 0 0 0 0 0 0 0 0 0 0 0 0 0 0 0 0 0 0 0 0 0 0 0 0 0 0 0 0 0 0 0 0 0 0 0 0 0 0 0 0 0 0 0 0 0 0 0 0 0 0 0 0 0 0 0 0 0 0 0 0 0 0 0 0 0 0 4599 4329 3873 4329 3873 3679 3679 3873 4088 4088 4329 4599 4599 5256 6690 6690 8177 7359 0 0 0 0 0 0 0 0 0 0 0 0 0 0 0 0 0 0 0 0 0 0 7359 6690 6690 6690 8177 5256 6690 6690 8177 0 0 0 0 0 0 0 0 0 0 0 0 0 0 0 0 0 0 0 0 0 0 0 0 8177 8177 8177 8177 8177 8177 8177 8177 0 0 0 0 0 1795 0 0 0 5256 4906 5256 6690 6690 6690 7359 7359 8177 8177 0 0 8177 0 0 0 0 0 0 0 0 0 0 0 0 0 0 0 0 0 0 0 0 0 0 8177 7359 8177 4599 4906 4906 4906 5256 5661 6133 6133 6133 8177 8177 8177 5256 6133 6690 5256 5256 5256 5661 4906 4906 6133 4599 4906 4906 4906 4906 4906 5661 5661 5661 5661 5661 5256 4329 4088 3679 3066 2943 2830 2830 2943 2943 2943 2943 2943 2830 2943 2943 2943 2830 2830 2725 2628 2537 2537 2299 2230 2164 2044 1989 1887 1936 1839 1839 1887 1936 1936 1989 1989 2164 2230 2230 2299 2374 2374 2374 2374 2374 2374 2164 2164 1936 1839 1752 1711 1672 1635 1635 1565 1443 1362 1362 1338 1362 1362 1338 1338 1338 1338 1362 1338 1362 1314 1362 1362 1362 1388 1388 1388 1415 1415 1443 1362 1362 1338 1362 1362 0 0 0 0 0
    0 0 0 0 0 0 0 0 0 0 0 0 0 0 0 0 0 0 0 0 0 0 0 0 0 0 0 0 0 0 0 0 0 0 0 0 0 0 0 0 0 0 0 0 0 0 0 0 0 0 0 0 0 0 0 0 0 0 0 0 0 0 0 0 0 0 0 0 0 4599 4329 4088 4599 4088 3873 3873 4088 4329 4329 4599 4906 5256 5661 6690 7359 8177 8177 0 0 0 0 0 0 0 0 0 0 0 0 0 0 0 0 0 0 0 0 0 0 8177 7359 7359 7359 8177 5661 7359 7359 0 0 0 0 0 0 0 0 0 0 0 0 0 0 0 0 0 0 0 0 0 0 0 0 0 0 8177 0 8177 0 0 0 8177 8177 6133 0 6690 0 2102 0 0 0 5256 4906 5256 6133 6133 6690 6690 7359 7359 7359 8177 0 8177 0 0 0 0 0 0 0 0 0 0 0 0 0 0 0 0 0 0 0 0 0 0 8177 8177 0 4599 4906 4906 4906 5256 5661 6133 6133 6133 8177 8177 8177 4906 6133 6690 5661 5256 5256 5661 4906 5256 6133 4906 4906 4906 5256 4906 4906 5661 5661 5661 5661 5661 5256 4599 4088 3679 3066 2943 2830 2830 2830 2830 2943 2943 2943 2725 2830 2943 2943 2830 2725 2725 2628 2537 2628 2374 2299 2164 2044 2044 1936 1936 1887 1887 1887 1936 1936 1989 1989 2164 2164 2230 2299 2374 2374 2374 2374 2374 2374 2164 2102 1887 1795 1711 1635 1599 1533 1533 1501 1415 1362 1362 1338 1338 1338 1338 1338 1338 1338 1362 1338 1338 1314 1338 1338 1362 1362 1362 1362 1388 1388 1415 1362 1338 1338 1338 1362 0 0 0 0 0
    0 0 0 0 0 0 0 0 0 0 0 0 0 0 0 0 0 0 0 0 0 0 0 0 0 0 0 0 0 0 0 0 0 0 0 0 0 0 0 0 0 0 0 0 0 0 0 0 0 0 0 0 0 0 0 0 0 0 0 0 0 0 0 0 0 0 0 0 0 4599 4329 4088 4599 4088 4088 3873 4329 4599 4329 4599 4906 4906 5661 6133 6690 8177 7359 0 0 0 0 0 0 0 0 0 0 0 0 0 0 0 0 0 0 0 0 0 0 8177 8177 7359 7359 0 6690 8177 8177 0 0 0 0 0 0 0 0 0 0 0 0 0 0 0 0 0 0 0 0 0 0 0 0 0 0 0 0 0 0 0 0 8177 8177 5661 0 7359 3679 2537 0 0 0 5661 4906 5256 6133 6133 6690 6690 6690 7359 7359 8177 0 8177 0 0 0 0 0 0 0 0 0 0 0 0 0 0 0 0 0 0 0 0 0 0 8177 8177 0 4906 5256 5256 5256 4906 5661 5661 5661 5661 8177 7359 8177 4906 6690 6690 5661 5661 5661 6133 5661 5661 6133 5661 5661 5256 5661 5256 5256 6133 6133 6133 6133 6133 6133 5256 4329 3873 3199 2943 2830 2830 2943 2943 2943 2943 2830 2725 2943 2943 2830 2830 2725 2725 2628 2628 2628 2453 2374 2230 2102 2044 1936 1936 1839 1839 1887 1936 1936 1989 1989 2102 2164 2230 2299 2299 2299 2374 2374 2374 2299 2102 2044 1839 1672 1599 1533 1501 1471 1471 1443 1388 1362 1362 1338 1362 1362 1362 1338 1314 1338 1338 1314 1338 1291 1338 1338 1338 1362 1362 1362 1388 1388 1388 1338 1314 1338 1338 1338 0 0 0 0 0
    0 0 0 0 0 0 0 0 0 0 0 0 0 0 0 0 0 0 0 0 0 0 0 0 0 0 0 0 0 0 0 0 0 0 0 0 0 0 0 0 0 0 0 0 0 0 0 0 0 0 0 0 0 0 0 0 0 0 0 0 0 0 0 0 0 0 0 0 0 4599 4088 4088 4329 4088 4088 3873 4088 4906 4599 4599 4906 5256 5661 6133 6690 8177 7359 8177 0 0 0 0 0 0 0 0 0 0 0 0 0 0 0 0 0 0 0 0 0 8177 8177 7359 7359 8177 7359 8177 8177 0 0 0 0 0 0 0 0 0 0 0 0 0 0 0 0 0 0 0 0 8177 0 0 0 0 0 8177 0 8177 0 0 0 8177 8177 3679 0 6133 3873 2628 0 0 0 6690 5256 5256 6133 6133 6690 6690 6690 7359 7359 7359 0 8177 0 0 0 0 0 0 0 0 0 0 0 0 8177 0 0 0 0 0 0 0 0 0 8177 8177 0 4906 5256 5256 5256 5256 5661 5661 5661 5661 8177 7359 7359 4906 6690 6690 5661 5661 5661 6133 5661 5661 6133 5256 5256 5256 5256 4906 5256 6133 5661 5661 6133 6133 6133 5256 4329 3873 3199 2943 2943 2943 2943 2943 2943 3066 2943 2830 2943 2943 2943 2830 2725 2830 2725 2628 2628 2537 2453 2299 2164 2102 1989 1936 1887 1887 1887 1936 1989 1989 1989 2102 2164 2164 2299 2299 2230 2299 2374 2453 2299 2164 1989 1752 1565 1533 1471 1443 1415 1443 1443 1388 1362 1388 1362 1362 1362 1362 1338 1314 1314 1338 1291 1338 1291 1338 1338 1362 1362 1362 1362 1388 1362 1388 1314 0 0 0 0 0 0 0 0 0
    0 0 0 0 0 0 0 0 0 0 0 0 0 0 0 0 0 0 0 0 0 0 0 0 0 0 0 0 0 0 0 0 0 0 0 0 0 0 0 0 0 0 0 0 0 0 0 0 0 0 0 0 0 0 0 0 0 0 0 0 0 0 0 0 0 0 0 0 0 4329 4088 4088 4329 4088 4329 3873 4088 4599 4599 4599 4599 5256 5661 6690 7359 8177 8177 0 0 0 0 0 0 0 0 0 0 0 0 0 0 0 0 0 0 0 0 0 0 8177 8177 8177 7359 8177 8177 8177 8177 0 0 0 0 0 0 0 0 0 0 0 0 0 0 0 0 0 0 0 8177 7359 0 8177 0 0 0 8177 0 0 0 0 0 0 8177 3679 0 5661 3504 2453 0 0 0 0 6690 0 6690 7359 7359 7359 7359 7359 7359 8177 0 8177 0 0 0 0 0 0 0 0 0 0 0 0 8177 8177 0 0 0 0 0 0 0 8177 8177 8177 0 5256 5661 5661 5661 5256 6133 6133 6133 6133 8177 8177 6690 5256 6690 6690 5661 5661 6133 5661 5661 6133 6133 5256 5256 5256 5256 4906 5256 6133 6133 5661 6133 5661 6133 5256 4088 4088 3345 3066 3066 3066 3066 3066 2943 3066 2943 2830 2943 2830 2943 2830 2830 2830 2725 2725 2725 2628 2537 2299 2164 2164 1989 1989 1887 1887 1936 1989 1989 1989 1989 2102 2102 2164 2230 2230 2230 2299 2299 2374 2230 2044 1839 1672 1501 1471 1415 1415 1415 1415 1415 1388 1362 1388 1362 1388 1362 1362 1338 1314 1338 1362 1314 1338 1314 1338 1362 1362 1362 1362 1388 1388 1362 1388 1314 0 0 0 0 0 0 0 0 0
    0 0 0 0 0 0 0 0 0 0 0 0 0 0 0 0 0 0 0 0 0 0 0 0 0 0 0 0 0 0 0 0 0 0 0 0 0 0 0 0 0 0 0 0 0 0 0 0 0 0 0 0 0 0 0 0 0 0 0 0 0 0 0 0 0 0 0 0 0 4329 4088 4088 4329 4329 4329 4088 4329 4599 4599 4906 4906 5256 5661 6133 6690 8177 7359 8177 0 8177 0 0 0 0 0 0 0 0 0 0 0 0 0 0 0 0 0 0 0 8177 8177 8177 7359 8177 0 0 0 0 0 0 0 0 0 0 0 0 0 0 0 0 0 0 0 0 0 0 8177 7359 0 0 0 0 0 0 0 0 0 0 0 0 8177 4599 5661 5256 3504 0 0 0 0 0 0 0 8177 0 8177 8177 8177 8177 8177 8177 0 8177 0 0 0 0 0 0 0 0 0 0 0 0 8177 8177 0 0 0 0 0 0 0 8177 8177 8177 0 5661 5661 6133 5661 5661 6690 6690 6690 6690 0 0 6133 5661 6690 6133 5256 5256 5661 5661 5661 6133 6133 5256 5256 5256 5256 5256 5256 6133 5661 5661 6133 6133 6133 4906 4088 4088 3199 3066 3066 2943 3066 2943 2943 2943 2830 2725 2830 2830 2943 2830 2830 2830 2725 2725 2725 2628 2628 2299 2299 2164 2044 2044 1936 1936 1989 1989 1989 1989 1989 2102 2102 2164 2230 2164 2164 2230 2164 2230 1989 1795 1711 1565 1471 1443 1415 1415 1415 1415 1415 1362 1362 1388 1362 1388 1362 1362 1338 1314 1338 1338 1314 1362 1314 1338 1362 1362 1362 1362 1362 1388 1362 1362 1314 0 0 0 0 0 0 0 0 0
    0 0 0 0 0 0 0 0 0 0 0 0 0 0 0 0 0 0 0 0 0 0 0 0 0 0 0 0 0 0 0 0 0 0 0 0 0 0 0 0 0 0 0 0 0 0 0 0 0 0 0 0 0 0 0 0 0 0 0 0 0 0 0 0 0 0 0 0 0 4329 4088 4088 4329 4329 4599 3873 4329 4599 4599 4906 4906 5256 5661 6133 6133 7359 6690 8177 8177 8177 8177 0 0 0 0 0 0 0 0 0 0 0 0 0 0 0 0 0 0 0 9199 8177 8177 0 0 0 0 0 0 0 0 0 0 0 0 0 0 0 0 0 0 0 0 0 0 0 7359 6690 0 8177 0 0 0 8177 0 0 0 0 0 8177 8177 4329 5256 4599 3504 0 0 0 0 0 0 0 0 0 0 0 0 0 0 0 0 0 0 0 0 0 0 0 0 0 0 0 0 0 8177 7359 8177 0 0 0 0 0 9199 8177 8177 8177 0 5661 6133 6133 6133 6133 6133 6133 6690 6690 0 7359 4088 4906 6133 5661 4906 4906 4906 5256 5256 6133 5661 5256 5256 5256 5256 5256 5256 5661 5661 5661 6133 5661 6133 5256 4088 4329 3199 3066 3066 2943 3066 2943 2943 2943 2830 2830 2830 2830 2943 2830 2830 2830 2830 2725 2725 2628 2628 2374 2374 2230 2164 2102 1989 1936 1989 1989 1989 1989 2044 2044 2044 2164 2230 2164 2164 2164 2044 2044 1839 1672 1599 1501 1443 1443 1415 1415 1415 1415 1415 1388 1362 1388 1362 1415 1388 1388 1338 1314 1362 1338 1338 1388 1314 1338 1362 1362 1362 1362 1362 1362 1362 1338 1291 0 0 0 0 0 0 0 0 0
    0 0 0 0 0 0 0 0 0 0 0 0 0 0 0 0 0 0 0 0 0 0 0 0 0 0 0 0 0 0 0 0 0 0 0 0 0 0 0 0 0 0 0 0 0 0 0 0 0 0 0 0 0 0 0 0 0 0 0 0 0 0 0 0 0 0 0 0 0 4329 4088 4088 4088 4088 4599 3873 4329 4906 4599 4906 5256 5661 5661 6133 6133 6690 6690 8177 8177 8177 0 0 0 0 0 0 0 0 0 0 0 0 0 0 0 0 0 0 0 0 0 0 8177 0 0 0 0 0 0 0 0 0 0 0 0 0 0 0 0 0 0 0 0 0 0 0 7359 6690 0 8177 8177 0 0 8177 0 0 0 0 0 8177 8177 4329 5256 4906 3873 0 4599 7359 0 0 0 0 0 0 0 0 0 0 0 0 0 0 0 0 0 0 0 0 0 0 0 0 0 0 8177 7359 8177 0 0 0 0 0 0 8177 8177 8177 0 5661 6133 6690 6133 6133 6133 5661 6690 6690 0 4906 2044 0 0 5661 5256 4599 4906 5256 5256 6133 5661 5256 5256 4906 5256 5256 5256 5661 5661 5661 6133 5661 6690 5256 4088 4599 3504 3199 3199 3066 3066 2943 2943 3066 2830 2830 2830 2830 2830 2830 2830 2830 2830 2725 2725 2725 2725 2453 2537 2299 2230 2102 1989 1936 1989 1989 1989 1936 1989 1989 1989 2164 2164 2102 2102 2044 1887 1839 1711 1533 1471 1443 1443 1415 1388 1415 1388 1415 1443 1388 1388 1388 1362 1415 1388 1415 1362 1338 1415 1388 1388 1388 1314 1338 1362 1362 1362 1362 1362 1362 1338 1338 1291 1247 0 0 0 0 0 0 0 0
    0 0 0 0 0 0 0 0 0 0 0 0 0 0 0 0 0 0 0 0 0 0 0 0 0 0 0 0 0 0 0 0 0 0 0 0 0 0 0 0 0 0 0 0 0 0 0 0 0 0 0 0 0 0 0 0 0 0 0 0 0 0 0 0 0 0 0 0 0 4088 4088 4088 4088 4088 4599 4088 4329 4906 4906 4906 5256 5661 6133 6133 6133 6690 6690 8177 8177 8177 0 0 0 0 0 0 0 0 0 0 0 0 0 0 0 0 0 0 0 0 0 0 8177 0 0 0 0 0 0 0 0 0 0 0 0 0 0 0 0 0 0 0 0 0 0 0 7359 6690 0 9199 0 0 0 8177 0 0 0 0 0 7359 7359 4329 5661 6690 5256 0 6133 0 0 0 0 199 0 0 0 0 8177 8177 8177 0 7359 0 134 0 0 0 0 0 0 0 0 0 0 0 8177 7359 8177 0 0 0 0 0 0 0 8177 8177 0 6133 7359 7359 6690 6690 6133 5256 6133 4906 7359 3066 1887 0 0 3504 3679 3679 4329 4599 4906 5661 5661 5256 5256 4906 5661 5256 4906 5661 5661 5661 5661 5661 6133 4906 3873 4599 3504 3345 3199 3066 3199 2943 2943 3066 2830 2830 2830 2830 2830 2830 2830 2830 2830 2725 2725 2725 2725 2537 2628 2299 2374 2164 2102 1989 2044 2044 1989 1936 2044 1936 1989 2102 2102 2044 1989 1887 1795 1672 1565 1443 1443 1443 1415 1415 1388 1415 1388 1415 1443 1388 1362 1362 1362 1443 1388 1443 1362 1362 1443 1388 1388 1415 1314 1338 1338 1338 1362 1362 1338 1338 1338 1314 1268 1226 0 0 0 0 0 0 0 0
    0 0 0 0 0 0 0 0 0 0 0 0 0 0 0 0 0 0 0 0 0 0 0 0 0 0 0 0 0 0 0 0 0 0 0 0 0 0 0 0 0 0 0 0 0 0 0 0 0 0 0 0 0 0 0 0 0 0 0 0 0 0 0 0 0 0 0 0 0 4088 4088 4329 4088 4088 4599 4329 4329 4906 4906 5256 5661 5661 6133 6133 6133 7359 6690 7359 8177 8177 0 0 0 0 0 0 0 0 0 0 0 0 0 0 0 0 0 0 0 0 9199 0 8177 0 0 0 0 0 0 0 0 0 0 0 0 0 0 0 0 0 0 0 0 0 0 0 7359 6690 0 0 0 8177 0 8177 0 0 0 0 8177 6690 7359 4906 6690 0 8177 0 0 0 0 0 203 0 0 0 0 0 8177 7359 0 0 6133 0 0 0 0 333 0 0 0 0 0 0 0 0 7359 7359 8177 0 0 0 0 0 0 0 8177 0 0 6690 8177 7359 6690 6690 5661 4329 4906 3199 3679 2374 1795 2044 0 2943 3199 3504 4088 4329 4906 5661 5661 5661 5256 5256 5661 5256 4906 5661 5256 5256 5256 5256 5661 4599 3873 4599 3504 3345 3199 3066 3199 3066 2943 3066 2830 2830 2943 2830 2830 2725 2830 2943 2830 2725 2725 2725 2725 2537 2628 2299 2453 2230 2164 2102 2102 2102 2044 1989 2102 1887 1936 2044 1989 1887 1839 1752 1635 1565 1501 1443 1443 1443 1443 1415 1415 1415 1388 1415 1415 1388 1362 1362 1362 1443 1388 1443 1362 1362 1443 1388 1415 1415 1338 1338 1362 1338 1362 1362 1338 1338 1338 1338 1268 1226 1268 1247 1247 0 0 0 0 0
    0 0 0 0 0 0 0 0 0 0 0 0 0 0 0 0 0 0 0 0 0 0 0 0 0 0 0 0 0 0 0 0 0 0 0 0 0 0 0 0 0 0 0 0 0 0 0 0 0 0 0 0 0 0 0 0 0 0 0 0 0 0 0 0 0 0 0 0 0 4329 4329 4329 4329 4088 4599 4329 4329 4906 5256 5256 5661 5661 6133 6133 5661 7359 6690 7359 7359 8177 0 0 0 0 0 0 0 0 0 0 0 0 0 0 0 0 0 0 0 0 8177 0 8177 8177 0 0 0 0 0 0 0 0 0 0 0 0 0 0 0 0 0 0 0 0 0 0 7359 6690 0 0 8177 8177 8177 8177 8177 8177 7359 7359 6690 5661 6690 4906 6133 0 9199 0 0 0 0 0 202 0 0 0 0 0 0 6690 0 0 5256 0 0 0 0 0 0 0 0 0 0 0 0 0 7359 7359 7359 0 0 0 0 0 0 0 0 0 8177 7359 8177 7359 6690 6690 4906 3504 0 2725 0 1887 1752 1887 0 0 3066 3345 3873 4088 4599 5661 5661 5256 5256 5256 5661 5256 4906 5256 5256 5256 5256 5256 5661 4599 4088 4906 3679 3504 3345 3066 3066 2943 2830 2943 2830 2830 2943 2830 2943 2830 2943 3066 2943 2830 2830 2830 2830 2628 2725 2299 2453 2230 2164 2102 2102 2102 2044 1936 2044 1839 1887 1936 1839 1752 1711 1635 1565 1533 1501 1415 1443 1443 1443 1443 1415 1415 1388 1415 1443 1388 1362 1362 1338 1443 1388 1443 1362 1362 1443 1388 1415 1388 1314 1338 1362 1338 1362 1362 1362 1338 1338 1338 1314 1247 1268 1268 1247 0 0 0 0 0
    0 0 0 0 0 0 0 0 0 0 0 0 0 0 0 0 0 0 0 0 0 0 0 0 0 0 0 0 0 0 0 0 0 0 0 0 0 0 0 0 0 0 0 0 0 0 0 0 0 0 0 0 0 0 0 0 0 0 0 0 0 0 0 0 0 0 0 0 0 4329 4329 4599 4329 3873 4906 4329 4088 4599 4906 5661 6133 6133 6690 6690 6133 7359 7359 7359 7359 7359 8177 0 0 0 0 0 0 0 0 0 0 0 0 0 0 0 0 0 0 0 8177 0 8177 7359 0 0 0 0 0 0 0 0 0 0 0 0 0 0 0 0 0 0 0 0 0 0 7359 6690 0 0 8177 7359 8177 7359 8177 7359 6690 7359 6133 5661 6133 4599 6133 8177 6133 0 0 0 0 0 0 0 0 0 0 0 0 6690 0 0 4599 0 134 0 0 0 0 0 0 0 0 0 0 0 7359 7359 7359 0 0 8177 0 8177 8177 0 8177 8177 8177 8177 8177 7359 7359 6690 4599 3199 0 2299 0 1839 1752 0 0 0 0 3345 3679 4088 4599 5256 5256 4906 4906 5256 5256 5256 4599 5256 4906 4906 4906 4906 4906 4088 3873 4599 3504 3345 3199 2943 2943 2830 2725 2830 2725 2830 2830 2830 2943 2943 3066 3066 3066 2943 2830 2830 2830 2628 2725 2374 2537 2230 2164 2102 2102 2102 1989 1936 1936 1752 1752 1752 1711 1599 1599 1533 1533 1501 1501 1415 1443 1443 1471 1443 1415 1415 1388 1415 1443 1362 1362 1338 1338 1443 1388 1443 1362 1362 1471 1388 1415 1388 1314 1338 1338 1338 1362 1362 1362 1338 1362 1362 1314 1268 1291 1268 1268 0 0 0 0 0
    0 0 0 0 0 0 0 0 0 0 0 0 0 0 0 0 0 0 0 0 0 0 0 0 0 0 0 0 0 0 0 0 0 0 0 0 0 0 0 0 0 0 0 0 0 0 0 0 0 0 0 0 0 0 0 0 0 0 0 0 0 0 0 0 0 0 0 0 0 4329 4329 4599 4599 3873 4906 4599 4329 4599 4906 5661 5661 6133 6690 6133 5256 6690 6133 6690 7359 7359 8177 8177 8177 0 0 0 0 0 0 0 0 0 0 0 0 0 0 0 0 0 0 0 8177 7359 0 0 0 0 0 0 0 0 0 0 0 0 0 0 0 0 0 0 0 0 0 0 7359 7359 0 0 0 8177 8177 7359 8177 8177 7359 7359 6690 6133 6690 5661 6690 8177 5661 0 0 0 0 0 1672 1471 1533 1711 0 0 0 0 0 0 0 0 0 2230 2164 0 0 0 0 0 0 0 0 0 8177 7359 7359 0 8177 7359 8177 8177 7359 8177 8177 8177 8177 8177 8177 7359 6690 6690 4329 0 0 0 0 1887 1795 1839 0 0 0 3345 3679 4329 4906 5256 5661 5256 5256 5256 5256 5661 4329 4906 4906 4906 5256 4906 4906 4088 3873 4599 3504 3345 3199 2943 2830 2725 2725 2830 2725 2830 2830 2830 2943 2943 2943 3199 3066 2943 2943 2943 2830 2725 2830 2453 2537 2299 2230 2102 2044 2044 1936 1887 1887 1711 1635 1635 1599 1501 1533 1501 1501 1471 1471 1415 1443 1443 1471 1443 1415 1415 1388 1415 1443 1362 1362 1338 1338 1443 1388 1443 1388 1362 1471 1388 1415 1388 1291 1314 1338 1314 1338 1338 1338 1338 1362 1362 1338 1291 0 1268 0 0 0 0 0 0
    0 0 0 0 0 0 0 0 0 0 0 0 0 0 0 0 0 0 0 0 0 0 0 0 0 0 0 0 0 0 0 0 0 0 0 0 0 0 0 0 0 0 0 0 0 0 0 0 0 0 0 0 0 0 0 0 0 0 0 0 0 0 0 0 0 0 0 0 0 4599 4599 4599 4599 3873 4906 4906 4329 4599 4906 5256 5661 5256 6133 5256 3873 6133 5256 6133 6133 6690 7359 8177 8177 0 0 0 0 0 0 0 0 0 0 0 0 0 0 0 0 0 0 0 0 8177 0 0 0 0 0 0 0 0 0 0 0 0 0 0 0 0 0 0 0 0 0 0 8177 8177 0 0 0 0 0 8177 8177 8177 7359 7359 6690 6690 6690 6133 7359 6690 5256 0 0 0 0 0 1752 1635 1711 1752 1752 0 0 0 0 0 0 0 0 1989 1989 0 0 0 0 0 7359 0 8177 0 8177 8177 7359 0 7359 7359 7359 7359 6690 8177 7359 7359 7359 8177 7359 6690 6133 6133 3679 0 0 0 0 1887 1795 1887 0 2102 0 0 3504 4088 4599 5256 5661 5256 5256 5256 5256 5661 4329 4906 4906 4906 5256 4906 4906 4329 3873 4906 3679 3345 3066 2943 2830 2830 2725 2830 2725 2830 2830 2943 2943 2943 2943 3066 3066 2943 2943 2943 2830 2830 2830 2537 2628 2374 2299 2164 2044 2044 1887 1839 1795 1672 1599 1565 1565 1471 1501 1471 1471 1471 1471 1415 1471 1471 1471 1443 1415 1415 1388 1415 1443 1362 1338 1338 1314 1415 1362 1415 1388 1362 1471 1388 1415 1362 1268 1291 1291 1291 1314 1314 1314 1314 1362 1388 1338 0 0 0 0 0 0 0 0 0
    0 0 0 0 0 0 0 0 0 0 0 0 0 0 0 0 0 0 0 0 0 0 0 0 0 0 0 0 0 0 0 0 0 0 0 0 0 0 0 0 0 0 0 0 0 0 0 0 0 0 0 0 0 0 0 0 0 0 0 0 0 0 0 0 0 0 0 0 0 4599 4906 4906 4906 3873 5256 5256 4329 4329 4599 4906 5256 4599 6133 4599 3504 5661 4906 5661 6133 6690 7359 7359 7359 0 8177 0 0 0 0 0 0 0 0 0 0 0 0 0 0 0 0 0 0 8177 0 0 0 0 0 0 0 0 0 0 0 0 8177 0 0 0 0 0 0 0 0 0 0 0 0 0 0 0 0 8177 0 8177 7359 7359 6690 6690 6690 6133 6133 6133 4329 0 0 0 1795 0 1795 1752 1795 1752 1795 1839 0 0 0 0 0 0 0 1936 1936 0 0 0 0 0 6133 7359 7359 0 8177 8177 7359 9199 6690 6690 7359 7359 6690 7359 7359 7359 7359 8177 7359 6690 6133 5256 3199 2628 0 2102 0 1887 1839 1887 0 0 0 0 3504 4329 4599 5256 5661 5256 5256 5256 5256 6133 4329 4906 4906 4906 5256 4906 4906 4329 3873 4906 3679 3345 3199 2943 2943 2943 2830 2943 2830 2943 2943 2943 2943 2943 2943 3066 3066 2943 2943 2943 2830 2830 2830 2628 2628 2374 2374 2230 2044 1989 1839 1795 1795 1635 1599 1565 1533 1443 1501 1471 1471 1501 1501 1415 1471 1471 1501 1471 1443 1415 1388 1388 1443 1362 1362 1362 1314 1415 1362 1415 1388 1388 1501 1388 1388 1338 1247 1268 1268 1268 1291 1291 1291 1291 1338 1362 1314 0 0 0 0 0 0 0 0 0
    0 0 0 0 0 0 0 0 0 0 0 0 0 0 0 0 0 0 0 0 0 0 0 0 0 0 0 0 0 0 0 0 0 0 0 0 0 0 0 0 0 0 0 0 0 0 0 0 0 0 0 0 0 0 0 0 0 0 0 0 0 0 0 0 0 0 0 0 0 4599 4906 4906 4906 3873 4906 4906 3873 4088 4329 4599 4599 4329 6133 4906 3504 6133 5256 5661 6133 6690 6690 6690 6690 8177 8177 0 0 0 0 0 0 0 0 0 0 0 0 0 0 0 0 0 0 8177 0 0 0 0 0 0 0 0 0 0 0 0 8177 0 0 0 0 0 0 0 0 0 0 0 0 0 0 0 0 8177 8177 8177 7359 7359 6690 6690 6690 6133 5661 4906 3504 0 0 1711 1839 1839 1839 1839 1839 1795 1795 1839 1839 1839 1839 0 1839 1839 1887 1936 1936 1936 0 0 0 0 0 6690 6690 8177 9199 0 7359 8177 6690 6690 7359 7359 6690 7359 7359 7359 7359 7359 6690 5661 5661 4329 3066 2537 0 2044 0 1887 1839 1887 0 0 0 0 3679 4599 4906 5661 6133 5256 5256 5256 5661 6133 4329 4906 4906 5256 4906 4906 4599 4329 4088 4906 3679 3345 3199 3066 2943 2943 2830 2943 2830 2943 2943 2943 2943 3066 2943 3066 3066 2943 2943 2943 2830 2830 2830 2725 2628 2374 2299 2164 2044 1936 1752 1752 1752 1599 1599 1533 1501 1443 1501 1471 1501 1501 1501 1443 1471 1471 1501 1471 1443 1415 1362 1388 1415 1362 1362 1362 1314 1415 1362 1415 1415 1388 1501 1362 1362 1314 1226 1247 1247 1247 1268 1268 1291 1291 1338 1338 1314 0 0 1291 0 0 0 0 0 0
    0 0 0 0 0 0 0 0 0 0 0 0 0 0 0 0 0 0 0 0 0 0 0 0 0 0 0 0 0 0 0 0 0 0 0 0 0 0 0 0 0 0 0 0 0 0 0 0 0 0 0 0 0 0 0 0 0 0 0 0 0 0 0 0 0 0 0 0 0 4599 4906 4906 5256 3679 4599 4329 3504 3504 3679 3679 3679 3504 5256 4599 3504 6690 5661 6133 6133 6690 6690 6690 6690 8177 8177 0 0 0 0 0 0 0 0 0 0 0 0 0 0 0 0 0 0 8177 0 0 0 0 0 0 0 0 0 0 0 0 0 0 0 0 0 0 0 0 0 0 0 0 0 0 0 0 0 8177 8177 7359 6690 7359 6133 6690 6690 6133 6133 4599 3345 0 1795 1752 1839 1839 1839 1887 1887 1839 1839 1839 1887 1887 1839 1839 1839 1839 1936 1936 1936 1887 0 0 0 0 0 0 6133 7359 8177 0 7359 8177 6690 6690 7359 7359 6690 7359 6690 6690 6690 5661 4906 3679 3679 3504 2943 2537 0 2102 1936 1989 1887 1887 1989 2230 0 0 3504 4599 4906 5256 5661 5256 5661 5661 5661 6690 4329 4906 4906 4906 4906 4599 4329 4088 3873 4599 3504 3066 3066 2943 2830 2830 2830 2830 2830 2830 2943 2943 2943 2943 2830 2943 3066 2830 2830 2943 2830 2830 2830 2628 2537 2230 2230 2230 1989 1887 1752 1711 1711 1635 1635 1565 1533 1443 1501 1501 1501 1501 1501 1443 1471 1471 1501 1471 1415 1415 1362 1388 1388 1338 1362 1362 1314 1415 1362 1388 1388 1388 1471 1338 1338 1291 1226 1226 1247 1247 1247 1247 1268 1268 1314 1338 1314 0 0 0 0 0 0 0 0 0
    0 0 0 0 0 0 0 0 0 0 0 0 0 0 0 0 0 0 0 0 0 0 0 0 0 0 0 0 0 0 0 0 0 0 0 0 0 0 0 0 0 0 0 0 0 0 0 0 0 0 0 0 0 0 0 0 0 0 0 0 0 0 0 0 0 0 0 0 0 4329 4088 4088 3679 3199 3873 3504 3199 3066 3199 3345 3199 3199 0 0 3199 0 0 6133 6133 6690 6690 6690 6690 7359 7359 0 0 0 0 0 0 0 0 0 0 0 0 0 0 0 0 0 0 8177 0 0 0 0 0 0 0 0 0 0 0 0 0 0 0 0 0 0 0 0 0 0 0 0 0 0 0 0 0 8177 8177 7359 6690 6690 6133 6690 6690 6690 6133 4329 0 0 1795 1795 1887 1887 1887 1936 1887 1887 1887 1887 1936 1887 1887 1887 1795 1839 1936 1936 1989 1936 1936 0 0 0 0 4329 5256 6133 7359 8177 7359 7359 6690 6690 7359 7359 6133 7359 5661 5256 5256 3504 3199 2830 2830 2943 2725 2453 2230 2102 1936 1989 1887 1887 1989 2230 0 0 3504 4599 4906 5256 5661 5661 5661 5661 5256 6690 4329 4599 4906 4906 4599 4599 4329 4088 4088 4599 3504 3199 3066 3066 2830 2943 2830 2830 2943 2830 2943 2943 2943 2943 2830 2943 3066 2830 2830 2943 2830 2830 2725 2628 2537 2164 2230 2164 1936 1839 1672 1672 1672 1599 1635 1533 1533 1443 1533 1501 1501 1501 1533 1443 1501 1471 1533 1471 1415 1415 1362 1388 1388 1338 1362 1362 1314 1415 1362 1388 1388 1362 1443 1338 1338 1291 1226 1226 1247 1247 1247 1247 1268 1268 1291 1314 1314 0 0 1314 0 0 0 0 0 0
    0 0 0 0 0 0 0 0 0 0 0 0 0 0 0 0 0 0 0 0 0 0 0 0 0 0 0 0 0 0 0 0 0 0 0 0 0 0 0 0 0 0 0 0 0 0 0 0 0 0 0 0 0 0 0 0 0 0 0 0 0 0 0 0 0 0 0 0 0 4088 3504 3345 3199 2725 3199 2830 2299 1795 1795 2628 2230 0 0 0 0 0 0 0 6133 6690 6690 6690 6690 7359 7359 0 0 0 0 0 0 0 0 0 0 0 0 0 0 0 0 0 0 0 0 0 0 0 0 0 0 0 0 0 0 0 0 0 0 0 0 0 0 0 0 0 0 0 0 0 0 0 0 7359 8177 6690 6133 6690 6133 6690 7359 6690 6690 4329 0 0 1839 1839 1936 1936 1887 1989 1936 1936 1936 1887 1936 1887 1887 1887 1795 1839 1887 1887 1936 1887 1936 1887 1936 0 3066 3504 4329 4906 5661 8177 6690 7359 6690 6690 6690 6690 5661 6690 5661 3873 3873 2830 2725 2374 2453 2628 2453 2299 2230 2164 1989 2044 1989 1936 2044 2299 0 0 3345 4329 4329 5256 5661 5256 5661 5661 4906 6133 4329 4906 4906 4906 4906 4599 4329 4088 4329 4599 3679 3345 3345 3199 2943 3066 3066 2830 2943 2943 2943 2943 2943 3066 2830 2943 3066 2830 2830 2943 2830 2725 2628 2628 2453 1989 1989 2044 1795 1672 1599 1635 1635 1599 1635 1565 1565 1471 1533 1533 1501 1501 1533 1443 1471 1471 1533 1471 1415 1415 1362 1388 1415 1338 1362 1362 1314 1415 1362 1388 1362 1362 1415 1338 1338 1291 1226 1226 1247 1247 1247 1247 1268 1268 1291 1291 1291 0 0 0 0 0 0 0 0 0
    0 0 0 0 0 0 0 0 0 0 0 0 0 0 0 0 0 0 0 0 0 0 0 0 0 0 0 0 0 0 0 0 0 0 0 0 0 0 0 0 0 0 0 0 0 0 0 0 0 0 0 0 0 0 0 0 0 0 0 0 0 0 0 0 0 0 0 0 0 3679 3066 2830 2537 1989 1839 2044 1795 1752 1711 0 1752 0 0 0 0 0 0 0 0 6133 7359 6690 6690 7359 7359 0 0 0 0 0 0 0 0 0 0 0 0 0 0 0 0 0 0 0 0 0 0 0 0 0 0 0 0 0 0 0 0 0 0 0 0 0 0 0 0 0 0 0 0 0 0 0 0 7359 7359 6690 6133 6690 6133 6690 7359 7359 6690 4088 0 0 1936 1839 1989 1989 1936 1989 1936 1936 1936 1887 1936 1839 1839 1839 1795 1795 1839 1887 1936 1887 1887 1795 1887 2044 2725 2830 3504 3873 4906 7359 6690 7359 6690 7359 7359 7359 5661 6133 4599 3504 2943 2537 2102 2044 2102 2374 2299 2299 2299 2299 2044 2164 2164 2044 2164 2374 0 0 0 4599 4599 5661 5661 5661 6133 5661 5256 6690 4906 4906 5256 4906 4906 4329 4088 4329 4329 4088 3679 3345 3345 3345 3199 3345 3199 2943 3066 2943 2943 2943 2943 2943 2830 2943 2943 2725 2725 2725 2725 2628 2453 2453 2164 1936 1989 2102 1887 1672 1635 1711 1711 1635 1672 1599 1599 1471 1565 1533 1501 1501 1533 1443 1471 1471 1533 1471 1415 1415 1388 1388 1415 1362 1388 1388 1338 1415 1362 1388 1362 1362 1415 1338 1314 1291 1247 1226 1247 1247 1247 1247 1247 1247 1291 1291 1291 0 0 0 0 0 0 0 0 0
    0 0 0 0 0 0 0 0 0 0 0 0 0 0 0 0 0 0 0 0 0 0 0 0 0 0 0 0 0 0 0 0 0 0 0 0 0 0 0 0 0 0 0 0 0 0 0 0 0 0 0 0 0 0 0 0 0 0 0 0 0 0 0 0 0 0 0 0 0 3199 2725 2537 2102 1839 1752 1887 1711 1635 1635 0 1752 0 0 0 0 0 0 0 0 6133 7359 6690 6690 7359 7359 0 0 0 0 0 0 0 0 0 0 0 0 0 0 0 0 0 0 0 0 0 0 0 0 0 0 0 0 0 0 0 0 0 0 0 0 0 0 0 0 0 0 0 0 0 0 0 0 7359 7359 6690 6133 6133 6133 6690 7359 6690 6133 3873 0 0 2102 1936 2044 2044 1936 1989 1936 1936 1936 1887 1936 1839 1839 1839 1795 1795 1839 1839 1887 1839 1839 1752 1839 1887 2230 2044 3199 3345 4599 7359 6690 7359 7359 7359 7359 7359 6133 6133 4329 0 2943 2537 2044 2044 2102 2230 2230 2299 2453 2374 2164 2299 2299 2102 2230 2374 0 0 0 4088 4088 5256 5661 5661 6133 5661 4906 6133 5256 5256 5256 5256 5256 4599 4088 4906 4599 4329 3679 3679 3504 3679 3345 3504 3199 3066 3199 3199 2943 2943 2830 2943 2725 2830 2830 2628 2628 2537 2537 2453 2230 2164 1936 1887 1887 1989 1887 1711 1672 1752 1711 1672 1672 1635 1599 1501 1599 1533 1501 1501 1533 1471 1501 1471 1533 1471 1443 1415 1388 1415 1415 1362 1388 1388 1338 1415 1362 1362 1362 1362 1415 1314 1314 1291 1247 1226 1247 1247 1247 1247 1247 1268 1291 1291 1291 0 0 0 0 0 0 0 0 0
    0 0 0 0 0 0 0 0 0 0 0 0 0 0 0 0 0 0 0 0 0 0 0 0 0 0 0 0 0 0 0 0 0 0 0 0 0 0 0 0 0 0 0 0 0 0 0 0 0 0 0 0 0 0 0 0 0 0 0 0 0 0 0 0 0 0 0 0 0 3066 2374 2044 1989 1795 1752 1839 1635 1565 1711 0 0 0 0 0 0 0 0 0 5661 6133 7359 7359 6690 7359 7359 8177 8177 0 0 0 0 0 0 0 0 0 0 0 0 0 0 0 0 0 0 0 0 0 0 0 0 0 0 0 0 0 0 0 0 0 0 0 0 0 0 0 0 0 0 0 0 0 0 8177 7359 6133 5661 6133 6133 6690 7359 6690 6133 4088 0 0 2299 1936 2102 2044 1936 1989 1936 1936 1887 1839 1887 1839 1839 1839 1795 1752 1839 1839 1839 1795 1839 1752 1795 1839 2102 1989 2537 3066 4088 7359 6690 7359 7359 7359 7359 6690 5661 6690 4088 0 2830 2453 1989 1989 2044 2102 2164 2230 2453 2374 2102 2299 2299 2164 2164 2230 0 0 0 3873 3873 4906 5661 5661 6133 5661 4906 6133 5256 5256 5661 5661 5256 4906 4329 4906 4599 4329 3679 3679 3679 3679 3504 3504 3345 3199 3199 3199 2943 2943 2830 2943 2830 2830 2830 2537 2537 2374 2299 2230 2044 1936 1839 1795 1795 1887 1839 1711 1711 1752 1752 1672 1711 1672 1635 1501 1599 1533 1501 1501 1533 1471 1501 1471 1533 1501 1443 1443 1415 1443 1415 1388 1415 1388 1338 1415 1362 1362 1338 1362 1388 1314 1314 1314 1268 1247 1268 1268 1268 1268 1268 1268 1291 1268 1291 0 0 0 0 0 0 0 0 0
    0 0 0 0 0 0 0 0 0 0 0 0 0 0 0 0 0 0 0 0 0 0 0 0 0 0 0 0 0 0 0 0 0 0 0 0 0 0 0 0 0 0 0 0 0 0 0 0 0 0 0 0 0 0 0 0 0 0 0 0 0 0 0 0 0 0 0 0 0 2725 2102 1936 1936 1795 1711 1839 1672 0 0 3679 0 0 0 0 0 5661 3873 5256 6690 6690 8177 7359 7359 7359 7359 8177 8177 0 0 0 0 0 0 0 0 0 0 0 0 0 0 0 0 0 0 0 0 0 0 0 0 0 0 0 0 0 0 0 0 0 0 0 0 0 0 0 0 0 0 0 0 0 0 7359 6690 6133 5661 5661 6133 6690 7359 7359 6133 5256 0 0 2830 1989 2102 2102 1936 2044 1936 1936 1936 1887 1936 1887 1887 1936 1839 1795 1887 1887 1887 1839 1839 1795 1839 1887 2230 2044 2830 3066 4906 7359 6690 7359 7359 7359 7359 6690 5661 6133 4329 0 0 2537 1989 1936 1989 2044 2230 2164 2537 2374 2044 2374 2374 2164 2164 0 0 0 0 3873 4088 5661 6133 6133 6133 5256 4906 6133 5256 5256 5256 5256 4906 4906 4329 5256 4599 4329 3679 3873 3679 3679 3504 3679 3345 3199 3345 3345 3066 2943 2830 2943 2830 2830 2943 2537 2453 2230 2102 2102 1936 1839 1795 1752 1752 1839 1795 1711 1711 1752 1752 1672 1711 1672 1635 1533 1635 1533 1501 1501 1533 1471 1501 1501 1565 1501 1471 1471 1443 1471 1443 1415 1415 1388 1362 1415 1362 1362 1362 1388 1415 1314 1338 1314 1314 1291 1291 1268 1291 1268 1268 1268 1291 1268 1268 0 0 0 0 0 0 0 0 0
    0 0 0 0 0 0 0 0 0 0 0 0 0 0 0 0 0 0 0 0 0 0 0 0 0 0 0 0 0 0 0 0 0 0 0 0 0 0 0 0 0 0 0 0 0 0 0 0 0 0 0 0 0 0 0 0 0 0 0 0 0 0 0 0 0 0 0 0 0 2374 1936 1887 1936 1795 1672 0 0 0 0 0 0 0 0 0 0 7359 4329 6133 0 7359 0 8177 8177 7359 7359 7359 8177 0 0 0 0 0 0 0 0 0 0 0 0 0 0 0 0 0 0 0 0 0 0 0 0 0 0 0 0 0 0 0 0 0 0 0 0 0 0 0 0 0 0 0 0 0 0 7359 6690 6133 5661 6133 6690 7359 8177 7359 7359 6133 0 0 3199 2164 2164 2164 1989 2044 1989 1989 1936 1887 1936 1936 1936 2044 1936 1887 1936 1989 1989 1887 1936 1839 1887 2044 2628 2628 3066 3345 5256 7359 6690 7359 8177 7359 7359 6133 5256 6133 4329 0 0 0 1989 1936 1936 1989 2164 2102 2453 2374 1989 2299 2374 2102 2044 0 0 0 0 0 3679 5256 6133 6133 6690 5256 4906 5661 5661 5661 5256 5256 4906 4906 4329 5256 4906 4329 3873 4088 3873 3873 3679 3873 3504 3345 3345 3345 3066 3066 2830 2943 2943 2943 3066 2537 2453 2102 2044 2044 1839 1795 1795 1752 1711 1795 1795 1711 1752 1752 1752 1672 1711 1672 1635 1533 1635 1533 1501 1533 1533 1501 1501 1501 1565 1501 1471 1471 1471 1501 1443 1415 1415 1388 1362 1415 1362 1338 1338 1362 1362 1314 1338 1338 1338 1314 1314 1314 1338 1314 1314 1291 1314 1291 1291 0 0 0 0 0 0 0 0 0
    0 0 0 0 0 0 0 0 0 0 0 0 0 0 0 0 0 0 0 0 0 0 0 0 0 0 0 0 0 0 0 0 0 0 0 0 0 0 0 0 0 0 0 0 0 0 0 0 0 0 0 0 0 0 0 0 0 0 0 0 0 0 0 0 0 0 0 0 0 2164 1839 1795 1887 1752 0 0 343 0 0 0 0 0 0 0 0 6690 0 6133 0 7359 0 8177 8177 7359 7359 7359 7359 0 0 0 0 0 0 0 0 0 0 0 0 0 0 0 0 0 0 0 0 0 0 0 0 0 0 0 0 0 8177 0 0 0 0 0 0 7359 8177 0 0 0 0 0 0 0 0 7359 7359 6690 6133 6133 6690 8177 8177 0 0 0 0 0 3679 2537 2299 2299 1989 2044 1989 1989 1936 1936 1989 1989 1989 2102 1989 1936 1989 2102 2102 1989 2044 1936 2044 2299 2830 2943 3199 3679 5256 7359 6690 8177 8177 8177 7359 6133 5256 6133 4329 0 0 0 1989 1887 1887 1936 2164 2102 2537 2374 1936 2230 2374 2102 0 0 0 0 0 0 0 4906 6133 6133 6690 4906 4906 5256 5661 5661 5256 4906 4906 4906 4329 5256 5256 4599 4088 4329 4088 4088 3873 4088 3679 3504 3504 3504 3066 3066 2830 3066 2943 2943 3066 2453 2299 2044 1936 1989 1839 1795 1752 1711 1711 1795 1795 1711 1752 1752 1711 1635 1672 1672 1635 1565 1635 1533 1501 1533 1533 1501 1533 1533 1565 1533 1471 1501 1471 1533 1471 1443 1415 1388 1362 1415 1338 1314 1314 1362 1338 1338 1362 1362 1362 1362 1362 1362 1362 1362 1415 1362 1565 1314 1314 0 0 0 0 0 0 0 0 0
    0 0 0 0 0 0 0 0 0 0 0 0 0 0 0 0 0 0 0 0 0 0 0 0 0 0 0 0 0 0 0 0 0 0 0 0 0 0 0 0 0 0 0 0 0 0 0 0 0 0 0 0 0 0 0 0 0 0 0 0 0 0 0 0 0 0 0 0 0 2044 1795 1795 1887 1752 0 0 0 0 0 0 0 0 0 0 0 0 3199 5661 0 7359 0 8177 8177 8177 8177 7359 7359 0 0 0 0 0 0 0 0 0 0 0 0 0 0 0 0 0 0 0 0 0 0 0 0 0 0 0 0 0 8177 0 0 8177 8177 8177 8177 6690 7359 0 8177 0 0 0 0 0 0 8177 7359 6690 6133 6690 6690 0 0 0 0 0 0 0 0 0 2453 2374 2102 2044 1989 2044 1989 1989 2044 2102 2102 2299 2164 2044 2044 2230 2230 2102 2164 2044 2102 2537 2943 3066 3199 3873 6133 7359 6690 0 0 8177 7359 6133 5256 6133 4906 0 0 0 0 0 1839 1936 2164 1989 2453 2299 1887 1989 2164 1989 0 0 0 0 0 0 0 0 6690 5661 6133 4599 4599 4906 5661 5661 5256 4906 4906 4906 4329 5256 5661 4599 4088 4906 4329 4329 4088 4599 3873 3679 3679 3873 3199 3066 2830 2943 2830 2943 2943 2299 2164 1989 1887 1936 1839 1795 1752 1711 1711 1795 1752 1711 1711 1711 1672 1635 1672 1635 1599 1565 1635 1533 1533 1533 1533 1501 1533 1533 1565 1533 1501 1501 1501 1565 1501 1471 1443 1415 1362 1415 1338 1314 1314 1388 1314 1314 1362 1362 1388 1362 1362 1362 1388 1388 1443 1415 1599 1338 1314 0 0 0 0 0 0 0 0 0
    0 0 0 0 0 0 0 0 0 0 0 0 0 0 0 0 0 0 0 0 0 0 0 0 0 0 0 0 0 0 0 0 0 0 0 0 0 0 0 0 0 0 0 0 0 0 0 0 0 0 0 0 0 0 0 0 0 0 0 0 0 0 0 0 0 0 0 0 0 1936 1752 1795 1887 0 0 0 343 348 0 0 0 0 0 0 3679 5256 3066 4599 0 6133 8177 7359 8177 8177 7359 7359 7359 0 0 0 0 0 0 0 0 0 0 0 0 0 0 0 0 0 0 0 0 0 0 0 0 0 0 0 0 0 8177 0 0 0 8177 8177 8177 6690 7359 0 8177 8177 8177 0 0 0 0 8177 7359 7359 6690 6690 6690 0 0 0 0 0 0 0 0 0 0 2374 2044 1989 1936 1989 1936 1936 1989 2164 2102 2374 2299 2102 2164 2374 2299 2102 2164 2044 2164 2628 3199 3199 3199 5256 7359 8177 6690 0 0 8177 7359 5661 5256 6133 5256 3873 0 0 0 0 0 0 2102 1936 2299 0 1839 1839 1887 1887 0 0 0 0 0 158 154 0 0 5661 5661 3873 4329 4329 5256 5661 4906 4906 4906 5256 4329 5256 5661 4599 4088 4599 4329 4088 3873 4599 3873 3679 3679 4329 3199 3199 2830 2943 2830 2725 2725 2230 2044 1989 1887 1936 1887 1795 1752 1752 1711 1795 1752 1711 1711 1711 1672 1635 1635 1635 1599 1565 1635 1533 1533 1565 1533 1501 1533 1533 1565 1533 1501 1501 1501 1565 1501 1501 1443 1415 1362 1415 1338 1291 1291 1362 1314 1314 1338 1362 1388 1388 1388 1362 1388 1388 1443 1443 1599 1362 1314 0 0 0 0 0 0 0 0 0
    0 0 0 0 0 0 0 0 0 0 0 0 0 0 0 0 0 0 0 0 0 0 0 0 0 0 0 0 0 0 0 0 0 0 0 0 0 0 0 0 0 0 0 0 0 0 0 0 0 0 0 0 0 0 0 0 0 0 0 0 0 0 0 0 0 0 0 0 0 1887 1752 1795 1887 0 0 0 0 0 0 8177 0 0 7359 3679 3873 5256 3066 4088 7359 5256 6690 6690 7359 7359 7359 6690 6690 0 0 0 0 0 0 0 0 0 0 0 0 0 0 0 0 7359 0 0 0 0 0 0 0 0 0 0 0 0 7359 8177 8177 8177 8177 8177 8177 6690 7359 8177 7359 7359 8177 0 0 0 0 0 8177 7359 6690 0 0 0 0 0 330 0 0 0 0 0 0 2230 1989 1887 1887 1936 1887 1887 1936 2164 2164 2374 2453 2164 2230 2453 2299 2102 2164 2102 2164 2628 3199 3199 3345 6133 8177 8177 7359 0 0 8177 7359 5661 5256 6133 5256 4329 3504 0 0 0 0 0 2230 0 2164 0 1795 1795 1795 1887 0 0 0 0 0 157 153 150 0 6690 4906 3504 4088 4088 5256 5256 4906 4906 4906 5256 4088 5256 5661 4906 3873 4329 4088 4088 3679 4329 3504 3345 3345 3679 2943 2725 2230 0 2628 2537 2628 2102 0 1989 0 1936 1887 1795 1795 1752 1752 1795 1752 1752 1711 1672 1672 1635 1635 1635 1599 1599 1635 1565 1533 1565 1501 1533 1533 1533 1565 1533 1471 1501 1501 1565 1471 1501 1415 1388 1362 1388 1338 1291 1314 1362 1314 1291 1314 1338 1362 1362 1388 1362 1388 1388 1443 1415 1599 1362 1314 0 0 0 0 0 0 0 0 0
    0 0 0 0 0 0 0 0 0 0 0 0 0 0 0 0 0 0 0 0 0 0 0 0 0 0 0 0 0 0 0 0 0 0 0 0 0 0 0 0 0 0 0 0 0 0 0 0 0 0 0 0 0 0 0 0 0 0 0 0 0 0 0 0 0 0 0 0 0 1887 1795 1795 1887 0 0 0 0 0 0 6690 0 0 6133 3345 3504 5256 2943 3345 6690 4906 5256 5661 6133 6690 6133 5661 6133 0 0 0 0 0 0 0 0 0 0 0 0 0 0 0 7359 4599 4329 6133 0 0 0 0 0 0 0 0 0 0 6690 7359 7359 7359 7359 7359 7359 6133 6690 7359 6690 6690 7359 8177 0 0 0 0 0 0 0 0 0 0 0 0 0 0 0 657 663 0 0 2164 1989 1936 1936 1936 1936 1936 1989 2230 2299 2453 2453 2164 2299 2453 2299 2102 2230 2102 2230 0 0 3199 3345 5661 7359 8177 6690 0 8177 7359 7359 4906 4329 6133 5256 4088 3504 3504 0 0 0 0 2230 0 0 0 1752 1711 1752 1795 0 0 0 0 0 157 0 0 0 0 1752 1752 3345 3504 4329 4599 4599 4329 4329 4906 4088 4906 5661 4906 3873 4088 4088 3873 3679 3873 3199 0 0 0 0 0 1187 1051 0 2453 2628 2164 0 2044 0 1989 1936 1795 1795 1795 1752 1752 1711 1711 1672 1672 1635 1599 1635 1635 1599 1565 1635 1565 1533 1565 1501 1533 1501 1565 1565 1533 1471 1471 1471 1533 1443 1471 1388 1362 1338 1388 1314 1291 1291 1338 1291 1268 1314 1338 1338 1362 1362 1338 1362 1362 1415 1388 1565 1362 1314 0 1314 0 1268 0 0 0 0 0
    0 0 0 0 0 0 0 0 0 0 0 0 0 0 0 0 0 0 0 0 0 0 0 0 0 0 0 0 0 0 0 0 0 0 0 0 0 0 0 0 0 0 0 0 0 0 0 0 0 0 0 0 0 0 0 0 0 0 0 0 0 0 0 0 0 0 0 0 0 1839 1752 1795 0 0 277 0 278 0 0 6133 0 0 6133 3199 3199 4906 2943 2943 5661 4088 3873 4329 3873 4599 4088 3679 4906 0 0 0 0 0 0 0 0 0 0 0 0 7359 0 0 2943 3066 2830 2943 0 0 0 0 0 0 0 0 0 0 5256 6133 6133 6133 6133 6133 6133 4906 5661 6690 5661 5661 6690 0 0 0 0 0 0 0 0 0 0 0 0 0 0 0 639 657 0 0 0 2164 2044 1989 1989 1989 1989 1989 2044 2299 2299 2453 2374 2164 2299 2453 2299 2102 2299 2164 2230 0 3066 3199 3199 4329 6690 6690 5661 7359 5661 5256 5256 3679 3345 4906 4906 3873 3345 3345 0 0 0 0 0 0 0 0 1711 1672 1711 1752 1635 1501 0 0 0 0 0 0 0 0 1672 1672 0 3066 3873 4329 4329 4599 4599 5256 4599 5256 6133 4906 3873 4088 4088 3873 3504 3873 3066 0 0 0 0 0 1206 1036 0 0 0 2102 0 2044 0 1936 1936 1795 1795 1752 1752 1752 1672 1711 1672 1635 1635 1599 1635 1635 1565 1565 1599 1533 1533 1565 1501 1501 1501 1565 1565 1533 1471 1471 1471 1533 1443 1443 1388 1362 1314 1362 1314 1291 1291 1314 1291 1268 1291 1314 1314 1338 1338 1338 1338 1338 1388 1362 1501 1338 1268 1314 1314 1291 1268 0 0 0 0 0
    0 0 0 0 0 0 0 0 0 0 0 0 0 0 0 0 0 0 0 0 0 0 0 0 0 0 0 0 0 0 0 0 0 0 0 0 0 0 0 0 0 0 0 0 0 0 0 0 0 0 0 0 0 0 0 0 0 0 0 0 0 0 0 0 0 0 0 0 0 1887 1839 1887 0 0 277 279 277 0 8177 4329 6133 6690 4329 2943 2830 3504 2830 2725 0 3199 3066 3199 2943 3066 2943 2830 2943 3199 4599 4906 4329 5661 0 0 0 0 0 8177 6690 4329 6133 2830 2725 2725 2628 2628 2628 0 0 0 0 0 0 6133 7359 7359 3345 4329 4088 4088 4088 4329 4906 3873 4329 5256 3873 4088 4329 0 0 0 0 0 0 0 0 0 0 0 0 0 0 0 645 0 0 0 0 2102 2044 1989 1989 1989 1989 1989 2044 2164 2299 2453 2299 2102 2299 2374 2299 2102 2299 2164 2230 2537 2943 3066 3066 3504 5256 5256 4599 5256 3345 2943 3066 3066 2830 3873 4088 3504 3066 3345 0 0 168 169 0 0 0 0 1711 1635 1635 1711 1635 1501 1501 1565 1471 1501 1415 1338 0 1471 1565 1501 1501 0 0 4088 4088 4599 4599 5661 4599 5661 6133 4906 3873 3873 3873 3679 3679 3873 0 0 0 0 225 0 1149 1008 994 0 0 0 0 0 0 0 0 1752 1711 1752 1711 1752 1672 1672 1672 1635 1635 1599 1599 1599 1533 1565 1565 1533 1533 1565 1501 1501 1501 1565 1565 1533 1471 1471 1471 1533 1443 1443 1362 1338 1314 1362 1314 1291 1291 1314 1291 1268 1291 1314 1314 1314 1314 1338 1338 1338 1362 1338 1415 1338 1226 1291 1291 1268 1247 0 0 0 0 0
    0 0 0 0 0 0 0 0 0 0 0 0 0 0 0 0 0 0 0 0 0 0 0 0 0 0 0 0 0 0 0 0 0 0 0 0 0 0 0 0 0 0 0 0 0 0 0 0 0 0 0 0 0 0 0 0 0 0 0 0 0 0 0 0 0 0 0 0 0 1887 1887 1887 1936 0 0 0 0 0 5256 3345 0 4088 3345 2725 2537 0 2628 2374 2453 2830 2725 2725 2537 2628 2628 2299 2374 2537 2453 2628 2537 2725 3066 0 0 0 0 3345 3873 2943 2943 2628 2453 2537 2374 2453 2299 2374 0 0 0 0 0 3199 2943 3066 2830 3199 3066 3199 3199 3345 3504 3199 3345 3679 3066 3066 3199 0 0 0 0 0 0 0 0 0 0 0 0 0 0 0 0 0 0 0 0 1989 1989 1936 1936 1936 1936 1936 2044 2102 2230 2374 2230 2044 2299 2374 2230 2102 2299 2164 2164 2453 2943 2943 2943 2943 3873 3679 3679 3345 2830 2453 2374 2453 2230 0 3504 3199 2628 0 0 0 0 0 0 0 0 0 1672 1599 1599 1672 1599 1533 1501 1565 1443 1443 1388 1314 1362 1415 1471 1388 0 0 0 0 3873 4088 4329 5661 4599 5256 6133 4599 3873 3873 3873 3679 3679 3873 0 0 0 0 0 0 1066 994 981 981 0 0 0 0 0 0 258 1711 1672 1711 1672 1711 1635 1672 1672 1635 1635 1599 1599 1599 1533 1565 1565 1533 1533 1565 1501 1501 1501 1565 1565 1533 1471 1471 1471 1533 1443 1443 1362 1338 1314 1362 1338 1291 1291 1314 1291 1268 1291 1291 1291 1291 1314 1314 1314 1314 1338 1338 1388 1314 1206 1247 1247 1226 1226 0 0 0 0 0
    0 0 0 0 0 0 0 0 0 0 0 0 0 0 0 0 0 0 0 0 0 0 0 0 0 0 0 0 0 0 0 0 0 0 0 0 0 0 0 0 0 0 0 0 0 0 0 0 0 0 0 0 0 0 0 0 0 0 0 0 0 0 0 0 0 0 0 0 0 1887 1887 1936 1936 0 271 0 0 0 0 2830 2628 2830 2725 2374 2230 2230 2374 2102 2102 2374 2374 2299 2230 2230 2374 2102 2164 2230 2102 2230 2230 2299 2374 2453 2628 3199 2830 2830 2943 2725 2725 2537 2374 2453 2230 2299 2230 2164 2299 2453 0 0 2299 2628 2453 2628 2453 2628 2725 2725 2628 2725 2830 2830 2943 2943 2725 2628 2628 2628 2830 2628 0 2628 2453 0 0 0 0 0 0 0 0 0 0 0 0 0 0 1989 1936 1936 1936 1936 1936 1936 1989 2044 2102 2230 2044 1989 2102 2102 2044 1989 2102 1989 2044 2164 2628 2628 2725 2830 3345 2943 3066 2830 2537 2230 2164 2164 2102 1989 2830 2830 2374 0 0 0 0 0 0 0 0 1752 1672 1565 1599 1672 1599 1533 1501 1565 1443 1415 1388 1314 1338 1362 1388 1338 1291 0 0 0 3345 3504 3873 5256 4088 5256 6133 4329 3679 3679 3679 3679 3504 3679 0 0 0 102 0 0 1022 981 968 955 0 0 0 0 0 0 256 0 1565 1672 0 1672 1565 1635 1672 1635 1635 1599 1599 1599 1533 1565 1533 1533 1565 1565 1501 1501 1501 1565 1565 1533 1471 1443 1471 1501 1443 1443 1362 1338 1338 1388 1362 1314 1291 1338 1291 1268 1291 1268 1268 1268 1291 1291 1291 1291 1291 1291 1338 1291 1206 1226 1206 1187 1206 0 0 0 0 0
    0 0 0 0 0 0 0 0 0 0 0 0 0 0 0 0 0 0 0 0 0 0 0 0 0 0 0 0 0 0 0 0 0 0 0 0 0 0 0 0 0 0 0 0 0 0 0 0 0 0 0 0 0 0 0 0 0 0 0 0 0 0 0 0 0 0 0 0 0 1887 1936 1936 1887 0 0 2044 2044 2453 2453 2230 2230 2299 2164 2102 1989 1989 2044 1989 1936 2102 2102 2102 2044 2102 2164 2044 2044 2044 1989 2044 2044 2044 2044 2102 2102 2537 2537 2453 2628 2453 2374 2299 2164 2230 2102 2102 2044 2044 2102 2164 0 2299 2044 2230 2102 2230 2164 2230 2299 2299 2299 2374 2537 2453 2537 2628 2374 2374 2299 2230 2299 2044 2230 2044 1936 2044 0 0 0 1989 2164 1989 0 2164 0 0 2044 1936 1989 1936 1936 1936 1936 1936 1887 1936 1936 1936 2044 2102 1936 1936 1989 1989 1989 1936 2044 1936 1989 2102 2374 2453 2374 2537 2830 2453 2628 2453 2299 2102 2102 2044 2044 2044 2537 2628 2230 2725 2830 2299 0 0 0 0 1752 1752 1711 1599 1599 1672 1599 1565 1533 1565 1443 1415 1388 1314 1338 1338 1362 1314 1291 0 0 0 3066 3199 3345 4329 3679 4906 5661 4088 3504 3504 3504 3504 3345 0 0 0 0 102 0 0 1008 981 955 955 1008 994 0 0 0 0 254 0 1443 0 0 1599 1501 1565 1565 1533 1599 1599 1599 1599 1501 1533 1533 1565 1565 1565 1501 1501 1501 1565 1565 1533 1471 1443 1443 1501 1443 1443 1388 1362 1362 1415 1388 1338 1314 1338 1314 1291 1268 1268 1247 1247 1268 1268 1268 1247 1268 1247 1291 1247 1187 1206 1187 1168 1168 0 0 0 0 0
    0 0 0 0 0 0 0 0 0 0 0 0 0 0 0 0 0 0 0 0 0 0 0 0 0 0 0 0 0 0 0 0 0 0 0 0 0 0 0 0 0 0 0 0 0 0 0 0 0 0 0 0 0 0 0 0 0 0 0 0 0 0 0 0 0 0 0 0 0 1839 1887 1887 0 0 0 1936 1936 2164 1936 1936 1936 2044 1936 1936 1936 1887 1989 1936 1936 1989 2044 1989 2044 2044 2102 1989 1989 2044 1989 2044 2044 2044 1936 1989 1989 2044 2164 2102 2230 2164 2164 2102 2044 2102 2044 2044 1989 1989 1989 2044 2044 2044 1989 2044 1989 2044 2102 2102 2102 2102 2164 2164 2230 2299 2299 2374 2164 2230 2102 2044 2044 1936 1936 1887 1839 1839 1795 1839 1887 1839 1936 1887 1936 1989 1936 1989 1936 1887 1989 1887 1887 1887 1887 1887 1887 1887 1936 1887 1989 1989 1887 1887 1936 1989 1936 1936 2044 1936 1989 2044 2164 2230 2164 2299 2453 2164 2299 2230 2164 2044 2044 2044 2044 2044 2374 2453 2102 2453 2628 2164 0 0 1936 1839 1795 1752 1711 1599 1635 1672 1635 1565 1533 1565 1443 1415 1415 1314 1338 1338 1338 1291 1268 1291 1291 0 1839 0 2628 3066 3199 4599 5256 3679 3345 3345 3345 3199 3066 0 0 0 102 102 0 994 994 968 955 955 994 981 0 0 0 253 0 0 0 0 0 1471 1443 1443 1471 1443 1501 1501 1565 1565 1471 1501 1501 1565 1565 1565 1501 1501 1501 1565 1565 1533 1471 1415 1443 1501 1443 1443 1388 1362 1362 1415 1443 1338 1338 1338 1291 1291 1268 1247 1247 1226 1247 1247 1247 1247 1247 1247 1268 1226 1187 1168 1149 1132 1149 0 0 0 0 0
    0 0 0 0 0 0 0 0 0 0 0 0 0 0 0 0 0 0 0 0 0 0 0 0 0 0 0 0 0 0 0 0 0 0 0 0 0 0 0 0 0 0 0 0 0 0 0 0 0 0 0 0 0 0 0 0 0 0 0 0 0 0 0 0 0 0 0 0 0 1839 0 0 0 0 0 1936 1936 2102 1887 1887 1887 1936 1839 1839 1887 1839 1887 1887 1887 1936 1936 1989 1989 1989 2102 1989 1989 2044 1989 1989 1989 1989 1887 1936 1887 1936 1989 1989 2044 1989 1989 2044 1989 2044 1989 1989 1936 1936 1936 1936 1936 1936 1936 1989 1936 1989 2044 2044 2044 2102 2164 2164 2164 2230 2164 2230 2102 2102 2044 2044 1989 1887 1936 1887 1839 1839 1795 1839 1839 1795 1887 1839 1887 1887 1887 1936 1887 1887 1936 1887 1887 1887 1936 1887 1887 1887 1936 1887 1936 1936 1887 1887 1887 1936 1936 1936 1989 1887 1936 1989 2044 2102 2044 2102 2102 2044 2102 2102 2102 2044 2044 2044 2044 2044 2164 2230 2044 2230 2374 2044 1936 1887 1936 1887 1795 1795 1752 1635 1635 1672 1635 1565 1533 1565 1443 1388 1388 1291 1314 1314 1314 1268 1247 1247 1268 1247 1388 1291 1268 0 0 4088 4906 3504 3199 2943 3066 3066 0 0 0 0 0 0 968 981 968 968 943 943 994 955 981 0 0 0 0 0 0 0 0 0 0 0 0 0 0 0 0 0 1415 1443 1471 1533 1565 1533 1501 1501 1501 1565 1533 1501 1443 1415 1443 1471 1415 1443 1388 1362 1388 1415 1443 1362 1338 1338 1291 1291 1268 1247 1247 1226 1247 1247 1247 1247 1247 1226 1268 1206 1168 1149 1132 1115 1115 0 0 0 0 0
    0 0 0 0 0 0 0 0 0 0 0 0 0 0 0 0 0 0 0 0 0 0 0 0 0 0 0 0 0 0 0 0 0 0 0 0 0 0 0 0 0 0 0 0 0 0 0 0 0 0 0 0 0 0 0 0 0 0 0 0 0 0 0 0 0 0 0 0 0 1839 1839 1839 1795 1839 1839 1887 1936 2044 1839 1839 1887 1936 1795 1839 1839 1795 1839 1887 1839 1887 1936 1936 1989 1989 2044 1989 1989 2044 1936 1936 1989 1936 1887 1887 1936 1936 1936 1989 1989 1936 1936 1936 1887 1936 1887 1887 1887 1887 1887 1936 1887 1887 1887 1936 1936 1989 1989 2044 2044 2044 2102 2102 2164 2164 2102 2102 2044 2044 1989 1989 1989 1887 1887 1887 1839 1839 1839 1839 1839 1795 1839 1839 1887 1887 1887 1936 1887 1887 1989 1936 1936 1936 1936 1936 1887 1936 1936 1887 1936 1936 1887 1887 1887 1936 1936 1936 1989 1887 1936 1989 1989 1989 1936 1989 1936 1936 1989 1989 1989 1989 1989 1989 1989 2044 2102 2102 1989 2102 2164 1989 1936 1887 1887 1887 1839 1795 1752 1635 1672 1672 1599 1533 1533 1533 1443 1388 1388 1291 1314 1314 1314 1268 1247 1247 1247 1206 1247 1247 1206 1168 1187 1226 3873 3199 3066 2374 2628 2725 0 0 0 0 0 931 943 955 955 955 931 931 994 919 955 981 919 876 865 855 886 886 919 876 799 808 791 774 0 0 113 113 0 1443 1443 1533 1565 1533 1501 1501 1501 1565 1533 1501 1443 1415 1443 1471 1443 1443 1388 1362 1388 1415 1443 1362 1338 1338 1291 1314 1268 1268 1247 1247 1247 1247 1247 1247 1226 1226 1268 1187 1168 1132 1115 1115 1115 0 0 0 0 0
    0 0 0 0 0 0 0 0 0 0 0 0 0 0 0 0 0 0 0 0 0 0 0 0 0 0 0 0 0 0 0 0 0 0 0 0 0 0 0 0 0 0 0 0 0 0 0 0 0 0 0 0 0 0 0 0 0 0 0 0 0 0 0 0 0 0 0 0 0 1795 1839 1795 1752 1795 1795 1887 1887 1936 1795 1839 1839 1887 1752 1795 1795 1752 1839 1839 1795 1839 1887 1936 1936 1989 2044 1936 1989 2044 1936 1936 1936 1887 1887 1887 1936 1936 1936 1989 1989 1936 1936 1936 1887 1887 1839 1839 1839 1839 1839 1887 1839 1887 1887 1887 1887 1936 1989 1989 1989 2044 2044 2044 2044 2044 2044 2044 1989 1989 1936 1989 1936 1839 1887 1839 1839 1839 1839 1887 1839 1795 1839 1795 1839 1887 1887 1936 1887 1887 1936 1887 1887 1936 1936 1887 1887 1887 1936 1887 1936 1936 1887 1887 1887 1887 1887 1936 1989 1887 1936 1989 1989 1989 1936 1936 1887 1936 1989 1936 1989 1989 1989 1989 2044 2044 2044 2044 1989 2044 2044 1936 1936 1887 1887 1887 1839 1795 1752 1635 1672 1672 1565 1533 1533 1533 1415 1388 1415 1314 1338 1338 1314 1291 1268 1247 1247 1187 1187 1187 1168 1132 1149 1168 1206 0 0 1936 1752 0 0 0 0 0 943 919 919 943 943 955 943 943 1008 981 994 1008 968 943 897 876 876 876 876 865 808 808 799 799 0 0 0 113 112 0 0 1565 1599 1565 1533 1501 1501 1565 1533 1471 1443 1415 1471 1471 1443 1443 1415 1388 1415 1415 1471 1388 1362 1362 1314 1338 1291 1268 1268 1247 1247 1268 1268 1247 1247 1247 1268 1187 1168 1115 1115 1115 1115 0 0 0 0 0
    0 0 0 0 0 0 0 0 0 0 0 0 0 0 0 0 0 0 0 0 0 0 0 0 0 0 0 0 0 0 0 0 0 0 0 0 0 0 0 0 0 0 0 0 0 0 0 0 0 0 0 0 0 0 0 0 0 0 0 0 0 0 0 0 0 0 0 0 0 1795 1795 1795 1752 1795 1795 1839 1839 1887 1795 1839 1839 1839 1752 1795 1795 1752 1795 1839 1752 1839 1839 1936 1936 1936 1989 1936 1936 2044 1936 1936 1936 1887 1887 1887 1936 1936 1936 1936 1936 1887 1887 1887 1839 1839 1839 1839 1795 1839 1839 1887 1839 1839 1839 1887 1887 1887 1936 1936 1989 1989 1989 2044 1989 1989 1989 1936 1936 1936 1887 1936 1887 1795 1839 1795 1795 1839 1839 1839 1795 1752 1795 1795 1839 1839 1839 1887 1839 1839 1936 1887 1887 1887 1887 1887 1839 1887 1887 1839 1887 1936 1839 1839 1887 1887 1887 1936 1936 1887 1936 1936 1936 1936 1887 1887 1887 1887 1936 1936 1989 1989 1989 1989 1989 1989 1989 1989 1936 1989 1989 1887 1936 1936 1887 1887 1839 1795 1795 1635 1672 1635 1533 1533 1533 1533 1415 1388 1443 1338 1362 1362 1338 1291 1268 1247 1247 1187 1168 1168 1149 1132 1168 1168 1206 1247 1268 1672 1415 1226 0 0 955 865 919 908 908 931 931 955 943 943 1008 1008 994 1022 981 955 908 876 855 845 845 845 808 791 791 782 0 808 0 0 0 0 0 0 1635 1565 1565 1501 1533 1565 1533 1471 1443 1415 1443 1471 1443 1443 1415 1388 1443 1443 1533 1415 1388 1388 1338 1362 1314 1291 1268 1247 1268 1268 1268 1247 1247 1247 1268 1187 1168 1115 1115 1115 1115 0 0 0 0 0
    0 0 0 0 0 0 0 0 0 0 0 0 0 0 0 0 0 0 0 0 0 0 0 0 0 0 0 0 0 0 0 0 0 0 0 0 0 0 0 0 0 0 0 0 0 0 0 0 0 0 0 0 0 0 0 0 0 0 0 0 0 0 0 0 0 0 0 0 0 1795 1752 1752 1711 1752 1752 1839 1839 1887 1752 1839 1839 1839 1752 1795 1795 1752 1795 1795 1752 1795 1839 1887 1887 1936 1989 1936 1936 1989 1936 1887 1936 1887 1887 1887 1936 1887 1887 1887 1887 1839 1839 1839 1795 1795 1795 1795 1795 1839 1839 1839 1795 1839 1795 1839 1839 1887 1936 1936 1936 1936 1936 1989 1936 1936 1936 1887 1887 1887 1839 1887 1839 1752 1795 1752 1795 1795 1795 1795 1795 1752 1795 1795 1795 1795 1795 1839 1839 1839 1936 1887 1887 1887 1887 1887 1839 1887 1887 1839 1839 1887 1795 1839 1839 1839 1839 1887 1887 1839 1887 1887 1887 1887 1839 1887 1839 1887 1936 1936 1936 1936 1989 1989 1989 1989 1936 1989 1936 1936 1936 1887 1936 1887 1839 1887 1839 1795 1795 1635 0 1635 1501 1533 1501 1501 1415 1388 1443 1338 1362 1362 1338 1314 1291 1268 1268 1226 1187 1187 1168 1149 1168 1187 1206 1206 1226 1388 1362 1206 1066 968 931 855 919 897 908 919 908 943 931 931 1008 981 0 1082 0 981 919 876 855 836 845 836 826 799 799 791 799 808 0 0 0 112 0 0 1635 1533 1533 1471 1501 0 0 1443 1415 1388 1443 1443 1443 1443 1415 1388 1471 1443 1533 1443 1415 1415 1338 1362 1314 1291 1268 1247 1247 1268 1268 1247 1247 1247 1268 1187 1187 1115 1115 1115 1115 0 0 0 0 0
    0 0 0 0 0 0 0 0 0 0 0 0 0 0 0 0 0 0 0 0 0 0 0 0 0 0 0 0 0 0 0 0 0 0 0 0 0 0 0 0 0 0 0 0 0 0 0 0 0 0 0 0 0 0 0 0 0 0 0 0 0 0 0 0 0 0 0 0 0 1752 1711 1711 1672 1711 1711 1752 1752 1795 1672 1795 1795 1795 1752 1752 1795 1752 1795 1795 1752 1795 1795 1839 1887 1887 1936 1887 1887 1936 1887 1839 1839 1795 1839 1839 1887 1839 1887 1839 1839 1839 1795 1795 1752 1795 1795 1752 1752 1795 1752 1839 1752 1795 1795 1795 1795 1839 1887 1936 1887 1936 1936 1936 1887 1887 1887 1839 1839 1839 1839 1839 1795 1752 1752 1752 1752 1752 1752 1752 1752 1711 1752 1752 1795 1795 1795 1795 1795 1839 1936 1936 1887 1887 1887 1887 1887 1887 1839 1839 1839 1839 1795 1839 1795 1839 1839 1887 1887 1795 1839 1839 1839 1887 1839 1839 1839 1887 1887 1887 1936 1936 1936 1936 1936 1989 1936 1936 1936 1887 1887 1839 1936 1936 1887 1936 1887 1839 1795 1635 1672 1635 1533 1501 1501 1471 1415 1415 1443 0 1362 1362 1362 1338 1338 1314 1268 1247 1168 1187 1168 1149 1168 1168 1206 1206 1226 1362 1338 1206 1082 981 943 855 919 897 908 908 908 943 931 931 0 0 0 1471 1362 1187 0 0 908 836 845 826 817 774 774 774 782 799 0 0 0 112 0 0 1599 1501 1501 1443 1471 0 0 1388 1415 1388 1415 1443 1415 1415 1388 1388 1471 1415 1533 1443 1415 1388 1338 1362 1314 1268 1268 1247 1268 1268 1268 1268 1247 1247 1268 1168 1187 1098 1115 1115 1115 0 0 0 0 0
    0 0 0 0 0 0 0 0 0 0 0 0 0 0 0 0 0 0 0 0 0 0 0 0 0 0 0 0 0 0 0 0 0 0 0 0 0 0 0 0 0 0 0 0 0 0 0 0 0 0 0 0 0 0 0 0 0 0 0 0 0 0 0 0 0 0 0 0 0 1672 1635 1635 1599 1635 1635 1672 1672 1752 1635 1752 1752 1795 1711 1752 1752 1752 1752 1795 1711 1752 1752 1839 1839 1839 1887 1887 1887 1887 1887 1795 1795 1795 1795 1795 1839 1839 1839 1839 1795 1795 1752 1752 1711 1752 1711 1711 1711 1752 1711 1795 1711 1752 1795 1795 1795 1839 1887 1887 1839 1887 1887 1887 1887 1887 1839 1795 1795 1839 1795 1795 1795 1711 1711 1711 1752 1752 1752 1711 1711 1672 1711 1752 1752 1752 1795 1795 1795 1839 1887 1887 1839 1839 1839 1839 1839 1839 1839 1795 1839 1839 1839 1839 1839 1839 1839 1887 1887 1839 1839 1887 1839 1839 1795 1795 1795 1839 1839 1839 1887 1887 1887 1887 1887 1887 1839 1839 1839 1839 1839 1839 1936 1887 1887 1936 1887 1839 1839 1672 1711 1635 1533 1501 1471 1443 1415 1415 1443 0 1362 1388 1362 1362 1362 1388 1291 1268 1187 1187 1187 1149 1168 1168 1187 1206 1206 1362 1338 1226 1187 981 968 855 919 908 908 919 908 943 931 931 0 0 1672 1635 1599 1565 1533 1362 1187 0 0 845 817 766 758 0 0 0 0 0 0 0 0 0 0 0 1443 0 0 593 579 0 1362 1338 1388 1415 1415 1388 1388 1388 1471 1415 1565 1471 1443 1362 1338 1338 1314 1291 1291 1268 1268 1268 1268 1268 1247 1247 1268 1149 1187 1098 1115 1115 1115 0 0 0 0 0
    0 0 0 0 0 0 0 0 0 0 0 0 0 0 0 0 0 0 0 0 0 0 0 0 0 0 0 0 0 0 0 0 0 0 0 0 0 0 0 0 0 0 0 0 0 0 0 0 0 0 0 0 0 0 0 0 0 0 0 0 0 0 0 0 0 0 0 0 0 1635 1599 1599 1565 1635 1635 1672 1672 1711 1635 1752 1752 1752 1711 1752 1752 1711 1752 1752 1711 1711 1711 1795 1752 1795 1839 1839 1887 1887 1887 1795 1795 1795 1795 1839 1839 1839 1839 1795 1795 1752 1711 1711 1711 1711 1711 1711 1711 1752 1711 1795 1711 1752 1752 1752 1795 1839 1839 1887 1839 1839 1839 1839 1839 1839 1795 1795 1752 1795 1795 1752 1752 1711 1711 1711 1711 1752 1752 1711 1711 1635 1672 1711 1711 1752 1752 1752 1752 1795 1839 1887 1795 1795 1839 1795 1839 1839 1795 1795 1795 1887 1795 1795 1795 1795 1795 1839 1795 1795 1752 1752 1752 1752 1752 1752 1752 1795 1795 1795 1839 1839 1839 1839 1839 1839 1795 1795 1839 1795 1752 1795 1887 1887 1839 1936 1887 1839 1839 1635 1711 1635 1533 1501 1443 1443 1415 1415 1471 0 1388 1388 1388 1388 1388 1443 1314 1291 1168 1187 1187 1149 1168 1168 1187 1187 1206 1362 1338 1247 0 0 981 865 931 919 919 919 919 0 0 931 0 0 1839 1752 1752 1752 1711 1565 1388 0 0 845 817 758 0 0 0 0 0 0 0 0 0 0 0 0 0 0 618 613 598 0 0 0 0 0 1388 1388 1362 1362 1443 1415 1565 1565 1471 1388 1338 1362 1314 1291 1291 1291 1268 1291 1291 1291 1268 1268 1291 1132 1187 1098 1132 1132 1132 0 0 0 0 0
    0 0 0 0 0 0 0 0 0 0 0 0 0 0 0 0 0 0 0 0 0 0 0 0 0 0 0 0 0 0 0 0 0 0 0 0 0 0 0 0 0 0 0 0 0 0 0 0 0 0 0 0 0 0 0 0 0 0 0 0 0 0 0 0 0 0 0 0 0 1565 1533 1533 1533 1599 1599 1635 1672 1672 1635 1711 1752 1711 1672 1711 1711 1672 1711 1711 1672 1672 1672 1752 1672 1752 1752 1752 1795 1795 1795 1711 1752 1752 1795 1795 1839 1795 1839 1795 1752 1752 1711 1711 1672 1711 1711 1672 1672 1711 1672 1752 1672 1711 1711 1711 1752 1795 1839 1839 1795 1839 1795 1795 1795 1795 1752 1752 1711 1752 1752 1711 1752 1711 1711 1711 1711 1752 1752 1711 1711 1635 1672 1672 1672 1711 1711 1711 1752 1752 1795 1839 1752 1795 1795 1795 1795 1839 1795 1795 1795 1887 1795 1752 1752 1711 1711 1752 1711 1711 1672 1672 1711 1711 1711 1711 1711 1711 1752 1752 1839 1839 1839 1839 1839 1839 1795 1795 1839 1795 1752 1752 1839 1839 1795 1887 1839 1795 1795 1599 1672 1635 1533 1501 1443 1443 1415 1415 1471 1362 1388 1388 1415 1415 1415 1471 1314 1291 1168 1187 1168 1149 1168 1168 1187 1187 1187 1362 1362 1291 1338 0 1008 886 955 0 931 931 919 0 0 943 994 0 1839 1839 1795 1795 1795 1635 1415 0 0 908 836 750 0 0 0 0 0 0 0 0 0 0 0 0 681 669 657 639 623 639 629 0 0 0 0 0 1338 1338 1388 1388 1501 1565 1501 1388 1362 1362 1314 1314 1291 1291 1291 1291 1291 1291 1268 1268 1291 1115 1187 1098 1132 1132 1132 0 0 0 0 0
    0 0 0 0 0 0 0 0 0 0 0 0 0 0 0 0 0 0 0 0 0 0 0 0 0 0 0 0 0 0 0 0 0 0 0 0 0 0 0 0 0 0 0 0 0 0 0 0 0 0 0 0 0 0 0 0 0 0 0 0 0 0 0 0 0 0 0 0 0 1565 1533 1533 1533 1565 1599 1599 1672 1672 1599 1672 1711 1672 1635 1672 1672 1635 1635 1672 1599 1599 1635 1672 1599 1672 1635 1635 1711 1635 1672 1635 1672 1672 1711 1752 1752 1752 1752 1752 1711 1711 1635 1672 1672 1672 1672 1672 1635 1672 1672 1752 1635 1672 1672 1672 1672 1711 1752 1795 1711 1752 1752 1752 1752 1752 1752 1711 1711 1711 1711 1711 1711 1711 1711 1711 1711 1711 1711 1672 1711 1599 1635 1635 1635 1672 1672 1672 1711 1711 1752 1795 1711 1795 1795 1752 1795 1795 1795 1795 1795 1839 1752 1711 1711 1672 1672 1711 1672 1672 1635 1635 1672 1635 1672 1672 1672 1672 1752 1711 1795 1795 1795 1839 1795 1795 1795 1795 1795 1752 1711 1711 1752 1752 1752 1795 1795 1672 1711 1565 1635 1599 1533 1501 1471 1443 1415 1415 1471 1362 1388 1388 1415 1415 1415 1471 1314 1314 1168 1206 1168 1168 1168 1187 1206 1187 1187 1338 1338 1314 1338 0 1008 897 955 0 0 931 931 0 0 0 994 0 1795 1839 1839 1839 1795 1711 1443 0 0 0 0 0 0 0 0 0 0 782 766 0 774 758 743 743 700 694 687 669 669 675 675 669 645 613 549 0 1291 1314 1362 1415 1501 1533 1471 1388 1338 1338 1314 1314 1291 1291 1268 1291 1291 1291 1268 1268 1291 1098 1187 1098 1149 1132 1149 0 0 0 0 0
    0 0 0 0 0 0 0 0 0 0 0 0 0 0 0 0 0 0 0 0 0 0 0 0 0 0 0 0 0 0 0 0 0 0 0 0 0 0 0 0 0 0 0 0 0 0 0 0 0 0 0 0 0 0 0 0 0 0 0 0 0 0 0 0 0 0 0 0 0 1565 1533 1533 1533 1565 1565 1565 1635 1635 1565 1672 1672 1635 1599 1635 1635 1599 1599 1635 1565 1533 1599 1565 1501 1533 1471 1471 1565 1501 1565 1501 1565 1565 1599 1672 1672 1635 1599 1635 1599 1599 1565 1599 1599 1635 1599 1635 1565 1672 1635 1711 1635 1672 1635 1635 1635 1672 1711 1752 1672 1752 1711 1711 1752 1711 1711 1672 1672 1711 1711 1672 1711 1711 1711 1672 1711 1711 1711 1672 1672 1565 1565 1599 1635 1635 1635 1635 1672 1672 1711 1752 1672 1752 1752 1752 1752 1795 1752 1795 1752 1795 1711 1672 1672 1635 1635 1635 1635 1635 1599 1599 1635 1599 1672 1672 1635 1672 1711 1711 1795 1752 1795 1795 1752 1752 1752 1752 1795 1711 1672 1635 1635 1672 1635 1672 1672 1565 1672 1501 1599 1599 1533 1501 1471 1443 1415 1415 1471 1362 1362 1388 1388 1388 1388 1443 1291 1291 1168 1206 1168 1168 1187 1187 1206 1206 1187 1338 1338 1314 1338 1247 1008 919 968 0 0 943 931 0 0 0 994 0 1752 1839 1887 1887 1839 1711 1415 1247 0 0 0 0 0 166 166 0 0 774 758 0 743 728 721 728 700 700 694 687 694 694 694 707 687 613 574 0 0 0 0 1362 1415 1533 1443 1338 1314 1314 1291 1291 1268 1291 1268 1291 1291 1291 1291 1268 1291 1098 1187 1115 1168 1149 1149 0 0 0 0 0
    0 0 0 0 0 0 0 0 0 0 0 0 0 0 0 0 0 0 0 0 0 0 0 0 0 0 0 0 0 0 0 0 0 0 0 0 0 0 0 0 0 0 0 0 0 0 0 0 0 0 0 0 0 0 0 0 0 0 0 0 0 0 0 0 0 0 0 0 0 1565 1533 1533 1565 1565 1599 1599 1672 1672 1565 1635 1672 1565 1565 1565 1565 1533 1533 1599 1533 1443 1599 1471 1443 1443 1388 1415 1471 1443 1501 1443 1501 1501 1501 1565 1533 1443 1443 1443 1443 1471 1443 1501 1501 1533 1501 1565 1501 1599 1599 1672 1565 1565 1565 1565 1565 1599 1635 1635 1599 1672 1672 1672 1711 1711 1711 1635 1635 1672 1672 1635 1672 1672 1672 1672 1711 1672 1672 1635 1635 1533 1533 1533 1565 1565 1599 1599 1599 1599 1635 1672 1599 1672 1672 1672 1711 1711 1711 1752 1711 1752 1635 1599 1635 1565 1599 1599 1599 1599 1599 1599 1635 1599 1635 1635 1635 1635 1672 1672 1711 1711 1752 1752 1672 1711 1711 1711 1711 1672 1599 1565 1533 1599 1533 1565 1565 1471 1599 1443 1565 1565 1501 1471 1443 1443 1388 1388 1443 1338 1362 1362 1362 1362 1362 1415 1291 1291 1168 1206 1168 1168 1187 1187 1206 1187 1187 1314 1338 1314 1314 1098 994 955 981 0 0 943 0 0 0 0 994 1672 1711 1795 1839 1887 1839 1711 1388 0 0 0 0 0 0 166 165 166 0 0 743 0 728 728 714 721 700 700 694 687 700 700 694 714 681 623 608 623 639 669 663 687 0 0 1338 1314 1268 1247 1247 1268 1268 1291 1291 1291 1314 1338 1338 1314 1314 1115 1206 1115 1168 1149 1168 0 0 0 0 0
    0 0 0 0 0 0 0 0 0 0 0 0 0 0 0 0 0 0 0 0 0 0 0 0 0 0 0 0 0 0 0 0 0 0 0 0 0 0 0 0 0 0 0 0 0 0 0 0 0 0 0 0 0 0 0 0 0 0 0 0 0 0 0 0 0 0 0 0 0 1533 1533 1533 1565 1565 1565 1565 1635 1635 1533 1565 1599 1501 1501 1501 1501 1471 1501 1533 1471 1415 1599 1443 1415 1388 1338 1362 1415 1388 1443 1388 1443 1471 1471 1533 1471 1388 1415 1415 1388 1443 1415 1443 1471 1471 1443 1471 1443 1565 1501 1599 1533 1471 1501 1501 1501 1501 1533 1565 1533 1565 1635 1599 1672 1672 1672 1599 1599 1599 1635 1565 1672 1672 1672 1672 1711 1672 1672 1635 1599 1501 1501 1501 1533 1533 1565 1565 1533 1565 1533 1599 1501 1565 1565 1565 1599 1635 1635 1672 1635 1672 1565 1533 1565 1533 1533 1533 1533 1533 1533 1533 1565 1533 1565 1565 1565 1599 1635 1599 1672 1672 1672 1672 1635 1672 1672 1635 1672 1599 1533 1533 1471 1471 1443 1443 1443 1388 1501 1415 1501 1501 1501 1443 1443 1415 1388 1388 1415 1314 1338 1338 1362 1362 1362 1415 1291 1291 1168 1206 1168 1168 1168 1187 1206 1187 1187 1291 1314 1291 1291 1051 981 955 981 0 955 943 943 0 0 0 994 1635 1672 1752 1795 1887 1795 1672 1362 0 0 0 808 0 0 0 165 0 0 766 750 714 735 721 714 721 707 700 694 694 714 707 700 714 694 675 675 669 663 669 675 675 675 687 694 0 0 0 0 0 1268 1268 1268 1291 1314 1362 1338 1314 1291 1115 1187 1115 1168 1149 1168 0 0 0 0 0
    0 0 0 0 0 0 0 0 0 0 0 0 0 0 0 0 0 0 0 0 0 0 0 0 0 0 0 0 0 0 0 0 0 0 0 0 0 0 0 0 0 0 0 0 0 0 0 0 0 0 0 0 0 0 0 0 0 0 0 0 0 0 0 0 0 0 0 0 0 1501 1501 1533 1565 1533 1565 1533 1599 1565 1471 1501 1533 1443 1443 1443 1471 1443 1443 1471 1443 1362 1471 1362 1314 1268 1268 1291 1338 1338 1362 1338 1388 1415 1415 1443 1388 1338 1338 1362 1362 1388 1388 1415 1443 1443 1415 1443 1415 1533 1443 1533 1471 1443 1471 1443 1471 1471 1471 1501 1471 1533 1599 1533 1635 1635 1599 1533 1533 1501 1533 1471 1599 1635 1635 1635 1672 1635 1635 1599 1533 1471 1471 1471 1501 1471 1501 1533 1501 1533 1471 1533 1443 1471 1471 1471 1501 1565 1565 1599 1533 1599 1501 1471 1533 1471 1501 1471 1471 1471 1471 1501 1501 1443 1471 1443 1501 1533 1565 1533 1599 1599 1599 1635 1599 1599 1599 1599 1635 1565 1471 1501 1443 1415 1388 1362 1362 1362 1443 1388 1443 1443 1471 1443 1443 1415 1362 1388 1415 1314 1338 1338 1338 1338 1338 1388 1291 1291 1149 1206 1149 1168 1168 1168 1187 1168 1168 1291 1268 1268 1206 1022 955 955 981 955 955 943 943 968 955 994 994 1635 1672 1752 1795 1839 1752 1565 1338 0 0 0 799 728 750 0 0 0 750 774 750 714 735 714 714 721 707 707 694 694 735 721 714 735 714 707 707 700 687 687 687 687 681 675 675 663 681 687 669 634 0 0 1247 1268 1291 1338 1314 1291 1291 1115 1187 1132 1187 1149 1168 0 0 0 0 0
    0 0 0 0 0 0 0 0 0 0 0 0 0 0 0 0 0 0 0 0 0 0 0 0 0 0 0 0 0 0 0 0 0 0 0 0 0 0 0 0 0 0 0 0 0 0 0 0 0 0 0 0 0 0 0 0 0 0 0 0 0 0 0 0 0 0 0 0 0 1471 1471 1501 1533 1501 1533 1501 1533 1501 1415 1443 1443 1388 1415 1415 1415 1415 1388 1415 1388 1314 1338 1268 1226 1226 1226 1268 1291 1314 1338 1338 1388 1388 1388 1415 1338 1314 1314 1338 1338 1362 1362 1388 1388 1388 1388 1415 1388 1471 1443 1471 1443 1388 1415 1388 1415 1415 1415 1443 1415 1471 1501 1443 1533 1533 1501 1443 1443 1415 1443 1415 1565 1565 1565 1599 1672 1599 1599 1565 1471 1443 1443 1443 1443 1443 1471 1501 1443 1501 1443 1471 1415 1415 1415 1415 1443 1501 1471 1533 1443 1501 1443 1443 1471 1443 1471 1443 1471 1471 1471 1471 1471 1415 1443 1415 1471 1501 1533 1533 1533 1565 1565 1565 1533 1565 1565 1565 1599 1533 1443 1471 1415 1388 1338 1338 1338 1338 1388 1362 1388 1415 1443 1415 1415 1388 1362 1362 1388 1314 1338 1338 1338 1338 1338 1338 1268 1268 1115 1187 1132 1149 1149 1168 1187 1168 1168 1268 1247 1247 1168 1022 943 955 981 955 943 943 943 968 955 994 994 1565 1565 1711 1672 1711 1599 1443 1314 0 0 791 808 735 766 766 750 758 750 766 743 714 728 707 707 0 700 700 0 694 750 735 728 782 728 721 714 700 694 694 687 687 687 681 669 645 651 663 651 623 613 593 584 0 0 1314 1291 1268 1268 1098 1168 1132 1187 1149 1168 0 0 0 0 0
    0 0 0 0 0 0 0 0 0 0 0 0 0 0 0 0 0 0 0 0 0 0 0 0 0 0 0 0 0 0 0 0 0 0 0 0 0 0 0 0 0 0 0 0 0 0 0 0 0 0 0 0 0 0 0 0 0 0 0 0 0 0 0 0 0 0 0 0 0 1443 1443 1471 1501 1443 1471 1443 1443 1415 1362 1388 1388 1362 1362 1362 1362 1388 1362 1388 1362 1291 1268 1247 1206 1206 1206 1247 1291 1291 1314 1314 1362 1362 1362 1388 1338 1314 1338 1338 1338 1338 1338 1362 1362 1388 1362 1388 1388 1443 1388 1388 1388 1338 1362 1362 1388 1388 1388 1388 1415 1415 1471 1415 1471 1443 1415 1388 1388 1388 1388 1388 1471 1501 1533 1565 1635 1565 1565 1501 1415 1388 1388 1388 1415 1388 1415 1443 1415 1471 1415 1443 1388 1362 1362 1362 1362 1415 1415 1415 1388 1415 1388 1388 1443 1415 1443 1415 1443 1443 1443 1443 1443 1415 1443 1415 1443 1443 1501 1471 1471 1533 1501 1533 1501 1533 1533 1533 1565 1501 1415 1443 1415 1362 1338 1314 1314 1314 1338 1338 1338 1338 1415 1388 1388 1388 1362 1338 1362 1314 1338 1338 1338 1314 1314 1291 1247 1226 1098 1168 1115 1132 1149 1149 1168 1149 1149 1268 1226 1247 1132 0 0 968 968 943 943 943 943 968 955 1008 994 0 1443 1501 1443 1471 1415 1362 1247 0 0 808 817 735 774 774 758 758 750 766 743 714 728 700 0 0 0 0 0 0 766 750 750 817 758 728 714 700 694 687 687 687 687 681 669 651 657 657 639 623 618 598 598 584 553 0 0 0 1226 1082 1149 1115 1168 1149 1168 0 0 0 0 0
    0 0 0 0 0 0 0 0 0 0 0 0 0 0 0 0 0 0 0 0 0 0 0 0 0 0 0 0 0 0 0 0 0 0 0 0 0 0 0 0 0 0 0 0 0 0 0 0 0 0 0 0 0 0 0 0 0 0 0 0 0 0 0 0 0 0 0 0 0 1415 1415 1415 1443 1388 1388 1388 1362 1338 1314 1338 1362 1338 1338 1338 1338 1362 1338 0 1338 1268 1247 1247 1206 1226 1206 1247 1268 1268 1291 1291 1314 1338 1338 1362 1338 1314 1314 1314 1314 1314 1314 1338 1338 1362 1338 1362 1362 1415 1362 1338 1362 1314 1338 1338 1338 1362 1362 1362 1388 1388 1415 1388 1415 1388 1362 1338 1362 1338 1338 1362 1415 1415 1443 1471 1565 1471 1471 1443 1362 1362 1362 1362 1388 1362 1388 1415 1362 1415 1388 1388 1362 1338 1338 1338 1314 1362 1362 1338 1314 1338 1338 1338 1362 1362 1362 1338 1362 1362 1362 1388 1388 1362 1388 1362 1388 1415 1443 1443 1415 1443 1443 1443 1415 1443 1443 1443 1443 1443 1362 1415 1388 1338 1314 1291 1291 1291 1314 1314 1314 1291 1362 1362 1388 1388 1338 1338 1338 1291 1314 1314 1314 1291 1268 1268 1247 1206 1082 1168 1115 1132 1132 1149 1168 1149 1149 1247 1226 1226 1051 0 897 955 968 931 943 943 943 968 955 1008 994 0 1362 1314 1362 1338 1362 1314 1168 1008 0 808 817 735 782 782 758 766 758 766 743 714 728 700 0 0 0 0 0 0 799 774 799 845 799 758 735 714 707 694 694 694 687 681 675 663 657 651 634 623 618 598 593 588 566 579 561 549 0 0 1115 1098 1168 1149 1168 0 0 0 0 0
    0 0 0 0 0 0 0 0 0 0 0 0 0 0 0 0 0 0 0 0 0 0 0 0 0 0 0 0 0 0 0 0 0 0 0 0 0 0 0 0 0 0 0 0 0 0 0 0 0 0 0 0 0 0 0 0 0 0 0 0 0 0 0 0 0 0 0 0 0 1362 1362 1362 1388 1338 1338 1338 1314 1291 1291 1314 1314 1314 1314 1314 1314 1338 1314 0 1291 1268 1226 1226 1187 1226 1206 1226 1247 1247 1268 1291 1291 1314 1291 1338 1314 1314 1314 1314 1314 1314 1314 1314 1338 1338 1338 1338 1338 1388 1362 1314 1338 1291 1314 1314 1338 1338 1338 1338 1362 1362 1415 1362 1388 1362 1338 1314 1338 1314 1338 1338 1362 1362 1388 1415 1471 1415 1388 1388 1338 1362 1338 1338 1362 1362 1362 1362 1338 1388 1338 1362 1338 1314 1291 1291 1291 1291 1314 1291 1291 1291 1291 1291 1291 1314 1314 1291 1314 1291 1314 1338 1338 1338 1338 1338 1362 1362 1388 1415 1388 1362 1362 1362 1362 1388 1388 1388 1362 1362 1338 1388 1362 1314 1291 1268 1268 1268 1291 1291 1268 1268 1338 1338 1362 1362 1314 1291 1314 1291 1291 1291 1291 1268 1247 1226 1226 1187 1082 1149 1098 1115 1132 1132 1168 1132 1132 1247 1187 1206 1008 981 876 943 955 919 931 931 931 955 943 1022 1008 0 1314 1291 1338 1291 1314 1291 1149 1008 0 817 817 735 782 782 758 766 758 766 735 714 721 700 0 0 0 0 0 687 808 799 876 919 836 799 758 721 707 694 694 687 687 675 669 657 651 639 634 618 618 598 593 584 570 570 557 549 549 545 0 0 1149 1132 1168 0 0 0 0 0
    0 0 0 0 0 0 0 0 0 0 0 0 0 0 0 0 0 0 0 0 0 0 0 0 0 0 0 0 0 0 0 0 0 0 0 0 0 0 0 0 0 0 0 0 0 0 0 0 0 0 0 0 0 0 0 0 0 0 0 0 0 0 0 0 0 0 0 0 0 1314 1291 1291 1291 1268 1268 1291 1226 1268 1268 1291 1314 1291 1291 1291 1291 0 1314 0 1268 1187 1115 1187 1149 1187 1187 1187 1226 1226 1226 1268 1268 1291 1291 1314 1314 1314 1338 1314 1314 1338 1314 1314 1338 1338 1338 1338 1338 1388 1338 1291 1338 1268 1291 1291 1314 1338 1338 1338 1362 1338 1362 1338 1362 1314 1291 1291 1291 1314 1314 1314 1338 1338 1362 1362 1415 1362 1338 1362 1314 1338 1338 1314 1338 1338 1338 1338 1314 1362 1314 1338 1314 1291 1247 1268 1268 1268 1268 1268 1268 1268 1268 1268 1268 1291 1291 1247 1268 1247 1268 1291 1314 1314 1314 1291 1314 1314 1338 1362 1338 1314 1338 1314 1314 1338 1338 1338 1338 1338 1338 1338 1338 1291 1268 1268 1247 1268 1268 1268 1247 1247 1291 1291 1314 1338 1268 1268 1268 1247 1268 1247 1247 1247 1206 1168 1206 1149 1066 1132 1098 1115 1132 1132 1149 1115 1132 1247 1168 1168 943 955 865 931 931 908 919 919 931 955 943 1008 0 0 1314 1291 1314 1314 1314 1291 1115 955 782 808 808 735 782 774 758 766 750 766 735 714 0 694 0 0 0 0 0 681 791 791 0 0 931 855 799 743 721 694 700 694 694 681 669 663 651 639 629 618 618 598 593 584 570 566 553 553 553 545 549 541 0 0 1132 0 0 0 0 0
    0 0 0 0 0 0 0 0 0 0 0 0 0 0 0 0 0 0 0 0 0 0 0 0 0 0 0 0 0 0 0 0 0 0 0 0 0 0 0 0 0 0 0 0 0 0 0 0 0 0 0 0 0 0 0 0 0 0 0 0 0 0 0 0 0 0 0 0 0 0 1187 1206 1115 1098 1066 1115 1051 1168 1206 1226 1268 1247 1226 1226 1226 1247 0 0 0 994 0 1051 1066 1115 1132 1132 1187 1206 1206 1247 1247 1268 1247 1314 1314 1291 1338 1314 1291 1314 1314 1291 1314 1314 1314 1314 1314 1362 1314 1268 1314 1247 1268 1291 1314 1314 1314 1314 1338 1314 1338 1314 1314 1291 1247 1268 1268 1291 1291 1291 1314 1314 1338 1338 1362 1338 1314 1338 1291 1314 1314 1314 1314 1314 1338 1338 1314 1338 1314 1314 1291 1268 1226 1247 1247 1247 1268 1247 1247 1268 1247 1268 1268 1268 1291 1247 1268 1226 1247 1268 1291 1291 1291 1268 1291 1291 1291 1314 1291 1291 1291 1291 1291 1314 1314 1314 1291 1314 1291 1338 1338 1268 1247 1247 1226 1247 1247 1247 1226 1206 1247 1247 1247 1291 1226 1226 1247 1226 1226 1206 1206 1206 1149 1115 1149 1098 1051 1115 1082 1098 1115 1115 1132 1082 1115 1226 1132 1098 908 931 855 919 919 897 908 908 919 943 931 994 981 981 1206 1206 1247 1268 1291 1268 1082 897 774 808 808 735 782 774 750 758 750 766 735 714 0 0 0 0 0 0 681 681 774 766 0 1066 0 0 0 817 774 714 714 700 700 687 675 663 639 634 629 613 608 598 593 584 574 570 557 561 553 553 557 549 553 545 0 0 0 0 0 0
    0 0 0 0 0 0 0 0 0 0 0 0 0 0 0 0 0 0 0 0 0 0 0 0 0 0 0 0 0 0 0 0 0 0 0 0 0 0 0 0 0 0 0 0 0 0 0 0 0 0 0 0 0 0 0 0 0 0 0 0 0 0 0 0 0 0 0 0 0 0 1051 1066 1022 1008 1008 1022 1008 1066 1115 1132 1187 1149 1132 1115 1066 0 1008 981 968 955 955 994 1008 0 1082 0 1149 1168 1187 1226 1226 1226 1226 1291 1268 1291 1314 1291 1247 1247 1268 1226 1268 1268 1268 1291 1268 1338 1314 1226 1314 1226 1247 1268 1268 1314 1268 1268 1291 1268 1291 1247 1247 1226 1187 1226 1247 1247 1268 1268 1291 1291 1291 1291 1314 1268 1247 1268 1187 1268 1268 1268 1291 1291 1314 1314 1314 1314 1291 1291 1268 1247 1187 1226 1226 1226 1226 1206 1226 1247 1226 1268 1247 1268 1291 1247 1247 1226 1226 1247 1268 1247 1268 1226 1247 1247 1247 1268 1247 1247 1247 1247 1268 1268 1291 1291 1268 1291 1268 1314 1314 1247 1247 1247 1206 1226 1226 1247 1206 1206 1247 1247 1226 1291 1226 1226 1226 1226 1187 1168 1168 1132 1098 1066 1115 1082 1036 1098 1082 1098 1098 1098 1115 1066 1082 1187 1066 1022 908 908 855 908 919 897 908 908 919 931 919 994 955 968 1051 1066 1082 1168 1226 1206 1051 886 791 817 817 743 782 774 750 758 750 766 728 707 0 694 0 0 0 0 687 681 782 791 1051 1082 1036 994 981 955 981 865 799 774 721 700 694 675 634 629 623 618 613 603 598 593 588 588 570 570 561 561 566 553 561 553 557 0 0 0 0 0
    0 0 0 0 0 0 0 0 0 0 0 0 0 0 0 0 0 0 0 0 0 0 0 0 0 0 0 0 0 0 0 0 0 0 0 0 0 0 0 0 0 0 0 0 0 0 0 0 0 0 0 0 0 0 0 0 0 0 0 0 0 0 0 0 0 0 0 0 0 0 1022 1022 1008 994 981 1008 994 1022 1051 1066 1082 1066 1036 1036 994 994 981 968 943 943 943 968 981 0 1066 1066 1115 1132 1149 1206 1187 1132 1115 1206 1226 1247 1247 1247 1168 1168 1187 1132 1168 1206 1187 1226 1206 1314 1338 1206 1314 1206 1226 1247 1226 1268 1206 1187 1206 1149 1168 1115 1132 1098 1082 1149 1187 1206 1206 1247 1247 1226 1247 1226 1247 1149 1082 1098 1022 0 1149 1149 1226 0 0 1291 0 1291 1268 1247 1226 1168 1098 1168 1168 1149 1132 1149 1149 1168 1168 1226 1206 1206 1268 1206 1206 1187 1206 1206 1226 1206 1226 1168 1149 1187 1168 1187 1168 1115 1168 1168 1226 1247 1247 1268 1247 1268 1268 1314 1314 1226 1226 1226 1187 1206 1206 1226 1206 1187 1226 1226 1206 1268 1187 1187 1206 1168 1115 1082 1082 1066 1036 1022 1066 1051 1022 1066 1066 1082 1082 1082 1098 1051 1051 1098 1022 981 897 897 865 908 908 897 908 897 919 919 919 981 931 955 994 1008 1008 1022 1051 1051 1022 886 808 817 817 750 782 774 750 758 750 766 728 707 0 694 0 0 0 0 687 687 782 791 1082 1098 1051 1022 1022 994 994 968 865 845 791 750 721 687 634 629 618 613 613 603 603 598 593 593 579 579 566 566 574 557 557 553 553 0 0 0 0 0
    0 0 0 0 0 0 0 0 0 0 0 0 0 0 0 0 0 0 0 0 0 0 0 0 0 0 0 0 0 0 0 0 0 0 0 0 0 0 0 0 0 0 0 0 0 0 0 0 0 0 0 0 0 0 0 0 0 0 0 0 0 0 0 0 0 0 0 0 0 0 1008 1008 994 994 981 981 981 1008 1008 1008 1022 1008 994 1008 981 968 968 955 943 931 931 955 968 994 1008 1008 1051 1066 1098 1168 1082 1051 1036 1098 1149 1206 1187 1168 1098 1098 1098 1082 1066 1082 1066 1008 1036 0 1362 1132 1314 1206 1206 1226 1187 1226 1115 1082 1098 1036 1022 1022 1022 1022 1036 1066 1115 1115 1132 1187 1168 1149 1149 1115 1132 1051 994 1008 968 994 0 0 0 0 0 0 0 1226 1168 0 1149 1082 1036 1082 1082 1066 1051 1082 1082 1082 1066 1149 1098 1066 1226 1132 0 1098 1132 1149 0 0 0 1082 0 1132 1082 1082 1066 1036 1066 1066 1098 1187 1149 1226 1187 1226 1226 1268 1291 1206 1187 1187 1149 1187 1187 1187 1168 1149 1187 1206 1149 1247 1115 1132 1132 1098 1051 1036 1036 1022 1008 994 1022 1008 994 1036 1036 1066 1066 1066 1082 1036 1022 1051 1008 968 908 908 865 908 908 897 908 897 908 919 919 981 931 943 968 981 968 955 981 981 968 876 817 817 817 750 791 774 750 758 750 766 728 707 0 687 0 0 687 694 687 687 774 791 994 1022 1022 994 994 955 955 955 886 876 836 826 799 735 700 681 645 629 623 608 608 598 593 593 579 574 570 570 574 557 557 553 553 0 0 0 0 0
    0 0 0 0 0 0 0 0 0 0 0 0 0 0 0 0 0 0 0 0 0 0 0 0 0 0 0 0 0 0 0 0 0 0 0 0 0 0 0 0 0 0 0 0 0 0 0 0 0 0 0 0 0 0 0 0 0 0 0 0 0 0 0 0 0 0 0 0 0 0 994 981 981 981 968 968 968 981 994 994 994 981 968 981 968 955 955 943 931 931 931 955 955 968 981 981 1008 1022 1036 1098 1036 1008 1008 0 1082 0 1098 1066 1051 1051 1036 1036 1008 1008 1008 994 1008 994 0 0 1338 1206 1206 1226 1132 1187 1051 1022 1022 1008 994 994 994 994 1008 1022 1066 1051 1082 1132 1098 1066 1082 1051 1051 1036 968 994 955 955 981 981 994 0 0 0 0 1149 1082 0 1066 1036 1008 1036 1051 1036 0 1036 1036 1036 1022 1082 1051 1022 0 1082 0 0 0 0 0 0 0 1051 0 1066 1036 1036 1022 1008 1022 1022 1022 1082 1051 1115 1082 1132 1187 1206 1247 1168 1132 1149 1115 1132 1149 1132 1115 1115 1132 1149 1098 1168 1051 1066 1082 1051 1022 1008 1008 1008 994 968 994 981 981 1008 1022 1036 1036 1051 1066 1008 1008 1008 981 943 908 897 876 908 908 897 908 897 919 919 919 968 919 919 931 943 919 908 919 931 931 865 817 826 817 750 782 774 750 758 750 766 728 707 707 687 0 0 694 694 687 687 766 782 897 968 981 981 968 943 943 955 897 897 845 836 826 808 758 714 687 663 634 613 608 593 593 588 579 574 566 566 566 557 553 545 545 0 0 0 0 0
    0 0 0 0 0 0 0 0 0 0 0 0 0 0 0 0 0 0 0 0 0 0 0 0 0 0 0 0 0 0 0 0 0 0 0 0 0 0 0 0 0 0 0 0 0 0 0 0 0 0 0 0 0 0 0 0 0 0 0 0 0 0 0 0 0 0 0 0 0 968 981 968 968 968 955 955 955 968 968 968 968 955 955 968 955 955 955 943 931 931 931 943 943 955 955 943 981 994 1008 1036 1008 981 968 994 0 0 1008 968 981 994 994 994 981 968 981 981 981 981 981 981 0 1149 1149 1187 1066 1036 1008 981 994 981 968 968 968 968 981 994 1022 1022 1036 1082 1051 0 1051 0 1022 1008 955 981 943 943 968 968 981 981 981 0 0 1066 1036 1022 1022 1008 994 1022 1022 1008 994 0 1022 1022 1008 1036 1022 994 0 0 199 0 0 0 0 0 0 0 0 1022 1008 994 994 994 994 1008 1008 1036 1022 1051 1051 1066 1132 1098 1132 1098 1066 1098 1066 1098 1098 1098 1082 1098 1098 1115 1066 1098 1036 1051 1051 1036 1008 981 994 994 968 955 968 968 955 981 994 1008 1022 1022 1036 981 981 981 955 908 897 886 876 897 908 897 897 897 908 908 908 955 897 897 897 908 886 886 897 897 897 865 817 817 808 750 782 766 750 750 750 766 728 707 707 687 0 0 694 694 694 694 766 782 865 931 968 968 968 943 943 955 919 919 865 855 845 826 782 743 714 687 651 618 608 593 588 584 570 566 557 561 561 553 549 541 537 0 0 0 0 0
    0 0 0 0 0 0 0 0 0 0 0 0 0 0 0 0 0 0 0 0 0 0 0 0 0 0 0 0 0 0 0 0 0 0 0 0 0 0 0 0 0 0 0 0 0 0 0 0 0 0 0 0 0 0 0 0 0 0 0 0 0 0 0 0 0 0 0 0 0 955 968 955 968 955 955 943 931 943 943 943 943 931 931 943 943 931 943 931 919 919 919 943 931 943 943 931 968 968 981 994 968 943 943 955 0 876 865 886 931 943 955 955 955 943 955 955 968 955 955 943 943 1022 1036 1051 1008 981 955 943 968 955 955 955 955 955 968 981 1008 994 1008 1022 1008 0 1008 981 994 994 919 968 931 931 955 955 968 968 955 994 968 1022 1008 994 994 981 968 994 1008 994 981 994 1008 994 994 1008 994 981 0 0 0 0 0 0 0 0 0 1008 968 994 994 981 981 968 981 981 981 1008 994 1008 1008 1022 1051 1008 1008 1036 1022 1051 1022 1051 1051 1051 1051 1051 1051 1051 1022 1051 1008 1036 1036 1022 994 968 981 981 955 955 955 943 943 968 981 981 981 1008 1022 968 968 955 931 886 886 876 876 897 897 886 897 897 908 908 908 943 886 876 876 897 886 876 886 886 886 855 817 817 808 750 782 766 750 750 743 758 721 700 0 687 0 0 694 694 694 694 758 774 845 908 955 955 943 931 931 943 908 919 855 845 826 817 782 750 728 694 707 657 618 598 593 588 570 561 553 557 549 549 545 537 533 0 0 0 0 0
    0 0 0 0 0 0 0 0 0 0 0 0 0 0 0 0 0 0 0 0 0 0 0 0 0 0 0 0 0 0 0 0 0 0 0 0 0 0 0 0 0 0 0 0 0 0 0 0 0 0 0 0 0 0 0 0 0 0 0 0 0 0 0 0 0 0 0 0 0 955 968 955 955 955 943 931 919 931 919 931 931 908 919 931 919 919 931 931 908 919 919 931 919 943 943 931 968 968 968 994 943 931 919 919 919 855 845 855 886 886 919 919 919 919 943 943 968 943 943 931 908 931 943 943 919 897 897 908 943 943 943 943 943 943 955 968 981 968 981 981 968 955 968 943 968 981 897 943 908 919 943 943 955 943 943 981 955 994 981 955 968 955 955 968 981 968 955 981 981 968 981 981 968 955 994 1008 0 0 968 955 955 968 968 981 943 968 968 955 968 968 968 968 955 981 981 981 981 981 981 981 981 994 994 1008 994 1022 1008 1022 1022 1022 1022 1008 1008 1008 994 1022 1022 1008 968 955 968 968 931 943 943 919 931 943 955 943 955 981 994 931 943 919 897 865 876 876 876 886 897 886 897 897 919 897 908 931 886 876 876 886 876 865 876 876 865 855 817 817 808 750 782 758 750 750 743 758 721 700 0 687 0 0 694 700 694 694 750 774 836 886 931 943 919 908 908 919 886 897 855 855 836 826 799 799 774 721 721 694 623 608 603 593 574 566 553 553 549 545 541 537 525 0 0 0 0 0
    0 0 0 0 0 0 0 0 0 0 0 0 0 0 0 0 0 0 0 0 0 0 0 0 0 0 0 0 0 0 0 0 0 0 0 0 0 0 0 0 0 0 0 0 0 0 0 0 0 0 0 0 0 0 0 0 0 0 0 0 0 0 0 0 0 0 0 0 0 955 968 943 955 955 931 919 908 919 908 919 919 897 908 919 919 919 931 919 908 919 919 931 919 943 955 931 968 968 955 981 931 919 908 908 897 855 845 855 876 876 897 897 908 908 919 931 955 943 943 919 897 876 876 876 855 855 865 876 908 897 919 919 919 931 931 943 955 919 955 943 943 919 943 908 943 943 886 931 897 908 931 919 943 931 931 968 931 981 955 931 943 931 931 943 955 943 931 968 968 955 955 968 955 943 968 968 886 908 931 908 908 931 943 955 919 955 955 943 955 955 955 955 943 968 968 955 955 955 943 931 943 943 968 968 955 994 981 994 994 994 994 981 981 994 981 994 981 981 943 931 955 955 919 931 931 908 919 931 931 897 908 955 919 876 897 886 886 865 876 876 876 886 897 886 886 886 908 897 908 931 886 876 876 886 876 865 876 865 865 845 817 817 799 743 774 750 750 743 735 750 721 700 707 687 0 0 694 700 694 694 750 766 826 865 897 897 886 886 886 908 876 897 855 855 845 836 817 826 799 758 728 0 0 0 603 598 588 566 553 553 545 541 541 533 521 0 0 0 0 0
    0 0 0 0 0 0 0 0 0 0 0 0 0 0 0 0 0 0 0 0 0 0 0 0 0 0 0 0 0 0 0 0 0 0 0 0 0 0 0 0 0 0 0 0 0 0 0 0 0 0 0 0 0 0 0 0 0 0 0 0 0 0 0 0 0 0 0 0 0 955 955 943 955 955 931 908 897 908 897 908 919 886 897 908 919 908 919 919 908 908 919 931 919 931 955 931 955 943 943 981 908 908 897 886 886 865 855 865 876 876 886 897 897 897 908 919 943 931 931 897 876 845 845 845 826 845 845 855 876 876 897 886 897 908 908 919 919 897 919 908 919 897 919 897 919 919 876 908 897 897 919 919 931 919 931 955 919 955 943 919 931 919 919 931 943 931 931 955 955 943 955 955 943 919 943 931 865 876 897 876 876 897 919 931 897 931 931 931 943 943 931 931 931 955 943 931 931 931 919 908 908 908 931 919 919 955 943 968 955 955 955 955 955 955 943 943 943 943 919 908 943 943 908 919 919 908 908 919 908 876 876 908 865 845 865 855 865 855 865 865 876 876 886 876 876 876 897 886 886 908 886 876 876 886 876 876 876 865 865 845 817 817 791 743 766 743 743 743 728 743 714 700 707 694 0 0 694 700 700 694 743 766 826 855 876 876 876 876 876 876 855 876 845 845 845 845 826 836 836 817 774 750 728 714 0 0 598 561 553 545 541 533 533 525 511 0 0 0 0 0
    0 0 0 0 0 0 0 0 0 0 0 0 0 0 0 0 0 0 0 0 0 0 0 0 0 0 0 0 0 0 0 0 0 0 0 0 0 0 0 0 0 0 0 0 0 0 0 0 0 0 0 0 0 0 0 0 0 0 0 0 0 0 0 0 0 0 0 0 0 955 943 931 943 943 919 897 886 886 886 897 908 876 886 908 919 908 908 908 897 897 908 931 908 919 943 931 955 943 931 968 897 897 886 886 876 865 855 865 876 876 876 876 876 886 886 897 919 908 919 897 865 836 826 826 791 826 836 845 865 865 876 876 886 897 886 897 897 876 897 897 908 886 886 876 897 886 876 897 886 897 908 908 919 908 931 943 919 955 931 908 931 919 919 943 955 931 931 955 955 931 943 943 931 908 919 897 865 865 876 865 855 876 897 919 886 919 919 908 919 919 919 908 908 931 919 919 919 919 897 886 886 886 908 897 897 919 908 931 919 919 919 908 919 919 919 919 908 908 897 897 931 943 897 908 919 908 908 908 897 865 865 897 855 836 855 845 855 845 865 865 865 865 865 855 855 855 865 865 865 855 855 855 865 876 876 865 865 865 865 845 817 817 791 735 758 735 743 735 0 735 714 700 714 694 0 0 694 700 700 700 743 758 817 855 865 865 865 865 865 865 855 865 836 836 845 845 826 826 826 817 791 782 758 735 721 0 0 553 545 541 537 525 525 518 504 0 0 0 0 0
    0 0 0 0 0 0 0 0 0 0 0 0 0 0 0 0 0 0 0 0 0 0 0 0 0 0 0 0 0 0 0 0 0 0 0 0 0 0 0 0 0 0 0 0 0 0 0 0 0 0 0 0 0 0 0 0 0 0 0 0 0 0 0 0 0 0 0 0 0 943 919 908 919 908 897 876 876 876 876 886 897 876 876 897 908 897 897 908 897 897 908 931 908 919 943 931 955 931 919 943 886 886 865 876 865 855 865 865 876 865 865 865 865 876 876 876 897 876 897 886 865 836 808 808 766 808 826 836 855 855 865 865 876 886 876 886 886 865 886 876 897 876 876 865 876 865 865 876 876 886 897 897 908 897 931 943 919 943 908 897 919 908 908 931 943 919 931 943 943 919 943 931 919 897 908 876 865 855 865 845 845 865 886 897 886 897 897 897 897 908 897 897 897 908 908 897 908 908 886 876 876 876 897 886 876 897 886 908 908 897 897 886 897 908 897 908 897 897 886 886 931 931 886 908 908 897 897 897 897 865 865 886 845 836 845 836 836 836 845 845 855 855 855 845 845 845 845 845 845 836 836 855 865 876 876 865 865 855 855 845 808 808 782 728 743 728 735 735 721 728 707 700 0 0 0 0 0 700 700 707 728 750 808 845 855 845 855 865 865 865 845 855 845 845 845 845 826 826 826 817 799 791 782 766 735 728 0 0 541 541 537 521 525 518 500 0 0 0 0 0
    0 0 0 0 0 0 0 0 0 0 0 0 0 0 0 0 0 0 0 0 0 0 0 0 0 0 0 0 0 0 0 0 0 0 0 0 0 0 0 0 0 0 0 0 0 0 0 0 0 0 0 0 0 0 0 0 0 0 0 0 0 0 0 0 0 0 0 0 0 931 886 886 886 886 876 865 855 855 865 876 886 876 865 886 897 886 886 886 897 897 897 931 908 908 943 943 955 931 908 931 876 876 855 865 855 855 865 865 865 865 865 865 865 865 865 865 876 865 886 876 876 845 826 817 774 808 817 826 845 845 855 855 865 876 865 876 865 855 876 865 886 865 865 855 865 855 865 865 865 876 886 886 897 897 931 931 908 931 897 886 908 897 908 919 943 919 919 919 931 908 931 919 897 886 886 865 865 855 855 836 836 855 876 886 876 876 886 876 876 886 876 876 886 886 886 876 886 886 876 876 865 865 886 886 876 886 876 897 897 886 886 876 886 886 886 886 886 886 886 886 919 931 886 908 908 897 886 897 886 855 855 876 836 826 836 826 826 817 836 836 836 845 845 845 845 836 845 836 845 845 836 865 865 876 876 865 865 855 855 845 799 808 766 721 735 721 728 728 714 721 707 0 0 0 0 325 0 700 700 707 721 735 799 826 836 826 836 845 845 836 836 845 836 845 845 845 836 826 836 817 808 799 799 791 766 750 735 0 0 541 537 514 521 514 497 0 0 0 0 0
    0 0 0 0 0 0 0 0 0 0 0 0 0 0 0 0 0 0 0 0 0 0 0 0 0 0 0 0 0 0 0 0 0 0 0 0 0 0 0 0 0 0 0 0 0 0 0 0 0 0 0 0 0 0 0 0 0 0 0 0 0 0 0 0 0 0 0 0 0 919 865 865 865 855 855 845 836 836 836 855 865 855 845 865 886 876 876 886 886 886 886 919 897 897 919 931 943 919 876 886 865 865 855 865 845 855 865 865 865 865 865 865 855 855 845 845 855 845 845 845 855 836 826 817 782 817 817 826 836 836 845 845 845 865 855 865 855 855 865 855 876 855 855 845 855 845 855 855 865 876 876 886 886 886 931 908 908 919 886 876 886 886 897 908 931 908 908 897 919 897 919 908 886 876 876 855 865 845 855 836 826 855 876 876 876 865 876 865 865 876 865 865 876 876 865 865 876 876 865 865 855 855 876 876 865 876 865 876 886 865 876 865 876 876 876 876 876 876 876 876 919 919 876 908 908 897 886 897 886 865 855 865 826 826 826 826 817 808 817 817 826 836 836 836 836 836 836 836 836 836 826 845 855 855 865 865 865 855 845 845 791 808 758 721 728 721 728 728 0 721 707 0 0 0 0 324 322 700 700 714 714 721 782 799 791 791 799 826 808 799 808 826 826 836 845 845 836 826 836 826 817 808 808 799 782 782 766 728 0 0 0 504 514 514 493 0 0 0 0 0
    0 0 0 0 0 0 0 0 0 0 0 0 0 0 0 0 0 0 0 0 0 0 0 0 0 0 0 0 0 0 0 0 0 0 0 0 0 0 0 0 0 0 0 0 0 0 0 0 0 0 0 0 0 0 0 0 0 0 0 0 0 0 0 0 0 0 0 0 0 919 845 855 845 836 836 826 817 817 817 836 845 845 836 855 865 865 865 865 876 876 876 908 886 886 908 919 908 897 865 865 865 865 855 865 855 865 865 865 876 865 865 855 845 855 836 836 836 826 826 826 836 826 808 808 774 808 808 817 826 826 836 836 845 855 855 855 855 855 855 855 876 845 845 836 845 836 855 855 855 865 865 876 886 876 931 886 908 897 865 855 865 865 876 886 897 897 886 876 908 886 897 897 876 855 855 845 865 845 845 826 826 845 876 876 876 855 865 855 855 855 855 855 865 865 855 855 865 876 865 865 855 855 876 876 865 865 855 865 865 855 865 855 865 865 865 865 865 865 876 876 908 908 876 897 908 886 876 897 886 855 855 855 826 826 826 817 808 799 808 808 817 826 826 826 826 826 826 826 817 826 817 826 836 836 845 845 845 836 836 836 774 799 750 728 728 721 728 728 0 721 707 0 721 0 0 325 322 707 707 721 707 714 782 799 782 782 799 808 791 774 799 826 826 836 845 845 836 826 826 817 808 808 799 799 782 782 774 728 0 0 0 500 511 511 490 0 0 0 0 0
    0 0 0 0 0 0 0 0 0 0 0 0 0 0 0 0 0 0 0 0 0 0 0 0 0 0 0 0 0 0 0 0 0 0 0 0 0 0 0 0 0 0 0 0 0 0 0 0 0 0 0 0 0 0 0 0 0 0 0 0 0 0 0 0 0 0 0 0 0 908 836 845 836 826 817 817 808 808 808 817 845 845 836 855 865 865 865 865 876 865 876 897 876 886 897 908 897 886 865 855 855 855 855 865 855 865 865 865 876 865 865 865 845 845 836 826 826 817 817 817 817 817 799 799 774 808 808 817 826 817 826 826 836 855 855 855 845 855 855 855 865 845 845 836 836 826 855 845 855 865 865 865 876 876 931 865 908 865 836 817 836 845 845 865 865 876 865 855 886 876 886 876 865 845 0 836 855 836 836 826 826 845 865 865 865 836 845 845 845 845 845 845 855 855 855 855 865 876 855 876 855 855 865 865 855 855 845 845 855 845 855 845 855 855 855 855 865 865 876 865 897 897 876 897 897 886 876 886 876 855 845 845 826 826 817 817 808 799 808 808 808 817 808 817 817 817 817 817 808 817 808 817 826 826 826 836 826 836 836 817 750 791 735 721 721 714 728 728 0 721 707 714 721 0 0 325 324 707 707 728 707 714 782 799 782 782 791 791 766 750 782 808 817 826 836 836 826 826 826 808 808 799 799 791 782 782 774 728 707 618 549 0 514 514 490 0 0 0 0 0
    0 0 0 0 0 0 0 0 0 0 0 0 0 0 0 0 0 0 0 0 0 0 0 0 0 0 0 0 0 0 0 0 0 0 0 0 0 0 0 0 0 0 0 0 0 0 0 0 0 0 0 0 0 0 0 0 0 0 0 0 0 0 0 0 0 0 0 0 0 886 826 836 826 817 808 808 808 808 808 817 845 845 836 855 865 865 865 865 876 876 876 897 876 886 897 897 876 865 845 845 845 845 836 855 845 865 876 876 876 876 876 876 855 865 845 826 826 817 808 808 808 808 799 799 774 808 808 817 826 817 817 817 836 855 845 855 845 845 855 855 865 845 845 836 836 826 855 845 855 855 865 865 865 865 919 845 886 826 817 799 808 826 826 845 855 865 855 845 865 855 865 865 845 0 0 0 855 836 0 826 826 845 876 865 876 836 845 845 836 845 836 0 0 0 0 0 0 865 855 865 855 855 855 865 855 845 845 836 836 836 845 845 845 845 855 855 865 865 876 865 897 886 876 886 897 876 855 876 865 845 836 845 826 826 817 826 808 799 799 799 799 799 791 808 808 808 808 808 791 808 799 808 817 817 808 817 808 826 808 799 735 774 728 721 721 714 728 728 0 721 707 714 721 0 0 325 324 707 707 728 700 707 782 799 782 782 782 782 750 735 750 791 799 808 817 826 817 808 808 799 799 791 791 791 774 774 758 714 0 618 0 0 518 518 493 0 0 0 0 0
    0 0 0 0 0 0 0 0 0 0 0 0 0 0 0 0 0 0 0 0 0 0 0 0 0 0 0 0 0 0 0 0 0 0 0 0 0 0 0 0 0 0 0 0 0 0 0 0 0 0 0 0 0 0 0 0 0 0 0 0 0 0 0 0 0 0 0 0 0 865 808 799 791 791 782 791 808 808 799 808 836 836 836 855 855 865 855 865 865 865 876 897 876 876 886 886 855 845 836 826 826 826 0 845 836 865 865 876 886 876 876 886 855 865 836 826 817 808 799 799 799 808 799 799 774 799 799 817 0 808 817 817 826 845 845 855 845 845 855 855 865 845 845 836 836 826 845 836 855 855 855 0 855 855 897 836 855 817 799 791 799 817 817 845 855 865 855 836 855 845 855 855 845 0 0 826 855 836 0 0 826 845 876 865 876 836 845 845 836 845 836 0 0 96 96 0 0 855 845 0 0 845 845 855 836 826 826 826 826 826 845 845 845 845 855 855 865 865 876 865 886 876 876 876 886 865 845 865 855 836 836 836 826 826 817 826 808 791 791 799 791 774 766 791 782 782 791 799 782 791 782 799 799 799 782 791 774 808 766 758 721 750 721 721 721 714 728 728 721 721 700 714 714 0 0 325 0 700 700 728 700 700 774 791 774 774 774 774 750 735 743 766 774 791 791 808 799 791 799 791 791 782 782 782 758 774 743 700 0 0 553 0 518 518 493 0 0 0 0 0
    0 0 0 0 0 0 0 0 0 0 0 0 0 0 0 0 0 0 0 0 0 0 0 0 0 0 0 0 0 0 0 0 0 0 0 0 0 0 0 0 0 0 0 0 0 0 0 0 0 0 0 0 0 0 0 0 0 0 0 0 0 0 0 0 0 0 0 0 0 826 782 750 750 774 766 782 808 817 808 808 836 836 836 845 845 855 855 855 865 865 865 886 876 876 876 876 845 836 817 808 817 808 799 0 826 855 855 855 865 865 865 876 845 845 826 817 817 808 799 799 791 799 799 799 782 799 791 817 0 0 817 817 826 845 845 855 836 836 855 855 865 836 845 836 836 817 836 836 845 845 845 0 845 845 876 826 836 808 791 782 791 808 808 845 845 855 845 817 845 836 845 845 826 826 826 826 845 836 0 0 826 845 886 865 876 826 836 836 836 845 0 0 0 96 96 0 0 0 0 0 0 0 836 845 826 817 817 817 826 826 0 845 845 845 855 855 865 865 876 865 886 876 865 876 876 855 826 855 845 836 826 836 826 826 817 826 808 791 791 791 782 766 758 782 766 758 774 782 758 782 774 782 782 774 758 766 750 782 735 735 721 735 714 721 721 714 728 728 714 714 700 714 714 0 0 0 694 700 700 728 707 714 766 782 758 766 758 758 743 728 728 750 758 774 782 791 791 782 791 791 791 782 782 782 766 774 728 681 639 0 549 0 518 518 493 0 0 0 0 0
    0 0 0 0 0 0 0 0 0 0 0 0 0 0 0 0 0 0 0 0 0 0 0 0 0 0 0 0 0 0 0 0 0 0 0 0 0 0 0 0 0 0 0 0 0 0 0 0 0 0 0 0 0 0 0 0 0 0 0 0 0 0 0 0 0 0 0 0 0 799 758 743 750 766 766 782 808 817 826 826 836 836 836 836 836 845 845 845 855 855 865 876 886 886 876 865 826 826 808 799 799 799 791 808 808 836 836 845 845 855 855 865 845 836 826 808 808 808 808 799 791 799 791 799 782 791 782 808 808 808 808 808 0 836 845 845 836 836 855 845 855 836 836 826 817 808 826 817 836 836 836 836 836 836 855 817 826 791 774 774 774 799 808 826 836 845 845 817 836 826 826 826 817 817 808 817 0 826 0 0 826 845 876 865 865 826 826 826 826 836 826 0 0 0 0 0 0 0 0 0 0 0 836 845 836 817 817 826 826 817 836 836 845 845 845 855 855 855 865 865 865 865 855 855 855 836 808 845 836 836 826 836 826 826 817 826 808 782 791 791 782 750 750 774 758 743 774 766 743 774 758 766 766 750 743 750 743 766 728 735 721 728 714 721 721 714 728 728 721 714 700 714 707 700 0 0 694 700 694 728 707 714 758 782 766 766 758 758 743 728 721 735 743 750 766 782 774 782 791 791 791 791 791 791 782 791 728 669 0 0 545 0 518 518 497 0 0 0 0 0
    0 0 0 0 0 0 0 0 0 0 0 0 0 0 0 0 0 0 0 0 0 0 0 0 0 0 0 0 0 0 0 0 0 0 0 0 0 0 0 0 0 0 0 0 0 0 0 0 0 0 0 0 0 0 0 0 0 0 0 0 0 0 0 0 0 0 0 0 0 791 750 750 758 766 766 782 808 826 836 836 845 836 826 817 826 836 836 826 836 836 845 845 865 855 836 836 808 817 799 791 791 791 782 799 799 826 817 826 836 836 836 855 836 826 817 808 808 808 799 791 782 791 791 791 791 791 774 791 799 799 799 808 0 0 836 845 836 836 845 845 845 826 826 817 808 791 817 808 826 826 826 826 826 836 845 817 826 791 774 774 774 799 791 808 826 836 836 808 817 817 817 817 799 799 799 808 817 817 817 817 817 836 865 865 865 826 826 826 826 836 817 826 817 817 0 817 817 817 799 817 799 826 836 855 836 826 826 836 826 826 836 836 845 836 836 845 845 845 855 845 855 845 845 845 845 836 791 845 836 826 817 826 826 826 817 826 799 782 782 791 774 743 743 758 750 735 750 758 728 758 750 758 758 743 735 743 735 758 728 728 714 721 707 721 714 714 728 721 721 714 694 707 700 694 700 694 687 694 687 721 707 714 750 766 758 750 750 743 743 721 714 728 728 735 750 774 766 774 782 791 799 799 799 799 782 791 721 639 0 0 0 507 518 518 497 0 0 0 0 0
    0 0 0 0 0 0 0 0 0 0 0 0 0 0 0 0 0 0 0 0 0 0 0 0 0 0 0 0 0 0 0 0 0 0 0 0 0 0 0 0 0 0 0 0 0 0 0 0 0 0 0 0 0 0 0 0 0 0 0 0 0 0 0 0 0 0 0 0 0 774 758 766 766 774 782 791 808 826 826 836 836 826 817 799 808 826 826 817 817 817 836 836 855 836 808 799 782 799 799 782 791 782 774 791 791 817 799 808 817 817 826 836 826 817 808 799 799 799 791 782 766 782 782 774 782 782 766 782 791 799 791 799 0 0 836 845 836 836 845 845 845 826 826 817 791 782 808 808 817 817 817 817 817 826 836 817 826 791 782 782 774 791 791 799 808 817 817 799 808 808 791 799 791 791 791 799 808 808 808 817 817 836 865 865 855 836 836 836 836 836 817 826 817 817 808 808 808 808 791 799 782 817 826 845 836 826 826 826 826 817 836 826 836 826 826 836 836 836 836 826 836 826 826 826 826 817 774 836 826 817 808 817 826 826 817 817 799 774 774 782 766 743 735 743 735 728 735 743 721 743 743 750 758 743 735 743 735 750 728 728 714 714 707 721 714 714 721 721 714 714 694 700 700 687 694 687 687 687 687 714 707 721 743 750 743 735 743 728 735 714 707 721 728 728 743 766 766 766 774 782 782 791 782 782 766 758 714 0 0 0 0 504 518 514 497 0 0 0 0 0
    0 0 0 0 0 0 0 0 0 0 0 0 0 0 0 0 0 0 0 0 0 0 0 0 0 0 0 0 0 0 0 0 0 0 0 0 0 0 0 0 0 0 0 0 0 0 0 0 0 0 0 0 0 0 0 0 0 0 0 0 0 0 0 0 0 0 0 0 0 766 758 774 774 782 782 799 808 836 845 845 836 817 808 791 791 808 808 799 791 774 799 799 826 826 782 782 758 791 791 782 782 782 774 782 782 808 791 799 808 808 817 826 817 808 808 791 791 799 791 774 758 774 774 766 774 766 750 758 774 791 774 782 0 808 826 836 836 826 836 836 836 826 817 808 774 774 791 791 808 808 808 808 799 817 826 808 817 782 774 774 774 782 774 782 791 799 799 782 782 791 774 782 782 782 782 791 799 799 799 817 817 826 845 845 836 826 826 826 836 836 826 826 808 808 799 799 799 791 774 791 774 808 817 836 836 817 817 826 826 808 817 817 817 817 817 817 817 808 808 817 817 808 808 808 808 799 766 826 817 808 799 817 826 817 808 808 791 766 774 774 758 735 735 735 728 728 728 728 714 728 728 743 750 735 728 735 735 743 721 721 714 707 700 714 707 707 714 714 714 707 687 700 694 687 687 687 687 687 687 714 714 721 735 735 735 728 735 714 735 700 694 714 721 721 743 758 766 758 766 766 758 766 758 766 743 735 700 0 0 0 0 497 514 507 497 0 0 0 0 0
    0 0 0 0 0 0 0 0 0 0 0 0 0 0 0 0 0 0 0 0 0 0 0 0 0 0 0 0 0 0 0 0 0 0 0 0 0 0 0 0 0 0 0 0 0 0 0 0 0 0 0 0 0 0 0 0 0 0 0 0 0 0 0 0 0 0 0 0 0 766 766 774 782 782 782 791 808 826 826 836 817 808 799 774 774 782 782 766 758 743 735 743 782 782 750 750 743 774 774 766 774 774 766 774 774 799 774 782 791 782 799 808 808 799 799 782 782 791 791 774 750 766 774 766 774 758 743 743 750 774 758 750 766 782 808 817 826 817 826 826 826 817 808 799 750 766 782 782 791 791 791 791 782 808 808 791 799 766 766 766 766 766 758 758 766 774 774 766 766 774 758 774 766 774 774 782 791 799 791 808 808 817 826 826 817 817 808 817 826 836 817 826 799 799 782 782 782 774 758 774 758 791 808 826 826 808 808 817 826 799 799 799 799 799 791 799 791 774 782 791 791 791 782 782 782 774 758 799 799 791 782 799 808 808 799 799 782 758 766 766 750 735 735 728 728 721 721 714 707 721 721 735 743 728 728 735 728 735 721 721 707 700 694 707 700 700 707 707 707 700 681 694 687 681 687 681 681 681 687 707 707 714 728 728 728 721 735 707 721 694 687 700 714 721 735 750 750 750 766 766 766 766 766 766 743 735 687 0 0 0 0 0 511 504 497 0 0 0 0 0
    0 0 0 0 0 0 0 0 0 0 0 0 0 0 0 0 0 0 0 0 0 0 0 0 0 0 0 0 0 0 0 0 0 0 0 0 0 0 0 0 0 0 0 0 0 0 0 0 0 0 0 0 0 0 0 0 0 0 0 0 0 0 0 0 0 0 0 0 0 774 766 774 782 774 782 791 791 808 799 817 799 791 791 758 750 750 750 743 735 721 721 721 735 728 728 735 728 758 766 758 774 774 766 774 774 799 766 774 774 766 782 799 799 791 791 782 782 791 791 774 750 766 766 758 766 750 735 735 743 758 743 743 743 750 782 799 808 799 808 817 808 799 791 799 743 758 766 766 774 774 774 782 766 799 791 782 791 758 766 750 758 758 750 743 743 750 750 750 750 758 743 766 758 766 766 774 774 791 782 799 791 808 808 799 791 791 791 799 808 817 808 817 782 782 774 774 766 758 750 758 750 782 791 808 808 799 791 808 817 791 782 782 774 774 774 774 766 743 750 758 758 766 758 758 758 758 750 782 791 774 766 782 799 791 791 791 774 758 758 766 750 735 735 728 728 728 714 714 700 714 721 728 728 721 721 728 728 735 714 721 714 707 700 707 700 700 700 707 700 694 681 687 681 675 681 681 681 675 687 707 707 714 721 714 714 714 721 700 707 687 681 700 714 721 735 750 743 743 758 750 750 750 743 750 735 728 0 0 0 0 497 490 507 500 497 0 0 0 0 0</data></depth>
</opencv_storage>
