<?xml version="1.0"?>
<opencv_storage>
<gps_time_stamp>32691</gps_time_stamp>
<gps_x>-9.8329162597656250e+000</gps_x>
<gps_y>1.1304588317871094e+000</gps_y>
<gps_z>-2.6835823059082031e+000</gps_z>
<image_time_stamp>20667</image_time_stamp>
<depth type_id="opencv-matrix">
  <rows>93</rows>
  <cols>320</cols>
  <dt>s</dt>
  <data>
    0 0 0 0 0 0 0 0 0 0 0 0 0 0 0 0 0 0 0 0 0 0 0 0 0 0 0 0 0 0 0 0 0 0 0 0 0 0 0 0 0 0 0 0 0 0 0 0 0 0 0 0 0 0 0 0 0 0 0 0 0 0 0 0 0 0 0 0 0 375 0 385 375 371 373 369 367 0 391 379 0 0 0 0 430 0 0 0 0 0 0 0 0 0 0 0 0 0 0 0 0 389 0 0 0 0 0 0 0 0 0 0 0 0 0 0 0 0 0 0 0 0 188 0 0 0 0 0 0 162 161 0 0 0 0 0 0 192 194 194 193 192 192 0 0 0 0 0 0 465 0 0 0 0 0 0 0 0 0 0 0 0 1672 1711 1752 0 0 0 0 0 0 0 474 474 0 0 0 0 0 0 0 477 465 477 471 468 468 468 468 462 462 468 459 0 0 0 457 451 451 446 446 446 446 0 743 791 774 0 0 0 0 0 0 0 468 465 465 457 457 457 451 451 440 451 451 451 451 457 457 457 457 468 457 459 451 448 448 446 459 459 457 462 459 468 471 465 465 457 457 468 468 471 454 451 457 454 454 451 451 440 443 440 448 448 448 446 448 448 454 454 462 457 459 0 0 1936 1839 0 0 459 440 440 438 438 440 446 443 446 440 440 443 438 443 454 454 451 448 448 451 451 462 465 448 443 443 435 427 422 408 404 402 406 404 404 406 0 0 0 0 0
    0 0 0 0 0 0 0 0 0 0 0 0 0 0 0 0 0 0 0 0 0 0 0 0 0 0 0 0 0 0 0 0 0 0 0 0 0 0 0 0 0 0 0 0 0 0 0 0 0 0 0 0 0 0 0 0 0 0 0 0 0 0 0 0 0 0 0 0 0 366 0 377 373 373 373 369 367 366 373 367 366 0 362 0 391 0 0 0 0 222 0 375 371 373 375 377 377 375 373 375 371 377 0 0 0 0 0 0 0 0 244 0 0 0 0 248 244 0 0 186 187 186 186 0 0 0 0 0 0 0 0 0 0 0 0 0 0 193 194 193 192 192 192 0 0 0 0 0 0 0 0 0 0 0 0 0 2044 1989 0 0 1711 1672 1672 1672 1711 1672 0 0 0 1635 1599 1533 1415 0 0 152 0 0 0 0 0 0 0 0 477 474 471 468 468 459 457 465 0 2830 2830 0 0 0 446 443 440 0 0 0 766 774 766 0 876 0 0 0 0 0 474 474 474 465 468 459 448 448 440 451 451 448 451 454 457 457 454 468 451 457 454 448 446 443 454 454 451 457 454 465 471 462 462 454 454 468 468 471 451 451 459 457 457 451 451 440 440 440 446 446 448 446 448 448 454 454 462 457 459 0 1936 1989 1887 0 0 0 0 446 443 0 0 451 448 454 448 448 448 438 443 454 454 451 451 448 448 451 462 465 446 440 440 430 427 422 408 404 404 406 404 404 406 0 0 0 0 0
    0 0 0 0 0 0 0 0 0 0 0 0 0 0 0 0 0 0 0 0 0 0 0 0 0 0 0 0 0 0 0 0 0 0 0 0 0 0 0 0 0 0 0 0 0 0 0 0 0 0 0 0 0 0 0 0 0 0 0 0 0 0 0 0 0 0 0 0 0 366 0 371 371 371 373 369 367 366 367 366 364 364 360 359 366 367 0 0 0 0 0 373 373 375 375 377 377 377 375 375 371 375 0 0 0 0 0 0 0 0 0 0 0 0 252 248 242 0 0 0 188 187 184 0 0 157 0 0 0 0 0 0 0 0 0 0 0 0 193 193 0 0 371 373 379 369 369 0 0 0 0 0 0 0 0 0 2299 2164 1936 0 0 1795 1711 1711 1752 0 0 1711 1599 1599 1635 1565 1415 0 0 0 0 0 0 0 0 139 138 138 0 484 0 471 468 440 0 0 0 0 0 395 0 0 0 0 389 366 0 0 808 791 766 0 865 0 0 0 0 0 471 468 462 446 0 0 438 0 0 454 448 448 454 454 462 462 457 471 448 0 0 0 435 408 0 0 0 0 0 0 0 454 0 0 0 459 451 465 443 443 448 457 451 448 448 443 440 440 446 448 446 443 448 448 451 454 465 454 0 1989 2044 1989 1887 0 0 0 0 451 448 0 0 459 459 468 462 459 459 440 446 457 457 451 451 448 448 451 462 465 446 440 440 430 427 422 408 404 404 406 404 404 406 0 0 0 0 0
    0 0 0 0 0 0 0 0 0 0 0 0 0 0 0 0 0 0 0 0 0 0 0 0 0 0 0 0 0 0 0 0 0 0 0 0 0 0 0 0 0 0 0 0 0 0 0 0 0 0 0 0 0 0 0 0 0 0 0 0 0 0 0 0 0 0 0 0 0 364 0 369 367 371 371 369 367 366 369 366 364 364 360 362 366 367 366 367 369 369 369 375 373 375 377 379 379 379 377 377 373 375 0 0 0 0 360 0 367 371 369 367 362 360 360 0 0 0 0 0 0 0 0 0 0 156 155 0 0 0 0 0 0 0 0 0 0 0 0 385 379 369 371 373 375 369 369 369 369 371 385 379 0 0 0 0 2102 2102 2044 2453 2628 2537 2453 2453 2374 2830 2453 1887 1752 1711 1795 1839 1533 1338 0 0 0 0 0 0 138 138 138 0 0 0 0 0 389 389 383 387 393 389 391 387 387 393 389 393 375 366 366 364 0 0 0 0 0 0 0 0 0 0 0 0 0 404 385 0 391 377 373 0 446 0 0 457 474 474 465 0 446 0 0 408 399 393 389 391 387 377 371 0 0 0 0 0 0 0 0 0 430 435 432 440 438 0 0 440 438 438 446 446 446 443 448 448 448 448 459 0 0 1989 2102 2102 1989 1887 0 0 0 0 0 0 0 468 465 471 465 454 462 440 446 457 459 454 451 451 451 448 459 465 448 440 443 435 430 430 413 408 406 408 406 406 406 0 0 0 0 0
    0 0 0 0 0 0 0 0 0 0 0 0 0 0 0 0 0 0 0 0 0 0 0 0 0 0 0 0 0 0 0 0 0 0 0 0 0 0 0 0 0 0 0 0 0 0 0 0 0 0 0 0 0 0 0 0 0 0 0 0 0 0 0 0 0 0 0 0 0 366 369 369 367 369 371 369 367 367 369 367 364 366 364 364 367 367 366 366 369 371 369 375 373 375 377 379 379 379 377 377 373 377 369 0 0 362 362 364 366 369 369 367 364 362 359 0 0 0 0 0 0 0 0 0 0 0 0 0 0 0 0 0 0 0 0 0 0 377 377 383 377 369 373 373 375 371 369 369 371 371 385 377 377 375 375 375 0 0 0 0 0 0 0 0 3345 3679 3345 0 0 0 0 0 0 0 0 0 0 0 0 0 138 138 0 0 0 385 387 385 383 381 377 381 385 383 383 379 381 387 383 389 375 369 367 367 0 0 0 0 0 0 0 0 0 0 0 0 395 393 383 379 381 377 373 373 385 379 0 0 0 0 0 0 0 0 0 0 397 391 387 389 385 379 375 371 366 0 0 366 357 0 0 0 0 422 420 427 0 0 0 0 430 422 440 443 443 440 446 448 448 446 0 0 1887 1887 1989 2044 1989 0 0 0 0 0 0 0 0 0 0 0 0 0 0 432 440 459 462 457 454 454 451 446 454 459 440 435 438 432 427 427 411 411 411 411 411 411 411 0 0 0 0 0
    0 0 0 0 0 0 0 0 0 0 0 0 0 0 0 0 0 0 0 0 0 0 0 0 0 0 0 0 0 0 0 0 0 0 0 0 0 0 0 0 0 0 0 0 0 0 0 0 0 0 0 0 0 0 0 0 0 0 0 0 0 0 0 0 0 0 0 0 0 366 369 367 366 367 369 367 367 367 369 367 364 366 364 364 367 369 366 369 369 371 369 373 373 375 377 377 377 377 377 377 373 377 369 367 364 362 362 364 366 0 367 366 362 360 360 0 0 0 0 0 0 0 0 0 0 0 0 389 393 391 0 0 0 0 0 0 375 375 375 379 377 369 373 375 375 373 371 371 371 373 387 377 377 375 375 375 375 375 373 373 373 373 377 377 377 0 0 381 379 377 377 375 371 375 377 377 0 0 0 0 0 377 379 377 381 381 383 381 379 377 375 379 383 379 381 377 379 381 379 383 373 369 369 366 0 826 817 0 0 0 0 0 0 0 395 393 393 391 385 383 383 377 375 375 379 371 364 0 0 0 0 0 0 0 395 395 395 391 385 387 383 379 375 373 369 373 373 373 364 0 0 387 393 399 404 404 0 0 0 0 413 0 0 0 440 432 0 446 443 0 0 0 1711 1711 1533 0 0 0 557 0 0 0 0 0 360 353 0 0 0 391 387 391 0 459 465 457 457 454 448 443 451 446 435 425 427 427 411 415 404 411 411 413 411 408 408 0 0 0 0 0
    0 0 0 0 0 0 0 0 0 0 0 0 0 0 0 0 0 0 0 0 0 0 0 0 0 0 0 0 0 0 0 0 0 0 0 0 0 0 0 0 0 0 0 0 0 0 0 0 0 0 0 0 0 0 0 0 0 0 0 0 0 0 0 0 0 0 0 0 0 369 371 369 367 366 367 367 367 369 369 367 366 366 366 367 369 371 369 373 373 371 369 373 371 375 375 377 377 377 375 377 375 377 369 369 366 364 364 366 366 367 367 366 362 362 364 366 0 0 0 0 0 0 0 0 0 385 377 379 383 383 0 0 0 0 0 0 373 373 371 375 375 369 373 375 375 373 373 371 373 373 387 377 377 377 375 375 375 375 373 375 373 373 375 375 377 377 373 377 373 375 375 373 371 373 375 377 375 375 377 375 377 377 377 377 379 379 379 377 377 375 373 377 379 377 379 375 377 379 377 381 375 371 371 366 0 0 0 0 0 0 0 0 0 391 391 387 391 391 385 385 383 377 375 373 375 369 366 364 364 364 366 371 373 377 387 389 391 389 383 385 379 377 375 373 371 373 373 373 366 369 389 379 377 387 389 389 0 0 0 0 404 393 389 0 406 399 387 0 0 0 0 0 0 0 0 0 0 598 561 529 0 0 0 0 360 359 0 0 375 383 381 379 387 0 471 457 454 454 446 440 448 443 432 415 418 420 399 0 397 406 408 408 406 406 404 0 0 0 0 0
    0 0 0 0 0 0 0 0 0 0 0 0 0 0 0 0 0 0 0 0 0 0 0 0 0 0 0 0 0 0 0 0 0 0 0 0 0 0 0 0 0 0 0 0 0 0 0 0 0 0 0 0 0 0 0 0 0 0 0 0 0 0 0 0 0 0 0 0 0 375 375 373 375 367 367 367 369 369 367 367 366 366 366 369 369 369 369 375 373 371 371 371 371 375 375 375 375 375 375 375 375 377 371 369 367 366 364 366 366 367 367 367 366 366 367 369 371 385 381 0 385 385 385 385 385 377 373 375 379 379 377 373 0 373 0 369 371 371 371 375 375 369 375 375 377 375 373 373 373 373 385 375 377 375 375 373 373 375 373 373 373 373 375 375 377 377 373 377 375 375 375 373 371 373 375 375 373 373 0 0 377 377 377 377 377 379 379 377 377 373 373 377 379 377 377 377 377 379 379 381 377 373 373 369 371 369 371 373 377 379 383 385 389 391 391 387 391 393 387 387 383 375 375 371 373 369 367 366 364 364 366 369 371 373 381 383 385 383 379 381 377 375 373 373 373 373 373 373 369 369 381 375 369 371 371 371 375 0 0 0 391 387 385 377 383 385 373 375 0 0 0 0 0 0 0 0 0 0 0 0 0 399 393 369 366 366 369 373 375 379 379 379 385 387 0 0 0 443 440 435 443 440 430 0 0 0 0 0 385 402 404 404 402 404 404 0 0 0 0 0
    0 0 0 0 0 0 0 0 0 0 0 0 0 0 0 0 0 0 0 0 0 0 0 0 0 0 0 0 0 0 0 0 0 0 0 0 0 0 0 0 0 0 0 0 0 0 0 0 0 0 0 0 0 0 0 0 0 0 0 0 0 0 0 0 0 0 0 0 0 375 373 371 0 0 0 0 369 369 367 367 366 366 366 367 367 367 367 373 371 371 371 371 373 375 375 377 377 377 377 377 377 375 371 369 367 366 364 366 367 367 367 367 366 367 369 369 373 381 379 0 385 385 385 383 385 377 375 375 377 377 375 375 375 373 369 369 371 373 373 375 375 369 377 377 379 377 375 375 375 375 385 373 375 375 375 373 373 373 373 373 373 371 373 375 375 377 375 377 375 375 375 373 371 373 373 375 373 373 375 375 377 375 375 375 377 377 379 377 377 373 373 377 379 377 377 377 377 379 379 383 377 375 375 371 371 371 373 373 375 377 379 381 387 387 387 385 389 391 385 383 379 373 373 371 373 369 367 366 366 366 367 369 371 371 375 377 379 377 375 377 375 373 371 371 371 373 373 373 369 371 381 373 369 367 369 369 373 375 373 0 383 385 383 375 371 371 369 369 371 0 0 0 0 0 0 0 0 0 0 0 393 393 381 373 371 367 369 373 375 379 377 379 383 385 391 0 0 0 0 0 0 0 0 0 0 395 387 375 375 0 406 404 404 408 406 0 0 0 0 0
    0 0 0 0 0 0 0 0 0 0 0 0 0 0 0 0 0 0 0 0 0 0 0 0 0 0 0 0 0 0 0 0 0 0 0 0 0 0 0 0 0 0 0 0 0 0 0 0 0 0 0 0 0 0 0 0 0 0 0 0 0 0 0 0 0 0 0 0 0 373 371 0 0 0 0 369 369 369 367 367 366 366 366 0 366 366 366 369 367 369 371 369 373 375 377 377 377 379 377 377 379 375 369 369 366 366 364 366 367 369 369 369 367 367 371 369 373 379 377 379 381 381 379 379 383 377 375 377 377 379 377 375 375 373 371 371 373 373 373 375 377 371 379 379 379 377 377 375 377 375 385 373 375 373 373 373 373 373 371 373 373 371 373 375 375 377 375 377 375 375 375 373 371 373 373 375 373 373 375 375 377 375 375 375 375 377 379 377 377 373 373 375 377 375 377 377 377 379 379 381 377 375 375 373 373 371 373 375 375 375 377 379 383 383 385 381 385 389 385 383 377 373 371 371 371 369 367 367 367 367 369 371 371 371 375 377 377 375 373 375 375 371 371 371 371 373 373 373 371 371 381 375 371 369 369 369 373 375 373 371 383 383 381 0 371 369 367 369 371 0 0 0 0 0 369 371 373 379 377 383 385 387 377 373 371 369 371 373 375 377 377 379 381 381 389 393 391 391 0 0 0 0 387 381 387 0 379 375 373 375 389 391 389 389 393 0 0 0 0 0
    0 0 0 0 0 0 0 0 0 0 0 0 0 0 0 0 0 0 0 0 0 0 0 0 0 0 0 0 0 0 0 0 0 0 0 0 0 0 0 0 0 0 0 0 0 0 0 0 0 0 0 0 0 0 0 0 0 0 0 0 0 0 0 0 0 0 0 0 0 371 371 0 0 0 0 369 371 371 369 369 367 367 367 367 367 367 366 367 366 367 369 369 373 375 375 377 377 379 379 377 379 375 369 369 367 366 366 366 367 369 369 369 367 367 369 371 373 377 377 377 377 379 379 377 381 375 375 377 377 379 379 375 375 373 371 371 373 373 373 375 379 371 381 381 379 379 377 377 377 375 385 375 375 373 373 373 373 373 371 371 373 371 373 375 375 377 375 379 377 375 375 375 373 377 375 377 375 375 379 375 377 377 375 375 375 377 379 375 377 373 373 375 375 375 377 375 377 377 377 381 377 375 375 373 373 371 371 373 373 373 375 375 379 379 383 381 383 387 383 381 377 373 371 371 371 369 369 369 369 369 371 373 373 371 373 375 375 373 373 375 373 371 373 373 373 373 375 375 371 373 381 375 373 371 373 373 377 379 377 375 385 385 383 377 373 369 369 371 373 369 367 0 0 0 371 373 373 377 377 379 379 385 375 373 371 369 371 375 375 377 377 377 379 381 387 391 387 387 389 0 0 387 375 373 375 373 0 373 373 373 375 383 383 383 387 0 0 0 0 0
    0 0 0 0 0 0 0 0 0 0 0 0 0 0 0 0 0 0 0 0 0 0 0 0 0 0 0 0 0 0 0 0 0 0 0 0 0 0 0 0 0 0 0 0 0 0 0 0 0 0 0 0 0 0 0 0 0 0 0 0 0 0 0 0 0 0 0 0 0 373 371 371 369 367 367 371 375 375 373 373 373 371 373 371 371 369 367 367 366 366 367 369 371 375 375 377 377 377 377 377 381 377 371 373 369 367 367 369 369 369 371 369 367 369 371 371 375 379 377 377 377 379 379 377 379 373 375 375 377 379 379 375 377 373 373 375 375 375 375 375 381 373 381 381 381 379 377 377 377 375 387 375 377 375 373 373 373 373 371 371 373 371 373 375 375 377 375 379 377 375 375 375 373 375 375 377 375 375 379 377 381 379 377 377 375 377 379 375 375 371 371 373 375 375 375 375 377 377 379 381 379 377 377 373 373 373 373 373 373 373 375 375 377 377 381 379 381 385 381 379 375 373 371 371 371 369 371 373 373 375 375 377 375 375 375 375 375 373 371 375 373 371 373 373 373 373 375 375 373 373 379 375 373 371 375 373 379 379 381 377 381 381 383 375 371 367 369 371 371 369 369 366 0 373 373 373 373 375 375 375 375 381 373 373 373 369 373 375 375 377 377 379 379 379 387 389 383 383 381 379 377 375 367 367 366 367 371 371 371 371 375 381 383 381 387 0 0 0 0 0
    0 0 0 0 0 0 0 0 0 0 0 0 0 0 0 0 0 0 0 0 0 0 0 0 0 0 0 0 0 0 0 0 0 0 0 0 0 0 0 0 0 0 0 0 0 0 0 0 0 0 0 0 0 0 0 0 0 0 0 0 0 0 0 0 0 0 0 0 0 375 373 373 373 369 371 375 377 377 377 375 375 375 375 373 373 371 369 367 366 366 367 369 371 375 375 377 377 377 377 377 379 377 371 375 371 369 369 371 371 371 371 371 369 369 373 373 375 379 377 377 377 379 379 375 375 371 373 375 379 379 381 377 379 377 375 377 377 375 375 375 381 373 381 381 379 379 379 377 379 375 387 375 377 375 373 373 373 373 373 371 373 373 373 375 375 377 375 379 379 375 375 375 373 375 375 377 377 377 383 381 385 383 379 379 377 377 379 375 375 371 371 373 375 375 377 375 377 377 379 383 381 379 379 375 375 373 373 373 373 371 373 373 377 377 379 377 379 383 379 377 373 371 371 371 371 371 371 373 373 377 377 379 377 377 379 377 377 373 371 375 373 371 373 373 373 373 375 375 373 373 377 373 373 371 375 373 379 379 381 377 379 381 381 375 371 369 371 371 373 371 369 369 369 375 375 375 375 375 377 375 375 381 373 375 375 371 373 377 377 377 377 379 379 379 385 387 381 381 379 377 375 373 367 366 364 366 367 367 367 366 367 371 375 375 379 0 0 0 0 0
    0 0 0 0 0 0 0 0 0 0 0 0 0 0 0 0 0 0 0 0 0 0 0 0 0 0 0 0 0 0 0 0 0 0 0 0 0 0 0 0 0 0 0 0 0 0 0 0 0 0 0 0 0 0 0 0 0 0 0 0 0 0 0 0 0 0 0 0 0 377 375 375 375 371 373 375 379 377 377 377 375 373 375 373 371 371 0 0 0 367 367 369 371 375 373 377 375 375 377 375 379 375 371 375 371 371 371 373 373 373 373 373 371 371 375 375 377 379 377 377 377 379 377 371 371 367 371 373 377 377 381 377 379 379 377 379 379 375 375 375 379 373 379 379 379 379 377 377 377 375 387 375 377 375 375 373 373 375 373 373 375 373 373 375 377 377 377 381 379 377 377 375 375 377 377 377 379 381 385 383 385 385 379 381 377 377 379 375 375 371 371 373 375 375 377 377 377 377 381 383 383 379 379 375 375 375 373 373 373 371 373 373 375 373 373 371 373 379 375 373 371 369 369 371 0 371 371 373 373 377 377 379 377 377 377 377 377 373 373 373 373 371 373 373 373 371 375 375 373 373 375 373 373 371 373 373 379 379 381 379 381 383 381 377 373 371 373 373 375 373 373 371 373 377 377 377 377 379 379 377 375 381 373 377 377 371 375 377 377 377 377 379 377 377 385 387 381 381 381 379 377 375 371 367 364 366 366 367 366 364 366 367 371 369 371 0 0 0 0 0
    0 0 0 0 0 0 0 0 0 0 0 0 0 0 0 0 0 0 0 0 0 0 0 0 0 0 0 0 0 0 0 0 0 0 0 0 0 0 0 0 0 0 0 0 0 0 0 0 0 0 0 0 0 0 0 0 0 0 0 0 0 0 0 0 0 0 0 0 0 377 377 377 377 375 375 377 381 379 379 377 377 373 373 373 0 369 0 0 0 367 367 369 371 375 373 375 375 375 375 375 379 377 373 375 373 373 373 373 375 373 375 375 371 373 375 375 377 377 377 377 377 377 377 371 371 367 371 371 377 377 379 377 379 379 379 381 381 377 377 375 379 373 379 377 377 377 377 375 377 375 385 373 377 375 375 375 373 373 373 373 375 371 373 373 377 377 379 381 381 379 379 379 377 379 381 381 381 383 387 385 387 387 381 381 375 377 377 375 375 371 373 373 375 375 377 377 377 377 381 383 381 379 379 375 375 375 375 375 373 371 373 373 373 371 0 369 369 371 371 369 369 369 369 371 0 371 371 375 375 379 379 379 377 377 375 377 377 371 373 373 373 373 373 373 373 373 375 373 373 373 375 373 373 371 373 373 379 377 379 377 379 381 379 377 373 371 371 373 373 373 373 373 373 379 377 379 379 379 379 379 375 383 375 377 377 373 375 375 377 377 375 379 377 377 385 387 381 383 381 379 377 373 369 367 360 362 360 364 362 364 366 367 371 371 371 0 0 0 0 0
    0 0 0 0 0 0 0 0 0 0 0 0 0 0 0 0 0 0 0 0 0 0 0 0 0 0 0 0 0 0 0 0 0 0 0 0 0 0 0 0 0 0 0 0 0 0 0 0 0 0 0 0 0 0 0 0 0 0 0 0 0 0 0 0 0 0 0 0 0 377 377 377 377 377 377 381 383 383 383 381 379 375 375 373 0 369 0 0 0 367 367 369 371 373 373 375 373 375 375 377 381 379 375 377 375 375 375 375 377 375 375 377 373 375 377 377 379 377 375 375 375 377 379 373 371 367 373 375 383 383 383 379 379 379 381 385 383 379 379 377 379 373 379 377 377 377 375 375 375 373 383 371 375 373 373 373 371 371 373 369 373 371 371 373 377 377 379 381 383 381 383 381 381 381 383 381 383 381 385 383 385 385 381 379 375 375 377 373 373 371 373 373 375 375 377 377 377 377 381 383 379 379 377 377 375 377 375 375 373 373 373 373 373 371 369 367 367 367 367 367 366 367 369 371 371 373 371 375 375 379 379 379 375 375 375 377 375 371 373 373 375 373 373 373 375 373 377 375 373 373 375 375 373 373 375 373 377 377 379 377 377 377 377 375 371 371 371 373 373 373 373 373 375 381 379 381 381 381 379 379 377 383 375 375 375 371 373 375 377 377 375 377 377 375 385 383 377 377 377 377 375 371 369 367 364 366 362 366 364 364 367 369 375 375 379 0 0 0 0 0
    0 0 0 0 0 0 0 0 0 0 0 0 0 0 0 0 0 0 0 0 0 0 0 0 0 0 0 0 0 0 0 0 0 0 0 0 0 0 0 0 0 0 0 0 0 0 0 0 0 0 0 0 0 0 0 0 0 0 0 0 0 0 0 0 0 0 0 0 0 373 373 375 375 375 377 381 385 389 389 383 383 379 377 373 0 0 0 0 0 367 366 367 369 371 371 373 373 375 375 377 383 379 377 377 375 375 375 375 375 375 375 375 373 373 377 379 379 377 375 375 375 377 379 375 373 369 381 383 391 387 389 385 383 383 383 385 385 381 379 377 379 375 379 377 377 377 375 375 375 373 379 371 375 371 371 373 371 371 373 369 373 371 371 371 375 377 381 381 385 383 385 383 383 383 387 385 385 381 385 383 383 385 379 377 373 375 375 373 373 371 373 375 375 375 375 375 375 377 381 383 379 377 377 377 377 377 375 375 373 373 373 373 371 369 367 366 366 366 366 366 366 367 369 371 373 375 373 377 377 379 379 379 375 375 373 375 375 371 373 373 375 373 373 375 375 373 377 375 373 373 375 375 373 373 375 373 375 375 377 377 373 377 375 373 371 369 371 371 373 373 373 373 375 381 381 381 381 379 379 379 377 381 375 375 375 371 373 375 375 377 375 377 377 375 385 381 377 375 377 377 375 373 373 371 367 367 367 367 366 366 369 373 379 381 383 0 0 0 0 0
    0 0 0 0 0 0 0 0 0 0 0 0 0 0 0 0 0 0 0 0 0 0 0 0 0 0 0 0 0 0 0 0 0 0 0 0 0 0 0 0 0 0 0 0 0 0 0 0 0 0 0 0 0 0 0 0 0 0 0 0 0 0 0 0 0 0 0 0 0 373 375 375 375 375 375 381 385 391 391 387 387 383 383 375 0 0 0 0 0 367 366 367 367 369 369 373 373 375 375 377 381 381 377 379 375 375 373 375 375 373 375 375 373 375 377 383 381 381 377 377 375 379 379 0 367 0 387 387 393 389 391 387 385 385 383 385 385 381 381 379 379 375 379 377 377 375 375 375 373 371 375 369 373 369 369 373 371 373 375 371 375 373 371 371 375 375 379 381 385 381 385 385 385 383 387 385 385 381 385 383 383 385 377 377 375 375 377 375 373 371 373 375 375 375 375 375 375 377 379 381 377 375 377 377 377 375 375 375 373 373 373 373 371 367 367 366 364 366 366 367 366 369 371 375 375 377 375 377 377 381 381 379 375 377 375 375 375 371 373 373 375 375 375 375 375 373 379 375 373 371 373 373 371 371 373 371 373 371 375 375 371 375 373 369 369 367 369 371 373 371 371 371 373 377 379 381 379 377 377 377 375 381 373 373 373 369 373 375 375 375 375 377 377 375 385 381 377 375 377 377 375 373 373 373 369 369 367 369 367 369 373 375 383 385 385 0 0 0 0 0
    0 0 0 0 0 0 0 0 0 0 0 0 0 0 0 0 0 0 0 0 0 0 0 0 0 0 0 0 0 0 0 0 0 0 0 0 0 0 0 0 0 0 0 0 0 0 0 0 0 0 0 0 0 0 0 0 0 0 0 0 0 0 0 0 0 0 0 0 0 375 375 377 375 377 377 383 387 391 391 389 389 387 387 377 377 373 0 369 367 369 367 367 367 369 369 371 371 373 373 375 381 381 377 379 375 377 375 375 373 373 373 373 373 375 377 385 383 387 383 383 0 0 0 0 364 0 0 385 391 389 389 387 383 385 383 385 385 381 379 379 377 377 379 377 377 375 373 373 373 371 375 369 371 369 369 371 371 373 379 375 377 375 373 373 377 375 379 377 381 379 383 383 383 381 385 383 383 381 381 381 381 383 377 377 375 377 377 377 373 371 371 373 375 375 375 375 375 375 379 381 377 375 377 375 375 375 375 373 373 373 373 373 371 367 367 364 364 366 366 367 366 369 373 375 377 377 375 379 377 381 381 379 375 377 375 377 377 371 375 373 375 375 373 375 375 373 379 375 375 371 373 373 371 371 373 371 371 371 371 373 369 371 371 366 367 366 367 369 371 371 369 371 371 375 375 377 375 373 375 375 375 379 373 373 373 369 373 373 375 375 373 375 375 375 385 379 377 375 379 377 375 0 375 377 371 371 369 369 369 369 373 375 385 387 383 0 0 0 0 0
    0 0 0 0 0 0 0 0 0 0 0 0 0 0 0 0 0 0 0 0 0 0 0 0 0 0 0 0 0 0 0 0 0 0 0 0 0 0 0 0 0 0 0 0 0 0 0 0 0 0 0 0 0 0 0 0 0 0 0 0 0 0 0 0 0 0 0 0 0 377 377 379 377 379 377 385 387 391 393 389 391 387 389 379 377 373 373 371 369 371 369 367 0 369 369 369 369 371 371 375 381 381 379 379 377 379 375 375 375 373 375 375 377 377 381 387 387 391 389 0 0 0 0 0 0 0 0 383 389 389 389 387 383 385 383 383 385 381 379 379 375 377 377 377 375 375 373 373 371 373 373 369 371 369 369 371 373 375 381 377 379 375 375 373 377 373 377 377 379 379 381 381 381 381 385 383 383 383 381 379 383 385 381 379 377 379 379 379 375 373 373 373 375 375 375 375 375 377 381 381 377 375 377 375 375 373 373 371 371 373 371 373 369 367 367 366 364 366 366 369 367 371 373 375 377 377 377 379 379 383 383 381 377 379 377 377 377 371 375 373 375 375 373 375 375 373 379 373 375 371 373 373 371 369 369 367 369 367 367 367 366 367 367 366 366 366 367 369 371 369 369 369 369 371 373 373 373 369 371 373 373 379 373 371 371 369 373 373 373 373 373 375 375 375 383 377 379 377 381 379 0 0 0 0 0 375 369 367 367 367 373 373 379 381 379 0 0 0 0 0
    0 0 0 0 0 0 0 0 0 0 0 0 0 0 0 0 0 0 0 0 0 0 0 0 0 0 0 0 0 0 0 0 0 0 0 0 0 0 0 0 0 0 0 0 0 0 0 0 0 0 0 0 0 0 0 0 0 0 0 0 0 0 0 0 0 0 0 0 0 381 383 383 379 379 379 387 385 391 393 387 0 0 387 377 377 375 375 373 371 373 0 367 0 367 367 367 367 369 371 375 381 381 379 377 375 379 375 375 375 373 373 375 379 379 381 387 387 387 387 385 0 0 0 0 369 0 381 381 387 387 387 387 383 385 383 383 383 379 377 379 373 375 377 375 375 373 373 373 371 373 373 369 371 369 369 371 373 375 379 377 377 375 375 375 377 373 377 377 379 379 381 379 379 381 385 381 383 381 381 381 383 387 381 381 379 379 377 379 375 373 373 373 375 375 375 375 375 377 381 381 377 377 377 375 373 371 371 371 367 371 369 371 367 366 367 366 366 367 367 369 367 371 375 377 377 377 377 381 381 383 385 379 377 377 377 377 377 371 377 373 375 375 375 375 375 375 381 373 375 373 373 375 371 369 369 367 367 367 366 367 366 367 369 367 369 367 369 369 371 371 367 369 369 369 371 371 371 367 369 373 373 377 373 371 371 369 371 371 371 373 371 373 373 373 381 373 379 377 383 379 0 0 0 391 383 377 369 366 364 366 369 369 373 373 371 0 0 0 0 0
    0 0 0 0 0 0 0 0 0 0 0 0 0 0 0 0 0 0 0 0 0 0 0 0 0 0 0 0 0 0 0 0 0 0 0 0 0 0 0 0 0 0 0 0 0 0 0 0 0 0 0 0 0 0 0 0 0 0 0 0 0 0 0 0 0 0 0 0 0 381 383 383 379 379 379 385 381 387 391 383 383 379 377 375 375 373 375 373 371 371 0 0 0 366 366 366 366 367 369 375 383 383 381 377 375 377 373 371 371 369 371 373 375 377 381 385 383 383 0 381 0 0 0 367 367 373 379 379 383 385 385 385 381 381 381 381 381 379 375 377 373 375 377 375 375 373 373 373 371 375 371 369 371 369 369 373 373 375 377 375 375 375 375 375 377 373 377 377 379 379 381 379 379 379 383 381 379 379 377 377 379 383 377 377 375 377 375 377 373 371 373 373 375 375 375 375 375 377 379 379 377 375 375 375 373 369 369 369 367 369 366 367 366 366 369 366 366 367 369 371 369 373 375 377 377 379 379 381 381 381 385 379 375 377 375 375 377 371 377 373 375 375 375 377 377 375 383 375 379 375 377 375 373 371 369 369 369 367 367 367 366 367 367 366 367 367 369 369 371 371 367 369 369 367 369 369 369 366 369 371 371 373 371 367 369 369 371 369 371 371 371 371 373 373 377 371 377 375 383 377 0 0 0 395 389 387 373 364 360 362 367 366 369 0 369 0 0 0 0 0
    0 0 0 0 0 0 0 0 0 0 0 0 0 0 0 0 0 0 0 0 0 0 0 0 0 0 0 0 0 0 0 0 0 0 0 0 0 0 0 0 0 0 0 0 0 0 0 0 0 0 0 0 0 0 0 0 0 0 0 0 0 0 0 0 0 0 0 0 0 377 381 381 379 379 379 385 381 389 389 385 381 377 375 375 375 373 375 373 371 371 367 366 366 364 364 364 364 366 367 375 383 383 381 379 375 375 371 369 367 366 367 369 371 371 375 375 371 0 0 0 0 0 0 0 0 0 0 377 383 383 383 385 379 381 381 379 379 379 377 379 373 377 377 375 375 373 373 373 371 375 369 367 369 367 367 371 373 375 377 375 377 375 375 375 375 371 375 375 379 377 379 379 379 379 383 379 379 377 375 375 377 381 377 375 375 377 377 377 375 373 373 373 375 373 373 375 375 375 377 377 375 375 375 375 371 369 369 369 367 369 366 369 366 366 369 367 367 369 369 373 371 373 377 377 379 379 381 383 383 383 385 381 377 377 375 373 377 371 375 373 375 375 375 375 377 375 383 375 379 375 377 377 373 371 369 367 369 367 366 366 366 366 366 366 367 367 367 369 371 369 366 367 367 367 367 367 367 366 369 371 371 371 371 367 369 369 371 369 371 371 371 371 373 375 377 369 377 375 383 0 0 0 0 404 395 393 375 364 360 360 367 366 367 0 0 0 0 0 0 0
    0 0 0 0 0 0 0 0 0 0 0 0 0 0 0 0 0 0 0 0 0 0 0 0 0 0 0 0 0 0 0 0 0 0 0 0 0 0 0 0 0 0 0 0 0 0 0 0 0 0 0 0 0 0 0 0 0 0 0 0 0 0 0 0 0 0 0 0 0 377 381 383 377 377 377 383 379 389 389 385 381 377 377 375 377 375 375 373 371 371 369 367 366 364 364 364 364 366 366 375 385 381 383 379 373 371 369 367 366 364 367 369 371 369 371 369 0 0 0 0 0 0 0 0 0 0 0 0 0 385 385 385 381 383 381 379 379 379 377 379 373 377 377 375 375 375 373 373 371 375 369 367 367 366 364 369 373 373 375 375 375 375 377 377 375 369 375 375 377 377 377 377 377 377 381 377 375 377 375 375 375 379 375 373 377 379 377 379 375 375 375 375 375 373 373 375 375 375 375 375 373 373 375 373 371 367 367 369 367 369 367 369 366 367 369 369 369 371 373 375 375 375 377 379 379 379 383 383 383 381 387 379 379 379 377 373 377 371 375 373 375 375 373 375 375 373 383 377 381 377 377 377 373 371 369 369 369 366 366 366 364 366 364 362 364 364 366 366 369 367 366 367 367 367 367 367 369 367 369 371 373 371 371 369 369 369 371 371 371 371 373 373 375 377 377 373 379 375 381 371 0 0 0 408 399 395 373 366 364 360 366 364 366 0 0 0 0 0 0 0
    0 0 0 0 0 0 0 0 0 0 0 0 0 0 0 0 0 0 0 0 0 0 0 0 0 0 0 0 0 0 0 0 0 0 0 0 0 0 0 0 0 0 0 0 0 0 0 0 0 0 0 0 0 0 0 0 0 0 0 0 0 0 0 0 0 0 0 0 0 381 385 383 377 377 377 381 377 383 389 381 379 375 375 375 377 375 377 373 373 373 369 367 366 364 364 364 364 366 366 375 381 377 377 373 369 0 0 364 364 362 366 367 369 367 371 0 0 0 0 0 0 0 0 0 0 0 0 0 0 385 385 385 381 383 381 379 379 379 379 379 373 377 377 375 375 375 373 371 369 375 367 366 0 0 0 0 0 0 0 375 377 377 379 381 375 369 377 377 377 375 377 377 375 377 381 377 375 379 379 379 379 381 377 373 379 381 379 381 377 377 377 375 375 373 373 373 373 375 375 375 373 375 375 375 371 367 367 369 367 369 367 369 366 369 373 371 375 375 377 379 379 379 381 381 383 381 385 385 383 383 389 381 379 377 377 373 377 371 375 373 373 373 373 375 375 373 383 375 381 377 379 379 373 371 369 369 369 367 369 367 366 366 366 364 364 364 366 366 371 369 367 369 369 367 369 369 369 367 369 371 371 371 373 369 371 371 373 373 373 373 375 375 377 381 381 379 385 383 389 377 0 0 422 408 399 391 375 369 367 362 366 362 364 362 362 0 0 0 0 0
    0 0 0 0 0 0 0 0 0 0 0 0 0 0 0 0 0 0 0 0 0 0 0 0 0 0 0 0 0 0 0 0 0 0 0 0 0 0 0 0 0 0 0 0 0 0 0 0 0 0 0 0 0 0 0 0 0 0 0 0 0 0 0 0 0 0 0 0 0 389 389 387 379 379 379 379 375 377 379 375 373 371 373 373 375 375 377 375 375 375 373 371 367 366 366 364 364 364 366 375 381 377 379 377 371 0 0 0 362 360 0 366 0 366 371 0 0 0 0 0 0 0 0 0 0 0 0 0 0 0 383 383 379 381 381 379 379 379 379 379 373 377 377 377 375 373 373 371 369 377 367 366 0 0 0 0 0 0 0 0 381 379 0 0 377 0 379 379 377 375 377 377 375 0 381 377 375 0 0 389 385 385 379 375 383 383 381 383 379 377 379 377 375 371 373 373 373 375 375 375 375 377 377 375 371 367 367 367 366 369 366 367 367 371 375 373 379 377 381 381 381 381 383 383 383 381 383 383 383 385 387 377 379 379 379 373 379 373 375 373 373 373 373 373 375 373 383 375 381 379 383 381 375 373 369 369 371 369 371 367 366 367 366 366 366 366 367 367 371 371 369 371 369 367 369 369 369 367 369 371 371 371 373 371 371 373 373 373 373 375 377 377 379 383 383 383 387 389 391 0 0 0 0 413 399 369 371 369 367 362 362 360 362 360 360 0 0 0 0 0
    0 0 0 0 0 0 0 0 0 0 0 0 0 0 0 0 0 0 0 0 0 0 0 0 0 0 0 0 0 0 0 0 0 0 0 0 0 0 0 0 0 0 0 0 0 0 0 0 0 0 0 0 0 0 0 0 0 0 0 0 0 0 0 0 0 0 0 0 0 0 395 389 381 383 379 377 373 373 373 371 369 369 369 371 373 373 377 375 377 375 375 373 369 366 366 362 362 364 366 375 381 379 381 385 377 0 0 0 364 362 364 366 0 366 371 0 0 0 0 0 0 0 0 0 0 0 0 221 0 0 381 381 379 381 381 379 377 377 379 377 371 377 375 375 373 373 371 369 369 379 367 367 0 0 0 0 0 0 0 0 381 381 0 0 0 0 0 381 377 373 375 375 0 0 0 373 0 0 0 397 391 393 383 377 385 383 381 381 377 377 377 377 375 371 373 373 373 375 375 377 377 381 383 377 375 369 367 367 366 367 366 366 366 369 375 373 379 377 381 381 379 381 383 385 383 383 385 383 383 387 389 379 377 377 379 375 381 373 375 373 373 373 373 373 375 373 381 373 377 377 381 379 375 373 369 369 371 371 371 367 366 367 366 366 367 367 367 369 371 373 373 375 371 369 369 369 369 367 369 371 371 371 373 371 371 373 375 375 375 375 379 379 381 385 385 385 385 383 383 0 373 0 0 0 371 362 364 367 366 359 359 357 360 359 0 0 0 0 0 0
    0 0 0 0 0 0 0 0 0 0 0 0 0 0 0 0 0 0 0 0 0 0 0 0 0 0 0 0 0 0 0 0 0 0 0 0 0 0 0 0 0 0 0 0 0 0 0 0 0 0 0 0 0 0 0 0 0 0 0 0 0 0 0 0 0 0 0 0 0 0 404 395 0 0 0 0 0 373 373 371 369 369 367 371 371 373 377 0 0 0 0 0 8 0 366 362 362 362 364 377 383 385 387 391 379 0 0 0 364 0 0 0 0 0 0 0 0 0 0 0 0 0 0 0 0 0 0 222 0 0 0 379 379 381 379 377 375 377 379 375 369 375 373 373 373 371 371 369 369 379 367 367 0 0 0 0 0 0 0 0 0 0 0 0 0 0 0 0 0 0 0 0 0 0 0 0 0 0 0 0 0 397 383 375 383 381 381 379 377 377 379 377 377 373 373 373 373 375 377 379 379 383 385 383 0 371 369 369 366 367 364 366 366 369 373 373 377 375 379 379 379 379 383 387 387 385 387 385 0 387 389 377 375 373 377 373 381 373 375 373 375 373 375 373 377 373 383 375 377 377 379 377 373 369 367 367 369 371 371 369 366 366 366 366 367 369 369 371 375 379 379 383 377 371 371 369 367 367 369 369 369 369 373 371 371 375 375 375 377 377 381 381 383 387 385 385 383 379 377 369 369 366 364 366 366 360 359 364 360 355 355 353 357 0 0 0 0 0 0 0
    0 0 0 0 0 0 0 0 0 0 0 0 0 0 0 0 0 0 0 0 0 0 0 0 0 0 0 0 0 0 0 0 0 0 0 0 0 0 0 0 0 0 0 0 0 0 0 0 0 0 0 0 0 0 0 0 0 0 0 0 0 0 0 0 0 0 0 0 0 425 0 0 0 0 0 0 0 0 0 0 369 369 367 371 373 375 377 0 618 0 0 0 0 366 0 0 0 362 0 0 0 383 391 395 377 208 209 0 359 0 0 0 0 0 0 0 0 0 0 0 0 0 0 0 0 0 0 0 227 0 0 0 377 379 0 0 0 0 381 377 369 375 373 373 373 373 369 369 369 377 366 0 0 0 0 0 82 0 0 0 0 0 0 0 0 0 0 0 0 0 0 0 0 0 0 0 0 0 0 0 0 0 377 0 0 381 379 379 377 381 383 379 377 371 371 371 373 373 373 377 381 387 389 0 0 0 373 371 366 369 364 366 366 369 371 371 375 375 379 379 379 381 385 389 389 387 387 0 0 387 389 375 373 371 375 373 383 373 375 373 375 375 375 373 377 373 381 375 375 373 375 375 371 369 367 367 369 373 373 369 367 367 0 0 0 0 0 0 0 0 0 0 0 379 373 371 369 369 369 371 0 371 373 373 373 375 377 377 379 379 383 381 383 387 385 383 379 375 373 367 366 362 360 362 362 359 355 360 359 353 355 352 355 0 0 0 0 0 0 0
    0 0 0 0 0 0 0 0 0 0 0 0 0 0 0 0 0 0 0 0 0 0 0 0 0 0 0 0 0 0 0 0 0 0 0 0 0 0 0 0 0 0 0 0 0 0 0 0 0 0 0 0 0 0 0 0 0 0 0 0 0 0 0 0 0 0 0 0 0 0 0 0 0 0 0 0 0 0 0 0 371 369 367 371 373 373 373 375 0 0 0 0 366 364 0 0 360 360 0 629 0 0 0 385 0 0 0 0 355 0 0 0 0 0 0 0 0 0 0 0 0 0 0 0 0 0 0 0 227 226 0 271 0 0 0 0 188 0 387 381 0 377 373 373 373 371 369 367 367 373 364 0 0 0 0 0 82 0 0 0 0 78 77 0 0 0 0 0 0 172 0 0 0 0 0 0 0 0 0 0 0 0 375 0 0 0 383 381 379 387 387 383 375 371 369 367 0 0 0 0 0 0 0 0 0 0 381 375 371 373 366 367 371 373 373 371 377 373 379 379 379 381 387 391 391 0 0 0 0 0 389 371 369 367 373 371 381 373 375 373 373 373 373 373 373 371 375 371 371 369 369 369 367 366 364 364 366 369 371 369 366 366 0 0 0 0 0 808 817 0 0 0 0 0 0 375 371 371 371 371 0 0 0 0 0 0 377 379 381 379 383 381 383 387 383 383 377 373 371 366 362 360 357 359 357 355 353 360 359 355 355 352 353 0 0 0 0 0 0 0
    0 0 0 0 0 0 0 0 0 0 0 0 0 0 0 0 0 0 0 0 0 0 0 0 0 0 0 0 0 0 0 0 0 0 0 0 0 0 0 0 0 0 0 0 0 0 0 0 0 0 0 0 0 0 0 0 0 0 0 0 0 0 0 0 0 0 0 0 0 0 0 0 0 0 0 0 0 0 0 0 0 0 0 0 375 373 373 373 375 373 0 0 367 366 0 0 0 0 0 0 207 0 0 0 0 0 0 166 0 0 0 0 0 0 0 0 0 0 0 0 0 0 0 0 0 0 218 0 0 0 0 270 266 262 0 192 187 185 0 0 0 379 369 371 373 371 367 366 366 371 0 0 0 0 0 0 0 0 0 0 0 0 0 0 0 0 0 0 173 0 0 160 158 155 0 0 0 0 0 0 0 0 0 0 0 0 0 387 0 0 393 389 377 369 367 364 0 0 0 0 0 0 0 0 0 387 385 377 377 379 379 381 383 381 377 373 379 373 377 379 379 383 389 393 391 0 0 0 0 0 395 371 367 366 373 0 383 373 373 371 371 371 371 371 371 367 369 367 366 364 360 360 355 353 352 353 359 364 0 371 367 0 0 0 0 0 0 817 0 0 0 0 0 389 385 379 375 375 0 0 0 0 0 0 0 0 0 0 379 377 383 381 383 385 381 379 375 371 367 362 357 355 355 355 355 355 359 364 364 362 362 0 0 0 0 0 0 0 0 0
    0 0 0 0 0 0 0 0 0 0 0 0 0 0 0 0 0 0 0 0 0 0 0 0 0 0 0 0 0 0 0 0 0 0 0 0 0 0 0 0 0 0 0 0 0 0 0 0 0 0 0 0 0 0 0 0 0 0 0 0 0 0 0 0 0 0 0 0 0 0 0 0 0 0 0 0 0 0 0 0 0 0 0 0 0 0 0 0 0 0 0 0 0 0 0 0 0 0 0 0 0 0 0 0 0 0 0 0 0 0 0 0 0 0 0 0 0 0 0 0 0 0 0 0 0 0 0 0 212 216 0 0 0 0 0 195 188 183 0 0 0 0 369 0 0 371 367 364 0 0 0 0 0 0 0 0 0 0 0 0 0 0 0 0 0 0 170 167 170 168 166 0 156 0 0 0 0 0 0 0 0 0 0 0 0 0 0 0 114 0 0 0 381 367 366 362 362 0 0 0 507 0 0 0 0 0 381 375 373 379 381 393 393 387 383 377 383 375 379 379 375 0 0 0 0 0 0 0 663 0 399 0 366 364 0 0 381 371 371 369 369 369 369 369 369 367 367 364 362 362 355 353 350 348 347 347 350 0 0 0 0 0 0 0 0 0 0 817 0 808 0 0 0 0 0 0 0 0 0 0 0 0 0 0 0 0 0 0 0 0 0 0 0 0 381 377 373 369 366 362 357 353 353 352 353 353 359 364 362 364 0 0 0 0 0 0 0 0 0 0
    0 0 0 0 0 0 0 0 0 0 0 0 0 0 0 0 0 0 0 0 0 0 0 0 0 0 0 0 0 0 0 0 0 0 0 0 0 0 0 0 0 0 0 0 0 0 0 0 0 0 0 0 0 0 0 0 0 0 0 0 0 0 0 0 0 0 0 0 0 0 0 0 0 0 0 0 0 0 0 0 0 0 0 0 0 0 0 0 0 0 0 0 0 0 0 0 0 0 0 0 0 0 0 0 0 0 0 0 0 0 0 0 0 0 0 0 0 0 0 0 0 0 0 0 0 0 0 0 0 0 0 0 0 0 0 0 0 0 0 0 0 0 0 0 0 0 0 0 0 0 0 0 0 0 0 0 0 0 0 0 0 0 0 0 0 0 0 0 0 0 0 0 0 0 0 0 0 0 0 0 0 0 0 0 0 0 0 115 0 0 0 0 0 0 0 357 0 0 0 497 507 500 0 855 0 0 389 375 371 375 0 402 395 387 0 0 385 375 379 375 0 0 0 0 0 0 0 0 0 0 411 0 360 359 360 0 0 0 0 0 0 367 367 367 367 366 367 362 360 360 353 350 348 347 345 343 343 339 336 0 0 0 0 0 9199 0 0 791 791 782 0 0 0 0 0 0 0 0 0 0 0 0 0 0 0 0 0 0 0 0 0 0 0 0 0 379 373 369 367 362 353 348 348 347 348 347 348 355 357 359 359 0 0 0 0 0 0 0 0 0
    0 0 0 0 0 0 0 0 0 0 0 0 0 0 0 0 0 0 0 0 0 0 0 0 0 0 0 0 0 0 0 0 0 0 0 0 0 0 0 0 0 0 0 0 0 0 0 0 0 0 0 0 0 0 0 0 0 0 0 0 0 0 0 0 0 0 0 0 0 0 0 0 0 0 0 0 0 0 0 0 0 0 0 0 0 0 0 0 0 0 0 0 0 0 0 0 0 0 0 0 0 0 0 0 0 0 0 0 0 0 0 0 0 0 0 0 0 0 0 0 0 0 0 0 0 0 0 0 0 0 0 0 0 0 0 0 0 0 0 0 0 0 0 0 0 0 0 0 0 0 0 0 0 0 0 0 0 0 0 0 0 0 0 0 0 0 0 0 0 0 0 0 0 0 0 0 0 0 0 0 0 0 0 0 0 0 0 0 0 0 0 0 0 0 0 0 0 0 0 521 525 521 525 0 0 0 425 391 385 383 402 402 399 391 383 383 0 0 0 0 593 598 561 549 553 574 0 0 0 0 0 0 360 357 359 0 0 259 0 258 0 362 364 366 366 360 364 360 359 360 352 348 347 347 345 343 343 339 336 0 0 0 0 0 8177 0 0 782 766 774 0 782 0 0 0 0 0 0 0 0 0 0 0 0 0 0 0 0 0 0 0 0 0 0 0 0 371 367 364 355 345 342 340 339 340 340 340 342 343 343 0 0 0 0 0 0 0 0 0 0
    0 0 0 0 0 0 0 0 0 0 0 0 0 0 0 0 0 0 0 0 0 0 0 0 0 0 0 0 0 0 0 0 0 0 0 0 0 0 0 0 0 0 0 0 0 0 0 0 0 0 0 0 0 0 0 0 0 0 0 0 0 0 0 0 0 0 0 0 0 289 288 286 286 286 293 0 170 170 170 171 171 171 0 0 0 0 0 0 0 0 0 0 0 0 0 0 0 0 0 0 0 0 0 0 0 0 0 0 0 0 0 0 0 0 0 0 0 0 0 0 0 0 0 0 0 0 0 0 0 0 0 0 0 0 0 0 0 0 0 0 0 0 0 0 0 0 0 0 0 0 0 0 0 0 0 0 0 0 0 0 0 0 0 0 0 0 0 0 0 0 0 0 0 0 0 0 0 0 0 0 0 0 0 0 0 0 0 0 0 0 0 0 0 0 0 0 0 0 0 0 0 0 0 0 0 0 0 0 0 0 0 0 0 0 0 0 0 0 0 0 0 0 584 570 570 570 0 0 0 0 0 0 0 357 353 420 261 259 255 252 0 362 362 366 364 359 362 359 357 360 352 348 347 347 345 345 343 339 336 333 0 0 0 0 7359 0 0 782 0 0 0 0 0 0 0 0 0 0 0 0 0 0 0 0 0 0 0 0 0 0 0 0 0 0 0 0 373 0 364 352 343 339 337 336 336 337 336 336 339 339 0 0 0 0 0 0 0 0 0 0
    0 0 0 0 0 0 0 0 0 0 0 0 0 0 0 0 0 0 0 0 0 0 0 0 0 0 0 0 0 0 0 0 0 0 0 0 0 0 0 0 0 0 0 0 0 0 0 0 0 0 0 0 0 0 0 0 0 0 0 0 0 0 0 0 0 0 0 0 0 287 287 285 287 284 287 0 169 169 169 169 169 168 169 0 317 315 0 0 0 0 0 0 0 0 0 0 0 0 0 0 0 0 0 0 206 0 0 0 0 0 0 0 383 0 0 142 142 142 142 0 0 0 0 0 0 0 0 0 0 0 0 0 0 0 0 0 0 0 0 0 0 0 0 0 0 0 0 0 0 0 0 0 0 0 0 0 0 0 0 0 0 0 0 0 0 0 0 0 0 0 0 0 0 0 0 0 0 0 0 0 0 0 0 0 0 0 0 0 0 0 0 0 0 0 0 0 0 0 0 0 0 0 0 0 0 0 0 0 0 0 0 0 0 0 0 0 0 0 0 0 0 0 0 0 0 0 0 0 0 0 0 0 0 0 0 0 0 0 0 0 0 366 366 367 367 362 362 359 357 360 348 345 345 345 343 343 342 339 336 333 347 0 0 0 8177 0 0 0 0 0 0 0 0 0 0 0 0 0 0 0 0 8177 6690 0 0 7359 4329 0 0 0 0 0 0 0 0 0 0 0 362 347 342 339 336 334 333 334 334 336 337 337 337 339 339 337 0 0 0 0 0 0
    0 0 0 0 0 0 0 0 0 0 0 0 0 0 0 0 0 0 0 0 0 0 0 0 0 0 0 0 0 0 0 0 0 0 0 0 0 0 0 0 0 0 0 0 0 0 0 0 0 0 0 0 0 0 0 0 0 0 0 0 0 0 0 0 0 0 0 0 0 288 289 288 288 284 285 285 0 0 288 0 0 0 294 0 309 309 307 0 0 296 299 293 0 0 0 0 296 0 0 0 0 217 212 210 207 208 207 206 207 0 0 0 0 0 0 0 0 142 142 0 0 0 0 0 0 0 0 0 0 0 0 0 0 0 0 0 0 0 0 0 0 0 0 0 0 0 0 1338 1268 0 0 0 0 0 487 481 471 457 0 0 0 0 0 0 0 0 0 0 0 0 0 0 0 0 0 0 0 0 0 0 0 0 0 0 0 0 0 0 0 0 0 0 0 0 0 0 0 0 0 0 0 0 0 0 0 0 0 0 0 0 0 0 0 0 0 0 0 0 0 0 0 0 0 0 0 0 0 0 0 0 0 0 0 0 0 0 0 0 0 0 0 0 364 366 362 359 359 357 355 359 348 343 343 343 343 342 340 339 334 333 0 0 0 0 0 0 0 0 0 0 0 0 0 0 0 0 0 0 0 0 0 0 0 0 0 7359 3679 0 2230 0 0 0 0 0 0 0 0 0 0 342 340 339 336 333 333 333 334 337 340 339 339 340 339 337 0 0 0 0 0 0
    0 0 0 0 0 0 0 0 0 0 0 0 0 0 0 0 0 0 0 0 0 0 0 0 0 0 0 0 0 0 0 0 0 0 0 0 0 0 0 0 0 0 0 0 0 0 0 0 0 0 0 0 0 0 0 0 0 0 0 0 0 0 0 0 0 0 0 0 0 288 289 289 288 285 285 285 289 289 289 290 0 293 294 294 301 301 300 0 297 294 294 290 292 292 292 294 295 0 0 0 0 0 212 210 207 208 207 207 0 0 0 285 286 288 0 0 0 0 0 0 0 0 0 0 0 0 0 0 0 0 0 0 0 0 0 0 0 0 0 0 0 0 0 1247 1247 0 0 0 290 289 0 518 0 504 490 490 477 468 457 0 193 0 0 0 0 0 0 0 0 0 0 0 0 0 0 0 0 0 0 0 0 0 1187 0 0 290 0 0 0 566 0 0 566 0 286 0 0 0 0 0 0 0 0 0 0 0 0 0 0 0 0 0 0 0 0 0 0 0 0 0 0 0 0 0 0 0 0 0 0 0 0 0 0 0 0 0 0 0 0 0 0 0 362 360 352 348 348 348 348 353 343 340 340 340 340 340 339 336 333 0 0 0 0 0 0 0 0 0 0 0 0 0 0 0 0 0 0 0 0 0 0 0 0 0 0 0 4599 0 0 0 0 0 0 0 0 0 0 0 0 0 339 337 334 331 330 331 333 334 340 336 334 337 337 333 0 0 0 0 0 0
    0 0 0 0 0 0 0 0 0 0 0 0 0 0 0 0 0 0 0 0 0 0 0 0 0 0 0 0 0 0 0 0 0 0 0 0 0 0 0 0 0 0 0 0 0 0 0 0 0 0 0 0 0 0 0 0 0 0 0 0 0 0 0 0 0 0 0 0 0 288 288 290 287 285 284 285 289 289 289 290 293 293 294 295 301 301 300 0 295 293 293 289 290 290 290 292 294 292 290 0 299 0 0 0 0 0 0 0 0 0 283 287 286 288 288 289 0 0 0 0 0 0 0 0 0 305 0 0 0 0 0 0 0 0 0 207 0 0 181 184 183 0 0 284 286 288 287 289 288 286 0 0 0 493 490 490 481 481 477 199 194 194 0 0 196 0 154 0 0 0 0 0 0 0 0 0 0 311 0 1132 0 0 289 289 288 290 292 0 0 0 0 0 0 290 286 280 280 0 0 0 0 0 0 0 0 0 0 108 0 0 0 0 288 0 287 285 283 284 284 280 286 290 295 0 0 304 0 202 203 205 207 212 212 0 0 0 0 0 0 0 0 0 0 362 355 343 334 342 343 345 340 333 334 336 339 342 339 336 333 0 0 0 0 0 0 0 0 0 0 0 0 0 0 0 0 0 0 0 0 0 0 0 0 0 0 0 4599 3679 2943 0 0 0 0 0 0 0 0 0 0 0 0 337 331 325 322 322 322 325 334 330 324 333 333 324 0 0 0 0 0 0
    0 0 0 0 0 0 0 0 0 0 0 0 0 0 0 0 0 0 0 0 0 0 0 0 0 0 0 0 0 0 0 0 0 0 0 0 0 0 0 0 0 0 0 0 0 0 0 0 0 0 0 0 0 0 0 0 0 0 0 0 0 0 0 0 0 0 0 0 0 289 288 290 286 286 284 286 289 289 289 290 292 293 294 295 300 300 297 0 294 293 292 289 290 290 290 292 293 290 289 292 296 0 0 0 0 0 0 0 0 0 0 290 288 290 290 292 0 0 0 0 0 299 0 0 0 301 296 0 281 0 283 281 287 287 0 0 0 0 0 0 0 0 0 284 286 287 286 288 287 287 288 292 0 0 0 0 0 0 0 0 195 195 195 194 195 0 154 0 0 0 0 0 0 0 0 299 306 302 0 0 288 290 287 289 0 289 290 292 290 292 289 290 289 290 288 284 284 283 280 0 0 0 0 0 0 0 0 0 0 0 109 109 0 0 286 284 281 283 281 281 288 296 0 0 0 0 0 202 205 205 207 209 209 0 0 0 0 225 227 0 0 0 0 0 0 0 0 0 0 352 342 336 0 0 0 0 0 0 2102 1839 1887 0 0 0 0 0 0 0 0 0 0 0 0 0 0 0 0 0 0 0 0 0 0 5256 6133 6133 4599 4088 3679 0 0 0 0 0 0 0 0 0 0 0 0 331 324 319 318 319 319 322 333 327 321 331 331 322 319 0 0 0 0 0
    0 0 0 0 0 0 0 0 0 0 0 0 0 0 0 0 0 0 0 0 0 0 0 0 0 0 0 0 0 0 0 0 0 0 0 0 0 0 0 0 0 0 0 0 0 0 0 0 0 0 0 0 0 0 0 0 0 0 0 0 0 0 0 0 0 0 0 0 0 289 288 290 286 286 284 286 289 289 289 290 292 293 293 295 297 297 295 295 294 292 292 290 290 289 290 290 293 290 289 293 295 0 0 0 0 0 0 0 0 0 0 290 288 290 290 290 0 0 0 0 0 0 0 299 0 297 294 292 284 280 286 283 287 287 287 287 288 288 0 0 287 285 0 285 287 287 287 289 288 289 289 293 294 289 287 0 0 284 283 283 281 0 0 193 193 0 0 0 0 0 0 0 0 0 0 295 294 297 293 0 287 289 287 289 287 288 289 292 290 292 289 290 290 292 289 286 286 285 284 288 292 290 288 290 292 292 293 0 292 292 0 292 288 288 287 284 283 284 284 288 293 0 296 297 299 299 0 0 203 202 205 205 0 0 2044 0 0 227 0 229 230 227 0 0 0 0 0 181 0 0 0 0 0 0 0 0 0 0 1887 1752 0 1887 1887 0 0 2537 0 2537 0 0 529 507 0 0 0 89 0 0 0 0 0 0 0 0 0 5661 4599 4329 3679 0 0 0 0 0 0 0 955 931 865 0 0 0 315 315 314 317 317 319 325 321 318 322 324 319 317 0 0 0 0 0
    0 0 0 0 0 0 0 0 0 0 0 0 0 0 0 0 0 0 0 0 0 0 0 0 0 0 0 0 0 0 0 0 0 0 0 0 0 0 0 0 0 0 0 0 0 0 0 0 0 0 0 0 0 0 0 0 0 0 0 0 0 0 0 0 0 0 0 0 0 289 289 292 287 287 284 286 289 289 289 290 292 292 293 295 296 296 295 295 294 293 293 292 290 290 290 290 292 289 289 293 295 0 0 0 0 0 0 0 0 0 0 290 287 289 289 289 288 0 0 292 290 0 293 294 293 293 290 289 286 284 287 285 288 288 287 289 289 289 287 287 287 286 285 286 288 288 287 290 289 290 290 294 295 290 288 288 285 285 284 284 283 285 289 0 0 0 0 74 74 0 0 0 0 0 0 295 294 296 293 290 288 288 287 288 287 287 289 290 290 292 289 290 290 292 289 287 287 286 285 288 292 290 289 292 292 292 294 294 293 292 292 292 288 288 287 284 283 284 285 288 290 294 294 296 296 296 294 0 0 0 0 0 0 0 0 0 0 0 0 230 231 227 0 0 0 0 0 0 0 0 0 0 0 0 0 217 216 0 0 168 165 0 0 0 0 0 0 0 0 0 529 504 0 0 0 0 0 0 0 0 0 0 0 0 0 0 4088 3873 3504 0 0 0 0 0 0 0 968 931 876 0 0 0 314 313 311 315 314 0 0 314 313 0 0 0 313 0 0 0 0 0
    0 0 0 0 0 0 0 0 0 0 0 0 0 0 0 0 0 0 0 0 0 0 0 0 0 0 0 0 0 0 0 0 0 0 0 0 0 0 0 0 0 0 0 0 0 0 0 0 0 0 0 0 0 0 0 0 0 0 0 0 0 0 0 0 0 0 0 0 0 290 289 293 289 288 284 286 289 289 289 290 292 292 293 294 296 295 295 294 294 293 293 292 292 290 290 290 292 289 289 293 295 297 0 0 0 0 0 0 0 0 0 289 287 289 289 289 288 0 0 292 290 293 292 293 292 292 290 289 287 286 288 286 288 288 288 289 289 290 287 288 288 287 285 286 288 288 287 290 289 290 289 293 294 290 288 288 287 287 287 287 285 287 290 289 290 0 0 0 0 0 0 0 0 0 0 294 294 295 292 290 288 288 287 288 287 288 289 290 290 292 290 292 292 292 290 288 288 288 286 289 292 290 289 292 292 292 294 295 293 293 293 293 290 290 289 285 284 285 286 289 292 293 293 294 294 295 293 290 0 0 0 0 0 0 0 0 0 0 0 0 0 227 0 0 0 0 0 180 0 0 0 0 0 0 0 217 217 0 0 0 0 0 0 0 0 0 294 0 0 0 525 504 0 0 0 0 0 0 0 0 0 0 0 0 0 0 0 3873 3504 0 0 0 0 0 4088 0 0 908 865 0 0 0 310 309 309 310 311 0 0 0 304 0 0 0 309 0 0 0 0 0
    0 0 0 0 0 0 0 0 0 0 0 0 0 0 0 0 0 0 0 0 0 0 0 0 0 0 0 0 0 0 0 0 0 0 0 0 0 0 0 0 0 0 0 0 0 0 0 0 0 0 0 0 0 0 0 0 0 0 0 0 0 0 0 0 0 0 0 0 0 290 290 293 289 288 283 286 289 289 289 289 290 290 292 294 295 294 294 294 293 293 293 292 290 289 290 290 292 290 289 293 295 297 295 296 294 293 294 294 290 288 287 289 287 289 289 289 288 289 0 292 292 294 293 293 293 293 292 289 287 286 288 287 288 288 289 290 290 292 288 289 289 288 285 286 287 288 287 289 288 289 289 293 293 290 288 289 288 288 288 288 286 288 290 289 290 0 0 0 0 0 0 0 0 0 295 295 294 295 293 290 288 289 288 289 288 289 289 292 292 293 292 292 292 293 290 289 289 289 287 290 293 292 289 292 292 292 294 295 294 293 0 294 292 292 290 288 285 287 288 289 292 293 293 294 294 295 293 290 292 289 286 287 287 0 0 0 0 0 0 288 283 0 0 0 0 0 0 0 0 0 0 0 0 0 0 0 0 0 0 0 0 0 0 0 0 0 0 0 0 0 521 504 0 0 0 0 0 0 0 0 0 0 0 0 0 0 0 4088 3679 0 5256 5256 4906 4088 4599 6133 0 0 0 0 0 0 0 305 304 0 0 0 0 0 0 0 0 0 301 0 0 0 0 0
    0 0 0 0 0 0 0 0 0 0 0 0 0 0 0 0 0 0 0 0 0 0 0 0 0 0 0 0 0 0 0 0 0 0 0 0 0 0 0 0 0 0 0 0 0 0 0 0 0 0 0 0 0 0 0 0 0 0 0 0 0 0 0 0 0 0 0 0 0 292 290 294 290 289 284 287 289 290 289 290 290 290 292 293 294 293 293 293 293 293 293 292 290 289 290 290 290 289 289 293 294 296 294 295 294 294 294 294 290 289 287 289 287 289 289 289 288 289 290 293 292 294 293 293 294 293 292 290 288 287 289 288 289 289 289 290 292 293 290 289 290 289 286 287 288 288 287 289 288 289 288 293 293 290 289 289 288 288 288 289 286 288 290 289 290 290 290 293 292 0 0 0 0 295 295 295 295 296 293 292 289 289 288 289 288 289 290 292 292 293 292 293 293 293 292 290 289 289 287 290 292 290 289 292 292 292 293 295 294 293 293 294 292 292 292 289 286 288 289 290 292 292 293 293 294 294 292 290 292 288 287 287 287 287 286 288 0 0 0 290 286 0 285 289 0 0 0 295 0 297 297 0 0 0 293 0 0 0 0 0 0 0 0 0 0 0 0 0 0 0 525 504 0 0 0 0 0 0 0 0 0 0 0 0 0 0 0 0 0 0 5256 4599 4599 4088 4329 5661 0 0 0 0 0 0 0 301 300 0 0 0 0 0 0 0 0 299 299 0 0 0 0 0
    0 0 0 0 0 0 0 0 0 0 0 0 0 0 0 0 0 0 0 0 0 0 0 0 0 0 0 0 0 0 0 0 0 0 0 0 0 0 0 0 0 0 0 0 0 0 0 0 0 0 0 0 0 0 0 0 0 0 0 0 0 0 0 0 0 0 0 0 0 292 290 294 290 290 285 287 290 290 290 290 292 290 292 294 294 293 293 294 294 293 293 292 290 289 290 289 288 287 289 292 294 296 294 294 293 293 294 293 290 290 288 290 288 289 289 289 288 289 289 292 290 293 292 293 293 293 292 292 289 289 290 289 290 290 290 292 292 293 292 290 290 290 287 288 289 288 287 289 289 289 288 292 292 290 289 289 288 289 289 290 287 289 290 289 290 290 290 292 290 293 294 293 294 293 294 294 294 295 292 292 290 289 288 289 288 289 290 292 292 293 292 293 293 293 292 290 290 289 287 289 292 290 288 292 290 292 293 294 294 293 293 294 293 293 292 290 288 289 289 292 293 290 292 293 293 293 290 289 290 288 287 287 287 287 286 288 0 0 0 290 287 284 285 288 290 0 294 294 294 296 297 0 0 0 0 0 0 0 0 0 0 0 0 0 0 0 0 0 0 0 0 0 0 0 0 0 0 295 0 0 300 0 0 0 0 0 0 0 0 0 0 0 0 4599 0 6133 0 0 0 0 0 0 0 299 299 0 0 295 0 292 293 0 0 297 296 0 0 0 0 0
    0 0 0 0 0 0 0 0 0 0 0 0 0 0 0 0 0 0 0 0 0 0 0 0 0 0 0 0 0 0 0 0 0 0 0 0 0 0 0 0 0 0 0 0 0 0 0 0 0 0 0 0 0 0 0 0 0 0 0 0 0 0 0 0 0 0 0 0 0 292 289 294 292 290 285 286 290 290 290 290 292 290 292 293 294 294 294 294 294 293 294 292 292 289 289 288 286 286 288 292 293 294 292 293 292 293 293 293 290 292 289 292 289 290 289 289 289 289 289 292 290 293 290 292 293 292 292 292 289 289 290 289 290 290 290 292 293 294 292 290 292 292 289 289 289 289 288 290 289 289 288 292 290 290 289 289 289 289 290 290 288 289 290 289 290 290 289 290 289 292 292 290 293 292 293 293 293 294 292 290 290 289 287 289 288 289 289 290 290 293 292 293 292 292 290 290 292 290 289 290 292 290 288 292 290 290 293 294 293 293 293 294 293 293 293 292 289 290 290 292 293 290 292 292 292 292 289 288 289 288 288 287 287 288 287 289 289 0 0 290 288 285 286 289 290 292 294 0 294 0 0 0 0 0 293 0 0 281 284 283 286 0 0 0 0 0 0 0 0 0 0 0 0 295 295 0 296 294 292 0 299 297 0 0 0 0 0 0 0 0 0 0 0 0 0 0 0 817 0 0 0 300 0 299 299 295 299 294 292 290 289 292 293 295 294 0 0 0 0 0
    0 0 0 0 0 0 0 0 0 0 0 0 0 0 0 0 0 0 0 0 0 0 0 0 0 0 0 0 0 0 0 0 0 0 0 0 0 0 0 0 0 0 0 0 0 0 0 0 0 0 0 0 0 0 0 0 0 0 0 0 0 0 0 0 0 0 0 0 0 292 289 294 292 290 286 287 290 290 290 292 292 290 292 293 294 293 294 294 294 293 294 293 292 289 289 287 285 286 287 290 290 293 290 290 290 290 292 290 289 290 288 290 289 290 289 288 288 288 288 290 288 292 290 290 292 292 292 292 290 290 292 290 290 290 290 292 293 294 293 292 293 293 290 290 292 290 289 292 290 290 289 292 292 290 290 289 290 290 290 292 289 290 290 289 292 290 289 289 289 292 292 289 292 290 292 292 292 293 290 290 290 288 287 288 288 289 289 289 290 292 292 293 290 292 292 292 293 292 292 292 292 292 288 292 290 290 292 293 293 293 293 294 293 294 293 292 290 290 290 292 293 289 292 292 292 290 289 289 290 289 289 288 288 289 289 290 290 288 289 290 288 287 288 290 289 0 0 0 0 0 0 0 0 0 292 0 285 283 284 284 286 285 284 283 285 289 290 292 292 293 294 0 293 294 295 0 295 294 293 295 299 296 0 0 300 299 299 300 299 0 301 0 302 296 295 0 0 0 0 0 0 299 0 0 0 293 0 292 290 290 287 289 290 293 293 0 0 0 0 0
    0 0 0 0 0 0 0 0 0 0 0 0 0 0 0 0 0 0 0 0 0 0 0 0 0 0 0 0 0 0 0 0 0 0 0 0 0 0 0 0 0 0 0 0 0 0 0 0 0 0 0 0 0 0 0 0 0 0 0 0 0 0 0 0 0 0 0 0 0 290 288 293 293 289 287 287 290 290 290 292 290 290 292 293 294 293 294 294 294 294 295 293 292 289 289 287 284 286 287 290 290 293 290 290 289 290 290 289 287 288 286 289 287 288 288 287 288 287 287 290 288 290 289 290 292 292 292 292 290 290 292 290 290 290 290 292 293 294 293 293 294 294 292 292 293 292 290 293 290 290 289 292 292 292 290 290 290 292 292 293 290 292 292 290 292 290 289 290 289 292 290 289 292 290 292 293 293 293 290 290 292 289 288 288 288 289 289 290 290 293 293 293 292 292 290 292 292 292 290 290 290 290 288 292 290 292 292 293 293 293 293 295 294 294 293 292 292 292 290 292 290 286 290 290 290 290 288 288 290 289 290 289 289 290 289 292 292 290 290 292 290 290 290 292 290 292 293 293 293 294 294 293 292 292 290 290 286 285 286 287 288 286 286 285 286 290 290 290 292 292 293 293 293 294 294 0 294 294 294 295 296 295 296 295 299 299 299 299 297 297 300 297 300 295 296 296 297 295 299 297 297 299 0 0 0 0 0 293 292 289 288 290 290 293 293 0 0 0 0 0
    0 0 0 0 0 0 0 0 0 0 0 0 0 0 0 0 0 0 0 0 0 0 0 0 0 0 0 0 0 0 0 0 0 0 0 0 0 0 0 0 0 0 0 0 0 0 0 0 0 0 0 0 0 0 0 0 0 0 0 0 0 0 0 0 0 0 0 0 0 287 286 293 294 289 287 288 292 290 290 292 290 290 292 293 294 293 294 295 295 295 295 294 292 289 289 288 285 286 288 290 290 292 290 290 289 289 290 288 286 287 286 288 287 288 288 287 288 287 287 290 288 292 290 292 293 293 292 293 292 292 292 292 292 292 292 293 294 295 293 294 295 294 293 293 293 293 292 293 290 288 287 290 290 290 290 292 292 293 293 294 290 292 292 290 292 290 290 290 290 292 290 289 292 290 293 293 293 293 290 290 292 289 288 287 288 290 290 290 292 293 293 293 292 292 289 290 290 290 289 290 290 290 288 292 292 292 293 294 294 294 293 295 294 294 293 293 292 292 292 292 290 285 290 292 292 289 288 288 290 289 290 289 288 290 290 292 292 290 292 293 292 293 292 293 290 292 293 293 293 294 293 292 292 292 292 290 288 288 288 290 290 288 289 287 286 290 290 290 290 290 293 293 294 294 294 294 294 294 293 294 294 292 294 293 296 296 296 296 295 295 297 0 297 295 294 295 296 295 297 296 296 296 294 294 293 293 293 292 290 289 288 289 290 292 290 0 0 0 0 0
    0 0 0 0 0 0 0 0 0 0 0 0 0 0 0 0 0 0 0 0 0 0 0 0 0 0 0 0 0 0 0 0 0 0 0 0 0 0 0 0 0 0 0 0 0 0 0 0 0 0 0 0 0 0 0 0 0 0 0 0 0 0 0 0 0 0 0 0 0 278 281 290 293 289 286 288 292 292 292 292 290 290 292 294 294 293 294 295 294 295 295 293 293 290 290 289 287 287 288 290 290 292 290 290 289 289 289 288 286 287 286 288 287 288 288 287 289 288 287 290 289 292 292 293 294 294 293 294 292 292 293 292 292 290 292 293 294 295 293 294 295 295 294 294 294 293 292 293 290 287 287 289 290 290 290 292 292 293 292 293 289 292 290 289 292 290 290 290 290 293 292 290 292 292 294 293 293 293 289 290 292 289 288 288 289 290 290 292 292 293 293 294 293 292 289 290 290 289 289 290 290 289 288 292 292 292 293 293 293 294 294 295 294 294 293 293 293 293 292 292 293 288 293 294 293 290 289 288 290 290 290 289 288 289 289 292 290 290 290 292 290 292 292 292 290 292 293 293 292 294 293 292 292 292 292 292 289 288 289 292 290 289 289 287 287 290 290 290 290 290 293 293 294 295 295 295 294 295 294 294 294 293 294 293 295 296 295 295 294 294 296 295 296 294 293 293 295 294 295 295 294 294 293 293 293 293 293 292 290 289 288 290 290 292 289 0 0 0 0 0
    0 0 0 0 0 0 0 0 0 0 0 0 0 0 0 0 0 0 0 0 0 0 0 0 0 0 0 0 0 0 0 0 0 0 0 0 0 0 0 0 0 0 0 0 0 0 0 0 0 0 0 0 0 0 0 0 0 0 0 0 0 0 0 0 0 0 0 0 0 277 280 287 290 288 285 288 292 290 292 292 292 292 292 294 294 293 294 295 293 294 295 293 293 292 289 289 288 288 289 292 290 292 290 290 289 290 290 289 286 288 287 289 289 290 289 288 290 290 289 293 292 293 293 294 295 295 295 296 294 293 294 293 293 292 292 293 294 295 293 295 295 295 294 294 294 293 292 294 290 287 288 290 290 290 290 292 290 292 292 293 288 290 289 289 290 290 290 290 290 293 292 289 292 292 294 293 292 293 289 290 292 290 288 287 289 290 290 292 292 293 293 293 292 290 289 289 289 289 289 290 290 289 288 292 292 292 292 293 293 293 294 295 294 293 293 293 293 292 292 293 293 290 294 295 294 292 289 289 290 290 292 289 289 290 290 292 292 292 292 293 292 290 290 292 290 292 293 293 292 294 293 293 292 292 292 292 289 289 289 293 292 290 290 288 287 290 290 290 289 290 293 293 294 295 295 295 295 295 294 295 295 293 294 293 294 295 294 293 293 292 295 294 295 294 293 294 296 295 296 295 294 294 293 293 293 293 292 292 290 289 289 290 290 292 289 0 0 0 0 0
    0 0 0 0 0 0 0 0 0 0 0 0 0 0 0 0 0 0 0 0 0 0 0 0 0 0 0 0 0 0 0 0 0 0 0 0 0 0 0 0 0 0 0 0 0 0 0 0 0 0 0 0 0 0 0 0 0 0 0 0 0 0 0 0 0 0 0 0 0 278 280 0 288 287 284 289 292 290 290 292 292 292 292 294 294 293 295 296 293 294 295 293 293 293 290 289 287 288 289 290 289 290 289 290 289 289 289 288 286 288 287 290 289 290 289 289 290 290 289 293 290 292 293 293 294 295 294 297 295 294 294 293 294 292 292 292 293 294 292 294 295 295 295 295 295 294 293 295 293 289 290 292 290 292 292 292 292 292 290 292 288 290 290 290 292 290 292 292 290 293 290 289 290 290 293 292 290 290 288 289 290 289 287 286 288 289 290 292 292 293 292 293 292 290 288 288 289 288 289 289 289 288 288 292 292 292 292 292 293 293 293 294 293 293 292 293 293 292 292 293 293 292 296 296 295 293 290 289 292 292 292 290 290 290 290 292 292 292 292 293 290 290 290 290 289 290 292 290 290 293 292 292 290 292 292 292 289 289 290 293 293 292 292 289 288 290 292 290 290 292 293 293 294 295 295 295 295 296 295 295 296 295 295 294 295 295 294 293 292 292 294 294 295 295 294 295 297 296 296 295 294 294 292 293 292 292 290 292 290 289 289 290 289 290 289 0 0 0 0 0
    0 0 0 0 0 0 0 0 0 0 0 0 0 0 0 0 0 0 0 0 0 0 0 0 0 0 0 0 0 0 0 0 0 0 0 0 0 0 0 0 0 0 0 0 0 0 0 0 0 0 0 0 0 0 0 0 0 0 0 0 0 0 0 0 0 0 0 0 0 280 280 0 288 287 284 289 290 290 290 292 290 290 292 294 294 293 295 297 294 295 295 294 294 293 292 290 289 290 289 290 289 289 288 289 288 288 289 288 286 288 288 289 289 290 289 289 289 290 288 290 289 290 292 292 293 294 294 297 295 294 294 293 294 292 292 292 293 293 290 294 294 294 295 295 295 294 294 295 293 292 292 292 292 292 293 292 293 293 289 290 288 290 290 290 292 290 292 292 290 292 289 288 288 288 289 288 287 288 286 288 289 289 288 287 289 290 290 292 292 293 292 292 292 289 289 288 289 288 290 290 290 288 289 292 292 292 292 292 292 292 293 294 292 292 292 292 292 292 292 293 294 294 297 297 295 293 290 290 292 292 293 290 290 292 290 293 292 292 292 292 289 288 288 289 288 288 289 289 288 292 289 290 289 290 290 290 289 289 290 293 292 292 292 289 288 292 292 290 290 292 293 293 294 295 295 294 295 296 296 296 297 296 0 295 295 294 294 293 292 292 294 294 294 294 294 295 297 296 296 294 294 293 292 290 290 290 289 290 290 289 290 290 289 290 289 0 0 0 0 0
    0 0 0 0 0 0 0 0 0 0 0 0 0 0 0 0 0 0 0 0 0 0 0 0 0 0 0 0 0 0 0 0 0 0 0 0 0 0 0 0 0 0 0 0 0 0 0 0 0 0 0 0 0 0 0 0 0 0 0 0 0 0 0 0 0 0 0 0 0 283 0 0 288 288 283 289 290 289 289 290 290 290 290 294 294 292 295 296 293 294 294 293 294 293 292 292 290 292 290 290 288 288 288 288 288 288 288 288 285 288 288 289 289 289 288 288 288 289 288 289 289 289 292 290 293 293 293 296 294 294 293 292 293 289 290 292 292 293 289 294 295 295 295 295 295 294 294 296 293 293 293 292 292 292 293 293 293 293 290 290 289 290 290 290 292 292 292 292 290 292 289 287 287 286 288 286 286 287 285 288 290 290 290 288 290 290 292 293 292 293 292 292 293 290 289 288 290 289 292 292 290 288 289 292 292 292 293 292 292 292 293 293 290 290 290 290 290 290 292 293 294 297 301 299 296 293 292 290 292 292 292 290 290 292 290 292 292 290 290 292 288 289 288 289 287 288 288 288 287 289 287 289 287 289 289 289 289 290 290 294 293 293 293 289 289 292 292 292 290 292 293 293 294 295 295 294 295 296 296 297 297 296 296 295 295 294 294 292 292 292 293 293 294 294 295 295 297 297 295 295 294 293 292 290 290 290 289 290 290 289 290 292 292 292 292 0 0 0 0 0
    0 0 0 0 0 0 0 0 0 0 0 0 0 0 0 0 0 0 0 0 0 0 0 0 0 0 0 0 0 0 0 0 0 0 0 0 0 0 0 0 0 0 0 0 0 0 0 0 0 0 0 0 0 0 0 0 0 0 0 0 0 0 0 0 0 0 0 0 0 285 0 0 288 289 281 289 290 289 289 290 289 289 290 294 292 290 294 294 292 292 294 293 294 0 292 293 292 293 290 289 287 286 287 287 287 287 287 286 285 287 288 288 288 288 287 288 288 289 287 289 288 289 290 290 292 293 293 295 294 294 294 292 293 290 292 292 293 293 289 293 294 294 295 295 295 294 294 295 293 292 292 292 292 292 293 293 293 293 290 292 290 292 292 290 292 292 292 292 290 292 289 288 287 286 288 0 285 288 286 289 290 292 292 289 292 292 293 293 293 293 293 293 294 292 292 289 290 290 292 292 292 287 290 292 292 293 293 292 293 292 294 294 292 292 292 290 292 290 292 294 294 299 302 300 297 295 294 292 294 293 292 290 290 292 290 292 290 290 289 289 287 288 287 288 286 287 287 288 287 289 285 288 286 288 289 289 289 290 292 294 294 294 293 290 290 292 293 293 292 293 294 293 294 296 296 295 296 297 297 297 299 297 297 295 295 294 294 292 290 290 293 292 293 294 295 296 299 299 296 296 295 294 293 292 290 290 289 293 292 292 293 294 0 295 296 0 0 0 0 0
    0 0 0 0 0 0 0 0 0 0 0 0 0 0 0 0 0 0 0 0 0 0 0 0 0 0 0 0 0 0 0 0 0 0 0 0 0 0 0 0 0 0 0 0 0 0 0 0 0 0 0 0 0 0 0 0 0 0 0 0 0 0 0 0 0 0 0 0 0 286 0 0 288 288 281 289 290 288 289 289 289 289 289 294 292 290 294 294 292 292 293 293 294 0 293 294 293 295 295 293 292 289 290 289 289 288 287 287 285 287 288 288 288 288 288 288 289 289 289 289 289 289 290 292 292 293 293 295 294 295 294 292 293 290 292 292 293 293 289 293 294 294 294 294 294 293 293 295 293 292 292 292 292 292 293 293 294 293 290 292 290 292 290 290 292 292 292 292 290 292 289 288 287 287 0 286 287 289 288 290 290 292 292 289 292 292 293 293 293 293 293 293 295 293 293 290 292 290 292 293 292 287 290 292 292 293 293 293 293 292 294 294 292 293 292 292 292 292 293 294 295 296 299 299 296 294 294 292 294 293 292 290 289 290 290 290 290 289 288 289 287 288 286 288 287 287 288 289 288 289 288 289 288 290 290 290 290 292 292 295 294 294 294 290 290 292 293 293 292 293 294 293 294 296 297 295 296 297 297 299 299 297 297 296 295 294 294 293 292 290 293 290 292 294 295 296 299 299 296 296 295 294 293 292 290 290 289 294 293 293 295 296 0 296 300 0 0 0 0 0
    0 0 0 0 0 0 0 0 0 0 0 0 0 0 0 0 0 0 0 0 0 0 0 0 0 0 0 0 0 0 0 0 0 0 0 0 0 0 0 0 0 0 0 0 0 0 0 0 0 0 0 0 0 0 0 0 0 0 0 0 0 0 0 0 0 0 0 0 0 289 0 0 289 289 281 289 289 288 289 289 289 289 289 294 292 290 293 293 292 290 293 293 294 0 294 295 295 297 297 295 294 293 292 289 289 288 287 287 285 287 288 288 289 289 288 289 289 289 289 289 289 290 290 292 292 293 293 295 294 295 294 293 293 292 292 293 293 293 289 292 294 294 294 294 294 293 293 294 293 292 292 292 292 292 293 293 294 292 289 290 289 290 290 290 290 292 292 292 289 290 289 288 0 0 0 287 287 289 288 290 290 292 292 288 292 292 293 293 292 293 293 293 295 294 295 293 294 293 293 293 293 287 290 293 293 293 293 293 293 292 295 293 292 293 292 292 293 292 294 295 295 296 297 297 295 293 293 292 293 293 292 290 289 290 289 289 289 288 287 287 287 287 286 288 287 287 289 290 290 290 290 292 290 292 292 290 290 290 292 294 292 293 293 290 290 292 293 293 292 293 294 293 294 296 297 295 296 297 297 299 299 299 299 297 296 295 294 293 292 292 293 290 292 294 295 296 299 299 296 296 295 293 292 290 289 289 288 293 292 293 294 295 296 295 297 0 0 0 0 0
    0 0 0 0 0 0 0 0 0 0 0 0 0 0 0 0 0 0 0 0 0 0 0 0 0 0 0 0 0 0 0 0 0 0 0 0 0 0 0 0 0 0 0 0 0 0 0 0 0 0 0 0 0 0 0 0 0 0 0 0 0 0 0 0 0 0 0 0 0 0 0 292 290 290 281 289 289 287 288 288 288 288 288 294 292 290 293 0 290 290 292 292 293 292 293 295 296 297 297 295 293 292 292 289 289 288 288 288 287 288 289 289 289 289 288 289 289 289 290 289 289 290 292 292 292 293 293 294 293 294 293 292 292 292 292 0 293 293 289 292 293 294 294 294 294 293 293 294 294 293 293 292 292 292 293 293 294 292 290 290 290 290 290 290 290 290 290 0 0 0 288 0 0 0 0 287 288 290 289 292 292 293 292 290 293 292 293 293 292 292 292 293 296 295 296 296 296 295 295 294 294 288 292 293 293 293 293 293 293 292 295 293 292 293 292 292 293 292 294 295 295 296 296 296 295 293 293 293 293 293 292 290 290 290 290 290 289 288 287 286 287 287 285 287 288 288 290 292 292 292 293 293 292 293 292 290 290 289 290 292 290 290 290 289 289 290 292 293 293 294 294 293 294 296 296 295 295 297 296 297 299 299 299 299 297 296 295 294 293 293 294 292 292 294 296 297 299 299 0 0 295 0 292 288 288 287 286 292 292 293 295 295 297 296 296 0 0 0 0 0
    0 0 0 0 0 0 0 0 0 0 0 0 0 0 0 0 0 0 0 0 0 0 0 0 0 0 0 0 0 0 0 0 0 0 0 0 0 0 0 0 0 0 0 0 0 0 0 0 0 0 0 0 0 0 0 0 0 0 0 0 0 0 0 0 0 0 0 0 0 292 0 292 290 290 281 288 288 287 288 288 288 288 288 294 290 290 293 0 290 290 292 292 293 292 293 295 295 297 297 294 293 292 292 290 290 289 288 288 288 289 290 289 290 289 288 289 289 289 290 289 289 290 290 292 290 292 292 294 293 293 293 292 293 292 292 0 0 293 289 292 293 293 294 294 293 293 293 294 294 293 293 292 292 292 294 293 294 293 292 292 292 290 290 289 289 290 289 0 0 0 286 0 0 285 0 285 287 290 290 292 292 294 294 292 294 293 293 294 293 293 293 294 296 297 297 296 296 296 296 295 295 289 292 293 293 293 293 293 293 292 0 293 292 293 292 292 293 293 294 295 295 295 295 295 294 293 293 293 294 294 293 292 290 292 290 290 289 288 287 286 287 287 286 288 288 289 290 292 293 293 293 293 292 293 292 289 290 288 289 289 288 289 289 288 289 290 292 293 293 294 294 293 295 295 295 294 295 296 296 297 299 297 299 299 297 296 296 295 295 294 295 294 293 295 297 299 300 299 0 0 0 294 292 287 286 283 284 289 290 294 295 296 0 0 296 0 0 0 0 0
    0 0 0 0 0 0 0 0 0 0 0 0 0 0 0 0 0 0 0 0 0 0 0 0 0 0 0 0 0 0 0 0 0 0 0 0 0 0 0 0 0 0 0 0 0 0 0 0 0 0 0 0 0 0 0 0 0 0 0 0 0 0 0 0 0 0 0 0 0 292 292 292 290 292 283 288 288 287 288 288 288 288 288 293 290 292 293 293 292 292 293 292 293 292 293 294 294 296 296 294 292 292 290 290 289 289 288 288 288 289 290 289 289 289 288 289 289 289 289 287 288 289 290 290 290 292 292 293 293 293 293 292 293 292 292 0 0 293 289 292 293 293 293 293 293 293 293 295 294 293 293 293 292 293 294 294 294 294 293 293 293 292 290 288 289 288 287 287 0 0 284 283 0 283 283 284 287 289 289 290 292 294 294 293 295 294 294 295 294 293 293 294 296 297 299 296 296 296 296 295 294 289 292 292 292 292 293 292 293 292 294 293 292 293 292 292 293 293 294 295 295 295 294 294 294 292 292 293 293 293 292 289 288 289 289 289 288 287 286 285 288 288 287 288 289 289 290 292 293 292 293 292 292 293 290 289 289 287 288 288 287 289 287 287 288 289 292 292 293 294 293 294 295 296 295 294 294 295 295 296 297 297 297 299 299 297 296 296 295 295 295 294 293 295 297 299 297 297 0 0 0 294 292 286 285 280 284 288 290 293 294 294 0 0 296 0 0 0 0 0
    0 0 0 0 0 0 0 0 0 0 0 0 0 0 0 0 0 0 0 0 0 0 0 0 0 0 0 0 0 0 0 0 0 0 0 0 0 0 0 0 0 0 0 0 0 0 0 0 0 0 0 0 0 0 0 0 0 0 0 0 0 0 0 0 0 0 0 0 0 292 292 292 290 292 283 288 288 287 288 288 288 288 288 293 292 292 293 293 292 292 293 292 293 290 292 294 294 296 296 293 292 292 290 289 289 289 288 288 287 288 290 289 289 288 288 288 288 288 288 287 288 289 290 290 290 292 292 293 293 293 293 292 293 293 293 0 0 294 289 292 293 293 293 293 293 293 292 295 294 293 293 293 292 293 294 294 294 293 293 293 293 292 289 286 287 287 285 285 0 0 283 281 284 281 283 285 287 290 290 290 292 293 294 293 295 294 294 294 294 293 293 295 297 299 299 296 296 296 296 295 295 289 292 292 292 292 293 292 292 290 294 293 292 293 292 290 292 292 294 294 294 294 294 294 293 292 292 292 292 292 289 288 287 288 289 289 289 287 287 285 289 289 289 289 289 288 290 292 293 292 293 292 290 292 290 289 288 286 287 287 287 288 287 287 288 289 290 292 293 294 293 294 295 297 296 294 294 294 294 295 296 295 297 297 297 296 296 296 295 295 296 293 292 294 296 297 296 296 294 293 294 294 290 286 285 280 284 288 290 292 0 0 0 0 295 0 0 0 0 0
    0 0 0 0 0 0 0 0 0 0 0 0 0 0 0 0 0 0 0 0 0 0 0 0 0 0 0 0 0 0 0 0 0 0 0 0 0 0 0 0 0 0 0 0 0 0 0 0 0 0 0 0 0 0 0 0 0 0 0 0 0 0 0 0 0 0 0 0 0 292 292 292 290 292 283 288 288 287 288 288 288 288 288 293 290 292 293 290 290 290 292 290 292 289 290 292 294 295 0 293 292 292 290 289 289 289 289 288 287 288 289 289 289 288 288 288 289 289 290 288 289 290 292 292 292 292 292 293 293 293 293 292 293 293 293 293 293 294 289 292 293 293 293 293 293 293 292 295 294 293 293 293 292 293 293 293 293 292 293 292 293 292 288 285 287 286 284 284 0 0 284 0 288 284 288 287 288 292 292 290 292 292 293 292 294 293 292 293 293 292 292 294 295 297 297 296 296 296 296 295 295 289 292 292 292 293 293 292 293 290 294 293 292 293 290 289 290 290 293 294 293 293 294 294 294 293 293 292 292 292 289 288 287 288 288 289 289 287 288 286 290 290 292 290 290 290 292 293 294 292 293 290 290 292 290 289 289 287 287 287 287 289 287 287 288 289 290 292 292 293 293 294 295 296 295 294 293 292 292 293 294 294 296 297 297 297 297 297 296 297 297 294 292 295 295 296 296 0 0 0 295 294 292 289 288 281 286 288 290 290 292 0 0 0 295 0 0 0 0 0
    0 0 0 0 0 0 0 0 0 0 0 0 0 0 0 0 0 0 0 0 0 0 0 0 0 0 0 0 0 0 0 0 0 0 0 0 0 0 0 0 0 0 0 0 0 0 0 0 0 0 0 0 0 0 0 0 0 0 0 0 0 0 0 0 0 0 0 0 0 290 290 290 289 290 283 288 288 287 289 289 288 288 288 293 290 292 292 289 289 289 292 290 292 290 293 293 295 0 0 0 293 293 292 292 290 289 289 289 287 288 289 289 289 289 290 289 292 292 292 290 290 292 293 292 292 292 293 293 293 294 293 293 293 294 293 293 293 294 289 292 292 292 292 293 293 292 292 295 294 293 293 293 292 292 293 292 292 292 292 290 292 292 288 285 286 286 284 285 286 284 287 285 292 288 290 288 289 292 292 290 292 292 293 292 293 292 290 292 293 290 292 294 294 295 296 296 296 296 296 295 295 289 292 293 292 293 293 292 293 290 294 293 292 293 289 289 290 290 293 293 293 293 294 294 294 294 294 293 293 292 290 288 288 288 288 289 289 288 288 286 290 290 292 292 292 290 293 294 295 293 293 292 292 292 290 289 289 287 288 288 288 289 287 287 288 289 290 292 292 293 293 294 295 296 294 294 292 292 290 292 293 294 296 299 299 299 297 299 299 300 300 295 295 297 296 297 296 0 0 0 297 295 293 292 292 283 289 292 293 292 292 290 0 293 293 0 0 0 0 0
    0 0 0 0 0 0 0 0 0 0 0 0 0 0 0 0 0 0 0 0 0 0 0 0 0 0 0 0 0 0 0 0 0 0 0 0 0 0 0 0 0 0 0 0 0 0 0 0 0 0 0 0 0 0 0 0 0 0 0 0 0 0 0 0 0 0 0 0 0 290 289 290 289 289 284 288 288 287 288 288 288 288 289 293 290 290 290 289 290 290 292 292 293 293 295 295 296 0 0 0 0 295 294 293 293 290 290 290 288 289 290 289 290 289 290 0 292 292 292 290 290 292 293 292 292 293 293 293 293 293 292 293 293 293 293 293 293 293 288 290 292 292 290 292 292 292 292 295 294 294 294 294 293 294 293 293 293 292 292 290 292 290 288 285 286 286 284 286 289 286 289 288 293 289 292 290 289 290 290 290 292 292 292 290 293 290 289 290 290 290 290 292 292 294 295 295 296 297 296 295 295 289 292 293 292 293 292 292 292 290 294 292 292 292 289 288 289 289 292 293 292 292 293 293 293 293 293 292 292 290 290 288 288 288 288 289 290 289 289 287 290 292 293 292 292 292 293 294 295 294 294 293 293 293 292 292 290 288 289 288 288 289 286 287 287 288 289 290 292 292 292 293 294 295 293 293 292 290 289 289 293 295 296 300 299 300 297 300 300 301 300 296 0 296 295 297 0 0 0 0 0 294 293 290 0 0 289 289 293 289 288 287 288 289 290 0 0 0 0 0
    0 0 0 0 0 0 0 0 0 0 0 0 0 0 0 0 0 0 0 0 0 0 0 0 0 0 0 0 0 0 0 0 0 0 0 0 0 0 0 0 0 0 0 0 0 0 0 0 0 0 0 0 0 0 0 0 0 0 0 0 0 0 0 0 0 0 0 0 0 290 290 290 289 290 284 288 288 287 288 288 288 289 289 293 290 289 290 289 290 292 293 292 294 294 296 296 297 0 0 0 0 294 293 293 293 292 292 290 289 290 292 290 290 289 290 289 292 292 292 290 292 293 294 293 293 293 293 293 293 293 292 293 293 294 293 293 293 292 287 290 290 290 290 292 292 292 292 295 295 295 296 295 294 294 294 293 293 293 293 290 292 289 288 284 284 285 283 285 288 286 288 288 293 290 293 292 290 292 290 290 292 292 293 292 293 292 292 292 292 289 292 290 290 293 295 295 296 297 296 295 295 289 292 292 292 292 292 292 292 290 294 292 290 290 288 288 288 289 290 292 292 292 293 293 293 294 293 292 292 290 290 288 288 288 289 289 292 290 290 288 292 292 293 292 293 292 293 294 295 294 295 293 292 293 292 292 290 288 288 288 287 288 286 287 287 288 289 289 290 292 292 292 294 294 292 293 292 292 290 290 292 295 295 299 299 299 297 299 300 301 299 0 0 0 296 297 0 0 0 0 0 294 293 290 293 283 289 288 292 289 287 286 286 287 287 0 0 0 0 0
    0 0 0 0 0 0 0 0 0 0 0 0 0 0 0 0 0 0 0 0 0 0 0 0 0 0 0 0 0 0 0 0 0 0 0 0 0 0 0 0 0 0 0 0 0 0 0 0 0 0 0 0 0 0 0 0 0 0 0 0 0 0 0 0 0 0 0 0 0 292 292 290 289 290 285 287 288 287 288 288 289 289 289 293 290 288 289 289 290 292 293 292 294 294 295 295 296 295 295 0 0 294 293 294 294 293 294 292 292 292 292 292 289 288 289 288 290 292 290 290 290 293 294 293 293 294 293 294 293 293 292 292 293 293 293 293 292 292 287 290 290 289 289 290 292 292 293 297 297 297 299 297 296 295 294 293 293 293 293 290 292 289 287 283 284 285 281 284 285 285 288 287 293 290 293 292 290 292 292 292 293 293 294 294 294 294 294 294 293 292 292 290 289 292 293 294 294 296 296 294 295 289 292 292 292 292 292 292 292 289 293 292 290 290 288 288 287 288 290 292 292 292 293 293 293 295 294 292 290 289 289 287 288 288 289 289 292 292 292 288 293 293 294 293 293 292 292 294 295 294 294 292 290 290 289 290 290 288 287 287 286 287 285 286 286 287 288 289 289 290 290 292 294 294 293 293 293 293 292 292 292 295 295 297 297 297 296 297 299 302 299 0 0 299 297 297 0 0 0 0 0 293 292 292 294 289 292 292 293 293 290 290 288 288 287 0 0 0 0 0
    0 0 0 0 0 0 0 0 0 0 0 0 0 0 0 0 0 0 0 0 0 0 0 0 0 0 0 0 0 0 0 0 0 0 0 0 0 0 0 0 0 0 0 0 0 0 0 0 0 0 0 0 0 0 0 0 0 0 0 0 0 0 0 0 0 0 0 0 0 292 290 290 289 289 285 287 287 287 287 287 288 288 289 292 289 287 289 288 289 290 292 292 293 294 295 295 296 295 294 293 0 293 293 294 295 293 294 293 292 292 292 290 288 286 288 287 289 290 289 289 288 290 293 293 293 294 293 294 294 294 294 293 294 294 293 293 290 292 287 289 289 289 288 289 290 292 292 296 297 297 299 297 296 295 294 294 293 293 293 290 290 289 287 283 286 285 283 284 285 285 287 286 292 289 292 292 290 292 293 292 294 294 295 295 295 295 295 294 293 292 292 289 288 290 292 292 292 294 293 290 294 287 290 292 290 292 290 292 292 289 293 290 289 289 287 287 286 287 289 290 290 290 292 292 293 295 293 290 290 288 288 286 287 286 287 288 290 290 292 289 293 293 294 292 293 290 292 292 294 293 293 290 289 290 288 290 290 288 287 286 285 286 283 285 285 287 288 289 288 290 290 292 294 295 294 295 295 0 294 294 294 297 296 300 299 297 296 297 299 300 297 296 296 299 297 297 0 0 0 0 296 293 292 293 296 294 294 294 294 294 293 292 289 288 286 0 0 0 0 0
    0 0 0 0 0 0 0 0 0 0 0 0 0 0 0 0 0 0 0 0 0 0 0 0 0 0 0 0 0 0 0 0 0 0 0 0 0 0 0 0 0 0 0 0 0 0 0 0 0 0 0 0 0 0 0 0 0 0 0 0 0 0 0 0 0 0 0 0 0 292 292 290 289 289 285 286 286 286 286 286 287 287 288 290 288 287 288 288 288 289 290 290 292 293 295 294 295 294 0 0 0 290 290 292 293 290 292 290 290 290 289 288 285 284 285 285 287 288 288 288 287 289 293 293 293 293 293 0 0 0 294 0 0 294 294 293 290 292 287 289 289 288 287 288 289 290 292 296 296 297 297 297 295 295 295 294 294 294 293 290 290 290 288 286 289 286 284 285 286 286 286 286 289 288 290 290 289 292 292 292 294 0 0 296 295 296 294 293 292 290 292 289 288 290 290 290 292 293 290 288 293 285 289 290 289 290 289 290 290 288 292 290 288 288 286 287 286 287 288 289 289 290 292 292 292 295 294 290 289 287 287 285 286 286 286 287 290 290 292 290 293 293 294 292 292 290 289 290 293 292 292 290 290 290 290 293 292 290 288 287 285 286 283 285 285 286 287 289 288 290 290 293 294 295 294 296 297 305 300 297 297 300 301 302 300 297 295 295 297 296 295 0 294 296 295 295 296 296 297 295 295 293 293 294 296 295 295 295 294 294 293 292 290 287 284 0 0 0 0 0
    0 0 0 0 0 0 0 0 0 0 0 0 0 0 0 0 0 0 0 0 0 0 0 0 0 0 0 0 0 0 0 0 0 0 0 0 0 0 0 0 0 0 0 0 0 0 0 0 0 0 0 0 0 0 0 0 0 0 0 0 0 0 0 0 0 0 0 0 0 293 292 292 290 289 285 285 286 285 285 286 287 287 288 289 288 287 288 287 287 288 289 289 292 292 294 293 294 0 0 288 285 286 289 290 0 0 292 290 289 289 286 285 283 280 283 283 285 286 287 288 287 289 293 293 0 0 0 0 0 0 0 0 0 293 293 293 290 290 287 289 289 289 288 289 288 290 290 295 294 295 295 294 294 294 293 293 294 294 292 289 290 289 288 287 290 286 284 285 287 285 285 285 287 286 289 289 287 289 290 292 294 0 299 297 294 295 293 290 289 288 289 288 287 289 290 290 292 293 289 287 292 284 289 289 289 290 289 290 290 288 292 290 289 288 287 287 286 287 289 290 290 290 292 293 293 296 295 293 290 287 288 287 287 287 287 289 0 292 294 292 293 293 294 292 293 290 290 292 293 293 293 292 292 292 292 294 294 294 290 289 286 286 284 285 286 287 288 289 289 290 292 293 294 295 295 297 300 307 302 299 297 300 300 301 299 296 296 295 296 0 295 0 295 296 295 295 297 0 297 0 0 293 293 295 296 295 295 295 295 295 294 293 292 288 284 0 0 0 0 0
    0 0 0 0 0 0 0 0 0 0 0 0 0 0 0 0 0 0 0 0 0 0 0 0 0 0 0 0 0 0 0 0 0 0 0 0 0 0 0 0 0 0 0 0 0 0 0 0 0 0 0 0 0 0 0 0 0 0 0 0 0 0 0 0 0 0 0 0 0 293 292 292 289 288 285 284 285 284 285 285 287 287 288 289 288 286 288 287 287 287 288 289 290 292 0 293 294 0 0 287 284 0 289 292 0 0 0 290 290 289 284 283 280 278 280 280 283 0 286 286 285 288 292 293 0 0 0 0 0 0 0 0 0 292 292 292 288 290 287 288 288 289 288 289 287 289 290 293 292 293 292 290 290 293 292 290 293 294 292 290 292 289 288 289 292 286 284 285 286 284 284 285 286 284 287 287 285 286 288 290 293 0 301 299 294 295 292 289 288 288 288 286 287 288 289 290 290 292 288 287 292 283 289 288 289 289 289 289 289 287 292 288 288 287 287 287 286 287 289 290 292 292 292 292 294 296 295 293 290 287 289 287 288 288 288 289 292 293 294 293 294 294 295 293 294 293 293 293 294 294 294 293 293 292 292 294 295 295 292 290 289 288 285 286 286 287 288 289 289 290 292 293 294 295 295 297 301 310 305 300 297 300 301 301 300 297 296 295 296 297 295 296 295 296 295 295 299 0 297 0 0 292 294 296 296 296 295 295 295 295 295 294 293 289 283 0 0 0 0 0
    0 0 0 0 0 0 0 0 0 0 0 0 0 0 0 0 0 0 0 0 0 0 0 0 0 0 0 0 0 0 0 0 0 0 0 0 0 0 0 0 0 0 0 0 0 0 0 0 0 0 0 0 0 0 0 0 0 0 0 0 0 0 0 0 0 0 0 0 0 294 293 293 290 288 285 283 284 284 285 285 286 286 288 288 288 286 288 287 287 287 288 289 292 0 0 0 0 0 0 0 0 0 292 0 0 0 0 0 292 289 283 280 279 276 278 279 280 0 284 285 284 286 290 293 0 0 0 0 0 0 0 0 0 290 290 290 287 289 287 288 288 289 288 288 285 289 289 290 289 292 290 289 289 293 292 292 0 0 293 293 293 289 289 288 290 286 284 284 285 284 283 285 285 284 286 287 284 285 0 0 0 0 306 300 0 0 290 289 288 288 288 287 287 289 290 293 292 293 289 286 290 283 287 287 288 288 287 288 288 287 290 287 288 287 287 286 285 286 288 289 290 290 290 290 293 295 294 292 290 288 288 286 287 288 288 289 290 292 292 292 293 293 293 293 293 293 292 292 293 293 293 293 293 292 293 295 295 296 293 292 290 288 0 286 286 287 288 289 289 290 292 293 294 295 295 297 302 313 309 304 297 301 302 302 301 299 296 295 0 296 295 295 295 295 293 0 299 0 299 0 0 0 295 297 296 296 296 296 295 296 296 294 293 290 283 0 0 0 0 0
    0 0 0 0 0 0 0 0 0 0 0 0 0 0 0 0 0 0 0 0 0 0 0 0 0 0 0 0 0 0 0 0 0 0 0 0 0 0 0 0 0 0 0 0 0 0 0 0 0 0 0 0 0 0 0 0 0 0 0 0 0 0 0 0 0 0 0 0 0 297 295 295 292 289 285 281 283 283 284 284 285 286 287 288 288 286 288 288 287 288 287 289 290 0 0 0 0 0 0 0 0 0 290 292 0 0 0 0 292 289 281 278 278 275 276 278 279 0 281 284 0 0 0 0 0 0 0 0 0 0 0 0 0 289 290 290 286 288 288 287 288 288 288 288 285 288 288 288 289 290 289 289 289 294 293 293 0 0 295 293 293 288 287 286 290 285 283 284 284 283 281 284 285 283 286 0 0 0 0 0 0 0 0 300 0 0 0 289 287 288 287 287 288 290 290 293 292 293 289 285 289 281 286 285 287 287 287 288 288 287 290 287 288 287 287 286 285 286 287 288 290 290 290 290 293 294 294 293 292 290 289 285 287 288 289 290 289 289 289 289 290 290 290 289 289 290 288 289 289 290 292 292 290 290 292 294 295 296 293 289 287 0 0 284 285 287 288 289 289 292 293 293 294 294 295 296 297 304 301 301 297 300 301 302 301 0 0 0 0 0 294 294 293 293 0 0 0 0 0 0 0 0 0 0 0 0 0 295 295 297 296 294 294 290 284 0 0 0 0 0
    0 0 0 0 0 0 0 0 0 0 0 0 0 0 0 0 0 0 0 0 0 0 0 0 0 0 0 0 0 0 0 0 0 0 0 0 0 0 0 0 0 0 0 0 0 0 0 0 0 0 0 0 0 0 0 0 0 0 0 0 0 0 0 0 0 0 0 0 0 314 309 300 296 292 285 280 283 283 284 284 286 286 287 288 288 287 288 288 286 287 286 286 0 0 0 0 0 0 0 0 0 0 0 0 0 0 0 0 290 286 279 277 276 274 275 278 279 0 0 0 0 286 0 0 0 0 0 0 0 0 0 0 0 0 293 292 287 289 289 288 289 289 289 288 284 288 287 285 288 290 289 288 288 293 292 293 0 0 0 294 292 287 284 285 289 284 283 283 283 281 281 284 284 281 284 0 0 0 0 0 0 0 0 0 0 0 0 0 0 288 287 286 287 289 289 293 290 292 286 283 287 280 284 284 286 286 286 287 287 286 289 286 287 285 286 285 284 285 287 287 290 290 290 290 293 295 294 293 0 0 0 286 287 288 289 290 288 288 287 287 289 289 288 287 286 288 286 287 287 288 289 290 289 288 0 293 294 295 292 285 283 281 283 283 284 286 287 289 290 292 293 294 295 295 297 299 301 304 300 300 296 299 300 300 0 0 294 292 292 0 0 0 289 289 0 0 0 0 0 0 0 0 0 0 0 0 0 0 293 296 296 294 294 289 283 0 0 0 0 0
    0 0 0 0 0 0 0 0 0 0 0 0 0 0 0 0 0 0 0 0 0 0 0 0 0 0 0 0 0 0 0 0 0 0 0 0 0 0 0 0 0 0 0 0 0 0 0 0 0 0 0 0 0 0 0 0 0 0 0 0 0 0 0 0 0 0 0 0 0 319 0 305 299 292 284 280 281 283 283 284 285 285 286 287 287 287 288 287 284 283 281 0 0 0 0 0 0 0 0 0 0 0 0 283 0 0 0 0 0 283 278 278 275 275 276 279 0 0 0 0 0 286 0 0 0 0 0 0 0 0 0 0 0 0 293 292 287 292 290 289 290 292 290 289 283 288 284 284 286 288 287 287 287 292 289 290 0 0 0 0 294 288 285 0 0 285 0 283 283 281 281 283 284 0 0 0 0 0 0 0 0 0 0 0 0 0 0 0 0 288 0 286 287 289 288 292 289 289 281 281 284 279 283 283 285 285 285 286 286 285 288 285 287 285 285 284 283 284 286 286 290 290 290 289 294 294 0 0 0 0 0 286 288 287 289 292 288 288 286 287 288 288 287 286 285 288 286 287 287 288 0 0 290 289 0 293 294 295 292 285 281 281 283 283 284 286 288 289 290 293 293 294 294 294 295 296 299 299 296 296 294 296 299 300 299 295 292 289 289 0 288 287 285 285 281 0 0 0 0 0 0 0 0 0 0 0 0 294 292 296 296 294 293 287 0 0 0 0 0 0
    0 0 0 0 0 0 0 0 0 0 0 0 0 0 0 0 0 0 0 0 0 0 0 0 0 0 0 0 0 0 0 0 0 0 0 0 0 0 0 0 0 0 0 0 0 0 0 0 0 0 0 0 0 0 0 0 0 0 0 0 0 0 0 0 0 0 0 0 0 0 348 0 304 292 283 280 281 281 283 281 283 283 284 286 285 286 0 0 0 0 0 0 0 0 0 0 0 0 0 0 0 179 0 0 0 0 477 0 0 0 0 0 269 273 275 0 0 0 0 0 0 0 0 0 240 242 0 0 0 0 123 123 123 0 0 290 289 293 290 289 293 294 293 290 281 285 281 281 284 286 285 285 285 290 288 288 0 0 0 0 0 287 0 0 0 0 0 0 0 281 280 283 283 0 0 0 0 0 0 1533 0 0 0 0 0 0 0 0 0 0 0 0 0 289 288 292 288 288 280 280 281 278 280 280 284 284 284 285 285 285 287 285 287 0 285 283 283 283 285 284 288 292 289 288 0 0 0 0 0 0 0 0 288 288 290 292 288 288 286 286 288 288 287 286 284 287 285 287 287 288 0 0 0 290 0 0 0 0 293 283 280 0 283 0 283 287 288 288 290 293 293 293 292 292 292 293 295 295 293 294 292 295 299 300 299 295 290 0 0 0 0 0 0 280 0 0 0 0 0 0 283 284 0 0 0 0 290 293 290 0 294 290 288 283 278 0 0 0 0 0
    0 0 0 0 0 0 0 0 0 0 0 0 0 0 0 0 0 0 0 0 0 0 0 0 0 0 0 0 0 0 0 0 0 0 0 0 0 0 0 0 0 0 0 0 0 0 0 0 0 0 0 0 0 0 0 0 0 0 0 0 0 0 0 0 0 0 0 0 0 393 362 345 321 293 0 0 280 281 283 283 283 284 284 287 0 0 0 0 0 0 0 0 0 0 0 0 0 0 0 0 0 0 0 0 0 0 0 0 0 0 0 0 0 0 0 281 0 0 0 286 0 0 0 0 0 0 0 0 0 0 0 123 0 0 0 289 288 292 0 0 0 343 317 296 0 285 284 283 284 285 284 284 284 289 286 285 1635 1635 0 0 0 287 0 0 0 0 0 221 0 0 0 281 281 0 0 0 0 0 0 1501 0 0 0 0 0 0 0 0 0 0 0 0 0 289 287 0 290 288 279 0 280 0 280 280 284 284 284 285 285 285 0 0 0 0 0 284 284 284 285 283 0 292 288 0 0 0 0 0 0 0 459 0 289 288 290 293 288 0 286 286 288 288 287 285 283 287 285 286 285 0 0 0 0 0 0 0 0 0 294 284 0 0 0 284 0 288 289 288 289 292 292 290 290 290 290 290 293 295 292 293 290 293 297 299 299 0 0 0 0 0 0 0 0 0 0 0 0 0 0 0 284 284 0 0 0 292 289 292 0 0 290 288 286 281 278 0 0 0 0 0
    0 0 0 0 0 0 0 0 0 0 0 0 0 0 0 0 0 0 0 0 0 0 0 0 0 0 0 0 0 0 0 0 0 0 0 0 0 0 0 0 0 0 0 0 0 0 0 0 0 0 0 0 0 0 0 0 0 0 0 0 0 0 0 0 0 0 0 0 0 0 0 0 0 0 0 0 0 0 0 0 0 0 0 0 0 0 0 0 0 0 0 0 0 0 0 0 0 0 0 0 0 0 0 0 0 0 0 0 0 0 0 0 0 0 0 0 0 0 0 0 0 0 0 0 0 0 0 0 0 0 0 0 0 0 285 0 0 0 0 0 0 342 318 297 280 286 285 283 283 284 283 281 283 288 280 0 1635 1635 0 0 0 0 0 0 0 0 0 0 0 0 0 0 0 0 0 0 0 0 0 1565 0 0 0 0 1149 0 0 0 153 153 153 0 0 0 0 0 0 0 0 0 0 0 0 281 285 285 285 286 287 286 0 0 0 0 0 0 0 283 283 0 0 0 0 0 0 0 0 0 0 0 462 0 0 0 290 293 288 0 285 286 288 288 287 0 0 0 285 286 285 0 0 0 0 0 0 0 0 0 0 0 0 0 0 0 0 289 289 289 289 289 290 290 289 289 289 288 289 292 289 287 281 285 285 0 0 0 0 0 0 634 651 0 0 0 0 0 0 0 0 0 0 284 0 0 0 0 289 290 0 0 0 285 284 280 278 0 0 0 0 0
    0 0 0 0 0 0 0 0 0 0 0 0 0 0 0 0 0 0 0 0 0 0 0 0 0 0 0 0 0 0 0 0 0 0 0 0 0 0 0 0 0 0 0 0 0 0 0 0 0 0 0 0 0 0 0 0 0 0 0 0 0 0 0 0 0 0 0 0 0 0 0 0 0 0 0 0 0 0 0 0 0 0 0 0 0 0 0 0 0 0 0 0 0 0 0 0 0 0 0 0 0 0 0 0 0 0 0 0 0 0 0 0 0 0 0 0 0 0 0 0 0 0 0 0 0 0 0 0 0 0 0 0 0 0 0 0 0 0 440 408 371 343 319 300 283 289 287 284 284 284 281 280 280 286 277 0 0 0 0 0 0 0 0 0 0 0 0 0 0 0 0 0 0 0 0 0 0 0 0 1752 0 0 0 0 0 0 0 153 153 153 0 0 0 0 420 427 408 0 0 0 0 0 0 0 285 0 0 0 0 0 0 0 0 0 0 0 0 0 280 0 0 0 0 0 0 0 0 0 0 0 459 0 0 0 290 292 0 0 0 0 0 286 286 0 0 0 284 0 284 0 0 0 0 0 0 0 0 0 0 0 0 0 0 0 284 289 290 289 289 289 289 288 287 288 287 286 285 285 284 281 279 278 274 0 0 0 0 0 0 0 0 0 0 0 0 0 0 0 0 0 281 283 0 0 0 0 0 0 0 0 0 284 281 279 277 0 0 0 0 0
    0 0 0 0 0 0 0 0 0 0 0 0 0 0 0 0 0 0 0 0 0 0 0 0 0 0 0 0 0 0 0 0 0 0 0 0 0 0 0 0 0 0 0 0 0 0 0 0 0 0 0 0 0 0 0 0 0 0 0 0 0 0 0 0 0 0 0 0 0 0 0 0 0 0 0 0 0 0 0 0 0 0 0 0 0 0 0 0 0 0 0 0 0 0 0 0 0 0 0 0 0 0 0 0 0 0 0 0 0 0 0 0 0 0 0 0 0 0 0 0 0 0 0 0 0 0 0 0 0 0 0 0 0 0 0 0 0 0 0 0 0 0 0 0 0 0 0 0 0 0 0 0 0 0 0 0 0 0 0 0 0 0 0 0 0 0 0 0 0 0 0 0 0 0 0 0 0 0 0 0 0 0 0 0 0 0 0 0 0 0 0 0 427 0 418 0 0 0 0 1226 1226 0 0 0 0 0 0 0 0 0 0 0 0 0 0 0 0 278 0 0 0 276 276 0 0 0 0 0 0 0 462 0 0 0 290 0 285 0 0 0 0 0 0 0 0 0 0 0 0 0 0 0 0 0 0 0 0 0 0 0 0 0 0 0 284 289 289 289 288 289 289 287 286 286 285 284 283 283 281 279 278 277 273 267 0 0 0 0 0 0 0 0 0 0 278 278 0 0 0 0 0 283 0 0 0 0 0 0 0 0 0 281 280 279 276 0 0 0 0 0
    0 0 0 0 0 0 0 0 0 0 0 0 0 0 0 0 0 0 0 0 0 0 0 0 0 0 0 0 0 0 0 0 0 0 0 0 0 0 0 0 0 0 0 0 0 0 0 0 0 0 0 0 0 0 0 0 0 0 0 0 0 0 0 0 0 0 0 0 0 0 0 0 0 0 0 0 0 0 0 0 0 0 0 0 0 0 0 0 0 0 0 0 0 0 0 0 0 0 0 0 0 0 0 0 0 0 0 0 0 0 0 0 0 0 0 0 0 0 0 0 0 0 0 0 0 0 0 0 0 0 0 0 0 0 0 0 0 0 0 0 0 0 0 0 0 0 0 0 0 0 0 0 0 0 0 0 0 0 0 0 0 0 0 0 0 0 0 0 0 0 0 0 0 0 0 0 0 0 0 0 0 0 0 0 0 0 0 0 0 0 0 0 0 0 0 0 0 0 0 0 0 0 0 0 0 0 0 0 0 0 0 0 0 0 0 0 0 0 0 0 0 0 0 1149 1051 1051 0 0 490 0 0 0 0 0 0 0 0 0 0 0 0 0 0 0 0 0 0 0 0 0 0 0 0 0 0 808 758 0 0 0 0 0 0 0 0 286 0 286 286 287 287 285 284 284 284 283 283 281 280 279 278 277 275 272 0 0 0 0 0 0 0 0 0 0 276 276 276 275 0 0 0 0 0 0 0 0 0 0 0 735 0 0 278 277 275 0 0 0 0 0
    0 0 0 0 0 0 0 0 0 0 0 0 0 0 0 0 0 0 0 0 0 0 0 0 0 0 0 0 0 0 0 0 0 0 0 0 0 0 0 0 0 0 0 0 0 0 0 0 0 0 0 0 0 0 0 0 0 0 0 0 0 0 0 0 0 0 0 0 0 0 0 0 0 0 0 0 0 0 0 0 0 0 0 0 0 0 0 0 0 0 0 0 0 0 0 0 0 0 0 0 0 0 0 0 0 0 0 0 0 0 0 0 0 0 0 0 0 0 0 0 0 0 0 0 0 0 0 0 0 0 0 0 0 0 0 0 0 0 0 0 0 0 0 0 0 0 0 0 0 0 0 0 0 0 0 0 0 0 0 0 0 0 0 0 0 0 0 0 0 0 0 0 0 0 0 0 0 0 0 0 0 0 0 0 0 0 0 0 0 0 0 0 0 0 0 0 0 0 0 0 0 0 0 0 0 0 0 0 0 0 0 0 0 0 0 0 0 0 0 0 0 0 0 0 1098 1115 1066 1132 0 0 0 0 0 0 0 0 0 0 0 0 0 0 0 0 0 0 0 0 0 0 0 0 0 0 0 845 799 0 0 0 0 0 0 0 0 283 284 283 281 283 281 281 281 280 281 280 280 280 279 278 277 276 275 274 274 0 0 0 0 0 0 0 0 0 276 275 275 274 0 0 0 0 0 0 0 0 0 0 0 0 0 0 277 276 273 0 0 0 0 0
    0 0 0 0 0 0 0 0 0 0 0 0 0 0 0 0 0 0 0 0 0 0 0 0 0 0 0 0 0 0 0 0 0 0 0 0 0 0 0 0 0 0 0 0 0 0 0 0 0 0 0 0 0 0 0 0 0 0 0 0 0 0 0 0 0 0 0 0 0 0 0 0 0 0 0 0 0 0 0 0 0 0 0 0 0 0 0 0 0 0 0 0 0 0 0 0 0 0 0 0 0 0 0 0 0 0 0 0 0 0 0 0 0 0 0 0 0 0 0 0 0 0 0 0 0 0 0 0 0 0 0 0 0 0 0 0 0 0 0 0 0 0 0 0 0 0 0 0 0 0 0 0 0 0 0 0 0 0 0 0 0 0 0 0 0 0 0 0 0 0 0 0 0 0 0 0 0 0 0 0 0 0 0 0 0 0 0 0 0 0 0 0 0 0 0 0 0 0 0 0 0 0 0 0 0 0 0 0 0 0 0 0 0 0 0 0 0 0 0 0 0 0 0 0 0 0 0 0 0 0 0 0 0 0 0 0 0 0 0 0 0 0 0 0 0 0 0 0 0 0 0 0 0 0 0 865 0 0 0 0 0 0 0 0 0 280 278 279 278 278 278 278 279 279 279 279 278 278 278 277 276 274 273 272 273 0 0 0 0 0 0 0 0 0 275 273 0 272 0 0 0 0 0 0 0 284 0 0 0 0 0 275 276 275 272 0 0 0 0 0
    0 0 0 0 0 0 0 0 0 0 0 0 0 0 0 0 0 0 0 0 0 0 0 0 0 0 0 0 0 0 0 0 0 0 0 0 0 0 0 0 0 0 0 0 0 0 0 0 0 0 0 0 0 0 0 0 0 0 0 0 0 0 0 0 0 0 0 0 0 0 0 0 0 0 0 0 0 0 0 0 0 0 0 0 0 0 0 0 0 0 0 0 0 0 0 0 0 0 0 0 0 0 0 0 0 0 0 0 0 0 0 0 0 0 0 0 0 0 0 0 0 0 0 0 0 0 0 0 0 0 0 0 0 0 0 0 0 0 0 0 0 0 0 0 0 0 0 0 0 0 0 0 0 0 0 0 0 0 0 0 0 0 0 0 0 0 0 0 0 0 0 0 0 0 0 0 0 0 0 0 0 0 0 0 0 0 0 0 0 0 0 0 0 0 0 0 0 0 0 0 0 0 0 0 0 0 0 0 0 0 0 0 0 0 0 0 0 0 0 0 0 0 0 0 0 0 0 0 0 0 0 0 0 0 0 0 0 0 0 0 0 0 0 0 0 0 0 0 0 0 0 0 0 0 0 865 845 0 0 0 0 0 0 0 0 0 0 0 276 276 277 277 278 278 278 278 277 276 276 275 274 273 272 270 272 274 276 0 0 0 0 0 0 0 273 0 0 0 0 0 0 369 367 0 0 0 0 0 0 0 0 273 274 274 272 0 0 0 0 0
    0 0 0 0 0 0 0 0 0 0 0 0 0 0 0 0 0 0 0 0 0 0 0 0 0 0 0 0 0 0 0 0 0 0 0 0 0 0 0 0 0 0 0 0 0 0 0 0 0 0 0 0 0 0 0 0 0 0 0 0 0 0 0 0 0 0 0 0 0 0 0 0 0 0 0 0 0 0 0 0 0 0 0 0 0 0 0 0 0 0 0 0 0 0 0 0 0 0 0 0 0 0 0 0 0 0 0 0 0 0 0 0 0 0 0 0 0 0 0 0 0 0 0 0 0 0 0 0 0 0 0 0 0 0 0 0 0 0 0 0 0 0 0 0 0 0 0 0 0 0 0 0 0 0 0 0 0 0 0 0 0 0 0 0 0 0 0 0 0 0 0 0 0 0 0 0 0 0 0 0 0 0 0 0 0 0 0 0 0 0 0 0 0 0 0 0 0 0 0 0 0 0 0 0 0 0 0 0 0 0 0 0 0 0 0 0 0 0 0 0 0 0 0 0 0 0 162 161 0 0 0 0 0 0 0 0 0 0 0 0 0 0 0 0 0 0 0 0 0 0 0 0 0 0 0 0 0 0 0 0 0 0 0 0 0 0 0 274 274 275 276 276 276 277 277 277 276 274 274 273 272 272 271 270 270 271 273 274 0 0 0 0 272 272 273 0 0 0 265 0 0 373 369 0 0 265 0 0 0 0 0 271 272 272 271 0 0 0 0 0
    0 0 0 0 0 0 0 0 0 0 0 0 0 0 0 0 0 0 0 0 0 0 0 0 0 0 0 0 0 0 0 0 0 0 0 0 0 0 0 0 0 0 0 0 0 0 0 0 0 0 0 0 0 0 0 0 0 0 0 0 0 0 0 0 0 0 0 0 0 0 0 0 0 0 0 0 0 0 0 0 0 0 0 0 0 0 0 0 0 0 0 0 0 0 0 0 0 0 0 0 0 0 0 0 0 0 0 0 0 0 0 0 0 0 0 0 0 0 0 0 0 0 0 0 0 0 0 0 0 0 0 0 0 0 0 0 0 0 0 0 0 0 0 0 0 0 0 0 0 0 0 0 0 0 0 0 0 0 0 0 0 0 0 0 0 0 0 0 0 0 0 0 0 0 0 0 0 0 0 0 0 0 0 0 0 0 0 0 0 0 0 0 0 0 0 0 0 0 549 0 0 0 0 0 0 0 0 0 0 0 0 0 0 0 0 0 0 0 0 0 0 0 0 0 0 0 162 161 0 0 0 0 0 0 0 0 0 0 0 0 0 0 0 0 0 0 0 0 0 0 0 0 0 0 0 0 0 0 0 0 0 0 0 0 0 0 0 0 273 274 274 275 275 274 274 274 273 271 271 270 269 269 270 269 269 270 271 272 273 0 0 0 272 273 273 0 0 0 265 0 0 373 371 0 0 263 264 0 0 0 0 269 270 270 269 0 0 0 0 0
    0 0 0 0 0 0 0 0 0 0 0 0 0 0 0 0 0 0 0 0 0 0 0 0 0 0 0 0 0 0 0 0 0 0 0 0 0 0 0 0 0 0 0 0 0 0 0 0 0 0 0 0 0 0 0 0 0 0 0 0 0 0 0 0 0 0 0 0 0 0 0 0 0 0 0 0 0 0 0 0 0 0 0 0 0 0 0 0 0 0 0 0 0 0 0 0 0 0 0 0 0 0 0 0 0 0 0 0 0 0 0 0 0 0 0 0 0 0 0 0 0 0 0 0 0 0 0 0 0 0 0 0 0 0 0 0 0 0 0 0 0 0 0 0 0 0 0 0 0 0 0 0 0 0 0 0 0 0 0 0 0 0 0 0 0 0 0 0 0 0 0 0 0 0 0 0 0 0 0 0 0 0 0 0 0 0 0 0 0 0 0 0 0 0 0 0 0 0 549 0 0 0 0 0 0 0 0 0 0 0 0 0 0 0 246 0 0 0 0 0 0 0 0 0 0 0 161 161 0 0 0 0 0 0 0 0 0 0 0 0 0 0 0 0 0 0 0 0 0 0 0 0 0 0 0 0 0 0 0 0 0 0 0 0 0 0 0 0 271 272 271 271 271 270 269 270 269 267 267 267 267 267 268 268 268 267 267 267 266 268 266 265 267 267 270 0 0 0 264 0 0 0 0 0 260 263 263 0 0 0 0 270 269 269 267 0 0 0 0 0
    0 0 0 0 0 0 0 0 0 0 0 0 0 0 0 0 0 0 0 0 0 0 0 0 0 0 0 0 0 0 0 0 0 0 0 0 0 0 0 0 0 0 0 0 0 0 0 0 0 0 0 0 0 0 0 0 0 0 0 0 0 0 0 0 0 0 0 0 0 0 0 0 0 0 0 0 0 0 0 0 0 0 0 0 0 0 0 0 0 0 0 0 0 0 0 0 0 0 0 0 0 0 0 0 0 0 0 0 0 0 0 0 0 0 0 0 0 0 0 0 0 0 0 0 0 0 0 0 0 0 0 0 0 0 0 0 0 0 0 0 0 0 0 0 0 0 0 0 0 0 0 0 0 0 0 0 0 0 0 0 0 0 0 0 0 0 0 0 0 0 0 0 0 0 0 0 0 0 0 0 0 0 0 0 0 0 0 0 0 0 0 0 0 0 0 0 0 0 0 0 0 0 0 0 0 0 0 0 0 0 0 0 246 246 246 246 0 246 0 0 0 0 0 0 0 0 0 0 0 0 0 0 0 0 0 0 0 0 0 0 0 0 0 0 0 0 0 0 0 0 0 0 0 0 0 0 0 0 0 0 0 0 0 0 0 0 0 0 267 267 266 265 263 263 263 263 263 263 264 265 264 265 266 266 266 266 265 265 262 263 262 260 262 261 263 0 0 0 261 262 0 0 0 0 260 263 263 263 0 0 269 269 268 267 266 0 0 0 0 0
    0 0 0 0 0 0 0 0 0 0 0 0 0 0 0 0 0 0 0 0 0 0 0 0 0 0 0 0 0 0 0 0 0 0 0 0 0 0 0 0 0 0 0 0 0 0 0 0 0 0 0 0 0 0 0 0 0 0 0 0 0 0 0 0 0 0 0 0 0 0 0 0 0 0 0 0 0 0 0 0 0 0 0 0 0 0 0 0 0 0 0 0 0 0 0 0 0 0 0 0 0 0 0 0 0 0 0 0 0 0 0 0 0 0 0 0 0 0 0 0 0 0 0 0 0 0 0 0 0 0 0 0 0 0 0 0 0 0 0 0 0 0 0 0 0 0 0 0 0 0 0 0 0 0 0 0 0 0 0 0 0 0 0 0 0 0 0 0 0 0 0 0 0 0 0 0 0 0 0 0 0 0 0 0 0 0 0 0 0 0 0 0 0 0 0 0 367 342 348 0 0 0 0 0 0 0 0 0 0 0 0 0 247 246 246 246 247 247 246 0 0 0 0 0 0 0 0 0 0 0 139 0 0 0 0 0 0 0 0 0 0 0 0 0 86 0 0 0 0 0 0 0 0 0 0 0 0 0 0 0 0 0 0 0 0 0 0 0 264 264 263 261 260 260 260 260 261 261 261 262 262 263 265 265 265 265 264 264 261 261 260 259 259 259 260 260 0 0 260 261 0 0 0 0 260 263 262 262 261 262 264 0 0 264 263 0 0 0 0 0
    0 0 0 0 0 0 0 0 0 0 0 0 0 0 0 0 0 0 0 0 0 0 0 0 0 0 0 0 0 0 0 0 0 0 0 0 0 0 0 0 0 0 0 0 0 0 0 0 0 0 0 0 0 0 0 0 0 0 0 0 0 0 0 0 0 0 0 0 0 0 0 0 0 0 0 0 0 0 0 0 0 0 0 0 0 0 0 0 0 0 0 0 0 0 0 0 0 0 0 0 0 0 0 0 0 0 0 0 0 0 0 0 0 0 0 0 0 0 0 0 0 0 0 0 0 0 0 0 0 0 0 0 0 0 0 0 0 0 0 0 0 0 0 0 0 0 0 0 0 0 0 0 0 0 0 0 0 0 0 0 0 0 0 0 0 0 0 0 0 0 0 0 0 0 0 0 0 0 0 0 0 0 0 0 0 0 0 0 0 0 0 0 0 0 0 0 367 345 348 0 0 0 0 0 0 0 0 0 0 0 0 0 245 245 245 245 246 246 246 246 245 0 0 0 0 0 0 0 0 0 0 0 0 0 0 0 0 0 0 0 0 0 0 0 86 0 0 0 0 0 0 0 0 0 0 0 0 0 0 0 0 0 0 0 0 0 0 0 0 262 260 259 257 257 257 259 260 260 260 261 261 262 264 265 265 265 264 264 262 261 260 259 258 258 258 259 258 0 259 260 0 0 0 0 260 0 260 260 260 259 260 0 0 0 0 0 0 0 0 0
    0 0 0 0 0 0 0 0 0 0 0 0 0 0 0 0 0 0 0 0 0 0 0 0 0 0 0 0 0 0 0 0 0 0 0 0 0 0 0 0 0 0 0 0 0 0 0 0 0 0 0 0 0 0 0 0 0 0 0 0 0 0 0 0 0 0 0 0 0 0 0 0 0 0 0 0 0 0 0 0 0 0 0 0 0 0 0 0 0 0 0 0 0 0 0 0 0 0 0 0 0 0 0 0 0 0 0 0 0 0 0 0 0 0 0 0 0 0 0 0 0 0 0 0 0 0 0 0 0 0 0 0 0 0 0 0 0 0 0 0 0 0 0 0 0 0 0 0 0 0 0 0 0 0 0 0 0 0 0 0 0 0 0 0 0 0 0 0 0 0 0 0 0 0 0 0 0 0 0 0 0 0 0 0 0 0 0 0 0 0 0 0 0 0 0 0 0 0 0 0 0 0 0 0 0 0 0 0 0 0 0 241 243 243 243 243 245 245 245 246 244 0 0 0 0 0 0 0 0 0 0 0 0 0 0 0 0 0 0 86 0 86 0 0 0 0 0 0 0 0 0 0 0 0 0 0 0 0 0 0 0 0 0 387 391 0 0 0 0 0 0 257 253 254 254 257 258 258 259 260 260 261 263 264 264 264 263 262 261 260 260 258 257 257 256 257 256 256 255 258 0 0 0 0 259 260 260 260 259 258 258 0 0 0 259 0 0 0 0 0
    0 0 0 0 0 0 0 0 0 0 0 0 0 0 0 0 0 0 0 0 0 0 0 0 0 0 0 0 0 0 0 0 0 0 0 0 0 0 0 0 0 0 0 0 0 0 0 0 0 0 0 0 0 0 0 0 0 0 0 0 0 0 0 0 0 0 0 0 0 0 0 0 0 0 0 0 0 0 0 0 0 0 0 0 0 0 0 0 0 0 0 0 0 0 0 0 0 0 0 0 0 0 0 0 0 0 0 0 0 0 0 0 0 0 0 0 0 0 0 0 0 0 0 0 0 0 0 0 0 0 0 0 0 0 0 0 0 0 0 0 0 0 0 0 0 0 0 0 0 0 0 0 0 0 0 0 0 0 0 0 0 0 0 0 0 0 0 0 0 0 0 0 0 0 0 0 0 0 0 0 0 0 0 0 0 0 0 0 0 0 0 0 0 0 0 0 0 0 0 0 0 0 0 0 0 0 0 0 0 0 239 240 242 243 243 243 244 245 245 245 244 246 0 0 0 0 0 0 0 0 0 0 0 0 0 0 0 0 0 0 0 0 0 0 0 0 0 0 0 0 0 0 0 0 0 0 0 0 0 0 0 0 0 0 0 0 0 0 0 260 0 256 253 253 254 256 257 257 257 259 260 260 262 263 262 263 262 261 260 260 258 256 254 255 254 253 253 252 251 252 0 0 0 0 257 257 259 259 258 257 257 257 254 256 257 0 0 0 0 0
    0 0 0 0 0 0 0 0 0 0 0 0 0 0 0 0 0 0 0 0 0 0 0 0 0 0 0 0 0 0 0 0 0 0 0 0 0 0 0 0 0 0 0 0 0 0 0 0 0 0 0 0 0 0 0 0 0 0 0 0 0 0 0 0 0 0 0 0 0 0 0 0 0 0 0 0 0 0 0 0 0 0 0 0 0 0 0 0 0 0 0 0 0 0 0 0 0 0 0 0 0 0 0 0 0 0 0 0 0 0 0 0 0 0 0 0 0 0 0 0 0 0 0 0 0 0 0 0 0 0 0 0 0 0 0 0 0 0 0 0 0 0 0 0 0 0 0 0 0 0 0 0 0 0 0 0 0 0 0 0 0 0 0 0 0 0 0 0 0 0 0 0 0 0 0 0 0 0 0 0 0 0 0 0 0 0 0 0 0 0 0 0 0 0 0 274 264 0 0 0 0 0 0 0 0 0 238 238 0 237 237 238 239 240 241 241 242 243 243 244 243 244 0 0 0 0 0 0 0 0 0 0 0 0 0 0 0 0 0 0 0 0 0 0 0 0 0 0 0 0 0 0 0 0 0 0 0 0 0 0 0 0 0 0 0 0 0 0 0 258 254 253 252 252 252 253 255 255 255 256 258 259 260 261 261 261 261 260 259 258 257 254 252 252 252 251 250 249 247 247 247 0 0 0 252 251 254 257 257 256 256 255 253 253 255 0 0 0 0 0</data></depth>
</opencv_storage>
