<?xml version="1.0"?>
<opencv_storage>
<gps_time_stamp>23492</gps_time_stamp>
<gps_x>-3.7989895343780518e+000</gps_x>
<gps_y>3.3331218361854553e-001</gps_y>
<gps_z>-6.0356235504150391e-001</gps_z>
<image_time_stamp>11464</image_time_stamp>
<depth type_id="opencv-matrix">
  <rows>86</rows>
  <cols>320</cols>
  <dt>s</dt>
  <data>
    0 0 0 0 0 0 0 0 0 0 0 0 0 0 0 0 0 0 0 0 0 0 0 0 0 0 0 0 0 0 0 0 0 0 0 0 0 0 0 0 0 0 0 0 0 0 0 0 0 0 0 0 0 0 0 0 0 0 0 0 0 0 0 0 0 0 0 0 0 1388 1362 1388 1388 1388 1471 1415 1388 1415 1443 1388 1443 1415 1388 1362 1338 1362 1338 1362 1362 1362 1362 1362 1388 1415 1362 1362 1338 1338 1338 1362 1362 1362 1388 1388 1388 1388 1415 1388 1362 1388 1388 1362 1362 1362 1388 1362 1362 1388 1362 1388 1388 1338 1314 1291 1291 1291 1314 1291 1314 1314 1314 1338 1338 1338 1314 1338 1362 1338 1338 1388 1388 1362 1388 1388 1388 1388 1415 1388 0 0 1338 1338 1338 1362 1362 1362 1362 1362 1415 1338 1338 1338 1338 1314 1314 1291 1268 0 0 0 0 0 0 0 694 687 669 663 657 645 663 629 634 645 645 645 634 639 639 639 657 651 645 651 651 687 0 0 0 1187 1247 1226 1226 1206 1168 1168 1149 1098 0 0 743 714 714 700 694 681 675 675 675 681 687 681 687 0 0 0 1051 1051 1051 1066 1268 1247 1268 1291 1187 1187 1168 1051 919 968 955 0 981 968 981 968 968 1149 1149 1338 1291 1115 0 0 0 0 0 0 206 207 206 0 0 865 0 943 0 994 981 981 981 981 981 994 955 968 994 1082 1098 0 0 663 657 651 634 618 613 613 608 608 593 603 603 603 603 603 0 0 598 603 588 1206 1187 1187 1187 1206 1187 1187 1187 1168 1168 1187 1168 1187 1132 0 0 0 0 0
    0 0 0 0 0 0 0 0 0 0 0 0 0 0 0 0 0 0 0 0 0 0 0 0 0 0 0 0 0 0 0 0 0 0 0 0 0 0 0 0 0 0 0 0 0 0 0 0 0 0 0 0 0 0 0 0 0 0 0 0 0 0 0 0 0 0 0 0 0 1362 1338 1338 1362 1338 1388 1362 1362 1362 1388 1338 1388 1362 1338 1338 1314 1338 1338 1338 1362 1338 1338 1362 1362 1388 1338 1362 1338 1338 1362 1362 1362 1362 1388 1388 1415 1388 1415 1362 1362 1362 1362 1362 1362 1362 1362 1362 1362 1388 1362 1362 1362 1314 1291 1291 1291 1314 1314 1291 1291 1291 1291 1314 1291 1291 1268 1291 1314 1314 1314 1338 1362 1338 1362 1362 1338 1362 1362 1338 0 1291 1314 1314 1314 1338 1338 1338 1362 1362 1388 1338 1338 1338 1338 1314 1314 1291 1268 0 0 0 0 0 0 0 0 694 669 663 657 645 657 629 634 645 645 651 634 639 645 639 657 651 645 651 657 694 0 0 1247 1168 1247 1226 1226 1206 1168 1168 1168 1115 1149 0 0 0 707 694 687 681 675 669 669 681 681 681 681 0 0 0 1051 1051 1051 1066 1247 1226 1247 1268 1168 1149 1115 1036 931 968 968 0 981 968 981 968 968 1132 1149 1314 1291 1149 0 0 0 0 0 0 206 207 207 0 0 876 0 955 0 994 981 981 981 981 994 994 981 1008 1036 1132 1132 1082 0 0 0 634 629 613 593 603 0 608 588 0 0 0 0 0 0 0 0 608 593 1187 1168 1187 1149 1187 1168 1168 1168 1149 1168 1187 1168 1187 1132 0 0 0 0 0
    0 0 0 0 0 0 0 0 0 0 0 0 0 0 0 0 0 0 0 0 0 0 0 0 0 0 0 0 0 0 0 0 0 0 0 0 0 0 0 0 0 0 0 0 0 0 0 0 0 0 0 0 0 0 0 0 0 0 0 0 0 0 0 0 0 0 0 0 0 1314 1314 1314 1314 1338 1362 1338 1338 1338 1362 1314 1362 1338 1338 1338 1314 1338 1314 1338 1338 1314 1314 1338 1338 1362 1338 1338 1338 1338 1362 1362 1388 1362 1388 1388 1388 1362 1388 1338 1338 1362 1362 1362 1362 1362 1362 1338 1362 1362 1338 1338 1314 1268 1247 1268 1268 1291 1268 1268 1268 1268 1268 1268 1247 1247 1226 1247 1268 1268 1291 1314 1314 1314 1314 1338 1314 1314 1338 1291 1268 1268 1268 1291 1291 1291 1314 1314 1338 1338 1388 1338 1338 1338 1338 1314 1314 1291 1268 0 0 261 261 0 0 0 0 700 675 663 657 645 657 623 634 645 651 651 634 639 645 645 663 651 645 651 657 0 0 1022 1187 1132 1226 1226 1206 1206 1168 1168 1168 1149 1149 0 0 0 0 694 687 681 675 669 663 675 681 681 681 0 0 0 1051 1066 1066 1082 1247 1226 1226 1247 1132 1098 1082 1036 943 981 968 0 981 981 981 981 981 1115 1149 1314 1291 1132 0 0 0 0 0 0 207 207 207 0 0 865 943 943 1008 981 981 981 981 981 994 1008 994 1022 1066 1132 1149 1115 1132 1132 1051 0 0 0 0 593 0 608 0 0 0 0 0 0 0 0 0 0 593 1149 1132 1168 1132 1168 1149 1149 1149 1149 1168 1187 1168 1187 1132 0 0 0 0 0
    0 0 0 0 0 0 0 0 0 0 0 0 0 0 0 0 0 0 0 0 0 0 0 0 0 0 0 0 0 0 0 0 0 0 0 0 0 0 0 0 0 0 0 0 0 0 0 0 0 0 0 0 0 0 0 0 0 0 0 0 0 0 0 0 0 0 0 0 0 1291 1291 1291 1291 1314 1314 1314 1314 1314 1338 1314 1314 1314 1314 1314 1291 1314 1314 1314 1338 1314 1314 1314 1314 1338 1314 1338 1338 1338 1362 1362 1362 1362 1362 1362 1362 1338 1362 1338 1314 1338 1338 1338 1362 1338 1362 1338 1338 1362 1338 1338 1314 1268 1247 1268 1268 1291 1268 1268 1247 1247 1247 1268 1226 1206 1168 1226 1247 1247 1268 1291 1291 1291 1291 1314 1291 1291 1291 1268 1247 1247 1226 1268 1268 1268 1291 1291 1314 1314 1362 1338 1338 1314 1338 1314 1268 1291 1268 0 0 0 0 259 260 0 0 707 675 663 657 645 663 623 639 645 651 651 634 634 639 639 657 639 639 645 0 0 1022 1022 1149 1115 1226 1226 1206 1226 1168 1187 1187 1168 1149 1066 0 195 192 687 694 687 675 669 663 675 681 681 675 0 0 0 1051 1066 1066 1082 1226 1206 1206 1226 1115 1082 1066 1036 968 981 981 0 0 981 994 994 994 1098 1115 1314 1291 1115 1008 897 0 0 207 207 207 207 207 207 0 855 943 943 994 981 968 968 981 968 981 994 1008 1022 1082 1132 1149 1132 1149 1115 1066 0 0 0 0 579 0 0 0 0 0 0 0 0 0 0 0 0 0 1132 1115 1168 1132 1168 1168 1149 1149 1132 1149 1168 1149 1168 1115 0 0 0 0 0
    0 0 0 0 0 0 0 0 0 0 0 0 0 0 0 0 0 0 0 0 0 0 0 0 0 0 0 0 0 0 0 0 0 0 0 0 0 0 0 0 0 0 0 0 0 0 0 0 0 0 0 0 0 0 0 0 0 0 0 0 0 0 0 0 0 0 0 0 0 1291 1268 1268 1291 1291 1291 1291 1314 1291 1314 1291 1314 1291 1291 1314 1291 1291 1314 1314 1314 1291 1291 1291 1314 1338 1314 1314 1314 1338 1362 1362 1362 1338 1362 1338 1338 1338 1338 1314 1291 1314 1314 1314 1338 1314 1338 1314 1291 1338 1314 1314 1291 1247 1247 1247 1268 1268 1268 1247 1247 1247 1247 1247 1226 1206 1149 1206 1226 1226 1247 1268 1268 1268 1268 1291 1268 1268 1268 1247 1247 1226 1206 1247 1247 1268 1268 1291 1314 1314 1338 1338 1338 1314 1338 1314 1268 1268 1268 1247 0 0 0 257 256 0 0 707 681 669 663 651 669 629 639 645 651 651 634 634 639 639 657 639 634 0 0 681 1036 1036 1098 1115 1226 1247 1206 1226 1168 1187 1187 1187 1149 1082 1066 193 191 687 687 687 681 669 669 675 681 681 681 687 0 0 1051 1051 1051 1082 1226 1187 1206 1226 1115 1066 1066 1036 994 0 0 0 0 994 1008 1008 1008 1082 1115 1268 1247 1098 0 897 0 0 207 207 207 207 207 207 0 845 943 943 994 981 968 968 981 968 994 994 1008 1022 1082 1115 1132 1115 1132 1115 1066 1022 0 0 0 584 0 0 0 0 0 0 598 0 0 0 0 0 584 1098 1098 1149 1115 1168 1168 1132 1149 1132 1168 1168 1149 1168 1115 0 0 0 0 0
    0 0 0 0 0 0 0 0 0 0 0 0 0 0 0 0 0 0 0 0 0 0 0 0 0 0 0 0 0 0 0 0 0 0 0 0 0 0 0 0 0 0 0 0 0 0 0 0 0 0 0 0 0 0 0 0 0 0 0 0 0 0 0 0 0 0 0 0 0 1268 1247 1247 1268 1268 1268 1291 1291 1291 1291 1268 1291 1291 1291 1291 1268 1291 1314 1314 1338 1291 1314 1291 1314 1314 1314 1314 1314 1314 1338 1338 1362 1314 1314 1314 1291 1291 1291 1291 1268 1291 1291 1314 1314 1314 1314 1291 1268 1314 1291 1268 1247 1226 1226 1247 1247 1268 1247 1247 1247 1247 1226 1247 1206 1187 1132 1206 1226 1226 1226 1247 1226 1247 1247 1268 1247 1226 1247 1247 1226 1206 1206 1247 1247 1247 1268 1291 1291 1291 1314 1338 1338 1314 1314 1291 1247 1268 1268 1247 1247 0 0 0 0 0 0 714 687 675 669 657 675 629 639 651 657 651 634 629 639 639 657 645 629 0 0 0 1036 1036 1098 1132 1226 1226 1187 1226 1187 1187 1187 1187 1168 1082 1066 192 190 681 687 681 681 669 669 675 681 681 675 687 0 0 1036 1036 1051 1082 1206 1168 1187 1187 1115 1082 1066 1036 1022 0 0 0 0 0 1022 1022 1051 1082 1115 1291 1247 1115 0 943 836 0 208 208 207 207 207 207 0 836 943 943 994 981 968 968 981 968 994 994 1008 1022 1082 1115 1115 1098 1115 1082 1051 1008 0 0 0 584 0 613 0 0 603 598 598 598 80 588 574 598 566 0 1066 1115 1098 1149 1132 1098 1132 1115 1149 1149 1149 1132 1115 0 0 0 0 0
    0 0 0 0 0 0 0 0 0 0 0 0 0 0 0 0 0 0 0 0 0 0 0 0 0 0 0 0 0 0 0 0 0 0 0 0 0 0 0 0 0 0 0 0 0 0 0 0 0 0 0 0 0 0 0 0 0 0 0 0 0 0 0 0 0 0 0 0 0 1247 1226 1226 1247 1247 1247 1268 1291 1268 1291 1268 1291 1291 1268 1291 1268 1268 1291 1291 1314 1291 1291 1291 1314 1314 1314 1314 1314 1314 1338 1338 1338 1291 1291 1291 1268 1268 1268 1268 1268 1291 1291 1291 1291 1291 1291 1268 1268 1268 1247 1206 1226 1226 1226 1226 1247 1268 1247 1247 1247 1247 1226 1247 1206 1187 1115 1187 1206 1206 1187 1206 1187 1206 1206 1226 1206 1168 1206 1206 1187 1187 1168 1226 1226 1226 1247 1268 1268 1268 1291 1291 1291 1291 1291 1268 1226 1247 1247 1247 1247 1226 0 0 0 0 0 728 694 675 669 663 675 634 645 657 663 657 639 629 639 639 657 645 629 0 0 0 1066 1051 1115 1149 1206 1226 1187 1206 1168 1187 1187 1187 1149 1082 1051 191 0 681 687 681 681 669 663 675 681 681 675 681 707 721 0 1022 1036 1066 1168 1132 1149 1168 1098 1082 1082 1051 1051 0 0 1036 1022 1022 1036 1036 1082 1082 1132 1291 1247 1115 0 994 836 0 209 208 207 0 0 0 0 826 955 955 994 968 968 968 981 968 994 994 1008 1022 1082 1098 1098 1082 1082 1066 1036 981 0 0 0 584 618 618 0 0 598 598 598 598 80 584 570 598 561 0 1066 1082 1066 1098 1082 1051 1082 1082 1149 1132 1132 1115 1115 0 0 0 0 0
    0 0 0 0 0 0 0 0 0 0 0 0 0 0 0 0 0 0 0 0 0 0 0 0 0 0 0 0 0 0 0 0 0 0 0 0 0 0 0 0 0 0 0 0 0 0 0 0 0 0 0 0 0 0 0 0 0 0 0 0 0 0 0 0 0 0 0 0 0 1226 1206 1206 1226 1247 1226 1247 1268 1268 1291 1268 1291 1268 1268 1268 1247 1247 1268 1247 1268 1247 1268 1268 1291 1314 1314 1314 1314 1338 1338 1314 1291 1268 1268 1247 1247 1247 1247 1268 1268 1291 1291 1291 1291 1291 1291 1268 1226 1247 1187 1149 1187 1206 1206 1226 1247 1268 1247 1247 1247 1247 1226 1226 1206 1168 1115 1187 1187 1187 1168 1187 1168 1168 1168 1206 1168 1115 1149 1168 1149 1132 1132 1206 1206 1206 1226 1247 1247 1226 1268 1268 1268 1268 1247 1247 1206 1206 1247 1247 1226 1226 1226 0 1149 1082 0 0 694 675 669 669 675 639 645 657 663 663 639 629 639 639 651 651 623 0 0 0 1082 1082 1132 1149 1187 1206 1168 1206 1168 1187 1187 1187 1168 1082 1051 0 0 675 0 681 681 675 663 675 681 681 681 681 700 714 0 968 1008 1051 1115 1115 1115 1115 1082 1082 1082 1051 1066 1051 1051 1051 1036 1036 1051 1051 1132 1066 1115 1268 1226 1098 0 981 845 0 0 0 0 0 0 0 826 826 968 968 981 968 968 968 968 968 981 994 1008 1036 1066 1082 1098 1066 1082 1051 1036 968 0 0 0 574 618 618 0 0 598 593 598 598 80 584 570 598 561 0 1066 1066 1051 1066 1051 1036 1066 1082 1132 1115 1115 1082 1115 0 0 0 0 0
    0 0 0 0 0 0 0 0 0 0 0 0 0 0 0 0 0 0 0 0 0 0 0 0 0 0 0 0 0 0 0 0 0 0 0 0 0 0 0 0 0 0 0 0 0 0 0 0 0 0 0 0 0 0 0 0 0 0 0 0 0 0 0 0 0 0 0 0 0 1226 1206 1187 1206 1226 1206 1247 1268 1268 1268 1268 1291 1268 1247 1247 1226 1206 1226 1206 1226 1226 1247 1247 1268 1291 1314 1314 1338 1338 1314 1291 1291 1226 1226 1226 1206 1226 1226 1247 1247 1268 1291 1291 1291 1291 1291 1247 1226 1206 1168 1132 1168 1187 1206 1206 1247 1268 1247 1247 1247 1226 1206 1206 1206 1168 1115 1187 1187 1168 1149 1168 1132 1149 1149 1168 1132 1098 1132 1149 1132 1098 1115 1168 1168 1168 1187 1206 1206 1206 1247 1247 1226 1226 1226 1226 1187 1187 1226 1226 1226 1206 1206 1206 0 0 0 0 700 675 675 675 675 651 639 657 669 669 639 629 639 639 651 657 623 0 0 0 1082 1098 1149 1168 1187 1206 1168 1206 1168 1187 1187 1187 1168 1098 1051 0 0 669 0 681 675 669 669 675 681 687 681 687 714 728 774 855 908 1036 1066 1098 1098 1082 1082 1082 1066 1051 1082 1066 1051 1051 1051 1051 1066 1066 1168 1051 1098 1247 1187 1066 968 943 845 735 0 0 0 0 0 0 817 817 968 981 981 968 968 968 981 981 994 1008 1036 1051 1066 1082 1082 1066 1066 1051 1036 968 919 0 0 0 0 613 0 598 598 593 593 593 80 584 570 598 566 0 1066 1082 1066 1066 1051 1051 1051 1066 1098 1082 1082 1051 1115 0 0 0 0 0
    0 0 0 0 0 0 0 0 0 0 0 0 0 0 0 0 0 0 0 0 0 0 0 0 0 0 0 0 0 0 0 0 0 0 0 0 0 0 0 0 0 0 0 0 0 0 0 0 0 0 0 0 0 0 0 0 0 0 0 0 0 0 0 0 0 0 0 0 0 1187 1168 1168 1187 1206 1187 1247 1268 0 1268 1268 1268 1247 1226 1226 1187 1149 1187 1168 1187 1187 1226 1226 1268 1268 1314 1314 1338 1338 1314 1268 1268 1187 1187 1187 1168 1168 1168 1206 1206 1226 1291 1291 1268 1291 1291 1247 1206 1187 1168 1132 1149 1168 1187 1168 1206 1226 1206 1206 1206 1206 1168 1168 1187 1132 1115 1168 1168 1168 1149 1168 1132 1132 1149 1168 1115 1082 1098 1132 1098 1082 1082 1132 1132 1132 1149 1168 1168 1168 1226 1206 1206 1187 1168 1206 1168 1168 1206 1206 1206 1187 1187 1187 0 0 0 0 707 681 687 687 681 663 645 663 669 669 645 629 645 645 651 663 629 0 0 645 1066 1066 1132 1168 1168 1187 1132 1168 1132 1149 1149 1149 1132 1082 0 0 0 663 0 687 681 675 675 681 687 694 687 687 707 721 735 817 826 1008 1036 1036 1051 1036 1051 1051 1051 1036 1082 1066 1066 1066 1066 1082 1082 1082 1187 1051 1082 1206 1132 1036 931 919 845 0 791 782 0 799 799 0 817 817 955 968 981 968 955 968 968 968 981 994 1022 1036 1066 1066 1066 1051 1066 1036 1022 955 919 0 0 0 613 613 584 593 593 588 593 593 80 584 570 598 570 0 1082 1082 1082 1066 1066 1051 1051 1036 1066 1051 1051 1036 1082 0 0 0 0 0
    0 0 0 0 0 0 0 0 0 0 0 0 0 0 0 0 0 0 0 0 0 0 0 0 0 0 0 0 0 0 0 0 0 0 0 0 0 0 0 0 0 0 0 0 0 0 0 0 0 0 0 0 0 0 0 0 0 0 0 0 0 0 0 0 0 0 0 0 0 1132 1098 1098 1115 1149 1149 1206 0 0 0 0 0 0 1149 1168 1115 1082 1132 1098 1132 1132 1187 1206 1247 1247 1291 1291 0 0 1291 1247 1226 1115 1132 1132 1115 1115 1115 1132 1149 1149 1226 1206 1206 1226 1226 0 0 0 1149 1098 1132 1149 1168 1149 1187 1206 1187 1187 1187 1168 1115 1132 1168 1115 1115 1168 1168 1168 1149 1168 1132 1132 1149 1149 1098 1066 1082 1098 1082 1051 1082 1098 1098 1115 1115 1132 1115 1149 1206 1187 1187 1168 1149 1187 1168 1132 1168 1168 1168 1168 1168 1168 0 0 0 0 721 687 694 694 687 681 645 669 675 675 645 629 645 645 651 669 629 0 629 645 1051 1051 1115 1149 1132 1149 1115 1132 1115 1115 1132 1115 1115 1066 0 0 639 669 0 687 681 681 675 681 687 694 687 694 700 714 707 750 782 1022 1008 981 994 968 1008 1022 1022 1008 1066 1066 1051 1051 1066 1082 1082 1082 1187 1036 1051 1168 1082 994 886 897 845 0 791 782 0 808 808 817 817 817 931 955 968 955 955 968 968 955 955 968 994 1008 1036 1036 1051 1036 1036 1036 1022 943 876 0 0 0 0 613 584 593 593 588 593 593 0 584 574 603 574 0 1066 1066 1066 1051 1066 1036 1036 1022 1051 1036 1022 1008 1036 0 0 0 0 0
    0 0 0 0 0 0 0 0 0 0 0 0 0 0 0 0 0 0 0 0 0 0 0 0 0 0 0 0 0 0 0 0 0 0 0 0 0 0 0 0 0 0 0 0 0 0 0 0 0 0 0 0 0 0 0 0 0 0 0 0 0 0 0 0 0 0 0 0 0 1082 1051 1066 1051 1066 1066 1115 0 0 0 0 0 0 1022 0 1036 1036 0 1066 1098 1098 1149 1149 1206 1187 0 1247 0 0 0 1187 1187 1082 1082 1098 1082 1082 1066 1082 1082 1066 1082 1066 0 0 0 0 0 0 0 1066 1098 1149 1149 1132 1149 1168 1132 1132 1149 1132 1066 1098 1132 1115 1115 1168 1168 1168 1149 1168 1132 1132 1149 1132 1066 1036 1051 1066 1051 1036 1066 1066 1066 1082 1082 1098 1082 1115 1168 1132 1132 1115 1098 1149 1132 1098 1132 1132 1132 1115 1115 0 0 0 0 0 728 700 700 700 694 694 651 675 675 675 651 634 645 645 645 669 629 623 629 645 0 1051 1098 1149 1115 1115 1098 1115 1098 1082 1098 0 1082 0 0 651 651 675 0 681 681 681 687 687 694 707 700 700 714 721 735 766 808 1022 968 931 931 897 931 981 994 981 1051 1066 1051 1051 1066 1066 1066 1066 1149 1008 1022 1082 0 782 817 845 826 0 782 791 808 817 817 817 826 826 908 943 955 943 943 955 955 955 943 955 968 994 1022 1008 1036 1022 1022 1008 1008 919 0 0 0 0 603 608 579 593 593 588 588 588 598 584 574 603 579 0 1036 1051 1036 1036 1036 1022 1008 1008 1036 1036 1036 1022 1022 0 0 0 0 0
    0 0 0 0 0 0 0 0 0 0 0 0 0 0 0 0 0 0 0 0 0 0 0 0 0 0 0 0 0 0 0 0 0 0 0 0 0 0 0 0 0 0 0 0 0 0 0 0 0 0 0 0 0 0 0 0 0 0 0 0 0 0 0 0 0 0 0 0 0 1051 1022 1036 1022 1022 1022 1036 0 0 0 0 0 0 865 0 0 0 0 0 0 1066 1115 1098 1149 0 0 0 0 0 0 1082 1132 1051 1066 1066 1066 1051 1036 1036 1036 1022 994 0 0 0 0 0 0 0 0 1008 1051 1115 1098 1098 1098 0 0 0 1082 1051 1008 1051 1098 1098 1098 1168 1168 1149 1132 1149 1115 1098 1115 1098 1036 1022 0 0 1022 994 1036 1036 1036 1051 1051 1066 1066 1066 1115 1066 1082 1066 1066 1082 1082 1066 1098 1082 1082 1066 0 0 0 0 0 0 728 707 707 707 694 700 651 675 675 681 657 634 645 645 645 675 629 623 629 651 681 0 0 1168 1115 1098 1082 1098 1082 1051 1051 0 0 0 0 669 657 675 0 675 681 681 687 687 694 707 707 707 728 735 750 774 817 981 908 876 865 855 876 919 955 943 1036 1051 1051 1051 1066 1066 1066 1066 1098 981 865 0 782 758 791 817 808 0 782 782 808 817 817 826 826 826 897 943 955 931 943 955 943 955 919 931 955 981 1008 968 1022 981 981 981 981 886 799 0 0 0 598 603 574 588 588 584 588 588 593 584 579 603 588 0 1008 1022 1022 1022 1022 1022 994 1008 1036 1036 1036 1022 1008 0 0 0 0 0
    0 0 0 0 0 0 0 0 0 0 0 0 0 0 0 0 0 0 0 0 0 0 0 0 0 0 0 0 0 0 0 0 0 0 0 0 0 0 0 0 0 0 0 0 0 0 0 0 0 0 0 0 0 0 0 0 0 0 0 0 0 0 0 0 0 0 0 0 0 1022 994 1008 994 981 994 981 1008 908 0 836 826 817 826 817 0 0 0 0 0 0 1082 0 0 0 0 0 0 0 0 1008 1066 1036 1036 1036 1036 1022 994 994 981 955 908 0 826 0 0 0 0 214 0 0 0 1066 1008 1036 1036 0 0 0 0 968 931 0 0 1051 1082 1132 1132 1115 1115 1132 1098 1066 1098 1051 994 981 931 0 943 919 994 981 1008 1022 1022 1036 1036 1036 1066 1036 1051 1022 1036 1051 1036 1022 1051 1036 1036 0 0 0 0 0 0 808 721 714 707 700 694 694 651 675 675 681 657 634 645 645 645 675 0 629 634 669 707 0 0 1149 1115 1066 1066 1051 1051 994 981 0 0 876 799 694 675 681 0 675 675 681 681 687 687 707 700 707 721 735 735 766 808 955 886 865 865 855 865 876 897 886 1022 1036 1036 1036 1051 1051 1051 1036 1051 943 826 808 782 766 791 808 799 766 791 791 817 817 817 826 826 836 886 931 955 919 919 931 908 876 865 865 897 943 855 826 886 855 931 931 943 855 774 0 0 0 588 593 570 584 584 579 584 584 593 584 579 608 598 0 968 943 981 994 1022 1022 994 1008 1051 1051 1051 1036 1022 0 0 0 0 0
    0 0 0 0 0 0 0 0 0 0 0 0 0 0 0 0 0 0 0 0 0 0 0 0 0 0 0 0 0 0 0 0 0 0 0 0 0 0 0 0 0 0 0 0 0 0 0 0 0 0 0 0 0 0 0 0 0 0 0 0 0 0 0 0 0 0 0 0 0 943 943 968 955 919 955 931 931 855 826 826 826 808 826 808 817 817 0 0 92 0 0 0 0 0 0 0 0 0 0 865 968 981 968 1008 1008 968 931 931 919 897 865 0 826 0 0 0 0 0 0 0 0 943 876 0 0 0 0 0 0 865 855 826 0 994 1066 1098 1098 1098 1098 1115 1082 1051 1066 1008 955 931 876 876 876 865 919 919 943 968 968 1008 1008 0 1022 981 1008 955 981 1008 0 968 1022 994 0 0 0 0 0 91 0 799 721 714 707 700 694 687 645 669 669 681 651 639 645 645 645 675 0 0 651 687 735 750 0 0 1066 1036 1036 1022 1008 955 943 0 865 845 782 700 687 687 675 681 681 687 687 687 694 707 707 707 728 735 735 758 808 876 855 845 845 836 845 836 845 845 919 1022 1008 1008 1036 0 1022 1022 0 897 817 791 766 758 774 799 791 766 782 782 817 817 817 826 836 845 886 931 955 908 908 897 876 826 826 826 845 845 817 808 817 817 855 876 865 826 735 0 0 553 588 593 566 584 584 579 584 584 593 584 584 608 603 0 886 855 897 994 0 1022 994 1022 1036 1051 1036 1022 1008 0 0 0 0 0
    0 0 0 0 0 0 0 0 0 0 0 0 0 0 0 0 0 0 0 0 0 0 0 0 0 0 0 0 0 0 0 0 0 0 0 0 0 0 0 0 0 0 0 0 0 0 0 0 0 0 0 0 0 0 0 0 0 0 0 0 0 0 0 0 0 0 0 0 0 865 876 897 886 865 886 876 865 836 817 826 826 799 817 808 808 817 817 0 0 0 0 0 0 0 0 0 0 826 826 836 865 908 897 955 968 931 886 886 886 876 855 855 826 836 0 0 0 0 0 0 0 845 836 0 826 817 0 817 826 836 836 826 855 865 1036 1051 1036 1066 1051 1066 1051 1008 1022 943 876 876 845 836 855 845 876 876 886 897 886 0 931 0 955 886 0 855 845 897 0 876 886 897 908 0 0 0 0 0 0 791 721 714 707 707 694 687 645 669 669 681 651 639 645 645 651 675 0 0 669 700 743 750 750 0 1036 994 1022 994 981 919 908 897 845 826 750 700 687 687 675 687 681 687 687 687 694 707 707 714 728 735 735 758 799 836 826 826 826 826 826 817 826 826 836 943 943 943 0 0 994 981 955 845 808 774 750 750 766 791 774 758 774 782 817 817 826 826 836 845 876 919 955 897 886 876 855 817 817 808 826 817 808 799 808 799 817 826 817 799 728 663 0 557 588 588 566 584 584 579 584 584 598 588 584 608 603 0 865 855 855 0 0 1051 0 1036 1051 1066 1036 1022 994 0 0 0 0 0
    0 0 0 0 0 0 0 0 0 0 0 0 0 0 0 0 0 0 0 0 0 0 0 0 0 0 0 0 0 0 0 0 0 0 0 0 0 0 0 0 0 0 0 0 0 0 0 0 0 0 0 0 0 0 0 0 0 0 0 0 0 0 0 0 0 0 0 0 0 836 845 855 845 836 855 845 845 826 817 817 826 799 817 808 808 808 817 826 817 817 865 0 0 0 0 826 0 817 826 826 845 865 865 908 908 886 865 865 865 855 845 845 826 826 0 0 0 0 0 0 0 826 826 817 817 808 817 817 817 826 826 817 836 826 955 968 955 1022 994 1008 994 943 931 865 826 836 826 817 836 836 855 855 855 865 855 0 876 0 876 836 836 826 826 855 855 855 845 855 855 855 0 0 0 0 0 0 728 721 714 714 694 681 645 669 669 681 651 634 645 645 651 675 266 266 0 714 758 766 766 0 0 931 981 955 943 876 0 865 826 782 721 694 687 687 675 687 681 687 687 687 694 707 707 721 735 735 750 782 808 836 817 817 817 817 817 808 808 808 817 845 855 855 886 897 931 897 865 817 782 758 743 743 750 774 766 758 766 774 808 817 826 826 826 836 855 908 943 865 855 855 845 817 817 808 817 808 799 782 799 782 791 799 791 782 728 681 623 561 588 588 570 584 584 579 584 584 598 588 588 608 603 0 845 845 817 0 0 0 886 0 0 994 981 981 955 0 0 0 0 0
    0 0 0 0 0 0 0 0 0 0 0 0 0 0 0 0 0 0 0 0 0 0 0 0 0 0 0 0 0 0 0 0 0 0 0 0 0 0 0 0 0 0 0 0 0 0 0 0 0 0 0 0 0 0 0 0 0 0 0 0 0 0 0 0 0 0 0 0 0 826 826 836 836 826 836 836 836 817 808 817 817 799 817 808 808 808 808 817 817 808 836 817 808 817 808 817 817 817 817 826 836 845 845 865 865 855 845 845 845 845 836 836 826 826 826 836 0 0 0 826 817 817 808 799 808 799 808 808 808 817 817 817 826 826 855 855 865 919 876 865 886 865 836 826 808 817 817 808 826 817 836 836 836 845 836 0 845 836 836 826 826 817 817 826 836 836 826 0 836 836 0 0 0 0 0 0 743 735 721 721 700 681 651 669 669 681 651 639 645 645 651 669 266 267 0 735 766 774 774 0 0 865 931 897 897 845 0 0 0 735 714 694 687 687 681 694 687 687 687 687 694 707 707 721 735 735 750 791 817 836 799 808 808 808 799 791 799 799 799 817 817 817 817 826 836 826 817 791 758 750 743 743 750 774 758 758 766 782 817 817 826 817 826 836 845 886 931 845 836 826 826 808 808 799 799 782 782 766 782 766 774 774 766 766 735 694 629 570 593 588 579 588 588 584 588 588 603 598 598 608 603 0 826 826 817 826 0 0 0 817 808 791 817 808 845 0 0 0 0 0
    0 0 0 0 0 0 0 0 0 0 0 0 0 0 0 0 0 0 0 0 0 0 0 0 0 0 0 0 0 0 0 0 0 0 0 0 0 0 0 0 0 0 0 0 0 0 0 0 0 0 0 0 0 0 0 0 0 0 0 0 0 0 0 0 0 0 0 0 0 817 817 817 817 817 826 826 826 808 799 817 817 791 808 808 808 808 808 808 799 799 826 808 808 817 808 817 817 808 817 817 826 836 836 845 845 845 836 836 836 836 836 836 826 826 826 836 826 0 826 817 817 808 799 782 791 782 799 799 808 817 817 817 826 817 836 826 826 845 826 817 826 826 817 817 799 808 808 791 817 808 817 817 817 826 817 817 826 817 817 808 808 808 808 817 817 817 817 817 826 826 826 817 817 817 0 782 750 735 728 728 707 681 0 675 675 675 645 639 645 645 657 669 266 268 0 750 774 774 782 791 817 826 865 855 855 0 0 0 0 728 707 700 694 694 687 700 694 694 687 694 694 700 707 721 728 728 750 799 817 826 791 808 808 808 791 782 782 782 782 799 791 782 782 799 799 782 774 766 743 750 743 743 750 766 758 758 766 774 808 817 817 817 826 826 836 855 886 826 808 808 817 799 799 799 782 774 774 758 774 758 758 758 750 758 728 700 629 579 593 593 584 593 593 588 593 593 603 603 603 608 608 782 799 782 791 817 808 826 799 758 735 728 766 750 766 0 0 0 0 0
    0 0 0 0 0 0 0 0 0 0 0 0 0 0 0 0 0 0 0 0 0 0 0 0 0 0 0 0 0 0 0 0 0 0 0 0 0 0 0 0 0 0 0 0 0 0 0 0 0 0 0 0 0 0 0 0 0 0 0 0 0 0 0 0 0 0 0 0 0 799 799 791 791 799 808 808 817 791 799 808 808 791 808 799 799 799 808 808 799 799 817 808 799 808 799 808 808 799 799 799 799 808 808 826 826 826 826 836 836 836 836 826 826 826 826 836 826 817 817 808 808 799 791 774 791 782 791 799 799 808 808 817 817 808 826 817 817 826 817 808 817 826 808 808 791 808 808 782 808 808 817 808 808 817 808 808 817 799 799 799 799 791 799 808 808 808 808 808 817 817 817 799 808 808 799 774 750 743 728 728 714 681 663 675 675 675 639 645 645 645 663 669 267 268 0 766 774 774 782 791 808 817 826 826 0 0 0 0 0 714 707 700 694 694 687 707 694 694 694 694 694 707 714 721 728 728 758 799 817 817 782 808 808 808 782 782 782 774 774 791 766 758 750 774 758 750 743 743 735 743 750 750 750 766 758 758 766 766 791 799 808 808 799 817 817 826 836 791 766 750 791 782 782 774 758 750 758 750 758 743 750 750 743 743 721 694 629 579 593 593 588 598 598 593 593 593 608 608 608 608 618 758 750 735 735 750 758 766 721 735 714 728 758 750 743 0 0 0 0 0
    0 0 0 0 0 0 0 0 0 0 0 0 0 0 0 0 0 0 0 0 0 0 0 0 0 0 0 0 0 0 0 0 0 0 0 0 0 0 0 0 0 0 0 0 0 0 0 0 0 0 0 0 0 0 0 0 0 0 0 0 0 0 0 0 0 0 0 0 0 782 782 758 766 782 782 782 799 782 791 799 808 791 799 799 799 799 799 799 791 791 808 799 791 791 791 799 782 782 782 782 782 791 799 808 817 817 817 826 826 826 826 817 826 817 817 826 808 808 808 799 799 782 774 766 782 774 791 791 791 799 808 808 817 808 826 817 799 817 799 799 799 808 791 799 774 799 791 774 808 799 808 808 799 817 799 799 817 799 799 791 791 791 799 808 799 808 799 799 808 808 808 791 799 799 791 758 750 735 728 728 714 675 663 669 675 669 639 645 651 651 669 669 0 0 0 766 774 774 782 782 799 808 817 808 0 0 0 0 0 707 700 700 694 700 694 707 700 700 694 700 700 707 714 721 728 728 758 791 808 799 766 791 799 791 766 766 766 766 766 782 750 743 743 766 750 743 735 735 728 750 758 758 750 766 758 750 750 743 750 743 758 758 735 735 750 750 766 735 728 721 750 758 766 766 743 750 758 750 758 743 743 743 743 743 714 687 629 0 593 593 593 603 598 593 598 598 618 618 645 623 634 743 728 721 721 707 714 707 694 721 707 735 758 758 750 0 0 0 0 0
    0 0 0 0 0 0 0 0 0 0 0 0 0 0 0 0 0 0 0 0 0 0 0 0 0 0 0 0 0 0 0 0 0 0 0 0 0 0 0 0 0 0 0 0 0 0 0 0 0 0 0 0 0 0 0 0 0 0 0 0 0 0 0 0 0 0 0 0 0 774 782 750 758 774 766 766 782 766 782 791 799 791 791 791 799 791 799 791 782 782 799 782 774 774 766 774 758 758 766 766 774 782 782 791 808 808 808 817 817 817 817 808 817 808 817 826 799 799 799 791 791 766 766 758 774 774 782 791 791 799 808 808 808 799 817 808 791 808 791 782 791 791 782 782 758 791 782 766 799 799 799 799 791 808 791 799 817 799 791 791 782 782 799 799 799 799 799 791 799 808 799 791 791 799 782 750 743 728 721 721 707 669 663 669 675 663 639 651 651 651 669 663 0 0 721 758 766 766 774 782 799 799 808 799 0 0 0 714 728 707 700 700 694 700 694 714 707 700 700 700 700 707 721 728 728 728 750 782 799 791 750 791 782 782 758 758 766 758 766 774 743 743 743 766 750 735 735 735 728 743 758 750 743 758 758 743 743 735 735 728 735 728 714 707 707 714 714 707 707 707 728 743 758 758 735 743 750 750 750 743 743 735 735 735 714 687 629 0 598 598 603 608 603 603 603 603 623 629 669 634 645 735 721 721 714 700 714 707 694 728 714 743 758 758 758 0 0 0 0 0
    0 0 0 0 0 0 0 0 0 0 0 0 0 0 0 0 0 0 0 0 0 0 0 0 0 0 0 0 0 0 0 0 0 0 0 0 0 0 0 0 0 0 0 0 0 0 0 0 0 0 0 0 0 0 0 0 0 0 0 0 0 0 0 0 0 0 0 0 0 774 782 743 750 774 766 766 774 766 774 782 791 791 782 791 791 791 791 782 774 782 799 774 774 766 758 766 750 750 766 758 766 774 782 791 799 799 808 808 817 808 808 808 808 799 808 817 791 791 799 791 782 750 758 750 766 774 782 782 782 791 799 799 808 799 808 791 774 791 782 782 782 791 774 774 750 791 774 758 782 782 791 791 782 799 782 791 808 791 791 782 774 774 791 791 791 791 791 782 799 808 799 782 791 799 774 735 735 721 714 714 707 663 663 669 675 657 639 651 651 651 669 657 663 0 714 750 758 758 766 774 791 791 799 774 0 0 0 714 714 700 700 700 694 700 700 714 707 707 707 707 707 714 721 728 728 728 750 774 782 782 743 782 774 774 743 750 758 750 758 766 743 743 743 758 750 735 735 735 728 743 750 750 743 750 758 743 743 735 743 728 735 728 707 700 707 707 700 700 694 694 700 707 728 728 721 735 750 743 743 743 743 735 735 728 707 681 634 0 603 598 613 613 608 608 608 608 629 634 675 629 639 735 714 714 707 694 700 700 687 721 714 743 766 766 766 0 0 0 0 0
    0 0 0 0 0 0 0 0 0 0 0 0 0 0 0 0 0 0 0 0 0 0 0 0 0 0 0 0 0 0 0 0 0 0 0 0 0 0 0 0 0 0 0 0 0 0 0 0 0 0 0 0 0 0 0 0 0 0 0 0 0 0 0 0 0 0 0 0 0 766 774 743 750 766 758 758 766 758 766 774 782 782 766 774 782 782 782 774 766 774 791 766 766 758 743 766 750 743 766 758 766 766 774 782 782 791 799 791 808 799 799 791 799 791 791 808 782 774 791 782 774 735 743 743 758 766 774 774 774 774 791 791 799 782 791 782 766 782 782 774 782 791 766 774 743 782 758 758 774 782 782 782 774 791 782 791 808 782 782 766 766 766 774 774 782 782 782 782 799 799 791 782 791 791 766 728 735 721 714 714 707 663 669 669 681 657 639 651 651 651 675 657 657 681 707 735 743 743 758 766 782 782 782 750 750 735 0 707 707 700 694 694 694 700 700 714 707 707 707 714 707 721 728 728 728 728 750 766 782 774 735 774 766 766 743 750 758 750 758 766 743 743 743 758 743 735 735 728 721 721 721 728 728 735 750 735 743 735 743 728 728 728 714 700 707 707 700 694 694 694 687 694 707 721 714 735 750 743 750 743 743 728 735 728 700 681 634 0 608 603 618 613 613 608 613 613 634 634 669 623 629 707 700 700 700 687 687 694 675 714 707 735 758 766 758 0 0 0 0 0
    0 0 0 0 0 0 0 0 0 0 0 0 0 0 0 0 0 0 0 0 0 0 0 0 0 0 0 0 0 0 0 0 0 0 0 0 0 0 0 0 0 0 0 0 0 0 0 0 0 0 0 0 0 0 0 0 0 0 0 0 0 0 0 0 0 0 0 0 0 758 774 743 743 758 750 750 750 750 758 758 766 774 750 758 766 774 774 766 758 766 774 758 766 750 743 750 750 735 766 750 758 758 766 766 774 782 791 774 791 782 774 774 782 774 766 782 758 758 774 766 750 728 735 735 750 750 758 758 758 758 782 782 782 774 774 766 750 766 766 774 774 782 758 774 743 782 750 758 774 774 774 774 766 782 774 791 799 774 766 750 750 758 758 758 766 766 766 766 791 791 782 766 782 782 750 721 728 721 714 714 707 669 669 675 687 657 645 651 651 651 669 657 657 675 700 721 735 735 743 750 766 766 758 735 735 728 0 707 700 694 694 694 687 700 694 707 700 707 707 707 707 728 728 728 728 728 750 766 774 774 735 774 766 766 743 758 758 750 758 758 743 743 743 766 743 728 728 721 721 707 707 707 714 728 743 735 750 735 743 728 728 721 707 700 707 700 700 694 687 687 675 687 694 707 714 728 743 735 743 735 735 728 728 721 700 681 634 0 608 603 618 618 613 613 613 613 629 634 669 618 623 694 694 694 694 687 687 700 687 721 707 728 743 750 750 0 0 0 0 0
    0 0 0 0 0 0 0 0 0 0 0 0 0 0 0 0 0 0 0 0 0 0 0 0 0 0 0 0 0 0 0 0 0 0 0 0 0 0 0 0 0 0 0 0 0 0 0 0 0 0 0 0 0 0 0 0 0 0 0 0 0 0 0 0 0 0 0 0 0 750 766 735 743 750 743 743 743 743 743 743 750 766 735 743 750 758 758 750 743 758 758 750 758 743 735 743 750 735 758 750 758 750 750 758 766 766 782 750 774 758 758 758 766 758 750 766 750 750 766 758 743 721 735 735 743 750 750 750 750 750 782 774 774 766 758 758 743 750 758 766 766 774 758 766 743 782 743 758 766 766 766 766 758 782 766 791 791 766 758 743 750 750 743 750 750 750 758 758 774 774 758 750 758 758 735 721 728 721 721 721 714 681 681 681 687 651 645 651 651 657 669 657 657 669 700 707 728 728 735 743 750 750 743 728 735 721 714 714 700 700 700 700 687 700 694 700 694 707 707 707 707 735 728 728 728 728 743 750 758 766 728 766 766 758 743 758 758 750 758 750 743 743 743 758 735 728 728 721 721 707 707 707 707 721 735 728 735 735 735 721 721 714 707 694 700 700 694 687 681 681 675 681 687 694 694 721 728 721 728 728 721 714 721 714 694 675 634 0 613 608 623 618 613 613 613 613 629 634 663 618 623 694 694 687 694 687 687 700 694 721 707 728 743 750 750 0 0 0 0 0
    0 0 0 0 0 0 0 0 0 0 0 0 0 0 0 0 0 0 0 0 0 0 0 0 0 0 0 0 0 0 0 0 0 0 0 0 0 0 0 0 0 0 0 0 0 0 0 0 0 0 0 0 0 0 0 0 0 0 0 0 0 0 0 0 0 0 0 0 0 743 758 728 735 750 743 743 743 750 743 743 750 766 728 750 750 758 750 750 743 750 758 750 758 750 735 743 743 735 758 750 750 750 750 750 758 750 774 735 750 743 743 743 750 750 743 758 750 750 766 758 743 714 735 728 743 743 743 743 743 743 774 758 766 750 750 750 735 743 758 758 750 766 750 766 735 774 743 758 766 766 766 758 758 774 758 782 774 758 750 743 750 750 743 743 743 743 750 750 766 758 743 743 743 743 721 714 714 714 714 714 707 675 681 681 687 651 651 651 657 657 669 651 651 669 694 700 721 721 728 735 735 743 735 728 735 721 714 714 707 707 707 707 700 707 700 707 700 714 707 707 714 735 728 728 728 728 743 743 743 750 728 758 758 758 735 750 758 750 758 743 743 743 743 758 728 728 728 721 721 700 694 694 694 700 707 707 707 721 728 714 714 714 707 694 700 694 687 681 675 675 669 675 681 681 681 707 714 714 721 714 714 707 707 707 687 669 634 0 613 608 623 618 613 613 613 613 629 629 663 618 623 681 681 675 675 675 675 687 687 707 700 721 735 743 743 0 0 0 0 0
    0 0 0 0 0 0 0 0 0 0 0 0 0 0 0 0 0 0 0 0 0 0 0 0 0 0 0 0 0 0 0 0 0 0 0 0 0 0 0 0 0 0 0 0 0 0 0 0 0 0 0 0 0 0 0 0 0 0 0 0 0 0 0 0 0 0 0 0 0 750 758 735 743 758 743 743 750 750 750 743 750 766 735 750 743 758 750 750 750 750 758 750 750 743 735 743 743 728 758 750 750 743 750 750 750 750 766 728 743 743 743 743 750 750 750 766 758 750 758 743 735 707 728 728 735 735 735 735 743 735 766 750 750 743 743 743 735 743 758 766 758 774 758 766 735 774 743 758 758 758 758 750 750 766 758 782 766 750 743 735 758 750 735 743 743 743 743 750 766 758 735 735 743 735 721 707 707 700 700 700 700 669 675 681 681 651 657 651 657 657 663 651 651 663 687 687 714 714 721 728 728 735 728 721 728 714 714 714 707 707 707 707 700 707 707 707 700 714 707 714 714 735 728 728 728 728 735 735 735 743 721 743 743 743 735 750 750 750 758 735 750 750 750 750 728 721 721 714 714 694 687 687 681 694 694 687 687 707 714 707 700 707 700 687 687 687 681 675 663 669 669 675 681 675 675 687 700 700 707 700 700 694 700 700 675 663 634 623 618 613 623 618 613 613 613 613 623 629 663 618 623 675 663 663 657 669 663 675 681 700 700 707 721 728 728 0 0 0 0 0
    0 0 0 0 0 0 0 0 0 0 0 0 0 0 0 0 0 0 0 0 0 0 0 0 0 0 0 0 0 0 0 0 0 0 0 0 0 0 0 0 0 0 0 0 0 0 0 0 0 0 0 0 0 0 0 0 0 0 0 0 0 0 0 0 0 0 0 0 0 743 750 728 735 743 735 735 735 743 735 735 743 743 721 743 735 750 735 735 735 735 728 721 728 721 714 728 735 721 750 743 743 743 743 750 743 743 758 728 735 735 735 735 750 758 750 766 750 735 735 721 721 700 714 714 721 721 728 728 735 728 758 743 750 743 735 735 735 735 750 758 750 766 750 750 735 750 735 750 750 750 743 743 743 758 750 782 750 750 743 735 758 743 735 743 743 743 743 750 766 758 735 743 743 735 714 707 707 694 694 694 687 663 669 675 675 651 663 651 663 657 663 657 651 663 681 681 707 714 721 721 721 728 721 721 728 714 714 714 700 707 707 707 700 700 700 700 700 714 714 714 721 735 728 728 728 728 735 728 735 735 721 735 735 728 728 735 743 750 750 721 750 750 750 750 728 721 721 721 721 694 675 681 675 687 687 675 675 694 694 700 687 700 694 675 681 675 675 669 657 663 663 669 675 669 675 681 694 700 707 694 687 681 694 694 669 663 634 629 623 613 623 618 613 613 613 613 618 623 651 618 618 669 651 651 645 663 663 675 681 694 694 700 714 721 714 0 0 0 0 0
    0 0 0 0 0 0 0 0 0 0 0 0 0 0 0 0 0 0 0 0 0 0 0 0 0 0 0 0 0 0 0 0 0 0 0 0 0 0 0 0 0 0 0 0 0 0 0 0 0 0 0 0 0 0 0 0 0 0 0 0 0 0 0 0 0 0 0 0 0 728 728 714 721 721 721 714 714 721 721 721 728 721 707 728 721 735 714 721 721 0 0 0 707 707 707 714 721 721 743 743 743 743 743 743 735 728 743 714 721 721 721 721 735 743 735 750 735 714 714 700 707 687 700 700 714 714 721 721 735 728 750 743 750 735 728 728 728 728 735 735 735 743 735 743 728 735 721 743 735 735 735 735 735 750 743 774 735 743 735 735 750 743 735 735 735 735 743 758 766 758 728 743 743 735 714 707 700 694 694 687 687 663 663 675 675 651 669 651 663 657 663 657 657 669 681 681 707 707 714 721 721 728 721 721 728 721 714 714 707 707 707 707 700 700 700 700 700 707 707 714 721 728 728 728 728 728 735 728 728 728 714 721 721 714 714 714 735 735 743 714 750 750 758 743 728 721 721 721 721 687 675 675 669 681 675 663 663 675 675 681 681 687 681 663 669 663 663 657 651 657 657 663 669 657 663 675 681 694 707 687 687 681 694 694 669 663 634 629 623 613 623 618 608 613 613 613 613 613 639 613 618 663 651 651 645 663 663 675 687 694 694 700 707 714 700 0 0 0 0 0
    0 0 0 0 0 0 0 0 0 0 0 0 0 0 0 0 0 0 0 0 0 0 0 0 0 0 0 0 0 0 0 0 0 0 0 0 0 0 0 0 0 0 0 0 0 0 0 0 0 0 0 0 0 0 0 0 0 0 0 0 0 0 0 0 0 0 0 0 0 714 714 700 707 707 700 707 700 707 714 714 721 714 707 728 721 721 700 0 0 0 0 687 687 0 694 714 714 714 735 743 743 743 743 735 728 721 728 700 700 700 700 707 721 728 721 728 721 700 707 694 700 687 694 700 707 707 714 714 728 721 743 735 735 728 721 714 714 714 721 721 721 721 721 735 721 721 714 728 728 728 721 721 721 735 735 758 721 728 728 728 750 735 728 728 728 735 735 750 758 743 721 735 735 728 707 700 700 687 687 687 681 669 663 681 669 651 675 651 663 663 663 663 657 669 681 675 700 707 714 714 714 721 714 721 728 714 714 714 700 714 707 707 700 700 700 700 694 707 707 707 714 728 728 728 721 728 728 721 714 707 694 700 694 687 681 694 714 728 735 714 750 750 750 743 728 721 721 714 714 687 669 669 669 675 663 651 651 663 663 663 669 675 663 651 663 657 651 645 645 651 645 651 663 645 651 663 675 694 700 694 694 687 694 694 669 663 629 629 623 608 618 613 608 608 608 608 608 608 634 613 618 663 657 651 645 657 657 675 687 694 687 687 700 707 694 0 0 0 0 0
    0 0 0 0 0 0 0 0 0 0 0 0 0 0 0 0 0 0 0 0 0 0 0 0 0 0 0 0 0 0 0 0 0 0 0 0 0 0 0 0 0 0 0 0 0 0 0 0 0 0 0 0 0 0 0 0 0 0 0 0 0 0 0 0 0 0 0 0 0 707 700 694 700 700 694 694 694 700 707 707 714 707 707 721 714 714 0 0 0 0 0 681 681 687 687 0 0 707 728 735 735 743 735 735 721 714 714 694 681 687 687 687 707 721 714 714 714 700 700 694 694 687 694 694 700 700 714 714 721 721 735 728 728 721 707 707 707 707 707 707 707 707 707 721 714 707 700 714 714 714 714 707 714 721 728 735 714 721 721 721 743 728 721 721 721 728 728 735 735 728 714 728 721 714 700 700 700 687 687 687 681 669 669 681 669 657 675 651 663 663 669 669 663 669 681 675 694 707 714 714 707 714 707 714 721 714 714 707 700 714 714 707 700 700 700 700 694 707 700 707 714 721 721 721 721 721 721 714 700 694 681 681 681 669 663 675 694 721 721 707 743 743 750 735 721 714 714 714 707 681 669 663 663 669 651 645 645 657 657 651 651 657 639 639 651 651 645 639 639 645 639 645 651 639 645 657 663 675 675 687 681 681 687 687 663 651 623 629 623 603 613 613 603 603 608 608 603 603 629 613 618 663 663 651 639 645 639 0 0 0 385 385 0 0 0 0 0 0 0 0
    0 0 0 0 0 0 0 0 0 0 0 0 0 0 0 0 0 0 0 0 0 0 0 0 0 0 0 0 0 0 0 0 0 0 0 0 0 0 0 0 0 0 0 0 0 0 0 0 0 0 0 0 0 0 0 0 0 0 0 0 0 0 0 0 0 0 0 0 0 700 694 687 687 694 681 687 681 694 694 700 707 700 700 714 0 0 0 0 0 0 0 669 675 681 0 0 0 0 0 743 735 743 735 728 714 707 0 0 669 0 681 681 0 714 707 707 707 694 694 687 694 687 694 694 700 700 714 714 728 721 735 721 721 721 707 700 700 700 700 700 707 707 707 714 707 694 694 707 700 700 700 694 700 707 721 728 707 707 714 714 735 721 714 714 714 714 721 728 728 714 707 721 721 714 694 700 700 687 687 687 681 669 669 687 663 657 675 651 663 663 669 669 663 669 675 675 694 700 707 707 707 707 707 707 714 707 707 707 707 721 714 714 707 700 700 700 694 700 700 700 707 714 721 714 714 721 707 700 675 675 663 657 651 645 639 657 675 700 700 694 735 735 743 728 721 714 714 714 707 681 663 663 663 669 651 645 645 651 651 645 645 651 634 634 645 645 639 639 639 645 634 639 645 634 639 651 657 663 663 681 675 681 681 675 651 639 618 629 623 598 608 608 603 603 603 603 598 598 623 618 623 669 669 651 634 639 0 0 0 391 391 391 395 395 397 0 0 0 0 0
    0 0 0 0 0 0 0 0 0 0 0 0 0 0 0 0 0 0 0 0 0 0 0 0 0 0 0 0 0 0 0 0 0 0 0 0 0 0 0 0 0 0 0 0 0 0 0 0 0 0 0 0 0 0 0 0 0 0 0 0 0 0 0 0 0 0 0 0 0 700 687 681 681 687 681 681 675 687 694 700 714 700 0 0 0 0 0 0 0 0 0 0 0 0 0 0 0 0 0 0 0 0 0 0 0 0 0 0 0 0 681 0 0 714 707 700 700 687 694 687 687 687 687 694 700 700 714 714 728 721 728 714 714 707 694 687 694 687 687 694 694 694 0 0 0 0 687 0 700 694 694 687 694 700 714 714 700 694 700 700 728 714 707 707 707 714 721 728 0 707 700 0 0 707 681 694 694 681 681 681 675 663 663 681 657 651 675 645 663 669 675 675 669 669 675 675 694 700 707 707 700 700 700 707 707 707 700 707 714 728 721 721 714 707 707 707 700 700 700 700 707 707 714 714 714 714 700 687 651 657 639 629 634 634 639 645 663 694 694 694 728 728 735 728 714 714 714 714 714 681 669 669 663 669 645 645 645 645 645 645 639 645 634 639 651 639 639 639 639 639 629 634 634 629 634 634 639 639 639 675 669 675 669 663 639 639 618 634 623 603 608 608 603 603 603 608 598 598 623 618 634 675 687 657 634 0 0 0 0 395 393 395 395 397 399 0 0 0 0 0
    0 0 0 0 0 0 0 0 0 0 0 0 0 0 0 0 0 0 0 0 0 0 0 0 0 0 0 0 0 0 0 0 0 0 0 0 0 0 0 0 0 0 0 0 0 0 0 0 0 0 0 0 0 0 0 0 0 0 0 0 0 0 0 0 0 0 0 0 0 0 0 0 681 687 675 681 675 0 0 0 0 0 0 0 0 0 0 0 0 0 0 0 0 0 0 0 0 0 0 0 0 0 418 413 0 0 0 0 0 0 0 0 0 700 700 694 687 675 681 681 681 681 681 694 694 694 714 714 721 714 721 707 700 700 681 675 675 663 657 0 0 0 0 0 0 73 0 0 0 0 694 687 687 0 714 707 694 694 694 694 728 714 707 700 694 714 721 721 0 0 681 0 0 700 669 681 687 669 675 675 669 651 651 675 651 651 0 657 669 675 681 681 669 669 669 669 687 694 700 700 694 694 694 0 0 707 694 700 714 735 728 721 721 707 714 714 707 707 700 700 707 707 714 714 714 721 700 687 645 0 0 0 0 634 639 645 651 687 687 694 728 721 728 721 714 714 714 707 707 681 663 663 657 663 645 639 645 645 645 645 639 645 639 645 651 645 639 639 639 639 629 629 629 623 629 629 623 623 623 651 645 651 645 645 639 634 618 639 623 603 608 608 603 603 603 608 598 598 618 618 645 681 0 663 0 0 408 402 399 399 395 395 395 397 399 0 0 0 0 0
    0 0 0 0 0 0 0 0 0 0 0 0 0 0 0 0 0 0 0 0 0 0 0 0 0 0 0 0 0 0 0 0 0 0 0 0 0 0 0 0 0 0 0 0 0 0 0 0 0 0 0 0 0 0 0 0 0 0 0 0 0 0 0 0 0 0 0 0 0 0 0 0 0 0 0 669 0 0 0 0 250 0 0 0 0 0 0 0 0 0 0 0 0 0 0 81 0 0 0 0 0 0 422 422 420 425 420 0 0 0 0 0 0 687 687 681 675 663 675 669 681 681 675 681 687 687 707 0 0 714 714 0 687 681 663 657 657 639 0 0 0 0 0 0 0 73 0 0 0 0 0 687 681 0 0 707 694 687 687 675 728 721 707 669 0 0 0 0 0 0 0 0 0 0 651 675 675 657 669 669 663 651 645 0 0 0 0 0 0 0 0 687 675 669 669 669 681 687 700 694 687 687 687 0 0 694 687 0 0 0 0 0 0 0 707 707 700 694 694 700 707 700 714 714 714 0 0 0 425 422 415 418 418 420 0 639 639 681 687 687 714 714 721 721 714 707 707 707 707 681 663 663 657 657 639 639 639 639 645 645 639 645 645 645 657 639 639 634 634 634 623 623 623 618 618 618 618 618 618 623 623 0 629 634 634 629 618 639 623 0 608 603 598 603 603 603 593 593 613 0 0 0 0 0 0 0 411 404 402 402 395 397 397 399 399 0 0 0 0 0
    0 0 0 0 0 0 0 0 0 0 0 0 0 0 0 0 0 0 0 0 0 0 0 0 0 0 0 0 0 0 0 0 0 0 0 0 0 0 0 0 0 0 0 0 0 0 0 0 0 0 0 0 0 0 0 0 0 0 0 0 0 0 0 0 0 0 0 0 0 0 0 0 0 0 0 0 0 0 0 250 250 0 0 0 0 0 420 0 427 0 0 0 0 0 0 0 0 0 0 0 425 425 427 425 422 427 422 420 0 0 0 0 0 0 0 675 669 663 669 669 681 675 669 681 681 0 0 0 0 0 0 0 0 0 0 0 0 0 0 0 0 0 0 0 0 0 0 0 0 0 0 0 0 0 0 0 0 687 0 0 0 0 427 0 425 425 415 422 0 422 0 0 0 0 0 415 0 0 0 0 0 0 0 413 404 413 415 420 420 415 413 0 687 681 681 675 681 687 0 0 0 0 0 0 0 0 0 0 425 425 422 418 413 408 408 406 0 0 0 0 0 0 707 0 0 0 422 415 422 418 413 415 418 420 418 0 629 669 669 681 707 700 707 714 714 707 714 714 707 687 669 663 657 651 639 639 639 639 639 639 639 645 657 651 657 639 629 629 623 629 618 618 618 613 613 613 613 613 613 618 618 0 623 623 634 623 0 634 623 598 603 603 598 598 603 603 588 593 613 0 0 0 0 0 0 411 408 404 402 402 397 399 397 399 402 0 0 0 0 0
    0 0 0 0 0 0 0 0 0 0 0 0 0 0 0 0 0 0 0 0 0 0 0 0 0 0 0 0 0 0 0 0 0 0 0 0 0 0 0 0 0 0 0 0 0 0 0 0 0 0 0 0 0 0 0 0 0 0 0 0 0 0 0 0 0 0 0 0 0 425 0 0 0 0 0 0 0 0 0 251 251 0 0 0 0 0 422 427 425 427 430 0 0 0 0 0 0 0 430 427 427 425 427 425 422 427 422 420 420 427 427 0 0 427 0 675 663 663 669 0 0 0 0 0 0 0 0 0 0 0 422 422 422 425 0 0 0 0 0 0 0 0 0 0 0 0 0 422 425 0 0 0 0 0 0 0 0 0 0 425 422 420 422 422 422 425 418 422 408 420 413 413 411 411 411 415 413 415 408 413 415 415 420 422 411 420 422 425 422 418 418 413 415 0 0 0 0 0 0 0 0 0 0 0 0 0 0 0 427 422 420 418 413 411 411 406 404 404 404 402 406 0 0 0 0 425 420 413 420 418 413 415 418 420 420 422 430 0 645 663 681 675 687 707 721 707 714 714 714 694 675 669 663 651 639 634 639 634 639 639 639 639 669 657 657 634 623 623 618 613 613 0 608 608 613 608 608 613 608 613 0 0 0 0 645 0 0 0 618 593 603 598 593 598 598 598 588 593 613 0 0 0 0 0 418 411 408 404 404 404 399 402 399 402 402 0 0 0 0 0
    0 0 0 0 0 0 0 0 0 0 0 0 0 0 0 0 0 0 0 0 0 0 0 0 0 0 0 0 0 0 0 0 0 0 0 0 0 0 0 0 0 0 0 0 0 0 0 0 0 0 0 0 0 0 0 0 0 0 0 0 0 0 0 0 0 0 0 0 0 427 425 427 427 415 415 0 0 0 0 0 0 0 0 0 0 425 422 427 425 425 430 427 427 427 430 430 427 430 430 430 427 427 427 425 422 427 422 422 420 427 425 427 425 427 422 0 0 0 0 0 0 0 0 0 0 425 425 420 425 425 425 425 425 422 422 418 418 415 415 413 408 411 420 422 425 425 427 420 422 427 427 425 427 0 0 422 0 427 415 422 422 420 422 420 422 422 418 422 408 420 413 413 413 413 413 418 418 420 415 420 425 422 425 427 413 420 422 422 420 418 418 415 418 427 422 0 0 0 0 0 0 0 0 0 0 0 432 432 425 420 422 420 418 415 415 413 411 411 408 406 411 408 408 406 413 422 418 413 420 418 413 418 420 420 420 422 430 0 0 0 0 0 657 700 714 707 714 714 714 700 681 675 663 651 645 639 634 634 639 645 645 645 0 0 0 0 0 0 0 0 0 0 0 603 0 0 0 0 603 613 0 0 0 0 0 0 418 0 0 0 598 593 588 593 593 593 579 584 0 0 0 0 0 427 415 408 406 406 404 404 402 402 402 404 404 0 0 0 0 0
    0 0 0 0 0 0 0 0 0 0 0 0 0 0 0 0 0 0 0 0 0 0 0 0 0 0 0 0 0 0 0 0 0 0 0 0 0 0 0 0 0 0 0 0 0 0 0 0 0 0 0 0 0 0 0 0 0 0 0 0 0 0 0 0 0 0 0 0 0 427 427 427 430 420 422 415 418 415 420 420 420 420 425 427 427 425 425 427 425 425 425 425 425 425 427 427 425 427 430 430 427 425 425 425 422 425 422 422 420 425 427 427 425 430 425 427 427 427 422 425 425 427 427 430 427 425 425 420 425 425 425 422 422 422 422 418 420 418 418 418 411 415 422 422 422 422 425 418 422 425 425 422 425 425 427 422 430 425 415 420 422 420 420 420 422 422 420 422 408 418 413 413 413 415 413 415 418 422 418 422 425 422 425 427 415 420 422 422 420 418 420 415 418 425 420 420 418 420 422 425 427 425 427 430 432 0 435 435 427 422 425 422 422 420 420 418 415 415 418 413 418 413 411 411 415 422 420 413 418 418 415 418 420 420 420 422 430 427 425 435 0 435 427 425 0 0 0 0 0 0 0 687 669 657 645 639 634 634 634 657 651 0 0 0 0 413 415 408 408 404 406 404 402 0 0 0 0 0 0 0 0 0 0 0 0 422 418 415 0 420 0 0 0 584 579 579 561 0 0 0 427 420 427 425 413 408 404 406 406 404 404 404 404 406 406 0 0 0 0 0
    0 0 0 0 0 0 0 0 0 0 0 0 0 0 0 0 0 0 0 0 0 0 0 0 0 0 0 0 0 0 0 0 0 0 0 0 0 0 0 0 0 0 0 0 0 0 0 0 0 0 0 0 0 0 0 0 0 0 0 0 0 0 0 0 0 0 0 0 0 427 425 427 430 420 422 418 420 418 420 420 420 420 425 425 425 425 425 427 422 422 425 422 422 422 425 427 422 427 427 427 427 427 425 425 420 425 420 422 420 427 427 430 427 430 427 430 430 427 425 425 422 427 425 427 425 422 425 420 422 422 422 420 422 420 422 418 422 422 422 422 415 420 425 425 422 420 422 415 422 422 422 420 420 422 425 420 430 422 415 420 422 422 420 420 422 422 420 425 411 418 413 413 413 415 415 415 415 420 418 420 422 420 422 425 413 420 420 422 420 418 420 415 418 425 418 418 418 420 420 422 425 422 427 430 432 432 432 435 427 422 425 422 422 422 420 420 418 418 422 415 420 415 413 413 418 422 420 411 418 418 415 418 420 420 420 420 427 425 422 430 430 430 422 418 418 420 422 425 420 420 422 0 675 657 657 645 639 639 634 669 0 0 0 0 411 411 413 408 411 406 406 406 404 402 0 0 0 0 0 0 0 0 0 422 420 420 418 415 413 420 408 413 413 0 0 0 418 420 413 425 420 418 422 422 411 408 404 406 406 404 406 406 404 406 406 0 0 0 0 0
    0 0 0 0 0 0 0 0 0 0 0 0 0 0 0 0 0 0 0 0 0 0 0 0 0 0 0 0 0 0 0 0 0 0 0 0 0 0 0 0 0 0 0 0 0 0 0 0 0 0 0 0 0 0 0 0 0 0 0 0 0 0 0 0 0 0 0 0 0 425 425 427 427 418 422 418 420 418 420 420 420 418 425 425 425 422 425 427 425 422 425 422 422 422 425 425 422 425 427 427 427 425 425 425 420 425 422 422 422 427 427 430 427 432 427 432 430 430 425 425 422 425 425 425 422 420 425 418 420 420 420 420 420 420 422 415 422 425 425 422 418 422 427 427 422 422 422 415 422 422 420 418 420 422 422 420 427 420 415 420 422 420 420 420 420 420 420 422 411 418 413 413 413 415 415 415 415 420 418 420 422 420 420 425 413 420 420 420 418 418 420 415 418 422 418 418 418 420 420 422 422 422 427 430 427 430 430 432 425 420 425 420 422 422 420 418 418 418 422 418 420 415 415 415 418 420 420 411 418 418 415 418 420 420 420 420 427 425 422 427 427 427 422 418 418 418 413 418 418 415 418 418 0 0 663 645 645 651 639 0 0 0 0 406 411 413 413 411 411 408 406 406 408 404 402 406 408 408 415 422 0 0 422 420 415 415 413 413 411 415 408 413 411 413 413 418 413 415 413 418 413 420 420 420 411 411 404 406 406 404 406 406 406 408 406 0 0 0 0 0
    0 0 0 0 0 0 0 0 0 0 0 0 0 0 0 0 0 0 0 0 0 0 0 0 0 0 0 0 0 0 0 0 0 0 0 0 0 0 0 0 0 0 0 0 0 0 0 0 0 0 0 0 0 0 0 0 0 0 0 0 0 0 0 0 0 0 0 0 0 422 422 422 427 415 422 418 420 418 420 418 420 418 425 422 425 425 425 427 425 422 422 422 420 422 425 425 422 425 425 427 425 425 425 425 420 422 422 422 422 427 427 430 427 432 430 432 430 430 425 427 425 427 422 425 422 418 422 418 420 420 420 420 420 420 422 418 425 425 425 422 418 425 427 427 420 422 420 415 422 425 420 418 420 425 422 420 427 422 418 422 422 422 420 420 420 422 420 422 411 418 415 413 415 415 415 413 415 420 418 418 422 418 420 422 411 418 418 420 418 418 418 415 418 422 418 418 418 420 420 422 422 420 425 427 425 427 427 427 420 418 422 420 420 420 418 418 418 420 422 415 420 415 418 418 415 420 418 411 418 418 415 418 420 420 420 420 427 425 422 427 425 425 425 420 420 420 413 418 420 418 420 418 422 422 418 413 0 0 0 408 0 404 404 406 411 413 413 413 411 411 408 411 411 408 406 408 408 408 413 418 415 418 415 418 413 413 411 411 408 411 406 413 408 415 413 415 413 413 413 415 413 418 418 418 411 411 404 406 406 404 406 406 406 408 408 0 0 0 0 0
    0 0 0 0 0 0 0 0 0 0 0 0 0 0 0 0 0 0 0 0 0 0 0 0 0 0 0 0 0 0 0 0 0 0 0 0 0 0 0 0 0 0 0 0 0 0 0 0 0 0 0 0 0 0 0 0 0 0 0 0 0 0 0 0 0 0 0 0 0 422 422 422 427 415 422 415 418 418 420 418 420 418 425 425 425 427 427 427 425 425 425 422 420 422 425 422 422 422 425 427 425 427 425 425 422 425 422 425 422 427 430 430 430 435 430 435 432 430 427 427 425 427 422 425 420 415 420 415 418 418 418 418 420 420 422 418 425 425 425 425 415 425 427 427 418 422 420 415 420 425 420 415 418 425 422 422 430 425 420 425 427 425 422 422 422 422 422 420 413 415 415 415 415 415 415 413 415 420 418 418 422 418 418 422 411 418 418 420 418 418 420 415 420 422 418 418 418 420 422 422 422 420 425 425 422 425 425 425 418 415 422 418 420 420 418 418 418 420 422 415 420 415 418 415 415 420 418 411 418 418 418 418 420 420 420 420 427 425 422 425 425 425 425 420 425 422 415 420 422 420 422 420 425 420 420 418 418 415 415 411 408 406 406 408 408 413 413 413 411 411 408 411 413 411 406 406 408 408 411 418 413 415 413 415 415 415 413 411 411 411 406 411 408 415 411 413 413 411 415 415 413 418 418 415 408 408 402 404 404 404 406 406 406 408 408 0 0 0 0 0
    0 0 0 0 0 0 0 0 0 0 0 0 0 0 0 0 0 0 0 0 0 0 0 0 0 0 0 0 0 0 0 0 0 0 0 0 0 0 0 0 0 0 0 0 0 0 0 0 0 0 0 0 0 0 0 0 0 0 0 0 0 0 0 0 0 0 0 0 0 420 422 420 427 418 422 415 418 418 420 418 420 420 425 425 427 427 430 430 427 425 425 422 418 422 422 422 422 422 425 425 425 425 425 425 422 425 425 425 422 427 430 430 427 432 430 435 435 432 427 430 427 427 422 422 420 415 418 413 415 418 418 418 418 418 422 420 425 425 427 425 415 425 427 427 418 422 418 415 420 425 420 418 418 425 422 425 430 425 425 427 430 427 422 425 425 422 425 420 413 418 418 415 415 418 415 413 418 420 420 418 422 418 418 422 411 418 418 420 418 415 418 418 420 425 418 420 418 420 422 422 422 420 422 425 420 425 422 425 415 413 420 418 420 420 418 420 418 420 422 415 420 415 418 415 415 418 418 413 418 418 418 420 420 420 420 420 425 425 422 425 422 422 425 420 425 425 418 420 422 420 425 420 425 422 420 420 418 415 415 413 408 408 406 408 408 411 411 411 411 411 406 411 411 411 406 406 408 408 411 418 413 413 413 415 415 413 413 411 411 413 406 411 408 415 413 415 415 413 415 418 415 415 413 413 406 406 399 404 404 404 404 406 406 408 406 0 0 0 0 0
    0 0 0 0 0 0 0 0 0 0 0 0 0 0 0 0 0 0 0 0 0 0 0 0 0 0 0 0 0 0 0 0 0 0 0 0 0 0 0 0 0 0 0 0 0 0 0 0 0 0 0 0 0 0 0 0 0 0 0 0 0 0 0 0 0 0 0 0 0 415 420 418 422 415 420 415 418 418 420 418 422 420 425 425 427 427 430 430 427 425 425 425 418 425 422 420 422 420 422 425 425 425 425 425 422 422 425 422 422 425 427 427 427 432 430 435 432 432 425 427 425 422 420 418 418 413 415 413 415 415 418 415 420 418 425 422 427 427 430 427 418 425 427 425 415 422 418 415 420 425 420 418 420 425 422 425 430 425 425 427 430 427 425 425 425 422 425 420 415 418 418 415 418 418 418 415 420 422 422 420 425 418 420 422 411 418 418 420 418 415 420 415 420 425 418 420 415 420 420 420 422 418 420 422 418 425 422 425 413 413 420 418 420 420 418 420 418 422 422 415 420 415 418 415 413 418 418 413 418 420 418 420 420 420 420 418 425 425 422 425 422 422 425 420 425 425 420 420 422 420 425 422 425 422 420 420 418 415 415 413 408 408 406 406 406 408 408 408 408 408 406 411 411 411 408 406 408 408 413 418 411 413 411 415 415 413 411 411 408 411 406 411 411 418 413 418 418 415 418 418 418 415 413 413 406 406 399 404 404 404 404 406 406 408 406 0 0 0 0 0
    0 0 0 0 0 0 0 0 0 0 0 0 0 0 0 0 0 0 0 0 0 0 0 0 0 0 0 0 0 0 0 0 0 0 0 0 0 0 0 0 0 0 0 0 0 0 0 0 0 0 0 0 0 0 0 0 0 0 0 0 0 0 0 0 0 0 0 0 0 413 420 418 422 418 420 418 418 420 420 418 420 418 422 425 427 427 430 430 430 427 425 425 418 425 422 420 422 418 422 425 422 425 422 425 422 422 425 422 422 425 430 427 427 430 427 432 427 427 420 425 422 418 418 413 415 411 413 411 413 413 415 413 420 418 425 425 430 430 432 432 418 425 427 425 415 422 415 418 420 425 420 418 420 425 420 427 430 425 427 427 430 427 422 425 425 422 425 418 415 418 418 418 418 418 418 418 420 422 422 420 425 418 420 420 408 418 418 418 418 415 418 415 418 425 418 420 415 420 422 422 422 420 420 422 418 425 420 425 413 413 420 420 420 422 420 420 418 422 422 415 420 413 418 413 413 418 418 411 415 418 418 420 418 420 418 418 425 425 422 425 422 425 425 420 425 425 420 420 420 418 422 420 425 420 420 420 418 415 413 413 408 408 406 406 406 408 408 408 408 408 404 408 411 413 408 406 408 408 411 420 411 413 411 413 413 413 411 408 408 411 406 411 408 415 413 415 415 413 415 415 415 413 411 411 406 406 399 406 404 404 406 406 406 408 408 0 0 0 0 0
    0 0 0 0 0 0 0 0 0 0 0 0 0 0 0 0 0 0 0 0 0 0 0 0 0 0 0 0 0 0 0 0 0 0 0 0 0 0 0 0 0 0 0 0 0 0 0 0 0 0 0 0 0 0 0 0 0 0 0 0 0 0 0 0 0 0 0 0 0 418 420 420 425 420 422 420 420 420 422 418 420 418 422 422 425 427 430 427 427 425 425 422 415 422 420 420 420 418 422 425 422 425 425 425 422 425 427 422 422 425 427 425 425 430 427 430 422 425 413 420 420 415 415 411 413 411 413 411 411 411 413 413 420 418 425 427 430 432 435 435 418 425 427 425 415 422 415 418 420 425 420 418 420 425 420 427 427 425 427 427 430 427 425 425 427 425 425 415 418 418 418 418 418 418 418 418 420 422 422 420 422 418 420 420 408 415 415 418 418 413 418 415 418 425 418 420 418 420 422 422 425 422 422 425 418 425 422 425 415 413 420 420 420 422 420 420 420 425 425 418 422 415 418 415 413 418 418 411 415 418 418 418 418 420 418 415 425 425 422 422 422 422 425 420 425 422 420 420 420 418 422 418 425 418 420 418 418 415 413 413 408 408 406 406 406 408 408 408 408 406 404 408 411 413 408 408 411 411 413 420 413 413 411 415 413 413 411 408 408 408 406 411 408 413 411 413 415 415 415 415 415 413 413 413 408 408 399 406 406 406 404 406 406 408 406 0 0 0 0 0
    0 0 0 0 0 0 0 0 0 0 0 0 0 0 0 0 0 0 0 0 0 0 0 0 0 0 0 0 0 0 0 0 0 0 0 0 0 0 0 0 0 0 0 0 0 0 0 0 0 0 0 0 0 0 0 0 0 0 0 0 0 0 0 0 0 0 0 0 0 420 425 422 425 422 425 422 422 422 425 420 422 418 422 420 422 425 427 425 427 422 422 422 415 422 418 420 420 418 422 425 422 425 425 425 422 425 427 422 425 425 427 425 425 430 427 430 425 422 413 422 422 418 415 413 413 408 411 411 411 411 413 413 420 420 427 427 430 432 435 435 418 425 425 422 415 422 415 418 420 425 420 418 420 425 420 427 427 425 427 427 430 427 425 425 427 425 425 415 418 415 418 418 415 415 415 418 420 420 420 420 420 418 418 418 406 415 415 415 415 413 415 415 418 425 418 420 418 420 422 422 425 422 422 422 418 425 420 422 415 415 420 420 420 425 422 422 420 425 425 420 422 415 418 415 413 418 418 411 415 418 420 418 418 418 415 415 425 422 422 422 425 422 427 422 427 425 422 420 420 420 425 418 422 418 418 415 415 413 411 413 411 411 408 408 406 411 408 408 408 408 404 411 411 413 411 408 411 411 413 422 415 413 411 418 415 413 411 408 408 408 408 408 408 411 408 411 413 415 418 415 415 415 415 415 413 411 402 406 406 406 406 406 408 408 406 0 0 0 0 0
    0 0 0 0 0 0 0 0 0 0 0 0 0 0 0 0 0 0 0 0 0 0 0 0 0 0 0 0 0 0 0 0 0 0 0 0 0 0 0 0 0 0 0 0 0 0 0 0 0 0 0 0 0 0 0 0 0 0 0 0 0 0 0 0 0 0 0 0 0 425 425 425 425 425 425 422 422 422 425 422 425 422 425 422 425 425 427 427 427 425 422 422 418 425 420 422 420 418 425 425 425 425 425 427 425 427 427 422 425 427 430 425 425 427 427 430 425 425 415 422 422 420 415 411 413 408 411 408 411 408 413 413 420 420 427 430 430 432 435 435 415 422 425 420 413 422 413 418 420 425 420 420 420 425 420 430 427 425 427 430 430 425 425 425 425 425 422 415 415 415 415 415 415 415 415 415 420 420 420 420 420 420 418 418 406 413 415 415 415 411 415 415 418 422 420 420 418 420 422 422 425 422 420 420 415 422 418 420 413 413 420 420 420 425 422 422 422 427 427 420 425 418 418 415 413 418 418 411 415 418 418 418 415 418 415 415 425 422 420 422 422 422 427 425 430 425 422 422 422 422 425 420 422 415 415 415 411 411 408 411 408 408 406 408 406 411 408 408 408 408 404 411 411 415 411 411 413 413 415 425 420 418 415 420 420 418 413 408 411 406 408 408 408 411 406 413 413 415 415 415 418 418 418 418 413 411 402 408 408 406 406 406 408 408 408 0 0 0 0 0
    0 0 0 0 0 0 0 0 0 0 0 0 0 0 0 0 0 0 0 0 0 0 0 0 0 0 0 0 0 0 0 0 0 0 0 0 0 0 0 0 0 0 0 0 0 0 0 0 0 0 0 0 0 0 0 0 0 0 0 0 0 0 0 0 0 0 0 0 0 427 427 425 427 427 425 422 422 422 427 425 427 425 427 425 427 427 430 427 427 425 422 422 420 427 422 425 422 422 427 427 427 425 425 427 425 427 427 425 425 427 430 425 425 427 427 432 427 425 415 422 425 422 418 413 411 411 411 408 411 408 413 413 422 422 427 430 432 432 435 435 415 422 425 420 415 422 413 418 420 425 420 420 422 425 422 430 427 427 430 432 432 430 427 425 427 425 422 415 418 415 413 415 413 415 415 418 420 420 420 422 422 422 420 418 408 415 415 418 415 413 415 415 418 422 420 420 418 420 422 422 425 422 418 420 413 420 418 418 411 413 418 420 420 425 422 422 422 427 427 420 425 418 418 413 411 418 415 411 415 415 418 418 415 415 413 413 422 420 418 420 420 420 425 425 430 425 422 422 422 422 425 420 420 415 415 415 411 411 408 411 406 406 406 406 404 408 408 406 408 406 402 408 408 413 411 408 411 411 413 425 420 420 420 422 425 420 415 411 411 404 408 404 406 408 406 413 413 415 415 413 415 418 418 418 415 413 402 408 408 408 406 406 408 406 406 0 0 0 0 0
    0 0 0 0 0 0 0 0 0 0 0 0 0 0 0 0 0 0 0 0 0 0 0 0 0 0 0 0 0 0 0 0 0 0 0 0 0 0 0 0 0 0 0 0 0 0 0 0 0 0 0 0 0 0 0 0 0 0 0 0 0 0 0 0 0 0 0 0 0 427 427 427 427 427 425 422 422 425 427 427 430 427 427 427 427 427 430 430 430 425 420 422 0 430 425 427 425 422 427 427 427 425 427 427 425 427 427 422 427 430 430 425 425 0 430 432 427 422 408 413 420 425 420 413 411 0 408 406 408 408 413 0 0 0 0 0 0 435 435 435 413 422 425 420 415 422 415 418 420 425 420 422 422 425 422 430 430 430 432 432 432 432 427 427 427 425 422 418 418 415 413 415 413 415 415 418 420 420 420 425 422 425 420 415 408 415 418 418 415 413 415 415 420 422 420 420 418 422 425 425 425 425 418 420 413 420 418 418 413 413 418 420 420 425 425 422 422 427 427 420 425 415 415 411 411 415 415 408 413 415 415 415 413 415 413 413 420 418 415 418 418 420 425 425 427 425 422 420 420 422 422 420 420 415 415 418 413 413 411 413 408 406 406 406 404 408 408 406 408 406 404 408 408 415 411 408 413 411 413 425 420 422 422 425 425 422 420 418 422 411 415 408 411 415 408 418 413 418 415 413 418 418 415 418 415 413 402 408 408 408 406 408 408 406 408 0 0 0 0 0
    0 0 0 0 0 0 0 0 0 0 0 0 0 0 0 0 0 0 0 0 0 0 0 0 0 0 0 0 0 0 0 0 0 0 0 0 0 0 0 0 0 0 0 0 0 0 0 0 0 0 0 0 0 0 0 0 0 0 0 0 0 0 0 0 0 0 0 0 0 427 427 427 427 427 425 422 422 425 430 427 430 430 427 425 427 425 430 0 0 422 0 0 0 0 427 430 425 425 427 427 427 425 425 427 425 425 422 422 427 430 430 425 0 0 0 0 0 422 406 406 0 0 420 408 0 0 0 0 0 0 0 173 173 0 174 174 0 435 435 435 413 422 422 418 415 422 415 418 420 425 420 422 425 427 422 430 430 430 432 432 427 430 425 425 427 425 422 418 418 418 411 418 413 415 418 420 422 422 420 425 420 425 420 413 411 415 418 418 415 413 418 415 420 422 420 422 420 422 425 425 427 425 418 422 415 420 418 418 413 413 418 420 420 425 422 422 422 425 427 418 422 413 411 408 408 413 415 408 413 413 415 415 413 415 413 413 420 418 418 418 420 420 425 425 427 422 422 420 420 420 420 418 420 415 415 418 415 411 411 413 408 406 406 406 404 408 408 406 408 408 404 411 411 415 411 411 413 411 413 425 420 422 420 420 422 420 420 418 422 413 415 411 411 413 406 415 411 418 415 413 418 418 415 418 413 411 402 408 408 408 406 408 408 408 408 0 0 0 0 0
    0 0 0 0 0 0 0 0 0 0 0 0 0 0 0 0 0 0 0 0 0 0 0 0 0 0 0 0 0 0 0 0 0 0 0 0 0 0 0 0 0 0 0 0 0 0 0 0 0 0 0 0 0 0 0 0 0 0 0 0 0 0 0 0 0 0 0 0 0 427 427 425 427 427 425 422 422 422 427 427 430 427 425 0 0 0 0 0 0 0 0 0 0 0 0 430 425 425 430 430 427 425 425 427 425 425 422 422 0 430 0 427 425 0 435 435 0 420 402 402 0 0 420 0 0 0 0 0 0 0 0 173 173 173 174 174 0 0 435 432 413 420 422 418 415 422 415 418 420 425 420 422 425 427 425 430 430 430 432 432 427 427 425 425 430 425 420 420 420 420 411 418 415 415 418 420 422 422 420 425 418 422 418 411 411 413 415 415 413 415 418 415 420 422 420 422 420 422 425 422 425 422 418 422 415 420 418 418 413 415 420 422 420 425 422 422 422 425 425 418 422 411 411 411 411 415 415 411 415 415 415 415 413 415 413 413 420 418 418 420 420 422 425 425 425 422 420 420 420 420 420 420 420 418 418 418 415 411 411 411 406 404 406 406 404 408 408 406 408 408 406 411 411 415 411 408 413 411 413 425 422 425 422 422 422 420 425 422 427 415 415 408 408 408 404 411 408 413 413 413 415 418 415 415 413 411 402 408 408 408 406 408 408 408 408 0 0 0 0 0
    0 0 0 0 0 0 0 0 0 0 0 0 0 0 0 0 0 0 0 0 0 0 0 0 0 0 0 0 0 0 0 0 0 0 0 0 0 0 0 0 0 0 0 0 0 0 0 0 0 0 0 0 0 0 0 0 0 0 0 0 0 0 0 0 0 0 0 0 0 427 427 425 427 427 425 422 422 422 427 425 430 0 0 0 0 0 0 0 0 0 0 0 0 0 0 0 425 427 430 430 427 425 427 430 425 427 420 422 0 432 432 427 425 0 440 438 0 0 0 0 0 0 0 0 0 0 0 0 0 0 0 0 172 173 0 0 0 0 435 432 411 420 422 415 418 422 415 420 420 425 420 425 425 427 425 430 430 430 0 432 425 427 425 425 430 425 418 420 420 420 411 418 415 418 418 420 422 422 420 425 415 422 415 411 411 413 413 413 413 415 415 413 420 420 420 422 422 422 425 422 427 425 420 422 415 420 420 420 415 415 420 422 420 425 422 420 420 425 427 418 422 411 413 411 413 418 418 413 418 415 415 415 413 413 411 413 418 413 415 418 418 422 422 425 422 422 420 420 420 420 418 420 418 420 418 420 415 411 408 411 404 402 406 406 406 411 411 408 411 411 408 411 411 415 411 411 415 415 415 425 422 425 425 422 420 420 422 422 422 415 413 408 406 408 404 411 406 415 413 413 415 418 415 415 413 411 399 411 408 408 408 408 411 408 411 0 0 0 0 0
    0 0 0 0 0 0 0 0 0 0 0 0 0 0 0 0 0 0 0 0 0 0 0 0 0 0 0 0 0 0 0 0 0 0 0 0 0 0 0 0 0 0 0 0 0 0 0 0 0 0 0 0 0 0 0 0 0 0 0 0 0 0 0 0 0 0 0 0 0 0 430 425 427 425 422 422 422 0 0 0 0 0 0 0 0 0 0 0 0 0 0 0 176 0 0 0 0 0 0 0 430 425 427 430 427 427 420 420 0 432 0 425 422 0 0 0 0 0 0 0 0 0 0 0 0 0 0 0 0 0 0 0 171 0 0 0 0 0 0 427 408 415 418 413 415 422 415 420 420 422 418 425 0 427 425 430 432 432 0 435 427 430 427 430 438 427 418 422 422 422 408 418 413 418 418 420 422 422 420 425 415 422 415 411 413 413 413 413 413 415 415 413 420 418 418 422 422 425 425 422 427 425 422 425 418 420 420 420 415 415 420 422 420 425 422 420 420 422 425 415 420 411 418 418 420 422 420 418 420 418 418 413 413 411 411 411 413 411 413 415 415 422 422 425 422 422 420 420 420 420 418 420 418 420 418 422 418 413 411 413 406 404 406 408 406 413 413 408 411 411 411 413 411 413 411 413 418 420 420 425 427 427 430 427 422 420 420 422 425 420 415 408 406 411 406 411 406 415 413 415 418 418 415 415 413 408 399 408 408 408 408 408 408 408 408 0 0 0 0 0
    0 0 0 0 0 0 0 0 0 0 0 0 0 0 0 0 0 0 0 0 0 0 0 0 0 0 0 0 0 0 0 0 0 0 0 0 0 0 0 0 0 0 0 0 0 0 0 0 0 0 0 0 0 0 0 0 0 0 0 0 0 0 0 0 0 0 0 0 0 0 0 422 425 425 0 0 0 322 319 0 0 0 0 0 0 0 0 0 0 0 0 0 0 0 0 0 0 0 0 0 0 425 427 432 430 427 418 418 0 0 0 425 0 0 0 0 0 0 0 0 0 0 0 0 0 242 0 0 0 0 0 0 0 0 0 0 0 126 0 420 406 411 413 408 413 425 418 420 420 0 0 0 0 0 0 0 0 0 0 438 430 0 0 0 0 427 0 0 420 425 411 418 415 418 418 422 425 425 422 427 420 425 420 411 415 415 413 411 411 418 418 415 425 418 418 422 425 425 425 420 425 422 420 422 415 420 418 418 415 415 420 422 420 425 420 420 420 422 425 413 418 406 422 422 425 425 425 422 422 420 418 413 411 411 411 411 411 408 411 413 413 422 420 425 420 420 418 418 420 422 418 422 420 422 422 427 422 418 415 415 408 404 406 411 408 415 413 408 411 411 411 411 408 408 408 411 420 422 422 425 427 430 432 427 420 418 420 425 430 422 418 408 408 418 411 413 406 413 411 413 415 418 413 415 413 408 399 408 408 408 406 406 408 406 406 0 0 0 0 0
    0 0 0 0 0 0 0 0 0 0 0 0 0 0 0 0 0 0 0 0 0 0 0 0 0 0 0 0 0 0 0 0 0 0 0 0 0 0 0 0 0 0 0 0 0 0 0 0 0 0 0 0 0 0 0 0 0 0 0 0 0 0 0 0 0 0 0 0 0 0 0 0 0 0 0 319 321 322 319 318 317 0 0 0 0 0 0 0 0 0 0 0 0 0 0 0 0 0 0 0 0 0 427 430 427 420 411 0 0 440 0 0 0 0 0 0 0 0 0 0 0 0 0 0 0 243 0 0 0 0 0 0 0 0 0 0 126 126 0 0 402 406 406 404 406 420 418 420 420 0 0 0 0 0 0 0 0 0 0 0 0 0 0 0 0 430 0 0 0 0 413 420 418 420 420 425 430 430 430 430 427 430 425 411 418 418 413 411 411 420 422 420 0 422 418 427 430 427 422 418 422 420 418 425 415 420 418 418 413 415 420 422 420 422 420 418 418 422 422 0 0 0 0 420 422 422 420 425 422 420 415 411 411 408 408 408 408 406 408 413 413 422 420 425 420 420 418 415 418 420 415 420 418 422 422 430 425 420 418 418 411 404 408 0 408 418 415 408 411 411 413 413 408 408 408 408 420 420 420 422 422 425 427 422 415 411 413 422 427 420 411 406 411 425 411 413 408 415 415 420 420 418 415 418 415 408 399 408 408 406 404 404 406 404 404 0 0 0 0 0
    0 0 0 0 0 0 0 0 0 0 0 0 0 0 0 0 0 0 0 0 0 0 0 0 0 0 0 0 0 0 0 0 0 0 0 0 0 0 0 0 0 0 0 0 0 0 0 0 0 0 0 0 0 0 0 0 0 0 0 0 0 0 0 0 0 0 0 0 0 327 322 322 324 0 0 324 322 324 321 321 318 319 319 319 321 319 319 0 0 0 0 0 0 0 0 0 0 0 294 290 0 0 0 0 0 0 0 0 0 0 0 0 0 0 0 0 0 0 0 0 0 0 0 0 0 243 241 0 0 0 0 0 0 0 0 0 0 125 124 0 0 0 0 0 0 0 0 0 0 0 0 0 0 0 0 0 0 0 0 0 0 0 0 0 0 0 0 0 0 0 0 0 425 425 425 430 435 435 432 432 430 432 427 411 420 420 413 408 411 425 425 0 0 0 0 432 435 427 420 415 420 418 415 427 418 418 415 413 413 415 420 422 418 0 0 0 0 420 0 0 0 0 0 411 0 413 413 422 420 418 411 408 406 406 408 408 406 406 411 415 418 422 422 425 422 422 418 415 418 418 415 422 420 422 427 435 430 427 425 425 418 408 415 418 411 0 0 0 411 411 415 413 408 406 406 408 422 422 422 420 420 422 0 420 411 408 411 418 422 418 408 404 0 0 0 0 0 422 422 425 425 420 418 425 422 408 399 408 408 406 404 404 404 404 404 0 0 0 0 0
    0 0 0 0 0 0 0 0 0 0 0 0 0 0 0 0 0 0 0 0 0 0 0 0 0 0 0 0 0 0 0 0 0 0 0 0 0 0 0 0 0 0 0 0 0 0 0 0 0 0 0 0 0 0 0 0 0 0 0 0 0 0 0 0 0 0 0 0 0 327 322 322 325 324 327 325 324 324 322 322 319 322 322 322 322 322 322 324 327 334 331 0 328 0 0 0 0 0 0 0 0 330 331 328 0 336 333 333 334 334 319 0 337 328 0 0 0 0 0 0 0 0 0 0 0 0 0 0 0 0 0 0 0 0 0 0 0 0 0 337 337 337 336 334 333 334 0 0 0 0 0 139 0 0 0 0 0 0 0 0 0 0 0 0 0 0 0 0 0 0 0 0 0 0 432 435 440 440 435 435 430 430 427 408 420 420 411 0 0 0 0 0 0 0 0 0 438 427 413 406 413 413 411 0 0 0 0 0 0 0 420 420 413 0 93 0 0 0 0 0 0 134 0 0 0 406 404 420 422 415 406 404 402 402 406 406 402 399 408 415 420 427 422 425 422 422 418 413 415 0 0 0 420 0 0 0 440 440 435 435 432 425 430 425 0 0 0 0 0 411 418 415 411 408 408 415 430 432 432 425 425 0 0 0 408 406 411 413 420 415 406 0 0 0 0 0 0 0 430 430 427 422 422 430 427 411 399 408 408 406 404 404 404 402 402 0 0 0 0 0
    0 0 0 0 0 0 0 0 0 0 0 0 0 0 0 0 0 0 0 0 0 0 0 0 0 0 0 0 0 0 0 0 0 0 0 0 0 0 0 0 0 0 0 0 0 0 0 0 0 0 0 0 0 0 0 0 0 0 0 0 0 0 0 0 0 0 0 0 0 325 322 322 324 324 325 324 322 322 322 322 321 324 324 322 324 324 324 325 327 333 330 327 330 328 0 0 0 322 319 317 321 328 330 328 328 331 330 328 331 331 324 324 328 325 322 0 0 0 0 0 0 0 0 0 0 328 0 331 0 328 0 0 0 0 149 148 0 0 333 334 333 336 333 330 328 331 319 0 0 327 0 0 0 139 0 142 0 0 0 0 0 0 325 0 0 0 0 0 0 0 0 0 0 0 0 0 457 451 448 443 0 0 0 0 0 0 0 0 0 0 0 0 0 0 0 0 0 0 0 0 0 0 0 319 0 0 0 324 319 319 325 325 331 331 333 333 334 336 336 0 0 0 0 0 0 404 393 0 425 413 404 397 391 393 402 404 399 391 0 413 0 427 420 422 0 422 415 413 0 0 0 0 0 0 0 0 0 0 0 0 0 0 0 0 0 0 246 246 0 0 418 413 411 408 408 0 0 443 0 0 0 0 0 0 408 406 413 415 422 422 415 0 0 0 0 0 0 0 0 435 427 418 425 432 430 408 399 408 406 406 404 402 402 402 402 0 0 0 0 0
    0 0 0 0 0 0 0 0 0 0 0 0 0 0 0 0 0 0 0 0 0 0 0 0 0 0 0 0 0 0 0 0 0 0 0 0 0 0 0 0 0 0 0 0 0 0 0 0 0 0 0 0 0 0 0 0 0 0 0 0 0 0 0 0 0 0 0 0 0 327 324 325 327 325 325 324 324 322 324 324 321 324 324 324 324 324 324 325 327 333 327 325 328 328 325 325 324 324 319 318 322 325 328 327 327 328 328 328 331 331 327 325 327 325 324 321 0 0 0 0 0 0 0 324 328 325 328 331 331 328 327 324 322 325 327 327 325 330 330 331 331 334 331 328 328 331 319 321 321 325 325 324 0 0 0 0 0 0 321 0 0 0 0 0 0 0 0 0 0 0 0 0 0 0 0 0 0 0 471 0 0 321 321 327 0 0 0 160 158 156 0 0 0 0 0 331 330 330 331 334 334 331 331 322 318 318 322 325 319 319 325 324 330 330 330 330 331 333 333 333 339 340 0 0 0 0 377 0 0 406 399 393 379 0 0 0 395 375 0 0 0 0 0 314 304 0 411 0 0 0 0 0 0 0 0 333 0 0 0 0 0 319 0 0 0 0 0 246 246 0 0 411 0 406 0 0 0 0 0 0 0 0 0 0 408 0 413 418 0 0 0 0 0 0 0 0 0 0 0 435 422 406 0 432 430 406 399 408 406 406 404 402 402 402 399 0 0 0 0 0
    0 0 0 0 0 0 0 0 0 0 0 0 0 0 0 0 0 0 0 0 0 0 0 0 0 0 0 0 0 0 0 0 0 0 0 0 0 0 0 0 0 0 0 0 0 0 0 0 0 0 0 0 0 0 0 0 0 0 0 0 0 0 0 0 0 0 0 0 0 328 327 328 330 328 327 325 325 324 324 325 321 325 324 324 324 325 325 325 327 331 327 325 327 328 325 325 325 325 322 319 324 325 328 327 328 328 328 328 331 331 328 328 328 328 327 322 0 324 321 0 0 0 0 324 328 325 328 331 330 328 327 325 322 325 327 325 325 328 330 331 330 334 331 328 328 331 322 324 322 328 327 325 325 325 325 330 325 325 321 321 321 321 322 321 0 0 0 0 0 0 0 0 0 0 322 324 324 321 0 321 321 321 321 321 321 0 0 0 158 0 0 0 330 327 328 330 328 328 328 333 330 328 328 324 319 319 322 325 319 319 324 321 327 327 325 327 328 328 330 330 337 336 0 0 0 0 360 353 0 0 0 379 0 0 0 0 0 0 325 319 327 322 318 317 313 314 313 0 0 0 0 319 322 325 333 328 325 325 331 324 322 319 0 314 313 0 0 0 0 0 0 0 0 0 0 0 0 0 0 0 0 0 0 0 0 0 411 413 0 0 0 0 0 0 0 0 0 0 0 435 418 0 0 0 0 0 0 406 404 404 402 399 399 399 399 0 0 0 0 0
    0 0 0 0 0 0 0 0 0 0 0 0 0 0 0 0 0 0 0 0 0 0 0 0 0 0 0 0 0 0 0 0 0 0 0 0 0 0 0 0 0 0 0 0 0 0 0 0 0 0 0 0 0 0 0 0 0 0 0 0 0 0 0 0 0 0 0 0 0 331 330 330 330 330 328 327 325 324 325 327 322 325 325 325 325 325 327 327 327 331 327 325 328 328 327 327 328 327 324 321 327 327 330 328 328 330 328 328 331 331 330 330 331 330 328 0 0 327 322 324 322 324 325 325 330 325 328 331 330 328 327 325 322 325 327 325 325 328 328 330 330 333 330 328 327 330 324 324 322 328 327 325 325 325 327 328 325 325 321 321 321 321 322 321 319 324 0 325 325 325 324 322 324 324 324 324 324 322 321 321 321 319 319 319 318 0 0 0 0 0 0 330 330 325 327 328 328 327 327 331 328 327 327 324 321 319 322 324 319 319 321 319 325 324 324 325 325 325 327 327 336 333 334 0 0 345 339 337 333 333 334 334 333 331 327 328 328 330 322 319 322 321 318 318 317 317 318 319 321 319 319 321 325 322 327 325 324 322 327 324 322 322 322 318 317 318 0 0 314 314 313 313 313 314 0 0 0 0 0 0 0 0 0 0 0 0 0 0 0 0 0 0 0 0 0 0 0 0 0 0 0 0 0 0 324 0 331 333 0 0 0 393 393 397 395 0 0 0 0 0
    0 0 0 0 0 0 0 0 0 0 0 0 0 0 0 0 0 0 0 0 0 0 0 0 0 0 0 0 0 0 0 0 0 0 0 0 0 0 0 0 0 0 0 0 0 0 0 0 0 0 0 0 0 0 0 0 0 0 0 0 0 0 0 0 0 0 0 0 0 331 331 330 331 331 328 328 327 325 325 327 322 327 325 325 325 327 327 327 327 331 327 325 328 327 327 328 330 328 327 322 328 328 331 328 328 330 328 330 333 333 331 331 331 330 330 325 328 328 324 325 324 325 327 325 331 327 330 333 330 328 327 325 324 327 327 325 324 327 328 328 328 331 328 327 327 330 325 325 324 328 327 327 327 327 327 328 324 325 322 321 321 319 322 321 319 324 324 325 325 327 327 324 327 325 324 327 325 324 322 321 321 321 319 321 319 0 0 0 0 328 325 330 330 325 325 328 328 327 327 330 327 325 327 325 321 319 321 324 319 321 321 319 324 324 322 324 324 325 325 325 334 330 331 336 333 337 333 327 325 325 325 325 322 324 321 322 324 324 319 318 319 319 317 317 318 318 319 319 321 321 321 322 325 321 324 322 322 322 324 322 322 322 324 321 321 321 319 318 317 318 315 314 314 315 319 319 0 0 0 0 327 0 0 0 0 0 0 0 0 0 321 0 0 0 799 0 0 0 0 0 0 345 336 324 318 0 325 328 328 331 331 0 0 0 393 0 0 0 0 0
    0 0 0 0 0 0 0 0 0 0 0 0 0 0 0 0 0 0 0 0 0 0 0 0 0 0 0 0 0 0 0 0 0 0 0 0 0 0 0 0 0 0 0 0 0 0 0 0 0 0 0 0 0 0 0 0 0 0 0 0 0 0 0 0 0 0 0 0 0 331 331 330 331 330 328 328 327 325 325 327 322 327 325 325 325 327 327 327 327 331 327 327 328 327 328 330 330 330 327 324 328 328 331 328 328 330 330 330 333 331 331 331 333 331 330 325 328 328 327 327 325 327 328 327 333 328 331 333 330 328 328 327 324 327 327 325 324 327 328 328 328 331 328 328 328 331 327 327 325 328 327 328 328 328 328 328 325 327 324 322 321 321 322 322 321 324 325 325 327 328 330 327 328 327 325 328 327 325 324 322 322 321 319 322 319 321 324 327 328 327 325 330 328 325 325 325 327 327 325 328 325 324 325 324 322 319 321 322 319 322 321 319 324 324 322 324 324 325 324 325 333 328 330 334 330 334 328 325 324 324 324 322 321 322 321 321 322 322 319 318 318 318 315 317 319 319 321 321 321 321 322 322 325 321 322 322 322 322 324 322 322 322 324 322 322 322 321 321 319 319 317 315 315 315 317 318 318 319 319 324 325 327 325 324 324 327 325 324 321 321 319 0 0 0 0 0 0 0 0 0 0 334 330 322 318 318 324 327 325 327 325 328 334 334 0 0 0 0 0 0
    0 0 0 0 0 0 0 0 0 0 0 0 0 0 0 0 0 0 0 0 0 0 0 0 0 0 0 0 0 0 0 0 0 0 0 0 0 0 0 0 0 0 0 0 0 0 0 0 0 0 0 0 0 0 0 0 0 0 0 0 0 0 0 0 0 0 0 0 0 331 331 330 331 330 328 328 327 325 325 327 322 327 327 325 325 327 327 327 327 331 327 327 328 328 327 328 330 330 328 324 328 328 331 328 328 330 330 330 333 331 331 331 333 331 331 325 330 328 327 328 327 327 328 327 333 328 331 333 330 328 328 327 324 327 328 325 325 327 328 328 328 331 328 328 328 330 328 325 325 328 327 327 328 328 330 330 328 328 327 327 325 324 325 325 325 325 327 327 328 330 330 328 328 327 327 328 328 327 325 325 324 324 322 324 322 322 324 327 325 325 325 330 328 324 324 324 325 327 325 325 322 324 325 325 324 321 321 324 322 324 322 319 324 324 321 324 322 324 324 324 331 325 327 333 328 331 325 324 324 324 322 322 319 322 321 321 321 322 319 319 319 319 315 318 319 319 321 321 321 321 322 322 325 321 322 322 322 322 324 322 322 322 324 321 321 321 321 319 318 319 317 315 315 315 317 318 318 319 319 324 324 325 324 324 324 325 327 324 322 322 0 0 0 0 0 0 0 0 0 0 0 0 0 318 317 317 321 322 324 322 322 324 327 327 333 0 0 0 0 0
    0 0 0 0 0 0 0 0 0 0 0 0 0 0 0 0 0 0 0 0 0 0 0 0 0 0 0 0 0 0 0 0 0 0 0 0 0 0 0 0 0 0 0 0 0 0 0 0 0 0 0 0 0 0 0 0 0 0 0 0 0 0 0 0 0 0 0 0 0 333 333 331 331 330 330 330 328 327 325 328 324 327 327 327 327 327 328 328 327 331 325 327 328 327 327 328 330 330 327 325 328 327 331 328 328 330 330 330 333 331 331 331 331 331 331 325 330 328 328 328 328 327 328 327 331 327 330 331 328 327 327 325 324 327 327 325 325 327 328 328 328 331 328 328 328 330 328 325 325 328 327 325 327 328 328 328 327 328 327 328 325 325 327 328 328 328 328 328 328 330 0 328 327 327 327 328 328 327 327 327 325 325 322 325 322 324 325 327 324 325 325 330 328 322 322 324 324 325 324 325 322 324 327 328 325 324 324 325 324 327 322 319 324 324 321 322 322 324 322 324 330 325 327 333 327 331 325 324 324 325 324 322 319 324 321 322 322 322 321 319 321 321 317 318 321 321 321 321 321 321 324 324 325 321 322 322 324 324 322 321 321 321 322 319 319 319 319 319 318 318 318 318 318 317 318 319 319 319 321 322 324 324 324 324 324 327 325 325 322 324 321 321 318 318 318 318 319 317 0 314 318 0 0 314 313 314 319 321 322 322 322 322 325 325 331 0 0 0 0 0
    0 0 0 0 0 0 0 0 0 0 0 0 0 0 0 0 0 0 0 0 0 0 0 0 0 0 0 0 0 0 0 0 0 0 0 0 0 0 0 0 0 0 0 0 0 0 0 0 0 0 0 0 0 0 0 0 0 0 0 0 0 0 0 0 0 0 0 0 0 333 333 331 333 331 331 331 328 328 327 328 324 327 327 325 327 327 328 328 327 331 325 327 328 327 327 328 330 330 327 325 328 327 331 328 328 330 330 331 333 331 331 331 331 331 331 327 330 330 330 331 330 330 328 327 333 327 330 330 327 327 327 325 324 327 327 325 325 327 328 328 328 331 328 328 330 330 330 327 325 328 327 325 327 328 327 325 325 325 325 327 325 324 325 328 328 327 328 327 327 330 0 328 327 327 327 330 330 327 327 327 325 325 324 325 324 325 327 328 327 328 327 331 330 322 322 324 325 327 324 325 322 324 328 330 327 324 324 327 324 327 322 319 322 322 321 322 322 324 322 324 331 325 327 331 325 330 324 324 322 324 322 322 319 322 321 322 322 322 321 321 321 322 317 318 321 321 322 321 321 321 324 324 325 319 322 322 322 322 322 321 319 319 324 319 319 321 321 321 319 321 319 319 319 319 319 321 319 321 321 324 322 324 322 324 322 324 324 322 321 321 319 321 318 318 318 319 319 318 317 315 315 317 317 314 313 313 318 319 321 321 322 322 322 324 330 0 0 0 0 0
    0 0 0 0 0 0 0 0 0 0 0 0 0 0 0 0 0 0 0 0 0 0 0 0 0 0 0 0 0 0 0 0 0 0 0 0 0 0 0 0 0 0 0 0 0 0 0 0 0 0 0 0 0 0 0 0 0 0 0 0 0 0 0 0 0 0 0 0 0 333 334 333 333 331 331 331 330 330 327 328 324 327 327 327 327 327 328 328 327 331 325 327 328 327 328 328 330 330 327 325 328 327 331 328 330 330 330 331 333 331 331 331 331 331 331 327 331 330 331 333 331 331 330 328 334 330 331 331 328 327 327 325 324 327 327 324 324 325 328 328 327 330 327 327 330 328 330 327 325 330 327 325 325 328 325 324 324 324 324 325 324 324 324 325 327 325 325 324 324 0 0 328 328 328 328 331 330 330 328 328 325 327 324 327 325 325 327 327 325 327 327 331 328 322 322 324 325 327 324 324 322 324 328 330 327 324 324 325 324 327 322 319 322 322 321 322 322 324 322 324 331 325 327 331 325 328 324 324 322 324 322 322 319 322 321 322 322 322 321 321 321 322 318 318 321 321 322 322 321 321 322 322 325 319 321 321 321 322 322 321 319 321 325 321 321 322 322 322 321 322 319 319 321 321 321 322 321 322 322 324 322 324 322 322 322 322 322 321 321 321 319 319 318 317 318 319 318 317 315 315 315 315 317 314 314 314 318 319 321 321 321 321 321 322 327 0 0 0 0 0
    0 0 0 0 0 0 0 0 0 0 0 0 0 0 0 0 0 0 0 0 0 0 0 0 0 0 0 0 0 0 0 0 0 0 0 0 0 0 0 0 0 0 0 0 0 0 0 0 0 0 0 0 0 0 0 0 0 0 0 0 0 0 0 0 0 0 0 0 0 333 333 333 333 331 331 331 330 330 327 330 322 327 327 327 327 327 328 328 327 331 325 327 327 327 328 328 330 330 327 327 330 328 331 328 330 328 330 333 333 330 331 330 331 331 331 328 331 331 331 334 333 333 331 331 334 331 333 333 330 328 327 325 325 327 327 324 325 327 328 327 327 330 327 327 330 330 331 330 327 331 328 327 325 327 324 322 321 322 322 325 325 322 324 325 325 324 324 324 322 0 0 0 328 327 328 330 330 330 328 328 327 327 325 327 325 325 325 325 325 325 328 331 325 321 321 322 325 327 324 324 322 325 328 328 328 324 324 325 324 327 322 319 322 322 321 322 322 324 322 324 330 325 325 331 325 328 324 324 322 322 322 322 319 322 321 322 322 322 321 321 321 322 318 318 322 321 322 322 321 321 324 322 325 319 321 321 321 322 324 321 321 321 325 322 321 322 322 322 321 322 321 321 322 322 321 322 321 322 322 324 322 322 322 322 322 324 322 322 322 322 321 321 321 319 321 321 319 317 317 317 317 317 317 315 315 317 318 319 319 321 321 319 319 321 322 0 0 0 0 0
    0 0 0 0 0 0 0 0 0 0 0 0 0 0 0 0 0 0 0 0 0 0 0 0 0 0 0 0 0 0 0 0 0 0 0 0 0 0 0 0 0 0 0 0 0 0 0 0 0 0 0 0 0 0 0 0 0 0 0 0 0 0 0 0 0 0 0 0 0 331 331 331 331 330 331 331 328 330 325 328 322 327 327 327 327 327 328 328 327 331 324 327 325 325 328 328 330 328 327 328 330 328 331 330 330 330 331 333 333 330 330 330 331 331 331 328 331 331 333 334 334 334 333 331 334 333 333 333 330 328 328 327 325 328 327 324 325 327 328 328 327 330 327 328 331 331 331 330 328 331 330 327 325 327 324 321 319 321 321 324 325 322 324 324 0 325 325 324 322 0 0 0 328 327 327 330 330 330 330 328 328 327 325 330 327 328 328 327 327 327 330 334 327 321 322 322 325 327 322 322 322 324 328 328 328 322 322 325 324 327 324 321 324 322 321 324 322 324 322 324 330 324 325 330 325 328 322 324 324 322 322 322 319 324 321 324 322 322 321 321 321 324 319 319 324 324 325 324 322 321 324 324 325 319 322 322 322 322 324 322 321 321 325 322 321 322 322 322 321 322 322 319 321 321 319 321 321 321 322 322 322 322 321 322 322 322 322 321 321 321 321 321 321 319 321 321 321 318 317 317 317 317 318 315 315 317 318 318 319 319 321 319 319 319 321 0 0 0 0 0
    0 0 0 0 0 0 0 0 0 0 0 0 0 0 0 0 0 0 0 0 0 0 0 0 0 0 0 0 0 0 0 0 0 0 0 0 0 0 0 0 0 0 0 0 0 0 0 0 0 0 0 0 0 0 0 0 0 0 0 0 0 0 0 0 0 0 0 0 0 331 331 331 331 330 331 331 328 330 325 328 322 327 327 327 327 327 327 328 325 331 324 325 325 325 328 327 330 328 327 328 330 330 331 330 331 330 331 333 333 330 330 328 330 331 330 328 330 331 333 336 336 334 333 331 334 334 333 331 330 327 328 327 327 328 327 324 325 327 328 328 327 330 327 328 333 333 333 331 331 333 331 328 325 325 322 321 318 319 321 322 324 321 324 0 0 0 0 325 322 0 0 0 328 327 325 330 330 330 330 330 328 328 328 331 330 331 331 328 328 330 333 334 327 321 322 322 325 327 322 322 322 324 328 327 327 322 324 325 325 327 324 321 324 324 322 324 324 324 322 324 330 324 325 330 324 328 322 324 325 324 324 324 321 324 322 324 322 322 322 322 321 325 321 321 325 324 325 325 322 321 324 324 325 319 322 322 322 324 324 322 321 321 325 322 321 322 322 322 321 324 324 321 322 322 321 322 321 322 322 322 322 322 322 321 322 322 322 321 321 321 321 321 321 319 319 321 319 318 317 317 317 317 317 315 315 315 318 318 319 319 319 319 319 319 321 0 0 0 0 0
    0 0 0 0 0 0 0 0 0 0 0 0 0 0 0 0 0 0 0 0 0 0 0 0 0 0 0 0 0 0 0 0 0 0 0 0 0 0 0 0 0 0 0 0 0 0 0 0 0 0 0 0 0 0 0 0 0 0 0 0 0 0 0 0 0 0 0 0 0 330 330 331 330 330 330 331 328 328 325 328 322 328 327 327 327 327 328 328 327 331 324 327 325 325 328 327 330 328 328 328 330 330 331 330 331 330 331 333 331 328 328 328 328 330 328 328 330 331 333 334 336 334 333 333 334 334 333 331 330 328 328 327 327 328 328 324 327 328 330 328 328 330 328 330 334 333 333 331 331 333 333 328 325 0 0 318 317 317 318 321 322 319 0 0 0 0 0 0 0 0 0 0 327 325 325 328 330 330 330 330 328 330 330 331 330 331 330 330 330 330 333 334 327 321 322 322 325 327 322 322 324 324 328 327 328 324 324 327 325 328 325 321 325 324 322 324 324 325 324 325 331 325 325 331 324 328 322 325 325 325 325 325 322 325 324 325 324 322 322 324 322 328 324 321 325 324 327 325 322 321 324 324 324 319 322 322 322 324 324 322 321 321 324 321 321 322 322 322 321 324 324 322 324 324 321 322 322 322 324 324 324 322 322 322 322 322 321 319 319 321 319 319 319 318 318 319 318 317 314 315 315 315 315 315 314 315 318 318 318 319 319 318 318 318 319 0 0 0 0 0
    0 0 0 0 0 0 0 0 0 0 0 0 0 0 0 0 0 0 0 0 0 0 0 0 0 0 0 0 0 0 0 0 0 0 0 0 0 0 0 0 0 0 0 0 0 0 0 0 0 0 0 0 0 0 0 0 0 0 0 0 0 0 0 0 0 0 0 0 0 330 330 331 330 330 331 331 328 330 325 328 322 328 327 327 327 327 328 330 327 331 324 327 325 325 328 327 330 328 328 330 330 328 331 330 331 330 331 331 331 327 327 327 328 330 327 327 328 330 331 334 333 333 331 331 334 334 333 331 330 327 328 327 327 328 328 324 327 328 330 328 328 328 327 328 333 333 331 331 330 333 333 330 0 0 0 0 314 313 314 317 319 317 0 0 0 0 0 0 0 0 0 0 0 325 327 330 330 331 331 330 328 330 330 331 330 330 330 328 330 331 333 334 327 322 324 324 327 327 324 324 324 325 330 328 330 325 325 328 325 328 325 321 325 324 322 324 324 325 324 325 331 325 327 331 324 328 324 325 327 325 325 327 324 325 325 327 325 324 324 325 325 330 327 321 324 324 325 324 321 321 322 322 324 319 322 322 321 322 324 321 321 321 324 321 321 322 322 321 321 322 322 322 324 322 321 324 322 324 324 324 324 322 322 321 322 322 321 319 319 319 319 319 319 317 317 317 317 315 314 315 314 314 315 314 314 315 317 317 317 318 318 318 317 317 317 0 0 0 0 0
    0 0 0 0 0 0 0 0 0 0 0 0 0 0 0 0 0 0 0 0 0 0 0 0 0 0 0 0 0 0 0 0 0 0 0 0 0 0 0 0 0 0 0 0 0 0 0 0 0 0 0 0 0 0 0 0 0 0 0 0 0 0 0 0 0 0 0 0 0 330 328 331 330 330 331 331 328 330 325 328 322 328 327 327 328 327 327 328 327 331 324 327 325 325 328 327 330 328 328 330 330 328 331 330 331 330 331 331 330 327 327 327 327 328 327 327 328 330 331 334 333 333 330 331 333 334 331 330 328 325 327 327 325 327 327 324 325 327 328 328 327 328 327 327 333 331 331 331 330 331 333 331 0 721 0 0 311 310 311 314 318 315 0 0 0 202 0 0 0 0 0 0 0 325 327 330 331 331 331 330 328 328 328 330 327 330 328 328 330 331 333 333 327 322 325 325 327 327 324 325 325 327 331 328 330 325 325 328 325 328 324 321 325 324 324 325 325 325 324 327 331 325 327 331 325 328 324 325 327 325 325 327 324 327 327 328 325 325 325 327 325 331 330 321 324 324 325 325 321 321 322 322 324 319 322 322 321 322 324 321 321 321 324 321 321 322 322 322 321 322 322 322 324 322 322 324 322 324 325 325 324 321 322 321 322 322 319 319 318 319 318 318 318 315 315 317 315 315 315 317 315 315 317 315 314 317 318 317 317 317 318 317 317 317 317 0 0 0 0 0
    0 0 0 0 0 0 0 0 0 0 0 0 0 0 0 0 0 0 0 0 0 0 0 0 0 0 0 0 0 0 0 0 0 0 0 0 0 0 0 0 0 0 0 0 0 0 0 0 0 0 0 0 0 0 0 0 0 0 0 0 0 0 0 0 0 0 0 0 0 330 328 331 330 330 331 331 330 330 325 328 322 328 327 328 328 327 327 328 327 331 324 327 325 325 328 327 330 328 328 330 330 330 331 330 331 330 331 331 330 327 325 327 327 328 327 327 328 330 331 333 331 333 330 331 333 334 331 330 328 325 325 327 325 327 327 324 325 327 328 328 327 328 327 327 333 331 331 331 331 331 334 333 0 0 0 0 0 310 311 318 322 319 0 0 0 203 0 0 0 0 0 325 327 327 327 330 331 331 331 328 328 328 328 328 327 328 327 328 331 331 331 333 325 324 325 327 327 327 324 325 325 328 330 327 330 324 325 328 324 327 324 322 325 324 324 325 325 327 325 327 331 325 327 330 325 327 325 327 328 325 327 325 324 325 325 327 325 325 325 325 325 330 328 321 324 324 325 325 321 321 322 322 322 319 321 322 321 324 324 322 321 322 325 322 322 324 324 322 322 324 324 324 324 322 322 324 322 324 324 324 324 321 322 321 322 322 319 319 318 319 318 318 318 317 317 317 315 315 315 317 317 317 318 317 315 317 318 317 317 317 317 317 317 317 315 0 0 0 0 0
    0 0 0 0 0 0 0 0 0 0 0 0 0 0 0 0 0 0 0 0 0 0 0 0 0 0 0 0 0 0 0 0 0 0 0 0 0 0 0 0 0 0 0 0 0 0 0 0 0 0 0 0 0 0 0 0 0 0 0 0 0 0 0 0 0 0 0 0 0 330 327 331 328 328 330 331 330 330 325 330 322 328 327 328 328 327 327 328 327 331 324 327 325 325 328 327 330 328 328 331 331 330 331 330 333 330 331 331 330 327 327 327 327 328 327 327 328 330 330 333 331 331 330 331 333 334 333 331 328 327 325 327 325 328 328 324 327 328 330 330 328 330 327 328 333 331 331 331 331 333 334 334 0 0 0 0 0 311 313 318 322 321 0 0 0 0 0 0 0 0 0 325 328 327 327 328 330 331 331 328 328 327 328 328 327 327 325 327 331 330 330 331 322 324 325 327 327 327 324 325 325 328 330 325 328 324 325 328 325 328 324 322 327 324 324 325 325 327 324 327 331 324 325 330 325 327 325 327 328 327 327 325 325 325 325 327 325 324 325 325 325 328 328 321 322 324 325 325 321 321 321 321 322 319 321 322 321 324 324 322 322 322 325 324 324 324 324 324 322 325 325 325 325 322 322 324 324 324 324 322 322 319 322 321 322 322 319 319 319 319 319 319 319 317 317 318 317 317 317 318 317 318 318 318 317 317 317 317 315 317 317 315 315 315 315 0 0 0 0 0
    0 0 0 0 0 0 0 0 0 0 0 0 0 0 0 0 0 0 0 0 0 0 0 0 0 0 0 0 0 0 0 0 0 0 0 0 0 0 0 0 0 0 0 0 0 0 0 0 0 0 0 0 0 0 0 0 0 0 0 0 0 0 0 0 0 0 0 0 0 331 328 331 330 330 330 331 330 330 325 330 322 328 327 328 328 327 327 328 327 331 324 327 325 325 328 327 330 328 330 331 331 330 331 331 333 331 331 330 330 327 327 328 327 330 327 327 328 328 330 331 330 331 330 330 331 333 333 330 328 327 325 327 327 328 328 325 327 330 330 331 330 330 327 328 333 331 331 331 331 333 334 334 328 0 0 0 0 309 310 0 321 321 328 0 0 0 0 0 0 0 0 327 330 328 327 328 330 331 331 328 328 327 328 328 328 328 325 327 330 328 328 330 321 322 325 325 327 327 324 325 325 328 330 325 327 325 325 328 325 328 324 322 327 325 325 327 327 327 324 327 330 324 325 328 324 325 325 325 328 327 327 327 325 325 327 328 327 325 325 327 325 330 331 322 324 324 325 325 321 321 321 321 322 319 321 321 321 322 324 322 322 322 325 324 324 325 324 324 322 325 327 325 325 322 324 324 322 322 322 321 321 319 322 321 322 324 321 321 321 321 321 319 319 318 318 319 317 318 317 319 318 318 319 318 317 317 317 317 315 317 317 315 315 315 315 0 0 0 0 0
    0 0 0 0 0 0 0 0 0 0 0 0 0 0 0 0 0 0 0 0 0 0 0 0 0 0 0 0 0 0 0 0 0 0 0 0 0 0 0 0 0 0 0 0 0 0 0 0 0 0 0 0 0 0 0 0 0 0 0 0 0 0 0 0 0 0 0 0 0 333 330 333 331 330 330 331 330 330 325 330 324 328 327 328 328 328 327 328 328 331 324 327 325 327 328 327 330 328 331 333 333 331 333 331 333 331 333 330 330 327 327 327 327 328 327 327 327 328 330 331 330 331 330 331 331 333 331 330 328 327 325 327 327 328 328 325 327 330 330 331 330 330 328 328 331 331 330 328 328 331 333 333 325 0 0 0 0 310 314 321 321 324 328 0 0 0 0 0 0 0 324 325 330 328 328 328 331 331 333 330 328 328 328 330 328 328 327 327 330 328 328 328 321 322 325 325 327 325 325 325 325 330 331 327 328 327 328 330 325 328 324 324 327 325 325 327 327 327 325 328 330 324 325 327 324 325 325 325 328 327 327 327 327 325 327 328 328 327 327 327 327 330 331 324 325 325 325 325 321 322 321 321 322 319 321 321 321 322 324 322 322 322 325 325 325 327 324 324 324 325 327 327 327 322 324 324 322 324 324 321 322 321 325 322 324 325 319 319 319 319 319 318 318 317 317 318 315 317 317 318 318 318 318 318 317 318 318 317 315 315 317 317 317 317 315 0 0 0 0 0
    0 0 0 0 0 0 0 0 0 0 0 0 0 0 0 0 0 0 0 0 0 0 0 0 0 0 0 0 0 0 0 0 0 0 0 0 0 0 0 0 0 0 0 0 0 0 0 0 0 0 0 0 0 0 0 0 0 0 0 0 0 0 0 0 0 0 0 0 0 333 331 333 331 331 330 331 330 331 327 330 324 330 328 330 328 328 328 330 328 331 325 328 327 327 328 327 328 328 330 331 331 330 333 331 333 331 333 330 330 327 327 325 325 325 325 325 325 327 328 330 328 330 330 330 331 333 331 330 327 327 325 325 327 328 328 325 328 330 330 331 330 330 328 328 331 330 328 327 327 330 331 331 324 330 322 0 318 313 0 324 322 328 328 327 330 330 0 0 0 0 325 327 328 328 328 328 331 330 331 330 328 328 328 328 330 328 327 327 330 327 327 325 319 322 325 325 325 325 325 325 327 331 331 328 330 330 331 330 325 328 322 322 327 325 325 327 327 328 325 328 331 324 325 328 324 325 325 324 327 327 327 327 327 325 327 328 328 327 327 327 327 330 331 324 325 325 325 325 322 322 321 321 322 319 319 321 321 322 322 322 322 322 324 325 325 327 324 324 324 325 327 327 327 324 324 325 324 325 325 322 324 322 328 327 327 328 319 319 319 319 318 318 317 317 315 317 314 315 314 317 315 317 317 318 317 318 318 317 315 315 317 317 315 317 315 0 0 0 0 0
    0 0 0 0 0 0 0 0 0 0 0 0 0 0 0 0 0 0 0 0 0 0 0 0 0 0 0 0 0 0 0 0 0 0 0 0 0 0 0 0 0 0 0 0 0 0 0 0 0 0 0 0 0 0 0 0 0 0 0 0 0 0 0 0 0 0 0 0 0 331 331 333 331 331 330 331 331 333 328 331 325 330 330 330 328 328 328 330 330 331 327 328 327 327 328 327 327 327 328 330 330 330 333 331 333 333 333 331 331 328 328 325 325 324 325 325 325 325 327 328 327 328 328 330 330 330 330 330 327 328 325 325 327 328 328 327 327 330 330 331 330 330 328 328 331 330 330 327 327 330 330 331 327 330 327 321 322 318 322 328 324 330 328 328 330 328 328 327 325 0 325 327 328 328 327 327 330 328 330 327 327 327 327 327 330 328 328 328 330 328 328 328 319 324 325 327 327 325 325 327 327 333 333 330 330 330 331 330 325 327 322 322 327 325 325 327 327 327 325 328 330 324 325 327 324 324 327 324 327 327 327 325 325 325 327 327 328 327 327 325 327 328 330 324 325 325 325 325 322 322 321 322 322 319 321 321 321 322 322 322 322 322 325 325 325 328 324 324 324 324 325 325 325 322 322 324 322 324 324 322 324 322 327 328 328 330 321 321 321 321 319 318 318 317 315 317 315 315 315 318 317 317 317 317 317 318 317 315 315 315 315 315 315 315 315 0 0 0 0 0
    0 0 0 0 0 0 0 0 0 0 0 0 0 0 0 0 0 0 0 0 0 0 0 0 0 0 0 0 0 0 0 0 0 0 0 0 0 0 0 0 0 0 0 0 0 0 0 0 0 0 0 0 0 0 0 0 0 0 0 0 0 0 0 0 0 0 0 0 0 331 330 333 333 331 330 333 333 334 328 333 325 330 328 330 328 328 328 330 328 331 325 328 325 325 327 325 324 327 327 328 328 328 331 333 334 333 333 331 331 331 330 327 327 324 325 325 325 325 327 328 327 328 328 328 328 328 328 328 325 327 324 325 327 328 328 327 327 330 330 331 330 330 328 328 330 328 328 325 325 330 327 328 324 325 324 321 322 318 322 328 325 330 328 328 330 328 328 325 325 324 324 325 325 325 325 324 328 325 328 327 327 327 325 327 331 328 330 330 331 328 328 330 319 324 325 327 327 327 327 327 327 333 333 330 330 330 331 328 325 327 322 322 325 325 325 325 327 325 325 328 328 324 325 325 324 324 327 324 327 327 325 325 325 325 327 325 327 325 325 324 325 327 328 324 325 327 325 325 324 324 322 322 324 321 321 322 322 324 324 324 324 324 327 328 328 330 324 322 324 324 324 324 324 321 321 324 322 324 322 321 322 321 325 327 328 330 321 322 321 321 321 319 319 318 318 319 315 317 318 319 318 318 318 318 317 318 317 315 315 315 315 315 315 317 315 0 0 0 0 0
    0 0 0 0 0 0 0 0 0 0 0 0 0 0 0 0 0 0 0 0 0 0 0 0 0 0 0 0 0 0 0 0 0 0 0 0 0 0 0 0 0 0 0 0 0 0 0 0 0 0 0 0 0 0 0 0 0 0 0 0 0 0 0 0 0 0 0 0 0 331 331 333 333 333 331 334 333 334 328 333 325 330 328 330 328 328 327 330 328 331 325 328 324 325 325 0 0 325 325 328 328 330 333 333 334 334 333 333 333 331 331 327 327 324 325 327 325 325 327 328 328 328 328 328 328 328 327 328 327 327 322 325 327 328 328 327 327 328 330 331 330 330 328 328 330 328 328 325 325 328 324 327 321 321 321 0 321 318 0 330 325 330 330 330 330 330 330 327 324 322 322 324 324 324 322 321 324 322 325 324 325 325 324 327 331 330 330 330 330 328 330 330 319 324 327 327 327 328 327 328 328 334 333 330 328 328 330 328 325 327 322 324 325 325 325 327 327 325 325 328 328 324 325 325 324 324 327 324 327 327 327 325 325 325 327 325 327 325 325 324 325 327 328 325 327 327 325 325 324 325 322 324 324 321 322 324 322 325 325 325 325 325 328 331 331 333 327 327 325 325 327 327 327 324 322 324 321 322 322 319 321 321 324 327 328 331 322 324 322 322 322 321 319 319 319 322 318 321 322 322 319 321 319 318 317 318 318 317 317 317 317 317 317 318 318 0 0 0 0 0
    0 0 0 0 0 0 0 0 0 0 0 0 0 0 0 0 0 0 0 0 0 0 0 0 0 0 0 0 0 0 0 0 0 0 0 0 0 0 0 0 0 0 0 0 0 0 0 0 0 0 0 0 0 0 0 0 0 0 0 0 0 0 0 0 0 0 0 0 0 331 333 334 334 333 331 334 333 334 330 333 325 330 328 330 328 327 327 330 328 331 325 327 322 324 0 0 0 0 0 327 327 330 333 334 334 334 333 333 333 333 331 327 327 324 325 327 325 327 327 327 327 328 328 330 328 328 327 330 328 328 324 325 327 328 328 327 327 328 331 333 330 330 328 330 331 330 330 324 325 330 321 325 319 319 0 0 0 0 0 328 325 330 328 328 330 328 330 327 325 322 321 322 322 322 321 319 322 321 324 322 324 324 324 327 331 330 331 330 330 331 333 331 319 324 325 327 328 328 327 327 328 333 331 328 327 327 327 327 324 325 322 322 325 324 324 325 327 325 325 328 328 325 327 325 325 324 328 324 327 327 327 325 327 325 327 325 328 325 325 322 325 327 327 327 327 327 325 324 324 325 322 322 324 322 322 324 324 327 325 327 328 327 331 333 333 334 331 330 327 328 328 328 330 324 324 324 321 322 321 319 319 321 324 327 328 333 324 327 324 324 322 322 321 321 319 322 319 322 324 324 322 324 321 319 318 319 318 318 318 318 318 318 318 319 319 0 0 0 0 0
    0 0 0 0 0 0 0 0 0 0 0 0 0 0 0 0 0 0 0 0 0 0 0 0 0 0 0 0 0 0 0 0 0 0 0 0 0 0 0 0 0 0 0 0 0 0 0 0 0 0 0 0 0 0 0 0 0 0 0 0 0 0 0 0 0 0 0 0 0 331 333 334 334 333 330 334 333 334 330 333 325 328 328 330 327 327 327 330 328 331 325 325 321 322 0 0 0 0 0 0 0 331 333 334 336 336 333 334 334 333 331 327 327 324 325 327 325 327 327 327 327 328 330 330 328 328 327 331 330 330 324 325 328 328 330 328 327 328 331 333 330 330 328 330 331 331 330 325 325 331 322 327 0 319 0 0 0 0 0 0 322 327 325 325 327 327 328 328 325 322 321 322 322 322 319 319 321 321 322 322 322 322 324 327 331 330 331 330 330 331 334 334 319 325 325 327 330 330 327 327 328 333 330 328 325 324 324 324 322 322 321 321 322 322 322 324 325 324 325 330 330 327 328 328 328 325 330 322 325 325 327 325 325 325 327 325 328 325 325 322 325 327 328 328 328 328 327 325 324 327 324 322 324 321 322 322 324 325 324 327 328 327 330 331 333 334 331 328 327 327 327 328 328 325 324 324 322 324 322 321 321 322 327 330 330 333 324 327 325 325 324 322 321 321 319 322 319 322 324 324 324 327 324 322 321 322 319 319 319 318 318 319 319 319 319 0 0 0 0 0</data></depth>
</opencv_storage>
