<?xml version="1.0"?>
<opencv_storage>
<gps_time_stamp>35191</gps_time_stamp>
<gps_x>-1.2090001106262207e+001</gps_x>
<gps_y>1.1449372768402100e+000</gps_y>
<gps_z>-3.0669248104095459e+000</gps_z>
<image_time_stamp>23167</image_time_stamp>
<depth type_id="opencv-matrix">
  <rows>85</rows>
  <cols>320</cols>
  <dt>s</dt>
  <data>
    0 0 0 0 0 0 0 0 0 0 0 0 0 0 0 0 0 0 0 0 0 0 0 0 0 0 0 0 0 0 0 0 0 0 0 0 0 0 0 0 0 0 0 0 0 0 0 0 0 0 0 0 0 0 0 0 0 0 0 0 0 0 0 0 0 0 0 0 0 0 0 0 8177 0 8177 0 0 0 0 0 0 0 0 0 0 0 0 0 0 0 0 0 0 0 0 0 0 0 0 0 0 6690 0 0 0 7359 7359 7359 7359 8177 0 0 8177 0 0 0 0 0 0 8177 8177 0 0 8177 8177 8177 7359 6690 0 0 6690 7359 7359 7359 7359 8177 0 0 8177 0 0 0 0 0 0 0 7359 0 8177 0 8177 0 8177 8177 7359 8177 6690 6133 6690 6690 6690 7359 7359 7359 7359 8177 0 8177 8177 8177 0 0 0 4599 6133 5661 6133 6133 6690 7359 7359 6690 0 0 0 0 0 8177 8177 8177 8177 0 0 0 0 0 0 0 0 5661 6133 6133 6133 5661 5256 4329 5256 5256 6690 6133 5661 5661 5661 5661 5661 4906 6690 5256 5256 5661 5661 5661 5256 5256 5256 4088 5256 5256 4599 4599 4599 4599 4599 4329 5256 4088 4088 3873 4329 4599 4329 3679 4329 4329 4088 4088 4599 4088 4088 4088 4599 3873 3679 3873 3873 3679 3679 3504 3504 3504 3199 3345 3345 3199 3066 3199 3199 3066 3066 3199 3066 2943 2943 3066 3066 2943 2830 2943 2943 2628 2628 2299 2299 2374 2299 2102 1989 1887 1839 1887 1795 1795 1672 1711 1711 1711 1752 1752 1711 1752 1672 1752 1711 1599 1501 1533 1443 1533 1501 1533 1501 1501 1533 1565 1533 0 0 0 0 0
    0 0 0 0 0 0 0 0 0 0 0 0 0 0 0 0 0 0 0 0 0 0 0 0 0 0 0 0 0 0 0 0 0 0 0 0 0 0 0 0 0 0 0 0 0 0 0 0 0 0 0 0 0 0 0 0 0 0 0 0 0 0 0 0 0 0 0 0 0 0 0 0 8177 8177 8177 8177 0 8177 0 0 0 0 0 0 0 0 0 0 0 0 0 0 0 0 0 0 0 0 0 0 8177 6133 8177 0 8177 6690 7359 7359 7359 7359 0 0 8177 0 0 0 0 0 0 7359 8177 0 0 8177 8177 8177 7359 7359 0 0 7359 7359 8177 8177 0 0 0 0 0 0 0 0 0 0 0 0 7359 0 7359 8177 5256 8177 6690 7359 6690 7359 6690 6690 7359 6690 6690 7359 7359 7359 7359 8177 0 8177 8177 8177 0 0 0 4906 6133 6133 6133 6133 7359 7359 7359 6690 0 0 0 0 0 7359 8177 8177 8177 0 0 0 0 0 0 0 0 5256 6133 6133 6133 5661 5661 4329 5256 5256 6690 5661 5661 5256 5661 5661 5256 4329 6133 4906 5256 5256 5661 5256 5256 5256 5256 4088 5256 5256 4599 4599 4599 4599 4599 4599 5661 4088 3873 4088 4599 4599 4599 3873 4329 4599 4329 4329 4906 4088 4088 4088 4599 3873 3679 3873 3873 3679 3679 3504 3504 3504 3345 3345 3345 3199 3199 3199 3199 3066 3066 3066 2943 2943 2943 3066 2943 2830 2725 2725 2725 2374 2230 2102 2102 2164 2164 1989 1936 1887 1839 1887 1795 1752 1672 1672 1711 1711 1711 1752 1711 1752 1711 1752 1711 1635 1565 1565 1443 1533 1501 1533 1501 1501 1533 1565 1533 0 0 0 0 0
    0 0 0 0 0 0 0 0 0 0 0 0 0 0 0 0 0 0 0 0 0 0 0 0 0 0 0 0 0 0 0 0 0 0 0 0 0 0 0 0 0 0 0 0 0 0 0 0 0 0 0 0 0 0 0 0 0 0 0 0 0 0 0 0 0 0 0 0 0 0 0 0 0 0 8177 0 0 0 0 0 0 0 0 0 0 0 0 0 0 0 0 0 0 0 0 0 0 0 0 0 8177 6133 8177 8177 7359 6690 6690 7359 7359 7359 0 0 7359 0 0 0 0 0 0 7359 0 0 0 8177 7359 7359 8177 8177 0 8177 6690 7359 8177 0 0 0 0 0 0 0 0 0 0 0 0 0 7359 0 6690 7359 4329 7359 5661 6690 6690 7359 6690 6690 7359 7359 7359 8177 7359 8177 8177 8177 0 8177 8177 8177 0 0 0 4906 6133 6133 6690 6133 7359 7359 7359 6690 0 0 0 0 0 8177 8177 7359 8177 0 0 0 0 0 0 0 0 4906 6133 6133 6133 5661 5661 4329 5256 5256 6690 6133 5661 5256 5661 5256 5661 4088 6133 4906 5256 5661 5256 5256 5256 5256 5661 4088 5256 5256 4599 4906 4599 4599 4906 4599 5661 4088 3873 4088 4599 4599 4906 3873 4329 4599 4329 4329 4599 4088 4088 4088 4599 3873 3679 3873 3679 3679 3504 3345 3504 3679 3504 3504 3345 3345 3345 3199 3345 3066 3066 3066 3066 2943 2943 2943 2943 2725 2628 2628 2628 2230 2102 1989 2044 2044 2044 1936 1887 1839 1839 1839 1795 1752 1672 1711 1711 1752 1752 1752 1752 1795 1711 1795 1752 1711 1635 1635 1501 1565 1533 1533 1533 1533 1533 1565 1533 0 0 0 0 0
    0 0 0 0 0 0 0 0 0 0 0 0 0 0 0 0 0 0 0 0 0 0 0 0 0 0 0 0 0 0 0 0 0 0 0 0 0 0 0 0 0 0 0 0 0 0 0 0 0 0 0 0 0 0 0 0 0 0 0 0 0 0 0 0 0 0 0 0 0 0 0 0 0 0 8177 0 0 0 0 0 0 0 0 0 0 0 0 0 0 0 0 0 0 0 0 0 0 0 0 0 8177 6133 7359 8177 7359 6133 6690 7359 6690 6690 0 8177 7359 0 0 0 0 0 0 7359 0 0 0 8177 7359 7359 0 0 0 8177 6690 7359 7359 8177 0 0 0 0 0 0 0 0 0 0 0 0 8177 0 6690 8177 4599 8177 6690 7359 7359 8177 7359 7359 8177 7359 7359 8177 8177 7359 7359 8177 8177 7359 8177 8177 0 0 0 0 6133 6133 6690 6690 7359 8177 7359 6690 0 0 0 0 0 8177 7359 7359 8177 0 0 0 0 0 0 0 0 4906 6133 6133 6133 5661 5661 4329 5256 5256 6690 5661 5256 5256 5661 5661 5661 3873 5661 4906 5256 5661 5256 5256 5256 5256 5661 4088 5256 4906 4906 4906 4599 4599 4906 4329 5661 4088 3873 4088 4329 4599 4599 3873 4329 4599 4329 4329 4599 3873 4088 4088 4329 3873 3679 3679 3679 3504 3504 3199 3345 3504 3345 3345 3345 3345 3199 3199 3504 3199 3066 3066 3066 2943 2943 2943 2943 2628 2628 2628 2537 2164 2044 1936 1989 2044 1989 1936 1887 1887 1839 1887 1839 1795 1752 1752 1795 1795 1839 1795 1795 1795 1752 1795 1795 1711 1672 1635 1533 1635 1565 1565 1565 1565 1565 1565 1565 0 0 0 0 0
    0 0 0 0 0 0 0 0 0 0 0 0 0 0 0 0 0 0 0 0 0 0 0 0 0 0 0 0 0 0 0 0 0 0 0 0 0 0 0 0 0 0 0 0 0 0 0 0 0 0 0 0 0 0 0 0 0 0 0 0 0 0 0 0 0 0 0 0 0 0 0 0 8177 0 8177 0 0 0 0 0 0 0 0 0 0 0 0 0 0 0 0 0 0 0 0 0 0 0 0 0 8177 6690 7359 8177 7359 6133 6133 6690 6690 6690 8177 8177 6690 0 0 0 0 8177 0 7359 0 0 0 8177 7359 7359 0 0 0 8177 6690 6690 7359 8177 0 0 0 0 0 0 0 0 0 0 0 0 7359 0 6133 7359 4088 8177 7359 8177 0 0 0 8177 0 8177 8177 8177 8177 7359 7359 8177 7359 6690 7359 7359 0 0 0 4906 6133 6133 6690 6690 0 8177 7359 6133 0 0 0 8177 0 8177 8177 8177 8177 0 0 0 0 0 0 0 0 5256 6133 6133 6133 6133 5661 4088 5256 5256 6690 6133 5256 5661 5661 5661 6133 4329 6133 5256 5661 5661 5256 5256 5256 5256 5661 4329 5256 4906 4906 4906 5256 4906 4906 4329 5661 4088 3873 3873 4329 4329 4329 4088 4329 4599 4329 4329 4599 3873 3873 4088 4329 3873 3679 3679 3504 3504 3504 3066 3345 3345 3199 3199 3199 3199 3199 3199 3504 3199 3066 3066 3066 2943 2943 2943 2830 2628 2628 2537 2453 2164 1989 1887 1936 1989 1887 1887 1839 1839 1839 1839 1887 1839 1839 1839 1839 1839 1887 1887 1839 1839 1795 1795 1795 1752 1711 1672 1599 1672 1599 1599 1599 1599 1565 1565 1599 0 0 0 0 0
    0 0 0 0 0 0 0 0 0 0 0 0 0 0 0 0 0 0 0 0 0 0 0 0 0 0 0 0 0 0 0 0 0 0 0 0 0 0 0 0 0 0 0 0 0 0 0 0 0 0 0 0 0 0 0 0 0 0 0 0 0 0 0 0 0 0 0 0 0 0 0 0 8177 0 8177 8177 0 0 0 0 0 0 0 0 0 0 0 0 0 0 0 0 0 0 0 0 0 0 0 0 0 7359 8177 8177 8177 5661 6133 6690 6690 6133 8177 8177 6690 0 0 0 0 8177 8177 6690 0 0 8177 8177 7359 7359 0 0 0 0 6690 7359 8177 0 0 0 0 0 0 0 0 0 0 0 0 0 0 0 6690 7359 3873 7359 6690 8177 0 0 0 0 0 8177 8177 8177 8177 7359 7359 8177 7359 6133 7359 6690 4906 0 0 4906 6133 6133 0 0 0 0 7359 6133 0 0 0 0 0 0 0 0 0 0 0 0 0 0 0 0 0 5661 6690 6133 6690 6133 6133 4088 5661 5661 6690 6133 5256 5661 5661 5661 6133 4599 6133 5661 5661 5661 5256 4906 4906 5256 5661 4329 5256 4906 5256 5256 5256 5256 4906 4599 6133 4599 3873 3873 4329 4329 4599 4088 4329 4599 4329 4599 4599 4088 4088 4088 4599 3873 3679 3873 3504 3679 3504 3066 3345 3345 3199 3199 3199 3199 3199 3199 3504 3066 2943 2943 3066 2943 2943 2943 2830 2537 2537 2537 2374 2164 1936 1887 1887 1936 1887 1839 1839 1839 1839 1887 1887 1887 1887 1887 1887 1887 1936 1936 1887 1887 1839 1839 1839 1795 1752 1672 1635 1672 1635 1599 1599 1599 1599 1599 1599 0 0 0 0 0
    0 0 0 0 0 0 0 0 0 0 0 0 0 0 0 0 0 0 0 0 0 0 0 0 0 0 0 0 0 0 0 0 0 0 0 0 0 0 0 0 0 0 0 0 0 0 0 0 0 0 0 0 0 0 0 0 0 0 0 0 0 0 0 0 0 0 0 0 0 0 8177 8177 8177 8177 8177 8177 8177 0 0 0 0 0 0 0 0 0 0 0 0 0 0 0 0 0 0 0 0 0 0 0 0 8177 0 0 8177 6133 6133 6690 6690 6133 8177 8177 6133 8177 0 0 0 7359 8177 6690 8177 0 8177 8177 7359 7359 0 0 0 0 8177 8177 0 0 0 0 0 0 0 0 0 0 0 0 0 0 0 0 0 0 3679 6690 6133 7359 8177 8177 8177 0 0 8177 8177 8177 8177 8177 8177 8177 7359 6690 7359 7359 6133 0 0 4906 6133 6133 0 0 0 0 7359 6690 0 0 0 0 0 0 0 0 0 0 0 0 0 0 0 0 0 5661 6690 6133 6133 5661 5661 4088 5256 5256 6133 6133 5256 5661 5661 5661 6133 4329 5661 5661 5661 5661 5256 4906 4906 5256 5661 4329 4906 5256 5256 5256 5256 5256 4906 4599 5661 4906 4088 4088 4329 4329 4599 3873 4329 4599 4329 4599 4599 4088 4088 4088 4599 3873 3679 3679 3504 3679 3345 3199 3345 3504 3345 3199 3199 3199 3199 3345 3504 3199 3066 3066 3199 3066 3066 2943 2943 2628 2537 2628 2537 2299 2044 1936 1936 2044 1887 1887 1887 1887 1839 1887 1936 1936 1936 1936 1936 1936 1936 1989 1936 1936 1887 1887 1887 1839 1795 1752 1672 1672 1635 1635 1635 1635 1635 1635 1635 0 0 0 0 0
    0 0 0 0 0 0 0 0 0 0 0 0 0 0 0 0 0 0 0 0 0 0 0 0 0 0 0 0 0 0 0 0 0 0 0 0 0 0 0 0 0 0 0 0 0 0 0 0 0 0 0 0 0 0 0 0 0 0 0 0 0 0 0 0 0 0 0 0 0 0 8177 8177 8177 8177 8177 0 0 0 0 8177 8177 0 0 0 0 0 0 0 0 0 0 0 0 0 0 0 0 0 0 0 0 0 0 0 0 6133 6690 6690 6690 6690 8177 8177 6133 8177 0 0 0 7359 7359 6690 8177 0 8177 8177 7359 6690 0 0 0 0 0 8177 0 0 0 0 0 0 0 0 0 0 0 0 0 0 0 0 0 0 4329 6690 6133 7359 8177 8177 8177 8177 0 8177 0 8177 8177 8177 8177 0 8177 7359 8177 8177 7359 0 8177 4906 6133 6133 0 0 0 0 7359 6690 0 0 0 0 0 0 0 8177 0 0 0 0 0 0 0 0 0 4906 6133 5661 5256 5256 5256 3873 4906 4906 5661 5661 4906 5661 6133 6133 6690 4329 5661 5661 5661 5661 5256 4906 4599 5256 5661 4329 4906 5256 5256 5256 5256 5661 4906 4599 5661 4906 4088 4088 4329 4329 4599 3873 3873 4088 4329 4329 4329 3873 3873 4088 4906 3873 3679 3345 3504 3504 3345 3199 3345 3504 3345 3199 3199 3199 3345 3345 3504 3199 3066 3066 3345 3066 3066 2943 2943 2628 2537 2628 2628 2537 2299 2044 2044 2102 1989 1989 1989 1936 1887 1936 1936 1936 1936 1936 1887 1936 1936 1989 1936 1936 1887 1887 1887 1887 1839 1752 1672 1711 1672 1672 1672 1672 1635 1635 1635 0 0 0 0 0
    0 0 0 0 0 0 0 0 0 0 0 0 0 0 0 0 0 0 0 0 0 0 0 0 0 0 0 0 0 0 0 0 0 0 0 0 0 0 0 0 0 0 0 0 0 0 0 0 0 0 0 0 0 0 0 0 0 0 0 0 0 0 0 0 0 0 0 0 0 0 8177 8177 8177 8177 8177 8177 0 0 8177 8177 7359 0 0 0 0 0 0 0 0 0 0 0 0 0 0 0 0 0 0 0 0 0 0 0 0 6133 6690 6690 7359 6690 8177 8177 6133 8177 0 0 0 6690 7359 6690 8177 0 8177 8177 6690 6690 0 0 0 0 0 8177 8177 0 0 0 0 0 0 0 0 0 0 0 0 0 0 0 0 0 6690 6690 7359 7359 8177 0 8177 0 0 8177 0 0 0 0 8177 0 8177 7359 8177 8177 7359 0 8177 4599 6133 6133 6690 0 0 7359 6690 6133 0 0 0 8177 8177 8177 8177 7359 8177 8177 8177 8177 8177 7359 7359 8177 0 4329 5661 5256 5256 4906 4906 3873 4906 4906 5661 5661 5256 5661 6133 6133 6690 4329 5661 6133 5661 5661 5256 5256 4599 5256 6133 4329 4599 5256 5256 5256 5256 5661 4906 4906 5256 5256 4088 4088 4329 4329 4329 3679 3873 4088 4088 4088 4088 3873 3873 4088 5256 3873 3504 3199 3199 3345 3199 3199 3504 3345 3345 3199 3199 3345 3345 3504 3679 3199 3066 3199 3504 3199 3199 3066 3066 2628 2628 2725 2725 2725 2628 2230 2164 2164 2044 2044 2044 1989 1936 1989 1989 1936 1989 1989 1887 1936 1936 1989 1936 1936 1887 1887 1887 1887 1839 1795 1711 1711 1672 1672 1672 1672 1672 1672 1672 0 0 0 0 0
    0 0 0 0 0 0 0 0 0 0 0 0 0 0 0 0 0 0 0 0 0 0 0 0 0 0 0 0 0 0 0 0 0 0 0 0 0 0 0 0 0 0 0 0 0 0 0 0 0 0 0 0 0 0 0 0 0 0 0 0 0 0 0 0 0 0 0 0 0 0 8177 8177 0 8177 8177 8177 0 0 7359 8177 7359 0 0 0 0 0 0 0 0 0 0 0 0 0 0 0 0 0 0 0 0 0 0 0 8177 6690 7359 7359 7359 7359 0 0 6690 0 0 0 0 6690 7359 6133 7359 8177 8177 7359 6690 6690 0 0 0 0 0 8177 8177 0 0 0 0 0 0 0 0 0 0 0 0 0 0 0 0 0 0 0 0 0 8177 0 7359 0 0 0 0 0 0 0 9199 0 8177 7359 8177 8177 7359 0 7359 4906 5661 6133 6690 6690 6690 6690 6690 6133 0 8177 0 7359 7359 8177 7359 7359 7359 7359 8177 7359 8177 6690 6690 7359 8177 3873 5256 4906 4906 4599 4599 3873 4906 4906 5661 5661 5256 6133 6133 6133 6690 4329 5661 6133 5661 6133 5256 5256 4599 5256 6133 4329 4599 5256 5256 5256 5256 5661 4906 4906 5256 5256 4088 4329 4329 4329 4329 3679 3873 4088 3873 4088 3873 3873 3873 4088 5256 3873 3345 3199 3199 3199 3199 3199 3504 3504 3345 3199 3199 3345 3345 3504 3504 3066 3066 3066 3504 3199 3199 3066 3066 2725 2628 2725 2830 2830 2830 2453 2299 2299 2102 2102 2102 2044 1989 1989 2044 1989 2044 2102 1936 1936 1936 1989 1989 1936 1936 1887 1887 1936 1887 1795 1752 1752 1711 1711 1711 1711 1711 1711 1711 0 0 0 0 0
    0 0 0 0 0 0 0 0 0 0 0 0 0 0 0 0 0 0 0 0 0 0 0 0 0 0 0 0 0 0 0 0 0 0 0 0 0 0 0 0 0 0 0 0 0 0 0 0 0 0 0 0 0 0 0 0 0 0 0 0 0 0 0 0 0 0 0 0 0 0 0 0 0 0 0 0 0 0 7359 8177 7359 0 0 0 0 0 0 0 0 0 0 0 0 0 0 0 0 0 0 0 0 0 0 0 8177 6690 7359 7359 7359 8177 0 0 7359 0 0 0 0 7359 7359 6133 7359 8177 8177 7359 6690 6133 0 0 0 0 0 8177 8177 0 0 0 0 0 0 0 0 0 0 0 0 0 0 0 0 0 0 0 0 0 8177 0 7359 0 0 0 0 0 0 0 0 0 0 8177 0 8177 7359 6133 6690 4906 5661 5661 6133 6690 6133 6690 6690 6133 0 8177 0 6690 7359 8177 7359 6690 7359 7359 7359 7359 8177 6690 7359 7359 0 3873 5256 4906 4906 4599 4599 3873 4906 4906 5661 5661 5256 6133 6690 6133 7359 4329 5661 6133 5661 5661 5256 5256 4329 5256 6133 4599 4329 5256 5256 5256 5256 5661 4906 4906 4906 5256 4088 4599 4088 4088 4088 3504 3679 3873 3679 3679 3679 3679 3679 4088 5256 3873 3679 3345 3345 3345 3199 3345 3504 3504 3345 3066 3199 3199 3199 3345 3199 3066 3066 2943 3504 3345 3199 3066 3066 2725 2725 2725 2830 2830 2830 2537 2299 2299 2164 2102 2102 2102 2044 1989 2044 2044 2044 2102 1989 1989 1936 1989 1989 1989 1936 1887 1887 1936 1887 1839 1752 1752 1752 1752 1752 1752 1752 1752 1752 0 0 0 0 0
    0 0 0 0 0 0 0 0 0 0 0 0 0 0 0 0 0 0 0 0 0 0 0 0 0 0 0 0 0 0 0 0 0 0 0 0 0 0 0 0 0 0 0 0 0 0 0 0 0 0 0 0 0 0 0 0 0 0 0 0 0 0 0 0 0 0 0 0 0 0 0 8177 0 8177 8177 8177 0 0 7359 8177 7359 0 0 0 0 0 0 0 0 0 0 0 0 0 0 0 0 0 0 0 0 0 0 0 8177 6690 7359 7359 7359 8177 0 0 7359 0 0 0 0 7359 7359 6133 6690 8177 7359 7359 6133 6133 0 0 0 0 0 8177 8177 0 0 0 0 0 0 0 0 0 0 0 0 0 0 0 0 0 0 0 0 0 8177 0 7359 0 0 0 0 0 0 0 0 0 0 8177 0 8177 7359 6133 6133 4906 5661 5661 6133 6133 5661 6133 6690 6133 8177 7359 8177 6133 6690 7359 6690 6690 7359 7359 7359 6690 8177 6690 6690 7359 0 3873 5256 4906 4906 4599 4906 4088 4906 5256 5661 5661 5256 6133 6690 6690 7359 4329 5661 6133 5661 5661 5256 5256 4088 4906 6133 4599 4329 5256 5256 4906 4906 5661 4906 4599 4906 5256 4088 4599 4088 4329 3873 3504 3679 3679 3679 3679 3679 3679 3679 4088 5256 4088 4088 3679 3679 3679 3199 3504 3504 3504 3345 3066 3199 3199 3199 3199 2943 2943 2943 2943 3345 3066 3066 2943 2943 2725 2628 2725 2830 2830 2830 2537 2374 2374 2164 2164 2230 2164 2102 2044 2102 2102 2102 2164 1989 2044 1936 2044 2044 1989 1989 1936 1887 1936 1887 1887 1795 1795 1795 1795 1795 1795 1795 1752 1752 0 0 0 0 0
    0 0 0 0 0 0 0 0 0 0 0 0 0 0 0 0 0 0 0 0 0 0 0 0 0 0 0 0 0 0 0 0 0 0 0 0 0 0 0 0 0 0 0 0 0 0 0 0 0 0 0 0 0 0 0 0 0 0 0 0 0 0 0 0 0 0 0 0 0 0 8177 8177 0 8177 8177 8177 8177 0 7359 7359 7359 0 0 0 8177 0 0 0 0 0 0 0 0 0 0 0 0 0 0 0 0 0 0 0 8177 8177 8177 8177 8177 0 0 0 8177 0 0 0 0 7359 7359 6133 6690 7359 7359 6690 6133 6133 8177 0 0 0 0 8177 8177 0 0 0 8177 0 0 0 0 0 0 0 0 0 0 0 0 0 0 0 0 0 8177 0 7359 8177 0 0 0 0 0 0 0 0 0 8177 0 8177 7359 6133 6133 4906 5661 5661 6133 6690 5661 6133 6690 6133 8177 7359 8177 6133 6690 7359 6690 6690 6690 6690 7359 6690 7359 6690 6690 7359 0 3873 5661 5256 5256 4906 4906 4329 5256 5256 6133 6133 5661 6133 6690 6690 7359 4088 5661 6133 5256 5661 5256 4906 3873 4906 6133 4599 4088 4906 4906 4906 4906 5661 4906 4906 4906 5661 4329 4906 4329 4329 4088 3504 3679 3873 3873 3873 3873 3873 3873 4088 6133 4599 4599 4088 4088 3873 3345 4088 4088 4088 3679 3199 3199 3345 3199 3345 2943 2830 2830 2830 3066 2943 2830 2830 2830 2725 2628 2628 2830 2830 2830 2537 2453 2374 2299 2230 2299 2230 2102 2102 2164 2102 2102 2230 1989 2102 1989 2102 2102 2044 2044 1989 1936 1989 1887 1887 1795 1795 1795 1795 1795 1795 1795 1795 1752 0 0 0 0 0
    0 0 0 0 0 0 0 0 0 0 0 0 0 0 0 0 0 0 0 0 0 0 0 0 0 0 0 0 0 0 0 0 0 0 0 0 0 0 0 0 0 0 0 0 0 0 0 0 0 0 0 0 0 0 0 0 0 0 0 0 0 0 0 0 0 0 0 0 0 0 8177 8177 0 8177 8177 8177 8177 0 7359 8177 7359 0 0 0 8177 0 0 0 0 0 0 0 0 0 0 0 0 0 0 0 0 0 0 0 8177 0 0 8177 0 0 0 0 8177 0 0 0 0 8177 8177 6133 6690 7359 7359 6690 6133 6133 8177 0 0 0 0 0 0 0 0 0 0 0 0 0 0 0 0 0 0 0 0 0 0 0 0 0 0 0 8177 8177 6690 7359 8177 8177 0 0 0 0 0 0 0 0 0 8177 8177 6133 6133 4906 5661 5661 6690 6690 6133 6690 6690 6690 8177 7359 8177 6133 6690 7359 6133 6133 6690 6690 7359 6690 7359 6690 6690 8177 0 4088 5661 5661 5661 5256 5256 4599 5256 5661 6690 6133 5661 6133 6690 6690 7359 3873 5256 5661 5256 5661 5256 4906 3873 4906 6133 4906 3873 4906 4599 4906 4906 5661 4906 4906 4906 5661 4329 4906 4599 4329 4088 3504 3873 4088 4088 4088 4088 4088 4088 4088 6690 3679 4088 4088 4088 3873 3345 4329 4599 4599 3873 3345 3345 3345 3345 3345 2830 2725 2725 2725 2943 2725 2628 2628 2725 2628 2628 2628 2830 2830 2830 2628 2537 2537 2453 2374 2453 2299 2230 2164 2299 2164 2164 2230 2044 2164 2044 2164 2164 2102 2230 2102 2044 2102 1936 1989 1839 1795 1795 1795 1795 1795 1795 1795 1752 0 0 0 0 0
    0 0 0 0 0 0 0 0 0 0 0 0 0 0 0 0 0 0 0 0 0 0 0 0 0 0 0 0 0 0 0 0 0 0 0 0 0 0 0 0 0 0 0 0 0 0 0 0 0 0 0 0 0 0 0 0 0 0 0 0 0 0 0 0 0 0 0 0 0 0 8177 8177 0 8177 8177 8177 0 0 7359 7359 7359 0 0 0 7359 8177 0 0 0 0 0 0 0 0 0 0 0 0 0 0 0 0 0 0 0 0 0 0 0 0 0 0 0 0 0 0 0 8177 8177 6690 7359 8177 7359 7359 6690 6690 0 0 0 0 0 0 0 0 0 0 0 0 0 0 0 0 0 0 0 0 0 0 0 0 0 0 8177 0 7359 8177 6690 7359 7359 7359 0 0 0 0 0 0 0 0 0 8177 8177 0 6133 4906 5661 5661 6690 6690 6133 6690 6690 6690 8177 7359 8177 6133 6690 7359 5661 6133 6133 6690 6690 6133 7359 6690 7359 8177 0 4329 6133 5661 5661 5256 5256 4599 5256 5661 6690 6133 5661 6133 6690 6690 7359 3873 5256 5256 5256 5256 5256 4906 3873 4906 6133 4599 3873 4599 4599 4599 4599 5256 4599 4599 4599 5256 4329 4599 4599 4088 3873 3504 3873 4088 4088 4088 4088 4088 4329 4088 6690 3679 4088 3873 4088 3873 3504 4599 4599 4599 4088 3345 3345 3345 3345 3345 2830 2628 2628 2628 2830 2725 2628 2725 2628 2628 2628 2537 2725 2725 2725 2628 2537 2537 2453 2453 2453 2374 2299 2299 2374 2374 2299 2374 2102 2299 2102 2230 2299 2230 2299 2164 2102 2102 1989 2044 1887 1839 1839 1839 1795 1795 1795 1795 1752 0 0 0 0 0
    0 0 0 0 0 0 0 0 0 0 0 0 0 0 0 0 0 0 0 0 0 0 0 0 0 0 0 0 0 0 0 0 0 0 0 0 0 0 0 0 0 0 0 0 0 0 0 0 0 0 0 0 0 0 0 0 0 0 0 0 0 0 0 0 0 0 0 0 0 0 8177 8177 0 8177 7359 8177 8177 8177 7359 7359 7359 0 0 0 8177 0 0 0 0 0 0 8177 8177 0 8177 0 0 8177 8177 0 0 0 0 0 0 0 0 0 0 0 0 0 0 0 0 0 0 8177 0 7359 8177 8177 8177 8177 7359 7359 0 0 0 0 0 0 0 0 0 0 8177 0 0 8177 0 0 0 0 0 0 8177 0 8177 0 0 0 0 0 8177 0 7359 7359 8177 8177 0 0 0 0 0 0 0 0 0 9199 8177 0 6133 4906 5661 5661 6133 6690 6133 6690 6690 6690 8177 7359 7359 6133 6133 6690 5256 5661 6133 6690 6690 6133 7359 6690 7359 0 0 4599 6133 5661 6133 5661 5661 4599 5661 5661 7359 6133 6133 6133 6690 6690 7359 3873 5256 5661 5661 5256 5256 4906 4088 4906 6133 4599 3873 4599 4599 4599 4329 5256 4599 4599 4599 5256 4329 4906 4329 3873 3679 3504 3873 4088 4088 4329 4088 4329 4599 4329 6690 4329 4088 3873 4088 4088 3504 4599 4599 4599 4088 3345 3345 3345 3199 3199 2725 2628 2628 2628 2830 2725 2628 2725 2628 2628 2537 2537 2628 2725 2628 2537 2453 2537 2453 2453 2453 2374 2374 2374 2537 2537 2537 2537 0 2537 2230 2299 2374 2230 2230 2102 2044 2044 1936 1936 1887 1795 1839 1839 1839 1795 1795 1795 1752 0 0 0 0 0
    0 0 0 0 0 0 0 0 0 0 0 0 0 0 0 0 0 0 0 0 0 0 0 0 0 0 0 0 0 0 0 0 0 0 0 0 0 0 0 0 0 0 0 0 0 0 0 0 0 0 0 0 0 0 0 0 0 0 0 0 0 0 0 0 0 0 0 0 0 0 8177 8177 0 0 7359 7359 7359 8177 6690 7359 7359 0 0 0 8177 0 0 0 0 0 0 8177 8177 0 8177 0 0 8177 8177 9199 0 0 0 0 0 0 0 0 0 0 0 0 0 0 0 0 0 8177 0 8177 0 0 0 0 8177 7359 0 0 0 0 0 0 0 0 0 0 8177 0 0 8177 0 8177 0 0 0 0 8177 0 8177 8177 0 0 0 0 8177 0 7359 8177 0 8177 0 0 0 0 0 0 0 8177 0 8177 0 0 0 5256 6133 6133 6690 6690 6690 7359 7359 7359 8177 7359 7359 6133 6133 6690 5256 5661 6133 6690 6690 6133 7359 6690 7359 0 0 4599 6133 6133 6133 5661 5661 4599 5661 5661 7359 6133 5661 6133 6690 6690 7359 4088 5256 5661 5661 5256 5661 5256 4329 4906 6690 4906 4088 4599 4599 4599 4599 5256 4599 4599 4599 5256 4599 5256 4329 3873 3873 3679 4088 4329 4329 4599 4599 4906 5256 4906 6690 4906 3873 3873 4088 4088 3504 4599 4906 4906 4088 3199 3345 3199 3199 3066 2725 2537 2537 2537 2830 2830 2725 2725 2628 2628 2628 2537 2628 2725 2537 2453 2374 2537 2453 2453 2537 2453 2453 2453 2537 2725 2628 2628 0 2628 2537 2537 2537 2453 2299 2102 1989 1989 1936 1936 1887 1839 1839 1839 1839 1839 1795 1795 1752 0 0 0 0 0
    0 0 0 0 0 0 0 0 0 0 0 0 0 0 0 0 0 0 0 0 0 0 0 0 0 0 0 0 0 0 0 0 0 0 0 0 0 0 0 0 0 0 0 0 0 0 0 0 0 0 0 0 0 0 0 0 0 0 0 0 0 0 0 0 0 0 0 0 0 0 8177 8177 0 0 8177 7359 7359 7359 6690 7359 7359 0 0 0 0 0 0 0 0 0 0 7359 7359 8177 7359 8177 8177 7359 7359 8177 0 0 0 0 0 0 0 0 0 0 0 0 0 0 0 0 0 7359 0 8177 0 0 0 0 0 8177 0 0 0 0 0 0 0 0 0 0 0 0 0 0 0 0 0 0 0 0 0 0 0 0 0 0 0 0 8177 0 8177 7359 0 8177 8177 8177 0 0 0 0 0 8177 0 8177 0 0 0 5256 6690 6133 6690 7359 6690 7359 7359 7359 0 7359 7359 6690 6690 7359 5256 5661 6133 6133 6690 6133 6690 6690 7359 0 0 4599 6133 6133 6690 6133 6133 4906 6133 6133 7359 6690 5661 6133 6690 6690 7359 4329 5661 6133 5661 5661 5661 5256 4599 5256 6690 5256 4088 4599 4599 4599 4599 5256 4599 4599 4599 5256 4906 5256 3873 3873 4088 3679 4088 4599 4599 4599 4599 5256 5256 4906 6690 5256 3873 4088 4599 4599 3679 4906 4906 4906 3873 3199 3199 3066 3066 2943 2628 2453 2537 2453 2830 2725 2725 2725 2628 2725 2628 2537 2628 2725 2537 2537 2374 2537 2453 2537 2537 2453 2453 2453 2537 2725 2628 2725 0 2830 2725 2830 2830 2830 2374 2230 2044 1989 1936 1887 1887 1839 1839 1887 1839 1839 1795 1752 1752 0 0 0 0 0
    0 0 0 0 0 0 0 0 0 0 0 0 0 0 0 0 0 0 0 0 0 0 0 0 0 0 0 0 0 0 0 0 0 0 0 0 0 0 0 0 0 0 0 0 0 0 0 0 0 0 0 0 0 0 0 0 0 0 0 0 0 0 0 0 0 0 0 0 0 0 8177 8177 0 0 8177 7359 6690 7359 6690 8177 8177 0 0 0 0 0 0 0 0 0 0 6690 7359 8177 7359 7359 7359 7359 7359 8177 0 0 0 0 0 0 0 0 0 0 0 0 0 0 0 0 0 6690 8177 8177 0 0 0 0 0 0 0 0 0 0 0 0 0 0 0 0 0 0 0 0 0 0 0 0 0 0 0 0 0 0 0 0 0 0 8177 0 8177 0 0 7359 7359 7359 8177 0 0 0 0 0 0 0 0 0 0 5256 0 6690 7359 0 0 8177 8177 8177 0 8177 8177 8177 7359 7359 5256 5256 5661 6133 6133 6133 6133 6690 7359 0 0 4906 6690 6133 6690 5661 6133 5256 6133 6133 6690 6133 5661 6133 6690 6690 6690 4599 5661 6133 5661 6133 6133 5661 4906 5256 6690 5256 4088 4599 4599 4329 4329 4906 4599 4599 4599 5661 4906 4906 3679 3873 3873 3679 3873 4599 4599 4599 4599 5256 5256 4906 6133 6133 3873 4088 4329 4329 3679 4599 4906 4906 3873 3066 3066 3066 3066 2943 2628 2453 2453 2453 2830 2830 2725 2725 2628 2725 2628 2537 2537 2628 2537 2537 2374 2628 2453 2537 2537 2537 2453 2453 2453 2725 2537 2628 2628 2725 2725 2725 2830 2943 2299 2230 2044 1989 1936 1887 1887 1887 1887 1887 1839 1795 1795 1752 1711 0 0 0 0 0
    0 0 0 0 0 0 0 0 0 0 0 0 0 0 0 0 0 0 0 0 0 0 0 0 0 0 0 0 0 0 0 0 0 0 0 0 0 0 0 0 0 0 0 0 0 0 0 0 0 0 0 0 0 0 0 0 0 0 0 0 0 0 0 0 0 0 0 0 0 0 8177 8177 0 8177 7359 6690 6690 7359 6690 8177 8177 0 0 0 0 0 0 0 0 0 0 6690 6690 7359 6690 6690 7359 6690 7359 8177 0 0 0 0 0 0 0 0 0 0 0 0 0 0 0 0 0 6133 8177 7359 0 0 0 0 0 0 0 0 0 0 0 0 0 0 0 0 0 0 0 0 0 0 0 283 285 285 0 0 0 0 0 0 0 0 0 0 0 0 0 6690 6690 6690 0 0 0 0 0 0 0 0 145 144 144 0 0 0 0 0 80 0 8177 8177 0 8177 8177 8177 7359 8177 5661 5256 6133 6690 6690 6133 6133 6690 8177 0 0 5661 6690 6690 6690 5661 6133 5256 6133 6133 6690 6690 5661 6133 6690 6690 6690 4906 6133 6690 5661 6690 6133 5661 5256 5661 6690 5661 4329 4906 4906 4329 4599 4906 4906 4599 4599 5661 4906 4329 3679 3873 4088 3679 3873 4599 4599 4599 4599 5256 5661 4906 6133 6133 3873 4088 4329 4088 3679 4599 4599 4599 3679 3066 3066 2943 2943 2943 2628 2374 2453 2453 2725 2725 2725 2725 2537 2725 2628 2537 2537 2628 2537 2628 2453 2628 2537 2628 2628 2628 2537 2537 2453 2725 2537 2628 2537 2725 2628 2725 2830 2830 2299 2164 2044 1989 1887 1887 1887 1839 1839 1839 1795 1795 1752 1711 1711 0 0 0 0 0
    0 0 0 0 0 0 0 0 0 0 0 0 0 0 0 0 0 0 0 0 0 0 0 0 0 0 0 0 0 0 0 0 0 0 0 0 0 0 0 0 0 0 0 0 0 0 0 0 0 0 0 0 0 0 0 0 0 0 0 0 0 0 0 0 0 0 0 0 0 0 8177 7359 8177 8177 7359 6690 6690 7359 6690 0 0 0 0 0 0 0 0 0 0 0 0 6690 6690 7359 6690 6690 7359 7359 7359 8177 0 0 0 0 0 0 0 0 0 0 0 0 0 0 0 0 0 5661 7359 7359 8177 0 0 0 8177 8177 0 0 0 0 0 0 0 0 0 0 0 0 0 0 0 8177 284 284 286 285 285 284 284 0 0 0 0 0 0 0 0 0 287 0 0 0 0 0 0 0 0 0 0 0 0 0 0 0 0 0 0 81 80 80 0 8177 0 7359 7359 7359 7359 8177 5661 4906 5661 6690 6133 6133 6133 7359 0 0 0 6133 7359 6690 6690 6133 6133 5661 6133 6133 6690 6690 5661 6133 6690 6133 6690 5256 6133 6690 5661 6690 6133 5661 5661 5661 6690 5661 4329 4906 4906 4329 4599 4906 4906 4599 4599 5661 4906 3873 3504 3679 3873 3679 3679 4599 4599 4599 4906 5256 5661 4906 5661 6690 3873 3873 4088 4088 3679 4329 4599 4329 3679 3199 3066 2943 2943 2943 2628 2453 2453 2453 2830 2830 2725 2830 2628 2725 2628 2628 2628 2725 2537 2628 2537 2725 2628 2725 2628 2725 2537 2628 2537 2830 2537 2537 2453 2628 2453 2453 2628 2628 2230 2102 2044 1989 1887 1887 1887 1839 1795 1795 1795 1752 1752 1711 1711 0 0 0 0 0
    0 0 0 0 0 0 0 0 0 0 0 0 0 0 0 0 0 0 0 0 0 0 0 0 0 0 0 0 0 0 0 0 0 0 0 0 0 0 0 0 0 0 0 0 0 0 0 0 0 0 0 0 0 0 0 0 0 0 0 0 0 0 0 0 0 0 0 0 0 0 8177 8177 8177 0 8177 7359 7359 8177 6690 0 0 0 0 0 0 0 0 0 0 0 0 7359 7359 8177 7359 7359 7359 7359 8177 8177 0 0 0 0 0 0 0 0 0 0 0 0 0 0 0 0 0 6133 7359 7359 8177 0 0 0 8177 8177 0 0 0 0 0 0 0 0 0 0 0 0 0 0 0 8177 285 284 286 285 285 284 283 0 0 0 0 0 0 0 0 0 287 0 0 0 0 0 0 0 0 0 0 0 0 0 0 5661 0 0 0 81 80 80 0 7359 0 7359 7359 7359 7359 7359 5661 4906 5661 6133 6690 6690 6690 8177 0 0 0 6690 7359 6690 6690 6133 6133 5661 6133 6133 6690 6690 5661 6133 6690 6133 6690 5256 6133 6690 6133 6690 6133 5661 5661 5661 6690 5256 4329 4906 4906 4599 4599 4599 4906 4599 4599 5256 4329 3504 3345 3504 3679 3504 3679 4599 4599 4599 4906 5256 5256 4906 5661 6690 3679 3873 4088 3873 3679 4088 4329 4329 3679 3199 3199 3066 3066 2943 2628 2537 2537 2537 2943 3066 2943 2943 2725 2830 2725 2725 2628 2725 2537 2628 2537 2725 2628 2725 2725 2725 2628 2628 2628 2830 2628 2628 2537 2628 2453 2453 2628 2537 2164 2044 2044 1989 1887 1887 1887 1839 1795 1795 1795 1795 1752 1711 1711 0 0 0 0 0
    0 0 0 0 0 0 0 0 0 0 0 0 0 0 0 0 0 0 0 0 0 0 0 0 0 0 0 0 0 0 0 0 0 0 0 0 0 0 0 0 0 0 0 0 0 0 0 0 0 0 0 0 0 0 0 0 0 0 0 0 0 0 0 0 0 0 0 0 0 0 8177 8177 0 0 8177 8177 8177 8177 6690 0 0 0 0 0 0 0 0 0 0 0 0 8177 8177 8177 8177 8177 8177 7359 8177 8177 0 0 0 0 0 0 0 0 0 0 0 0 0 0 0 0 0 6133 7359 6690 8177 0 0 0 7359 7359 0 0 0 0 0 0 0 8177 0 0 0 0 0 0 0 8177 285 284 286 285 284 284 283 0 0 0 0 0 0 0 0 0 286 0 284 0 0 0 0 0 0 0 0 0 0 0 0 5661 0 0 0 81 80 80 0 0 0 7359 6690 7359 7359 8177 6133 5256 5661 6133 6133 7359 6690 8177 0 0 0 6690 8177 6690 6690 6133 6690 5661 6133 6133 6690 6690 5661 6133 6690 6133 6690 5661 6133 6690 6133 6690 6133 5661 6133 5256 6690 5256 4599 4906 4906 4599 4906 4599 5256 4329 4906 4906 4088 3345 3345 3504 3679 3504 3504 4329 4599 4599 4906 5256 5256 4906 5256 6690 3679 3679 3873 3873 3679 4088 4329 4088 3679 3199 3199 3066 3199 3066 2725 2628 2628 2628 3066 3199 3066 2943 2830 2830 2830 2725 2628 2725 2537 2628 2537 2725 2628 2725 2725 2725 2628 2725 2725 2830 2725 2628 2537 2628 2537 2453 2628 2628 2230 2044 2044 1989 1936 1936 1887 1839 1795 1795 1795 1795 1752 1711 1711 0 0 0 0 0
    0 0 0 0 0 0 0 0 0 0 0 0 0 0 0 0 0 0 0 0 0 0 0 0 0 0 0 0 0 0 0 0 0 0 0 0 0 0 0 0 0 0 0 0 0 0 0 0 0 0 0 0 0 0 0 0 0 0 0 0 0 0 0 0 0 0 0 0 0 0 8177 9199 0 0 0 8177 8177 8177 6690 0 0 0 0 0 0 0 0 0 0 0 0 0 0 0 0 8177 8177 7359 8177 8177 0 0 0 0 0 0 0 0 0 0 0 0 8177 0 0 0 0 6133 6690 6690 7359 0 0 8177 7359 7359 0 0 0 0 0 0 0 8177 0 0 0 0 0 0 8177 8177 285 284 286 285 284 284 283 0 0 0 0 0 0 0 0 0 286 0 284 284 0 0 0 0 0 0 0 0 0 0 0 5661 0 0 0 81 80 80 0 0 0 7359 6690 6690 6690 7359 6133 5256 5661 6133 6133 6690 6690 7359 8177 0 0 6133 8177 6690 6690 6133 6690 6133 6133 6133 6690 6690 6133 6133 6690 6133 6690 5661 6690 7359 6133 6690 6133 5661 5661 5256 6133 5256 4906 5256 5256 4906 5256 5256 5661 4906 5256 5661 4088 3345 3199 3679 3504 3504 3345 4329 4329 4329 4906 5256 4906 4906 4906 6690 3679 3679 3873 3873 3679 4088 4329 4088 3679 3199 3199 3199 3199 3199 2830 2725 2628 2725 3199 3345 3199 3066 2943 2943 2943 2943 2725 2830 2628 2628 2628 2725 2725 2725 2725 2725 2628 2725 2628 2830 2628 2628 2537 2628 2453 2453 2725 2725 2230 2102 2044 1989 1936 1936 1887 1839 1795 1795 1795 1795 1752 1711 1711 0 0 0 0 0
    0 0 0 0 0 0 0 0 0 0 0 0 0 0 0 0 0 0 0 0 0 0 0 0 0 0 0 0 0 0 0 0 0 0 0 0 0 0 0 0 0 0 0 0 0 0 0 0 0 0 0 0 0 0 0 0 0 0 0 0 0 0 0 0 0 0 0 0 0 0 0 0 0 0 0 9199 8177 8177 7359 0 0 0 0 0 0 0 0 0 0 0 0 0 0 0 0 8177 8177 8177 8177 8177 0 0 0 0 0 0 0 0 0 0 0 0 8177 0 0 0 0 5661 6690 6690 7359 0 0 0 0 6690 0 0 0 0 0 0 0 8177 0 0 0 0 8177 0 0 8177 285 285 286 285 284 284 0 7359 0 0 0 0 0 0 0 0 286 0 285 0 0 0 0 0 0 0 0 287 0 0 0 5661 0 0 0 80 80 80 80 80 0 7359 6690 6690 6690 7359 6133 5661 6133 6133 6690 6690 6690 6690 8177 8177 0 5661 8177 7359 7359 6133 6690 6133 6690 6690 6690 6690 6133 6133 6690 6133 6690 6133 6690 7359 6133 6690 6133 5661 5661 4906 6133 5256 4599 5256 5256 4906 5256 5256 6133 4906 5256 5661 3873 3199 3199 3679 3679 3504 3345 4329 4329 4599 4906 5256 4906 4599 4906 6690 3679 3873 4088 4088 3679 4088 4329 4329 3873 3345 3345 3199 3199 3345 2830 2725 2628 2725 3345 3345 3199 3066 3066 2943 2943 3066 2830 2830 2725 2725 2725 2725 2725 2725 2628 2725 2628 2628 2628 2628 2628 2537 2537 2537 2453 2374 2628 2628 2299 2164 2044 2044 1989 1989 1936 1839 1795 1795 1795 1752 1752 1711 1711 0 0 0 0 0
    0 0 0 0 0 0 0 0 0 0 0 0 0 0 0 0 0 0 0 0 0 0 0 0 0 0 0 0 0 0 0 0 0 0 0 0 0 0 0 0 0 0 0 0 0 0 0 0 0 0 0 0 0 0 0 0 0 0 0 0 0 0 0 0 0 0 0 0 0 8177 8177 8177 0 0 0 0 8177 0 7359 0 0 0 0 0 0 0 0 0 0 0 0 0 0 0 0 0 8177 8177 8177 8177 0 0 0 0 0 0 8177 8177 0 0 0 0 8177 8177 0 0 0 5256 6690 6133 0 0 0 0 0 7359 0 0 0 0 0 0 0 8177 0 0 0 8177 8177 0 0 8177 0 286 286 285 284 284 0 7359 0 0 0 0 0 0 0 0 286 0 0 0 0 0 0 0 0 0 0 0 0 0 6690 5661 0 0 80 80 80 80 80 80 0 7359 6690 7359 7359 7359 6690 6133 6690 6690 6690 7359 6690 7359 8177 8177 0 5661 0 7359 7359 6690 7359 6690 6690 6690 7359 6690 6133 6690 6690 6690 6690 6690 7359 7359 5661 6690 6133 5661 5661 4329 5256 4906 4329 5256 4906 4906 4906 4906 5661 4599 4599 5661 3199 3066 3199 3504 3504 3504 3345 4329 4329 4329 4906 4906 4599 4599 4599 6690 3679 3873 4088 4329 3679 4088 4599 4329 3873 3345 3504 3345 3345 3504 2943 2830 2725 2725 3345 3504 3199 3066 3066 2943 3066 3066 2943 2943 2725 2830 2725 2830 2725 2725 2628 2725 2725 2628 2628 2628 2537 2537 2537 2453 2374 2374 2537 2628 2453 2299 2164 2102 2044 1989 1936 1839 1795 1795 1795 1795 1752 1711 1711 0 0 0 0 0
    0 0 0 0 0 0 0 0 0 0 0 0 0 0 0 0 0 0 0 0 0 0 0 0 0 0 0 0 0 0 0 0 0 0 0 0 0 0 0 0 0 0 0 0 0 0 0 0 0 0 0 0 0 0 0 0 0 0 0 0 0 0 0 0 0 0 0 0 0 8177 0 0 0 0 0 0 8177 0 7359 0 0 0 0 0 0 0 0 0 0 0 0 0 0 0 0 0 8177 8177 8177 8177 0 0 0 0 0 8177 7359 7359 8177 8177 8177 0 8177 8177 0 0 0 5661 6690 6690 7359 0 0 0 7359 7359 0 0 0 0 0 0 0 0 0 0 0 0 8177 0 0 8177 0 0 287 285 0 0 0 6690 8177 8177 0 8177 8177 8177 7359 6690 0 7359 0 0 0 0 0 0 0 0 0 0 0 0 6690 5661 0 0 0 80 80 80 80 0 0 7359 6690 7359 7359 8177 8177 7359 8177 8177 0 0 8177 8177 0 0 0 6133 0 8177 8177 7359 7359 6690 6690 6690 7359 6690 6690 6690 7359 6690 7359 7359 7359 6690 6133 6690 5661 5256 5256 4088 5256 4599 4599 5256 4906 4906 4906 4599 5256 4088 4329 4906 3066 3066 3345 3199 3504 3504 3199 4329 4088 4329 4599 4599 4329 4329 4329 6690 3504 3873 4088 4088 3679 4088 4599 4599 4088 3504 3679 3504 3504 3679 3066 2943 2725 2830 3504 3345 3066 3066 3066 2943 3066 3199 3066 2943 2830 2943 2725 2830 2725 2725 2725 2725 2725 2628 2628 2725 2628 2537 2537 2453 2374 2299 2537 2537 2537 2374 2299 2230 2164 2044 1936 1887 1839 1795 1795 1795 1752 1752 1752 0 0 0 0 0
    0 0 0 0 0 0 0 0 0 0 0 0 0 0 0 0 0 0 0 0 0 0 0 0 0 0 0 0 0 0 0 0 0 0 0 0 0 0 0 0 0 0 0 0 0 0 0 0 0 0 0 0 0 0 0 0 0 0 0 0 0 0 0 0 0 0 0 0 0 0 0 0 0 0 0 0 8177 0 7359 0 0 0 0 0 0 0 0 0 0 0 0 0 0 0 0 0 8177 8177 8177 8177 0 0 0 0 0 7359 7359 7359 8177 8177 8177 0 8177 0 0 0 0 6133 7359 6690 8177 0 0 8177 7359 7359 0 0 0 0 0 0 0 8177 0 0 0 0 0 0 0 8177 0 0 0 0 6690 6690 6690 6133 7359 7359 7359 8177 7359 8177 7359 6690 8177 7359 7359 7359 7359 8177 8177 0 0 7359 7359 7359 8177 6690 6690 5661 0 0 0 81 80 80 0 0 0 7359 6690 7359 7359 7359 8177 7359 8177 8177 0 0 0 0 0 0 0 6690 0 0 0 0 8177 7359 7359 7359 0 7359 7359 7359 7359 7359 8177 8177 7359 6133 6133 6133 5256 5256 4906 4088 4906 4599 4599 4906 4906 4599 4599 4329 4906 3873 3873 4329 3066 3066 3345 3199 3679 3679 3345 4329 4329 4329 4599 4329 4329 4088 4329 6690 3504 3679 4088 4088 3873 4329 4906 4906 4599 3679 3873 3679 3679 3873 3345 2943 2830 2943 3679 3345 3199 3199 3199 3066 3199 3199 3199 3066 2943 2943 2830 2830 2830 2725 2725 2725 2725 2725 2725 2725 2628 2537 2628 2537 2374 2374 2537 2537 2628 2374 2374 2299 2230 2102 1989 1887 1839 1839 1839 1795 1795 1752 1752 0 0 0 0 0
    0 0 0 0 0 0 0 0 0 0 0 0 0 0 0 0 0 0 0 0 0 0 0 0 0 0 0 0 0 0 0 0 0 0 0 0 0 0 0 0 0 0 0 0 0 0 0 0 0 0 0 0 0 0 0 0 0 0 0 0 0 0 0 0 0 0 0 0 0 0 8177 8177 0 0 0 0 0 0 8177 0 0 0 0 0 0 0 0 0 0 0 0 0 0 0 0 0 8177 8177 8177 8177 0 0 8177 0 0 7359 7359 7359 8177 8177 8177 0 8177 0 0 0 0 6690 8177 7359 0 0 0 8177 8177 8177 0 0 0 0 0 0 8177 8177 0 0 0 8177 0 0 8177 8177 8177 7359 6133 6133 6133 6133 6133 5661 6133 6690 6690 7359 7359 8177 7359 6133 8177 8177 8177 8177 0 0 0 0 0 8177 8177 8177 8177 6133 6690 5661 0 0 0 0 80 80 0 0 0 7359 6690 7359 6690 6690 7359 7359 7359 7359 8177 8177 0 0 0 0 0 6690 0 0 0 0 0 0 0 0 0 7359 8177 8177 7359 7359 8177 8177 6133 6133 6133 5661 4906 4599 4088 3679 4329 4329 4088 4599 4599 4329 4599 4329 4906 3873 3873 4329 3066 3066 3345 3345 3679 3679 3345 4329 4329 4329 4599 4329 4329 4088 4088 6133 3504 3679 4088 4088 4088 4329 4906 5256 4906 3873 4088 3873 3873 4088 3345 3066 2943 3066 4088 3504 3199 3199 3345 3199 3345 3345 3345 3066 2943 2943 2830 2830 2830 2725 2830 2830 2830 2725 2725 2725 2628 2628 2628 2537 2453 2374 2628 2628 2628 2453 2374 2299 2374 2164 2044 1887 1887 1839 1839 1839 1795 1752 1795 0 0 0 0 0
    0 0 0 0 0 0 0 0 0 0 0 0 0 0 0 0 0 0 0 0 0 0 0 0 0 0 0 0 0 0 0 0 0 0 0 0 0 0 0 0 0 0 0 0 0 0 0 0 0 0 0 0 0 0 0 0 0 0 0 0 0 0 0 0 0 0 0 0 0 0 0 0 0 0 0 0 0 0 7359 0 8177 0 0 0 0 0 0 0 0 0 0 0 0 0 0 0 8177 8177 8177 7359 0 0 8177 0 8177 7359 7359 7359 8177 8177 8177 0 8177 0 0 0 0 6690 8177 8177 0 0 0 0 8177 9199 0 0 0 8177 7359 0 8177 8177 8177 0 0 0 0 0 0 0 0 8177 6133 5661 6133 5661 5256 5661 5661 6690 6690 8177 7359 8177 7359 6133 8177 8177 8177 0 0 0 0 0 0 8177 8177 8177 8177 0 6133 5661 0 0 0 0 0 80 0 0 0 8177 7359 8177 7359 7359 7359 7359 7359 7359 7359 7359 7359 8177 8177 7359 8177 6690 0 0 0 0 0 0 0 0 0 7359 0 9199 8177 8177 0 0 6133 6133 6133 5661 4906 4599 3873 3679 4329 4329 3873 4599 4599 4329 4599 4329 4906 3873 3873 4599 3066 3066 3345 3345 3873 3873 3345 4599 4329 4329 4599 4599 4088 4088 4088 6133 3504 3679 3873 4088 3873 4329 4906 5256 4906 3873 4088 3873 3873 3873 3504 3066 2943 3066 3873 3345 3199 3199 3504 3345 3504 3345 3345 3199 2943 2943 2943 2830 2830 2725 2830 2830 2830 2725 2725 2725 2628 2628 2725 2537 2453 2453 2628 2628 2725 2453 2453 2374 2453 2230 2044 1936 1887 1887 1887 1795 1795 1795 1795 0 0 0 0 0
    0 0 0 0 0 0 0 0 0 0 0 0 0 0 0 0 0 0 0 0 0 0 0 0 0 0 0 0 0 0 0 0 0 0 0 0 0 0 0 0 0 0 0 0 0 0 0 0 0 0 0 0 0 0 0 0 0 0 0 0 0 0 0 0 0 0 0 0 0 0 0 0 0 0 8177 0 7359 7359 6133 7359 6690 8177 0 0 0 0 0 0 0 0 0 0 0 0 0 0 8177 8177 8177 7359 0 8177 7359 8177 8177 6690 6690 7359 7359 7359 8177 8177 8177 0 0 0 0 6690 8177 8177 0 0 0 0 0 0 0 0 0 8177 0 0 0 0 0 0 0 0 0 0 0 0 0 0 6690 6133 6690 5661 5256 5661 5256 6690 6133 8177 8177 0 8177 6133 8177 8177 8177 0 0 0 0 0 0 8177 8177 8177 0 0 6133 5661 0 0 0 0 0 0 0 0 0 8177 8177 0 7359 8177 8177 7359 7359 7359 7359 7359 6690 7359 7359 7359 8177 6690 0 0 0 0 0 0 0 0 0 7359 0 8177 8177 8177 0 0 6133 6133 6133 5661 4906 4329 3679 3679 4088 4599 3679 4599 4599 4329 4599 4599 4906 4088 4088 5256 3199 3066 3345 3504 4088 4088 3504 4329 4329 4329 4599 4599 4088 4088 4088 6133 3345 3504 3679 3679 3679 4329 4906 5256 4599 3679 4088 3873 3873 4088 3504 3066 2943 2943 3873 3199 3199 3199 3345 3345 3504 3504 3504 3345 3066 2943 2943 2830 2830 2725 2830 2830 2830 2830 2830 2725 2725 2628 2725 2537 2537 2453 2628 2628 2725 2453 2453 2374 2453 2164 2044 1936 1887 1887 1887 1795 1795 1795 1795 0 0 0 0 0
    0 0 0 0 0 0 0 0 0 0 0 0 0 0 0 0 0 0 0 0 0 0 0 0 0 0 0 0 0 0 0 0 0 0 0 0 0 0 0 0 0 0 0 0 0 0 0 0 0 0 0 0 0 0 0 0 0 0 0 0 0 0 0 0 0 0 0 0 0 0 0 0 8177 0 7359 8177 6690 6690 5661 6133 6133 8177 0 0 0 0 0 0 0 0 0 0 0 0 0 0 0 8177 8177 7359 0 0 7359 8177 8177 6690 6690 6690 7359 7359 7359 8177 8177 0 0 0 0 6690 8177 8177 0 0 0 0 0 0 0 0 0 8177 3345 0 0 0 0 0 0 0 0 0 0 0 0 0 6690 6133 6690 5256 4329 4599 4088 5661 5661 8177 8177 0 8177 5661 8177 8177 0 0 0 0 0 0 0 8177 8177 0 0 0 6690 5661 0 0 0 0 80 0 0 0 0 8177 8177 0 7359 8177 7359 7359 7359 6690 7359 6690 6690 6690 6690 6690 7359 6690 0 0 0 0 0 0 0 0 0 7359 8177 8177 8177 8177 0 0 5256 6133 6133 5661 4906 4329 3679 3679 3873 4599 3504 4329 4599 4088 4599 4329 4599 4088 3873 5661 3199 3066 3345 3504 4329 4329 3504 4599 4329 4329 4599 4599 4088 3873 3873 6133 3199 3345 3345 3504 3679 4088 4906 5256 4599 3873 4088 4088 4088 4088 3504 3066 2943 3066 4088 3345 3199 3345 3504 3679 3679 3679 3679 3504 3199 3066 3066 2943 2830 2725 2943 2943 2943 2830 2830 2725 2725 2725 2725 2628 2453 2453 2628 2628 2725 2453 2453 2374 2453 2164 2044 1989 1936 1887 1887 1795 1839 1795 1839 0 0 0 0 0
    0 0 0 0 0 0 0 0 0 0 0 0 0 0 0 0 0 0 0 0 0 0 0 0 0 0 0 0 0 0 0 0 0 0 0 0 0 0 0 0 0 0 0 0 0 0 0 0 0 0 0 0 0 0 0 0 0 0 0 0 0 0 0 0 0 0 0 0 0 0 0 0 8177 8177 7359 6690 6133 6133 5661 6133 6133 0 0 0 0 0 0 0 0 0 0 0 0 0 0 0 0 0 8177 8177 0 0 8177 8177 8177 6690 6690 7359 7359 7359 8177 8177 8177 0 0 0 0 6690 0 8177 0 0 0 0 0 0 0 0 0 8177 4329 0 8177 0 0 0 0 0 0 0 0 0 0 0 7359 5661 6690 4906 3679 3679 3504 4599 5256 0 0 0 0 5661 8177 8177 0 0 0 0 0 0 0 8177 8177 0 0 0 6690 6133 0 0 0 0 80 0 0 0 0 0 0 0 7359 8177 8177 8177 7359 7359 7359 6690 6690 6690 7359 7359 7359 8177 0 0 0 0 0 0 0 0 0 6690 6690 7359 7359 7359 0 0 4906 5661 6133 5661 4906 4329 3679 3679 4088 4599 3504 4088 4329 4088 4329 4329 4329 3873 3873 5661 3199 3199 3345 3679 4599 4599 3504 4599 4599 4599 4599 4599 3873 3873 3679 5661 3066 3066 3199 3199 3504 4088 4906 5256 4599 3873 4329 4088 4088 4088 3504 3066 3066 3066 3873 3199 3199 3199 3199 3504 3504 3345 3504 3199 3066 2943 2943 2943 2943 2830 3066 2943 2943 2830 2830 2830 2725 2725 2725 2628 2453 2453 2628 2628 2725 2374 2453 2374 2453 2230 2164 2044 1989 1936 1936 1839 1887 1839 1887 0 0 0 0 0
    0 0 0 0 0 0 0 0 0 0 0 0 0 0 0 0 0 0 0 0 0 0 0 0 0 0 0 0 0 0 0 0 0 0 0 0 0 0 0 0 0 0 0 0 0 0 0 0 0 0 0 0 0 0 0 0 0 0 0 0 0 0 0 0 0 0 0 0 0 0 8177 8177 8177 8177 6690 6690 6133 6690 5661 6133 6133 0 0 0 0 0 0 0 0 0 0 0 0 0 0 8177 0 0 0 8177 0 0 0 0 8177 6690 7359 7359 7359 7359 8177 8177 8177 0 0 0 0 7359 0 0 0 0 0 0 0 0 0 0 0 8177 4906 7359 8177 0 0 0 0 0 0 0 0 0 0 0 6690 5256 6690 5256 3345 3345 3199 4088 5661 0 0 0 0 5256 8177 8177 8177 0 0 0 0 0 0 8177 8177 0 0 0 6690 6690 0 0 0 0 80 0 0 0 0 0 0 0 7359 9199 8177 8177 7359 7359 7359 7359 7359 7359 8177 8177 8177 0 0 0 0 0 0 0 0 0 0 6133 6133 7359 7359 7359 8177 8177 4599 5661 6133 6133 5256 4329 3504 3679 4088 4906 3345 4088 4088 4088 4329 4329 4088 3873 3873 5661 3199 3066 3345 3679 4599 4906 3504 4599 4599 4599 4599 4329 3873 3679 3679 5661 3066 3066 3199 3199 3504 3873 4599 4906 4329 0 4088 4088 4088 4088 3679 3066 3066 3066 3873 3066 2943 2943 2943 2943 2943 2943 3066 2943 2943 2943 2943 2943 2943 2943 3199 3199 3066 3066 3066 2943 2830 2830 2830 2628 2453 2453 2628 2628 2725 2374 2537 2374 2453 2299 2299 2102 2044 2044 2044 1887 1989 1936 1989 0 0 0 0 0
    0 0 0 0 0 0 0 0 0 0 0 0 0 0 0 0 0 0 0 0 0 0 0 0 0 0 0 0 0 0 0 0 0 0 0 0 0 0 0 0 0 0 0 0 0 0 0 0 0 0 0 0 0 0 0 0 0 0 0 0 0 0 0 0 0 0 0 0 0 8177 8177 8177 8177 8177 7359 6690 6690 6690 6133 6690 7359 0 0 0 0 0 0 0 0 0 0 0 0 0 0 8177 0 0 0 8177 0 0 0 0 8177 6690 6690 6690 7359 7359 8177 8177 8177 8177 0 0 0 7359 0 0 0 0 0 0 0 0 0 0 0 8177 5256 6690 7359 8177 0 0 0 0 0 0 0 0 0 0 7359 6133 7359 6690 3679 3679 3199 0 6133 0 0 0 0 5256 8177 0 0 0 0 0 0 0 0 8177 7359 8177 8177 4906 6690 6690 8177 8177 8177 0 80 0 0 0 0 0 0 0 8177 0 8177 8177 8177 8177 8177 7359 8177 7359 0 8177 0 0 0 0 0 0 0 0 0 0 0 6133 6133 7359 7359 7359 8177 8177 4599 5661 6690 6133 5256 4088 3679 3873 4088 5256 3345 4088 4329 4088 4599 4599 4088 3873 3873 6133 3199 3066 3345 3873 4599 4906 3504 4599 4599 4599 4599 4329 3873 3679 3679 5256 3066 3066 3199 3199 3345 3679 4599 4906 4329 0 0 3873 4088 3873 3679 3199 3199 3199 4088 3066 2943 2943 2943 2830 2830 2830 2943 2943 2830 2830 2943 2943 2943 2943 3345 3199 3199 3066 0 0 2943 2943 2943 2725 2537 2537 2725 2628 2725 2299 2453 2374 2453 2374 2374 2164 2102 2044 2102 1936 2044 1989 2044 0 0 0 0 0
    0 0 0 0 0 0 0 0 0 0 0 0 0 0 0 0 0 0 0 0 0 0 0 0 0 0 0 0 0 0 0 0 0 0 0 0 0 0 0 0 0 0 0 0 0 0 0 0 0 0 0 0 0 0 0 0 0 0 0 0 0 0 0 0 0 0 0 0 0 7359 8177 8177 7359 8177 7359 7359 8177 8177 7359 8177 8177 0 0 0 0 0 0 0 0 0 0 0 0 0 0 8177 0 0 0 8177 0 0 0 8177 8177 6690 6690 6690 7359 7359 8177 0 0 8177 0 0 0 8177 0 0 0 0 0 0 0 0 0 0 0 8177 5661 6690 7359 7359 0 0 0 0 0 0 0 0 0 0 8177 7359 9199 8177 5256 4088 3066 0 5661 0 0 0 0 4906 0 0 0 193 0 0 0 0 0 8177 7359 8177 8177 4906 6690 6690 7359 8177 8177 0 80 0 0 0 0 0 0 0 7359 8177 8177 8177 7359 7359 7359 6690 7359 7359 8177 8177 8177 0 0 0 0 0 0 0 0 0 0 5661 5661 6690 7359 7359 8177 8177 4599 5661 6690 6133 4906 3873 3504 3873 4088 5256 3345 4088 4329 4329 4906 5256 4329 4329 4088 6690 3345 3199 3345 4088 4906 4906 3504 4599 4599 4599 4599 4329 3679 3504 3504 4329 2943 2830 2830 2830 3199 3345 4329 4599 4088 0 0 3873 3873 3873 3679 3199 3199 3199 4088 3066 3066 2943 2943 2830 2943 2830 2830 2830 2830 2628 2943 3066 3066 3066 3345 3345 3199 3199 3345 0 3066 3066 0 2725 2537 2628 2725 2725 2830 2230 2453 2374 2453 2374 2374 2164 2044 1989 2044 1936 2044 1989 2044 0 0 0 0 0
    0 0 0 0 0 0 0 0 0 0 0 0 0 0 0 0 0 0 0 0 0 0 0 0 0 0 0 0 0 0 0 0 0 0 0 0 0 0 0 0 0 0 0 0 0 0 0 0 0 0 0 0 0 0 0 0 0 0 0 0 0 0 0 0 0 0 0 0 0 6690 7359 7359 6690 0 8177 0 0 0 0 0 0 0 0 0 0 0 0 0 0 0 0 0 0 0 0 8177 0 0 0 7359 0 0 0 8177 8177 6133 6690 6690 6690 6690 8177 0 0 8177 0 0 0 8177 0 0 0 0 0 0 0 0 0 0 0 8177 6133 7359 7359 7359 8177 0 0 0 0 0 0 0 0 0 8177 6690 8177 8177 5661 3504 2830 2537 3679 8177 0 0 0 4599 7359 8177 0 0 0 0 0 0 0 8177 8177 0 0 5256 7359 6690 6690 7359 7359 0 80 0 0 0 0 0 0 0 7359 8177 8177 7359 7359 7359 7359 6690 6690 6690 8177 7359 8177 0 0 0 0 0 0 0 0 0 0 5256 5256 6690 6690 6690 7359 7359 4599 5661 6133 5661 4599 3679 3504 3679 3873 4906 3345 4329 4329 4599 5256 5661 4906 4599 4599 8177 3679 0 3504 4599 4906 4906 3679 4599 4599 4599 4599 4329 3504 3345 3345 3873 2830 2725 2725 2830 2943 3199 4088 4329 3873 0 0 0 0 3679 3679 3199 3066 3199 3679 2943 2943 2830 2830 2830 2830 2830 2830 2830 2725 2725 3066 3066 3066 3066 3345 3345 3199 3199 0 0 3066 2943 0 2725 2537 2537 2725 2628 2725 2164 2453 2374 2453 2299 2299 2044 1989 1936 1989 1887 1936 1989 1989 0 0 0 0 0
    0 0 0 0 0 0 0 0 0 0 0 0 0 0 0 0 0 0 0 0 0 0 0 0 0 0 0 0 0 0 0 0 0 0 0 0 0 0 0 0 0 0 0 0 0 0 0 0 0 0 0 0 0 0 0 0 0 0 0 0 0 0 0 0 0 0 0 0 0 6133 7359 6690 6690 0 8177 0 0 0 0 0 0 0 0 0 0 0 0 0 0 8177 0 8177 0 0 0 8177 0 0 0 8177 0 0 0 8177 8177 6133 6690 6690 7359 6690 8177 0 0 0 0 0 0 0 0 0 0 0 0 0 0 0 0 0 0 9199 6690 8177 8177 8177 0 0 0 0 0 0 0 0 0 0 8177 7359 8177 7359 6690 3345 2725 2299 3504 8177 0 0 0 4599 8177 8177 8177 8177 8177 7359 0 0 0 0 0 0 0 5256 6690 6690 5661 7359 6690 0 80 8177 0 0 0 0 0 0 8177 8177 8177 8177 7359 8177 7359 6690 6690 6690 8177 7359 8177 0 0 0 0 0 0 8177 8177 8177 8177 4906 4906 6133 6690 6690 7359 6690 4599 5661 6133 5661 4088 3679 3504 3679 3873 4906 3345 4329 4599 4906 5256 5661 4906 4599 4599 8177 3504 0 3504 4599 4906 4906 3679 4599 4599 4599 4329 4088 3345 3199 3199 3345 2725 2453 2453 2628 2725 2943 4088 0 0 0 0 0 0 0 0 2943 2830 2943 3199 2830 2628 2725 2725 2725 2830 2830 2725 2725 2537 2628 2830 2943 2943 2830 3199 3199 3199 3066 3199 3066 2943 2943 0 2628 2374 2374 2537 2453 2537 1989 2299 2299 2374 2230 2164 1989 1936 1887 1936 1839 1887 1936 1936 0 0 0 0 0
    0 0 0 0 0 0 0 0 0 0 0 0 0 0 0 0 0 0 0 0 0 0 0 0 0 0 0 0 0 0 0 0 0 0 0 0 0 0 0 0 0 0 0 0 0 0 0 0 0 0 0 0 0 0 0 0 0 0 0 0 0 0 0 0 0 0 0 0 0 5661 7359 6690 6133 8177 8177 0 0 0 0 0 0 8177 0 8177 8177 0 0 8177 8177 8177 0 8177 0 8177 8177 8177 0 0 0 8177 0 0 0 8177 8177 6690 6690 7359 7359 7359 0 0 0 0 0 0 0 0 0 0 0 0 0 0 0 0 0 0 0 0 8177 0 0 0 0 0 0 0 0 0 0 0 0 0 8177 7359 8177 7359 7359 3679 2725 2164 4088 8177 0 0 8177 4906 7359 8177 8177 8177 8177 7359 7359 8177 0 0 0 0 8177 5256 6690 6133 4906 6690 6690 8177 0 8177 0 9199 8177 0 0 0 8177 0 8177 8177 7359 8177 8177 6690 6690 6133 8177 8177 8177 0 0 0 0 0 0 8177 8177 8177 8177 4906 4906 6133 6133 6133 7359 6690 4329 5256 5661 5256 4088 3679 3504 3679 4088 4906 3504 4599 4599 5256 5256 6133 4906 4599 4599 8177 3504 0 3504 4329 4906 0 0 4599 4599 4599 4088 3873 3345 0 3199 0 2628 2299 2299 2453 2453 2725 0 0 232 227 0 0 0 0 0 2725 2537 2628 2943 2537 2374 2628 2628 2628 2830 2725 2725 2628 2453 2453 2628 2830 2830 2725 3066 3066 3066 3066 3199 2943 2943 2830 0 2453 2102 2164 2299 2102 2164 1887 2164 2164 2299 2230 2102 1989 1936 1887 1936 1839 1887 1887 1887 0 0 0 0 0
    0 0 0 0 0 0 0 0 0 0 0 0 0 0 0 0 0 0 0 0 0 0 0 0 0 0 0 0 0 0 0 0 0 0 0 0 0 0 0 0 0 0 0 0 0 0 0 0 0 0 0 0 0 0 0 0 0 0 0 0 0 0 0 0 0 0 0 0 0 5256 6690 6133 6133 8177 8177 0 0 0 0 0 0 8177 8177 8177 8177 8177 8177 7359 8177 7359 0 8177 0 8177 8177 8177 0 8177 8177 8177 0 0 8177 8177 8177 6690 7359 7359 8177 8177 0 0 0 0 0 0 0 0 0 0 0 0 0 0 0 0 0 0 0 0 8177 0 0 0 0 0 0 0 0 0 0 0 0 0 8177 7359 7359 8177 7359 5661 3066 0 6133 8177 0 0 0 5661 7359 8177 8177 8177 8177 7359 7359 7359 0 8177 8177 8177 7359 5256 6133 6133 4599 6133 6133 7359 0 7359 8177 8177 7359 0 0 0 8177 0 0 8177 8177 8177 8177 7359 7359 6133 8177 8177 0 0 0 0 0 0 0 7359 8177 8177 8177 4906 4906 5661 6133 6133 6690 5661 4088 4906 5256 4906 3873 3504 3345 3679 4088 5256 3679 4599 4599 4906 4906 5661 4599 4329 4088 7359 2943 1795 3345 4088 4599 0 0 4599 4906 4599 4329 4088 0 0 0 0 2628 2299 2230 2299 2299 2453 0 0 230 227 229 0 0 0 232 2537 2374 2374 2725 2299 2102 2374 2453 2374 2725 2628 2628 2453 2299 2299 2537 2628 2725 2537 2830 2943 2943 2943 3066 2943 2943 2725 0 2374 1989 2044 2164 1989 1989 1887 2044 2044 2230 2102 2044 1887 1887 1887 1887 1795 1839 1839 1839 0 0 0 0 0
    0 0 0 0 0 0 0 0 0 0 0 0 0 0 0 0 0 0 0 0 0 0 0 0 0 0 0 0 0 0 0 0 0 0 0 0 0 0 0 0 0 0 0 0 0 0 0 0 0 0 0 0 0 0 0 0 0 0 0 0 0 0 0 0 0 0 0 0 0 4906 6690 5661 5661 8177 8177 8177 0 0 0 0 0 7359 8177 8177 8177 8177 8177 7359 8177 7359 0 8177 0 0 0 8177 0 8177 8177 8177 0 0 8177 8177 8177 7359 8177 8177 0 0 0 0 0 0 0 0 0 0 0 0 0 0 0 0 0 0 0 0 0 0 0 0 0 0 0 0 0 0 0 0 0 0 0 0 7359 6690 6690 7359 7359 6133 4906 5661 6690 8177 0 0 0 6690 8177 8177 8177 8177 0 8177 8177 7359 0 7359 8177 7359 6690 5256 6133 5661 4088 6133 6133 7359 6690 7359 8177 7359 7359 0 0 0 8177 0 0 8177 8177 0 8177 7359 7359 6690 0 0 0 0 0 0 0 0 0 8177 8177 8177 8177 4906 4906 5661 6133 6133 6690 5661 3873 4906 4906 4599 3679 3504 3345 3679 4088 4906 3679 4906 4599 5256 5256 5661 4906 4329 4088 7359 2943 1752 3345 4088 4329 4329 3504 4599 4906 4906 4599 0 0 0 0 0 2725 2299 2164 2230 2164 2230 0 0 0 226 229 0 0 231 0 2453 2230 2230 2537 2102 1936 2044 2102 2102 2453 2453 2453 2299 2164 2230 2453 2537 2628 2453 2628 2725 2830 2830 2943 2830 2830 2537 0 2164 1936 1936 2044 1936 1936 1839 1989 1989 2102 1989 1936 1839 1839 1839 1839 1795 1795 1752 1795 0 0 0 0 0
    0 0 0 0 0 0 0 0 0 0 0 0 0 0 0 0 0 0 0 0 0 0 0 0 0 0 0 0 0 0 0 0 0 0 0 0 0 0 0 0 0 0 0 0 0 0 0 0 0 0 0 0 0 0 0 0 0 0 0 0 0 0 0 0 0 0 0 0 0 4906 6133 5256 5256 7359 7359 6690 7359 8177 8177 0 0 7359 8177 7359 7359 8177 7359 7359 8177 7359 0 8177 0 0 0 0 0 8177 0 8177 0 0 8177 8177 8177 7359 8177 9199 0 0 0 0 0 0 0 0 0 0 0 0 0 0 0 0 0 0 0 0 0 0 0 0 0 0 0 0 0 0 0 0 0 0 8177 8177 7359 6133 6133 6690 6690 6133 4906 5256 6133 7359 0 8177 0 7359 0 8177 8177 0 0 8177 8177 8177 0 8177 8177 8177 6690 5661 6690 6133 3873 5661 5661 6690 6690 6690 7359 7359 6690 0 0 0 7359 0 8177 8177 8177 8177 8177 7359 6690 6133 8177 0 0 0 0 0 0 0 0 8177 8177 8177 8177 5256 4906 6133 6133 6133 7359 5661 3873 4906 4329 4088 3504 3345 3345 3679 3873 4599 3504 4599 4599 5256 5256 5256 4599 4088 4088 7359 2830 1795 3199 3873 4329 4329 3504 4599 4906 4599 4088 3873 0 0 0 0 2628 2164 2102 2164 2102 2102 3066 3199 0 0 0 0 0 0 2725 2374 2164 2164 2374 1989 1936 1936 1989 1989 2299 2230 2299 2164 2102 2164 2453 2453 2453 2299 2453 2628 2725 2725 2830 2628 2537 2230 0 1989 1887 1887 1936 1887 1887 1795 1936 1936 1989 1887 1839 1752 1752 1752 1795 1752 1752 1711 1795 0 0 0 0 0
    0 0 0 0 0 0 0 0 0 0 0 0 0 0 0 0 0 0 0 0 0 0 0 0 0 0 0 0 0 0 0 0 0 0 0 0 0 0 0 0 0 0 0 0 0 0 0 0 0 0 0 0 0 0 0 0 0 0 0 0 0 0 0 0 0 0 0 0 0 4599 6133 5256 4906 6690 6690 6133 6690 7359 7359 8177 8177 6690 8177 7359 7359 8177 7359 7359 8177 7359 0 0 0 0 0 0 0 0 0 8177 0 8177 7359 8177 8177 7359 8177 0 0 0 0 0 0 0 0 0 0 0 0 0 0 0 0 0 0 0 0 0 0 0 0 0 0 0 0 0 0 0 0 0 0 0 8177 8177 6690 6133 5661 6690 6133 6133 5256 5256 5661 7359 0 8177 9199 8177 0 0 0 0 0 0 0 0 0 8177 8177 8177 7359 6133 6690 6133 3873 5661 5661 6690 6133 6690 6690 6690 6690 0 0 0 7359 0 8177 7359 7359 8177 7359 6690 6133 6133 7359 8177 0 0 0 0 0 0 0 7359 8177 8177 8177 5661 5256 6133 6133 6133 7359 5256 3504 4329 0 3873 3504 3345 3345 3504 3873 4599 3504 4599 4599 5256 5256 5256 4329 3873 3873 6133 2830 1795 2830 3345 3504 3679 3345 4329 4599 4088 3873 3679 3066 2830 2830 2830 2453 2102 2044 2102 1989 1989 2725 2830 2943 2453 2830 2725 2628 2725 2628 2230 2102 2044 2230 1936 1887 1887 1936 1936 2164 2102 2164 2102 2102 2102 2374 2374 2374 2230 2230 2374 2453 2537 2537 2230 2102 1989 0 1887 1839 1839 1887 1839 1795 1795 1887 1887 1887 1839 1752 1752 1752 1752 1752 1711 1711 1711 1752 0 0 0 0 0
    0 0 0 0 0 0 0 0 0 0 0 0 0 0 0 0 0 0 0 0 0 0 0 0 0 0 0 0 0 0 0 0 0 0 0 0 0 0 0 0 0 0 0 0 0 0 0 0 0 0 0 0 0 0 0 0 0 0 0 0 0 0 0 0 0 0 0 0 0 4599 5661 4906 4599 6133 5661 5661 6133 6133 6133 7359 7359 6133 7359 6690 7359 7359 7359 7359 8177 7359 0 8177 0 0 0 0 0 8177 8177 0 0 7359 7359 8177 8177 7359 8177 0 0 0 0 0 0 0 0 0 0 0 0 0 0 0 0 0 0 0 0 0 0 0 0 0 0 0 0 0 0 0 0 0 0 0 8177 8177 6690 6133 6133 6690 6133 6133 5661 6133 6133 7359 8177 0 0 0 0 0 0 0 0 0 0 0 0 8177 8177 8177 7359 6133 5661 5661 3873 5256 5256 6133 6133 6133 6690 6690 6133 8177 0 0 7359 8177 6690 6690 6690 7359 7359 6690 5661 6133 7359 8177 0 0 0 0 0 0 0 6690 6690 6690 6690 5256 5256 5661 5661 6133 6690 5256 3345 4088 0 3679 3345 3345 3345 3504 3679 4329 3504 4599 4329 4906 5256 4906 4329 3873 3679 6133 2830 1989 2628 3066 3199 3504 3199 4329 4329 3873 3504 3345 2943 2628 2628 2628 2299 2044 2044 1989 1936 1887 2299 2453 2537 2164 2628 2453 2453 2537 2374 2102 1989 1989 2044 1887 1887 1839 1887 1936 2044 1989 2044 1989 2044 2044 2299 2230 2164 2102 2102 2164 2164 2230 2164 1936 1936 1887 0 1795 1839 1839 1839 1839 1795 1752 1839 1839 1839 1795 1711 1711 1711 1711 1711 1711 1711 1672 1752 0 0 0 0 0
    0 0 0 0 0 0 0 0 0 0 0 0 0 0 0 0 0 0 0 0 0 0 0 0 0 0 0 0 0 0 0 0 0 0 0 0 0 0 0 0 0 0 0 0 0 0 0 0 0 0 0 0 0 0 0 0 0 0 0 0 0 0 0 0 0 0 0 0 0 4329 5661 4599 4329 6133 5256 5256 5256 5661 5661 6133 6690 5661 6690 6133 6690 6690 6690 6133 7359 7359 0 8177 0 0 0 0 0 8177 0 0 0 7359 7359 8177 8177 8177 0 0 0 0 0 0 0 0 0 0 0 0 0 0 0 0 0 0 0 0 0 0 0 0 0 0 0 0 0 0 0 0 0 0 0 0 8177 8177 6690 6690 6690 6690 6690 6690 6690 7359 8177 0 0 0 0 0 0 0 0 0 0 0 0 0 0 8177 8177 8177 7359 6133 5256 5661 3873 5256 5256 6133 5661 6133 6690 6690 6133 8177 8177 0 6690 8177 6690 6690 6133 7359 7359 6690 5661 6133 7359 8177 0 0 0 0 0 0 0 6690 6133 6690 6690 5256 4906 5256 5256 6133 6133 5256 3199 3873 0 3679 3345 3199 3345 3504 3679 4329 3504 4599 4329 4599 4906 4906 4088 3679 3679 5256 2830 2299 2628 2725 2830 3066 3066 4088 3873 3345 3199 3066 2830 2537 2628 2537 2230 1989 1989 1936 1839 1839 1936 2044 2102 1989 2374 2164 2230 2230 2102 1989 1936 1936 1989 1839 1839 1839 1887 1887 1936 1887 1936 1936 1989 1989 2164 2102 2102 2044 2044 2044 2044 2044 1989 1839 1887 1839 1839 1795 1839 1839 1839 1839 1795 1752 1795 1795 1795 1752 1672 1672 1711 1711 1672 1672 1672 1635 1711 0 0 0 0 0
    0 0 0 0 0 0 0 0 0 0 0 0 0 0 0 0 0 0 0 0 0 0 0 0 0 0 0 0 0 0 0 0 0 0 0 0 0 0 0 0 0 0 0 0 0 0 0 0 0 0 0 0 0 0 0 0 0 0 0 0 0 0 0 0 0 0 0 0 0 4329 5256 4329 4088 5661 4599 4599 4906 5256 5256 5661 5661 5256 6133 5661 6133 6133 6133 5661 7359 7359 0 0 0 0 0 0 0 0 0 0 0 7359 6690 8177 8177 8177 0 0 0 0 0 0 0 0 0 0 0 0 0 0 0 0 0 0 0 0 0 0 0 0 0 0 0 0 0 0 0 0 0 0 0 0 0 8177 7359 7359 7359 7359 7359 8177 7359 0 0 0 0 0 0 0 0 0 0 0 0 0 0 8177 8177 7359 7359 7359 6690 6133 4599 5256 3873 5256 4906 5661 5661 6133 6133 6690 6133 0 0 0 7359 9199 7359 6690 6690 7359 7359 6690 6133 6690 7359 0 0 0 0 0 0 0 7359 6133 5661 6133 6133 5661 5256 5256 5256 5661 6133 5256 3199 3679 0 3504 3345 3199 3345 3504 3679 4329 3504 4599 4329 4599 4906 4906 4329 3679 3679 5256 2830 2537 2725 2628 2537 2725 2628 3199 3345 2830 2830 2725 2537 2374 2374 2299 2102 1989 1989 1839 1752 1795 1839 1936 1936 1936 2164 2044 2044 2102 1989 1936 1887 1887 1936 1795 1795 1795 1839 1839 1887 1839 1887 1887 1936 1936 2044 1989 1989 1989 1989 1936 1936 1936 1936 1839 1887 1839 1839 1795 0 1887 1839 1839 1795 1752 1795 1795 1752 1752 1635 1672 1672 1711 1635 1635 1672 1599 1672 0 0 0 0 0
    0 0 0 0 0 0 0 0 0 0 0 0 0 0 0 0 0 0 0 0 0 0 0 0 0 0 0 0 0 0 0 0 0 0 0 0 0 0 0 0 0 0 0 0 0 0 0 0 0 0 0 0 0 0 0 0 0 0 0 0 0 0 0 0 0 0 0 0 0 4329 5256 4329 4088 5256 4599 4329 4599 4906 4906 5661 5256 5256 5661 5661 6133 6133 5661 5256 7359 8177 0 0 0 0 0 0 0 0 0 0 0 7359 6690 7359 8177 8177 0 0 0 0 0 0 0 0 0 0 0 0 0 0 0 0 0 0 0 0 0 0 0 0 0 0 0 0 0 0 0 0 0 0 0 0 0 8177 7359 7359 7359 8177 7359 8177 8177 0 0 0 0 0 0 0 0 0 0 0 8177 8177 8177 8177 7359 7359 6690 7359 6133 6133 4599 5256 4088 5256 5256 5661 5661 5661 6133 6690 6133 0 0 0 7359 0 7359 7359 7359 8177 7359 7359 6133 6690 8177 0 0 0 0 0 0 0 6690 6133 5256 6133 6133 5661 5256 5256 5256 6133 6133 5256 3066 3504 0 3504 3345 3345 3345 3504 3679 4329 3504 4599 4088 4329 4599 4599 4088 3504 3345 3873 2725 2453 2628 2374 2374 2453 2299 2628 2830 2453 2628 2537 2537 2299 2374 2230 2102 1989 2044 1839 1795 1795 1839 1887 1887 1887 2044 1936 1989 2044 1989 1936 1887 1887 1936 1795 1795 1795 1795 1795 1839 1795 1839 1839 1936 1887 2044 1989 1989 1989 1989 1989 1989 1936 1936 1887 1887 1839 1887 1839 0 1887 1887 1839 1795 1752 1752 1752 1711 1711 1599 1635 1635 1672 1599 1635 1672 1599 1711 0 0 0 0 0
    0 0 0 0 0 0 0 0 0 0 0 0 0 0 0 0 0 0 0 0 0 0 0 0 0 0 0 0 0 0 0 0 0 0 0 0 0 0 0 0 0 0 0 0 0 0 0 0 0 0 0 0 0 0 0 0 0 0 0 0 0 0 0 0 0 0 0 0 0 4329 5256 4329 4088 5256 4599 4329 4599 4599 4906 5256 4906 4906 5256 5661 6133 6133 5661 5256 7359 0 0 0 0 0 0 0 0 0 0 0 0 7359 6690 7359 8177 8177 0 0 0 0 0 0 0 0 0 0 0 0 0 0 0 0 0 0 0 0 0 0 0 0 0 0 0 0 0 0 0 0 0 0 0 0 0 8177 7359 7359 8177 8177 7359 0 8177 0 0 0 0 0 0 0 0 0 0 0 0 8177 8177 7359 7359 6690 6690 7359 6690 6133 4599 5661 4088 5256 5256 5661 5256 5661 6133 6690 6133 0 0 0 7359 0 7359 7359 7359 8177 8177 7359 6690 7359 0 0 0 0 0 0 0 0 6133 6133 5256 5661 5661 5256 5256 5256 4906 6133 5661 5661 3066 3679 3345 3679 3345 3345 3345 3504 3679 4329 3504 4599 4088 4088 4599 4329 3873 3345 3199 3345 2628 2453 2537 2299 2299 2299 2230 2453 2537 2230 2374 2299 2374 2230 2299 2299 2102 2044 2230 1887 1795 1839 1839 1839 1887 1839 1936 1887 1936 1989 1936 1887 1887 1887 1887 1795 1795 1752 1795 0 1795 1795 1795 1795 0 0 2044 0 1989 0 1989 1989 1989 1936 1936 1839 1887 1887 1887 1887 1936 0 0 1887 1795 1752 1752 1752 1711 1672 1599 1635 1635 1672 1599 1635 1635 1599 1672 0 0 0 0 0
    0 0 0 0 0 0 0 0 0 0 0 0 0 0 0 0 0 0 0 0 0 0 0 0 0 0 0 0 0 0 0 0 0 0 0 0 0 0 0 0 0 0 0 0 0 0 0 0 0 0 0 0 0 0 0 0 0 0 0 0 0 0 0 0 0 0 0 0 0 4329 5256 4088 3873 4906 4329 4329 4329 4599 4599 5256 4906 4906 5256 5256 6133 6133 5661 5256 7359 0 0 0 0 0 0 0 0 0 0 0 0 7359 6690 8177 0 8177 0 0 0 0 0 0 0 0 0 0 0 0 0 0 0 0 0 0 0 0 0 0 0 0 0 0 0 0 0 0 0 0 0 0 0 0 0 0 7359 7359 8177 9199 8177 0 8177 0 0 0 0 0 0 0 0 0 0 0 0 8177 8177 8177 8177 7359 6690 8177 7359 6690 4599 5661 4329 5256 5256 5661 5256 5661 5661 6690 5661 0 7359 0 6133 7359 6690 6133 6690 7359 7359 7359 6690 7359 0 0 0 0 0 0 0 0 5256 6133 4906 5661 5661 5256 5256 4906 4906 6133 5661 6133 3199 3873 3504 3679 3504 3345 3345 3504 3679 4329 3504 4329 3873 3873 4329 4088 3679 3199 3066 3066 2628 2453 2537 2230 2299 2299 2164 2374 2374 2102 2299 2230 2299 2164 2164 2230 2102 2044 2374 1887 1752 1839 1839 1839 1839 1839 1839 1795 1839 1887 1839 1839 1839 0 1887 1795 1839 0 0 0 0 1795 1795 0 462 462 0 0 0 0 0 0 1989 1936 1936 1887 1936 1887 1887 1936 0 0 0 1887 1795 1752 1752 1711 1672 1672 1599 1635 1635 1672 1599 1635 1635 1565 1635 0 0 0 0 0
    0 0 0 0 0 0 0 0 0 0 0 0 0 0 0 0 0 0 0 0 0 0 0 0 0 0 0 0 0 0 0 0 0 0 0 0 0 0 0 0 0 0 0 0 0 0 0 0 0 0 0 0 0 0 0 0 0 0 0 0 0 0 0 0 0 0 0 0 0 4329 5256 4088 3873 4599 4329 4088 4088 4329 4329 4906 4329 4599 4906 5256 5661 6133 5661 5256 6690 0 0 8177 0 0 0 0 0 0 0 0 0 8177 6690 7359 8177 8177 0 8177 0 0 0 0 0 0 0 0 0 0 0 0 0 0 0 0 0 0 0 0 0 0 0 0 0 0 8177 0 0 0 0 0 0 0 0 0 8177 8177 8177 0 8177 0 0 0 0 0 0 0 0 0 0 0 0 0 8177 8177 8177 8177 8177 8177 6690 8177 7359 7359 4906 6133 4599 5661 5661 6133 5661 5661 6133 6133 4906 8177 6690 7359 4906 6133 5256 4906 6690 7359 7359 7359 6690 8177 0 0 0 0 0 0 0 0 4906 5661 4599 5256 5256 5256 4906 4906 4906 6133 5256 6690 3345 4088 3504 3679 3504 0 3345 3504 3679 4088 3504 4329 3679 3679 4088 3873 3504 3199 2943 2943 2537 2453 2537 2230 2299 2230 2164 2374 2230 2044 2230 2102 2230 2102 2102 2164 2044 2044 2453 1887 1752 1795 1795 1795 0 1752 1752 1752 1752 1839 1839 1795 0 0 0 1795 0 0 0 256 257 0 0 0 457 459 0 0 0 0 0 1989 2044 1989 1989 1887 1989 1887 1936 1936 0 0 0 1887 1839 1752 1752 1711 1672 1672 1599 1672 1635 1635 1599 1635 1635 1565 1635 0 0 0 0 0
    0 0 0 0 0 0 0 0 0 0 0 0 0 0 0 0 0 0 0 0 0 0 0 0 0 0 0 0 0 0 0 0 0 0 0 0 0 0 0 0 0 0 0 0 0 0 0 0 0 0 0 0 0 0 0 0 0 0 0 0 0 0 0 0 0 0 0 0 0 4329 5256 4088 3679 4599 4088 4088 4088 4088 4088 4906 4329 4329 4599 4906 5661 6133 5661 4906 6133 8177 0 7359 0 0 0 0 0 0 0 0 0 0 6690 7359 8177 8177 0 8177 0 0 0 0 0 0 0 0 0 0 0 0 0 0 0 0 0 0 0 0 0 0 0 8177 0 0 7359 0 0 0 0 0 0 0 0 0 8177 8177 0 0 8177 0 0 0 0 0 0 0 0 0 0 0 0 0 8177 8177 8177 8177 0 8177 7359 8177 8177 6690 5256 6133 4599 5661 5661 6133 5661 5661 6133 6133 4906 8177 5661 0 3679 4599 4088 3679 6133 7359 6690 7359 6690 7359 0 0 0 0 0 0 0 0 4906 5661 4599 5256 5256 5256 4906 4906 4906 6133 5256 6690 3345 3873 3504 3679 3504 0 0 0 3679 4088 3504 4088 3679 3679 3873 3679 3504 3066 2830 2830 2537 2453 2453 2164 2299 2230 2164 2299 2164 2044 2230 2164 2299 2102 2102 2230 2102 2102 2537 1887 1672 1752 1795 1795 0 1752 1752 1752 1752 1839 1839 0 0 0 0 0 0 0 0 257 257 0 0 0 0 457 462 0 0 0 1989 1936 2044 1989 1989 1887 1989 1887 1936 1936 1989 1989 1936 1887 1839 1752 1752 1711 1672 1672 1635 1635 1635 1599 1599 1599 1565 1533 1565 0 0 0 0 0
    0 0 0 0 0 0 0 0 0 0 0 0 0 0 0 0 0 0 0 0 0 0 0 0 0 0 0 0 0 0 0 0 0 0 0 0 0 0 0 0 0 0 0 0 0 0 0 0 0 0 0 0 0 0 0 0 0 0 0 0 0 0 0 0 0 0 0 0 0 4329 5256 3873 3679 4329 4088 3873 3873 4088 4088 4906 4599 4329 4599 5256 5661 6133 5256 4329 4906 6690 7359 6690 6133 0 0 0 0 0 0 0 0 0 8177 8177 0 0 0 0 0 0 0 0 0 0 0 0 0 0 0 0 0 0 0 0 0 0 0 0 0 0 0 8177 0 0 6690 0 0 0 0 0 0 0 0 0 8177 8177 0 0 8177 0 0 0 0 0 0 0 0 0 0 0 0 8177 8177 0 8177 8177 0 8177 7359 8177 8177 6690 5256 6133 4599 5661 5256 6133 5661 5661 6133 6133 4599 7359 4599 0 3066 3345 3345 3199 4599 6690 6133 6690 6690 6690 8177 8177 8177 8177 0 0 0 0 4906 6133 4599 5256 5661 5256 4906 4906 4906 6133 5256 6690 3504 4088 3679 3873 3504 0 3504 3504 3679 4329 3504 4088 3679 3504 0 0 0 0 0 2830 2537 2453 2453 2164 2299 2230 2164 2299 2102 2044 2230 2164 2299 2102 2102 2230 2164 2102 2628 1839 1635 1752 1752 1795 0 0 1752 1752 1752 1839 1839 0 0 0 0 0 0 0 0 258 258 257 0 0 454 454 462 0 0 1936 1989 1936 1989 1936 1936 1887 1936 1887 1887 1936 1989 1989 1936 1887 1839 1752 1752 1711 1672 1672 1635 1635 1635 1599 1565 1565 1533 1501 1533 0 0 0 0 0
    0 0 0 0 0 0 0 0 0 0 0 0 0 0 0 0 0 0 0 0 0 0 0 0 0 0 0 0 0 0 0 0 0 0 0 0 0 0 0 0 0 0 0 0 0 0 0 0 0 0 0 0 0 0 0 0 0 0 0 0 0 0 0 0 0 0 0 0 0 4329 5256 3873 3873 4329 4088 3873 3873 4088 4088 4599 4329 4088 4599 4906 5256 5661 4906 4088 4599 6133 6690 5661 3873 0 7359 0 0 0 0 0 0 0 0 0 0 0 0 0 0 0 0 0 0 0 0 0 0 0 0 0 0 0 0 0 0 0 0 0 0 0 0 0 0 0 6133 0 0 0 0 0 0 0 0 0 0 0 0 0 8177 0 0 0 0 0 0 0 0 0 0 0 0 0 0 0 0 0 0 9199 8177 0 0 6690 5661 6690 4599 5661 5661 6133 6133 6133 6690 6133 4329 6690 3873 0 2943 3066 3199 3066 3345 6133 5256 6133 6133 6690 7359 7359 7359 7359 0 8177 8177 8177 4906 6133 4599 5661 5661 5256 4906 4599 4906 6133 5256 6690 3873 3873 3679 3873 3679 0 3504 3504 3873 4329 3504 4088 3504 3504 0 0 0 0 0 2830 2453 2453 2453 2164 2299 2230 2164 2299 2102 2044 2164 2102 2299 2102 2102 2230 2164 2102 2628 1887 1672 1752 1795 1839 0 0 0 0 0 0 0 0 462 459 0 0 459 451 451 258 258 258 258 254 0 454 0 0 1936 1936 1936 1936 1989 1936 1936 1887 1936 1887 1887 1887 1936 1936 1887 1887 1839 1752 1752 1752 1711 1711 1672 1635 1635 1565 1533 1533 1471 1471 1501 0 0 0 0 0
    0 0 0 0 0 0 0 0 0 0 0 0 0 0 0 0 0 0 0 0 0 0 0 0 0 0 0 0 0 0 0 0 0 0 0 0 0 0 0 0 0 0 0 0 0 0 0 0 0 0 0 0 0 0 0 0 0 0 0 0 0 0 0 0 0 0 0 0 0 4329 5256 3873 3873 4088 4088 3873 3873 4088 4088 4599 4329 4088 4906 5256 5661 5661 4906 3873 4329 5256 5256 4599 3199 4906 6690 0 0 8177 0 0 0 0 0 0 0 0 0 0 0 0 0 0 0 0 0 0 0 0 0 0 0 0 0 0 0 0 0 0 0 0 0 0 0 0 6133 0 0 0 0 0 0 0 0 0 9199 0 0 0 8177 0 0 0 0 0 0 0 0 0 0 0 0 0 0 0 0 0 0 0 8177 0 0 6690 6133 6690 4906 5661 5661 6133 5661 6133 6133 5256 3873 5256 3345 0 2943 2943 3066 2943 3066 4599 4329 5256 5661 5661 6690 6690 7359 6690 8177 7359 8177 8177 4906 6133 4906 5256 5661 5256 4906 4599 4906 6133 5256 6133 3873 3873 3679 3873 3679 3345 3504 3504 3873 4329 3679 3873 3504 3504 0 0 0 0 0 2725 2453 2453 2374 2102 2299 2230 2164 2299 2102 2044 2164 2102 2299 2044 2102 2230 2102 2102 2628 1887 1711 1795 1795 1839 1839 1795 0 0 0 0 0 0 462 459 465 454 462 451 451 0 0 0 259 0 0 454 0 1936 1936 1936 1936 1887 1989 1887 1887 1887 1887 1839 1839 1887 1936 1887 1887 1839 1839 1752 1795 1795 1752 1711 1672 1672 1635 1533 1501 1501 1443 1443 1471 0 0 0 0 0
    0 0 0 0 0 0 0 0 0 0 0 0 0 0 0 0 0 0 0 0 0 0 0 0 0 0 0 0 0 0 0 0 0 0 0 0 0 0 0 0 0 0 0 0 0 0 0 0 0 0 0 0 0 0 0 0 0 0 0 0 0 0 0 0 0 0 0 0 0 4599 5661 4088 3873 4088 4329 4088 3873 4088 4088 4599 4599 4329 5661 5661 5661 6133 4906 3679 4088 4599 3873 3679 2943 3066 4329 0 0 6133 0 0 0 0 0 0 0 0 0 0 0 0 0 0 0 8177 0 0 0 0 0 0 8177 0 0 0 0 0 0 0 0 0 0 0 0 0 6133 0 0 0 8177 8177 0 8177 0 0 8177 7359 8177 8177 7359 0 0 0 0 0 0 0 0 0 0 0 0 8177 0 0 0 0 0 0 8177 8177 0 6690 6133 6690 4906 5661 5661 6133 5661 5661 5661 4599 3345 3504 2943 2725 2725 2830 2830 2725 2830 3504 3504 4906 5256 5256 6133 6690 6690 6133 7359 7359 7359 8177 5256 6133 4906 5256 5661 5256 4906 4329 4599 5661 4599 5256 3873 3679 3679 3873 3679 3345 3504 3504 3873 4329 3679 3873 0 0 0 0 0 0 0 2725 2374 2374 2299 2102 2299 2164 2102 2299 2102 2044 2164 2102 2230 1989 2044 2164 2102 2102 2537 1887 1635 1752 1795 1795 1795 1752 1752 1752 1795 1839 0 0 0 0 465 454 462 454 451 0 0 0 0 0 0 0 1887 1936 1887 1887 1936 1887 1936 1887 1887 1887 1887 1839 1839 1887 1887 1887 1839 1839 1839 1752 1795 1795 1752 1752 1672 1672 1672 1533 1533 1501 1443 1443 1443 0 0 0 0 0
    0 0 0 0 0 0 0 0 0 0 0 0 0 0 0 0 0 0 0 0 0 0 0 0 0 0 0 0 0 0 0 0 0 0 0 0 0 0 0 0 0 0 0 0 0 0 0 0 0 0 0 0 0 0 0 0 0 0 0 0 0 0 0 0 0 0 0 0 0 4599 5661 4088 4088 4088 4329 4088 3873 4088 4329 4329 4599 4329 5661 5256 5661 5661 4599 3679 4088 3873 3345 3345 2830 2830 3199 0 4329 3873 3199 0 0 0 7359 0 0 0 0 0 0 0 0 8177 8177 7359 0 8177 0 0 7359 7359 6690 7359 8177 8177 8177 8177 8177 0 0 0 0 0 0 0 5661 0 0 8177 7359 7359 8177 6690 8177 0 8177 6690 6690 7359 7359 0 0 0 8177 7359 0 0 0 7359 0 0 0 0 0 0 0 0 0 0 8177 8177 0 6133 6133 7359 5256 5661 5661 6133 5256 5661 5256 3873 3066 3066 2830 2628 2628 2725 2628 2628 2725 3199 3345 4599 4599 4906 5661 6133 6133 5661 6690 6690 6690 7359 5256 6133 4906 5256 5661 4906 4599 4088 4329 5661 4599 5256 3873 3504 3873 3873 3679 3345 3504 3504 3873 4329 3679 3873 0 0 0 0 0 0 0 2725 2374 2374 2230 2102 2230 2164 2102 2230 2102 2044 2164 2044 2230 1989 2044 2164 2102 2102 2537 1795 1415 1672 1711 1752 1752 1711 1711 1711 1795 1839 0 0 0 0 0 0 465 454 451 0 0 0 0 0 0 0 1936 1936 1936 1936 1936 1887 1989 1887 1887 1839 1839 1795 1795 1839 1887 1887 1839 1839 1839 1752 1795 1795 1752 1711 1672 1672 1672 1501 1501 1471 1415 1415 1443 0 0 0 0 0
    0 0 0 0 0 0 0 0 0 0 0 0 0 0 0 0 0 0 0 0 0 0 0 0 0 0 0 0 0 0 0 0 0 0 0 0 0 0 0 0 0 0 0 0 0 0 0 0 0 0 0 0 0 0 0 0 0 0 0 0 0 0 0 0 0 0 0 0 0 4906 5661 4329 4088 4088 4329 4088 3873 4088 4329 4329 4599 4329 5661 4906 5661 5256 4088 3504 3873 3504 3066 3066 2725 2628 2830 2830 3199 3066 2830 6690 0 0 5661 0 0 0 0 0 8177 8177 8177 7359 6690 5661 7359 7359 8177 8177 5661 6690 6133 6690 7359 6690 6690 7359 7359 0 0 0 0 0 0 0 6690 0 0 0 8177 7359 8177 6690 0 0 7359 5661 5256 5661 5661 7359 7359 8177 7359 6690 7359 7359 0 6690 0 0 8177 0 0 0 0 0 0 0 8177 8177 0 6133 6690 7359 5256 0 0 6133 0 5661 5256 3679 3066 3066 2830 2725 2628 2628 2537 2628 2725 3066 3199 4329 4329 4329 4906 5661 5661 5256 6133 6690 6133 7359 5256 6133 4906 5256 5661 4906 4599 4088 4329 5256 4329 4906 3873 3504 3873 3873 3873 0 0 0 4088 4599 3679 3873 0 0 0 0 0 0 2628 2725 2374 2374 2230 2102 2230 2164 2102 2230 2044 2044 2164 2044 2164 1989 1989 2164 2102 2102 2537 1795 1291 1533 1635 1711 1672 1672 1672 1672 1752 1839 0 0 0 0 0 0 0 454 451 0 0 0 0 0 0 0 1936 1936 1936 1936 1936 1887 1936 1887 1839 1795 1795 1752 1752 1795 0 0 1839 1839 1839 1752 1795 1795 1752 1672 1672 1672 1672 1471 1501 1443 1415 1443 1443 0 0 0 0 0
    0 0 0 0 0 0 0 0 0 0 0 0 0 0 0 0 0 0 0 0 0 0 0 0 0 0 0 0 0 0 0 0 0 0 0 0 0 0 0 0 0 0 0 0 0 0 0 0 0 0 0 0 0 0 0 0 0 0 0 0 0 0 0 0 0 0 0 0 0 4906 6133 4329 4329 4088 4599 4088 3873 4088 4329 4088 4599 4088 5256 4906 5256 5256 3873 3504 3679 3199 2943 2943 2628 2628 2830 2830 2943 2943 2830 5661 0 0 4329 0 0 0 0 0 7359 7359 7359 6690 5661 4599 5661 6133 6690 7359 4906 6133 5661 6690 6690 6690 6690 6690 6690 0 0 0 0 0 0 0 7359 0 0 0 8177 8177 8177 6690 8177 0 6690 3873 3504 3679 3679 4906 5256 0 0 0 6690 5661 7359 5661 0 0 7359 6133 0 0 0 0 0 0 8177 8177 0 0 7359 0 0 80 0 6133 0 6133 6133 3679 3199 3199 2830 2725 2628 2628 2537 2537 2725 3199 3199 3873 4088 4088 4599 5256 5661 5256 6133 6690 6133 6690 0 6133 5256 5256 5661 4906 0 0 4329 5256 4329 4329 3679 3345 0 0 0 0 343 0 0 4906 0 4088 0 0 0 0 3199 0 0 0 2374 2374 2230 2044 2230 2102 2102 2164 2044 1989 2102 2044 2164 1989 1989 2102 2044 2102 2537 1711 1291 1388 1533 1635 1599 0 0 1635 0 1795 0 0 0 0 0 0 0 0 0 0 0 0 0 0 0 0 1936 1989 1936 1936 1989 1887 1936 1887 1839 1795 1752 1711 1711 1711 0 0 1752 1752 1839 1711 1839 1887 1795 1672 1711 1711 1711 1533 1565 1471 1443 1471 1533 0 0 0 0 0
    0 0 0 0 0 0 0 0 0 0 0 0 0 0 0 0 0 0 0 0 0 0 0 0 0 0 0 0 0 0 0 0 0 0 0 0 0 0 0 0 0 0 0 0 0 0 0 0 0 0 0 0 0 0 0 0 0 0 0 0 0 0 0 0 0 0 0 0 0 4906 6133 4599 4599 4088 4906 4329 3873 4088 4329 4088 4599 4329 5661 4906 5256 5256 4088 3504 3679 3199 2830 2830 2628 2628 2830 2725 2943 2830 2830 6133 0 0 0 0 0 0 0 0 7359 6690 6690 6133 4906 3873 4906 5661 6133 6690 4599 5661 5661 0 0 6133 6133 0 0 0 0 0 0 0 0 0 7359 0 0 0 8177 8177 8177 6690 7359 0 5256 0 0 0 3066 0 0 0 0 0 4599 3873 0 4088 6690 0 6690 4599 0 8177 0 0 0 0 8177 0 0 0 0 0 0 80 0 6690 0 6133 6133 3679 3199 0 2830 2725 2628 2628 2537 2537 2725 3066 3066 3873 3873 3873 4329 4906 5256 4906 5256 6133 5256 0 0 0 0 0 0 0 98 0 4329 0 0 0 0 337 339 342 340 340 342 342 0 0 0 4088 0 3873 3873 3345 0 0 0 0 2299 2299 2164 2044 2164 2102 2044 2102 1989 1989 2102 1989 2102 1936 1936 2044 1989 2044 0 1635 1268 1314 1443 1471 0 0 0 0 0 0 0 0 330 0 333 333 0 331 331 334 0 0 2453 2102 2374 2044 2102 2102 2044 1989 2044 1936 1989 1936 1887 1795 1711 1711 0 0 0 1711 1672 1711 0 0 0 2102 1887 0 1839 1795 1795 1635 1635 1533 1501 0 0 0 0 0 0 0
    0 0 0 0 0 0 0 0 0 0 0 0 0 0 0 0 0 0 0 0 0 0 0 0 0 0 0 0 0 0 0 0 0 0 0 0 0 0 0 0 0 0 0 0 0 0 0 0 0 0 0 0 0 0 0 0 0 0 0 0 0 0 0 0 0 0 0 0 0 4906 6133 4599 4599 4088 4906 4329 3873 4088 4599 4088 4599 4329 5661 4906 5661 4906 3873 3504 3679 3066 2725 2725 2537 2537 2725 2628 2830 2725 2830 3873 0 0 0 0 0 0 0 8177 6690 6133 6133 5661 4599 3873 4088 4906 5256 6133 4599 0 0 0 0 0 0 0 0 0 0 0 0 0 0 0 0 0 0 8177 8177 8177 8177 6690 6690 0 0 0 0 0 0 0 0 0 0 0 0 0 0 0 0 0 5661 3679 0 0 0 0 0 0 0 0 0 0 0 0 0 80 0 6690 0 5661 0 0 0 0 2830 2725 2628 2628 2537 2537 2725 2943 0 3679 3873 3873 4088 4599 0 4329 4599 5256 4329 0 334 340 0 0 0 0 0 0 0 0 0 347 343 336 337 340 339 339 340 339 343 0 350 0 0 0 0 3504 0 259 0 0 0 2299 2102 1936 2044 2044 2044 2102 1989 1989 2044 1989 2102 1936 1936 1989 1936 2044 2164 1533 1247 1247 1362 1338 0 0 0 0 0 0 0 336 331 334 334 334 333 333 334 336 336 339 0 0 0 0 0 2299 2374 2164 0 0 0 0 0 0 0 0 0 0 0 0 0 0 336 333 325 0 2102 0 0 0 0 0 0 0 334 331 328 0 0 0 0 0
    0 0 0 0 0 0 0 0 0 0 0 0 0 0 0 0 0 0 0 0 0 0 0 0 0 0 0 0 0 0 0 0 0 0 0 0 0 0 0 0 0 0 0 0 0 0 0 0 0 0 0 0 0 0 0 0 0 0 0 0 0 0 0 0 0 0 0 0 0 4906 6133 4599 4906 4088 4906 0 3873 4088 4599 4088 4599 4329 6133 5256 5661 5256 3873 3679 3679 3199 2830 2830 2537 2537 2628 2537 2725 2628 2725 0 0 0 0 0 0 0 0 0 0 0 5256 4906 4088 3504 3504 3873 4088 4906 0 0 0 0 0 0 0 0 0 0 0 0 345 0 0 342 350 0 0 7359 0 0 0 0 0 0 0 0 0 0 0 0 0 0 0 0 0 0 0 0 0 0 0 3199 0 0 0 0 97 0 0 0 0 0 0 0 0 80 0 0 0 0 0 0 311 311 0 2628 2537 2628 2537 2628 2725 2943 0 3504 3679 0 0 0 0 0 0 4599 0 0 336 339 342 343 350 347 0 345 345 350 343 343 342 336 337 339 337 337 339 339 342 342 347 0 0 350 342 0 0 0 0 0 0 0 2102 1887 0 1936 1989 2044 1936 1936 2044 1989 2044 1936 1936 1936 1887 2044 1989 1415 1226 1206 0 0 0 0 0 0 0 0 0 336 331 334 334 334 333 334 336 337 337 339 337 337 336 337 0 0 336 336 337 339 340 340 339 339 340 342 340 340 340 337 337 339 339 336 331 330 0 333 331 331 333 333 334 333 334 331 330 0 0 0 0 0
    0 0 0 0 0 0 0 0 0 0 0 0 0 0 0 0 0 0 0 0 0 0 0 0 0 0 0 0 0 0 0 0 0 0 0 0 0 0 0 0 0 0 0 0 0 0 0 0 0 0 0 0 0 0 0 0 0 0 0 0 0 0 0 0 0 0 0 0 0 5256 0 0 0 4088 0 0 0 4088 4599 4088 4906 4906 6690 5661 6133 5661 0 0 0 0 0 2830 2453 2537 2537 2453 2628 2628 2628 0 0 0 0 0 143 0 0 0 0 0 4329 3873 3504 3345 0 0 0 0 347 0 0 0 0 93 0 0 0 0 0 345 343 340 340 343 347 353 352 350 0 0 0 353 0 149 0 0 0 0 0 0 0 0 0 0 342 0 0 0 0 0 0 0 0 0 0 0 0 0 0 0 0 0 0 0 0 0 0 0 0 0 313 315 315 0 319 319 0 0 0 2537 0 0 0 3199 3199 0 0 157 157 0 0 0 0 0 339 340 342 343 348 345 345 343 345 347 343 342 342 337 337 340 339 339 340 340 342 343 345 347 347 347 342 0 0 339 336 337 333 333 0 0 0 0 1936 1936 0 0 0 0 0 1887 0 0 1752 0 1839 1338 1187 1149 0 0 0 0 0 0 0 0 0 336 333 336 336 336 334 336 337 337 337 339 337 337 337 339 337 337 337 337 339 340 340 342 340 340 340 342 342 342 342 340 340 342 342 340 337 336 336 336 334 333 334 334 334 333 333 331 330 0 0 0 0 0
    0 0 0 0 0 0 0 0 0 0 0 0 0 0 0 0 0 0 0 0 0 0 0 0 0 0 0 0 0 0 0 0 0 0 0 0 0 0 0 0 0 0 0 0 0 0 0 0 0 0 0 0 0 0 0 0 0 0 0 0 0 0 0 0 0 0 0 0 0 0 0 0 0 0 0 0 0 0 4599 4088 5256 4906 0 0 0 0 0 0 0 0 0 0 0 2537 2453 2299 2628 2537 0 0 0 0 0 0 143 142 0 0 0 0 0 3199 3199 0 0 342 343 345 345 348 353 350 0 0 0 94 0 0 345 343 342 340 340 343 347 353 352 350 350 359 357 352 345 0 340 342 342 340 340 340 345 348 348 348 345 343 343 0 0 0 0 0 337 337 340 333 339 340 342 339 339 339 339 0 0 0 337 330 327 325 322 321 0 319 324 322 333 334 334 0 0 0 0 0 0 0 156 156 0 0 0 0 0 339 340 342 343 342 347 345 343 343 345 345 342 342 342 337 337 340 340 340 342 342 342 343 343 345 345 343 342 340 339 340 339 340 339 339 342 342 342 342 0 0 0 0 340 0 339 0 337 0 0 0 0 0 0 0 0 0 0 0 0 0 340 339 336 336 336 337 337 337 336 339 339 339 339 339 339 337 337 339 337 337 339 339 340 340 342 342 340 340 340 342 342 340 342 340 342 342 342 340 339 337 336 336 334 333 334 334 334 331 333 331 330 0 0 0 0 0
    0 0 0 0 0 0 0 0 0 0 0 0 0 0 0 0 0 0 0 0 0 0 0 0 0 0 0 0 0 0 0 0 0 0 0 0 0 0 0 0 0 0 0 0 0 0 0 0 0 0 0 0 0 0 0 0 0 0 0 0 0 0 0 0 0 0 0 0 0 0 342 0 0 0 0 0 0 0 0 0 0 0 0 352 0 0 357 0 0 0 0 0 0 0 0 2453 2628 2537 0 0 0 0 0 0 143 142 0 0 0 0 0 0 0 0 342 343 345 347 345 347 350 348 353 0 0 0 0 0 343 342 342 340 340 343 345 350 348 348 348 357 355 348 345 343 342 342 343 343 342 342 350 352 350 350 348 347 345 342 343 342 343 343 340 342 342 339 342 342 343 340 340 342 340 340 343 340 337 334 334 333 330 330 328 327 330 330 336 336 336 337 337 337 339 339 339 337 0 0 339 339 343 343 342 340 342 340 343 342 343 343 342 342 343 343 343 343 343 342 340 343 343 343 343 343 342 343 343 345 343 342 340 342 340 340 342 342 342 340 343 343 343 342 342 342 340 340 342 340 340 0 340 340 0 0 0 0 0 0 0 0 339 0 339 339 339 340 337 337 339 340 340 340 337 340 340 340 340 339 339 339 339 340 337 337 339 339 340 340 342 342 340 340 340 342 340 340 340 339 340 342 340 340 337 336 334 334 333 333 333 333 333 331 333 331 330 0 0 0 0 0
    0 0 0 0 0 0 0 0 0 0 0 0 0 0 0 0 0 0 0 0 0 0 0 0 0 0 0 0 0 0 0 0 0 0 0 0 0 0 0 0 0 0 0 0 0 0 0 0 0 0 0 0 0 0 0 0 0 0 0 0 0 0 0 0 0 0 0 0 0 340 343 342 343 0 0 0 345 342 0 337 342 343 343 347 345 347 347 352 362 0 0 0 0 0 0 0 0 0 0 0 0 0 0 0 0 0 342 0 0 0 0 0 342 343 343 345 345 345 343 343 343 340 342 342 0 340 0 342 342 340 340 342 340 343 345 348 345 347 347 353 350 347 343 343 342 343 343 343 342 343 347 347 345 345 345 345 343 342 343 342 343 343 343 343 343 340 343 343 343 342 342 342 342 340 343 340 339 336 336 334 331 334 333 331 333 333 336 336 337 339 339 339 339 339 340 339 343 340 342 342 343 343 343 340 343 342 343 342 343 343 342 342 345 343 343 343 343 342 340 342 343 343 342 343 342 342 342 343 343 342 340 342 340 340 343 342 342 340 343 342 343 342 343 342 342 340 342 340 340 337 339 339 0 0 0 0 0 0 347 343 342 340 342 340 340 342 339 340 340 340 342 340 339 340 340 340 340 339 339 339 339 340 339 339 339 339 340 340 342 342 342 340 340 342 340 340 340 339 340 340 340 340 337 337 334 336 334 333 333 333 333 331 333 333 331 0 0 0 0 0
    0 0 0 0 0 0 0 0 0 0 0 0 0 0 0 0 0 0 0 0 0 0 0 0 0 0 0 0 0 0 0 0 0 0 0 0 0 0 0 0 0 0 0 0 0 0 0 0 0 0 0 0 0 0 0 0 0 0 0 0 0 0 0 0 0 0 0 0 0 340 343 343 343 345 345 347 348 345 343 339 342 343 342 343 342 343 342 343 347 343 343 343 0 343 345 345 343 0 0 0 0 343 347 340 339 339 339 339 339 340 342 342 342 343 343 343 343 343 342 340 339 336 336 337 336 336 334 340 339 339 340 340 340 345 343 348 345 345 347 350 347 347 343 343 343 343 342 343 342 342 343 345 343 343 343 347 345 343 345 343 345 345 343 345 343 342 343 343 343 343 343 343 342 342 343 340 340 0 336 336 333 336 336 334 336 336 337 337 337 339 339 339 340 340 342 342 345 343 343 343 345 345 345 343 345 343 345 343 345 343 342 342 343 343 342 342 342 340 337 340 342 342 342 342 342 342 342 343 343 340 340 342 340 342 343 343 343 342 345 343 343 343 343 343 342 342 342 340 340 337 339 337 0 0 0 0 0 0 348 345 345 342 343 342 342 343 340 340 340 340 342 340 339 342 340 340 340 340 340 339 340 340 339 339 339 340 342 342 342 342 342 340 340 342 340 340 339 339 340 340 339 339 336 336 334 336 334 333 333 333 333 331 333 333 331 0 0 0 0 0
    0 0 0 0 0 0 0 0 0 0 0 0 0 0 0 0 0 0 0 0 0 0 0 0 0 0 0 0 0 0 0 0 0 0 0 0 0 0 0 0 0 0 0 0 0 0 0 0 0 0 0 0 0 0 0 0 0 0 0 0 0 0 0 0 0 0 0 0 0 342 345 343 343 345 347 348 350 345 345 340 342 342 342 342 340 342 342 343 345 342 342 342 0 342 343 343 342 342 343 343 342 342 343 339 339 337 337 339 340 340 342 342 342 342 342 342 342 342 340 339 337 334 334 336 333 333 334 339 339 337 339 340 340 343 343 347 345 347 345 350 347 347 342 345 343 343 342 342 340 340 342 343 342 343 343 350 347 347 347 345 347 347 345 347 343 342 343 343 343 343 343 343 342 342 343 340 339 0 337 336 334 337 337 336 337 337 337 337 339 339 339 339 340 340 342 343 347 345 347 345 347 348 348 347 347 345 347 343 345 345 343 343 343 342 340 339 339 339 337 339 342 342 340 342 342 342 342 342 343 340 340 342 340 343 345 343 347 343 347 345 345 343 345 343 343 342 342 342 342 339 339 337 337 337 337 0 0 0 345 343 343 342 343 342 342 343 340 340 340 340 340 340 339 342 342 340 340 340 340 340 340 342 339 339 339 340 342 342 342 342 342 340 340 342 340 340 0 337 339 340 339 337 336 336 334 336 334 334 334 333 333 331 333 333 331 0 0 0 0 0
    0 0 0 0 0 0 0 0 0 0 0 0 0 0 0 0 0 0 0 0 0 0 0 0 0 0 0 0 0 0 0 0 0 0 0 0 0 0 0 0 0 0 0 0 0 0 0 0 0 0 0 0 0 0 0 0 0 0 0 0 0 0 0 0 0 0 0 0 0 342 345 345 345 345 347 347 348 345 343 339 342 340 342 342 340 342 340 343 343 340 342 340 0 342 343 343 342 342 342 342 342 342 343 339 337 337 337 339 339 340 340 342 342 342 340 340 340 340 339 337 336 333 333 336 333 333 334 340 339 339 339 340 340 345 343 347 345 347 347 350 347 347 342 343 343 342 340 342 340 340 342 343 342 343 343 350 348 347 348 347 347 345 343 345 343 342 343 343 343 343 343 343 343 342 345 340 339 0 337 337 334 337 339 337 339 339 339 339 339 340 339 339 340 340 342 342 347 347 347 347 348 348 350 348 348 347 348 345 347 345 343 343 343 342 340 339 339 337 337 337 342 342 340 342 342 342 342 342 343 342 342 343 342 343 345 345 347 343 345 343 343 342 343 342 342 342 342 342 342 339 340 337 337 337 337 0 0 337 343 342 343 342 343 342 342 343 342 342 340 340 340 340 339 342 342 340 340 340 340 340 342 343 339 339 339 340 342 340 342 340 340 340 340 342 340 0 0 339 340 340 339 339 337 337 336 337 336 334 334 333 333 330 333 333 333 0 0 0 0 0
    0 0 0 0 0 0 0 0 0 0 0 0 0 0 0 0 0 0 0 0 0 0 0 0 0 0 0 0 0 0 0 0 0 0 0 0 0 0 0 0 0 0 0 0 0 0 0 0 0 0 0 0 0 0 0 0 0 0 0 0 0 0 0 0 0 0 0 0 0 343 345 345 345 343 345 347 345 343 342 339 342 340 343 342 340 342 342 343 345 340 342 340 0 340 343 0 0 342 343 343 343 343 345 339 337 337 336 339 339 339 340 342 342 342 340 340 340 340 339 337 334 333 333 337 336 337 337 343 342 340 340 342 342 345 345 347 345 347 347 348 345 347 342 343 343 343 342 342 340 342 343 345 343 343 345 350 348 347 348 347 347 345 345 345 345 342 345 343 343 343 343 343 343 342 345 340 339 337 337 337 334 339 337 337 339 339 339 339 339 340 339 339 340 340 342 343 347 347 347 347 348 350 350 348 348 348 348 345 347 343 343 342 342 340 339 337 337 337 337 336 340 342 342 342 342 342 342 342 345 342 342 343 342 343 345 343 345 343 343 342 342 340 342 340 340 340 342 340 342 339 340 337 339 337 337 0 337 337 343 343 345 343 345 343 343 345 343 343 342 340 340 340 339 342 342 340 340 340 342 342 343 343 340 339 339 340 342 340 342 340 340 340 340 342 342 0 0 339 340 340 337 337 337 337 336 337 337 336 336 334 334 328 334 333 333 0 0 0 0 0
    0 0 0 0 0 0 0 0 0 0 0 0 0 0 0 0 0 0 0 0 0 0 0 0 0 0 0 0 0 0 0 0 0 0 0 0 0 0 0 0 0 0 0 0 0 0 0 0 0 0 0 0 0 0 0 0 0 0 0 0 0 0 0 0 0 0 0 0 0 345 347 347 345 345 345 347 347 343 343 339 342 340 343 342 342 342 342 343 345 340 342 340 0 340 343 0 0 0 343 343 345 345 345 340 339 337 337 339 339 340 340 342 342 342 342 340 340 340 339 337 334 333 334 337 0 0 339 343 342 342 340 343 342 345 345 345 343 345 345 347 343 345 342 343 343 343 342 343 342 343 345 347 345 343 343 350 348 347 348 345 345 345 343 345 345 342 345 343 345 343 343 343 343 342 343 339 337 336 337 337 336 339 337 337 339 339 339 339 339 339 339 340 340 340 342 343 347 347 348 347 348 348 350 348 348 348 348 345 345 343 342 342 342 339 339 337 337 337 337 336 342 342 342 342 342 342 342 342 343 340 340 342 342 342 343 342 343 342 342 340 342 340 342 340 340 340 342 342 342 340 342 339 339 339 339 339 339 339 343 343 345 345 345 345 343 345 345 343 342 340 340 340 339 340 340 340 340 340 342 342 343 345 340 339 339 339 340 340 340 340 340 340 342 0 342 0 0 0 0 337 334 336 336 336 334 337 336 336 334 333 333 328 334 334 333 0 0 0 0 0
    0 0 0 0 0 0 0 0 0 0 0 0 0 0 0 0 0 0 0 0 0 0 0 0 0 0 0 0 0 0 0 0 0 0 0 0 0 0 0 0 0 0 0 0 0 0 0 0 0 0 0 0 0 0 0 0 0 0 0 0 0 0 0 0 0 0 0 0 0 345 347 347 347 345 345 347 347 345 343 339 342 340 342 342 340 342 340 342 343 339 342 339 339 0 0 0 0 0 342 343 343 345 343 340 339 339 339 339 339 340 340 342 342 342 342 340 340 340 337 337 333 333 334 336 0 0 339 343 342 342 342 343 342 343 343 343 342 342 343 345 343 343 342 343 343 343 343 343 343 345 347 352 347 345 345 350 348 347 347 345 345 345 343 345 345 342 343 343 343 343 343 345 343 342 345 340 339 337 337 337 336 339 337 339 339 339 339 339 339 339 339 340 340 340 342 343 348 347 348 347 348 348 350 350 348 347 348 345 345 343 342 342 340 339 340 339 337 337 337 336 342 342 342 342 340 340 340 342 343 340 340 342 340 342 343 342 342 340 340 340 340 340 340 340 340 342 342 342 342 340 342 339 339 339 339 339 339 340 342 342 345 345 345 345 343 347 345 345 342 339 339 339 339 340 340 340 340 340 342 342 347 345 340 340 339 339 340 339 340 339 340 340 340 0 0 340 0 337 337 336 333 333 333 334 333 336 334 334 334 333 333 328 334 334 333 0 0 0 0 0
    0 0 0 0 0 0 0 0 0 0 0 0 0 0 0 0 0 0 0 0 0 0 0 0 0 0 0 0 0 0 0 0 0 0 0 0 0 0 0 0 0 0 0 0 0 0 0 0 0 0 0 0 0 0 0 0 0 0 0 0 0 0 0 0 0 0 0 0 0 347 347 347 347 345 345 347 347 343 343 340 342 340 342 342 340 342 340 340 343 339 340 337 336 0 0 0 0 0 340 342 343 343 343 342 340 340 339 340 340 340 340 343 342 342 342 342 340 339 337 337 333 333 334 336 0 0 339 342 342 342 342 343 342 345 343 343 342 343 343 343 343 343 342 343 343 343 343 343 343 345 347 350 347 347 345 348 348 347 348 345 345 345 345 345 345 343 343 343 343 343 345 345 345 343 345 340 339 337 337 337 336 339 337 339 339 339 339 339 339 339 339 340 340 342 343 345 348 348 348 348 348 348 350 348 348 347 347 345 345 343 342 340 340 339 340 339 337 337 337 336 340 342 342 342 340 340 340 342 343 340 342 342 342 343 343 342 342 340 339 339 340 339 340 339 340 340 342 342 342 340 342 339 339 339 339 339 339 340 342 342 345 345 345 345 343 345 343 343 342 337 337 337 337 0 339 340 340 340 343 342 350 347 342 342 340 339 340 339 340 339 340 340 340 0 342 340 0 337 337 334 331 333 331 333 331 334 334 334 334 333 333 328 334 334 333 0 0 0 0 0
    0 0 0 0 0 0 0 0 0 0 0 0 0 0 0 0 0 0 0 0 0 0 0 0 0 0 0 0 0 0 0 0 0 0 0 0 0 0 0 0 0 0 0 0 0 0 0 0 0 0 0 0 0 0 0 0 0 0 0 0 0 0 0 0 0 0 0 0 0 347 348 347 347 345 345 347 345 343 342 339 342 340 342 342 342 342 342 340 343 339 340 337 334 336 339 0 0 0 340 342 343 343 342 340 340 340 339 340 340 340 342 343 343 342 343 342 340 340 339 339 334 336 337 337 339 340 340 343 342 343 343 343 342 345 345 345 343 343 343 343 343 343 342 342 343 343 343 343 343 343 347 348 347 345 345 345 347 345 347 345 345 343 343 343 345 342 343 343 343 343 343 345 345 343 0 342 339 337 337 337 336 339 337 339 339 339 339 339 339 339 339 342 340 340 342 345 347 347 348 347 347 348 348 348 347 347 348 347 345 343 342 342 340 339 340 339 337 339 337 337 340 342 342 342 340 340 340 342 342 340 342 342 340 342 342 342 340 340 339 339 339 339 339 339 339 340 340 342 340 340 340 339 339 339 339 339 339 339 339 340 343 345 345 345 343 343 342 342 340 334 336 336 336 0 0 339 339 340 342 342 348 347 342 342 340 339 340 340 342 340 342 342 342 0 345 342 342 339 340 336 333 333 331 333 331 334 334 334 336 334 334 330 334 334 334 0 0 0 0 0
    0 0 0 0 0 0 0 0 0 0 0 0 0 0 0 0 0 0 0 0 0 0 0 0 0 0 0 0 0 0 0 0 0 0 0 0 0 0 0 0 0 0 0 0 0 0 0 0 0 0 0 0 0 0 0 0 0 0 0 0 0 0 0 0 0 0 0 0 0 347 348 347 345 345 345 345 345 342 342 339 342 340 343 342 342 342 342 342 343 340 340 336 334 334 339 0 0 0 342 342 343 343 342 340 340 340 340 342 340 342 342 343 343 343 343 342 342 342 340 340 337 339 340 340 342 343 342 343 343 345 343 345 342 345 345 345 343 343 343 343 342 343 342 342 342 342 342 342 343 343 345 347 347 345 345 345 345 345 345 343 343 342 342 342 345 342 343 343 343 343 345 345 347 343 0 342 340 339 339 339 339 339 337 340 340 340 340 339 339 340 339 342 340 342 342 345 347 347 348 347 347 347 348 348 347 347 348 348 347 343 343 342 342 340 342 339 337 339 337 337 340 340 342 342 340 340 340 342 342 340 340 342 340 342 342 342 340 340 339 339 339 339 339 337 339 339 340 342 340 340 342 340 339 339 339 339 339 339 339 339 343 347 345 345 343 343 340 340 339 333 334 336 334 339 339 339 339 339 342 342 347 345 342 0 0 0 340 340 342 340 342 343 343 345 347 345 345 342 343 339 337 334 333 334 333 336 336 336 336 334 334 331 336 334 334 0 0 0 0 0
    0 0 0 0 0 0 0 0 0 0 0 0 0 0 0 0 0 0 0 0 0 0 0 0 0 0 0 0 0 0 0 0 0 0 0 0 0 0 0 0 0 0 0 0 0 0 0 0 0 0 0 0 0 0 0 0 0 0 0 0 0 0 0 0 0 0 0 0 0 347 348 347 345 345 345 345 345 342 342 339 340 340 343 343 343 343 342 342 343 340 340 336 336 334 339 0 0 342 342 342 343 343 343 342 340 340 340 342 342 342 342 345 345 343 343 343 342 342 342 342 339 340 342 343 343 343 342 343 343 345 345 345 343 345 345 345 345 345 343 343 343 343 342 342 342 342 342 342 343 343 345 347 347 347 347 345 345 345 345 342 342 342 342 342 345 342 343 343 343 343 345 345 347 342 0 342 340 337 339 339 337 339 337 340 340 340 340 340 339 340 340 343 340 340 340 342 342 345 345 343 345 345 347 347 347 347 350 350 348 343 343 342 342 340 342 340 339 340 337 339 342 340 342 342 340 339 339 342 342 340 342 342 340 342 342 342 340 340 339 339 339 337 339 337 337 339 339 340 340 342 342 342 340 340 340 340 339 340 339 340 343 347 345 345 342 343 339 340 337 331 334 334 334 337 337 337 337 339 340 340 343 343 340 0 0 0 342 340 342 342 342 343 343 345 347 345 347 343 343 342 339 337 336 336 334 337 336 336 337 334 336 331 336 334 334 0 0 0 0 0
    0 0 0 0 0 0 0 0 0 0 0 0 0 0 0 0 0 0 0 0 0 0 0 0 0 0 0 0 0 0 0 0 0 0 0 0 0 0 0 0 0 0 0 0 0 0 0 0 0 0 0 0 0 0 0 0 0 0 0 0 0 0 0 0 0 0 0 0 0 347 348 347 345 345 345 345 345 342 342 339 342 340 343 343 343 342 342 342 343 340 342 336 336 334 339 0 0 342 342 343 343 343 345 343 343 342 342 343 342 342 343 345 345 343 343 343 343 343 342 343 340 342 343 343 343 343 342 345 343 347 345 347 343 345 345 345 345 345 345 345 343 345 343 342 343 342 343 343 343 343 345 345 347 347 347 345 347 343 345 342 342 342 342 342 345 342 343 343 345 345 345 345 347 343 0 342 340 337 339 337 339 337 336 339 339 339 340 340 339 340 340 343 339 340 340 337 337 340 342 340 342 342 343 345 347 347 350 350 350 345 343 342 340 340 342 340 340 340 337 340 342 342 342 342 340 339 339 342 342 340 342 342 340 342 342 342 340 340 339 339 339 337 337 337 337 337 337 339 340 342 342 342 340 342 342 343 342 343 343 345 347 348 347 347 343 343 339 339 337 331 334 334 333 337 337 337 337 337 339 339 340 342 340 0 342 340 342 342 343 342 342 343 343 345 347 345 347 343 343 342 340 337 336 336 334 337 337 337 337 336 336 331 336 334 334 0 0 0 0 0
    0 0 0 0 0 0 0 0 0 0 0 0 0 0 0 0 0 0 0 0 0 0 0 0 0 0 0 0 0 0 0 0 0 0 0 0 0 0 0 0 0 0 0 0 0 0 0 0 0 0 0 0 0 0 0 0 0 0 0 0 0 0 0 0 0 0 0 0 0 345 347 347 345 345 345 345 347 343 343 340 342 342 343 343 343 342 342 340 342 340 340 337 337 334 340 340 0 342 342 343 345 343 345 343 345 343 343 343 343 343 343 345 345 343 343 345 343 345 343 345 342 342 345 345 0 343 342 345 343 347 347 347 343 345 345 345 345 345 345 345 343 345 345 343 345 343 345 343 343 343 345 345 347 345 345 343 345 345 345 343 343 342 342 342 345 342 343 343 345 345 345 345 347 342 0 342 340 336 337 339 339 337 336 339 339 339 340 339 339 339 340 343 339 343 342 337 337 340 342 339 340 342 342 345 345 345 347 348 348 343 342 342 339 339 342 342 342 342 339 340 342 342 342 342 340 339 339 343 342 342 342 342 340 342 342 342 340 342 340 340 340 340 340 340 339 340 340 342 342 343 343 343 342 0 0 343 343 347 348 348 348 350 347 347 343 343 337 339 337 330 334 336 333 337 337 337 337 339 339 340 340 342 342 0 342 340 342 342 343 343 343 343 343 347 347 347 347 345 345 343 340 339 336 336 334 337 336 336 337 336 337 333 336 334 334 0 0 0 0 0
    0 0 0 0 0 0 0 0 0 0 0 0 0 0 0 0 0 0 0 0 0 0 0 0 0 0 0 0 0 0 0 0 0 0 0 0 0 0 0 0 0 0 0 0 0 0 0 0 0 0 0 0 0 0 0 0 0 0 0 0 0 0 0 0 0 0 0 0 0 345 347 347 345 347 347 347 348 343 345 342 342 343 343 343 342 342 342 0 342 0 340 337 337 337 340 342 343 343 343 343 345 343 345 343 345 343 343 345 343 343 343 345 345 343 345 345 345 345 343 345 342 343 345 343 0 0 342 345 345 347 347 347 345 345 345 343 343 343 343 345 343 345 345 343 345 345 345 343 343 343 345 345 345 345 343 342 345 343 345 343 343 343 342 342 345 342 343 343 343 343 343 343 343 340 0 340 339 336 337 337 339 337 337 339 337 339 340 339 339 339 340 342 339 343 339 334 334 337 339 337 339 340 340 343 343 345 347 348 350 345 343 342 340 342 342 343 342 342 339 342 340 340 342 342 339 339 339 343 342 342 342 342 340 342 342 342 342 342 342 342 342 343 343 347 343 345 343 343 343 343 343 342 340 0 0 343 345 347 347 347 348 348 345 343 340 339 336 334 334 328 334 334 333 337 337 337 337 339 340 340 342 343 343 342 342 342 342 342 343 343 343 343 343 347 347 347 348 347 347 345 342 339 334 336 334 336 336 336 337 336 337 334 336 334 333 0 0 0 0 0
    0 0 0 0 0 0 0 0 0 0 0 0 0 0 0 0 0 0 0 0 0 0 0 0 0 0 0 0 0 0 0 0 0 0 0 0 0 0 0 0 0 0 0 0 0 0 0 0 0 0 0 0 0 0 0 0 0 0 0 0 0 0 0 0 0 0 0 0 0 345 348 348 347 347 347 347 350 345 345 342 342 345 343 343 342 343 342 0 0 0 0 337 337 337 340 340 343 343 343 343 345 343 345 343 345 343 343 345 343 345 343 345 347 345 347 347 347 347 345 348 343 343 345 343 0 0 0 345 345 348 347 348 345 345 345 345 345 343 343 345 343 345 343 342 345 343 343 343 343 343 343 343 345 343 343 343 345 343 345 343 343 343 343 343 345 342 343 0 343 342 0 342 342 339 0 339 339 336 337 337 337 337 337 339 337 339 340 340 340 340 340 342 339 342 336 330 330 333 334 334 336 337 339 342 342 343 343 345 347 343 342 342 339 340 342 343 343 342 339 340 340 340 340 342 340 339 340 343 342 342 343 342 340 342 342 343 343 343 343 343 343 343 343 348 343 343 343 342 343 342 342 340 337 0 0 342 342 343 343 343 343 345 342 340 337 336 333 331 333 327 334 334 333 337 339 339 339 339 340 340 343 345 343 342 343 342 343 343 343 343 343 343 343 345 347 345 348 347 347 347 342 340 336 337 336 337 336 336 337 336 0 0 336 333 333 0 0 0 0 0
    0 0 0 0 0 0 0 0 0 0 0 0 0 0 0 0 0 0 0 0 0 0 0 0 0 0 0 0 0 0 0 0 0 0 0 0 0 0 0 0 0 0 0 0 0 0 0 0 0 0 0 0 0 0 0 0 0 0 0 0 0 0 0 0 0 0 0 0 0 345 348 347 345 347 347 347 348 343 345 343 343 348 345 345 343 343 0 0 0 0 0 337 337 337 340 340 343 343 343 343 345 343 345 343 345 343 345 345 345 345 343 347 348 345 345 347 345 345 345 348 343 343 345 345 0 0 343 347 347 348 348 350 347 347 347 347 347 345 345 345 343 345 343 342 345 343 343 343 342 342 343 343 343 343 343 343 345 343 345 343 343 343 343 343 345 342 343 342 342 342 0 340 340 339 0 339 339 336 337 337 337 337 337 339 337 339 340 340 340 342 342 342 339 340 336 330 328 330 333 331 334 336 337 340 340 342 343 343 345 342 340 339 337 339 340 340 342 340 337 340 340 340 340 340 340 339 340 343 342 342 343 342 340 340 342 343 343 343 343 342 342 343 343 347 340 339 340 337 340 339 339 339 336 0 0 339 340 342 342 342 343 343 340 340 337 336 334 333 334 327 334 334 333 337 339 339 339 339 340 340 343 345 343 342 343 342 342 343 343 343 343 343 343 345 347 345 348 347 347 347 342 342 337 337 337 339 337 337 337 0 0 0 334 331 333 0 0 0 0 0
    0 0 0 0 0 0 0 0 0 0 0 0 0 0 0 0 0 0 0 0 0 0 0 0 0 0 0 0 0 0 0 0 0 0 0 0 0 0 0 0 0 0 0 0 0 0 0 0 0 0 0 0 0 0 0 0 0 0 0 0 0 0 0 0 0 0 0 0 0 345 347 347 345 347 345 347 348 343 0 0 345 0 348 348 0 0 0 0 0 0 0 336 337 337 340 340 343 343 343 343 345 343 347 343 347 343 345 345 345 345 343 345 347 345 345 347 345 345 345 348 345 345 345 345 343 347 345 347 347 348 348 350 347 347 347 347 347 345 345 345 345 345 343 342 345 343 343 342 342 342 342 342 343 342 342 343 345 343 345 345 345 343 343 343 345 342 343 342 342 0 0 340 339 337 0 339 337 336 337 337 337 337 337 339 339 340 342 340 342 342 342 343 340 340 336 331 328 330 333 331 334 336 337 340 340 342 342 343 345 342 342 339 336 339 340 342 342 340 337 340 340 340 340 340 340 340 340 343 340 342 342 340 340 339 340 343 343 343 343 342 342 342 342 0 339 336 0 336 0 339 336 337 336 0 337 339 340 342 343 343 343 343 342 340 339 339 336 334 336 330 334 336 334 337 339 339 339 339 340 340 342 345 342 340 342 342 342 342 343 342 342 343 343 345 347 345 347 347 345 348 342 343 339 0 340 340 339 339 339 0 337 331 334 331 333 0 0 0 0 0
    0 0 0 0 0 0 0 0 0 0 0 0 0 0 0 0 0 0 0 0 0 0 0 0 0 0 0 0 0 0 0 0 0 0 0 0 0 0 0 0 0 0 0 0 0 0 0 0 0 0 0 0 0 0 0 0 0 0 0 0 0 0 0 0 0 0 0 0 0 345 347 347 343 347 345 345 347 342 0 0 0 0 347 0 0 0 0 0 0 0 0 0 337 336 340 340 343 343 343 343 345 345 347 345 347 345 345 345 345 345 343 345 345 343 343 347 345 345 345 348 343 345 345 345 343 0 343 345 345 348 347 350 345 347 347 347 345 345 345 347 345 347 345 343 347 343 343 342 342 342 342 342 342 342 342 343 345 345 345 345 345 345 343 345 345 342 342 340 340 0 0 339 339 337 0 339 337 336 337 337 337 339 337 339 339 340 342 342 342 342 342 343 342 342 336 334 330 331 333 331 334 336 337 340 339 342 342 342 345 343 342 340 337 340 342 343 343 342 337 340 339 340 340 340 340 339 340 343 340 342 342 339 339 339 339 0 343 343 343 342 343 343 343 348 0 0 0 337 340 340 339 339 336 0 337 339 342 342 343 343 343 343 342 340 340 339 336 334 336 330 334 336 334 337 339 339 339 339 340 340 340 343 342 0 342 340 342 342 342 342 342 342 342 343 347 343 345 345 343 345 340 0 339 0 340 340 340 340 339 339 337 330 334 330 333 0 0 0 0 0
    0 0 0 0 0 0 0 0 0 0 0 0 0 0 0 0 0 0 0 0 0 0 0 0 0 0 0 0 0 0 0 0 0 0 0 0 0 0 0 0 0 0 0 0 0 0 0 0 0 0 0 0 0 0 0 0 0 0 0 0 0 0 0 0 0 0 0 0 0 343 347 347 343 345 343 345 345 342 343 0 0 0 347 0 0 0 73 0 0 0 0 0 337 337 340 340 343 343 343 345 345 345 347 345 348 345 345 345 345 345 342 343 343 342 343 347 345 345 345 350 345 345 345 0 0 0 0 0 345 348 345 348 345 345 345 345 345 345 343 347 345 347 345 343 347 345 343 343 342 342 342 340 342 340 340 343 345 345 347 347 347 347 345 345 347 342 342 0 339 339 337 337 337 336 337 337 337 336 337 337 336 337 337 337 339 339 340 340 340 342 342 343 343 342 337 334 330 333 333 331 334 334 336 339 339 339 339 340 342 339 339 337 336 336 339 340 342 342 336 339 339 339 339 339 339 337 339 342 340 340 339 337 337 336 336 0 0 339 340 340 340 342 342 345 0 0 0 336 337 339 337 336 336 336 334 334 340 340 0 342 342 342 340 340 339 337 334 333 334 331 334 336 333 337 337 337 339 337 339 339 0 340 340 339 339 337 339 340 340 340 340 340 340 342 345 342 342 342 339 339 333 0 331 331 333 336 0 0 0 336 333 325 331 328 331 0 0 0 0 0
    0 0 0 0 0 0 0 0 0 0 0 0 0 0 0 0 0 0 0 0 0 0 0 0 0 0 0 0 0 0 0 0 0 0 0 0 0 0 0 0 0 0 0 0 0 0 0 0 0 0 0 0 0 0 0 0 0 0 0 0 0 0 0 0 0 0 0 0 0 343 345 347 343 0 343 345 345 342 343 342 343 350 347 0 0 0 74 74 0 0 0 0 0 0 0 340 343 343 343 345 345 345 348 347 350 345 347 345 343 345 342 342 343 342 343 347 345 345 345 348 343 345 343 0 0 0 342 0 343 347 343 347 343 343 343 343 342 342 342 343 343 342 342 342 343 342 342 342 340 340 339 339 339 337 337 340 342 342 343 345 345 345 343 345 345 340 340 337 337 336 336 336 336 334 336 336 336 334 336 336 334 336 336 336 337 339 339 339 339 339 339 339 339 339 336 334 331 334 331 331 333 334 334 336 336 337 337 337 337 336 337 336 333 333 334 336 340 340 333 337 337 339 339 337 337 336 337 340 339 337 334 334 333 331 331 330 334 333 334 336 336 337 337 0 336 0 334 333 333 337 333 333 336 334 330 327 340 340 0 342 342 340 340 340 340 339 336 333 336 333 336 336 333 337 337 337 339 337 339 339 339 340 339 337 339 336 337 339 337 339 339 339 339 339 342 340 337 337 331 325 0 0 0 0 0 0 0 189 0 0 0 0 328 325 328 0 0 0 0 0
    0 0 0 0 0 0 0 0 0 0 0 0 0 0 0 0 0 0 0 0 0 0 0 0 0 0 0 0 0 0 0 0 0 0 0 0 0 0 0 0 0 0 0 0 0 0 0 0 0 0 0 0 0 0 0 0 0 0 0 0 0 0 0 0 0 0 0 0 0 0 347 347 343 0 343 345 345 342 342 0 343 0 0 0 0 0 0 0 0 0 0 0 0 0 0 0 343 342 343 343 345 343 347 343 347 342 343 340 340 340 340 339 340 339 340 343 343 342 340 342 340 340 0 0 334 0 0 0 0 342 340 0 340 0 339 0 339 337 337 339 339 336 336 337 339 339 0 0 0 339 337 337 337 336 336 337 340 340 342 343 343 343 342 343 342 337 337 333 334 334 333 334 333 333 333 333 334 331 336 333 333 334 334 334 336 337 337 337 337 339 337 337 337 336 333 331 330 333 328 330 331 331 331 333 333 333 334 334 333 333 334 334 331 330 331 331 339 339 331 336 337 337 337 337 336 334 336 339 336 336 331 331 331 327 327 325 331 328 330 333 0 336 336 0 334 334 333 331 330 336 330 0 0 333 327 322 340 340 0 343 342 342 340 342 340 339 337 334 0 334 336 336 334 337 337 339 339 337 339 339 0 340 339 337 339 334 336 337 336 336 336 337 336 336 339 339 334 333 324 0 0 0 0 0 0 931 0 0 0 0 0 0 324 322 325 0 0 0 0 0</data></depth>
</opencv_storage>
