<?xml version="1.0"?>
<opencv_storage>
<gps_time_stamp>34892</gps_time_stamp>
<gps_x>-1.1888710021972656e+001</gps_x>
<gps_y>1.1487783193588257e+000</gps_y>
<gps_z>-3.0398492813110352e+000</gps_z>
<image_time_stamp>22864</image_time_stamp>
<depth type_id="opencv-matrix">
  <rows>90</rows>
  <cols>320</cols>
  <dt>s</dt>
  <data>
    0 0 0 0 0 0 0 0 0 0 0 0 0 0 0 0 0 0 0 0 0 0 0 0 0 0 0 0 0 0 0 0 0 0 0 0 0 0 0 0 0 0 0 0 0 0 0 0 0 0 0 0 0 0 0 0 0 0 0 0 0 0 0 0 0 0 0 0 0 287 288 287 286 284 284 285 285 284 286 281 281 284 284 285 284 284 284 283 284 287 283 284 284 281 284 283 285 283 284 284 283 284 285 284 286 284 288 287 286 289 281 286 285 285 285 284 284 285 285 287 283 285 283 286 285 284 284 285 285 285 284 285 281 281 281 281 280 281 281 283 284 284 285 283 279 281 280 280 279 279 278 278 278 288 280 281 284 288 287 289 286 286 283 285 283 283 283 283 281 284 283 285 281 284 284 284 284 285 283 284 283 283 283 283 284 284 284 284 283 284 284 284 284 283 283 281 284 284 284 283 281 281 280 280 281 280 281 281 281 280 281 281 281 283 281 281 281 281 286 283 284 284 283 283 283 284 284 283 283 281 283 283 284 284 284 284 288 288 292 289 289 287 286 286 285 285 286 283 283 281 281 283 283 283 283 281 281 281 281 281 280 280 280 279 278 279 279 280 280 280 279 279 280 279 279 280 279 280 280 281 281 281 286 286 285 287 285 283 281 280 281 280 280 279 279 279 278 279 279 278 278 278 279 279 280 280 279 279 279 278 0 0 279 276 277 0 0 0 0 0
    0 0 0 0 0 0 0 0 0 0 0 0 0 0 0 0 0 0 0 0 0 0 0 0 0 0 0 0 0 0 0 0 0 0 0 0 0 0 0 0 0 0 0 0 0 0 0 0 0 0 0 0 0 0 0 0 0 0 0 0 0 0 0 0 0 0 0 0 0 286 287 287 286 284 284 285 285 283 286 281 281 284 285 285 285 285 285 283 285 286 283 284 284 283 284 284 285 284 284 285 283 284 285 285 286 284 288 288 287 290 283 287 285 285 284 284 284 285 285 286 283 284 283 285 284 283 284 284 284 285 284 284 281 280 281 281 280 281 280 283 284 284 285 283 280 281 281 281 280 280 279 279 280 289 281 284 285 287 288 289 287 286 284 285 283 284 283 283 281 283 283 284 281 284 284 284 284 285 283 284 283 284 283 283 284 285 284 286 284 285 284 284 284 283 283 281 283 283 283 281 280 281 280 281 281 281 283 283 283 281 283 283 281 283 281 281 281 281 286 281 284 284 283 283 283 284 284 284 284 281 283 283 284 285 283 0 290 290 290 288 289 286 285 284 284 284 285 283 281 280 280 281 283 283 283 281 281 281 281 281 280 280 280 279 279 279 279 280 280 280 279 279 280 279 279 280 279 280 280 281 283 281 286 286 285 286 285 284 281 280 281 280 281 280 280 280 279 280 280 279 279 279 280 280 280 281 280 281 280 279 0 279 281 0 278 0 0 0 0 0
    0 0 0 0 0 0 0 0 0 0 0 0 0 0 0 0 0 0 0 0 0 0 0 0 0 0 0 0 0 0 0 0 0 0 0 0 0 0 0 0 0 0 0 0 0 0 0 0 0 0 0 0 0 0 0 0 0 0 0 0 0 0 0 0 0 0 0 0 0 285 286 286 284 284 285 284 285 283 286 283 283 285 286 286 285 286 285 284 285 287 283 284 284 284 285 285 286 285 285 286 284 285 286 286 287 285 288 288 287 290 283 287 285 284 283 284 284 284 284 286 283 283 281 285 284 283 283 283 283 284 283 284 280 280 281 281 280 281 281 283 284 284 285 284 280 283 283 283 281 281 281 281 281 292 284 286 288 288 288 288 286 286 283 285 283 283 283 283 283 283 283 284 283 284 284 285 284 285 283 285 283 284 284 284 284 286 285 287 285 285 285 284 284 283 281 281 281 281 281 280 279 280 280 281 281 281 283 283 284 281 283 283 283 283 283 281 281 281 285 281 283 283 281 281 281 283 283 283 283 281 281 281 284 284 283 281 0 287 288 286 286 285 284 283 284 284 286 284 281 281 281 281 283 281 281 280 280 280 281 280 281 281 281 279 279 280 279 281 281 281 280 279 280 279 279 280 279 279 280 281 281 281 285 286 285 285 285 284 281 281 283 280 281 280 280 280 279 281 280 280 280 280 281 281 281 283 283 284 283 281 0 0 285 283 280 0 0 0 0 0
    0 0 0 0 0 0 0 0 0 0 0 0 0 0 0 0 0 0 0 0 0 0 0 0 0 0 0 0 0 0 0 0 0 0 0 0 0 0 0 0 0 0 0 0 0 0 0 0 0 0 0 0 0 0 0 0 0 0 0 0 0 0 0 0 0 0 0 0 0 286 286 287 285 285 287 286 286 283 287 284 283 286 286 286 286 286 286 284 284 287 283 284 285 285 286 287 287 287 286 288 286 287 287 286 288 286 288 289 288 290 283 287 285 284 283 284 284 284 284 286 283 283 281 285 283 283 283 283 283 284 283 284 281 280 281 281 281 283 281 284 285 284 285 285 280 284 283 284 283 283 283 283 283 292 285 287 288 287 288 286 284 284 281 284 283 283 283 283 283 284 283 284 283 284 284 284 284 286 284 286 284 285 285 285 285 287 285 288 285 286 285 284 283 281 280 280 280 280 279 279 279 280 280 281 281 283 283 284 284 283 284 284 283 283 283 281 281 281 286 281 283 281 281 280 281 281 281 280 280 280 280 281 283 281 281 280 283 284 285 285 284 283 283 281 284 283 285 283 281 281 281 281 281 281 281 280 281 281 281 281 281 283 281 280 279 280 280 283 283 283 280 280 281 279 279 280 279 279 280 281 281 280 285 286 285 286 285 285 284 283 284 281 281 280 280 280 279 280 279 280 280 281 283 283 283 285 284 287 285 285 284 292 285 284 281 0 0 0 0 0
    0 0 0 0 0 0 0 0 0 0 0 0 0 0 0 0 0 0 0 0 0 0 0 0 0 0 0 0 0 0 0 0 0 0 0 0 0 0 0 0 0 0 0 0 0 0 0 0 0 0 0 0 0 0 0 0 0 0 0 0 0 0 0 0 0 0 0 0 0 287 287 288 286 286 288 288 288 283 287 285 283 286 286 286 286 286 286 284 284 288 283 284 284 285 286 287 288 288 287 289 287 288 288 287 288 287 289 290 288 290 285 287 286 285 284 284 284 284 284 286 281 283 281 284 283 281 281 283 283 283 283 284 281 280 283 283 283 284 283 285 286 284 286 286 281 285 284 285 284 283 284 284 283 290 283 285 284 284 286 285 283 283 281 285 283 283 283 283 283 284 283 284 283 284 284 284 284 285 284 286 285 284 285 286 285 287 285 288 285 286 285 284 283 283 281 281 280 281 280 280 280 281 281 283 283 284 285 285 286 284 284 284 284 284 283 281 281 281 285 281 283 283 283 281 281 281 281 281 281 279 279 280 281 283 283 281 284 284 285 285 284 283 283 280 283 281 284 281 280 280 281 283 283 283 283 281 281 281 281 280 280 281 280 279 279 280 280 283 284 283 280 280 281 279 278 280 279 279 280 281 281 280 284 286 285 286 286 286 284 283 285 280 281 280 280 280 278 280 279 281 281 283 285 283 283 286 286 288 285 286 284 285 285 284 283 0 0 0 0 0
    0 0 0 0 0 0 0 0 0 0 0 0 0 0 0 0 0 0 0 0 0 0 0 0 0 0 0 0 0 0 0 0 0 0 0 0 0 0 0 0 0 0 0 0 0 0 0 0 0 0 0 0 0 0 0 0 0 0 0 0 0 0 0 0 0 0 0 0 0 288 287 288 286 286 286 286 286 281 286 285 281 286 286 285 285 285 285 284 284 287 283 284 284 285 286 287 288 288 287 289 288 288 289 288 289 288 289 290 289 290 285 287 286 285 284 284 284 284 284 286 281 283 281 284 283 281 281 283 283 284 283 283 283 281 283 284 283 284 283 285 287 285 286 287 281 285 284 286 284 284 285 285 284 290 281 285 283 284 286 285 283 283 284 286 284 284 283 283 283 283 283 284 283 283 283 283 283 285 283 285 285 284 285 286 286 287 285 288 286 286 286 284 283 283 281 281 280 281 280 280 281 281 283 284 284 285 286 286 287 284 285 285 284 284 283 281 281 281 285 281 283 283 284 283 283 283 281 281 281 279 279 280 281 281 281 281 281 283 284 284 283 283 281 280 281 280 283 281 280 281 281 284 284 284 285 283 283 283 281 280 280 281 279 279 278 280 280 281 283 283 279 279 280 279 277 279 278 279 280 281 281 280 284 287 284 287 286 285 284 283 284 280 283 281 281 281 279 281 279 283 283 283 284 281 281 285 286 288 285 288 285 287 286 287 284 0 0 0 0 0
    0 0 0 0 0 0 0 0 0 0 0 0 0 0 0 0 0 0 0 0 0 0 0 0 0 0 0 0 0 0 0 0 0 0 0 0 0 0 0 0 0 0 0 0 0 0 0 0 0 0 0 0 0 0 0 0 0 0 0 0 0 0 0 0 0 0 0 0 0 287 286 288 285 285 285 285 285 281 286 284 281 285 285 285 285 285 285 284 283 287 283 284 284 285 286 287 287 288 287 288 287 288 289 287 289 288 289 290 288 289 286 287 286 285 284 284 284 284 285 286 283 283 281 284 283 281 281 283 283 284 283 284 283 281 284 284 283 284 283 285 287 285 286 287 283 286 285 286 285 284 285 285 284 290 283 286 283 284 286 285 283 283 284 285 283 283 283 281 283 283 281 283 283 283 283 283 283 284 283 285 285 284 285 285 285 286 285 287 285 285 286 284 283 283 281 283 281 281 280 280 280 281 283 284 284 286 286 286 287 285 286 285 284 284 281 281 281 281 284 281 283 283 284 284 283 281 281 281 281 279 279 280 280 281 281 281 281 281 283 283 281 281 280 279 281 280 283 281 281 281 283 285 285 285 286 284 284 283 283 281 280 281 279 279 279 280 280 281 281 281 278 279 280 278 277 279 279 280 280 281 281 281 284 287 284 287 285 284 281 281 281 280 283 281 283 283 280 281 279 283 281 280 0 279 279 281 286 289 288 292 287 289 287 288 286 0 0 0 0 0
    0 0 0 0 0 0 0 0 0 0 0 0 0 0 0 0 0 0 0 0 0 0 0 0 0 0 0 0 0 0 0 0 0 0 0 0 0 0 0 0 0 0 0 0 0 0 0 0 0 0 0 0 0 0 0 0 0 0 0 0 0 0 0 0 0 0 0 0 0 287 286 288 285 285 284 285 284 281 286 285 281 285 286 285 285 285 285 284 283 287 283 283 284 284 285 286 286 287 286 288 287 287 288 287 288 288 289 289 288 289 286 287 286 286 284 285 285 285 285 286 283 283 281 283 283 281 281 283 283 283 283 283 283 281 284 284 283 284 281 285 287 284 286 287 283 286 285 287 285 285 285 286 285 289 283 286 283 284 285 284 281 283 284 285 283 283 283 281 281 283 281 283 281 283 283 283 284 283 283 284 284 283 284 285 285 285 285 286 285 285 285 283 281 281 280 283 281 281 280 279 280 281 281 284 284 286 286 286 287 285 286 285 284 283 280 280 280 280 283 281 281 283 283 283 281 281 280 280 280 279 279 280 280 281 281 280 281 280 281 283 281 280 279 279 281 280 284 283 283 283 284 286 285 285 285 283 283 281 283 281 280 281 280 280 280 281 281 281 283 281 279 279 280 278 276 279 279 280 281 283 283 281 284 287 284 286 284 283 0 0 280 280 283 281 283 281 280 280 278 281 278 278 0 0 276 0 289 294 293 293 288 289 288 288 287 0 0 0 0 0
    0 0 0 0 0 0 0 0 0 0 0 0 0 0 0 0 0 0 0 0 0 0 0 0 0 0 0 0 0 0 0 0 0 0 0 0 0 0 0 0 0 0 0 0 0 0 0 0 0 0 0 0 0 0 0 0 0 0 0 0 0 0 0 0 0 0 0 0 0 287 286 288 286 286 285 286 284 281 286 285 281 285 286 285 285 286 285 284 283 287 283 283 284 284 284 285 286 287 286 288 287 287 288 288 289 289 289 290 288 289 287 288 286 285 284 285 284 284 284 285 281 281 281 283 281 281 281 281 281 283 283 281 283 281 284 284 283 285 283 286 288 285 287 288 283 287 285 287 285 285 285 286 285 289 281 284 281 283 283 284 280 283 285 286 284 283 283 281 281 283 281 281 281 281 283 281 283 283 281 284 284 283 284 285 285 285 285 286 285 285 285 283 281 281 280 283 281 281 279 278 280 281 281 283 283 285 286 285 287 285 285 284 284 283 280 280 280 280 283 281 283 281 281 283 281 281 281 281 280 279 279 280 281 281 280 279 279 279 280 281 280 279 279 280 281 281 284 284 283 283 284 285 284 285 284 283 283 281 283 281 280 281 280 281 281 281 281 281 283 281 279 280 279 278 275 279 278 280 280 281 281 281 284 287 283 284 283 280 0 0 0 280 283 283 285 283 280 281 278 281 0 277 0 274 274 276 283 293 290 292 288 290 289 289 289 0 0 0 0 0
    0 0 0 0 0 0 0 0 0 0 0 0 0 0 0 0 0 0 0 0 0 0 0 0 0 0 0 0 0 0 0 0 0 0 0 0 0 0 0 0 0 0 0 0 0 0 0 0 0 0 0 0 0 0 0 0 0 0 0 0 0 0 0 0 0 0 0 0 0 287 286 287 286 287 286 286 283 281 286 285 281 285 285 285 285 285 285 284 283 287 281 283 283 284 284 285 285 286 286 288 287 287 288 288 289 289 290 290 289 289 287 288 285 285 283 284 284 284 284 285 281 280 281 281 281 280 280 281 281 281 283 281 283 283 284 285 284 285 284 287 288 286 287 288 283 288 286 287 286 285 285 286 285 289 281 284 281 281 283 284 279 281 284 285 284 283 283 281 281 283 281 281 281 280 281 280 281 281 281 283 284 283 285 284 285 285 285 286 284 284 284 281 281 281 280 283 280 281 280 279 280 281 283 284 283 285 285 285 287 285 284 284 283 283 280 281 281 281 283 283 283 281 281 283 281 281 281 281 281 280 281 281 281 281 280 279 279 278 279 280 279 279 279 279 281 280 283 283 280 281 281 284 281 283 283 283 283 281 283 281 280 281 279 281 280 281 283 281 283 281 279 281 279 278 274 278 278 279 280 281 281 281 284 287 283 284 283 280 0 0 0 0 285 285 287 0 0 0 0 0 0 0 0 0 0 276 280 286 285 289 287 289 289 289 289 0 0 0 0 0
    0 0 0 0 0 0 0 0 0 0 0 0 0 0 0 0 0 0 0 0 0 0 0 0 0 0 0 0 0 0 0 0 0 0 0 0 0 0 0 0 0 0 0 0 0 0 0 0 0 0 0 0 0 0 0 0 0 0 0 0 0 0 0 0 0 0 0 0 0 288 287 287 286 286 285 284 283 281 286 285 281 285 285 285 285 285 284 283 283 287 281 283 283 284 283 284 284 285 285 287 286 286 287 287 288 288 290 289 289 289 286 287 285 285 284 284 284 284 284 285 280 280 281 281 281 281 281 281 281 283 283 283 284 283 284 285 284 286 284 287 288 287 287 288 283 288 286 288 286 285 285 286 285 289 283 284 281 281 283 284 279 281 284 285 284 283 283 281 281 283 281 280 280 279 280 280 281 280 280 281 283 281 284 284 285 284 284 285 284 284 284 281 281 281 281 283 281 283 281 281 283 284 283 284 284 285 285 285 286 285 283 283 283 283 280 281 281 281 283 284 284 281 281 283 281 281 281 281 281 281 281 281 281 281 280 279 279 278 279 279 279 279 278 280 280 279 281 281 280 280 281 284 281 283 283 283 283 281 283 281 281 283 280 281 280 281 281 281 281 281 280 281 279 277 274 278 278 280 280 281 281 281 284 287 283 286 284 283 0 0 0 0 288 288 290 0 0 0 0 0 0 0 0 0 0 0 281 284 284 288 285 288 288 288 288 0 0 0 0 0
    0 0 0 0 0 0 0 0 0 0 0 0 0 0 0 0 0 0 0 0 0 0 0 0 0 0 0 0 0 0 0 0 0 0 0 0 0 0 0 0 0 0 0 0 0 0 0 0 0 0 0 0 0 0 0 0 0 0 0 0 0 0 0 0 0 0 0 0 0 288 288 288 287 287 285 286 284 281 286 285 280 284 285 284 285 284 284 283 281 286 281 283 283 283 283 283 284 284 284 286 285 285 286 287 288 288 289 288 288 288 286 287 285 285 284 284 284 284 284 285 281 280 281 283 283 283 283 283 283 284 285 284 285 284 284 285 284 286 284 286 287 287 287 288 283 288 286 288 287 286 285 286 285 290 283 285 283 283 284 286 280 283 285 286 285 284 284 283 281 284 281 280 280 278 280 279 280 279 279 280 281 280 283 281 284 283 283 283 283 283 284 281 283 283 283 284 283 284 283 283 284 285 284 284 283 285 285 285 285 284 281 283 283 283 281 281 281 281 283 284 284 281 281 283 281 281 281 281 283 281 283 281 281 281 280 279 279 278 278 279 0 278 278 280 280 279 281 283 280 281 283 286 281 284 284 283 284 281 283 281 280 283 280 281 280 280 281 280 281 281 280 280 278 277 275 279 279 280 281 281 281 281 285 288 284 287 286 284 0 0 0 284 289 289 290 0 0 0 0 0 0 0 0 0 0 0 0 284 0 287 285 287 287 288 287 0 0 0 0 0
    0 0 0 0 0 0 0 0 0 0 0 0 0 0 0 0 0 0 0 0 0 0 0 0 0 0 0 0 0 0 0 0 0 0 0 0 0 0 0 0 0 0 0 0 0 0 0 0 0 0 0 0 0 0 0 0 0 0 0 0 0 0 0 0 0 0 0 0 0 289 289 288 287 287 286 286 284 283 287 285 280 284 285 284 284 284 284 281 281 286 280 281 281 283 281 283 283 283 284 285 284 284 285 286 287 288 289 288 288 288 286 287 286 286 285 285 285 285 284 286 281 280 283 283 283 283 283 283 284 284 285 284 285 285 285 286 284 287 284 286 287 287 288 288 283 288 286 288 287 286 285 286 285 290 283 285 284 284 284 287 283 284 285 286 286 285 284 284 283 284 281 280 280 277 279 278 280 279 279 279 280 280 283 281 283 281 283 283 283 283 283 281 281 283 283 284 283 284 283 284 285 285 284 284 283 284 285 285 285 283 281 283 283 284 281 283 281 281 284 284 283 281 281 281 280 280 280 280 281 281 281 281 281 281 281 280 279 279 279 280 280 279 279 280 280 280 281 283 280 281 283 286 281 284 284 284 284 281 283 280 280 281 280 280 280 280 281 280 281 281 280 281 279 278 276 279 279 280 281 281 281 281 285 288 283 286 285 283 0 0 0 283 287 288 290 0 0 0 0 0 5256 5661 0 0 0 8177 7359 0 0 286 283 286 287 287 286 0 0 0 0 0
    0 0 0 0 0 0 0 0 0 0 0 0 0 0 0 0 0 0 0 0 0 0 0 0 0 0 0 0 0 0 0 0 0 0 0 0 0 0 0 0 0 0 0 0 0 0 0 0 0 0 0 0 0 0 0 0 0 0 0 0 0 0 0 0 0 0 0 0 0 288 288 288 287 286 286 286 284 283 287 285 280 284 285 284 284 284 284 281 281 285 280 281 281 281 281 281 283 283 284 285 284 284 284 286 287 287 289 288 287 288 285 287 286 286 285 285 285 285 284 287 281 280 281 283 283 283 283 283 283 284 285 285 285 285 285 286 284 286 284 285 286 287 287 288 283 288 286 288 287 286 285 286 286 292 284 285 285 285 285 287 283 285 284 286 285 284 284 284 283 284 281 281 280 278 279 279 280 279 279 280 280 280 283 281 283 281 283 281 283 281 281 280 281 281 280 283 281 283 281 283 285 286 285 284 283 284 284 285 284 281 280 281 283 284 281 283 283 281 283 285 283 280 280 281 280 280 280 280 281 281 281 281 281 281 281 280 279 279 278 0 280 280 280 281 281 281 283 284 281 281 284 286 281 284 284 283 284 281 283 280 280 281 280 281 280 281 281 281 281 283 281 283 280 279 277 280 279 280 281 281 281 281 284 288 281 284 283 280 0 0 0 281 285 287 289 0 0 0 0 0 5256 4906 6133 5661 6690 7359 7359 0 0 0 281 286 286 287 0 0 0 0 0 0
    0 0 0 0 0 0 0 0 0 0 0 0 0 0 0 0 0 0 0 0 0 0 0 0 0 0 0 0 0 0 0 0 0 0 0 0 0 0 0 0 0 0 0 0 0 0 0 0 0 0 0 0 0 0 0 0 0 0 0 0 0 0 0 0 0 0 0 0 0 288 288 288 287 287 286 287 285 283 287 285 281 284 285 284 284 284 284 281 281 285 280 281 283 283 281 283 283 283 284 285 284 284 284 285 286 286 289 287 286 287 285 286 285 285 285 285 285 285 284 287 283 281 281 283 281 281 281 283 283 284 284 285 285 285 286 287 284 286 284 285 286 287 287 287 281 288 286 288 287 286 285 286 285 292 284 285 285 285 285 287 284 285 284 285 284 284 283 284 281 283 281 281 280 279 280 279 280 280 280 280 280 281 283 281 283 281 283 281 281 281 281 279 281 280 280 281 281 283 281 0 286 288 287 284 283 284 284 284 284 281 279 281 283 284 281 283 281 281 283 285 283 280 280 281 279 280 280 280 280 281 283 281 281 281 280 279 279 0 0 0 280 280 280 283 283 284 285 285 283 284 284 286 281 283 283 283 284 281 283 280 280 281 280 281 280 281 281 283 283 283 283 285 281 280 278 280 280 281 281 283 281 281 284 288 281 284 281 279 280 281 281 281 0 286 0 0 0 0 0 0 5256 4599 5256 5256 6690 7359 7359 6690 0 0 279 284 0 0 0 0 0 0 0 0
    0 0 0 0 0 0 0 0 0 0 0 0 0 0 0 0 0 0 0 0 0 0 0 0 0 0 0 0 0 0 0 0 0 0 0 0 0 0 0 0 0 0 0 0 0 0 0 0 0 0 0 0 0 0 0 0 0 0 0 0 0 0 0 0 0 0 0 0 0 287 288 287 286 287 286 287 285 283 287 285 281 284 285 284 284 284 284 281 281 285 280 281 283 283 283 283 283 284 284 285 285 285 285 286 287 287 289 287 286 287 285 286 285 285 285 285 285 285 284 286 283 281 281 283 281 281 281 281 283 284 284 285 285 285 287 287 285 287 284 285 286 287 288 287 281 288 286 288 288 286 285 286 285 292 284 284 284 285 284 287 284 285 284 285 284 284 283 284 281 283 281 281 280 279 280 280 280 280 280 281 281 281 283 283 284 283 284 283 283 283 281 280 280 280 280 280 280 280 280 283 285 287 286 284 281 283 283 284 283 280 279 281 283 284 281 283 283 281 284 286 283 280 280 281 280 280 281 280 281 281 283 283 283 283 281 280 279 279 278 0 281 280 280 283 283 284 284 285 283 284 284 286 281 283 283 284 284 283 283 281 281 280 279 280 280 281 281 283 283 283 284 285 283 281 278 281 280 281 281 281 281 281 284 288 281 284 281 279 280 280 281 281 0 0 0 0 0 0 0 0 4906 0 0 0 0 0 6690 5661 0 0 276 279 0 281 0 0 0 0 0 0
    0 0 0 0 0 0 0 0 0 0 0 0 0 0 0 0 0 0 0 0 0 0 0 0 0 0 0 0 0 0 0 0 0 0 0 0 0 0 0 0 0 0 0 0 0 0 0 0 0 0 0 0 0 0 0 0 0 0 0 0 0 0 0 0 0 0 0 0 0 287 287 287 286 287 286 287 286 283 287 286 281 284 285 284 284 283 284 281 281 285 280 283 283 283 283 283 284 284 285 286 285 285 286 287 288 288 289 288 287 287 285 286 285 286 285 285 285 285 284 286 284 281 281 283 283 281 281 283 283 284 284 285 285 285 287 288 285 287 285 285 286 287 288 287 281 287 286 288 288 286 285 286 286 292 284 285 285 285 285 287 285 285 285 286 285 284 283 284 281 284 281 281 280 280 280 280 280 280 280 281 281 283 284 284 285 284 285 284 283 284 283 280 281 280 280 280 279 279 279 281 284 285 285 283 280 281 283 284 281 279 278 280 281 284 283 283 283 281 284 286 281 279 280 281 279 280 281 281 281 281 284 283 283 284 283 281 280 279 278 0 280 280 280 283 283 284 284 285 283 284 284 287 281 283 283 284 284 284 284 283 281 280 279 280 279 281 281 281 281 283 284 285 283 281 278 281 279 281 281 281 281 281 284 288 281 284 280 279 279 280 281 280 0 0 0 0 0 0 0 0 0 0 0 0 0 0 0 6690 0 0 275 276 276 0 0 0 0 0 0 0
    0 0 0 0 0 0 0 0 0 0 0 0 0 0 0 0 0 0 0 0 0 0 0 0 0 0 0 0 0 0 0 0 0 0 0 0 0 0 0 0 0 0 0 0 0 0 0 0 0 0 0 0 0 0 0 0 0 0 0 0 0 0 0 0 0 0 0 0 0 286 287 287 287 288 287 288 287 283 287 286 281 284 284 284 284 283 284 283 281 0 0 0 9 283 284 284 284 285 285 286 286 286 286 288 288 288 289 288 287 287 285 286 286 286 285 285 285 285 284 285 283 281 281 283 283 281 281 283 281 284 283 285 285 285 287 287 286 287 284 285 286 286 288 286 280 287 286 287 287 285 286 286 286 292 285 286 286 287 286 287 286 286 285 286 284 283 283 284 281 284 281 283 280 280 280 279 280 280 280 281 281 283 284 284 285 285 285 285 284 285 284 281 283 281 280 280 280 279 279 281 284 285 285 283 280 281 281 284 280 279 278 280 281 283 281 283 281 281 283 285 280 279 279 280 279 280 280 280 281 281 284 283 283 284 283 283 281 280 279 280 280 281 280 283 283 284 284 285 284 285 284 288 281 284 284 284 285 286 285 284 283 281 280 280 279 281 281 281 281 283 284 285 284 283 278 281 280 281 281 281 281 281 284 288 281 285 280 279 280 281 284 283 0 288 287 288 285 284 283 284 0 0 0 0 0 0 0 0 0 0 275 275 275 0 0 0 0 0 0 0
    0 0 0 0 0 0 0 0 0 0 0 0 0 0 0 0 0 0 0 0 0 0 0 0 0 0 0 0 0 0 0 0 0 0 0 0 0 0 0 0 0 0 0 0 0 0 0 0 0 0 0 0 0 0 0 0 0 0 0 0 0 0 0 0 0 0 0 0 0 286 286 287 287 288 288 289 288 283 287 286 281 284 284 283 284 283 284 283 281 285 283 284 284 284 285 285 285 286 285 286 286 287 287 288 287 287 288 287 287 287 285 286 286 286 285 285 284 285 283 285 283 280 280 281 281 281 280 281 281 283 283 284 285 285 287 287 287 288 285 285 286 286 288 286 280 286 285 286 286 285 286 286 286 292 286 287 287 288 287 287 286 287 286 287 285 284 284 285 283 284 283 283 280 280 280 279 279 279 279 281 281 283 283 284 285 284 285 285 284 285 284 281 283 281 280 280 279 279 0 280 283 283 284 283 280 281 281 283 280 278 277 279 280 281 280 281 281 281 283 284 280 279 279 280 279 279 279 279 280 281 283 283 283 284 284 283 283 281 279 280 280 281 281 284 284 284 285 286 284 287 285 289 284 285 285 285 286 288 286 285 283 281 280 280 279 281 281 281 281 283 284 285 284 283 279 281 280 281 281 281 281 281 284 288 283 286 281 280 283 284 285 285 283 288 287 288 286 283 283 283 285 287 0 0 0 284 0 0 275 274 273 273 274 275 275 0 0 0 0 0
    0 0 0 0 0 0 0 0 0 0 0 0 0 0 0 0 0 0 0 0 0 0 0 0 0 0 0 0 0 0 0 0 0 0 0 0 0 0 0 0 0 0 0 0 0 0 0 0 0 0 0 0 0 0 0 0 0 0 0 0 0 0 0 0 0 0 0 0 0 285 285 287 287 288 288 289 288 283 287 285 280 284 283 283 283 283 284 283 281 286 283 284 284 284 285 285 285 287 286 288 287 288 288 289 288 288 289 288 287 288 286 287 287 287 286 286 285 285 284 284 283 279 279 280 280 280 280 281 280 281 281 284 285 285 287 287 287 289 286 286 288 287 289 287 281 286 285 286 285 285 286 285 285 292 285 286 286 288 287 287 286 287 287 288 286 285 284 285 284 284 283 283 280 280 280 279 279 279 279 281 281 283 283 284 285 285 285 286 285 285 284 281 283 280 280 280 279 278 0 279 280 281 283 281 279 280 280 283 280 278 277 279 279 281 280 281 280 280 283 284 279 279 279 280 278 278 0 279 279 280 281 281 281 283 283 283 283 281 280 281 280 283 281 284 284 285 285 286 284 287 285 288 283 285 284 285 285 288 286 284 281 280 279 279 279 281 281 281 281 283 284 285 284 283 278 281 280 281 281 281 281 281 283 287 281 285 280 279 281 283 284 284 281 285 284 286 285 281 281 281 0 0 285 285 0 280 0 0 274 274 273 273 273 274 275 0 0 0 0 0
    0 0 0 0 0 0 0 0 0 0 0 0 0 0 0 0 0 0 0 0 0 0 0 0 0 0 0 0 0 0 0 0 0 0 0 0 0 0 0 0 0 0 0 0 0 0 0 0 0 0 0 0 0 0 0 0 0 0 0 0 0 0 0 0 0 0 0 0 0 284 285 287 286 287 287 287 286 283 286 284 280 284 283 283 284 283 284 283 283 287 283 284 285 284 286 286 286 288 286 288 288 289 289 289 288 289 288 288 288 288 287 287 288 288 287 287 285 286 284 284 281 279 279 279 279 279 279 0 279 280 280 283 284 284 287 287 288 289 286 287 289 288 290 288 280 286 285 286 284 284 285 284 285 290 284 285 285 286 285 285 285 286 286 289 285 284 284 285 284 284 283 283 280 281 280 279 279 280 280 283 281 284 284 285 285 286 286 287 285 285 284 281 281 280 279 279 278 278 277 278 279 279 281 280 278 279 278 280 279 277 276 278 279 280 279 280 279 279 280 283 278 278 278 279 278 278 278 278 278 279 281 281 281 283 283 283 284 283 0 281 0 283 281 284 284 284 284 285 283 286 284 287 281 284 284 284 284 287 284 283 280 279 278 278 279 280 281 281 281 281 283 285 284 283 278 280 280 281 281 281 281 280 281 285 279 280 277 277 279 280 281 281 280 281 280 283 283 279 278 279 280 283 284 284 279 277 277 275 274 273 273 273 272 273 275 0 0 0 0 0
    0 0 0 0 0 0 0 0 0 0 0 0 0 0 0 0 0 0 0 0 0 0 0 0 0 0 0 0 0 0 0 0 0 0 0 0 0 0 0 0 0 0 0 0 0 0 0 0 0 0 0 0 0 0 0 0 0 0 0 0 0 0 0 0 0 0 0 0 0 281 283 285 285 284 284 284 281 280 281 280 279 283 283 281 283 283 284 284 283 287 283 284 285 284 286 286 285 287 285 288 287 289 289 289 287 289 287 288 288 288 287 287 287 287 286 286 285 286 284 283 281 279 279 279 279 278 0 0 0 278 278 280 281 281 284 284 287 287 286 287 288 287 290 286 280 285 284 284 283 284 284 283 284 289 283 284 284 286 284 284 285 285 286 290 285 284 284 284 284 284 283 283 280 281 280 279 279 280 280 283 281 284 284 285 286 286 286 286 284 284 283 280 280 279 279 279 279 279 278 278 279 279 279 278 276 277 276 277 277 276 276 278 279 280 279 280 279 279 280 281 277 278 277 278 278 278 278 278 278 279 281 281 281 283 283 283 284 283 0 0 0 281 280 284 284 284 285 285 284 287 284 288 283 285 284 284 284 288 283 279 279 277 276 276 277 278 279 279 280 279 280 280 279 279 274 278 278 280 280 280 280 280 280 284 278 279 276 276 278 278 279 279 278 279 277 280 279 277 276 277 277 278 280 281 277 276 275 273 273 273 273 272 271 272 274 0 0 0 0 0
    0 0 0 0 0 0 0 0 0 0 0 0 0 0 0 0 0 0 0 0 0 0 0 0 0 0 0 0 0 0 0 0 0 0 0 0 0 0 0 0 0 0 0 0 0 0 0 0 0 0 0 0 0 0 0 0 0 0 0 0 0 0 0 0 0 0 0 0 0 279 0 281 281 0 280 280 279 277 278 277 277 279 280 280 281 281 283 283 283 286 281 283 283 283 284 285 284 285 284 287 286 288 289 288 286 287 286 287 286 287 287 286 286 287 286 286 285 285 284 283 280 279 279 279 278 277 0 0 0 277 276 278 279 280 283 283 286 286 286 286 288 287 290 286 280 284 284 283 283 283 284 283 283 288 281 284 285 286 285 284 284 285 287 292 286 284 284 284 284 284 283 283 280 281 280 279 0 280 279 281 281 284 283 285 286 286 285 286 284 284 283 281 280 280 279 280 279 280 278 278 279 278 277 276 275 276 275 276 276 275 275 278 279 280 280 280 279 279 280 281 277 277 276 278 277 278 277 277 0 279 281 281 281 283 283 283 285 283 0 0 0 281 280 283 284 284 284 286 284 288 284 289 284 286 285 286 285 292 283 278 278 276 275 275 276 276 277 277 280 278 278 277 277 275 272 276 277 278 279 279 280 280 279 281 278 0 275 274 0 0 0 0 0 0 0 0 280 277 276 276 275 275 277 278 274 272 269 269 271 271 271 270 270 270 274 0 0 0 0 0
    0 0 0 0 0 0 0 0 0 0 0 0 0 0 0 0 0 0 0 0 0 0 0 0 0 0 0 0 0 0 0 0 0 0 0 0 0 0 0 0 0 0 0 0 0 0 0 0 0 0 0 0 0 0 0 0 0 0 0 0 0 0 0 0 0 0 0 0 0 0 0 280 280 0 0 279 277 275 275 275 274 278 279 279 279 280 283 283 283 286 281 281 281 281 283 284 283 0 283 0 285 287 288 288 285 287 286 287 287 287 288 287 287 287 286 286 285 286 284 281 280 278 278 278 278 277 276 0 275 275 275 277 279 279 283 283 286 286 286 286 288 287 290 286 279 284 283 283 281 283 283 283 283 288 281 284 285 287 285 284 284 285 288 293 288 285 285 284 284 284 284 283 280 280 0 0 0 0 279 281 281 284 283 284 286 286 286 286 284 284 283 281 0 280 279 280 279 279 0 278 278 278 277 275 275 276 275 276 275 274 275 278 279 280 279 279 279 279 279 280 276 276 275 277 276 276 276 276 0 278 281 281 281 281 283 284 287 284 0 0 277 280 279 283 283 283 283 285 283 288 284 289 283 285 285 285 286 292 283 278 278 276 275 274 275 275 276 275 279 277 276 276 275 274 271 274 276 276 277 278 279 279 279 279 276 273 272 271 272 275 276 0 0 284 281 285 0 0 0 277 276 276 277 280 276 275 274 272 272 270 268 268 268 268 273 0 0 0 0 0
    0 0 0 0 0 0 0 0 0 0 0 0 0 0 0 0 0 0 0 0 0 0 0 0 0 0 0 0 0 0 0 0 0 0 0 0 0 0 0 0 0 0 0 0 0 0 0 0 0 0 0 0 0 0 0 0 0 0 0 0 0 0 0 0 0 0 0 0 0 0 0 280 280 0 0 279 276 274 275 274 273 277 278 278 279 281 283 283 283 286 281 281 281 281 283 0 281 0 283 0 283 286 288 287 285 286 286 287 287 288 289 288 288 288 287 287 286 286 284 281 279 277 0 277 277 276 275 274 273 273 273 274 277 277 280 280 286 285 286 286 288 287 290 286 280 283 283 283 281 283 283 281 283 287 281 284 285 287 285 284 285 286 289 294 288 286 286 285 285 285 284 283 279 279 0 0 0 0 279 281 281 283 283 284 286 286 286 286 284 283 283 0 0 0 0 280 279 280 0 278 279 0 276 274 274 274 273 274 274 273 275 277 278 279 279 279 279 279 279 279 276 276 274 276 275 275 275 275 276 0 279 280 281 280 283 285 288 0 0 0 277 280 280 283 283 283 284 285 284 289 284 290 285 284 285 283 286 293 283 0 277 0 274 273 275 275 275 274 280 276 0 275 275 274 271 274 276 275 276 277 278 278 278 277 272 266 267 266 265 268 271 274 279 284 280 283 0 0 275 274 273 272 270 0 268 0 262 261 264 266 0 0 266 266 271 0 0 0 0 0
    0 0 0 0 0 0 0 0 0 0 0 0 0 0 0 0 0 0 0 0 0 0 0 0 0 0 0 0 0 0 0 0 0 0 0 0 0 0 0 0 0 0 0 0 0 0 0 0 0 0 0 0 0 0 0 0 0 0 0 0 0 0 0 0 0 0 0 0 0 0 0 279 0 0 0 279 276 274 274 273 272 276 277 277 279 280 283 283 283 286 280 281 280 280 280 0 0 0 0 0 0 286 286 286 283 283 284 285 286 289 290 289 289 289 288 288 287 287 284 280 278 275 0 274 274 274 273 272 270 271 270 271 276 278 280 281 286 285 286 286 288 288 290 286 280 283 283 281 281 281 281 281 281 286 280 284 284 286 283 281 283 285 288 295 288 287 287 286 286 285 284 283 279 279 0 273 275 0 278 280 280 283 281 0 0 0 0 0 0 0 0 0 0 0 0 0 279 281 0 279 279 0 276 274 273 273 272 272 273 272 274 277 278 279 279 279 279 279 279 280 276 0 0 0 275 275 273 274 275 0 0 280 280 279 281 0 0 0 232 0 0 0 279 283 283 0 0 284 0 0 283 289 0 0 285 283 288 294 281 271 275 0 0 0 0 274 274 0 0 0 0 0 0 0 0 0 275 273 275 276 278 278 277 274 267 262 262 262 261 262 263 269 280 284 285 286 281 0 0 274 268 266 264 262 262 262 260 259 260 0 0 0 262 261 266 0 0 0 0 0
    0 0 0 0 0 0 0 0 0 0 0 0 0 0 0 0 0 0 0 0 0 0 0 0 0 0 0 0 0 0 0 0 0 0 0 0 0 0 0 0 0 0 0 0 0 0 0 0 0 0 0 0 0 0 0 0 0 0 0 0 0 0 0 0 0 0 0 0 0 0 0 279 0 0 0 279 275 273 273 272 271 275 277 277 278 280 281 281 283 286 279 279 279 278 0 0 0 101 0 0 0 283 284 285 280 279 283 283 285 0 293 0 0 0 0 290 288 289 286 278 277 275 276 274 273 273 273 272 271 272 271 272 277 278 280 281 286 284 286 286 288 288 292 286 280 283 281 281 280 281 281 280 280 285 279 281 281 283 279 279 280 281 283 295 288 287 287 287 288 286 285 283 279 278 0 273 275 277 278 280 280 0 0 0 0 0 0 0 0 0 0 0 0 507 0 0 0 281 0 0 280 0 276 272 272 272 270 269 272 271 273 277 278 279 279 279 279 279 279 280 276 0 0 0 0 275 273 0 0 0 0 0 0 0 0 0 0 0 232 231 0 0 0 0 0 0 0 0 0 0 0 0 0 0 284 0 0 295 280 266 272 0 0 0 0 273 273 0 0 0 0 0 0 0 0 0 274 270 0 274 274 275 273 268 265 262 262 262 261 262 262 266 0 280 280 280 278 0 276 272 266 265 263 261 261 261 259 258 259 0 0 0 0 259 261 0 0 0 0 0
    0 0 0 0 0 0 0 0 0 0 0 0 0 0 0 0 0 0 0 0 0 0 0 0 0 0 0 0 0 0 0 0 0 0 0 0 0 0 0 0 0 0 0 0 0 0 0 0 0 0 0 0 0 0 0 0 0 0 0 0 0 0 0 0 0 0 0 0 0 275 274 0 0 0 0 278 274 273 273 271 270 274 277 277 277 280 281 281 283 285 278 276 275 274 0 0 0 0 101 0 101 0 0 283 279 277 281 279 285 0 0 0 0 0 0 0 292 294 289 280 279 279 0 275 276 274 274 273 272 273 271 0 274 274 277 0 0 0 0 284 286 287 292 284 278 280 280 279 279 280 280 278 279 283 277 280 279 279 0 274 277 277 277 297 289 288 288 287 288 285 285 284 279 279 0 0 0 0 0 0 0 0 0 0 0 0 0 0 0 0 0 0 0 507 0 0 0 0 0 0 0 0 273 269 0 0 0 0 271 270 274 278 279 280 280 279 279 279 0 280 276 0 0 0 0 0 0 0 0 0 0 0 0 0 0 0 0 0 0 0 0 0 0 0 0 0 0 170 0 0 0 0 0 0 0 0 0 0 279 264 0 0 0 0 0 272 0 1314 1247 0 0 0 0 0 865 836 0 0 0 270 269 272 269 265 264 262 262 263 261 261 262 264 272 275 274 275 273 274 271 266 262 261 260 260 259 259 257 255 256 0 0 0 0 256 258 0 0 0 0 0
    0 0 0 0 0 0 0 0 0 0 0 0 0 0 0 0 0 0 0 0 0 0 0 0 0 0 0 0 0 0 0 0 0 0 0 0 0 0 0 0 0 0 0 0 0 0 0 0 0 0 0 0 0 0 0 0 0 0 0 0 0 0 0 0 0 0 0 0 0 274 272 0 0 0 0 277 272 271 271 270 268 271 276 276 276 278 280 280 283 281 276 269 266 265 0 0 0 0 0 0 0 0 0 0 0 0 0 0 0 0 0 0 0 0 0 0 0 293 288 280 279 280 0 275 0 272 273 271 0 0 0 0 0 271 275 0 0 0 0 281 0 0 292 283 276 279 278 278 278 279 278 277 276 278 272 0 0 0 0 0 0 0 0 0 294 292 288 0 0 0 0 284 279 0 0 0 0 0 0 0 0 0 0 0 0 0 0 0 0 0 0 0 0 0 0 0 0 0 0 0 0 0 0 0 0 0 0 0 0 269 274 0 280 281 280 280 279 279 0 0 0 0 0 0 0 0 0 0 0 0 0 0 0 0 0 0 0 0 0 0 0 0 0 0 0 0 0 0 0 0 0 0 0 0 0 0 0 0 0 0 0 0 0 0 0 271 0 1314 1247 1226 1132 1022 0 0 0 0 0 0 0 0 264 0 0 0 263 262 261 262 260 260 261 265 271 274 271 273 269 270 266 263 260 260 259 259 257 256 255 254 0 0 0 0 0 251 256 0 0 0 0 0
    0 0 0 0 0 0 0 0 0 0 0 0 0 0 0 0 0 0 0 0 0 0 0 0 0 0 0 0 0 0 0 0 0 0 0 0 0 0 0 0 0 0 0 0 0 0 0 0 0 0 0 0 0 0 0 0 0 0 0 0 0 0 0 0 0 0 0 0 0 272 269 0 0 0 0 274 269 268 268 267 266 266 272 272 271 274 276 276 277 277 274 266 263 264 264 0 408 0 406 0 0 0 0 0 0 0 0 0 0 0 0 0 0 0 0 0 0 0 0 0 0 0 0 0 0 0 0 0 0 0 0 0 0 0 0 0 0 0 0 0 0 0 0 0 275 278 276 276 277 278 277 275 275 276 0 0 0 0 0 0 0 0 0 0 0 0 0 0 0 0 0 0 0 0 0 0 0 0 0 0 0 0 0 0 0 0 0 0 0 0 0 0 0 0 0 0 0 0 0 0 0 0 0 0 0 0 0 0 0 0 0 0 0 0 0 0 0 280 0 0 0 0 0 0 0 0 0 0 0 0 0 0 0 0 0 0 0 0 0 0 0 0 0 0 0 0 0 0 0 0 0 0 0 0 0 0 0 955 0 0 743 721 0 0 0 0 0 1314 1247 1206 1115 1036 981 919 886 0 0 0 0 0 265 0 0 0 0 0 261 261 260 260 260 262 0 272 267 271 267 266 263 261 258 255 253 254 252 249 250 0 0 0 0 0 246 246 0 0 0 0 0 0
    0 0 0 0 0 0 0 0 0 0 0 0 0 0 0 0 0 0 0 0 0 0 0 0 0 0 0 0 0 0 0 0 0 0 0 0 0 0 0 0 0 0 0 0 0 0 0 0 0 0 0 0 0 0 0 0 0 0 0 0 0 0 0 0 0 0 0 0 0 271 0 0 0 0 0 0 266 268 269 268 267 267 271 271 269 271 272 273 275 274 273 265 261 263 0 0 413 408 0 0 0 0 0 0 0 0 0 0 0 0 0 0 0 0 0 0 0 0 0 0 0 0 0 0 0 0 0 0 0 0 0 0 0 0 0 0 0 0 0 0 0 0 0 0 0 0 0 0 0 0 0 0 0 0 0 0 0 0 0 0 0 0 0 0 0 0 0 0 0 0 0 0 0 0 0 0 0 0 0 0 0 0 0 0 0 0 0 0 0 0 0 0 0 0 0 0 0 0 0 0 0 0 0 0 0 0 0 0 0 0 0 0 0 0 0 0 0 0 0 0 0 0 0 0 0 0 0 0 0 0 0 0 0 0 0 0 0 0 0 0 0 0 0 0 0 0 0 0 0 0 0 0 0 0 0 0 0 0 0 0 0 0 0 0 0 0 1247 1247 1226 1187 1115 1051 994 981 931 865 0 0 0 0 0 0 0 0 0 0 0 260 258 256 258 0 0 0 0 0 0 0 260 259 254 252 251 251 248 246 246 0 0 0 0 0 240 239 0 0 0 0 0 0
    0 0 0 0 0 0 0 0 0 0 0 0 0 0 0 0 0 0 0 0 0 0 0 0 0 0 0 0 0 0 0 0 0 0 0 0 0 0 0 0 0 0 0 0 0 0 0 0 0 0 0 0 0 0 0 0 0 0 0 0 0 0 0 0 0 0 0 0 0 0 0 0 0 0 0 0 0 0 0 0 0 0 0 0 0 0 0 0 0 0 0 0 0 0 0 0 0 0 0 0 0 0 0 0 0 0 0 0 0 0 0 0 0 0 0 0 0 0 0 0 0 0 0 0 0 0 0 0 0 0 0 0 0 0 0 0 0 0 0 0 0 0 0 0 0 0 0 0 0 0 0 0 0 0 0 0 0 0 0 0 0 0 0 0 0 0 0 0 0 0 0 0 0 0 0 0 0 0 0 0 0 0 0 0 0 0 0 0 0 0 0 0 0 0 0 0 0 0 0 0 0 0 0 0 0 0 0 0 0 0 0 0 0 0 0 0 0 0 0 0 0 0 0 0 0 0 0 0 0 0 0 0 0 0 0 0 0 0 0 0 0 0 0 0 0 0 0 0 0 0 0 0 0 0 0 0 0 0 0 0 0 0 0 0 0 1115 1149 1187 1168 1187 1115 1036 981 919 0 0 0 0 0 0 0 0 0 0 0 0 259 260 258 257 258 0 0 0 0 266 0 260 257 252 250 250 248 249 246 240 238 0 0 0 0 0 0 235 0 0 0 0 0 0
    0 0 0 0 0 0 0 0 0 0 0 0 0 0 0 0 0 0 0 0 0 0 0 0 0 0 0 0 0 0 0 0 0 0 0 0 0 0 0 0 0 0 0 0 0 0 0 0 0 0 0 0 0 0 0 0 0 0 0 0 0 0 0 0 0 0 0 0 0 0 0 0 0 0 0 0 0 0 0 0 0 0 0 0 0 0 0 0 0 0 0 0 0 0 0 0 0 0 0 0 0 0 0 0 0 0 0 0 0 0 0 0 0 0 0 0 0 0 0 0 0 0 0 0 0 0 0 0 0 0 0 0 0 0 0 0 0 0 0 0 0 0 0 0 0 0 0 0 0 0 0 0 0 0 0 0 0 0 0 0 0 0 0 0 0 0 0 0 0 0 0 0 0 0 0 0 0 0 0 0 0 0 0 0 0 0 0 0 0 0 0 0 0 0 0 0 0 0 0 0 0 0 0 0 0 0 0 0 0 0 0 0 0 0 0 0 0 0 0 0 0 0 0 0 0 0 0 0 0 0 0 0 0 0 0 0 0 0 0 0 0 0 0 0 0 0 0 0 0 0 0 0 0 0 0 0 0 0 0 0 0 0 0 0 0 1082 1082 1098 1098 1098 1098 1008 931 0 0 0 0 514 511 0 0 0 0 0 0 0 0 260 258 257 0 0 0 270 0 265 0 0 257 252 249 249 248 248 244 238 237 236 236 238 237 235 236 235 234 0 0 0 0 0
    0 0 0 0 0 0 0 0 0 0 0 0 0 0 0 0 0 0 0 0 0 0 0 0 0 0 0 0 0 0 0 0 0 0 0 0 0 0 0 0 0 0 0 0 0 0 0 0 0 0 0 0 0 0 0 0 0 0 0 0 0 0 0 0 0 0 0 0 0 0 0 0 0 0 0 0 0 0 0 0 0 0 0 0 0 0 0 0 0 0 0 0 0 0 0 0 0 0 0 0 0 0 0 0 0 0 0 0 0 0 0 0 0 0 0 0 0 0 0 0 0 0 0 0 0 0 0 0 0 0 0 0 0 0 0 0 0 0 0 0 0 0 0 0 0 0 0 0 0 0 0 0 0 0 0 0 0 0 0 0 0 0 0 0 0 0 0 0 0 0 0 0 0 0 0 0 0 0 0 0 0 0 0 0 0 0 0 0 0 0 0 0 0 0 0 0 0 0 0 0 0 0 0 0 0 0 0 0 0 0 0 0 0 0 0 0 0 0 0 0 0 0 0 0 0 0 0 0 0 0 0 0 0 0 0 0 0 0 0 0 0 0 0 0 0 0 0 0 0 0 0 0 0 0 0 0 0 0 0 0 0 0 0 0 0 0 0 1082 1082 1082 1115 0 0 0 0 0 0 0 0 0 0 0 507 0 0 0 0 0 0 0 0 0 0 0 0 0 0 0 258 252 249 248 246 246 241 236 235 234 234 236 235 235 235 235 0 0 0 0 0 0
    0 0 0 0 0 0 0 0 0 0 0 0 0 0 0 0 0 0 0 0 0 0 0 0 0 0 0 0 0 0 0 0 0 0 0 0 0 0 0 0 0 0 0 0 0 0 0 0 0 0 0 0 0 0 0 0 0 0 0 0 0 0 0 0 0 0 0 0 0 0 0 0 0 0 0 0 0 0 0 0 0 0 0 0 0 0 0 0 0 0 0 0 0 0 0 0 0 0 0 0 0 0 0 0 0 0 0 0 0 0 0 0 0 0 0 0 0 0 0 0 0 0 0 0 0 0 0 0 0 0 0 0 0 0 0 0 0 0 0 0 0 0 0 0 0 0 0 0 0 0 0 0 0 0 0 0 0 0 0 0 0 0 0 0 0 0 0 0 0 0 0 0 0 0 0 0 0 0 0 0 0 0 0 0 0 0 0 0 0 0 0 0 0 0 0 0 0 0 0 0 0 0 0 0 0 0 0 0 0 0 0 0 0 0 0 0 0 0 0 0 0 0 0 0 0 0 0 0 0 0 0 0 0 0 0 0 0 0 0 0 0 0 0 0 0 0 0 0 0 0 0 0 0 0 0 0 0 0 0 0 0 0 0 0 0 0 0 0 1132 0 0 0 0 0 0 0 0 0 0 0 0 0 0 0 0 0 500 0 0 0 0 0 0 0 0 0 0 258 252 249 246 247 244 241 238 235 232 232 232 234 234 232 233 232 231 0 0 0 0 0
    0 0 0 0 0 0 0 0 0 0 0 0 0 0 0 0 0 0 0 0 0 0 0 0 0 0 0 0 0 0 0 0 0 0 0 0 0 0 0 0 0 0 0 0 0 0 0 0 0 0 0 0 0 0 0 0 0 0 0 0 0 0 0 0 0 0 0 0 0 0 0 0 0 0 0 0 0 0 0 0 0 0 0 0 0 0 0 0 0 0 0 0 0 0 0 0 0 0 0 0 0 0 0 0 0 0 0 0 0 0 0 0 0 0 0 0 0 0 0 0 0 0 0 0 0 0 0 0 0 0 0 0 0 0 0 0 0 0 0 0 0 0 0 0 0 0 0 0 0 0 0 0 0 0 0 0 0 0 0 0 0 0 0 0 0 0 0 0 0 0 0 0 0 0 0 0 0 0 0 0 0 0 0 0 0 0 0 0 0 0 0 0 0 0 0 0 0 0 0 0 0 0 0 0 0 0 0 0 0 0 0 0 0 0 0 0 0 0 0 0 0 0 0 0 0 0 0 0 0 0 0 0 0 0 0 0 0 0 0 0 0 0 0 0 0 0 0 0 0 0 0 0 0 0 0 0 0 0 0 0 0 0 0 0 0 0 0 0 0 0 0 0 0 0 0 0 0 0 0 0 0 0 0 0 0 0 0 0 0 0 0 0 0 0 0 0 0 0 0 0 245 243 238 236 236 234 230 229 230 232 232 232 232 231 230 0 0 0 0 0
    0 0 0 0 0 0 0 0 0 0 0 0 0 0 0 0 0 0 0 0 0 0 0 0 0 0 0 0 0 0 0 0 0 0 0 0 0 0 0 0 0 0 0 0 0 0 0 0 0 0 0 0 0 0 0 0 0 0 0 0 0 0 0 0 0 0 0 0 0 0 0 0 0 0 0 0 0 0 0 0 0 0 0 0 0 0 0 0 0 0 0 0 0 0 0 0 0 0 0 0 0 0 0 0 0 0 0 0 0 0 0 0 0 0 0 0 0 0 0 0 0 0 0 0 0 0 0 0 0 0 0 0 0 0 0 0 0 0 0 0 0 0 0 0 0 0 0 0 0 0 0 0 0 0 0 0 0 0 0 0 0 0 0 0 0 0 0 0 0 0 0 0 0 0 0 0 0 0 0 0 0 0 0 0 0 0 0 0 0 0 0 0 0 0 0 0 0 0 0 0 0 0 0 0 0 0 0 0 0 0 0 0 0 0 0 0 0 0 0 0 0 0 0 0 0 0 0 0 0 0 0 0 0 0 0 0 0 0 0 0 0 0 0 0 0 0 0 0 0 0 0 0 0 0 0 0 0 0 0 0 0 0 0 0 0 0 0 0 0 0 0 0 0 0 0 0 0 0 0 0 0 0 0 3679 0 0 0 0 0 0 0 0 0 0 0 0 0 0 0 0 0 0 0 233 235 232 229 228 229 231 231 230 231 229 228 0 0 0 0 0
    0 0 0 0 0 0 0 0 0 0 0 0 0 0 0 0 0 0 0 0 0 0 0 0 0 0 0 0 0 0 0 0 0 0 0 0 0 0 0 0 0 0 0 0 0 0 0 0 0 0 0 0 0 0 0 0 0 0 0 0 0 0 0 0 0 0 0 0 0 0 0 0 0 0 0 0 0 0 0 0 0 0 0 0 0 0 0 0 0 0 0 0 0 0 0 0 0 0 0 0 0 0 0 0 0 0 0 0 0 0 0 0 0 0 0 0 0 0 0 0 0 0 0 0 0 0 0 0 0 0 0 0 0 0 0 0 0 0 0 0 0 0 0 0 0 0 0 0 0 0 0 0 0 0 0 0 0 0 0 0 0 0 0 0 0 0 0 0 0 0 0 0 0 0 0 0 0 0 0 0 0 0 0 0 0 0 0 0 0 0 0 0 0 0 0 0 0 0 0 0 0 0 0 0 0 0 0 0 0 0 0 0 0 0 0 0 0 0 0 0 0 0 0 0 0 0 0 0 0 0 0 0 0 0 0 0 0 0 0 0 0 0 0 0 0 0 0 0 0 0 0 0 0 0 0 0 0 0 0 0 0 0 0 0 0 0 0 0 0 0 0 0 0 0 0 0 0 0 0 0 0 6133 6133 4088 0 0 0 0 0 0 681 0 0 0 381 367 0 0 364 362 0 0 0 0 0 227 0 226 228 229 229 228 230 227 227 0 0 0 0 0
    0 0 0 0 0 0 0 0 0 0 0 0 0 0 0 0 0 0 0 0 0 0 0 0 0 0 0 0 0 0 0 0 0 0 0 0 0 0 0 0 0 0 0 0 0 0 0 0 0 0 0 0 0 0 0 0 0 0 0 0 0 0 0 0 0 0 0 0 0 0 0 0 0 0 0 0 0 0 0 0 0 0 0 0 0 0 0 0 0 0 0 0 0 0 0 0 0 0 0 0 0 0 0 0 0 0 0 0 0 0 0 0 0 0 0 0 0 0 0 0 0 0 0 0 0 0 0 0 0 0 0 0 0 0 0 0 0 0 0 0 0 0 0 0 0 0 0 0 0 0 0 0 0 0 0 0 0 0 0 0 0 0 0 0 0 0 0 0 0 0 0 0 0 0 0 0 0 0 0 0 0 0 0 0 0 0 0 0 0 0 0 0 0 0 0 0 0 0 0 0 0 0 0 0 0 0 0 0 0 0 0 0 0 0 0 0 0 0 0 0 0 0 0 0 0 0 0 0 0 0 0 0 0 0 0 0 0 0 0 0 0 0 0 0 0 0 0 0 0 0 0 0 0 0 0 0 0 0 0 0 0 0 0 0 0 0 0 0 0 0 0 0 0 0 0 0 0 0 0 4599 5661 6133 5661 0 0 0 0 0 0 0 707 669 0 0 387 0 0 366 0 364 0 0 0 0 0 0 213 220 226 227 227 226 228 226 226 0 0 0 0 0
    0 0 0 0 0 0 0 0 0 0 0 0 0 0 0 0 0 0 0 0 0 0 0 0 0 0 0 0 0 0 0 0 0 0 0 0 0 0 0 0 0 0 0 0 0 0 0 0 0 0 0 0 0 0 0 0 0 0 0 0 0 0 0 0 0 0 0 0 0 0 0 0 0 0 0 0 0 0 0 0 0 0 0 0 0 0 0 0 0 0 0 0 0 0 0 0 0 0 0 0 0 0 0 0 0 0 0 0 0 0 0 0 0 0 0 0 0 0 0 0 0 0 0 0 0 0 0 0 0 0 0 0 0 0 0 0 0 0 0 0 0 0 0 0 0 0 0 0 0 0 0 0 0 0 0 0 0 0 0 0 0 0 0 0 0 0 0 0 0 0 0 0 0 0 0 0 0 0 0 0 0 0 0 0 0 0 0 0 0 0 0 0 0 0 0 0 0 0 0 0 0 0 0 0 0 0 0 0 0 0 0 0 0 0 0 0 0 0 0 0 0 0 0 0 0 0 0 0 0 0 0 0 0 0 0 0 0 193 194 194 193 192 192 0 0 0 0 0 0 0 0 0 0 0 0 0 0 0 0 0 0 0 0 0 0 0 0 0 0 0 0 0 0 0 0 0 0 0 0 4906 5661 5661 5661 4599 4329 0 0 0 0 0 0 0 0 0 0 0 0 0 0 0 0 0 0 211 0 212 212 212 0 0 225 225 227 225 225 0 0 0 0 0
    0 0 0 0 0 0 0 0 0 0 0 0 0 0 0 0 0 0 0 0 0 0 0 0 0 0 0 0 0 0 0 0 0 0 0 0 0 0 0 0 0 0 0 0 0 0 0 0 0 0 0 0 0 0 0 0 0 0 0 0 0 0 0 0 0 0 0 0 0 0 0 0 0 0 0 0 0 0 0 0 0 0 0 0 0 0 0 0 0 0 0 0 0 0 0 0 0 0 0 0 0 0 0 0 0 0 0 0 0 0 0 0 0 0 0 0 0 0 0 0 0 0 0 0 0 0 0 0 0 0 0 0 0 0 0 0 0 0 0 0 0 0 0 0 0 0 0 0 0 0 0 0 0 0 0 0 0 0 0 0 0 0 0 0 0 0 0 0 0 0 0 0 0 0 0 0 0 0 0 0 0 0 0 0 0 0 0 0 144 0 0 0 0 192 192 192 0 0 0 0 0 0 0 0 0 80 0 0 0 0 196 197 0 197 199 199 199 201 199 201 0 0 0 113 114 197 197 198 197 197 198 198 199 196 79 0 195 194 194 194 194 193 192 194 0 0 0 0 639 639 0 0 0 0 0 0 0 0 0 191 0 0 0 0 0 0 0 0 0 0 0 0 0 0 0 0 0 0 0 5256 6133 5256 0 0 0 0 0 728 714 0 0 0 0 0 0 0 0 0 0 0 0 0 0 0 0 210 210 209 211 0 0 0 226 223 0 0 0 0 0 0
    0 0 0 0 0 0 0 0 0 0 0 0 0 0 0 0 0 0 0 0 0 0 0 0 0 0 0 0 0 0 0 0 0 0 0 0 0 0 0 0 0 0 0 0 0 0 0 0 0 0 0 0 0 0 0 0 0 0 0 0 0 0 0 0 0 0 0 0 0 200 198 0 0 0 2374 2537 0 193 0 0 0 0 0 0 0 0 0 0 0 199 199 200 0 0 78 0 0 0 0 0 0 0 0 0 0 0 0 0 0 0 0 0 0 0 0 0 0 0 0 0 0 0 0 0 0 0 198 0 0 0 0 0 0 0 0 0 0 0 0 0 0 0 0 0 0 0 0 0 0 0 0 204 205 0 0 0 0 0 0 0 0 0 0 0 0 0 0 0 0 0 0 0 0 0 0 0 0 0 0 0 0 0 0 197 0 0 0 196 0 0 0 0 0 194 194 193 0 0 0 199 202 202 203 0 0 0 0 0 0 197 197 197 198 198 199 200 199 201 199 201 200 0 0 0 198 197 197 198 197 197 198 197 0 196 0 196 0 0 194 194 194 194 193 194 192 0 0 634 0 0 0 0 0 0 0 1362 0 0 0 0 0 1672 0 0 0 0 0 0 0 0 0 0 0 0 0 0 0 0 6690 5256 6133 4906 4906 3873 0 0 0 728 0 0 0 0 0 0 0 0 0 0 0 0 0 0 0 0 0 209 208 207 209 207 206 206 0 0 0 0 0 0 0 0
    0 0 0 0 0 0 0 0 0 0 0 0 0 0 0 0 0 0 0 0 0 0 0 0 0 0 0 0 0 0 0 0 0 0 0 0 0 0 0 0 0 0 0 0 0 0 0 0 0 0 0 0 0 0 0 0 0 0 0 0 0 0 0 0 0 0 0 0 0 0 0 0 0 0 0 0 194 193 193 193 194 195 0 0 0 0 198 199 0 199 199 199 199 199 0 0 0 198 198 0 101 101 102 102 0 0 0 0 0 0 0 0 0 0 0 0 0 0 0 0 0 0 0 118 118 0 198 199 199 199 0 0 0 203 199 196 0 0 0 0 195 195 0 0 196 197 199 200 202 201 204 203 204 203 201 202 202 202 0 0 0 0 0 0 0 0 0 0 0 0 0 0 0 0 0 0 0 0 0 0 0 197 0 197 0 0 196 196 0 0 0 0 196 195 195 195 0 197 0 199 201 201 202 0 199 0 0 0 0 197 197 197 198 198 199 199 199 200 199 200 200 0 0 0 199 197 197 198 197 198 198 197 198 196 0 196 195 195 195 195 195 194 194 194 193 0 0 0 0 0 0 0 0 0 0 0 0 0 0 0 0 0 0 0 0 0 0 0 0 0 0 0 0 0 0 0 0 0 6690 5256 6133 5256 0 0 0 0 0 0 0 0 0 0 0 0 0 0 0 0 0 593 0 0 0 207 206 207 206 206 207 205 205 203 203 0 202 0 0 0 0 0
    0 0 0 0 0 0 0 0 0 0 0 0 0 0 0 0 0 0 0 0 0 0 0 0 0 0 0 0 0 0 0 0 0 0 0 0 0 0 0 0 0 0 0 0 0 0 0 0 0 0 0 0 0 0 0 0 0 0 0 0 0 0 0 0 0 0 0 0 0 0 0 0 0 196 195 195 195 194 194 194 194 196 196 198 198 197 197 198 199 198 198 199 199 198 199 198 198 198 198 198 0 0 0 0 102 0 0 0 0 0 0 0 0 0 0 0 0 132 132 131 132 0 0 0 0 197 198 198 198 198 199 201 201 202 199 198 197 196 0 196 196 196 196 197 197 198 199 199 200 199 202 202 202 201 199 199 199 201 199 199 197 201 202 201 0 0 0 0 0 0 0 0 0 197 197 198 199 199 198 197 197 197 197 197 196 196 196 197 196 0 197 196 196 196 196 196 196 0 0 199 201 0 201 198 198 0 196 197 197 197 196 197 198 198 199 199 199 201 199 201 200 198 199 197 199 197 197 198 198 198 198 198 198 196 196 196 196 195 195 195 195 195 194 194 193 193 0 0 196 0 0 0 0 0 0 0 0 0 197 0 0 197 198 0 0 0 0 0 0 0 0 0 0 0 0 0 0 0 6690 4906 0 0 0 3679 0 0 0 0 0 0 0 0 0 0 0 0 0 0 0 0 0 0 0 207 0 206 206 205 205 204 203 203 202 202 201 0 0 0 0 0
    0 0 0 0 0 0 0 0 0 0 0 0 0 0 0 0 0 0 0 0 0 0 0 0 0 0 0 0 0 0 0 0 0 0 0 0 0 0 0 0 0 0 0 0 0 0 0 0 0 0 0 0 0 0 0 0 0 0 0 0 0 0 0 0 0 0 0 0 0 0 0 0 0 196 196 196 195 194 194 194 195 196 196 197 197 196 197 198 198 198 198 198 198 198 198 198 197 198 198 197 0 0 0 0 0 199 198 197 196 0 201 198 198 0 0 0 0 0 0 0 0 0 0 0 0 197 198 198 198 198 199 201 201 203 200 198 197 196 196 195 196 196 196 197 198 198 199 199 199 199 201 202 201 200 199 198 198 199 198 198 197 199 200 199 199 199 197 0 0 0 0 0 0 197 197 198 198 199 198 198 197 197 197 198 197 196 197 197 196 197 197 197 197 196 197 196 196 0 0 198 199 199 199 197 197 196 196 196 0 196 196 197 197 197 198 199 199 200 199 200 200 198 199 197 198 197 197 197 197 197 198 198 198 197 196 196 196 195 195 195 195 195 194 195 194 194 0 198 196 0 0 0 0 0 197 197 197 197 197 0 198 198 199 198 0 0 0 0 0 0 0 0 0 0 0 0 0 0 0 0 0 0 0 0 0 0 0 0 0 0 0 0 0 0 0 0 0 0 0 0 0 0 0 206 0 206 205 204 0 0 203 202 202 202 200 0 0 0 0 0
    0 0 0 0 0 0 0 0 0 0 0 0 0 0 0 0 0 0 0 0 0 0 0 0 0 0 0 0 0 0 0 0 0 0 0 0 0 0 0 0 0 0 0 0 0 0 0 0 0 0 0 0 0 0 0 0 0 0 0 0 0 0 0 0 0 0 0 0 0 0 0 0 0 197 196 196 196 195 195 195 195 196 196 197 197 196 197 197 198 198 198 198 198 198 198 198 198 198 198 198 0 0 0 198 200 199 200 198 197 200 201 198 198 200 201 201 0 200 0 0 0 199 0 0 0 197 198 198 198 198 199 200 201 202 201 198 198 196 196 196 196 196 196 197 198 198 198 199 199 199 201 201 200 199 199 198 198 198 198 198 197 198 199 198 199 199 198 198 197 0 0 0 196 196 197 197 198 198 197 198 198 198 198 198 197 197 197 197 196 196 197 196 196 196 197 196 0 197 0 197 198 197 198 197 197 0 196 197 197 196 196 197 197 197 198 198 198 199 198 199 199 198 199 197 198 197 197 197 197 197 197 197 198 197 196 196 196 196 195 195 195 195 195 195 194 194 0 0 196 0 0 196 0 0 0 0 0 0 0 0 0 198 199 198 0 0 0 0 0 0 0 0 0 0 0 0 0 0 0 0 0 0 0 0 0 0 0 0 0 0 0 198 199 199 0 0 199 0 0 0 0 0 0 204 203 0 0 202 0 0 199 198 200 201 198 0 0 0 0 0
    0 0 0 0 0 0 0 0 0 0 0 0 0 0 0 0 0 0 0 0 0 0 0 0 0 0 0 0 0 0 0 0 0 0 0 0 0 0 0 0 0 0 0 0 0 0 0 0 0 0 0 0 0 0 0 0 0 0 0 0 0 0 0 0 0 0 0 0 0 0 0 0 0 197 196 196 196 195 195 195 196 197 196 198 197 197 197 198 198 198 199 199 198 198 198 198 198 198 198 198 198 197 198 198 200 201 201 200 199 201 201 199 198 199 200 200 200 199 199 0 201 199 198 198 0 197 198 198 198 198 199 199 200 201 199 197 196 196 195 196 196 196 197 197 198 198 199 199 199 199 200 201 199 198 198 197 198 198 197 198 197 198 199 198 200 199 199 198 198 0 0 0 197 197 198 198 198 198 198 198 198 198 199 198 197 197 197 197 196 196 196 196 196 196 196 196 196 196 198 197 197 197 197 197 197 196 196 197 197 196 196 197 197 197 198 198 198 198 198 199 198 197 198 196 198 196 196 196 196 196 197 196 197 196 196 196 196 196 195 195 196 195 195 195 194 194 0 0 0 0 195 196 196 0 196 196 196 196 197 0 0 197 199 198 0 0 0 0 0 0 0 0 0 0 0 0 197 196 0 197 197 196 197 196 0 0 0 196 197 197 197 198 198 199 198 0 199 198 199 199 199 0 0 201 200 199 199 198 197 0 197 0 198 199 198 0 0 0 0 0
    0 0 0 0 0 0 0 0 0 0 0 0 0 0 0 0 0 0 0 0 0 0 0 0 0 0 0 0 0 0 0 0 0 0 0 0 0 0 0 0 0 0 0 0 0 0 0 0 0 0 0 0 0 0 0 0 0 0 0 0 0 0 0 0 0 0 0 0 0 200 199 0 197 197 197 197 197 195 196 195 196 197 196 198 198 197 197 198 198 198 198 199 198 198 198 198 198 198 199 198 198 198 198 198 200 201 200 199 198 201 201 198 198 199 199 199 199 199 199 199 200 199 198 198 197 197 198 199 199 199 199 199 199 201 199 197 197 196 196 197 197 196 197 198 198 198 199 199 199 200 200 201 199 198 198 197 198 198 197 198 197 198 199 198 199 199 199 198 198 198 198 196 197 197 197 197 198 198 197 198 198 197 198 197 197 197 197 197 196 196 196 196 196 196 196 196 196 196 197 197 197 197 197 196 196 196 196 196 197 196 196 196 196 197 197 197 198 198 197 199 198 198 198 197 198 196 196 196 195 195 196 196 196 195 195 196 196 196 196 196 196 195 195 195 195 194 196 195 0 0 0 196 196 196 196 196 196 196 197 0 0 197 0 0 0 198 0 0 0 0 0 0 0 0 0 0 197 196 196 197 197 196 197 196 196 196 196 197 197 197 197 198 198 199 198 198 198 197 197 198 197 197 198 198 197 197 197 0 0 0 196 196 197 199 199 0 0 0 0 0
    0 0 0 0 0 0 0 0 0 0 0 0 0 0 0 0 0 0 0 0 0 0 0 0 0 0 0 0 0 0 0 0 0 0 0 0 0 0 0 0 0 0 0 0 0 0 0 0 0 0 0 0 0 0 0 0 0 0 0 0 0 0 0 0 0 0 0 0 0 0 199 198 198 198 197 197 197 196 196 196 196 197 197 198 198 197 197 198 198 197 198 198 198 197 198 197 198 198 198 198 198 198 198 198 199 200 199 198 198 199 198 198 198 198 199 199 199 199 198 199 200 199 199 198 197 197 198 199 199 199 199 199 200 201 199 198 197 197 197 197 197 196 197 198 198 198 199 198 199 199 199 200 199 198 198 197 198 198 197 198 198 198 199 198 199 198 198 198 198 197 197 196 197 196 197 197 197 198 198 198 198 198 199 198 197 197 197 197 196 196 196 196 196 196 197 196 197 197 197 197 197 196 197 196 196 196 196 196 196 196 196 196 196 196 197 197 197 197 197 198 198 198 198 197 198 196 195 195 195 195 195 195 195 195 195 196 196 196 196 196 196 196 196 195 195 195 196 196 196 195 0 196 196 196 197 196 196 196 197 197 0 197 0 0 0 0 0 0 196 0 0 195 0 0 196 196 196 196 196 196 197 196 196 196 196 196 196 197 197 197 197 198 197 198 197 198 197 197 197 198 197 197 198 198 197 197 197 196 0 196 196 195 196 200 199 0 0 0 0 0
    0 0 0 0 0 0 0 0 0 0 0 0 0 0 0 0 0 0 0 0 0 0 0 0 0 0 0 0 0 0 0 0 0 0 0 0 0 0 0 0 0 0 0 0 0 0 0 0 0 0 0 0 0 0 0 0 0 0 0 0 0 0 0 0 0 0 0 0 0 199 199 198 198 199 198 198 198 197 197 197 197 197 197 198 198 197 198 198 197 197 198 198 197 197 198 197 197 198 198 198 198 198 198 198 199 200 199 198 198 199 198 198 198 198 198 199 199 198 198 199 200 199 202 199 198 198 198 199 199 199 199 199 200 201 200 198 198 197 197 197 198 196 197 198 198 198 198 198 198 198 199 199 198 197 198 197 198 198 197 198 198 198 199 198 198 198 198 198 197 197 197 196 197 196 197 197 197 197 198 198 198 198 199 198 197 197 198 197 197 197 197 197 197 197 197 197 198 197 197 197 198 196 196 196 196 196 196 196 196 196 195 196 196 196 196 196 197 197 197 198 197 197 198 197 198 196 195 195 194 194 195 195 195 195 195 195 196 196 196 196 196 196 196 196 196 196 196 196 196 196 196 196 196 196 197 196 197 196 197 0 0 0 0 0 0 0 0 0 195 195 195 195 0 195 195 195 196 196 196 196 197 196 196 196 196 196 196 197 197 196 197 197 197 198 197 198 197 197 197 198 197 198 199 198 198 197 0 0 0 0 195 194 194 201 0 0 0 0 0 0
    0 0 0 0 0 0 0 0 0 0 0 0 0 0 0 0 0 0 0 0 0 0 0 0 0 0 0 0 0 0 0 0 0 0 0 0 0 0 0 0 0 0 0 0 0 0 0 0 0 0 0 0 0 0 0 0 0 0 0 0 0 0 0 0 0 0 0 0 0 199 199 200 199 201 200 199 200 198 198 198 198 198 197 198 198 197 198 198 197 197 198 197 197 197 197 197 197 198 198 198 198 198 199 199 199 201 198 199 199 199 198 198 198 198 198 199 199 198 198 199 199 199 201 197 196 196 197 198 198 198 199 199 199 199 199 199 198 198 199 199 198 197 197 198 198 198 198 198 198 198 198 198 198 197 198 197 198 197 197 198 198 197 198 197 198 197 198 198 197 197 197 197 197 196 197 197 197 197 198 198 198 198 198 198 197 197 198 197 197 197 197 197 197 197 197 197 198 197 197 197 197 196 196 196 196 196 196 196 196 196 0 196 195 196 196 196 196 197 197 198 197 198 198 197 198 196 195 195 195 194 195 195 195 195 195 195 196 196 196 196 196 196 196 196 196 196 196 196 197 196 196 197 197 197 197 197 197 196 197 197 0 0 0 0 0 197 197 0 0 195 195 195 0 195 195 195 0 195 196 196 197 196 196 197 196 197 196 197 197 196 197 197 197 198 197 198 197 197 197 198 197 198 198 198 197 197 0 0 0 0 194 193 193 197 0 0 0 0 0 0
    0 0 0 0 0 0 0 0 0 0 0 0 0 0 0 0 0 0 0 0 0 0 0 0 0 0 0 0 0 0 0 0 0 0 0 0 0 0 0 0 0 0 0 0 0 0 0 0 0 0 0 0 0 0 0 0 0 0 0 0 0 0 0 0 0 0 0 0 0 198 199 199 199 201 201 199 201 199 199 199 199 198 198 198 198 198 198 198 197 197 198 197 197 197 197 197 197 198 198 198 199 198 199 199 199 201 198 199 199 199 198 198 198 198 198 199 198 198 198 199 198 198 199 196 195 195 196 197 197 197 197 198 198 198 199 198 198 198 199 199 198 197 197 198 198 198 198 198 198 198 199 198 198 197 198 197 198 197 197 198 197 197 198 197 197 197 197 197 197 197 197 197 197 196 197 197 197 197 197 198 197 197 198 198 197 197 198 197 197 197 197 197 197 197 197 197 198 197 197 197 197 196 196 196 196 196 196 196 196 196 0 196 195 196 196 0 196 196 196 198 197 198 198 197 198 196 196 195 195 195 195 195 196 196 196 196 196 196 197 197 196 196 196 196 196 197 197 196 197 197 197 197 197 197 197 197 197 196 197 0 0 0 0 0 0 197 196 0 195 195 195 195 0 194 195 195 195 195 196 196 197 196 196 196 196 197 197 197 197 196 197 197 196 198 197 197 197 196 196 197 197 197 197 196 196 196 197 0 0 194 194 193 193 196 0 0 0 0 0 0
    0 0 0 0 0 0 0 0 0 0 0 0 0 0 0 0 0 0 0 0 0 0 0 0 0 0 0 0 0 0 0 0 0 0 0 0 0 0 0 0 0 0 0 0 0 0 0 0 0 0 0 0 0 0 0 0 0 0 0 0 0 0 0 0 0 0 0 0 0 198 199 199 199 200 201 199 200 199 199 199 199 198 198 198 198 197 198 198 197 197 198 197 197 197 198 198 197 198 199 198 199 198 199 199 199 201 199 199 199 199 198 198 198 198 198 198 198 198 198 199 198 197 198 196 196 195 195 196 197 197 197 198 197 198 198 198 198 198 199 199 198 197 197 198 198 197 198 198 198 198 199 198 198 198 198 198 198 197 197 198 197 197 197 197 197 197 197 197 197 197 197 197 197 196 197 197 197 197 197 197 197 197 198 198 197 197 197 197 197 197 197 197 197 197 197 197 197 197 197 197 197 196 196 196 196 196 196 196 196 196 0 0 196 196 196 0 196 197 196 198 197 198 198 197 199 196 196 195 195 194 195 195 196 196 196 196 196 197 197 197 197 197 196 197 197 197 197 197 197 197 197 197 197 197 197 197 197 197 196 0 0 0 0 0 0 197 196 0 0 0 0 195 0 195 195 195 195 195 196 196 197 196 196 197 197 197 197 197 197 196 197 197 197 198 196 196 196 196 196 196 196 196 197 196 196 196 197 197 0 195 194 193 193 196 0 0 0 0 0 0
    0 0 0 0 0 0 0 0 0 0 0 0 0 0 0 0 0 0 0 0 0 0 0 0 0 0 0 0 0 0 0 0 0 0 0 0 0 0 0 0 0 0 0 0 0 0 0 0 0 0 0 0 0 0 0 0 0 0 0 0 0 0 0 0 0 0 0 0 0 198 199 199 199 199 200 199 199 198 198 199 200 198 198 198 198 198 198 198 197 197 198 197 198 198 198 198 198 199 199 199 199 199 199 199 199 201 199 200 199 199 198 198 198 198 198 198 198 198 198 198 198 197 198 196 196 195 195 197 197 197 197 198 197 198 198 198 198 198 199 199 198 197 198 198 198 197 198 198 198 198 199 198 198 198 198 198 198 197 197 198 197 197 197 197 197 196 197 197 197 197 198 197 197 196 197 197 197 197 197 197 197 197 197 197 197 197 197 197 197 197 197 197 197 197 197 197 197 197 197 197 197 196 196 196 196 196 196 196 196 196 0 0 0 0 196 0 196 197 196 198 197 198 198 197 199 197 196 196 195 195 195 196 196 196 196 196 196 196 196 196 196 196 196 196 196 197 197 197 197 197 197 197 197 197 197 197 197 197 0 0 0 0 0 0 0 0 196 0 0 0 0 196 0 195 195 195 196 196 196 196 197 196 196 196 196 197 197 197 197 197 197 197 197 198 196 0 196 196 196 196 196 196 197 196 197 196 197 197 196 195 194 193 194 0 0 0 0 0 0 0
    0 0 0 0 0 0 0 0 0 0 0 0 0 0 0 0 0 0 0 0 0 0 0 0 0 0 0 0 0 0 0 0 0 0 0 0 0 0 0 0 0 0 0 0 0 0 0 0 0 0 0 0 0 0 0 0 0 0 0 0 0 0 0 0 0 0 0 0 0 198 198 198 198 199 199 198 199 198 198 198 199 198 198 198 198 198 198 198 197 197 198 197 198 198 198 198 198 199 199 199 199 199 199 199 199 201 199 199 199 198 197 198 198 198 198 198 198 198 198 198 198 197 198 196 195 195 195 196 196 196 197 198 197 198 198 198 198 198 199 199 198 197 198 198 198 198 197 198 198 198 198 198 197 198 198 198 198 197 197 198 197 197 197 198 197 197 197 197 197 197 197 197 197 196 197 197 197 197 197 197 196 197 197 197 196 197 197 197 197 197 197 197 197 197 197 197 198 197 197 197 197 196 196 196 196 196 196 196 196 196 0 0 0 0 196 0 196 197 197 198 197 198 198 198 200 198 197 197 196 196 196 196 196 196 196 196 196 196 196 196 196 196 196 196 197 197 197 197 197 197 197 197 197 197 197 197 197 197 197 0 0 0 0 0 0 0 196 0 0 0 0 196 0 196 196 196 196 196 196 196 197 196 196 196 196 197 197 197 198 197 197 197 197 0 196 0 196 195 196 196 196 197 197 197 197 197 199 198 197 195 194 193 0 0 0 0 0 0 0 0
    0 0 0 0 0 0 0 0 0 0 0 0 0 0 0 0 0 0 0 0 0 0 0 0 0 0 0 0 0 0 0 0 0 0 0 0 0 0 0 0 0 0 0 0 0 0 0 0 0 0 0 0 0 0 0 0 0 0 0 0 0 0 0 0 0 0 0 0 0 198 198 198 198 199 200 199 199 198 198 199 200 198 198 198 198 198 199 199 197 197 198 197 197 198 198 198 198 199 199 199 199 199 199 199 199 201 199 199 199 198 197 197 198 197 198 198 198 197 198 198 198 196 197 196 195 195 195 196 196 196 197 198 197 198 198 198 198 198 199 199 198 197 198 198 198 198 197 197 198 197 198 197 197 198 198 198 198 197 197 198 197 197 197 198 197 197 197 197 197 197 197 197 196 196 196 197 197 196 197 0 196 196 197 197 196 197 197 197 197 197 197 197 197 198 197 197 198 197 197 198 197 196 196 196 196 196 196 196 196 0 0 0 252 0 196 0 196 197 197 198 198 198 198 198 201 198 198 198 197 197 196 197 197 196 196 196 196 196 196 196 196 196 196 196 197 197 197 197 197 197 197 198 197 198 198 197 197 197 196 0 0 0 0 0 0 0 0 0 0 0 0 0 0 196 196 196 196 196 196 196 197 196 196 196 197 197 197 197 198 196 197 197 0 0 196 0 195 195 195 196 196 196 197 197 197 197 200 200 198 196 195 195 196 196 0 0 0 0 0 0
    0 0 0 0 0 0 0 0 0 0 0 0 0 0 0 0 0 0 0 0 0 0 0 0 0 0 0 0 0 0 0 0 0 0 0 0 0 0 0 0 0 0 0 0 0 0 0 0 0 0 0 0 0 0 0 0 0 0 0 0 0 0 0 0 0 0 0 0 0 198 198 198 198 199 200 199 199 198 198 199 200 198 198 198 198 198 199 199 197 197 198 197 198 198 198 198 198 199 198 199 199 199 199 199 199 201 199 199 199 198 197 197 197 197 198 198 198 197 198 198 198 196 197 195 195 195 195 196 196 196 197 197 197 197 197 197 198 198 199 199 199 197 199 199 198 198 197 197 197 197 198 197 197 198 197 198 199 197 198 198 197 197 197 198 197 196 197 197 196 197 197 197 196 196 196 196 197 196 196 0 196 196 197 197 196 196 197 197 197 197 197 197 197 198 197 197 198 197 197 198 197 196 197 196 196 196 196 196 196 196 0 0 252 0 196 0 196 197 197 198 198 198 198 198 201 199 198 198 198 197 197 197 197 197 197 196 196 196 196 197 196 197 197 197 197 198 197 198 198 198 198 198 198 198 198 198 197 197 196 0 0 0 0 0 0 0 0 0 0 0 0 196 197 196 196 196 197 196 196 196 197 196 196 196 197 196 197 197 198 196 197 196 0 0 196 0 195 195 195 196 196 196 197 197 197 198 201 200 198 197 196 195 196 197 0 0 0 0 0 0
    0 0 0 0 0 0 0 0 0 0 0 0 0 0 0 0 0 0 0 0 0 0 0 0 0 0 0 0 0 0 0 0 0 0 0 0 0 0 0 0 0 0 0 0 0 0 0 0 0 0 0 0 0 0 0 0 0 0 0 0 0 0 0 0 0 0 0 0 0 198 198 198 198 198 200 199 199 198 198 199 200 198 199 199 198 198 199 199 197 198 198 197 198 199 199 198 198 199 198 199 198 198 198 198 198 200 199 199 199 198 197 197 198 198 198 198 198 197 198 198 197 196 196 195 195 195 195 196 195 196 196 197 196 197 197 197 197 198 198 199 199 197 199 199 198 198 197 198 198 198 199 197 197 198 197 198 199 197 198 198 197 197 197 198 198 197 198 197 197 197 198 198 197 196 196 196 197 196 196 0 0 196 196 197 196 196 197 197 197 197 197 198 197 198 198 198 198 198 197 198 197 196 196 196 196 196 196 196 196 0 0 253 252 0 196 0 196 0 197 198 198 198 198 198 201 199 199 198 198 198 197 198 198 198 197 196 196 196 196 196 196 197 197 197 197 198 197 198 198 198 198 198 198 198 198 198 197 197 197 0 196 0 0 0 0 0 196 0 0 0 0 197 197 196 196 196 197 196 196 196 197 196 196 196 197 196 196 197 197 0 196 0 0 0 195 0 194 194 194 195 195 195 196 195 195 197 200 199 199 197 196 196 197 197 196 0 0 0 0 0
    0 0 0 0 0 0 0 0 0 0 0 0 0 0 0 0 0 0 0 0 0 0 0 0 0 0 0 0 0 0 0 0 0 0 0 0 0 0 0 0 0 0 0 0 0 0 0 0 0 0 0 0 0 0 0 0 0 0 0 0 0 0 0 0 0 0 0 0 0 0 198 197 198 198 199 198 199 198 198 199 200 198 199 199 198 198 199 199 197 198 198 197 198 199 199 198 198 198 198 198 198 198 198 198 198 200 199 199 199 198 198 198 198 198 198 198 198 198 198 197 197 196 196 196 196 196 196 196 196 196 196 197 196 197 197 197 197 198 198 199 198 197 200 199 198 198 198 198 198 198 199 197 197 198 197 198 199 197 197 198 198 198 198 198 199 198 198 198 198 198 198 198 197 196 196 196 196 196 0 0 0 196 196 196 196 196 197 197 197 197 197 197 197 198 198 198 198 198 197 197 196 196 196 196 195 196 196 196 0 0 0 0 0 0 196 0 196 196 197 198 197 198 198 199 201 201 201 199 199 199 198 199 198 198 197 196 196 196 196 196 196 197 197 197 197 198 197 198 198 198 197 198 197 198 198 198 197 197 197 197 196 0 0 196 196 197 196 0 197 0 197 197 197 196 196 196 196 196 0 195 197 196 197 196 197 196 197 197 198 196 196 0 0 0 195 0 194 194 194 194 194 195 195 195 195 197 199 199 199 197 196 196 0 197 196 0 0 0 0 0
    0 0 0 0 0 0 0 0 0 0 0 0 0 0 0 0 0 0 0 0 0 0 0 0 0 0 0 0 0 0 0 0 0 0 0 0 0 0 0 0 0 0 0 0 0 0 0 0 0 0 0 0 0 0 0 0 0 0 0 0 0 0 0 0 0 0 0 0 0 0 198 197 197 197 199 198 198 198 198 199 200 198 199 198 198 198 198 198 197 198 198 197 198 198 199 198 198 198 198 198 198 198 198 198 199 199 199 198 199 199 198 198 198 198 198 198 198 197 198 197 198 197 197 197 197 197 197 196 196 196 197 197 196 196 196 196 197 197 198 198 199 197 199 199 198 198 198 198 198 198 199 197 197 198 197 197 198 197 197 198 198 198 198 199 199 198 199 198 198 198 198 198 197 196 196 195 196 195 195 195 195 195 195 196 196 196 196 197 197 197 197 197 197 198 197 197 197 197 196 197 0 196 196 196 195 196 196 196 0 196 0 0 0 0 196 196 196 196 197 197 197 197 198 199 201 201 201 200 200 200 199 199 198 197 196 196 196 196 195 196 196 196 196 197 197 197 197 197 197 197 197 198 197 198 198 198 197 198 197 197 196 0 196 196 196 197 196 197 197 197 197 197 197 196 197 196 196 195 195 195 196 197 196 196 197 196 197 197 198 0 0 0 0 0 195 0 193 193 194 194 195 195 0 194 193 0 0 0 0 197 196 196 0 198 197 0 0 0 0 0
    0 0 0 0 0 0 0 0 0 0 0 0 0 0 0 0 0 0 0 0 0 0 0 0 0 0 0 0 0 0 0 0 0 0 0 0 0 0 0 0 0 0 0 0 0 0 0 0 0 0 0 0 0 0 0 0 0 0 0 0 0 0 0 0 0 0 0 0 0 0 197 197 197 197 198 198 198 198 198 199 199 198 199 198 198 198 197 198 197 198 197 197 198 198 198 198 198 198 198 198 197 197 197 197 198 198 198 197 198 198 198 197 198 198 198 198 198 197 198 197 198 197 198 198 198 199 199 198 197 197 197 197 196 196 196 196 197 197 197 198 199 197 199 199 198 198 198 198 198 198 198 197 197 198 197 197 198 197 197 198 198 198 198 199 199 199 199 199 198 198 199 198 197 196 196 195 196 195 195 195 195 195 195 195 196 195 196 197 196 197 196 197 197 197 197 197 197 197 196 197 0 196 196 196 195 196 0 196 0 196 0 0 0 197 196 196 196 196 197 197 197 197 197 199 201 201 201 199 199 199 199 199 198 197 196 195 195 195 195 195 196 196 196 196 197 197 197 197 197 197 197 198 197 198 197 198 197 198 197 197 196 197 197 196 197 197 197 198 198 198 198 197 197 197 197 196 196 195 195 196 197 197 197 0 0 197 198 198 0 0 0 0 0 0 0 0 193 193 193 193 195 195 0 0 0 0 0 0 0 198 197 197 0 198 198 0 0 0 0 0
    0 0 0 0 0 0 0 0 0 0 0 0 0 0 0 0 0 0 0 0 0 0 0 0 0 0 0 0 0 0 0 0 0 0 0 0 0 0 0 0 0 0 0 0 0 0 0 0 0 0 0 0 0 0 0 0 0 0 0 0 0 0 0 0 0 0 0 0 0 197 197 197 197 197 197 198 198 198 197 198 199 199 199 199 199 198 198 199 197 198 197 197 197 198 198 197 197 198 197 198 197 197 197 197 198 197 198 197 197 198 198 197 198 197 198 197 197 197 198 197 198 197 198 198 198 198 199 198 197 197 197 196 196 196 196 196 196 197 197 198 199 197 199 199 198 198 198 198 198 198 199 197 197 198 197 197 198 198 198 199 199 199 199 200 200 200 200 199 198 199 199 198 197 196 196 195 196 195 195 195 195 195 196 196 196 196 196 197 196 196 196 196 196 197 197 197 197 197 196 197 196 196 196 196 195 0 0 196 0 196 0 0 0 197 196 196 196 196 197 197 197 197 197 198 200 200 199 198 199 199 199 199 198 197 196 195 195 195 195 195 195 196 196 196 196 197 197 197 197 197 197 197 197 198 197 198 197 198 197 197 196 197 197 196 197 197 197 198 198 199 198 197 197 196 197 196 196 195 195 195 196 0 0 0 0 0 0 197 0 0 0 0 0 0 0 0 193 193 193 193 195 0 0 0 0 0 0 0 0 201 199 198 200 199 198 0 0 0 0 0
    0 0 0 0 0 0 0 0 0 0 0 0 0 0 0 0 0 0 0 0 0 0 0 0 0 0 0 0 0 0 0 0 0 0 0 0 0 0 0 0 0 0 0 0 0 0 0 0 0 0 0 0 0 0 0 0 0 0 0 0 0 0 0 0 0 0 0 0 0 197 197 197 197 197 198 198 198 198 197 198 199 198 199 199 199 199 198 199 197 198 197 197 197 197 197 197 197 197 197 197 196 197 196 197 197 197 197 197 197 198 198 197 198 197 197 197 197 197 197 197 197 197 197 198 198 198 198 198 197 197 197 196 196 196 196 196 196 197 197 198 199 197 199 199 198 198 198 198 198 198 199 197 197 198 197 197 198 198 198 199 199 199 199 200 200 200 200 200 199 199 198 198 197 197 196 196 196 195 195 196 196 196 196 196 196 196 197 197 196 196 196 196 196 196 196 196 196 197 196 197 196 196 196 196 196 196 196 196 196 196 0 0 0 0 196 0 0 196 197 197 197 197 196 198 199 199 199 198 198 199 199 198 197 197 196 195 195 195 195 195 195 196 196 196 197 197 197 197 197 197 197 197 197 198 197 198 197 198 197 197 196 197 197 197 197 197 197 198 199 199 198 197 197 196 196 196 195 195 195 195 196 0 0 0 0 0 0 197 0 0 0 0 0 0 0 194 193 193 194 194 196 196 0 0 0 0 0 0 0 201 198 198 199 198 198 0 0 0 0 0
    0 0 0 0 0 0 0 0 0 0 0 0 0 0 0 0 0 0 0 0 0 0 0 0 0 0 0 0 0 0 0 0 0 0 0 0 0 0 0 0 0 0 0 0 0 0 0 0 0 0 0 0 0 0 0 0 0 0 0 0 0 0 0 0 0 0 0 0 0 197 197 197 197 197 198 198 198 198 197 198 199 199 199 199 199 200 198 200 197 198 197 197 196 197 197 197 197 197 197 196 196 196 196 196 197 197 197 196 197 198 198 198 198 197 197 197 197 197 197 197 197 197 198 198 198 198 198 198 198 197 197 196 196 196 196 196 196 197 197 198 199 197 199 199 198 198 198 198 198 198 199 197 197 198 198 197 198 199 198 199 199 200 199 200 200 201 200 200 199 198 198 198 197 197 196 196 196 196 196 196 196 196 196 196 197 197 197 197 197 197 196 197 196 196 196 196 196 197 196 197 196 196 196 196 196 196 196 196 196 196 196 196 196 197 195 195 195 196 197 196 196 196 196 197 198 198 198 196 197 198 198 197 196 196 195 194 195 195 195 195 195 196 196 196 197 197 196 197 197 197 197 198 197 198 197 198 197 198 197 197 197 197 197 197 198 0 197 198 199 199 0 0 197 196 196 196 195 195 195 196 197 0 0 0 0 0 198 198 0 0 0 0 0 0 0 194 194 194 194 194 195 195 0 0 0 0 0 0 0 0 0 0 0 198 198 0 0 0 0 0
    0 0 0 0 0 0 0 0 0 0 0 0 0 0 0 0 0 0 0 0 0 0 0 0 0 0 0 0 0 0 0 0 0 0 0 0 0 0 0 0 0 0 0 0 0 0 0 0 0 0 0 0 0 0 0 0 0 0 0 0 0 0 0 0 0 0 0 0 0 198 198 198 198 198 198 198 198 198 198 199 199 199 199 199 199 201 199 199 197 197 197 197 196 197 197 197 197 197 196 196 196 196 196 196 196 196 196 196 197 198 198 198 198 198 198 198 198 197 197 197 198 198 198 198 198 198 199 198 198 197 197 196 197 196 196 197 197 197 197 198 199 197 199 199 198 198 198 198 198 198 199 197 197 198 198 197 198 199 198 199 200 200 199 200 200 201 199 199 198 198 198 198 197 197 196 196 196 196 196 196 196 196 196 197 197 197 197 198 197 197 197 197 197 196 197 196 197 197 0 197 196 196 196 196 196 196 196 196 196 196 196 196 196 196 195 195 195 196 197 196 196 196 196 197 197 197 196 196 197 197 197 197 196 196 195 194 196 195 195 196 196 196 196 196 197 197 196 197 197 197 197 197 197 198 197 199 197 199 198 198 197 198 198 199 199 198 198 0 199 199 199 0 197 196 196 196 196 196 196 196 197 197 0 197 0 0 0 0 0 0 0 0 0 0 196 196 196 197 196 196 196 0 0 0 0 0 0 157 157 0 0 0 0 198 198 0 0 0 0 0
    0 0 0 0 0 0 0 0 0 0 0 0 0 0 0 0 0 0 0 0 0 0 0 0 0 0 0 0 0 0 0 0 0 0 0 0 0 0 0 0 0 0 0 0 0 0 0 0 0 0 0 0 0 0 0 0 0 0 0 0 0 0 0 0 0 0 0 0 0 198 198 199 198 198 198 199 198 199 198 199 199 199 199 199 199 201 198 198 197 197 197 196 196 197 197 197 197 197 197 196 196 196 196 196 196 196 196 196 198 198 198 198 198 198 198 198 198 197 198 198 198 198 198 199 199 199 199 198 198 198 198 197 197 197 197 197 197 197 197 198 198 197 198 199 198 198 198 198 197 198 199 197 197 198 198 197 198 199 199 200 200 200 199 199 199 200 198 199 198 197 197 197 197 197 196 196 196 196 196 196 197 197 197 197 197 197 198 198 197 197 197 197 197 197 197 197 197 197 0 197 0 196 196 196 196 196 196 196 196 196 196 196 195 196 195 195 195 195 196 196 196 196 196 196 197 197 196 196 196 197 197 197 196 196 196 195 196 196 196 196 196 196 196 196 197 197 196 197 197 197 197 197 197 198 197 199 198 199 199 199 199 199 200 200 200 199 0 0 199 199 199 198 197 196 197 196 196 196 196 197 197 0 197 0 0 0 0 0 0 0 0 0 0 197 197 197 197 199 197 197 196 195 194 189 186 0 0 156 155 0 0 0 199 198 199 0 0 0 0 0
    0 0 0 0 0 0 0 0 0 0 0 0 0 0 0 0 0 0 0 0 0 0 0 0 0 0 0 0 0 0 0 0 0 0 0 0 0 0 0 0 0 0 0 0 0 0 0 0 0 0 0 0 0 0 0 0 0 0 0 0 0 0 0 0 0 0 0 0 0 198 199 199 199 198 198 199 198 199 198 199 199 199 199 199 198 200 197 198 196 196 196 196 196 196 196 197 197 197 197 196 196 196 196 196 196 196 196 196 198 198 198 198 198 198 198 198 198 197 198 198 198 198 198 199 198 198 198 198 198 198 198 197 197 197 197 198 197 198 198 198 198 197 198 199 198 198 198 198 197 197 199 197 196 197 198 198 198 200 199 200 201 200 200 200 199 200 198 198 197 197 197 197 196 197 196 197 196 197 196 197 197 197 197 197 198 197 197 197 197 197 197 197 197 196 197 196 0 0 0 197 0 196 196 196 196 196 196 196 196 196 196 196 196 196 195 195 195 195 197 195 196 196 196 197 197 196 196 196 196 196 196 196 195 196 196 195 196 196 196 196 196 197 196 196 197 196 0 197 197 197 197 197 197 198 197 199 198 199 199 199 199 200 200 0 0 0 0 0 0 198 198 197 197 196 196 196 196 196 196 197 197 197 198 197 0 0 198 0 0 0 197 197 197 198 197 197 197 199 197 197 196 196 195 0 0 0 0 0 156 156 0 0 199 198 200 0 0 0 0 0
    0 0 0 0 0 0 0 0 0 0 0 0 0 0 0 0 0 0 0 0 0 0 0 0 0 0 0 0 0 0 0 0 0 0 0 0 0 0 0 0 0 0 0 0 0 0 0 0 0 0 0 0 0 0 0 0 0 0 0 0 0 0 0 0 0 0 0 0 0 199 199 199 199 199 198 199 197 198 198 198 198 198 198 199 198 200 197 198 196 196 196 196 196 196 196 197 197 198 197 197 196 196 196 196 196 196 196 196 197 197 197 197 197 197 197 198 198 197 197 197 198 198 198 198 198 198 198 198 198 197 197 197 197 197 197 198 198 198 198 198 199 197 198 199 198 198 198 198 197 197 199 197 196 197 198 198 199 201 200 201 201 201 200 200 198 199 197 197 197 197 196 196 196 197 197 197 197 197 197 197 197 197 197 197 198 198 197 197 197 197 197 197 197 196 197 196 197 197 0 197 0 196 196 197 196 197 196 197 196 196 196 196 196 0 0 0 195 195 197 195 196 196 196 197 196 196 196 196 196 196 196 196 195 196 196 195 196 196 196 196 196 197 196 196 197 197 0 197 197 197 197 197 197 0 197 198 197 198 198 198 198 201 200 0 0 0 0 0 0 0 0 198 197 196 197 196 197 197 197 197 198 198 198 197 196 196 197 197 196 0 196 197 0 198 0 197 198 199 197 197 197 196 196 195 193 0 0 0 0 0 0 0 199 198 201 0 0 0 0 0
    0 0 0 0 0 0 0 0 0 0 0 0 0 0 0 0 0 0 0 0 0 0 0 0 0 0 0 0 0 0 0 0 0 0 0 0 0 0 0 0 0 0 0 0 0 0 0 0 0 0 0 0 0 0 0 0 0 0 0 0 0 0 0 0 0 0 0 0 0 200 200 200 200 199 198 199 198 198 198 198 198 198 198 199 198 200 197 198 196 196 196 196 196 196 196 197 197 198 197 197 196 196 196 196 196 196 196 196 197 197 197 197 197 197 197 197 197 196 197 197 198 197 198 198 198 198 198 198 198 198 198 197 197 198 197 198 198 198 198 198 198 197 198 199 198 198 198 198 198 198 199 197 197 198 199 199 200 201 201 201 201 201 200 199 198 198 197 197 197 197 196 196 196 197 197 198 197 198 197 198 198 197 197 197 198 197 197 197 197 197 197 198 197 197 197 197 197 197 197 197 0 197 196 197 196 197 196 196 196 196 196 196 0 0 0 0 195 195 197 196 197 197 197 197 196 196 195 196 196 196 196 196 196 197 197 195 197 196 197 197 197 197 197 197 197 197 196 197 197 197 197 197 197 0 197 0 197 0 0 0 198 200 199 0 200 0 0 0 0 0 0 198 197 196 197 197 197 198 197 198 198 197 198 197 0 0 196 0 0 0 0 197 0 198 0 197 198 198 197 197 197 196 196 196 195 0 0 0 0 0 0 0 199 198 201 0 0 0 0 0
    0 0 0 0 0 0 0 0 0 0 0 0 0 0 0 0 0 0 0 0 0 0 0 0 0 0 0 0 0 0 0 0 0 0 0 0 0 0 0 0 0 0 0 0 0 0 0 0 0 0 0 0 0 0 0 0 0 0 0 0 0 0 0 0 0 0 0 0 0 200 200 201 201 200 198 200 198 198 198 199 198 198 198 199 198 200 198 198 197 196 196 197 196 197 197 198 198 198 198 197 196 196 196 196 196 196 196 196 197 197 198 197 197 197 197 197 197 197 197 198 198 198 198 198 197 197 197 198 197 197 197 197 197 198 198 198 198 198 198 198 198 197 198 198 198 198 198 198 198 198 200 197 197 198 199 200 201 201 201 201 200 201 199 199 198 198 197 197 197 197 196 196 196 197 197 198 197 198 198 198 198 197 197 197 198 198 197 197 197 197 198 198 198 197 198 197 197 198 198 197 197 197 196 197 196 197 196 196 196 195 195 196 0 0 0 0 0 196 197 197 197 197 197 197 196 196 196 196 196 196 196 197 196 197 197 196 197 197 197 197 197 197 197 197 198 197 197 197 197 198 197 197 197 0 196 0 197 0 0 0 198 199 199 201 199 198 198 0 197 0 199 199 198 197 197 197 198 198 198 198 198 197 197 0 0 194 0 0 0 0 196 197 197 198 198 198 198 199 197 197 196 196 196 196 195 194 0 0 0 0 0 83 0 0 0 0 0 0 0 0
    0 0 0 0 0 0 0 0 0 0 0 0 0 0 0 0 0 0 0 0 0 0 0 0 0 0 0 0 0 0 0 0 0 0 0 0 0 0 0 0 0 0 0 0 0 0 0 0 0 0 0 0 0 0 0 0 0 0 0 0 0 0 0 0 0 0 0 0 0 201 201 202 202 201 199 201 198 199 198 199 198 198 198 199 198 199 198 198 197 197 197 197 197 198 197 198 198 198 198 197 196 196 196 0 0 196 196 196 197 197 198 197 197 197 197 197 197 197 197 197 198 197 198 197 197 197 198 198 197 197 197 197 197 197 197 198 198 198 198 198 198 197 198 198 198 198 198 198 198 198 199 197 197 197 198 199 200 201 200 199 199 200 198 198 197 197 197 197 196 196 196 196 196 197 197 197 197 198 197 197 197 197 197 197 197 197 197 197 197 197 198 198 198 197 198 198 198 198 198 197 197 197 196 196 196 196 196 196 196 195 195 196 0 0 0 0 196 196 198 198 198 198 198 198 197 196 196 196 196 196 196 196 196 197 197 195 197 197 197 197 197 198 197 197 198 197 197 197 197 197 197 197 197 0 0 0 197 0 0 0 198 199 198 201 198 0 198 198 197 198 199 199 198 197 197 197 199 199 198 198 198 197 0 0 0 194 0 0 0 0 196 197 197 198 198 198 199 199 198 197 196 196 196 196 195 195 0 0 0 0 0 0 0 0 0 0 0 0 0 0
    0 0 0 0 0 0 0 0 0 0 0 0 0 0 0 0 0 0 0 0 0 0 0 0 0 0 0 0 0 0 0 0 0 0 0 0 0 0 0 0 0 0 0 0 0 0 0 0 0 0 0 0 0 0 0 0 0 0 0 0 0 0 0 0 0 0 0 0 0 201 202 203 202 202 199 201 198 199 199 199 198 199 198 199 198 200 198 198 198 198 197 198 198 198 198 199 199 199 198 197 197 196 196 0 0 196 196 196 197 197 198 197 197 197 197 197 198 197 197 197 198 198 198 197 197 197 198 197 197 197 197 197 197 197 197 197 197 198 198 198 198 197 198 198 198 198 198 198 198 198 199 197 197 197 198 199 200 199 200 199 199 199 198 198 197 197 197 196 196 196 196 196 196 197 196 197 197 198 197 197 197 197 196 197 197 197 197 197 197 197 198 198 198 197 198 198 198 198 199 197 197 197 196 196 195 0 195 195 195 195 195 195 0 0 0 196 196 197 198 198 198 199 199 200 198 197 197 196 196 196 196 196 196 196 196 195 197 197 197 197 197 198 197 197 198 197 197 197 197 197 197 0 197 0 0 0 197 0 0 0 0 0 198 0 0 197 198 197 197 197 199 200 198 197 196 197 198 198 198 197 197 0 0 0 0 0 0 0 0 0 197 198 197 198 198 199 199 199 197 197 196 196 196 196 195 195 0 0 0 0 0 0 0 0 0 0 0 0 0 0
    0 0 0 0 0 0 0 0 0 0 0 0 0 0 0 0 0 0 0 0 0 0 0 0 0 0 0 0 0 0 0 0 0 0 0 0 0 0 0 0 0 0 0 0 0 0 0 0 0 0 0 0 0 0 0 0 0 0 0 0 0 0 0 0 0 0 0 0 0 201 202 203 202 201 199 201 198 199 199 199 198 199 198 198 198 199 198 198 198 198 198 199 200 199 199 200 199 200 199 198 198 197 197 197 196 197 196 197 197 197 197 197 197 197 197 197 197 197 197 197 197 197 198 197 197 197 197 197 197 197 197 197 197 197 198 198 197 198 198 197 198 197 198 198 198 198 198 198 198 198 199 197 197 197 198 199 200 199 200 199 199 199 198 198 197 197 197 196 196 196 196 196 196 197 196 197 197 198 197 197 197 196 196 197 197 197 196 196 197 197 197 197 197 197 198 198 198 197 199 197 198 197 196 196 0 0 0 195 195 194 195 195 195 0 195 196 196 197 198 198 198 199 199 201 198 198 197 197 197 196 196 196 196 197 197 195 197 196 197 197 197 197 197 197 197 197 197 197 197 197 197 0 197 0 0 0 197 0 0 0 0 0 197 0 0 197 197 197 197 197 199 200 0 0 197 0 198 198 197 0 0 0 0 0 0 0 0 0 0 0 197 198 198 198 199 199 199 199 0 196 196 0 196 196 0 0 0 0 0 0 0 0 0 0 0 0 0 0 0 0
    0 0 0 0 0 0 0 0 0 0 0 0 0 0 0 0 0 0 0 0 0 0 0 0 0 0 0 0 0 0 0 0 0 0 0 0 0 0 0 0 0 0 0 0 0 0 0 0 0 0 0 0 0 0 0 0 0 0 0 0 0 0 0 0 0 0 0 0 0 202 203 203 202 201 199 200 198 199 198 198 198 198 198 198 197 198 197 198 198 198 197 199 200 199 199 200 199 200 199 198 198 197 197 197 197 197 197 197 197 197 197 196 197 197 197 197 197 197 197 197 198 197 198 197 197 197 197 197 197 197 197 197 197 197 197 197 197 198 198 197 198 197 198 197 198 198 198 198 198 197 199 197 198 197 198 199 200 199 200 199 199 199 199 198 197 197 197 197 197 197 196 197 197 198 197 197 197 198 197 197 196 196 196 197 196 196 196 196 197 196 197 197 197 197 198 197 198 197 198 197 197 197 197 196 0 0 0 195 194 194 194 195 194 195 195 196 196 197 198 198 198 199 199 201 199 199 198 198 197 197 197 196 196 197 196 195 197 196 197 197 197 197 197 197 197 197 196 197 197 197 197 0 197 0 0 0 197 0 0 0 0 0 197 0 197 197 197 197 197 197 0 0 0 0 0 0 0 0 0 0 0 0 0 0 0 0 0 0 0 0 197 198 198 198 198 199 0 197 197 195 195 0 196 0 0 0 0 0 0 0 0 0 0 0 0 0 0 0 0 0
    0 0 0 0 0 0 0 0 0 0 0 0 0 0 0 0 0 0 0 0 0 0 0 0 0 0 0 0 0 0 0 0 0 0 0 0 0 0 0 0 0 0 0 0 0 0 0 0 0 0 0 0 0 0 0 0 0 0 0 0 0 0 0 0 0 0 0 0 0 202 203 203 201 200 199 199 198 198 198 198 198 198 197 198 197 198 198 198 197 198 197 0 0 198 198 198 197 199 198 198 0 197 198 197 197 198 197 197 197 197 197 196 197 197 197 197 197 197 197 197 198 198 198 197 197 196 197 197 196 196 197 197 197 197 197 197 197 198 197 196 197 196 198 197 198 198 198 198 199 198 200 198 199 198 198 198 199 199 200 199 199 199 199 198 198 198 197 197 197 197 197 197 197 199 197 198 198 198 198 197 197 197 196 197 196 196 196 196 197 196 197 197 197 197 197 197 197 197 198 197 197 197 197 196 0 0 195 195 195 194 194 195 195 195 195 196 196 197 198 198 198 199 199 201 199 199 199 198 198 197 197 196 196 197 196 195 197 196 197 197 197 197 197 197 197 197 196 197 197 197 197 0 197 0 0 0 197 0 0 0 0 0 197 0 196 197 197 197 197 197 0 0 0 0 0 0 0 0 0 0 0 0 876 0 0 0 0 0 0 0 0 0 197 197 197 198 0 0 196 195 195 196 196 197 197 197 197 198 201 202 0 0 0 202 0 0 0 0 0 0
    0 0 0 0 0 0 0 0 0 0 0 0 0 0 0 0 0 0 0 0 0 0 0 0 0 0 0 0 0 0 0 0 0 0 0 0 0 0 0 0 0 0 0 0 0 0 0 0 0 0 0 0 0 0 0 0 0 0 0 0 0 0 0 0 0 0 0 0 0 203 203 203 201 200 199 199 198 198 198 198 197 198 197 198 198 198 198 198 198 198 197 197 198 197 0 197 197 198 197 198 198 197 198 198 197 198 197 198 197 197 197 197 197 197 197 197 197 197 198 198 198 198 198 197 198 197 197 197 196 197 197 197 197 197 197 196 196 197 196 195 196 196 197 197 198 198 199 199 199 198 200 198 200 198 198 198 199 198 199 198 199 198 198 198 198 198 198 197 197 197 197 198 197 199 197 198 198 198 198 197 197 197 196 197 196 196 196 197 197 196 197 197 197 197 197 197 197 196 197 197 197 197 197 0 0 0 195 195 195 194 195 195 195 196 196 196 197 198 198 198 198 199 199 201 199 199 200 199 199 197 198 197 196 197 197 196 196 196 197 197 197 197 197 197 197 197 197 197 197 197 197 0 197 0 0 0 197 0 0 0 0 0 197 0 196 197 197 197 197 197 0 0 0 0 0 0 0 0 919 919 908 886 865 0 0 0 0 0 0 0 0 0 197 197 197 198 0 0 0 195 195 0 197 197 198 198 200 202 203 202 202 0 0 202 0 0 0 0 0 0
    0 0 0 0 0 0 0 0 0 0 0 0 0 0 0 0 0 0 0 0 0 0 0 0 0 0 0 0 0 0 0 0 0 0 0 0 0 0 0 0 0 0 0 0 0 0 0 0 0 0 0 0 0 0 0 0 0 0 0 0 0 0 0 0 0 0 0 0 0 203 204 203 201 200 200 199 199 199 198 199 198 199 198 198 198 199 199 199 198 198 197 198 198 197 198 197 198 198 198 198 199 198 198 198 197 198 197 198 198 198 198 197 197 197 197 197 198 198 198 198 198 198 199 197 198 197 197 197 196 197 197 196 197 196 196 196 196 196 196 195 195 195 197 197 198 198 199 198 199 198 200 198 199 198 198 197 198 197 198 198 198 198 198 198 198 197 198 197 197 197 197 197 197 198 197 198 198 198 198 197 197 197 196 198 196 196 197 197 197 196 197 197 196 197 197 197 197 196 197 197 197 197 197 0 0 0 195 195 195 194 194 195 195 196 196 197 197 198 198 198 198 199 199 201 200 200 201 200 201 199 199 197 197 197 197 196 196 196 197 197 197 197 197 196 197 197 197 197 197 197 197 0 197 0 0 0 197 0 0 0 0 0 197 198 196 197 197 197 197 197 0 0 0 0 0 0 0 0 931 0 0 0 0 0 0 0 0 0 0 0 0 0 197 197 196 198 0 0 0 195 195 195 197 198 200 199 202 204 204 203 202 0 202 202 0 0 0 0 0 0
    0 0 0 0 0 0 0 0 0 0 0 0 0 0 0 0 0 0 0 0 0 0 0 0 0 0 0 0 0 0 0 0 0 0 0 0 0 0 0 0 0 0 0 0 0 0 0 0 0 0 0 0 0 0 0 0 0 0 0 0 0 0 0 0 0 0 0 0 0 203 203 202 201 200 200 199 198 199 198 199 198 199 198 198 199 199 199 199 198 199 197 198 198 198 198 198 198 198 198 198 199 199 199 198 198 198 198 198 198 198 198 197 197 197 197 197 198 198 198 198 199 199 199 198 198 197 197 196 196 196 196 0 0 196 196 195 195 196 196 194 195 195 197 197 197 198 198 198 198 198 199 198 198 197 197 197 197 197 198 197 198 197 197 197 197 197 197 197 197 197 197 198 197 199 197 198 198 198 198 197 197 197 196 198 196 196 197 197 197 197 197 197 196 197 197 197 197 196 197 197 197 197 196 196 0 0 0 0 195 194 194 195 196 196 196 197 197 198 198 198 198 199 199 201 199 201 201 201 201 199 199 197 197 197 196 195 196 196 197 196 197 196 196 196 196 197 196 197 196 197 197 0 197 0 0 0 197 197 0 0 0 0 197 0 196 197 197 197 197 197 197 0 0 201 198 197 197 198 0 0 0 0 0 0 193 0 193 194 194 0 0 0 197 197 196 198 0 0 196 195 195 195 0 0 201 200 202 205 205 204 204 0 203 203 0 0 0 0 0 0
    0 0 0 0 0 0 0 0 0 0 0 0 0 0 0 0 0 0 0 0 0 0 0 0 0 0 0 0 0 0 0 0 0 0 0 0 0 0 0 0 0 0 0 0 0 0 0 0 0 0 0 0 0 0 0 0 0 0 0 0 0 0 0 0 0 0 0 0 0 202 202 202 199 198 198 197 197 198 198 198 198 198 198 198 199 200 200 200 199 200 198 198 198 198 198 198 198 198 198 199 200 200 200 199 199 199 199 200 199 198 198 197 197 197 197 198 198 198 198 198 199 199 199 198 198 197 197 196 196 196 196 0 0 196 196 195 195 196 196 194 195 195 197 197 197 198 198 198 198 198 199 197 198 197 196 196 197 197 198 197 197 197 197 197 197 197 197 197 197 197 198 198 197 199 197 198 199 198 198 197 197 197 196 197 196 196 197 197 197 197 197 197 196 197 197 197 197 196 197 197 197 197 196 0 0 195 0 0 0 195 195 195 196 196 196 196 196 198 198 198 198 198 199 201 199 201 201 201 201 199 198 196 196 197 196 195 196 196 197 196 197 196 196 197 197 197 196 196 196 197 197 0 196 0 0 0 0 197 0 0 0 0 197 0 196 197 197 197 197 197 196 198 198 201 198 197 198 199 198 198 195 195 195 0 194 0 194 195 195 0 196 197 197 197 197 198 0 0 196 196 196 0 198 199 202 201 202 204 204 204 203 203 203 0 203 0 0 0 0 0
    0 0 0 0 0 0 0 0 0 0 0 0 0 0 0 0 0 0 0 0 0 0 0 0 0 0 0 0 0 0 0 0 0 0 0 0 0 0 0 0 0 0 0 0 0 0 0 0 0 0 0 0 0 0 0 0 0 0 0 0 0 0 0 0 0 0 0 0 0 202 200 201 198 198 197 196 197 198 197 198 197 198 198 198 200 200 200 201 199 200 198 198 198 198 198 198 198 198 198 199 200 201 201 200 200 200 200 201 199 198 197 196 197 197 197 198 198 198 198 198 199 199 199 198 198 197 197 197 196 196 196 196 197 196 196 196 196 196 196 195 195 195 197 197 197 198 198 198 198 198 200 198 198 198 196 196 197 197 198 198 197 197 197 197 197 197 197 196 197 197 197 198 197 199 198 198 199 198 198 197 197 197 196 197 196 196 197 197 197 197 197 197 196 197 197 197 197 196 197 197 197 197 196 0 0 0 0 0 0 0 0 0 0 196 195 196 196 197 197 198 198 198 199 201 200 202 201 201 200 199 198 197 196 197 196 195 196 196 197 197 197 197 197 197 197 197 197 197 196 197 197 0 197 0 196 0 0 0 0 0 0 0 198 0 196 197 197 197 197 197 196 198 198 200 197 197 0 198 197 197 195 195 195 0 194 195 194 195 195 196 197 197 197 198 197 198 198 197 197 196 196 197 198 199 201 200 0 203 203 203 202 202 202 202 202 0 0 0 0 0
    0 0 0 0 0 0 0 0 0 0 0 0 0 0 0 0 0 0 0 0 0 0 0 0 0 0 0 0 0 0 0 0 0 0 0 0 0 0 0 0 0 0 0 0 0 0 0 0 0 0 0 0 0 0 0 0 0 0 0 0 0 0 0 0 0 0 0 0 0 201 199 200 197 197 197 196 196 197 197 198 197 197 197 197 198 199 198 0 0 0 197 197 198 198 198 198 199 199 199 200 201 201 201 199 199 199 199 200 198 198 197 197 197 197 197 198 198 198 198 199 199 199 200 198 199 197 197 197 196 197 197 197 197 197 197 197 196 197 196 195 195 195 197 197 197 198 199 198 198 198 200 198 198 198 196 196 197 197 198 197 197 197 197 197 197 197 197 196 196 197 197 197 197 198 198 198 199 198 198 197 197 197 196 197 196 196 197 197 197 197 197 197 196 197 197 197 197 196 196 196 196 196 196 0 0 0 0 0 0 0 0 0 0 0 195 195 196 197 197 198 198 198 199 200 201 202 201 200 199 198 198 197 196 197 196 195 196 196 197 197 197 197 197 197 197 197 197 197 196 197 197 0 197 0 196 0 198 198 197 0 0 0 198 0 0 0 0 197 197 197 196 197 198 200 198 197 0 197 197 197 195 194 194 0 193 194 195 195 195 196 197 197 198 199 198 198 198 198 197 197 197 198 198 199 201 200 0 202 202 202 202 202 202 202 202 0 0 0 0 0
    0 0 0 0 0 0 0 0 0 0 0 0 0 0 0 0 0 0 0 0 0 0 0 0 0 0 0 0 0 0 0 0 0 0 0 0 0 0 0 0 0 0 0 0 0 0 0 0 0 0 0 0 0 0 0 0 0 0 0 0 0 0 0 0 0 0 0 0 0 201 198 199 197 197 197 196 196 197 196 197 196 197 0 196 197 197 197 0 0 0 196 196 197 198 198 198 199 199 199 200 200 200 199 198 198 198 198 199 198 198 198 197 198 197 198 198 198 199 199 199 199 199 200 199 199 198 197 197 196 197 197 197 197 197 197 197 197 197 196 195 195 195 197 197 198 198 199 198 198 198 200 198 198 198 196 196 196 197 197 197 196 196 197 197 197 196 196 196 196 197 197 197 197 198 198 198 199 199 198 197 197 197 197 197 196 196 197 197 197 197 197 197 197 197 197 197 197 197 196 196 196 196 196 0 0 0 0 0 0 0 0 0 0 0 195 195 195 197 197 198 198 198 199 200 200 201 201 199 198 198 198 197 197 197 196 195 196 196 197 197 197 197 197 197 198 197 197 197 196 197 197 197 197 0 196 0 198 198 197 0 0 0 198 0 0 0 0 197 197 197 0 0 197 0 0 0 0 0 196 197 0 194 194 0 193 0 194 195 195 196 196 197 197 199 197 197 198 197 197 197 197 198 198 199 200 200 202 202 202 202 202 202 203 202 202 0 0 0 0 0
    0 0 0 0 0 0 0 0 0 0 0 0 0 0 0 0 0 0 0 0 0 0 0 0 0 0 0 0 0 0 0 0 0 0 0 0 0 0 0 0 0 0 0 0 0 0 0 0 0 0 0 0 0 0 0 0 0 0 0 0 0 0 0 0 0 0 0 0 0 199 196 198 196 196 197 196 196 197 196 197 196 197 197 196 197 198 197 0 0 197 196 197 198 198 198 198 198 198 199 199 199 199 199 198 198 198 198 199 198 199 198 198 198 198 198 198 198 198 198 199 199 199 199 198 198 198 197 197 197 197 197 198 198 198 197 197 197 196 196 195 195 195 197 197 197 198 199 198 198 198 200 197 197 197 195 195 196 196 197 196 196 196 196 196 196 196 196 196 196 197 197 197 197 198 198 198 199 198 198 197 198 197 197 197 196 196 197 197 197 197 198 198 197 197 197 197 197 197 197 197 196 197 196 0 0 196 196 196 0 0 0 0 0 0 195 195 195 197 197 198 198 197 199 199 199 201 199 199 198 198 198 197 197 197 196 196 197 196 197 197 197 197 197 198 198 198 197 197 197 197 197 197 197 0 196 0 198 198 197 197 0 0 198 0 0 0 0 197 197 197 196 0 197 0 0 0 0 0 0 0 0 194 194 0 193 0 194 0 195 195 196 0 196 198 197 197 198 197 198 198 198 199 198 199 201 201 203 202 203 203 203 203 203 203 203 0 0 0 0 0
    0 0 0 0 0 0 0 0 0 0 0 0 0 0 0 0 0 0 0 0 0 0 0 0 0 0 0 0 0 0 0 0 0 0 0 0 0 0 0 0 0 0 0 0 0 0 0 0 0 0 0 0 0 0 0 0 0 0 0 0 0 0 0 0 0 0 0 0 0 196 195 196 195 196 196 195 195 196 196 197 196 197 197 196 197 198 197 198 0 197 197 197 198 198 198 198 199 199 199 200 199 200 199 198 198 197 198 199 198 199 198 198 198 198 198 198 198 198 198 199 199 199 199 198 198 198 197 197 197 197 198 198 198 198 197 197 197 197 197 196 196 196 197 197 197 198 198 198 198 198 199 197 197 197 195 195 196 196 197 196 195 196 196 196 196 196 196 195 196 197 197 196 196 198 197 198 199 198 197 197 197 197 196 197 196 196 196 197 197 197 198 199 198 198 197 197 197 197 197 197 197 197 196 197 196 196 196 196 196 195 195 196 195 0 195 195 195 197 197 198 198 198 199 199 199 201 198 199 198 198 198 197 198 198 196 196 197 197 197 197 197 197 197 198 198 198 197 197 197 197 197 197 197 0 196 197 198 198 197 197 0 0 198 0 0 0 0 197 197 197 196 0 197 198 0 0 0 0 0 0 0 0 194 193 193 195 194 195 195 195 0 0 0 0 197 197 198 197 198 199 199 200 199 201 202 202 204 204 204 205 205 205 205 204 203 0 0 0 0 0
    0 0 0 0 0 0 0 0 0 0 0 0 0 0 0 0 0 0 0 0 0 0 0 0 0 0 0 0 0 0 0 0 0 0 0 0 0 0 0 0 0 0 0 0 0 0 0 0 0 0 0 0 0 0 0 0 0 0 0 0 0 0 0 0 0 0 0 0 0 196 194 195 194 194 195 194 194 196 196 197 196 196 197 196 197 198 197 198 0 197 197 197 199 199 199 199 200 200 201 201 201 201 201 198 199 197 198 199 198 198 198 197 198 197 197 198 198 198 198 199 198 199 198 198 197 197 197 197 197 197 198 198 199 199 198 198 198 197 198 196 196 196 197 197 197 198 198 197 198 198 199 197 196 196 195 195 196 196 196 196 195 196 196 196 196 196 196 195 196 196 197 196 196 197 197 197 198 197 197 196 197 197 196 196 196 195 196 196 197 198 199 199 198 198 198 198 198 197 197 197 197 197 196 197 196 196 197 196 196 0 195 195 195 194 194 195 195 196 197 197 198 197 199 199 200 201 198 198 197 197 197 197 198 198 196 196 197 197 197 197 197 197 197 198 199 198 198 197 197 197 197 197 197 0 196 197 198 198 197 197 0 0 198 0 0 0 196 197 197 197 196 0 197 198 0 0 0 0 0 0 195 194 193 193 194 195 195 195 195 0 0 0 0 0 0 197 198 197 198 199 199 201 200 201 0 0 0 204 204 205 205 205 205 205 204 0 0 0 0 0
    0 0 0 0 0 0 0 0 0 0 0 0 0 0 0 0 0 0 0 0 0 0 0 0 0 0 0 0 0 0 0 0 0 0 0 0 0 0 0 0 0 0 0 0 0 0 0 0 0 0 0 0 0 0 0 0 0 0 0 0 0 0 0 0 0 0 0 0 0 196 195 195 194 194 194 194 193 195 195 196 0 0 197 196 197 197 196 0 0 197 197 197 0 0 201 200 201 201 202 202 202 0 0 0 0 0 198 199 198 198 198 197 198 197 197 198 197 197 197 198 198 198 198 197 197 197 197 197 197 198 198 199 199 199 199 199 199 198 198 197 197 197 198 198 198 198 199 198 198 198 199 196 196 196 194 194 196 196 196 195 195 196 196 196 196 196 196 196 196 197 197 196 196 197 196 197 198 197 197 196 197 196 196 196 196 195 196 196 197 198 199 199 198 199 198 198 198 198 197 197 197 197 196 197 196 196 197 197 196 0 195 195 194 194 194 194 194 196 196 197 197 197 199 199 199 201 198 197 197 197 197 197 198 198 197 196 197 197 197 197 197 197 197 198 198 198 197 198 197 197 197 197 197 0 197 197 198 198 198 197 0 0 198 0 196 196 196 196 196 197 196 196 196 197 0 0 0 0 0 195 195 194 193 194 194 195 195 195 194 0 0 0 0 0 0 0 0 197 198 199 199 200 199 201 0 0 0 203 0 205 205 0 205 205 204 0 0 0 0 0
    0 0 0 0 0 0 0 0 0 0 0 0 0 0 0 0 0 0 0 0 0 0 0 0 0 0 0 0 0 0 0 0 0 0 0 0 0 0 0 0 0 0 0 0 0 0 0 0 0 0 0 0 0 0 0 0 0 0 0 0 0 0 0 0 0 0 0 0 0 196 195 0 193 192 192 192 192 194 195 196 0 0 197 196 196 197 196 0 0 197 196 196 199 0 201 200 201 202 0 0 0 0 0 0 0 0 197 199 198 198 198 198 198 197 197 197 197 197 197 197 197 197 196 196 196 197 197 197 197 198 198 199 199 199 199 199 199 198 198 197 197 197 198 198 198 198 199 198 198 198 199 196 196 196 195 195 196 196 196 195 195 196 196 196 196 196 196 196 196 196 196 195 195 196 196 196 198 197 197 196 197 196 196 196 196 195 195 196 197 198 199 199 198 199 199 198 198 198 197 197 197 197 197 197 197 197 197 197 196 195 195 195 194 194 194 194 194 195 0 196 197 197 199 198 199 199 197 196 196 196 197 197 198 198 197 196 197 197 197 197 197 197 197 198 198 198 197 198 197 198 197 197 197 197 197 197 198 198 198 197 0 0 197 0 196 195 0 195 196 196 195 195 196 0 0 0 0 194 194 194 195 194 193 0 0 195 195 0 0 0 0 0 0 0 0 0 0 0 0 0 199 200 199 0 0 0 0 0 0 0 204 0 0 203 202 0 0 0 0 0
    0 0 0 0 0 0 0 0 0 0 0 0 0 0 0 0 0 0 0 0 0 0 0 0 0 0 0 0 0 0 0 0 0 0 0 0 0 0 0 0 0 0 0 0 0 0 0 0 0 0 0 0 0 0 0 0 0 0 0 0 0 0 0 0 0 0 0 0 0 195 194 194 193 191 191 192 192 193 194 195 195 0 196 195 196 0 195 0 0 196 196 196 198 198 200 199 199 201 0 0 0 0 0 0 0 0 0 0 197 198 198 198 198 197 197 197 196 196 196 196 196 196 0 195 195 196 196 197 197 197 198 199 199 199 199 198 198 197 198 196 196 196 197 197 197 197 198 198 198 197 198 196 196 196 196 195 196 196 196 195 195 195 196 196 196 195 0 195 196 196 195 195 194 196 195 196 197 197 197 196 196 196 196 196 196 195 195 196 197 198 199 199 199 199 199 198 198 198 197 197 197 197 197 197 196 197 197 197 0 195 196 195 194 194 194 194 193 195 195 0 0 197 198 197 198 198 196 195 196 197 197 197 198 198 197 196 197 196 196 196 196 196 197 197 197 197 197 198 197 198 197 197 197 197 197 198 198 199 198 198 0 0 197 196 196 195 195 0 195 196 195 195 195 0 0 0 194 194 194 194 194 194 193 0 0 195 195 195 0 0 0 0 0 0 0 0 0 0 0 0 0 199 198 199 0 0 0 0 0 0 0 0 0 0 200 0 0 0 0 0
    0 0 0 0 0 0 0 0 0 0 0 0 0 0 0 0 0 0 0 0 0 0 0 0 0 0 0 0 0 0 0 0 0 0 0 0 0 0 0 0 0 0 0 0 0 0 0 0 0 0 0 0 0 0 0 0 0 0 0 0 0 0 0 0 0 0 0 0 0 194 193 193 193 191 191 191 0 0 195 195 195 0 196 195 195 0 0 0 195 195 195 195 0 196 197 197 197 198 197 196 0 0 0 0 0 0 0 0 197 197 198 198 199 198 197 196 0 0 195 194 0 194 192 193 192 194 0 0 196 197 198 199 198 199 198 198 197 196 197 195 195 195 196 195 195 195 196 195 196 195 195 195 195 195 196 195 196 196 196 195 195 195 196 196 195 195 0 195 195 195 195 195 194 196 195 195 197 197 196 196 196 196 196 195 196 195 195 196 197 197 198 200 199 199 199 198 197 197 197 197 197 196 197 197 0 197 198 197 0 0 196 195 194 194 194 194 193 0 0 0 0 0 0 0 196 197 196 195 196 197 197 197 198 198 197 196 196 196 195 195 195 195 196 196 196 0 196 0 197 0 0 0 0 0 196 0 0 0 197 0 0 0 197 196 196 195 195 195 195 195 195 195 195 0 195 0 194 194 194 194 194 194 193 0 0 195 195 194 192 0 0 0 0 0 0 0 0 0 0 2164 0 0 0 0 0 0 0 0 0 0 0 0 0 0 0 0 0 0 0 0
    0 0 0 0 0 0 0 0 0 0 0 0 0 0 0 0 0 0 0 0 0 0 0 0 0 0 0 0 0 0 0 0 0 0 0 0 0 0 0 0 0 0 0 0 0 0 0 0 0 0 0 0 0 0 0 0 0 0 0 0 0 0 0 0 0 0 0 0 0 192 192 192 191 190 189 189 0 0 0 0 0 0 197 196 196 195 0 0 0 195 195 0 0 194 195 195 194 195 194 0 0 0 0 0 0 0 0 0 0 0 198 197 199 197 0 0 0 0 193 193 193 192 190 191 190 192 0 0 0 196 197 198 198 199 198 197 196 195 196 193 192 192 193 192 193 192 193 193 194 194 194 194 194 194 195 195 196 196 196 195 195 195 196 196 195 195 0 0 0 0 195 195 194 196 196 0 197 197 196 196 196 196 195 0 0 194 0 196 196 197 197 199 200 200 199 198 197 197 197 198 198 196 0 0 0 0 0 0 0 0 196 195 194 194 193 193 193 0 0 0 0 0 0 0 195 196 195 194 196 196 197 197 197 197 196 197 196 195 195 194 194 194 195 0 0 0 0 0 0 0 0 0 0 0 0 0 0 0 0 0 0 0 0 195 195 194 194 193 194 194 0 0 0 0 0 0 194 0 194 194 194 194 193 0 0 0 196 0 0 0 0 0 430 0 0 0 0 0 0 2299 0 0 0 0 0 0 0 0 0 0 194 0 194 194 195 0 0 0 0 0</data></depth>
</opencv_storage>
