<?xml version="1.0"?>
<opencv_storage>
<gps_time_stamp>25092</gps_time_stamp>
<gps_x>-4.9931077957153320e+000</gps_x>
<gps_y>5.7962524890899658e-001</gps_y>
<gps_z>-9.9361670017242432e-001</gps_z>
<image_time_stamp>13064</image_time_stamp>
<depth type_id="opencv-matrix">
  <rows>88</rows>
  <cols>320</cols>
  <dt>s</dt>
  <data>
    0 0 0 0 0 0 0 0 0 0 0 0 0 0 0 0 0 0 0 0 0 0 0 0 0 0 0 0 0 0 0 0 0 0 0 0 0 0 0 0 0 0 0 0 0 0 0 0 0 0 0 0 0 0 0 0 0 0 0 0 0 0 0 0 0 0 0 0 0 0 0 0 0 0 0 0 0 0 0 0 0 0 8177 0 0 0 0 0 0 0 0 0 0 0 0 0 0 8177 6690 8177 8177 7359 8177 7359 8177 0 0 0 0 0 0 0 6133 6690 5661 6133 6690 6690 6690 6690 6133 8177 8177 0 0 8177 8177 8177 8177 8177 7359 7359 7359 6690 6690 6133 6133 4906 4329 4329 4088 4088 0 0 4906 0 0 0 7359 0 8177 6690 8177 0 0 8177 8177 8177 8177 8177 0 4906 7359 7359 0 0 0 0 0 0 0 0 0 8177 8177 0 0 7359 7359 7359 7359 7359 5661 3504 0 0 0 0 0 0 0 0 0 0 0 0 0 195 194 0 0 0 333 331 327 327 327 334 327 325 324 322 321 318 315 0 313 311 310 307 306 302 302 299 299 296 295 294 293 294 294 294 295 295 294 287 289 289 285 287 286 287 288 288 289 288 286 288 0 0 0 0 0 0 0 0 0 0 324 318 315 314 313 313 0 385 385 385 379 373 369 371 364 364 366 367 367 367 366 367 369 367 367 366 362 357 357 355 360 366 364 362 0 367 377 381 387 369 0 1247 1187 1168 1168 1168 1168 1168 1187 1168 1115 1132 1115 1066 1066 1066 1066 0 0 0 0 0
    0 0 0 0 0 0 0 0 0 0 0 0 0 0 0 0 0 0 0 0 0 0 0 0 0 0 0 0 0 0 0 0 0 0 0 0 0 0 0 0 0 0 0 0 0 0 0 0 0 0 0 0 0 0 0 0 0 0 0 0 0 0 0 0 0 0 0 0 0 0 0 0 0 0 0 0 0 0 0 0 0 0 0 0 0 0 0 0 0 0 0 0 0 0 0 0 0 8177 7359 0 7359 8177 8177 7359 8177 0 0 0 0 0 0 0 6690 7359 5661 6133 6690 6690 6690 6690 6133 8177 8177 0 0 8177 8177 7359 8177 7359 7359 7359 7359 6690 6690 6690 6690 5661 4906 4906 4906 4906 0 0 5661 0 0 0 8177 8177 0 7359 8177 0 0 8177 8177 8177 0 8177 0 5256 7359 7359 0 0 0 0 0 0 0 0 0 8177 8177 0 0 7359 6690 6690 6690 6133 4906 3504 0 0 0 0 0 0 0 0 0 0 0 0 0 196 194 0 0 0 333 331 325 325 327 333 324 324 322 321 319 317 314 313 310 310 307 304 304 301 301 297 299 296 295 295 294 295 295 294 295 294 293 287 288 289 285 287 286 287 288 288 289 289 287 288 0 0 0 0 0 0 0 0 210 207 0 0 314 313 311 310 0 389 385 385 381 373 371 371 366 366 366 367 369 367 366 367 367 367 367 366 362 357 355 355 362 366 364 362 366 367 373 373 369 362 0 0 1206 1168 1168 1168 1168 1168 1187 1149 1115 1132 1115 1066 1066 1066 1066 0 0 0 0 0
    0 0 0 0 0 0 0 0 0 0 0 0 0 0 0 0 0 0 0 0 0 0 0 0 0 0 0 0 0 0 0 0 0 0 0 0 0 0 0 0 0 0 0 0 0 0 0 0 0 0 0 0 0 0 0 0 0 0 0 0 0 0 0 0 0 0 0 0 0 0 0 0 0 0 0 0 0 0 0 0 0 0 0 0 0 0 0 0 0 0 0 0 0 0 0 0 0 0 0 0 8177 0 8177 8177 8177 0 0 0 0 0 0 0 6690 7359 5661 6133 6690 7359 7359 6690 6690 8177 8177 0 0 0 0 8177 8177 8177 7359 7359 7359 6690 7359 7359 6690 6133 5661 5256 5661 6133 0 0 6690 8177 0 0 0 0 0 8177 0 0 0 0 0 0 0 0 0 6690 8177 8177 0 0 0 0 0 0 0 0 0 8177 7359 0 0 7359 6690 6690 6690 6133 4599 3504 0 0 0 0 0 0 0 0 0 0 0 0 0 196 193 0 0 0 331 328 324 324 327 333 322 324 321 0 318 317 314 310 309 309 305 302 301 301 300 297 299 296 296 295 294 294 294 292 293 293 292 288 288 288 286 288 287 288 288 289 290 290 288 0 0 0 0 0 0 0 215 212 209 207 205 0 0 311 310 309 310 389 383 387 383 375 371 371 364 366 366 366 367 366 364 364 366 366 366 364 362 357 357 357 362 366 366 362 366 367 371 371 366 357 357 0 1206 1168 1168 1168 1168 1168 1187 1132 1115 1132 1115 1066 1066 1066 1066 0 0 0 0 0
    0 0 0 0 0 0 0 0 0 0 0 0 0 0 0 0 0 0 0 0 0 0 0 0 0 0 0 0 0 0 0 0 0 0 0 0 0 0 0 0 0 0 0 0 0 0 0 0 0 0 0 0 0 0 0 0 0 0 0 0 0 0 0 0 0 0 0 0 0 0 0 0 0 0 0 0 0 0 0 0 0 0 0 0 0 0 0 0 0 0 0 0 0 0 0 0 0 0 0 0 7359 8177 8177 8177 8177 0 0 0 0 0 0 0 7359 7359 5661 6133 6690 6690 7359 6690 6690 8177 8177 0 0 0 0 8177 8177 8177 7359 7359 7359 6690 7359 6690 6690 5661 5661 4906 6133 6133 0 0 7359 0 0 0 0 0 0 0 0 0 0 0 0 0 0 0 0 8177 0 0 0 0 0 0 0 0 0 0 0 7359 6690 8177 8177 6690 6690 6690 6690 6133 4599 3873 0 0 0 0 0 0 0 0 0 0 0 0 0 0 0 0 0 0 330 327 321 321 328 333 322 325 322 0 319 318 314 310 310 309 304 300 300 300 297 296 299 296 296 295 294 290 289 287 288 288 288 288 288 287 287 289 289 288 289 289 290 292 289 0 0 0 0 0 0 0 214 212 209 207 206 0 0 311 310 309 309 389 381 389 387 379 373 371 366 367 366 367 367 366 364 366 366 366 367 364 362 359 359 357 359 364 366 364 366 367 367 369 364 348 348 359 1206 1187 1168 1168 1168 1168 1187 1132 1115 1132 1115 1066 1082 1066 1066 0 0 0 0 0
    0 0 0 0 0 0 0 0 0 0 0 0 0 0 0 0 0 0 0 0 0 0 0 0 0 0 0 0 0 0 0 0 0 0 0 0 0 0 0 0 0 0 0 0 0 0 0 0 0 0 0 0 0 0 0 0 0 0 0 0 0 0 0 0 0 0 0 0 0 0 9199 0 0 0 0 0 0 8177 0 0 0 0 0 0 0 0 0 0 0 0 0 0 0 0 0 0 0 0 0 0 8177 0 0 8177 0 0 0 0 0 0 0 0 7359 7359 5661 6133 6690 6690 6690 6690 6690 8177 8177 0 0 0 0 8177 8177 8177 7359 7359 6690 6690 6690 6690 6133 5661 5661 4906 6133 6690 0 0 0 0 0 0 0 0 0 0 0 0 0 0 0 0 0 0 0 0 0 0 0 0 0 0 8177 0 0 8177 8177 7359 6133 8177 8177 6690 6690 7359 6690 6133 4329 3873 0 0 0 0 0 0 0 0 0 0 0 0 0 0 0 0 0 0 328 325 319 319 327 330 0 325 322 0 318 317 313 307 307 306 301 299 297 297 296 295 297 295 295 295 293 288 285 284 285 286 286 287 287 287 287 288 289 288 288 289 290 290 289 287 0 0 0 0 0 215 214 212 210 209 206 205 203 0 310 309 309 0 383 387 387 383 377 375 367 369 369 369 371 367 364 366 366 367 366 364 364 360 359 357 357 364 366 364 366 366 366 367 362 345 345 350 0 1187 1187 1168 1168 1168 1187 1132 1115 1132 1115 1066 1082 1066 1082 0 0 0 0 0
    0 0 0 0 0 0 0 0 0 0 0 0 0 0 0 0 0 0 0 0 0 0 0 0 0 0 0 0 0 0 0 0 0 0 0 0 0 0 0 0 0 0 0 0 0 0 0 0 0 0 0 0 0 0 0 0 0 0 0 0 0 0 0 0 0 0 0 0 0 0 8177 0 0 8177 0 0 0 8177 0 0 0 0 0 0 0 0 0 0 0 0 0 0 0 0 0 0 0 0 0 0 0 0 0 0 0 0 0 0 0 0 0 0 8177 8177 6133 6690 7359 7359 7359 7359 7359 0 8177 0 0 0 0 8177 8177 8177 7359 7359 6690 6690 6690 6690 6133 5661 5661 4906 6133 6690 0 0 0 0 0 0 0 0 0 0 0 0 0 0 0 0 0 0 0 0 0 0 0 0 0 0 0 0 0 8177 7359 7359 6133 8177 7359 6690 6690 6690 6690 5661 4088 0 0 0 0 0 0 0 0 0 0 0 0 0 0 0 0 0 0 0 328 325 318 321 328 330 0 0 0 215 317 317 311 304 304 302 299 296 296 296 295 295 297 295 296 295 293 288 285 285 287 287 287 287 288 287 288 289 289 288 287 288 289 290 289 287 0 0 0 0 0 214 214 212 210 209 206 205 203 201 199 0 306 0 0 395 393 385 381 379 371 371 371 371 371 369 366 366 366 366 364 362 360 357 355 352 353 360 362 362 362 362 362 366 359 343 345 347 343 1206 1187 1168 1168 1149 1187 1132 1098 1132 1115 1066 1082 1082 1082 0 0 0 0 0
    0 0 0 0 0 0 0 0 0 0 0 0 0 0 0 0 0 0 0 0 0 0 0 0 0 0 0 0 0 0 0 0 0 0 0 0 0 0 0 0 0 0 0 0 0 0 0 0 0 0 0 0 0 0 0 0 0 0 0 0 0 0 0 0 0 0 0 0 0 0 8177 0 0 9199 0 0 0 0 0 0 0 0 0 0 0 0 0 0 0 0 0 0 0 0 0 0 0 0 0 0 0 0 0 0 0 0 0 0 0 0 0 0 7359 7359 6133 6690 7359 7359 7359 7359 7359 0 0 0 0 0 0 0 0 0 8177 7359 7359 6690 6690 7359 6133 6133 6133 5256 6690 0 0 0 7359 0 8177 0 0 0 0 0 8177 8177 0 8177 8177 0 0 0 0 0 0 0 0 0 0 0 9199 0 0 8177 7359 6690 5661 7359 7359 6690 6690 6690 6133 5256 3873 0 0 0 0 0 0 0 0 0 0 0 0 0 0 0 0 0 0 330 325 322 317 321 327 328 0 0 0 214 317 317 310 304 304 301 299 297 297 296 295 295 296 295 295 295 290 287 286 285 288 287 287 287 288 288 289 290 290 289 287 289 290 292 290 288 0 0 0 0 0 215 215 213 211 212 207 205 203 201 199 0 305 305 0 0 395 385 383 381 377 375 373 371 371 369 366 369 367 366 362 360 359 353 352 350 352 359 359 362 362 362 362 364 353 340 342 342 339 1206 1187 1168 1149 1149 1187 1132 1098 1132 1115 1066 1082 1082 1082 0 0 0 0 0
    0 0 0 0 0 0 0 0 0 0 0 0 0 0 0 0 0 0 0 0 0 0 0 0 0 0 0 0 0 0 0 0 0 0 0 0 0 0 0 0 0 0 0 0 0 0 0 0 0 0 0 0 0 0 0 0 0 0 0 0 0 0 0 0 0 0 0 0 0 0 8177 0 0 8177 0 0 0 0 0 0 0 0 0 0 0 0 0 0 0 0 0 0 0 0 0 0 0 0 0 0 0 0 0 0 0 0 0 0 0 0 0 0 6690 7359 6133 6690 7359 7359 8177 7359 7359 0 0 0 0 0 0 0 0 0 0 8177 8177 7359 7359 0 7359 7359 7359 6133 6690 0 0 0 0 8177 8177 8177 8177 8177 8177 8177 7359 7359 8177 7359 8177 8177 0 0 0 0 0 0 0 0 0 0 0 0 0 8177 8177 6690 5661 7359 6690 6690 6690 6690 6133 5256 3873 0 0 0 0 0 0 0 0 0 0 0 0 0 0 0 0 0 0 333 328 324 0 325 331 330 211 0 0 213 315 315 310 305 305 302 300 299 299 296 296 295 296 294 295 294 292 287 287 286 288 287 287 288 288 289 289 290 292 289 288 290 290 292 292 289 0 0 0 0 0 215 215 214 213 0 209 0 204 201 199 0 304 302 0 0 0 381 381 381 379 377 373 371 371 369 366 369 373 366 362 362 359 355 353 352 355 357 359 362 362 362 362 360 347 336 339 339 336 1206 1206 1168 1149 1149 1187 1132 1098 1132 1115 1082 1082 1082 1082 0 0 0 0 0
    0 0 0 0 0 0 0 0 0 0 0 0 0 0 0 0 0 0 0 0 0 0 0 0 0 0 0 0 0 0 0 0 0 0 0 0 0 0 0 0 0 0 0 0 0 0 0 0 0 0 0 0 0 0 0 0 0 0 0 0 0 0 0 0 0 0 0 0 0 8177 8177 0 0 8177 8177 0 0 8177 0 0 0 0 0 0 0 0 0 0 0 0 0 0 0 0 0 0 0 0 0 0 0 0 0 0 0 0 0 0 0 0 0 0 6133 6690 6133 6690 7359 7359 8177 7359 7359 0 0 0 0 0 0 8177 8177 0 8177 8177 7359 8177 7359 0 8177 0 7359 0 6690 0 0 0 0 8177 8177 8177 8177 8177 8177 7359 7359 7359 7359 7359 8177 8177 0 0 0 0 0 0 0 0 0 0 0 0 0 0 0 7359 5661 7359 7359 6690 6690 7359 6133 5256 3873 0 0 0 0 0 0 0 0 0 0 0 0 0 0 0 0 0 330 333 330 324 0 0 0 334 209 207 0 212 317 317 311 307 306 305 302 300 300 297 296 296 295 294 294 293 289 287 289 288 289 288 288 289 289 289 290 290 292 290 289 290 290 292 292 289 0 0 0 0 0 0 216 215 0 0 0 0 0 201 199 0 302 300 0 0 0 377 379 379 379 377 375 371 369 369 366 369 373 366 362 362 359 357 355 352 355 357 359 360 362 362 362 355 343 331 336 337 334 1226 1206 1187 1168 1149 1187 1132 1098 1132 1098 1082 1082 1082 1082 0 0 0 0 0
    0 0 0 0 0 0 0 0 0 0 0 0 0 0 0 0 0 0 0 0 0 0 0 0 0 0 0 0 0 0 0 0 0 0 0 0 0 0 0 0 0 0 0 0 0 0 0 0 0 0 0 0 0 0 0 0 0 0 0 0 0 0 0 0 0 0 0 0 0 0 8177 0 0 8177 8177 0 0 8177 0 0 0 0 0 0 0 0 0 0 0 9199 9199 8177 0 0 0 0 0 0 0 0 0 0 0 0 0 0 0 0 0 0 0 0 6133 6690 6133 6690 6690 6690 7359 6690 6690 8177 0 0 0 0 0 8177 8177 0 8177 8177 7359 8177 7359 8177 0 0 0 0 0 0 0 0 0 0 8177 8177 8177 0 8177 0 7359 8177 8177 8177 0 0 0 0 0 0 0 0 0 0 0 0 0 0 0 0 0 7359 5661 7359 7359 6690 7359 7359 6133 5256 4088 0 0 0 0 0 0 0 0 0 0 0 0 0 0 0 0 0 330 334 330 324 0 0 0 0 0 0 0 0 318 317 313 309 307 305 304 301 301 297 296 295 295 294 293 292 288 287 288 289 290 289 288 289 290 290 290 290 292 290 289 290 290 292 292 289 288 287 0 0 0 0 0 215 0 0 0 0 0 200 200 0 301 300 301 0 0 0 373 377 375 375 373 371 369 369 367 369 375 366 364 364 362 360 357 353 355 355 357 360 362 362 362 355 343 334 340 340 337 0 1226 1206 1168 1149 1187 1132 1082 1132 1115 1082 1098 1082 1098 0 0 0 0 0
    0 0 0 0 0 0 0 0 0 0 0 0 0 0 0 0 0 0 0 0 0 0 0 0 0 0 0 0 0 0 0 0 0 0 0 0 0 0 0 0 0 0 0 0 0 0 0 0 0 0 0 0 0 0 0 0 0 0 0 0 0 0 0 0 0 0 0 0 0 0 8177 0 0 7359 8177 8177 8177 7359 0 0 0 0 0 0 0 0 0 0 0 8177 8177 8177 8177 0 0 0 0 0 0 0 0 0 0 0 0 0 0 0 0 0 0 0 6133 7359 6133 6690 6690 6690 6133 6133 5661 7359 7359 8177 8177 7359 8177 6690 7359 0 8177 8177 7359 8177 6690 0 0 579 0 0 0 0 0 0 0 0 7359 7359 7359 0 0 0 8177 0 0 8177 0 0 0 0 0 0 0 0 0 0 0 0 0 0 0 0 0 7359 5661 7359 6690 7359 7359 8177 6133 4906 4329 0 8177 8177 0 0 0 0 0 0 0 0 0 0 0 0 0 0 325 331 327 322 743 0 0 0 0 0 0 0 319 318 314 311 309 306 305 302 302 297 296 294 294 293 292 290 287 286 287 289 290 289 289 290 290 290 290 292 292 290 288 290 290 292 292 290 287 286 0 0 0 0 0 0 0 0 0 0 0 0 0 0 300 300 301 299 0 0 0 375 373 373 373 369 369 371 369 371 381 369 366 366 364 364 360 355 355 353 357 360 362 362 362 355 343 336 342 342 0 75 0 1206 1168 1149 1187 1132 1082 1149 1115 1082 1098 1098 1098 0 0 0 0 0
    0 0 0 0 0 0 0 0 0 0 0 0 0 0 0 0 0 0 0 0 0 0 0 0 0 0 0 0 0 0 0 0 0 0 0 0 0 0 0 0 0 0 0 0 0 0 0 0 0 0 0 0 0 0 0 0 0 0 0 0 0 0 0 0 0 0 0 0 0 8177 8177 0 0 6690 7359 6690 7359 6690 0 0 0 0 0 0 0 0 0 8177 0 8177 8177 8177 0 0 0 0 0 0 0 0 0 0 0 0 0 0 0 0 0 0 0 0 6133 7359 6133 6690 6690 6133 6133 5661 4906 6690 6133 7359 6690 6690 7359 6690 7359 8177 8177 8177 7359 8177 0 0 0 584 0 0 0 0 0 0 0 0 6690 6133 6690 0 0 7359 8177 8177 0 0 0 0 0 0 0 0 8177 8177 0 0 0 0 0 0 0 0 0 7359 5661 6690 6133 7359 6690 7359 6133 4599 4329 0 8177 8177 8177 8177 0 0 0 0 0 0 0 0 0 0 0 0 0 330 325 321 0 0 0 0 0 0 0 0 322 319 315 313 310 307 306 304 302 296 294 293 293 292 289 288 285 286 287 289 292 290 289 290 290 290 290 290 292 290 288 290 289 290 292 290 287 285 284 0 0 0 0 0 0 0 0 0 0 0 0 301 299 300 300 300 0 0 0 375 373 373 371 369 369 369 369 369 381 369 366 366 366 366 362 357 353 352 352 357 360 364 362 355 343 339 342 0 76 76 75 1226 1187 1149 1168 1132 1082 1132 1098 1082 1098 1098 1098 0 0 0 0 0
    0 0 0 0 0 0 0 0 0 0 0 0 0 0 0 0 0 0 0 0 0 0 0 0 0 0 0 0 0 0 0 0 0 0 0 0 0 0 0 0 0 0 0 0 0 0 0 0 0 0 0 0 0 0 0 0 0 0 0 0 0 0 0 0 0 0 0 0 0 8177 7359 8177 8177 5661 0 5256 5661 4906 0 0 0 0 0 0 0 0 0 0 0 7359 7359 0 0 0 0 0 0 0 0 0 0 0 0 0 0 0 0 0 0 0 0 0 6690 7359 6133 6690 6690 6133 5661 5256 4599 6690 5661 7359 6133 6690 7359 6690 0 0 0 0 0 0 0 588 593 0 0 0 0 0 0 0 0 0 0 5661 5661 0 0 7359 0 0 0 0 0 0 0 0 0 0 0 0 0 0 0 0 0 0 0 0 0 7359 6133 6690 6133 7359 6690 6690 5256 4088 3873 0 7359 8177 7359 8177 0 0 0 0 0 0 0 0 0 0 0 0 0 328 324 319 0 0 0 0 0 0 0 0 325 321 317 314 311 309 309 305 302 296 294 292 293 290 289 288 286 286 287 290 293 290 289 290 289 290 290 290 292 290 289 290 290 292 293 292 288 284 284 0 0 0 0 0 0 0 0 0 0 0 0 301 299 300 299 299 301 0 0 373 373 373 371 369 369 367 366 367 379 366 364 364 364 364 362 355 352 348 348 353 359 364 364 357 345 340 343 0 0 76 75 0 1168 1132 1168 1132 1066 1098 1082 1082 1082 1082 1098 0 0 0 0 0
    0 0 0 0 0 0 0 0 0 0 0 0 0 0 0 0 0 0 0 0 0 0 0 0 0 0 0 0 0 0 0 0 0 0 0 0 0 0 0 0 0 0 0 0 0 0 0 0 0 0 0 0 0 0 0 0 0 0 0 0 0 0 0 0 0 0 0 0 0 8177 7359 0 7359 4599 0 0 3199 0 0 0 0 0 0 0 0 0 0 0 0 7359 0 0 104 0 0 0 0 0 0 0 0 0 0 0 0 0 0 0 0 0 0 0 6133 7359 6133 6690 6133 5661 5661 5256 4329 0 5256 0 6133 6690 7359 0 0 0 0 0 0 0 579 588 593 0 0 0 0 0 0 0 0 0 0 0 0 0 0 0 0 0 0 0 0 210 0 0 0 0 0 0 0 0 0 0 0 0 0 0 0 7359 6690 7359 6690 0 6690 6133 4088 3345 3345 0 0 7359 6690 7359 0 0 0 0 0 0 0 0 0 0 140 0 0 322 321 317 774 0 0 0 0 0 0 0 0 321 318 315 313 311 310 307 302 296 293 292 292 290 289 289 287 287 289 292 294 292 290 290 289 290 290 290 292 292 292 292 292 292 294 293 289 284 283 0 0 0 0 0 0 0 0 0 0 0 0 300 297 300 299 299 0 0 0 371 371 371 369 366 367 366 364 366 371 366 362 362 360 362 0 350 348 347 345 348 355 364 366 359 345 342 347 350 0 0 75 0 0 511 0 0 1051 1082 1066 1066 1082 1082 1082 0 0 0 0 0
    0 0 0 0 0 0 0 0 0 0 0 0 0 0 0 0 0 0 0 0 0 0 0 0 0 0 0 0 0 0 0 0 0 0 0 0 0 0 0 0 0 0 0 0 0 0 0 0 0 0 0 0 0 0 0 0 0 0 0 0 0 0 0 0 0 0 0 0 0 8177 8177 0 7359 0 0 0 0 1711 0 0 0 0 0 0 0 0 0 0 0 0 0 0 0 0 0 1565 0 0 0 0 0 0 0 0 0 0 0 0 0 0 0 0 5256 6690 5661 0 0 0 0 0 3873 0 0 0 0 6133 0 0 7359 8177 0 0 0 593 579 588 0 200 199 200 201 201 0 0 0 0 0 0 0 0 0 0 0 0 0 0 0 210 0 0 0 0 0 0 0 0 0 0 0 0 0 0 0 8177 7359 0 8177 0 8177 6690 3679 3199 0 0 0 6133 6133 0 0 0 0 0 8177 0 0 0 202 199 0 0 0 315 317 314 0 0 0 0 0 0 108 108 327 322 319 318 314 313 313 309 304 297 293 292 292 290 289 289 287 287 289 293 294 289 289 290 290 292 292 290 292 292 293 293 292 292 294 294 289 283 281 0 0 0 0 0 0 0 0 0 0 0 0 300 297 300 299 300 0 0 0 0 369 369 367 366 366 364 362 364 366 364 362 362 362 362 0 355 352 350 348 348 355 366 366 359 347 345 347 350 0 0 0 518 521 518 521 525 533 0 0 1066 1066 1066 1082 0 0 0 0 0
    0 0 0 0 0 0 0 0 0 0 0 0 0 0 0 0 0 0 0 0 0 0 0 0 0 0 0 0 0 0 0 0 0 0 0 0 0 0 0 0 0 0 0 0 0 0 0 0 0 0 0 0 0 0 0 0 0 0 0 0 0 0 0 0 0 0 0 0 0 0 0 0 0 0 0 0 1711 1533 0 0 0 0 0 0 0 0 284 0 0 0 0 0 0 0 0 1533 1501 1533 1565 1471 1471 0 0 0 0 0 0 0 8177 0 0 0 4599 6133 0 0 0 0 0 0 0 0 0 0 0 0 6690 0 6690 8177 0 0 0 0 570 579 198 199 199 199 201 201 201 203 202 0 0 0 0 0 0 154 0 0 0 0 0 0 0 0 0 0 0 0 0 0 0 0 0 0 0 0 0 0 0 0 0 0 0 0 3679 0 0 0 0 6133 0 0 0 0 0 0 8177 0 0 0 0 0 0 0 0 313 314 313 0 0 0 0 0 0 0 0 328 324 321 319 315 314 314 310 306 296 290 290 290 289 289 288 287 287 288 292 293 286 288 289 290 292 290 290 292 292 293 293 292 292 293 294 290 284 280 0 0 0 0 0 0 0 0 0 0 0 0 299 297 300 300 302 0 0 0 0 367 367 366 364 366 364 360 364 366 362 360 360 362 362 0 359 353 350 350 348 353 366 366 359 353 360 357 362 369 0 0 518 521 518 525 529 529 537 541 525 0 0 1066 0 0 0 0 0
    0 0 0 0 0 0 0 0 0 0 0 0 0 0 0 0 0 0 0 0 0 0 0 0 0 0 0 0 0 0 0 0 0 0 0 0 0 0 0 0 0 0 0 0 0 0 0 0 0 0 0 0 0 0 0 0 0 0 0 0 0 0 0 0 0 0 0 0 0 0 0 0 0 0 0 0 1599 1388 1443 1388 1338 1314 1291 1314 1268 0 0 0 0 0 0 0 1501 1443 1501 1443 1415 1443 1471 1415 1362 1338 1291 1268 1247 1268 1268 0 0 0 0 0 0 0 0 0 0 0 0 0 0 0 0 0 0 0 0 0 0 0 0 0 0 0 0 0 198 198 198 199 201 200 201 203 0 0 0 0 0 0 0 0 0 0 0 0 208 0 0 0 0 0 0 0 0 0 0 0 0 0 0 0 0 0 0 0 0 0 0 0 0 0 0 0 0 4906 0 0 0 0 0 0 0 0 0 0 0 0 0 307 307 309 311 311 311 0 0 0 0 0 0 0 328 324 324 321 317 315 314 311 306 296 288 288 288 289 288 288 286 286 287 292 292 283 288 289 289 292 290 289 292 292 293 293 292 292 293 294 292 284 280 0 0 0 0 2164 0 0 0 0 0 0 0 0 296 301 301 307 0 0 359 366 366 366 366 364 366 362 360 362 364 362 360 360 360 362 362 359 352 347 347 347 348 366 366 364 364 367 364 367 377 0 471 493 504 497 497 525 521 533 537 518 518 497 493 0 0 0 0 0
    0 0 0 0 0 0 0 0 0 0 0 0 0 0 0 0 0 0 0 0 0 0 0 0 0 0 0 0 0 0 0 0 0 0 0 0 0 0 0 0 0 0 0 0 0 0 0 0 0 0 0 0 0 0 0 0 0 0 0 0 0 0 0 0 0 0 0 0 0 0 1291 1314 0 0 0 1443 1443 1338 1415 1362 1338 1338 1314 1314 1291 1291 1314 1268 1314 1338 1362 1388 1443 1415 1443 1415 1388 1388 1388 1362 1338 1314 1291 1268 1268 1291 1291 1291 1338 1291 1291 0 1388 0 0 0 0 0 0 0 0 0 0 0 1501 0 0 0 0 0 0 0 0 0 0 0 0 198 197 199 201 200 201 0 0 0 0 0 0 0 0 0 0 0 0 0 209 0 0 0 0 0 0 0 0 0 0 0 0 0 0 0 0 0 0 0 0 0 0 0 0 0 0 1291 0 0 0 0 0 0 0 0 0 0 205 0 202 201 0 305 0 310 311 310 311 0 0 0 324 322 327 325 327 324 322 319 317 314 314 310 304 296 288 287 288 288 287 288 286 285 286 292 290 280 287 288 289 290 290 289 290 290 294 293 293 292 293 295 293 285 281 0 549 0 2453 2453 3345 0 0 0 0 0 0 0 0 305 0 0 0 0 362 366 366 366 364 362 366 362 360 362 362 360 359 359 360 362 360 360 350 347 347 348 348 366 367 369 369 371 367 371 0 0 465 487 493 487 484 514 514 521 529 514 511 500 493 0 0 0 0 0
    0 0 0 0 0 0 0 0 0 0 0 0 0 0 0 0 0 0 0 0 0 0 0 0 0 0 0 0 0 0 0 0 0 0 0 0 0 0 0 0 0 0 0 0 0 0 0 0 0 0 0 0 0 0 0 0 0 0 0 0 0 0 0 0 0 0 0 0 0 1314 1291 1314 1314 1338 1338 1388 1388 1338 1388 1362 1338 1338 1338 1314 1314 1291 1338 1291 1314 1338 1338 1362 1415 1388 1415 1388 1338 1362 1362 1338 1314 1314 1291 1291 1268 1314 1291 1291 1362 1338 1314 1362 1338 0 0 0 0 0 0 0 1268 0 1471 1314 1443 1338 1338 1388 1314 0 0 0 0 0 0 0 0 0 0 0 201 199 0 0 0 0 0 0 0 0 0 0 0 0 0 0 0 0 0 0 1471 0 0 0 0 0 0 0 0 0 0 0 0 0 0 1443 1388 0 0 1415 1388 1338 1443 1314 0 0 0 1362 0 0 81 0 0 0 205 203 203 202 0 310 0 313 314 311 311 0 0 0 322 319 325 324 325 322 321 318 315 314 313 309 302 296 288 287 287 288 288 288 287 286 287 292 288 280 287 288 289 290 290 289 290 290 294 293 293 292 293 295 293 287 283 0 553 0 2628 2725 3679 0 0 0 0 0 0 0 0 0 369 355 0 366 366 366 366 366 364 362 366 362 359 360 360 359 357 357 359 360 359 360 350 348 348 350 352 366 366 367 367 367 362 364 0 0 484 490 497 490 493 514 514 518 518 511 511 507 500 0 0 0 0 0
    0 0 0 0 0 0 0 0 0 0 0 0 0 0 0 0 0 0 0 0 0 0 0 0 0 0 0 0 0 0 0 0 0 0 0 0 0 0 0 0 0 0 0 0 0 0 0 0 0 0 0 0 0 0 0 0 0 0 0 0 0 0 0 0 0 0 0 0 0 1291 1291 1314 1314 1338 1338 1362 1362 1314 1362 1338 1314 1338 1314 1314 1291 1314 1314 1314 1314 1338 1338 1362 1388 1362 1388 1388 1338 1362 1362 1338 1338 1314 1314 1291 1291 1338 1314 1314 1362 1338 1291 1314 1314 1268 0 1268 0 1268 1291 1314 1314 1314 1415 1338 1388 1338 1338 1338 1314 1268 1314 1291 1314 1291 0 1314 1291 1338 1314 1291 1338 1291 1314 1338 1338 1338 1362 1388 1362 1338 1388 1388 1338 0 0 0 1362 1388 1362 1388 1415 1443 1471 1415 1415 1388 1362 1415 0 0 0 0 0 0 0 1338 1338 1338 1362 1362 1362 1314 1415 1338 0 1338 1291 1291 0 0 81 0 0 0 0 0 0 0 0 0 0 315 315 313 313 0 0 0 321 318 322 0 324 322 319 318 315 314 313 307 301 296 290 288 288 288 289 288 288 288 288 292 286 280 288 290 290 292 292 290 292 292 295 293 292 292 292 295 293 289 285 0 557 549 0 0 0 0 435 0 0 0 385 377 375 379 373 367 369 369 369 367 366 366 364 362 366 360 359 360 360 357 357 357 357 359 359 360 353 352 352 352 352 360 362 366 364 364 357 359 360 360 0 497 493 487 493 518 518 518 514 511 511 514 507 0 0 0 0 0
    0 0 0 0 0 0 0 0 0 0 0 0 0 0 0 0 0 0 0 0 0 0 0 0 0 0 0 0 0 0 0 0 0 0 0 0 0 0 0 0 0 0 0 0 0 0 0 0 0 0 0 0 0 0 0 0 0 0 0 0 0 0 0 0 0 0 0 0 0 1291 1268 1291 1291 1314 1314 1338 1338 1314 1314 1314 1291 1314 1291 1291 1291 1291 1314 1314 1314 1338 1338 1362 1388 1362 1362 1362 1338 1338 1314 1314 1314 1291 1291 1291 1291 1338 1314 1291 1314 1268 1247 1268 1291 1247 1291 1268 1291 1291 1291 1314 1291 1314 1388 1314 1338 1291 1314 1314 1291 1268 1291 1268 1314 1291 1291 1291 1291 1314 1291 1268 1314 1268 1291 1314 1314 1314 1314 1338 1338 1338 1362 1338 1338 1314 1362 1338 1362 1388 1362 1362 1388 1388 1443 1388 1388 1362 1338 1362 1338 1291 1268 0 0 0 1291 1291 1314 1314 1314 1338 1362 1314 1388 1338 0 1314 1291 1268 0 0 0 0 0 0 0 0 0 0 328 0 0 317 315 313 313 314 0 315 0 315 0 0 0 319 318 317 314 313 310 305 300 296 290 289 289 289 289 289 288 288 290 292 288 280 289 292 292 293 292 292 292 292 295 294 293 292 290 295 294 290 288 0 561 549 0 0 0 459 435 413 0 0 389 383 379 385 377 371 373 373 373 369 369 367 366 364 367 362 360 362 360 357 359 357 359 360 359 362 355 355 355 353 352 353 359 362 359 359 355 357 360 359 359 0 493 484 487 507 507 507 507 504 507 511 511 0 0 0 0 0
    0 0 0 0 0 0 0 0 0 0 0 0 0 0 0 0 0 0 0 0 0 0 0 0 0 0 0 0 0 0 0 0 0 0 0 0 0 0 0 0 0 0 0 0 0 0 0 0 0 0 0 0 0 0 0 0 0 0 0 0 0 0 0 0 0 0 0 0 0 1291 1268 1291 1268 1314 1314 1314 1314 1291 1268 1291 1268 1291 1268 1268 1268 1291 1291 1314 1314 1338 1338 1338 1388 1338 1338 1338 1291 1291 1291 1268 1291 1268 1268 1268 1268 1314 1291 1268 1268 1206 1187 1226 1268 1247 1268 1268 1291 1291 1291 1291 1291 1291 1362 1291 1314 1268 1291 1291 1268 1268 1268 1268 1291 1268 0 1291 1268 1268 1268 1226 1268 1247 1268 1291 1268 1268 1291 1291 1314 1314 1338 1314 1314 1314 1338 1338 1338 1388 1362 1362 1388 1388 1415 1388 1388 1362 1338 1338 1314 1291 1268 1268 1268 1247 1268 1268 1291 1291 1291 1314 1338 1291 1388 1338 1314 1314 1291 1268 1247 0 0 0 0 0 0 0 0 0 0 0 0 318 315 311 313 313 314 315 0 314 0 0 0 318 315 317 314 311 307 304 300 296 292 289 288 288 289 288 288 288 290 292 290 281 290 292 293 294 293 292 292 293 295 294 292 289 287 295 294 293 289 284 561 545 0 0 0 462 438 420 0 0 393 387 385 387 381 375 375 375 375 371 369 367 366 364 367 364 362 364 360 359 360 359 360 360 360 362 357 357 357 353 352 347 355 359 353 357 353 355 359 357 359 355 0 481 484 500 500 497 497 497 504 507 504 0 0 0 0 0
    0 0 0 0 0 0 0 0 0 0 0 0 0 0 0 0 0 0 0 0 0 0 0 0 0 0 0 0 0 0 0 0 0 0 0 0 0 0 0 0 0 0 0 0 0 0 0 0 0 0 0 0 0 0 0 0 0 0 0 0 0 0 0 0 0 0 0 0 0 1268 1268 1291 1268 1314 1314 1314 1291 1291 1226 1247 1247 1268 1268 1247 1268 1291 1291 1314 1314 1338 1338 1314 1338 1314 1268 1291 1226 1247 1247 1247 1247 1247 1268 1268 1268 1314 1268 1268 1268 1187 1187 1206 1268 1247 1268 1268 1268 1268 0 0 1291 1268 1314 1268 1268 1226 1268 1268 1247 1247 1247 1247 1247 1247 1247 1247 1226 1226 1226 1187 1247 1206 1226 1247 1247 1247 1268 1268 1291 1291 1338 1314 1314 1291 1314 1314 1338 1362 1338 1362 1362 1388 1415 1415 1388 1362 1338 1314 1291 1268 1247 1247 1247 1247 1268 1268 1268 1268 1291 1291 1314 1291 1362 1314 1291 1291 1268 1247 1247 1247 0 0 0 0 112 0 0 0 0 0 0 0 317 313 314 314 315 315 0 314 0 0 0 318 315 317 314 310 307 302 300 296 292 289 288 288 289 288 287 287 289 289 289 283 289 292 293 293 293 292 293 292 297 294 292 288 284 295 295 294 292 285 566 545 0 0 0 465 438 427 0 397 395 389 387 389 385 379 379 377 379 371 373 367 366 364 369 366 364 364 362 360 362 360 360 362 360 364 359 360 359 355 352 343 350 355 352 353 352 353 357 357 359 355 0 0 0 500 497 493 493 493 493 497 497 0 0 0 0 0
    0 0 0 0 0 0 0 0 0 0 0 0 0 0 0 0 0 0 0 0 0 0 0 0 0 0 0 0 0 0 0 0 0 0 0 0 0 0 0 0 0 0 0 0 0 0 0 0 0 0 0 0 0 0 0 0 0 0 0 0 0 0 0 0 0 0 0 0 0 1268 1268 1291 1268 1291 1291 1291 1268 1268 1206 1247 1226 1247 1247 1247 1268 1291 1268 1314 1314 1314 1314 1291 1314 1247 1206 1247 1206 1226 1226 1226 1247 1247 1268 1268 1247 1314 1268 1268 1247 1187 1168 1187 1247 1226 1247 1247 1247 1247 0 0 1268 1247 1268 1247 1226 1206 1226 1247 1226 1226 1226 1226 1226 1247 1226 1226 1206 1226 1226 1168 1226 1187 1206 1226 1226 1226 1247 1247 1291 1268 1314 1291 1268 1268 1314 1291 1314 1314 1314 1338 1362 1362 1415 1388 1388 1362 1314 1291 1291 1247 1247 1226 1247 1226 1247 1247 1268 1247 1268 1268 1291 1268 1338 1314 1268 1268 1247 1226 1226 1226 0 1226 0 0 0 0 0 0 0 0 0 0 317 0 314 0 314 0 0 314 0 0 0 317 315 318 315 310 305 302 299 296 293 290 289 289 289 288 287 286 288 289 288 283 288 292 293 293 293 292 292 292 295 295 289 286 281 295 295 295 294 286 561 545 0 0 0 468 438 430 0 397 395 389 389 389 387 383 381 381 383 375 375 369 369 367 369 367 366 366 362 362 362 360 362 362 360 364 359 362 360 355 352 343 350 355 350 352 353 353 357 355 357 355 0 0 0 0 493 0 490 490 487 487 490 0 0 0 0 0
    0 0 0 0 0 0 0 0 0 0 0 0 0 0 0 0 0 0 0 0 0 0 0 0 0 0 0 0 0 0 0 0 0 0 0 0 0 0 0 0 0 0 0 0 0 0 0 0 0 0 0 0 0 0 0 0 0 0 0 0 0 0 0 0 0 0 0 0 0 1268 1247 1291 1268 1268 1268 1268 1247 1247 1187 1226 1226 1226 1247 1247 1268 1268 1268 1291 1291 1291 1291 1247 1268 1226 1187 1226 1187 1206 1226 1226 1247 1247 1247 1268 1247 1291 1247 1226 1226 1168 1149 1168 1226 1226 1226 1226 1247 1226 0 0 1247 1226 1268 1247 1226 1206 1226 1226 1226 1226 1226 1226 1226 1247 1226 1226 1206 1206 1206 1168 1206 1187 1206 1226 1226 1226 1247 1247 1291 1247 1291 1268 1247 1247 1291 1268 1291 1291 1291 1314 1338 1362 1388 1362 1362 1362 1314 1268 1291 1226 1247 1226 1226 1226 1226 1247 1247 1226 1268 1268 1314 1268 1314 1291 1247 1268 1247 1226 1226 1226 0 1226 0 1338 0 0 1291 1247 1268 1247 0 1187 0 0 0 0 0 0 0 0 0 0 0 0 315 324 317 311 305 302 299 299 293 292 290 289 290 289 288 287 289 289 288 283 287 292 292 292 293 292 292 292 294 295 287 286 280 294 295 295 294 286 0 545 0 0 0 468 438 432 0 0 395 389 391 391 389 387 385 385 387 381 383 373 373 369 371 367 366 364 362 362 364 362 362 364 359 364 360 364 362 353 350 342 350 355 350 350 353 353 357 357 359 357 0 0 0 0 0 0 490 487 484 487 487 0 0 0 0 0
    0 0 0 0 0 0 0 0 0 0 0 0 0 0 0 0 0 0 0 0 0 0 0 0 0 0 0 0 0 0 0 0 0 0 0 0 0 0 0 0 0 0 0 0 0 0 0 0 0 0 0 0 0 0 0 0 0 0 0 0 0 0 0 0 0 0 0 0 0 1247 1247 1268 1247 1226 1247 1247 1226 1226 1168 1206 1206 1206 1247 1226 1247 1268 1247 1268 1268 1268 1247 1206 1247 1206 1168 1206 1187 1206 1206 1226 1226 1226 1247 1268 1226 1268 1206 1187 1187 1149 1149 1149 1187 1187 1206 1206 1226 1206 0 0 1226 1206 1247 1226 1206 1187 1226 1226 1226 1226 1226 1226 1206 1247 1226 1226 1206 1206 1187 1168 1206 1187 1206 1226 1206 1226 1226 1247 1268 1226 1268 1226 1226 1247 1268 1247 1268 1268 1268 1291 1291 1314 1338 1314 1338 1338 1314 1268 1291 1226 1226 1226 1226 1226 1226 1226 1247 1226 1268 1268 1314 1268 1314 1291 1247 1268 1226 1226 1226 1206 0 1226 0 1314 1247 1268 1268 1247 1247 1226 1226 1168 1098 0 0 0 0 0 0 0 0 0 0 0 319 330 319 313 306 302 299 299 294 292 290 290 290 289 289 287 289 289 288 284 286 292 293 293 293 292 292 292 294 295 288 286 281 293 294 295 295 286 284 0 0 0 0 0 435 432 0 0 395 389 391 393 391 389 387 387 389 385 389 377 375 371 371 371 367 366 364 366 366 364 362 364 360 0 362 364 362 352 350 342 350 353 350 350 353 353 357 355 359 355 350 0 0 0 0 0 0 0 0 0 484 0 0 0 0 0
    0 0 0 0 0 0 0 0 0 0 0 0 0 0 0 0 0 0 0 0 0 0 0 0 0 0 0 0 0 0 0 0 0 0 0 0 0 0 0 0 0 0 0 0 0 0 0 0 0 0 0 0 0 0 0 0 0 0 0 0 0 0 0 0 0 0 0 0 0 1247 1226 1247 1226 1187 1226 1206 1187 1187 1168 1187 1206 1187 1226 1206 1226 1247 1226 1268 1247 1226 1206 1187 1226 1187 1168 1206 1187 1187 1187 1226 1226 1226 1226 1247 1187 1226 1168 1149 1149 1132 1132 1132 1168 1168 1187 1187 1226 1187 0 1226 1226 1206 1226 1206 1187 1187 1206 1206 1206 1206 1206 1206 1206 1226 1226 1226 1187 1206 1187 1149 1206 1187 1187 1206 1206 1206 1226 1226 1268 1226 1268 1206 1206 1226 1247 1226 1247 1247 1247 1247 1268 1291 1314 1291 1314 1314 1314 1268 1268 1226 1226 1206 1206 1206 1206 1226 1226 1206 1247 1226 1291 1247 1291 1268 1226 1247 1226 1206 1206 1187 1226 1206 1247 1291 1226 1247 1247 1206 1226 1226 1226 1168 1115 0 0 0 0 0 0 0 0 0 0 0 0 334 321 314 306 302 299 297 294 292 290 290 290 289 288 286 289 289 288 286 285 292 293 293 294 293 293 293 294 296 292 288 284 294 295 295 295 286 284 0 0 0 0 471 435 432 0 0 397 391 393 393 393 391 389 387 391 385 391 379 377 371 371 373 369 369 367 367 366 366 364 364 360 0 0 0 360 345 345 340 348 352 348 350 352 353 357 355 359 355 353 0 981 955 981 955 0 0 0 0 0 0 0 0 0 0
    0 0 0 0 0 0 0 0 0 0 0 0 0 0 0 0 0 0 0 0 0 0 0 0 0 0 0 0 0 0 0 0 0 0 0 0 0 0 0 0 0 0 0 0 0 0 0 0 0 0 0 0 0 0 0 0 0 0 0 0 0 0 0 0 0 0 0 0 0 1226 1206 1226 1206 1168 1206 1187 1168 1187 1149 1187 1206 1187 1226 1187 1206 1226 1206 1226 1206 1206 1149 1149 1187 1168 1149 1187 1187 1187 1168 1226 1226 1226 1226 1247 1149 1187 1132 1132 1132 1115 1115 1115 1132 1132 1149 1149 1206 1168 1187 1206 1206 1187 1206 1187 1187 1168 1206 1187 1187 1206 1187 1206 1206 1226 1226 1206 1187 1206 1168 1132 1187 1168 1187 1187 1187 1187 1187 1187 1247 1187 1226 1187 1187 1226 1226 1206 1226 1226 1247 1247 1268 1291 1291 1268 1291 1314 1291 1247 1268 1226 1226 1187 1206 1187 1206 1206 1206 1168 1206 1187 1247 1206 1226 1247 1187 1226 1206 1187 1187 1168 1187 1187 1206 1247 1187 1226 1247 1187 1226 1206 1206 1168 1115 1115 0 0 0 0 0 0 0 0 0 0 0 339 324 314 305 304 300 297 294 293 290 289 290 289 287 286 289 289 288 289 284 293 294 294 295 294 294 294 294 300 294 292 287 295 295 295 296 286 285 284 0 0 507 471 435 430 0 0 397 393 395 395 393 391 389 387 389 385 389 377 377 371 373 375 373 373 371 369 367 366 364 364 360 360 0 0 0 347 0 0 350 350 348 350 353 352 357 357 359 357 357 0 1022 981 994 981 0 1022 1008 968 0 0 0 0 0 0
    0 0 0 0 0 0 0 0 0 0 0 0 0 0 0 0 0 0 0 0 0 0 0 0 0 0 0 0 0 0 0 0 0 0 0 0 0 0 0 0 0 0 0 0 0 0 0 0 0 0 0 0 0 0 0 0 0 0 0 0 0 0 0 0 0 0 0 0 0 1206 1187 1206 1168 1132 1187 1168 1168 1168 1149 1168 1187 1168 1206 1187 1187 1206 1187 1206 1168 1168 1115 1132 1168 1149 1149 1168 1168 1168 1149 1206 1206 1206 1187 1226 1098 1149 1098 1115 1132 1115 1115 1132 1132 1132 1132 1149 1187 1149 1168 1187 1187 1168 1187 1168 1149 1149 1187 1168 1168 1168 1168 1187 1168 1206 1187 1187 1168 1187 1168 1115 1168 1168 1168 1168 1149 1187 1168 1168 1247 1168 1206 1168 1168 1226 1226 1187 1226 1206 1226 1226 1247 1268 1247 1247 1291 1291 1268 1226 1247 1226 1206 1168 1187 1168 1187 1187 1187 1132 1168 1132 1206 1168 1187 1187 1149 1187 1168 1149 1168 1132 1149 1149 1168 1206 1149 1187 1226 1168 1206 1187 1187 1149 1132 1115 1098 0 0 0 0 0 0 0 0 0 0 339 327 315 307 305 301 299 294 293 290 289 289 290 288 285 289 288 287 288 283 292 294 294 294 294 294 294 294 302 295 293 290 296 296 296 296 286 285 284 0 0 511 474 435 432 0 0 397 395 397 395 393 391 389 387 389 383 387 375 377 371 373 375 375 375 373 369 367 366 364 362 360 359 0 0 0 340 319 0 352 348 350 353 355 353 357 357 359 359 359 360 0 1008 1022 1008 1022 1022 1022 981 968 0 0 0 0 0
    0 0 0 0 0 0 0 0 0 0 0 0 0 0 0 0 0 0 0 0 0 0 0 0 0 0 0 0 0 0 0 0 0 0 0 0 0 0 0 0 0 0 0 0 0 0 0 0 0 0 0 0 0 0 0 0 0 0 0 0 0 0 0 0 0 0 0 0 0 1168 1149 1168 1115 1098 1149 1132 1132 1149 1132 1168 1187 1168 1206 1168 1187 1187 1168 1168 1132 1132 1098 1132 1149 1149 1132 1168 1149 1168 1149 1206 1187 1187 1168 1168 1066 1115 1082 1098 1115 1115 1115 1115 1132 1149 1132 1149 1187 1132 1149 1149 1149 1115 1115 1132 1115 1115 1149 1132 1132 1149 1149 1168 1149 1187 1187 1168 1149 1187 1149 1098 1168 1149 1149 1149 1149 1168 1149 1149 1226 1149 1206 1149 1149 1206 1206 1149 1206 1187 1206 1206 1226 1247 1226 1226 1268 1268 1247 1206 1247 1206 1206 1149 1168 1168 1168 1187 1168 1132 1149 1115 1187 1149 1149 1149 1115 1149 1132 1115 1149 1115 1115 1115 1132 1149 1132 1168 1187 1132 1187 1168 1168 1132 1132 1115 1098 1082 0 0 0 0 0 0 0 0 0 339 327 315 307 307 304 299 295 293 290 289 289 290 288 286 289 287 286 286 281 290 293 293 293 293 293 293 294 300 295 293 292 296 296 296 296 286 285 285 0 0 514 474 435 0 0 0 0 395 397 395 395 393 391 387 387 383 383 375 375 369 369 371 373 373 373 369 367 366 364 362 360 357 0 0 0 0 318 0 352 347 353 353 357 353 357 357 359 357 359 357 0 1022 1022 1022 1051 1036 1022 1008 994 0 0 0 0 0
    0 0 0 0 0 0 0 0 0 0 0 0 0 0 0 0 0 0 0 0 0 0 0 0 0 0 0 0 0 0 0 0 0 0 0 0 0 0 0 0 0 0 0 0 0 0 0 0 0 0 0 0 0 0 0 0 0 0 0 0 0 0 0 0 0 0 0 0 0 1132 1115 1098 1082 1082 1132 1098 1115 1132 1132 1149 1168 1149 1187 1149 1168 1149 1149 1149 1115 1115 1082 1115 1132 1132 1132 1149 1132 1149 1132 1206 1168 1168 1132 1098 1036 1051 1051 1066 1098 1098 1098 1098 1098 1115 1115 1132 1149 1082 1066 1066 1066 1036 1066 1082 1082 1098 1115 1115 1115 1132 1149 1168 1149 1187 1187 1168 1149 1168 1149 1098 1149 1132 1149 1132 1132 1149 1132 1132 1226 1115 1168 1115 1132 1187 1206 1132 1187 1168 1187 1187 1206 1206 1187 1187 1247 1226 1206 1168 1206 1187 1187 1132 1168 1149 1149 1168 1149 1115 1132 1098 1149 1115 1115 1115 1098 1132 1115 1098 1132 1098 1098 1098 1098 1115 1098 1132 1168 1115 1168 1149 1168 1132 1132 1098 1098 1082 0 0 0 0 0 0 0 0 0 0 327 315 305 306 304 299 295 294 292 290 289 292 288 286 288 286 284 283 280 287 292 292 292 293 292 292 293 299 296 295 294 297 297 297 296 288 286 0 0 0 0 0 0 0 0 0 0 397 402 395 395 393 391 387 385 379 377 373 373 367 366 367 367 367 367 366 364 364 362 362 360 357 0 0 0 0 328 0 352 345 360 355 359 352 355 357 357 357 359 353 355 0 1022 1022 1051 1051 1036 1022 1008 0 0 0 0 0
    0 0 0 0 0 0 0 0 0 0 0 0 0 0 0 0 0 0 0 0 0 0 0 0 0 0 0 0 0 0 0 0 0 0 0 0 0 0 0 0 0 0 0 0 0 0 0 0 0 0 0 0 0 0 0 0 0 0 0 0 0 0 0 0 0 0 0 0 0 1098 1082 1082 1066 1066 1098 1082 1098 1098 1098 1132 1149 1132 1168 1115 1132 1132 1132 1132 1115 1115 1082 1115 1132 1115 1132 1149 1132 1149 1132 1206 1149 1168 1115 1066 1022 1036 1036 1066 1082 1082 1082 1082 1082 1098 1098 1098 1082 1036 1008 1008 1022 1008 1036 1051 1066 1082 1098 1082 1098 1098 1132 1149 1132 1168 1168 1168 1132 1168 1132 1082 1132 1115 1115 1115 1098 1115 1098 1098 1187 1082 1132 1098 1115 1168 1187 1115 1149 1149 1168 1168 1168 1168 1149 1149 1206 1168 1168 1115 1149 1149 1149 1115 1132 1115 1132 1115 1132 1098 1115 1082 1132 1098 1115 1115 1098 1132 1115 1098 1132 1098 1098 1098 1082 1098 1082 1115 1149 1098 1168 1132 1168 1115 1132 1098 1098 1082 0 0 0 0 0 0 0 0 0 0 0 0 0 0 306 300 296 294 292 290 290 293 288 285 288 285 283 280 279 284 290 290 292 292 292 292 293 297 297 296 296 299 299 299 297 290 289 0 0 0 521 0 0 0 0 0 0 0 402 395 395 393 391 387 383 379 375 373 373 367 364 366 366 366 367 366 364 364 362 364 362 359 0 0 0 0 0 0 0 343 360 359 359 350 355 355 355 355 357 350 348 0 1008 1022 1036 1051 1036 1022 1022 0 0 0 0 0
    0 0 0 0 0 0 0 0 0 0 0 0 0 0 0 0 0 0 0 0 0 0 0 0 0 0 0 0 0 0 0 0 0 0 0 0 0 0 0 0 0 0 0 0 0 0 0 0 0 0 0 0 0 0 0 0 0 0 0 0 0 0 0 0 0 0 0 0 0 1082 1066 1051 1051 1051 1082 1066 1082 1082 1082 1098 1115 1115 1149 1098 1115 1115 1115 1115 1115 1115 1082 1132 1132 1132 1149 1149 1132 1149 1132 1226 1149 1149 1082 1051 1022 1051 1036 1051 1066 1082 1082 1066 1082 1098 1066 1082 1051 1008 981 981 994 981 1022 1036 1051 1066 1066 1066 1066 1082 1115 1115 1098 1115 1149 1132 1115 1149 1132 1066 1115 1098 1115 1098 1082 1098 1082 1082 1168 1066 1082 1066 1098 1132 1149 1082 1132 1132 1149 1149 1149 1132 1115 1115 1168 1132 1115 1082 1082 1098 1098 1082 1098 1082 1098 1082 1082 1082 1082 1066 1098 1082 1098 1098 1098 1115 1098 1082 1115 1082 1082 1082 1066 1082 1082 1098 1115 1082 1149 1115 1149 1115 1115 1082 1098 1082 1098 0 0 0 0 0 0 0 0 0 0 0 0 0 304 299 296 294 292 289 289 290 288 284 286 284 283 279 279 283 290 290 292 292 292 292 293 295 297 297 296 299 299 300 297 293 292 0 561 570 525 481 0 0 0 0 0 0 404 395 393 391 389 387 383 379 377 375 377 369 364 367 369 369 369 367 367 366 364 366 364 360 364 0 0 0 0 0 0 339 359 360 360 350 353 353 353 353 357 348 345 0 994 994 1022 1036 1022 1022 1008 0 0 0 0 0
    0 0 0 0 0 0 0 0 0 0 0 0 0 0 0 0 0 0 0 0 0 0 0 0 0 0 0 0 0 0 0 0 0 0 0 0 0 0 0 0 0 0 0 0 0 0 0 0 0 0 0 0 0 0 0 0 0 0 0 0 0 0 0 0 0 0 0 0 0 1066 1051 1051 1036 1036 1066 1051 1066 1066 1066 1098 1098 1098 1132 1082 1115 1098 1115 1115 1098 1115 1098 1132 1132 1115 1132 1132 1115 1149 1115 1206 1115 1132 1082 1051 1022 1036 1036 1051 1066 1066 1066 1066 1066 1082 1066 1066 1036 994 981 968 981 981 0 1036 1036 1051 1051 1051 1066 1066 1115 1098 1098 1098 1115 1115 1115 1149 1115 1051 1098 1098 1098 1082 1082 1082 1066 1066 1132 1051 1051 1066 1082 1098 1115 1066 1098 1115 1115 1132 1115 1115 1098 1098 1132 1098 1098 1051 1051 1066 1066 1051 1066 1051 1066 1051 1066 1066 1066 1066 1066 1066 1082 1082 1082 1098 1082 1082 1098 1082 1082 1066 1066 1066 1066 1082 1098 1082 1115 1098 1149 1098 1115 1082 1082 1082 1098 0 0 0 0 0 0 0 0 0 0 0 0 0 300 297 295 293 290 288 287 289 286 283 284 283 283 279 279 280 290 290 292 292 292 292 293 294 296 297 296 299 299 299 297 294 293 294 0 574 525 481 0 0 0 395 393 399 402 391 391 391 389 387 385 379 377 377 381 369 366 369 367 367 367 367 367 367 366 367 366 366 371 0 0 0 0 0 313 322 357 360 360 348 352 353 352 352 355 347 342 0 994 994 1008 1008 994 1008 1008 0 0 0 0 0
    0 0 0 0 0 0 0 0 0 0 0 0 0 0 0 0 0 0 0 0 0 0 0 0 0 0 0 0 0 0 0 0 0 0 0 0 0 0 0 0 0 0 0 0 0 0 0 0 0 0 0 0 0 0 0 0 0 0 0 0 0 0 0 0 0 0 0 0 0 1066 1051 1036 1036 1036 1051 1051 1051 1051 1051 1082 1082 1082 1098 1082 1098 1082 1098 1115 1098 1115 1098 1115 1115 1115 1132 1132 1098 1132 1098 1149 1098 1115 1098 1051 1022 1051 1036 1051 1066 1066 1066 1051 1051 1082 1051 1051 1008 994 968 968 981 968 0 0 1036 1051 1051 1051 1051 1066 1115 1082 1082 1066 1082 1082 1082 1115 1098 1051 1098 1082 1082 1066 1066 1066 1051 1051 1115 1036 1036 1066 1082 1098 1098 1066 1082 1098 1098 1115 1098 1098 1082 1082 1098 1082 1082 1036 1036 1051 1036 1036 1051 1051 1051 1036 1051 1051 1051 1051 1066 1051 1082 1066 1066 1082 1082 1082 1098 1082 1082 1066 1066 1066 1066 1082 1082 1066 1098 1066 1132 1082 1098 1066 1082 1066 1082 1082 0 0 0 0 0 0 0 0 0 0 0 0 0 296 295 293 290 288 287 289 286 283 283 281 281 278 278 279 289 290 290 292 290 292 292 293 296 296 296 299 299 299 297 294 294 294 0 579 525 481 0 0 0 0 391 397 399 385 385 387 387 387 385 379 377 377 383 371 366 367 366 366 360 364 364 366 366 366 366 364 366 377 0 0 0 0 0 321 355 360 359 348 350 352 352 350 353 347 342 0 981 968 981 994 981 994 994 0 0 0 0 0
    0 0 0 0 0 0 0 0 0 0 0 0 0 0 0 0 0 0 0 0 0 0 0 0 0 0 0 0 0 0 0 0 0 0 0 0 0 0 0 0 0 0 0 0 0 0 0 0 0 0 0 0 0 0 0 0 0 0 0 0 0 0 0 0 0 0 0 0 0 1066 1051 1036 1036 1036 1051 1036 1051 1051 1036 1066 1066 1066 1082 1066 1066 1066 1082 1098 1082 1098 1098 1098 1098 1098 1098 1098 1082 1098 1066 1115 1082 1098 1082 1051 1022 1036 1036 1036 1036 1036 1036 1036 1036 1066 1036 1036 1008 981 968 968 981 955 994 1022 1022 1036 1051 1051 1051 1051 1082 1051 0 0 1051 1051 1051 1098 1066 1036 1082 1066 1066 1051 1036 1051 1036 1036 1066 1008 1008 1036 1051 1066 1082 1066 1066 1082 1098 1098 1082 1082 1082 1066 1082 1066 1051 1022 1022 1036 1022 1022 1036 1036 1036 1036 1036 1036 1036 1051 1051 1051 1066 1066 1051 1082 1082 1066 1082 1066 1066 1051 1051 1051 1051 1051 1051 1051 1066 1051 1115 1082 1098 1051 1066 1066 1066 1066 0 0 0 0 0 0 0 0 0 0 0 0 0 295 294 293 290 288 287 288 286 283 283 280 280 278 278 278 288 289 289 290 290 289 290 292 295 295 295 297 297 297 297 295 295 0 0 588 525 481 484 0 0 0 391 397 397 381 383 385 385 385 387 381 377 379 385 373 366 367 366 366 360 366 366 366 366 367 367 367 371 387 383 0 427 404 0 334 353 360 360 348 350 352 352 350 352 348 342 0 981 968 981 981 968 994 981 0 0 0 0 0
    0 0 0 0 0 0 0 0 0 0 0 0 0 0 0 0 0 0 0 0 0 0 0 0 0 0 0 0 0 0 0 0 0 0 0 0 0 0 0 0 0 0 0 0 0 0 0 0 0 0 0 0 0 0 0 0 0 0 0 0 0 0 0 0 0 0 0 0 0 1051 1036 1036 1036 1022 1036 1036 1036 1036 1022 1036 1036 1036 1051 1036 1051 1036 1051 1066 1066 1082 1082 1082 1082 1066 1066 1066 1051 1051 1036 1051 1051 1051 1051 1036 1022 1022 1022 1022 1022 1022 1022 1022 1022 1036 1022 1008 981 968 955 955 968 943 981 1008 1008 1022 1036 1036 1036 1036 1066 1022 0 77 0 1022 1022 1051 1036 1022 1051 1051 1036 1022 1022 1022 1008 1022 1036 1008 994 1022 1036 1051 1066 1066 1051 1082 1082 1098 1082 1082 1082 1066 1066 1066 1051 1022 1008 1022 1022 1022 1022 1022 1036 1036 1036 1036 1036 1051 1036 1051 1066 1066 1051 1066 1082 1082 1082 1066 1066 1051 1051 1051 1051 1051 1051 1051 1066 1051 1115 1082 1082 1036 1051 1051 1051 1066 0 0 0 0 0 0 0 0 0 0 0 0 296 294 293 292 289 287 286 287 286 283 283 279 280 277 278 278 287 288 288 289 289 288 288 289 295 293 294 296 296 296 296 295 295 0 588 593 529 487 490 0 0 0 0 397 395 379 381 385 385 387 389 381 379 379 387 0 366 367 367 367 362 367 369 369 369 371 373 371 375 387 383 383 393 402 0 339 350 360 360 348 350 352 352 350 352 348 342 0 981 981 981 981 981 994 981 0 0 0 0 0
    0 0 0 0 0 0 0 0 0 0 0 0 0 0 0 0 0 0 0 0 0 0 0 0 0 0 0 0 0 0 0 0 0 0 0 0 0 0 0 0 0 0 0 0 0 0 0 0 0 0 0 0 0 0 0 0 0 0 0 0 0 0 0 0 0 0 0 0 0 1036 1036 1036 1036 1022 1036 1022 1036 1022 1008 1022 1022 1008 1022 1008 1022 1022 1036 1036 1036 1051 1051 1051 1051 1051 1036 1022 1008 1022 1008 1008 1022 1022 1036 1036 1022 1022 1008 1022 1022 1022 1022 1008 1008 1022 1008 981 968 955 955 955 955 943 981 994 994 1008 1022 1022 1008 1022 1051 1008 0 0 0 1008 1008 1036 1022 1008 1036 1022 1022 1008 1008 994 994 1008 1008 981 981 994 1008 1022 1036 1036 1036 1066 1051 1066 1051 1051 1051 1051 1051 1051 1022 1022 1008 1022 1008 1008 1008 1008 1008 1008 1008 1022 1022 1022 1022 1036 1051 1051 1036 1066 1082 1082 1082 1066 1066 1036 1036 1051 1051 1051 1051 1051 1051 1051 1098 1066 1066 1022 1036 1036 1036 1036 0 0 0 0 0 0 0 0 0 0 0 0 294 292 292 292 289 287 286 287 285 283 283 279 279 277 277 277 286 288 288 288 288 287 287 288 295 293 294 296 296 296 296 295 295 0 593 598 533 493 497 0 0 0 0 397 395 379 381 385 385 387 389 383 379 381 389 377 366 366 369 367 364 369 371 371 371 371 375 373 377 387 385 377 381 389 375 350 348 360 360 348 348 352 352 350 350 350 340 342 943 968 968 981 968 994 994 0 0 0 0 0
    0 0 0 0 0 0 0 0 0 0 0 0 0 0 0 0 0 0 0 0 0 0 0 0 0 0 0 0 0 0 0 0 0 0 0 0 0 0 0 0 0 0 0 0 0 0 0 0 0 0 0 0 0 0 0 0 0 0 0 0 0 0 0 0 0 0 0 0 0 1022 1022 1022 1036 1022 1036 1036 1036 1022 1008 1008 1008 981 994 994 994 994 1008 1008 1022 1036 1036 1036 1036 1022 1008 1008 994 994 981 994 1008 1022 1022 1036 1022 1022 1008 1022 1008 1008 1008 1008 1008 1008 994 981 981 955 955 955 943 943 981 994 994 994 1008 1008 1008 1022 1036 1008 1008 0 1022 1008 1008 1008 994 994 1022 1008 994 994 994 994 981 994 994 981 968 994 994 994 1008 1022 1008 1036 1022 1036 1036 1022 1036 1036 1022 1022 1008 1008 994 994 994 994 994 994 994 1008 994 994 994 1008 1008 1022 1022 1036 1022 1066 1082 1066 1066 1066 1051 1036 1022 1036 1036 1022 1022 1022 1022 1022 1051 1036 1036 994 1008 1008 1008 1008 0 0 0 0 0 0 0 0 0 0 0 0 293 289 290 290 288 286 285 285 285 281 283 280 280 278 278 278 286 288 289 289 289 288 288 289 295 293 294 296 296 296 295 294 294 0 603 598 533 507 514 490 0 0 0 397 397 379 383 387 387 389 391 385 381 381 389 377 366 364 367 367 364 369 371 373 373 373 379 377 381 391 389 379 379 383 379 366 350 360 360 350 348 352 352 352 352 352 342 342 0 955 968 968 955 994 994 0 0 0 0 0
    0 0 0 0 0 0 0 0 0 0 0 0 0 0 0 0 0 0 0 0 0 0 0 0 0 0 0 0 0 0 0 0 0 0 0 0 0 0 0 0 0 0 0 0 0 0 0 0 0 0 0 0 0 0 0 0 0 0 0 0 0 0 0 0 0 0 0 0 0 1022 1022 1036 1036 1036 1051 1036 1036 1036 1008 1008 994 968 981 981 968 981 981 994 1008 1008 1022 1022 1022 1022 1008 1008 994 994 981 994 1008 1008 1022 1022 1022 1022 1022 1022 1022 1008 1008 1008 1008 1008 994 981 981 955 968 955 943 955 968 981 981 981 1008 1008 1008 1022 1036 1008 1008 1008 1022 1008 994 1008 994 981 1008 994 994 981 981 981 968 981 981 968 968 981 994 994 994 1008 1008 1022 1008 1022 1022 1008 1022 1022 1008 1008 994 994 968 981 981 981 981 981 981 994 981 994 994 994 1008 1008 1022 1022 1008 1051 1066 1051 1051 1051 1036 1022 1008 1022 1022 994 994 1008 994 994 1008 994 1008 968 994 994 981 981 0 0 0 0 0 0 0 0 0 0 0 0 294 290 292 290 288 287 285 285 285 281 283 280 280 279 279 278 287 289 290 290 290 289 289 289 295 293 294 295 295 295 294 294 0 623 608 598 537 529 525 493 0 0 0 399 399 379 383 389 389 389 391 387 381 383 391 381 367 367 369 369 366 369 373 375 375 377 381 381 387 393 391 381 379 385 383 369 353 359 360 350 350 353 353 353 353 357 347 347 0 0 955 943 931 968 981 0 0 0 0 0
    0 0 0 0 0 0 0 0 0 0 0 0 0 0 0 0 0 0 0 0 0 0 0 0 0 0 0 0 0 0 0 0 0 0 0 0 0 0 0 0 0 0 0 0 0 0 0 0 0 0 0 0 0 0 0 0 0 0 0 0 0 0 0 0 0 0 0 0 0 1008 1008 1036 1051 1051 1051 1051 1051 1036 1022 994 994 955 968 968 955 968 968 981 981 981 1008 994 994 1008 994 994 981 994 968 994 1008 1008 1022 1022 1022 1036 1022 1022 1022 1008 1008 1008 1008 994 981 968 981 955 968 955 955 955 968 981 981 981 1008 1008 1008 1022 1051 1022 1008 1022 1036 1008 994 1008 981 981 1008 994 981 981 981 981 968 968 981 968 955 981 981 981 981 994 994 1022 1008 1022 1008 1008 1008 1022 1008 1008 981 981 955 968 968 968 968 968 968 981 955 981 981 994 994 1008 1008 1008 994 1051 1051 1036 1036 1036 1022 1008 1008 1022 1008 994 994 994 968 981 981 968 968 943 968 968 955 955 0 0 0 0 0 0 0 0 0 0 0 0 0 290 292 290 289 287 285 284 285 283 283 280 280 279 279 278 287 289 290 290 290 289 289 289 295 294 294 295 295 295 294 293 0 639 613 603 0 0 0 0 0 0 0 404 399 381 387 391 389 389 393 387 383 385 391 385 367 369 371 369 367 371 375 377 379 381 385 383 389 395 391 383 381 385 385 371 359 359 360 353 352 353 355 357 357 360 353 353 0 663 897 876 876 897 943 0 0 0 0 0
    0 0 0 0 0 0 0 0 0 0 0 0 0 0 0 0 0 0 0 0 0 0 0 0 0 0 0 0 0 0 0 0 0 0 0 0 0 0 0 0 0 0 0 0 0 0 0 0 0 0 0 0 0 0 0 0 0 0 0 0 0 0 0 0 0 0 0 0 0 1008 1008 1051 1051 1066 1082 1066 1066 1051 1022 994 1008 943 968 968 943 955 955 968 968 968 981 981 981 994 981 981 968 981 968 994 1008 994 1008 1022 1022 1022 1008 1008 1008 1008 1008 981 981 981 968 955 981 943 968 955 955 955 968 981 981 981 1008 994 1008 1022 1051 1022 1008 1022 1022 1008 981 1008 981 968 994 981 968 968 968 968 968 968 968 955 955 968 968 968 968 981 994 1008 994 1008 1008 1008 1008 1008 994 994 981 981 943 955 955 955 955 955 955 968 943 968 968 981 981 994 994 1008 994 1051 1051 1036 1036 1036 1008 994 994 1008 994 981 981 968 955 968 955 955 955 919 955 943 931 919 0 0 0 0 0 0 0 0 0 0 0 0 0 0 292 293 289 288 286 284 285 283 281 279 279 279 278 278 287 289 292 292 290 289 289 289 296 294 294 295 294 294 293 292 0 657 618 598 0 0 518 0 0 0 0 406 402 383 389 391 391 391 391 387 383 385 393 381 367 369 369 367 366 369 373 377 377 381 383 383 389 395 393 385 381 383 385 375 360 359 359 355 353 355 359 359 360 362 359 360 0 0 0 0 0 0 886 0 0 0 0 0
    0 0 0 0 0 0 0 0 0 0 0 0 0 0 0 0 0 0 0 0 0 0 0 0 0 0 0 0 0 0 0 0 0 0 0 0 0 0 0 0 0 0 0 0 0 0 0 0 0 0 0 0 0 0 0 0 0 0 0 0 0 0 0 0 0 0 0 0 0 1008 1008 1051 1066 1082 1115 1098 1066 1066 1022 0 994 931 955 955 931 943 931 955 955 955 968 955 955 981 968 981 968 981 968 994 994 994 1008 1022 1022 1008 994 994 994 994 994 955 968 955 955 931 955 931 955 943 943 955 968 981 981 968 994 981 994 1008 1022 1008 994 1008 1008 981 968 994 968 955 981 968 955 955 955 968 955 955 955 943 943 955 955 955 955 968 981 994 981 994 994 994 994 994 981 981 968 968 931 943 943 955 955 955 943 968 931 955 955 968 981 981 994 994 981 1051 1036 1036 1036 1036 1008 981 981 994 981 955 968 955 931 955 943 943 943 919 955 931 908 908 0 0 0 0 0 0 0 0 0 0 0 0 0 0 293 294 292 289 286 285 285 283 281 279 278 278 277 278 287 289 292 292 292 290 290 290 297 295 296 295 294 294 293 292 681 669 629 593 545 0 504 471 0 0 0 411 402 383 389 391 391 391 391 387 383 385 393 377 367 369 371 367 364 367 371 375 375 379 379 381 389 393 391 383 379 383 383 377 362 359 359 357 355 357 360 360 362 364 362 362 362 0 0 0 0 0 0 0 0 0 0 0
    0 0 0 0 0 0 0 0 0 0 0 0 0 0 0 0 0 0 0 0 0 0 0 0 0 0 0 0 0 0 0 0 0 0 0 0 0 0 0 0 0 0 0 0 0 0 0 0 0 0 0 0 0 0 0 0 0 0 0 0 0 0 0 0 0 0 0 0 0 0 0 1036 1051 0 1168 0 0 1051 1022 943 981 908 931 931 908 919 919 931 943 931 943 931 919 955 943 0 0 0 0 1008 994 994 1008 1022 1008 1008 981 981 968 968 981 919 919 931 943 908 943 908 943 931 931 955 955 968 968 955 981 968 968 994 994 994 968 1008 994 981 955 994 943 943 968 943 931 943 943 943 931 931 943 919 931 943 943 931 943 955 968 968 955 994 981 994 994 981 981 981 968 968 908 931 931 943 943 943 931 943 908 955 943 955 968 981 981 981 981 1036 1036 1036 1036 1022 994 955 968 994 968 943 968 955 931 955 943 943 943 931 955 919 897 0 0 0 0 0 0 0 0 0 0 0 0 0 0 0 294 294 292 289 287 285 285 283 281 279 278 278 277 279 287 289 290 292 290 290 290 290 297 295 296 295 294 293 293 0 687 669 634 593 557 549 514 468 0 0 420 408 399 383 391 393 391 391 391 387 385 385 393 377 369 371 371 369 366 369 373 377 379 381 379 383 389 393 391 383 379 381 383 381 364 359 359 359 357 357 360 362 362 364 364 364 364 0 0 0 0 0 634 0 0 0 0 0
    0 0 0 0 0 0 0 0 0 0 0 0 0 0 0 0 0 0 0 0 0 0 0 0 0 0 0 0 0 0 0 0 0 0 0 0 0 0 0 0 0 0 0 0 0 0 0 0 0 0 0 0 0 0 0 0 0 0 0 0 0 0 0 0 0 0 0 0 0 0 0 0 0 0 0 669 663 0 0 0 968 886 919 908 886 897 897 908 919 908 919 897 0 0 0 161 0 0 160 0 994 1008 1008 1036 1008 1022 981 994 955 0 0 897 886 0 919 0 0 0 931 908 919 955 955 968 968 955 981 955 955 0 0 0 0 0 0 0 0 0 0 931 955 919 908 919 919 931 908 897 908 886 897 908 908 897 897 931 955 943 919 968 968 968 981 981 955 968 955 955 886 908 908 919 919 919 908 919 897 943 931 931 943 968 968 981 968 1036 1036 1022 1036 1008 943 886 908 955 943 919 955 955 931 943 943 943 931 931 955 908 876 0 0 0 0 0 0 0 0 0 0 0 0 0 0 0 296 296 293 290 287 286 286 283 281 280 280 280 278 281 288 289 290 290 290 290 290 292 297 295 296 294 292 292 292 289 687 669 618 593 574 561 533 0 0 0 411 399 399 383 391 391 391 391 391 387 385 385 393 375 369 371 371 369 367 369 373 377 381 381 377 383 389 0 389 381 377 379 383 385 364 357 359 359 357 355 360 362 362 364 364 364 364 0 0 0 0 0 629 0 0 0 0 0
    0 0 0 0 0 0 0 0 0 0 0 0 0 0 0 0 0 0 0 0 0 0 0 0 0 0 0 0 0 0 0 0 0 0 0 0 0 0 0 0 0 0 0 0 0 0 0 0 0 0 0 0 0 0 0 0 0 0 0 0 0 0 0 0 0 0 0 0 0 0 0 0 0 0 0 669 669 681 0 0 919 865 897 886 865 876 876 897 908 897 897 0 165 164 163 162 0 0 0 0 0 0 0 0 0 0 981 981 919 0 0 0 0 0 0 0 0 0 0 0 0 968 955 0 981 955 0 0 0 0 0 0 0 0 73 0 0 0 0 0 0 0 886 897 897 908 886 876 886 865 0 0 876 876 0 0 931 886 865 943 919 0 0 0 0 908 0 931 855 886 886 897 908 908 897 908 886 931 919 919 931 955 955 955 955 1008 994 981 1022 955 845 826 791 808 836 0 908 897 886 0 0 0 0 919 943 886 0 0 0 0 0 0 0 0 0 0 244 0 0 0 300 299 296 296 293 290 288 287 286 283 281 280 280 280 279 284 289 290 292 293 292 292 292 293 297 296 296 295 293 292 290 289 0 675 608 593 584 561 541 0 0 0 404 0 397 0 391 391 389 391 391 387 385 385 393 373 369 371 371 369 367 367 371 375 0 377 373 381 389 0 389 381 377 379 383 383 364 357 357 359 357 355 359 360 362 362 364 364 362 0 0 0 0 0 651 0 0 0 0 0
    0 0 0 0 0 0 0 0 0 0 0 0 0 0 0 0 0 0 0 0 0 0 0 0 0 0 0 0 0 0 0 0 0 0 0 0 0 0 0 0 0 0 0 0 0 0 0 0 0 0 0 0 0 0 0 0 0 0 0 0 0 0 0 0 0 0 0 0 0 0 0 0 0 0 0 669 675 675 687 657 0 0 0 865 0 0 0 876 876 876 0 0 164 0 163 162 162 0 663 663 669 663 0 0 0 0 0 0 0 0 0 0 687 0 0 0 0 0 0 0 0 0 0 0 0 0 0 0 0 0 0 0 0 0 0 0 0 651 669 657 0 0 855 865 876 886 865 855 865 0 140 0 0 0 140 0 0 855 836 0 0 0 0 0 0 0 0 0 0 0 865 876 886 886 886 886 876 919 908 897 897 931 943 931 931 994 886 0 0 0 721 700 700 687 700 0 0 0 0 0 0 0 0 0 0 0 0 0 0 0 0 0 0 0 0 0 245 0 0 302 299 299 296 296 293 290 288 287 286 283 281 280 280 280 280 285 290 290 292 293 293 293 292 293 296 295 295 293 292 289 289 289 0 0 608 603 598 574 549 0 0 0 0 0 0 0 0 389 389 389 391 387 385 385 393 373 371 373 371 369 367 367 369 0 0 375 371 379 0 0 389 381 377 379 381 381 364 357 359 360 357 355 360 362 364 362 364 366 362 0 0 0 0 0 651 0 0 0 0 0
    0 0 0 0 0 0 0 0 0 0 0 0 0 0 0 0 0 0 0 0 0 0 0 0 0 0 0 0 0 0 0 0 0 0 0 0 0 0 0 0 0 0 0 0 0 0 0 0 0 0 0 0 0 0 0 0 0 0 0 0 0 0 0 0 0 0 0 0 0 0 0 0 663 663 663 669 675 669 687 651 634 639 651 0 675 0 0 0 0 0 0 0 164 0 0 0 0 657 657 657 663 657 657 0 0 0 0 681 0 687 0 687 675 669 663 669 669 669 663 681 657 0 0 0 0 0 0 0 0 0 0 0 0 0 0 669 663 651 669 663 0 0 0 0 0 855 845 0 0 0 0 0 0 0 0 0 0 0 707 0 0 0 0 0 0 0 0 0 700 0 0 865 865 865 876 876 865 897 886 886 876 908 908 897 897 0 817 694 681 687 687 687 687 675 687 0 0 87 87 87 0 0 0 0 0 0 0 0 0 0 0 0 0 0 0 0 0 0 0 302 300 299 297 296 294 292 289 288 286 283 280 280 280 279 280 285 289 290 290 292 292 290 290 292 295 294 294 293 290 288 288 0 0 0 0 629 618 598 579 557 0 0 0 0 0 0 389 389 387 389 391 389 387 387 393 375 371 373 371 369 367 367 367 0 0 371 369 375 383 387 387 383 377 379 377 375 364 357 357 359 357 355 359 362 362 362 364 364 364 0 0 0 0 694 663 0 0 0 0 0
    0 0 0 0 0 0 0 0 0 0 0 0 0 0 0 0 0 0 0 0 0 0 0 0 0 0 0 0 0 0 0 0 0 0 0 0 0 0 0 0 0 0 0 0 0 0 0 0 0 0 0 0 0 0 0 0 0 0 0 0 0 0 0 0 0 0 0 0 0 634 645 645 645 651 651 657 669 663 681 645 634 634 651 663 657 657 669 663 0 0 0 0 0 0 663 651 663 657 651 651 663 651 657 663 669 669 669 663 675 675 657 675 669 657 657 663 663 663 651 675 645 0 0 0 0 0 0 0 0 0 0 0 669 663 657 663 663 645 669 663 669 0 681 681 694 0 782 700 700 687 0 681 0 0 681 675 0 694 694 681 0 0 681 669 687 687 681 687 687 687 694 0 845 845 855 855 855 876 876 865 845 876 876 876 876 0 707 681 663 675 675 681 681 669 681 669 675 0 87 87 87 0 0 0 0 0 0 0 0 0 0 0 0 0 0 0 0 0 309 302 300 299 297 296 294 293 290 289 287 283 279 280 279 279 280 286 289 289 289 290 290 290 289 290 293 293 293 292 289 286 285 0 0 0 0 629 618 603 588 570 557 0 0 0 395 377 391 389 389 391 393 391 389 387 393 377 373 373 369 369 366 366 366 0 0 367 367 371 377 383 383 381 377 379 375 371 362 357 357 359 359 355 359 360 362 362 362 362 362 0 0 0 669 675 663 0 0 0 0 0
    0 0 0 0 0 0 0 0 0 0 0 0 0 0 0 0 0 0 0 0 0 0 0 0 0 0 0 0 0 0 0 0 0 0 0 0 0 0 0 0 0 0 0 0 0 0 0 0 0 0 0 0 0 0 0 0 0 0 0 0 0 0 0 0 0 0 0 0 0 634 639 645 639 645 645 645 663 651 669 645 639 634 651 657 657 651 663 663 669 669 681 645 663 657 657 651 657 651 651 651 663 651 657 657 657 657 657 651 657 657 645 663 657 651 651 657 657 657 651 669 639 639 663 663 0 0 0 0 0 0 663 651 663 663 651 663 663 645 669 669 669 675 675 675 687 694 707 687 687 681 675 675 681 675 675 669 681 687 687 669 687 675 675 663 675 675 669 681 681 675 681 687 0 700 0 0 0 855 855 845 782 0 0 0 0 0 694 675 657 669 669 675 681 663 675 663 669 0 0 0 0 0 0 0 0 0 0 0 0 0 0 0 125 125 0 0 325 311 309 304 300 299 297 296 295 293 292 290 287 283 279 279 279 279 281 287 289 289 290 290 292 292 290 290 292 292 292 290 288 284 0 0 0 0 651 639 629 608 588 570 566 557 0 0 395 377 389 391 391 393 393 391 391 389 393 377 373 371 369 369 366 366 366 367 366 367 367 371 373 377 381 381 377 377 371 367 359 357 355 355 357 355 357 360 360 360 360 362 364 0 0 0 657 669 663 0 0 0 0 0
    0 0 0 0 0 0 0 0 0 0 0 0 0 0 0 0 0 0 0 0 0 0 0 0 0 0 0 0 0 0 0 0 0 0 0 0 0 0 0 0 0 0 0 0 0 0 0 0 0 0 0 0 0 0 0 0 0 0 0 0 0 0 0 0 0 0 0 0 0 639 645 651 645 651 645 645 657 645 663 645 645 634 657 663 657 651 657 663 663 663 669 639 651 651 657 651 651 651 651 651 663 651 657 657 651 651 645 639 651 651 639 657 657 645 645 651 657 651 645 663 639 639 651 651 645 657 645 657 657 657 657 651 657 657 651 663 663 645 663 669 669 669 675 675 681 681 694 675 675 669 669 669 675 669 669 657 675 675 675 669 675 663 669 657 675 669 663 675 675 669 675 675 694 681 687 687 681 694 0 0 694 681 681 669 681 681 675 669 651 663 663 669 675 651 669 657 657 675 669 0 0 0 681 669 681 681 657 0 0 0 0 0 0 0 0 0 0 311 309 305 300 300 299 297 295 294 293 290 286 283 280 280 280 281 285 289 290 292 292 293 293 293 292 290 292 292 292 290 289 285 281 0 0 0 651 639 629 608 593 574 579 0 0 0 395 381 389 391 391 393 395 393 391 389 391 377 373 371 369 369 367 367 367 367 367 367 367 371 371 375 377 377 377 375 367 362 357 355 353 352 355 353 353 357 359 357 357 360 0 0 0 0 639 639 645 0 0 0 0 0
    0 0 0 0 0 0 0 0 0 0 0 0 0 0 0 0 0 0 0 0 0 0 0 0 0 0 0 0 0 0 0 0 0 0 0 0 0 0 0 0 0 0 0 0 0 0 0 0 0 0 0 0 0 0 0 0 0 0 0 0 0 0 0 0 0 0 0 0 0 639 651 657 651 651 651 651 663 651 669 651 651 639 663 663 663 657 663 663 663 663 675 639 651 651 657 657 657 657 657 657 663 657 657 657 657 651 645 639 651 651 639 657 657 645 645 651 657 651 651 663 639 639 651 651 645 651 639 651 651 645 651 651 657 657 651 663 669 651 669 669 669 669 669 669 675 675 687 669 669 663 663 663 669 663 663 657 669 669 669 663 669 657 663 651 669 663 657 669 669 663 675 669 687 669 675 675 669 681 687 687 675 669 675 657 669 669 669 663 645 657 657 663 669 645 663 651 657 663 657 669 657 663 669 657 669 663 645 0 0 0 0 0 0 0 0 0 325 311 310 306 301 301 300 297 295 295 294 292 286 284 281 281 284 286 289 292 293 293 293 294 294 294 292 290 290 289 289 288 288 284 280 0 0 0 639 639 634 608 593 574 584 0 0 0 397 385 389 391 391 393 395 393 391 387 387 379 373 371 369 371 369 369 369 371 369 369 371 373 373 375 375 377 375 371 364 359 353 353 350 348 350 350 348 352 353 352 353 0 0 634 623 613 623 623 629 0 0 0 0 0
    0 0 0 0 0 0 0 0 0 0 0 0 0 0 0 0 0 0 0 0 0 0 0 0 0 0 0 0 0 0 0 0 0 0 0 0 0 0 0 0 0 0 0 0 0 0 0 0 0 0 0 0 0 0 0 0 0 0 0 0 0 0 0 0 0 0 0 0 0 645 657 657 651 657 651 657 669 657 669 651 657 639 663 669 663 657 663 663 669 663 675 639 651 657 663 663 663 663 663 663 669 663 663 663 663 657 651 645 657 651 645 657 657 645 645 651 657 651 651 663 639 639 651 645 639 645 639 645 645 639 645 645 657 657 645 663 669 645 669 675 669 669 669 669 669 675 687 663 663 657 663 663 669 663 663 651 669 669 669 663 669 657 663 651 669 663 657 669 663 663 669 669 681 663 675 669 663 675 681 675 669 657 663 651 663 663 663 663 645 651 651 663 669 645 663 651 657 663 657 663 651 657 663 651 663 651 639 0 0 0 0 0 0 0 0 0 325 313 313 307 304 302 300 299 296 296 295 292 286 285 281 283 289 290 293 294 295 295 295 296 296 295 294 290 289 289 289 288 287 283 278 0 0 623 629 634 634 608 593 579 588 0 0 0 408 391 391 393 393 395 395 393 391 383 383 381 373 369 369 373 371 371 371 371 371 371 373 377 373 375 375 377 375 369 362 355 353 352 350 347 350 348 347 348 350 348 0 584 0 629 618 608 618 618 623 0 0 0 0 0
    0 0 0 0 0 0 0 0 0 0 0 0 0 0 0 0 0 0 0 0 0 0 0 0 0 0 0 0 0 0 0 0 0 0 0 0 0 0 0 0 0 0 0 0 0 0 0 0 0 0 0 0 0 0 0 0 0 0 0 0 0 0 0 0 0 0 0 0 0 651 651 657 651 657 651 651 663 651 663 651 657 634 663 669 669 657 663 663 669 663 675 645 645 657 663 663 663 663 663 663 669 669 663 669 663 663 657 651 663 657 651 663 663 651 651 651 657 651 651 663 634 634 645 645 634 639 634 645 639 639 639 639 645 651 645 663 663 645 663 675 669 669 669 669 669 669 681 663 657 657 663 663 669 663 663 651 669 669 669 663 669 657 663 651 669 663 657 663 663 663 669 663 675 657 669 663 663 675 675 675 663 657 663 651 669 663 663 663 651 657 651 663 663 645 663 651 657 663 657 669 657 663 663 651 663 651 634 0 0 0 0 0 0 0 0 342 324 314 313 309 304 302 301 299 297 297 296 292 285 285 281 284 296 293 296 296 297 297 297 297 297 296 295 292 290 289 288 288 288 281 275 0 0 623 629 629 629 608 593 584 593 0 0 0 415 391 391 395 397 395 395 395 391 381 381 381 373 369 371 373 371 371 371 373 371 373 375 379 375 377 377 377 373 367 360 353 355 353 348 347 350 350 345 345 347 0 561 584 0 623 613 603 613 613 618 0 0 0 0 0
    0 0 0 0 0 0 0 0 0 0 0 0 0 0 0 0 0 0 0 0 0 0 0 0 0 0 0 0 0 0 0 0 0 0 0 0 0 0 0 0 0 0 0 0 0 0 0 0 0 0 0 0 0 0 0 0 0 0 0 0 0 0 0 0 0 0 0 0 0 651 657 657 651 657 645 645 657 639 651 639 651 634 663 669 669 663 663 663 669 663 675 639 639 651 657 663 663 657 663 657 663 663 663 663 657 657 651 645 663 657 651 663 663 651 645 651 657 651 645 657 623 629 639 645 629 639 629 639 634 634 634 639 639 645 639 657 651 639 657 669 663 663 663 663 657 663 681 657 651 651 657 657 669 663 663 651 669 663 669 663 663 657 663 651 669 657 657 663 657 657 663 663 675 651 669 663 663 675 675 669 663 657 663 657 675 675 675 675 657 669 657 669 663 645 663 651 657 663 657 669 657 663 663 657 663 645 634 0 0 0 0 0 0 355 348 340 322 314 314 310 306 304 302 300 299 300 300 293 286 288 280 0 297 295 296 296 297 297 296 297 296 295 295 292 290 288 288 287 287 280 0 0 0 623 623 629 618 603 593 588 593 584 566 0 0 0 0 397 397 397 397 395 391 381 381 383 373 369 371 373 371 371 373 373 373 373 377 381 379 379 379 377 373 367 359 355 355 352 348 347 350 350 345 345 0 584 566 588 613 618 613 603 603 603 608 0 0 0 0 0
    0 0 0 0 0 0 0 0 0 0 0 0 0 0 0 0 0 0 0 0 0 0 0 0 0 0 0 0 0 0 0 0 0 0 0 0 0 0 0 0 0 0 0 0 0 0 0 0 0 0 0 0 0 0 0 0 0 0 0 0 0 0 0 0 0 0 0 0 0 645 651 651 639 645 639 634 645 629 639 634 639 629 663 669 669 663 663 663 663 663 675 639 639 651 657 663 663 657 657 657 663 663 657 651 639 639 634 639 651 651 645 657 663 651 645 651 651 645 639 645 618 618 629 634 623 634 629 639 634 634 629 634 639 645 634 645 645 629 645 663 657 657 651 657 651 657 669 651 639 639 651 651 657 657 657 645 669 657 663 657 663 657 657 651 669 651 651 657 651 651 657 657 669 639 663 657 663 675 675 675 669 657 669 663 681 687 687 681 669 669 657 675 663 645 663 651 657 663 657 669 657 663 669 657 663 645 0 0 0 0 0 0 0 0 345 339 322 314 315 313 310 307 307 304 304 307 307 294 288 288 280 299 299 297 297 297 297 297 297 297 296 295 295 292 289 288 287 287 0 0 0 618 618 618 618 618 613 603 593 588 588 579 566 545 0 0 0 402 397 397 397 395 391 379 381 383 373 371 371 373 373 373 373 373 373 375 379 381 379 381 379 377 371 366 359 357 357 355 352 348 352 350 343 343 0 588 566 588 608 618 608 598 598 593 598 0 0 0 0 0
    0 0 0 0 0 0 0 0 0 0 0 0 0 0 0 0 0 0 0 0 0 0 0 0 0 0 0 0 0 0 0 0 0 0 0 0 0 0 0 0 0 0 0 0 0 0 0 0 0 0 0 0 0 0 0 0 0 0 0 0 0 0 0 0 0 0 0 0 0 639 645 639 0 0 623 623 629 618 623 618 623 623 651 669 663 657 663 663 663 663 675 639 634 651 657 663 663 657 651 651 651 651 634 629 623 618 618 623 634 634 634 651 657 645 645 645 645 639 634 634 613 613 613 623 613 629 623 634 629 629 623 629 634 639 629 639 634 623 634 651 639 639 639 639 639 645 657 639 629 629 634 634 645 645 639 634 663 651 651 657 657 651 657 651 669 645 651 657 645 651 645 645 657 634 657 645 651 669 669 669 657 651 663 657 681 687 687 687 669 663 657 669 657 645 657 645 657 657 657 663 651 663 663 651 663 639 0 0 0 0 0 0 0 0 345 337 319 314 314 313 311 310 310 307 307 311 313 297 292 290 297 300 300 300 300 300 300 300 300 299 297 296 296 294 292 290 289 0 0 0 0 0 618 618 618 613 603 598 588 588 593 579 570 549 0 0 0 404 397 397 397 395 389 377 379 383 373 371 373 373 373 373 377 375 377 377 381 383 381 381 379 373 369 362 357 355 357 355 352 350 353 350 343 343 613 588 561 579 588 593 588 584 574 570 574 0 0 0 0 0
    0 0 0 0 0 0 0 0 0 0 0 0 0 0 0 0 0 0 0 0 0 0 0 0 0 0 0 0 0 0 0 0 0 0 0 0 0 0 0 0 0 0 0 0 0 0 0 0 0 0 0 0 0 0 0 0 0 0 0 0 0 0 0 0 0 0 0 0 0 629 634 629 0 0 613 608 613 608 608 608 0 0 639 663 657 651 657 651 651 651 663 629 623 639 0 651 657 645 639 639 634 634 613 608 603 603 603 608 618 623 629 639 645 639 639 639 634 634 629 623 608 608 608 618 608 623 613 623 623 623 618 623 629 634 623 629 623 613 623 639 629 629 629 629 629 634 639 629 618 618 623 623 629 634 629 629 651 639 639 651 645 651 651 645 663 645 645 651 634 639 634 639 645 629 639 629 634 645 651 651 639 634 651 639 687 694 687 681 651 645 639 657 639 634 645 639 645 651 651 657 639 651 651 645 651 634 629 0 0 0 0 0 0 0 345 336 319 315 315 314 313 311 311 311 311 314 315 305 296 296 300 301 302 302 302 302 301 301 302 300 299 297 297 295 293 293 292 290 0 0 0 618 623 618 618 608 603 593 593 588 593 584 574 561 0 0 0 0 397 397 395 393 385 375 379 381 373 371 375 375 375 375 379 377 377 381 385 385 383 381 377 371 366 360 355 355 357 355 352 352 352 348 343 343 608 584 561 566 561 561 561 561 557 557 557 0 0 0 0 0
    0 0 0 0 0 0 0 0 0 0 0 0 0 0 0 0 0 0 0 0 0 0 0 0 0 0 0 0 0 0 0 0 0 0 0 0 0 0 0 0 0 0 0 0 0 0 0 0 0 0 0 0 0 0 0 0 0 0 0 0 0 0 0 0 0 0 0 0 0 613 618 613 603 603 603 598 603 598 598 598 593 0 0 651 645 639 639 639 634 634 639 613 608 623 0 0 634 629 623 629 623 618 603 598 593 588 593 598 603 608 618 629 634 634 634 634 629 623 618 608 598 598 598 608 603 613 608 613 613 613 608 613 618 623 613 613 613 603 613 623 618 618 618 618 618 623 629 618 608 608 608 613 618 623 618 618 634 629 629 639 634 639 639 645 651 634 645 645 629 629 629 629 629 618 629 618 618 623 623 623 618 613 613 608 618 675 0 618 618 623 618 639 629 623 634 634 639 639 639 645 634 639 645 639 645 629 623 0 0 0 0 0 0 0 343 333 321 318 318 315 314 314 314 314 314 0 0 0 0 0 301 302 304 304 304 304 304 304 306 301 299 297 296 296 293 293 292 290 0 0 0 613 618 613 613 603 598 588 588 584 588 579 574 561 553 0 0 0 397 395 393 391 381 373 379 381 373 373 375 375 375 377 381 379 379 383 387 385 381 381 375 369 364 359 357 357 357 355 355 353 353 350 345 345 608 579 557 557 557 553 553 557 553 553 553 0 0 0 0 0
    0 0 0 0 0 0 0 0 0 0 0 0 0 0 0 0 0 0 0 0 0 0 0 0 0 0 0 0 0 0 0 0 0 0 0 0 0 0 0 0 0 0 0 0 0 0 0 0 0 0 0 0 0 0 0 0 0 0 0 0 0 0 0 0 0 0 0 0 0 593 593 593 584 593 593 588 588 588 588 588 584 593 0 0 623 623 623 623 618 623 623 603 598 613 613 0 613 618 608 613 613 608 593 588 584 584 584 593 593 598 608 618 623 623 623 623 0 608 603 598 588 584 588 603 598 608 608 608 608 608 608 608 603 613 603 598 598 584 598 608 608 608 603 608 608 608 623 608 603 598 603 603 613 618 608 613 623 618 623 629 629 634 634 639 639 629 639 634 623 623 618 618 618 613 613 608 603 0 608 608 603 593 588 593 588 598 584 588 593 603 598 618 613 618 623 623 629 634 634 634 623 629 634 629 634 623 0 0 0 0 0 0 0 0 0 328 322 321 321 318 317 315 315 315 315 0 0 0 0 0 301 304 305 305 305 305 305 305 309 301 297 296 296 296 294 293 292 290 0 0 0 0 0 613 608 598 593 584 584 579 579 570 570 557 553 0 0 0 397 395 393 391 381 373 379 381 373 375 377 377 377 377 383 379 381 385 387 385 381 379 373 367 362 359 359 359 359 359 357 357 355 353 348 350 598 574 553 553 553 553 553 557 553 553 553 0 0 0 0 0
    0 0 0 0 0 0 0 0 0 0 0 0 0 0 0 0 0 0 0 0 0 0 0 0 0 0 0 0 0 0 0 0 0 0 0 0 0 0 0 0 0 0 0 0 0 0 0 0 0 0 0 0 0 0 0 0 0 0 0 0 0 0 0 0 0 0 0 0 0 584 584 584 574 584 584 579 579 579 584 579 574 584 0 0 603 608 608 608 603 603 603 598 588 598 598 603 598 603 598 603 603 603 588 584 579 574 579 584 588 588 598 608 608 613 613 0 0 593 584 584 574 570 579 593 593 603 603 608 608 608 603 603 598 603 593 588 588 574 584 593 593 593 593 598 598 598 608 603 593 588 593 588 603 608 598 598 613 608 613 618 618 623 623 629 629 623 629 623 613 613 608 608 608 608 608 603 598 603 603 598 598 588 579 584 579 588 574 579 579 588 588 603 603 608 618 618 623 623 623 629 0 618 623 618 623 613 0 0 0 0 0 0 0 0 0 322 321 321 321 318 317 315 315 315 319 353 328 0 0 296 304 306 306 306 306 306 306 306 310 301 297 297 297 297 296 296 295 293 0 0 0 0 0 608 608 593 588 584 584 579 574 570 566 561 557 529 0 0 0 397 395 393 381 373 379 379 373 375 377 377 377 379 383 381 381 387 389 383 379 377 371 366 360 360 360 360 360 360 360 359 359 357 355 0 579 566 553 553 553 553 549 553 549 549 553 0 0 0 0 0
    0 0 0 0 0 0 0 0 0 0 0 0 0 0 0 0 0 0 0 0 0 0 0 0 0 0 0 0 0 0 0 0 0 0 0 0 0 0 0 0 0 0 0 0 0 0 0 0 0 0 0 0 0 0 0 0 0 0 0 0 0 0 0 0 0 0 0 0 0 574 579 574 566 579 579 574 574 570 579 574 570 584 553 579 584 588 598 593 593 593 588 588 579 584 584 584 579 584 579 588 588 588 579 574 570 570 579 579 584 584 584 593 598 603 598 584 0 574 566 566 566 561 566 584 584 603 598 603 608 608 603 603 593 598 588 584 584 570 579 584 588 588 584 588 588 588 603 593 588 584 588 579 588 603 584 584 593 598 598 603 608 608 608 618 613 613 0 613 608 603 603 603 603 603 598 598 593 598 598 593 593 584 574 579 574 584 566 574 574 588 584 593 598 598 608 613 613 613 613 618 0 0 613 608 613 603 0 0 0 0 0 0 0 0 0 0 318 318 318 317 315 314 313 313 315 353 328 0 0 297 305 306 307 307 306 306 306 307 311 300 296 297 299 299 297 296 296 295 295 288 277 272 0 608 608 593 588 584 584 574 570 566 566 557 557 525 0 0 0 397 395 395 383 373 379 377 375 377 377 377 377 379 383 381 383 389 389 381 377 375 369 362 360 362 362 360 362 360 360 362 360 360 359 359 561 561 549 549 549 549 549 553 545 549 549 0 0 0 0 0
    0 0 0 0 0 0 0 0 0 0 0 0 0 0 0 0 0 0 0 0 0 0 0 0 0 0 0 0 0 0 0 0 0 0 0 0 0 0 0 0 0 0 0 0 0 0 0 0 0 0 0 0 0 0 0 0 0 0 0 0 0 0 0 0 0 0 0 0 0 566 566 570 561 574 574 570 570 570 574 574 570 584 557 570 570 570 579 579 579 579 574 579 570 579 579 579 579 584 579 588 584 588 579 574 566 566 574 574 574 579 579 584 584 588 584 566 570 561 557 561 561 557 561 579 584 593 593 598 603 603 598 598 588 598 584 579 584 566 574 579 579 579 579 584 579 579 598 588 588 579 584 579 584 598 574 574 579 584 588 593 593 593 593 598 598 598 603 603 593 588 598 593 593 598 588 588 584 593 593 584 584 579 570 574 574 579 566 574 570 584 584 588 593 588 598 598 598 598 603 603 588 598 598 593 598 593 0 0 0 0 0 0 0 0 0 0 319 319 319 318 317 315 315 315 322 353 328 0 0 299 306 306 306 307 306 306 306 309 311 299 296 297 299 299 297 297 296 296 296 293 284 278 268 608 603 584 584 579 579 570 561 557 557 557 553 518 471 432 0 404 397 397 385 375 381 377 375 379 379 379 377 381 385 381 385 389 387 379 375 373 366 362 362 362 362 362 362 362 362 364 362 362 360 0 541 549 545 545 545 545 545 545 541 541 541 0 0 0 0 0
    0 0 0 0 0 0 0 0 0 0 0 0 0 0 0 0 0 0 0 0 0 0 0 0 0 0 0 0 0 0 0 0 0 0 0 0 0 0 0 0 0 0 0 0 0 0 0 0 0 0 0 0 0 0 0 0 0 0 0 0 0 0 0 0 0 0 0 0 0 566 566 570 561 574 570 570 570 570 574 574 570 588 561 570 570 566 574 570 574 574 566 570 566 574 579 574 574 579 574 584 584 584 574 570 561 566 570 570 574 574 574 579 579 588 579 561 570 566 557 557 561 561 561 574 579 588 588 593 598 598 593 598 584 593 579 579 579 561 574 574 574 579 574 579 574 574 598 588 588 579 584 574 579 593 566 570 570 570 574 579 579 579 579 588 584 588 588 588 584 579 593 588 588 593 584 584 579 588 588 579 574 579 570 570 570 574 566 574 570 584 584 584 588 579 588 588 588 588 588 588 574 584 588 584 588 584 0 0 0 0 0 0 0 0 0 0 321 321 319 318 318 317 317 317 0 0 313 306 296 300 307 307 307 307 306 307 306 309 313 299 297 299 300 300 300 299 299 297 297 0 0 284 0 608 603 574 584 579 579 566 557 557 0 553 553 0 462 427 408 406 402 402 387 377 381 377 377 381 379 379 379 381 385 383 387 389 385 377 373 369 364 360 362 362 362 362 362 362 364 366 364 362 362 0 533 537 537 537 541 537 537 537 533 537 537 0 0 0 0 0
    0 0 0 0 0 0 0 0 0 0 0 0 0 0 0 0 0 0 0 0 0 0 0 0 0 0 0 0 0 0 0 0 0 0 0 0 0 0 0 0 0 0 0 0 0 0 0 0 0 0 0 0 0 0 0 0 0 0 0 0 0 0 0 0 0 0 0 0 0 566 566 570 561 574 574 570 570 570 574 574 570 588 566 570 570 570 574 574 574 574 566 570 570 574 579 574 570 574 570 579 574 574 566 566 557 566 570 570 574 574 579 579 579 588 584 561 574 570 561 561 566 566 566 574 584 584 584 593 598 593 593 593 584 593 574 579 579 561 574 574 574 574 574 579 570 574 598 584 588 584 588 579 584 593 561 566 566 561 566 570 574 570 570 579 574 579 584 584 574 570 588 584 584 588 579 584 579 584 588 574 574 579 570 570 566 574 566 570 570 579 579 579 584 570 584 584 574 579 579 579 566 579 579 574 579 574 0 0 0 0 0 0 0 0 0 0 322 322 321 319 319 318 318 319 333 315 306 306 297 302 307 309 307 307 307 307 307 310 311 300 299 300 302 304 302 301 300 299 300 0 0 0 0 608 603 566 579 579 579 561 553 0 0 549 553 507 457 427 408 408 404 404 389 379 383 377 379 381 379 381 379 383 385 383 389 391 385 377 371 366 360 359 360 360 360 360 360 360 364 366 364 362 0 537 533 533 533 537 537 537 537 533 533 533 537 0 0 0 0 0
    0 0 0 0 0 0 0 0 0 0 0 0 0 0 0 0 0 0 0 0 0 0 0 0 0 0 0 0 0 0 0 0 0 0 0 0 0 0 0 0 0 0 0 0 0 0 0 0 0 0 0 0 0 0 0 0 0 0 0 0 0 0 0 0 0 0 0 0 0 566 566 570 561 574 574 570 574 570 574 574 570 593 566 570 570 570 579 579 579 579 574 579 574 579 579 579 574 579 570 579 570 570 561 566 553 566 570 566 574 574 579 579 579 588 584 561 579 570 566 561 566 566 566 574 584 584 584 593 598 593 593 593 584 593 579 579 579 561 574 574 574 579 574 579 570 574 598 584 593 588 588 579 584 598 557 566 561 561 566 566 570 566 566 579 570 574 579 579 570 570 588 584 584 588 579 584 579 584 584 574 574 579 570 566 566 570 566 570 566 574 579 579 584 566 579 584 574 579 579 574 561 574 579 574 574 574 0 0 0 0 0 0 0 0 0 0 324 325 322 322 322 319 319 324 327 314 310 309 299 305 309 309 309 309 309 307 307 311 310 301 300 302 305 305 304 301 300 300 301 301 299 0 0 603 598 557 579 574 574 561 0 0 0 549 0 504 454 425 411 408 404 406 391 379 385 377 379 383 381 381 381 385 385 383 389 389 381 375 367 364 359 357 357 359 359 360 360 362 366 367 0 545 541 537 533 533 533 537 537 537 537 533 529 533 533 0 0 0 0 0
    0 0 0 0 0 0 0 0 0 0 0 0 0 0 0 0 0 0 0 0 0 0 0 0 0 0 0 0 0 0 0 0 0 0 0 0 0 0 0 0 0 0 0 0 0 0 0 0 0 0 0 0 0 0 0 0 0 0 0 0 0 0 0 0 0 0 0 0 0 566 561 570 557 574 574 570 574 570 574 574 570 593 566 566 570 570 584 584 584 584 579 579 574 584 584 579 574 574 574 579 574 579 566 566 549 566 570 570 574 574 579 579 579 588 584 561 579 570 566 561 566 561 566 570 584 584 584 593 598 593 593 598 584 593 579 584 584 566 579 579 574 584 579 584 570 574 598 584 588 588 584 574 584 593 557 566 561 561 561 561 566 566 566 579 566 574 579 579 566 570 588 584 579 588 579 584 579 584 584 574 574 579 570 566 570 570 566 570 566 574 574 574 584 561 574 579 570 579 579 570 561 574 574 574 574 570 0 0 0 0 0 0 0 0 0 322 324 324 321 321 319 318 318 319 315 311 309 306 301 306 309 310 309 309 309 309 309 311 309 301 300 304 306 305 302 301 300 301 302 302 299 289 0 593 588 553 574 574 570 557 0 0 0 0 0 497 454 425 411 408 406 408 393 383 385 377 381 385 383 383 383 387 387 385 391 389 377 371 366 360 355 353 353 353 357 359 359 364 369 0 537 537 537 537 533 533 533 537 537 537 537 529 529 533 533 0 0 0 0 0
    0 0 0 0 0 0 0 0 0 0 0 0 0 0 0 0 0 0 0 0 0 0 0 0 0 0 0 0 0 0 0 0 0 0 0 0 0 0 0 0 0 0 0 0 0 0 0 0 0 0 0 0 0 0 0 0 0 0 0 0 0 0 0 0 0 0 0 0 0 566 561 570 557 570 574 570 574 570 574 574 570 593 570 570 570 570 584 584 584 579 579 579 574 584 584 579 574 579 574 579 579 574 570 566 553 570 574 570 574 574 579 579 579 588 579 561 579 570 566 561 566 561 566 570 584 579 579 593 598 593 593 593 584 593 579 584 584 566 579 579 579 584 584 584 574 579 598 588 588 588 584 574 584 593 557 566 557 557 561 561 566 566 566 579 566 574 579 579 561 574 584 584 579 584 579 579 579 588 584 570 574 579 570 566 570 570 566 566 566 574 574 574 584 566 579 584 574 579 579 570 561 574 579 574 574 0 0 0 0 0 0 0 0 0 319 324 322 324 321 321 319 318 318 317 314 310 309 305 302 307 309 310 309 309 309 309 309 311 305 301 301 305 306 305 302 301 301 302 302 301 297 0 613 598 588 549 574 574 570 557 0 0 0 0 0 0 0 425 408 408 406 408 393 385 387 377 383 387 383 385 385 387 387 385 391 387 375 369 364 359 352 352 350 350 355 359 0 0 0 529 533 533 533 533 533 529 533 537 537 537 537 529 529 533 533 0 0 0 0 0
    0 0 0 0 0 0 0 0 0 0 0 0 0 0 0 0 0 0 0 0 0 0 0 0 0 0 0 0 0 0 0 0 0 0 0 0 0 0 0 0 0 0 0 0 0 0 0 0 0 0 0 0 0 0 0 0 0 0 0 0 0 0 0 0 0 0 0 0 0 557 557 566 553 570 574 570 574 570 574 579 574 593 574 570 579 579 588 588 588 584 584 579 579 584 588 579 566 570 570 570 584 574 574 566 553 574 579 570 574 574 579 579 579 588 579 561 579 574 566 561 570 566 566 570 584 579 579 588 598 593 593 593 584 588 579 584 579 566 579 579 579 584 584 584 574 579 598 588 588 588 584 579 584 593 561 570 561 561 566 566 570 566 566 579 570 574 579 579 561 570 584 579 574 579 579 579 579 588 584 570 574 584 570 566 570 570 570 566 566 574 574 574 584 566 584 584 579 584 584 574 566 579 574 574 570 0 0 0 0 0 0 0 0 0 319 325 324 324 321 321 319 318 318 315 313 309 310 304 304 307 309 309 309 309 307 309 310 311 305 302 304 307 307 306 304 302 302 302 302 301 297 0 613 598 588 553 579 579 574 561 0 0 0 0 0 0 0 425 406 408 406 408 395 387 389 379 385 387 385 385 385 387 385 383 391 379 373 369 364 359 350 352 350 350 357 0 529 514 529 529 533 529 529 529 529 525 529 533 533 533 537 525 529 533 537 0 0 0 0 0
    0 0 0 0 0 0 0 0 0 0 0 0 0 0 0 0 0 0 0 0 0 0 0 0 0 0 0 0 0 0 0 0 0 0 0 0 0 0 0 0 0 0 0 0 0 0 0 0 0 0 0 0 0 0 0 0 0 0 0 0 0 0 0 0 0 0 0 0 0 549 549 561 553 570 574 574 574 574 579 579 579 598 584 570 579 584 588 588 588 579 579 574 574 579 579 570 561 566 557 557 566 566 574 570 557 579 579 574 579 579 579 579 579 588 579 566 579 574 570 566 570 570 570 570 584 579 579 588 593 584 593 598 584 588 579 588 579 566 584 579 574 584 584 584 570 584 593 584 588 588 579 574 584 593 566 574 566 566 570 570 570 566 566 579 574 574 584 579 561 574 584 579 574 579 579 579 579 584 584 570 574 584 570 566 570 570 570 570 566 574 574 574 584 570 584 588 579 588 584 574 570 579 574 574 570 0 0 0 0 0 0 0 0 0 321 327 325 325 322 322 321 321 321 317 311 309 310 302 304 307 309 307 309 307 307 307 310 310 305 304 306 309 309 306 304 302 302 302 304 301 297 0 608 598 593 553 579 579 579 561 0 0 0 0 0 0 0 425 406 406 406 411 395 389 391 381 389 389 385 387 385 387 387 385 391 375 373 369 364 359 352 353 350 350 0 537 533 521 525 525 529 525 529 525 521 518 521 525 525 521 525 514 521 529 529 0 0 0 0 0
    0 0 0 0 0 0 0 0 0 0 0 0 0 0 0 0 0 0 0 0 0 0 0 0 0 0 0 0 0 0 0 0 0 0 0 0 0 0 0 0 0 0 0 0 0 0 0 0 0 0 0 0 0 0 0 0 0 0 0 0 0 0 0 0 0 0 0 0 0 0 0 561 549 566 574 574 574 574 579 579 579 593 584 570 579 584 584 588 584 584 584 579 579 579 584 574 566 566 549 0 0 0 0 0 0 0 0 574 579 579 584 579 579 588 584 570 579 574 570 566 574 570 566 566 579 574 0 579 584 574 588 598 584 584 574 588 579 0 584 574 574 579 584 584 570 579 593 579 584 584 579 574 584 593 566 574 566 566 570 570 574 570 570 584 579 584 588 584 566 574 584 584 574 579 584 579 579 584 579 570 574 584 574 566 570 570 570 566 566 570 574 574 584 574 584 588 584 588 588 574 574 579 574 574 566 0 0 0 0 0 0 0 0 321 322 328 325 327 325 325 322 322 322 318 311 310 310 304 306 309 309 309 309 309 307 307 310 309 306 304 307 310 309 307 302 302 302 302 304 301 297 0 603 593 588 553 579 579 579 561 0 0 0 0 0 0 0 425 408 408 408 413 395 391 391 383 389 389 387 387 385 387 387 383 391 377 375 371 366 360 355 357 352 0 0 533 529 518 521 521 525 521 525 525 521 514 514 518 514 511 514 507 514 518 521 0 0 0 0 0
    0 0 0 0 0 0 0 0 0 0 0 0 0 0 0 0 0 0 0 0 0 0 0 0 0 0 0 0 0 0 0 0 0 0 0 0 0 0 0 0 0 0 0 0 0 0 0 0 0 0 0 0 0 0 0 0 0 0 0 0 0 0 0 0 0 0 0 0 0 0 0 557 549 566 574 574 574 570 574 574 574 588 574 566 570 579 584 584 584 584 588 574 574 0 0 561 553 549 533 529 0 0 0 0 0 0 0 579 579 574 579 574 574 579 584 566 574 570 566 561 566 566 566 0 0 566 0 574 574 566 0 593 574 0 0 0 0 0 584 574 570 574 584 579 566 579 593 574 579 584 579 574 584 588 566 574 561 566 570 574 574 570 570 584 574 584 593 584 566 574 579 584 574 574 579 570 570 579 579 566 570 579 574 566 570 570 570 566 566 566 570 570 579 574 584 593 588 593 593 579 579 579 574 574 566 561 0 0 0 0 0 0 0 321 322 328 324 325 324 324 322 321 321 315 310 309 310 304 307 309 309 310 310 310 309 309 310 309 306 305 307 309 309 306 302 302 302 302 306 301 299 561 588 593 579 553 579 579 579 561 541 0 0 0 0 0 0 0 0 413 411 413 397 391 391 385 389 389 387 387 385 387 385 383 389 379 377 373 367 362 360 362 355 0 533 533 529 514 521 518 521 521 525 521 521 511 507 514 514 511 514 514 511 518 518 0 0 0 0 0
    0 0 0 0 0 0 0 0 0 0 0 0 0 0 0 0 0 0 0 0 0 0 0 0 0 0 0 0 0 0 0 0 0 0 0 0 0 0 0 0 0 0 0 0 0 0 0 0 0 0 0 0 0 0 0 0 0 0 0 0 0 0 0 0 0 0 0 0 0 0 0 549 541 557 566 566 566 561 566 566 561 579 557 553 557 557 557 561 561 574 579 566 561 0 0 0 0 537 514 514 518 521 529 0 541 0 0 0 570 566 570 566 561 561 574 557 561 561 557 553 553 549 549 0 0 545 545 549 0 545 570 593 561 0 0 0 0 0 570 557 553 557 570 561 557 570 584 566 566 574 570 570 584 593 570 579 566 570 574 574 574 570 566 584 570 579 593 584 566 570 574 574 566 570 566 561 561 566 566 561 561 574 0 566 574 570 566 561 566 566 566 566 574 574 584 593 593 593 593 579 579 579 574 574 566 561 0 0 0 0 0 0 0 319 322 327 324 325 324 324 322 321 321 315 311 309 310 305 310 310 310 311 310 310 309 309 311 307 307 305 307 309 307 306 304 302 302 302 306 300 0 549 561 579 574 553 579 579 574 557 541 0 0 0 0 0 0 0 0 415 413 413 397 391 391 387 389 391 389 387 385 385 385 381 387 381 381 375 369 367 369 369 0 0 533 533 525 511 518 511 514 511 518 507 511 500 500 507 514 514 518 518 514 518 518 0 0 0 0 0
    0 0 0 0 0 0 0 0 0 0 0 0 0 0 0 0 0 0 0 0 0 0 0 0 0 0 0 0 0 0 0 0 0 0 0 0 0 0 0 0 0 0 0 0 0 0 0 0 0 0 0 0 0 0 0 0 0 0 0 0 0 0 0 0 0 0 0 0 0 525 507 533 521 549 553 557 557 553 553 553 549 557 537 533 537 533 533 533 0 0 0 545 545 0 0 0 518 525 500 500 507 511 514 525 529 533 0 0 549 545 553 553 549 545 557 549 553 553 549 545 541 537 537 533 533 529 521 529 525 525 545 579 553 0 0 0 0 0 0 549 545 0 553 545 0 553 0 545 541 545 545 553 570 584 561 574 561 566 566 570 566 561 561 574 0 561 584 566 553 557 557 557 557 553 553 0 0 0 0 549 549 0 0 0 574 570 561 557 561 561 561 561 570 566 584 593 593 598 593 579 584 579 579 570 566 561 0 0 0 0 0 0 0 318 321 325 322 324 324 324 322 321 321 315 313 313 311 306 310 310 310 311 310 310 310 310 311 309 307 306 309 310 309 306 304 304 304 304 306 299 0 537 545 561 566 553 579 574 574 557 541 537 0 0 0 497 468 432 420 420 415 413 397 393 393 389 391 391 389 385 385 383 383 381 387 381 381 377 373 373 377 377 0 0 533 529 521 507 511 504 504 500 500 497 497 493 493 500 511 514 514 514 511 514 514 0 0 0 0 0
    0 0 0 0 0 0 0 0 0 0 0 0 0 0 0 0 0 0 0 0 0 0 0 0 0 0 0 0 0 0 0 0 0 0 0 0 0 0 0 0 0 0 0 0 0 0 0 0 0 0 0 0 0 0 0 0 0 0 0 0 0 0 0 0 0 0 0 0 0 514 490 504 504 525 533 537 545 541 541 537 533 537 529 521 525 521 518 514 511 0 518 0 525 500 0 507 497 511 490 493 497 497 504 514 511 518 0 0 533 529 533 537 533 529 537 541 0 0 0 537 529 521 525 521 521 518 511 518 514 514 529 0 0 504 0 0 0 0 0 537 533 533 537 533 0 0 0 529 525 529 537 545 0 570 553 561 549 557 557 557 561 561 553 566 0 0 566 549 541 545 0 0 541 537 537 0 0 0 533 537 0 0 0 0 570 566 553 549 549 553 553 549 553 0 557 574 0 593 593 574 584 579 574 566 561 557 0 0 0 0 0 0 0 317 319 322 321 322 324 322 322 321 321 315 314 313 311 306 310 310 310 311 309 309 309 309 310 307 307 306 309 309 309 306 304 304 304 304 305 0 504 514 529 541 553 549 574 574 570 557 537 533 0 0 529 493 468 435 425 422 418 411 397 395 391 387 389 391 389 383 381 381 381 381 387 383 381 379 377 379 383 0 0 518 525 521 514 500 504 497 497 497 497 493 493 490 490 493 504 504 507 511 507 511 511 0 0 0 0 0
    0 0 0 0 0 0 0 0 0 0 0 0 0 0 0 0 0 0 0 0 0 0 0 0 0 0 0 0 0 0 0 0 0 0 0 0 0 0 0 0 0 0 0 0 0 0 0 0 0 0 0 0 0 0 0 0 0 0 0 0 0 0 0 0 0 0 0 0 0 507 487 497 497 504 511 521 521 525 525 525 521 521 518 511 514 511 507 507 504 0 504 500 511 0 0 493 490 497 487 487 490 490 497 500 500 504 500 514 521 514 514 521 514 511 497 521 0 0 0 521 514 507 514 514 514 514 504 511 507 504 514 504 514 497 497 507 493 521 525 529 525 521 525 525 521 529 518 514 514 518 525 537 0 557 545 549 541 541 545 545 549 549 545 549 0 0 0 529 518 525 521 525 529 525 529 525 525 0 525 0 529 521 0 0 0 549 541 541 541 541 545 537 0 0 0 0 0 574 574 561 584 574 570 561 553 0 0 0 0 0 0 0 0 317 319 322 322 324 325 324 325 325 325 318 318 315 314 309 311 311 310 310 309 309 309 309 310 307 307 306 309 309 309 306 304 305 304 305 306 0 497 504 518 525 541 545 566 570 566 553 537 529 525 525 521 493 471 438 430 427 420 408 397 395 391 383 387 389 389 385 383 383 381 381 389 385 383 381 381 383 387 0 511 507 514 511 504 497 500 493 497 497 497 493 493 490 487 490 497 493 497 504 500 504 507 0 0 0 0 0
    0 0 0 0 0 0 0 0 0 0 0 0 0 0 0 0 0 0 0 0 0 0 0 0 0 0 0 0 0 0 0 0 0 0 0 0 0 0 0 0 0 0 0 0 0 0 0 0 0 0 0 0 0 0 0 0 0 0 0 0 0 0 0 0 0 0 0 0 0 507 487 490 497 497 497 504 500 504 507 507 507 507 507 500 504 504 500 500 500 500 493 493 497 0 490 490 490 493 487 487 493 490 493 497 493 497 493 500 507 500 500 507 497 493 484 500 0 500 487 500 500 497 507 507 504 504 497 507 500 497 500 487 493 493 493 500 490 511 518 521 518 511 514 514 514 525 504 500 500 504 514 521 525 533 533 533 529 525 529 529 529 0 525 533 529 0 0 518 0 511 507 511 514 514 518 514 518 521 518 521 521 511 0 0 0 533 525 529 525 525 537 511 0 0 0 525 0 0 545 545 574 561 561 553 545 0 0 0 0 0 0 0 0 318 319 322 322 322 325 324 325 324 325 319 319 318 315 311 313 311 311 311 309 307 309 310 310 307 307 307 309 309 309 306 304 305 304 305 0 497 497 500 514 518 537 541 561 566 561 549 533 529 521 518 511 490 474 443 435 430 422 408 397 395 391 383 385 389 389 387 387 389 387 385 391 389 387 385 385 387 389 0 504 497 500 500 497 493 497 490 493 493 497 493 493 490 487 490 497 493 493 497 493 497 500 0 0 0 0 0
    0 0 0 0 0 0 0 0 0 0 0 0 0 0 0 0 0 0 0 0 0 0 0 0 0 0 0 0 0 0 0 0 0 0 0 0 0 0 0 0 0 0 0 0 0 0 0 0 0 0 0 0 0 0 0 0 0 0 0 0 0 0 0 0 0 0 0 0 0 518 493 493 497 500 497 497 497 497 497 500 500 497 497 497 500 497 497 497 497 493 490 490 493 487 490 490 493 493 490 490 493 490 493 493 493 493 490 493 497 493 493 497 493 487 484 490 487 490 481 490 487 487 497 497 497 497 493 500 493 493 493 481 487 490 490 493 487 507 511 514 511 504 504 507 507 518 493 493 497 497 500 507 507 507 514 507 514 507 511 514 514 514 511 514 514 500 504 504 0 497 497 500 504 504 507 504 507 511 511 511 511 500 511 514 514 511 507 514 507 507 518 500 497 500 500 511 500 514 521 514 557 549 549 545 537 0 0 0 0 0 0 310 314 315 318 319 321 321 322 322 324 322 322 319 319 318 315 314 315 314 313 313 310 309 309 310 309 307 307 307 309 309 309 307 304 305 305 0 0 497 497 500 507 511 529 533 553 561 557 545 529 525 514 507 497 487 474 448 438 427 420 406 397 393 391 383 383 387 389 389 387 389 387 387 391 391 389 389 387 387 389 0 500 493 497 493 493 493 493 490 493 493 493 490 490 490 487 490 497 490 490 493 490 493 497 0 0 0 0 0
    0 0 0 0 0 0 0 0 0 0 0 0 0 0 0 0 0 0 0 0 0 0 0 0 0 0 0 0 0 0 0 0 0 0 0 0 0 0 0 0 0 0 0 0 0 0 0 0 0 0 0 0 0 0 0 0 0 0 0 0 0 0 0 0 0 0 0 0 0 518 493 490 497 500 493 493 493 493 493 493 497 493 493 493 497 493 497 493 493 490 487 487 490 484 487 490 490 493 490 490 497 490 493 493 490 490 490 493 497 493 493 497 493 490 487 493 490 490 484 490 490 487 493 497 493 497 493 500 493 493 493 487 487 490 490 493 484 504 504 507 504 497 500 500 500 511 490 487 493 493 493 497 497 493 500 493 500 493 497 500 500 504 504 504 504 493 497 497 493 493 493 493 497 497 500 497 500 500 504 504 500 493 504 507 504 500 500 500 497 497 507 497 493 497 497 500 497 500 504 493 537 529 533 529 507 0 0 0 0 0 0 314 315 317 317 318 319 319 321 321 322 321 321 319 319 318 315 317 317 315 315 314 311 310 310 311 310 309 309 307 309 309 309 307 305 305 305 0 0 493 497 497 504 500 521 525 537 549 545 537 521 518 504 497 490 487 477 457 438 425 413 402 393 389 389 383 381 387 389 387 387 391 389 387 391 393 391 391 391 389 389 0 497 487 493 490 490 490 490 487 490 490 490 490 490 487 487 487 497 490 490 490 487 490 493 0 0 0 0 0
    0 0 0 0 0 0 0 0 0 0 0 0 0 0 0 0 0 0 0 0 0 0 0 0 0 0 0 0 0 0 0 0 0 0 0 0 0 0 0 0 0 0 0 0 0 0 0 0 0 0 0 0 0 0 0 0 0 0 0 0 0 0 0 0 0 0 0 0 0 507 490 487 493 497 493 490 490 490 490 490 493 493 493 493 497 493 497 493 493 490 490 487 490 484 487 487 490 487 487 487 493 487 490 493 490 490 490 493 497 493 493 493 493 493 490 493 490 493 487 493 493 487 493 497 493 497 493 500 493 490 497 493 490 490 490 490 484 500 497 497 493 493 493 493 497 504 487 484 493 493 493 497 493 493 497 490 497 493 493 497 497 504 500 504 500 493 493 497 493 493 493 493 497 497 497 497 500 500 504 504 497 493 497 504 500 497 497 497 493 493 500 493 493 493 493 497 497 497 497 490 518 500 500 497 487 0 0 0 0 0 0 313 314 315 315 317 318 318 319 321 322 319 319 321 319 318 317 318 318 317 317 314 313 310 311 310 309 307 307 307 309 307 307 305 305 304 304 0 490 493 497 497 500 500 514 518 521 533 529 521 518 514 500 493 490 487 481 454 435 411 402 397 389 387 387 381 379 385 389 385 389 391 389 387 389 393 389 389 389 387 389 391 0 0 493 487 490 487 487 484 487 487 490 487 487 487 484 487 493 487 487 487 484 487 490 0 0 0 0 0
    0 0 0 0 0 0 0 0 0 0 0 0 0 0 0 0 0 0 0 0 0 0 0 0 0 0 0 0 0 0 0 0 0 0 0 0 0 0 0 0 0 0 0 0 0 0 0 0 0 0 0 0 0 0 0 0 0 0 0 0 0 0 0 0 0 0 0 0 0 490 484 484 490 493 490 487 487 487 490 490 490 490 493 493 497 497 497 497 497 493 490 487 490 484 487 487 487 484 487 484 490 487 487 490 487 490 490 493 497 493 497 497 497 493 493 493 493 493 490 497 497 490 493 493 493 497 490 497 490 490 500 497 493 493 493 497 487 497 493 493 490 490 490 490 493 0 484 484 493 493 493 497 493 493 497 493 500 497 497 497 497 500 500 500 500 493 493 493 493 493 493 493 497 497 497 497 500 500 500 500 497 490 493 504 497 493 493 493 493 490 497 490 490 490 493 493 493 493 497 490 504 497 493 490 484 0 0 0 0 0 0 0 317 317 317 318 319 319 321 322 322 321 322 322 322 321 322 322 322 319 321 315 314 311 311 311 309 309 307 306 307 306 306 305 305 305 304 307 0 490 493 493 497 497 511 514 514 525 518 511 504 504 493 490 487 487 484 451 427 399 395 391 385 383 385 379 379 383 389 387 389 391 391 389 391 393 389 389 389 387 387 389 391 0 507 490 493 487 487 484 487 487 487 487 487 484 481 481 487 481 481 477 477 477 484 0 0 0 0 0
    0 0 0 0 0 0 0 0 0 0 0 0 0 0 0 0 0 0 0 0 0 0 0 0 0 0 0 0 0 0 0 0 0 0 0 0 0 0 0 0 0 0 0 0 0 0 0 0 0 0 0 0 0 0 0 0 0 0 0 0 0 0 0 0 0 0 0 0 0 484 484 481 490 490 490 487 487 487 487 487 490 490 493 493 497 497 497 497 497 493 490 487 490 484 487 487 487 484 487 484 487 484 487 487 487 487 490 490 497 493 497 497 500 497 493 493 493 493 490 497 500 490 493 493 493 497 490 497 490 490 497 500 493 493 493 497 487 497 493 490 490 490 0 0 493 0 0 487 497 497 497 500 490 493 497 493 497 497 493 497 497 504 500 504 504 493 497 493 493 493 493 493 497 497 493 497 500 500 500 500 497 487 493 504 493 493 493 497 493 490 497 490 490 493 493 493 493 493 497 490 500 497 493 490 484 0 0 0 0 0 0 0 315 315 314 315 318 318 319 319 321 319 321 322 321 319 327 325 322 322 322 317 315 310 311 311 309 307 307 306 306 305 307 305 305 305 305 306 301 493 493 497 500 500 514 514 514 521 511 504 497 497 490 487 484 484 481 454 430 397 395 391 385 383 385 379 379 383 389 387 389 393 393 391 393 395 391 391 391 389 387 389 0 0 518 500 493 487 487 484 487 487 490 487 487 484 481 481 484 481 477 474 474 474 477 0 0 0 0 0
    0 0 0 0 0 0 0 0 0 0 0 0 0 0 0 0 0 0 0 0 0 0 0 0 0 0 0 0 0 0 0 0 0 0 0 0 0 0 0 0 0 0 0 0 0 0 0 0 0 0 0 0 0 0 0 0 0 0 0 0 0 0 0 0 0 0 0 0 0 481 481 477 487 490 490 487 487 487 487 487 490 490 493 493 497 497 497 493 497 493 490 484 487 481 487 487 487 484 487 484 487 484 484 484 484 487 490 490 497 497 497 497 500 497 497 497 493 497 490 497 500 490 493 493 493 493 490 497 487 487 493 500 493 493 493 497 487 497 493 490 490 487 0 0 0 0 0 487 497 497 493 497 490 490 497 493 497 497 493 497 497 504 500 504 504 497 497 493 493 493 493 493 497 497 493 497 500 500 500 497 497 487 493 504 497 493 497 497 497 493 497 490 490 493 497 497 493 497 500 493 504 497 497 490 484 0 0 0 0 0 0 0 314 315 314 314 318 317 318 318 319 318 319 321 319 317 325 324 321 321 319 315 314 310 310 310 307 306 306 305 305 304 306 305 305 304 306 305 301 0 493 500 504 500 511 511 511 518 507 500 497 497 493 487 484 481 481 454 430 0 395 391 385 383 385 377 379 383 387 387 389 393 393 391 393 395 393 393 391 389 389 389 391 395 0 484 484 481 481 477 481 484 487 484 487 481 477 477 481 474 468 465 462 465 462 0 0 0 0 0
    0 0 0 0 0 0 0 0 0 0 0 0 0 0 0 0 0 0 0 0 0 0 0 0 0 0 0 0 0 0 0 0 0 0 0 0 0 0 0 0 0 0 0 0 0 0 0 0 0 0 0 0 0 0 0 0 0 0 0 0 0 0 0 0 0 0 0 0 0 477 484 481 487 493 490 487 487 487 487 487 490 490 493 493 493 493 497 493 497 490 487 484 487 484 487 487 487 484 487 484 487 484 484 484 484 487 490 490 500 497 500 500 500 497 497 497 497 500 493 500 504 490 493 493 490 493 487 493 484 484 490 500 497 497 493 497 487 497 493 490 487 0 0 0 0 0 0 490 500 493 493 497 487 490 493 490 497 497 493 497 497 507 500 507 504 497 497 493 493 493 493 493 497 497 493 497 500 497 500 497 497 487 490 504 497 493 497 497 497 493 500 493 490 497 500 497 497 500 504 497 507 500 497 490 484 0 0 0 0 0 0 0 314 314 314 314 318 315 317 317 317 315 318 318 318 315 327 327 322 324 321 315 314 311 311 310 309 306 306 305 305 304 306 305 304 304 306 304 301 0 497 500 507 500 514 514 511 518 507 504 497 497 493 487 484 481 477 448 427 395 397 391 387 385 387 379 381 383 387 385 389 391 391 389 391 393 391 391 391 391 391 391 393 397 0 465 477 474 471 471 474 477 481 477 481 477 471 471 474 459 448 448 446 446 443 0 0 0 0 0
    0 0 0 0 0 0 0 0 0 0 0 0 0 0 0 0 0 0 0 0 0 0 0 0 0 0 0 0 0 0 0 0 0 0 0 0 0 0 0 0 0 0 0 0 0 0 0 0 0 0 0 0 0 0 0 0 0 0 0 0 0 0 0 0 0 0 0 0 0 0 0 477 484 490 484 477 481 481 484 484 487 487 490 493 493 493 497 493 493 487 487 481 487 484 484 487 487 484 487 484 490 484 484 484 484 487 490 490 500 497 504 500 504 500 497 500 500 504 497 500 504 490 0 490 490 490 484 490 481 481 487 500 497 497 493 497 487 493 493 487 487 0 0 0 0 0 0 0 504 497 493 497 487 490 493 493 497 497 493 497 497 504 500 504 500 493 493 490 493 490 493 493 500 497 493 497 500 497 500 497 493 487 487 504 493 490 493 497 497 493 500 493 490 497 504 500 497 500 507 497 511 497 497 490 484 0 0 0 0 0 0 0 313 313 313 313 315 313 317 315 315 315 317 317 317 315 324 324 321 322 322 317 314 313 313 311 310 307 307 306 306 304 306 306 305 304 306 302 300 0 0 500 507 504 514 514 511 518 507 504 497 497 493 490 487 481 0 443 422 395 395 389 387 385 387 381 379 381 385 383 387 389 391 389 391 393 391 391 393 393 391 391 393 399 411 438 471 468 462 462 471 471 474 471 474 471 462 465 454 438 427 430 404 408 411 0 0 0 0 0
    0 0 0 0 0 0 0 0 0 0 0 0 0 0 0 0 0 0 0 0 0 0 0 0 0 0 0 0 0 0 0 0 0 0 0 0 0 0 0 0 0 0 0 0 0 0 0 0 0 0 0 0 0 0 0 0 0 0 0 0 0 0 0 0 0 0 0 0 0 0 0 0 477 484 481 474 474 477 481 481 0 487 490 493 497 497 500 493 497 487 487 481 484 481 481 484 484 0 487 481 487 481 484 484 484 487 490 490 500 500 507 500 507 500 500 500 500 504 497 500 507 493 0 490 490 490 484 487 481 481 0 504 500 497 493 497 487 493 490 484 0 0 200 0 0 0 0 0 507 500 493 497 487 490 493 493 497 497 493 493 493 500 497 493 493 490 487 487 490 490 493 493 504 500 490 500 500 497 497 493 493 484 487 504 490 487 493 493 493 490 497 493 490 497 504 504 500 504 511 500 511 500 497 490 481 0 0 0 0 0 0 0 314 313 313 313 315 313 315 314 313 313 314 315 315 315 322 324 322 324 322 318 315 314 314 311 311 309 309 307 306 305 306 306 305 305 306 302 300 299 0 0 507 504 511 514 507 514 507 504 500 497 493 493 487 477 0 443 420 393 395 389 385 383 387 379 379 379 383 379 385 387 389 387 389 393 389 391 393 393 391 391 393 397 0 0 474 474 462 457 465 468 465 462 465 462 451 451 446 430 413 406 395 395 395 0 0 0 0 0
    0 0 0 0 0 0 0 0 0 0 0 0 0 0 0 0 0 0 0 0 0 0 0 0 0 0 0 0 0 0 0 0 0 0 0 0 0 0 0 0 0 0 0 0 0 0 0 0 0 0 0 0 0 0 0 0 0 0 0 0 0 0 0 0 0 0 0 0 0 0 0 0 0 477 477 468 465 468 0 0 0 0 493 497 497 497 504 493 500 493 490 0 481 0 0 481 0 0 481 474 481 477 481 484 481 484 493 493 504 507 514 0 507 504 504 504 504 507 500 504 514 497 0 490 490 493 487 0 0 0 0 514 507 504 497 497 490 490 487 477 0 203 202 201 0 0 0 0 0 0 0 497 487 490 0 493 497 497 490 493 487 0 484 484 487 477 481 477 484 490 497 0 511 500 493 504 500 500 497 497 493 484 487 504 490 0 0 493 493 490 493 490 487 497 504 500 500 504 511 507 511 504 497 490 481 468 0 0 0 0 0 0 315 315 314 314 315 313 315 314 311 313 313 314 315 315 322 322 321 324 324 319 315 315 315 313 311 310 309 306 305 305 305 305 305 304 305 302 299 299 0 293 0 504 0 514 507 514 511 507 504 500 497 497 490 481 0 440 415 391 395 389 387 385 387 379 379 379 383 377 383 385 387 385 389 393 389 389 391 393 391 391 393 397 0 0 477 474 462 457 462 465 454 446 443 440 432 432 432 415 402 404 397 395 393 0 0 0 0 0
    0 0 0 0 0 0 0 0 0 0 0 0 0 0 0 0 0 0 0 0 0 0 0 0 0 0 0 0 0 0 0 0 0 0 0 0 0 0 0 0 0 0 0 0 0 0 0 0 0 0 0 0 0 0 0 0 0 0 0 0 0 0 0 0 0 0 0 0 0 0 0 459 459 468 471 465 459 0 0 0 0 0 0 0 497 500 507 497 504 500 497 0 0 0 0 477 0 468 0 468 471 0 0 0 477 481 490 0 90 90 90 90 0 0 504 192 191 0 0 507 514 497 0 0 0 0 0 0 0 0 0 521 518 514 497 497 490 487 484 0 206 203 203 0 0 103 0 0 0 0 0 0 0 0 112 0 0 0 500 500 0 0 0 471 481 459 465 462 474 481 493 0 511 504 493 507 500 504 500 497 493 481 484 504 484 0 0 0 0 0 0 484 481 0 497 497 497 500 514 507 511 511 504 493 481 462 0 213 0 0 0 0 315 315 314 311 314 311 315 313 310 311 313 313 315 315 322 321 321 324 322 319 317 315 315 313 311 309 307 306 304 304 305 304 304 304 305 302 300 299 0 293 280 278 274 518 511 518 514 514 504 504 500 500 493 474 0 0 413 397 397 389 389 387 389 379 379 377 381 377 381 383 385 385 389 393 389 389 391 393 391 391 391 397 0 0 0 474 462 451 454 457 448 440 435 432 418 413 420 411 402 404 397 393 393 0 0 0 0 0</data></depth>
</opencv_storage>
