<?xml version="1.0"?>
<opencv_storage>
<gps_time_stamp>27892</gps_time_stamp>
<gps_x>-6.2010169029235840e+000</gps_x>
<gps_y>9.6598744392395020e-001</gps_y>
<gps_z>-1.7977844476699829e+000</gps_z>
<image_time_stamp>15864</image_time_stamp>
<depth type_id="opencv-matrix">
  <rows>87</rows>
  <cols>320</cols>
  <dt>s</dt>
  <data>
    0 0 0 0 0 0 0 0 0 0 0 0 0 0 0 0 0 0 0 0 0 0 0 0 0 0 0 0 0 0 0 0 0 0 0 0 0 0 0 0 0 0 0 0 0 0 0 0 0 0 0 0 0 0 0 0 0 0 0 0 0 0 0 0 0 0 0 0 0 0 0 8177 8177 8177 0 0 6690 0 8177 0 0 0 0 0 0 0 0 0 0 0 0 0 0 0 0 0 0 8177 8177 0 0 0 7359 8177 0 0 0 0 8177 0 0 0 0 0 0 0 0 0 0 0 0 0 0 0 0 0 0 0 8177 0 8177 0 0 0 7359 0 566 0 0 0 0 0 0 0 0 0 0 0 0 0 0 574 0 0 0 584 579 574 579 593 0 0 0 0 0 0 7359 8177 6690 7359 0 0 0 0 8177 0 0 0 0 0 8177 8177 8177 0 0 0 0 0 0 0 4906 5661 5661 5256 5661 5256 5661 5661 4906 5661 5661 5661 5661 5661 4599 5256 4906 5256 5661 5256 5256 5661 4906 6690 5256 5256 5256 5256 4906 4088 3504 4088 2453 0 0 0 0 0 0 0 0 0 0 0 0 1752 1752 1936 2044 2164 0 0 0 0 0 0 0 0 908 919 897 908 886 855 855 836 0 0 2374 2299 2537 2537 2453 2453 2453 2374 2374 2230 2230 2230 2230 2374 2374 2374 2299 2453 2374 2230 2230 2230 2164 2164 2164 2164 2102 2164 2164 2102 2102 2102 2164 2102 2164 2230 2164 2230 2299 2299 2374 2299 2453 2299 2230 2230 2164 2230 2164 2164 2230 2164 2230 2230 2299 2374 2299 0 0 0 0 0
    0 0 0 0 0 0 0 0 0 0 0 0 0 0 0 0 0 0 0 0 0 0 0 0 0 0 0 0 0 0 0 0 0 0 0 0 0 0 0 0 0 0 0 0 0 0 0 0 0 0 0 0 0 0 0 0 0 0 0 0 0 0 0 0 0 0 0 0 0 8177 0 8177 8177 8177 0 0 7359 0 8177 0 0 0 0 0 0 0 0 0 0 0 0 0 0 0 0 0 0 0 0 0 0 0 8177 8177 0 0 0 0 8177 0 0 0 0 0 0 0 0 0 0 0 0 0 0 0 0 0 0 8177 8177 0 8177 0 0 8177 7359 0 566 0 0 0 0 0 0 0 0 0 0 0 0 0 566 574 588 574 579 584 579 574 584 593 0 0 0 0 0 0 7359 7359 6690 7359 7359 0 0 8177 8177 0 0 0 0 0 0 0 0 0 0 0 0 0 0 0 4329 5256 5256 4906 5256 5661 5661 5661 4906 5661 5256 5661 5661 5661 4599 5256 4906 5661 6133 5256 5661 5661 5256 6690 4906 5256 5661 5256 4906 4088 3504 3873 2453 0 0 0 0 0 0 0 0 0 0 0 2830 2164 0 3066 3066 2943 2725 0 0 0 0 0 0 0 943 931 908 908 886 865 855 845 836 826 0 0 0 0 0 2537 2453 2374 2230 2299 2299 2374 2299 2374 2374 2374 2374 2453 2374 2230 2230 2230 2164 2164 2164 2164 2164 2164 2164 2102 2164 2102 2164 2102 2164 2230 2164 2230 2299 2299 2453 2299 2453 2374 2230 2299 2230 2230 2164 2164 2230 2230 2230 2230 2230 2374 2374 0 0 0 0 0
    0 0 0 0 0 0 0 0 0 0 0 0 0 0 0 0 0 0 0 0 0 0 0 0 0 0 0 0 0 0 0 0 0 0 0 0 0 0 0 0 0 0 0 0 0 0 0 0 0 0 0 0 0 0 0 0 0 0 0 0 0 0 0 0 0 0 0 0 0 7359 0 7359 7359 8177 0 0 7359 0 0 0 0 0 0 0 0 0 0 0 0 0 0 0 0 0 0 0 0 0 0 0 0 0 8177 0 0 0 0 0 0 0 0 0 0 0 0 0 0 0 0 0 0 0 0 0 0 8177 8177 8177 7359 8177 8177 0 0 7359 7359 0 566 0 0 0 0 0 0 0 0 0 0 0 0 579 570 574 588 574 579 584 579 579 584 598 0 0 0 0 0 8177 6690 7359 6690 7359 7359 0 0 8177 8177 0 0 0 0 0 8177 0 0 0 0 0 0 0 0 0 4088 5256 5256 4906 5661 6133 6133 6133 4906 5661 5661 5661 5661 5661 4329 5256 4906 5661 6133 5661 5661 5661 5256 6690 5256 5661 5661 5256 4906 3873 3504 3873 2453 0 1247 1268 0 0 0 0 0 0 0 3679 3504 2830 3504 3504 3504 3199 3199 0 0 0 0 0 0 0 0 943 908 897 886 855 855 845 836 817 766 758 0 0 145 0 2453 2299 2164 2230 2299 2374 2374 2374 2299 2374 2374 2453 2374 2230 2299 2230 2164 2164 2230 2164 2164 2164 2164 2102 2164 2102 2164 2102 2164 2230 2164 2230 2299 2230 2453 2299 2453 2374 2230 2374 2164 2230 2164 2164 2230 2230 2164 2230 2230 2374 2374 0 0 0 0 0
    0 0 0 0 0 0 0 0 0 0 0 0 0 0 0 0 0 0 0 0 0 0 0 0 0 0 0 0 0 0 0 0 0 0 0 0 0 0 0 0 0 0 0 0 0 0 0 0 0 0 0 0 0 0 0 0 0 0 0 0 0 0 0 0 0 0 0 0 0 7359 0 7359 6690 8177 0 0 8177 0 0 0 0 0 0 0 0 0 0 0 0 0 0 0 0 0 0 0 0 0 0 0 0 0 0 0 0 0 0 0 0 0 0 0 0 0 0 0 0 0 0 0 0 0 0 0 0 8177 8177 8177 7359 8177 8177 0 0 8177 7359 0 566 0 0 0 0 0 0 0 0 0 0 0 0 584 570 579 588 579 579 584 579 579 584 598 0 0 0 0 0 8177 6690 7359 6690 7359 7359 0 0 8177 8177 0 0 0 0 0 8177 8177 0 0 0 0 0 0 0 0 4088 5256 5256 4906 5661 6133 6133 6133 4599 5256 5661 5661 5661 5256 4329 4906 4906 5661 6133 5256 5256 5661 5256 6133 5256 5256 5256 4906 4906 3873 3345 3504 0 1415 1268 1291 0 0 0 0 0 0 4599 4329 4599 3066 3873 3873 3873 3504 3504 3345 0 0 0 0 0 0 0 0 897 886 865 845 845 836 826 817 774 766 743 766 0 0 0 2164 0 2230 2299 2374 2299 2299 2299 2374 2374 2453 2374 2230 2299 2299 2230 2230 2230 2164 2164 2164 2164 2102 2164 2102 2164 2102 2164 2164 2164 2230 2299 2164 2453 2299 2374 2374 2230 2374 2164 2164 2164 2164 2164 2230 2164 2230 2230 2374 2374 0 0 0 0 0
    0 0 0 0 0 0 0 0 0 0 0 0 0 0 0 0 0 0 0 0 0 0 0 0 0 0 0 0 0 0 0 0 0 0 0 0 0 0 0 0 0 0 0 0 0 0 0 0 0 0 0 0 0 0 0 0 0 0 0 0 0 0 0 0 0 0 0 0 0 7359 8177 7359 6690 8177 8177 0 7359 0 0 0 0 0 0 0 0 0 0 0 0 0 0 0 0 0 0 0 0 0 0 0 0 0 0 0 0 0 0 0 0 0 0 0 0 0 0 0 0 0 0 0 0 0 0 0 0 0 8177 0 7359 8177 8177 8177 8177 7359 7359 7359 0 0 0 0 0 0 0 0 0 0 0 0 584 584 566 574 588 574 579 588 584 579 584 598 0 0 0 0 0 8177 6690 7359 6690 0 7359 0 0 0 8177 0 0 0 0 0 0 8177 0 0 0 0 0 0 0 0 3873 5256 5256 4906 5661 6133 6133 6133 4599 5256 5661 5661 5661 5256 4329 4906 4906 5661 6133 5661 5256 5661 5256 6133 5661 5661 5256 5256 4906 4088 3345 3345 2230 1533 1291 1362 0 0 0 0 3066 3504 3679 4088 5661 3345 4329 4329 4329 3504 3679 3504 0 0 0 0 0 0 0 0 0 865 855 836 826 817 817 808 766 766 735 743 758 750 758 743 735 0 2299 2374 2299 2230 2230 2299 2374 2374 2299 2230 2299 2299 2230 2230 2230 2164 2230 2164 2164 2164 2164 2102 2164 2164 2164 2164 2164 2230 2230 2164 2453 2230 2230 2299 2164 2230 2102 2164 2102 2102 2164 2230 2164 2230 2230 2374 2374 0 0 0 0 0
    0 0 0 0 0 0 0 0 0 0 0 0 0 0 0 0 0 0 0 0 0 0 0 0 0 0 0 0 0 0 0 0 0 0 0 0 0 0 0 0 0 0 0 0 0 0 0 0 0 0 0 0 0 0 0 0 0 0 0 0 0 0 0 0 0 0 0 0 0 6690 8177 7359 6690 0 0 0 7359 0 0 0 0 0 0 0 0 0 0 0 0 0 0 0 0 0 0 0 0 0 0 0 0 0 0 0 0 0 0 0 0 0 0 0 0 0 0 0 0 0 0 0 0 0 0 0 0 0 8177 8177 7359 8177 8177 8177 8177 7359 7359 7359 0 0 0 8177 7359 8177 0 0 0 0 0 0 0 0 566 574 588 574 579 588 584 584 584 598 0 0 0 0 0 8177 6690 7359 6690 7359 8177 0 0 0 0 0 0 0 0 0 0 0 0 0 0 0 0 0 0 7359 3679 5256 4906 4906 5661 6690 6133 6133 4906 5661 5661 6133 5661 5661 4329 4906 4906 5661 6133 5661 5661 5661 5256 6133 5661 5256 5256 5256 4906 3873 3199 3066 1936 1599 1362 1443 1752 2044 2102 2725 2943 3066 3066 3345 5661 3504 4599 4599 4599 3679 3679 3504 3504 0 0 0 0 280 0 0 0 0 855 826 817 808 808 799 782 782 758 758 774 750 758 758 743 774 0 2299 2230 2164 2164 2164 2299 2299 2230 2230 2230 2230 2230 2230 2230 2164 2230 2164 2164 2164 2164 2102 2164 2164 2164 2164 2164 2230 2230 2230 2453 2230 2230 2230 2164 2230 2102 2164 2102 2102 2102 2164 2102 2164 2164 2299 2299 0 0 0 0 0
    0 0 0 0 0 0 0 0 0 0 0 0 0 0 0 0 0 0 0 0 0 0 0 0 0 0 0 0 0 0 0 0 0 0 0 0 0 0 0 0 0 0 0 0 0 0 0 0 0 0 0 0 0 0 0 0 0 0 0 0 0 0 0 0 0 0 0 0 0 6690 0 8177 7359 0 0 8177 6690 7359 7359 0 0 0 0 0 0 0 0 0 0 0 0 0 0 0 0 0 0 0 0 0 0 0 0 0 0 0 0 0 0 0 0 0 0 0 0 0 0 0 0 0 0 0 0 0 7359 7359 6690 7359 6690 8177 8177 8177 0 8177 8177 8177 0 0 0 8177 7359 8177 8177 0 0 7359 0 0 0 0 566 579 0 579 584 593 588 588 588 0 0 0 0 0 0 8177 8177 8177 7359 8177 8177 0 0 0 0 0 0 0 0 0 0 8177 8177 8177 0 0 8177 7359 7359 6690 3679 4906 4906 4906 5661 6690 6690 6690 4906 5661 6133 6133 6133 5661 4599 4906 4906 6133 6133 5661 5661 5661 5661 6133 5661 5661 5661 5256 4599 3873 3199 2943 1989 1635 1415 1533 1887 2102 2230 2830 3066 2943 3066 3066 5661 3504 4599 4906 4599 3679 3679 3504 3345 0 0 0 0 0 0 0 0 0 845 817 817 799 808 799 782 782 758 766 774 758 758 758 743 750 721 0 2102 2044 2044 2102 2230 2230 2164 2164 2230 2230 2230 2299 2230 2164 2230 2164 2164 2230 2164 2164 2164 2230 2230 2164 2230 2230 2230 2299 2453 2299 2230 2230 2164 2164 2102 2164 2102 2102 2102 2164 2102 2164 2164 2374 2299 0 0 0 0 0
    0 0 0 0 0 0 0 0 0 0 0 0 0 0 0 0 0 0 0 0 0 0 0 0 0 0 0 0 0 0 0 0 0 0 0 0 0 0 0 0 0 0 0 0 0 0 0 0 0 0 0 0 0 0 0 0 0 0 0 0 0 0 0 0 0 0 0 0 0 6133 0 8177 7359 0 0 7359 4906 0 0 0 0 0 0 0 0 0 0 0 0 0 0 0 0 0 0 0 0 0 0 0 0 0 0 0 0 0 0 0 0 0 0 0 0 0 0 0 0 0 0 0 0 0 0 0 6133 5256 4906 5661 5661 6690 7359 7359 8177 8177 8177 8177 0 0 0 7359 6690 7359 7359 0 0 0 0 0 0 0 0 0 0 0 0 0 0 0 0 0 7359 7359 7359 0 9199 0 0 0 8177 8177 8177 0 0 0 0 8177 8177 0 0 0 0 8177 7359 8177 0 0 8177 7359 7359 6690 3504 4906 4906 4906 5661 6690 6690 6690 4906 5661 6133 6133 6133 5661 4599 4906 4906 5661 6133 5661 5661 5661 5661 6133 5661 5661 6133 5661 4906 4088 3345 0 1887 1599 1443 1565 1989 2164 2374 2943 3066 2943 2943 3066 5256 3679 4599 4906 4599 3679 3679 3504 3504 3066 0 0 0 0 0 0 0 876 855 836 826 817 817 808 791 782 774 774 774 766 766 774 758 750 735 774 0 0 1936 2044 2230 2164 2164 2164 2164 2230 2230 2299 2230 2230 2230 2164 2164 2164 2230 2164 2164 2230 2164 2164 2230 2230 2299 2299 2374 2299 2164 2230 2164 2164 2102 2164 2102 2102 2102 2164 2164 2230 2164 2374 2299 0 0 0 0 0
    0 0 0 0 0 0 0 0 0 0 0 0 0 0 0 0 0 0 0 0 0 0 0 0 0 0 0 0 0 0 0 0 0 0 0 0 0 0 0 0 0 0 0 0 0 0 0 0 0 0 0 0 0 0 0 0 0 0 0 0 0 0 0 0 0 0 0 0 0 5661 0 8177 7359 0 0 8177 0 0 0 0 0 0 0 0 0 0 0 0 0 0 0 0 0 0 0 0 0 0 0 0 0 0 0 0 0 0 0 0 0 0 0 0 8177 0 0 0 0 0 0 0 0 0 0 0 6690 4088 0 4329 4906 5661 6133 7359 0 0 0 0 0 0 0 6690 0 0 0 0 0 0 0 0 0 266 0 0 0 5661 6133 7359 7359 8177 8177 0 7359 6690 6690 0 0 0 0 0 0 0 0 0 0 0 0 8177 7359 0 0 0 0 0 8177 0 0 0 8177 7359 6690 6690 3504 4599 4906 4906 5661 6690 6690 6690 5256 6133 6133 6133 6133 5661 4329 4906 4599 5661 6133 5256 5661 5256 5661 6133 6133 6133 6133 6133 5256 4088 3199 0 0 1565 1338 1415 2044 2230 2537 3066 3199 3066 3066 3345 4906 3679 4599 4599 4599 3679 3679 3679 3504 3199 281 0 0 0 0 0 0 876 855 836 826 826 826 808 799 782 782 774 782 774 774 791 782 774 750 782 782 758 0 0 0 2102 2102 2102 2164 2230 2230 2299 2230 2230 2230 2164 2230 2164 2230 2164 2164 2230 2164 2230 2230 2230 2299 2230 2453 2374 2230 2164 2164 2102 2044 2164 2044 2044 2102 2164 2164 2164 2164 2299 2299 0 0 0 0 0
    0 0 0 0 0 0 0 0 0 0 0 0 0 0 0 0 0 0 0 0 0 0 0 0 0 0 0 0 0 0 0 0 0 0 0 0 0 0 0 0 0 0 0 0 0 0 0 0 0 0 0 0 0 0 0 0 0 0 0 0 0 0 0 0 0 0 0 0 0 0 0 0 6690 0 0 0 0 1338 1338 0 1268 1226 1187 0 0 0 0 0 0 0 0 0 0 0 0 0 0 0 0 0 0 0 0 0 0 0 0 0 0 0 0 0 7359 0 8177 0 0 0 0 0 0 0 0 0 0 4599 0 0 5256 5661 5661 6690 0 0 0 0 0 0 0 1022 994 968 981 1008 994 994 1008 1051 1036 0 0 0 0 0 0 0 0 0 0 0 7359 5256 4329 0 0 0 0 0 0 0 0 0 0 0 0 8177 7359 0 0 0 0 0 0 0 0 0 8177 7359 6690 6690 3679 4329 4906 4906 6133 7359 6690 6690 5661 6690 6690 6690 6690 6133 4329 4599 4906 5661 5661 5256 5256 5256 5661 6133 6133 6690 6690 6690 5661 4088 0 0 0 1471 1291 1314 0 2102 2537 3199 3345 3199 3066 3679 4088 3679 4329 4599 4329 3504 3679 3679 3504 0 280 0 0 0 0 0 0 0 845 817 817 817 817 808 791 774 782 774 782 774 766 799 799 791 782 791 791 766 799 817 782 728 0 2044 2102 2164 2164 2230 2164 2230 2164 2164 2164 2164 2230 2230 2164 2230 2164 2230 2230 2164 2299 2230 2374 2299 2164 2164 2102 2102 2044 2102 2044 2044 2102 2164 2102 2164 2164 2299 2230 0 0 0 0 0
    0 0 0 0 0 0 0 0 0 0 0 0 0 0 0 0 0 0 0 0 0 0 0 0 0 0 0 0 0 0 0 0 0 0 0 0 0 0 0 0 0 0 0 0 0 0 0 0 0 0 0 0 0 0 0 0 0 0 0 0 0 0 0 0 0 0 0 0 0 0 0 0 0 0 0 0 0 0 0 0 1268 1206 1149 1149 0 0 0 0 0 0 0 0 0 0 0 0 196 192 191 0 0 0 0 0 0 0 0 0 0 0 0 0 6690 0 7359 0 0 0 0 0 0 0 0 0 0 0 1291 1226 0 0 0 0 0 0 0 0 1036 1036 1051 1051 1022 994 1008 1036 1022 1022 1022 1051 1051 1051 1066 1168 1115 1132 1187 1226 0 0 0 0 0 0 1098 1051 1036 0 994 908 855 0 0 0 0 0 0 8177 7359 0 0 0 0 0 0 0 0 0 0 0 0 7359 3873 4599 4906 4906 5661 6690 6690 6690 6133 7359 6690 6690 7359 6690 4599 4329 4906 5256 5661 4906 5256 5256 5661 6690 6690 6690 6690 6690 6133 4329 0 0 0 1443 1268 1268 0 2044 0 3345 3345 3199 3199 4329 3679 3679 4329 4329 4329 3504 3504 3504 3345 0 279 0 0 0 0 0 0 0 836 817 808 808 808 799 774 750 766 766 782 782 774 799 791 808 799 808 799 774 791 791 774 743 743 750 0 0 2164 2230 2164 2164 2164 2164 2164 2164 2230 2230 2164 2230 2164 2230 2230 2230 2299 2164 2299 2299 2164 2164 2102 2044 1989 2044 1989 1989 2044 2102 2102 2102 2102 2230 2102 0 0 0 0 0
    0 0 0 0 0 0 0 0 0 0 0 0 0 0 0 0 0 0 0 0 0 0 0 0 0 0 0 0 0 0 0 0 0 0 0 0 0 0 0 0 0 0 0 0 0 0 0 0 0 0 0 0 0 0 0 0 0 0 0 0 0 0 0 0 0 0 0 0 0 1168 1115 1098 0 0 0 0 1226 1132 0 0 1226 1168 1115 1132 1082 0 0 1098 0 0 0 0 0 0 0 0 0 196 0 0 0 0 0 0 0 0 0 0 0 0 0 0 0 0 7359 0 0 0 0 0 0 0 0 1206 1187 0 1268 1206 1187 1132 1115 1149 1098 0 1036 1051 1066 1051 1066 1066 1036 1022 1008 1051 1036 1022 1036 1066 1066 1051 1082 1149 1098 1098 1149 1168 1115 1115 1149 0 0 1098 1132 1082 1066 1036 1022 943 886 0 0 0 0 0 0 8177 7359 0 0 0 0 0 0 0 0 0 0 0 0 0 4906 4906 4906 4906 5256 6690 6133 6133 6133 8177 8177 8177 8177 8177 6133 4599 5256 5256 5256 4329 4906 4906 5661 6133 6690 6690 6690 6690 6133 4329 0 0 0 1471 1291 1291 2164 2164 2830 3345 3345 3345 3345 6133 3873 3873 4329 4599 4329 3504 3504 3345 3345 0 0 0 0 0 0 0 0 0 836 817 808 808 799 791 774 743 750 750 774 782 782 808 808 808 808 808 791 766 782 774 758 728 728 714 707 694 0 2164 2102 2102 2102 2164 2164 2164 2299 2230 2164 2299 2230 2299 2230 2230 2299 2230 2299 2299 2164 2102 2044 1989 1936 1989 1989 1989 1989 2044 2044 2044 2102 2164 1989 0 0 0 0 0
    0 0 0 0 0 0 0 0 0 0 0 0 0 0 0 0 0 0 0 0 0 0 0 0 0 0 0 0 0 0 0 0 0 0 0 0 0 0 0 0 0 0 0 0 0 0 0 0 0 0 0 0 0 0 0 0 0 0 0 0 0 0 0 0 0 0 0 0 0 1115 1098 1082 1098 1098 1036 1082 1098 1082 1115 1115 1149 1098 1082 1098 1066 1082 1082 1066 1082 1082 0 0 1066 1115 1132 0 0 0 1115 1115 0 1149 0 1082 1066 1066 1098 1082 1082 1082 1066 0 0 0 5256 0 0 0 0 0 0 0 1115 1187 1168 1247 1268 1206 1149 1115 1066 1098 1066 1066 1051 1051 1066 1066 1066 1082 1051 1036 1022 1051 1036 1036 1036 1066 1066 1066 1082 1132 1082 1082 1115 1132 1098 1098 1132 1098 1082 1115 1115 1098 1082 1051 1036 968 919 943 0 0 0 0 0 8177 6133 0 7359 7359 0 0 0 0 0 0 0 0 0 0 7359 6133 5256 5256 4906 6133 6133 5661 6690 0 0 0 0 0 0 6133 6133 5256 5256 4329 4906 4599 6133 6133 6690 6690 6690 6690 6690 0 0 0 0 1362 1268 1268 0 2299 3066 3345 3345 3345 3504 6690 3873 3873 4599 4599 4599 3504 3345 3345 3345 0 0 0 0 0 0 0 0 0 836 817 808 817 799 0 774 0 0 0 0 0 791 826 817 817 808 799 791 758 774 766 750 714 721 694 700 694 681 669 0 2102 2044 2102 2164 2164 2230 2230 2164 2230 2164 2299 2230 2230 2299 2164 2230 2230 2164 2102 1989 1936 1936 1989 1936 1936 1989 1989 1989 1989 1989 2044 1887 0 0 0 0 0
    0 0 0 0 0 0 0 0 0 0 0 0 0 0 0 0 0 0 0 0 0 0 0 0 0 0 0 0 0 0 0 0 0 0 0 0 0 0 0 0 0 0 0 0 0 0 0 0 0 0 0 0 0 0 0 0 0 0 0 0 0 0 0 0 0 0 0 0 0 1098 1066 1066 1082 1082 1022 1036 1036 1036 1051 1066 1082 1066 1066 1098 1066 1066 1066 1066 1066 1066 1051 1051 1036 1066 1066 1066 1082 1066 1066 1082 1082 1115 1082 1066 1051 1066 1082 1098 1098 1082 1066 0 1115 1098 0 0 0 0 0 0 1082 1082 1115 1168 1149 1187 1206 1149 1082 1066 1036 1051 1051 1066 1051 1051 1066 1082 1082 1082 1051 1051 1022 1051 1036 1036 1036 1066 1066 1066 1082 1132 1082 1098 1115 1115 1098 1098 1132 1115 1098 1115 1115 1098 1098 1066 1051 994 981 981 0 0 0 0 0 7359 4906 8177 5661 5256 0 0 0 0 0 0 0 0 0 0 0 0 5256 5256 4088 6133 5661 5256 6133 0 9199 0 0 0 0 0 0 5256 5256 4088 4599 4599 6133 6133 6133 6690 7359 6690 6690 0 0 0 0 1291 1226 1226 0 2453 3345 3504 3504 3504 3679 7359 3873 4088 4599 4906 4329 3504 3504 3345 3345 0 0 0 0 0 0 0 0 0 836 817 817 817 808 0 0 0 0 0 0 0 0 0 817 817 817 791 774 743 758 750 743 714 721 694 714 694 681 669 663 651 0 0 2102 2164 2230 2230 2164 2230 2164 2299 2230 2230 2299 2164 2164 2230 2102 2102 1989 1936 1887 1887 1887 1887 1839 1887 1887 1887 1887 1887 1752 0 0 0 0 0
    0 0 0 0 0 0 0 0 0 0 0 0 0 0 0 0 0 0 0 0 0 0 0 0 0 0 0 0 0 0 0 0 0 0 0 0 0 0 0 0 0 0 0 0 0 0 0 0 0 0 0 0 0 0 0 0 0 0 0 0 0 0 0 0 0 0 0 0 0 1098 1066 1066 1082 1066 1036 1036 1022 1022 1022 1036 1051 1051 1066 1082 1066 1066 1066 1051 1051 1051 1051 1036 1022 1051 1051 1036 1051 1051 1051 1051 1051 1082 1051 1051 1051 1051 1066 1066 1066 1051 1036 1051 1066 1051 1036 1051 1036 1051 1098 1115 1098 1098 1115 1149 1132 1132 1149 1098 1066 1051 1036 1051 1036 1051 1066 1066 1066 1082 1082 1082 1051 1051 1022 1051 1036 1036 1036 1066 1066 1066 1066 1115 1066 1098 1098 1115 1098 1098 1132 1115 1082 1098 1098 1082 1082 1051 1036 994 1008 1008 994 0 0 0 0 6690 3679 6690 4329 3345 0 0 0 0 0 0 1149 0 0 0 1226 0 0 5256 3679 4906 4906 4088 5256 8177 0 0 0 0 0 1168 1187 0 4906 3873 4599 4599 6133 6133 6133 6690 7359 7359 0 160 158 0 0 1247 1187 1168 1115 0 3345 3504 3679 3679 3679 7359 3504 3873 4599 4906 4599 3504 3504 3345 3199 0 0 0 0 0 0 0 0 0 836 826 826 826 808 817 791 0 0 137 0 0 0 0 0 836 826 799 782 758 758 743 743 714 735 707 728 700 694 669 675 663 657 657 663 0 2230 2164 2102 2230 2164 2299 2230 2230 2299 2164 2164 2230 2102 2044 1936 1839 1839 1795 1795 1795 1711 1752 1752 1711 1672 1711 1599 0 0 0 0 0
    0 0 0 0 0 0 0 0 0 0 0 0 0 0 0 0 0 0 0 0 0 0 0 0 0 0 0 0 0 0 0 0 0 0 0 0 0 0 0 0 0 0 0 0 0 0 0 0 0 0 0 0 0 0 0 0 0 0 0 0 0 0 0 0 0 0 0 0 0 1082 1051 1066 1066 1051 1022 1036 1022 1008 1008 1022 1036 1051 1066 1082 1066 1066 1066 1051 1051 1051 1036 1036 1022 1036 1036 1036 1051 1036 1036 1036 1036 1051 1036 1036 1051 1051 1051 1051 1051 1051 1036 1036 1036 1036 1036 1051 1036 1051 1082 1098 1082 1098 1115 1132 1115 1082 1098 1082 1066 1051 1051 1051 1036 1051 1066 1066 1066 1082 1082 1082 1051 1051 1008 1051 1036 1036 1036 1051 1051 1066 1066 1115 1066 1082 1098 1115 1098 1098 1132 1098 1082 1066 1066 1066 1051 1036 1036 994 1008 1008 994 994 0 0 994 0 3345 0 0 0 0 0 0 0 1082 1082 1115 1115 0 0 1206 1187 1247 0 3679 0 4599 3679 0 0 0 0 1132 0 1149 1149 1168 0 4329 3679 4599 4599 6133 5661 6133 6690 0 0 159 159 0 0 1206 1226 1149 1115 1082 0 0 3345 3504 3679 3679 5661 3066 0 0 4329 4088 3345 0 0 0 0 0 0 0 876 0 0 836 0 836 826 826 826 808 817 799 0 0 136 0 0 0 0 0 0 865 817 791 758 758 743 735 728 743 714 728 707 694 675 681 657 657 657 657 629 0 0 2102 2164 2102 2299 2164 2230 2299 2102 2164 2230 2102 2044 1887 1839 1752 1672 1711 1672 1565 1599 1635 1599 1533 1565 1471 0 0 0 0 0
    0 0 0 0 0 0 0 0 0 0 0 0 0 0 0 0 0 0 0 0 0 0 0 0 0 0 0 0 0 0 0 0 0 0 0 0 0 0 0 0 0 0 0 0 0 0 0 0 0 0 0 0 0 0 0 0 0 0 0 0 0 0 0 0 0 0 0 0 0 1066 1036 1051 1051 1036 1022 1036 1022 1008 994 1036 1022 1066 1066 1082 1051 1051 1051 1051 1036 1036 1022 1022 1008 1022 1036 1022 1036 1022 1022 1022 1036 1036 1022 1036 1036 1036 1036 1051 1051 1036 1036 1036 1036 1036 1022 1036 1022 1036 1051 1066 1051 1066 1066 1082 1082 1051 1066 1051 1036 1036 1036 1051 1036 1051 1066 1066 1066 1066 1082 1082 1036 1036 994 1036 1022 1022 1022 1036 1036 1051 1051 1098 1051 1066 1082 1082 1082 1098 1115 1082 1066 1051 1051 1051 1036 1036 1022 994 1008 1008 1008 1008 1008 994 1008 994 1008 1008 0 0 0 981 1036 1022 1066 1066 1082 1098 1098 1132 1168 1132 1206 1187 0 1168 0 0 1115 0 0 1115 1098 1098 1132 1132 1168 1132 0 3504 4329 4599 0 0 0 0 0 0 160 0 0 0 1168 1168 1098 1082 1051 1187 0 0 3504 3504 3504 0 0 0 0 0 3679 0 0 0 0 0 0 0 943 876 0 845 0 826 826 826 826 817 808 817 799 0 0 136 0 2230 1989 2102 1936 0 0 0 791 758 774 750 750 743 743 714 728 700 694 681 681 663 657 651 657 634 639 629 618 0 2102 2230 2164 2164 2164 2102 2164 2164 2102 1989 1839 1752 1672 1533 1533 1501 1443 1471 1501 1471 1415 1443 1388 0 0 0 0 0
    0 0 0 0 0 0 0 0 0 0 0 0 0 0 0 0 0 0 0 0 0 0 0 0 0 0 0 0 0 0 0 0 0 0 0 0 0 0 0 0 0 0 0 0 0 0 0 0 0 0 0 0 0 0 0 0 0 0 0 0 0 0 0 0 0 0 0 0 0 1036 1022 1036 1036 1036 1022 1036 1022 1008 1008 1036 1008 1051 1051 1066 1036 1036 1051 1036 1036 1036 1008 1008 1008 1022 1022 1022 1036 1008 1008 1022 1022 1036 1008 1022 1022 1036 1022 1036 1036 1036 1036 1036 1036 1036 1022 1051 1022 1036 1051 1051 1051 1051 1066 1066 1051 1022 1036 1036 1022 1022 1022 1022 1022 1036 1066 1051 1051 1066 1066 1066 1036 1036 994 1036 1022 1022 1022 1036 1036 1036 1051 1082 1051 1051 1051 1066 1082 1082 1098 1066 1051 1036 1051 1036 1036 1036 1022 1008 1022 1022 1022 1022 1022 1008 1008 1008 1008 994 968 994 994 981 1022 1022 1051 1051 1066 1098 1098 1115 1149 1115 1168 1132 1149 1082 1036 1036 1051 1051 1082 1066 1066 1066 1098 1098 1132 1115 1168 0 0 0 0 0 0 0 0 0 0 0 0 0 1115 1115 1066 1051 1022 1066 1247 1226 0 0 0 0 0 0 0 0 0 0 0 0 0 0 0 0 943 876 836 845 0 826 826 826 826 817 808 817 799 0 0 0 2537 2374 2102 2299 2102 1936 0 0 0 0 791 758 766 766 758 707 721 707 700 681 681 663 663 651 663 634 645 629 618 608 603 0 2102 2164 2044 0 2102 2102 2044 1936 1839 1711 1565 1443 1443 1388 1388 1415 1443 1415 1388 1388 1362 0 0 0 0 0
    0 0 0 0 0 0 0 0 0 0 0 0 0 0 0 0 0 0 0 0 0 0 0 0 0 0 0 0 0 0 0 0 0 0 0 0 0 0 0 0 0 0 0 0 0 0 0 0 0 0 0 0 0 0 0 0 0 0 0 0 0 0 0 0 0 0 0 0 0 1008 994 1022 1022 1022 1022 1036 1022 1008 994 1022 1008 1036 1022 1022 1008 1008 1022 1008 1022 1008 1008 994 1008 1022 1022 1008 1036 1008 1008 1008 1022 1022 1008 1022 1022 1036 1022 1036 1036 1036 1036 1036 1036 1036 1036 1066 1022 1036 1051 1051 1051 1066 1066 1051 1051 1008 1022 1022 1022 1008 1008 1008 1022 1022 1066 1051 1051 1051 1066 1066 1036 1036 994 1036 1022 1022 1022 1022 1036 1036 1036 1082 1036 1036 1036 1051 1066 1066 1082 1051 1051 1022 1036 1036 1036 1036 1022 1008 1036 1022 1051 1036 1036 1022 1022 1008 1008 994 968 981 981 981 1022 1022 1051 1051 1066 1098 1082 1098 1115 1082 1132 1082 1098 1051 1022 1022 1022 1036 1066 1051 1051 1066 1066 1082 1115 1115 1132 1082 1066 1036 1036 968 0 0 0 0 0 0 1022 1022 1066 1066 1036 1036 1008 1022 1168 1115 1149 0 0 0 0 1132 1036 1008 1036 1022 1008 1008 1022 1008 0 0 931 876 845 845 0 0 826 826 826 826 808 817 808 0 0 0 2537 2374 2044 2164 1989 0 0 0 0 0 0 766 774 0 791 700 707 700 694 675 675 657 663 651 663 639 645 623 618 608 603 603 608 603 613 618 0 0 1887 0 0 1599 1443 1388 1362 1338 1362 1388 1388 1362 1362 1338 1338 0 0 0 0 0
    0 0 0 0 0 0 0 0 0 0 0 0 0 0 0 0 0 0 0 0 0 0 0 0 0 0 0 0 0 0 0 0 0 0 0 0 0 0 0 0 0 0 0 0 0 0 0 0 0 0 0 0 0 0 0 0 0 0 0 0 0 0 0 0 0 0 0 0 0 981 968 1008 1022 1022 1022 1022 1022 1008 1008 1036 1008 1008 1008 994 981 968 981 981 981 994 981 981 994 994 1008 994 1008 994 968 981 981 981 981 981 994 1008 994 1036 1036 1036 1036 1036 1036 1036 1036 1082 1036 1051 1066 1066 1066 1082 1066 1051 1036 981 1008 1008 1008 1008 994 994 1008 1008 1051 1036 1036 1036 1051 1051 1036 1036 981 1022 1022 1022 1022 1022 1036 1036 1036 1082 1036 1036 1036 1051 1066 1066 1082 1051 1036 0 1036 1022 1022 1022 1022 1008 1036 1022 1051 1036 1036 1036 1022 1022 1022 1008 955 981 981 981 1008 1008 1036 1036 1051 1082 1082 1098 1115 1082 1115 1082 1066 1051 1022 1008 1022 1022 1036 1036 1036 1051 1051 1066 1098 1082 1098 1051 1022 1008 1008 968 981 994 981 1008 1008 1008 1008 1008 1036 1036 1022 1036 1008 1008 1066 1036 1022 1051 1098 1036 1051 1051 1022 1008 1022 1022 1008 1008 1008 981 968 931 919 876 855 0 0 0 826 826 826 826 0 817 808 0 0 0 0 2299 2044 2164 1989 0 0 0 0 0 943 865 0 0 855 0 700 694 687 663 663 651 663 651 669 645 651 629 623 608 603 598 598 588 598 598 608 598 0 0 0 0 1314 1338 1268 1247 1291 1338 1362 1338 1314 1314 1314 0 0 0 0 0
    0 0 0 0 0 0 0 0 0 0 0 0 0 0 0 0 0 0 0 0 0 0 0 0 0 0 0 0 0 0 0 0 0 0 0 0 0 0 0 0 0 0 0 0 0 0 0 0 0 0 0 0 0 0 0 0 0 0 0 0 0 0 0 0 0 0 0 0 0 981 968 994 1008 1008 1022 1022 1022 1008 994 1022 1008 994 1008 968 968 955 955 968 968 981 981 968 994 994 994 994 994 994 955 968 955 955 968 955 955 981 943 1022 1022 1022 1022 1022 0 1036 1036 1066 1022 1022 1008 1008 1008 1036 1036 1022 1022 955 994 1008 994 994 994 994 994 994 1036 1022 1022 1022 1036 1051 1022 1022 981 1022 1022 1022 1022 1022 1022 1022 1036 1082 1036 1036 1036 1036 1051 1051 1051 1036 1022 0 1022 1022 1008 1008 1008 1008 1022 1022 1051 1022 1022 1022 1022 1022 1008 1008 943 981 981 981 1008 1008 1022 1022 1036 1082 1066 1098 1115 1082 1115 1066 1066 1036 1008 994 1008 1022 1022 1022 1036 1036 1036 1051 1066 1066 1066 1022 994 981 994 955 981 981 968 994 994 994 1008 994 1022 1022 1008 1022 994 994 1022 1008 994 1008 1022 1008 1008 1022 994 1008 1008 994 994 994 994 968 955 908 919 865 855 0 0 826 817 826 826 826 817 817 817 845 0 0 845 0 0 2102 0 0 0 0 0 0 0 968 1066 994 931 886 808 707 694 663 663 645 657 651 669 651 651 634 629 613 608 598 603 588 588 588 598 588 593 613 651 0 0 1206 1168 1149 1206 1314 1338 1314 1314 1291 1291 0 0 0 0 0
    0 0 0 0 0 0 0 0 0 0 0 0 0 0 0 0 0 0 0 0 0 0 0 0 0 0 0 0 0 0 0 0 0 0 0 0 0 0 0 0 0 0 0 0 0 0 0 0 0 0 0 0 0 0 0 0 0 0 0 0 0 0 0 0 0 0 0 0 0 968 955 981 1008 1008 1008 1008 1022 994 994 1022 994 981 994 955 955 955 943 955 955 981 968 968 981 994 994 994 994 981 943 955 955 955 955 943 943 968 931 994 1008 1022 1008 1022 0 0 1022 1036 1008 994 994 981 981 994 1008 981 994 931 981 994 994 981 981 981 994 994 1036 1008 1008 1008 1008 1022 994 994 955 994 1008 994 1008 1008 1008 1008 1008 1051 1022 1022 1022 1036 1036 1036 1036 1008 1008 981 1008 1008 1008 1008 1008 994 1008 1008 1036 1022 1008 1008 1008 994 994 994 931 968 981 981 994 994 1022 1022 1036 1098 1066 1082 1098 1082 1082 1036 1022 1008 981 968 994 994 1008 1008 1008 1022 1022 1036 1051 1036 1036 1022 968 981 981 943 968 968 968 968 981 981 981 981 1008 981 981 994 981 981 1008 994 981 994 1008 994 994 1008 981 994 994 994 981 994 994 968 955 908 919 865 865 855 0 826 817 826 836 826 817 817 808 845 836 931 845 855 1022 1008 994 981 981 981 981 968 968 931 968 955 943 908 845 743 694 663 669 645 657 651 657 645 651 634 634 618 618 608 608 593 593 588 598 588 593 593 608 0 663 0 0 1066 1115 1268 1291 1291 1291 1268 1268 0 0 0 0 0
    0 0 0 0 0 0 0 0 0 0 0 0 0 0 0 0 0 0 0 0 0 0 0 0 0 0 0 0 0 0 0 0 0 0 0 0 0 0 0 0 0 0 0 0 0 0 0 0 0 0 0 0 0 0 0 0 0 0 0 0 0 0 0 0 0 0 0 0 0 968 943 981 994 994 1008 1008 1008 994 981 1008 981 955 981 919 931 943 931 943 955 968 968 955 981 994 981 994 981 981 943 943 955 955 943 931 931 955 919 981 994 1008 994 1008 0 0 1008 1022 1008 994 981 981 981 994 1008 968 981 931 968 981 981 981 968 981 981 981 1008 994 981 981 994 994 981 981 931 981 981 981 994 994 994 994 994 1036 1008 994 1008 1008 1008 1008 1022 994 1008 968 994 994 994 994 994 994 994 994 1008 1008 994 994 994 981 968 981 919 968 981 981 994 994 1008 1008 1022 1082 1051 1051 1066 1051 1051 1008 994 994 968 955 994 981 994 994 994 1008 1008 1008 1022 1008 1022 1008 968 981 981 955 968 968 955 968 968 968 968 955 981 955 968 981 955 968 994 968 968 968 994 981 981 994 981 994 981 981 981 981 981 968 943 897 908 865 876 855 0 826 817 826 826 826 817 808 808 836 836 943 865 876 1008 1008 1008 981 981 981 968 955 955 931 955 943 955 955 955 886 799 669 681 651 663 651 657 645 645 639 634 623 623 613 613 598 598 584 593 584 593 588 593 593 608 0 0 0 0 1226 1247 1247 1247 1226 1187 0 0 0 0 0
    0 0 0 0 0 0 0 0 0 0 0 0 0 0 0 0 0 0 0 0 0 0 0 0 0 0 0 0 0 0 0 0 0 0 0 0 0 0 0 0 0 0 0 0 0 0 0 0 0 0 0 0 0 0 0 0 0 0 0 0 0 0 0 0 0 0 0 0 0 955 931 968 981 968 981 994 1008 981 968 994 955 931 955 897 919 931 919 931 943 955 955 955 981 981 968 981 981 968 943 943 943 955 931 919 919 931 908 955 981 994 981 994 1008 1008 1008 1022 1008 994 981 981 981 994 1008 968 968 943 955 968 968 968 955 955 981 981 994 981 968 968 968 981 968 968 919 968 981 968 968 981 981 981 981 1008 994 994 1008 1008 1008 994 1008 981 994 968 994 994 994 994 994 981 994 981 1008 994 981 981 981 955 931 968 908 955 968 968 981 981 994 994 994 1051 1022 1022 1036 1036 1022 1008 994 981 968 955 981 981 981 981 981 981 981 981 994 981 994 994 968 981 981 955 968 968 955 968 968 968 955 955 981 943 943 968 943 943 968 955 943 943 968 968 943 968 955 981 968 968 968 981 968 955 931 897 908 865 886 865 0 836 817 826 826 817 817 808 799 826 826 919 865 876 994 994 994 981 994 981 968 968 968 955 968 968 981 968 981 955 908 0 0 651 675 663 669 645 645 634 629 623 623 613 613 603 598 588 588 584 593 584 588 584 598 598 603 613 629 0 1082 1036 1066 1036 1022 0 0 0 0 0
    0 0 0 0 0 0 0 0 0 0 0 0 0 0 0 0 0 0 0 0 0 0 0 0 0 0 0 0 0 0 0 0 0 0 0 0 0 0 0 0 0 0 0 0 0 0 0 0 0 0 0 0 0 0 0 0 0 0 0 0 0 0 0 0 0 0 0 0 0 955 931 968 981 955 981 981 994 981 955 968 931 931 943 897 919 931 919 931 943 955 955 943 968 981 955 981 981 968 943 955 943 968 931 908 919 919 908 943 968 981 981 994 1008 1008 1008 1022 1008 994 981 968 981 994 1008 943 955 931 943 955 955 955 943 943 968 968 981 968 955 968 955 981 968 968 931 968 968 955 968 968 981 981 968 1008 994 981 994 994 994 968 994 968 981 968 981 994 994 994 994 981 994 981 1008 981 981 981 955 943 919 968 908 955 968 955 968 968 981 994 981 1022 994 994 1008 1022 1008 994 981 981 968 955 981 968 968 955 968 968 968 968 981 955 981 981 955 981 981 955 968 968 955 955 955 968 955 955 968 931 931 955 919 931 943 931 908 919 931 919 908 943 919 955 943 968 955 968 968 955 919 897 897 865 886 865 845 836 817 826 826 817 817 799 791 817 817 886 855 865 981 981 981 968 981 968 968 968 981 968 981 981 994 981 981 968 931 0 0 0 0 663 681 645 651 634 629 618 618 608 613 603 598 588 579 584 588 584 588 579 593 588 598 613 613 608 0 943 908 931 919 0 0 0 0 0
    0 0 0 0 0 0 0 0 0 0 0 0 0 0 0 0 0 0 0 0 0 0 0 0 0 0 0 0 0 0 0 0 0 0 0 0 0 0 0 0 0 0 0 0 0 0 0 0 0 0 0 0 0 0 0 0 0 0 0 0 0 0 0 0 0 0 0 0 0 943 931 955 981 943 994 981 994 968 955 955 919 931 943 897 919 931 919 931 943 943 943 943 968 968 943 981 968 968 955 955 955 968 931 908 919 908 897 931 955 955 968 981 994 994 1008 1022 1008 994 981 968 968 994 1008 919 943 931 943 943 943 955 931 931 968 955 955 968 955 955 943 968 968 968 919 955 968 955 968 968 968 968 968 994 981 968 994 981 968 955 981 943 968 968 981 981 981 981 994 981 994 981 994 981 981 968 943 931 886 943 886 931 955 955 955 968 968 981 981 1008 994 981 994 1008 994 981 981 981 968 943 981 968 968 955 955 955 955 955 968 955 968 968 955 981 981 955 968 968 955 955 955 955 931 943 955 908 919 931 897 908 919 908 886 908 908 897 886 908 886 919 908 955 931 955 955 931 897 886 886 855 886 865 845 845 817 826 826 817 817 799 791 808 799 865 855 855 968 968 981 955 968 968 955 955 968 955 968 981 994 994 994 981 955 931 943 855 845 791 0 651 657 629 623 613 613 603 603 598 598 588 579 579 584 584 588 579 588 584 588 603 608 603 608 886 836 865 855 0 0 0 0 0
    0 0 0 0 0 0 0 0 0 0 0 0 0 0 0 0 0 0 0 0 0 0 0 0 0 0 0 0 0 0 0 0 0 0 0 0 0 0 0 0 0 0 0 0 0 0 0 0 0 0 0 0 0 0 0 0 0 0 0 0 0 0 0 0 0 0 0 0 0 931 919 943 968 886 919 908 931 919 919 919 908 919 931 886 919 931 919 919 931 931 931 919 955 955 919 955 955 955 955 931 919 931 897 886 897 886 886 897 919 943 955 968 994 981 1008 1008 1008 1008 981 968 981 994 994 919 943 931 931 943 943 955 931 931 955 955 943 955 943 943 919 943 943 955 908 943 955 943 943 955 955 955 955 994 981 968 994 981 968 955 981 943 955 968 968 968 981 981 981 968 981 981 994 968 981 955 931 919 876 943 876 919 955 943 931 955 955 968 968 981 981 968 981 994 994 981 968 968 955 943 968 955 955 943 955 955 955 955 968 955 968 968 968 981 981 955 968 955 943 943 943 943 931 931 943 908 919 931 886 897 919 897 886 897 897 897 876 897 886 897 886 931 908 943 943 919 886 886 876 855 876 865 845 845 817 826 817 808 817 799 791 799 791 845 845 855 943 955 968 955 968 955 955 943 955 943 955 968 981 981 981 968 931 919 931 886 865 845 817 721 681 629 629 608 613 598 603 598 598 588 579 579 588 584 588 579 584 579 584 598 603 593 598 908 855 876 855 0 0 0 0 0
    0 0 0 0 0 0 0 0 0 0 0 0 0 0 0 0 0 0 0 0 0 0 0 0 0 0 0 0 0 0 0 0 0 0 0 0 0 0 0 0 0 0 0 0 0 0 0 0 0 0 0 0 0 0 0 0 0 0 0 0 0 0 0 0 0 0 0 0 0 919 908 931 943 855 865 855 886 876 886 897 886 908 919 886 908 919 919 919 919 919 919 908 943 931 886 931 919 919 919 876 876 886 865 865 876 865 876 876 886 908 931 943 981 968 981 994 994 994 981 968 968 968 981 908 931 931 919 919 919 943 919 919 955 943 931 943 931 943 919 931 931 931 886 931 931 931 931 943 943 943 931 981 955 943 981 968 943 943 955 931 955 955 968 968 968 968 968 968 981 968 968 955 968 943 931 931 876 981 886 919 955 931 931 943 955 955 955 968 968 955 981 994 968 968 943 955 931 919 955 943 955 931 943 943 943 943 955 943 968 968 968 981 981 955 968 955 943 943 943 931 919 919 931 897 908 908 876 886 919 886 876 897 886 886 876 908 886 897 886 908 886 897 908 908 865 876 865 845 865 855 845 845 817 817 817 808 817 799 799 799 791 836 845 855 919 943 955 931 955 931 931 919 943 943 955 968 994 981 968 968 943 943 943 897 886 855 0 0 0 669 645 618 618 603 603 598 598 584 574 574 579 574 579 566 574 566 570 584 588 584 584 919 876 876 855 0 0 0 0 0
    0 0 0 0 0 0 0 0 0 0 0 0 0 0 0 0 0 0 0 0 0 0 0 0 0 0 0 0 0 0 0 0 0 0 0 0 0 0 0 0 0 0 0 0 0 0 0 0 0 0 0 0 0 0 0 0 0 0 0 0 0 0 0 0 0 0 0 0 0 908 886 919 919 845 845 845 876 865 886 886 886 897 908 886 908 919 919 919 919 919 919 919 943 931 865 908 886 865 876 855 865 865 855 855 865 865 865 865 886 886 908 931 968 955 968 981 981 981 981 0 955 955 955 908 919 919 919 908 919 931 908 919 943 943 931 943 931 943 919 943 931 931 886 919 919 919 919 919 919 919 919 968 943 931 968 955 931 931 943 919 931 955 955 955 955 955 955 955 968 955 943 943 955 931 931 919 897 981 897 919 968 931 919 943 943 955 943 968 955 955 968 981 955 943 931 931 908 908 931 931 943 919 943 931 931 943 943 943 955 955 968 981 981 968 981 943 955 943 943 919 919 919 908 886 897 876 865 876 897 865 865 886 886 886 865 897 876 886 876 886 876 865 876 886 855 876 855 845 855 845 855 845 826 826 817 808 817 808 808 808 799 836 836 845 897 908 931 919 943 897 908 886 943 931 955 968 994 968 968 968 955 943 955 919 897 855 0 0 0 0 669 639 629 608 608 598 598 584 570 570 566 566 570 561 566 561 561 566 570 574 579 0 865 855 845 0 0 0 0 0
    0 0 0 0 0 0 0 0 0 0 0 0 0 0 0 0 0 0 0 0 0 0 0 0 0 0 0 0 0 0 0 0 0 0 0 0 0 0 0 0 0 0 0 0 0 0 0 0 0 0 0 0 0 0 0 0 0 0 0 0 0 0 0 0 0 0 0 0 0 886 876 897 897 836 836 845 876 855 876 876 876 886 897 876 897 908 931 908 919 919 908 908 931 908 855 876 865 0 845 845 845 855 845 845 855 865 865 865 876 886 897 919 955 955 955 981 981 994 981 0 955 955 955 908 919 919 908 908 919 931 908 919 943 943 931 943 931 943 919 931 919 919 876 908 908 897 897 908 908 908 897 955 919 908 943 919 908 931 931 908 931 955 943 943 943 943 943 943 955 943 908 919 943 931 931 919 919 968 919 908 955 919 919 931 943 943 943 943 943 943 955 968 931 931 919 908 897 897 919 919 931 908 931 919 931 931 931 931 943 943 981 981 981 968 981 943 955 955 943 919 908 908 897 876 897 876 855 865 886 865 865 886 897 886 865 897 876 876 876 876 865 845 855 855 845 865 845 836 855 845 845 845 826 826 817 817 826 817 817 808 808 836 836 845 886 897 908 897 919 876 886 876 919 908 943 968 994 955 955 955 943 931 943 908 876 855 855 0 0 808 743 0 657 629 618 608 608 588 579 570 561 561 561 557 561 557 557 557 553 574 574 0 855 836 836 0 0 0 0 0
    0 0 0 0 0 0 0 0 0 0 0 0 0 0 0 0 0 0 0 0 0 0 0 0 0 0 0 0 0 0 0 0 0 0 0 0 0 0 0 0 0 0 0 0 0 0 0 0 0 0 0 0 0 0 0 0 0 0 0 0 0 0 0 0 0 0 0 0 0 865 855 865 865 826 826 836 876 855 876 865 876 886 886 876 886 897 919 897 919 908 897 908 919 897 855 855 0 0 836 836 836 845 845 845 845 855 855 855 876 876 886 908 943 943 931 968 968 994 968 0 931 931 919 886 908 919 897 908 908 931 908 919 955 943 919 943 919 943 908 919 908 908 865 897 897 886 886 897 886 886 886 943 897 886 919 897 897 931 943 908 931 955 943 943 931 931 931 919 943 919 897 908 931 931 943 919 919 943 908 886 943 897 897 908 919 919 919 931 931 919 931 943 919 908 908 897 886 897 897 897 908 886 919 908 919 919 919 919 919 919 968 968 968 968 981 943 955 955 943 908 908 908 886 876 886 865 855 865 876 855 865 876 886 876 865 886 865 865 865 855 855 836 845 845 836 855 845 836 845 836 845 836 826 826 817 817 826 817 826 817 817 826 826 845 886 886 897 886 908 865 886 876 908 897 931 943 981 931 943 931 919 908 908 886 865 845 855 855 836 845 836 817 750 0 663 629 623 598 588 570 561 557 557 553 557 557 557 549 545 574 574 0 845 836 826 0 0 0 0 0
    0 0 0 0 0 0 0 0 0 0 0 0 0 0 0 0 0 0 0 0 0 0 0 0 0 0 0 0 0 0 0 0 0 0 0 0 0 0 0 0 0 0 0 0 0 0 0 0 0 0 0 0 0 0 0 0 0 0 0 0 0 0 0 0 0 0 0 0 0 845 845 845 855 826 826 836 865 845 876 865 865 876 876 876 886 886 919 897 919 897 886 897 908 876 845 0 0 826 836 826 836 845 845 836 845 845 855 855 865 865 876 897 919 919 908 943 931 955 931 0 876 886 876 865 886 897 897 897 908 919 908 919 943 931 919 931 919 931 897 919 908 897 865 886 886 886 886 886 876 876 876 919 876 865 886 876 886 919 943 908 931 943 943 931 931 931 919 908 931 908 886 886 908 919 931 897 897 897 876 855 908 865 876 897 908 908 908 908 919 908 919 931 897 897 897 886 876 886 876 876 886 865 908 897 908 908 897 908 908 897 943 931 931 943 968 919 943 955 931 908 908 897 886 876 886 865 855 865 876 855 855 865 876 865 865 886 865 865 855 855 855 836 836 836 836 855 845 836 845 836 845 845 836 836 826 817 826 826 0 817 817 826 817 826 865 865 876 876 886 865 886 886 908 886 908 919 968 908 919 908 886 897 897 886 865 845 855 855 845 845 836 0 0 0 0 657 629 608 593 570 557 557 557 553 553 553 553 549 537 570 570 0 836 826 817 0 0 0 0 0
    0 0 0 0 0 0 0 0 0 0 0 0 0 0 0 0 0 0 0 0 0 0 0 0 0 0 0 0 0 0 0 0 0 0 0 0 0 0 0 0 0 0 0 0 0 0 0 0 0 0 0 0 0 0 0 0 0 0 0 0 0 0 0 0 0 0 0 0 0 836 836 836 836 826 826 836 865 845 865 855 865 865 865 865 876 876 919 886 908 886 876 876 886 865 836 0 836 817 836 826 836 836 836 836 845 845 855 845 865 865 865 886 897 908 886 908 908 919 908 876 865 865 865 865 886 886 886 886 897 908 897 908 943 919 908 919 908 931 897 908 897 897 865 876 876 876 876 876 876 865 865 897 865 855 876 876 876 919 943 908 931 943 943 931 908 908 908 897 908 897 876 876 897 908 919 897 886 855 845 836 876 855 865 886 886 886 897 897 897 897 897 908 876 876 886 876 876 886 865 876 876 865 897 897 908 908 886 897 897 886 919 886 897 897 919 886 931 931 908 897 897 897 876 876 886 855 855 855 865 845 845 855 865 855 855 876 855 865 855 845 855 836 845 845 836 855 845 836 836 826 845 836 836 836 817 817 826 826 826 817 817 817 808 826 845 845 855 855 865 855 865 865 865 865 865 876 931 865 897 886 876 886 886 886 865 845 865 865 855 855 845 836 0 0 0 0 634 603 593 566 557 557 557 549 553 553 549 545 545 574 579 0 836 836 826 0 0 0 0 0
    0 0 0 0 0 0 0 0 0 0 0 0 0 0 0 0 0 0 0 0 0 0 0 0 0 0 0 0 0 0 0 0 0 0 0 0 0 0 0 0 0 0 0 0 0 0 0 0 0 0 0 0 0 0 0 0 0 0 0 0 0 0 0 0 0 0 0 0 0 826 826 826 826 817 817 826 855 836 855 855 855 855 855 855 865 855 897 865 886 865 865 865 876 855 836 836 836 817 836 817 836 836 836 836 836 836 845 836 855 845 845 865 876 886 865 886 886 897 886 865 855 865 855 855 876 876 876 876 876 897 886 897 931 897 897 897 897 919 886 886 886 886 855 865 876 865 865 865 855 855 855 876 855 845 865 865 876 919 943 908 919 943 931 919 886 886 886 876 886 886 876 876 897 919 931 886 876 855 836 836 865 845 855 876 876 876 886 886 886 876 886 886 865 876 886 865 865 876 865 865 865 865 886 886 897 897 876 876 876 876 897 865 876 865 886 865 908 919 897 876 886 886 876 865 886 855 845 845 845 826 826 826 836 836 836 865 855 865 845 845 855 836 845 836 836 855 836 836 836 826 845 836 836 826 817 817 826 817 826 808 817 817 808 826 836 836 836 836 845 836 845 845 836 836 845 855 908 865 897 876 865 886 876 876 865 845 865 865 855 865 855 855 0 0 0 0 0 0 598 557 553 553 553 549 553 553 549 545 561 579 579 0 826 826 817 0 0 0 0 0
    0 0 0 0 0 0 0 0 0 0 0 0 0 0 0 0 0 0 0 0 0 0 0 0 0 0 0 0 0 0 0 0 0 0 0 0 0 0 0 0 0 0 0 0 0 0 0 0 0 0 0 0 0 0 0 0 0 0 0 0 0 0 0 0 0 0 0 0 0 817 817 808 817 817 817 826 845 826 845 845 845 845 845 845 845 845 876 836 845 836 836 845 845 836 836 836 836 826 836 817 836 836 836 836 836 836 836 0 845 836 836 855 855 865 855 865 865 876 865 845 845 855 845 855 865 865 865 865 865 876 876 886 897 876 886 876 865 886 865 865 865 876 845 855 865 855 855 855 845 845 845 855 845 836 855 855 865 897 931 897 908 919 919 908 876 876 876 865 876 876 865 865 876 919 919 876 865 836 836 826 855 836 845 865 865 865 876 876 876 876 865 865 865 865 886 865 865 865 855 865 865 865 876 886 886 886 865 865 865 855 876 855 855 855 865 855 897 897 886 876 876 876 865 865 876 845 836 836 836 826 826 826 826 826 826 855 845 855 845 855 855 845 845 836 836 845 836 836 836 817 836 836 836 836 826 826 826 826 826 817 826 817 808 817 826 836 826 826 836 817 826 826 817 817 826 845 919 865 908 876 865 876 865 865 855 836 855 855 845 865 855 855 845 0 0 0 0 0 598 553 553 553 553 549 553 553 549 545 566 579 584 0 817 826 817 0 0 0 0 0
    0 0 0 0 0 0 0 0 0 0 0 0 0 0 0 0 0 0 0 0 0 0 0 0 0 0 0 0 0 0 0 0 0 0 0 0 0 0 0 0 0 0 0 0 0 0 0 0 0 0 0 0 0 0 0 0 0 0 0 0 0 0 0 0 0 0 0 0 0 808 808 799 808 808 808 808 826 817 836 836 845 845 845 0 845 826 855 826 826 826 817 826 836 836 836 836 836 826 836 817 836 836 836 836 836 836 836 0 845 836 836 845 845 855 836 845 836 0 0 817 817 836 836 836 845 845 855 855 855 865 865 865 865 855 876 855 855 865 865 855 855 865 845 845 855 845 845 836 836 836 836 836 836 826 845 845 855 876 908 886 886 908 908 886 855 865 865 855 865 865 855 855 865 897 886 855 845 836 836 836 845 836 845 855 865 855 865 865 865 865 865 865 865 865 886 865 876 876 865 865 865 865 876 886 886 886 855 855 855 845 855 845 845 836 845 845 886 886 876 865 865 865 855 855 865 845 836 826 826 826 817 817 826 817 826 855 845 855 845 855 855 836 836 836 826 845 826 836 836 817 836 826 836 836 826 826 826 817 826 817 826 817 808 826 826 826 826 826 826 817 826 817 808 808 817 845 931 876 931 876 845 0 855 855 836 826 836 845 845 855 845 845 0 0 0 0 0 0 593 553 553 553 553 549 553 553 553 545 574 584 584 0 808 817 808 0 0 0 0 0
    0 0 0 0 0 0 0 0 0 0 0 0 0 0 0 0 0 0 0 0 0 0 0 0 0 0 0 0 0 0 0 0 0 0 0 0 0 0 0 0 0 0 0 0 0 0 0 0 0 0 0 0 0 0 0 0 0 0 0 0 0 0 0 0 0 0 0 0 0 799 791 791 799 799 799 799 817 808 826 826 836 836 836 836 836 826 845 826 826 826 817 826 836 826 836 817 826 817 826 817 826 826 826 826 836 836 836 826 845 826 826 836 826 836 826 826 817 808 799 782 799 808 817 817 826 836 836 845 855 855 855 845 855 845 865 845 845 845 855 845 855 855 836 836 845 836 836 836 826 826 826 836 836 826 845 836 845 865 876 865 865 876 886 865 845 845 845 845 855 855 845 845 855 876 865 845 836 826 826 836 845 836 845 845 845 845 865 855 855 855 855 855 855 865 897 865 876 876 876 865 865 865 876 876 876 876 845 855 845 845 845 845 845 836 845 845 876 876 865 865 865 855 855 855 865 845 826 826 826 826 817 817 817 817 817 845 836 845 845 845 855 836 836 826 826 836 817 826 836 817 826 826 845 836 826 826 817 817 826 826 826 808 808 817 826 826 826 817 817 808 808 808 808 799 817 836 886 855 886 855 836 0 0 836 0 817 826 836 826 845 845 836 0 0 0 0 0 0 593 553 557 561 557 553 557 561 557 553 593 588 588 0 782 808 791 0 0 0 0 0
    0 0 0 0 0 0 0 0 0 0 0 0 0 0 0 0 0 0 0 0 0 0 0 0 0 0 0 0 0 0 0 0 0 0 0 0 0 0 0 0 0 0 0 0 0 0 0 0 0 0 0 0 0 0 0 0 0 0 0 0 0 0 0 0 0 0 0 0 0 791 791 791 791 791 799 791 799 799 817 817 826 826 826 826 836 826 836 826 826 817 817 817 826 826 826 817 817 808 817 808 817 826 817 826 826 836 836 826 826 826 817 826 817 826 817 817 808 808 791 774 791 791 808 808 817 826 826 836 845 855 855 836 845 826 845 836 836 836 836 836 836 845 826 817 836 826 826 826 826 817 817 826 826 817 826 817 826 0 845 0 0 845 836 826 808 826 826 836 836 845 836 836 845 865 855 845 826 826 826 826 836 826 826 826 826 836 845 845 845 845 845 845 855 865 886 865 876 876 865 865 865 865 865 865 865 855 836 845 845 845 845 845 845 836 845 855 865 865 865 855 855 855 845 855 865 845 826 826 826 817 817 817 808 799 799 826 817 817 826 836 836 836 826 817 817 826 808 817 817 808 817 808 826 826 817 826 817 817 817 817 826 808 799 817 817 817 808 808 808 791 791 791 791 782 799 817 826 826 845 845 817 817 826 826 808 808 817 817 817 836 836 826 817 799 735 0 0 0 598 557 566 566 561 557 561 566 561 557 598 588 588 0 782 808 799 0 0 0 0 0
    0 0 0 0 0 0 0 0 0 0 0 0 0 0 0 0 0 0 0 0 0 0 0 0 0 0 0 0 0 0 0 0 0 0 0 0 0 0 0 0 0 0 0 0 0 0 0 0 0 0 0 0 0 0 0 0 0 0 0 0 0 0 0 0 0 0 0 0 0 791 782 782 791 791 791 782 799 791 808 817 817 817 817 817 826 817 826 817 817 808 817 808 808 808 808 791 799 799 808 799 808 817 808 817 826 826 826 817 817 817 817 817 817 817 817 817 799 799 791 766 782 782 799 791 799 817 817 826 836 845 836 826 826 817 817 817 799 799 826 836 836 845 826 808 826 817 826 817 817 808 808 808 817 799 808 808 808 817 817 808 808 817 808 808 782 808 808 817 826 826 826 826 836 845 836 826 817 817 817 826 826 817 817 817 808 817 836 836 836 836 836 836 845 855 876 865 876 865 855 865 865 865 865 865 865 855 836 845 836 836 836 845 845 836 845 855 855 855 865 855 845 845 845 865 876 855 826 826 826 817 817 808 799 791 791 817 808 808 817 817 836 826 817 817 817 826 817 817 808 808 808 808 826 826 808 817 808 808 808 808 817 799 791 799 799 791 791 791 791 782 774 774 774 774 782 791 808 808 817 826 808 808 799 808 791 782 799 782 782 799 808 808 782 766 728 663 0 0 593 557 570 570 566 561 561 570 566 561 598 584 584 0 791 817 808 0 0 0 0 0
    0 0 0 0 0 0 0 0 0 0 0 0 0 0 0 0 0 0 0 0 0 0 0 0 0 0 0 0 0 0 0 0 0 0 0 0 0 0 0 0 0 0 0 0 0 0 0 0 0 0 0 0 0 0 0 0 0 0 0 0 0 0 0 0 0 0 0 0 0 791 782 782 791 791 791 782 791 782 791 808 808 808 808 808 817 808 817 808 808 791 817 791 799 799 791 774 791 782 799 791 791 799 799 808 817 817 817 808 817 817 817 817 817 817 808 817 799 799 782 758 774 774 791 782 791 799 799 817 826 826 817 808 808 799 791 782 735 758 791 817 826 836 817 799 817 817 817 808 799 799 799 799 808 791 791 799 799 799 799 791 791 791 791 791 774 791 799 808 808 817 817 817 817 826 817 817 817 817 808 817 826 817 808 808 799 808 817 826 836 836 836 836 845 855 865 855 865 845 845 865 865 865 855 855 855 845 817 836 826 826 836 836 836 826 836 845 836 845 855 845 836 836 836 865 865 855 826 826 817 817 808 808 791 782 782 808 799 799 808 817 826 826 808 817 808 817 817 808 799 808 808 808 817 826 808 808 799 799 791 791 799 782 774 791 774 774 782 782 782 766 766 758 758 766 766 774 791 791 791 808 799 791 782 791 766 766 774 766 766 774 791 791 766 743 721 634 0 584 584 553 570 570 566 566 566 574 570 570 598 574 574 791 791 817 808 0 0 0 0 0
    0 0 0 0 0 0 0 0 0 0 0 0 0 0 0 0 0 0 0 0 0 0 0 0 0 0 0 0 0 0 0 0 0 0 0 0 0 0 0 0 0 0 0 0 0 0 0 0 0 0 0 0 0 0 0 0 0 0 0 0 0 0 0 0 0 0 0 0 0 791 774 782 782 782 782 774 774 774 782 799 799 799 799 799 808 799 808 799 799 782 817 791 799 791 774 766 782 774 782 774 774 791 791 799 808 808 817 808 808 817 817 817 817 817 808 808 791 799 774 758 774 774 782 774 782 791 791 799 817 808 799 791 791 782 782 766 743 750 774 791 799 817 799 782 808 808 808 799 799 791 791 791 808 791 791 799 791 791 791 782 782 782 782 791 766 791 791 791 799 808 808 808 808 817 817 817 817 817 808 817 817 808 799 791 782 782 808 817 836 836 826 826 836 845 865 845 845 836 836 855 855 855 845 845 836 836 808 836 826 817 826 826 826 826 826 836 826 826 826 826 817 826 836 855 865 855 826 826 826 817 808 808 791 782 782 799 791 799 808 808 817 817 799 808 791 799 791 782 766 791 791 791 799 799 791 791 782 791 766 774 791 766 766 782 766 774 774 782 774 758 750 750 743 750 750 743 750 758 766 782 791 774 766 774 758 766 774 758 766 766 782 791 766 735 714 623 0 579 574 553 570 570 566 566 566 579 570 570 598 570 574 799 799 808 799 0 0 0 0 0
    0 0 0 0 0 0 0 0 0 0 0 0 0 0 0 0 0 0 0 0 0 0 0 0 0 0 0 0 0 0 0 0 0 0 0 0 0 0 0 0 0 0 0 0 0 0 0 0 0 0 0 0 0 0 0 0 0 0 0 0 0 0 0 0 0 0 0 0 0 782 766 774 774 774 766 758 766 758 774 791 782 791 799 791 799 782 799 791 799 774 799 782 791 774 766 758 774 766 774 766 766 774 782 791 799 799 799 791 799 817 808 808 808 808 799 808 782 791 766 758 774 774 774 774 774 782 782 799 808 799 791 782 782 782 782 766 750 750 766 791 782 808 791 766 799 799 799 791 791 791 782 782 799 782 782 791 791 791 791 782 782 782 774 782 766 782 782 782 799 799 799 799 799 808 799 808 817 817 808 808 808 799 791 782 766 758 799 808 826 826 817 817 826 836 845 826 826 817 808 845 845 845 836 826 826 817 799 826 817 817 817 817 817 808 808 817 808 808 817 817 808 817 826 855 865 855 826 826 826 817 808 799 791 774 774 791 782 782 799 799 799 799 782 782 774 766 758 750 743 774 774 791 799 799 782 791 791 799 774 774 791 758 766 774 758 766 774 774 766 750 743 743 743 743 735 728 728 743 750 774 782 774 766 774 758 766 766 758 758 758 782 791 758 728 0 618 0 579 574 553 570 570 566 566 566 579 566 570 598 570 574 799 799 791 791 0 0 0 0 0
    0 0 0 0 0 0 0 0 0 0 0 0 0 0 0 0 0 0 0 0 0 0 0 0 0 0 0 0 0 0 0 0 0 0 0 0 0 0 0 0 0 0 0 0 0 0 0 0 0 0 0 0 0 0 0 0 0 0 0 0 0 0 0 0 0 0 0 0 0 774 750 766 766 766 758 750 758 758 774 782 766 782 791 782 791 774 782 774 791 766 791 766 782 774 758 758 774 766 774 766 766 774 774 791 799 782 791 782 791 808 808 808 799 799 791 799 774 791 766 758 774 774 774 774 774 782 782 799 799 791 782 782 782 774 782 766 750 758 766 782 782 799 782 750 791 791 791 782 782 782 774 774 799 774 774 791 782 791 782 774 782 782 774 774 758 782 774 766 791 791 791 791 791 799 799 799 817 817 799 799 799 791 791 774 750 750 782 799 817 817 799 799 808 817 826 808 808 808 799 826 826 826 817 817 817 817 799 817 808 808 808 808 817 808 799 808 799 799 808 799 799 808 817 855 865 855 826 826 826 817 817 799 791 774 774 791 774 774 791 782 791 782 750 750 743 743 743 735 735 758 758 782 791 782 774 782 782 799 774 774 774 750 758 758 743 758 766 774 758 743 735 735 735 735 735 728 728 735 743 766 782 782 766 782 766 774 774 758 758 750 766 774 735 707 663 618 557 579 574 553 570 570 561 566 566 579 566 570 598 570 579 791 782 782 782 0 0 0 0 0
    0 0 0 0 0 0 0 0 0 0 0 0 0 0 0 0 0 0 0 0 0 0 0 0 0 0 0 0 0 0 0 0 0 0 0 0 0 0 0 0 0 0 0 0 0 0 0 0 0 0 0 0 0 0 0 0 0 0 0 0 0 0 0 0 0 0 0 0 0 774 750 766 766 766 758 758 766 766 774 791 766 774 782 782 782 766 774 758 782 758 782 758 766 766 743 750 766 758 766 758 750 758 758 782 782 766 774 774 782 808 808 808 799 799 791 799 774 791 766 766 782 782 774 782 774 782 782 799 799 782 782 782 782 782 782 766 766 758 774 782 782 791 782 743 782 782 774 774 774 774 774 766 791 774 774 791 782 791 782 774 782 774 766 766 758 774 766 758 782 782 782 791 791 791 791 799 808 808 791 782 799 782 782 766 750 750 766 791 808 808 782 791 799 808 799 791 791 791 782 808 808 808 799 799 808 808 799 808 808 808 808 808 808 808 791 799 791 799 799 799 799 799 808 855 865 855 826 826 826 817 808 799 782 774 766 791 766 766 774 774 774 766 735 735 728 735 735 728 721 743 735 750 743 728 728 728 735 750 728 721 735 728 735 735 728 743 758 766 750 735 735 728 735 735 735 728 728 735 743 766 791 791 774 782 782 782 774 758 758 750 750 758 728 700 651 618 561 584 574 553 570 566 561 566 566 574 561 570 598 579 588 774 766 758 782 0 0 0 0 0
    0 0 0 0 0 0 0 0 0 0 0 0 0 0 0 0 0 0 0 0 0 0 0 0 0 0 0 0 0 0 0 0 0 0 0 0 0 0 0 0 0 0 0 0 0 0 0 0 0 0 0 0 0 0 0 0 0 0 0 0 0 0 0 0 0 0 0 0 0 774 750 774 766 766 758 758 766 774 774 791 774 774 782 782 782 766 766 750 774 750 774 758 758 750 735 750 758 758 758 750 750 750 758 782 782 766 774 774 782 808 817 808 799 808 799 799 782 791 766 766 782 782 782 782 774 782 782 799 791 774 774 774 774 774 782 774 774 766 774 774 782 782 782 735 766 766 766 766 766 766 766 766 791 774 774 791 782 782 782 774 774 774 758 758 758 766 758 750 774 774 774 774 774 774 774 791 799 799 782 766 791 774 774 766 743 750 758 774 799 791 758 774 782 791 791 766 774 774 774 799 799 799 791 791 799 799 791 808 799 799 799 799 808 799 782 791 791 791 791 799 791 799 808 855 855 855 826 826 826 817 808 791 774 766 766 774 758 758 766 758 774 758 735 728 721 721 721 714 714 728 721 721 721 714 707 714 714 721 707 700 714 714 714 714 714 735 750 750 743 728 728 728 735 735 735 728 728 735 743 766 791 791 766 782 782 782 774 758 758 750 743 758 721 700 657 618 566 588 574 553 566 566 561 566 561 570 557 566 603 584 0 758 750 750 766 0 0 0 0 0
    0 0 0 0 0 0 0 0 0 0 0 0 0 0 0 0 0 0 0 0 0 0 0 0 0 0 0 0 0 0 0 0 0 0 0 0 0 0 0 0 0 0 0 0 0 0 0 0 0 0 0 0 0 0 0 0 0 0 0 0 0 0 0 0 0 0 0 0 0 774 750 766 766 766 750 758 766 774 774 791 766 774 782 774 774 766 758 743 758 743 758 743 750 743 728 743 758 750 758 758 750 758 758 791 791 774 774 774 774 799 808 808 799 799 799 808 782 799 774 774 782 782 782 782 782 782 782 799 791 766 774 766 774 774 782 766 766 766 774 766 766 766 766 728 758 758 758 758 758 758 758 758 791 774 774 791 782 782 782 774 774 766 750 750 750 758 750 743 766 766 766 766 766 766 758 774 791 782 758 750 774 750 766 750 743 743 750 766 791 774 750 766 766 782 774 750 758 758 766 791 782 782 774 782 791 791 782 799 782 791 791 782 791 782 766 782 782 791 791 791 791 799 808 845 855 845 826 826 826 817 799 774 766 758 758 766 750 750 750 750 766 743 728 721 714 714 714 714 714 721 714 721 714 714 707 707 714 714 700 700 714 707 714 714 714 735 750 750 735 728 728 728 735 735 735 728 728 735 743 750 774 758 743 750 758 750 750 743 743 743 735 743 721 700 657 618 570 588 570 553 566 561 557 561 561 566 553 566 598 584 0 750 743 743 758 0 0 0 0 0
    0 0 0 0 0 0 0 0 0 0 0 0 0 0 0 0 0 0 0 0 0 0 0 0 0 0 0 0 0 0 0 0 0 0 0 0 0 0 0 0 0 0 0 0 0 0 0 0 0 0 0 0 0 0 0 0 0 0 0 0 0 0 0 0 0 0 0 0 0 766 750 766 766 766 743 750 758 766 766 791 750 750 766 758 750 743 743 728 735 728 728 728 735 735 721 743 750 750 758 758 750 758 758 791 782 766 766 766 774 791 808 799 791 791 791 799 782 799 766 774 791 791 782 782 782 782 774 799 782 750 758 758 766 766 782 766 766 766 766 758 758 758 758 721 750 758 750 758 758 758 758 758 791 782 774 791 791 791 791 791 782 766 758 750 750 758 743 735 758 758 758 758 766 758 758 766 791 774 750 735 766 743 758 750 743 743 750 766 782 766 750 758 758 774 766 743 750 758 758 782 774 782 774 774 791 791 782 791 782 791 774 766 774 758 750 774 774 782 782 791 791 791 808 826 836 836 826 826 817 826 799 758 766 758 758 758 743 743 743 743 758 728 721 714 707 714 714 707 707 721 714 714 714 707 700 707 707 714 707 707 714 714 721 735 728 750 758 758 735 721 721 721 728 735 728 721 728 728 735 743 750 735 721 728 735 735 735 735 735 743 728 735 721 694 639 613 574 588 566 553 561 561 557 561 557 561 549 566 598 584 0 735 735 728 735 0 0 0 0 0
    0 0 0 0 0 0 0 0 0 0 0 0 0 0 0 0 0 0 0 0 0 0 0 0 0 0 0 0 0 0 0 0 0 0 0 0 0 0 0 0 0 0 0 0 0 0 0 0 0 0 0 0 0 0 0 0 0 0 0 0 0 0 0 0 0 0 0 0 0 750 743 758 758 750 735 735 743 758 750 774 735 735 750 750 743 743 735 721 728 721 714 721 728 721 714 735 743 750 750 758 750 750 758 791 774 758 750 750 758 774 799 782 766 766 774 782 758 782 750 766 782 782 782 782 774 774 774 799 758 735 743 743 758 766 774 758 766 766 774 758 758 750 743 721 750 750 750 750 758 758 750 766 791 782 782 799 799 799 791 791 782 766 758 750 750 758 743 735 750 758 758 758 758 758 750 766 782 782 758 743 774 750 766 758 750 750 758 766 782 758 750 758 766 774 766 743 750 758 758 782 766 774 766 774 791 791 782 791 774 782 766 758 774 743 750 766 766 774 774 782 782 782 799 817 826 826 826 826 808 826 782 743 766 750 750 743 735 735 735 735 743 721 721 707 707 707 707 707 707 714 714 714 714 707 700 707 707 714 714 714 721 714 721 750 743 774 766 750 735 707 714 714 728 728 728 721 721 721 728 735 735 721 714 714 721 721 728 728 735 750 728 735 707 675 634 618 588 593 566 553 561 561 557 557 557 557 549 566 598 584 0 735 728 728 728 0 0 0 0 0
    0 0 0 0 0 0 0 0 0 0 0 0 0 0 0 0 0 0 0 0 0 0 0 0 0 0 0 0 0 0 0 0 0 0 0 0 0 0 0 0 0 0 0 0 0 0 0 0 0 0 0 0 0 0 0 0 0 0 0 0 0 0 0 0 0 0 0 0 0 721 728 735 735 728 721 721 728 743 743 758 721 721 728 735 735 735 721 714 721 707 700 707 714 714 707 728 735 743 750 758 750 750 750 791 750 743 735 735 743 750 766 750 735 743 750 758 743 750 735 758 774 774 774 766 766 774 766 791 743 728 735 735 750 758 766 758 766 766 774 750 758 743 728 721 743 743 743 743 750 750 750 766 791 782 791 799 799 799 791 791 782 766 758 750 750 758 743 735 750 758 758 758 758 758 750 766 782 782 766 743 791 758 774 766 758 758 758 766 782 758 758 758 766 774 766 750 758 758 766 782 766 774 766 774 791 782 782 782 774 782 766 758 774 743 750 766 766 774 774 782 782 774 799 808 817 808 817 817 808 826 758 728 758 750 750 735 735 735 735 735 743 714 714 707 700 700 700 694 700 707 707 707 714 707 700 707 714 714 714 714 721 714 714 743 728 743 735 0 714 687 707 0 721 728 728 721 721 721 735 735 735 721 714 721 728 721 728 714 728 750 728 728 700 663 639 623 603 603 566 553 561 557 553 557 553 553 549 566 593 584 0 728 721 721 728 0 0 0 0 0
    0 0 0 0 0 0 0 0 0 0 0 0 0 0 0 0 0 0 0 0 0 0 0 0 0 0 0 0 0 0 0 0 0 0 0 0 0 0 0 0 0 0 0 0 0 0 0 0 0 0 0 0 0 0 0 0 0 0 0 0 0 0 0 0 0 0 0 0 0 707 721 721 721 721 714 714 721 735 735 728 707 700 707 714 714 714 707 694 707 694 694 700 700 700 700 721 728 735 743 750 743 743 743 774 728 728 728 721 728 728 728 721 721 721 728 728 721 728 721 743 758 758 750 750 750 766 758 791 728 714 728 728 743 743 750 743 758 758 758 735 750 728 721 714 735 735 735 735 743 743 735 758 782 774 782 791 782 782 774 782 758 743 735 735 735 743 735 735 743 750 750 750 750 750 743 758 774 774 766 750 791 758 774 766 758 758 758 766 782 750 750 758 766 774 766 743 758 758 758 774 758 766 758 766 791 782 774 774 766 782 766 758 774 743 758 766 774 774 774 782 782 782 799 799 808 799 791 799 782 808 728 714 743 735 743 728 728 728 728 728 735 714 714 707 707 700 700 694 694 700 700 700 707 707 700 707 714 714 714 714 714 707 700 721 700 694 694 651 687 675 707 714 728 728 728 721 728 721 735 735 728 714 707 714 721 721 721 714 721 743 728 728 700 669 639 623 613 608 561 557 561 561 553 553 553 549 549 570 588 584 707 721 714 714 721 0 0 0 0 0
    0 0 0 0 0 0 0 0 0 0 0 0 0 0 0 0 0 0 0 0 0 0 0 0 0 0 0 0 0 0 0 0 0 0 0 0 0 0 0 0 0 0 0 0 0 0 0 0 0 0 0 0 0 0 0 0 0 0 0 0 0 0 0 0 0 0 0 0 0 700 714 714 721 721 714 721 721 735 735 721 700 694 700 700 707 707 700 687 700 681 687 694 694 694 694 707 714 714 735 743 728 735 735 750 721 721 721 714 714 721 714 707 707 707 714 714 707 707 707 728 735 735 735 728 728 758 750 774 714 707 714 714 728 728 735 728 735 735 735 714 728 721 714 714 728 728 728 728 735 735 735 758 774 758 774 774 758 750 743 750 728 721 721 721 721 728 721 728 735 735 743 743 743 743 743 758 758 766 766 750 791 758 774 766 758 750 750 750 766 743 743 750 758 766 750 735 743 743 743 750 743 743 743 750 782 766 758 758 758 766 750 743 766 735 758 766 774 782 774 782 782 782 799 799 808 799 791 791 782 808 728 714 735 735 735 721 728 721 721 721 721 707 707 707 707 700 700 694 694 694 694 694 700 700 694 707 707 714 707 714 707 700 694 700 694 681 675 645 657 669 700 714 728 735 735 728 728 721 728 728 721 707 700 707 714 714 714 714 714 735 728 728 700 675 639 629 613 608 561 566 566 561 557 557 553 549 549 579 584 579 645 714 714 707 714 0 0 0 0 0
    0 0 0 0 0 0 0 0 0 0 0 0 0 0 0 0 0 0 0 0 0 0 0 0 0 0 0 0 0 0 0 0 0 0 0 0 0 0 0 0 0 0 0 0 0 0 0 0 0 0 0 0 0 0 0 0 0 0 0 0 0 0 0 0 0 0 0 0 0 687 700 700 707 707 707 707 721 728 728 714 700 694 694 700 700 700 694 681 694 675 681 687 687 687 681 694 700 700 721 728 714 721 721 728 714 714 714 707 707 714 707 700 700 700 707 707 694 700 700 714 714 721 714 714 707 735 728 743 700 694 700 707 721 721 721 714 721 728 721 707 721 714 707 714 721 721 721 721 728 728 728 750 758 750 750 750 735 728 728 728 714 714 714 707 714 714 714 721 728 728 735 735 743 743 743 750 750 750 766 758 791 758 774 758 750 743 743 735 743 728 728 735 743 750 735 721 728 728 728 728 714 721 721 721 758 743 735 735 743 743 735 735 750 728 750 766 766 774 766 774 782 774 799 799 799 791 766 782 766 774 721 707 735 735 728 721 721 721 714 721 721 707 700 707 707 700 700 694 694 694 694 700 700 700 694 707 707 707 707 707 707 694 687 694 681 675 663 645 651 663 694 707 728 735 735 728 728 721 728 728 721 707 707 714 714 707 707 707 714 728 721 721 700 681 645 0 613 608 561 566 566 561 557 557 557 553 553 588 570 574 694 714 721 714 721 0 0 0 0 0
    0 0 0 0 0 0 0 0 0 0 0 0 0 0 0 0 0 0 0 0 0 0 0 0 0 0 0 0 0 0 0 0 0 0 0 0 0 0 0 0 0 0 0 0 0 0 0 0 0 0 0 0 0 0 0 0 0 0 0 0 0 0 0 0 0 0 0 0 0 687 700 694 694 694 700 700 707 714 721 707 700 687 687 694 694 700 694 675 694 663 681 681 687 681 675 687 694 694 714 714 707 707 707 714 700 700 700 694 694 700 694 687 687 687 700 700 681 694 694 700 700 700 700 694 694 707 707 707 694 681 687 694 707 707 707 707 714 721 714 707 721 714 700 707 714 714 714 721 721 721 721 743 743 735 735 728 721 721 714 714 707 707 707 707 707 707 707 714 721 721 728 728 735 735 735 735 735 728 743 743 774 750 766 743 735 735 728 721 721 714 714 721 728 728 728 714 721 721 721 714 700 707 700 707 735 728 714 721 728 735 728 728 735 721 743 758 766 774 766 766 774 766 791 782 782 758 728 743 735 735 714 707 728 728 728 714 721 714 714 714 714 700 700 700 700 694 694 694 694 694 700 700 700 700 700 707 707 707 707 707 700 687 681 687 675 669 657 651 651 669 694 700 728 743 743 728 728 721 721 721 714 707 700 707 714 707 707 707 707 714 714 714 694 675 0 0 608 603 557 570 570 561 561 561 561 557 557 593 566 566 0 721 721 714 721 0 0 0 0 0
    0 0 0 0 0 0 0 0 0 0 0 0 0 0 0 0 0 0 0 0 0 0 0 0 0 0 0 0 0 0 0 0 0 0 0 0 0 0 0 0 0 0 0 0 0 0 0 0 0 0 0 0 0 0 0 0 0 0 0 0 0 0 0 0 0 0 0 0 0 687 694 687 694 694 694 694 700 700 707 694 694 681 681 694 694 700 694 681 694 663 675 681 681 675 675 681 687 687 700 707 700 700 700 700 694 687 687 687 687 687 681 675 675 681 687 694 669 681 687 687 694 694 687 681 681 694 694 687 681 675 681 681 694 700 700 700 714 721 707 707 721 714 700 707 707 707 707 714 714 714 707 735 728 728 721 714 707 714 707 707 700 700 700 700 700 700 707 714 714 714 721 721 721 721 728 721 714 714 714 714 728 721 735 721 721 714 714 714 707 700 707 707 714 721 721 707 714 714 714 700 694 694 694 694 714 707 700 707 714 721 721 721 721 714 735 750 750 766 758 758 766 758 782 750 750 728 714 721 721 714 707 707 721 721 721 714 714 714 707 714 714 694 694 694 700 694 694 687 687 687 700 700 707 707 707 714 714 714 707 707 694 681 681 681 669 663 657 651 651 663 687 681 728 743 758 735 728 714 721 714 707 707 707 714 714 714 707 707 707 714 714 707 694 669 0 0 613 603 557 574 570 566 561 561 561 561 561 598 566 570 598 714 714 707 714 0 0 0 0 0
    0 0 0 0 0 0 0 0 0 0 0 0 0 0 0 0 0 0 0 0 0 0 0 0 0 0 0 0 0 0 0 0 0 0 0 0 0 0 0 0 0 0 0 0 0 0 0 0 0 0 0 0 0 0 0 0 0 0 0 0 0 0 0 0 0 0 0 0 0 687 694 687 687 687 694 694 694 700 700 694 694 681 681 694 694 700 694 681 687 663 681 681 681 675 675 681 687 681 700 694 694 694 700 694 694 687 687 687 687 681 675 669 669 669 687 687 657 675 681 681 681 681 681 675 675 687 681 675 681 669 675 675 687 694 694 700 714 714 707 707 714 707 694 700 700 700 700 707 707 707 700 721 714 714 714 700 700 707 700 700 694 694 694 694 700 700 700 707 714 707 707 714 714 714 714 707 707 694 700 700 707 707 721 707 707 700 700 700 700 694 700 700 707 714 714 700 707 707 707 694 687 687 687 687 700 700 694 700 707 714 714 714 714 707 728 735 743 750 750 743 758 743 750 728 721 707 700 707 707 707 700 707 714 714 714 707 707 707 707 707 707 694 694 694 700 694 694 687 687 687 700 700 700 700 707 714 714 714 707 707 694 675 675 675 663 663 657 651 651 663 681 669 700 728 750 728 721 0 0 707 707 707 707 714 714 714 707 707 707 707 707 700 687 663 0 623 608 603 557 574 574 566 566 566 566 561 561 598 570 570 593 714 714 707 714 0 0 0 0 0
    0 0 0 0 0 0 0 0 0 0 0 0 0 0 0 0 0 0 0 0 0 0 0 0 0 0 0 0 0 0 0 0 0 0 0 0 0 0 0 0 0 0 0 0 0 0 0 0 0 0 0 0 0 0 0 0 0 0 0 0 0 0 0 0 0 0 0 0 0 687 694 687 687 687 687 694 694 700 700 694 694 681 681 694 687 694 694 681 687 669 681 681 681 681 675 681 687 681 700 694 694 694 700 694 694 687 687 687 687 681 675 669 663 669 687 687 657 675 675 675 675 681 675 669 669 687 675 669 675 675 675 681 681 687 687 687 700 707 694 694 700 700 681 687 694 694 694 694 700 700 694 0 700 707 707 700 700 700 694 694 694 694 694 694 700 700 694 700 707 694 700 700 700 700 700 694 694 687 694 694 694 700 707 694 694 694 694 694 694 694 694 694 700 707 707 694 694 694 694 687 681 681 681 681 694 694 687 694 694 700 700 707 700 700 721 728 728 743 743 735 743 728 728 707 707 700 694 694 700 700 700 707 714 707 707 707 707 707 700 707 707 687 694 700 700 694 694 694 687 687 700 694 694 694 700 707 714 707 700 700 687 675 675 669 663 657 657 657 651 663 681 663 694 714 743 721 0 0 714 714 714 714 721 721 721 714 707 707 700 707 707 700 687 663 629 623 608 598 557 574 574 570 566 566 566 561 566 598 566 566 593 714 721 707 714 0 0 0 0 0
    0 0 0 0 0 0 0 0 0 0 0 0 0 0 0 0 0 0 0 0 0 0 0 0 0 0 0 0 0 0 0 0 0 0 0 0 0 0 0 0 0 0 0 0 0 0 0 0 0 0 0 0 0 0 0 0 0 0 0 0 0 0 0 0 0 0 0 0 0 687 687 681 681 681 687 694 694 700 694 687 694 687 681 687 681 687 694 681 687 669 687 687 681 681 681 681 687 681 700 687 694 694 700 694 694 687 687 687 687 681 675 669 663 669 681 681 651 675 675 675 675 681 675 669 669 687 675 669 681 681 681 681 681 687 681 681 694 700 687 687 694 700 669 687 694 687 687 694 694 694 687 0 700 707 707 700 700 700 694 694 694 694 687 687 694 694 687 694 700 681 694 694 687 694 694 687 687 681 694 694 687 694 694 687 687 687 687 687 687 687 687 687 700 700 700 687 687 687 687 681 675 675 675 675 687 687 675 687 687 694 694 694 694 694 707 721 721 728 728 728 735 721 714 700 700 694 694 694 694 694 694 700 707 700 700 694 700 700 700 700 700 687 700 700 707 694 694 694 687 687 700 687 681 687 694 700 707 700 694 694 681 669 669 663 657 657 651 657 651 657 669 645 675 651 675 669 651 681 707 714 721 728 728 728 721 721 707 707 700 700 694 694 681 657 629 618 608 593 557 574 574 566 566 566 566 561 566 598 557 561 588 714 721 714 714 0 0 0 0 0
    0 0 0 0 0 0 0 0 0 0 0 0 0 0 0 0 0 0 0 0 0 0 0 0 0 0 0 0 0 0 0 0 0 0 0 0 0 0 0 0 0 0 0 0 0 0 0 0 0 0 0 0 0 0 0 0 0 0 0 0 0 0 0 0 0 0 0 0 0 687 687 681 687 681 687 694 700 700 694 694 694 687 687 694 687 694 700 694 700 675 694 687 687 681 681 681 681 675 694 675 681 687 694 694 687 687 687 687 687 681 675 663 657 657 675 675 639 675 675 669 675 675 675 669 669 687 675 675 687 687 681 687 687 687 687 681 700 700 687 675 687 700 669 687 694 687 687 694 694 694 687 0 700 700 700 694 694 694 687 687 687 687 687 687 687 687 687 694 694 675 687 687 687 687 694 687 687 681 694 694 687 694 694 687 681 687 687 687 687 681 687 687 694 694 694 681 681 687 687 681 675 675 675 675 687 687 669 681 681 687 687 687 675 687 694 700 700 707 714 707 714 707 0 694 694 694 687 694 694 687 694 694 694 694 694 687 694 694 694 700 700 687 700 700 707 700 700 694 694 687 700 687 675 681 681 687 700 694 681 681 669 663 669 657 657 657 651 657 645 657 663 645 669 645 645 645 634 663 651 687 707 714 721 721 714 714 707 700 687 694 687 687 675 657 623 613 603 579 557 570 570 566 566 566 566 561 566 598 561 561 0 721 721 714 714 0 0 0 0 0
    0 0 0 0 0 0 0 0 0 0 0 0 0 0 0 0 0 0 0 0 0 0 0 0 0 0 0 0 0 0 0 0 0 0 0 0 0 0 0 0 0 0 0 0 0 0 0 0 0 0 0 0 0 0 0 0 0 0 0 0 0 0 0 0 0 0 0 0 0 687 687 681 681 681 687 694 700 700 694 707 714 694 700 707 700 707 707 714 707 687 694 694 687 681 675 675 681 669 687 663 675 681 694 687 687 687 687 681 681 675 675 657 651 651 669 675 634 675 681 669 669 675 675 675 675 687 675 669 687 687 681 687 687 687 687 681 700 700 681 675 681 700 669 687 694 687 687 0 694 694 687 700 694 700 700 687 687 694 687 687 687 687 687 687 687 687 681 687 694 675 687 687 687 687 694 687 687 681 694 687 687 694 694 687 687 687 687 687 687 687 687 687 694 694 694 681 681 687 687 681 675 675 681 681 687 687 663 675 675 681 675 669 657 675 675 687 681 681 694 694 700 687 687 694 687 687 687 694 694 687 694 687 687 687 694 681 687 687 687 687 694 675 694 694 700 694 694 687 687 687 700 687 675 675 681 687 694 681 669 675 663 663 669 657 657 657 651 657 645 657 663 645 663 645 639 639 639 663 639 657 651 700 714 714 707 700 694 687 681 687 681 681 669 645 623 613 603 570 553 566 566 561 561 566 566 561 570 598 561 566 0 743 758 735 721 0 0 0 0 0
    0 0 0 0 0 0 0 0 0 0 0 0 0 0 0 0 0 0 0 0 0 0 0 0 0 0 0 0 0 0 0 0 0 0 0 0 0 0 0 0 0 0 0 0 0 0 0 0 0 0 0 0 0 0 0 0 0 0 0 0 0 0 0 0 0 0 0 0 0 681 687 675 681 681 687 687 694 700 694 707 721 694 694 714 707 714 714 721 707 687 700 694 687 681 669 675 675 663 681 645 675 687 694 694 687 687 687 687 681 669 669 645 639 634 651 675 639 681 687 675 675 675 675 675 675 687 675 669 687 687 687 687 687 687 681 675 694 0 675 663 675 694 657 681 687 687 687 687 687 687 687 700 694 700 694 687 694 694 694 687 687 687 687 687 694 687 681 687 694 669 687 687 687 687 687 687 681 675 694 687 687 687 694 687 687 694 694 694 694 687 694 694 700 700 700 681 687 687 687 681 675 681 681 681 694 681 657 669 675 681 669 663 651 663 675 681 675 669 681 681 694 681 681 687 687 687 687 687 687 687 687 687 681 681 681 675 681 675 681 681 687 663 687 694 694 694 687 681 687 687 700 687 669 669 675 681 694 681 669 675 663 669 675 657 657 657 651 657 645 651 657 639 657 645 639 639 639 663 639 645 623 0 0 0 700 687 675 675 669 669 663 663 651 634 618 608 598 566 553 566 566 561 561 566 566 561 574 598 566 566 0 743 750 735 714 0 0 0 0 0
    0 0 0 0 0 0 0 0 0 0 0 0 0 0 0 0 0 0 0 0 0 0 0 0 0 0 0 0 0 0 0 0 0 0 0 0 0 0 0 0 0 0 0 0 0 0 0 0 0 0 0 0 0 0 0 0 0 0 0 0 0 0 0 0 0 0 0 0 0 681 681 675 681 681 681 687 687 694 681 694 694 663 657 694 694 700 707 714 707 687 700 694 681 675 669 675 675 657 669 629 669 687 694 687 687 681 681 681 675 657 657 639 634 0 0 0 645 687 687 675 675 681 675 675 675 687 669 669 0 0 0 0 165 0 675 657 0 0 0 0 0 687 657 681 687 687 687 687 687 687 681 700 694 694 687 681 687 694 694 694 694 687 687 694 694 687 687 694 700 669 687 687 687 687 687 681 675 675 694 681 687 687 687 687 694 694 694 694 694 694 694 694 700 700 700 681 687 687 694 687 681 681 681 681 694 681 657 669 681 687 675 669 657 669 681 681 675 669 681 681 687 675 681 681 681 681 687 687 687 681 687 687 681 675 675 669 675 669 675 675 675 651 687 687 694 687 681 675 681 681 694 681 657 669 669 681 687 675 663 663 657 669 675 651 657 651 645 645 639 645 645 639 651 639 639 639 639 663 639 651 623 0 0 0 669 663 651 657 651 651 645 645 634 618 608 603 598 561 557 566 566 561 561 566 561 561 579 598 570 574 0 694 675 700 645 0 0 0 0 0
    0 0 0 0 0 0 0 0 0 0 0 0 0 0 0 0 0 0 0 0 0 0 0 0 0 0 0 0 0 0 0 0 0 0 0 0 0 0 0 0 0 0 0 0 0 0 0 0 0 0 0 0 0 0 0 0 0 0 0 0 0 0 0 0 0 0 0 0 0 675 675 669 675 675 675 681 687 694 675 681 681 639 634 657 663 663 669 657 687 663 700 694 675 663 657 669 669 645 651 613 645 687 694 687 681 675 681 675 669 645 0 0 0 0 0 0 0 687 694 675 675 681 681 675 675 687 669 0 0 0 164 0 164 0 0 0 0 0 0 0 0 687 645 675 681 681 687 687 687 687 681 694 694 694 687 675 687 687 694 694 694 0 694 694 694 687 687 694 700 663 681 681 681 687 687 681 675 675 694 687 694 687 694 687 694 694 694 694 700 694 700 694 700 700 700 681 687 687 687 681 675 675 681 675 694 681 669 675 681 694 687 681 675 675 687 681 681 669 681 687 687 669 681 681 681 681 687 681 681 681 687 681 675 669 675 663 675 669 675 675 675 645 681 687 694 687 675 675 675 675 694 675 651 657 663 675 681 663 645 651 651 669 669 651 651 645 639 639 634 639 639 634 639 634 634 639 645 663 639 663 629 0 0 0 651 645 645 645 639 639 639 634 623 613 598 598 593 557 557 566 561 561 566 566 561 561 584 593 566 574 603 669 639 651 623 0 0 0 0 0
    0 0 0 0 0 0 0 0 0 0 0 0 0 0 0 0 0 0 0 0 0 0 0 0 0 0 0 0 0 0 0 0 0 0 0 0 0 0 0 0 0 0 0 0 0 0 0 0 0 0 0 0 0 0 0 0 0 0 0 0 0 0 0 0 0 0 0 0 0 663 663 645 651 657 657 669 675 681 657 645 663 623 618 623 629 629 618 608 634 623 687 681 657 645 639 657 657 634 634 603 0 681 694 687 681 669 675 669 657 634 0 0 0 0 0 0 0 0 687 675 675 681 681 675 669 681 669 0 0 0 0 0 0 0 0 0 0 618 0 0 645 657 629 657 675 669 681 681 681 681 675 694 687 687 681 663 681 687 694 694 0 0 694 694 694 687 681 687 694 663 681 675 681 0 0 681 675 669 694 687 694 694 694 694 700 700 0 700 700 694 700 700 700 700 700 675 681 675 675 675 669 669 669 669 687 675 675 681 687 700 694 694 687 681 694 694 687 681 687 687 694 669 681 681 681 681 687 687 681 681 687 681 675 669 669 657 669 669 675 675 675 639 681 687 694 687 669 669 675 675 687 669 651 651 651 669 663 634 629 629 629 645 634 634 634 634 629 629 623 634 634 634 639 634 634 634 639 663 639 657 629 608 608 0 629 623 634 629 629 623 629 629 618 598 593 593 593 553 561 566 566 561 566 561 561 561 584 584 561 570 603 645 629 639 618 0 0 0 0 0
    0 0 0 0 0 0 0 0 0 0 0 0 0 0 0 0 0 0 0 0 0 0 0 0 0 0 0 0 0 0 0 0 0 0 0 0 0 0 0 0 0 0 0 0 0 0 0 0 0 0 0 0 0 0 0 0 0 0 0 0 0 0 0 0 0 0 0 0 0 623 629 618 623 634 634 645 645 651 634 0 634 613 0 608 613 613 608 603 613 608 675 663 634 629 623 639 639 629 618 598 579 645 669 657 645 645 639 0 0 0 0 0 0 0 0 0 0 0 681 669 663 675 675 675 669 675 657 0 0 0 0 0 0 0 623 618 634 618 608 634 634 639 623 639 663 657 675 669 669 669 663 687 681 681 675 657 681 681 694 694 0 694 694 694 687 681 675 687 694 657 675 669 669 0 0 675 663 657 687 675 681 694 694 694 707 707 700 700 700 694 700 694 700 694 694 669 681 675 675 669 663 663 663 663 681 669 681 681 694 707 700 700 694 687 694 694 694 675 687 687 687 663 681 681 681 681 687 687 681 681 687 681 675 669 657 651 663 657 669 669 675 634 675 681 687 681 663 663 669 669 687 663 645 645 645 663 657 629 623 618 618 629 608 613 618 618 613 623 623 629 629 634 634 634 634 634 634 645 623 629 613 603 603 603 608 608 613 613 613 608 613 613 608 588 588 584 588 553 566 566 561 561 566 566 561 561 588 574 557 584 629 651 634 639 618 0 0 0 0 0
    0 0 0 0 0 0 0 0 0 0 0 0 0 0 0 0 0 0 0 0 0 0 0 0 0 0 0 0 0 0 0 0 0 0 0 0 0 0 0 0 0 0 0 0 0 0 0 0 0 0 0 0 0 0 0 0 0 0 0 0 0 0 0 0 0 0 0 0 0 598 603 598 603 618 618 623 0 629 0 0 0 603 0 603 603 603 603 598 608 598 623 623 608 608 603 613 618 613 608 588 549 598 629 618 613 618 613 0 0 0 0 0 0 0 0 0 0 0 0 645 639 663 663 663 657 669 0 0 0 0 0 0 0 0 618 613 634 613 608 634 634 634 618 629 645 639 669 657 657 651 657 681 675 681 675 651 675 675 687 681 687 681 681 681 675 669 657 675 687 651 669 663 663 0 0 663 651 645 675 657 663 675 687 694 707 707 694 694 700 694 694 687 681 669 669 639 669 663 663 657 651 657 651 651 675 657 657 657 681 707 687 694 687 681 687 694 694 675 687 687 687 657 681 675 681 681 687 681 681 675 687 675 669 663 645 651 657 651 663 657 663 629 675 681 681 675 657 657 669 669 687 663 645 645 645 663 651 623 618 613 608 608 598 593 593 598 598 608 618 629 629 634 634 634 629 629 629 639 618 618 608 603 603 603 603 603 608 608 608 603 608 608 603 588 584 584 584 553 566 566 561 561 566 566 561 561 588 566 561 593 651 657 639 645 618 0 0 0 0 0
    0 0 0 0 0 0 0 0 0 0 0 0 0 0 0 0 0 0 0 0 0 0 0 0 0 0 0 0 0 0 0 0 0 0 0 0 0 0 0 0 0 0 0 0 0 0 0 0 0 0 0 0 0 0 0 0 0 0 0 0 0 0 0 0 0 0 0 0 0 588 593 588 593 613 608 613 0 0 0 0 0 598 0 603 603 598 598 598 603 593 603 603 593 593 588 593 598 593 588 574 549 557 598 608 603 608 603 0 0 0 0 0 0 0 0 0 0 0 0 623 0 0 645 645 645 645 0 0 0 0 0 0 0 0 613 613 634 613 0 0 639 629 0 0 634 0 0 0 0 0 645 675 663 675 657 634 663 657 669 663 675 669 663 663 651 645 634 669 675 639 0 657 651 0 657 657 645 639 657 634 639 645 675 681 700 700 687 694 707 694 687 681 663 634 639 629 651 645 651 645 639 651 639 639 657 639 639 629 645 675 663 687 681 669 681 687 687 675 687 687 681 657 675 675 675 681 687 675 675 669 681 669 651 645 629 639 651 639 645 639 639 623 663 669 669 663 645 651 663 663 681 657 645 651 645 657 639 618 618 603 603 603 588 588 588 593 593 593 613 623 623 629 629 629 629 629 623 629 613 613 608 603 603 603 603 608 613 613 613 603 608 608 603 579 579 579 574 549 566 566 561 561 566 566 561 561 593 570 574 603 629 639 629 629 613 0 0 0 0 0
    0 0 0 0 0 0 0 0 0 0 0 0 0 0 0 0 0 0 0 0 0 0 0 0 0 0 0 0 0 0 0 0 0 0 0 0 0 0 0 0 0 0 0 0 0 0 0 0 0 0 0 0 0 0 0 0 0 0 0 0 0 0 0 0 0 0 0 0 0 584 584 579 584 603 603 0 0 0 0 0 0 598 0 603 598 598 598 598 603 593 598 598 584 588 584 584 588 588 579 566 545 553 566 598 603 608 603 0 0 0 0 0 0 0 0 0 0 0 0 0 0 0 629 629 0 0 0 0 0 0 0 0 0 0 613 613 634 613 0 0 645 0 0 0 0 0 0 0 0 0 0 657 651 669 639 618 651 0 0 0 0 0 0 623 623 618 613 639 645 629 0 639 639 0 0 645 639 634 645 629 629 629 657 663 687 687 669 675 700 687 675 657 629 618 623 623 639 634 639 639 634 639 634 629 639 629 629 613 618 623 629 657 663 645 669 675 681 675 687 681 681 657 675 669 675 681 681 669 669 663 675 645 629 623 618 629 634 629 634 629 623 623 651 657 651 651 639 645 657 657 675 651 645 645 639 645 623 608 613 598 598 593 588 584 588 588 593 588 608 618 618 623 629 623 623 623 623 623 608 608 608 598 603 603 603 608 608 613 618 603 608 598 588 566 570 579 570 549 566 566 561 561 570 566 561 566 593 570 579 603 618 618 618 613 608 0 0 0 0 0
    0 0 0 0 0 0 0 0 0 0 0 0 0 0 0 0 0 0 0 0 0 0 0 0 0 0 0 0 0 0 0 0 0 0 0 0 0 0 0 0 0 0 0 0 0 0 0 0 0 0 0 0 0 0 0 0 0 0 0 0 0 0 0 0 0 0 0 0 0 579 574 570 579 598 598 0 0 0 0 0 0 598 0 603 598 598 598 593 598 593 593 593 570 579 579 584 584 579 570 561 545 557 566 574 0 0 0 0 0 0 0 0 0 0 0 255 254 0 252 0 0 0 0 0 0 0 0 0 0 0 0 0 0 0 608 608 634 613 0 0 0 0 0 0 0 0 207 0 0 0 0 618 613 634 623 608 629 0 0 0 0 0 0 0 603 603 603 613 618 618 0 0 623 0 0 634 629 629 634 618 618 618 639 639 651 645 629 623 663 657 634 629 613 613 618 618 629 629 634 634 629 629 623 618 623 618 613 608 608 613 623 634 645 634 645 657 669 663 681 675 669 645 669 663 669 669 675 0 0 651 663 629 623 618 613 623 629 623 623 618 618 618 639 645 639 634 634 639 651 651 669 639 639 639 629 634 613 603 608 593 598 593 588 584 588 584 588 584 603 613 618 618 623 618 623 618 613 613 603 603 603 598 603 603 608 608 608 613 613 598 598 588 574 557 570 574 566 553 570 566 561 561 570 570 566 570 593 570 579 598 613 608 603 608 608 0 0 0 0 0
    0 0 0 0 0 0 0 0 0 0 0 0 0 0 0 0 0 0 0 0 0 0 0 0 0 0 0 0 0 0 0 0 0 0 0 0 0 0 0 0 0 0 0 0 0 0 0 0 0 0 0 0 0 0 0 0 0 0 0 0 0 0 0 0 0 0 0 0 0 579 579 574 579 598 598 0 603 598 0 0 0 598 0 603 603 598 593 593 598 588 0 588 557 561 566 584 584 574 566 561 545 0 0 0 0 0 0 0 0 0 0 0 0 0 0 0 0 0 0 0 250 0 0 0 0 0 0 0 0 0 0 0 0 0 0 0 634 618 0 237 228 0 0 210 208 209 208 209 207 207 206 0 598 0 608 603 0 0 0 0 0 0 0 598 598 598 598 603 603 603 0 0 0 0 0 0 623 623 623 613 613 0 629 0 0 618 608 603 0 629 613 613 608 613 618 618 623 623 623 623 618 618 613 608 613 613 608 603 608 608 618 639 639 634 639 645 663 651 675 657 657 639 657 651 657 663 0 0 0 634 645 623 618 613 613 618 623 618 618 613 608 613 629 639 629 629 629 634 639 645 657 629 629 629 623 623 608 598 603 593 593 593 588 588 588 584 593 584 603 603 613 613 618 613 618 613 608 613 603 603 603 598 608 608 608 618 613 613 608 588 593 579 557 549 561 570 561 549 566 566 561 561 570 570 566 570 593 574 579 593 603 598 593 598 598 0 0 0 0 0
    0 0 0 0 0 0 0 0 0 0 0 0 0 0 0 0 0 0 0 0 0 0 0 0 0 0 0 0 0 0 0 0 0 0 0 0 0 0 0 0 0 0 0 0 0 0 0 0 0 0 0 0 0 0 0 0 0 0 0 0 0 0 0 0 0 0 0 0 0 579 574 570 574 593 0 0 598 598 0 0 603 598 598 603 598 593 593 593 598 588 0 588 557 561 566 584 588 579 579 574 561 584 579 579 574 593 603 0 0 598 598 0 613 0 0 603 0 0 0 0 0 0 0 0 0 0 0 0 0 0 0 0 0 0 0 0 639 618 0 0 0 0 0 0 0 209 209 209 208 209 207 0 0 0 0 0 0 0 0 0 0 0 598 593 593 593 598 593 598 0 186 0 0 0 0 0 0 0 613 608 608 0 0 0 0 0 0 0 0 0 0 608 603 608 613 618 618 618 618 618 608 608 603 603 603 608 608 603 603 608 613 629 629 629 623 634 645 634 657 639 639 629 634 634 634 0 0 0 0 613 623 608 608 603 608 613 618 613 613 608 603 608 623 629 618 618 618 629 634 639 645 623 623 623 618 613 603 598 598 593 593 588 588 588 588 584 588 584 598 598 608 603 613 613 613 608 603 613 603 603 603 598 608 608 608 613 608 603 593 584 584 566 553 549 561 566 557 553 566 561 561 561 570 566 566 570 588 570 574 588 598 588 584 588 593 0 0 0 0 0
    0 0 0 0 0 0 0 0 0 0 0 0 0 0 0 0 0 0 0 0 0 0 0 0 0 0 0 0 0 0 0 0 0 0 0 0 0 0 0 0 0 0 0 0 0 0 0 0 0 0 0 0 0 0 0 0 0 0 0 0 0 0 0 0 0 0 0 0 0 579 574 570 0 593 0 0 0 0 0 0 598 593 598 603 598 593 593 588 598 588 0 584 549 557 566 584 584 579 584 584 570 593 579 574 566 0 0 608 0 603 603 613 613 0 0 603 603 0 0 0 0 0 0 0 82 0 0 0 0 603 598 0 0 0 0 0 0 623 0 0 0 0 0 0 0 209 209 209 209 209 207 208 0 0 0 598 613 579 588 593 598 598 593 588 588 588 593 588 588 0 186 0 0 0 0 0 618 618 613 603 603 0 0 0 0 0 0 0 0 0 603 603 603 608 613 613 618 613 618 618 0 603 598 598 598 603 603 598 603 603 608 618 623 623 613 618 623 618 623 618 623 618 613 613 613 613 0 0 0 608 608 608 603 608 608 608 613 608 608 603 603 608 613 618 613 608 613 618 623 629 629 618 613 618 613 608 603 598 603 593 593 593 588 593 588 584 588 584 603 603 613 613 618 613 613 608 598 608 598 603 603 598 603 603 603 608 598 593 584 574 574 557 557 553 566 561 561 553 566 566 561 561 570 566 566 570 588 570 574 588 593 584 579 584 584 0 0 0 0 0
    0 0 0 0 0 0 0 0 0 0 0 0 0 0 0 0 0 0 0 0 0 0 0 0 0 0 0 0 0 0 0 0 0 0 0 0 0 0 0 0 0 0 0 0 0 0 0 0 0 0 0 0 0 0 0 0 0 0 0 0 0 0 0 0 0 0 0 0 0 570 566 561 0 0 0 0 0 0 0 0 598 593 593 598 598 588 588 588 598 0 0 584 549 557 0 588 584 574 579 579 566 584 570 561 557 0 0 0 0 0 0 613 613 0 0 603 0 0 0 0 0 0 0 0 82 0 0 0 78 0 0 0 0 0 0 0 0 623 0 0 0 0 0 0 0 209 209 209 209 209 207 208 0 0 0 0 0 0 0 588 593 593 588 588 584 584 588 584 588 593 0 0 608 603 608 618 618 618 613 603 603 603 0 0 0 0 0 598 0 0 603 603 598 608 608 0 613 613 0 0 0 603 593 593 598 598 598 593 598 598 603 608 613 613 608 608 613 608 613 608 618 613 608 608 603 598 608 0 0 598 603 603 598 603 608 608 613 613 613 608 608 608 613 613 608 603 608 613 618 623 618 608 608 608 608 603 603 598 603 593 598 593 593 593 593 584 588 584 603 608 618 623 629 618 618 613 603 608 603 603 603 598 603 608 608 613 603 598 593 588 588 566 561 561 570 561 561 557 566 566 566 566 570 570 570 574 584 574 579 588 593 584 574 584 579 0 0 0 0 0
    0 0 0 0 0 0 0 0 0 0 0 0 0 0 0 0 0 0 0 0 0 0 0 0 0 0 0 0 0 0 0 0 0 0 0 0 0 0 0 0 0 0 0 0 0 0 0 0 0 0 0 0 0 0 0 0 0 0 0 0 0 0 0 0 0 0 0 0 0 0 0 0 0 0 348 343 0 0 0 0 593 593 598 598 598 588 588 0 0 0 0 0 0 0 0 0 579 561 561 570 557 579 561 0 0 0 0 0 0 0 0 613 613 0 0 0 0 0 0 0 0 0 0 0 0 0 78 77 78 0 0 0 0 0 0 0 0 0 0 0 0 0 178 0 209 209 209 209 209 209 209 209 0 0 0 0 0 0 0 584 588 593 584 584 584 579 588 584 584 593 0 0 608 608 613 623 623 623 618 608 608 613 0 0 0 0 0 0 0 0 598 603 598 608 608 0 613 618 0 0 0 603 593 593 598 598 593 588 593 598 598 603 608 603 603 608 613 603 608 608 613 613 608 0 603 598 603 598 598 598 598 598 593 603 603 608 613 613 613 608 608 613 608 608 603 598 603 608 608 613 613 608 608 608 603 603 603 598 598 593 598 593 588 588 588 579 588 579 598 598 608 623 634 618 623 613 608 608 603 603 603 598 603 613 608 613 608 608 608 598 603 584 574 566 574 566 566 566 570 566 566 566 574 570 574 574 584 574 574 584 584 570 566 566 561 0 0 0 0 0
    0 0 0 0 0 0 0 0 0 0 0 0 0 0 0 0 0 0 0 0 0 0 0 0 0 0 0 0 0 0 0 0 0 0 0 0 0 0 0 0 0 0 0 0 0 0 0 0 0 0 0 0 0 0 0 0 0 0 0 0 0 0 0 0 0 0 0 0 0 0 0 0 0 0 336 334 336 337 339 0 0 593 0 0 0 0 322 0 0 0 0 0 0 0 0 0 0 557 557 566 557 0 0 0 0 0 0 0 0 0 0 623 618 0 0 0 0 0 0 0 0 0 157 155 156 0 78 78 78 78 0 0 0 0 0 209 0 0 0 0 0 183 179 210 208 209 208 209 209 209 209 210 0 0 89 0 0 0 0 584 588 588 584 579 584 579 588 579 579 588 0 0 608 613 618 629 629 629 629 613 618 618 0 0 0 0 0 0 0 0 598 603 0 608 613 0 618 0 0 0 0 608 598 598 598 598 593 593 593 598 598 603 608 608 608 613 613 608 608 608 613 613 608 608 603 598 603 598 598 598 593 593 588 603 603 603 608 608 613 608 608 613 608 603 603 588 593 598 598 603 603 598 603 603 603 598 598 598 598 593 593 593 588 588 588 574 584 579 593 593 603 613 629 618 623 613 613 608 603 608 603 603 608 613 618 623 613 608 608 608 608 593 579 566 579 566 570 566 570 570 570 570 574 574 579 579 584 574 574 579 584 570 561 561 561 0 0 0 0 0
    0 0 0 0 0 0 0 0 0 0 0 0 0 0 0 0 0 0 0 0 0 0 0 0 0 0 0 0 0 0 0 0 0 0 0 0 0 0 0 0 0 0 0 0 0 0 0 0 0 0 0 0 0 0 0 0 0 0 0 0 0 0 0 0 0 0 0 0 0 0 0 0 0 0 0 336 334 336 0 0 0 0 0 334 331 325 322 0 0 0 304 0 0 0 430 425 0 0 0 0 0 0 331 330 334 333 0 165 0 0 0 0 0 199 199 199 202 0 0 0 252 0 156 154 0 0 0 0 0 0 0 0 207 0 0 209 208 203 0 0 0 183 179 210 207 209 208 209 0 210 209 0 0 0 0 0 0 0 76 588 588 593 588 584 584 574 584 566 566 0 0 0 608 608 613 629 634 634 634 618 618 623 0 0 0 0 0 112 112 111 0 0 0 0 0 0 0 0 0 0 0 603 593 593 598 593 593 588 593 598 598 603 608 608 608 613 613 603 608 603 608 608 608 608 603 603 608 603 598 598 598 598 588 603 603 608 608 608 613 608 608 608 603 603 603 588 593 598 598 603 603 598 598 603 598 598 603 598 598 593 598 593 593 593 588 574 584 579 588 593 608 629 639 629 629 618 618 618 618 618 613 608 613 623 629 634 608 603 603 603 608 593 579 570 579 566 570 570 574 574 574 574 579 579 588 584 584 574 574 574 584 570 561 566 561 0 0 0 0 0
    0 0 0 0 0 0 0 0 0 0 0 0 0 0 0 0 0 0 0 0 0 0 0 0 0 0 0 0 0 0 0 0 0 0 0 0 0 0 0 0 0 0 0 0 0 0 0 0 0 0 0 0 0 0 0 0 0 0 0 0 0 0 0 0 0 0 0 0 0 0 350 343 342 345 357 0 0 0 0 0 0 0 0 0 0 0 0 0 0 0 295 0 0 0 432 0 0 283 279 0 287 287 0 0 0 330 325 0 0 0 0 246 0 201 200 199 0 0 0 0 0 0 0 0 0 0 0 213 213 0 0 210 210 210 0 207 0 0 198 0 190 185 181 0 206 209 0 0 0 0 0 0 0 0 0 0 0 0 76 0 0 603 593 584 584 570 579 0 0 0 0 0 603 608 608 623 634 0 634 618 618 0 0 0 0 0 0 111 0 0 0 0 0 0 0 0 0 0 968 0 0 603 588 588 593 593 588 588 593 598 598 608 608 608 608 613 613 598 598 598 608 603 603 608 608 603 613 613 608 603 603 598 598 608 608 608 613 613 613 608 608 608 603 603 603 588 598 603 603 608 603 598 598 598 593 598 603 598 598 598 598 593 593 593 588 570 584 584 593 603 629 694 675 657 657 618 618 623 618 618 613 613 618 629 634 657 0 0 0 0 608 593 574 570 579 566 574 574 574 574 574 574 579 579 588 584 584 579 579 579 584 570 557 561 557 0 0 0 0 0
    0 0 0 0 0 0 0 0 0 0 0 0 0 0 0 0 0 0 0 0 0 0 0 0 0 0 0 0 0 0 0 0 0 0 0 0 0 0 0 0 0 0 0 0 0 0 0 0 0 0 0 0 0 0 0 0 0 0 0 0 0 0 0 0 0 0 0 0 0 0 362 355 359 0 0 0 0 0 0 0 0 0 0 0 0 0 0 0 0 0 0 0 0 0 0 0 0 287 283 281 285 287 286 285 281 280 279 279 0 0 0 0 0 0 0 0 0 0 0 0 0 0 0 0 0 0 0 0 0 0 0 0 0 0 0 211 0 0 0 0 0 0 0 0 0 0 0 0 0 0 0 0 0 0 0 0 0 0 0 0 0 0 185 186 0 0 0 0 188 0 0 0 0 0 0 0 0 0 0 0 0 0 0 0 0 0 0 111 111 0 0 0 0 0 2374 1936 1752 0 0 0 0 0 588 588 593 593 588 588 588 598 593 603 608 613 603 603 603 588 588 588 0 0 0 608 0 608 623 623 613 608 603 603 598 613 613 613 613 613 613 613 613 613 603 603 603 593 598 603 608 608 608 603 598 598 593 598 598 598 598 598 598 593 593 593 588 566 579 584 593 603 0 714 700 694 687 629 629 634 629 629 618 613 618 634 639 663 0 0 593 588 593 579 566 561 566 557 566 570 574 574 574 570 574 579 593 588 584 574 574 574 574 557 553 553 549 0 0 0 0 0
    0 0 0 0 0 0 0 0 0 0 0 0 0 0 0 0 0 0 0 0 0 0 0 0 0 0 0 0 0 0 0 0 0 0 0 0 0 0 0 0 0 0 0 0 0 0 0 0 0 0 0 0 0 0 0 0 0 0 0 0 0 0 0 0 0 0 0 0 0 0 367 364 362 0 367 371 369 377 377 373 373 375 0 0 231 225 0 0 0 0 0 0 0 0 0 0 0 166 165 0 167 0 0 0 290 283 284 0 0 0 0 0 0 0 0 0 0 0 0 0 0 0 0 0 0 0 0 0 157 155 154 152 0 0 0 0 0 0 0 0 0 0 0 0 0 0 0 0 0 0 0 0 0 0 0 0 0 0 0 0 0 603 0 0 0 0 0 188 186 181 0 0 0 1443 1291 1226 0 0 0 0 1443 0 0 0 0 0 0 111 111 0 0 0 0 0 2164 1989 1887 1839 0 0 0 0 0 0 593 588 584 579 579 584 579 588 598 593 579 584 579 566 566 570 0 0 0 0 0 0 629 629 618 613 608 608 603 613 613 613 613 618 613 613 613 618 608 608 603 593 0 0 613 613 608 608 603 603 603 598 598 598 593 593 593 588 584 588 584 561 570 579 593 603 0 714 0 0 694 645 645 663 663 657 629 623 629 663 669 0 0 0 598 593 598 584 570 570 574 557 574 574 579 574 579 574 579 588 608 598 593 584 593 579 579 557 545 545 541 0 0 0 0 0
    0 0 0 0 0 0 0 0 0 0 0 0 0 0 0 0 0 0 0 0 0 0 0 0 0 0 0 0 0 0 0 0 0 0 0 0 0 0 0 0 0 0 0 0 0 0 0 0 0 0 0 0 0 0 0 0 0 0 0 0 0 0 0 0 0 0 0 0 0 369 371 369 0 369 371 375 379 385 385 381 379 379 381 0 0 0 0 0 0 0 0 0 0 0 0 0 0 0 0 0 156 157 0 0 0 336 325 0 0 0 0 371 0 262 255 0 0 181 180 180 0 0 0 6690 6690 7359 5661 6133 0 0 154 152 0 3679 3679 4906 4906 0 0 7359 0 0 0 0 0 0 0 0 0 0 0 0 0 0 0 0 0 0 0 8177 0 0 0 0 0 8177 6690 6133 0 0 0 5661 0 0 0 1388 0 0 0 0 0 0 0 0 0 0 0 0 0 0 0 0 0 2230 2164 2044 1989 0 1989 1989 0 0 0 0 0 598 588 574 584 588 584 579 598 584 574 584 574 566 561 561 0 0 0 0 0 0 0 645 629 623 613 613 608 618 618 618 618 623 623 623 623 629 613 618 613 189 188 0 629 618 618 618 603 608 603 598 598 593 593 588 593 588 584 0 0 0 574 584 598 608 0 743 714 735 707 675 0 687 0 687 657 657 0 714 0 817 750 728 707 0 657 608 584 584 579 561 579 579 584 579 584 579 588 598 687 0 0 0 629 593 588 557 0 541 537 0 0 0 0 0
    0 0 0 0 0 0 0 0 0 0 0 0 0 0 0 0 0 0 0 0 0 0 0 0 0 0 0 0 0 0 0 0 0 0 0 0 0 0 0 0 0 0 0 0 0 0 0 0 0 0 0 0 0 0 0 0 0 0 0 0 0 0 0 0 0 0 0 0 0 371 371 371 367 369 373 375 379 383 383 379 379 379 381 381 375 385 381 377 377 385 381 379 0 0 0 379 0 0 0 0 0 0 0 0 0 342 342 367 367 369 377 375 373 375 0 0 0 179 0 0 0 0 0 4906 4599 5661 4599 5661 6133 4088 0 0 4329 3679 3679 5256 5661 5661 0 8177 0 0 0 0 0 0 0 0 0 0 0 0 0 0 0 0 0 0 0 0 0 0 0 8177 6133 6690 6133 5256 5661 4599 3873 0 0 0 0 0 0 0 0 0 0 0 0 0 0 0 0 0 0 0 0 0 0 0 1066 1051 994 0 0 0 2628 0 0 0 0 613 603 379 375 377 0 0 645 603 593 598 588 561 0 0 1388 1247 1168 1132 1149 0 0 0 0 0 613 608 603 613 0 319 319 0 0 0 0 0 0 0 629 0 190 0 0 0 629 629 0 0 613 598 598 588 588 579 579 579 574 0 0 0 570 579 588 593 0 826 0 0 0 0 0 0 750 0 0 700 728 735 808 799 766 758 735 728 714 645 598 593 584 574 584 584 584 579 584 584 603 0 714 721 0 714 657 593 579 549 518 529 529 0 0 0 0 0
    0 0 0 0 0 0 0 0 0 0 0 0 0 0 0 0 0 0 0 0 0 0 0 0 0 0 0 0 0 0 0 0 0 0 0 0 0 0 0 0 0 0 0 0 0 0 0 0 0 0 0 0 0 0 0 0 0 0 0 0 0 0 0 0 0 0 0 0 0 371 371 371 367 369 371 375 377 379 381 379 379 381 383 383 379 387 383 381 377 385 381 379 381 379 377 381 381 383 0 0 0 0 0 0 364 353 362 371 371 373 377 375 375 375 377 377 0 0 0 0 0 0 0 0 0 0 0 0 0 0 1599 1565 0 4599 0 0 0 0 0 0 0 0 0 0 0 0 0 0 194 0 0 0 0 0 0 0 0 0 0 0 0 0 0 7359 5661 5661 4906 4599 4599 3873 3504 3066 0 0 0 187 190 189 0 0 124 121 0 381 0 385 383 381 381 381 383 377 381 377 0 0 383 385 389 389 0 0 0 393 389 391 371 379 379 381 0 791 766 735 735 0 0 0 0 0 0 0 1206 1168 1066 1082 0 0 0 0 613 608 0 0 0 0 0 0 0 274 0 0 0 0 0 0 0 0 189 188 0 645 0 0 0 0 598 584 566 0 0 561 0 0 0 0 0 579 588 0 0 955 943 886 0 0 0 629 0 687 657 645 694 694 728 791 750 735 721 714 694 651 598 0 588 588 588 588 593 579 593 0 681 707 721 728 721 714 663 598 584 545 500 514 521 0 0 0 0 0
    0 0 0 0 0 0 0 0 0 0 0 0 0 0 0 0 0 0 0 0 0 0 0 0 0 0 0 0 0 0 0 0 0 0 0 0 0 0 0 0 0 0 0 0 0 0 0 0 0 0 0 0 0 0 0 0 0 0 0 0 0 0 0 0 0 0 0 0 0 371 371 371 367 367 371 375 375 379 381 379 381 381 383 387 381 389 387 385 379 385 379 379 381 379 377 379 379 383 375 379 0 0 0 377 364 359 362 371 371 371 375 375 375 375 377 377 0 0 0 0 0 0 0 0 0 0 0 1599 0 1533 1415 1443 0 0 0 0 0 0 0 0 0 0 0 0 0 0 0 0 194 0 0 0 397 391 0 377 0 0 0 0 0 0 0 0 0 6133 4599 3679 3679 0 0 187 185 186 188 187 189 0 0 0 0 0 389 383 387 387 385 383 383 381 385 377 381 377 377 381 381 385 385 385 389 0 395 393 389 391 371 377 377 379 377 0 782 750 758 0 0 0 0 0 0 0 0 808 0 0 0 0 0 0 395 387 0 0 0 0 0 0 274 268 264 0 0 0 0 0 0 0 0 0 0 0 0 0 5256 0 0 0 0 0 0 0 574 566 553 0 0 0 0 0 1036 994 955 908 0 0 0 0 0 687 651 629 669 687 714 782 743 728 721 707 694 645 0 0 0 588 570 570 588 561 0 0 707 700 721 735 721 721 681 613 598 553 493 511 518 0 0 0 0 0
    0 0 0 0 0 0 0 0 0 0 0 0 0 0 0 0 0 0 0 0 0 0 0 0 0 0 0 0 0 0 0 0 0 0 0 0 0 0 0 0 0 0 0 0 0 0 0 0 0 0 0 0 0 0 0 0 0 0 0 0 0 0 0 0 0 0 0 0 0 371 371 371 367 367 371 373 375 377 379 379 379 381 383 385 381 389 387 385 379 385 379 379 381 379 377 381 379 383 375 381 379 0 373 383 367 366 367 373 373 373 375 375 373 373 377 377 0 0 0 0 0 0 0 0 0 0 0 0 0 0 1388 1388 0 0 0 0 0 0 0 0 0 0 0 0 0 0 0 0 0 383 383 385 393 381 381 377 377 0 0 0 0 0 0 0 0 0 0 0 0 189 0 187 186 187 187 186 0 0 379 387 389 383 387 381 385 387 385 385 383 383 387 377 383 377 377 381 381 383 383 383 389 387 395 395 393 393 379 383 379 379 377 0 0 750 743 791 0 0 0 0 0 0 0 389 377 373 375 393 389 391 391 387 387 385 0 389 0 0 0 260 0 0 0 383 377 377 371 0 387 0 0 0 0 0 0 389 381 371 375 0 385 389 385 0 525 0 0 0 0 1362 1291 1247 1247 0 855 0 0 0 0 0 651 639 681 0 0 817 774 743 735 721 721 675 0 514 0 0 0 0 0 0 0 714 714 707 728 735 721 728 694 639 608 566 511 0 525 0 0 0 0 0
    0 0 0 0 0 0 0 0 0 0 0 0 0 0 0 0 0 0 0 0 0 0 0 0 0 0 0 0 0 0 0 0 0 0 0 0 0 0 0 0 0 0 0 0 0 0 0 0 0 0 0 0 0 0 0 0 0 0 0 0 0 0 0 0 0 0 0 0 0 371 371 371 367 367 369 375 375 377 379 377 379 381 381 385 379 387 385 381 377 385 377 377 379 379 377 381 381 385 377 383 379 375 377 385 373 371 371 375 375 375 377 375 375 375 377 377 0 0 0 0 0 0 0 0 0 0 0 0 0 0 0 0 0 0 0 0 385 381 379 383 0 381 379 371 379 381 387 387 385 381 381 383 391 377 379 377 379 379 0 0 0 0 0 395 393 0 0 391 383 0 0 0 186 187 187 185 0 0 377 383 387 381 387 383 385 389 385 385 383 383 387 377 383 377 377 381 381 383 383 383 389 387 395 395 393 395 387 387 383 379 377 375 0 0 0 391 395 393 0 413 404 395 389 385 381 377 385 391 389 389 389 387 387 385 389 387 0 0 0 0 387 385 387 385 379 379 375 385 389 385 385 377 0 0 387 387 383 375 377 379 383 385 383 387 387 377 381 375 0 0 1362 0 0 0 0 0 1115 1082 0 0 0 0 0 0 908 836 791 774 766 743 743 0 0 0 0 0 0 529 545 0 0 743 728 728 743 743 735 728 700 639 603 549 490 497 497 0 0 0 0 0
    0 0 0 0 0 0 0 0 0 0 0 0 0 0 0 0 0 0 0 0 0 0 0 0 0 0 0 0 0 0 0 0 0 0 0 0 0 0 0 0 0 0 0 0 0 0 0 0 0 0 0 0 0 0 0 0 0 0 0 0 0 0 0 0 0 0 0 0 0 373 373 373 369 369 371 375 377 377 381 379 379 381 381 385 381 385 383 379 377 383 377 377 379 379 377 381 381 383 379 383 381 375 379 387 375 373 373 377 375 377 377 375 375 375 377 377 0 0 0 0 0 0 0 0 0 0 0 0 0 0 0 383 0 0 0 385 385 379 379 383 383 381 379 373 379 381 387 385 383 381 379 381 389 377 379 377 379 379 383 385 387 389 393 393 393 393 393 391 385 387 383 0 0 0 0 0 0 381 375 379 385 379 385 381 385 387 383 383 383 383 387 377 383 377 379 381 381 383 383 383 389 387 393 395 393 395 389 389 385 379 379 377 381 379 379 387 391 389 393 397 399 393 389 385 387 383 389 391 389 391 387 387 387 383 389 385 377 385 377 381 387 385 387 385 381 381 377 385 389 385 387 381 381 389 387 387 385 377 379 381 383 383 383 385 385 377 381 375 375 375 379 379 0 0 0 0 0 0 0 0 0 0 0 1443 0 0 0 0 0 0 0 0 0 0 0 0 0 0 0 0 0 750 735 735 758 750 758 735 707 0 588 0 481 487 497 0 0 0 0 0
    0 0 0 0 0 0 0 0 0 0 0 0 0 0 0 0 0 0 0 0 0 0 0 0 0 0 0 0 0 0 0 0 0 0 0 0 0 0 0 0 0 0 0 0 0 0 0 0 0 0 0 0 0 0 0 0 0 0 0 0 0 0 0 0 0 0 0 0 0 373 373 375 371 371 373 377 377 379 381 379 379 381 383 387 383 385 385 379 377 383 377 377 381 379 377 381 381 383 379 383 381 377 379 387 379 375 375 377 377 379 379 377 377 375 379 377 0 373 379 0 0 0 0 0 0 381 383 0 385 381 379 383 385 385 385 387 383 381 381 383 383 381 377 373 379 381 385 383 381 379 379 381 387 375 377 377 379 379 381 383 385 387 393 391 391 391 391 389 385 387 383 375 377 0 0 0 371 381 375 379 383 377 385 381 383 387 383 383 381 381 387 377 383 379 379 381 381 383 383 383 389 387 393 393 393 393 389 389 385 379 379 377 381 379 381 385 387 387 391 395 397 393 389 387 389 387 389 391 391 391 387 387 387 383 385 381 379 385 379 383 387 385 385 385 383 381 377 385 389 383 387 381 379 387 385 387 385 379 381 381 383 383 383 385 383 377 381 375 377 375 381 379 379 379 383 381 0 0 0 0 0 0 391 0 0 0 0 0 0 0 0 0 0 0 0 0 0 0 0 0 0 728 721 721 735 735 758 743 707 669 618 557 0 0 511 0 0 0 0 0
    0 0 0 0 0 0 0 0 0 0 0 0 0 0 0 0 0 0 0 0 0 0 0 0 0 0 0 0 0 0 0 0 0 0 0 0 0 0 0 0 0 0 0 0 0 0 0 0 0 0 0 0 0 0 0 0 0 0 0 0 0 0 0 0 0 0 0 0 0 373 375 377 373 373 373 377 377 377 381 379 379 381 381 385 383 385 383 379 377 383 377 377 381 381 377 381 383 385 379 385 383 377 381 387 381 377 375 379 379 379 381 377 379 377 381 379 377 375 381 377 379 379 379 0 379 381 383 379 385 381 379 383 387 387 387 387 383 381 383 385 383 381 379 375 381 381 385 381 379 379 379 379 385 375 377 377 379 377 381 381 383 387 391 389 389 389 389 387 385 387 383 377 381 379 377 373 373 381 377 379 381 377 383 379 383 385 381 381 379 381 385 377 381 379 379 381 381 383 383 383 389 387 391 391 391 393 387 387 385 379 379 377 381 379 381 385 387 387 389 393 395 393 387 387 389 387 389 389 389 389 385 385 385 381 383 381 381 385 379 383 385 383 385 385 383 381 377 385 387 383 387 381 379 385 383 385 383 379 381 381 383 383 383 387 385 377 383 377 377 377 381 379 381 381 385 383 0 385 391 0 0 0 379 379 377 379 383 385 387 389 0 0 0 0 0 0 0 0 0 0 0 728 707 0 0 700 700 714 694 645 608 549 497 0 525 0 0 0 0 0</data></depth>
</opencv_storage>
