<?xml version="1.0"?>
<opencv_storage>
<gps_time_stamp>16493</gps_time_stamp>
<gps_x>1.4475174248218536e-002</gps_x>
<gps_y>1.2982539832592010e-002</gps_y>
<gps_z>-3.2319971360266209e-003</gps_z>
<image_time_stamp>4465</image_time_stamp>
<depth type_id="opencv-matrix">
  <rows>80</rows>
  <cols>320</cols>
  <dt>s</dt>
  <data>
    0 0 0 0 0 0 0 0 0 0 0 0 0 0 0 0 0 0 0 0 0 0 0 0 0 0 0 0 0 0 0 0 0 0 0 0 0 0 0 0 0 0 0 0 0 0 0 0 0 0 0 0 0 0 0 0 0 0 0 0 0 0 0 0 0 0 0 0 0 4088 4599 4088 3873 3679 3873 4088 4088 4599 4906 4906 5661 6690 7359 0 9199 0 0 0 0 0 0 0 0 0 0 0 0 0 0 0 0 0 0 0 0 0 0 0 0 0 0 0 9199 0 0 0 0 0 8177 0 0 0 8177 0 0 7359 7359 8177 8177 8177 8177 8177 6690 6690 0 0 0 0 0 0 0 0 8177 8177 8177 7359 7359 6690 6690 4906 5256 6690 5661 5256 6133 5661 4599 6690 6690 7359 8177 6690 8177 8177 0 0 8177 8177 8177 7359 8177 7359 8177 4329 5661 5661 6133 0 7359 7359 6690 6690 0 0 0 7359 8177 8177 8177 0 0 0 0 0 0 0 0 0 0 0 0 0 0 0 0 0 0 6133 0 0 8177 7359 8177 7359 6690 6133 6690 5256 4906 4906 4906 4906 4329 4906 5256 5256 5256 5256 4906 4599 3679 3873 3345 3066 3199 3199 3066 3199 3199 3199 3066 2943 2943 2830 2725 2725 2537 2537 2374 2374 2374 2230 2102 2102 2044 2044 1936 1989 1936 1887 1887 1936 1936 1989 1989 2230 2164 2230 2230 2299 2299 2299 2299 2230 2164 2044 1887 1752 1672 1599 1599 1533 1565 1501 1443 1388 1338 1314 1314 1247 1268 1268 1268 1268 1268 1268 1268 1268 1268 1314 1268 1291 1268 1291 1268 1291 1291 1314 1268 0 0 0 0 1388 1388 0 0 0 0 0
    0 0 0 0 0 0 0 0 0 0 0 0 0 0 0 0 0 0 0 0 0 0 0 0 0 0 0 0 0 0 0 0 0 0 0 0 0 0 0 0 0 0 0 0 0 0 0 0 0 0 0 0 0 0 0 0 0 0 0 0 0 0 0 0 0 0 0 0 0 4329 4906 4329 4088 3873 4088 4329 4329 4599 4906 4906 5661 6690 7359 8177 8177 0 0 0 0 0 0 0 0 0 0 0 0 0 0 0 0 0 0 0 0 0 0 0 0 0 0 0 0 0 0 0 0 0 8177 0 0 8177 7359 0 0 7359 7359 8177 8177 8177 0 8177 7359 7359 0 0 0 0 0 0 0 0 8177 8177 8177 7359 6690 6133 6133 4906 5256 6690 5661 5256 6133 5661 4906 6690 6690 6690 7359 6690 8177 8177 8177 0 8177 8177 8177 6690 8177 8177 8177 4329 5661 6133 6690 0 0 7359 6690 6690 0 0 0 7359 8177 0 0 0 0 0 0 0 0 0 0 0 0 0 0 0 0 0 0 0 0 6133 0 0 8177 6690 7359 6690 6690 5661 6133 5256 4906 4599 4906 4906 4329 4906 5256 5256 4906 4906 4906 4599 3679 4088 3345 3199 3199 3345 3199 3199 3199 3345 3199 2943 2943 2943 2725 2830 2537 2628 2453 2453 2374 2299 2164 2164 2044 2102 1936 1989 1936 1887 1887 1936 1936 1936 1989 2164 2102 2230 2230 2299 2230 2230 2299 2230 2164 1989 1839 1752 1565 1533 1533 1501 1501 1471 1443 1388 1338 1338 1314 1247 1268 1268 1268 1268 1247 1268 1247 1247 1268 1291 0 0 1291 1291 1291 1291 1291 1314 1268 0 322 322 324 0 0 0 0 0 0 0
    0 0 0 0 0 0 0 0 0 0 0 0 0 0 0 0 0 0 0 0 0 0 0 0 0 0 0 0 0 0 0 0 0 0 0 0 0 0 0 0 0 0 0 0 0 0 0 0 0 0 0 0 0 0 0 0 0 0 0 0 0 0 0 0 0 0 0 0 0 4599 4599 4329 4088 3873 4088 4599 4329 4599 4906 5256 5661 6690 7359 9199 8177 0 0 0 0 0 0 0 0 0 0 0 0 0 0 0 0 0 0 0 0 0 0 0 8177 0 0 0 0 0 0 0 0 0 7359 0 8177 8177 7359 0 0 7359 8177 8177 0 8177 0 0 7359 7359 0 0 0 0 0 0 0 0 8177 0 0 7359 7359 6690 6690 5256 5256 6690 5661 5256 6133 6133 5256 6690 6690 6690 7359 6133 7359 7359 8177 8177 8177 7359 8177 6690 8177 8177 8177 4329 5661 5661 6133 0 0 7359 6690 6690 0 0 0 7359 8177 0 0 0 0 0 0 0 0 0 0 0 0 0 0 0 0 0 0 0 0 5661 0 0 8177 6690 6690 6690 6133 5661 6690 5661 4906 4906 5256 4906 4329 5256 5256 5256 4906 4906 4906 4906 3679 4599 3504 3345 3345 3345 3199 3199 3199 3345 3199 2943 2943 2943 2830 2830 2537 2628 2537 2453 2453 2374 2299 2230 2102 2164 1989 1989 1936 1887 1887 1936 1887 1936 1936 2164 2102 2164 2230 2299 2230 2230 2299 2230 2230 1989 1839 1711 1533 1501 1501 1443 1443 1443 1443 1388 1338 1314 1314 1247 1268 1268 1268 1247 1226 1268 1247 1247 1268 0 0 0 0 1291 1291 1314 1291 1291 1268 321 322 322 324 324 322 0 0 0 0 0
    0 0 0 0 0 0 0 0 0 0 0 0 0 0 0 0 0 0 0 0 0 0 0 0 0 0 0 0 0 0 0 0 0 0 0 0 0 0 0 0 0 0 0 0 0 0 0 0 0 0 0 0 0 0 0 0 0 0 0 0 0 0 0 0 0 0 0 0 0 4599 4906 4599 4329 3873 4088 4599 4599 4599 4906 5256 6133 7359 7359 0 0 0 0 0 0 0 0 0 0 0 0 0 0 0 0 0 0 0 0 0 0 0 0 8177 7359 8177 8177 0 8177 0 0 0 0 8177 6690 8177 8177 7359 7359 0 0 8177 8177 8177 0 0 0 0 8177 8177 0 0 0 0 0 0 0 0 0 0 0 8177 8177 7359 7359 5661 5661 6690 6133 5661 6133 6133 5661 7359 6690 0 8177 6690 7359 7359 8177 8177 7359 7359 7359 6690 7359 0 8177 4329 5661 5661 6133 0 0 7359 6690 6690 0 0 0 8177 8177 0 0 0 0 0 0 0 0 8177 0 0 0 0 0 0 0 0 0 0 0 6133 0 0 7359 6133 6690 6690 6133 6133 6133 5661 5256 5256 5256 5256 4599 5256 5256 5256 4906 4599 4599 4599 3504 4329 3345 3199 3066 3199 3066 3066 3066 3199 2943 2943 2830 2943 2725 2830 2628 2725 2537 2537 2453 2453 2299 2299 2102 2164 1936 1989 1936 1887 1887 1936 1887 1936 1936 2102 2102 2102 2164 2230 2164 2230 2299 2164 2164 1839 1752 1635 1471 1443 1443 1415 1415 1415 1415 1362 1338 1338 1314 1247 1268 1268 1268 1247 1226 1268 1226 1247 1291 0 0 0 1314 1291 1291 1314 1291 1291 1268 319 321 321 322 0 0 0 0 0 0 0
    0 0 0 0 0 0 0 0 0 0 0 0 0 0 0 0 0 0 0 0 0 0 0 0 0 0 0 0 0 0 0 0 0 0 0 0 0 0 0 0 0 0 0 0 0 0 0 0 0 0 0 0 0 0 0 0 0 0 0 0 0 0 0 0 0 0 0 0 0 4906 4906 4906 4599 4088 4088 4599 4906 4906 5256 5661 6133 6690 7359 0 0 0 0 0 0 0 0 0 0 0 0 0 0 0 0 0 0 0 0 0 0 0 8177 7359 7359 8177 8177 0 7359 8177 8177 0 8177 8177 6690 7359 7359 7359 7359 0 0 8177 8177 0 0 0 0 0 8177 0 0 0 0 0 0 0 0 0 0 0 0 0 0 8177 8177 7359 6133 7359 6133 5661 6133 6690 6133 7359 7359 0 8177 6690 8177 7359 8177 7359 7359 7359 7359 6690 6690 0 7359 4088 5661 5661 6133 0 0 7359 6690 6690 0 0 0 8177 0 0 0 0 0 0 0 0 0 8177 0 0 0 0 0 0 0 0 0 8177 0 6690 0 0 8177 7359 7359 6690 6690 6133 6133 5256 4906 5256 4906 5256 4329 5256 5256 4906 4906 4906 4599 4329 3345 4329 3345 3199 3066 3199 3066 3066 3066 3066 2943 2725 2725 2943 2725 2830 2628 2628 2628 2537 2537 2537 2453 2299 2164 2164 1989 1989 1936 1887 1839 1887 1887 1887 1887 2102 2044 2102 2164 2230 2164 2164 2230 2044 1989 1752 1672 1533 1443 1443 1443 1415 1415 1388 1388 1362 1338 1338 1314 1247 1268 1291 1268 1247 1226 1268 1206 1226 1291 1314 0 1314 1314 1291 1291 1314 1291 1291 1268 0 319 321 0 0 0 0 0 0 0 0
    0 0 0 0 0 0 0 0 0 0 0 0 0 0 0 0 0 0 0 0 0 0 0 0 0 0 0 0 0 0 0 0 0 0 0 0 0 0 0 0 0 0 0 0 0 0 0 0 0 0 0 0 0 0 0 0 0 0 0 0 0 0 0 0 0 0 0 0 0 4906 5256 5256 5256 4599 4329 4906 4906 5256 5256 5661 6133 6690 7359 8177 8177 0 0 0 0 0 0 0 0 0 0 0 0 0 0 0 0 0 0 0 0 0 8177 7359 7359 7359 7359 0 7359 8177 8177 8177 7359 7359 6133 6690 7359 6690 7359 8177 0 8177 8177 0 0 0 0 0 0 0 0 0 0 0 0 0 0 0 0 0 0 0 0 0 0 7359 6690 7359 6133 5661 6690 6690 6690 8177 8177 0 8177 7359 8177 8177 8177 7359 7359 7359 7359 6690 6690 0 7359 4088 5256 5256 5661 6133 0 6690 7359 6690 0 0 0 8177 0 0 0 0 0 0 0 0 0 0 0 0 0 0 0 0 8177 8177 0 8177 0 5661 8177 8177 7359 6690 7359 6133 6133 5661 6133 5256 5256 5256 5256 5661 4599 5256 5256 5256 5256 4906 4906 4599 3504 4599 3504 3345 3066 3199 3066 3066 3066 3066 2830 2725 2725 2943 2725 2830 2628 2628 2628 2628 2628 2628 2537 2453 2299 2230 2044 2044 1936 1936 1887 1936 1887 1887 1887 2044 2044 2102 2164 2230 2102 2164 2044 1936 1839 1635 1599 1471 1415 1415 1415 1415 1415 1388 1388 1362 1362 1362 1338 1268 1291 1291 1268 1247 1247 1247 1187 1247 1291 1314 0 1314 1314 1291 1314 1314 1291 1291 1291 0 319 319 0 0 0 0 0 0 0 0
    0 0 0 0 0 0 0 0 0 0 0 0 0 0 0 0 0 0 0 0 0 0 0 0 0 0 0 0 0 0 0 0 0 0 0 0 0 0 0 0 0 0 0 0 0 0 0 0 0 0 0 0 0 0 0 0 0 0 0 0 0 0 0 0 0 0 0 0 0 4906 5256 5256 5256 4599 4329 4906 4599 4906 5256 5256 5661 6133 6690 8177 8177 0 0 0 0 0 0 0 0 0 0 0 0 0 0 0 0 0 8177 0 0 0 8177 7359 7359 7359 7359 0 7359 8177 8177 8177 7359 7359 5661 6690 6690 6133 6690 8177 0 8177 8177 0 0 0 0 0 0 0 0 0 0 8177 0 0 0 0 0 0 0 0 0 0 0 7359 6690 7359 6690 6133 6690 7359 7359 0 0 0 0 9199 0 8177 8177 8177 7359 7359 8177 6690 6690 0 6690 4088 5256 5256 5661 6133 0 6690 7359 6690 0 0 0 8177 8177 0 0 8177 0 8177 0 0 0 8177 0 0 0 0 0 0 8177 7359 8177 5256 4088 3199 6133 7359 6133 6133 6133 6133 6133 5661 6133 5256 5256 5256 5256 5661 4599 5256 5256 5256 5256 5256 4599 4329 3504 4329 3345 3199 2943 3066 2943 2943 2943 2830 2830 2628 2628 2830 2628 2725 2628 2628 2725 2628 2725 2725 2628 2537 2453 2374 2164 2044 1989 1936 1887 1887 1887 1839 1839 1989 1989 2102 2164 2164 2102 2044 1936 1839 1752 1501 1501 1415 1388 1415 1415 1388 1388 1388 1388 1362 1362 1388 1338 1291 1314 1314 1291 1268 1268 1268 1226 1268 1314 1338 0 1338 1338 1314 1314 1338 1314 1291 1291 0 319 319 0 0 0 0 0 0 0 0
    0 0 0 0 0 0 0 0 0 0 0 0 0 0 0 0 0 0 0 0 0 0 0 0 0 0 0 0 0 0 0 0 0 0 0 0 0 0 0 0 0 0 0 0 0 0 0 0 0 0 0 0 0 0 0 0 0 0 0 0 0 0 0 0 0 0 0 0 0 5256 5256 5256 5661 4906 4599 5256 4906 5256 5256 5661 6133 6133 6690 0 0 0 0 0 0 0 0 0 0 0 0 0 0 0 0 0 0 0 8177 0 0 0 7359 7359 7359 7359 7359 0 8177 8177 8177 8177 8177 7359 5661 6690 6690 6133 6690 8177 0 8177 8177 0 0 0 0 0 0 0 0 0 0 0 0 0 0 0 0 0 0 0 0 0 0 8177 7359 8177 6690 6690 7359 8177 8177 0 0 0 0 0 0 0 0 0 8177 8177 8177 7359 6690 0 6690 3873 5256 5256 5256 0 0 6690 7359 6690 0 0 0 8177 8177 8177 8177 7359 8177 7359 0 0 0 8177 0 8177 8177 7359 0 0 6690 6133 6133 3345 2830 2299 0 7359 5661 7359 6690 6690 6690 6133 6133 5256 5256 4906 5256 5661 4599 5256 5256 5256 5256 4906 4906 4329 3504 4088 3345 3199 2943 3066 2943 2943 2943 2725 2725 2537 2628 2725 2537 2628 2537 2628 2725 2725 2830 2830 2725 2628 2628 2374 2164 2044 1936 1936 1887 1887 1839 1839 1839 1989 1989 2102 2102 2044 1989 1936 1839 1672 1635 1471 1471 1415 1388 1388 1415 1388 1388 1388 1415 1362 1388 1388 1362 1314 1338 1338 1291 1291 1291 1268 1226 1291 1338 1362 0 1362 1338 1338 1338 1362 1338 1291 1291 0 319 319 0 0 0 0 0 0 0 0
    0 0 0 0 0 0 0 0 0 0 0 0 0 0 0 0 0 0 0 0 0 0 0 0 0 0 0 0 0 0 0 0 0 0 0 0 0 0 0 0 0 0 0 0 0 0 0 0 0 0 0 0 0 0 0 0 0 0 0 0 0 0 0 0 0 0 0 0 0 5256 4906 5256 5661 5256 4599 5256 5256 5256 5256 5661 6133 6133 6690 0 0 0 0 0 0 0 0 0 0 0 0 0 0 0 0 0 0 0 7359 0 9199 9199 7359 7359 7359 7359 7359 0 7359 8177 8177 8177 8177 7359 5661 6690 6690 6133 6133 7359 8177 8177 8177 0 0 0 0 0 0 0 0 0 0 0 0 0 0 0 0 0 0 0 0 0 0 9199 7359 8177 7359 6690 8177 8177 0 0 0 0 0 0 0 0 0 0 0 0 0 7359 6133 0 6133 3679 4906 4906 4906 0 0 6690 7359 6690 0 0 0 8177 7359 8177 8177 7359 8177 7359 8177 8177 0 7359 7359 6690 7359 6690 8177 8177 6133 4599 4329 2943 2537 1989 0 0 0 8177 6690 7359 7359 6133 6133 5661 5256 4906 5661 6133 4599 5256 5661 5256 5256 4906 4906 4088 3504 4088 3345 3199 3066 2943 2830 2830 2830 2725 2628 2537 2628 2628 2537 2537 2537 2537 2725 2725 2830 2830 2830 2725 2725 2374 2164 1989 1936 1936 1887 1887 1839 1795 1795 1936 1989 2044 2044 1936 1887 1795 1711 1599 1599 1443 1471 1443 1415 1415 1415 1388 1388 1388 1415 1362 1388 1415 1388 1338 1362 1338 1314 1291 1291 1291 1247 1314 1338 1362 1362 1362 1338 1338 1338 1362 1338 1291 0 0 318 0 0 0 0 0 0 0 0 0
    0 0 0 0 0 0 0 0 0 0 0 0 0 0 0 0 0 0 0 0 0 0 0 0 0 0 0 0 0 0 0 0 0 0 0 0 0 0 0 0 0 0 0 0 0 0 0 0 0 0 0 0 0 0 0 0 0 0 0 0 0 0 0 0 0 0 0 0 0 5256 5256 4906 5256 5256 4599 5256 5256 5256 5661 6133 6690 6690 7359 0 0 0 0 0 0 0 0 0 0 0 0 0 0 0 0 0 0 0 7359 0 8177 8177 6690 6690 6690 6690 6690 9199 6690 7359 7359 7359 0 7359 5661 6690 6690 6133 6133 7359 8177 8177 8177 0 0 0 0 0 0 0 0 0 0 0 0 0 0 0 0 0 0 0 0 0 0 0 8177 0 8177 7359 8177 8177 0 0 0 0 0 0 0 0 0 0 0 0 0 7359 0 0 0 3345 4329 4329 4599 0 0 6690 7359 6690 0 0 0 8177 7359 8177 8177 7359 8177 6690 8177 8177 0 7359 7359 6690 6133 6133 7359 7359 5256 3679 3504 2725 2299 1936 1795 0 0 0 6690 8177 8177 6133 6690 5661 5256 4906 5661 6133 4329 5256 5256 4906 4906 4599 4599 3873 3504 4088 3345 3199 2943 2943 2725 2830 2725 2628 2628 2453 2628 2628 2537 2628 2628 2537 2725 2830 2943 2830 2830 2725 2725 2374 2299 2044 1989 1989 1936 1936 1887 1795 1795 1887 1936 1936 1887 1795 1795 1711 1635 1599 1599 1471 1501 1471 1443 1415 1415 1388 1388 1388 1388 1362 1388 1415 1388 1362 1362 1362 1338 1338 1362 1314 1268 1314 1338 1338 1362 1338 1338 1314 1338 1362 1338 1291 0 0 0 0 0 0 0 0 0 0 0 0
    0 0 0 0 0 0 0 0 0 0 0 0 0 0 0 0 0 0 0 0 0 0 0 0 0 0 0 0 0 0 0 0 0 0 0 0 0 0 0 0 0 0 0 0 0 0 0 0 0 0 0 0 0 0 0 0 0 0 0 0 0 0 0 0 0 0 0 0 0 5256 5256 4599 5256 4906 4329 4906 4906 5256 5661 6133 6690 7359 8177 0 0 0 0 0 0 0 0 0 0 0 0 0 0 0 0 0 0 0 8177 0 8177 8177 6690 6690 6690 6690 6690 8177 6690 7359 7359 7359 0 7359 6133 6690 6690 6133 6133 7359 8177 8177 8177 0 0 0 0 0 0 0 0 0 0 0 0 0 0 0 0 0 0 0 0 0 0 0 0 0 0 8177 0 0 0 0 8177 0 0 0 0 0 0 0 0 0 0 6690 0 0 0 3199 3873 3873 4329 0 0 6690 7359 6690 0 0 0 0 7359 7359 8177 7359 8177 6690 8177 7359 0 6690 7359 6133 6133 6133 6690 6690 4599 3345 3199 2628 2102 1887 1795 1752 0 0 0 0 0 6690 6690 5661 5256 5256 5661 6133 4599 5256 5256 4906 4906 4599 4599 4088 3679 4088 3345 3199 2943 2943 2725 2830 2725 2628 2628 2537 2628 2628 2628 2628 2628 2537 2725 2830 2943 2943 2830 2725 2725 2453 2374 2102 2044 1989 1989 1936 1887 1795 1795 1839 1839 1795 1752 1672 1672 1599 1599 1599 1599 1501 1533 1471 1471 1415 1415 1388 1388 1362 1388 1362 1388 1388 1362 1362 1362 1362 1362 1362 1388 1314 1291 1314 1338 1338 1338 1338 1338 1314 1314 1338 1314 1291 0 0 0 0 0 0 0 0 0 0 0 0
    0 0 0 0 0 0 0 0 0 0 0 0 0 0 0 0 0 0 0 0 0 0 0 0 0 0 0 0 0 0 0 0 0 0 0 0 0 0 0 0 0 0 0 0 0 0 0 0 0 0 0 0 0 0 0 0 0 0 0 0 0 0 0 0 0 0 0 0 0 5256 5256 4329 5256 5256 4599 4906 5256 5661 5661 6133 7359 6690 7359 0 0 0 0 0 0 0 0 0 0 0 0 0 0 0 0 0 0 0 0 0 8177 8177 6690 6690 6690 6690 6133 8177 6690 7359 7359 7359 8177 7359 6133 6690 6690 6133 6133 7359 8177 0 8177 0 0 0 0 0 0 0 0 0 0 0 0 0 0 0 0 0 0 0 0 0 0 0 0 0 0 0 0 0 0 0 6690 0 0 0 0 0 0 0 0 0 0 5256 0 0 0 3066 3873 3873 4088 0 0 6690 6690 6690 0 0 0 0 7359 7359 8177 7359 8177 6690 8177 8177 8177 6690 7359 6133 5661 6133 6690 6133 4088 3199 3066 2537 1989 1887 0 0 0 0 0 0 8177 6690 6133 5661 5256 5256 5256 6133 4599 5256 5256 4906 5256 4599 4599 4088 3679 3873 3345 3199 2943 2830 2725 2725 2725 2628 2628 2453 2537 2537 2628 2628 2628 2537 2830 2830 3066 3066 3066 2830 2943 2628 2537 2230 2102 2044 1989 1936 1887 1795 1752 1795 1752 1752 1711 1599 1635 1599 1599 1565 1599 1501 1565 1501 1471 1443 1443 1415 1388 1388 1388 1362 1388 1415 1388 1388 1388 1388 1388 1415 1415 1338 1314 1338 1314 1314 1338 1338 1314 1314 1314 1338 1314 1291 1268 1247 0 0 0 0 0 0 0 0 0 0
    0 0 0 0 0 0 0 0 0 0 0 0 0 0 0 0 0 0 0 0 0 0 0 0 0 0 0 0 0 0 0 0 0 0 0 0 0 0 0 0 0 0 0 0 0 0 0 0 0 0 0 0 0 0 0 0 0 0 0 0 0 0 0 0 0 0 0 0 0 5256 5256 4329 5256 5661 4906 5256 5256 5661 5661 5661 7359 6690 6133 0 0 0 0 0 0 0 0 0 8177 0 0 0 0 0 0 0 0 0 8177 0 8177 8177 6690 7359 6690 6690 6133 8177 7359 8177 8177 8177 8177 8177 6690 7359 6690 6133 6133 7359 8177 0 0 0 0 0 0 0 0 0 0 0 0 0 0 0 0 0 0 0 0 0 0 0 0 0 0 0 0 0 0 0 0 0 0 0 0 0 0 0 0 0 0 0 0 0 0 0 0 3199 3873 3873 4329 0 0 6690 6690 6690 0 0 0 0 7359 7359 8177 7359 8177 6690 8177 8177 0 7359 7359 6133 4906 5661 6133 5661 3873 3066 2943 2453 1989 1887 0 0 0 0 0 0 0 6133 6133 5661 5256 4906 5256 6133 4599 5256 5256 4906 5256 4906 4906 4088 3873 4088 3345 3199 2943 2830 2628 2725 2628 2537 2628 2453 2628 2537 2628 2628 2628 2628 2830 2943 3066 3066 3066 2943 2943 2725 2628 2374 2230 2164 2044 1989 1887 1795 1752 1795 1711 1711 1672 1599 1672 1599 1635 1599 1635 1533 1565 1533 1501 1471 1443 1443 1415 1388 1415 1388 1415 1415 1388 1415 1415 1415 1415 1443 1443 1362 1338 1338 1314 1314 1314 1314 1314 1314 1314 1314 1291 1268 1247 1226 0 0 0 0 0 0 0 0 0 0
    0 0 0 0 0 0 0 0 0 0 0 0 0 0 0 0 0 0 0 0 0 0 0 0 0 0 0 0 0 0 0 0 0 0 0 0 0 0 0 0 0 0 0 0 0 0 0 0 0 0 0 0 0 0 0 0 0 0 0 0 0 0 0 0 0 0 0 0 0 5256 5256 4088 5256 5661 4906 4906 4906 5256 5661 5256 6690 5661 4088 0 8177 0 0 0 0 0 0 0 8177 0 8177 8177 0 0 0 0 0 0 8177 0 8177 8177 6690 7359 7359 6690 6133 8177 7359 8177 8177 8177 0 8177 7359 7359 7359 6690 6690 7359 8177 0 0 0 0 0 0 0 0 0 0 0 0 0 0 0 0 0 0 0 0 0 0 0 0 0 0 0 0 0 0 0 0 0 0 1672 0 1795 0 0 0 0 0 0 0 0 0 0 333 0 3679 3679 4088 0 0 6690 7359 6690 0 0 0 0 6690 6690 8177 7359 7359 6690 8177 8177 8177 7359 7359 5661 4599 5256 5661 4906 3504 2943 2830 2374 1936 1936 1795 0 0 0 0 0 0 6133 6133 5661 5256 4906 5256 6133 4599 4906 4906 4599 5256 4599 4599 4088 3873 3873 3345 3199 2943 2830 2628 2725 2628 2537 2628 2537 2628 2628 2725 2725 2725 2725 2830 2943 2943 2943 2943 2943 2943 2725 2628 2299 2230 2230 2102 1989 1839 1795 1752 1752 1711 1672 1635 1565 1635 1635 1599 1635 1635 1533 1599 1565 1533 1501 1471 1443 1415 1388 1443 1388 1415 1415 1388 1415 1388 1415 1415 1415 1443 1388 1362 1362 1314 1314 1314 1314 1291 1291 1291 1314 1291 1268 1226 1206 0 0 0 0 0 0 0 0 0 0
    0 0 0 0 0 0 0 0 0 0 0 0 0 0 0 0 0 0 0 0 0 0 0 0 0 0 0 0 0 0 0 0 0 0 0 0 0 0 0 0 0 0 0 0 0 0 0 0 0 0 0 0 0 0 0 0 0 0 0 0 0 0 0 0 0 0 0 0 0 4906 4906 4088 5256 5661 4599 4599 4599 4906 5256 5256 6133 5256 3679 7359 7359 0 0 8177 0 0 0 0 0 0 8177 0 0 0 0 0 0 0 9199 0 8177 8177 6690 7359 7359 6690 6133 8177 7359 8177 7359 8177 8177 8177 7359 8177 7359 7359 6690 8177 8177 0 0 0 0 0 0 0 0 0 0 0 0 0 0 0 0 0 0 0 0 0 0 0 0 0 0 0 0 8177 0 7359 0 0 0 1752 1711 1752 1635 0 1711 0 0 0 0 0 0 0 0 0 0 0 0 0 0 7359 7359 7359 0 0 0 0 7359 7359 8177 8177 7359 6690 7359 7359 8177 6133 6690 5256 4329 5256 5256 4088 3504 2943 2830 2453 2044 1989 1839 0 0 149 0 0 0 5661 6133 5661 5256 4906 5256 6133 4329 4599 4599 4329 4906 4329 4329 3873 3679 3679 3345 3066 2943 2725 2628 2628 2628 2628 2628 2628 2725 2628 2725 2830 2830 2830 2943 3066 2943 2943 3066 2943 2943 2725 2628 2230 2164 2230 2102 1936 1795 1711 1711 1711 1635 1635 1599 1533 1599 1599 1599 1635 1635 1565 1599 1565 1565 1501 1501 1443 1415 1388 1443 1388 1388 1415 1362 1415 1388 1388 1388 1415 1443 1388 1362 1362 1291 1291 1314 1291 1291 1291 1291 1314 1291 1268 1247 0 0 0 0 0 0 0 0 0 0 0
    0 0 0 0 0 0 0 0 0 0 0 0 0 0 0 0 0 0 0 0 0 0 0 0 0 0 0 0 0 0 0 0 0 0 0 0 0 0 0 0 0 0 0 0 0 0 0 0 0 0 0 0 0 0 0 0 0 0 0 0 0 0 0 0 0 0 0 0 0 4906 4906 3873 4906 5256 4088 4088 4599 4329 4906 4906 5661 4906 3679 6690 6690 8177 8177 8177 8177 0 0 0 0 0 0 0 0 0 0 0 0 0 0 0 0 0 7359 7359 7359 6690 6133 8177 7359 8177 7359 8177 8177 0 7359 8177 7359 7359 6690 8177 8177 0 0 0 0 0 0 0 0 0 0 0 0 0 0 0 0 0 0 0 0 0 0 0 0 0 0 8177 0 6133 7359 5661 0 0 1989 1887 1839 1839 1752 1795 1795 0 0 0 0 0 0 0 0 0 0 0 0 0 0 6690 7359 7359 0 0 0 0 8177 8177 0 8177 8177 7359 7359 6690 7359 5256 5256 4088 3679 4329 4599 3679 3345 2943 2830 2537 2102 1989 1839 1795 0 0 0 0 6690 5661 5661 5661 5256 5256 5256 6133 4088 4329 4329 4329 4599 4329 4329 3873 3873 3679 3345 3199 3066 2830 2725 2725 2725 2725 2725 2725 2830 2725 2830 2830 2830 2830 2943 3066 2943 2943 2943 2830 2830 2725 2537 2164 2102 2230 2044 1887 1711 1672 1672 1672 1599 1599 1599 1533 1599 1599 1599 1635 1635 1565 1599 1565 1565 1501 1501 1443 1415 1388 1443 1388 1388 1388 1362 1415 1388 1388 1388 1415 1471 1388 1362 1362 1268 1268 1291 1291 1291 1291 1268 1291 1291 1268 1247 0 0 0 0 0 0 0 0 0 0 0
    0 0 0 0 0 0 0 0 0 0 0 0 0 0 0 0 0 0 0 0 0 0 0 0 0 0 0 0 0 0 0 0 0 0 0 0 0 0 0 0 0 0 0 0 0 0 0 0 0 0 0 0 0 0 0 0 0 0 0 0 0 0 0 0 0 0 0 0 0 4599 4906 3679 4599 4329 3504 3504 3679 3679 3679 3679 4329 4088 3504 6133 6133 7359 8177 7359 8177 8177 8177 0 0 0 0 0 0 0 0 0 0 0 0 0 0 0 7359 8177 8177 7359 6690 8177 7359 8177 6690 8177 8177 8177 8177 8177 7359 7359 6690 8177 8177 0 0 0 0 0 0 0 0 0 0 0 0 0 0 0 0 0 0 0 0 0 0 0 0 0 0 7359 7359 6133 5661 4599 0 0 1795 1839 1752 1795 1752 1752 1752 1795 0 1752 1752 1795 0 0 0 0 0 0 0 0 0 6133 7359 7359 0 0 0 0 0 0 0 0 8177 7359 6690 5661 5661 4329 3679 3345 3066 3504 3873 3345 3345 3066 2830 2537 2164 2102 1887 1839 1887 0 0 0 5661 5256 5661 5661 5256 5256 5256 6133 4088 4329 4329 4329 4599 4329 4088 3873 3873 3873 3504 3199 2943 2830 2830 2830 2830 2830 2830 2830 2830 2830 2830 2943 2943 2943 2943 2943 2943 2943 2943 2830 2830 2725 2628 2102 2102 2102 1936 1795 1533 1599 1635 1599 1565 1565 1599 1533 1599 1635 1599 1635 1672 1565 1599 1565 1599 1533 1501 1471 1415 1415 1443 1388 1388 1388 1362 1415 1388 1388 1388 1415 1471 1415 1388 1338 1268 1268 1268 1268 1291 1268 1268 1291 1268 1268 1247 0 0 0 0 0 0 0 0 0 0 0
    0 0 0 0 0 0 0 0 0 0 0 0 0 0 0 0 0 0 0 0 0 0 0 0 0 0 0 0 0 0 0 0 0 0 0 0 0 0 0 0 0 0 0 0 0 0 0 0 0 0 0 0 0 0 0 0 0 0 0 0 0 0 0 0 0 0 0 0 0 3873 3873 3199 3679 3504 3066 3066 3066 3199 3066 3199 3504 3345 3345 5256 5256 6690 7359 7359 8177 8177 8177 0 0 0 0 0 0 0 0 0 0 0 0 0 0 0 8177 8177 8177 8177 7359 0 8177 8177 6690 8177 8177 0 8177 8177 8177 8177 7359 8177 8177 0 0 0 0 0 0 0 0 0 0 0 0 0 0 0 0 0 0 0 0 0 0 0 0 8177 0 6690 7359 6133 4599 0 0 1415 1672 1711 1711 1752 1752 1752 1752 1795 1839 1795 1752 1795 1795 0 0 0 0 0 0 0 0 4906 5661 6690 0 0 0 0 0 0 0 0 8177 7359 6133 4599 4329 3504 3199 2943 2830 3066 3504 3199 3199 2943 2830 2537 2164 2164 1989 1936 1887 0 0 0 4906 4906 5661 5661 5661 5661 5256 6690 4906 4599 4599 4329 4906 4329 4088 3873 3873 3873 3679 3504 3199 3066 2943 3066 2943 2943 2943 2943 2943 2943 2943 3066 2943 2943 2943 2943 2943 2943 2943 2830 2725 2725 2628 2102 2102 2230 1936 1795 1443 1599 1635 1565 1565 1565 1599 1533 1565 1635 1599 1599 1635 1565 1599 1565 1599 1533 1501 1471 1415 1415 1443 1388 1388 1388 1362 1415 1388 1388 1388 1388 1443 1388 1388 1362 1268 1268 1291 1291 1291 1291 1291 1291 1291 1291 1268 1226 0 0 0 0 0 0 0 0 0 0
    0 0 0 0 0 0 0 0 0 0 0 0 0 0 0 0 0 0 0 0 0 0 0 0 0 0 0 0 0 0 0 0 0 0 0 0 0 0 0 0 0 0 0 0 0 0 0 0 0 0 0 0 0 0 0 0 0 0 0 0 0 0 0 0 0 0 0 0 0 3504 3345 2943 3199 3066 2102 1752 1711 2102 2230 0 0 3066 3066 4088 4088 5661 6690 6690 7359 8177 7359 0 0 0 0 0 0 0 0 0 0 0 0 0 0 0 8177 8177 8177 7359 7359 0 8177 8177 6690 8177 8177 0 0 0 8177 8177 8177 0 0 0 0 0 0 0 0 0 0 0 0 0 0 0 0 0 0 0 0 0 0 0 8177 8177 0 8177 0 6690 6690 0 4088 0 1362 1533 1711 1752 1752 1795 1839 1795 1795 1887 1887 1839 1795 1839 1839 1795 0 0 0 0 0 2374 0 3504 3873 5256 8177 0 0 0 0 0 0 0 8177 6690 4906 3873 3345 3066 2725 2537 2453 2725 3066 3066 3066 2943 2830 2628 2299 2374 2102 2044 1989 0 0 0 4329 4906 5256 5661 6133 5661 5256 6690 4906 4906 4906 4599 5256 4329 4088 3873 4088 3873 3679 3504 3345 3199 3066 3199 3199 3066 3066 3066 3066 3066 3066 3066 2943 2943 2943 2943 2725 2725 2725 2725 2537 2537 2374 1936 1887 1989 1752 1711 1415 1565 1635 1565 1565 1565 1599 1501 1565 1635 1599 1599 1635 1533 1599 1565 1599 1533 1501 1471 1415 1415 1471 1388 1388 1388 1362 1415 1388 1362 1362 1362 1443 1388 1415 1362 1291 1291 1291 1314 1314 1314 0 1291 1291 1291 1247 0 1247 0 0 0 0 0 0 0 0 0
    0 0 0 0 0 0 0 0 0 0 0 0 0 0 0 0 0 0 0 0 0 0 0 0 0 0 0 0 0 0 0 0 0 0 0 0 0 0 0 0 0 0 0 0 0 0 0 0 0 0 0 0 0 0 0 0 0 0 0 0 0 0 0 0 0 0 0 0 0 2830 2628 2102 1936 2102 1839 1711 1635 0 0 0 0 0 3066 3679 3504 4599 6133 6133 7359 8177 7359 0 0 0 0 0 0 0 0 0 0 0 0 0 0 0 8177 8177 8177 7359 7359 0 7359 8177 6690 8177 8177 0 0 0 8177 0 8177 0 0 0 0 0 0 0 0 0 0 0 0 0 0 0 0 0 0 0 0 0 0 8177 8177 8177 0 8177 8177 6133 5661 0 0 0 1443 1635 1711 1711 1752 1795 1795 1795 1795 1839 1839 1795 1795 1795 1795 1752 1752 1752 0 0 0 1989 0 3066 3066 3873 6690 0 0 0 0 0 0 0 8177 6690 4329 3199 2943 2725 2374 2164 2164 2299 2830 2830 2943 2943 2830 2725 2453 2537 2374 2230 2044 2453 2628 3504 3679 4599 4906 5661 5661 5661 4906 6133 5256 5256 4906 4599 4906 4329 4088 3873 4329 3873 3504 3679 3504 3345 3199 3345 3345 3199 3199 3199 3199 3199 3199 3199 2943 3066 3066 2943 2628 2725 2628 2628 2453 2299 2102 1936 1887 1989 1795 1752 1443 1599 1635 1565 1565 1565 1599 1501 1565 1635 1565 1565 1599 1533 1565 1533 1565 1501 1501 1443 1415 1415 1443 1362 1362 1362 1338 1415 1362 1362 1362 1362 1443 1388 1415 1362 1291 1291 1314 1314 1314 1314 0 1291 1314 1291 1268 0 0 0 0 0 0 0 0 0 0 0
    0 0 0 0 0 0 0 0 0 0 0 0 0 0 0 0 0 0 0 0 0 0 0 0 0 0 0 0 0 0 0 0 0 0 0 0 0 0 0 0 0 0 0 0 0 0 0 0 0 0 0 0 0 0 0 0 0 0 0 0 0 0 0 0 0 0 0 0 0 2537 2299 1989 1887 1936 1752 1533 1635 0 0 0 0 0 3066 3504 3345 4088 6133 6690 7359 8177 8177 0 0 0 0 0 0 0 0 0 0 0 0 0 0 0 8177 8177 8177 7359 6690 0 7359 7359 6690 8177 8177 8177 0 0 8177 0 0 0 0 0 0 0 0 0 0 0 0 0 0 0 0 0 0 0 0 0 0 0 0 0 8177 8177 0 0 8177 6133 5661 0 0 0 1565 1672 1752 1711 1752 1752 1795 1752 1752 1795 1795 1795 1795 1795 1795 1752 1752 1752 1752 1795 1752 1839 1887 2230 2628 3066 6133 0 0 0 0 0 0 0 8177 6133 4088 3066 2830 2628 2299 2044 2102 2230 2537 2628 2725 2943 2830 2725 2537 2628 2453 2299 2044 2299 2299 0 3679 4599 5256 5661 6133 5661 4906 6133 5256 5256 4906 4906 4906 4329 4088 4088 4599 3873 3679 3679 3504 3504 3345 3504 3504 3345 3345 3345 3199 3199 3199 3199 2943 2943 2943 2830 2537 2537 2374 2453 2299 2044 1989 1887 1839 1989 1795 1795 1471 1599 1635 1565 1565 1565 1599 1471 1533 1599 1533 1533 1565 1501 1533 1501 1533 1471 1443 1415 1388 1388 1415 1338 1338 1338 1338 1388 1362 1338 1338 1338 1415 1362 1388 1338 1268 1291 1314 1314 1314 1314 1314 1291 1338 1314 1314 0 0 319 0 0 0 0 0 0 0 0
    0 0 0 0 0 0 0 0 0 0 0 0 0 0 0 0 0 0 0 0 0 0 0 0 0 0 0 0 0 0 0 0 0 0 0 0 0 0 0 0 0 0 0 0 0 0 0 0 0 0 0 0 0 0 0 0 0 0 0 0 0 0 0 0 0 0 0 0 0 2164 2044 1936 1839 1887 1752 0 0 0 0 0 0 3199 3199 3873 3504 4329 6690 6690 8177 0 0 0 0 0 0 0 0 0 0 0 0 0 0 0 0 0 8177 8177 8177 6690 6690 0 6690 7359 6133 8177 8177 0 0 0 8177 0 8177 0 0 0 0 0 0 0 0 0 0 0 0 0 0 0 0 0 0 0 0 0 0 8177 8177 8177 0 0 7359 6133 5661 0 0 0 1599 1711 1752 1752 1752 1752 1795 1752 1752 1795 1795 1795 1795 1795 1795 1752 1752 1752 1752 1752 1711 1795 1795 1795 1989 2374 3345 0 0 0 0 0 0 0 8177 6690 4088 3066 2628 2537 2230 2044 2102 2164 2299 2537 2628 2830 2830 2725 2628 2628 2537 2453 2164 2374 2164 0 3345 4088 4599 5661 6133 5661 4906 5661 4906 5256 5256 4906 4906 4599 4088 4329 4906 4088 3679 3873 3679 3679 3504 3679 3679 3345 3345 3345 3345 3199 3199 3199 2943 2943 2943 2830 2374 2453 2164 2374 2164 1936 1887 1839 1839 1989 1839 1795 1533 1599 1635 1599 1599 1565 1565 1471 1533 1599 1501 1533 1533 1471 1501 1471 1501 1443 1415 1388 1362 1388 1388 1338 1338 1338 1314 1362 1362 1338 1314 1314 1388 1338 1362 1314 1268 1291 0 0 0 1338 1314 1314 1362 1338 1314 0 321 321 319 321 319 0 0 0 0 0
    0 0 0 0 0 0 0 0 0 0 0 0 0 0 0 0 0 0 0 0 0 0 0 0 0 0 0 0 0 0 0 0 0 0 0 0 0 0 0 0 0 0 0 0 0 0 0 0 0 0 0 0 0 0 0 0 0 0 0 0 0 0 0 0 0 0 0 0 0 2044 1989 1887 1795 1936 1795 0 0 3504 0 3345 3504 3504 3504 4329 3679 4599 6690 6690 8177 0 0 0 0 0 0 0 0 0 0 0 0 0 0 0 0 0 8177 8177 8177 6690 6690 0 6690 7359 6133 8177 8177 8177 0 8177 8177 0 8177 0 0 0 0 0 0 0 0 0 0 0 8177 0 0 0 0 0 0 0 0 0 0 8177 8177 0 0 0 8177 6690 5661 0 0 0 0 0 1795 1752 1752 1752 1795 1711 1711 1795 1752 1795 1795 1795 1795 1711 1752 1711 1752 1711 1672 1752 1752 1752 1839 1839 2453 0 0 0 0 0 0 0 0 6690 3873 2943 2537 2537 2230 1989 2102 2102 2230 2374 2628 2830 2830 2725 2628 2628 2537 2453 2230 2299 2102 0 3199 3873 4599 5661 6133 5661 4906 5661 5256 5661 5661 5256 5256 5256 4329 4599 5256 4599 3873 4088 3873 3873 3679 3873 3873 3504 3504 3504 3504 3345 3199 3199 2943 2943 2943 2830 2299 2453 2102 2299 2164 1887 1887 1887 1839 2044 1887 1839 1565 1599 1672 1599 1599 1565 1565 1471 1533 1565 1471 1533 1533 1471 1471 1443 1501 1415 1415 1388 1338 1362 1362 1314 1338 1338 1338 1388 1362 1362 1338 1338 1415 1338 1362 1338 1291 0 0 0 0 1338 1338 1314 1362 1338 1338 325 322 322 321 322 321 0 0 0 0 0
    0 0 0 0 0 0 0 0 0 0 0 0 0 0 0 0 0 0 0 0 0 0 0 0 0 0 0 0 0 0 0 0 0 0 0 0 0 0 0 0 0 0 0 0 0 0 0 0 0 0 0 0 0 0 0 0 0 0 0 0 0 0 0 0 0 0 0 0 0 1989 1989 1887 1839 1989 0 0 0 3873 0 3873 4329 3873 3679 4599 3679 4599 6690 7359 8177 0 0 0 0 0 0 0 0 0 0 0 0 0 0 8177 0 0 8177 8177 8177 6690 6690 0 6690 7359 6690 8177 0 0 0 0 8177 0 0 0 0 0 0 0 0 0 0 0 0 0 8177 8177 0 0 8177 0 0 0 0 0 0 8177 8177 0 0 0 0 6690 0 0 0 0 0 0 1795 1795 1795 1795 1795 1752 1752 1795 1795 1839 1839 1839 1839 1752 1795 1752 1752 1711 1672 1711 1711 1752 1887 1839 2374 4906 7359 0 0 0 0 0 0 6690 3679 2943 2453 2537 2299 2044 2044 2044 2102 2230 2537 2830 2725 2628 2453 2628 2537 2453 2164 2230 2044 2628 2943 3873 4329 5256 5661 5256 4599 4906 4906 5661 5661 5661 5256 5256 4906 4906 5661 4906 4088 4329 4088 4088 3873 4329 4088 3679 3679 3679 3504 3504 3199 3199 2943 2830 2830 2725 2164 2299 2102 2230 2164 1936 1887 1887 1887 2044 1887 1839 1635 1635 1672 1599 1635 1599 1599 1471 1565 1599 1501 1533 1533 1471 1471 1443 1471 1415 1415 1388 1338 1362 1338 1314 1338 1338 1314 1388 1362 1362 1338 1362 1415 1362 1388 1338 1314 0 0 0 0 1338 1338 1314 1388 1338 1338 328 324 322 322 322 322 0 0 0 0 0
    0 0 0 0 0 0 0 0 0 0 0 0 0 0 0 0 0 0 0 0 0 0 0 0 0 0 0 0 0 0 0 0 0 0 0 0 0 0 0 0 0 0 0 0 0 0 0 0 0 0 0 0 0 0 0 0 0 0 0 0 0 0 0 0 0 0 0 0 0 1887 1936 1887 1839 2164 0 0 0 4088 0 4088 5256 3873 3504 4906 3679 4599 8177 7359 0 0 0 0 0 0 0 0 0 0 0 0 0 0 0 8177 0 0 8177 8177 0 6690 6690 0 6690 7359 6690 0 0 0 0 0 0 0 0 0 0 0 0 0 0 0 0 0 0 0 8177 8177 0 0 8177 0 0 0 0 0 0 8177 0 0 0 0 0 0 0 0 0 0 0 0 1795 1795 1795 1795 1795 1711 1752 1795 1795 1936 1936 1936 1936 1795 1839 1795 1795 1752 1711 1752 1752 1795 1989 1936 2453 4906 6133 8177 0 8177 8177 8177 0 6690 4329 3066 2537 2628 2374 2044 2102 2044 2044 2164 2374 2725 2628 2453 2230 2453 2453 2374 2102 2164 1989 2164 2537 3873 4329 5256 5661 4906 4329 4599 5256 6133 6133 5661 5661 6133 5256 5256 6133 5256 4329 4599 4329 4329 4088 4906 4599 4088 3873 4088 3873 3679 3199 3066 2725 2725 2628 2537 2044 2230 2044 2164 2164 1936 1887 1887 1887 2044 1887 1839 1672 1672 1711 1635 1635 1599 1599 1501 1565 1565 1501 1565 1501 1501 1471 1443 1501 1415 1415 1388 1338 1362 1338 1338 1338 1314 1314 1362 1362 1362 1338 1362 1415 1362 1388 1338 1338 0 0 0 0 1362 1388 1314 1415 1338 1338 328 324 324 322 324 322 0 0 0 0 0
    0 0 0 0 0 0 0 0 0 0 0 0 0 0 0 0 0 0 0 0 0 0 0 0 0 0 0 0 0 0 0 0 0 0 0 0 0 0 0 0 0 0 0 0 0 0 0 0 0 0 0 0 0 0 0 0 0 0 0 0 0 0 0 0 0 0 0 0 0 1887 1936 1887 1839 0 0 0 0 4088 4088 4329 5256 3679 3504 4329 3504 4088 7359 7359 0 0 0 0 0 0 0 0 0 0 0 0 0 0 0 8177 0 0 7359 8177 8177 6690 6690 0 6690 7359 6690 0 0 0 0 0 0 0 0 0 0 0 0 0 0 0 0 0 0 0 8177 8177 0 0 8177 0 0 0 0 0 0 0 0 0 0 0 330 0 324 0 0 0 0 629 0 1795 1795 1839 1795 1752 1752 1839 1887 2164 2102 2230 2044 1795 1936 1839 1887 1795 1711 1752 1752 1839 2230 2164 2628 4906 5661 7359 8177 8177 8177 8177 0 6690 5256 3345 2628 2628 2537 2164 2102 2044 2102 2102 2299 2628 2537 2299 2102 2299 2299 2230 1989 1936 1795 1672 1887 0 4599 5661 7359 4906 4329 4599 5256 6690 6133 6133 6133 6133 5661 5661 6690 5256 4329 4329 4599 4329 4088 4906 4599 4088 4088 4329 4329 3873 3345 2830 2725 0 2537 2374 1989 2164 2044 2102 2102 1936 1936 1887 1887 2044 1887 1839 1711 1672 1711 1672 1672 1599 1599 1471 1565 1565 1501 1565 1501 1471 1471 1443 1471 1415 1415 1388 1338 1388 1338 1362 1338 1314 1314 1362 1362 1388 1362 1415 1415 1362 1415 1338 1338 0 0 0 0 1362 1388 1314 1443 1338 1338 330 325 324 324 324 322 0 0 0 0 0
    0 0 0 0 0 0 0 0 0 0 0 0 0 0 0 0 0 0 0 0 0 0 0 0 0 0 0 0 0 0 0 0 0 0 0 0 0 0 0 0 0 0 0 0 0 0 0 0 0 0 0 0 0 0 0 0 0 0 0 0 0 0 0 0 0 0 0 0 0 1936 1936 1936 1887 2453 0 0 0 4329 0 4906 5661 3873 3679 4599 3679 4329 7359 7359 8177 0 0 0 0 0 0 0 0 0 0 0 0 0 0 8177 0 9199 7359 7359 7359 6133 6133 7359 5661 6690 6133 0 0 0 0 0 0 0 0 0 0 0 0 0 0 0 0 0 0 0 8177 8177 0 0 8177 0 0 0 0 0 0 0 0 0 0 0 328 327 0 0 0 0 0 629 0 1839 1795 1839 1839 1795 1795 1887 1936 2374 2299 2537 2164 1936 2044 1936 1887 1795 1711 1711 1752 1887 2299 2374 2725 5256 5661 7359 8177 7359 7359 7359 0 0 8177 4329 2943 2943 2725 2374 2164 2102 2102 2102 2164 2537 2453 2102 1989 2102 2164 2164 1936 1887 1711 1501 1599 0 0 0 0 3679 3679 3873 4599 6133 6133 5661 5661 6133 5661 5661 6133 5661 4088 4329 4329 4329 3873 4599 4329 3873 3679 3873 3873 0 0 0 2374 0 2299 2164 1936 2102 1989 2044 2102 1936 1936 1887 1887 2044 1887 1887 1752 1711 1752 1672 1672 1635 1599 1471 1565 1533 1501 1565 1471 1501 1443 1443 1471 1415 1388 1388 1338 1362 1338 1362 1338 1291 1291 1362 1362 1388 1388 1443 1415 1362 1415 1362 1338 1314 1338 1338 1338 1338 1388 1291 1443 1338 1338 0 0 0 0 0 0 0 0 0 0 0
    0 0 0 0 0 0 0 0 0 0 0 0 0 0 0 0 0 0 0 0 0 0 0 0 0 0 0 0 0 0 0 0 0 0 0 0 0 0 0 0 0 0 0 0 0 0 0 0 0 0 0 0 0 0 0 0 0 0 0 0 0 0 0 0 0 0 0 0 0 1936 1936 1936 0 0 0 0 4599 4329 4906 5256 6133 4088 3873 5256 4088 4599 6690 6690 7359 8177 8177 0 0 0 0 0 0 0 0 0 0 0 0 8177 0 8177 6690 6133 6133 4906 4599 5661 3504 5256 5256 9199 0 0 0 0 0 0 0 0 0 0 0 0 0 0 0 0 0 0 8177 0 0 0 8177 0 0 0 0 0 0 0 0 0 0 328 327 325 0 0 0 0 0 0 0 1795 1752 1795 1795 1752 1752 1795 1887 2453 2374 2628 2164 1989 2164 1989 1887 1795 1711 1711 1752 1887 2453 2725 2830 5661 6133 7359 8177 7359 8177 7359 0 0 0 6133 3199 3199 2943 2537 2299 2230 2102 2044 2102 2374 2230 1989 1887 1989 1989 2044 1887 1839 1711 1533 1501 0 1443 1338 1362 1362 0 3679 4329 6133 6133 6133 6133 6133 5661 6133 6690 5661 4088 4088 4329 4329 3873 4599 3679 3504 0 0 0 0 0 0 0 0 2299 0 0 0 2044 2102 2164 1936 1936 1936 1936 2044 1887 1839 1752 1711 1711 1711 1672 1599 1599 1471 1565 1533 1501 1565 1471 1501 1443 1443 1471 1443 1388 1388 1338 1362 1314 1362 1314 1291 1291 1362 1362 1388 1388 1443 1415 1362 1415 1362 1338 1314 1314 1314 1338 1338 1338 1291 1443 1338 1338 0 1338 1291 1247 1268 1268 0 0 0 0 0
    0 0 0 0 0 0 0 0 0 0 0 0 0 0 0 0 0 0 0 0 0 0 0 0 0 0 0 0 0 0 0 0 0 0 0 0 0 0 0 0 0 0 0 0 0 0 0 0 0 0 0 0 0 0 0 0 0 0 0 0 0 0 0 0 0 0 0 0 0 1839 1887 1936 0 2725 0 3679 4329 3873 4329 4599 5661 3873 3679 4906 4088 4088 6133 6133 6133 6690 7359 8177 0 0 0 0 0 0 0 0 0 0 0 8177 8177 7359 5661 4906 4329 3679 3199 3345 2830 3504 3504 6690 0 0 0 0 0 0 0 0 0 0 0 0 0 0 0 0 0 0 0 0 0 0 8177 0 0 0 0 0 0 322 327 330 327 325 324 324 0 0 0 0 0 0 0 1795 1752 1839 1795 1752 1795 1839 1936 2453 2453 2725 2230 2044 2299 2102 1989 1839 1752 1752 1795 2102 2628 2830 2830 5256 5661 6690 7359 5661 6133 5661 0 0 0 6133 3066 3199 3066 2628 2374 2299 2102 2044 2102 2230 2102 1887 1839 1936 1936 1936 1839 1795 1711 1599 1533 1635 1471 1362 1362 1362 1291 0 0 5661 5661 5661 5661 6133 5661 6133 6690 5661 4088 3873 4088 4329 3873 4329 3504 0 226 227 229 229 0 0 0 0 0 0 0 0 0 0 2102 1887 1887 1887 1887 1989 1887 1839 1752 1752 1711 1711 1672 1599 1599 1501 1565 1533 1501 1599 1471 1501 1443 1443 1501 1443 1415 1415 1338 1362 1314 1362 1314 1291 1291 1362 1362 1388 1388 1443 1415 1362 1415 1362 1338 1338 1338 1338 1338 1338 1362 1314 1443 1338 1314 1338 1314 1291 1268 1268 1268 0 0 0 0 0
    0 0 0 0 0 0 0 0 0 0 0 0 0 0 0 0 0 0 0 0 0 0 0 0 0 0 0 0 0 0 0 0 0 0 0 0 0 0 0 0 0 0 0 0 0 0 0 0 0 0 0 0 0 0 0 0 0 0 0 0 0 0 0 0 0 0 0 0 0 1795 1887 1936 0 0 0 0 3873 3679 3679 3873 4599 3504 3345 4329 3679 3504 4906 4906 4906 4906 4599 5661 6133 4329 0 0 0 0 0 0 0 0 0 7359 8177 6133 4599 4088 3504 3199 2830 2943 2628 2943 2943 3679 0 0 0 0 0 0 0 0 8177 0 0 0 8177 0 0 0 0 0 6690 0 7359 0 0 0 0 0 0 322 325 321 325 328 0 0 322 322 0 0 0 0 0 0 0 1795 1752 1839 1795 1795 1795 1839 1936 2453 2453 2725 2164 1989 2299 2102 1989 1839 1752 1752 1795 2102 2537 2628 2537 3873 4329 5256 4906 3345 3504 3345 0 3873 7359 3873 2943 3199 3066 2628 0 2299 2102 1989 1989 2044 1989 1795 1711 1839 1839 1839 1752 1752 1672 1565 1533 1533 1471 1415 1388 1362 1338 0 0 0 5256 5661 5661 6133 5661 6133 6690 5661 3873 3679 4088 4088 3873 4329 3345 227 227 228 230 229 228 0 1008 0 0 0 0 0 0 0 0 1839 1839 1839 1887 1936 1839 1795 1795 1752 1752 1711 1672 1599 1635 1501 1565 1533 1501 1599 1471 1533 1471 1471 1533 1471 1415 1415 1362 1415 1338 1388 1338 1291 1291 1362 1362 1415 1415 1443 1415 1388 1415 1388 1362 1362 1362 1362 1362 1362 1388 1338 1471 1338 1314 1314 1314 1268 1247 1247 1247 0 0 0 0 0
    0 0 0 0 0 0 0 0 0 0 0 0 0 0 0 0 0 0 0 0 0 0 0 0 0 0 0 0 0 0 0 0 0 0 0 0 0 0 0 0 0 0 0 0 0 0 0 0 0 0 0 0 0 0 0 0 0 0 0 0 0 0 0 0 0 0 0 0 0 1839 1887 1989 0 0 0 0 3504 3504 3199 3504 3873 3199 3066 3345 3199 3066 3199 3679 3345 3345 3066 2943 2943 2628 2537 2725 0 3199 0 3199 0 8177 7359 6690 6133 3679 3504 3504 3066 2943 2628 2725 2453 2628 2628 2830 0 0 0 0 0 0 0 0 0 0 8177 6690 6133 7359 8177 0 0 8177 4906 3679 4329 4329 0 0 0 0 0 0 327 322 328 0 0 0 0 0 0 0 0 0 0 0 1795 1752 1711 1795 1795 1752 1795 1795 1936 2299 2299 2725 1989 1989 2230 2102 1989 1887 1752 1795 1795 2164 2453 2537 2374 3199 3345 3679 3345 2725 2628 2725 2453 2628 2725 2830 2830 2943 3066 2628 0 2164 1989 1887 1887 1887 1887 1711 1599 1752 1752 1752 1711 1672 1599 1501 1501 1501 1443 1388 1388 1362 1314 0 0 0 4906 4906 5661 5661 5661 6133 6690 5661 3873 3679 3873 3873 3679 4088 3345 0 0 0 0 229 228 0 994 981 0 0 0 0 0 0 0 0 0 0 0 0 1839 1752 1795 1795 1752 1711 1672 1599 1635 1501 1565 1533 1533 1599 1471 1565 1471 1501 1565 1501 1443 1443 1388 1443 1362 1415 1338 1314 1291 1388 1362 1388 1415 1443 1415 1388 1415 1388 1388 1388 1388 1388 1388 1388 1388 1362 1443 1338 1268 1291 1268 1247 1226 1226 1226 0 0 0 0 0
    0 0 0 0 0 0 0 0 0 0 0 0 0 0 0 0 0 0 0 0 0 0 0 0 0 0 0 0 0 0 0 0 0 0 0 0 0 0 0 0 0 0 0 0 0 0 0 0 0 0 0 0 0 0 0 0 0 0 0 0 0 0 0 0 0 0 0 0 0 1839 1887 1989 0 0 0 0 3066 3199 2830 3199 3345 2943 2830 2830 2830 2725 2725 3066 2943 2943 2628 2453 2537 2230 2164 2164 1936 2299 2230 2230 2453 2628 2725 3679 3345 2943 2830 3066 2830 2830 2453 2537 2299 2299 2374 2453 0 0 0 0 0 0 0 0 0 0 3345 3504 0 0 3873 3873 3066 4599 3066 2725 2830 2725 2830 2943 0 0 0 0 0 0 0 217 217 219 0 0 0 0 0 0 1887 1752 1752 1752 1711 1795 1795 1752 1795 1795 1936 2230 2230 2537 1936 1989 2164 2044 1989 1887 1795 1839 1839 2230 2299 2453 2230 2830 2830 3066 2830 2537 2374 2453 2299 2453 2628 2628 2628 2628 2830 2537 0 2044 1989 1887 1839 1887 1887 1711 1599 1752 1711 1711 1672 1635 1599 1471 1471 1471 1415 1388 1388 1362 1314 0 0 0 0 4088 4599 5256 5661 6133 6690 5256 3679 3504 3679 3679 3504 3679 3199 0 0 102 0 0 0 1008 981 968 0 0 0 0 0 0 0 0 0 0 0 0 1752 1711 1795 1795 1711 1711 1672 1599 1635 1501 1565 1501 1533 1599 1471 1533 1471 1501 1565 1501 1443 1443 1388 1443 1362 1443 1362 1314 1291 1415 1362 1415 1415 1471 1415 1388 1415 1388 1388 1388 1388 1388 1388 1388 1388 1362 1415 1338 1268 1268 1247 1226 1206 1226 1226 0 0 0 0 0
    0 0 0 0 0 0 0 0 0 0 0 0 0 0 0 0 0 0 0 0 0 0 0 0 0 0 0 0 0 0 0 0 0 0 0 0 0 0 0 0 0 0 0 0 0 0 0 0 0 0 0 0 0 0 0 0 0 0 0 0 0 0 0 0 0 0 0 0 0 0 0 1936 0 0 0 0 2725 2830 2537 2830 2725 2628 2537 2374 2537 2453 2374 2628 2628 2453 2299 2164 2230 2102 2044 2044 1936 2044 2102 2044 2164 2230 2230 2628 2628 2628 2453 2725 2537 2628 2230 2374 2102 2102 2164 2164 0 0 0 0 0 0 2374 2230 2299 2164 2537 2628 2453 2537 2628 2725 2537 2725 2537 2299 2374 2299 2453 2299 2230 2453 2230 2299 0 0 0 0 0 0 0 0 0 0 0 1887 1839 1752 1752 1752 1711 1795 1795 1752 1795 1795 1887 2102 2164 2299 1839 1887 1989 1936 1936 1887 1839 1839 1887 2230 2164 2299 2164 2374 2537 2725 2537 2453 2230 2374 2164 2299 2453 2537 2453 2374 2725 2374 0 1989 1936 1839 0 1839 1839 1711 1599 1752 1711 1711 1672 1635 1565 1471 1471 1471 1388 1362 1362 1338 1291 0 0 0 0 3345 3679 4088 4599 6133 6133 4906 3504 3345 3504 3504 3345 3345 0 0 0 102 0 0 0 994 981 968 1022 994 994 0 0 0 257 0 0 0 0 0 1711 1635 1752 1711 1672 1672 1635 1565 1599 1471 1533 1501 1533 1599 1471 1565 1471 1501 1565 1501 1443 1443 1388 1443 1362 1443 1362 1314 1314 1388 1362 1415 1415 1443 1388 1388 1388 1388 1362 1388 1388 1388 1388 1362 1388 1362 1388 1338 1226 1247 1226 1206 1187 1206 1206 0 0 0 0 0
    0 0 0 0 0 0 0 0 0 0 0 0 0 0 0 0 0 0 0 0 0 0 0 0 0 0 0 0 0 0 0 0 0 0 0 0 0 0 0 0 0 0 0 0 0 0 0 0 0 0 0 0 0 0 0 0 0 0 0 0 0 0 0 0 0 0 0 0 0 0 0 1936 0 0 0 2044 2299 2374 2230 2453 2164 2230 2230 2044 2164 2230 2164 2374 2374 2230 2102 2044 2102 2044 1989 1989 1936 1989 2044 2044 2102 2164 2102 2299 2230 2299 2044 2299 2102 2299 2044 2164 2044 2044 2044 2044 2044 2164 1989 0 1989 2102 2044 1989 2044 1989 2044 2044 1989 2102 2164 2299 2230 2374 2230 2164 2164 2102 2164 2044 1989 2044 1936 1989 1989 1989 2044 2044 1936 1989 0 1936 1887 0 0 1839 1839 1752 1752 1711 1711 1795 1795 1752 1752 1795 1839 1936 2044 2102 1795 1839 1887 1839 1839 1839 1795 1839 1839 2102 2044 2164 2102 2164 2230 2453 2299 2230 2102 2230 2044 2230 2299 2453 2299 2164 2628 2230 0 1936 0 0 0 0 1839 1711 1599 1752 1711 1672 1635 1599 1565 1443 1471 1471 1388 1362 1362 1338 0 0 1291 1226 1187 0 0 0 3345 4088 5256 4599 3345 3199 3199 3199 3199 0 0 0 103 103 103 0 994 981 981 968 1008 981 981 0 0 0 0 0 0 0 0 0 1565 0 0 0 0 0 1533 1501 1565 1443 1501 1501 1533 1599 1471 1565 1501 1533 1565 1501 1443 1415 1388 1443 1338 1415 1338 1314 1314 1362 1338 1388 1388 1415 1362 1362 1362 1388 1362 1362 1388 1362 1362 1362 1362 1338 1338 1314 1206 1206 1206 1187 1187 1187 1206 0 0 0 0 0
    0 0 0 0 0 0 0 0 0 0 0 0 0 0 0 0 0 0 0 0 0 0 0 0 0 0 0 0 0 0 0 0 0 0 0 0 0 0 0 0 0 0 0 0 0 0 0 0 0 0 0 0 0 0 0 0 0 0 0 0 0 0 0 0 0 0 0 0 0 0 0 0 0 0 0 1936 1936 1989 1936 2044 1795 1839 1936 1887 1936 1989 1989 2102 2102 2102 2044 1989 2044 1989 1989 1989 1936 1989 2044 2044 2044 2044 2044 2044 2044 2044 1936 2044 1989 2044 1936 2044 1989 1989 1989 1989 1989 1989 1936 2044 1887 1936 1936 1936 1936 1936 1936 1936 1936 1989 1989 2102 2102 2164 2102 2102 2044 2044 2044 1936 1936 1936 1887 1887 1887 1887 1936 1936 1887 1936 1839 1887 1839 1839 1839 1795 1795 1795 1795 1752 1711 1795 1795 1752 1752 1752 1795 1839 1936 1989 1711 1795 1839 1795 1795 1795 1752 1795 1795 1989 1887 1936 1936 1989 2044 2230 2102 2102 2044 2102 2044 2164 2230 2299 2230 2044 2453 2102 0 1839 0 0 0 0 1752 1672 1533 1711 1635 1599 1599 1599 1565 1443 1501 1501 1388 1362 1362 0 0 1268 1268 1206 1149 1226 1226 1206 0 0 4329 3873 3066 2830 2830 2830 0 0 0 0 0 103 103 0 981 968 968 955 994 968 943 981 0 0 0 0 0 0 0 0 0 0 0 0 0 0 0 0 1533 1415 1471 1501 1533 1599 1501 1565 1501 1533 1565 1501 1443 1415 1388 1415 1338 1388 1338 1314 1291 1338 1338 1362 1362 1362 1338 1338 1338 1362 1362 1362 1362 1362 1362 1362 1362 1338 1338 1291 1187 1187 1187 1168 1168 1187 1206 0 0 0 0 0
    0 0 0 0 0 0 0 0 0 0 0 0 0 0 0 0 0 0 0 0 0 0 0 0 0 0 0 0 0 0 0 0 0 0 0 0 0 0 0 0 0 0 0 0 0 0 0 0 0 0 0 0 0 0 0 0 0 0 0 0 0 0 0 0 0 0 0 0 0 0 1839 1887 1887 1936 1839 1887 1887 1887 1887 1936 1795 1795 1839 1839 1887 1936 1936 2044 2044 2044 1989 1989 2044 1989 1936 2044 1936 1989 1989 1989 1989 1989 1989 1989 1936 1936 1887 1936 1887 1936 1887 1936 1936 1936 1936 1936 1936 1989 1887 1936 1887 1936 1936 1887 1936 1936 1936 1936 1936 1989 1989 2044 2044 2102 2044 2044 2044 1989 2044 1936 1887 1887 1839 1839 1839 1887 1887 1887 1839 1887 1795 1887 1839 1839 1795 1795 1795 1795 1795 1752 1711 1752 1752 1752 1752 1752 1795 1795 1936 1936 1711 1752 1795 1752 1752 1752 1711 1752 1752 1936 1887 1887 1887 1936 1989 2044 1989 2044 1989 2044 1989 2102 2164 2164 2102 1989 2299 2044 0 1795 0 1752 1752 1752 1711 1635 1501 1672 1635 1565 1599 1565 1565 1471 1501 1501 1388 1362 1362 0 0 1268 1268 1206 1115 1206 1187 1168 1187 1206 1226 0 2830 1936 2044 1936 0 0 0 0 0 0 0 955 955 943 943 943 981 931 886 931 886 845 0 0 0 0 0 968 826 750 750 728 0 0 0 0 0 0 1443 1501 1533 1565 1533 1565 1533 1565 1565 1501 1443 1415 1388 1415 1362 1388 1338 1338 1314 1362 1314 1362 1338 1338 1314 1314 1338 1338 1338 1362 1362 1362 1362 1338 1362 1338 1338 1291 1187 1168 1187 1168 1168 1187 1206 0 0 0 0 0
    0 0 0 0 0 0 0 0 0 0 0 0 0 0 0 0 0 0 0 0 0 0 0 0 0 0 0 0 0 0 0 0 0 0 0 0 0 0 0 0 0 0 0 0 0 0 0 0 0 0 0 0 0 0 0 0 0 0 0 0 0 0 0 0 0 0 0 0 0 1839 1839 1887 1887 1887 1839 1887 1839 1887 1887 1887 1795 1839 1887 1887 1887 1936 1936 1989 1989 2044 1989 1989 2044 1936 1936 1989 1887 1936 1936 1989 1989 1989 1989 1989 1887 1936 1887 1887 1839 1887 1839 1887 1887 1887 1887 1936 1936 1936 1887 1936 1887 1887 1936 1936 1936 1936 1887 1936 1936 1989 1989 1989 2044 2102 2044 2044 2044 1989 1989 1887 1839 1839 1795 1839 1839 1839 1887 1839 0 1887 1795 1839 1839 1839 1795 1795 1795 1839 1795 1795 1752 1795 1795 1752 1752 1752 1752 1752 1887 1887 1672 1752 1795 1752 1752 1752 1752 1752 1752 1936 1887 1887 1887 1936 1936 2044 1989 2044 1989 2044 1989 2102 2102 2044 1989 1936 2102 1989 1752 1795 1752 1672 1711 1711 1672 1599 1501 1672 1599 1533 1599 1565 1533 1443 1501 1501 1388 1388 1388 0 1291 1268 1268 1206 1132 1206 1168 1149 1187 1187 1206 1268 0 1711 1635 1711 0 0 0 0 0 0 0 0 931 943 943 943 981 955 943 981 955 876 865 845 845 826 845 836 826 758 766 735 728 750 0 0 113 112 0 1533 1599 1599 1565 1599 1565 1565 1599 1501 1471 1443 1415 1443 1388 1415 1362 1338 1338 1362 1338 1362 1314 1314 1291 1314 1314 1314 1338 1338 1362 1362 1362 1338 1338 1338 1314 1268 1168 1149 1168 1149 1168 1168 1187 0 0 0 0 0
    0 0 0 0 0 0 0 0 0 0 0 0 0 0 0 0 0 0 0 0 0 0 0 0 0 0 0 0 0 0 0 0 0 0 0 0 0 0 0 0 0 0 0 0 0 0 0 0 0 0 0 0 0 0 0 0 0 0 0 0 0 0 0 0 0 0 0 0 0 1887 1839 1887 1887 1887 1839 1887 1795 1887 1839 1887 1795 1887 1887 1887 1887 1936 1887 1989 1936 1989 1936 1936 1989 1887 1887 1989 1887 1936 1887 1936 1936 1936 1989 1936 1887 1887 1839 1839 1795 1795 1795 1795 1839 1839 1839 1887 1887 1936 1887 1936 1887 1887 1887 1936 1887 1887 1887 1887 1887 1936 1989 1989 1989 2044 2044 2044 1989 1989 1936 1839 1795 1795 1752 1795 1795 1795 1839 1839 0 1839 1795 1839 1795 1795 1795 1795 1795 1839 1795 1795 1752 1795 1795 1795 1752 1795 1752 1752 1839 1839 1672 1711 1795 1711 1711 1752 1711 1752 1752 1887 1839 1839 1887 1887 1936 2044 2044 2044 2044 2044 2044 2102 2102 2044 1936 1887 2044 1936 1711 1752 1752 1635 1672 1672 1672 1599 1471 1635 1565 1501 1565 1533 1501 1415 1471 1471 1362 1362 1388 0 0 1268 1291 1226 1132 1206 1168 1132 1168 1187 1206 1226 1247 1338 1338 1338 1415 0 0 855 908 908 0 0 931 943 943 943 994 981 968 981 931 865 865 845 826 808 817 817 817 758 774 758 735 766 758 0 0 0 113 0 1599 1599 1565 1599 1565 1565 1599 1501 1471 1415 1415 1443 1388 1443 1388 1362 1388 1362 1338 1362 1314 1291 1268 1268 1291 1314 1314 1338 1338 1338 1338 1338 1338 1314 1291 1226 1149 1132 1149 1132 1149 1168 1168 0 0 0 0 0
    0 0 0 0 0 0 0 0 0 0 0 0 0 0 0 0 0 0 0 0 0 0 0 0 0 0 0 0 0 0 0 0 0 0 0 0 0 0 0 0 0 0 0 0 0 0 0 0 0 0 0 0 0 0 0 0 0 0 0 0 0 0 0 0 0 0 0 0 0 1887 1839 1887 1887 1887 1839 1887 1795 1839 1839 1887 1839 1887 1887 1887 1887 1887 1887 1936 1936 1989 1887 1887 1936 1887 1839 1887 1839 1887 1887 1936 1936 1887 1936 1936 1839 1839 1795 1795 1752 1752 1752 1752 1795 1795 1795 1887 1887 1936 1887 1936 1887 1887 1936 1936 1936 1936 1887 1887 1887 1936 1936 1936 1936 1936 1989 1989 1936 1936 1887 1795 1752 1752 1711 1752 1752 1795 1795 1795 0 1839 1752 1795 1752 1795 1752 1795 1752 1887 1839 1839 1795 1795 1795 1795 1795 1795 1752 1752 1795 1839 1635 1711 1752 1711 1711 1711 1711 1711 1752 1887 1839 1839 1887 1887 1936 1989 2044 1989 1989 2044 2044 2102 2102 1989 1887 1839 1936 1887 1672 1752 1711 1635 1672 1672 1672 1599 1471 1635 1565 1501 1533 1533 1471 1415 1443 1471 0 0 0 0 0 1247 1291 1226 1132 1206 1168 1132 1149 1168 1187 1206 1187 1291 1291 1247 1268 0 908 845 908 908 908 919 931 943 955 943 1008 981 981 1008 943 865 865 836 836 817 826 817 826 791 791 791 758 782 774 774 0 0 0 0 0 1533 1533 1533 1501 1533 0 1471 1443 1415 1415 1443 1388 1415 1388 1362 1388 1362 1362 1338 1291 1268 1247 1247 1268 1268 1314 1314 1314 1338 1338 1314 1314 1291 1291 1187 1149 1115 1149 1132 1149 1168 1168 0 0 0 0 0
    0 0 0 0 0 0 0 0 0 0 0 0 0 0 0 0 0 0 0 0 0 0 0 0 0 0 0 0 0 0 0 0 0 0 0 0 0 0 0 0 0 0 0 0 0 0 0 0 0 0 0 0 0 0 0 0 0 0 0 0 0 0 0 0 0 0 0 0 0 1887 1887 1887 1887 1839 1795 1839 1752 1839 1839 1887 1839 1887 1887 1887 1887 1936 1887 1936 1936 1989 1887 1887 1887 1839 1795 1839 1839 1839 1839 1887 1887 1887 1887 1887 1795 1795 1752 1752 1711 1711 1711 1752 1752 1795 1795 1839 1839 1887 1887 1936 1887 1887 1936 1936 1887 1887 1887 1887 1839 1887 1887 1887 1887 1887 1887 1887 1839 1839 1795 1752 1672 1711 1672 1711 1711 1752 1752 1752 1711 1795 1752 1795 1752 1752 1752 1752 1752 1887 1839 1839 1839 1839 1839 1839 1839 1887 1795 1752 1795 1795 1599 1711 1711 1672 1672 1711 1711 1711 1752 1839 1839 1839 1887 1887 1936 1936 1989 1989 1989 2044 1989 2044 2044 1936 1887 1795 1887 1839 1635 1711 1711 1635 1672 1672 1635 1599 1471 1635 1565 1501 1533 1533 1471 1415 1415 1443 0 0 0 0 1268 1247 1291 1247 1132 1206 1168 1132 1149 1168 1187 1206 1187 1291 1268 1206 1226 0 943 845 908 897 897 919 919 931 943 931 1008 994 0 0 0 0 0 0 0 0 908 865 845 791 782 791 758 782 774 782 0 0 0 0 0 1501 1501 1501 1471 0 0 1415 1415 1388 1388 1415 1362 1388 1362 1362 1388 1362 1362 1338 1291 1268 1226 1206 1247 1247 1291 1291 1314 1314 1314 1291 1291 1268 1268 1149 1149 1115 1149 1132 1149 1168 1168 0 0 0 0 0
    0 0 0 0 0 0 0 0 0 0 0 0 0 0 0 0 0 0 0 0 0 0 0 0 0 0 0 0 0 0 0 0 0 0 0 0 0 0 0 0 0 0 0 0 0 0 0 0 0 0 0 0 0 0 0 0 0 0 0 0 0 0 0 0 0 0 0 0 0 1887 1839 1839 1839 1795 1752 1795 1711 1795 1795 1839 1795 1887 1887 1887 1887 1887 1887 1936 1887 1936 1839 1839 1887 1795 1752 1795 1795 1795 1795 1887 1839 1839 1887 1839 1795 1795 1711 1711 1672 1711 1672 1711 1711 1752 1711 1795 1795 1887 1839 1887 1839 1887 1887 1887 1839 1839 1839 1795 1795 1839 1795 1795 1795 1795 1795 1795 1795 1795 1752 1711 1635 1672 1672 1672 1672 1711 1752 1752 1672 1752 1752 1752 1752 1752 1752 1752 1752 1887 1839 1839 1839 1839 1839 1839 1839 1887 1752 1752 1795 1752 1599 1672 1672 1635 1672 1672 1672 1672 1711 1795 1795 1795 1839 1839 1887 1936 1936 1936 1936 1936 1936 1936 1989 1887 1839 1795 1887 1839 1672 1711 1711 1672 1711 1672 1635 1599 1471 1635 1565 1501 1501 1533 1471 1388 1415 1443 0 0 0 0 1268 1247 1291 1268 1132 1206 1187 1149 1168 1168 1187 1206 1187 1291 1268 1206 1226 0 931 845 908 897 897 919 908 931 943 943 0 0 1471 1599 1533 1471 1471 1443 1362 1338 0 0 845 782 766 782 758 782 782 782 799 0 0 0 0 1443 1443 1443 0 593 0 0 1388 1362 1362 1388 1362 1388 1362 1362 1388 1338 1362 1314 1291 1268 1206 1168 1226 1206 1268 1268 1291 1291 1291 1268 1268 1247 1268 1132 1149 1115 1149 1132 1149 1149 1168 0 0 0 0 0
    0 0 0 0 0 0 0 0 0 0 0 0 0 0 0 0 0 0 0 0 0 0 0 0 0 0 0 0 0 0 0 0 0 0 0 0 0 0 0 0 0 0 0 0 0 0 0 0 0 0 0 0 0 0 0 0 0 0 0 0 0 0 0 0 0 0 0 0 0 1839 1795 1839 1795 1752 1752 1752 1711 1752 1795 1839 1795 1839 1887 1887 1887 1887 1887 1887 1887 1936 1795 1795 1839 1752 1752 1752 1795 1795 1795 1839 1839 1839 1887 1839 1795 1752 1711 1711 1635 1672 1672 1672 1672 1711 1711 1752 1795 1839 1795 1839 1795 1839 1839 1839 1795 1795 1752 1752 1752 1752 1752 1752 1752 1752 1752 1752 1752 1752 1711 1672 1635 1635 1635 1672 1672 1672 1711 1752 1635 1752 1711 1711 1711 1711 1711 1711 1711 1839 1839 1795 1795 1795 1795 1795 1795 1839 1752 1752 1752 1752 1635 1672 1672 1635 1672 1672 1635 1672 1711 1795 1752 1752 1839 1795 1839 1887 1887 1887 1887 1839 1839 1839 1887 1839 1795 1795 1795 1795 1672 1711 1711 1672 1711 1672 1599 1599 1443 1599 1533 1471 1501 1501 1443 1388 1388 0 0 0 0 1291 1247 1226 1291 1268 1115 1206 1168 1132 1168 1168 1168 1187 1168 1291 1291 1206 1247 0 955 845 908 897 897 908 908 0 0 0 1008 0 1635 1672 1599 1565 1533 1533 1388 1362 0 0 826 766 750 774 750 774 774 782 791 774 791 0 0 0 0 0 629 623 618 0 0 1338 1338 0 1338 1388 1362 1362 1388 1338 1362 1338 1291 1291 1206 1168 1226 1206 1268 1268 1268 1268 1268 1268 1268 1247 1268 1115 1149 1098 1149 1132 1149 1149 1168 0 0 0 0 0
    0 0 0 0 0 0 0 0 0 0 0 0 0 0 0 0 0 0 0 0 0 0 0 0 0 0 0 0 0 0 0 0 0 0 0 0 0 0 0 0 0 0 0 0 0 0 0 0 0 0 0 0 0 0 0 0 0 0 0 0 0 0 0 0 0 0 0 0 0 1752 1711 1711 1711 1635 1672 1672 1672 1711 1752 1795 1752 1839 1887 1839 1839 1839 1839 1839 1795 1887 1752 1795 1795 1752 1752 1752 1795 1795 1752 1839 1795 1795 1839 1795 1752 1752 1672 1711 1635 1672 1635 1635 1672 1672 1672 1711 1711 1752 1752 1795 1752 1795 1795 1795 1752 1752 1711 1711 1711 1711 1752 1752 1752 1752 1752 1752 1752 1711 1672 1635 1599 1635 1599 1635 1635 1635 1711 1711 1599 1711 1711 1711 1672 1711 1711 1711 1672 1795 1795 1752 1795 1795 1795 1795 1795 1795 1752 1752 1752 1711 1672 1672 1672 1635 1635 1672 1635 1672 1711 1752 1752 1752 1795 1795 1795 1795 1795 1795 1839 1795 1795 1795 1795 1752 1752 1752 1752 1711 1672 1711 1711 1672 1711 1672 1599 1599 1443 1599 1533 1471 1471 1471 1443 1362 1362 0 0 0 0 1268 1226 1206 1291 1268 1115 1187 1168 1115 1149 1149 1168 1187 1168 1291 1291 1206 1268 1115 1008 845 0 0 0 0 908 0 931 931 1008 981 1672 1711 1635 1599 1635 1565 1388 1338 0 0 845 774 743 774 750 766 766 774 782 766 774 782 735 766 707 694 687 675 663 675 675 0 0 0 0 1362 1362 1362 1388 1338 1362 1314 1291 1291 1206 1149 1206 1206 1247 1247 1268 1291 1268 1268 1268 1268 1268 1115 1168 1098 1149 1132 1149 1149 1149 0 0 0 0 0
    0 0 0 0 0 0 0 0 0 0 0 0 0 0 0 0 0 0 0 0 0 0 0 0 0 0 0 0 0 0 0 0 0 0 0 0 0 0 0 0 0 0 0 0 0 0 0 0 0 0 0 0 0 0 0 0 0 0 0 0 0 0 0 0 0 0 0 0 0 1672 1599 1599 1599 1533 1599 1635 1635 1672 1711 1752 1752 1795 1839 1795 1795 1795 1795 1795 1795 1839 1752 1752 1711 1711 1711 1672 1711 1711 1711 1752 1752 1752 1795 1795 1752 1711 1672 1672 1635 1672 1635 1635 1635 1635 1635 1672 1672 1711 1711 1711 1752 1711 1752 1752 1711 1711 1711 1672 1672 1672 1711 1711 1711 1711 1711 1711 1711 1672 1635 1635 1599 1599 1599 1599 1635 1635 1672 1672 1565 1672 1672 1672 1672 1672 1672 1672 1635 1752 1752 1672 1752 1752 1752 1752 1752 1795 1752 1752 1752 1711 1672 1672 1672 1672 1635 1672 1672 1672 1711 1752 1752 1752 1795 1795 1795 1795 1795 1795 1795 1795 1795 1795 1795 1752 1752 1752 1711 1711 1672 1672 1672 1635 1672 1635 1599 1599 1443 1599 1533 1471 1471 1471 1415 1362 1362 0 0 0 0 1268 1226 1206 1291 1247 1098 1187 1149 1115 1149 1149 1168 1187 1168 1291 1291 1226 1291 1268 1022 855 0 0 0 0 0 0 931 931 1008 0 1711 1752 1711 1711 1711 1635 1415 0 0 0 0 0 0 0 0 766 766 774 782 750 766 774 735 743 721 714 700 694 687 694 687 694 700 645 0 0 1314 1338 1362 1338 1388 1314 1314 1291 1206 1132 1206 1226 1247 1247 1268 1268 1268 1268 1268 1247 1268 1098 1168 1098 1149 1132 1149 1149 1149 0 0 0 0 0
    0 0 0 0 0 0 0 0 0 0 0 0 0 0 0 0 0 0 0 0 0 0 0 0 0 0 0 0 0 0 0 0 0 0 0 0 0 0 0 0 0 0 0 0 0 0 0 0 0 0 0 0 0 0 0 0 0 0 0 0 0 0 0 0 0 0 0 0 0 1565 1501 1501 1501 1471 1565 1599 1599 1635 1711 1711 1711 1752 1795 1752 1752 1752 1752 1752 1752 1839 1711 1711 1672 1635 1635 1599 1599 1635 1635 1711 1672 1711 1711 1711 1672 1635 1599 1635 1565 1599 1599 1599 1599 1599 1599 1635 1635 1672 1672 1672 1672 1672 1672 1672 1672 1672 1635 1599 1635 1635 1672 1672 1672 1711 1672 1672 1672 1599 1599 1599 1565 1599 1565 1599 1635 1599 1672 1635 1565 1635 1635 1635 1635 1635 1672 1672 1635 1752 1711 1635 1711 1711 1711 1711 1711 1752 1711 1711 1752 1635 1672 1672 1635 1672 1672 1672 1672 1672 1711 1752 1711 1752 1795 1752 1752 1795 1752 1752 1795 1752 1752 1752 1752 1752 1711 1752 1711 1672 1635 1635 1672 1599 1635 1565 1533 1565 1415 1565 1471 1443 1443 1443 1415 1362 1338 0 0 0 0 1268 1226 1206 1268 1247 1098 1187 1168 1115 1149 1149 1168 1187 1168 1291 1291 1226 1314 1291 1022 0 0 0 0 0 0 0 0 931 1149 0 1635 1672 1672 1711 1711 1635 1415 0 0 0 0 0 162 164 165 0 758 774 782 743 750 774 728 735 721 721 707 707 700 700 700 714 714 657 639 634 0 0 0 1268 1338 1268 1314 1314 1206 1115 1206 1226 1247 1226 1247 1268 1247 1247 1247 1226 1247 1082 1168 1082 1149 1132 1149 1149 1149 0 0 0 0 0
    0 0 0 0 0 0 0 0 0 0 0 0 0 0 0 0 0 0 0 0 0 0 0 0 0 0 0 0 0 0 0 0 0 0 0 0 0 0 0 0 0 0 0 0 0 0 0 0 0 0 0 0 0 0 0 0 0 0 0 0 0 0 0 0 0 0 0 0 0 1501 1471 1471 1501 1471 1565 1599 1565 1599 1672 1672 1635 1672 1711 1672 1672 1672 1711 1635 1711 1752 1635 1635 1599 1533 1565 1533 1533 1565 1565 1635 1599 1635 1635 1635 1599 1565 1533 1533 1501 1565 1533 1533 1501 1501 1533 1533 1565 1599 1599 1565 1635 1599 1599 1599 1565 1565 1565 1533 1599 1599 1635 1635 1635 1672 1635 1599 1635 1565 1565 1599 1565 1565 1565 1599 1599 1565 1635 1599 1533 1599 1599 1599 1599 1599 1635 1635 1599 1672 1711 1599 1672 1672 1672 1672 1672 1711 1711 1672 1711 1565 1672 1635 1635 1635 1635 1672 1672 1672 1711 1711 1711 1711 1752 1711 1711 1711 1672 1711 1711 1672 1672 1672 1711 1711 1672 1711 1672 1672 1635 1635 1672 1599 1635 1565 1533 1533 1415 1533 1443 1443 1415 1443 1415 1362 1362 1362 1291 0 1268 1268 1247 1226 1268 1226 1098 1187 1168 1115 1149 1149 1168 1187 1168 1291 1291 1226 1291 1247 1022 0 0 0 0 0 0 0 0 0 1291 1338 1565 1635 1635 1635 1635 1599 1388 0 0 0 0 0 162 164 164 164 0 766 782 735 750 774 728 735 728 728 707 714 714 707 700 714 707 675 694 700 675 681 687 0 714 0 1168 1226 1115 1051 1187 1226 1247 1226 1247 1247 1247 1247 1247 1226 1247 1098 1168 1098 1149 1132 1149 1168 1168 0 0 0 0 0
    0 0 0 0 0 0 0 0 0 0 0 0 0 0 0 0 0 0 0 0 0 0 0 0 0 0 0 0 0 0 0 0 0 0 0 0 0 0 0 0 0 0 0 0 0 0 0 0 0 0 0 0 0 0 0 0 0 0 0 0 0 0 0 0 0 0 0 0 0 1471 1471 1443 1501 1471 1565 1635 1565 1565 1635 1599 1565 1565 1599 1533 1533 1533 1599 1501 1635 1672 1565 1599 1533 1501 1533 1501 1501 1501 1501 1565 1533 1565 1599 1565 1501 1501 1471 1443 1443 1501 1471 1471 1443 1443 1443 1443 1471 1501 1471 1471 1533 1501 1501 1501 1471 1501 1471 1471 1533 1533 1565 1599 1599 1635 1565 1533 1565 1471 1501 1565 1533 1533 1565 1599 1599 1565 1599 1565 1501 1533 1565 1565 1565 1565 1599 1599 1565 1635 1672 1565 1635 1635 1635 1635 1635 1635 1635 1565 1635 1501 1635 1599 1599 1635 1635 1635 1635 1635 1672 1672 1672 1672 1672 1672 1635 1635 1565 1599 1599 1599 1599 1599 1635 1635 1635 1672 1599 1599 1599 1599 1599 1533 1565 1471 1471 1471 1388 1471 1443 1443 1415 1415 1388 1338 1338 1338 1291 1268 1268 1268 1247 1226 1268 1247 1098 1187 1168 1132 1149 1149 1168 1187 1168 1291 1268 1206 1268 1187 1022 0 0 0 0 0 0 0 0 943 1314 1338 1565 1599 1635 1635 1635 1565 1362 0 0 0 0 743 162 164 164 164 165 758 774 728 743 774 735 743 743 735 721 721 735 714 714 721 714 694 707 707 687 694 694 694 687 694 728 0 0 0 0 0 1206 1206 1206 1226 1226 1247 1247 1226 1226 1098 1187 1098 1168 1149 1168 1168 1168 0 0 0 0 0
    0 0 0 0 0 0 0 0 0 0 0 0 0 0 0 0 0 0 0 0 0 0 0 0 0 0 0 0 0 0 0 0 0 0 0 0 0 0 0 0 0 0 0 0 0 0 0 0 0 0 0 0 0 0 0 0 0 0 0 0 0 0 0 0 0 0 0 0 0 1471 1471 1471 1501 1471 1565 1599 1565 1501 1599 1501 1471 1501 1501 1443 1443 1443 1501 1443 1501 1599 1471 1501 1471 1443 1501 1471 1471 1471 1501 1533 1533 1565 1599 1533 1471 1471 1443 1415 1443 1443 1443 1443 1415 1415 1415 1443 1443 1443 1443 1415 1471 1471 1443 1471 1415 1443 1443 1443 1501 1501 1501 1565 1565 1565 1501 1443 1501 1415 1443 1501 1501 1501 1533 1565 1565 1533 1565 1501 1443 1471 1501 1533 1533 1565 1565 1565 1565 1565 1599 1501 1565 1565 1565 1565 1565 1565 1565 1501 1599 1443 1565 1533 1533 1565 1565 1565 1565 1565 1599 1565 1565 1565 1565 1599 1565 1565 1471 1533 1533 1501 1533 1533 1565 1565 1599 1635 1533 1533 1565 1501 1501 1443 1443 1415 1415 1443 1362 1443 1415 1415 1388 1388 1362 1338 1338 1338 1291 1268 1268 1268 1247 1226 1268 1226 1098 1187 1168 1132 0 1149 1168 1187 1168 1291 1268 1187 1268 1149 0 0 0 0 0 242 241 0 0 931 1291 1338 1599 1635 1635 1635 1599 1501 1338 0 0 0 799 735 0 164 164 165 165 743 758 721 735 766 735 750 750 750 728 735 774 735 735 743 728 707 721 721 700 700 700 707 700 694 694 669 681 694 687 663 623 1168 1187 1206 1206 1226 1247 1206 1226 1115 1187 1098 1168 1149 1168 1168 1187 0 0 0 0 0
    0 0 0 0 0 0 0 0 0 0 0 0 0 0 0 0 0 0 0 0 0 0 0 0 0 0 0 0 0 0 0 0 0 0 0 0 0 0 0 0 0 0 0 0 0 0 0 0 0 0 0 0 0 0 0 0 0 0 0 0 0 0 0 0 0 0 0 0 0 1443 1471 1443 1471 1471 1533 1565 1501 1443 1501 1443 1415 1415 1415 1388 1415 1388 1443 1388 1415 1443 1388 1388 1415 1388 1443 1443 1443 1443 1471 1501 1471 1501 1501 1415 1388 1415 1388 1388 1388 1415 1415 1415 1388 1388 1388 1415 1415 1415 1415 1388 1443 1443 1415 1443 1388 1415 1415 1415 1471 1443 1443 1533 1501 1501 1443 1415 1443 1388 1443 1471 1471 1443 1501 1501 1533 1471 1471 1415 1415 1415 1471 1471 1471 1533 1533 1533 1533 1533 1565 1471 1501 1501 1501 1501 1501 1501 1533 1443 1533 1415 1565 1501 1501 1533 1501 1501 1501 1533 1565 1501 1471 1501 1501 1533 1533 1533 1443 1471 1471 1443 1471 1471 1501 1501 1533 1599 1471 1471 1501 1415 1471 1415 1415 1388 1388 1415 1362 1415 1415 1388 1362 1388 1362 1338 1338 1338 1291 1268 1247 1268 1247 1206 1226 1187 1082 1168 1149 1115 1132 1132 1149 1168 1168 1268 1268 1187 1247 0 0 0 0 0 0 241 241 0 0 943 1206 1291 1533 1565 1533 1599 1565 1415 1314 1036 0 0 808 743 0 0 165 165 165 735 743 714 735 758 735 743 743 758 743 743 791 750 750 774 766 721 728 721 700 707 700 700 700 694 687 663 657 663 657 634 608 598 593 0 1187 1206 1226 1187 1187 1098 1168 1098 1168 1149 1168 1168 1187 0 0 0 0 0
    0 0 0 0 0 0 0 0 0 0 0 0 0 0 0 0 0 0 0 0 0 0 0 0 0 0 0 0 0 0 0 0 0 0 0 0 0 0 0 0 0 0 0 0 0 0 0 0 0 0 0 0 0 0 0 0 0 0 0 0 0 0 0 0 0 0 0 0 0 1415 1443 1415 1415 1443 1443 1471 1415 1388 1415 1362 1362 1388 1362 1362 1362 1362 1388 1362 1362 1362 1338 1338 1362 1362 1415 1388 1415 1388 1415 1443 1415 1415 1415 1338 1338 1362 1362 1362 1362 1388 1388 1388 1388 1362 1362 1362 1388 1388 1362 1362 1388 1388 1362 1388 1362 1362 1362 1388 1443 1415 1415 1471 1443 1443 1415 1388 1415 1362 1415 1443 1443 1415 1443 1443 1443 1415 1388 1338 1362 1388 1415 1443 1443 1501 1471 1501 1533 1501 1533 1471 1471 1443 1443 1443 1443 1443 1443 1415 1471 1388 1533 1471 1443 1501 1471 1443 1443 1443 1501 1443 1415 1443 1415 1471 1471 1471 1415 1443 1443 1415 1443 1443 1471 1471 1501 1565 1443 1415 1443 1388 1415 1388 1388 1362 1362 1388 1362 1415 1415 1388 1362 1362 1338 1338 1338 1338 1291 1268 1247 1268 1247 1187 1206 1132 1066 1149 1132 1098 1115 1115 1149 1168 1149 1268 1226 1149 1206 0 0 0 0 0 0 241 241 0 0 943 1149 1247 1471 1471 1471 1565 1533 1362 1206 0 0 750 808 743 0 0 165 165 165 728 728 714 728 743 735 735 743 758 743 743 799 758 758 791 782 721 721 707 700 707 700 700 694 694 687 675 669 663 645 623 613 603 598 579 570 0 1206 1168 1149 1082 1132 1098 1149 1132 1168 1168 1187 0 0 0 0 0
    0 0 0 0 0 0 0 0 0 0 0 0 0 0 0 0 0 0 0 0 0 0 0 0 0 0 0 0 0 0 0 0 0 0 0 0 0 0 0 0 0 0 0 0 0 0 0 0 0 0 0 0 0 0 0 0 0 0 0 0 0 0 0 0 0 0 0 0 0 1388 1388 1388 1388 1388 1362 1388 1338 1338 1338 1338 1338 1338 1338 1338 1338 1338 1362 1362 1338 1338 1314 1314 1338 1338 1362 1362 1362 1362 1388 1388 1362 1362 1362 1314 1314 1338 1362 1338 1362 1362 1362 1388 1362 1362 1362 1362 1388 1362 1338 1338 1362 1362 1338 1362 1338 1338 1338 1362 1388 1362 1362 1415 1388 1388 1362 1362 1362 1362 1388 1388 1388 1388 1388 1388 1362 1338 1338 1314 1338 1338 1362 1388 1415 1443 1443 1471 1501 1443 1501 1443 1415 1388 1388 1388 1388 1362 1388 1338 1362 1314 1388 1388 1362 1415 1388 1362 1338 1362 1388 1338 1338 1338 1338 1362 1388 1415 1362 1388 1388 1388 1388 1388 1443 1443 1443 1501 1415 1388 1388 1362 1388 1362 1362 1362 1338 1362 1362 1388 1388 1362 1362 1338 1338 1338 1314 1338 1291 1268 1268 1268 1247 1187 1168 1115 1051 1132 1115 1082 1098 1115 1149 1149 1149 1268 1187 1132 1115 0 0 865 0 0 0 0 0 0 0 943 1098 1206 1388 1338 1314 1415 1388 1314 1115 1008 836 791 817 743 714 0 0 0 0 728 728 714 735 743 735 0 743 758 0 0 808 774 766 0 826 728 735 714 707 707 700 707 700 694 694 681 675 657 639 623 613 608 593 584 570 557 566 0 0 0 1115 1082 1132 1132 1149 1168 1187 0 0 0 0 0
    0 0 0 0 0 0 0 0 0 0 0 0 0 0 0 0 0 0 0 0 0 0 0 0 0 0 0 0 0 0 0 0 0 0 0 0 0 0 0 0 0 0 0 0 0 0 0 0 0 0 0 0 0 0 0 0 0 0 0 0 0 0 0 0 0 0 0 0 0 1338 1362 1362 1362 1362 1314 1314 1314 1291 1314 1291 1291 1314 1314 1314 1314 0 1338 1314 1314 1291 1291 1291 1338 1314 1338 1338 1338 1338 1338 1338 1338 1314 1338 1291 1314 1314 1338 1338 1338 1362 1362 1362 1362 1338 1338 1362 1388 1338 1314 1314 1338 1338 1314 1338 1314 1338 1338 1362 1362 1338 1338 1388 1338 1362 1338 1338 1338 1338 1362 1338 1338 1338 1338 1314 1314 1291 1314 1268 1314 1314 1338 1362 1362 1388 1362 1388 1415 1362 1415 1362 1362 1338 1314 1338 1314 1314 1314 1291 1291 1268 1314 1314 1314 1338 1314 1268 1268 1291 1291 1291 1291 1291 1291 1314 1362 1362 1362 1338 1362 1362 1362 1362 1415 1415 1415 1443 1388 1388 1362 1362 1362 1338 1338 1314 1338 1338 1338 1338 1338 1338 1338 1314 1314 1314 1314 1338 1291 1291 1268 1268 1268 1187 1149 1115 1051 1132 1115 1082 1098 1115 1132 1149 1132 1247 1149 1098 1036 994 968 855 919 0 0 0 0 0 0 943 1115 1247 1338 1291 1291 1314 1314 1268 1098 994 845 808 817 735 721 728 0 728 721 735 728 714 735 743 735 0 0 750 743 0 817 774 0 981 876 799 774 728 721 714 707 714 700 694 694 681 669 657 639 623 613 608 593 584 566 557 561 545 541 541 0 1066 1115 1115 1132 1168 1187 0 0 0 0 0
    0 0 0 0 0 0 0 0 0 0 0 0 0 0 0 0 0 0 0 0 0 0 0 0 0 0 0 0 0 0 0 0 0 0 0 0 0 0 0 0 0 0 0 0 0 0 0 0 0 0 0 0 0 0 0 0 0 0 0 0 0 0 0 0 0 0 0 0 0 1314 1338 1338 1338 1338 1291 1268 1291 1268 1291 1291 1268 1291 1291 1291 1314 0 1314 1291 1268 1268 1268 1291 1338 1291 1314 1314 1314 1314 1314 1338 1314 1291 1314 1291 1314 1314 1314 1314 1338 1338 1338 1362 1362 1338 1338 1338 1362 1314 1291 1291 1314 1314 1291 1291 1291 1291 1291 1338 1338 1291 1314 1362 1314 1338 1314 1314 1314 1314 1314 1314 1314 1314 1291 1291 1268 1247 1268 1247 1291 1291 1314 1338 1338 1338 1314 1338 1338 1314 1338 1314 1314 1268 1291 0 1291 1268 1291 1268 1268 1247 1291 1291 1268 1291 1268 1247 1247 1247 1268 1268 1268 1291 1291 1291 1338 1338 1338 1338 1338 1338 1338 1338 1362 1362 1362 1362 1362 1338 1338 1338 1338 1314 1314 1291 1291 1291 1314 1314 1314 1291 1291 1291 1314 1314 1314 1314 1314 1291 1291 1291 1291 1187 1132 1098 1051 1132 1115 1082 1098 1115 1132 1132 1132 1247 1098 1066 968 931 931 855 908 897 897 0 0 0 0 0 1098 1268 1314 1291 1291 0 1338 1247 1066 981 845 817 817 735 728 735 721 735 728 743 728 714 743 743 728 0 0 0 0 0 817 774 0 0 968 876 817 766 728 728 714 714 700 694 687 681 669 645 634 618 608 608 593 584 566 561 557 545 541 537 537 0 0 1098 1115 1149 1187 0 0 0 0 0
    0 0 0 0 0 0 0 0 0 0 0 0 0 0 0 0 0 0 0 0 0 0 0 0 0 0 0 0 0 0 0 0 0 0 0 0 0 0 0 0 0 0 0 0 0 0 0 0 0 0 0 0 0 0 0 0 0 0 0 0 0 0 0 0 0 0 0 0 0 1268 0 1338 1291 1247 1168 1168 1247 1226 1247 1247 1226 1247 1247 1247 1268 1226 1247 1168 1115 1187 1206 1226 1314 1247 1314 1291 1291 1291 1314 1314 1291 1268 1291 1247 1291 1314 1314 1314 1338 1338 1338 1338 1338 1338 1314 1338 1338 1291 1247 1268 1291 1291 1247 1268 1268 1268 1268 1291 1291 1268 1268 1314 1291 1314 1314 1314 1314 1314 1314 1314 1291 1291 1268 1268 1247 1226 1247 1226 1291 1268 1291 1314 1314 1314 1291 1291 1314 1291 1314 1291 1268 1226 1247 1268 1268 1268 1268 1268 1268 1247 1291 1268 1268 1268 1247 1226 1226 1226 1247 1247 1247 1268 1268 1268 1291 1291 1314 1291 1291 1291 1291 1314 1338 1338 1314 1314 1338 1314 1314 1291 1291 1291 1291 1268 1268 1268 1291 1291 1291 1291 1291 1268 1314 1291 1291 1291 1268 1247 1247 1226 1206 1098 1082 1066 1036 1098 1098 1082 1098 1098 1132 1132 1115 1226 1066 1036 943 908 908 865 908 897 897 897 908 943 943 943 0 0 1247 1206 1187 1206 1247 1149 1036 968 845 826 826 743 743 743 728 735 728 743 728 714 743 735 721 0 0 0 0 0 808 735 0 0 981 897 836 836 817 782 758 743 714 700 694 681 657 639 629 618 613 613 598 593 579 574 570 553 553 545 541 545 533 533 514 0 0 0 0 0 0 0
    0 0 0 0 0 0 0 0 0 0 0 0 0 0 0 0 0 0 0 0 0 0 0 0 0 0 0 0 0 0 0 0 0 0 0 0 0 0 0 0 0 0 0 0 0 0 0 0 0 0 0 0 0 0 0 0 0 0 0 0 0 0 0 0 0 0 0 0 0 1132 1008 0 994 1008 1036 1051 1149 1149 1187 1187 1132 1187 1168 1149 1168 1051 1051 1008 1008 1051 1115 1132 0 1187 1268 1268 1268 1268 1291 1268 1247 1226 1247 1206 1247 1268 1291 1268 1291 1291 1268 1291 1314 1291 1291 1291 1291 1226 0 1247 1226 1247 1226 1226 1226 1226 1247 1247 1247 1226 1226 1268 1226 1268 1291 1291 1314 1314 1314 1291 1291 1268 1247 1226 1115 1132 1132 1098 1226 1226 1247 1268 1291 1314 1291 1291 1291 1268 1268 1268 1247 1187 1226 1226 1226 1226 1247 1268 1268 1247 1291 1268 1247 1247 1247 1206 1206 1206 1226 1226 1226 1247 1226 1226 1268 1247 1268 1247 1247 1268 1268 1291 1314 1291 1291 1291 1291 1268 1291 1268 1247 1268 1268 1247 1268 1247 1268 1268 1291 1268 1291 1268 1291 1268 1268 1268 1226 1206 1187 1132 1082 1051 1036 1036 1022 1098 1082 1082 1098 1098 1132 1115 1098 1206 1022 1008 919 908 897 876 908 897 897 897 908 931 931 943 994 994 1098 1082 1051 1066 1082 1051 1022 955 845 836 826 743 758 758 735 743 735 750 735 714 735 728 0 0 0 0 0 0 791 721 1187 1082 1036 1022 994 955 908 865 817 774 728 707 694 681 651 629 623 618 618 618 603 603 593 588 584 570 566 553 553 553 549 545 537 541 537 0 0 0 0 0
    0 0 0 0 0 0 0 0 0 0 0 0 0 0 0 0 0 0 0 0 0 0 0 0 0 0 0 0 0 0 0 0 0 0 0 0 0 0 0 0 0 0 0 0 0 0 0 0 0 0 0 0 0 0 0 0 0 0 0 0 0 0 0 0 0 0 0 0 0 1022 981 981 968 981 1008 1008 1082 1082 1115 1098 1066 1098 1066 1051 1036 1008 994 981 968 1008 1051 1066 0 1115 1206 1226 1226 1247 1268 1226 1206 1187 1226 1168 1226 1226 1247 1226 1247 1226 1168 1206 1247 1132 1149 1051 1115 1082 0 1187 1132 1168 1149 1168 1187 1149 1168 1168 1115 1132 1098 1149 1082 1115 1247 1268 1314 1291 1291 1268 1268 1247 1187 1132 1051 1036 1036 1022 1098 1098 1149 1206 1247 1268 1247 1247 1247 1206 1206 1206 1168 1098 1168 1168 1149 1168 1187 1206 1226 1187 1268 1226 1226 1226 1226 1168 1187 1187 1206 1206 1206 1226 1187 1187 1226 1168 1187 1168 1149 1187 1206 1268 1268 1268 1291 1268 1291 1247 1268 1247 1247 1247 1268 1247 1247 1247 1268 1268 1268 1268 1291 1268 1291 1247 1268 1247 1206 1149 1115 1066 1022 1022 1008 1008 1008 1066 1066 1066 1082 1082 1115 1098 1066 1149 1008 968 908 897 886 876 908 897 897 897 908 931 931 943 994 981 1036 1036 1008 1008 1008 994 981 931 855 845 826 750 782 774 743 750 743 758 735 721 743 721 0 0 0 0 0 0 782 714 1206 1051 1036 1008 994 968 955 931 845 826 799 743 728 700 663 629 618 608 613 613 603 603 593 593 588 579 579 561 557 557 553 557 553 553 553 0 0 0 0 0
    0 0 0 0 0 0 0 0 0 0 0 0 0 0 0 0 0 0 0 0 0 0 0 0 0 0 0 0 0 0 0 0 0 0 0 0 0 0 0 0 0 0 0 0 0 0 0 0 0 0 0 0 0 0 0 0 0 0 0 0 0 0 0 0 0 0 0 0 0 994 968 968 968 981 994 994 1051 1051 1066 1066 1036 1051 1022 1008 994 994 968 968 955 981 1008 1036 1082 1066 1115 1149 1168 1206 1206 1149 1115 1132 1187 1115 1187 1168 1187 1132 1132 1115 1051 1066 1098 1022 1008 994 1008 1022 0 1115 1098 1098 1098 1098 1115 1082 1082 1066 1022 1022 1022 1022 1008 1008 1132 1187 1268 1268 1291 1226 1206 1168 1066 1036 994 981 994 994 0 1036 0 1098 1149 1187 1168 1187 1187 1115 1115 1115 1082 1051 1098 1082 1066 0 1098 1098 1098 1082 1206 1098 1168 1187 1168 1115 1149 1149 1168 1168 1149 1168 1115 1098 1149 1082 1098 1066 1051 1098 1098 1206 1226 1226 1247 1247 1268 1247 1268 1247 1206 1226 1226 1206 1226 1226 1247 1226 1247 1247 1268 1268 1291 1226 1247 1206 1132 1066 1036 1008 994 994 981 981 981 1036 1051 1051 1066 1066 1082 1066 1036 1066 981 955 908 886 886 876 908 908 897 897 908 931 931 943 981 968 1008 994 981 968 968 968 955 919 855 845 826 758 791 782 758 758 750 766 743 721 743 714 0 0 0 0 0 694 743 700 0 968 994 981 955 943 931 919 865 845 826 808 808 743 700 687 639 618 618 618 608 603 593 593 588 579 574 561 557 561 553 553 549 545 545 0 0 0 0 0
    0 0 0 0 0 0 0 0 0 0 0 0 0 0 0 0 0 0 0 0 0 0 0 0 0 0 0 0 0 0 0 0 0 0 0 0 0 0 0 0 0 0 0 0 0 0 0 0 0 0 0 0 0 0 0 0 0 0 0 0 0 0 0 0 0 0 0 0 0 994 968 955 968 968 981 981 1008 1022 1036 1036 1008 1022 994 994 981 981 955 955 955 981 981 1008 1036 1022 1051 1082 1098 1132 1149 1098 1098 1115 1168 1082 1149 1132 1149 1082 1066 1051 1022 1008 1022 1008 981 968 981 981 0 0 1066 1066 1051 1051 1066 1036 1036 1022 981 981 981 981 981 981 1022 1036 1132 1168 1226 1115 1098 1066 1008 1008 981 955 968 968 994 1008 0 1051 1066 1098 1115 1149 1115 1066 1082 1082 1051 1022 1066 1051 1036 0 1036 1036 1036 1036 1098 1036 1066 1115 1098 1066 1098 1098 1115 0 0 1098 1066 0 1098 1051 0 1036 1008 1051 1051 1115 1168 1149 1206 1168 1226 1226 1247 1226 1168 1187 1187 1149 1187 1187 1187 1187 1187 1206 1206 1206 1247 1168 1206 1149 1066 1008 1008 994 994 968 968 968 955 1008 1022 1036 1036 1051 1066 1051 1022 1036 968 931 897 886 876 886 908 908 897 897 908 931 931 943 981 955 955 968 943 931 931 943 931 908 855 845 836 766 791 791 758 766 758 774 750 721 743 714 0 0 0 0 687 681 721 694 0 919 968 968 955 943 931 919 865 855 836 0 0 799 774 743 687 657 657 639 618 613 598 598 584 574 566 557 553 553 549 545 541 537 537 0 0 0 0 0
    0 0 0 0 0 0 0 0 0 0 0 0 0 0 0 0 0 0 0 0 0 0 0 0 0 0 0 0 0 0 0 0 0 0 0 0 0 0 0 0 0 0 0 0 0 0 0 0 0 0 0 0 0 0 0 0 0 0 0 0 0 0 0 0 0 0 0 0 0 981 968 955 968 955 968 981 994 1008 1008 1008 994 994 981 981 968 981 955 955 955 968 968 981 994 994 1008 1036 1051 1082 1098 1082 1082 1082 1132 1051 1098 1066 1066 1036 1008 1008 994 981 994 981 968 955 955 968 0 0 0 1036 1036 1022 1036 994 1008 994 968 968 968 968 968 968 1008 1008 1022 1082 1149 1051 1051 1036 994 994 968 955 968 968 981 994 994 1022 1036 1066 1066 1098 1066 1051 1051 1051 1022 1008 1036 1036 1008 0 1008 1008 994 1008 1051 1008 1022 1082 1066 1036 1066 1066 1082 0 0 1051 1036 0 1051 1022 0 1008 994 1022 1022 1036 1098 1066 1132 1098 1168 1206 1168 1168 1082 1115 1098 1082 1115 1115 1115 1115 1132 1149 1132 1132 1187 1082 1115 1098 1036 981 994 981 981 955 955 955 943 981 1008 1022 1022 1022 1051 1036 994 1008 955 908 897 886 876 886 897 908 897 908 908 931 931 943 968 943 919 931 919 908 908 919 919 897 855 855 836 766 799 791 766 774 766 774 750 721 743 707 0 0 0 694 681 675 714 700 886 908 955 968 955 931 919 919 886 876 855 845 0 808 791 791 0 681 681 657 634 618 603 598 584 570 561 553 549 549 545 541 533 533 533 0 0 0 0 0
    0 0 0 0 0 0 0 0 0 0 0 0 0 0 0 0 0 0 0 0 0 0 0 0 0 0 0 0 0 0 0 0 0 0 0 0 0 0 0 0 0 0 0 0 0 0 0 0 0 0 0 0 0 0 0 0 0 0 0 0 0 0 0 0 0 0 0 0 0 968 955 955 955 955 955 968 968 981 981 994 968 981 968 968 955 968 943 943 943 955 955 968 981 968 994 1008 1008 1022 1051 1051 1051 1051 1082 1008 1022 1022 1008 994 981 981 968 955 968 968 955 943 931 943 897 0 994 994 994 981 1008 943 968 968 955 955 955 955 955 955 994 994 1008 1036 1082 1036 1036 1022 994 994 968 943 955 968 968 981 981 1008 1008 1036 1051 1066 1036 1022 1036 1022 1008 994 1008 1008 981 994 994 994 981 994 1008 994 994 1051 1036 1008 1036 1036 1036 0 0 0 1008 0 1022 994 994 994 981 994 994 1008 1036 1008 1051 1051 1082 1132 1051 1066 1036 1082 1051 1051 1066 1066 1082 1082 1082 1098 1066 1082 1082 1036 1066 1051 1022 955 968 968 968 943 943 943 931 955 994 994 994 1008 1022 1008 981 994 943 897 886 886 876 886 897 908 897 908 908 943 919 955 955 943 908 919 908 897 897 908 908 897 865 855 836 766 799 791 766 774 766 774 750 721 735 707 0 0 0 694 681 675 714 707 886 897 955 955 943 919 908 886 865 855 845 826 817 799 782 782 735 694 681 675 663 639 613 608 588 574 557 549 541 541 541 537 529 529 529 0 0 0 0 0
    0 0 0 0 0 0 0 0 0 0 0 0 0 0 0 0 0 0 0 0 0 0 0 0 0 0 0 0 0 0 0 0 0 0 0 0 0 0 0 0 0 0 0 0 0 0 0 0 0 0 0 0 0 0 0 0 0 0 0 0 0 0 0 0 0 0 0 0 0 955 955 955 955 943 943 955 955 968 968 968 955 968 955 943 943 955 931 931 931 943 943 955 968 955 968 994 994 1008 1022 1022 1022 1022 1051 994 981 981 981 981 955 968 955 943 943 955 943 931 919 919 897 931 943 968 955 943 981 908 943 955 943 943 943 943 955 943 981 968 981 1008 1008 981 994 994 968 981 955 931 943 955 968 968 981 994 994 1008 1022 1036 1008 994 994 1008 981 968 981 994 943 968 981 968 943 968 981 968 968 1008 994 968 994 994 994 981 981 981 981 955 994 968 981 981 968 981 981 981 1008 994 1008 1008 1022 1051 1008 1022 1022 1051 1022 1036 1036 1051 1036 1051 1051 1051 1008 1051 1022 1008 1022 1022 1008 931 955 968 955 919 931 931 908 931 968 968 968 968 994 981 943 968 919 886 876 876 865 886 886 897 886 908 908 943 919 955 943 931 897 908 897 897 897 897 897 886 865 855 836 766 799 791 766 774 758 774 750 721 735 700 0 0 0 694 681 675 707 707 865 897 943 943 931 908 897 876 855 855 845 836 826 817 799 799 782 743 0 687 675 663 639 623 603 579 557 545 537 533 541 533 521 525 525 0 0 0 0 0
    0 0 0 0 0 0 0 0 0 0 0 0 0 0 0 0 0 0 0 0 0 0 0 0 0 0 0 0 0 0 0 0 0 0 0 0 0 0 0 0 0 0 0 0 0 0 0 0 0 0 0 0 0 0 0 0 0 0 0 0 0 0 0 0 0 0 0 0 0 955 955 955 955 943 943 943 943 955 955 955 931 955 943 943 931 955 931 931 931 943 931 943 968 955 968 994 994 994 1022 1008 1008 1008 1022 968 968 955 968 968 943 955 943 931 943 943 931 919 908 908 886 897 908 919 897 886 931 886 931 931 919 931 931 931 943 931 968 943 955 968 955 943 943 955 931 955 919 908 931 943 943 955 955 968 968 981 994 994 981 968 968 981 955 943 955 968 919 943 955 943 919 943 943 943 943 994 943 919 955 968 968 943 955 955 955 943 981 955 968 968 968 968 968 968 994 981 994 981 994 1008 1008 1008 1008 1036 994 1008 1022 1022 1008 1008 1022 1022 994 1008 994 994 994 1008 981 897 943 955 943 908 919 919 897 919 955 919 919 931 968 931 886 931 886 876 865 876 865 886 886 897 886 897 908 943 908 955 919 919 886 897 897 886 886 897 897 886 865 845 836 766 799 782 766 766 750 766 750 721 728 700 0 0 0 694 681 675 714 721 855 876 919 919 908 886 886 876 855 855 845 836 826 817 808 817 817 817 774 707 700 681 663 623 613 593 566 549 537 533 537 529 518 521 521 0 0 0 0 0
    0 0 0 0 0 0 0 0 0 0 0 0 0 0 0 0 0 0 0 0 0 0 0 0 0 0 0 0 0 0 0 0 0 0 0 0 0 0 0 0 0 0 0 0 0 0 0 0 0 0 0 0 0 0 0 0 0 0 0 0 0 0 0 0 0 0 0 0 0 943 955 955 943 931 931 943 943 943 943 943 919 943 943 931 919 943 919 919 919 943 931 943 955 955 968 981 981 994 1008 981 994 981 994 955 955 943 955 955 943 943 931 931 931 931 931 908 897 897 876 876 886 886 876 865 897 876 908 919 908 919 919 919 931 919 955 919 931 955 919 919 919 931 908 931 908 897 908 943 931 943 943 955 955 981 981 981 968 955 955 955 931 931 931 943 897 931 943 931 908 931 931 919 919 968 919 897 943 943 931 919 931 943 943 919 968 931 955 943 943 943 943 943 981 943 968 955 968 994 994 994 994 1008 968 994 994 994 994 994 994 994 968 994 968 981 968 981 968 886 931 943 931 897 919 908 897 908 931 886 886 886 931 876 855 876 855 855 855 876 865 876 865 886 876 886 886 919 876 931 897 908 876 897 886 886 886 886 886 876 855 845 836 766 791 782 758 766 750 758 743 721 728 700 0 0 0 694 681 681 721 735 836 876 908 897 897 876 876 865 845 845 845 836 826 817 808 817 826 845 826 799 774 750 0 0 588 570 545 541 537 525 533 525 511 518 518 0 0 0 0 0
    0 0 0 0 0 0 0 0 0 0 0 0 0 0 0 0 0 0 0 0 0 0 0 0 0 0 0 0 0 0 0 0 0 0 0 0 0 0 0 0 0 0 0 0 0 0 0 0 0 0 0 0 0 0 0 0 0 0 0 0 0 0 0 0 0 0 0 0 0 943 943 943 943 931 931 943 931 931 943 943 908 931 931 919 908 931 908 908 908 931 908 931 943 955 955 981 968 981 1008 968 981 968 981 943 943 931 943 943 931 931 919 908 919 919 908 886 876 886 865 865 886 886 865 855 876 865 897 897 897 908 897 919 919 908 943 908 919 931 908 908 908 919 897 919 886 886 897 919 919 931 943 955 955 981 981 981 968 955 955 955 931 931 931 943 897 919 943 919 897 919 919 908 908 943 897 886 919 931 919 908 919 931 931 908 955 919 943 931 931 931 931 931 955 931 955 943 955 981 981 981 981 981 943 968 968 968 955 955 955 955 943 968 931 943 931 931 931 876 919 931 931 886 908 908 897 897 919 876 865 865 897 845 845 855 836 845 855 865 855 865 855 865 855 855 865 865 836 836 855 865 855 886 876 876 876 886 876 876 855 836 826 758 791 774 758 758 750 758 743 714 721 700 0 0 0 694 687 681 728 743 836 865 897 897 886 876 865 855 836 836 836 826 826 817 808 817 817 826 817 808 799 799 766 0 0 561 541 533 533 518 521 518 504 514 514 0 0 0 0 0
    0 0 0 0 0 0 0 0 0 0 0 0 0 0 0 0 0 0 0 0 0 0 0 0 0 0 0 0 0 0 0 0 0 0 0 0 0 0 0 0 0 0 0 0 0 0 0 0 0 0 0 0 0 0 0 0 0 0 0 0 0 0 0 0 0 0 0 0 0 943 943 943 943 931 931 943 931 931 931 931 897 919 919 908 897 908 897 897 897 919 908 919 931 943 943 955 955 968 994 981 981 955 968 931 943 931 919 931 908 919 908 886 897 886 876 876 845 865 855 855 876 865 855 845 865 865 886 886 886 897 886 897 908 897 931 897 908 919 897 908 897 897 886 886 865 876 876 897 908 908 919 943 943 981 981 994 968 955 955 968 931 931 943 943 897 919 931 908 886 908 908 897 886 919 876 876 908 919 908 886 908 931 919 908 943 908 919 919 919 908 908 919 943 908 931 931 943 955 968 955 955 968 919 955 943 931 931 931 919 919 908 943 897 919 897 897 908 865 919 931 919 876 908 908 886 886 908 865 855 865 886 845 836 845 826 836 845 865 855 855 845 845 836 845 845 836 817 817 836 855 855 886 876 865 876 876 876 865 845 836 817 750 791 774 758 758 743 750 735 714 721 694 0 0 0 694 687 687 735 743 826 865 908 897 886 876 865 855 836 836 836 826 826 826 808 817 826 826 826 826 817 836 808 808 817 0 0 533 529 511 521 511 500 511 507 0 0 0 0 0
    0 0 0 0 0 0 0 0 0 0 0 0 0 0 0 0 0 0 0 0 0 0 0 0 0 0 0 0 0 0 0 0 0 0 0 0 0 0 0 0 0 0 0 0 0 0 0 0 0 0 0 0 0 0 0 0 0 0 0 0 0 0 0 0 0 0 0 0 0 943 943 943 943 919 919 931 931 919 931 919 897 908 908 908 886 897 897 886 897 908 897 908 908 943 943 955 955 968 981 968 955 943 943 919 931 919 908 931 897 908 897 876 886 865 855 855 826 845 836 826 845 836 845 836 855 855 876 876 886 886 876 897 897 897 919 886 897 897 886 897 897 886 876 876 855 865 865 876 886 886 897 919 931 981 981 1008 981 968 968 968 931 931 943 943 897 908 908 897 876 886 886 876 865 886 855 865 886 897 886 876 886 919 897 897 919 897 897 897 897 897 897 897 919 886 897 908 919 943 943 943 943 955 919 955 931 919 931 919 897 908 897 919 886 897 886 876 886 865 908 919 908 876 908 897 886 886 908 865 855 855 876 826 826 826 817 817 836 845 845 845 845 836 836 836 836 826 817 808 817 826 845 865 855 855 855 865 865 865 836 817 817 735 782 766 758 750 743 743 735 714 0 694 0 0 0 0 687 687 743 743 817 865 908 886 886 876 865 845 836 826 826 826 817 817 808 808 817 826 826 836 826 836 826 817 826 766 0 0 0 500 514 511 493 507 507 0 0 0 0 0
    0 0 0 0 0 0 0 0 0 0 0 0 0 0 0 0 0 0 0 0 0 0 0 0 0 0 0 0 0 0 0 0 0 0 0 0 0 0 0 0 0 0 0 0 0 0 0 0 0 0 0 0 0 0 0 0 0 0 0 0 0 0 0 0 0 0 0 0 0 919 919 931 931 908 919 919 931 908 919 919 886 886 897 897 876 886 886 886 886 897 897 886 897 931 919 955 943 955 955 943 931 908 919 908 919 908 897 919 886 897 886 876 876 845 836 845 826 826 826 817 826 808 817 808 826 845 855 855 876 865 865 886 886 886 908 876 886 876 876 886 876 876 865 865 845 855 855 865 876 865 876 886 897 955 968 1008 981 968 955 955 931 931 931 931 897 897 886 886 865 876 876 865 855 865 845 855 865 886 876 865 876 919 886 886 897 886 876 886 876 876 876 876 886 876 876 886 897 931 919 919 943 955 919 955 931 908 919 908 876 886 876 897 876 876 865 855 865 865 897 908 897 865 897 897 886 876 897 855 845 845 855 826 817 817 817 808 817 836 836 836 836 0 0 826 826 817 799 791 808 808 817 826 817 826 836 845 845 855 817 799 799 728 774 750 750 750 735 743 728 714 0 694 0 0 0 0 687 687 735 743 808 836 876 865 865 876 855 845 836 826 826 826 826 826 808 808 808 817 817 826 826 826 826 826 826 782 0 0 0 0 507 511 493 504 504 0 0 0 0 0
    0 0 0 0 0 0 0 0 0 0 0 0 0 0 0 0 0 0 0 0 0 0 0 0 0 0 0 0 0 0 0 0 0 0 0 0 0 0 0 0 0 0 0 0 0 0 0 0 0 0 0 0 0 0 0 0 0 0 0 0 0 0 0 0 0 0 0 0 0 897 897 908 908 897 908 908 919 897 908 908 876 876 886 886 865 876 876 876 876 886 897 876 886 919 897 931 931 943 931 919 908 897 908 897 908 897 886 897 876 886 865 0 855 826 826 826 817 826 826 817 826 799 808 808 817 836 845 845 865 865 865 886 886 886 886 865 876 865 876 876 865 855 865 855 836 845 845 855 855 855 855 855 865 931 919 994 968 955 943 955 931 931 919 908 897 886 876 865 855 855 855 855 845 845 836 845 855 865 855 855 865 908 876 886 876 876 865 865 865 865 865 865 876 865 865 0 876 908 0 908 919 931 908 943 931 886 897 886 855 865 865 876 865 865 865 845 855 865 886 897 876 855 886 886 876 876 876 845 845 836 836 817 808 808 817 808 808 817 826 826 826 817 817 808 808 808 791 774 791 782 799 791 782 799 799 817 836 845 791 782 782 728 766 750 750 743 735 743 728 707 0 694 0 0 0 0 687 687 735 743 808 808 845 845 845 855 855 845 836 826 826 836 836 836 808 799 808 808 817 826 817 826 826 836 826 782 0 0 0 0 507 511 493 500 500 0 0 0 0 0
    0 0 0 0 0 0 0 0 0 0 0 0 0 0 0 0 0 0 0 0 0 0 0 0 0 0 0 0 0 0 0 0 0 0 0 0 0 0 0 0 0 0 0 0 0 0 0 0 0 0 0 0 0 0 0 0 0 0 0 0 0 0 0 0 0 0 0 0 0 897 897 908 908 886 908 908 919 886 897 908 865 865 876 876 855 865 865 865 865 886 897 876 876 897 886 919 919 919 897 908 897 897 897 897 908 897 886 897 865 876 855 0 836 817 817 826 817 836 836 826 0 808 817 817 826 836 845 845 865 855 855 876 876 876 876 865 865 855 865 865 855 855 855 845 826 836 0 0 845 845 845 836 845 908 886 994 968 968 931 955 931 919 919 897 897 876 865 855 845 845 845 845 836 836 826 836 836 855 845 845 845 897 845 876 845 855 845 845 845 855 855 0 0 0 0 0 0 0 0 886 0 897 876 908 897 865 876 865 836 855 855 865 855 855 855 845 845 855 876 876 865 855 876 886 865 865 865 845 836 826 826 808 808 808 808 799 808 817 826 826 817 817 817 808 799 799 774 766 782 766 782 766 758 774 782 799 826 836 774 774 766 721 758 743 743 735 728 735 728 707 0 694 0 0 0 694 694 687 735 743 799 799 836 836 836 845 845 836 845 836 836 845 845 845 817 808 817 808 817 826 817 817 826 826 817 766 0 0 0 0 511 511 493 500 500 0 0 0 0 0
    0 0 0 0 0 0 0 0 0 0 0 0 0 0 0 0 0 0 0 0 0 0 0 0 0 0 0 0 0 0 0 0 0 0 0 0 0 0 0 0 0 0 0 0 0 0 0 0 0 0 0 0 0 0 0 0 0 0 0 0 0 0 0 0 0 0 0 0 0 876 876 886 886 865 886 886 908 876 897 908 865 865 876 876 865 865 876 865 865 886 886 876 876 886 876 886 886 886 876 886 876 886 897 886 908 897 886 886 865 865 845 0 0 808 817 817 817 836 836 0 0 817 817 817 826 836 845 845 865 855 855 876 876 876 876 855 855 855 855 855 845 845 855 845 817 836 826 836 836 0 826 826 0 886 865 1008 968 981 931 955 931 908 908 886 897 865 855 855 836 845 836 836 826 826 826 826 826 836 836 0 0 886 826 855 826 845 836 836 836 845 0 95 95 0 95 96 0 0 0 0 855 865 865 876 876 845 855 845 826 845 845 855 845 845 855 845 845 855 865 865 855 845 865 876 865 855 855 836 836 817 817 808 799 799 808 799 799 808 817 817 817 808 808 791 782 791 766 758 774 750 774 750 750 766 758 782 808 808 758 766 750 728 758 735 743 735 735 735 728 707 707 694 0 0 0 694 694 694 743 743 808 817 836 836 836 845 845 826 836 826 826 836 836 836 817 808 817 808 817 817 817 817 826 826 808 0 0 0 0 0 511 514 493 500 500 0 0 0 0 0
    0 0 0 0 0 0 0 0 0 0 0 0 0 0 0 0 0 0 0 0 0 0 0 0 0 0 0 0 0 0 0 0 0 0 0 0 0 0 0 0 0 0 0 0 0 0 0 0 0 0 0 0 0 0 0 0 0 0 0 0 0 0 0 0 0 0 0 0 0 865 855 855 855 845 865 865 886 855 886 908 865 865 876 876 865 876 876 876 876 886 897 876 876 886 865 865 865 855 855 855 865 865 876 876 897 886 876 876 855 855 845 0 0 808 817 817 817 836 0 0 0 817 817 817 826 836 845 845 855 855 855 876 865 865 865 845 845 845 845 845 845 845 845 845 817 826 826 836 826 0 0 0 0 865 836 994 886 955 897 943 931 908 908 886 897 855 855 845 836 836 836 836 817 826 826 826 826 0 0 0 0 876 826 845 799 836 826 836 836 845 0 95 95 96 96 96 0 0 0 0 845 836 836 845 845 817 826 826 808 0 836 845 845 845 855 845 836 855 855 855 845 836 845 855 855 845 845 836 826 808 808 808 799 799 808 799 799 799 817 817 808 799 799 774 766 782 758 743 766 743 758 743 743 750 750 766 799 782 750 766 735 728 750 743 743 743 735 735 728 707 707 694 0 0 0 694 694 694 743 750 808 817 836 836 836 826 826 817 817 799 799 817 826 817 817 808 817 817 817 817 817 817 826 826 799 0 0 0 0 0 514 514 493 500 500 0 0 0 0 0
    0 0 0 0 0 0 0 0 0 0 0 0 0 0 0 0 0 0 0 0 0 0 0 0 0 0 0 0 0 0 0 0 0 0 0 0 0 0 0 0 0 0 0 0 0 0 0 0 0 0 0 0 0 0 0 0 0 0 0 0 0 0 0 0 0 0 0 0 0 0 808 817 826 808 845 845 865 845 876 908 876 855 876 876 865 865 876 865 865 876 886 876 865 876 855 855 845 836 826 826 836 836 845 855 876 865 865 865 855 855 845 0 817 808 808 808 808 0 0 0 808 799 808 808 817 826 836 836 855 855 855 865 865 865 865 845 845 836 836 836 836 836 845 836 808 826 817 826 826 0 817 808 808 845 826 955 826 897 876 931 919 908 908 876 897 855 845 845 826 826 826 826 817 826 817 826 826 0 0 0 0 876 826 845 799 826 826 836 836 0 0 96 95 0 96 0 0 0 0 0 836 826 826 826 826 799 817 817 799 826 836 845 845 845 855 845 845 855 845 845 826 826 826 836 836 836 836 826 826 799 808 799 799 799 808 799 791 791 817 808 799 791 799 758 758 766 743 735 750 735 743 735 735 743 743 750 782 758 750 758 735 735 750 743 743 743 735 735 721 707 707 694 700 700 694 700 700 700 735 743 808 808 826 826 836 826 817 808 808 791 791 817 817 817 817 808 817 817 826 826 826 817 826 826 782 0 0 0 549 0 518 518 493 504 504 0 0 0 0 0
    0 0 0 0 0 0 0 0 0 0 0 0 0 0 0 0 0 0 0 0 0 0 0 0 0 0 0 0 0 0 0 0 0 0 0 0 0 0 0 0 0 0 0 0 0 0 0 0 0 0 0 0 0 0 0 0 0 0 0 0 0 0 0 0 0 0 0 0 0 808 782 782 791 774 808 817 845 836 865 886 865 845 865 865 865 865 865 865 865 876 886 865 865 855 845 836 826 817 817 817 817 817 826 836 845 845 845 845 845 836 836 0 817 799 799 799 799 817 817 799 799 791 799 799 808 817 826 826 845 845 855 865 865 865 855 836 836 826 826 826 826 836 836 836 799 817 808 817 817 817 817 808 808 836 817 876 817 836 0 876 886 886 886 865 886 855 845 836 826 826 826 817 808 817 808 817 817 0 0 0 0 855 817 836 782 826 826 836 836 0 0 0 0 0 0 0 817 817 817 817 826 817 826 817 826 799 817 817 808 826 836 845 845 855 865 845 845 855 845 826 817 817 817 826 826 817 826 826 826 782 799 799 799 799 808 791 782 782 808 791 791 782 782 758 750 758 735 728 743 728 735 728 728 735 735 750 774 758 750 758 728 735 750 735 735 735 728 735 721 707 707 694 707 700 694 700 700 700 735 743 799 799 817 826 836 836 826 826 817 791 808 826 826 817 826 817 826 826 826 826 826 826 826 826 766 0 0 0 545 493 514 514 493 504 504 0 0 0 0 0
    0 0 0 0 0 0 0 0 0 0 0 0 0 0 0 0 0 0 0 0 0 0 0 0 0 0 0 0 0 0 0 0 0 0 0 0 0 0 0 0 0 0 0 0 0 0 0 0 0 0 0 0 0 0 0 0 0 0 0 0 0 0 0 0 0 0 0 0 0 782 766 758 758 750 766 799 799 817 855 886 865 845 855 855 855 855 855 855 855 865 886 865 855 845 836 826 817 808 799 799 799 799 808 817 836 826 836 836 826 826 817 808 799 791 791 799 799 817 808 791 791 782 791 782 799 799 808 817 836 836 845 855 845 855 836 826 826 817 817 817 808 817 836 817 791 808 808 808 808 808 808 799 808 826 817 836 799 808 782 817 845 845 855 845 865 845 836 836 817 817 817 808 799 799 799 808 808 817 0 0 0 0 817 836 766 808 808 836 826 826 826 817 826 817 817 817 808 808 808 808 826 808 817 808 817 791 817 817 799 826 836 845 845 845 855 845 836 845 836 826 817 817 808 817 817 817 826 826 826 782 799 799 799 799 799 782 782 782 799 791 782 782 782 758 743 750 728 721 728 721 728 728 721 728 735 743 766 743 743 743 728 735 743 728 735 735 728 728 721 714 707 694 707 707 700 707 707 714 735 735 791 758 774 782 808 808 817 817 808 782 808 826 826 826 826 817 817 817 817 817 817 808 808 799 728 0 0 0 0 493 514 514 493 504 500 0 0 0 0 0
    0 0 0 0 0 0 0 0 0 0 0 0 0 0 0 0 0 0 0 0 0 0 0 0 0 0 0 0 0 0 0 0 0 0 0 0 0 0 0 0 0 0 0 0 0 0 0 0 0 0 0 0 0 0 0 0 0 0 0 0 0 0 0 0 0 0 0 0 0 758 750 750 743 743 750 774 766 774 826 855 855 836 845 845 845 845 845 845 845 855 876 865 845 836 817 817 808 799 791 791 791 791 799 808 817 808 817 817 799 808 808 791 791 782 782 791 791 808 799 782 791 774 782 782 791 791 799 808 826 826 836 845 836 836 826 817 808 808 799 808 791 799 808 791 782 791 799 808 799 799 799 791 808 817 808 817 774 782 758 782 817 817 826 836 855 845 836 826 808 799 799 791 791 791 791 799 799 808 817 808 817 845 817 826 782 791 799 817 817 817 817 808 808 808 808 808 799 799 799 799 817 799 799 799 799 782 799 808 791 808 817 836 836 836 845 836 826 826 826 817 799 799 799 808 799 808 826 817 826 782 799 799 799 799 799 782 782 782 799 782 774 774 774 758 743 743 721 721 728 721 728 728 721 735 735 743 758 735 735 735 721 735 735 728 728 728 728 728 714 707 700 694 707 707 700 707 707 714 728 735 774 735 750 750 782 774 791 791 782 766 799 826 836 817 817 817 817 808 808 799 791 782 774 758 707 645 0 0 0 490 514 511 493 504 500 0 0 0 0 0
    0 0 0 0 0 0 0 0 0 0 0 0 0 0 0 0 0 0 0 0 0 0 0 0 0 0 0 0 0 0 0 0 0 0 0 0 0 0 0 0 0 0 0 0 0 0 0 0 0 0 0 0 0 0 0 0 0 0 0 0 0 0 0 0 0 0 0 0 0 750 750 750 750 743 750 774 766 766 766 826 826 808 808 817 826 826 826 817 817 826 826 845 826 808 791 791 791 782 774 774 774 774 782 791 799 791 808 808 791 791 791 782 782 774 774 782 791 808 791 774 782 774 774 782 782 782 782 799 817 817 826 836 817 826 817 808 799 791 791 799 774 782 791 766 766 782 782 799 791 799 799 782 799 808 799 808 766 766 750 766 791 791 799 808 836 836 817 817 799 791 791 782 782 782 782 791 791 799 808 799 817 826 817 817 791 782 782 808 808 808 808 791 799 799 808 808 799 799 799 799 817 799 799 791 791 774 791 791 774 799 808 826 826 826 836 826 808 817 808 799 791 791 782 791 782 799 817 817 817 774 799 799 791 799 791 774 774 774 791 782 774 766 766 758 735 735 721 714 721 721 728 728 721 735 735 743 750 735 735 735 721 735 728 721 721 721 721 721 707 707 700 694 707 707 707 707 714 721 728 735 766 728 735 735 758 743 758 743 743 743 758 791 817 808 817 808 808 799 799 782 766 758 750 728 694 629 0 0 0 490 514 507 493 504 500 0 0 0 0 0
    0 0 0 0 0 0 0 0 0 0 0 0 0 0 0 0 0 0 0 0 0 0 0 0 0 0 0 0 0 0 0 0 0 0 0 0 0 0 0 0 0 0 0 0 0 0 0 0 0 0 0 0 0 0 0 0 0 0 0 0 0 0 0 0 0 0 0 0 0 758 758 758 758 750 758 782 766 766 758 791 808 782 774 791 799 808 808 791 791 799 791 817 791 782 758 766 774 766 758 766 758 766 766 782 782 782 791 791 774 782 782 774 774 774 774 774 791 799 782 766 774 774 774 774 774 766 774 791 799 808 799 817 808 808 808 799 791 782 782 791 766 782 782 743 766 774 782 791 782 791 791 782 808 808 799 799 766 766 750 758 782 774 774 782 808 808 808 808 791 774 774 766 766 766 774 774 782 782 799 791 808 817 817 808 808 782 774 808 808 799 799 782 799 791 799 799 791 791 791 791 808 799 808 791 791 774 782 791 774 791 791 808 817 817 826 817 799 799 799 782 782 774 774 774 766 782 808 808 808 774 791 791 791 791 782 774 774 774 791 774 766 766 766 766 728 728 714 714 721 714 728 721 721 735 735 743 743 728 735 728 714 728 721 714 714 714 714 714 707 707 700 700 714 714 707 707 714 721 728 728 743 721 728 721 750 735 750 735 735 743 750 774 808 808 817 817 817 808 808 791 774 766 743 721 681 618 0 0 0 490 511 507 497 504 500 0 0 0 0 0
    0 0 0 0 0 0 0 0 0 0 0 0 0 0 0 0 0 0 0 0 0 0 0 0 0 0 0 0 0 0 0 0 0 0 0 0 0 0 0 0 0 0 0 0 0 0 0 0 0 0 0 0 0 0 0 0 0 0 0 0 0 0 0 0 0 0 0 0 0 758 758 758 758 750 758 774 766 766 750 743 766 750 750 758 766 774 774 766 758 766 758 791 774 766 743 758 758 758 758 766 758 758 758 774 766 766 782 774 758 774 774 766 766 766 766 766 782 791 774 758 766 766 758 766 758 758 758 774 782 782 782 799 791 799 799 791 782 774 774 782 750 774 766 728 758 758 774 782 774 782 782 774 799 799 791 791 766 758 750 758 766 758 750 758 782 782 782 782 774 750 758 750 758 750 758 758 766 774 791 782 799 808 808 799 799 774 766 791 791 791 791 758 782 774 782 791 782 791 791 791 808 799 808 799 791 774 782 782 774 782 791 799 808 808 817 799 782 782 782 774 766 766 766 766 766 782 799 799 799 774 791 791 782 791 774 766 766 766 774 758 750 750 750 750 721 714 707 700 707 707 714 714 714 728 735 735 735 728 728 714 707 728 721 714 714 714 714 707 707 714 700 700 714 707 707 707 714 721 721 721 735 714 728 721 750 735 735 728 728 728 728 750 791 791 808 808 817 799 799 782 758 743 728 707 669 0 0 0 0 490 511 504 497 504 504 0 0 0 0 0
    0 0 0 0 0 0 0 0 0 0 0 0 0 0 0 0 0 0 0 0 0 0 0 0 0 0 0 0 0 0 0 0 0 0 0 0 0 0 0 0 0 0 0 0 0 0 0 0 0 0 0 0 0 0 0 0 0 0 0 0 0 0 0 0 0 0 0 0 0 758 758 758 758 750 758 782 766 774 758 735 750 743 735 735 743 743 735 735 735 743 735 758 743 750 735 750 758 758 750 758 758 758 758 774 766 766 782 774 758 774 774 766 766 766 758 766 774 782 766 758 766 766 758 766 750 750 758 766 782 774 774 791 782 791 799 791 774 758 758 766 735 758 750 721 750 750 758 766 766 774 766 766 799 782 782 774 758 758 750 758 766 758 750 758 774 774 774 758 758 735 743 735 743 743 750 743 750 758 782 766 791 782 782 774 774 758 750 766 774 766 774 743 774 766 774 782 774 782 782 782 808 791 799 791 782 774 766 782 774 774 782 791 799 791 799 782 766 766 766 758 758 758 766 758 774 774 799 799 799 774 791 782 782 782 758 758 758 758 766 743 743 743 735 743 714 707 700 700 700 700 707 714 707 721 728 728 728 721 721 714 707 721 707 700 700 707 700 700 700 707 700 700 707 707 707 707 714 721 714 721 728 714 721 714 750 728 735 721 721 721 714 728 766 774 791 791 799 782 782 750 735 721 714 700 663 0 0 0 0 490 507 500 497 504 500 0 0 0 0 0
    0 0 0 0 0 0 0 0 0 0 0 0 0 0 0 0 0 0 0 0 0 0 0 0 0 0 0 0 0 0 0 0 0 0 0 0 0 0 0 0 0 0 0 0 0 0 0 0 0 0 0 0 0 0 0 0 0 0 0 0 0 0 0 0 0 0 0 0 0 750 758 758 758 750 758 782 774 782 774 750 766 743 735 743 743 743 735 735 735 735 735 758 735 743 728 750 750 758 750 758 758 758 758 774 774 774 782 774 766 774 774 774 774 774 758 766 774 782 774 758 766 758 758 766 750 743 750 758 774 766 766 782 766 782 791 774 774 750 750 758 735 750 750 721 743 743 750 758 758 758 758 758 799 774 782 774 758 758 758 758 766 766 758 758 774 758 766 735 743 728 735 728 735 735 735 735 743 743 766 758 774 758 766 758 766 758 743 758 758 750 750 728 758 750 766 766 766 774 766 774 799 782 791 782 774 766 758 774 766 774 774 782 791 774 774 750 750 750 750 743 750 743 750 750 766 766 782 782 782 766 782 774 766 774 743 743 750 750 750 735 735 735 728 743 714 707 700 700 700 700 707 707 707 721 728 728 728 721 714 707 700 707 694 687 687 694 694 687 694 700 700 700 707 700 700 707 714 714 714 714 721 707 714 714 743 721 721 707 707 714 707 721 743 774 799 791 791 728 721 700 700 707 707 687 657 618 0 0 500 490 504 497 497 504 500 0 0 0 0 0</data></depth>
</opencv_storage>
