<?xml version="1.0"?>
<opencv_storage>
<gps_time_stamp>16992</gps_time_stamp>
<gps_x>1.6020961105823517e-002</gps_x>
<gps_y>1.9856180995702744e-002</gps_y>
<gps_z>-6.8240263499319553e-003</gps_z>
<image_time_stamp>4964</image_time_stamp>
<depth type_id="opencv-matrix">
  <rows>85</rows>
  <cols>320</cols>
  <dt>s</dt>
  <data>
    0 0 0 0 0 0 0 0 0 0 0 0 0 0 0 0 0 0 0 0 0 0 0 0 0 0 0 0 0 0 0 0 0 0 0 0 0 0 0 0 0 0 0 0 0 0 0 0 0 0 0 0 0 0 0 0 0 0 0 0 0 0 0 0 0 0 0 0 0 0 0 0 0 0 0 0 0 0 0 0 0 0 0 0 0 0 0 0 0 0 0 0 0 0 0 0 0 0 0 0 0 0 0 0 0 0 0 0 0 0 0 0 0 0 0 0 0 0 0 0 0 0 0 0 0 0 0 0 0 0 0 0 0 0 0 0 0 0 0 0 0 0 0 0 0 0 0 0 0 0 0 0 0 0 0 0 0 0 0 0 0 0 0 0 0 0 0 0 0 0 0 0 0 0 0 0 0 0 0 0 0 0 0 0 0 0 0 0 0 0 0 0 0 0 0 0 0 0 0 0 0 0 0 0 0 0 0 0 0 0 0 0 0 0 0 0 0 0 0 0 0 0 0 0 0 0 0 0 0 0 0 0 0 0 0 0 0 0 0 0 0 0 0 0 0 0 0 0 0 0 0 0 0 0 0 0 0 0 0 0 0 0 0 0 0 0 0 0 0 0 0 0 0 0 0 0 0 0 0 0 0 0 0 0 0 0 0 0 0 0 0 0 0 0 0 0 0 0 0 0 0 0 0 0 0 0 0 0 0 0 0 0 0 0 0 0 0 0 0 0
    0 0 0 0 0 0 0 0 0 0 0 0 0 0 0 0 0 0 0 0 0 0 0 0 0 0 0 0 0 0 0 0 0 0 0 0 0 0 0 0 0 0 0 0 0 0 0 0 0 0 0 0 0 0 0 0 0 0 0 0 0 0 0 0 0 0 0 0 0 0 0 0 0 0 0 0 0 0 0 0 0 0 0 0 0 0 0 0 0 0 0 0 0 0 0 0 0 0 0 0 0 0 0 0 0 0 0 0 0 0 0 0 0 0 0 0 0 0 0 0 0 0 0 0 0 0 0 0 0 0 0 0 0 0 0 0 0 0 0 0 0 0 0 0 0 0 0 0 0 0 0 0 0 0 0 0 0 0 0 0 0 0 0 0 0 0 0 0 0 0 0 0 0 0 0 0 0 0 0 0 0 0 0 0 0 0 0 0 0 0 0 0 0 0 0 0 0 0 0 0 0 0 0 0 0 0 0 0 0 0 0 0 0 0 0 0 0 0 0 0 0 0 0 0 0 0 0 0 0 0 0 0 0 0 0 0 0 0 0 0 0 0 0 0 0 0 0 0 0 0 0 0 0 0 0 0 0 0 0 0 0 0 0 0 0 0 0 0 0 0 0 0 0 0 0 0 0 0 0 0 0 0 0 0 0 0 0 0 0 0 0 0 0 0 0 0 0 0 0 0 0 0 0 0 0 0 0 0 0 0 0 0 0 0 0 0 0 0 0 0
    0 0 0 0 0 0 0 0 0 0 0 0 0 0 0 0 0 0 0 0 0 0 0 0 0 0 0 0 0 0 0 0 0 0 0 0 0 0 0 0 0 0 0 0 0 0 0 0 0 0 0 0 0 0 0 0 0 0 0 0 0 0 0 0 0 0 0 0 0 0 0 0 0 0 0 0 0 0 0 0 0 0 0 0 0 0 0 0 0 0 0 0 0 0 0 0 0 0 0 0 0 0 0 0 0 0 0 0 0 0 0 0 0 0 0 0 0 0 0 0 0 0 0 0 0 0 0 0 0 0 0 0 0 0 0 0 0 0 0 0 0 0 0 0 0 0 0 0 0 0 0 0 0 0 0 0 0 0 0 0 0 0 0 0 0 0 0 0 0 0 0 0 0 0 0 0 0 0 0 0 0 0 0 0 0 0 0 0 0 0 0 0 0 0 0 0 0 0 0 0 0 0 0 0 0 0 0 0 0 0 0 0 0 0 0 0 0 0 0 0 0 0 0 0 0 0 0 0 0 0 0 0 0 0 0 0 0 0 0 0 0 0 0 0 0 0 0 0 0 0 0 0 0 0 0 0 0 0 0 0 0 0 0 0 0 0 0 0 0 0 0 0 0 0 0 0 0 0 0 0 0 0 0 0 0 0 0 0 0 0 0 0 0 0 0 0 0 0 0 0 0 0 0 0 0 0 0 0 0 0 0 0 0 0 0 0 0 0 0 0
    0 0 0 0 0 0 0 0 0 0 0 0 0 0 0 0 0 0 0 0 0 0 0 0 0 0 0 0 0 0 0 0 0 0 0 0 0 0 0 0 0 0 0 0 0 0 0 0 0 0 0 0 0 0 0 0 0 0 0 0 0 0 0 0 0 0 0 0 0 0 0 0 0 0 0 0 0 0 0 0 0 0 0 0 0 0 0 0 0 0 0 0 0 0 0 0 0 0 0 0 0 0 0 0 0 0 0 0 0 0 0 0 0 0 0 0 0 0 0 0 0 0 0 0 0 0 0 0 0 0 0 0 0 0 0 0 0 0 0 0 0 0 0 0 0 0 0 0 0 0 0 0 0 0 0 0 0 0 0 0 0 0 0 0 0 0 0 0 0 0 0 0 0 0 0 0 0 0 0 0 0 0 0 0 0 0 0 0 0 0 0 0 0 0 0 0 0 0 0 0 0 0 0 0 0 0 0 0 0 0 0 0 0 0 0 0 0 0 0 0 0 0 0 0 0 0 0 0 0 0 0 0 0 0 0 0 0 0 0 0 0 0 0 0 0 0 0 0 0 0 0 0 0 0 0 0 0 0 0 0 0 0 0 0 0 0 0 0 0 0 0 0 0 0 0 0 0 0 0 0 0 0 0 0 0 0 0 0 0 0 0 0 0 0 0 0 0 0 0 0 0 0 0 0 0 0 0 0 0 0 0 0 0 0 0 0 0 0 0 0
    0 0 0 0 0 0 0 0 0 0 0 0 0 0 0 0 0 0 0 0 0 0 0 0 0 0 0 0 0 0 0 0 0 0 0 0 0 0 0 0 0 0 0 0 0 0 0 0 0 0 0 0 0 0 0 0 0 0 0 0 0 0 0 0 0 0 0 0 0 0 0 0 0 0 0 0 0 0 0 0 0 0 0 0 0 0 0 0 0 0 0 0 0 0 0 0 0 0 0 0 0 0 0 0 0 0 0 0 0 0 0 0 0 0 0 0 0 0 0 0 0 0 0 0 7359 8177 7359 7359 7359 8177 7359 6133 6133 0 0 0 8177 0 0 0 0 7359 7359 8177 7359 7359 5661 6690 0 0 0 0 0 6133 5661 7359 8177 8177 0 0 0 0 0 0 0 0 0 8177 8177 6133 0 8177 5256 6690 6690 6690 7359 7359 7359 7359 7359 0 0 0 8177 7359 7359 6690 7359 6133 5661 6133 6690 6690 4599 5661 6133 6133 5661 6690 6133 6133 6133 8177 7359 7359 7359 0 0 0 0 0 0 0 0 0 0 0 0 0 0 0 0 0 0 0 4329 4599 4599 4329 4599 4329 4088 4088 4329 4088 3873 3873 4088 4088 4088 3873 3873 3345 3345 3199 2830 2628 2230 2230 2299 2374 2299 2299 2230 2299 2230 2164 2299 2230 2164 2164 2164 2102 2102 2102 2164 2102 2102 2164 2102 2102 2164 2230 2164 2164 2164 2164 2102 2102 2044 2044 2044 2102 2164 2164 2164 2102 2044 2044 1989 1887 1752 1711 1672 1752 1752 1795 1752 1752 1752 1795 1752 1795 1711 1711 0 1533 1501 1599 1599 1711 1672 1752 1795 0 0 0 0 0
    0 0 0 0 0 0 0 0 0 0 0 0 0 0 0 0 0 0 0 0 0 0 0 0 0 0 0 0 0 0 0 0 0 0 0 0 0 0 0 0 0 0 0 0 0 0 0 0 0 0 0 0 0 0 0 0 0 0 0 0 0 0 0 0 0 0 0 0 0 0 0 0 0 0 0 0 0 0 0 0 0 0 0 0 0 0 0 0 0 0 0 0 0 0 0 0 0 0 0 0 0 0 0 0 0 0 0 0 0 0 0 0 0 0 0 0 0 0 0 0 0 0 0 0 7359 8177 8177 8177 8177 8177 8177 6690 6133 0 0 0 8177 0 0 0 0 8177 8177 8177 8177 8177 6133 7359 0 0 0 0 0 5661 5661 7359 8177 8177 0 0 0 0 0 0 0 0 0 8177 8177 6690 0 0 5661 7359 6690 6690 7359 7359 8177 7359 7359 0 8177 0 8177 7359 7359 6690 7359 6690 5661 6690 6690 6690 4599 5661 6133 5661 5661 6133 6133 6133 6133 8177 7359 7359 6690 0 0 0 0 0 0 0 0 0 0 0 0 0 0 0 0 0 0 0 4329 4599 4329 4329 4329 4088 4088 4088 4088 4088 3873 3873 4088 3873 4088 3873 3679 3199 3066 2943 2725 2537 2299 2230 2299 2374 2374 2299 2299 2230 2164 2164 2230 2164 2102 2164 2164 2102 2102 2164 2164 2102 2102 2164 2102 2102 2164 2230 2164 2230 2164 2164 2102 2102 2044 2044 2044 2044 2164 2164 2102 2102 2044 2044 1989 1936 1795 1711 1672 1752 1752 1795 1752 1752 1711 1752 1711 1752 1711 1711 1565 1565 1533 1599 1635 1752 1752 1795 1795 0 0 0 0 0
    0 0 0 0 0 0 0 0 0 0 0 0 0 0 0 0 0 0 0 0 0 0 0 0 0 0 0 0 0 0 0 0 0 0 0 0 0 0 0 0 0 0 0 0 0 0 0 0 0 0 0 0 0 0 0 0 0 0 0 0 0 0 0 0 0 0 0 0 0 0 0 0 0 0 0 0 0 0 0 0 0 0 0 0 0 0 0 0 0 0 0 0 0 0 0 0 0 0 0 0 0 0 0 0 0 0 0 0 0 0 0 0 0 0 0 0 0 0 0 0 0 0 0 0 8177 8177 8177 8177 8177 0 8177 7359 6690 0 0 0 9199 0 0 0 0 0 0 0 0 0 7359 0 0 0 0 0 0 4088 4599 6690 7359 7359 0 0 0 0 0 0 0 0 0 0 0 6690 0 0 6133 7359 6690 6690 7359 7359 8177 7359 7359 0 8177 0 0 7359 7359 7359 7359 7359 6133 6690 6690 6690 4599 5661 5661 5661 5661 6133 6133 6133 6133 8177 7359 7359 6133 0 0 0 0 0 0 0 0 0 0 0 0 0 0 0 0 0 0 4088 4088 4329 4329 4088 4088 4088 3873 3873 4088 3873 3873 3873 3873 3873 3873 3873 3504 3066 2943 2725 2628 2453 2299 2230 2299 2374 2374 2299 2299 2230 2164 2102 2230 2164 2102 2164 2164 2102 2102 2164 2164 2102 2102 2102 2102 2102 2164 2164 2164 2164 2164 2102 2044 2044 2044 1989 1989 2044 2102 2102 2044 2044 2044 2044 2044 1936 1839 1752 1672 1795 1752 1795 1752 1752 1711 1711 1711 1752 1672 1672 1565 1565 1565 1599 1635 1752 1752 1839 1839 0 0 0 0 0
    0 0 0 0 0 0 0 0 0 0 0 0 0 0 0 0 0 0 0 0 0 0 0 0 0 0 0 0 0 0 0 0 0 0 0 0 0 0 0 0 0 0 0 0 0 0 0 0 0 0 0 0 0 0 0 0 0 0 0 0 0 0 0 0 0 0 0 0 0 0 0 0 0 0 0 0 0 0 0 0 0 0 0 0 0 0 0 0 0 0 0 0 0 0 0 0 0 0 0 0 0 0 0 0 0 0 0 0 0 0 0 0 0 0 0 0 0 0 0 0 0 0 0 0 0 0 0 0 0 0 0 7359 7359 0 0 0 0 0 0 0 0 0 0 0 0 0 0 0 0 0 0 0 0 3345 4088 0 0 7359 0 0 0 0 0 0 0 0 0 0 0 7359 0 0 6690 7359 6690 7359 8177 8177 8177 7359 7359 0 0 0 0 8177 8177 7359 8177 7359 6690 6690 6690 6690 4599 5661 5661 5661 5256 6133 6133 6133 6133 8177 7359 7359 5661 0 0 0 0 0 0 0 0 0 0 0 0 0 0 0 0 0 4088 4329 4329 4329 4088 3873 4088 4088 4088 3873 4088 3873 3679 3679 3873 3873 3679 3504 3345 2725 2725 2628 2628 2537 2374 2230 2299 2374 2374 2299 2299 2164 2164 2102 2230 2164 2102 2164 2164 2164 2102 2164 2164 2102 2102 2102 2102 2044 2102 2164 2102 2164 2164 2102 2044 2044 1989 1989 1989 1989 2102 2044 2044 2044 2044 2102 2102 1989 1887 1795 1711 1795 1752 1795 1752 1752 1711 1711 1672 1711 1672 1635 1565 1565 1565 1599 1635 1752 1795 1887 1887 0 0 0 0 0
    0 0 0 0 0 0 0 0 0 0 0 0 0 0 0 0 0 0 0 0 0 0 0 0 0 0 0 0 0 0 0 0 0 0 0 0 0 0 0 0 0 0 0 0 0 0 0 0 0 0 0 0 0 0 0 0 0 0 0 0 0 0 0 0 0 0 0 0 0 0 0 0 0 0 0 0 0 0 0 0 0 0 0 0 0 0 0 0 0 0 0 0 0 0 0 0 0 0 0 0 0 0 0 0 0 0 0 0 0 0 0 0 0 0 0 0 0 8177 0 0 0 0 0 0 0 0 0 0 0 0 0 8177 8177 0 0 0 0 0 0 0 0 0 0 0 0 0 0 0 0 0 0 0 0 3679 0 0 0 8177 0 0 0 0 0 0 0 0 0 0 0 7359 0 0 7359 8177 7359 7359 8177 8177 8177 8177 7359 0 8177 0 0 8177 8177 7359 7359 7359 6690 7359 6690 7359 4599 5661 6133 5661 5661 6690 6133 6133 6133 8177 7359 7359 5256 0 0 0 0 0 0 0 0 0 0 0 0 0 0 0 0 0 4329 4329 4088 4088 4088 3873 4329 4088 4088 3873 4088 4088 3679 3679 3679 3345 3345 3199 2943 2628 2628 2537 2537 2453 2453 2230 2374 2374 2453 2299 2299 2230 2164 2102 2230 2164 2102 2164 2164 2164 2164 2164 2164 2164 2102 2102 2102 2044 2102 2164 2102 2164 2102 2044 2044 1989 1989 1989 1936 1989 2044 2044 2044 2044 2044 2102 2102 1989 1887 1839 1752 1795 1752 1752 1752 1711 1711 1711 1672 1711 1672 1635 1599 1565 1565 1599 1635 1752 1752 1887 1936 0 0 0 0 0
    0 0 0 0 0 0 0 0 0 0 0 0 0 0 0 0 0 0 0 0 0 0 0 0 0 0 0 0 0 0 0 0 0 0 0 0 0 0 0 0 0 0 0 0 0 0 0 0 0 0 0 0 0 0 0 0 0 0 0 0 0 0 0 0 0 0 0 0 0 0 0 0 0 0 0 0 0 0 0 0 0 0 0 0 0 0 0 0 0 0 0 0 0 0 0 0 0 0 0 0 0 0 0 0 0 0 0 0 0 0 0 0 0 0 0 0 8177 7359 0 0 8177 8177 0 0 0 0 0 0 0 0 0 0 0 0 0 0 0 0 0 0 0 0 0 0 0 0 0 0 0 0 0 0 73 6690 4599 0 0 8177 0 0 0 0 0 0 0 0 0 0 0 7359 0 0 8177 8177 7359 7359 8177 8177 0 8177 8177 0 0 0 0 0 0 8177 8177 8177 7359 8177 7359 7359 4906 6133 6133 6133 5661 6690 6690 6690 6690 8177 8177 8177 5256 8177 8177 8177 8177 8177 8177 8177 8177 0 0 0 0 0 0 0 0 3873 4088 4088 4329 4329 4088 3873 4329 4329 4088 4088 4088 4088 3873 3504 3679 3345 3199 3199 2943 2628 2628 2628 2628 2628 2537 2299 2299 2374 2453 2299 2299 2230 2164 2164 2230 2164 2164 2164 2164 2164 2164 2164 2164 2164 2102 2102 2102 2044 2102 2164 2102 2164 2102 2044 2044 1989 1989 1936 1887 1936 1989 1989 1989 1989 1989 2044 2044 1989 1887 1839 1752 1752 1752 1752 1711 1711 1672 1672 1635 1711 1672 1635 1599 1565 1565 1599 1635 1711 1752 1887 1936 0 0 0 0 0
    0 0 0 0 0 0 0 0 0 0 0 0 0 0 0 0 0 0 0 0 0 0 0 0 0 0 0 0 0 0 0 0 0 0 0 0 0 0 0 0 0 0 0 0 0 0 0 0 0 0 0 0 0 0 0 0 0 0 0 0 0 0 0 0 0 0 0 0 0 8177 8177 0 0 0 0 0 0 0 0 0 0 0 0 0 0 0 0 0 0 0 0 0 0 0 0 0 0 0 0 0 0 0 0 0 0 0 0 0 0 0 0 0 0 0 0 0 8177 7359 0 8177 7359 7359 0 0 0 0 0 0 0 0 0 0 0 0 0 0 0 0 0 0 0 0 0 0 0 0 0 0 0 0 0 0 73 0 6133 8177 0 8177 0 0 0 0 0 0 0 0 0 0 0 7359 0 0 0 0 7359 7359 8177 0 0 8177 8177 0 0 0 0 0 0 0 0 0 8177 0 8177 8177 5256 6133 6133 6133 5661 6690 6690 6690 6690 0 8177 8177 5256 8177 7359 6690 6690 6690 6690 6690 6690 0 0 0 0 0 0 0 3873 4088 4088 4329 4329 4329 4329 3679 4329 4329 4088 4088 4088 4088 3873 3504 3679 3199 3066 3199 2943 2628 2628 2628 2628 2628 2537 2374 2299 2374 2453 2374 2374 2299 2230 2230 2230 2230 2164 2164 2164 2164 2164 2164 2164 2164 2102 2102 2102 2102 2102 2164 2102 2164 2102 2044 2044 1989 1936 1887 1839 1887 1936 1936 1936 1936 1936 1989 1989 1989 1936 1887 1795 1752 1711 1711 1711 1672 1635 1672 1635 1672 1672 1635 1599 1599 1565 1599 1635 1711 1795 1887 1989 0 0 0 0 0
    0 0 0 0 0 0 0 0 0 0 0 0 0 0 0 0 0 0 0 0 0 0 0 0 0 0 0 0 0 0 0 0 0 0 0 0 0 0 0 0 0 0 0 0 0 0 0 0 0 0 0 0 0 0 0 0 0 0 0 0 0 0 0 0 0 0 0 0 0 7359 6690 0 8177 0 0 0 8177 0 0 0 0 0 0 0 0 0 0 0 0 0 0 0 0 0 0 0 0 0 0 0 0 0 0 0 0 0 0 0 0 0 0 0 0 0 0 0 7359 6690 8177 8177 7359 6690 8177 8177 0 0 0 0 0 0 0 0 0 0 0 0 0 0 0 0 0 0 0 0 0 0 0 0 0 0 0 0 73 0 6133 8177 8177 7359 0 8177 0 0 0 0 0 0 0 0 8177 6690 0 0 0 0 8177 8177 0 0 0 8177 8177 0 0 0 0 0 0 0 0 0 0 0 8177 8177 4906 6133 6133 6133 5661 6690 6690 6690 6690 0 0 0 4906 7359 6690 6133 6133 6133 6133 6133 6133 0 0 0 0 0 0 0 4088 4088 4088 4329 4329 4329 4329 3873 4599 4329 4088 4329 4329 4329 4088 3679 3679 3199 3199 3199 2943 2628 2628 2537 2628 2628 2537 2374 2299 2374 2453 2374 2453 2299 2230 2299 2230 2299 2164 2164 2230 2164 2164 2230 2164 2230 2164 2164 2102 2102 2102 2164 2044 2164 2102 2102 2102 2044 1936 1887 1839 1839 1887 1887 1887 1936 1936 1989 2044 2044 1989 1936 1839 1795 1752 1711 1672 1672 1635 1672 1635 1672 1672 1635 1599 1599 1599 1565 1635 1711 1795 1887 1989 0 0 0 0 0
    0 0 0 0 0 0 0 0 0 0 0 0 0 0 0 0 0 0 0 0 0 0 0 0 0 0 0 0 0 0 0 0 0 0 0 0 0 0 0 0 0 0 0 0 0 0 0 0 0 0 0 0 0 0 0 0 0 0 0 0 0 0 0 0 0 0 0 0 0 6690 6133 7359 7359 0 8177 8177 7359 0 0 0 0 8177 8177 0 0 0 0 0 0 0 0 0 0 0 0 0 0 0 0 0 0 0 0 0 0 0 0 0 0 0 0 0 0 0 0 0 8177 7359 8177 8177 7359 6690 8177 8177 0 0 0 0 0 0 0 0 0 0 0 0 0 0 0 0 0 0 0 0 0 0 0 0 0 0 0 0 73 8177 5661 6690 7359 6133 0 8177 8177 8177 8177 0 0 0 0 0 8177 6690 0 0 0 0 8177 8177 0 0 0 0 0 8177 8177 0 0 0 0 0 0 0 0 0 8177 8177 4906 5661 5661 6133 5661 6690 6690 6690 6690 0 0 0 4906 6690 6133 5256 5256 5256 5256 5256 5256 0 0 0 0 0 0 3873 3873 3679 3873 4088 4329 4329 3873 3873 4329 4329 4329 4329 4329 4329 4088 3873 3679 3199 3199 3345 2943 2725 2628 2537 2628 2628 2537 2453 2374 2374 2453 2374 2453 2299 2299 2299 2230 2299 2164 2164 2230 2164 2230 2230 2164 2230 2164 2164 2102 2102 2102 2102 2044 2164 2102 2164 2102 2102 1989 1936 1839 1839 1839 1887 1887 1936 1936 1989 1989 2044 2044 1989 1887 1795 1752 1711 1711 1672 1672 1672 1635 1672 1672 1635 1635 1599 1599 1565 1635 1711 1795 1887 1936 0 0 0 0 0
    0 0 0 0 0 0 0 0 0 0 0 0 0 0 0 0 0 0 0 0 0 0 0 0 0 0 0 0 0 0 0 0 0 0 0 0 0 0 0 0 0 0 0 0 0 0 0 0 0 0 0 0 0 0 0 0 0 0 0 0 0 0 0 0 0 0 0 0 0 6133 5661 6690 6690 7359 7359 7359 6690 8177 7359 0 8177 7359 7359 6690 5661 0 0 0 0 0 0 0 0 0 0 0 0 0 0 0 0 0 0 0 0 0 0 0 0 0 0 0 0 0 0 0 8177 8177 8177 8177 7359 6690 8177 8177 0 0 0 0 0 0 0 0 0 0 0 0 0 0 0 0 0 0 0 0 0 0 0 0 0 0 0 0 73 8177 5256 6133 6690 6133 0 7359 8177 8177 8177 8177 0 0 0 0 8177 6133 0 0 0 0 8177 8177 0 0 0 0 0 8177 8177 0 0 0 0 0 0 0 0 0 8177 8177 5256 6133 6133 6133 5661 7359 7359 7359 7359 0 0 0 4599 6690 5661 4599 4599 4599 4599 4599 4599 0 0 0 0 0 3873 4088 3873 3679 3873 4088 4329 4088 3873 3873 4329 4329 4329 4329 4329 4329 4329 4088 3873 3345 3345 3345 3066 2725 2628 2537 2628 2628 2537 2453 2374 2453 2537 2453 2453 2374 2299 2299 2230 2299 2164 2164 2230 2164 2230 2230 2230 2230 2164 2164 2102 2102 2102 2102 2044 2102 2102 2164 2164 2102 1989 1989 1887 1839 1887 1887 1887 1936 1936 1989 1989 2044 2044 1989 1936 1839 1795 1711 1711 1672 1672 1672 1635 1672 1672 1635 1635 1599 1635 1565 1672 1752 1839 1887 1936 0 0 0 0 0
    0 0 0 0 0 0 0 0 0 0 0 0 0 0 0 0 0 0 0 0 0 0 0 0 0 0 0 0 0 0 0 0 0 0 0 0 0 0 0 0 0 0 0 0 0 0 0 0 0 0 0 0 0 0 0 0 0 0 0 0 0 0 0 0 0 0 0 0 0 5256 5256 6133 6133 7359 6690 6690 6690 7359 6690 8177 7359 8177 7359 7359 6133 0 0 0 0 0 0 0 0 0 0 0 0 0 0 0 0 0 0 0 0 0 0 0 0 0 0 8177 0 0 0 0 0 0 0 8177 8177 7359 0 8177 0 0 0 0 0 0 0 0 0 0 0 0 0 0 0 0 0 0 0 0 0 0 0 0 0 0 0 0 73 8177 4906 6133 7359 6133 0 7359 7359 7359 7359 8177 8177 8177 0 8177 7359 5661 0 0 0 0 0 0 0 0 0 0 0 0 0 0 0 0 0 0 0 0 0 0 8177 8177 5256 6133 6690 6690 6133 7359 7359 7359 7359 0 0 0 4599 6133 5256 4599 4599 4599 4599 4599 4599 0 0 0 0 0 4088 4088 3873 3873 3873 4088 4329 3873 4088 3873 4599 4599 4329 4329 4599 4599 4599 4088 3873 3345 3504 3504 3199 2830 2628 2628 2725 2725 2628 2537 2374 2453 2537 2453 2453 2374 2299 2374 2230 2299 2164 2164 2230 2164 2230 2299 2230 2299 2164 2164 2102 2102 2102 2102 2044 2102 2164 2164 2164 2164 2044 2044 1989 1887 1887 1887 1887 1887 1936 1936 1989 1989 2044 2044 2044 0 0 1752 1752 1711 1711 1711 1672 1711 1672 1635 1635 1635 1672 1599 1711 1752 1839 1887 1936 0 0 0 0 0
    0 0 0 0 0 0 0 0 0 0 0 0 0 0 0 0 0 0 0 0 0 0 0 0 0 0 0 0 0 0 0 0 0 0 0 0 0 0 0 0 0 0 0 0 0 0 0 0 0 0 0 0 0 0 0 0 0 0 0 0 0 0 0 0 0 0 0 0 0 5256 4906 5661 5661 6690 6133 6690 6133 6690 6690 8177 7359 8177 8177 8177 7359 8177 0 0 0 0 0 0 0 0 0 0 0 0 0 0 0 0 0 0 0 0 0 0 0 0 0 8177 0 0 0 0 0 0 0 0 8177 7359 0 8177 0 0 0 0 0 0 0 0 0 0 0 0 0 0 0 0 0 0 0 0 0 0 0 0 0 0 0 72 73 0 5256 8177 8177 6690 0 7359 8177 8177 8177 8177 8177 8177 0 7359 6690 5256 0 0 0 0 0 0 0 0 0 0 0 0 0 0 0 0 0 0 0 0 0 0 8177 8177 5256 6690 6690 6690 6133 7359 7359 7359 7359 0 0 0 4599 6133 5256 4599 4599 4599 4599 4599 4599 0 0 0 0 3873 4088 4088 4088 3873 4088 4329 4088 3873 4088 4088 4599 4329 4329 4329 4599 4599 4599 4088 3873 3345 3504 3504 3345 2830 2725 2628 2725 2725 2628 2537 2453 2453 2537 2453 2453 2453 2299 2374 2164 2299 2164 2230 2230 2164 2230 2299 2230 2299 2164 2230 2102 2102 2102 2102 2102 2044 2102 2164 2164 2102 2044 1989 1989 1936 1936 1887 1887 1887 1936 1936 1936 1989 2044 1989 0 0 0 1752 1752 1752 1752 1795 1752 1752 1752 1672 1711 1711 1711 1635 1711 1752 1839 1839 1936 0 0 0 0 0
    0 0 0 0 0 0 0 0 0 0 0 0 0 0 0 0 0 0 0 0 0 0 0 0 0 0 0 0 0 0 0 0 0 0 0 0 0 0 0 0 0 0 0 0 0 0 0 0 0 0 0 0 0 0 0 0 0 0 0 0 0 0 0 0 0 0 0 0 0 4906 4599 5661 5256 6133 5256 6133 5661 6133 6133 7359 6690 8177 7359 0 7359 7359 0 0 0 0 0 0 0 0 0 0 0 0 0 0 0 0 0 0 0 0 0 0 0 0 0 8177 0 0 0 0 0 0 0 0 0 7359 0 8177 0 0 0 0 0 0 0 0 0 0 0 0 0 0 0 0 0 0 0 0 0 0 0 0 0 74 0 72 73 0 4906 0 0 7359 0 8177 0 8177 0 0 0 0 0 7359 7359 5256 0 0 0 0 0 0 0 0 0 0 0 0 0 0 0 0 0 0 0 0 0 0 0 0 5661 6690 6690 6690 6133 7359 7359 7359 7359 0 0 0 4599 6133 5256 4599 4599 4599 4599 4599 4599 0 0 0 3873 3873 4088 4329 4088 3873 4088 4088 4329 4329 4329 4088 4599 4329 4329 4329 4599 4599 4599 4088 4088 3504 3679 3679 3345 2943 2725 2725 2725 2725 2628 2537 2453 2453 2453 2453 2453 2374 2299 2374 2230 2299 2230 2230 2230 2230 2230 2299 2230 2299 2164 2230 2164 2164 2164 2164 2044 2044 2102 2164 2102 2102 2044 2044 1989 1936 1936 1887 1887 1887 1887 1936 1936 1989 1989 1989 0 0 0 0 1752 1752 1752 1839 1795 1839 1795 1752 1795 1752 1795 1711 1752 1752 1795 1839 1887 0 0 0 0 0
    0 0 0 0 0 0 0 0 0 0 0 0 0 0 0 0 0 0 0 0 0 0 0 0 0 0 0 0 0 0 0 0 0 0 0 0 0 0 0 0 0 0 0 0 0 0 0 0 0 0 0 0 0 0 0 0 0 0 0 0 0 0 0 0 0 0 0 0 0 4599 4599 5256 4906 5661 4906 5661 5256 6133 5661 6690 6133 8177 7359 0 8177 8177 8177 0 0 0 0 0 0 0 0 0 0 0 0 0 0 0 0 0 0 0 0 0 0 0 0 8177 0 0 0 0 0 0 0 0 0 8177 0 8177 0 0 0 0 0 0 0 0 0 0 0 0 0 0 0 0 0 0 0 0 0 0 0 0 0 74 0 72 73 0 0 0 0 7359 0 8177 0 8177 9199 0 0 0 0 8177 8177 5256 0 0 0 0 0 0 0 0 0 0 0 8177 8177 0 0 0 0 0 0 0 0 0 0 0 6133 7359 7359 7359 6133 8177 8177 8177 8177 0 0 0 4599 6690 5256 4599 4599 4599 4599 4599 4329 0 0 0 4088 3873 4088 4599 4329 4088 4329 4088 4599 4329 4599 4599 4599 4329 4329 4329 4599 4599 4599 4088 4088 3679 4088 3873 3679 2943 2943 2830 2830 2830 2628 2628 2453 2537 2537 2453 2453 2374 2299 2299 2230 2299 2164 2164 2164 2164 2164 2230 2230 2230 2164 2230 2164 2164 2164 2164 2044 2044 2102 2102 2102 2102 2044 2044 2044 1989 1989 1887 1887 1887 1887 1887 1936 1989 2044 1989 0 0 0 0 1795 1752 1795 1887 1839 1839 1839 1752 1795 1839 1839 0 1795 1795 1795 1839 1839 0 0 0 0 0
    0 0 0 0 0 0 0 0 0 0 0 0 0 0 0 0 0 0 0 0 0 0 0 0 0 0 0 0 0 0 0 0 0 0 0 0 0 0 0 0 0 0 0 0 0 0 0 0 0 0 0 0 0 0 0 0 0 0 0 0 0 0 0 0 0 0 0 0 0 4599 4599 4906 4599 5661 4906 5256 4906 5661 5256 6133 6133 8177 8177 0 8177 0 0 0 0 0 0 0 0 0 0 0 0 0 0 0 0 0 0 0 0 0 0 0 0 8177 0 7359 8177 0 0 0 0 0 0 0 0 0 0 8177 0 0 0 0 0 0 0 0 0 0 0 0 0 0 0 0 0 0 0 0 0 0 0 0 77 76 74 73 73 0 0 0 9199 6133 8177 8177 8177 8177 8177 8177 8177 0 0 8177 0 5661 0 0 0 0 0 0 0 0 0 0 0 8177 7359 0 0 0 0 0 0 0 0 0 0 0 6690 7359 7359 7359 6690 8177 8177 8177 8177 0 0 0 5256 6690 5256 4599 4599 4599 4599 4599 4329 0 0 4088 3873 3679 3873 4599 4329 4329 4088 4088 4599 4599 4599 4599 4088 4088 4088 4088 4329 4088 3873 3679 3504 3504 3679 3504 3066 2725 2725 2725 2725 2628 2628 2537 2453 2537 2537 2453 2374 2299 2299 2299 2164 2230 2164 2164 2164 2164 2102 2230 2164 2230 2164 2164 2164 2164 2164 2230 2044 2044 2102 2102 2102 2044 2044 2044 2044 1989 1989 1887 1887 1887 1936 1887 1936 1989 2102 2044 0 0 0 0 1795 1752 1795 1839 1839 1839 1839 1795 1839 1887 1936 0 0 1839 1839 1839 1839 0 0 0 0 0
    0 0 0 0 0 0 0 0 0 0 0 0 0 0 0 0 0 0 0 0 0 0 0 0 0 0 0 0 0 0 0 0 0 0 0 0 0 0 0 0 0 0 0 0 0 0 0 0 0 0 0 0 0 0 0 0 0 0 0 0 0 0 0 0 0 0 0 0 0 4599 4599 4906 4329 5661 4906 5256 4906 5661 5256 5661 5661 8177 7359 0 8177 0 0 0 0 0 0 0 0 0 0 0 0 0 0 0 0 0 0 0 0 0 0 0 0 8177 0 7359 8177 7359 0 0 0 0 0 0 0 0 0 0 0 0 0 0 0 0 0 0 0 0 0 0 0 0 0 0 0 0 0 0 0 0 80 0 77 76 74 73 73 0 0 0 0 6133 0 8177 0 8177 8177 8177 8177 0 0 8177 0 5661 0 0 0 0 0 0 0 0 0 0 0 8177 7359 0 0 0 0 0 0 0 0 0 0 0 6690 7359 8177 8177 6690 8177 8177 8177 8177 0 0 0 5661 7359 5661 5256 5256 5256 5256 4906 4599 0 4088 4088 3679 3873 4088 4906 4906 4329 4329 4599 4599 4906 4599 4906 4088 3873 4088 3679 3873 3679 3679 3504 3345 3504 3679 3504 3504 2830 2943 2943 2943 2628 2628 2537 2453 2537 2537 2453 2299 2299 2230 2230 2164 2164 2164 2164 2164 2164 2102 2230 2164 2230 2164 2164 2164 2230 2164 2230 2044 2044 2102 2102 2102 2044 2102 2044 2044 1989 1989 1936 1936 1887 1936 1936 1989 1989 2102 2044 0 0 0 0 1795 1752 1795 1839 1839 1839 1887 1839 1887 1936 1936 1887 1887 1887 1887 1887 1887 0 0 0 0 0
    0 0 0 0 0 0 0 0 0 0 0 0 0 0 0 0 0 0 0 0 0 0 0 0 0 0 0 0 0 0 0 0 0 0 0 0 0 0 0 0 0 0 0 0 0 0 0 0 0 0 0 0 0 0 0 0 0 0 0 0 0 0 0 0 0 0 0 0 0 4599 4599 4599 4329 5256 4599 5256 4599 5256 4906 5256 5661 8177 7359 0 8177 8177 8177 0 0 0 0 0 0 0 0 0 0 0 0 0 0 0 0 0 0 0 0 0 0 0 0 8177 8177 8177 0 0 0 0 0 0 0 0 0 0 0 0 0 0 0 0 0 0 0 0 0 0 0 0 0 0 0 0 0 0 0 0 80 0 77 76 75 73 0 0 0 0 0 6133 0 8177 0 8177 8177 8177 8177 8177 0 8177 0 5661 0 0 0 0 0 0 0 0 0 0 0 7359 7359 0 0 8177 8177 8177 0 0 0 0 0 0 7359 8177 8177 8177 7359 8177 8177 8177 8177 0 0 0 6690 8177 6133 5661 5661 5661 5661 5256 5256 0 4329 4088 3679 4088 4088 5256 4906 4329 4599 4599 4906 4906 4906 4906 3873 3679 3873 3504 3504 3504 3345 3199 3199 3199 3504 3345 3345 2943 3066 3066 2943 2628 2628 2537 2537 2628 2537 2453 2299 2299 2230 2164 2164 2164 2164 2164 2102 2164 2102 2230 2164 2164 2164 2164 2164 2230 2102 2230 2044 2044 2102 2102 2102 2044 2044 2044 2044 1989 2044 1936 1936 1887 1936 1936 1936 1936 1936 1887 1936 1839 1839 1795 1752 1752 1752 1839 1839 1887 1887 1839 1887 1936 1936 1936 1936 1936 1887 1936 1936 0 0 0 0 0
    0 0 0 0 0 0 0 0 0 0 0 0 0 0 0 0 0 0 0 0 0 0 0 0 0 0 0 0 0 0 0 0 0 0 0 0 0 0 0 0 0 0 0 0 0 0 0 0 0 0 0 0 0 0 0 0 0 0 0 0 0 0 0 0 0 0 0 0 0 4599 4599 4329 4088 4906 4329 4906 4329 4906 4906 4906 5661 8177 8177 0 0 0 0 0 0 0 0 0 0 0 0 0 0 0 0 0 0 0 0 0 0 0 0 0 0 0 0 0 0 0 0 0 0 0 0 0 0 0 0 0 0 0 0 0 0 0 0 0 0 0 0 0 0 0 0 0 0 0 0 0 0 0 0 0 0 76 0 0 0 0 0 0 0 6133 0 8177 0 7359 7359 7359 7359 8177 8177 7359 0 5661 0 0 0 0 0 0 0 0 0 0 0 7359 6690 0 0 8177 8177 8177 0 0 0 0 0 0 0 0 8177 8177 7359 8177 8177 8177 8177 0 0 0 7359 0 7359 6690 6690 6690 6133 5661 5661 6133 4088 3873 3679 3873 4088 5256 4906 4906 4906 4906 4906 5256 5256 5256 4088 3873 3873 3345 3504 3345 3345 3066 3199 3199 3345 3345 3199 2943 3066 2943 2830 2628 2537 2453 2453 2537 2453 2374 2299 2230 2230 2230 2164 2164 2164 2164 2102 2164 2102 2164 2164 2164 2164 2164 2102 2230 2102 2230 2044 2044 2102 2044 2044 1989 2044 2044 2044 1989 1989 1936 1936 1887 1989 1936 1936 1887 1839 1795 1795 1711 1752 1711 1711 1711 1752 1795 1839 1887 1936 1887 1936 2044 2044 2102 2044 2044 1936 1989 1989 0 0 0 0 0
    0 0 0 0 0 0 0 0 0 0 0 0 0 0 0 0 0 0 0 0 0 0 0 0 0 0 0 0 0 0 0 0 0 0 0 0 0 0 0 0 0 0 0 0 0 0 0 0 0 0 0 0 0 0 0 0 0 0 0 0 0 0 0 0 0 0 0 0 0 4329 4599 4088 4088 4906 4329 4906 4329 4599 4906 4599 5661 0 0 0 0 0 0 0 0 0 0 0 0 0 0 0 0 0 0 0 0 0 0 0 0 0 0 0 0 0 0 0 0 0 0 0 0 0 0 0 0 0 0 0 0 0 0 0 0 0 0 0 0 0 0 0 0 0 0 0 0 0 0 0 0 0 0 0 0 0 2537 2374 1936 0 0 0 0 8177 0 7359 8177 7359 7359 7359 7359 7359 8177 7359 8177 5661 0 0 0 0 0 0 0 0 0 0 0 7359 7359 8177 0 8177 8177 0 0 0 0 0 0 0 0 0 0 0 7359 0 0 0 0 0 0 0 8177 0 8177 8177 8177 7359 6690 6690 6133 6133 4088 4088 3679 4088 4088 5256 4906 4906 4906 4599 4906 5256 4906 5256 3873 3873 3873 3504 3504 3345 3199 3066 3066 3066 3199 3066 2943 2830 2943 2830 2725 2453 2453 2374 2453 2453 2453 2374 2299 2230 2299 2230 2230 2164 2230 2164 2102 2164 2164 2164 2164 2164 2164 2164 2102 2230 2102 2230 2044 2044 2102 2044 2044 1989 2044 1989 2044 1989 1989 1887 1989 1887 1989 1936 1936 1887 1795 1711 1711 1635 1672 1672 1672 1711 1711 1795 1839 1887 1936 1936 1989 2102 2164 2230 2102 2102 2044 2044 2044 0 0 0 0 0
    0 0 0 0 0 0 0 0 0 0 0 0 0 0 0 0 0 0 0 0 0 0 0 0 0 0 0 0 0 0 0 0 0 0 0 0 0 0 0 0 0 0 0 0 0 0 0 0 0 0 0 0 0 0 0 0 0 0 0 0 0 0 0 0 0 0 0 0 0 4329 4329 4088 4088 4599 4329 4599 4329 4599 4599 4329 5256 8177 8177 0 0 0 0 0 0 8177 0 0 0 0 0 0 0 0 0 0 0 0 0 0 0 0 0 0 0 0 0 0 0 0 0 0 0 0 0 0 0 0 0 0 0 0 0 0 0 0 0 0 0 0 0 0 0 0 0 0 0 0 0 0 0 0 0 0 0 0 2628 2374 0 0 0 0 0 8177 0 7359 8177 7359 7359 7359 7359 7359 8177 8177 0 6133 0 0 0 0 0 0 0 0 0 0 0 8177 8177 8177 0 8177 0 0 0 0 0 0 0 0 0 0 0 0 8177 0 0 0 0 0 0 0 0 0 0 0 0 8177 7359 7359 6690 6133 4329 4329 3504 4088 4088 5256 4599 4599 4599 4599 4599 5256 4906 5256 3873 4088 3873 3504 3504 3345 3199 3066 3066 3066 3066 3066 2830 2830 2943 2725 2725 2453 2453 2299 2374 2453 2374 2299 2299 2230 2299 2164 2299 2164 2230 2164 2102 2164 2164 2164 2102 2102 2164 2102 2102 2164 2102 2230 2044 2044 2102 2044 2044 1989 1989 1989 1989 1989 1936 1839 1795 1752 1752 1711 1672 1635 1533 1533 1565 1565 1599 1672 1672 1711 1711 1795 1839 1887 1936 1989 1989 2044 2164 2164 2102 2164 2044 2044 2044 0 0 0 0 0
    0 0 0 0 0 0 0 0 0 0 0 0 0 0 0 0 0 0 0 0 0 0 0 0 0 0 0 0 0 0 0 0 0 0 0 0 0 0 0 0 0 0 0 0 0 0 0 0 0 0 0 0 0 0 0 0 0 0 0 0 0 0 0 0 0 0 0 0 0 4329 4599 4088 4088 4599 4088 4599 4329 4599 4599 4088 5256 8177 7359 0 0 0 0 0 0 7359 0 0 0 0 0 0 0 0 0 0 0 0 0 0 0 0 0 0 0 0 0 0 0 0 0 0 0 0 0 0 0 0 0 0 0 0 0 0 0 0 0 0 0 0 0 0 0 0 0 0 0 0 0 0 8177 0 8177 9199 0 6690 0 2628 0 0 0 0 0 6690 7359 6690 7359 6690 6690 7359 7359 7359 8177 8177 0 6690 0 0 0 0 0 0 0 0 0 0 0 8177 8177 8177 0 0 0 0 0 0 0 0 0 0 0 0 0 0 8177 0 0 0 0 0 0 0 0 0 0 0 0 0 8177 8177 7359 6133 4599 4329 3504 4088 4088 4906 4599 4599 4599 4599 4599 5256 4599 4906 3873 4088 3873 3504 3504 3199 3199 3066 3066 3066 3066 3066 2830 2830 2943 2725 2725 2453 2453 2299 2374 2453 2374 2299 2299 2164 2299 2164 2299 2164 2230 2164 2102 2164 2102 2102 2102 2102 2102 2044 2102 2164 2044 2230 2044 2102 2102 2044 2044 2044 2044 2044 1989 1936 1887 1839 1711 1672 1635 1599 1533 1533 1501 1471 1533 1599 1599 1635 1711 1711 1711 1752 1795 1839 1887 1936 1936 1989 2164 2102 2102 2230 2102 2102 2102 0 0 0 0 0
    0 0 0 0 0 0 0 0 0 0 0 0 0 0 0 0 0 0 0 0 0 0 0 0 0 0 0 0 0 0 0 0 0 0 0 0 0 0 0 0 0 0 0 0 0 0 0 0 0 0 0 0 0 0 0 0 0 0 0 0 0 0 0 0 0 0 0 0 0 4329 4329 4088 4088 4599 4088 4599 4599 5256 4906 4906 6133 0 0 0 0 0 0 0 0 6690 0 0 0 0 0 0 0 0 0 0 0 0 0 0 0 0 0 0 0 0 0 0 0 0 0 0 0 0 0 0 0 0 0 0 0 0 0 0 0 0 0 0 0 0 0 0 0 0 0 0 0 0 8177 8177 7359 8177 8177 7359 0 7359 3679 0 0 0 0 0 0 6133 7359 6133 7359 6690 6690 7359 7359 7359 8177 8177 0 6133 0 0 0 0 0 0 0 0 0 0 0 8177 0 8177 0 0 0 0 0 0 0 0 0 8177 0 0 0 0 0 0 0 0 0 8177 9199 8177 0 0 0 0 0 0 0 8177 8177 6133 4599 4329 3504 4329 4088 4906 4329 4599 4599 4599 4599 5256 4599 4906 3873 4088 3679 3504 3345 3199 3199 2943 2943 2943 2943 2943 2830 2725 2830 2725 2628 2453 2453 2299 2299 2374 2374 2230 2230 2164 2299 2164 2230 2102 2230 2164 2102 2164 2102 2102 2102 2044 2102 2044 2044 2102 2044 2164 2102 2102 2164 2044 2044 2044 2044 2044 1989 1936 1887 1839 1599 1635 1599 1501 1471 1471 1471 1471 1501 1599 1565 1599 1672 1711 1711 1752 1795 1795 1839 1887 1839 1887 2044 2044 2102 2230 2102 2102 2102 0 0 0 0 0
    0 0 0 0 0 0 0 0 0 0 0 0 0 0 0 0 0 0 0 0 0 0 0 0 0 0 0 0 0 0 0 0 0 0 0 0 0 0 0 0 0 0 0 0 0 0 0 0 0 0 0 0 0 0 0 0 0 0 0 0 0 0 0 0 0 0 0 0 0 4088 4329 3873 3873 4329 4088 4329 4599 5256 5256 5661 6690 0 0 0 0 0 8177 8177 8177 5661 8177 8177 8177 8177 8177 0 8177 0 0 0 0 0 0 0 0 0 0 0 0 0 0 0 0 0 0 0 0 0 0 0 0 0 0 0 0 0 0 0 0 0 0 0 0 0 0 0 0 0 0 8177 8177 8177 7359 7359 6690 7359 7359 7359 6690 7359 0 0 0 0 0 0 0 6133 8177 6690 8177 7359 7359 7359 7359 7359 8177 8177 0 6133 0 7359 0 0 0 0 0 0 0 0 0 0 0 0 0 0 0 0 0 0 0 0 0 8177 0 0 0 0 0 0 0 0 0 8177 8177 8177 0 0 0 0 0 0 0 0 0 6133 4599 4088 3504 4329 4088 4599 4329 4599 4599 4599 4599 5256 4329 4599 3873 3873 3679 3504 3345 3199 3199 2943 2943 2943 2943 2943 2830 2725 2830 2725 2628 2453 2453 2230 2299 2374 2299 2164 2299 2164 2230 2164 2230 2102 2230 2164 2164 2230 2164 2164 2164 2102 2164 2102 2044 2102 2044 2164 2102 2164 2164 2102 2044 2044 2044 2044 1989 1887 1839 1795 1501 1599 1533 1443 1443 1443 1443 1443 1471 1599 1501 1565 1635 1672 1672 1711 1752 1752 1839 1839 1839 1839 1989 1989 2044 2164 2044 2044 2102 0 0 0 0 0
    0 0 0 0 0 0 0 0 0 0 0 0 0 0 0 0 0 0 0 0 0 0 0 0 0 0 0 0 0 0 0 0 0 0 0 0 0 0 0 0 0 0 0 0 0 0 0 0 0 0 0 0 0 0 0 0 0 0 0 0 0 0 0 0 0 0 0 0 0 4329 4088 4088 4088 4088 4329 4599 4599 5661 5661 6133 6690 8177 8177 0 8177 8177 7359 7359 7359 5256 7359 7359 7359 7359 7359 7359 7359 0 0 0 0 0 0 0 0 0 0 0 0 0 0 0 0 0 0 0 0 0 0 0 0 0 0 0 0 0 0 0 0 0 0 0 0 0 0 0 0 0 0 8177 8177 7359 7359 7359 6133 7359 6690 6690 6133 6690 0 0 0 0 0 0 0 8177 0 7359 8177 7359 8177 8177 7359 8177 8177 8177 0 6133 0 7359 0 0 0 0 0 0 0 0 0 0 0 0 0 0 0 0 0 8177 0 8177 0 7359 0 0 0 0 0 0 0 0 0 8177 7359 7359 0 0 0 0 0 0 0 0 0 6133 4906 3873 3504 4599 4088 4599 4599 4599 4599 4599 4906 4906 4329 4599 3873 4088 3873 3504 3504 3199 3345 3066 2943 3066 2943 2830 2830 2725 2830 2628 2537 2453 2374 2164 2299 2299 2299 2164 2299 2164 2230 2102 2230 2102 2164 2164 2230 2230 2230 2230 2230 2164 2230 2102 2102 2164 2102 2164 2164 2164 2164 2044 2044 2044 1989 2044 1936 1839 1795 1711 1471 1533 1501 1415 1415 1415 1443 1443 1443 1533 1501 1501 1599 1672 1672 1711 1711 1711 1795 1752 1752 1752 1839 1839 1887 2102 1989 1989 2044 0 0 0 0 0
    0 0 0 0 0 0 0 0 0 0 0 0 0 0 0 0 0 0 0 0 0 0 0 0 0 0 0 0 0 0 0 0 0 0 0 0 0 0 0 0 0 0 0 0 0 0 0 0 0 0 0 0 0 0 0 0 0 0 0 0 0 0 0 0 0 0 0 0 0 4329 3873 3873 4088 4088 4088 4329 4906 5661 5661 6690 7359 0 0 0 0 0 0 8177 8177 5256 7359 7359 6690 6690 6690 6690 6133 8177 0 0 0 0 0 0 0 0 0 0 0 0 0 0 0 0 0 0 0 0 0 0 0 0 0 0 0 0 0 0 0 0 0 0 0 0 0 0 0 0 0 0 8177 8177 8177 7359 6690 7359 7359 7359 0 0 0 0 0 0 0 0 0 0 0 8177 0 8177 0 0 8177 8177 8177 8177 0 6690 0 6690 0 0 0 0 0 0 0 0 0 0 0 0 0 0 0 0 0 0 0 0 0 8177 0 0 0 0 0 0 0 0 0 8177 8177 7359 0 0 0 0 0 0 0 0 0 6133 4599 4088 3679 4599 4088 4599 4329 4599 4599 4599 4599 4599 4329 4599 3679 4088 3679 3504 3504 3345 3345 3066 2943 3066 2830 2830 2725 2725 2725 2453 2537 2374 2374 2164 2299 2299 2299 2164 2374 2102 2164 2102 2230 2044 2164 2102 2230 2164 2299 2299 2299 2230 2299 2164 2102 2164 2102 2164 2102 2102 2102 1989 1989 1989 1936 1936 1839 1752 1672 1565 1443 1471 1443 1388 1388 1388 1415 1415 1443 1501 1443 1471 1533 1565 1565 1635 1635 1635 1711 1635 1672 1672 1752 1752 1839 1989 1936 1936 1989 0 0 0 0 0
    0 0 0 0 0 0 0 0 0 0 0 0 0 0 0 0 0 0 0 0 0 0 0 0 0 0 0 0 0 0 0 0 0 0 0 0 0 0 0 0 0 0 0 0 0 0 0 0 0 0 0 0 0 0 0 0 0 0 0 0 0 0 0 0 0 0 0 0 0 4329 3873 3873 3873 4088 4088 4329 4906 5256 5661 6690 7359 0 0 0 0 0 0 0 0 5256 6690 6690 6133 6133 5661 5661 5661 7359 0 0 0 0 0 0 0 0 0 0 0 0 0 0 0 0 0 0 0 0 0 0 0 0 0 0 0 0 0 0 0 0 0 0 0 0 0 0 0 0 0 0 0 8177 8177 7359 7359 8177 8177 8177 0 0 0 0 0 0 0 0 0 0 0 0 0 0 0 0 0 0 0 8177 0 7359 0 6690 0 0 0 0 0 0 0 0 0 0 0 0 0 0 0 0 0 0 0 0 0 0 0 0 0 0 0 0 0 0 0 8177 8177 8177 0 0 0 0 0 0 0 0 0 6133 4599 4088 3679 4329 4088 4599 4329 4599 4599 4599 4599 4599 4329 4599 3679 3873 3679 3504 3504 3345 3199 3066 2943 2943 2830 2725 2628 2628 2628 2374 2453 2299 2299 2102 2230 2230 2230 2102 2299 2044 2102 2044 2164 2044 2102 2102 2230 2164 2299 2299 2374 2299 2299 2164 2102 2164 2102 2164 2102 2102 2044 1936 1936 1936 1839 1839 1752 1599 1501 1471 1388 1443 1415 1388 1388 1388 1415 1415 1415 1471 1415 1415 1443 1471 1471 1501 1501 1565 1672 1533 1501 1565 1672 1711 1795 1936 1887 1839 1936 0 0 0 0 0
    0 0 0 0 0 0 0 0 0 0 0 0 0 0 0 0 0 0 0 0 0 0 0 0 0 0 0 0 0 0 0 0 0 0 0 0 0 0 0 0 0 0 0 0 0 0 0 0 0 0 0 0 0 0 0 0 0 0 0 0 0 0 0 0 0 0 0 0 0 4599 3873 3873 3873 4088 4088 4329 4906 5256 5256 6690 6690 8177 8177 0 0 0 0 0 0 4906 6133 6133 6133 5661 5661 5256 4906 6133 0 0 0 0 0 0 0 0 0 0 0 0 0 0 0 0 0 0 0 0 0 0 0 0 0 0 0 0 0 0 0 0 0 0 0 0 0 0 0 0 0 0 0 8177 8177 7359 7359 8177 8177 8177 0 0 0 0 0 0 0 0 0 0 0 0 0 0 0 0 0 0 0 0 0 8177 0 6690 0 0 0 0 0 0 0 0 0 0 0 0 0 0 0 0 0 0 0 0 0 0 0 0 0 0 0 0 0 0 0 8177 8177 7359 0 0 0 0 0 0 0 0 0 6690 5256 4599 4088 4599 4329 4599 4329 4599 4599 4599 4599 4329 4088 4329 3504 3679 3504 3345 3345 3199 3199 3066 2943 2943 2830 2628 2537 2628 2537 2374 2453 2299 2299 2102 2230 2230 2164 2102 2299 2044 2102 2044 2102 2044 2102 2102 2230 2164 2299 2299 2374 2299 2299 2230 2164 2164 2102 2164 2102 2044 1989 1887 1887 1887 1839 1795 1672 1471 1415 1388 1362 1388 1388 1362 1362 1362 1388 1388 1388 1415 1362 1362 1388 1362 1388 1388 1415 1443 1565 1415 1388 1415 1501 1599 1672 1795 1795 1752 1887 0 0 0 0 0
    0 0 0 0 0 0 0 0 0 0 0 0 0 0 0 0 0 0 0 0 0 0 0 0 0 0 0 0 0 0 0 0 0 0 0 0 0 0 0 0 0 0 0 0 0 0 0 0 0 0 0 0 0 0 0 0 0 0 0 0 0 0 0 0 0 0 0 0 0 4599 3873 4088 3873 4088 4329 4329 4906 5256 5256 6133 6690 7359 7359 8177 8177 8177 0 8177 0 4599 6133 6133 5661 5661 5256 4906 4599 5661 0 0 0 0 0 0 0 0 0 0 0 0 0 0 0 0 0 0 0 0 0 0 0 0 0 0 0 0 0 0 0 0 0 0 0 0 0 0 0 0 0 0 0 8177 8177 7359 7359 7359 8177 8177 0 0 0 0 0 0 0 0 0 0 0 0 0 0 0 0 0 0 0 0 0 8177 0 6133 0 0 0 0 0 0 0 0 0 0 0 0 0 0 0 0 0 0 0 0 0 0 0 0 0 0 0 0 0 0 0 7359 7359 6133 0 0 0 0 0 0 0 0 0 6133 5256 4599 4088 4329 4329 4599 4599 4906 4599 4906 4599 4329 4088 3873 3345 3345 3199 3199 3066 3066 3066 2943 2830 2943 2830 2725 2628 2628 2628 2453 2453 2374 2374 2102 2299 2230 2164 2044 2164 1989 2044 1989 2102 1989 2044 2102 2230 2164 2299 2299 2374 2299 2374 2299 2230 2230 2164 2102 2102 1989 1936 1839 1839 1839 1795 1752 1635 1415 1415 1388 1338 1388 1388 1362 1362 1362 1388 1388 1362 1388 1362 1338 1338 1314 1314 1338 1362 1388 1443 1362 1338 1362 1362 1443 1501 1635 1672 0 0 0 0 0 0 0
    0 0 0 0 0 0 0 0 0 0 0 0 0 0 0 0 0 0 0 0 0 0 0 0 0 0 0 0 0 0 0 0 0 0 0 0 0 0 0 0 0 0 0 0 0 0 0 0 0 0 0 0 0 0 0 0 0 0 0 0 0 0 0 0 0 0 0 0 0 4599 3873 4088 3873 4088 4329 4329 4906 4906 5256 6133 6690 6690 7359 8177 8177 0 0 0 0 5661 7359 7359 6133 6133 6133 5661 5256 6690 0 0 0 0 0 0 0 0 0 0 0 0 0 0 0 0 0 0 0 0 0 0 0 0 0 0 0 0 0 0 0 0 0 0 0 0 0 0 0 0 0 0 0 0 0 8177 8177 7359 8177 8177 0 0 0 0 0 0 0 0 0 0 0 0 0 0 0 0 0 0 0 0 0 8177 8177 5256 8177 8177 0 0 0 0 0 0 0 0 0 0 0 0 0 0 0 0 0 0 0 0 0 0 0 0 0 0 0 0 0 7359 6690 5661 8177 0 0 8177 8177 8177 8177 7359 8177 6133 5256 4329 4329 4329 4599 4599 4906 4906 4906 4906 4906 4329 4088 3679 3199 3199 3066 3066 3066 2943 2943 2943 2830 2830 2830 2725 2725 2628 2628 2537 2453 2453 2453 2164 2299 2230 2164 2044 2102 1989 1989 1989 2044 1936 1989 2044 2230 2230 2374 2374 2453 2374 2453 2374 2299 2299 2164 2044 2044 1887 1839 1752 1752 1752 1752 1672 1501 1362 1362 1362 1338 1362 1362 1362 1362 1362 1388 1362 1362 1362 1338 1314 1314 1291 1291 1291 1314 1314 1362 1291 1268 1291 1291 1362 0 0 0 0 0 0 0 0 0 0
    0 0 0 0 0 0 0 0 0 0 0 0 0 0 0 0 0 0 0 0 0 0 0 0 0 0 0 0 0 0 0 0 0 0 0 0 0 0 0 0 0 0 0 0 0 0 0 0 0 0 0 0 0 0 0 0 0 0 0 0 0 0 0 0 0 0 0 0 0 4599 3873 4088 3873 4088 4329 4329 4906 4906 5256 6133 6133 6690 7359 8177 8177 0 0 0 0 6690 8177 8177 7359 6690 6690 6690 6133 8177 0 0 0 0 0 0 0 0 0 0 0 0 0 0 0 0 0 0 0 0 0 0 0 0 0 0 0 0 0 0 0 0 0 0 0 0 0 0 0 0 0 0 0 0 0 8177 8177 8177 8177 8177 0 0 0 0 0 0 0 0 0 0 0 0 0 0 0 0 0 0 0 0 0 7359 8177 4906 7359 7359 7359 0 0 0 0 0 0 0 0 8177 0 0 0 0 0 8177 0 0 0 0 0 0 0 0 0 0 0 0 0 7359 6690 4906 7359 8177 7359 7359 7359 7359 7359 7359 8177 6690 5661 4906 4599 4599 4906 4906 5256 5256 5256 5256 4906 4329 4088 3679 3199 3066 2943 2943 2943 2943 2943 2943 2943 2830 2830 2725 2725 2628 2628 2537 2453 2453 2453 2230 2299 2230 2164 1989 1989 1936 1887 1887 1989 1887 1936 2044 2164 2230 2374 2374 2453 2374 2453 2453 2299 2299 2164 2044 1989 1839 1752 1711 1672 1711 1672 1599 1471 1388 1362 1362 1338 1362 1362 1338 1362 1338 1388 1362 1338 1338 1314 1314 1291 1268 1268 1268 1291 1291 1314 1268 1226 1268 1268 0 0 0 0 0 0 0 0 0 0 0
    0 0 0 0 0 0 0 0 0 0 0 0 0 0 0 0 0 0 0 0 0 0 0 0 0 0 0 0 0 0 0 0 0 0 0 0 0 0 0 0 0 0 0 0 0 0 0 0 0 0 0 0 0 0 0 0 0 0 0 0 0 0 0 0 0 0 0 0 0 4906 3873 4088 4088 4088 4329 4329 4906 4906 5256 6133 6133 6690 7359 8177 8177 8177 0 8177 0 6690 0 8177 8177 7359 7359 7359 7359 0 0 0 0 0 0 0 0 0 0 0 0 0 0 0 0 0 0 0 0 0 0 0 0 0 0 0 0 0 0 0 0 0 0 0 0 0 0 0 0 0 0 0 0 0 0 8177 0 8177 8177 8177 9199 8177 0 0 0 0 0 0 0 0 0 0 0 0 0 0 0 0 0 0 0 8177 8177 4599 6690 7359 7359 8177 8177 8177 8177 8177 0 0 0 8177 0 0 0 0 0 8177 0 0 0 0 0 0 0 0 0 0 0 0 0 7359 7359 4329 6690 7359 6690 6133 6690 6690 6133 6133 8177 5661 5256 4906 4599 4599 4599 5256 5256 5256 5256 5256 4906 4329 3873 3679 3066 2943 2943 2943 2943 2943 2943 2943 2943 2830 2830 2830 2725 2725 2628 2537 2537 2453 2453 2299 2374 2230 2164 2044 2044 1936 1936 1887 1989 1887 1936 2044 2164 2230 2374 2374 2453 2374 2453 2374 2299 2374 2164 2044 1936 1795 1711 1635 1635 1672 1635 1533 1471 1388 1362 1362 1338 1338 1338 1338 1338 1338 1362 1338 1338 1314 1314 1314 1314 1291 1291 1268 1291 1291 1291 1247 1226 1247 0 0 0 0 0 0 0 0 0 0 0 0
    0 0 0 0 0 0 0 0 0 0 0 0 0 0 0 0 0 0 0 0 0 0 0 0 0 0 0 0 0 0 0 0 0 0 0 0 0 0 0 0 0 0 0 0 0 0 0 0 0 0 0 0 0 0 0 0 0 0 0 0 0 0 0 0 0 0 0 0 0 5256 4329 4599 4329 4329 4599 4599 5256 5256 5661 6133 6133 6690 7359 8177 8177 0 0 0 0 8177 0 0 0 8177 8177 8177 8177 0 0 0 0 0 0 0 0 0 0 0 0 0 0 0 0 0 0 0 0 0 0 0 0 0 0 0 0 0 0 0 0 0 0 0 0 0 0 0 0 0 0 0 0 0 0 0 0 8177 0 0 0 0 0 0 0 0 0 0 0 0 0 0 0 0 0 0 0 0 0 0 0 0 0 4906 6690 7359 7359 0 8177 8177 8177 8177 0 0 0 8177 0 0 0 0 0 8177 0 0 0 0 0 0 0 0 0 0 0 0 0 7359 7359 4088 6133 6690 5661 5256 5256 5661 4906 5256 6133 5256 5256 4599 4599 4906 4599 5256 5256 5256 5256 5256 4906 4329 3873 3873 3066 2943 2943 2943 2943 2943 2943 2943 2943 2830 2830 2830 2830 2725 2628 2628 2537 2453 2537 2299 2374 2230 2164 2044 2044 1989 1936 1887 1936 1887 1936 2044 2164 2230 2374 2374 2453 2374 2374 2374 2299 2299 2164 1989 1887 1752 1672 1599 1599 1599 1533 1471 1415 1362 1362 1338 1338 1338 1338 1338 1338 1338 1362 1338 1314 1291 1314 1314 1314 1291 1291 1291 1314 1291 1314 1247 1226 1247 0 0 0 0 0 0 0 0 0 0 0 0
    0 0 0 0 0 0 0 0 0 0 0 0 0 0 0 0 0 0 0 0 0 0 0 0 0 0 0 0 0 0 0 0 0 0 0 0 0 0 0 0 0 0 0 0 0 0 0 0 0 0 0 0 0 0 0 0 0 0 0 0 0 0 0 0 0 0 0 0 0 5256 4329 4599 4329 4599 4906 4599 5256 5256 5661 6133 6690 7359 8177 8177 0 0 0 0 0 0 0 0 0 0 0 0 8177 0 0 0 0 0 0 0 0 0 0 0 0 0 0 0 0 0 0 0 0 0 0 0 0 0 0 0 0 0 0 0 0 0 0 0 0 0 0 0 0 0 0 0 0 0 0 0 0 8177 0 0 0 0 0 0 0 0 0 0 0 0 0 0 0 0 0 0 0 0 0 0 0 0 0 4599 6690 6690 7359 8177 8177 8177 8177 8177 0 0 0 0 0 0 0 0 0 8177 0 0 0 0 0 0 0 0 0 0 0 0 0 7359 6690 4088 5661 6690 5661 4906 5256 5256 4906 5256 6133 5256 5256 4599 4906 4906 4599 5256 5256 5256 5256 5256 4906 4599 3873 3873 3066 2943 2830 2830 2943 2943 2830 2830 2830 2725 2830 2943 2830 2725 2628 2628 2537 2537 2537 2374 2374 2230 2164 2102 2044 1989 1936 1936 1989 1936 1989 2044 2164 2230 2374 2299 2453 2374 2374 2374 2299 2299 2164 1989 1839 1711 1635 1565 1533 1501 1443 1415 1388 1362 1362 1338 1314 1314 1338 1338 1338 1314 1338 1291 1268 1268 1291 1314 1314 1291 0 0 1314 1291 1291 1247 0 0 0 0 322 322 324 0 0 0 0 0 0 0
    0 0 0 0 0 0 0 0 0 0 0 0 0 0 0 0 0 0 0 0 0 0 0 0 0 0 0 0 0 0 0 0 0 0 0 0 0 0 0 0 0 0 0 0 0 0 0 0 0 0 0 0 0 0 0 0 0 0 0 0 0 0 0 0 0 0 0 0 0 5256 4329 4599 4329 4906 5256 4906 5256 5256 5661 6133 6690 7359 7359 8177 0 0 0 0 0 0 0 0 0 0 0 0 0 0 0 0 0 0 0 0 0 0 0 0 0 0 0 0 0 0 0 0 0 0 0 0 0 0 0 0 0 0 0 0 0 0 0 0 0 0 0 0 0 0 0 0 0 0 0 9199 0 7359 0 0 0 0 0 0 0 0 0 0 0 0 0 0 0 0 0 0 0 0 0 8177 0 0 8177 4329 6133 6133 6690 7359 8177 7359 8177 8177 0 0 0 0 0 0 0 0 0 8177 0 0 0 8177 0 0 0 0 0 8177 8177 8177 0 7359 6690 3873 5256 6133 5256 4906 5256 5661 4906 5256 6133 5661 5256 4906 4906 4906 4599 5256 5256 5256 5256 5256 5256 4599 3873 4088 3199 2943 2943 2943 3066 2943 2943 2943 2943 2830 2943 2943 2830 2830 2628 2725 2628 2628 2628 2453 2453 2230 2164 2044 1989 1989 1936 1936 1989 1936 1989 2044 2164 2230 2299 2299 2374 2299 2299 2374 2299 2374 2102 1936 1795 1635 1565 1533 1501 1471 1415 1415 1388 1362 1362 1338 1314 1314 1314 1338 1338 1314 1338 1268 1268 1247 1291 1314 0 0 0 0 0 1291 1314 1247 0 0 322 324 324 322 324 324 0 0 0 0 0 0
    0 0 0 0 0 0 0 0 0 0 0 0 0 0 0 0 0 0 0 0 0 0 0 0 0 0 0 0 0 0 0 0 0 0 0 0 0 0 0 0 0 0 0 0 0 0 0 0 0 0 0 0 0 0 0 0 0 0 0 0 0 0 0 0 0 0 0 0 0 5256 4599 4906 4329 4599 5256 5256 5256 5661 6133 6690 6690 7359 8177 8177 8177 0 0 0 0 0 0 0 0 0 0 0 0 0 0 0 0 0 0 0 0 0 0 0 0 0 0 0 0 0 0 0 0 0 0 0 0 0 0 0 0 0 0 0 0 0 0 0 0 0 0 0 0 0 0 0 0 0 0 0 0 7359 0 0 0 0 9199 0 0 0 0 0 0 0 0 0 0 0 0 0 0 0 0 8177 0 6690 7359 4088 5661 5661 6133 6690 7359 7359 7359 7359 0 0 0 0 0 0 0 0 8177 8177 0 0 0 8177 0 0 0 0 0 8177 8177 8177 0 7359 6133 3873 5661 6133 4906 4906 5256 5256 4906 5256 6133 5661 5256 5256 5256 4906 4599 5256 5256 4906 4906 4906 5256 4599 3679 4329 3345 3199 3199 3066 3199 3066 3066 3066 2943 2943 2943 2943 2943 2830 2725 2830 2725 2628 2628 2537 2537 2299 2230 2102 2044 1989 1936 1936 1989 1936 1989 2044 2164 2164 2230 2230 2374 2230 2230 2299 2230 2299 2164 1936 1795 1635 1565 1533 1471 1471 1443 1415 1388 1362 1388 1338 1314 1314 1314 1314 1314 1291 1314 1247 1268 1247 1314 1314 0 0 0 0 0 1314 1338 1268 319 0 322 324 324 324 325 324 0 0 0 0 0 0
    0 0 0 0 0 0 0 0 0 0 0 0 0 0 0 0 0 0 0 0 0 0 0 0 0 0 0 0 0 0 0 0 0 0 0 0 0 0 0 0 0 0 0 0 0 0 0 0 0 0 0 0 0 0 0 0 0 0 0 0 0 0 0 0 0 0 0 0 0 5256 4906 4906 4329 4599 4906 5256 5256 5661 6690 6690 7359 8177 8177 0 0 0 0 0 0 0 0 0 0 0 0 0 0 0 0 0 0 0 0 0 0 0 0 0 0 0 0 0 0 0 0 0 0 0 0 0 0 0 0 0 0 0 0 0 0 0 0 0 0 0 0 0 0 0 0 0 0 0 0 0 0 8177 0 0 0 0 0 0 8177 0 0 0 0 0 0 0 0 0 0 0 0 0 0 0 0 7359 7359 4088 5661 5256 5661 6690 6690 6690 7359 7359 0 0 0 0 0 0 0 0 8177 8177 0 0 0 7359 0 0 0 0 0 0 0 0 0 7359 6690 4329 6133 6133 5661 5661 6133 5661 5256 5661 6133 5661 5256 5256 4906 4906 4599 5256 4906 4906 4906 4906 5256 4329 3679 4329 3345 3199 3199 3199 3199 3066 3066 3066 2943 2830 2943 2830 2943 2830 2830 2830 2725 2725 2725 2537 2537 2299 2230 2102 2044 2044 1936 1936 1989 1936 1989 2044 2164 2164 2164 2299 2374 2164 2230 2230 2102 2164 1936 1795 1711 1533 1501 1501 1471 1471 1443 1443 1415 1388 1415 1362 1338 1338 1314 1314 1314 1291 1314 1247 1268 1247 0 0 0 0 0 0 0 1314 1362 1291 319 319 322 324 324 324 325 324 0 0 0 0 0 0
    0 0 0 0 0 0 0 0 0 0 0 0 0 0 0 0 0 0 0 0 0 0 0 0 0 0 0 0 0 0 0 0 0 0 0 0 0 0 0 0 0 0 0 0 0 0 0 0 0 0 0 0 0 0 0 0 0 0 0 0 0 0 0 0 0 0 0 0 0 4906 4906 4906 4088 4906 4906 4906 5256 5661 6690 6690 7359 8177 0 0 0 0 0 0 0 0 0 0 0 0 0 0 0 0 0 0 0 0 0 0 0 0 0 0 0 0 0 0 0 0 0 0 0 0 0 0 0 0 0 0 0 0 0 0 0 0 0 0 0 0 0 0 0 0 0 0 0 0 0 0 0 8177 0 0 0 0 0 0 0 0 0 0 0 0 0 0 0 0 0 0 0 0 0 0 0 9199 8177 4088 5256 5256 5661 6133 6690 6690 7359 7359 0 0 0 0 0 0 0 0 8177 7359 0 0 0 7359 0 0 0 0 0 0 0 0 0 7359 5661 4329 6133 6690 6133 6133 6133 6133 5661 6133 6133 5661 5661 5256 5256 5256 4599 5256 5256 4906 4906 4906 5256 4329 3504 4329 3345 3199 3066 3066 3199 3066 2943 3066 2943 2943 2943 2943 2943 2830 2830 2830 2830 2725 2725 2628 2628 2374 2374 2164 2102 2044 1936 1936 1989 1989 1989 2044 2164 2102 2102 2299 2299 2164 2164 2102 1989 1936 1752 1672 1565 1471 1471 1471 1443 1471 1443 1443 1415 1415 1415 1388 1338 1338 1314 1314 1314 1291 1268 1226 1247 1226 0 0 0 0 0 0 1338 1338 1362 0 319 319 322 324 324 324 324 0 0 0 0 0 0 0
    0 0 0 0 0 0 0 0 0 0 0 0 0 0 0 0 0 0 0 0 0 0 0 0 0 0 0 0 0 0 0 0 0 0 0 0 0 0 0 0 0 0 0 0 0 0 0 0 0 0 0 0 0 0 0 0 0 0 0 0 0 0 0 0 0 0 0 0 0 5256 5256 5256 4088 4906 4599 4906 5256 5661 6690 7359 7359 8177 0 0 0 0 0 0 0 0 0 0 0 0 0 0 0 0 0 0 0 0 0 0 0 0 0 0 0 0 0 0 0 0 0 0 0 0 0 0 0 0 0 0 0 0 0 0 0 0 0 0 0 0 0 0 0 0 0 0 0 0 0 8177 0 7359 0 0 0 0 0 0 0 0 0 0 0 0 0 0 0 0 0 0 0 0 0 0 0 0 8177 4088 5256 5256 5661 6133 6690 6690 7359 7359 0 0 0 0 0 0 0 0 8177 7359 8177 8177 0 6690 0 0 0 0 0 0 0 0 0 6133 3504 3504 5661 6690 6133 6133 6133 6133 6133 6133 6133 5661 5661 5256 5256 5256 4599 5256 5256 4906 4906 4599 4906 4329 3504 4599 3504 3345 3199 3199 3199 3066 2943 3199 2943 2943 2943 2943 2943 2943 2943 2943 2943 2830 2830 2725 2725 2537 2453 2230 2230 2102 1989 0 1989 1989 1989 1989 2164 1989 2102 2230 2230 2102 2102 1989 1839 1795 1635 1565 1471 1415 1471 1443 1443 1443 1443 1443 1415 1443 1443 1388 1362 1338 1314 1314 1314 1291 1268 1206 1247 1226 0 1314 1338 1314 1314 0 1338 1338 1362 0 319 318 0 322 0 324 324 0 0 0 0 0 0 0
    0 0 0 0 0 0 0 0 0 0 0 0 0 0 0 0 0 0 0 0 0 0 0 0 0 0 0 0 0 0 0 0 0 0 0 0 0 0 0 0 0 0 0 0 0 0 0 0 0 0 0 0 0 0 0 0 0 0 0 0 0 0 0 0 0 0 0 0 0 5256 4906 5256 4088 5256 4906 5256 5661 6133 6690 7359 8177 0 0 0 0 0 0 0 0 0 0 0 0 0 0 0 0 0 0 0 0 0 0 0 0 0 0 0 0 0 0 0 0 0 0 0 0 0 0 0 0 0 0 0 0 0 0 0 0 0 8177 8177 0 0 0 0 0 0 8177 8177 8177 0 8177 8177 8177 7359 0 0 0 0 0 0 0 0 0 0 0 0 0 8177 0 0 0 0 0 0 0 8177 0 7359 7359 3873 5256 5256 5661 6133 6690 6690 7359 7359 0 0 0 0 0 0 0 0 8177 7359 8177 8177 0 7359 0 0 0 0 0 0 0 8177 0 4599 2943 2830 4088 5256 4329 5661 6133 6133 6133 6690 6133 5661 5661 5256 5256 5661 4599 5256 5256 4906 4906 4599 5256 4329 3679 4906 3679 3345 3345 3199 3199 3066 2943 3199 2943 2943 2943 2943 2943 2943 2830 2943 2943 2943 2830 2830 2830 2628 2628 2374 2374 2164 2102 1989 2044 2044 2044 1989 2164 1989 2044 2230 2164 2044 1989 1887 1752 1711 1501 1471 1415 1415 1443 1443 1443 1443 1443 1443 1415 1443 1471 1388 1362 1338 1314 1291 1291 1291 1247 1187 1226 1206 0 1314 1314 1314 1314 0 1338 1338 1362 0 319 318 0 322 0 322 324 0 0 0 0 0 0 0
    0 0 0 0 0 0 0 0 0 0 0 0 0 0 0 0 0 0 0 0 0 0 0 0 0 0 0 0 0 0 0 0 0 0 0 0 0 0 0 0 0 0 0 0 0 0 0 0 0 0 0 0 0 0 0 0 0 0 0 0 0 0 0 0 0 0 0 0 0 5256 4906 5661 4329 5256 5256 5256 5661 6133 6690 7359 7359 8177 8177 0 0 0 0 0 0 0 0 0 0 0 0 0 0 0 0 0 0 0 0 0 0 0 0 0 0 0 0 0 0 0 0 0 0 0 0 0 0 0 0 0 0 0 0 0 0 0 8177 8177 0 0 0 0 0 0 8177 8177 8177 0 0 8177 8177 7359 0 0 0 0 0 0 0 0 0 0 8177 0 0 6690 7359 8177 8177 8177 7359 0 0 6690 0 5256 5256 3504 4906 4906 5256 6133 6690 6690 8177 8177 0 0 0 0 0 0 0 0 8177 7359 8177 8177 0 6690 0 0 0 0 0 0 8177 6690 7359 3679 2628 2230 3066 3345 3066 3873 5256 5661 6133 6690 6133 5661 5661 5256 5661 5661 4599 5256 5256 4906 4906 4599 5256 4329 3679 4906 3679 3504 3345 3199 3199 3066 2943 3199 2943 2943 3066 2943 2943 2943 2943 3066 2943 2943 2830 2830 2830 2725 2628 2374 2453 2230 2102 2102 2102 2102 2044 2044 2230 1936 2044 2102 2044 1936 1839 1752 1635 1635 1471 1471 1443 1443 1471 1443 1443 1443 1443 1443 1415 1443 1443 1388 1362 1338 1314 1291 1291 1291 1247 1187 1226 1206 0 1314 1314 1314 1314 1314 1314 1338 1388 0 319 318 0 321 0 0 324 0 0 0 0 0 0 0
    0 0 0 0 0 0 0 0 0 0 0 0 0 0 0 0 0 0 0 0 0 0 0 0 0 0 0 0 0 0 0 0 0 0 0 0 0 0 0 0 0 0 0 0 0 0 0 0 0 0 0 0 0 0 0 0 0 0 0 0 0 0 0 0 0 0 0 0 0 4906 5256 5661 4599 5256 5256 5661 6133 6133 7359 7359 8177 8177 8177 0 0 0 0 0 0 0 0 0 0 0 0 0 0 0 0 0 0 0 0 0 0 0 0 0 0 0 0 0 0 0 0 0 0 0 0 0 0 0 0 0 0 0 0 0 0 0 8177 8177 0 0 0 0 0 0 0 0 0 0 0 8177 8177 8177 0 0 0 0 0 0 0 0 8177 8177 6690 0 6690 5256 0 6690 6133 0 5661 0 0 0 7359 3873 3873 3345 4088 4088 4599 0 0 6690 8177 8177 0 0 0 0 0 0 8177 8177 7359 7359 8177 8177 0 6690 0 0 0 0 0 0 7359 5661 5661 3345 2299 1989 2230 2453 2537 0 4906 5661 6690 6690 6690 6133 5661 5256 5661 6133 4599 5256 5256 4906 4906 4906 5256 4329 3873 4906 3679 3504 3504 3199 3199 2943 2943 3066 2943 2943 3066 2943 3066 3066 3066 3199 3066 3066 2943 2943 2830 2725 2725 2374 2453 2230 2102 2102 2102 2102 2044 2044 2164 1936 1989 2044 1936 1839 1752 1635 1565 1599 1471 1471 1443 1443 1471 1443 1443 1443 1443 1443 1415 1443 1471 1388 1362 1338 1314 1291 1291 1291 1247 1187 1226 1226 0 0 0 1314 1314 0 1314 1314 1362 0 319 318 321 321 0 321 322 0 0 0 0 0 0 0
    0 0 0 0 0 0 0 0 0 0 0 0 0 0 0 0 0 0 0 0 0 0 0 0 0 0 0 0 0 0 0 0 0 0 0 0 0 0 0 0 0 0 0 0 0 0 0 0 0 0 0 0 0 0 0 0 0 0 0 0 0 0 0 0 0 0 0 0 0 5256 5256 5661 4906 5661 5256 6133 6133 6690 7359 8177 8177 8177 8177 0 0 0 0 0 0 0 0 0 0 0 0 0 0 0 0 0 0 0 0 0 0 0 0 0 0 0 0 0 0 0 0 0 0 0 0 0 0 0 0 0 0 0 0 0 0 0 8177 8177 0 0 0 0 0 0 0 0 0 0 0 0 8177 8177 0 0 0 0 0 0 7359 0 6133 6690 5661 0 6133 4329 0 0 0 0 0 0 0 0 0 3504 3345 3066 3679 3679 0 0 0 0 0 0 0 0 0 0 0 8177 8177 8177 7359 7359 8177 8177 0 6690 0 0 0 0 0 0 6133 4329 0 3199 2102 1989 2044 2102 2102 0 0 4906 6133 6690 6690 6133 5661 5661 5661 6133 4599 5256 4906 4906 5256 4906 5256 4329 3873 4906 3873 3504 3504 3199 3066 2943 2830 3066 2943 3066 3066 3066 3066 3066 3199 3345 3199 3199 2943 3066 2943 2830 2830 2453 2453 2230 2164 2102 2102 2044 1989 1989 2102 1887 1887 1887 1795 1752 1635 1565 1533 1565 1443 1443 1443 1415 1443 1443 1443 1443 1443 1471 1415 1471 1471 1388 1388 1388 1338 1291 1291 1314 1268 1226 1247 1226 0 0 0 1314 1314 1314 1314 1314 1362 0 319 319 321 321 0 321 0 0 0 0 0 0 0 0
    0 0 0 0 0 0 0 0 0 0 0 0 0 0 0 0 0 0 0 0 0 0 0 0 0 0 0 0 0 0 0 0 0 0 0 0 0 0 0 0 0 0 0 0 0 0 0 0 0 0 0 0 0 0 0 0 0 0 0 0 0 0 0 0 0 0 0 0 0 5256 5256 6133 5256 5661 5256 6133 6690 6690 7359 8177 8177 0 0 0 0 0 0 0 0 0 0 0 0 0 0 0 0 0 0 0 0 0 0 0 0 0 0 0 0 0 0 0 0 0 0 0 0 0 0 0 0 0 0 0 0 0 0 0 0 0 8177 7359 0 0 0 0 0 0 0 0 0 0 0 0 8177 8177 0 0 0 0 0 0 0 0 0 0 4088 0 0 3504 0 0 0 0 0 0 0 0 0 3345 3199 3066 3504 3504 0 0 0 0 0 0 0 0 0 0 8177 8177 7359 8177 8177 7359 8177 8177 0 6690 0 0 8177 0 0 8177 6133 3873 0 3066 2044 2044 1989 2044 2044 0 0 3873 5256 6133 5661 5661 5661 5661 5661 6133 4599 5256 5256 4906 5256 4906 5256 4329 3873 4906 3679 3504 3345 3066 2943 2830 2725 2943 2943 2943 3066 3066 3066 3199 3066 3345 3199 3199 3066 3066 2943 2830 2830 2537 2537 2299 2230 2164 2102 2102 1989 1936 1989 1795 1752 1752 1672 1635 1565 1533 1501 1533 1443 1471 1443 1443 1443 1443 1443 1443 1443 1471 1415 1471 1471 1415 1415 1388 1362 1314 1314 1338 1268 1247 1268 1226 0 1291 1291 1291 1291 1291 1291 1291 1338 0 319 319 0 0 0 0 0 0 0 0 0 0 0 0
    0 0 0 0 0 0 0 0 0 0 0 0 0 0 0 0 0 0 0 0 0 0 0 0 0 0 0 0 0 0 0 0 0 0 0 0 0 0 0 0 0 0 0 0 0 0 0 0 0 0 0 0 0 0 0 0 0 0 0 0 0 0 0 0 0 0 0 0 0 5256 5256 6690 5256 5661 5256 6133 6690 6133 7359 7359 6690 8177 8177 0 0 0 0 0 0 0 0 0 0 0 0 0 8177 0 0 0 0 0 0 0 0 0 0 0 0 0 0 0 0 0 0 0 0 0 0 0 0 0 0 0 0 0 0 0 0 0 7359 7359 0 0 0 0 0 0 0 0 0 0 8177 8177 8177 8177 8177 0 0 0 7359 4599 0 0 0 0 3504 0 0 3066 0 0 0 0 0 0 0 0 0 3066 2628 2230 0 0 0 0 0 0 0 0 0 0 0 0 8177 7359 7359 8177 8177 7359 8177 8177 8177 6690 8177 0 7359 8177 8177 7359 5661 3873 0 0 1936 0 1887 1887 1887 144 0 0 4906 6133 5661 5661 5661 5256 5661 6133 4599 5256 4906 4906 5256 4906 5256 4329 3873 4906 3873 3504 3345 3066 2830 2830 2628 2943 2830 2943 2943 3066 3066 3199 3066 3345 3199 3066 3066 3066 2943 2943 2830 2628 2628 2374 2299 2230 2102 2044 1936 1887 1936 1752 1711 1672 1599 1599 1533 1501 1501 1533 1471 1471 1443 1443 1443 1443 1443 1443 1415 1471 1415 1471 1471 1415 1443 1415 1388 1338 1338 1338 1291 1268 1268 1226 1247 1247 1268 1268 1247 1247 1268 1268 1291 0 0 318 0 0 0 0 0 0 0 0 0 0 0 0
    0 0 0 0 0 0 0 0 0 0 0 0 0 0 0 0 0 0 0 0 0 0 0 0 0 0 0 0 0 0 0 0 0 0 0 0 0 0 0 0 0 0 0 0 0 0 0 0 0 0 0 0 0 0 0 0 0 0 0 0 0 0 0 0 0 0 0 0 0 5661 5661 6690 5661 5661 5256 5661 6690 6133 6133 6133 5256 7359 8177 8177 8177 8177 0 0 0 0 0 0 0 0 0 0 8177 0 0 0 0 0 0 0 0 0 0 0 0 0 0 0 0 0 0 0 0 0 0 0 0 0 0 0 0 0 0 0 0 8177 7359 7359 0 0 0 0 0 0 0 0 8177 0 8177 8177 8177 8177 0 0 0 9199 5661 0 5256 4599 0 0 3345 0 0 2628 2164 2374 2374 2374 2374 2299 0 2537 2628 2725 2374 2102 0 0 0 0 0 0 0 0 0 0 0 0 8177 7359 8177 8177 8177 7359 8177 8177 8177 6690 7359 8177 6133 6690 7359 6133 4599 3345 0 2725 1989 0 1887 1887 1887 0 0 0 3873 5256 5256 5256 5661 5256 5661 6690 4599 4906 4906 4906 5256 4906 5256 4599 4088 4906 3873 3504 3345 3066 2830 2830 2725 2943 2943 2943 3066 3066 3066 3199 3066 3345 3199 3066 3066 3066 2943 2943 2943 2725 2628 2374 2374 2299 2102 2044 1887 1887 1887 1752 1711 1672 1599 1599 1565 1533 1533 1533 1471 1471 1471 1443 1471 1443 1443 1415 1415 1443 1415 1443 1443 1388 1443 1415 1388 1338 1338 1338 1314 1268 1268 1226 1247 1247 1247 1247 1247 1226 1247 1268 1268 0 0 0 0 0 0 0 0 0 0 0 0 0 0 0
    0 0 0 0 0 0 0 0 0 0 0 0 0 0 0 0 0 0 0 0 0 0 0 0 0 0 0 0 0 0 0 0 0 0 0 0 0 0 0 0 0 0 0 0 0 0 0 0 0 0 0 0 0 0 0 0 0 0 0 0 0 0 0 0 0 0 0 0 0 5661 5661 6690 5661 4906 5256 5661 6690 6133 5661 5661 4599 0 0 0 0 8177 0 0 0 0 0 0 0 0 0 0 8177 0 0 0 8177 0 0 0 0 0 0 0 0 0 0 0 0 0 0 0 0 0 0 0 0 0 0 0 0 0 0 0 0 8177 7359 7359 0 0 0 0 0 0 0 0 0 0 8177 8177 8177 8177 0 0 0 8177 5256 3345 3873 3679 3199 3199 3066 2299 2299 2102 1989 2102 2044 1989 1989 1989 2044 1989 2102 2102 1936 1887 0 0 0 0 0 0 0 0 0 0 0 0 8177 8177 8177 8177 8177 7359 8177 8177 8177 6133 6690 6690 5661 6690 6690 5256 3873 3199 0 2537 1936 1936 1887 1887 1936 1936 2044 0 3199 4329 4906 4906 5256 5661 5661 6690 4599 4906 4906 4906 5256 4906 4906 4599 4329 5256 4329 3679 3504 3199 2943 2943 2830 2943 2943 2943 3066 3066 3066 3199 3066 3199 3199 3066 2943 3066 2943 2943 2830 2725 2628 2374 2453 2299 2102 1936 1887 1839 1887 1711 1711 1635 1599 1565 1565 1533 1533 1533 1501 1501 1471 1443 1471 1443 1443 1415 1415 1443 1388 1415 1415 1388 1415 1388 1388 1338 1338 1362 1338 1291 1291 1247 1247 1247 1247 1268 1247 1247 1268 1268 1291 0 0 0 0 0 0 0 0 0 0 0 0 0 0 0
    0 0 0 0 0 0 0 0 0 0 0 0 0 0 0 0 0 0 0 0 0 0 0 0 0 0 0 0 0 0 0 0 0 0 0 0 0 0 0 0 0 0 0 0 0 0 0 0 0 0 0 0 0 0 0 0 0 0 0 0 0 0 0 0 0 0 0 0 0 5256 5256 6133 5256 4329 4599 4906 6133 5661 4906 6133 6133 0 0 0 0 0 0 0 0 0 0 0 0 0 0 0 8177 0 8177 8177 7359 0 0 0 0 0 0 0 0 0 0 0 0 0 0 0 0 0 0 0 0 0 0 0 0 0 8177 8177 0 8177 7359 7359 0 0 0 0 0 0 0 0 0 0 8177 8177 0 0 0 0 0 0 7359 4599 3679 3345 3066 3066 2453 2164 2164 1989 1936 1989 1989 1936 1936 1936 1936 1887 1936 1936 1839 1887 0 0 0 0 0 0 0 0 0 0 0 0 7359 7359 8177 8177 7359 7359 8177 7359 8177 6133 5661 5661 4599 5661 6133 4329 3679 3199 0 2628 2044 2044 1936 1936 1989 2044 2164 3199 3345 4329 4599 4906 5256 5661 5661 6690 4599 4906 4906 4906 5256 4906 4906 4599 4329 4906 4088 3504 3345 3066 2943 2943 2943 2943 2943 2943 3066 3066 3066 3066 2943 3066 3066 2943 2943 2943 2830 2830 2830 2725 2537 2374 2453 2374 2102 1936 1887 1839 1839 1711 1711 1635 1599 1565 1565 1533 1533 1565 1501 1501 1471 1471 1471 1443 1443 1415 1388 1415 1388 1415 1415 1362 1415 1388 1388 1362 1362 1388 1338 1314 1291 1247 1247 1247 1247 1268 1247 1247 1268 1268 1291 0 0 0 0 0 0 0 0 0 0 0 0 0 0 0
    0 0 0 0 0 0 0 0 0 0 0 0 0 0 0 0 0 0 0 0 0 0 0 0 0 0 0 0 0 0 0 0 0 0 0 0 0 0 0 0 0 0 0 0 0 0 0 0 0 0 0 0 0 0 0 0 0 0 0 0 0 0 0 0 0 0 0 0 0 3873 4088 5256 3679 3345 3345 3345 3873 4906 0 6133 6690 0 0 0 0 0 0 0 0 0 0 0 0 0 0 0 8177 0 8177 8177 7359 0 0 0 0 0 0 0 0 0 0 0 0 0 0 0 0 0 0 0 0 0 0 0 0 8177 8177 8177 0 8177 7359 7359 0 0 0 0 0 0 0 0 0 0 8177 8177 0 0 0 0 0 0 0 7359 3345 0 1887 0 1936 2044 2044 1936 1936 1936 1936 1887 1887 1936 1887 1887 1887 1839 1795 0 0 0 0 0 0 0 0 0 0 0 0 8177 7359 7359 8177 8177 7359 6690 7359 6690 7359 4906 4329 4088 3504 4599 4906 3679 3504 3199 2830 2725 2164 2230 2044 2044 2044 2164 2453 3199 3504 3873 4329 4906 5256 5661 5256 6690 4329 4599 4906 4906 5256 4906 4599 4599 4329 4906 3873 3345 3345 3066 2830 2943 2943 2943 3066 2943 2943 3066 2943 3066 2943 3066 3199 2943 2943 3066 2830 2830 2830 2725 2537 2374 2453 2374 2044 1887 1839 1839 1795 1672 1672 1635 1599 1565 1599 1565 1565 1565 1533 1501 1501 1471 1471 1443 1415 1388 1388 1415 1362 1388 1388 1362 1415 1388 1388 1362 1362 1415 1362 1314 1291 1247 1247 1247 1247 1268 1247 1247 1268 1268 1291 0 0 0 0 0 0 0 0 0 1291 0 0 0 0 0
    0 0 0 0 0 0 0 0 0 0 0 0 0 0 0 0 0 0 0 0 0 0 0 0 0 0 0 0 0 0 0 0 0 0 0 0 0 0 0 0 0 0 0 0 0 0 0 0 0 0 0 0 0 0 0 0 0 0 0 0 0 0 0 0 0 0 0 0 0 3199 3199 3679 2943 2725 2537 2628 2725 0 0 0 0 0 0 0 0 0 0 0 0 0 0 0 0 0 0 0 8177 0 8177 8177 7359 0 0 0 0 0 0 0 0 0 0 0 0 0 0 0 0 0 0 0 0 0 0 0 0 8177 8177 8177 0 8177 7359 7359 0 0 0 0 0 0 8177 8177 8177 8177 7359 8177 8177 8177 0 0 0 0 0 0 0 0 1839 1887 1887 2044 1989 1887 1936 1936 1936 1887 1887 1936 1887 1887 1839 1795 1795 0 0 0 0 0 0 0 0 1752 0 0 0 8177 8177 8177 8177 8177 7359 6133 6690 5661 5661 4088 3504 3345 3066 3679 4329 3345 3345 3066 2830 2725 2230 2299 2044 2044 2044 2164 2374 0 3345 3873 4329 4906 5256 5661 4906 6133 4329 4906 4906 4906 5256 4906 4329 4329 4329 4599 4088 3679 3504 3345 3066 3199 3066 3066 3066 3066 3066 3066 2943 3066 2943 3066 3066 2943 2943 2943 2830 2830 2725 2725 2453 2299 2453 2299 1936 1635 1711 1752 1711 1599 1635 1635 1599 1599 1635 1565 1565 1565 1565 1501 1501 1471 1471 1415 1415 1388 1362 1388 1362 1388 1388 1388 1415 1415 1415 1388 1388 1443 1362 1338 1314 1268 1268 1247 1247 1268 1247 1247 1268 1268 1291 0 0 0 0 0 0 0 0 0 1291 0 0 0 0 0
    0 0 0 0 0 0 0 0 0 0 0 0 0 0 0 0 0 0 0 0 0 0 0 0 0 0 0 0 0 0 0 0 0 0 0 0 0 0 0 0 0 0 0 0 0 0 0 0 0 0 0 0 0 0 0 0 0 0 0 0 0 0 0 0 0 0 0 0 0 2537 2164 2725 2374 2044 1887 1989 1989 0 0 0 0 0 0 0 0 0 0 0 0 0 0 0 0 8177 0 0 8177 0 8177 8177 7359 0 0 0 0 0 0 0 0 0 0 0 0 0 0 0 0 0 0 0 0 0 0 0 0 0 0 0 0 0 8177 8177 0 0 0 0 0 8177 8177 7359 8177 8177 7359 7359 7359 6690 8177 8177 0 0 9199 0 2830 1752 1936 1936 1887 2044 1989 1887 1989 1936 1936 1887 1887 1936 1839 1839 1795 1752 1752 0 0 0 0 0 0 0 1752 1752 0 0 8177 6690 8177 0 8177 8177 7359 6133 5661 4906 4088 3345 3066 2830 2725 3199 3679 3345 3199 3066 2943 2830 2374 2374 2102 2102 2044 2230 2299 0 3199 3873 4088 4906 5256 5661 4906 6133 4599 4906 4906 4906 5256 4906 4329 4329 4599 4599 3873 3504 3504 3345 3345 3504 3345 3199 3199 3199 3066 3066 3066 3066 2830 2943 2943 2830 2725 2830 2725 2725 2628 2537 2299 2230 2299 2230 1887 1471 1635 1711 1672 1599 1635 1635 1599 1599 1635 1599 1565 1599 1565 1533 1501 1471 1471 1415 1415 1388 1362 1388 1362 1388 1415 1388 1443 1415 1443 1415 1415 1471 1388 1362 1314 1268 1268 1247 1247 1268 1247 1247 1268 1268 1291 0 0 0 0 0 0 0 0 1314 1338 0 0 0 0 0
    0 0 0 0 0 0 0 0 0 0 0 0 0 0 0 0 0 0 0 0 0 0 0 0 0 0 0 0 0 0 0 0 0 0 0 0 0 0 0 0 0 0 0 0 0 0 0 0 0 0 0 0 0 0 0 0 0 0 0 0 0 0 0 0 0 0 0 0 0 2044 1839 1839 1795 1635 1672 1635 0 0 0 0 0 0 0 0 0 0 0 0 0 0 0 0 0 8177 8177 0 8177 0 8177 8177 7359 0 0 0 0 0 0 0 0 0 0 0 0 0 0 0 0 0 0 0 0 0 0 0 0 0 0 0 0 0 0 8177 0 0 0 0 0 8177 8177 7359 8177 7359 7359 7359 7359 6690 8177 8177 0 0 8177 9199 2725 1795 1795 1795 1839 1989 1936 1887 1936 1936 1887 1887 1839 1936 1795 1839 1795 1711 1711 1795 0 0 0 0 0 1795 1795 1795 1795 0 6133 5661 7359 0 8177 0 7359 5661 4906 3873 3504 3066 2628 2537 2374 2628 3199 3199 3066 3066 2943 2830 2453 2537 2230 2164 2102 2230 2230 3066 3199 4088 4329 4906 5661 5661 4906 6133 5256 5256 5256 5256 5256 4906 4329 4329 4599 4088 3679 3679 3679 3504 3345 3679 3504 3345 3345 3345 3066 3066 3066 2943 2725 2830 2830 2628 2628 2628 2628 2537 2374 2299 2102 2044 2102 1989 1839 1501 1635 1711 1672 1565 1599 1635 1599 1599 1635 1599 1565 1565 1565 1565 1501 1501 1471 1443 1415 1388 1388 1415 1362 1415 1415 1388 1443 1415 1443 1415 1415 1471 1388 1338 1314 1247 1268 1268 1247 1268 1247 1247 1268 1268 1291 0 0 0 0 0 0 0 0 1314 1338 0 0 0 0 0
    0 0 0 0 0 0 0 0 0 0 0 0 0 0 0 0 0 0 0 0 0 0 0 0 0 0 0 0 0 0 0 0 0 0 0 0 0 0 0 0 0 0 0 0 0 0 0 0 0 0 0 0 0 0 0 0 0 0 0 0 0 0 0 0 0 0 0 0 0 1936 1795 1839 1795 1415 0 0 0 0 1187 0 0 0 0 0 0 0 0 0 0 0 0 0 0 8177 8177 0 8177 9199 8177 7359 6690 0 0 0 0 0 0 0 0 0 0 0 0 0 0 0 0 0 0 0 0 0 0 0 0 0 0 0 0 0 0 8177 0 0 0 0 0 0 0 8177 0 8177 7359 7359 7359 7359 8177 8177 0 0 7359 8177 2830 1711 1752 1795 1795 1989 1936 1839 1936 1887 1887 1839 1839 1887 1795 1795 1752 1711 1711 1795 1752 1752 1711 1672 1672 1795 1795 1795 1795 0 4906 4906 7359 8177 8177 8177 7359 5661 4599 3504 3066 2830 2453 2230 2230 2374 2725 2830 2830 2943 2830 2830 2537 2537 2299 2164 2102 2164 2102 0 3199 4599 4599 5256 5661 5256 4599 6133 5256 5256 5256 5256 5256 4906 4329 4599 4906 4088 3679 3873 3679 3679 3504 3873 3679 3504 3504 3504 3199 3066 3066 2943 2725 2725 2830 2453 2537 2374 2374 2374 2102 2044 1989 1936 1936 1839 1839 1533 1672 1711 1672 1599 1599 1635 1599 1599 1672 1599 1565 1565 1599 1565 1533 1533 1533 1471 1443 1415 1388 1415 1362 1388 1415 1388 1443 1415 1415 1415 1415 1471 1362 1314 1314 1247 1268 1268 1268 1268 1268 1268 1291 1291 1314 1314 0 0 0 0 0 0 0 1314 1338 0 0 0 0 0
    0 0 0 0 0 0 0 0 0 0 0 0 0 0 0 0 0 0 0 0 0 0 0 0 0 0 0 0 0 0 0 0 0 0 0 0 0 0 0 0 0 0 0 0 0 0 0 0 0 0 0 0 0 0 0 0 0 0 0 0 0 0 0 0 0 0 0 0 0 1936 1839 1839 1795 0 0 0 0 0 0 0 0 0 0 0 0 0 0 0 0 0 0 0 0 8177 8177 0 8177 0 8177 7359 6690 0 0 0 0 0 0 0 0 0 0 0 0 0 0 0 0 0 0 0 0 0 0 0 0 0 0 0 0 0 8177 8177 0 0 0 0 0 0 0 0 0 8177 7359 7359 7359 7359 8177 8177 8177 0 8177 0 0 1752 1752 1887 1839 1989 1936 1839 1936 1887 1839 1839 1795 1839 1795 1795 1752 1711 1711 1795 1795 1795 1711 1672 1672 1795 1795 1795 1839 1887 3873 4906 7359 8177 8177 8177 6690 5256 4329 3345 2830 2725 2299 2102 2164 2230 2453 2628 2725 2830 2830 2830 2628 2628 2453 2374 2164 2299 2102 2830 3199 4088 4329 4906 5661 5256 4599 6133 4906 5256 5256 5661 5661 5256 4329 4906 4906 4329 3873 4329 4088 3873 3679 4088 3873 3504 3679 3679 3345 3199 3066 3066 2830 2725 2830 2453 2453 2230 2164 2164 1989 1887 1887 1887 1839 1795 1795 1565 1672 1711 1672 1565 1599 1635 1565 1565 1672 1565 1565 1565 1565 1565 1565 1565 1565 1501 1471 1443 1415 1415 1362 1388 1388 1362 1415 1415 1415 1388 1415 1471 1362 1314 1314 1268 1291 1291 1268 1291 1268 1268 1291 1291 1314 1314 0 0 0 0 0 0 0 1338 1362 0 0 0 0 0
    0 0 0 0 0 0 0 0 0 0 0 0 0 0 0 0 0 0 0 0 0 0 0 0 0 0 0 0 0 0 0 0 0 0 0 0 0 0 0 0 0 0 0 0 0 0 0 0 0 0 0 0 0 0 0 0 0 0 0 0 0 0 0 0 0 0 0 0 0 1887 1795 1887 0 0 0 0 0 0 0 0 0 0 0 0 0 0 0 0 0 0 0 0 8177 7359 8177 8177 7359 8177 8177 7359 6690 0 0 0 0 0 0 0 0 0 0 0 0 0 0 0 0 0 0 0 0 0 0 0 0 0 0 0 0 0 8177 8177 0 0 0 0 0 0 0 0 0 8177 8177 7359 8177 7359 8177 8177 0 0 0 0 0 0 0 1989 1887 2044 1989 1887 1936 1887 1839 1839 1795 1839 1795 1752 1752 1711 1672 1752 1752 1752 1711 1672 1672 1795 1795 1887 1936 2299 3679 5256 7359 8177 8177 8177 6690 5256 4088 3199 2725 2725 2299 2044 2102 2102 2230 2453 2628 2830 2725 2725 2537 2537 2299 2299 2102 2102 1936 0 0 4329 4599 5661 5661 5256 4906 5661 5256 5661 5661 5661 5256 5256 4599 4906 5256 4599 3873 4329 4088 3873 3679 4329 3873 3679 3679 3873 3504 3199 3199 3066 2830 2830 2830 2453 2374 2164 2044 2102 1887 1839 1839 1839 1795 1795 1752 1599 1672 1711 1672 1565 1599 1635 1565 1565 1672 1565 1565 1565 1565 1565 1565 1565 1565 1501 1471 1443 1443 1443 1388 1388 1388 1362 1415 1415 1415 1388 1415 1501 1362 1338 1338 1291 1314 1314 1314 1314 1291 1291 1314 1338 1338 1314 0 0 0 0 0 0 0 1362 1388 0 0 0 0 0
    0 0 0 0 0 0 0 0 0 0 0 0 0 0 0 0 0 0 0 0 0 0 0 0 0 0 0 0 0 0 0 0 0 0 0 0 0 0 0 0 0 0 0 0 0 0 0 0 0 0 0 0 0 0 0 0 0 0 0 0 0 0 0 0 0 0 0 0 0 1887 1839 0 0 340 0 0 0 0 0 0 0 0 0 0 0 0 0 0 0 0 0 0 8177 6690 7359 8177 7359 7359 8177 7359 6690 0 0 0 0 0 0 0 0 0 0 0 0 0 0 0 0 0 0 0 0 0 0 0 0 0 0 0 0 0 8177 8177 0 0 0 0 0 0 0 0 0 0 8177 7359 8177 8177 8177 8177 0 0 0 0 0 0 0 0 1936 2044 1989 1887 1936 1936 1887 1839 1795 1887 1795 1795 1795 1711 1711 1752 1795 1795 1711 1672 1635 1795 1795 1839 1887 1936 3679 5661 7359 7359 7359 7359 6133 5256 3873 3199 2628 2725 2374 2044 2044 2044 2102 2299 2537 2830 2628 2537 2299 2453 2299 2374 2102 2164 1936 2453 2943 4088 4329 5256 5661 4906 4599 5256 4906 5661 5661 5661 5256 5256 4599 4906 5661 4599 3873 4329 4088 4088 3873 4599 3873 3873 3873 4088 3504 3345 3199 3066 2830 2830 2830 2374 2230 2044 1989 1989 1839 1795 1795 1795 1752 1795 1752 1635 1672 1711 1672 1599 1599 1635 1533 1565 1635 1533 1565 1565 1565 1533 1565 1565 1533 1501 1471 1443 1471 1443 1415 1415 1388 1388 1471 1443 1443 1415 1443 1501 1388 1362 1338 1314 1314 1338 1338 1314 1314 1291 1314 1338 1314 1314 0 0 0 0 0 0 0 0 1388 0 0 0 0 0
    0 0 0 0 0 0 0 0 0 0 0 0 0 0 0 0 0 0 0 0 0 0 0 0 0 0 0 0 0 0 0 0 0 0 0 0 0 0 0 0 0 0 0 0 0 0 0 0 0 0 0 0 0 0 0 0 0 0 0 0 0 0 0 0 0 0 0 0 0 1936 1839 0 340 340 0 0 0 0 0 0 0 0 0 0 0 0 0 0 0 0 0 0 8177 6690 7359 7359 6690 7359 7359 7359 6690 0 0 0 0 0 0 0 0 0 0 0 0 0 0 0 0 0 0 0 0 0 0 0 0 0 0 0 0 0 8177 0 0 0 0 0 0 0 0 0 0 0 0 7359 8177 8177 8177 8177 0 0 0 639 651 0 0 0 2044 2102 1989 1887 1936 1887 1887 1839 1752 1839 1795 1795 1795 1711 1711 1752 1795 1839 1752 1672 1599 1795 1795 1887 2044 2374 3504 6133 6690 7359 6690 6690 6690 5256 3873 3199 2628 2725 2453 2102 2102 1989 2044 2164 2374 0 2537 2299 2044 2164 2102 2230 2044 2044 1887 2044 2453 3679 3873 5256 5256 4599 4329 4599 4906 5661 5661 5256 5256 5256 4599 4906 5661 4599 4088 4599 4329 4088 3873 4906 4088 4088 3873 4329 3679 3345 3199 2943 2830 2725 2725 2299 2164 2044 1936 1989 1887 1795 1795 1795 1752 1795 1752 1711 1711 1711 1672 1599 1599 1635 1533 1599 1635 1565 1565 1565 1565 1533 1565 1565 1533 1501 1501 1471 1471 1471 1443 1415 1388 1388 1471 1443 1443 1415 1471 1501 1388 1388 1362 1314 1338 1362 1362 1338 1338 1314 1338 1338 1314 1314 0 0 325 0 0 0 0 0 1362 0 0 0 0 0
    0 0 0 0 0 0 0 0 0 0 0 0 0 0 0 0 0 0 0 0 0 0 0 0 0 0 0 0 0 0 0 0 0 0 0 0 0 0 0 0 0 0 0 0 0 0 0 0 0 0 0 0 0 0 0 0 0 0 0 0 0 0 0 0 0 0 0 0 0 1989 1936 0 342 343 343 0 0 0 0 0 0 0 6690 4599 0 0 7359 0 0 0 0 0 7359 6690 7359 7359 6690 7359 7359 7359 6690 0 0 0 0 0 0 0 0 0 0 0 0 0 0 0 0 0 0 0 0 0 0 0 0 0 0 0 0 0 8177 0 0 0 0 0 0 0 0 0 0 0 0 7359 0 0 8177 0 0 0 0 639 0 639 0 0 0 0 2044 1936 1936 1887 1887 1795 1711 1795 1795 1752 1752 1711 1711 1711 1795 1887 1752 1672 1599 1795 1839 1989 2299 2725 3345 8177 6690 7359 6690 6690 6690 5661 4329 3345 2725 0 2628 2164 2102 2044 2044 2164 2374 0 2374 2164 1989 2102 2044 2102 1989 1936 1839 1839 1989 3199 3504 4906 5661 4088 4329 4329 4906 5661 5256 5256 5256 5256 4599 4906 5661 4599 4088 4599 4329 4088 4088 4906 4329 4088 3873 4599 3679 3504 3345 2943 2725 2628 2628 2164 2102 1989 1936 1936 1887 1795 1795 1795 1752 1795 1752 1711 1711 1672 1672 1599 1599 1635 1565 1599 1635 1533 1565 1533 1565 1533 1533 1565 1533 1501 1501 1471 1501 1501 1471 1443 1388 1388 1501 1471 1443 1388 1471 1501 1388 1388 1362 1314 1362 0 0 0 1338 1338 1338 1362 1314 1268 0 327 327 327 328 330 334 0 0 0 0 0 0 0
    0 0 0 0 0 0 0 0 0 0 0 0 0 0 0 0 0 0 0 0 0 0 0 0 0 0 0 0 0 0 0 0 0 0 0 0 0 0 0 0 0 0 0 0 0 0 0 0 0 0 0 0 0 0 0 0 0 0 0 0 0 0 0 0 0 0 0 0 0 1989 0 0 0 345 347 0 0 0 0 7359 6133 6690 6690 4088 8177 8177 6690 0 0 0 0 0 6690 6133 6690 7359 6690 7359 7359 7359 6690 0 0 0 0 0 0 8177 7359 0 8177 0 0 0 0 0 0 0 0 0 0 0 0 0 0 0 0 0 0 0 8177 0 0 0 0 0 0 0 0 0 0 0 0 7359 0 0 0 0 0 0 0 0 0 0 0 0 0 0 1989 1887 1887 1839 1839 1795 1672 1752 1795 1752 1752 1711 1711 1672 1795 1989 1795 1711 1635 1839 1887 2299 2943 3066 4329 0 6690 6690 6690 6690 8177 7359 6133 3873 2943 0 0 0 2230 2102 2044 2102 2230 0 2299 1989 1936 2044 1989 2044 1936 1936 1795 1752 1839 0 0 4329 5661 3679 3873 3679 4329 5256 4906 4599 4599 4906 4329 4906 5661 4599 3873 4329 4088 3873 3679 4599 3679 3504 3504 4088 3504 3199 3066 2374 2537 2453 2453 2102 2044 1989 1936 1989 1936 1795 1795 1839 1795 1795 1752 1752 1711 1672 1672 1635 1635 1635 1565 1599 1635 1533 1565 1533 1565 1533 1533 1565 1533 1501 1501 1471 1533 1501 1501 1443 1388 1388 1501 1471 1471 1362 1443 1471 1362 1388 1362 1314 1362 1362 1362 1338 1338 1338 1314 1362 1291 1226 0 0 0 0 0 0 0 0 1291 0 0 0 0 0
    0 0 0 0 0 0 0 0 0 0 0 0 0 0 0 0 0 0 0 0 0 0 0 0 0 0 0 0 0 0 0 0 0 0 0 0 0 0 0 0 0 0 0 0 0 0 0 0 0 0 0 0 0 0 0 0 0 0 0 0 0 0 0 0 0 0 0 0 0 2102 0 0 0 0 0 6690 6690 8177 0 6133 5256 6133 5661 3873 6690 7359 6133 8177 8177 0 8177 8177 5661 5256 6133 7359 6690 6690 6690 7359 6690 0 0 0 0 0 7359 6690 5256 6690 4906 8177 7359 0 0 0 0 0 0 0 0 0 0 0 8177 8177 0 0 0 0 7359 8177 0 0 0 0 0 0 0 0 0 0 0 0 0 0 0 0 331 0 0 0 0 0 0 0 0 0 1887 1795 1795 1752 1795 1752 1635 1672 1752 1711 1795 1752 1711 1672 1936 2044 1839 1752 1672 1887 1936 2453 3066 3199 7359 0 7359 6690 6690 6690 0 0 0 5256 3199 0 193 0 0 2164 2102 2102 2164 2374 2102 1887 1839 1936 1887 1989 0 1839 1752 1711 1795 1752 1672 1752 1635 1599 0 3199 3873 4599 4329 4329 4088 4599 4329 4906 5661 4599 3873 4088 4088 3873 3679 4329 3345 3345 0 0 0 0 0 0 2374 2164 2230 2044 0 2044 0 1989 1936 1795 1839 1839 0 1795 1752 1752 1711 1672 1672 1635 1635 1635 1565 1599 1635 1565 1599 1533 1533 1501 1533 1565 1533 1501 1501 1471 1533 1501 1533 1443 1388 1388 1501 1471 1471 1362 1415 1443 1362 1388 1362 1338 1362 1362 1362 1362 1338 1362 1314 1443 1291 1226 1268 0 1247 1247 1247 1268 1268 1268 1268 0 0 0 0 0
    0 0 0 0 0 0 0 0 0 0 0 0 0 0 0 0 0 0 0 0 0 0 0 0 0 0 0 0 0 0 0 0 0 0 0 0 0 0 0 0 0 0 0 0 0 0 0 0 0 0 0 0 0 0 0 0 0 0 0 0 0 0 0 0 0 0 0 0 0 2299 0 0 3199 0 6133 5661 6133 6133 8177 5661 4906 6133 6133 3873 7359 8177 6133 7359 6690 7359 8177 6690 4329 4599 5661 6690 6133 6690 6690 6690 6133 0 0 8177 7359 6690 5256 4599 3199 2943 2830 3066 3873 0 0 0 0 0 0 0 0 0 0 0 8177 8177 8177 8177 8177 0 6690 0 0 0 0 0 0 0 0 0 0 0 327 324 0 0 0 0 0 0 0 0 0 0 0 0 0 0 1887 1795 1795 1752 1795 1711 1635 1635 1795 1752 1795 1795 1752 1711 1989 2102 1887 1795 1711 1887 1936 2374 3066 3066 0 0 6690 5256 5256 4329 7359 7359 0 5256 3199 0 0 192 0 0 2044 2044 2044 2230 1989 1839 1795 1887 1839 1887 0 1795 1711 1672 1711 1711 1635 1672 1565 1565 1672 2830 3504 3873 4088 4088 4088 4329 4088 4906 6133 4599 3873 3873 4088 3873 3679 4329 3199 0 0 0 0 0 1268 1082 0 0 2102 2044 2044 1989 0 1989 1936 1795 1795 1795 0 1752 1711 1752 1711 1672 1672 1635 1672 1672 1599 1635 1635 1565 1599 1533 1533 1501 1533 1565 1533 1501 1501 1471 1533 1501 1533 1443 1388 1362 1501 1471 1471 1362 1388 1415 1362 1388 1362 1338 1362 1362 1362 1362 1362 1362 1338 1501 1291 1226 1247 1268 1226 1226 1247 1226 1247 1247 1268 0 0 0 0 0
    0 0 0 0 0 0 0 0 0 0 0 0 0 0 0 0 0 0 0 0 0 0 0 0 0 0 0 0 0 0 0 0 0 0 0 0 0 0 0 0 0 0 0 0 0 0 0 0 0 0 0 0 0 0 0 0 0 0 0 0 0 0 0 0 0 0 0 0 0 0 274 0 0 0 5661 4906 5256 5256 8177 5256 4329 5256 5661 3504 4329 6133 4599 4088 3679 3504 3199 3199 3066 3504 4329 5256 5256 5661 6133 6690 6133 0 0 8177 6690 4906 3504 3504 2830 2725 2628 2725 2830 2830 0 0 0 0 0 0 8177 0 0 0 7359 8177 8177 0 0 0 6133 0 0 0 0 8177 0 0 0 0 322 324 327 322 0 0 0 0 325 0 0 0 0 0 0 0 0 0 1887 1839 1887 1795 1795 1752 1635 1672 1887 1887 1989 1839 1795 1795 1989 2044 0 1795 1711 1887 1887 2044 2830 2537 0 0 4599 3199 3199 2943 2830 3345 5661 3679 3066 0 0 192 191 0 2044 1989 1936 2044 1936 1711 1711 1839 1752 1795 1752 1752 1672 1635 1672 1635 1599 1635 1533 1501 1565 1936 0 3873 3873 4088 4088 4599 4329 4906 6133 4599 3873 3873 3873 3873 3679 4088 0 227 0 0 228 0 1226 1022 981 0 0 0 0 1989 0 0 1887 1795 1752 1795 1752 1752 1711 1752 1711 1672 1711 1672 1672 1711 1635 1672 1635 1599 1599 1533 1533 1471 1501 1565 1501 1471 1501 1443 1533 1501 1533 1443 1388 1362 1533 1443 1471 1362 1362 1388 1388 1388 1362 1338 1362 1388 1388 1388 1388 1388 1362 1565 1291 1226 1247 1268 1226 1226 1226 1226 1247 1226 1247 0 0 0 0 0
    0 0 0 0 0 0 0 0 0 0 0 0 0 0 0 0 0 0 0 0 0 0 0 0 0 0 0 0 0 0 0 0 0 0 0 0 0 0 0 0 0 0 0 0 0 0 0 0 0 0 0 0 0 0 0 0 0 0 0 0 0 0 0 0 0 0 0 0 0 0 0 0 0 0 4329 4088 3873 3873 5661 3679 3345 3345 4088 3066 2830 3679 3345 2943 2943 2725 2725 2628 2374 2725 0 3199 3345 3345 4088 5256 4906 9199 0 6133 3873 3345 2943 2943 2628 2537 2374 2374 2537 2453 0 0 0 0 0 0 0 0 7359 0 6690 8177 7359 0 0 0 0 0 6133 0 0 5661 0 0 0 0 322 325 330 324 0 0 0 0 0 0 0 0 0 0 0 0 0 0 1887 1839 1887 1795 1795 1752 1672 1711 1887 1989 2044 1839 1795 1839 1887 1936 1839 1752 1672 1752 1839 1887 2230 2102 2102 0 3345 2725 2628 2537 2453 2628 2830 2830 2830 0 0 192 191 0 1989 1887 1887 1887 1839 1672 1672 1795 1711 1752 1752 1711 1672 1599 1672 1599 1599 1599 1501 1443 1471 0 0 0 3679 3679 3873 4329 4088 4906 6133 4599 3873 3679 3873 3679 3504 3873 0 0 0 0 0 0 1066 994 968 0 0 0 0 0 0 0 0 1752 1711 1795 1752 1752 1711 1752 1752 1711 1752 1711 1711 1711 1672 1711 1672 1599 1635 1533 1533 1471 1471 1533 1471 1471 1471 1443 1501 1501 1533 1443 1388 1362 1533 1443 1471 1362 1388 1388 1388 1388 1388 1338 1388 1388 1388 1388 1388 1388 1362 1443 1291 1226 1226 1247 1206 1206 1226 1206 1226 1226 1247 0 0 0 0 0
    0 0 0 0 0 0 0 0 0 0 0 0 0 0 0 0 0 0 0 0 0 0 0 0 0 0 0 0 0 0 0 0 0 0 0 0 0 0 0 0 0 0 0 0 0 0 0 0 0 0 0 0 0 0 0 0 0 0 0 0 0 0 0 0 0 0 0 0 0 2374 0 0 0 272 0 3345 3066 3199 3679 3066 2943 2830 2943 2830 2453 2725 2830 2537 2374 2164 2230 2164 1989 2164 2044 2299 2537 2537 2725 3066 2943 5661 5661 2943 2830 2943 2628 2725 2453 2374 2230 2164 2299 2230 0 0 0 0 0 0 0 0 2537 2044 2725 0 0 3199 0 3679 0 3345 3504 2725 2830 2943 0 3345 0 0 0 0 0 0 0 217 217 0 0 0 0 0 0 0 0 0 1989 1887 1839 1795 1839 1795 1795 1752 1672 1752 1887 1989 2044 1839 1752 1839 1795 1839 1795 1752 1672 1672 1752 1839 1795 2044 1989 2299 2830 2537 2299 2374 2230 2374 2628 2725 2725 2725 2943 0 0 0 1936 1887 1839 1887 1839 1672 1635 1795 1711 1752 1711 1672 1635 1565 1635 1533 1501 1501 1443 1388 1388 0 0 0 3345 3345 3504 3873 3873 4599 5661 4329 3679 3504 3679 3504 3504 3679 0 0 102 102 0 0 1022 981 955 955 0 0 0 0 0 0 259 0 1635 0 0 1711 1672 1711 1752 1711 1752 1711 1711 1711 1672 1711 1672 1599 1635 1501 1501 1443 1471 1533 1471 1443 1471 1415 1501 1471 1533 1415 1388 1362 1501 1415 1471 1362 1388 1415 1388 1388 1388 1338 1388 1388 1388 1388 1388 1388 1362 1388 1291 1206 1226 1206 1187 1187 1206 1187 1206 1206 1226 0 0 0 0 0
    0 0 0 0 0 0 0 0 0 0 0 0 0 0 0 0 0 0 0 0 0 0 0 0 0 0 0 0 0 0 0 0 0 0 0 0 0 0 0 0 0 0 0 0 0 0 0 0 0 0 0 0 0 0 0 0 0 0 0 0 0 0 0 0 0 0 0 0 0 0 0 271 268 268 0 2943 2537 2725 2628 2725 2537 2299 2374 2374 2102 2230 2299 2164 2044 1989 2044 2044 1989 2044 1989 2044 2164 2230 2299 2374 2453 2725 2830 2725 2628 2628 2374 2453 2230 2164 2102 2044 2164 2102 2102 0 0 0 0 0 2044 1839 1989 1887 1936 1989 2044 1989 2102 2299 2299 2230 2537 2164 2230 2230 2299 2453 2102 2453 2374 2299 0 0 0 0 0 2374 2102 2299 2230 0 0 0 0 2164 1887 1839 1795 1752 1795 1795 1795 1752 1711 1795 1887 1989 1989 1795 1752 1795 1795 1795 1795 1752 1672 1672 1752 1839 1795 2044 1989 2164 2453 2374 2164 2230 2102 2299 2453 2628 2537 2453 2725 2374 0 1989 1936 1839 1839 1839 1839 1672 1635 1795 1711 1752 1672 1635 1565 1501 1533 1443 1443 1443 1388 1362 1362 0 0 0 0 3066 3199 3345 3679 4599 5661 4088 3504 3504 3504 3504 3345 0 0 0 103 103 0 0 1008 981 955 955 0 0 0 0 0 256 258 0 0 0 0 1672 1635 1672 1672 1672 1711 1711 1711 1711 1672 1672 1672 1599 1635 1501 1501 1443 1443 1501 1443 1443 1443 1415 1471 1471 1501 1415 1362 1362 1471 1415 1443 1362 1362 1415 1388 1388 1388 1362 1388 1388 1388 1388 1362 1388 1362 1388 1291 1206 1206 1187 1187 1187 1187 1187 1206 1187 1226 0 0 0 0 0
    0 0 0 0 0 0 0 0 0 0 0 0 0 0 0 0 0 0 0 0 0 0 0 0 0 0 0 0 0 0 0 0 0 0 0 0 0 0 0 0 0 0 0 0 0 0 0 0 0 0 0 0 0 0 0 0 0 0 0 0 0 0 0 0 0 0 0 0 0 0 0 0 0 0 2537 2374 2044 2299 1989 2102 2102 1989 2044 2102 1989 2044 2044 2044 1989 1936 1989 1989 1936 1989 1989 1989 2102 2102 2164 2164 2299 2453 2537 2537 2299 2299 2102 2230 2044 2102 2044 1989 2044 2044 1989 2044 1989 0 1887 1839 1887 1795 1839 1839 1839 1839 1887 1839 1887 1936 1989 1989 1989 1936 1989 1989 2044 2044 1936 2044 2044 2102 2102 2044 2044 2102 1936 2164 1989 2102 2044 2044 2044 1989 1936 1989 1839 1839 1795 1795 1795 1795 1795 1795 1795 1839 1887 1989 1936 1839 1752 1795 1795 1839 1795 1795 1711 1711 1795 1887 1839 1989 1936 2102 2230 2230 2102 2164 2102 2230 2374 2537 2453 2299 2628 2230 0 1936 1887 1839 1839 1839 1839 1672 1635 1752 1672 1711 1635 1565 1533 1443 1471 1415 1388 1388 1362 1362 1314 1291 0 1268 0 0 0 0 3199 4088 5256 3679 3345 3199 3345 3199 3199 0 0 0 103 103 0 0 994 968 955 955 1036 1022 0 0 0 0 0 0 0 0 0 1599 1565 1533 1565 1565 1672 1672 1711 1711 1635 1635 1635 1599 1635 1501 1501 1443 1443 1471 1443 1415 1443 1388 1471 1443 1471 1415 1362 1362 1443 1388 1415 1338 1362 1388 1388 1388 1362 1362 1388 1388 1388 1388 1388 1388 1362 1415 1291 1206 1206 1187 1168 1168 1187 1187 1206 1187 1206 0 0 0 0 0
    0 0 0 0 0 0 0 0 0 0 0 0 0 0 0 0 0 0 0 0 0 0 0 0 0 0 0 0 0 0 0 0 0 0 0 0 0 0 0 0 0 0 0 0 0 0 0 0 0 0 0 0 0 0 0 0 0 0 0 0 0 0 0 0 0 0 0 0 0 0 0 0 1887 1936 2102 1989 1839 1887 1795 1795 1839 1887 1936 1936 1936 1936 1936 1936 1936 1936 1936 1887 1887 1989 1936 1989 2044 2044 2044 2044 2164 2164 2102 2164 2044 2044 1989 2044 1989 1989 1989 1989 1989 1989 1936 1936 1936 1887 1839 1795 1795 1752 1795 1795 1839 1839 1887 1887 1887 1887 1936 1936 1936 1936 1936 1936 1989 1989 1936 2044 2044 2044 2044 1989 2044 1989 1936 2044 1936 2044 1989 1989 1989 1936 1887 1936 1839 1887 1795 1795 1839 1795 1839 1839 1839 1887 1887 2044 1936 1795 1752 1795 1795 1795 1795 1752 1711 1711 1795 1887 1839 1936 1936 2044 2102 2102 2102 2164 2044 2164 2299 2453 2374 2164 2537 2164 1887 1887 1839 1752 1752 1752 1752 1635 1565 1711 1599 1635 1599 1533 1501 1415 1443 1415 1362 1362 1338 1338 1291 1291 1314 1247 1291 0 0 0 0 3504 4599 3504 3199 3066 3199 3066 0 0 0 0 0 0 0 981 981 968 955 955 1008 994 1008 0 0 0 0 130 0 0 0 0 0 0 0 0 0 0 1672 1672 1599 1599 1599 1599 1635 1471 1471 1415 1443 1471 1415 1415 1415 1388 1443 1443 1443 1388 1362 1362 1415 1362 1415 1338 1338 1388 1388 1362 1362 1362 1388 1415 1388 1388 1388 1388 1388 1443 1291 1226 1206 1187 1168 1168 1187 1187 1187 1187 1206 0 0 0 0 0
    0 0 0 0 0 0 0 0 0 0 0 0 0 0 0 0 0 0 0 0 0 0 0 0 0 0 0 0 0 0 0 0 0 0 0 0 0 0 0 0 0 0 0 0 0 0 0 0 0 0 0 0 0 0 0 0 0 0 0 0 0 0 0 0 0 0 0 0 0 1989 1989 1989 1839 1839 2044 1936 1839 1887 1839 1839 1839 1839 1887 1936 1887 1936 1887 1887 1887 1887 1936 1887 1887 1936 1936 1936 1989 1989 1989 1989 1989 1989 1989 1989 1936 1936 1887 1936 1936 1936 1936 1936 1936 1936 1887 1887 1887 1839 1795 1752 1795 1752 1795 1795 1795 1795 1839 1839 1839 1887 1887 1887 1887 1887 1936 1887 1989 1936 1887 1989 1989 1989 1989 1989 1989 1989 1887 2044 1936 1989 1989 1989 1989 1936 1887 1989 1839 1887 1795 1795 1839 1795 1795 1839 1839 1887 1839 1989 1887 1795 1795 1839 1795 1795 1795 1752 1711 1752 1795 1839 1839 1936 1936 2044 2044 2044 2044 2102 2044 2102 2230 2299 2230 2044 2374 2102 1839 1839 1795 1752 1752 1711 1711 1635 1533 1672 1565 1599 1565 1501 1471 1388 1415 1388 1338 1362 1338 1338 1291 1268 1291 1226 1247 1268 1247 1206 1226 1247 0 3345 0 2044 2725 2725 0 0 0 0 0 0 0 955 955 955 943 943 1008 981 981 955 0 908 0 0 0 0 931 865 782 774 735 728 758 728 0 0 1565 1565 1565 1599 1599 1471 1501 1415 1443 1443 1415 1415 1415 1388 1415 1415 1443 1388 1362 1362 1388 1338 1388 1338 1338 1388 1388 1362 1362 1362 1388 1388 1388 1388 1388 1388 1388 1443 1291 1226 1187 1168 1168 1168 1168 1168 1187 1168 1206 0 0 0 0 0
    0 0 0 0 0 0 0 0 0 0 0 0 0 0 0 0 0 0 0 0 0 0 0 0 0 0 0 0 0 0 0 0 0 0 0 0 0 0 0 0 0 0 0 0 0 0 0 0 0 0 0 0 0 0 0 0 0 0 0 0 0 0 0 0 0 0 0 0 0 1989 1936 1936 1839 1839 1989 1936 1839 1936 1839 1887 1887 1887 1887 1936 1887 1936 1887 1887 1887 1887 1936 1887 1887 1936 1936 1936 1936 1989 1936 1936 1936 1989 1936 1936 1936 1936 1887 1936 1887 1936 1936 1887 1936 1887 1887 1887 1839 1795 1752 1752 1752 1752 1752 1752 1795 1795 1839 1839 1839 1887 1887 1839 1887 1887 1936 1887 1989 1936 1887 1989 1989 1989 1989 1936 1936 1936 1887 1989 1887 1989 1989 1989 1989 1936 1887 1989 1839 1936 1839 1839 1839 1839 1839 1839 1887 1887 1839 1936 1839 1795 1752 1795 1795 1752 1752 1752 1711 1752 1795 1839 1795 1887 1936 1989 2044 2044 2044 2102 2044 2102 2164 2164 2102 1989 2164 1989 1795 1795 1795 1711 1711 1711 1711 1599 1501 1672 1565 1565 1565 1501 1443 1388 1415 1388 1338 1338 1338 0 1268 1247 1268 1206 1187 1226 1206 1168 1187 1187 1206 1291 0 1672 1565 1672 0 0 0 0 0 0 0 0 943 955 943 943 1008 981 994 968 919 876 855 897 897 876 886 855 799 782 766 750 791 774 0 0 0 1599 0 1635 1635 1501 1533 1443 1443 1471 1415 1415 1415 1388 1415 1388 1415 1362 1362 1338 1362 1314 1362 1314 1338 1388 1388 1362 1362 1362 1388 1388 1388 1388 1362 1362 1362 1415 1291 1226 1168 1149 1168 1149 1168 1168 1168 1168 1187 0 0 0 0 0
    0 0 0 0 0 0 0 0 0 0 0 0 0 0 0 0 0 0 0 0 0 0 0 0 0 0 0 0 0 0 0 0 0 0 0 0 0 0 0 0 0 0 0 0 0 0 0 0 0 0 0 0 0 0 0 0 0 0 0 0 0 0 0 0 0 0 0 0 0 1936 1936 1936 1795 1795 1936 1887 1839 1887 1839 1839 1887 1839 1887 1887 1887 1887 1887 1887 1887 1887 1936 1887 1887 1936 1936 1936 1936 1989 1936 1936 1936 1936 1887 1936 1887 1936 1839 1887 1887 1887 1887 1887 1887 1887 1839 1839 1795 1752 1711 1711 1752 1711 1752 1752 1752 1752 1795 1795 1839 1839 1887 1839 1887 1887 1936 1936 1989 1936 1887 1989 1989 1989 1989 1936 1936 1936 1887 1989 1887 1989 1989 1936 1936 1936 1887 1936 1839 1936 1839 1839 1839 1839 1839 1839 1839 1887 1839 1936 1795 1752 1711 1752 1752 1752 1752 1711 1711 1752 1752 1839 1795 1887 1936 1989 2044 2044 2044 2044 1989 2044 2102 2044 1989 1936 2044 1936 1752 1752 1752 1635 1672 1672 1672 1599 1501 1672 1565 1533 1565 1501 1443 1388 1388 1388 1338 1338 0 0 0 1226 1268 1206 1168 1206 1168 1132 1168 1168 1187 1226 1247 1338 1338 1247 0 0 919 855 919 908 0 0 943 955 943 955 1022 1022 1022 981 955 908 886 886 855 845 845 836 782 766 766 758 799 799 0 0 0 0 0 1599 1599 1471 1501 1415 1415 1443 1388 1388 1388 1362 1415 1388 1388 1362 1338 1338 1338 1291 1338 1291 1338 1388 1362 1338 1362 1388 1388 1388 1388 1388 1362 1362 1362 1388 1268 1206 1149 1149 1149 1149 1168 1168 1168 1168 1187 0 0 0 0 0
    0 0 0 0 0 0 0 0 0 0 0 0 0 0 0 0 0 0 0 0 0 0 0 0 0 0 0 0 0 0 0 0 0 0 0 0 0 0 0 0 0 0 0 0 0 0 0 0 0 0 0 0 0 0 0 0 0 0 0 0 0 0 0 0 0 0 0 0 0 1936 1887 1887 1795 1795 1887 1839 1795 1839 1839 1839 1839 1839 1839 1839 1839 1887 1839 1839 1839 1887 1887 1887 1887 1887 1887 1936 1887 1936 1887 1887 1887 1936 1887 1887 1887 1887 1839 1887 1839 1887 1839 1839 1887 1839 1839 1839 1795 1752 1711 1711 1752 1711 1752 1752 1752 1752 1795 1795 1795 1839 1839 1839 1839 1887 1887 1887 1989 1936 1887 1936 1936 1936 1936 1936 1936 1936 0 1989 1887 1936 1989 1989 1936 1936 1887 1936 1839 1887 1839 1839 1795 1795 1795 1839 1839 1839 1795 1887 1795 1752 1711 1752 1752 1752 1752 1711 1672 1711 1752 1839 1795 1887 1887 1936 2044 1989 1989 2044 1989 2044 2044 1989 1989 1887 1989 1936 1711 1752 1752 1672 1672 1711 1711 1635 1501 1672 1599 1565 1565 1533 1443 0 1362 1388 1314 0 0 0 1268 1226 1268 1226 1149 1206 1168 1132 1149 1168 1168 1187 1187 1291 1268 1149 1022 931 876 845 897 897 919 919 931 955 943 943 0 1036 1115 981 943 897 876 897 836 826 836 836 799 774 782 774 808 817 0 0 0 0 0 0 1533 1443 1471 1388 1415 1415 1388 1388 1388 1362 1415 1388 1388 1362 1362 1338 1338 1314 1314 1291 1338 1388 1388 1338 1362 1388 1362 1388 1388 1388 1362 1362 1362 1388 1247 1206 1132 1132 1149 1149 1149 1168 1168 1168 1187 0 0 0 0 0
    0 0 0 0 0 0 0 0 0 0 0 0 0 0 0 0 0 0 0 0 0 0 0 0 0 0 0 0 0 0 0 0 0 0 0 0 0 0 0 0 0 0 0 0 0 0 0 0 0 0 0 0 0 0 0 0 0 0 0 0 0 0 0 0 0 0 0 0 0 1887 1887 1839 1795 1795 1839 1839 1795 1839 1839 1795 1839 1795 1795 1839 1839 1839 1839 1795 1839 1839 1839 1839 1839 1839 1839 1839 1839 1887 1839 1839 1839 1887 1839 1887 1839 1887 1839 1887 1839 1839 1839 1839 1839 1839 1839 1839 1795 1752 1711 1711 1752 1752 1795 1752 1795 1795 1795 1795 1795 1795 1795 1795 1795 1795 1839 1887 1936 1887 1887 1936 1887 1887 1887 1887 1887 1887 1839 1936 1887 1936 1989 1989 1936 1936 1887 1989 1839 1887 1839 1839 1795 1795 1795 1839 1839 1839 1839 1887 1795 1752 1711 1752 1752 1752 1752 1711 1711 1752 1752 1839 1839 1839 1887 1936 1989 1936 1936 1989 1936 1989 1989 1936 1936 1839 1936 1887 1672 1752 1711 1635 1672 1672 1711 1635 1501 1672 1599 1565 1565 1565 1471 1362 1362 1388 0 1291 0 1291 1247 1206 1291 1226 1149 1206 1187 1132 1149 1149 1168 1187 1168 1268 1226 1098 1008 943 876 845 897 897 908 919 931 955 943 955 0 0 1388 1471 0 0 0 0 943 886 845 836 799 766 791 782 808 817 0 0 0 0 0 0 1471 1415 1415 1362 1388 0 1362 1362 1362 1362 1388 1388 1388 1362 1362 1338 1338 1314 1314 1291 1314 1388 1362 1338 1338 1362 1362 1362 1362 1362 1338 1362 1338 1362 1226 1206 1132 1149 1149 1149 1149 1168 1168 1168 1168 0 0 0 0 0
    0 0 0 0 0 0 0 0 0 0 0 0 0 0 0 0 0 0 0 0 0 0 0 0 0 0 0 0 0 0 0 0 0 0 0 0 0 0 0 0 0 0 0 0 0 0 0 0 0 0 0 0 0 0 0 0 0 0 0 0 0 0 0 0 0 0 0 0 0 1839 1795 1795 1752 1752 1795 1795 1795 1795 1795 1795 1839 1795 1795 1795 1795 1795 1795 1795 1795 1795 1795 1839 1839 1795 1795 1839 1795 1839 1795 1795 1795 1839 1795 1839 1839 1887 1839 1887 1839 1839 1839 1839 1839 1795 1795 1795 1752 1711 1711 1711 1752 1752 1795 1752 1752 1795 1795 1752 1752 1752 1752 1752 1752 1795 1795 1839 1936 1887 1887 1887 1887 1887 1887 1887 1887 1887 1839 1936 1887 1936 1936 1989 1936 1936 1887 1989 1887 1887 1839 1839 1839 1839 1839 1839 1839 1839 1839 1887 1752 1752 1711 1752 1752 1752 1752 1711 1711 1752 1752 1839 1795 1795 1839 1887 1887 1887 1887 1936 1887 1936 1936 1887 1887 1839 1839 1839 1672 1711 1711 1635 1672 1672 1672 1672 1501 1672 1635 1565 1565 1565 1471 1388 1362 0 0 0 0 0 1247 1226 1291 1268 1149 1206 1187 1149 1149 1149 1149 1168 1168 1268 1206 1098 1008 955 908 845 908 897 919 931 931 955 943 943 0 0 1635 1599 1471 1471 1388 1314 1314 0 865 845 808 758 791 782 808 817 817 0 0 0 0 0 1443 1388 1388 1338 0 0 1338 1338 1338 1338 1388 1362 1388 1362 1362 1362 1338 1338 1338 1291 1338 1362 1338 1314 1314 1338 1338 1362 1362 1362 1338 1338 1338 1362 1206 1206 1115 1149 1149 1149 1149 1168 1168 1187 1168 0 0 0 0 0
    0 0 0 0 0 0 0 0 0 0 0 0 0 0 0 0 0 0 0 0 0 0 0 0 0 0 0 0 0 0 0 0 0 0 0 0 0 0 0 0 0 0 0 0 0 0 0 0 0 0 0 0 0 0 0 0 0 0 0 0 0 0 0 0 0 0 0 0 0 1795 1795 1752 1752 1752 1752 1752 1752 1795 1795 1795 1839 1795 1795 1795 1795 1795 1752 1752 1752 1752 1752 1752 1752 1752 1752 1795 1795 1795 1752 1795 1795 1795 1795 1839 1839 1887 1839 1887 1839 1839 1839 1839 1839 1795 1752 1752 1752 1711 1711 1711 1752 1752 1795 1752 1752 1752 1795 1752 1752 1752 1752 1752 1752 1752 1795 1839 1887 1887 1839 1839 1839 0 1839 1839 1839 1795 1752 1887 1839 1887 1887 1936 1887 1887 1839 1936 1887 1887 1839 1839 1839 1839 1795 1839 1839 1795 1839 1839 1711 1752 1711 1752 1752 1752 1752 1711 1711 1752 1752 1795 1795 1752 1795 1839 1839 1839 1839 1839 1795 1839 1839 1795 1795 1795 1795 1795 1672 1711 1711 1635 1672 1672 1672 1672 1501 1672 1599 1565 1533 1565 1471 1388 1362 0 0 0 0 0 1247 1226 1338 1314 1168 1206 1187 1149 1149 1149 1168 1168 1168 1268 1226 1115 1036 968 943 855 919 908 919 931 931 955 0 943 0 0 1711 1635 1599 1565 1471 1415 1338 1206 0 855 808 750 791 782 799 808 817 817 808 0 0 0 1443 0 0 0 663 639 0 0 1314 1314 1338 1338 1388 1362 1362 1362 1338 1362 1362 1314 1362 1338 1338 1314 1314 1338 1314 1338 1338 1338 1314 1314 1314 1338 1168 1206 1115 1149 1149 1149 1149 1168 1149 1187 1168 0 0 0 0 0
    0 0 0 0 0 0 0 0 0 0 0 0 0 0 0 0 0 0 0 0 0 0 0 0 0 0 0 0 0 0 0 0 0 0 0 0 0 0 0 0 0 0 0 0 0 0 0 0 0 0 0 0 0 0 0 0 0 0 0 0 0 0 0 0 0 0 0 0 0 1711 1711 1635 1711 1711 1711 1711 1711 1752 1752 1752 1795 1795 1752 1752 1795 1752 1752 1711 1711 1711 1711 1711 1711 1711 1711 1752 1752 1752 1752 1752 1795 1795 1795 1839 1795 1887 1839 1887 1839 1839 1795 1795 1795 1752 1711 1711 1711 1672 1672 1711 1711 1711 1752 1752 1752 1752 1752 1752 1752 1752 1752 1752 1752 1752 1795 1839 1887 1839 0 1839 0 0 1839 1795 0 1795 1711 1839 1795 1839 1839 1839 1839 1839 1795 1936 1839 1839 1795 1795 1752 1795 1752 1795 1752 1752 1795 1795 1711 1711 1711 1711 1711 1711 1711 1672 1672 1752 1711 1752 1752 1711 1752 1795 1795 1795 1795 1795 1752 1795 1795 1752 1752 1795 1752 1752 1711 1711 1711 1672 1672 1635 1635 1672 1471 1635 1599 1533 1501 1533 1471 1362 1362 0 0 0 0 1291 1247 1226 1338 1314 1149 1206 1168 1132 1149 1149 1149 1168 1149 1268 1268 1168 1187 994 981 865 931 908 931 931 931 943 0 943 0 0 1795 1711 1752 1711 1635 1533 1362 0 0 876 826 750 791 791 808 808 808 808 799 799 826 808 0 774 707 694 694 681 714 728 0 0 0 1314 1362 1338 1362 1362 1338 1362 1362 1338 1388 1338 1338 1314 1314 1338 1314 1314 1314 1314 1314 1314 1291 1338 1149 1206 1098 1149 1149 1149 1149 1168 1149 1187 1168 0 0 0 0 0
    0 0 0 0 0 0 0 0 0 0 0 0 0 0 0 0 0 0 0 0 0 0 0 0 0 0 0 0 0 0 0 0 0 0 0 0 0 0 0 0 0 0 0 0 0 0 0 0 0 0 0 0 0 0 0 0 0 0 0 0 0 0 0 0 0 0 0 0 0 1599 1635 1565 1635 1672 1672 1672 1711 1711 1711 1711 1752 1711 1711 1711 1711 1711 1711 1672 1672 1672 1672 1672 1672 1672 1635 1672 1711 1711 1711 1752 1752 1795 1752 1839 1795 1839 1839 1839 1839 1839 1795 1795 1752 1711 1672 1672 1672 1635 1672 1672 1711 1711 1752 1752 1711 1711 1752 1711 1752 1752 1752 1711 1752 1752 1795 1839 1887 1839 0 1795 1795 1795 1795 1752 0 1752 1672 1752 1752 1795 1795 1795 1795 1795 1795 1839 1795 1752 1752 1752 1711 1711 1711 1752 1711 1672 1752 1711 1672 1711 1672 1711 1711 1711 1711 1672 1672 1711 1672 1752 1711 1711 1752 1795 1752 1795 1795 1752 1752 1752 1795 1752 1752 1795 1711 1711 1672 1672 1672 1635 1672 1599 1635 1635 1471 1635 1565 1501 1501 1533 1443 1362 1362 0 0 0 0 1314 1268 1226 1338 1314 1149 1206 1168 1115 1132 1132 1168 1168 1149 1268 1268 1168 1247 0 1008 865 0 0 0 931 931 955 931 943 1187 1443 1752 1752 1795 1795 1711 1635 1388 0 0 919 845 0 0 0 0 0 817 808 799 791 817 774 766 758 714 700 700 694 721 728 743 743 694 0 0 1314 1338 1314 1338 1362 1338 1338 1362 1338 1314 1314 1291 1314 1291 1314 1314 1314 1291 1291 1291 1314 1115 1206 1098 1149 1149 1149 1168 1168 1168 1187 1168 0 0 0 0 0
    0 0 0 0 0 0 0 0 0 0 0 0 0 0 0 0 0 0 0 0 0 0 0 0 0 0 0 0 0 0 0 0 0 0 0 0 0 0 0 0 0 0 0 0 0 0 0 0 0 0 0 0 0 0 0 0 0 0 0 0 0 0 0 0 0 0 0 0 0 1565 1599 1533 1599 1635 1635 1599 1672 1672 1672 1672 1711 1672 1672 1672 1672 1635 1635 1635 1599 1635 1599 1599 1599 1599 1599 1599 1635 1672 1635 1672 1711 1752 1711 1752 1752 1795 1795 1795 1795 1795 1752 1711 1711 1672 1672 1635 1635 1599 1635 1635 1672 1672 1711 1711 1711 1672 1711 1672 1711 1711 1711 1711 1711 1711 1795 1795 1839 1839 0 0 1752 1752 1752 1711 1752 1711 1635 1711 1711 1752 1752 1752 1752 1752 1752 1795 1752 1711 1711 1711 1672 1672 1672 1711 1672 1635 1711 1672 1672 1711 1672 1711 1672 1672 1672 1672 1672 1672 1672 1711 1672 1711 1711 1752 1711 1752 1752 1711 1711 1711 1752 1711 1711 1752 1672 1672 1635 1635 1635 1599 1635 1565 1565 1599 1415 1599 1501 1471 1471 1501 1443 1362 1362 0 0 0 1338 1314 1268 1247 1314 1314 1132 1206 1168 1115 1132 1132 1168 1168 1168 1268 1268 1187 1268 0 1008 876 0 0 931 943 931 955 0 943 0 1443 1635 1635 1711 1711 1635 1565 1362 0 0 943 845 0 169 169 0 0 0 808 791 766 799 728 721 735 707 700 700 694 721 721 743 743 700 694 0 0 0 0 1268 1338 1338 1338 1338 1314 1291 1291 1268 1314 1291 1314 1314 1338 1314 1314 1291 1314 1115 1206 1098 1168 1149 1168 1168 1168 1168 1206 1168 0 0 0 0 0
    0 0 0 0 0 0 0 0 0 0 0 0 0 0 0 0 0 0 0 0 0 0 0 0 0 0 0 0 0 0 0 0 0 0 0 0 0 0 0 0 0 0 0 0 0 0 0 0 0 0 0 0 0 0 0 0 0 0 0 0 0 0 0 0 0 0 0 0 0 1533 1565 1501 1565 1599 1599 1533 1599 1599 1565 1565 1599 1565 1565 1565 1599 1501 1565 1599 1533 1565 1565 1501 1533 1565 1565 1565 1565 1599 1599 1599 1672 1672 1635 1672 1672 1711 1711 1711 1711 1711 1672 1635 1635 1599 1635 1635 1635 1565 1635 1635 1635 1635 1672 1672 1672 1635 1672 1672 1672 1711 1711 1711 1672 1672 1711 1752 1795 1795 0 1752 1711 1752 1711 1711 1711 1672 1565 1635 1672 1711 1672 1711 1711 1711 1711 1711 1711 1635 1672 1672 1635 1635 1635 1672 1672 1599 1672 1635 1635 1672 1635 1672 1635 1635 1635 1599 1635 1635 1599 1672 1635 1635 1672 1711 1672 1711 1672 1672 1672 1635 1672 1672 1672 1711 1635 1635 1599 1599 1635 1565 1565 1501 1533 1565 1415 1533 1471 1471 1443 1471 1415 1362 1362 1388 1338 1338 1338 1338 1291 1268 1314 1314 1132 1187 1168 1115 1132 1132 1168 1168 1168 1291 1291 1187 1268 1098 1022 886 0 0 943 943 931 955 931 943 1268 1415 1565 1533 1599 1599 1565 1471 1338 0 0 0 0 0 169 169 169 0 0 808 782 750 782 714 714 728 700 694 694 694 721 721 735 735 707 707 714 707 714 714 750 721 0 1291 1314 1268 1226 1268 1268 1291 1291 1314 1338 1338 1338 1338 1314 1338 1132 1226 1115 1168 1149 1168 1168 1187 1168 1226 1187 0 0 0 0 0
    0 0 0 0 0 0 0 0 0 0 0 0 0 0 0 0 0 0 0 0 0 0 0 0 0 0 0 0 0 0 0 0 0 0 0 0 0 0 0 0 0 0 0 0 0 0 0 0 0 0 0 0 0 0 0 0 0 0 0 0 0 0 0 0 0 0 0 0 0 1471 1533 1471 1533 1565 1533 1471 1565 1533 1501 1501 1533 1501 1501 1471 1533 1443 1471 1533 1443 1533 1501 1471 1501 1533 1501 1533 1533 1565 1565 1565 1635 1599 1533 1599 1565 1565 1635 1635 1635 1635 1599 1565 1599 1565 1599 1599 1599 1533 1599 1599 1599 1599 1635 1635 1635 1599 1635 1635 1635 1711 1672 1672 1599 1599 1599 1635 1635 1711 1672 1672 1672 1711 1672 1672 1635 1599 1501 1565 1599 1635 1635 1672 1672 1635 1635 1635 1672 1565 1599 1599 1599 1599 1599 1635 1635 1565 1635 1599 1635 1635 1635 1635 1599 1599 1599 1565 1599 1599 1533 1599 1565 1599 1599 1635 1599 1635 1635 1599 1599 1599 1635 1635 1635 1672 1565 1599 1599 1565 1565 1501 1471 1415 1443 1471 1362 1471 1443 1443 1415 1443 1415 1362 1362 1362 1338 1338 1314 1338 1291 1268 1314 1314 1132 1206 1168 1115 1132 1132 1168 1168 1168 1291 1291 1187 1247 1066 1008 886 0 0 0 943 931 955 931 943 1132 1388 1533 1501 1533 1533 1533 1415 1338 0 0 855 836 0 0 169 169 0 0 799 766 735 766 707 714 721 707 700 700 694 735 728 743 735 714 714 714 707 714 707 714 694 694 0 0 0 1008 0 0 1268 1247 1291 1314 1338 1362 1362 1338 1338 1149 1226 1115 1187 1168 1168 1187 1187 1187 1226 1187 0 0 0 0 0
    0 0 0 0 0 0 0 0 0 0 0 0 0 0 0 0 0 0 0 0 0 0 0 0 0 0 0 0 0 0 0 0 0 0 0 0 0 0 0 0 0 0 0 0 0 0 0 0 0 0 0 0 0 0 0 0 0 0 0 0 0 0 0 0 0 0 0 0 0 1471 1501 1471 1501 1501 1471 1443 1533 1501 1443 1471 1471 1471 1471 1443 1471 1415 1443 1501 1388 1443 1471 1443 1471 1501 1471 1471 1471 1533 1501 1501 1565 1501 1443 1501 1471 1443 1533 1533 1565 1565 1533 1501 1565 1533 1599 1565 1599 1501 1565 1565 1533 1565 1565 1565 1565 1501 1599 1599 1599 1672 1635 1599 1565 1501 1533 1565 1533 1672 1599 1599 1635 1672 1635 1635 1599 1533 1443 1501 1533 1565 1565 1599 1599 1565 1599 1565 1599 1501 1533 1533 1533 1565 1599 1599 1635 1565 1635 1599 1635 1635 1599 1599 1565 1565 1565 1533 1565 1533 1501 1533 1533 1565 1565 1599 1501 1565 1565 1533 1565 1533 1565 1565 1565 1635 1501 1533 1533 1471 1443 1415 1388 1362 1388 1415 1362 1415 1415 1415 1388 1415 1388 1362 1362 1362 1314 1338 1314 1338 1291 1268 1291 1291 1132 1206 1168 1132 1132 1149 1168 1168 1168 1291 1291 1168 1226 1051 1008 0 0 0 0 931 931 943 931 943 1051 1362 1471 1443 1443 1443 1443 1388 1314 0 0 836 826 735 0 0 0 0 0 791 758 728 743 700 707 714 700 700 700 700 758 743 758 766 728 728 728 714 721 714 721 700 694 694 681 0 0 700 669 639 0 1268 1291 1314 1338 1338 1314 1338 1168 1247 1132 1187 1168 1187 1187 1187 1187 1226 1206 0 0 0 0 0
    0 0 0 0 0 0 0 0 0 0 0 0 0 0 0 0 0 0 0 0 0 0 0 0 0 0 0 0 0 0 0 0 0 0 0 0 0 0 0 0 0 0 0 0 0 0 0 0 0 0 0 0 0 0 0 0 0 0 0 0 0 0 0 0 0 0 0 0 0 1471 1471 1443 1443 1443 1415 1415 1443 1415 1388 1415 1415 1415 1415 1415 1415 1388 1388 1415 1338 1388 1415 1388 1443 1443 1443 1415 1443 1471 1471 1415 1471 1388 1362 1388 1388 1362 1443 1443 1471 1471 1471 1443 1501 1501 1565 1533 1565 1471 1501 1501 1443 1471 1471 1443 1471 1443 1533 1533 1533 1672 1565 1533 1471 1443 1443 1471 1471 1599 1533 1565 1599 1635 1599 1599 1533 1471 1415 1443 1443 1471 1471 1533 1533 1501 1565 1501 1565 1471 1501 1471 1501 1501 1565 1533 1565 1533 1599 1565 1635 1635 1565 1565 1533 1533 1565 1501 1533 1501 1471 1501 1471 1533 1533 1533 1471 1501 1501 1471 1501 1471 1501 1501 1533 1599 1471 1471 1471 1415 1415 1388 1362 1362 1362 1388 1338 1388 1388 1388 1362 1388 1362 1362 1338 1362 1314 1314 1314 1338 1291 1268 1268 1268 1115 1187 1168 1132 1132 1132 1168 1168 1168 1291 1291 1168 1187 1051 0 0 0 0 0 0 0 0 943 943 1051 1314 1362 1362 1338 1291 1362 1338 1247 1022 808 845 836 743 791 0 774 774 774 782 743 721 0 700 0 0 700 694 700 700 766 758 774 782 735 735 721 714 714 707 714 694 694 687 669 675 681 681 651 629 623 618 0 0 0 1314 1291 1314 1168 1226 1132 1187 1168 1187 1187 1187 1187 1226 1187 0 0 0 0 0
    0 0 0 0 0 0 0 0 0 0 0 0 0 0 0 0 0 0 0 0 0 0 0 0 0 0 0 0 0 0 0 0 0 0 0 0 0 0 0 0 0 0 0 0 0 0 0 0 0 0 0 0 0 0 0 0 0 0 0 0 0 0 0 0 0 0 0 0 0 1443 1443 1415 1415 1415 1362 1362 1388 1362 1338 1362 1388 1388 1388 1388 1388 1388 1362 1388 1338 1362 1388 1388 1415 1415 1415 1388 1415 1443 1415 1388 1388 1338 1314 1314 1338 1314 1362 1362 1388 1388 1388 1388 1443 1443 1533 1471 1501 1443 1443 1443 1388 1415 1415 1388 1415 1388 1471 1443 1443 1599 1471 1443 1388 1388 1388 1388 1415 1471 1443 1501 1533 1599 1533 1533 1471 1415 1388 1415 1388 1415 1415 1443 1443 1415 1501 1443 1471 1415 1443 1415 1443 1443 1501 1471 1501 1471 1533 1501 1599 1599 1533 1533 1501 1471 1471 1443 1471 1443 1388 1415 1415 1443 1443 1471 1415 1443 1443 1443 1443 1443 1471 1471 1471 1533 1443 1415 1443 1388 1415 1362 1362 1362 1338 1362 1338 1362 1362 1362 1338 1362 1338 1338 1338 1338 1314 1314 1291 1338 1291 1247 1247 1226 1098 1187 1149 1115 1132 1132 1168 1149 1168 1268 1247 1149 1082 0 0 0 0 0 0 0 0 0 0 955 1066 1268 1314 1291 1291 1247 1314 1291 1132 981 826 855 836 743 791 0 766 774 766 774 735 714 131 0 0 0 0 694 0 694 774 766 791 791 743 728 714 707 707 700 700 687 681 675 669 675 675 657 629 618 613 603 593 561 545 553 0 1314 1168 1226 1132 1187 1168 1187 1187 1187 1187 1226 1206 0 0 0 0 0</data></depth>
</opencv_storage>
