<?xml version="1.0"?>
<opencv_storage>
<gps_time_stamp>26530</gps_time_stamp>
<gps_x>-5.7549133300781250e+000</gps_x>
<gps_y>8.3480620384216309e-001</gps_y>
<gps_z>-1.4543287754058838e+000</gps_z>
<image_time_stamp>14467</image_time_stamp>
<depth type_id="opencv-matrix">
  <rows>85</rows>
  <cols>320</cols>
  <dt>s</dt>
  <data>
    0 0 0 0 0 0 0 0 0 0 0 0 0 0 0 0 0 0 0 0 0 0 0 0 0 0 0 0 0 0 0 0 0 0 0 0 0 0 0 0 0 0 0 0 0 0 0 0 0 0 0 0 0 0 0 0 0 0 0 0 0 0 0 0 0 0 0 0 0 0 0 0 0 0 0 0 0 0 0 0 0 0 0 0 0 0 0 0 0 0 0 0 0 0 0 0 0 8177 8177 8177 8177 0 8177 8177 0 0 0 0 0 0 0 0 0 0 0 0 0 0 0 0 0 0 0 0 0 0 0 0 0 0 0 0 9199 0 0 0 0 6133 0 0 8177 0 0 0 0 0 0 0 0 0 0 0 0 0 0 0 0 8177 9199 7359 6133 0 0 6690 7359 7359 8177 0 8177 8177 6690 6690 7359 6690 6690 6690 6690 6133 6690 8177 8177 8177 0 0 0 0 0 6690 6133 6133 6133 6133 6133 5661 6133 6133 8177 8177 8177 8177 7359 7359 8177 7359 6690 6133 6133 6133 5661 5661 5256 4599 4906 4906 4906 4906 5256 5256 5661 5661 6133 5661 4599 5256 5256 4906 4599 4599 4599 4329 4599 6690 4088 4599 4599 3679 3679 3504 3345 3066 3066 2943 2725 2537 2537 2374 2102 2299 2164 2230 2164 2164 2164 2102 2230 2164 2102 2102 2044 2102 2102 2044 2102 2044 2102 2044 2102 2164 2102 2102 2164 2164 2102 2164 2299 2164 2044 2102 1989 1936 1936 1989 1989 1936 1989 2044 2044 2044 2044 2102 2102 2102 2164 2044 2230 0 0 0 0 0 0 0 0 2044 1795 1752 1711 1711 1672 1672 1672 1635 1635 1635 1672 0 0 0 0 0
    0 0 0 0 0 0 0 0 0 0 0 0 0 0 0 0 0 0 0 0 0 0 0 0 0 0 0 0 0 0 0 0 0 0 0 0 0 0 0 0 0 0 0 0 0 0 0 0 0 0 0 0 0 0 0 0 0 0 0 0 0 0 0 0 0 0 0 0 0 0 0 0 0 0 0 0 0 0 0 0 0 0 0 0 0 0 0 0 0 0 0 0 8177 0 8177 0 8177 8177 8177 8177 8177 0 8177 8177 0 0 0 0 0 0 0 0 0 0 0 0 0 0 0 0 0 0 0 0 0 0 0 0 0 0 0 0 0 0 0 0 7359 6133 0 0 0 0 0 0 0 0 0 0 0 0 0 0 0 0 0 0 0 8177 0 7359 5661 0 0 6690 8177 7359 8177 0 8177 8177 6690 0 7359 6690 6690 6690 6690 6133 6690 0 8177 8177 0 0 0 0 0 6690 6133 6690 6690 6133 6133 5661 6133 6690 8177 8177 8177 8177 6690 6690 8177 7359 6133 6133 6133 6133 5661 5661 5256 4599 4906 4906 4906 4906 5256 5256 5256 5256 5661 5661 4329 5256 4906 4599 4599 4599 4599 4329 4599 6133 4088 4599 4599 3873 3679 3504 3345 3199 3066 2943 2830 2628 2628 2453 2102 2230 2164 2230 2164 2102 2164 2102 2230 2164 2102 2102 2044 2102 2102 2044 2102 2044 2102 2044 2102 2164 2102 2102 2164 2164 2102 2164 2230 2164 2044 2044 1989 1989 1936 1989 1989 1989 2044 2044 2044 2044 2044 2102 2102 2102 2164 2044 2230 2299 2537 0 0 0 0 2044 2044 1936 1635 1672 1672 1672 1635 1635 1635 1599 1635 1672 1672 0 0 0 0 0
    0 0 0 0 0 0 0 0 0 0 0 0 0 0 0 0 0 0 0 0 0 0 0 0 0 0 0 0 0 0 0 0 0 0 0 0 0 0 0 0 0 0 0 0 0 0 0 0 0 0 0 0 0 0 0 0 0 0 0 0 0 0 0 0 0 0 0 0 0 0 0 0 0 0 0 0 0 0 0 0 0 0 0 0 0 0 0 0 0 0 0 0 8177 8177 8177 0 0 8177 0 0 0 0 8177 0 0 0 0 0 0 0 0 0 0 0 0 0 0 0 0 0 0 0 0 0 0 0 0 0 0 0 0 0 0 0 0 0 8177 5661 0 0 0 0 0 0 0 0 0 0 0 0 0 0 0 0 0 0 0 8177 0 7359 5661 0 0 6690 7359 7359 8177 7359 8177 8177 6690 6690 7359 6690 6690 6133 6133 5661 6133 8177 8177 8177 0 0 0 0 0 7359 6690 6690 6690 6690 6690 6133 6690 6690 8177 0 0 0 5661 7359 8177 6690 6133 6133 6133 5661 5661 6133 5256 4599 4906 4906 4906 5256 5256 5256 5256 5661 5661 5661 4599 5256 4906 4329 4329 4599 4329 4088 4329 5661 4088 4329 4599 3679 3679 3679 3345 3199 3199 2943 2830 2628 2628 2453 2102 2230 2102 2164 2164 2102 2164 2102 2164 2164 2102 2102 2102 2102 2102 2044 2102 2044 2102 2102 2102 2164 2102 2102 2164 2164 2102 2164 2230 2164 2044 2044 2044 2044 1989 2044 2044 1989 2044 2044 2044 2044 2044 2102 2044 2044 2230 2044 2299 2374 2628 0 0 0 1936 1936 1936 1839 1635 1672 1672 1672 1672 1672 1635 1635 1672 1711 1711 0 0 0 0 0
    0 0 0 0 0 0 0 0 0 0 0 0 0 0 0 0 0 0 0 0 0 0 0 0 0 0 0 0 0 0 0 0 0 0 0 0 0 0 0 0 0 0 0 0 0 0 0 0 0 0 0 0 0 0 0 0 0 0 0 0 0 0 0 0 0 0 0 0 0 0 0 0 0 0 0 0 0 0 0 0 0 0 0 0 0 0 0 0 0 0 0 0 7359 7359 0 0 0 0 0 0 0 0 8177 8177 8177 0 0 0 0 0 0 0 0 0 0 0 0 0 0 0 0 0 0 0 0 0 0 0 0 0 0 0 0 0 0 0 8177 5661 0 0 0 0 0 0 0 0 0 0 0 0 0 0 0 0 0 0 0 8177 8177 7359 5256 0 0 7359 8177 7359 8177 7359 8177 8177 6690 6690 7359 6133 6133 6133 6133 5661 6133 8177 8177 8177 0 0 0 0 0 8177 6690 7359 7359 6690 6690 6690 7359 7359 0 0 0 0 5256 6133 6690 5256 5256 5256 5256 5256 5256 5661 5256 4906 4906 4906 5256 5256 5661 5256 5661 5661 5661 5661 4599 4906 4599 4329 4329 4329 4088 3873 4329 5256 4088 4329 4599 3873 3679 3679 3679 3504 3345 3199 2943 2725 2628 2374 2164 2164 2102 2164 2164 2102 2164 2102 2164 2102 2044 2102 2044 2102 2102 2102 2102 2102 2102 2102 2102 2164 2102 2102 2164 2164 2102 2164 2230 2230 2102 2102 2102 2044 2044 2102 2102 2044 2102 2044 2102 2044 2102 2102 2044 2044 2164 1989 2230 2299 2628 0 0 0 1839 1795 1839 1752 1599 1635 1672 1672 1672 1635 1635 1635 1672 1711 1752 0 0 0 0 0
    0 0 0 0 0 0 0 0 0 0 0 0 0 0 0 0 0 0 0 0 0 0 0 0 0 0 0 0 0 0 0 0 0 0 0 0 0 0 0 0 0 0 0 0 0 0 0 0 0 0 0 0 0 0 0 0 0 0 0 0 0 0 0 0 0 0 0 0 0 8177 0 0 0 0 0 0 0 0 0 0 0 0 0 0 0 0 0 0 0 0 0 0 7359 6690 0 0 0 0 0 0 0 0 8177 8177 7359 0 0 0 0 0 0 0 0 0 0 0 0 0 0 0 0 0 0 0 0 0 0 0 0 0 0 0 0 0 0 0 0 0 0 0 0 0 0 0 0 0 0 0 0 0 0 0 0 0 0 0 0 8177 8177 7359 4906 8177 8177 8177 8177 8177 8177 8177 8177 0 7359 7359 7359 6133 6133 6133 6133 5661 6133 8177 7359 8177 0 0 0 0 0 8177 7359 7359 7359 7359 6690 6690 6690 7359 0 0 0 0 4599 5661 6133 4906 5256 4906 4906 4906 5256 5256 5256 4906 4906 4906 5256 5256 5661 5256 5661 5256 5661 5256 4329 4906 4329 4088 4088 4088 4088 3873 4329 4906 4088 4329 4329 3679 3873 3873 3679 3679 3504 3199 3199 2943 2725 2453 2164 2230 2102 2102 2102 2102 2102 2102 2102 2102 2044 2102 2102 2102 2102 2102 2164 2102 2164 2164 2102 2164 2102 2102 2164 2164 2164 2164 2164 2230 2102 2102 2164 2102 2102 2102 2102 2102 2102 2102 2164 2102 2164 2164 2102 2102 2299 2102 2537 2537 2830 0 0 0 1795 1635 1752 1711 1599 1599 1635 1635 1635 1599 1599 1565 1599 1672 1711 0 0 0 0 0
    0 0 0 0 0 0 0 0 0 0 0 0 0 0 0 0 0 0 0 0 0 0 0 0 0 0 0 0 0 0 0 0 0 0 0 0 0 0 0 0 0 0 0 0 0 0 0 0 0 0 0 0 0 0 0 0 0 0 0 0 0 0 0 0 0 0 0 0 0 8177 0 0 0 0 0 0 0 0 0 0 0 0 0 0 0 0 0 0 0 0 0 0 6690 6133 6690 0 0 0 0 0 0 0 8177 8177 7359 0 0 0 0 0 0 0 0 0 0 0 0 0 0 0 0 0 0 0 0 0 0 0 0 0 0 0 0 0 0 0 0 0 0 0 4906 0 0 0 0 0 0 0 0 0 0 0 0 0 0 0 0 8177 8177 8177 5256 8177 8177 0 0 8177 8177 8177 8177 0 8177 8177 7359 6133 6133 6690 6133 5661 6133 8177 8177 0 0 0 0 0 0 8177 7359 7359 7359 7359 7359 6690 6690 6690 8177 0 0 8177 4088 5661 5661 4906 4906 4906 4906 4906 5256 5256 5256 4906 4906 4906 5256 5256 5661 5256 5256 4906 5256 4599 4088 4329 4088 3873 4088 4088 4088 3873 4329 4906 4088 4599 4329 3873 3679 3679 3679 3504 3345 3199 3066 2943 2725 2374 2164 2164 2044 2044 2044 2044 2044 2044 2102 2044 2044 2102 2102 2102 2102 2164 2164 2102 2164 2164 2102 2164 2102 2044 2102 2164 2102 2102 2164 2164 2102 2102 2164 2102 2102 2164 2164 2164 2164 2164 2164 2164 2230 2164 2230 2164 2453 2230 2628 2628 2725 0 0 1752 1672 1565 1672 1672 1565 1565 1599 1599 1599 1565 1501 1443 1501 1565 0 0 0 0 0 0
    0 0 0 0 0 0 0 0 0 0 0 0 0 0 0 0 0 0 0 0 0 0 0 0 0 0 0 0 0 0 0 0 0 0 0 0 0 0 0 0 0 0 0 0 0 0 0 0 0 0 0 0 0 0 0 0 0 0 0 0 0 0 0 0 0 0 0 0 0 8177 8177 8177 0 0 0 0 0 0 0 0 0 0 0 0 0 0 0 0 0 0 0 0 6690 5661 6690 8177 7359 7359 7359 8177 8177 8177 8177 8177 7359 0 0 0 0 0 0 0 0 0 0 0 0 0 0 0 0 0 0 0 0 0 0 0 0 0 0 0 0 0 0 0 0 0 0 0 6133 0 0 0 0 0 0 0 0 0 0 0 0 0 0 0 0 8177 9199 8177 4906 7359 7359 0 0 8177 0 0 0 0 8177 0 7359 6690 6690 6690 6133 6133 6690 8177 8177 0 0 0 0 0 0 8177 7359 8177 8177 8177 7359 6690 6690 6690 8177 8177 7359 7359 3873 5661 5661 4906 4906 4906 4906 4906 5256 5256 4906 4906 4906 4906 4906 5256 5661 4906 5256 4599 4906 4329 3873 4088 3873 3679 3873 4088 3873 3873 4329 4906 4329 4599 4329 3873 3679 3679 3345 3199 3199 3066 2943 2943 2725 2453 2230 2230 2044 2044 2044 2044 2044 2044 2102 2044 1989 2044 2102 2102 2164 2164 2164 2102 2164 2164 2102 2102 2044 2044 2102 2102 2102 2044 2102 2230 2102 2164 2230 2164 2164 2164 2230 2164 2230 2164 2230 2230 2230 2230 2299 2230 2537 2230 2537 2453 2537 2230 0 1795 1672 1599 1711 1672 1565 1565 1565 1599 1565 1501 1471 1415 1443 1533 0 0 0 0 0 0
    0 0 0 0 0 0 0 0 0 0 0 0 0 0 0 0 0 0 0 0 0 0 0 0 0 0 0 0 0 0 0 0 0 0 0 0 0 0 0 0 0 0 0 0 0 0 0 0 0 0 0 0 0 0 0 0 0 0 0 0 0 0 0 0 0 0 0 0 0 8177 0 0 0 0 0 0 0 0 0 0 0 0 0 0 0 0 0 0 0 0 0 0 7359 5661 6690 0 7359 7359 7359 8177 8177 0 0 8177 7359 0 0 0 0 0 0 0 0 0 0 0 0 0 0 0 0 0 0 0 0 0 0 0 0 0 0 0 0 0 0 0 0 0 0 0 8177 0 0 0 0 0 0 0 0 0 8177 8177 8177 0 8177 0 0 8177 8177 7359 4599 6690 6690 0 0 0 0 0 0 0 0 0 7359 6690 6690 7359 6690 6690 7359 0 8177 0 0 0 0 0 0 8177 8177 0 8177 0 7359 6690 6690 6690 8177 7359 7359 6690 3873 5661 5661 4906 4906 5256 4906 4906 5256 4906 4906 4906 4906 4599 4599 4906 4906 4329 4599 3873 4088 3873 3679 3679 3504 3679 3679 4088 3873 3873 4329 4599 4329 4599 4329 3873 3504 3504 3345 3199 3066 2830 2830 2725 2628 2453 2299 2230 2102 2102 2102 2044 2044 1989 2044 2044 1989 2044 2102 2102 2164 2102 2164 2164 2164 2164 2102 2102 2044 2044 2102 2164 2102 2102 2102 2299 2164 2230 2230 2230 2164 2230 2299 2230 2230 2230 2230 2230 2230 2230 2230 2230 2453 2230 2453 2374 2453 2230 2044 1839 1752 1672 1711 1672 1565 1533 1565 1599 1533 1443 1415 1362 0 0 0 0 0 0 0 0
    0 0 0 0 0 0 0 0 0 0 0 0 0 0 0 0 0 0 0 0 0 0 0 0 0 0 0 0 0 0 0 0 0 0 0 0 0 0 0 0 0 0 0 0 0 0 0 0 0 0 0 0 0 0 0 0 0 0 0 0 0 0 0 0 0 0 0 0 0 8177 8177 8177 0 0 0 0 0 0 0 0 0 0 0 0 0 0 0 0 0 0 8177 0 7359 5661 6690 0 7359 7359 8177 8177 8177 0 0 0 8177 0 0 0 0 0 0 0 0 0 0 0 0 0 0 0 0 0 0 0 0 0 0 0 0 0 0 0 0 0 0 0 0 0 0 0 0 0 0 0 0 0 0 0 0 8177 8177 8177 8177 8177 8177 8177 8177 8177 8177 7359 4088 6690 6690 0 0 0 0 0 0 0 0 0 8177 7359 7359 7359 7359 8177 8177 0 0 0 0 0 0 0 0 8177 7359 0 8177 0 7359 6690 6690 6690 7359 7359 6690 6690 3873 5661 5661 4599 4906 5256 5256 4906 5256 4906 4906 4599 4599 4599 4329 4329 4329 3873 4088 3679 4088 0 0 3504 3504 3679 3873 4329 3873 3873 4329 4599 4088 4329 4088 3679 3504 3504 3345 3199 3066 2830 2830 2725 2628 2453 2374 2230 2102 2102 2164 2044 2044 2044 2102 2044 2044 2102 2102 2102 2102 2102 2164 2164 2164 2230 2044 2102 2044 2044 2044 2102 2044 2044 2102 2299 2164 2230 2230 2230 2164 2230 2299 2230 2230 2230 2230 2230 2230 2230 2164 2299 2374 2230 2453 2374 2374 2230 2102 1936 1795 1711 1711 1672 1533 1533 1501 1533 1443 1388 1362 1314 0 0 0 0 0 0 0 0
    0 0 0 0 0 0 0 0 0 0 0 0 0 0 0 0 0 0 0 0 0 0 0 0 0 0 0 0 0 0 0 0 0 0 0 0 0 0 0 0 0 0 0 0 0 0 0 0 0 0 0 0 0 0 0 0 0 0 0 0 0 0 0 0 0 0 0 0 0 8177 8177 8177 0 0 0 0 0 0 0 0 0 0 0 0 0 0 0 0 0 8177 8177 8177 6690 5661 6690 0 7359 7359 8177 8177 8177 0 0 0 0 0 0 0 0 0 0 0 0 0 0 0 0 0 0 0 8177 0 0 0 0 0 0 0 0 0 0 0 0 0 0 0 0 0 0 0 0 0 0 0 8177 0 0 8177 8177 7359 7359 8177 8177 8177 8177 8177 8177 8177 0 8177 4088 6133 6133 0 0 8177 0 0 0 0 0 0 8177 7359 8177 8177 7359 0 8177 0 8177 0 0 0 0 0 0 7359 7359 0 8177 0 6690 6690 6133 6133 7359 6690 6133 6690 3873 6133 5256 4906 5256 5256 5256 5256 5256 4906 4906 4599 4599 4329 4329 4329 4088 3504 0 0 0 0 0 3345 3345 3504 3873 4329 3679 3679 4329 4329 4088 4329 3679 3504 3345 3345 3199 3199 2943 2830 2725 2628 2628 2374 2374 2230 2164 2164 2230 2102 2102 2102 2102 2044 2044 2102 2164 2164 2164 2164 2230 2164 2164 2230 1989 2044 1989 1989 2044 2044 2044 2044 2102 2299 2164 2230 2299 2230 2164 2230 2230 2230 2230 2164 2230 2230 2230 2230 2164 2299 2299 2299 2374 2374 2374 2299 2164 1989 1839 1711 1672 1635 1533 1471 1443 1443 1388 1338 1291 1187 0 0 0 0 0 0 0 0
    0 0 0 0 0 0 0 0 0 0 0 0 0 0 0 0 0 0 0 0 0 0 0 0 0 0 0 0 0 0 0 0 0 0 0 0 0 0 0 0 0 0 0 0 0 0 0 0 0 0 0 0 0 0 0 0 0 0 0 0 0 0 0 0 0 0 0 0 0 8177 0 8177 0 0 0 0 0 0 0 0 0 0 0 0 0 0 8177 8177 8177 8177 7359 8177 7359 5661 7359 0 8177 8177 8177 0 0 0 0 0 0 0 0 0 0 0 0 0 0 0 0 0 0 0 0 0 8177 8177 0 0 0 0 0 0 0 0 0 0 0 0 0 0 0 0 0 0 0 0 0 8177 8177 0 8177 8177 8177 7359 7359 8177 8177 0 8177 8177 0 0 0 8177 4329 6133 6133 0 0 8177 0 0 0 0 0 0 8177 7359 8177 8177 7359 8177 8177 0 8177 0 8177 0 0 0 0 7359 7359 0 8177 0 6690 6133 6133 5661 6690 6133 5661 6133 3873 6133 5256 4906 5256 5256 5256 4906 4906 4906 4599 4088 4329 4329 0 0 0 0 0 0 0 0 0 3199 3199 3504 3679 3873 3504 3679 4088 4329 3873 4329 3679 3345 3345 3199 3066 3066 2943 2830 2628 2537 2628 2299 2374 2299 2164 2230 2299 2102 2102 2102 2164 2102 2102 2102 2164 2164 2164 2164 2230 2164 2164 2230 1989 2044 2044 1989 2044 2044 2044 2044 2102 2299 2164 2230 2299 2230 2230 2230 2230 2230 2230 2230 2230 2230 2299 2230 2230 2374 2299 2299 2374 2374 2374 2230 2164 1989 1839 1711 1672 1599 1501 1388 1362 1362 1338 1268 1149 0 0 0 721 0 0 0 0 0
    0 0 0 0 0 0 0 0 0 0 0 0 0 0 0 0 0 0 0 0 0 0 0 0 0 0 0 0 0 0 0 0 0 0 0 0 0 0 0 0 0 0 0 0 0 0 0 0 0 0 0 0 0 0 0 0 0 0 0 0 0 0 0 0 0 0 0 0 0 0 0 0 0 0 0 0 0 0 0 0 0 0 0 0 0 0 8177 8177 8177 7359 7359 7359 7359 5661 7359 0 8177 8177 8177 0 0 0 0 0 0 0 0 0 0 0 0 0 0 0 0 0 0 0 0 0 0 0 0 0 0 0 0 0 0 0 0 0 0 0 0 0 0 0 0 0 0 0 8177 7359 7359 8177 7359 6690 7359 6690 7359 8177 0 0 0 0 0 0 0 0 4599 6690 6133 0 0 8177 0 0 0 0 0 0 8177 7359 8177 7359 7359 7359 8177 0 7359 8177 8177 0 0 0 0 6690 7359 0 7359 8177 6133 6133 5661 5256 6133 5661 5256 5256 3873 5661 5256 4906 5256 5256 5256 5256 4906 4599 4599 4088 4329 4329 0 0 0 0 0 0 0 0 0 2830 3066 3345 3504 3504 3345 3504 4088 4329 3873 4329 3504 3345 3345 3199 3066 3066 2830 2725 2628 2453 2628 2230 2374 2299 2164 2230 2230 2102 2102 2164 2164 2044 2102 2102 2230 2164 2164 2164 2230 2230 2230 2230 2044 2044 2044 1989 2044 2044 2044 2044 2102 2299 2164 2230 2230 2230 2164 2230 2230 2230 2230 2230 2230 2299 2299 2230 2299 2374 2299 2299 2299 2374 2374 2230 2164 1989 1839 1711 1635 1533 1415 1314 1314 1314 1268 1115 0 0 0 728 707 0 0 0 0 0
    0 0 0 0 0 0 0 0 0 0 0 0 0 0 0 0 0 0 0 0 0 0 0 0 0 0 0 0 0 0 0 0 0 0 0 0 0 0 0 0 0 0 0 0 0 0 0 0 0 0 0 0 0 0 0 0 0 0 0 0 0 0 0 0 0 0 0 0 0 0 0 0 0 0 0 0 0 0 0 0 0 0 0 0 0 0 8177 8177 7359 7359 7359 7359 7359 5661 6690 0 8177 8177 0 0 0 0 0 0 0 0 0 0 0 0 0 0 0 0 0 0 0 0 0 0 0 0 0 0 0 0 0 0 0 0 0 0 0 0 0 0 0 0 0 8177 8177 7359 7359 6690 6690 7359 6690 6133 6690 6133 7359 7359 8177 0 0 0 0 0 0 0 4906 6690 6690 0 0 8177 0 0 0 0 0 0 8177 7359 8177 7359 7359 8177 8177 0 7359 8177 8177 8177 0 0 0 6690 7359 9199 7359 8177 6133 5661 5661 4906 5661 4906 4599 4906 3873 5661 4906 5256 5256 5256 5256 5256 4906 4599 4599 4088 4329 4599 0 0 0 0 0 0 0 0 0 2453 2628 0 0 3504 3345 3504 3873 4088 3679 4088 3504 3199 3199 3066 2943 2943 2830 2830 2628 2537 2725 2374 2374 2299 2230 2230 2299 2164 2164 2164 2164 2044 2102 2164 2230 2164 2230 2164 2230 2230 2299 2230 2044 2044 2044 1989 2044 2044 2044 2044 2102 2299 2164 2230 2230 2230 2164 2230 2230 2230 2230 2230 2164 2299 2299 2230 2230 2374 2299 2299 2299 2374 2299 2230 2164 1989 1839 1752 1565 1388 1338 1226 1226 1168 1132 0 0 700 694 694 694 0 0 0 0 0
    0 0 0 0 0 0 0 0 0 0 0 0 0 0 0 0 0 0 0 0 0 0 0 0 0 0 0 0 0 0 0 0 0 0 0 0 0 0 0 0 0 0 0 0 0 0 0 0 0 0 0 0 0 0 0 0 0 0 0 0 0 0 0 0 0 0 0 0 0 0 0 0 0 0 0 0 0 0 0 0 0 0 0 0 0 0 0 8177 8177 7359 7359 7359 8177 6133 6690 0 8177 8177 0 0 0 0 0 0 0 0 0 0 0 0 0 0 0 0 0 0 0 0 0 0 0 0 0 0 0 0 0 0 0 0 0 0 0 0 0 0 0 8177 8177 6690 6690 6133 6690 6690 6690 6690 6690 5661 6690 6133 6690 7359 8177 0 0 0 0 0 0 0 5661 7359 6690 0 0 8177 8177 0 0 0 0 0 8177 7359 8177 7359 7359 8177 8177 0 7359 8177 8177 8177 0 0 0 6690 7359 0 7359 8177 6133 6133 5661 5256 5661 4906 4599 4906 3873 5661 4906 5256 4906 5256 4906 5256 4906 4599 4329 4088 4088 4599 0 0 0 0 0 0 0 0 0 0 1989 0 0 0 0 0 3504 3679 3345 3679 3345 2943 3199 3066 2943 2943 2830 2830 2725 2537 2725 2374 2374 2299 2230 2299 2299 2230 2230 2299 2230 2044 2164 2164 2230 2230 2230 2164 2230 2230 2299 2164 2044 2102 2044 2044 2044 2102 2044 2102 2102 2299 2164 2299 2230 2230 2164 2230 2164 2230 2230 2164 2164 2230 2299 2230 2230 2374 2230 2299 2299 2374 2299 2230 2164 1989 1887 1752 1443 1268 1226 1082 0 0 735 694 700 687 675 675 681 0 0 0 0 0
    0 0 0 0 0 0 0 0 0 0 0 0 0 0 0 0 0 0 0 0 0 0 0 0 0 0 0 0 0 0 0 0 0 0 0 0 0 0 0 0 0 0 0 0 0 0 0 0 0 0 0 0 0 0 0 0 0 0 0 0 0 0 0 0 0 0 0 0 0 0 0 0 0 0 0 0 0 0 0 0 0 0 0 0 0 0 0 8177 8177 7359 7359 7359 8177 6133 6690 0 8177 8177 0 0 0 0 0 0 0 0 0 0 0 0 0 0 0 0 0 0 0 0 0 0 0 0 0 0 0 0 0 0 0 0 0 0 0 0 8177 7359 0 6690 6690 6133 6133 6133 6133 6133 6690 6690 6690 5256 6133 6133 6690 7359 8177 0 0 0 0 0 0 0 6690 7359 7359 0 0 8177 9199 8177 0 0 0 0 7359 7359 7359 7359 7359 7359 8177 8177 7359 8177 8177 8177 0 0 0 6690 8177 0 7359 7359 6133 6133 6133 5256 6133 4906 4906 4906 3679 5661 5256 5256 5256 5256 4599 5661 4906 4599 4329 3873 4088 4906 0 0 0 0 0 0 0 0 0 0 0 0 0 0 0 1168 0 0 0 3199 3066 2725 3066 3066 2943 2830 2725 2830 2725 2628 2725 2453 2374 2374 2230 2453 2299 2230 2299 2299 2299 2102 2230 2230 2230 2299 2230 2164 2230 2299 2299 2164 2102 2102 2102 2044 2102 2102 2044 2164 2164 2299 2230 2299 2299 2230 2164 2230 2164 2164 2164 2164 2164 2164 2230 2230 2230 2374 2230 2299 2299 2299 2299 2164 2102 1936 1887 1711 1338 1098 0 0 865 808 707 687 687 681 669 663 675 0 0 0 0 0
    0 0 0 0 0 0 0 0 0 0 0 0 0 0 0 0 0 0 0 0 0 0 0 0 0 0 0 0 0 0 0 0 0 0 0 0 0 0 0 0 0 0 0 0 0 0 0 0 0 0 0 0 0 0 0 0 0 0 0 0 0 0 0 0 0 0 0 0 0 0 0 0 0 0 0 0 0 0 0 0 0 0 0 0 0 0 0 8177 8177 7359 7359 8177 0 6690 0 0 8177 8177 0 0 0 0 0 0 0 0 0 0 0 0 0 0 0 0 0 0 0 0 0 0 0 0 0 0 0 0 0 0 0 0 0 0 0 0 8177 6690 8177 6133 6690 6133 6133 6133 6690 6690 6690 6690 7359 5661 6690 6133 6690 7359 7359 8177 0 0 0 0 0 0 7359 8177 8177 0 0 0 0 8177 0 0 0 0 7359 6690 7359 7359 6690 8177 8177 8177 7359 8177 8177 7359 8177 0 7359 6690 7359 8177 7359 7359 6690 6690 6133 5661 6133 5256 5256 5256 3679 5661 5256 5256 5256 5256 4599 5256 4906 4599 4329 3873 4088 4906 4329 0 0 0 0 0 0 0 1635 0 0 0 0 1268 1291 1187 1036 1082 1115 0 2830 0 0 2943 2830 2830 2725 2943 2725 2628 2830 2537 2453 2453 2374 2453 2299 2299 2299 2374 2299 2102 2230 2230 2299 2374 2299 2230 2299 2299 2374 2230 2164 2102 2164 2102 2102 2102 2102 2164 2230 2299 2230 2230 2230 2164 2164 2230 2102 2164 2164 2102 2102 2164 2230 2164 2230 2299 2230 2299 2299 2299 2230 2164 2102 1936 1839 1565 1268 1036 0 0 826 791 714 687 687 681 675 669 669 0 0 0 0 0
    0 0 0 0 0 0 0 0 0 0 0 0 0 0 0 0 0 0 0 0 0 0 0 0 0 0 0 0 0 0 0 0 0 0 0 0 0 0 0 0 0 0 0 0 0 0 0 0 0 0 0 0 0 0 0 0 0 0 0 0 0 0 0 0 0 0 0 0 0 0 0 0 0 0 0 0 0 0 0 0 0 0 0 0 0 0 0 0 8177 8177 7359 8177 0 6690 0 0 0 0 0 0 0 0 0 0 0 0 0 0 0 0 0 0 0 0 0 0 0 0 0 0 0 0 0 0 0 0 0 0 0 0 0 8177 8177 0 7359 6133 7359 5661 6690 6133 6133 6133 6690 6690 6690 6690 7359 5661 6133 6133 6690 6690 7359 8177 8177 8177 0 0 0 0 8177 0 8177 0 0 0 0 0 0 0 0 0 6690 6690 7359 6690 6690 7359 7359 7359 7359 8177 8177 7359 7359 8177 6690 6133 7359 8177 7359 7359 6690 6690 6690 6133 6133 5661 5661 5661 3679 5661 5256 5256 5256 5256 4599 5256 4906 4906 4329 3873 4088 5256 4599 4599 0 0 0 0 0 0 0 0 0 0 0 1291 1314 1206 1051 1098 1132 0 0 0 0 0 0 2725 2725 3066 2830 2725 2943 2628 2537 2453 2374 2453 2230 2299 2374 2374 2299 2102 2299 2230 2374 2453 2374 2299 2374 2374 2453 2374 2299 2164 2230 2102 2164 2102 2102 2230 2164 2230 2230 2230 2230 2164 2164 2230 2102 2164 2164 2164 2102 2164 2230 2164 2230 2299 2299 2299 2299 2374 2230 2102 2044 1936 1839 1471 1226 994 808 817 808 766 707 687 687 675 675 669 669 0 0 0 0 0
    0 0 0 0 0 0 0 0 0 0 0 0 0 0 0 0 0 0 0 0 0 0 0 0 0 0 0 0 0 0 0 0 0 0 0 0 0 0 0 0 0 0 0 0 0 0 0 0 0 0 0 0 0 0 0 0 0 0 0 0 0 0 0 0 0 0 0 0 0 0 0 0 0 0 0 0 0 0 0 0 0 0 0 0 0 0 0 0 0 8177 8177 8177 0 7359 8177 0 0 0 0 0 0 0 0 0 0 0 0 0 0 0 0 0 0 0 0 0 0 0 0 0 0 0 0 0 0 0 0 0 0 0 0 8177 7359 8177 7359 6133 7359 6133 6690 6133 6133 6133 6690 6690 7359 6690 7359 5661 6133 6133 6690 7359 7359 7359 8177 0 0 0 0 0 0 0 0 0 0 0 0 0 0 0 0 0 7359 6690 6690 6690 6133 7359 6690 7359 7359 7359 8177 6690 7359 8177 6690 6690 7359 8177 7359 7359 7359 7359 7359 6690 6690 5661 5661 5661 3679 5661 5256 5256 4906 4906 4329 4906 4599 4906 4088 3679 4088 4906 4088 4599 0 0 0 0 0 0 1752 0 0 0 1247 1291 1314 1206 1082 1098 1082 1082 0 0 0 0 0 2537 2628 0 2725 2628 2830 2628 2453 2537 2453 2453 2230 2374 2374 2453 2374 2164 2299 2299 2374 2453 2374 2374 2374 2374 2453 2374 2453 2230 2299 2164 2230 2230 2164 2299 2230 2230 2230 2230 2230 2164 2164 2230 2164 2164 2164 2164 2164 2164 2230 2230 2230 2299 2299 2299 2230 2299 2230 2102 2044 1887 1795 1388 1149 919 782 791 782 743 707 681 681 675 675 663 663 0 0 0 0 0
    0 0 0 0 0 0 0 0 0 0 0 0 0 0 0 0 0 0 0 0 0 0 0 0 0 0 0 0 0 0 0 0 0 0 0 0 0 0 0 0 0 0 0 0 0 0 0 0 0 0 0 0 0 0 0 0 0 0 0 0 0 0 0 0 0 0 0 0 0 0 0 0 0 0 0 0 0 0 0 0 0 0 0 0 0 0 0 0 0 0 0 0 0 8177 0 0 0 0 0 0 0 0 0 0 0 0 0 0 0 0 0 0 0 0 0 0 0 0 0 0 0 0 0 0 0 0 0 0 0 0 0 8177 8177 0 7359 6690 6690 6133 6690 6690 6690 6690 6690 6690 7359 6690 7359 5661 6690 6133 7359 7359 7359 8177 8177 0 0 0 0 0 0 0 0 0 0 0 0 0 0 0 0 0 6690 6690 6690 6690 5661 6690 6690 6690 6690 7359 7359 6690 6690 8177 6690 7359 8177 8177 8177 7359 8177 8177 7359 7359 6690 6133 6133 6133 3679 5256 4906 4906 4906 4906 4088 4599 4329 4599 4088 3679 3873 4329 3873 4088 0 0 0 0 0 0 1887 0 0 1362 1268 1314 1291 1226 1098 1066 1051 1066 1206 0 0 0 0 2299 0 0 2628 2628 2830 2537 2453 2453 2537 2537 2299 2453 2453 2453 2374 2164 2374 2299 2374 2453 2453 2374 2374 2374 2537 2453 2453 2299 2374 2230 2299 2230 2230 2299 2230 2230 2230 2230 2164 2164 2164 2230 2164 2164 2164 2164 2164 2230 2164 2230 2230 2299 2299 2299 2230 2230 2164 2044 1989 0 0 1314 1051 0 774 782 774 743 707 687 687 675 669 663 663 0 0 0 0 0
    0 0 0 0 0 0 0 0 0 0 0 0 0 0 0 0 0 0 0 0 0 0 0 0 0 0 0 0 0 0 0 0 0 0 0 0 0 0 0 0 0 0 0 0 0 0 0 0 0 0 0 0 0 0 0 0 0 0 0 0 0 0 0 0 0 0 0 0 0 0 0 0 0 0 0 0 0 0 0 0 0 0 0 0 0 0 0 0 0 0 0 0 0 8177 0 0 8177 0 0 0 0 0 0 0 0 0 0 0 0 0 0 0 0 0 0 0 0 0 0 0 0 0 0 0 0 0 0 0 0 0 0 0 0 0 7359 6690 6690 6133 6690 6133 6690 6690 6133 6690 6690 6690 6690 5661 6690 6133 6690 6690 7359 7359 7359 8177 0 0 0 0 0 0 0 0 0 0 8177 8177 8177 8177 8177 0 6690 6690 6690 6690 5661 6690 6690 6690 6690 7359 7359 6690 6690 7359 6690 7359 8177 8177 8177 7359 8177 8177 8177 7359 7359 6133 6133 6133 3679 5661 4906 4906 4906 4906 4088 4599 4329 4906 4088 3679 3873 4088 3679 0 0 0 0 0 0 0 0 0 0 0 1226 1268 1268 1226 1115 1066 1036 1051 1149 1247 0 0 0 2102 0 0 0 2537 2830 2628 2453 2537 2725 2628 2453 2537 2453 2453 2374 2230 2374 2299 2374 2453 2453 2374 2374 2453 2537 2453 2453 2453 2453 2299 2374 2299 2230 2299 2230 2230 2164 2164 2164 2164 2102 2164 2102 2102 2164 2164 2164 2164 2164 2230 2230 2299 2299 2230 2164 2164 2102 1989 1936 0 0 0 0 782 743 750 735 721 700 681 675 669 663 657 651 0 0 0 0 0
    0 0 0 0 0 0 0 0 0 0 0 0 0 0 0 0 0 0 0 0 0 0 0 0 0 0 0 0 0 0 0 0 0 0 0 0 0 0 0 0 0 0 0 0 0 0 0 0 0 0 0 0 0 0 0 0 0 0 0 0 0 0 0 0 0 0 0 0 0 0 0 0 0 0 0 0 0 0 0 0 0 0 0 0 0 0 0 0 0 0 0 0 0 0 0 0 8177 0 0 0 0 0 0 0 0 0 0 0 0 0 0 0 0 0 0 0 0 0 0 0 0 0 0 0 0 0 0 0 0 0 0 0 0 0 6690 6690 6690 6133 6690 6133 0 6690 6133 6690 7359 6690 6690 0 0 6133 6690 6690 6690 6690 6690 8177 0 0 0 0 0 0 0 0 0 0 8177 8177 8177 8177 8177 0 6690 6133 6690 6690 5661 6133 6133 6690 6690 7359 7359 6133 6133 7359 6133 7359 8177 8177 8177 8177 0 0 0 8177 7359 6690 6690 6690 3873 5661 4906 4906 5256 4906 4329 4599 4088 4906 3873 3504 3679 3679 0 0 0 0 0 0 0 0 0 0 0 0 0 0 0 1247 1132 1082 1051 1036 1082 1168 1115 0 0 0 0 0 0 0 0 0 2537 2628 2725 2725 2537 2537 2537 2537 2453 2299 2453 2374 2374 2453 2453 2374 2374 2453 2537 2453 2453 2453 2537 2374 2453 2453 2299 2374 2299 2230 2230 2164 2164 2164 2164 2230 2102 2164 2164 2164 2164 2164 2230 2230 2164 2374 2299 2230 2164 2102 2044 1989 1887 0 0 0 799 774 743 743 728 721 700 675 675 663 657 645 645 0 0 0 0 0
    0 0 0 0 0 0 0 0 0 0 0 0 0 0 0 0 0 0 0 0 0 0 0 0 0 0 0 0 0 0 0 0 0 0 0 0 0 0 0 0 0 0 0 0 0 0 0 0 0 0 0 0 0 0 0 0 0 0 0 0 0 0 0 0 0 0 0 0 0 0 0 0 0 0 0 0 0 0 0 0 0 0 0 0 0 0 0 0 0 0 0 0 0 0 0 0 8177 0 0 0 0 0 0 0 0 0 0 0 0 0 0 0 0 0 0 0 0 0 0 0 0 0 0 0 0 0 0 0 0 0 0 0 0 0 0 6690 6690 6690 6690 6133 579 0 0 0 7359 0 0 0 0 0 0 0 6690 0 0 0 0 0 0 0 0 0 8177 0 0 0 0 7359 0 8177 7359 8177 6133 5661 6133 6133 5661 6133 6133 6133 6133 6690 6690 6133 6133 7359 6133 7359 8177 8177 8177 8177 0 0 0 0 7359 7359 7359 6690 4088 5661 5256 4906 5256 5256 4329 4599 4088 4906 3504 3345 0 0 0 0 0 0 0 0 0 0 0 0 0 0 0 0 0 0 0 1098 1051 1022 1036 1082 1066 0 0 0 1226 0 0 0 0 0 0 0 0 2830 2537 2537 2537 2537 2453 2374 2453 2453 2374 2453 2453 2374 2374 2453 2453 2453 2453 2453 2537 2453 2453 2453 2374 2453 2374 2299 2299 2230 2164 2164 2230 2230 2102 2164 2230 2164 2164 2230 2230 2230 2230 2453 2453 2299 2230 2102 2044 1936 1887 0 0 0 791 758 735 735 728 721 700 675 669 657 645 634 634 0 0 0 0 0
    0 0 0 0 0 0 0 0 0 0 0 0 0 0 0 0 0 0 0 0 0 0 0 0 0 0 0 0 0 0 0 0 0 0 0 0 0 0 0 0 0 0 0 0 0 0 0 0 0 0 0 0 0 0 0 0 0 0 0 0 0 0 0 0 0 0 0 0 0 0 0 0 0 0 0 0 0 0 0 0 0 0 0 0 0 0 0 0 0 0 0 0 0 0 0 0 8177 0 0 0 0 0 0 0 0 0 0 0 0 0 0 0 0 0 0 0 0 0 8177 0 0 0 0 8177 0 0 0 0 0 0 0 0 0 0 0 0 0 0 0 0 579 0 0 574 0 0 0 0 0 0 0 0 0 0 0 584 0 0 0 0 0 0 8177 0 0 0 8177 7359 0 8177 7359 8177 6133 5661 6133 6133 5661 6133 6133 6133 6690 6690 7359 6133 6133 7359 6133 7359 8177 8177 8177 8177 0 0 0 0 7359 6690 6690 6690 4329 5661 5256 4906 5256 5256 4599 4329 3873 4906 3345 0 0 0 0 0 0 0 0 0 0 0 0 0 3504 3199 0 0 0 0 0 0 1036 1008 1008 1022 1022 0 981 0 1149 0 0 0 0 0 0 0 0 0 2628 2537 2537 2628 2453 2374 2453 2453 2374 2374 2453 2374 2299 2453 2453 2453 2453 2537 2537 2453 2453 2453 2374 2453 2374 2299 2299 2230 2164 2230 2230 2230 2102 2164 2230 2164 2230 2230 2230 2230 2230 2453 2453 2299 2230 2044 1989 1887 1839 0 0 817 782 750 735 743 735 721 707 675 663 645 639 629 623 0 0 0 0 0
    0 0 0 0 0 0 0 0 0 0 0 0 0 0 0 0 0 0 0 0 0 0 0 0 0 0 0 0 0 0 0 0 0 0 0 0 0 0 0 0 0 0 0 0 0 0 0 0 0 0 0 0 0 0 0 0 0 0 0 0 0 0 0 0 0 0 0 0 0 0 0 0 0 0 0 0 0 0 0 0 0 0 0 0 0 0 0 0 0 0 0 0 0 0 0 0 0 0 0 0 0 0 0 0 0 0 0 0 0 0 0 0 0 0 0 0 0 0 0 0 0 0 0 8177 0 0 0 0 0 0 0 0 566 579 0 0 0 0 0 561 579 574 574 579 574 574 570 566 579 570 0 0 570 570 566 584 0 0 0 0 0 0 7359 0 0 8177 8177 7359 7359 8177 7359 0 6133 5661 6690 6133 6133 6133 6133 6690 6690 7359 7359 6133 6133 7359 6133 8177 8177 8177 8177 8177 0 0 0 0 6690 6690 6690 6690 4599 5661 5256 4906 5256 5256 4599 4088 3679 4906 0 0 0 0 0 0 0 0 0 0 0 0 4329 4599 3873 3345 0 0 0 0 118 0 1036 994 994 1008 1008 994 981 994 1036 0 0 1036 955 931 0 955 0 0 2725 2453 2537 2628 2453 2453 2453 2374 2374 2374 2537 2453 2374 2537 2453 2453 2453 2537 2537 2453 2374 2374 2374 2374 2374 2299 2299 2230 2164 2230 2230 2230 2164 2164 2230 2230 2230 2299 2230 2299 2230 2374 2374 2299 2164 1989 1936 1887 1887 0 0 0 782 750 735 0 735 728 707 675 657 639 634 623 618 0 0 0 0 0
    0 0 0 0 0 0 0 0 0 0 0 0 0 0 0 0 0 0 0 0 0 0 0 0 0 0 0 0 0 0 0 0 0 0 0 0 0 0 0 0 0 0 0 0 0 0 0 0 0 0 0 0 0 0 0 0 0 0 0 0 0 0 0 0 0 0 0 0 0 0 0 0 0 0 0 0 0 0 0 0 0 0 0 0 0 0 0 0 0 0 0 0 0 0 0 0 0 0 0 0 0 0 0 0 0 0 0 0 0 0 0 0 0 0 0 0 0 0 0 0 0 0 0 0 0 0 0 0 0 0 0 0 566 579 557 0 0 566 574 561 579 579 579 579 579 574 570 566 579 570 0 0 0 0 570 0 0 0 0 0 0 0 6690 0 0 8177 8177 7359 8177 8177 8177 0 6690 6690 7359 6690 7359 6690 6133 6133 6690 7359 6690 5661 6133 7359 6133 8177 8177 8177 7359 8177 0 0 0 0 6690 7359 6690 7359 4599 5661 5256 5256 5256 5256 4599 4088 3679 0 0 0 0 0 0 0 0 0 0 0 0 4088 4599 4906 4088 3504 3345 0 0 118 118 0 1036 994 994 0 0 0 0 994 1022 0 1008 1022 955 919 931 908 845 0 0 2164 2374 2537 2374 2453 2453 2374 2299 2374 2537 2453 2374 2537 2453 2453 2453 2537 2453 2453 2299 2374 2299 2374 2299 2299 2299 2230 2164 2230 2230 2230 2164 2230 2230 2230 2299 2299 2230 2299 2230 2374 2230 2230 2164 1989 1936 1936 1887 0 0 0 791 0 0 0 0 0 0 669 645 634 0 618 608 0 0 0 0 0
    0 0 0 0 0 0 0 0 0 0 0 0 0 0 0 0 0 0 0 0 0 0 0 0 0 0 0 0 0 0 0 0 0 0 0 0 0 0 0 0 0 0 0 0 0 0 0 0 0 0 0 0 0 0 0 0 0 0 0 0 0 0 0 0 0 0 0 0 0 0 0 0 0 0 8177 0 0 0 0 0 0 0 0 0 0 0 0 0 0 0 0 0 0 0 0 0 0 0 0 0 0 0 0 0 0 0 0 0 0 0 0 0 0 0 0 0 0 0 0 0 0 0 0 8177 0 0 0 0 0 0 0 0 566 579 557 0 561 570 579 561 579 579 579 579 579 574 570 566 579 570 0 0 0 0 0 0 0 0 0 0 0 0 6690 0 0 7359 8177 7359 8177 8177 8177 0 7359 6690 8177 7359 8177 6690 6690 6690 6690 7359 7359 6133 6690 7359 6690 8177 8177 8177 7359 8177 0 0 8177 8177 6690 6690 6690 7359 4906 5661 5256 5256 5256 5661 4599 3873 3679 0 0 0 0 0 0 0 0 1314 1291 0 3679 4088 4599 4906 4088 3504 3504 0 0 118 118 0 1036 994 981 981 0 0 981 981 1008 994 994 1008 955 897 919 886 826 826 845 0 2164 2537 2374 2453 2453 2374 2299 2374 2537 2453 2374 2537 2374 2374 2374 2453 2374 2374 2299 2374 2299 2299 2299 2299 2299 2230 2230 2299 2230 2230 2164 2230 2230 2230 2299 2299 2230 2230 2164 2374 2164 2164 2102 1936 1887 1887 1887 1752 0 0 799 0 0 0 0 0 0 0 0 0 0 598 574 0 0 0 0 0
    0 0 0 0 0 0 0 0 0 0 0 0 0 0 0 0 0 0 0 0 0 0 0 0 0 0 0 0 0 0 0 0 0 0 0 0 0 0 0 0 0 0 0 0 0 0 0 0 0 0 0 0 0 0 0 0 0 0 0 0 0 0 0 0 0 0 0 0 0 0 0 0 0 0 0 0 0 0 0 0 0 0 0 0 0 0 0 0 0 0 0 0 0 0 0 0 0 0 0 0 0 0 0 0 0 0 0 0 0 0 0 0 0 0 0 0 0 0 0 0 0 0 0 0 0 0 0 0 0 0 0 0 566 579 557 0 0 570 579 561 579 574 574 579 574 570 566 561 574 566 0 0 0 0 0 0 0 0 0 0 584 0 6690 0 0 7359 7359 6690 8177 8177 8177 0 7359 6690 8177 8177 8177 7359 7359 6690 7359 8177 7359 6690 6690 8177 7359 0 8177 8177 7359 8177 0 0 8177 8177 6133 6690 6690 7359 4906 5661 4906 5256 5256 5256 4599 3873 3504 0 0 0 0 0 0 0 1291 1291 1291 0 3679 4088 4599 4906 4088 3679 3504 0 0 119 119 0 0 981 955 968 981 994 981 981 994 981 981 1022 943 876 886 865 826 817 836 826 0 0 2102 2299 2299 2299 2230 2299 2537 2453 2299 2537 2453 2453 2453 2453 2374 2374 2299 2374 2299 2374 2374 2299 2374 2230 2299 2299 2230 2299 2164 2299 2230 2230 2299 2230 2230 2230 2164 2299 2102 2102 2044 1887 1887 1839 1839 1672 0 0 817 0 0 0 0 0 0 0 0 0 0 541 541 0 0 0 0 0
    0 0 0 0 0 0 0 0 0 0 0 0 0 0 0 0 0 0 0 0 0 0 0 0 0 0 0 0 0 0 0 0 0 0 0 0 0 0 0 0 0 0 0 0 0 0 0 0 0 0 0 0 0 0 0 0 0 0 0 0 0 0 0 0 0 0 0 0 0 0 0 1362 0 0 0 0 0 0 0 0 0 0 0 0 0 0 0 0 0 0 0 0 0 0 0 0 0 0 0 0 0 0 0 0 0 0 0 0 0 0 0 0 0 0 0 0 0 0 0 0 0 0 0 8177 0 0 0 0 0 0 0 0 566 579 557 0 0 570 579 561 579 574 574 579 574 0 0 0 0 0 0 0 0 0 0 0 0 0 0 0 584 0 6690 0 0 0 0 0 0 8177 8177 0 7359 6690 7359 8177 8177 7359 7359 7359 8177 8177 8177 7359 7359 8177 8177 0 9199 8177 7359 8177 0 0 8177 8177 6133 6690 6690 6690 4906 5256 4906 5256 5256 5661 4599 3873 3679 0 0 0 0 0 0 1268 1268 1291 0 0 3679 4088 4599 4906 4088 3679 3679 0 0 119 119 0 0 968 943 943 955 981 968 968 981 968 981 1022 955 876 876 865 826 826 836 826 845 855 0 2044 2102 2230 2230 2299 2537 2374 2299 2537 2453 2453 2453 2453 2374 2374 2299 2453 2299 2374 2374 2374 2374 2299 2299 2299 2299 2299 2230 2299 2230 2230 2299 2230 2230 2164 2164 2299 2102 2164 2044 1887 1887 1887 1887 1711 1338 0 0 0 0 0 0 0 0 0 0 0 533 533 529 0 0 0 0 0
    0 0 0 0 0 0 0 0 0 0 0 0 0 0 0 0 0 0 0 0 0 0 0 0 0 0 0 0 0 0 0 0 0 0 0 0 0 0 0 0 0 0 0 0 0 0 0 0 0 0 0 0 0 0 0 0 0 0 0 0 0 0 0 0 0 0 0 0 0 0 1291 1314 1291 1268 1247 0 0 0 0 0 0 0 0 0 0 0 0 0 0 0 0 0 0 0 0 0 0 0 0 0 0 0 0 0 0 0 0 0 0 0 0 0 0 0 0 0 0 0 0 0 0 0 0 7359 7359 0 0 0 0 0 0 0 570 579 557 0 0 570 584 557 579 574 0 0 0 0 0 0 0 0 0 0 0 0 0 0 0 0 0 0 584 574 0 0 0 0 0 0 0 0 0 0 7359 7359 8177 0 0 0 0 0 0 0 0 0 7359 0 8177 8177 8177 8177 7359 8177 0 0 8177 8177 6133 6690 6690 6690 5256 5256 4906 5256 5256 5661 4599 3873 0 0 0 1443 0 0 1268 1247 1268 1291 0 0 3504 4088 4599 4599 4088 3679 3504 0 0 119 119 0 0 955 919 919 943 968 955 0 0 968 994 1051 968 886 876 855 817 817 826 817 836 817 826 791 0 2102 2102 2299 2537 2374 2299 2628 2453 2374 2374 2453 2374 2374 2299 2374 2299 2453 2374 2374 2374 2374 2374 2374 2374 2299 2230 2299 2230 2230 2299 2230 2230 2164 2164 2164 2102 2164 2044 1887 1887 1887 1887 1795 1599 0 0 1501 0 0 0 0 0 0 0 0 521 521 521 0 0 0 0 0
    0 0 0 0 0 0 0 0 0 0 0 0 0 0 0 0 0 0 0 0 0 0 0 0 0 0 0 0 0 0 0 0 0 0 0 0 0 0 0 0 0 0 0 0 0 0 0 0 0 0 0 0 0 0 0 0 0 0 0 0 0 0 0 0 0 0 0 0 0 0 1268 1291 1268 1268 1268 1247 0 0 0 0 0 0 0 0 0 0 0 0 0 0 0 0 0 0 0 0 0 0 0 0 0 0 0 0 0 0 0 0 0 0 0 0 0 0 0 0 0 0 0 0 0 0 0 6690 6690 0 0 7359 6133 7359 0 0 570 574 549 0 0 570 0 0 0 0 0 0 0 0 0 0 0 0 0 0 0 0 0 0 0 0 0 0 588 574 0 0 0 0 0 0 0 8177 8177 0 7359 7359 0 0 0 0 0 0 0 0 0 0 0 0 8177 8177 8177 8177 7359 0 0 0 8177 8177 6690 6690 6690 7359 5256 5661 5256 5661 5661 6133 4906 3873 0 0 0 1388 0 1291 1247 1247 1268 1338 0 0 3504 4088 4599 4599 4088 3679 3679 3873 0 119 0 0 0 955 919 919 943 955 0 0 968 981 981 1066 981 876 876 855 817 817 817 817 826 817 826 782 758 1989 2044 2164 2453 2374 2299 2628 2453 2374 2453 2453 2299 2299 2299 2374 2230 2374 2299 2374 2374 2374 2299 2374 2374 2299 2299 2299 2230 2230 2299 2230 2164 2102 2164 2102 2044 2102 1989 1887 1887 1839 1887 1887 1839 1565 1635 1672 1672 1672 0 0 0 0 0 0 511 514 514 0 0 0 0 0
    0 0 0 0 0 0 0 0 0 0 0 0 0 0 0 0 0 0 0 0 0 0 0 0 0 0 0 0 0 0 0 0 0 0 0 0 0 0 0 0 0 0 0 0 0 0 0 0 0 0 0 0 0 0 0 0 0 0 0 0 0 0 0 0 0 0 0 0 0 1291 1268 1268 1268 1268 1268 1247 1247 0 0 0 0 0 0 0 0 0 0 0 0 0 0 0 0 0 0 0 0 0 0 0 0 0 0 0 0 0 0 0 0 0 0 0 0 0 1362 1291 1206 1206 1187 1226 1247 1226 1247 1226 0 0 4329 4088 3345 5661 0 0 0 0 0 0 0 0 0 0 0 0 0 0 0 0 0 0 0 0 0 0 0 0 0 0 0 0 0 0 593 579 0 0 0 0 0 0 0 8177 8177 0 7359 0 0 0 0 0 0 0 0 0 0 0 0 0 8177 8177 8177 8177 7359 0 0 8177 7359 7359 6690 6690 6690 7359 4906 5661 4906 5661 0 6133 4906 0 0 0 0 1268 1206 1247 1226 1226 1247 1291 0 0 3679 4329 4599 4599 4088 3679 3679 0 0 0 0 0 0 955 908 919 931 955 0 968 955 981 0 1066 981 886 876 855 817 817 808 808 817 808 817 791 774 766 735 0 0 2374 2230 2537 2453 2374 2374 2453 2299 2299 2230 2299 2230 2374 2299 2374 2299 2299 2299 2299 2299 2299 2299 2299 2230 2230 2230 2230 2164 2044 2102 2044 1989 2044 1936 1887 1795 1795 1887 1839 1711 1388 1565 1635 1599 1635 0 1752 0 0 0 0 507 514 514 0 0 0 0 0
    0 0 0 0 0 0 0 0 0 0 0 0 0 0 0 0 0 0 0 0 0 0 0 0 0 0 0 0 0 0 0 0 0 0 0 0 0 0 0 0 0 0 0 0 0 0 0 0 0 0 0 0 0 0 0 0 0 0 0 0 0 0 0 0 0 0 0 0 0 1268 1247 1247 1247 1247 1247 1247 1247 1291 1247 0 0 0 0 0 0 0 0 0 0 0 0 0 0 0 0 0 0 0 0 0 0 0 0 0 0 0 0 0 1338 1291 1338 1314 1291 1247 1268 1247 1226 1226 1206 1226 1247 1226 1247 1247 1226 1291 1443 0 0 0 0 1187 1187 1226 1206 1206 1187 1187 1149 0 0 0 0 1206 1187 1187 1187 1206 1206 1206 0 0 0 0 0 0 0 0 0 0 1226 0 1247 1268 1247 1247 1268 1268 1291 0 0 0 0 0 0 0 0 0 0 0 0 0 0 0 0 0 0 8177 8177 8177 7359 0 0 8177 8177 7359 6690 6690 6133 7359 4329 5256 4329 0 0 0 0 0 1168 1187 1206 1226 1206 1206 1187 1206 1247 0 0 6690 3679 4599 4599 4599 3873 3504 3679 0 0 0 395 0 0 955 908 919 931 943 943 968 943 981 981 1066 994 968 931 876 826 826 817 817 817 817 817 799 782 791 743 728 707 707 0 2453 2374 2299 2374 2374 2230 2230 2164 2299 2230 2374 2299 2299 2299 2299 2299 2299 2299 2299 2299 2299 2230 2230 2230 2164 2102 2044 2044 1936 1936 1989 1887 1839 1752 1711 1839 1752 1443 0 1471 1565 1471 1565 0 0 0 0 0 0 511 518 518 0 0 0 0 0
    0 0 0 0 0 0 0 0 0 0 0 0 0 0 0 0 0 0 0 0 0 0 0 0 0 0 0 0 0 0 0 0 0 0 0 0 0 0 0 0 0 0 0 0 0 0 0 0 0 0 0 0 0 0 0 0 0 0 0 0 0 0 0 0 0 0 0 0 0 1247 1247 1247 1247 1247 1247 1226 1247 1268 1226 1226 1226 1115 0 0 0 0 0 0 0 1187 0 0 0 1226 1206 1247 0 1268 1268 1291 1268 1247 0 0 0 0 0 0 1268 1247 1291 1268 1247 1226 1226 1206 1187 1187 1206 1206 1226 1206 1226 1206 1206 1247 1268 1268 0 0 0 1187 1206 1226 1206 1206 1206 1206 1168 1187 1206 1187 1187 1206 1206 1187 1187 1226 1226 1206 1247 1247 1226 1226 1247 1247 1247 1268 1226 1247 1187 1206 1226 1247 1247 1247 1247 1268 1247 1268 1362 1268 0 0 0 0 0 0 0 0 0 0 0 0 0 0 0 7359 7359 8177 7359 8177 9199 8177 8177 7359 7359 6133 5661 7359 4088 0 0 0 0 0 1168 1187 1168 1187 1187 1226 1187 1187 1168 1168 1226 0 5661 6133 3679 4329 4329 4329 3873 3504 0 0 293 0 0 0 0 955 919 919 931 943 931 968 943 981 0 1082 1008 1022 981 908 836 826 826 817 826 817 817 799 791 791 743 728 707 714 700 0 2164 2164 2230 2299 2230 2164 2164 2230 2164 2374 2299 2299 2299 2299 2299 2230 2299 2299 2230 2299 2230 2230 2164 2102 2044 1989 1989 1936 1936 1989 1887 1839 1711 1565 1599 1599 1291 1036 0 1501 1388 1471 0 0 0 0 0 514 511 518 518 0 0 0 0 0
    0 0 0 0 0 0 0 0 0 0 0 0 0 0 0 0 0 0 0 0 0 0 0 0 0 0 0 0 0 0 0 0 0 0 0 0 0 0 0 0 0 0 0 0 0 0 0 0 0 0 0 0 0 0 0 0 0 0 0 0 0 0 0 0 0 0 0 0 0 1247 1226 1226 1247 1226 1226 1226 1226 1226 1206 1187 1187 1132 1082 1115 1098 1168 1132 1149 1168 1168 1132 1206 1206 1206 1187 1226 1247 1247 1268 1291 1268 1247 0 0 0 1291 1226 1206 1226 1168 1226 1226 1206 1168 1168 1187 1149 1168 1206 1206 1206 1168 1206 1168 1187 1206 1226 1206 1168 1168 1168 1168 1206 1206 1206 1206 1206 1226 1168 1187 1206 1187 1187 1187 1187 1187 1168 1206 1226 1206 1226 1247 1226 1226 1226 1226 1206 1226 1206 1226 1187 1168 1226 1247 1247 1247 1247 1247 1226 1247 1291 1206 1226 1168 1132 1098 0 0 0 0 0 0 0 0 0 0 0 6133 7359 8177 7359 0 0 0 0 0 0 0 0 0 0 1226 1132 1098 1098 1115 1168 1149 1168 1187 1187 1206 1187 1187 1187 1168 1226 1268 0 4599 3345 3873 4088 4088 3873 3504 0 0 0 0 0 0 955 943 908 908 919 931 908 955 919 981 0 1082 1008 1036 1022 908 826 817 808 808 817 808 808 791 791 791 758 743 721 728 714 714 0 0 2102 2230 2164 2102 2164 2164 2164 2374 2230 2299 2230 2230 2230 2230 2299 2230 2230 2230 2164 2230 2164 2102 2044 1936 1989 1887 1887 1936 1839 1839 1635 1388 1226 0 0 955 0 1388 1338 0 0 0 0 0 514 514 511 518 518 0 0 0 0 0
    0 0 0 0 0 0 0 0 0 0 0 0 0 0 0 0 0 0 0 0 0 0 0 0 0 0 0 0 0 0 0 0 0 0 0 0 0 0 0 0 0 0 0 0 0 0 0 0 0 0 0 0 0 0 0 0 0 0 0 0 0 0 0 0 0 0 0 0 0 1226 1226 1206 1226 1226 1206 1187 1206 1206 1187 1187 1187 1149 1098 1132 1115 1168 1132 1149 1168 1187 1132 1206 1206 1206 1206 1226 1247 1226 1247 1291 1268 1268 1268 1268 1291 1268 1187 1187 1206 1132 1168 1187 1187 1168 1168 1187 1168 1168 1226 1226 1226 1168 1206 1168 1187 1187 1187 1187 1168 1168 1187 1168 1206 1206 1206 1206 1206 1226 1168 1168 1206 1168 1187 1187 1187 1168 1168 1206 1206 1187 1226 1226 1206 1206 1206 1187 1168 1187 1187 1206 1168 1168 1206 1226 1247 1226 1226 1226 1206 1226 1247 1168 1206 1149 1149 1115 1115 1115 1168 1168 0 0 1206 1206 1226 1247 0 0 0 0 0 0 0 0 0 0 0 0 1226 1132 1115 1168 1115 1115 1115 1132 1168 1149 1168 1187 1187 1206 1206 1187 1187 1168 1226 1247 0 3679 3066 3873 3873 3873 3679 3345 0 0 0 0 0 0 943 931 908 908 919 919 908 943 908 968 0 1098 1036 1066 0 943 836 826 817 817 817 817 817 799 791 791 758 750 735 735 721 721 707 700 694 0 0 2044 2102 2102 2102 2374 2164 2230 2164 2230 2164 2164 2299 2164 2230 2230 2102 2230 2102 2102 2044 1936 1989 1839 1887 1887 1752 1795 1501 1268 1051 943 0 0 0 0 0 0 0 0 0 518 518 518 514 521 521 0 0 0 0 0
    0 0 0 0 0 0 0 0 0 0 0 0 0 0 0 0 0 0 0 0 0 0 0 0 0 0 0 0 0 0 0 0 0 0 0 0 0 0 0 0 0 0 0 0 0 0 0 0 0 0 0 0 0 0 0 0 0 0 0 0 0 0 0 0 0 0 0 0 0 1226 1206 1206 1206 1206 1187 1168 1187 1187 1168 1168 1168 1168 1115 1168 1132 1187 1149 1168 1187 1226 1132 1226 1226 1226 1226 1247 1247 1226 1226 1268 1268 1268 1268 1247 1247 1247 1149 1187 1206 1149 1168 1187 1187 1187 1187 1206 1187 1187 1247 1226 1226 1168 1206 1149 1168 1187 1187 1168 1149 1149 1187 1168 1187 1206 1206 1206 1206 1226 1149 1149 1187 1168 1168 1168 1168 1168 1149 1206 1206 1187 1206 1226 1206 1187 1206 1187 1149 1168 1168 1187 1168 1149 1206 1206 1226 1206 1206 1226 1206 1206 1226 1149 1168 1132 1132 1115 1115 1115 1149 1149 1168 1168 1187 1187 1206 1206 1247 1149 1149 1098 1149 1168 1168 1187 1206 1206 1226 1226 1206 1098 1115 1132 1098 1115 1115 1115 1149 1132 1187 1187 1187 1206 1206 1206 1187 1168 1226 1226 1168 0 0 3679 3679 3504 3504 0 0 0 0 0 0 981 943 919 908 908 919 908 897 943 908 955 968 1051 1051 1082 1051 981 919 865 826 826 826 817 808 799 791 782 750 766 750 735 728 728 714 714 707 707 707 700 700 0 0 2164 2044 2102 2044 2230 2102 2164 2230 2102 2230 2164 2102 2230 2102 2102 2044 1936 1989 1839 1887 1936 1752 1795 1415 1206 1008 865 791 0 0 0 0 0 518 507 518 518 518 518 514 525 521 0 0 0 0 0
    0 0 0 0 0 0 0 0 0 0 0 0 0 0 0 0 0 0 0 0 0 0 0 0 0 0 0 0 0 0 0 0 0 0 0 0 0 0 0 0 0 0 0 0 0 0 0 0 0 0 0 0 0 0 0 0 0 0 0 0 0 0 0 0 0 0 0 0 0 1187 1187 1168 1187 1187 1168 1149 1168 1187 1168 1168 1168 1168 1132 1187 1149 1187 1132 1149 1168 1206 1115 1206 1206 1206 1206 1226 1226 1226 1206 1268 1226 1247 1226 1187 1187 1206 1098 1168 1187 1132 1168 1187 1187 1187 1187 1226 1206 1206 1268 1268 1268 1168 1206 1132 1149 1168 1168 1149 1132 1149 1168 1168 1187 1206 1187 1187 1206 1226 1149 1149 1187 1168 1149 1168 1168 1149 1149 1206 1206 1187 1206 1226 1206 1187 1206 1168 1132 1149 1132 1168 1132 1132 1187 1187 1226 1206 1206 1206 1187 1187 1187 1115 1149 1115 1132 1115 1115 1115 1132 1149 1168 1149 1168 1149 1168 1168 1187 1098 1132 1098 1132 1149 1132 1149 1168 1168 1187 1168 1168 1082 1098 1098 1098 1115 1115 1115 1132 1132 1187 1187 1187 1206 1206 1206 1187 1168 1226 1206 1149 1168 0 0 0 3199 0 0 0 0 0 0 0 968 931 919 908 908 919 908 897 931 897 943 968 1008 1036 1098 1082 1008 0 876 0 0 826 817 799 791 782 774 743 766 743 735 735 728 714 707 707 714 707 700 694 694 694 0 0 0 0 2164 2044 2044 2164 2102 2164 2102 2102 2230 2102 2102 1989 1936 1936 1795 1839 1839 1565 1599 1362 1132 0 836 735 0 0 541 0 518 514 511 518 518 518 518 514 525 525 0 0 0 0 0
    0 0 0 0 0 0 0 0 0 0 0 0 0 0 0 0 0 0 0 0 0 0 0 0 0 0 0 0 0 0 0 0 0 0 0 0 0 0 0 0 0 0 0 0 0 0 0 0 0 0 0 0 0 0 0 0 0 0 0 0 0 0 0 0 0 0 0 0 0 1149 1149 1149 1149 1149 1132 1132 1149 1149 1149 1149 1149 1149 1132 1168 1149 1168 1098 1098 1115 1187 1082 1187 1187 1187 1206 1226 1226 1206 1206 1247 1206 1226 1206 1168 1132 1168 1082 1149 1187 1132 1149 1187 1187 1187 1187 1226 1226 1206 1291 1314 1314 1168 1226 1115 1132 1149 1149 1132 1132 1132 1168 1149 1187 1206 1187 1187 1187 1206 1132 1132 1168 1149 1132 1149 1149 1149 1149 1187 1206 1168 1206 1206 1206 1168 1187 1149 1132 1132 1132 1149 1132 1115 1168 1168 1206 1206 1187 1206 1168 1187 1168 1098 1132 1098 1115 1115 1115 1115 1132 1149 1149 1149 1168 1149 1168 1168 1168 1098 1132 1098 1115 1115 1115 1115 1132 1132 1149 1132 1132 1066 1098 1082 1098 1098 1098 1098 1115 1115 1168 1149 1168 1187 1187 1187 1168 1168 1206 1187 1132 1149 1187 1098 1036 0 1132 1066 0 0 1066 1036 943 955 931 908 919 919 919 908 897 931 908 931 968 981 1022 1082 1098 1066 1051 1008 981 1008 1008 908 817 808 791 766 750 782 743 735 735 735 721 714 721 728 714 707 700 707 707 766 0 0 0 1168 0 0 2044 2044 2102 2044 2044 2164 2044 2044 1936 1887 1887 1635 1599 1471 1291 1314 1314 1066 908 0 0 0 0 533 493 511 507 507 518 514 518 518 514 525 521 0 0 0 0 0
    0 0 0 0 0 0 0 0 0 0 0 0 0 0 0 0 0 0 0 0 0 0 0 0 0 0 0 0 0 0 0 0 0 0 0 0 0 0 0 0 0 0 0 0 0 0 0 0 0 0 0 0 0 0 0 0 0 0 0 0 0 0 0 0 0 0 0 0 0 1115 1132 1115 1132 1132 1115 1132 1132 1149 1168 1149 1149 1149 1149 1168 1168 1149 1066 1066 1082 1132 1066 1168 1149 1168 1187 1206 1206 1206 1187 1247 1187 1226 1168 1132 1115 1168 1098 1149 1168 1132 1149 1168 1168 1168 1149 1206 1206 1206 1291 1291 1314 1149 1226 1098 1132 1149 1132 1115 1115 1115 1149 1132 1168 1187 1149 1149 1149 1168 1098 1098 1149 1132 1132 1132 1149 1149 1132 1187 1206 1149 1187 1206 1206 1149 1168 1115 1115 1132 1115 1132 1132 1115 1149 1149 1206 1187 1187 1206 1149 1149 1115 1082 1115 1082 1115 1098 1098 1098 1132 1149 1149 1132 1149 1132 1168 1149 1149 1082 1132 1115 1115 1132 1115 1115 1132 1132 1149 1115 1098 1066 1082 1082 1098 1098 1115 1098 1115 1115 1149 1149 1168 1149 1149 1149 1168 1149 1206 1168 1132 1168 1149 1115 1066 1098 1066 1051 1051 994 1036 1022 931 943 931 908 919 919 919 897 897 931 919 931 994 1008 1036 1098 1098 1098 1082 1051 1036 1051 1051 1022 0 855 808 766 735 799 743 743 743 743 721 721 728 728 721 714 700 700 700 707 0 0 0 1132 1168 1132 1168 1168 0 0 0 0 0 0 0 1226 0 1247 1168 1187 1187 1187 1226 1036 886 0 0 0 845 0 0 504 500 504 514 507 514 514 514 525 521 0 0 0 0 0
    0 0 0 0 0 0 0 0 0 0 0 0 0 0 0 0 0 0 0 0 0 0 0 0 0 0 0 0 0 0 0 0 0 0 0 0 0 0 0 0 0 0 0 0 0 0 0 0 0 0 0 0 0 0 0 0 0 0 0 0 0 0 0 0 0 0 0 0 0 1098 1132 1115 1115 1115 1115 1132 1132 1149 1168 1149 1168 1168 1168 1187 1168 1149 1066 1051 1082 1115 1066 1149 1132 1149 1149 1187 1206 1187 1168 1226 1168 1206 1149 1115 1082 1149 1082 1132 1149 1115 1132 1149 1149 1149 1132 1187 1168 1187 1268 1226 1268 1098 1168 1082 1115 1132 1115 1115 1115 1115 1149 1132 1149 1149 1115 1115 1115 1132 1082 1082 1132 1115 1115 1115 1132 1132 1115 1168 1187 1115 1168 1168 1168 1098 1132 1098 1098 1115 1098 1115 1115 1115 1149 1132 1187 1187 1168 1187 1132 1132 1082 1082 1098 1082 1098 1082 1098 1098 1115 1132 1132 1115 1149 1115 1168 1132 1149 1082 1132 1115 1115 1132 1115 1115 1115 1115 1132 1098 1082 1066 1082 1066 1098 1098 1098 1098 1098 1098 1132 1115 1149 1115 1115 1132 1132 1149 1187 1149 1132 1149 1149 1149 1082 1098 1066 1051 1036 994 1022 1022 931 943 931 897 919 919 919 908 908 943 931 943 1008 1022 1036 1098 1115 1115 1132 1082 1066 1098 1098 1066 1051 1051 1036 0 0 836 782 766 750 750 728 721 721 721 707 707 694 694 694 694 0 694 0 1115 1098 1098 1082 1082 1066 1082 1066 1051 1036 1022 1036 1051 1036 1051 1022 1036 1051 1066 1066 1008 865 0 0 0 0 0 0 497 493 500 511 504 511 514 514 525 521 0 0 0 0 0
    0 0 0 0 0 0 0 0 0 0 0 0 0 0 0 0 0 0 0 0 0 0 0 0 0 0 0 0 0 0 0 0 0 0 0 0 0 0 0 0 0 0 0 0 0 0 0 0 0 0 0 0 0 0 0 0 0 0 0 0 0 0 0 0 0 0 0 0 0 1098 1132 1115 1115 1115 1115 1132 1132 1149 1168 1149 1168 1168 1149 1168 1149 1132 1066 1036 1082 1098 1066 1115 1115 1132 1132 1168 1206 1168 1149 1226 1168 1206 1132 1098 1066 1115 1066 1115 1132 1098 1115 1115 1132 1132 1115 1168 1149 1149 1226 1132 1206 1066 1115 1066 1098 1115 1098 1098 1098 1098 1115 1115 1132 1115 1082 1082 1098 1115 1066 1066 1115 1098 1098 1115 1115 1115 1098 1132 1168 1082 1149 1115 1132 1082 1098 1082 1082 1098 1098 1098 1115 1098 1132 1115 1168 1168 1149 1149 1098 1098 1051 1066 1082 1066 1082 1066 1082 1082 1098 1115 1115 1082 1115 1082 1132 1098 1115 1066 1115 1098 1098 1115 1098 1098 1115 1115 1132 1082 1066 1066 1066 1066 1082 1082 1082 1082 1082 1098 1115 1098 1132 1082 1098 1098 1115 1132 1168 1132 1132 1149 1149 1149 1082 1098 1066 1051 1036 968 1008 1008 919 931 931 897 919 919 919 908 919 943 943 943 1008 1008 1022 1098 1115 1132 1149 1098 1098 1149 1132 1115 1082 1066 1051 1051 1051 1022 0 782 758 750 721 714 707 707 700 694 687 687 687 687 687 694 675 1098 1098 1082 1082 1066 1066 1051 1036 1022 1008 1008 1008 994 968 981 955 994 981 1008 994 943 0 0 0 0 0 0 0 493 490 500 507 500 507 511 514 521 521 0 0 0 0 0
    0 0 0 0 0 0 0 0 0 0 0 0 0 0 0 0 0 0 0 0 0 0 0 0 0 0 0 0 0 0 0 0 0 0 0 0 0 0 0 0 0 0 0 0 0 0 0 0 0 0 0 0 0 0 0 0 0 0 0 0 0 0 0 0 0 0 0 0 0 1082 1132 1115 1115 1115 1098 1115 1115 1149 1168 1132 1149 1168 1149 1168 1132 1115 1066 1036 1066 1082 1051 1098 1098 1115 1115 1149 1187 1149 1149 1226 1149 1206 1132 1098 1066 1115 1066 1115 1115 1098 1098 1115 1115 1132 1115 1149 1132 1132 1206 1082 1098 1051 1082 1066 1082 1082 1082 1082 1082 1082 1098 1098 1098 1082 1066 1066 1066 1082 1051 1051 1082 1082 1082 1082 1098 1082 1082 1115 1149 1066 1132 1082 1115 1066 1082 1082 1082 1082 1098 1098 1098 1098 1115 1115 1149 1132 1132 1115 1066 1066 1036 1051 1066 1051 1082 1066 1082 1082 1082 1098 1082 1066 1082 1051 1082 1051 1066 1051 1098 1098 1082 1098 1082 1082 1098 1098 1115 1082 1066 1066 1066 1066 1082 1082 1082 1082 1066 1066 1082 1082 1098 1051 1066 1066 1082 1132 1132 1149 1115 1132 1149 1132 1082 1066 1036 1036 1022 919 981 981 908 919 931 897 931 919 931 919 919 943 955 943 1008 981 994 1066 1098 1132 1115 1066 1066 1115 1098 1098 1082 1066 1051 1051 1051 1036 981 855 791 750 721 707 694 700 694 687 681 681 681 681 681 687 663 1098 1082 1066 1066 1051 1051 1036 1022 1022 1008 1008 994 994 968 968 955 994 968 994 955 908 0 0 0 0 845 931 955 490 487 0 0 500 507 511 514 521 521 0 0 0 0 0
    0 0 0 0 0 0 0 0 0 0 0 0 0 0 0 0 0 0 0 0 0 0 0 0 0 0 0 0 0 0 0 0 0 0 0 0 0 0 0 0 0 0 0 0 0 0 0 0 0 0 0 0 0 0 0 0 0 0 0 0 0 0 0 0 0 0 0 0 0 1082 1115 1098 1098 1115 1098 1115 1115 1132 1168 1115 1149 1168 1132 1168 1098 1098 1066 1036 1082 1082 1066 1098 1082 1115 1098 1132 1187 1149 1132 1226 1132 1168 1115 1098 1066 1098 1066 1098 1098 1098 1098 1098 1115 1132 1115 1149 1132 1149 1187 1051 1051 1036 1051 1051 1066 1066 1066 1066 1066 1066 1082 1082 1082 1066 1051 1051 1051 1066 1051 1051 1082 1066 1066 1082 1082 1066 1066 1098 1132 1051 1115 1082 1098 1066 1082 1082 1082 1082 1082 1082 1098 1098 1115 1115 1132 1115 1132 1115 1066 1082 1036 1051 1082 1051 1082 1066 1082 1082 1082 1082 1066 1051 1066 1051 1082 1036 1051 1036 1082 1082 1082 1082 1066 1082 1082 1082 1098 1066 1051 1066 1066 1066 1082 1066 1066 1066 1051 1051 1051 1051 1051 1008 1036 1036 1051 1115 1098 1149 1098 1115 1115 1115 1066 1036 994 994 1008 886 968 943 908 908 931 897 931 919 931 919 919 943 955 943 994 981 981 1066 1082 1098 1066 1036 1051 1082 1066 1082 1082 1082 1066 1051 1066 1051 1022 919 826 791 728 714 694 700 694 687 681 681 681 681 681 687 651 0 1066 1051 1036 1036 1036 1008 1008 1008 1008 1008 1008 1008 994 1022 994 1066 0 0 955 908 0 0 0 0 0 943 0 0 487 500 504 497 504 507 514 521 518 0 0 0 0 0
    0 0 0 0 0 0 0 0 0 0 0 0 0 0 0 0 0 0 0 0 0 0 0 0 0 0 0 0 0 0 0 0 0 0 0 0 0 0 0 0 0 0 0 0 0 0 0 0 0 0 0 0 0 0 0 0 0 0 0 0 0 0 0 0 0 0 0 0 0 1066 1098 1098 1098 1098 1082 1098 1098 1115 1149 1082 1115 1115 1082 1098 1066 1082 1066 1036 1066 1066 1051 1082 1082 1098 1098 1115 1168 1115 1098 1168 1098 1098 1066 1051 1051 1051 1051 1066 1082 1066 1082 1082 1082 1098 1098 1115 1115 1115 1149 1022 0 1008 1022 1036 1051 1051 1051 1051 1051 1051 1066 1066 1051 1051 1036 1036 1036 1051 1036 1036 1066 1066 1066 1066 1066 1066 1066 1082 1132 1036 1082 1066 1082 1051 1066 1066 1066 1066 1082 1082 1082 1082 1098 1115 1115 1115 1132 1115 1066 1082 1022 1051 1066 1051 1082 1066 1066 1066 1066 1082 1066 1051 1066 1051 1082 1036 1051 1036 1082 1082 1066 1082 1066 1066 1082 1082 1098 1066 1051 1066 1066 1066 1082 1066 1066 1051 1051 1051 1036 1036 1036 1008 1022 1022 1022 1066 1066 1132 1098 1115 1115 1115 1051 1022 994 981 981 886 955 919 908 908 931 897 931 931 931 919 931 943 955 943 994 981 981 1036 1036 1051 1008 1008 1022 1051 1051 1066 1066 1082 1066 1066 1066 1051 1022 0 0 0 766 714 707 707 700 694 687 681 681 681 681 687 651 0 1051 1036 1022 1008 1022 994 1008 1008 1022 1036 1022 1051 1036 1051 1066 1187 0 1051 955 897 0 0 0 0 0 0 0 487 484 500 500 497 504 507 514 518 518 0 0 0 0 0
    0 0 0 0 0 0 0 0 0 0 0 0 0 0 0 0 0 0 0 0 0 0 0 0 0 0 0 0 0 0 0 0 0 0 0 0 0 0 0 0 0 0 0 0 0 0 0 0 0 0 0 0 0 0 0 0 0 0 0 0 0 0 0 0 0 0 0 0 0 1051 1082 1082 1082 1082 1066 1066 1066 1082 1098 1036 1051 1036 1036 1036 1036 1051 1051 1036 1051 1051 1051 1066 1066 1082 1082 1082 1149 1098 1066 1098 1066 1066 1036 1036 1036 1036 1036 1036 1036 1036 1051 1051 1036 1036 1051 1036 1066 1066 1051 994 0 994 994 1022 1036 1036 1036 1036 1036 1036 1051 1051 1036 1036 1036 1036 1036 0 1036 1036 1051 1051 1051 1051 1051 1051 1051 1066 1115 1022 1066 1036 1066 1036 1051 1066 1066 1066 1066 1066 1082 1082 1098 1098 1082 1098 1115 1115 1066 1066 1022 1036 1051 1036 1066 1051 1066 1066 1066 1066 1066 1036 1051 1022 1051 1022 1036 1036 1066 1066 1051 1066 1051 1051 1066 1066 1082 1051 1051 1051 1051 1051 1082 1051 1051 1051 1036 1051 1036 1036 1036 994 1022 1022 1036 1051 1051 1115 1082 1082 1098 1082 1022 994 981 968 943 897 955 908 919 908 943 908 931 931 931 931 931 943 968 943 994 981 981 1022 1008 1022 981 981 981 1022 1022 1051 1051 1082 1082 1098 1082 1066 1022 0 0 0 799 714 707 707 700 694 687 687 687 681 687 694 657 0 1036 1022 1022 1008 1008 994 1008 1008 1036 1051 1051 1066 1051 1066 1098 1149 1226 1036 968 908 0 0 0 0 0 0 0 487 484 500 500 497 504 507 514 518 518 0 0 0 0 0
    0 0 0 0 0 0 0 0 0 0 0 0 0 0 0 0 0 0 0 0 0 0 0 0 0 0 0 0 0 0 0 0 0 0 0 0 0 0 0 0 0 0 0 0 0 0 0 0 0 0 0 0 0 0 0 0 0 0 0 0 0 0 0 0 0 0 0 0 0 1051 1066 1066 1082 1066 1066 1051 1051 1051 1051 1008 1008 994 994 0 0 0 1036 1022 1051 1051 1036 1051 1051 1082 1066 1066 1132 1066 1051 1066 1051 1036 1022 1022 1022 1022 1022 1022 1022 1022 1008 1022 1008 994 1008 994 1008 1008 994 0 0 981 968 994 1022 1022 1022 1022 1036 1036 1036 1051 1036 1036 1036 1022 1036 0 1022 1022 1036 1036 1036 1036 1036 1036 1036 1036 1082 1008 1051 1036 1066 1036 1051 1066 1066 1066 1066 1066 1066 1066 1082 1082 1066 1082 1115 1098 1066 1066 1022 1022 1051 1036 1051 1036 1051 1051 1051 1051 1036 1022 1022 1008 1022 994 1022 1008 1051 1051 1036 1051 1036 1036 1051 1051 1051 1036 1022 1036 1036 1051 1066 1036 1036 1036 1036 1036 1036 1036 1022 994 1022 1008 1022 1022 1036 1066 1051 1036 1051 1036 994 981 968 968 943 908 955 919 931 919 943 908 931 931 931 931 943 943 968 943 994 981 968 1008 994 994 968 968 968 981 994 1022 1036 1066 1082 1082 1082 1066 1036 0 0 0 826 721 714 714 707 700 700 694 694 694 694 694 669 0 1036 1008 1008 1008 1008 994 1008 1008 1036 1051 1051 1066 1051 1051 1051 1051 1066 994 943 919 0 0 0 0 0 0 0 490 487 507 0 0 507 511 518 521 521 0 0 0 0 0
    0 0 0 0 0 0 0 0 0 0 0 0 0 0 0 0 0 0 0 0 0 0 0 0 0 0 0 0 0 0 0 0 0 0 0 0 0 0 0 0 0 0 0 0 0 0 0 0 0 0 0 0 0 0 0 0 0 0 0 0 0 0 0 0 0 0 0 0 0 1036 1051 1066 1066 1051 1051 1036 1036 1036 1022 1008 981 981 968 0 0 0 0 1008 1036 1036 1036 1036 1051 1066 1051 1066 1115 1051 1036 1051 1051 1036 1022 1022 1022 1022 1022 1022 1008 1008 1008 1008 994 994 994 994 994 981 968 943 955 955 955 981 994 994 1008 1008 1022 1036 1036 1051 1036 1036 1036 1022 1022 0 1022 994 1022 1022 1022 1022 1022 1008 1022 0 1051 1008 1051 1036 1051 1036 1051 1066 1066 1051 1051 1051 1051 1051 1066 1066 1051 1066 1082 1082 1051 1051 1008 1022 1051 1036 1051 1036 1036 1036 1022 1022 1008 994 994 994 994 981 994 994 1022 1022 1022 1036 1036 1036 1036 1036 1036 1022 1008 1022 1022 1036 1051 1022 1036 1022 1036 1036 1022 1022 1008 994 1008 994 994 994 994 1008 1008 994 1008 1008 968 968 955 955 943 919 955 919 931 931 943 919 931 943 931 931 943 943 955 955 994 968 968 994 981 981 968 955 968 981 981 1008 1022 1066 1066 1082 1082 1066 1036 0 0 0 817 721 714 714 707 707 700 700 700 694 694 700 687 0 1008 981 981 994 981 981 994 994 1022 1036 1036 1051 1036 1036 1022 1036 1051 994 943 0 0 0 0 0 0 0 0 493 490 0 0 0 514 514 521 521 525 0 0 0 0 0
    0 0 0 0 0 0 0 0 0 0 0 0 0 0 0 0 0 0 0 0 0 0 0 0 0 0 0 0 0 0 0 0 0 0 0 0 0 0 0 0 0 0 0 0 0 0 0 0 0 0 0 0 0 0 0 0 0 0 0 0 0 0 0 0 0 0 0 0 0 1036 1051 1051 1066 1051 1036 1022 1022 1022 1008 994 981 981 968 0 0 0 0 994 1022 1022 1022 1036 1051 1066 1051 1051 1115 1051 1036 1051 1036 1022 1008 1008 1008 1008 1008 1008 994 1008 994 1008 981 981 981 981 981 955 943 931 931 943 943 968 981 981 994 1008 1008 1022 1036 1051 1036 1036 1036 1036 1022 0 1008 981 0 1008 1008 1008 1008 994 1008 1008 1036 1008 1051 1036 1051 1036 1051 1066 1051 1051 1036 1036 1036 1036 1051 1051 1036 1036 1051 1066 1051 1051 1008 1008 1036 1022 1036 1022 1022 1022 1008 1008 1008 994 981 981 968 968 968 968 981 994 994 1022 1022 1022 1022 1022 1022 1022 1008 1022 1008 1036 1036 1008 1008 1008 1022 1022 1008 1008 1008 981 994 994 981 981 981 994 981 968 981 981 943 968 943 943 931 919 955 908 931 931 931 919 943 931 931 931 943 943 955 955 981 968 955 981 968 968 968 955 968 981 981 1008 1008 1051 1066 1066 1082 1051 1022 931 0 0 808 721 721 721 714 714 707 707 700 700 714 700 700 1022 994 968 981 981 968 955 968 968 1008 1022 1022 1036 1022 1022 1008 1008 1022 968 943 908 0 0 0 0 0 0 0 0 0 0 0 514 518 518 521 521 529 0 0 0 0 0
    0 0 0 0 0 0 0 0 0 0 0 0 0 0 0 0 0 0 0 0 0 0 0 0 0 0 0 0 0 0 0 0 0 0 0 0 0 0 0 0 0 0 0 0 0 0 0 0 0 0 0 0 0 0 0 0 0 0 0 0 0 0 0 0 0 0 0 0 0 1022 1036 1051 1051 1036 1022 1008 1008 1022 1008 994 981 981 968 955 0 0 0 994 1008 1008 1008 1022 1051 1066 1066 1066 1132 1051 1051 1036 1022 1022 981 1008 994 994 994 994 994 994 981 994 968 981 968 968 955 943 931 919 908 931 931 955 968 981 981 994 1008 1008 1022 1051 1036 1036 1036 1036 1022 0 1008 968 0 994 994 994 994 994 994 994 1022 1008 1036 1036 1051 1036 1051 1051 1051 1036 1036 1036 1036 1022 1036 1036 1022 1022 1036 1051 1051 0 1008 1008 1022 1022 1036 1022 1008 1008 994 994 994 981 968 968 955 955 955 968 968 968 981 994 1008 1008 1008 1008 1022 1008 1008 1008 994 1022 1022 994 994 994 1022 1022 994 994 994 981 994 981 981 968 955 981 968 943 981 968 943 968 943 931 931 919 943 908 931 931 931 919 931 931 931 931 943 931 955 955 968 955 955 981 955 968 968 955 968 981 968 994 1008 1022 1051 1051 1066 1051 1022 908 0 0 782 714 721 721 714 714 707 707 707 707 743 707 721 1022 994 968 981 981 955 955 955 955 994 1008 1008 1022 1008 1008 1008 1008 1008 955 931 886 0 0 0 0 0 0 0 0 0 0 0 518 521 521 525 521 533 0 0 0 0 0
    0 0 0 0 0 0 0 0 0 0 0 0 0 0 0 0 0 0 0 0 0 0 0 0 0 0 0 0 0 0 0 0 0 0 0 0 0 0 0 0 0 0 0 0 0 0 0 0 0 0 0 0 0 0 0 0 0 0 0 0 0 0 0 0 0 0 0 0 0 1008 1022 1036 1036 1036 1022 994 1008 1008 994 981 968 968 968 955 981 981 994 994 1008 1008 1008 1022 1066 1098 1082 1066 1132 1051 1022 1008 994 994 955 994 981 981 981 994 981 994 981 994 955 968 955 955 955 943 931 908 897 931 919 943 955 968 968 981 994 1008 1022 1051 1036 1036 1036 1051 1022 0 1008 943 981 981 981 981 981 981 981 981 1008 1008 1036 1036 1051 1036 1051 1051 1051 1036 1022 1022 1022 1008 1022 1022 1008 1008 1008 1036 1036 0 1008 1022 1022 1022 1022 1022 981 994 968 981 968 955 955 955 943 955 943 968 955 955 968 981 994 994 981 994 1008 994 994 994 981 994 994 981 981 981 1008 1008 981 994 981 968 981 968 955 955 943 968 955 931 968 955 931 955 943 931 919 919 943 897 931 931 931 919 931 931 919 931 943 931 943 955 968 955 955 968 955 955 968 955 968 968 968 981 994 1022 1051 1051 1066 1036 1008 0 0 0 750 707 721 721 714 707 707 707 707 707 774 707 774 1008 981 968 981 981 955 955 943 943 981 994 1008 1008 1008 1008 1008 1022 1008 968 931 886 0 0 0 0 0 0 0 0 0 0 0 521 521 525 525 521 533 0 0 0 0 0
    0 0 0 0 0 0 0 0 0 0 0 0 0 0 0 0 0 0 0 0 0 0 0 0 0 0 0 0 0 0 0 0 0 0 0 0 0 0 0 0 0 0 0 0 0 0 0 0 0 0 0 0 0 0 0 0 0 0 0 0 0 0 0 0 0 0 0 0 0 1008 1008 1022 1022 1022 1008 994 994 994 981 981 955 968 955 943 968 968 981 981 994 994 1008 1008 1051 1098 1066 1051 1051 994 865 908 919 955 919 981 968 981 981 981 981 981 968 994 955 955 943 955 943 931 919 897 897 908 919 943 943 955 968 968 994 1008 1022 1051 1051 1051 1036 1036 1008 981 994 919 968 968 968 968 968 968 981 981 1008 1008 1022 1022 1036 1022 1036 1022 1022 1022 1008 994 994 994 994 994 994 981 981 1008 1008 1008 994 994 994 994 994 981 931 955 931 955 943 943 943 943 931 955 943 968 943 943 955 981 981 981 968 981 994 981 981 981 968 981 981 968 968 968 1008 1008 968 981 981 955 968 955 955 943 931 955 943 931 955 943 943 943 943 931 919 919 943 897 919 931 919 919 931 931 919 931 943 931 943 955 968 943 943 955 943 943 955 943 955 943 943 968 968 994 1036 1036 1051 1036 0 0 0 0 728 694 714 714 707 707 707 714 707 707 799 766 855 968 968 955 955 968 943 955 931 931 968 0 994 0 994 994 1008 1008 1008 968 931 876 845 0 0 0 0 0 0 0 0 0 0 525 521 525 521 521 533 0 0 0 0 0
    0 0 0 0 0 0 0 0 0 0 0 0 0 0 0 0 0 0 0 0 0 0 0 0 0 0 0 0 0 0 0 0 0 0 0 0 0 0 0 0 0 0 0 0 0 0 0 0 0 0 0 0 0 0 0 0 0 0 0 0 0 0 0 0 0 0 0 0 0 1008 1008 1008 1022 1008 994 981 994 981 968 968 955 955 943 943 968 955 981 981 981 981 981 981 1008 1022 1022 943 897 865 855 876 897 931 908 955 955 968 968 981 968 981 968 981 943 955 943 943 931 919 908 886 897 908 908 931 931 943 955 968 994 994 1008 1051 1051 1051 1022 1022 981 943 968 897 931 955 955 955 955 955 968 968 994 994 994 994 1008 994 1008 994 994 994 981 981 981 968 981 981 981 968 968 994 994 994 968 968 955 955 943 943 886 919 908 931 931 919 931 931 931 955 943 968 943 943 955 968 968 981 955 981 981 981 968 981 968 968 968 981 968 955 1008 1008 955 981 981 943 968 943 943 931 931 943 931 919 955 931 931 943 943 919 919 919 931 897 908 919 908 908 931 919 919 931 943 931 943 955 955 943 943 943 931 931 943 943 943 931 943 955 955 981 1008 1008 1051 1036 0 0 511 0 721 675 714 714 707 714 707 714 707 707 817 836 876 943 955 943 943 968 943 955 908 897 931 0 0 0 968 968 981 981 994 943 919 876 845 766 0 0 0 0 0 0 529 529 525 525 525 525 521 521 0 0 0 0 0 0
    0 0 0 0 0 0 0 0 0 0 0 0 0 0 0 0 0 0 0 0 0 0 0 0 0 0 0 0 0 0 0 0 0 0 0 0 0 0 0 0 0 0 0 0 0 0 0 0 0 0 0 0 0 0 0 0 0 0 0 0 0 0 0 0 0 0 0 0 0 994 994 994 1008 1008 994 968 981 968 968 955 943 943 943 931 955 955 968 968 968 968 968 968 994 981 968 865 865 855 845 865 886 919 897 943 943 955 955 968 968 968 955 981 943 955 931 931 919 908 897 876 897 908 908 919 931 943 943 955 994 994 1008 1051 1066 1051 1008 994 968 919 943 876 908 931 931 931 931 931 943 943 968 968 968 968 981 981 981 981 981 981 968 955 968 955 955 968 955 955 955 981 968 968 943 955 931 919 908 897 865 897 886 908 908 908 919 931 931 955 931 955 931 931 943 968 968 968 943 968 981 968 968 968 955 968 955 981 968 955 994 994 943 981 981 943 955 943 943 931 931 943 919 908 943 919 919 919 943 908 908 919 919 886 908 919 897 908 919 919 919 931 943 919 931 943 943 919 931 931 919 919 931 931 931 931 931 943 943 981 994 1008 1036 1036 968 0 0 735 721 657 707 707 707 707 707 714 707 707 826 845 897 943 943 943 943 955 931 943 886 0 897 0 0 0 943 931 943 968 981 931 897 855 836 743 0 0 0 553 0 0 0 0 525 525 525 525 521 518 0 0 0 0 0 0
    0 0 0 0 0 0 0 0 0 0 0 0 0 0 0 0 0 0 0 0 0 0 0 0 0 0 0 0 0 0 0 0 0 0 0 0 0 0 0 0 0 0 0 0 0 0 0 0 0 0 0 0 0 0 0 0 0 0 0 0 0 0 0 0 0 0 0 0 0 968 981 981 994 994 981 968 968 955 955 943 943 943 931 931 955 943 968 968 968 968 968 968 981 968 943 826 836 826 836 855 865 897 886 931 931 943 943 968 968 968 955 968 955 955 943 931 919 897 897 876 897 908 908 919 919 931 943 955 981 994 994 1008 1036 1036 968 968 943 919 943 876 897 919 919 919 919 919 931 931 955 955 943 955 968 968 968 955 955 955 943 943 943 943 943 955 955 943 943 955 955 968 931 943 919 908 908 897 865 897 886 908 897 908 908 919 919 943 919 955 931 943 943 968 968 981 943 968 981 968 968 968 943 955 943 968 955 931 968 981 919 968 968 931 943 931 931 919 919 943 919 908 943 908 919 931 931 908 919 908 919 886 897 931 886 908 919 908 919 919 943 919 908 943 919 908 919 919 908 908 931 919 919 919 931 931 931 955 955 981 994 1022 886 0 0 735 714 651 694 700 700 700 700 700 700 700 817 845 897 943 943 931 919 943 908 919 865 0 876 0 0 0 908 897 897 931 943 897 876 836 808 728 0 0 0 0 0 0 0 0 525 525 521 525 521 518 0 0 0 0 0 0
    0 0 0 0 0 0 0 0 0 0 0 0 0 0 0 0 0 0 0 0 0 0 0 0 0 0 0 0 0 0 0 0 0 0 0 0 0 0 0 0 0 0 0 0 0 0 0 0 0 0 0 0 0 0 0 0 0 0 0 0 0 0 0 0 0 0 0 0 0 955 968 968 968 968 968 955 955 931 943 943 943 943 931 931 943 943 968 968 968 955 968 955 968 931 876 817 817 826 826 845 855 876 876 897 908 919 931 955 955 968 943 968 955 955 943 931 931 897 897 876 897 897 908 908 919 919 931 931 968 968 968 981 994 1008 919 943 943 931 943 886 886 919 919 908 919 908 919 919 943 943 919 931 943 943 931 919 919 919 931 931 919 931 931 943 943 931 943 943 943 955 908 931 908 908 897 886 876 897 876 897 886 908 908 908 919 943 919 943 931 943 943 968 968 981 955 981 981 968 955 968 931 943 931 955 931 919 931 955 897 955 943 919 931 919 919 919 919 931 908 908 931 908 919 919 919 897 897 908 897 876 886 897 865 897 897 886 897 897 919 886 897 931 897 897 919 908 897 908 919 908 908 908 919 919 908 931 919 955 943 994 855 735 0 728 714 645 687 687 694 694 694 700 694 694 817 836 886 919 931 908 897 908 876 897 855 0 0 0 0 0 886 886 876 897 919 876 876 836 791 721 0 0 0 0 0 0 0 529 521 525 521 525 518 518 0 0 0 0 0 0
    0 0 0 0 0 0 0 0 0 0 0 0 0 0 0 0 0 0 0 0 0 0 0 0 0 0 0 0 0 0 0 0 0 0 0 0 0 0 0 0 0 0 0 0 0 0 0 0 0 0 0 0 0 0 0 0 0 0 0 0 0 0 0 0 0 0 0 0 0 943 955 943 955 955 955 943 943 919 943 931 943 943 931 919 943 931 955 968 968 955 955 943 943 886 855 826 826 836 836 845 855 865 865 886 897 908 908 943 955 955 943 955 955 955 943 931 919 897 897 876 897 897 897 908 908 919 919 931 968 955 955 968 968 994 886 931 943 919 943 876 886 908 908 908 908 908 908 908 931 931 908 919 931 919 919 897 897 897 919 919 897 919 919 931 931 931 931 931 931 955 897 919 897 897 897 886 876 897 876 897 886 897 897 897 919 931 908 943 931 943 943 955 968 981 955 981 981 968 955 955 919 931 919 943 919 897 919 943 886 955 943 908 931 919 919 919 919 931 897 897 931 897 908 908 908 876 886 897 876 865 876 876 855 876 876 865 876 876 886 865 876 897 886 886 897 897 897 897 897 908 897 897 908 908 897 919 897 931 897 931 845 728 721 721 714 651 687 687 687 694 694 694 694 687 817 836 897 919 919 908 886 897 876 886 855 845 855 845 0 886 886 886 876 886 908 865 865 836 799 0 0 0 0 0 0 0 0 0 525 529 0 0 0 0 98 0 0 0 0 0
    0 0 0 0 0 0 0 0 0 0 0 0 0 0 0 0 0 0 0 0 0 0 0 0 0 0 0 0 0 0 0 0 0 0 0 0 0 0 0 0 0 0 0 0 0 0 0 0 0 0 0 0 0 0 0 0 0 0 0 0 0 0 0 0 0 0 0 0 0 919 931 919 919 931 931 919 931 908 919 919 931 931 931 931 931 943 955 968 968 955 955 931 919 865 836 826 826 826 817 836 845 855 865 876 886 897 897 943 955 955 943 955 955 943 931 931 919 886 886 865 897 897 897 897 897 908 908 919 968 931 931 931 931 968 855 897 931 908 919 876 876 897 897 897 908 897 897 908 931 931 908 919 919 919 908 908 886 897 919 908 886 908 908 919 919 919 919 919 919 955 897 919 897 897 897 886 886 897 886 886 876 897 897 886 908 908 908 931 931 943 931 943 968 981 955 968 968 968 943 943 908 919 908 931 908 886 897 919 886 955 943 908 931 908 908 908 919 919 897 897 919 886 908 908 897 876 886 897 886 865 886 865 855 855 865 855 865 855 865 845 855 876 876 865 886 897 886 897 886 897 897 897 908 908 897 908 886 908 876 886 836 735 728 728 714 669 687 687 687 694 694 0 0 694 817 836 908 908 919 908 886 897 865 886 855 845 865 855 886 897 897 908 897 908 919 865 865 817 791 0 0 0 0 0 0 0 0 0 0 0 0 98 98 98 98 0 0 0 0 0
    0 0 0 0 0 0 0 0 0 0 0 0 0 0 0 0 0 0 0 0 0 0 0 0 0 0 0 0 0 0 0 0 0 0 0 0 0 0 0 0 0 0 0 0 0 0 0 0 0 0 0 0 0 0 0 0 0 0 0 0 0 0 0 0 0 0 0 0 0 897 908 897 897 897 908 897 908 886 908 908 931 931 931 931 931 943 955 968 968 955 955 931 908 865 836 817 817 817 817 836 845 845 855 865 876 886 886 931 943 943 943 943 955 943 931 919 919 876 876 865 897 886 897 886 886 897 897 897 955 886 897 886 897 908 845 865 908 908 908 865 876 897 897 897 897 897 897 908 919 919 897 908 919 908 897 897 876 886 908 897 876 908 897 908 919 919 919 908 919 955 897 931 908 908 908 897 897 897 886 886 876 897 886 876 897 897 897 908 919 943 931 943 955 968 955 955 955 955 931 919 886 897 897 908 886 876 876 897 876 943 943 897 931 897 908 908 908 908 886 886 908 886 897 897 886 865 886 876 865 855 865 845 845 826 845 826 836 836 826 826 836 845 865 845 886 886 876 886 886 897 886 897 897 897 886 897 886 897 876 876 836 750 750 735 714 694 700 694 700 700 700 0 0 700 808 826 897 897 919 897 886 886 865 876 865 855 876 855 897 908 908 919 919 919 931 865 855 808 774 0 0 518 537 541 0 525 533 533 529 529 0 98 98 98 98 0 0 0 0 0
    0 0 0 0 0 0 0 0 0 0 0 0 0 0 0 0 0 0 0 0 0 0 0 0 0 0 0 0 0 0 0 0 0 0 0 0 0 0 0 0 0 0 0 0 0 0 0 0 0 0 0 0 0 0 0 0 0 0 0 0 0 0 0 0 0 0 0 0 0 886 886 876 876 876 876 876 876 876 897 897 919 931 919 931 931 931 955 968 968 943 943 919 897 855 845 826 826 817 817 836 845 845 855 865 876 876 876 919 919 931 931 919 943 908 919 897 908 865 865 855 886 886 886 886 886 886 897 897 943 865 876 865 876 886 845 855 886 886 897 865 876 886 886 886 886 886 886 897 908 908 886 908 919 908 897 897 876 886 908 886 876 897 897 908 908 919 919 908 919 955 897 931 919 919 908 908 897 908 897 886 865 886 876 876 886 886 897 908 919 943 931 943 955 968 955 955 943 943 908 897 876 886 886 897 876 865 876 886 876 943 931 897 931 897 897 908 908 897 886 886 886 876 886 886 876 855 876 855 836 836 836 817 826 808 826 817 817 817 817 817 826 826 855 826 876 876 865 876 865 886 886 886 886 886 876 886 876 886 865 865 826 766 766 750 721 707 707 707 707 707 707 707 707 743 799 808 886 886 897 886 876 876 865 865 865 855 865 855 876 886 886 897 897 897 908 876 865 817 782 0 0 518 541 541 0 0 0 533 529 529 529 0 0 0 0 0 0 0 0 0
    0 0 0 0 0 0 0 0 0 0 0 0 0 0 0 0 0 0 0 0 0 0 0 0 0 0 0 0 0 0 0 0 0 0 0 0 0 0 0 0 0 0 0 0 0 0 0 0 0 0 0 0 0 0 0 0 0 0 0 0 0 0 0 0 0 0 0 0 0 865 876 865 855 855 855 855 865 865 876 886 908 919 908 919 919 931 943 955 955 931 908 897 876 845 836 0 817 817 808 836 845 845 855 865 865 865 865 908 897 919 919 908 931 897 908 886 897 865 865 855 886 876 886 876 876 886 886 886 919 855 865 855 876 876 845 855 876 876 886 855 865 876 876 876 876 876 876 886 897 897 886 908 919 908 897 897 876 886 897 886 876 897 886 897 908 919 919 908 919 955 886 931 908 919 908 908 908 908 897 886 876 886 886 876 886 886 897 897 919 943 931 931 955 955 943 931 931 919 876 876 855 876 876 886 876 865 865 876 876 955 931 908 931 886 886 897 908 886 876 876 876 865 876 876 865 855 865 845 826 836 826 817 808 791 817 808 808 808 808 808 817 817 836 808 845 845 845 865 865 886 876 876 876 876 876 876 865 865 855 845 826 774 774 766 721 721 721 714 714 721 721 714 714 766 774 782 876 876 886 876 865 855 845 855 855 845 855 845 855 876 876 876 876 876 886 865 865 826 782 0 0 0 549 545 0 0 0 0 529 0 0 0 0 0 0 0 0 0 0 0
    0 0 0 0 0 0 0 0 0 0 0 0 0 0 0 0 0 0 0 0 0 0 0 0 0 0 0 0 0 0 0 0 0 0 0 0 0 0 0 0 0 0 0 0 0 0 0 0 0 0 0 0 0 0 0 0 0 0 0 0 0 0 0 0 0 0 0 0 0 855 855 855 845 845 845 855 855 865 865 876 886 908 897 908 908 919 908 919 908 886 876 865 855 0 817 0 0 799 799 826 836 836 845 855 865 865 865 897 886 908 908 908 919 886 886 876 886 865 855 855 876 876 876 876 865 876 886 876 897 845 855 845 865 865 845 855 865 865 876 845 855 865 865 865 865 865 876 876 897 897 886 908 908 897 886 876 855 865 876 865 855 886 876 886 886 908 908 897 908 943 876 931 908 919 908 908 908 919 908 886 876 886 876 865 876 876 876 886 897 908 897 897 919 931 886 886 897 886 865 865 855 876 876 876 865 865 865 865 876 943 919 908 919 886 876 897 897 876 876 876 876 865 876 886 865 855 865 845 826 826 826 808 799 782 808 799 808 808 799 808 808 808 826 808 826 817 817 845 855 876 865 876 865 865 865 876 865 865 845 845 826 782 782 774 728 728 728 721 721 721 721 721 721 766 735 743 845 865 876 876 855 845 845 855 855 845 845 836 845 865 865 865 855 865 876 865 845 817 750 0 0 0 549 545 0 0 0 0 529 0 0 0 0 0 0 0 0 0 0 0
    0 0 0 0 0 0 0 0 0 0 0 0 0 0 0 0 0 0 0 0 0 0 0 0 0 0 0 0 0 0 0 0 0 0 0 0 0 0 0 0 0 0 0 0 0 0 0 0 0 0 0 0 0 0 0 0 0 0 0 0 0 0 0 0 0 0 0 0 0 855 855 855 845 845 845 845 845 855 855 865 876 886 886 897 886 897 876 876 876 855 855 845 0 0 808 0 0 799 799 826 836 836 845 855 865 865 865 886 855 876 876 886 886 876 865 865 865 855 855 845 865 865 865 865 865 865 876 865 876 845 845 845 855 865 845 855 865 855 865 845 855 865 855 855 855 865 865 876 897 886 865 897 897 886 865 865 845 845 855 855 845 865 865 865 876 886 886 886 886 908 865 919 897 908 908 897 908 908 897 886 865 876 865 855 865 865 865 865 876 886 876 876 908 897 865 876 886 876 855 855 855 876 876 876 865 855 865 855 865 897 855 855 855 845 845 876 876 855 865 865 865 865 876 876 855 855 865 836 826 826 826 808 808 782 808 799 799 799 791 799 808 808 817 808 817 817 826 855 855 886 865 865 855 865 865 865 865 855 845 845 826 799 799 782 728 743 735 728 728 721 721 721 721 766 721 728 817 855 876 865 855 855 845 855 865 845 855 836 836 855 845 855 845 845 855 845 836 817 743 0 0 0 553 545 521 0 0 0 529 0 0 0 0 0 0 0 0 0 0 0
    0 0 0 0 0 0 0 0 0 0 0 0 0 0 0 0 0 0 0 0 0 0 0 0 0 0 0 0 0 0 0 0 0 0 0 0 0 0 0 0 0 0 0 0 0 0 0 0 0 0 0 0 0 0 0 0 0 0 0 0 0 0 0 0 0 0 0 0 0 845 855 845 845 845 845 845 845 845 855 845 865 876 876 886 886 886 876 865 865 845 845 836 826 799 808 0 0 808 799 826 826 826 836 845 855 855 845 865 836 845 845 845 845 845 845 845 845 836 845 845 855 855 855 855 855 855 865 855 855 836 836 836 845 855 845 845 865 845 855 836 845 855 845 845 855 855 855 865 897 865 855 886 876 865 855 845 836 836 836 845 836 855 845 855 865 865 876 865 876 876 855 919 897 897 897 897 897 897 886 876 855 855 855 845 855 855 855 855 865 865 865 865 897 876 855 855 865 845 836 836 845 865 865 865 855 845 855 845 845 855 826 826 826 826 836 855 865 845 855 865 855 855 865 865 845 845 845 826 817 817 817 808 799 782 799 791 799 791 791 791 799 799 817 808 817 817 826 845 865 886 865 876 855 865 865 865 855 855 845 836 826 799 799 782 728 743 735 728 728 721 721 721 721 774 728 728 826 845 876 876 865 855 855 855 865 855 855 845 836 845 836 845 826 826 826 826 808 799 728 0 0 0 557 545 518 0 533 529 529 0 0 0 0 0 0 0 0 0 0 0
    0 0 0 0 0 0 0 0 0 0 0 0 0 0 0 0 0 0 0 0 0 0 0 0 0 0 0 0 0 0 0 0 0 0 0 0 0 0 0 0 0 0 0 0 0 0 0 0 0 0 0 0 0 0 0 0 0 0 0 0 0 0 0 0 0 0 0 0 0 0 855 845 845 845 845 836 836 836 845 836 845 855 855 865 865 865 865 855 855 845 836 826 817 791 808 782 808 808 799 817 826 826 826 836 855 845 836 845 826 826 826 826 817 826 836 836 836 826 836 845 845 845 845 855 845 845 865 845 845 836 836 836 845 855 845 855 865 845 845 836 845 845 836 845 845 845 855 855 886 865 845 876 865 855 845 836 826 826 826 836 836 845 836 845 855 855 855 855 855 855 836 886 865 865 855 865 865 865 865 855 845 845 845 836 845 845 845 845 855 855 855 855 886 865 845 845 845 826 826 826 836 845 855 845 845 836 845 836 836 845 826 817 817 817 836 855 855 845 855 865 855 845 855 855 845 845 836 817 808 808 817 799 799 782 799 791 791 782 791 791 799 799 808 799 808 808 817 826 855 855 845 855 845 855 855 855 845 845 836 836 817 808 799 774 728 743 735 728 728 721 721 714 721 782 721 728 826 845 876 876 865 855 855 855 865 855 855 845 836 845 836 836 817 808 808 808 799 791 0 0 0 0 557 545 518 529 533 525 529 525 0 0 0 0 0 0 0 0 0 0
    0 0 0 0 0 0 0 0 0 0 0 0 0 0 0 0 0 0 0 0 0 0 0 0 0 0 0 0 0 0 0 0 0 0 0 0 0 0 0 0 0 0 0 0 0 0 0 0 0 0 0 0 0 0 0 0 0 0 0 0 0 0 0 0 0 0 0 0 0 0 855 845 836 836 836 836 836 836 836 826 826 836 836 845 855 855 855 836 836 826 826 817 808 774 799 774 799 799 799 808 808 817 826 826 845 836 836 836 826 826 826 826 817 817 826 826 826 817 836 836 836 845 845 845 845 845 865 845 845 836 836 836 845 855 855 865 855 836 845 826 836 836 826 836 836 836 845 845 876 845 0 855 845 845 826 826 826 817 817 826 826 836 826 836 845 845 845 845 845 836 826 865 836 826 826 836 845 845 855 845 836 836 836 826 836 845 845 845 845 845 855 845 876 855 845 836 826 817 826 826 826 845 845 836 836 826 836 826 826 826 817 817 817 817 836 845 845 845 865 865 855 845 855 855 845 836 826 808 799 799 808 799 782 774 791 782 782 774 782 791 791 791 799 791 808 799 808 808 817 808 799 817 817 826 836 836 836 826 836 826 808 799 799 766 721 743 735 728 721 714 714 707 707 774 714 721 808 826 845 865 865 845 845 855 855 845 845 836 826 836 826 817 808 808 799 808 791 782 728 0 0 0 557 545 514 529 529 521 525 521 0 518 518 0 0 0 0 0 0 0
    0 0 0 0 0 0 0 0 0 0 0 0 0 0 0 0 0 0 0 0 0 0 0 0 0 0 0 0 0 0 0 0 0 0 0 0 0 0 0 0 0 0 0 0 0 0 0 0 0 0 0 0 0 0 0 0 0 0 0 0 0 0 0 0 0 0 0 0 0 0 0 845 0 0 836 0 0 826 826 826 826 826 826 826 836 836 836 826 817 817 817 817 808 766 799 774 799 799 799 799 808 808 817 817 845 836 826 836 817 826 826 826 817 817 817 826 826 817 836 836 836 836 836 845 845 845 865 845 845 855 845 845 855 865 855 865 855 826 836 817 826 826 817 826 826 826 836 836 0 826 817 836 826 826 817 817 817 808 817 826 817 826 826 826 836 836 836 845 836 826 817 836 826 817 817 826 826 836 845 845 836 836 836 826 836 836 836 836 845 836 845 845 865 845 836 826 817 817 817 817 826 836 845 836 836 817 826 826 817 826 817 817 817 817 836 836 845 845 865 865 855 845 845 845 836 826 817 808 799 791 808 791 782 774 791 782 774 766 774 782 782 791 791 791 799 799 808 808 808 799 791 808 808 817 817 826 826 817 817 808 799 791 791 750 714 728 728 714 714 707 707 700 700 766 707 714 808 817 836 855 855 845 845 845 855 845 836 836 826 826 817 808 799 799 799 799 782 766 721 0 0 0 561 545 514 529 525 521 521 521 521 518 514 0 98 0 0 0 0 0
    0 0 0 0 0 0 0 0 0 0 0 0 0 0 0 0 0 0 0 0 0 0 0 0 0 0 0 0 0 0 0 0 0 0 0 0 0 0 0 0 0 0 0 0 0 0 0 0 0 0 0 0 0 0 0 0 0 0 0 0 0 0 0 0 0 0 0 0 0 0 0 845 0 0 0 826 0 826 826 817 817 826 817 826 826 826 826 817 808 808 808 808 799 766 799 774 799 799 799 799 799 808 817 808 836 836 826 826 817 826 826 826 826 826 817 826 826 817 836 836 836 836 836 845 845 845 876 855 855 865 855 855 865 886 865 876 855 826 836 808 817 817 817 817 817 817 826 817 0 817 799 817 817 808 808 808 808 808 808 817 817 817 817 826 826 826 826 836 826 817 817 826 817 808 817 817 826 826 826 836 826 826 836 817 836 826 826 836 836 836 836 836 845 826 817 817 808 799 808 808 817 836 845 836 836 817 826 817 817 817 817 817 817 817 836 836 845 845 855 865 845 836 836 836 826 817 808 799 791 791 808 791 774 774 799 782 774 758 774 782 782 791 791 782 799 799 808 808 799 799 791 808 799 799 799 799 799 799 799 782 782 782 782 735 707 721 714 707 707 700 694 694 694 750 707 721 817 817 817 826 817 817 826 817 817 808 817 826 808 817 799 791 791 791 791 791 766 743 0 0 0 0 561 545 518 529 525 521 521 521 521 518 514 0 0 0 0 0 0 0
    0 0 0 0 0 0 0 0 0 0 0 0 0 0 0 0 0 0 0 0 0 0 0 0 0 0 0 0 0 0 0 0 0 0 0 0 0 0 0 0 0 0 0 0 0 0 0 0 0 0 0 0 0 0 0 0 0 0 0 0 0 0 0 0 0 0 0 0 0 0 0 836 0 0 826 826 826 826 826 817 817 826 817 817 826 826 826 817 799 799 791 791 791 766 791 774 799 799 799 799 799 808 808 808 826 826 826 826 817 826 826 826 826 836 826 826 836 817 836 836 826 836 836 845 845 845 886 845 855 876 855 855 855 876 865 876 865 826 836 799 817 817 808 817 817 817 817 808 0 808 791 808 808 799 808 808 808 799 808 817 808 808 808 817 826 817 826 826 826 817 817 826 817 799 817 817 826 826 826 826 826 826 836 808 826 826 817 826 826 826 826 826 845 817 808 808 799 791 791 799 808 826 826 826 836 808 817 817 817 817 817 817 817 817 836 836 845 845 855 855 845 817 826 826 826 799 799 791 791 782 808 782 774 774 791 774 766 750 774 774 774 782 782 782 799 799 799 799 799 799 782 808 791 799 782 782 774 774 782 758 766 766 766 728 694 707 707 700 700 694 687 687 687 743 714 728 845 826 826 817 799 799 791 774 782 782 791 799 791 808 791 782 791 782 791 782 750 728 0 0 0 0 561 545 525 529 525 521 521 521 521 518 518 0 0 0 0 0 0 0
    0 0 0 0 0 0 0 0 0 0 0 0 0 0 0 0 0 0 0 0 0 0 0 0 0 0 0 0 0 0 0 0 0 0 0 0 0 0 0 0 0 0 0 0 0 0 0 0 0 0 0 0 0 0 0 0 0 0 0 0 0 0 0 0 0 0 0 0 0 750 0 817 0 826 826 817 817 817 817 817 817 817 808 808 817 817 817 808 799 791 782 782 782 766 791 766 791 791 799 799 799 799 808 799 826 826 817 817 817 817 817 817 826 826 817 826 826 808 836 836 826 836 836 836 836 836 876 836 845 865 845 845 836 855 845 865 855 817 836 791 808 808 808 808 808 808 817 808 817 808 782 808 799 799 808 799 808 799 808 817 808 808 808 817 817 817 826 826 826 817 817 826 808 791 817 817 826 826 826 826 817 826 826 808 826 826 817 826 826 826 836 836 855 826 817 808 799 782 782 782 774 791 799 808 817 791 817 808 808 817 817 817 817 817 836 836 845 845 855 855 845 799 817 817 808 791 791 791 782 782 799 782 774 766 791 774 766 750 766 766 766 782 774 782 791 791 799 791 782 791 782 799 774 782 758 750 750 750 750 743 750 750 758 728 694 700 700 694 694 687 687 681 681 728 714 735 836 826 826 808 791 782 774 750 766 766 766 782 774 799 782 774 791 774 782 774 743 0 0 0 0 0 557 541 525 529 525 521 521 521 525 521 525 537 0 0 0 0 0 0
    0 0 0 0 0 0 0 0 0 0 0 0 0 0 0 0 0 0 0 0 0 0 0 0 0 0 0 0 0 0 0 0 0 0 0 0 0 0 0 0 0 0 0 0 0 0 0 0 0 0 0 0 0 0 0 0 0 0 0 0 0 0 0 0 0 0 0 0 0 743 774 799 799 817 826 808 817 808 808 808 808 808 799 799 808 808 817 808 782 782 774 782 782 766 782 766 782 791 791 799 791 799 808 791 826 817 817 817 808 817 817 817 817 817 817 817 826 799 826 826 826 826 836 836 836 836 876 836 836 865 845 836 826 836 808 826 836 799 826 782 799 808 799 808 808 799 808 799 817 799 782 799 799 791 808 799 799 799 808 817 808 808 817 817 817 817 817 817 817 808 817 817 799 782 808 808 817 817 817 817 817 817 826 808 836 826 826 836 836 836 836 836 855 826 817 808 791 774 758 758 750 774 782 791 799 782 808 808 808 817 817 817 817 817 836 836 845 845 845 855 836 766 808 808 808 782 782 782 782 774 799 782 774 774 791 766 758 750 766 758 750 766 758 782 782 782 791 782 774 782 774 791 758 758 743 735 743 728 728 728 735 743 750 721 694 700 700 694 694 694 687 681 681 714 714 743 817 826 817 799 766 758 758 735 758 758 750 758 766 799 774 774 791 782 791 782 743 0 0 0 0 0 553 541 529 529 525 521 521 521 521 521 529 537 0 0 0 0 0 0
    0 0 0 0 0 0 0 0 0 0 0 0 0 0 0 0 0 0 0 0 0 0 0 0 0 0 0 0 0 0 0 0 0 0 0 0 0 0 0 0 0 0 0 0 0 0 0 0 0 0 0 0 0 0 0 0 0 0 0 0 0 0 0 0 0 0 0 0 0 743 758 782 782 817 817 799 808 799 808 799 799 808 791 791 799 799 808 799 766 774 750 774 774 758 774 758 774 782 782 791 782 791 799 782 817 808 808 808 799 808 817 817 817 808 808 799 808 791 817 817 817 826 826 836 836 836 876 836 0 845 826 817 808 808 791 791 817 782 817 774 791 799 791 799 799 799 808 799 808 799 782 799 799 791 799 799 799 799 799 817 808 808 808 817 817 817 817 817 817 808 808 817 791 782 799 799 817 817 817 817 817 817 826 808 836 826 826 836 826 826 826 826 836 808 799 791 782 774 758 758 743 766 774 791 799 774 808 799 808 817 817 817 817 817 836 826 836 836 836 845 836 758 799 808 799 774 782 782 782 774 799 774 774 766 791 758 750 750 758 743 743 750 750 774 774 774 782 774 766 766 766 782 750 750 735 728 735 714 714 721 728 735 743 721 700 700 700 700 700 694 694 687 687 714 714 735 782 799 774 758 743 743 743 735 750 750 735 743 750 791 766 766 791 774 782 774 735 0 0 0 0 588 549 541 533 533 529 525 525 525 529 529 0 0 675 0 0 0 0 0
    0 0 0 0 0 0 0 0 0 0 0 0 0 0 0 0 0 0 0 0 0 0 0 0 0 0 0 0 0 0 0 0 0 0 0 0 0 0 0 0 0 0 0 0 0 0 0 0 0 0 0 0 0 0 0 0 0 0 0 0 0 0 0 0 0 0 0 0 0 743 750 774 774 808 808 791 799 799 791 799 791 791 774 774 791 791 782 791 750 766 743 774 766 750 758 758 766 782 774 791 774 782 791 774 808 799 808 799 799 808 817 817 817 808 799 782 799 782 808 817 808 817 826 836 845 845 886 836 836 845 817 808 799 791 782 774 808 782 817 766 782 791 791 799 791 791 799 791 808 791 774 791 791 782 799 791 791 791 791 808 799 791 799 808 808 808 808 808 808 799 808 808 782 782 799 799 808 817 817 817 817 826 826 817 845 826 826 826 817 817 817 817 826 791 782 774 766 774 750 750 743 766 774 799 808 774 808 799 808 817 817 817 808 817 826 817 817 817 808 817 817 758 799 808 808 774 782 782 782 774 799 774 766 766 782 750 743 743 758 743 735 743 735 766 766 766 774 758 758 758 750 766 743 743 728 721 728 707 700 714 721 728 735 714 707 707 707 707 700 700 694 687 687 700 700 0 707 743 735 728 735 743 743 735 743 743 728 728 735 791 766 766 799 782 782 750 721 0 0 0 598 566 549 541 537 533 533 529 529 533 537 533 549 608 645 0 0 0 0 0
    0 0 0 0 0 0 0 0 0 0 0 0 0 0 0 0 0 0 0 0 0 0 0 0 0 0 0 0 0 0 0 0 0 0 0 0 0 0 0 0 0 0 0 0 0 0 0 0 0 0 0 0 0 0 0 0 0 0 0 0 0 0 0 0 0 0 0 0 0 743 743 766 766 799 799 782 791 782 774 782 766 774 758 758 774 774 0 791 743 766 735 766 758 750 758 750 758 774 758 791 758 766 774 758 799 791 799 799 799 817 826 817 826 808 808 782 799 791 808 817 817 817 826 826 845 845 876 826 826 826 808 799 791 782 774 774 817 791 817 766 782 791 791 791 782 774 782 774 799 774 758 782 782 782 799 791 791 791 791 799 799 782 791 799 791 791 799 799 799 791 808 808 774 782 799 791 808 817 817 817 817 826 836 817 845 826 826 826 799 808 808 808 808 774 758 750 758 774 750 750 743 766 782 808 808 782 808 799 808 817 817 808 799 808 808 799 799 799 782 791 799 758 791 808 799 766 791 782 782 774 791 774 766 758 782 743 743 743 750 743 728 735 728 758 758 758 766 750 758 750 743 758 735 735 721 714 707 694 681 694 707 714 721 714 707 707 707 707 707 707 700 694 694 700 694 0 0 0 0 0 743 750 750 735 750 750 735 735 735 817 799 791 808 774 0 0 0 0 0 584 574 553 549 541 541 533 533 529 533 537 541 537 557 593 623 0 0 0 0 0
    0 0 0 0 0 0 0 0 0 0 0 0 0 0 0 0 0 0 0 0 0 0 0 0 0 0 0 0 0 0 0 0 0 0 0 0 0 0 0 0 0 0 0 0 0 0 0 0 0 0 0 0 0 0 0 0 0 0 0 0 0 0 0 0 0 0 0 0 0 735 735 750 743 782 758 750 758 758 743 750 735 743 728 735 750 758 0 0 0 758 728 758 750 750 750 743 750 766 750 782 743 750 758 0 0 0 758 0 782 826 836 808 826 808 808 791 799 799 808 817 817 826 836 826 855 845 886 0 808 808 791 774 782 774 774 774 817 799 817 758 782 782 782 782 774 766 774 766 791 766 758 766 774 782 799 791 791 791 791 799 799 782 791 799 782 782 791 791 782 782 799 799 766 782 799 799 808 817 808 817 808 826 836 808 836 826 817 817 782 799 799 799 799 766 750 750 758 782 750 750 750 766 782 817 817 791 817 799 808 817 817 808 791 799 799 782 782 782 766 774 791 750 782 799 791 766 782 782 774 766 782 766 758 758 774 743 743 743 750 758 728 735 728 758 750 750 758 743 750 743 735 743 721 721 714 707 694 675 634 629 623 707 707 707 707 714 707 714 707 707 707 694 694 694 0 0 0 0 0 0 0 758 750 728 758 758 750 743 758 836 836 0 0 0 0 0 0 0 570 570 561 545 545 541 541 533 533 529 533 537 541 541 553 574 613 0 0 0 0 0
    0 0 0 0 0 0 0 0 0 0 0 0 0 0 0 0 0 0 0 0 0 0 0 0 0 0 0 0 0 0 0 0 0 0 0 0 0 0 0 0 0 0 0 0 0 0 0 0 0 0 0 0 0 0 0 0 0 0 0 0 0 0 0 0 0 0 0 0 0 728 728 728 0 0 0 0 728 735 728 0 0 0 0 0 0 0 0 0 0 0 0 766 758 758 758 750 750 774 750 0 743 0 0 0 95 0 0 561 0 0 0 0 537 0 0 0 0 0 0 0 0 0 865 0 0 0 0 0 0 782 766 750 766 758 758 766 817 799 808 743 774 774 774 766 758 750 758 758 782 750 743 750 758 774 782 766 782 782 774 791 791 774 774 791 766 758 774 774 782 774 791 791 774 799 0 0 0 0 0 817 817 826 826 799 826 817 808 799 758 782 782 782 799 766 750 750 758 782 758 766 766 774 791 826 817 808 826 808 817 826 817 799 782 799 791 774 774 766 750 758 782 750 774 791 791 758 782 782 774 766 774 766 758 758 766 743 743 743 743 758 728 735 728 750 735 735 735 728 735 728 721 721 700 707 694 681 663 634 603 603 593 0 694 700 707 714 714 714 714 714 707 700 0 687 0 0 639 598 584 579 0 758 758 728 766 774 766 758 766 836 817 0 0 0 0 0 0 0 557 566 553 541 545 541 541 533 533 529 533 537 545 541 553 574 608 0 0 0 0 0
    0 0 0 0 0 0 0 0 0 0 0 0 0 0 0 0 0 0 0 0 0 0 0 0 0 0 0 0 0 0 0 0 0 0 0 0 0 0 0 0 0 0 0 0 0 0 0 0 0 0 0 0 0 0 0 0 0 0 0 0 0 0 0 0 0 0 0 0 0 0 0 0 0 0 0 0 0 721 0 0 0 124 0 0 0 0 0 0 0 0 0 0 0 0 0 766 758 782 758 0 0 0 0 0 0 0 0 537 533 0 533 533 529 525 533 0 0 0 0 0 0 0 0 0 0 0 157 157 0 0 735 735 743 743 743 750 799 782 774 728 758 750 758 750 743 735 743 743 766 743 735 728 735 758 758 735 758 750 743 0 774 743 743 774 750 735 750 750 758 766 782 774 766 0 0 0 0 0 0 826 817 808 808 766 817 799 791 782 743 774 766 774 791 766 750 743 758 782 758 766 758 766 791 826 817 0 0 808 0 826 826 799 774 791 782 766 766 758 743 750 774 750 774 791 782 766 782 782 774 766 766 766 758 750 758 743 743 735 735 743 721 721 721 743 728 721 728 721 728 721 714 707 694 687 675 651 0 0 593 588 579 584 651 0 721 721 721 721 721 721 714 700 0 675 0 0 613 588 557 553 0 750 735 721 758 766 766 743 0 0 0 0 0 0 0 0 0 545 549 557 553 541 545 541 541 533 533 533 533 537 545 541 553 570 608 0 0 0 0 0
    0 0 0 0 0 0 0 0 0 0 0 0 0 0 0 0 0 0 0 0 0 0 0 0 0 0 0 0 0 0 0 0 0 0 0 0 0 0 0 0 0 0 0 0 0 0 0 0 0 0 0 0 0 0 0 0 0 0 0 0 0 0 0 0 0 0 0 0 0 0 0 0 0 0 0 0 0 0 0 514 0 0 0 0 0 0 0 511 514 514 507 507 0 0 0 0 0 782 0 0 0 82 0 0 0 529 529 533 529 533 529 533 529 525 537 525 518 0 0 0 0 0 0 0 0 0 0 0 0 514 0 0 728 721 728 743 782 750 0 0 0 728 735 735 721 721 721 735 758 728 0 0 0 0 0 0 0 0 0 0 0 0 0 0 728 707 0 0 0 0 0 0 0 0 0 0 0 0 0 0 0 0 0 0 0 791 774 766 735 766 758 766 774 750 743 735 743 766 735 743 743 0 0 0 0 0 0 0 0 0 0 791 750 782 766 758 758 758 743 743 774 758 774 799 782 774 782 782 782 774 766 766 758 750 750 743 735 735 728 743 721 714 721 735 721 714 707 714 721 707 707 694 681 681 663 0 0 608 588 579 574 574 0 0 728 728 721 728 728 721 714 0 0 0 0 0 588 566 545 549 541 0 0 0 0 766 758 0 0 0 0 525 500 525 529 529 537 541 541 553 549 541 545 541 541 533 533 533 537 541 549 545 553 570 603 0 0 0 0 0
    0 0 0 0 0 0 0 0 0 0 0 0 0 0 0 0 0 0 0 0 0 0 0 0 0 0 0 0 0 0 0 0 0 0 0 0 0 0 0 0 0 0 0 0 0 0 0 0 0 0 0 0 0 0 0 0 0 0 0 0 0 0 0 0 0 0 0 0 0 140 0 0 0 0 0 533 525 529 525 514 511 511 514 521 507 514 514 514 514 514 511 511 0 0 0 0 0 0 0 0 0 82 0 0 529 521 525 529 529 529 529 533 529 529 537 529 521 0 0 0 0 0 0 0 0 0 521 514 507 511 514 507 0 0 0 0 0 0 557 537 529 0 0 0 0 0 0 0 750 0 0 541 0 533 533 529 533 533 0 0 0 0 0 0 714 623 0 0 0 0 0 0 0 0 0 0 0 0 0 0 521 525 529 529 533 0 0 0 0 743 735 743 750 735 728 728 728 750 0 0 0 179 178 0 0 0 0 0 0 0 0 0 0 0 0 0 0 0 735 735 774 766 766 791 750 774 774 782 791 774 758 766 758 750 750 743 743 735 728 743 714 707 707 714 0 0 0 0 0 681 694 681 651 651 639 0 0 603 584 574 570 570 593 598 0 728 721 728 721 714 0 0 0 0 561 541 545 549 537 537 537 0 0 0 0 0 0 0 497 500 493 514 504 521 529 533 533 537 541 549 545 541 545 541 541 533 533 533 537 541 549 545 549 566 603 0 0 0 0 0
    0 0 0 0 0 0 0 0 0 0 0 0 0 0 0 0 0 0 0 0 0 0 0 0 0 0 0 0 0 0 0 0 0 0 0 0 0 0 0 0 0 0 0 0 0 0 0 0 0 0 0 0 0 0 0 0 0 0 0 0 0 0 0 0 0 0 0 0 0 139 0 0 0 533 533 529 521 525 521 514 514 511 514 521 511 514 514 514 514 514 511 514 0 0 0 0 0 324 0 0 0 0 0 529 529 518 521 525 525 529 529 533 529 529 537 533 529 514 0 0 0 0 0 0 0 0 525 518 511 514 518 521 525 525 537 0 545 557 549 537 529 537 533 533 533 537 537 537 0 541 537 533 537 529 529 525 529 529 529 0 0 533 537 0 0 584 0 0 0 0 0 0 0 0 0 0 525 518 521 521 521 525 529 525 533 541 557 0 0 728 721 721 735 721 714 721 714 728 0 0 0 0 0 525 514 511 518 521 521 497 514 521 521 0 0 0 0 0 728 735 0 0 0 0 0 0 0 0 0 774 735 766 758 750 743 743 735 728 721 735 707 675 0 0 0 0 0 545 0 0 634 657 623 618 618 608 0 588 574 566 561 566 584 588 0 728 707 0 0 0 0 0 0 549 541 533 537 537 533 533 537 533 529 525 518 0 0 490 493 493 490 504 500 521 525 529 533 537 537 545 545 541 545 549 545 537 537 533 541 545 553 549 549 566 603 0 0 0 0 0
    0 0 0 0 0 0 0 0 0 0 0 0 0 0 0 0 0 0 0 0 0 0 0 0 0 0 0 0 0 0 0 0 0 0 0 0 0 0 0 0 0 0 0 0 0 0 0 0 0 0 0 0 0 0 0 0 0 0 0 0 0 0 0 0 0 0 0 0 0 0 0 537 533 529 525 521 518 521 518 511 511 511 511 518 511 514 518 514 518 518 514 518 511 0 0 0 0 0 0 0 0 0 0 529 525 514 521 525 525 525 525 529 529 529 537 537 533 525 533 529 0 0 0 0 525 521 525 521 514 518 518 521 521 521 529 533 537 541 537 537 525 533 533 529 533 533 533 529 533 537 533 529 529 525 525 521 529 525 529 529 533 533 537 533 549 553 545 0 545 0 0 0 0 0 525 521 521 518 521 521 521 525 529 529 537 545 561 0 553 0 714 0 721 714 700 0 651 0 0 0 0 533 533 521 518 518 521 525 525 507 521 525 521 521 0 0 0 0 0 0 0 0 0 0 0 0 0 0 0 0 0 750 750 743 735 735 735 728 721 735 694 0 0 537 537 533 533 537 537 553 603 629 608 608 613 598 593 574 561 561 561 561 574 574 574 0 608 0 0 0 0 529 529 533 533 529 533 533 533 533 537 533 525 521 511 0 0 493 490 493 490 504 500 521 525 525 529 533 533 541 541 537 545 549 545 533 537 533 541 541 549 541 541 545 584 0 0 0 0 0
    0 0 0 0 0 0 0 0 0 0 0 0 0 0 0 0 0 0 0 0 0 0 0 0 0 0 0 0 0 0 0 0 0 0 0 0 0 0 0 0 0 0 0 0 0 0 0 0 0 0 0 0 0 0 0 0 0 0 0 0 0 0 0 0 0 0 0 0 0 0 533 533 529 525 521 521 518 521 518 507 507 507 511 518 511 514 518 514 518 518 518 521 514 521 521 521 525 525 521 529 521 529 518 525 525 514 521 521 521 525 525 529 529 529 537 537 537 529 533 533 525 521 0 521 525 521 525 525 518 521 521 521 521 525 529 529 529 533 533 533 521 533 529 525 529 529 529 525 529 533 525 525 525 521 521 518 525 521 525 525 529 533 533 529 537 541 541 537 537 529 529 529 529 521 521 518 521 518 521 521 521 529 529 525 537 541 553 545 541 0 0 557 0 0 553 545 553 537 0 533 529 525 525 518 518 514 518 521 521 511 521 525 525 525 533 529 529 525 0 529 0 0 537 529 537 533 537 0 0 0 553 0 743 735 728 728 728 721 714 721 623 553 533 533 533 533 529 529 529 537 549 608 584 598 593 584 579 566 561 561 557 557 561 561 557 566 574 0 0 537 533 521 525 529 529 529 533 533 529 529 533 529 521 514 507 507 504 497 497 500 497 511 507 521 521 525 525 529 529 537 537 533 537 541 537 529 529 529 533 533 545 537 537 537 566 0 0 0 0 0
    0 0 0 0 0 0 0 0 0 0 0 0 0 0 0 0 0 0 0 0 0 0 0 0 0 0 0 0 0 0 0 0 0 0 0 0 0 0 0 0 0 0 0 0 0 0 0 0 0 0 0 0 0 0 0 0 0 0 0 0 0 0 0 0 0 0 0 0 0 529 533 533 529 525 521 521 518 521 518 507 507 507 507 518 511 514 518 518 518 521 518 525 514 525 521 521 529 525 521 529 521 529 518 521 521 511 518 521 521 525 521 529 529 529 537 537 537 533 533 537 533 529 533 525 529 525 525 525 521 525 525 525 525 529 529 533 529 533 533 533 521 529 529 525 525 525 525 521 525 529 525 521 521 521 521 518 525 521 521 525 525 529 529 529 537 537 533 533 533 525 525 525 525 521 521 518 521 518 521 521 521 529 529 525 533 541 545 541 541 537 537 545 541 541 537 537 537 529 533 529 525 525 525 518 521 514 518 521 525 514 525 525 525 525 529 529 529 525 533 529 529 529 533 529 533 533 537 537 529 0 545 529 0 0 0 0 0 0 694 0 588 541 529 529 529 529 529 525 525 529 537 557 553 579 574 570 566 561 557 561 553 557 557 553 549 549 545 537 521 533 529 521 525 529 529 529 529 533 529 529 533 525 518 507 500 504 500 497 497 500 497 507 507 518 521 521 521 525 525 529 529 533 533 533 533 529 529 529 529 529 541 533 533 529 545 0 0 0 0 0
    0 0 0 0 0 0 0 0 0 0 0 0 0 0 0 0 0 0 0 0 0 0 0 0 0 0 0 0 0 0 0 0 0 0 0 0 0 0 0 0 0 0 0 0 0 0 0 0 0 0 0 0 0 0 0 0 0 0 0 0 0 0 0 0 0 0 0 0 0 525 529 529 529 525 521 518 518 521 518 511 511 507 511 521 511 514 518 518 518 518 514 521 514 521 521 521 529 525 525 529 521 529 518 521 521 511 518 521 521 521 521 529 529 525 537 533 533 533 533 537 533 529 533 529 529 529 525 525 521 525 525 525 525 529 529 529 529 533 533 533 521 529 529 521 525 525 521 518 525 529 525 521 521 521 521 518 525 521 521 525 525 529 529 529 533 537 529 529 529 521 521 525 521 518 521 518 521 518 521 521 521 529 529 525 533 537 541 541 541 541 541 541 537 537 533 533 537 529 529 525 525 521 525 521 521 518 521 521 525 514 525 525 525 525 529 529 525 525 533 525 525 525 529 525 533 529 533 533 525 533 537 525 525 533 537 537 0 0 549 0 553 537 529 529 529 529 529 525 525 529 533 541 541 566 557 557 561 557 553 557 549 549 549 545 541 537 537 533 518 529 529 525 525 529 529 533 533 537 529 525 529 521 514 504 500 500 500 497 497 500 497 504 507 518 521 521 521 521 521 525 529 533 533 537 533 529 529 529 525 525 533 525 514 514 533 0 0 0 0 0
    0 0 0 0 0 0 0 0 0 0 0 0 0 0 0 0 0 0 0 0 0 0 0 0 0 0 0 0 0 0 0 0 0 0 0 0 0 0 0 0 0 0 0 0 0 0 0 0 0 0 0 0 0 0 0 0 0 0 0 0 0 0 0 0 0 0 0 0 0 525 529 529 525 521 521 518 518 521 521 514 514 514 514 525 518 518 518 514 518 518 514 521 514 521 525 525 533 529 529 533 525 533 518 525 525 511 518 521 521 521 521 525 525 525 533 529 525 525 529 533 529 525 533 525 529 529 525 529 525 525 525 525 525 529 529 529 529 533 533 533 518 529 525 521 525 521 521 518 521 533 525 521 521 521 521 518 525 521 521 525 525 529 529 529 533 533 529 529 529 525 521 525 521 521 521 521 521 521 521 525 521 529 529 525 533 537 537 541 541 541 537 537 537 537 533 529 533 525 525 525 521 521 525 521 525 518 525 521 525 518 525 525 529 529 529 529 529 525 529 525 521 521 525 521 529 525 529 529 525 533 533 525 525 525 533 537 537 0 0 0 545 533 529 529 525 525 529 529 525 529 533 537 537 553 549 549 549 545 545 545 537 537 537 537 533 529 529 529 514 529 529 525 529 529 533 533 529 537 525 521 521 518 511 497 497 497 497 497 497 497 493 500 511 518 521 521 521 521 521 525 529 533 529 533 529 521 518 529 507 493 487 477 471 468 471 0 0 0 0 0
    0 0 0 0 0 0 0 0 0 0 0 0 0 0 0 0 0 0 0 0 0 0 0 0 0 0 0 0 0 0 0 0 0 0 0 0 0 0 0 0 0 0 0 0 0 0 0 0 0 0 0 0 0 0 0 0 0 0 0 0 0 0 0 0 0 0 0 0 0 521 525 525 525 521 521 518 518 521 525 518 518 514 518 529 521 518 521 518 518 518 518 525 514 525 525 525 533 533 533 537 533 537 525 525 529 511 521 521 521 521 521 525 525 525 533 529 521 525 525 533 529 521 533 529 529 533 525 529 525 525 525 521 525 529 525 529 529 533 533 533 518 529 529 521 525 521 521 518 521 533 521 518 521 521 521 521 525 521 521 525 525 533 529 529 533 533 529 529 529 525 525 525 521 521 521 521 521 521 521 525 521 529 529 525 533 537 537 541 541 541 537 537 537 533 529 525 529 521 525 521 521 521 521 521 525 518 525 525 525 518 529 529 529 529 533 529 529 525 529 525 521 521 521 521 529 525 525 533 521 533 537 525 529 525 533 537 533 537 537 537 541 533 525 529 525 529 529 529 529 529 533 537 537 545 545 541 541 537 537 533 529 529 533 529 529 525 529 525 511 529 529 525 525 529 529 529 529 533 521 514 518 514 504 493 493 493 493 493 497 493 493 500 511 518 518 518 518 521 521 525 525 529 529 529 521 507 500 507 490 484 477 462 462 465 465 0 0 0 0 0</data></depth>
</opencv_storage>
