<?xml version="1.0"?>
<opencv_storage>
<gps_time_stamp>27392</gps_time_stamp>
<gps_x>-6.1871356964111328e+000</gps_x>
<gps_y>9.1978847980499268e-001</gps_y>
<gps_z>-1.6832556724548340e+000</gps_z>
<image_time_stamp>15368</image_time_stamp>
<depth type_id="opencv-matrix">
  <rows>87</rows>
  <cols>320</cols>
  <dt>s</dt>
  <data>
    0 0 0 0 0 0 0 0 0 0 0 0 0 0 0 0 0 0 0 0 0 0 0 0 0 0 0 0 0 0 0 0 0 0 0 0 0 0 0 0 0 0 0 0 0 0 0 0 0 0 0 0 0 0 0 0 0 0 0 0 0 0 0 0 0 0 0 0 0 908 919 886 897 886 886 897 886 886 876 876 876 876 865 876 886 897 897 908 908 919 931 955 968 968 968 968 981 994 981 968 981 897 876 865 855 876 865 876 876 876 897 886 919 955 897 908 886 865 836 836 808 799 799 791 808 808 826 845 865 865 865 876 897 919 919 931 943 897 897 886 886 865 865 886 897 865 865 876 876 876 865 865 865 0 0 886 0 855 865 865 886 886 876 876 908 919 897 897 908 886 886 886 886 865 876 886 897 876 886 897 876 865 876 876 855 876 876 855 865 876 876 876 876 886 865 876 908 886 897 908 897 876 876 876 876 876 886 886 855 876 876 876 876 876 876 865 876 886 886 908 876 876 876 855 845 845 845 826 826 826 826 817 826 836 826 817 836 836 836 836 826 836 826 817 817 808 808 808 808 817 808 826 826 826 836 826 826 826 826 826 817 826 817 817 817 826 817 817 817 826 817 836 836 836 855 855 865 897 865 865 855 855 826 799 774 750 721 808 799 791 0 0 0 0 566 549 566 566 566 570 574 579 579 574 598 593 598 0 855 994 0 0 0 0 0 0 0 0 0 0
    0 0 0 0 0 0 0 0 0 0 0 0 0 0 0 0 0 0 0 0 0 0 0 0 0 0 0 0 0 0 0 0 0 0 0 0 0 0 0 0 0 0 0 0 0 0 0 0 0 0 0 0 0 0 0 0 0 0 0 0 0 0 0 0 0 0 0 0 0 908 908 876 876 876 876 886 876 876 865 876 865 865 865 865 886 886 897 897 897 897 919 943 968 968 968 955 968 968 955 931 943 876 855 855 845 876 865 865 876 876 886 886 908 943 886 897 865 855 826 826 799 791 791 791 799 808 826 836 845 855 855 855 876 886 908 0 931 897 897 886 886 865 865 876 897 865 865 876 865 865 865 865 865 0 0 876 0 845 855 855 865 865 865 865 897 908 886 886 886 876 876 865 876 865 876 886 886 876 886 908 897 886 897 876 865 865 865 845 855 865 865 865 865 865 865 865 908 886 886 897 876 865 855 865 865 855 865 865 845 865 865 865 865 865 865 865 865 886 886 897 876 876 865 855 845 845 845 817 817 817 817 808 817 817 808 808 817 817 817 817 817 817 817 808 817 808 808 808 808 808 808 817 817 826 826 826 826 826 826 836 826 826 817 808 817 808 808 799 799 817 808 817 826 826 836 845 855 876 855 855 826 836 799 758 743 728 714 735 758 750 728 0 0 0 566 553 570 570 566 570 574 584 584 584 603 598 608 0 0 1022 0 0 0 0 0 0 0 0 0 0
    0 0 0 0 0 0 0 0 0 0 0 0 0 0 0 0 0 0 0 0 0 0 0 0 0 0 0 0 0 0 0 0 0 0 0 0 0 0 0 0 0 0 0 0 0 0 0 0 0 0 0 0 0 0 0 0 0 0 0 0 0 0 0 0 0 0 0 0 0 897 897 865 865 865 865 876 855 855 855 855 855 855 855 855 876 876 886 886 886 897 908 931 968 968 955 931 955 931 919 876 886 855 845 845 845 865 855 855 865 876 886 886 897 931 876 886 855 0 808 808 791 791 791 791 799 799 817 836 836 845 845 845 855 865 876 886 886 876 886 876 876 845 855 876 886 855 855 865 865 865 865 855 855 845 865 865 826 0 836 836 845 836 845 836 855 876 855 865 876 865 865 865 876 865 865 886 886 876 886 908 897 886 897 886 876 865 865 845 855 865 865 865 865 865 865 865 908 886 886 886 865 855 845 845 845 845 855 845 836 855 855 865 865 865 865 865 865 886 876 886 865 865 865 845 836 836 836 808 808 817 808 808 799 808 799 791 808 799 799 808 799 817 808 799 817 808 817 808 817 817 808 817 817 826 826 826 826 817 826 826 817 826 808 799 808 799 799 791 791 799 791 808 808 808 826 826 826 855 845 855 826 826 799 750 728 721 714 714 735 721 714 0 0 566 561 553 570 570 566 570 574 584 584 588 608 603 700 0 0 0 0 0 0 0 0 0 0 0 0 0
    0 0 0 0 0 0 0 0 0 0 0 0 0 0 0 0 0 0 0 0 0 0 0 0 0 0 0 0 0 0 0 0 0 0 0 0 0 0 0 0 0 0 0 0 0 0 0 0 0 0 0 0 0 0 0 0 0 0 0 0 0 0 0 0 0 0 0 0 0 886 876 845 855 855 855 855 845 845 845 845 845 845 845 845 865 876 876 876 876 876 897 919 943 943 908 876 897 886 886 855 845 836 836 836 836 845 845 845 855 865 876 865 876 908 865 865 845 826 808 808 799 791 791 791 791 799 817 826 826 836 836 845 855 865 876 876 876 876 886 876 876 845 855 865 886 855 845 855 855 855 855 845 845 836 845 845 817 826 826 826 836 817 826 817 836 845 836 845 855 855 855 855 865 855 865 876 886 876 876 886 876 876 886 876 876 865 855 845 855 855 855 855 865 865 865 865 908 876 876 886 855 836 836 836 836 826 845 845 836 855 855 865 865 865 865 865 865 886 865 876 855 855 865 845 826 836 826 808 808 808 799 799 799 808 791 782 808 791 799 799 799 808 808 799 817 808 817 799 808 799 799 808 808 808 817 808 817 808 817 808 808 817 791 791 791 782 791 782 782 791 782 799 791 799 817 817 817 845 836 855 817 0 799 728 721 707 714 707 721 700 707 0 0 574 561 557 574 570 570 570 574 584 584 588 608 0 728 0 0 1022 0 0 0 0 0 0 0 0 0 0
    0 0 0 0 0 0 0 0 0 0 0 0 0 0 0 0 0 0 0 0 0 0 0 0 0 0 0 0 0 0 0 0 0 0 0 0 0 0 0 0 0 0 0 0 0 0 0 0 0 0 0 0 0 0 0 0 0 0 0 0 0 0 0 0 0 0 0 0 0 876 865 836 0 845 845 855 836 836 836 836 836 836 836 836 845 865 865 865 865 876 886 886 908 897 845 817 817 826 845 826 817 817 817 826 817 836 826 826 836 855 855 855 865 876 855 845 836 826 808 808 799 799 791 791 799 799 817 826 826 836 836 845 855 865 865 865 865 876 876 876 876 845 855 865 876 845 845 855 845 845 845 836 836 826 826 826 817 817 817 817 817 808 817 808 826 836 826 836 845 855 845 855 865 855 855 865 865 865 855 876 865 865 865 865 865 865 855 845 855 855 855 855 855 855 855 855 886 855 845 855 836 826 817 817 826 817 836 845 836 855 855 865 865 865 865 855 855 876 855 855 836 836 845 836 817 826 826 799 808 808 799 799 791 799 791 782 799 791 791 799 791 799 799 791 808 808 808 799 799 791 799 799 799 808 808 799 808 808 817 799 799 808 782 782 774 758 774 766 774 791 774 791 782 799 817 808 817 826 817 836 817 0 799 0 714 707 714 707 721 694 0 0 0 574 557 561 574 570 570 570 574 588 579 593 608 0 728 0 728 0 0 0 0 0 0 0 0 0 0 0
    0 0 0 0 0 0 0 0 0 0 0 0 0 0 0 0 0 0 0 0 0 0 0 0 0 0 0 0 0 0 0 0 0 0 0 0 0 0 0 0 0 0 0 0 0 0 0 0 0 0 0 0 0 0 0 0 0 0 0 0 0 0 0 0 0 0 0 0 0 865 845 826 0 826 836 845 826 826 826 826 826 817 826 826 845 855 855 865 855 865 876 865 876 0 817 799 799 808 817 808 799 808 808 817 808 826 817 826 826 845 845 845 845 855 845 845 836 826 808 808 799 791 791 782 791 799 808 817 817 826 826 836 845 855 845 845 836 865 855 876 865 855 855 865 865 845 836 845 836 836 836 836 826 817 817 817 799 808 799 799 808 799 808 808 817 836 826 836 845 845 845 845 855 845 845 855 845 845 845 855 845 845 855 855 855 855 845 836 845 845 845 845 845 836 836 836 855 836 826 826 826 808 817 817 817 817 826 836 836 855 855 855 865 855 855 855 845 865 836 836 826 826 826 826 799 817 817 799 808 808 799 799 791 799 791 782 799 782 791 791 791 791 791 774 808 791 799 791 791 791 791 791 799 808 808 808 808 808 817 808 799 799 774 774 766 750 766 758 766 782 766 782 782 791 808 799 799 808 799 808 799 799 766 721 714 700 714 700 714 675 0 0 0 574 557 566 574 570 570 570 574 588 579 598 608 0 735 774 714 735 700 0 0 0 0 0 0 0 0 0
    0 0 0 0 0 0 0 0 0 0 0 0 0 0 0 0 0 0 0 0 0 0 0 0 0 0 0 0 0 0 0 0 0 0 0 0 0 0 0 0 0 0 0 0 0 0 0 0 0 0 0 0 0 0 0 0 0 0 0 0 0 0 0 0 0 0 0 0 0 0 826 808 808 808 808 826 817 817 817 817 817 808 817 817 836 845 845 855 845 845 855 845 0 808 808 782 791 799 808 799 791 799 799 808 808 817 817 817 817 836 845 836 836 845 0 836 826 817 808 808 799 791 782 782 791 799 799 808 808 817 817 817 826 836 826 836 826 855 865 876 876 855 855 865 865 845 826 836 836 826 826 826 817 808 808 817 799 799 791 791 791 782 799 799 808 826 817 836 836 836 836 836 836 836 836 836 826 826 836 845 836 836 836 836 836 836 826 826 826 836 836 826 826 817 817 817 826 817 808 808 808 799 799 799 808 799 808 826 826 845 845 855 855 855 845 845 836 845 826 826 826 826 817 826 799 817 817 791 808 808 799 791 791 799 782 774 799 782 782 782 791 782 782 758 791 774 799 782 782 782 791 791 817 817 817 808 817 826 826 826 817 799 774 774 758 743 758 758 758 774 750 766 766 782 799 782 791 791 791 808 791 799 766 728 721 707 714 714 714 669 0 0 553 574 553 566 574 570 570 574 579 588 584 603 608 721 735 758 714 728 714 728 721 735 0 0 0 0 0 0
    0 0 0 0 0 0 0 0 0 0 0 0 0 0 0 0 0 0 0 0 0 0 0 0 0 0 0 0 0 0 0 0 0 0 0 0 0 0 0 0 0 0 0 0 0 0 0 0 0 0 0 0 0 0 0 0 0 0 0 0 0 0 0 0 0 0 0 0 0 817 808 799 799 799 799 808 799 808 808 808 808 799 817 817 826 836 836 836 0 0 836 817 0 799 0 774 782 791 799 791 782 791 799 799 799 808 808 808 808 826 836 826 826 836 826 826 817 817 799 799 791 791 782 782 791 799 799 808 799 808 808 817 826 826 817 826 817 845 855 855 865 855 865 865 855 845 817 826 826 826 826 817 817 808 808 817 799 799 791 782 782 766 782 791 799 817 808 826 836 817 826 826 826 826 826 826 817 817 826 836 826 826 826 826 826 826 826 817 817 826 826 817 808 808 808 799 808 799 799 791 799 791 791 791 799 799 799 808 817 836 836 845 845 845 836 826 826 836 817 826 826 826 826 836 808 817 817 791 808 799 791 791 791 791 782 774 791 774 774 782 782 774 782 750 782 782 791 774 782 774 774 774 791 791 782 782 791 799 799 791 782 774 758 758 743 735 750 743 750 766 743 758 758 774 782 774 782 791 782 808 799 808 782 750 750 728 728 728 721 675 0 0 557 574 553 570 574 566 570 574 579 584 579 603 608 728 728 750 721 728 721 728 728 735 743 0 0 0 0 0
    0 0 0 0 0 0 0 0 0 0 0 0 0 0 0 0 0 0 0 0 0 0 0 0 0 0 0 0 0 0 0 0 0 0 0 0 0 0 0 0 0 0 0 0 0 0 0 0 0 0 0 0 0 0 0 0 0 0 0 0 0 0 0 0 0 0 0 0 0 808 799 799 799 791 791 799 799 808 808 808 808 799 808 808 817 826 817 817 808 808 817 799 808 782 782 766 774 791 791 782 782 791 791 799 799 799 799 799 799 817 808 808 808 817 808 817 808 808 799 799 791 791 782 774 791 791 799 799 799 799 799 808 817 808 808 808 808 826 826 845 855 855 855 855 845 836 799 817 817 817 817 817 808 808 799 817 799 799 791 782 782 766 782 791 799 808 799 817 826 808 817 817 817 817 817 817 808 808 817 826 817 808 808 817 817 826 817 817 808 817 817 799 791 791 791 791 791 791 782 782 799 791 791 791 799 791 782 799 799 808 826 826 817 826 808 808 808 817 808 808 808 817 817 836 817 826 826 791 799 799 791 782 782 782 774 766 782 766 774 774 782 774 774 750 782 774 782 766 774 758 758 758 774 758 750 758 758 774 750 750 728 735 743 743 735 735 750 743 750 758 743 758 758 774 782 766 774 782 774 799 799 799 774 766 766 750 735 735 721 681 623 579 566 579 553 574 579 570 574 574 584 584 584 608 608 735 735 758 735 735 735 735 735 750 750 0 0 0 0 0
    0 0 0 0 0 0 0 0 0 0 0 0 0 0 0 0 0 0 0 0 0 0 0 0 0 0 0 0 0 0 0 0 0 0 0 0 0 0 0 0 0 0 0 0 0 0 0 0 0 0 0 0 0 0 0 0 0 0 0 0 0 0 0 0 0 0 0 0 0 799 799 799 799 791 791 799 799 808 808 808 808 799 808 808 808 817 808 799 791 791 799 782 799 782 782 0 782 791 782 782 782 791 791 791 791 791 791 791 799 808 782 791 799 799 799 817 808 808 799 799 791 782 782 774 791 791 791 799 791 799 799 808 808 799 799 808 799 817 826 836 855 855 845 845 826 826 782 808 808 808 808 799 799 799 791 808 791 799 791 782 782 774 791 791 799 799 791 808 817 791 808 808 808 808 808 808 799 799 808 808 799 799 808 808 817 817 817 817 808 817 808 782 782 782 782 774 774 774 774 782 799 791 782 782 791 791 782 791 799 799 808 808 799 808 791 791 791 799 791 799 799 817 808 826 826 826 826 799 808 799 791 774 782 782 774 758 782 766 774 774 782 774 766 750 782 758 750 743 750 743 735 743 743 735 735 743 750 758 743 743 735 735 758 750 735 735 750 750 750 758 743 758 758 766 774 766 766 774 774 791 791 782 758 750 743 735 721 721 714 681 629 588 579 579 557 579 579 570 574 579 584 588 588 608 608 735 743 758 735 743 735 735 735 750 758 0 0 0 0 0
    0 0 0 0 0 0 0 0 0 0 0 0 0 0 0 0 0 0 0 0 0 0 0 0 0 0 0 0 0 0 0 0 0 0 0 0 0 0 0 0 0 0 0 0 0 0 0 0 0 0 0 0 0 0 0 0 0 0 0 0 0 0 0 0 0 0 0 0 0 799 791 791 791 791 782 791 799 808 817 817 808 799 808 808 808 817 799 791 782 791 791 782 799 782 791 782 791 791 782 782 774 791 791 791 791 791 791 791 791 799 774 782 791 782 799 817 808 817 799 799 791 782 782 774 791 791 791 799 791 791 799 808 808 799 799 799 799 817 817 817 845 845 836 836 817 817 766 791 791 791 791 791 791 791 782 799 791 799 791 782 782 774 791 791 791 791 791 808 808 782 799 799 808 799 799 799 791 791 808 799 782 791 799 808 808 817 817 817 808 817 808 782 774 782 782 774 766 766 774 774 791 782 782 774 782 791 782 791 799 791 808 799 782 808 774 791 791 791 791 791 791 808 799 826 836 836 826 808 808 799 791 766 782 782 774 758 774 766 774 766 782 774 766 758 782 743 743 735 743 735 728 735 728 721 728 735 735 750 735 735 735 743 774 758 750 743 750 743 743 750 735 750 750 758 766 758 758 766 758 782 766 766 743 735 728 728 707 707 700 669 623 584 584 574 557 579 579 570 579 579 584 584 588 608 603 0 735 750 735 735 735 735 735 750 750 0 0 0 0 0
    0 0 0 0 0 0 0 0 0 0 0 0 0 0 0 0 0 0 0 0 0 0 0 0 0 0 0 0 0 0 0 0 0 0 0 0 0 0 0 0 0 0 0 0 0 0 0 0 0 0 0 0 0 0 0 0 0 0 0 0 0 0 0 0 0 0 0 0 0 782 774 782 782 782 774 782 799 808 817 817 817 799 808 817 808 817 808 791 782 791 799 791 799 791 791 774 782 782 774 782 774 791 791 791 791 791 791 799 791 799 774 774 791 782 799 817 817 826 817 808 0 791 782 774 791 791 791 799 791 791 799 808 808 791 799 799 799 808 817 808 836 836 836 836 817 817 758 791 791 782 782 782 782 782 782 799 791 799 799 791 791 782 799 799 808 799 791 808 799 774 791 799 799 799 799 791 782 791 808 799 774 782 791 799 808 808 808 808 808 808 799 774 774 774 782 774 766 766 774 774 791 782 774 774 782 791 782 791 799 791 799 791 774 799 758 782 782 782 782 791 791 799 799 817 836 836 826 817 817 808 791 758 782 782 774 758 774 766 774 766 782 758 758 750 774 735 728 728 735 728 728 728 721 714 721 728 728 735 728 728 728 743 782 766 766 743 743 743 735 743 728 735 743 750 750 750 750 758 750 774 750 750 728 728 728 728 694 694 687 657 618 574 588 570 561 579 579 570 579 579 584 584 588 603 598 603 721 728 721 728 728 728 728 735 743 0 0 0 0 0
    0 0 0 0 0 0 0 0 0 0 0 0 0 0 0 0 0 0 0 0 0 0 0 0 0 0 0 0 0 0 0 0 0 0 0 0 0 0 0 0 0 0 0 0 0 0 0 0 0 0 0 0 0 0 0 0 0 0 0 0 0 0 0 0 0 0 0 0 0 0 758 774 774 766 766 774 791 799 817 817 808 799 808 817 808 808 808 782 774 774 791 791 799 791 782 774 774 782 766 774 774 791 791 799 791 799 791 799 799 799 766 766 782 791 799 826 826 836 826 0 0 791 774 774 791 791 791 799 791 791 799 799 808 791 791 791 791 799 808 799 817 826 826 826 808 808 750 782 782 782 782 782 782 782 782 799 791 799 799 791 799 791 808 817 817 808 799 817 799 774 791 791 791 791 791 791 782 791 799 799 774 782 791 782 799 791 799 799 799 808 799 774 774 774 782 774 766 766 774 774 791 782 782 782 782 791 782 799 808 791 799 782 774 791 758 782 782 782 791 791 791 799 799 817 826 826 817 817 817 808 782 743 774 774 774 750 766 766 766 766 782 750 750 743 766 721 721 721 721 714 721 721 714 707 721 721 721 721 721 721 721 728 774 750 766 750 735 735 728 735 721 728 735 743 735 735 735 750 743 758 743 735 728 728 728 728 694 694 681 657 618 584 593 566 566 579 579 570 579 584 584 579 593 603 598 603 714 714 714 714 714 721 721 721 728 0 0 0 0 0
    0 0 0 0 0 0 0 0 0 0 0 0 0 0 0 0 0 0 0 0 0 0 0 0 0 0 0 0 0 0 0 0 0 0 0 0 0 0 0 0 0 0 0 0 0 0 0 0 0 0 0 0 0 0 0 0 0 0 0 0 0 0 0 0 0 0 0 0 0 766 750 766 766 758 750 766 774 782 799 808 799 791 791 799 799 808 799 774 774 774 782 791 799 791 774 766 766 774 758 766 766 791 791 791 791 791 782 791 791 791 750 758 774 782 799 826 826 826 817 808 791 766 766 766 782 782 782 791 782 791 799 799 799 782 782 782 782 791 799 791 808 0 817 817 799 782 743 774 774 774 782 774 774 782 782 799 791 808 799 799 799 791 808 808 817 808 799 817 799 766 791 791 791 791 791 791 782 782 799 791 766 774 782 774 791 791 791 799 799 799 799 774 774 774 774 774 766 766 774 774 791 782 782 782 791 799 791 799 808 799 808 799 782 799 766 782 782 791 791 791 791 799 791 817 817 808 799 791 782 782 743 728 766 766 758 743 766 766 766 766 774 743 743 743 750 714 714 707 707 700 707 707 707 700 714 714 714 714 714 714 721 721 750 728 758 750 743 743 735 735 721 728 735 735 735 728 735 743 735 750 735 735 728 728 735 728 694 700 687 669 623 613 608 566 574 584 579 574 579 584 584 579 593 603 593 603 707 714 714 714 714 714 714 714 721 0 0 0 0 0
    0 0 0 0 0 0 0 0 0 0 0 0 0 0 0 0 0 0 0 0 0 0 0 0 0 0 0 0 0 0 0 0 0 0 0 0 0 0 0 0 0 0 0 0 0 0 0 0 0 0 0 0 0 0 0 0 0 0 0 0 0 0 0 0 0 0 0 0 0 750 750 766 758 758 750 758 758 774 791 799 791 774 782 791 791 799 791 766 766 766 774 782 791 782 758 766 758 758 750 758 758 782 782 791 782 791 782 791 782 782 735 750 766 774 782 817 808 799 799 799 766 750 750 750 774 766 774 782 774 791 799 799 791 774 782 774 774 782 791 782 799 808 799 808 791 758 743 766 766 766 774 774 766 774 782 799 791 808 799 791 791 791 799 799 808 791 774 791 782 758 774 782 782 774 782 782 774 774 791 782 758 766 774 774 791 791 791 799 799 799 791 766 774 774 774 758 750 758 766 766 782 774 782 782 782 799 791 808 817 808 808 808 791 799 766 791 782 782 791 791 791 799 791 808 808 799 782 774 758 758 728 728 758 758 758 743 766 758 758 758 766 743 743 735 743 714 714 707 700 694 700 700 700 700 714 707 707 707 714 714 714 714 735 714 728 735 728 735 735 728 721 728 735 728 728 728 728 743 735 743 735 728 728 728 728 721 694 700 687 675 629 623 613 570 579 584 579 574 579 584 584 579 598 598 588 603 707 707 714 714 714 714 714 714 721 0 0 0 0 0
    0 0 0 0 0 0 0 0 0 0 0 0 0 0 0 0 0 0 0 0 0 0 0 0 0 0 0 0 0 0 0 0 0 0 0 0 0 0 0 0 0 0 0 0 0 0 0 0 0 0 0 0 0 0 0 0 0 0 0 0 0 0 0 0 0 0 0 0 0 743 743 758 750 758 743 750 750 758 782 782 766 758 766 782 782 782 774 758 758 766 774 782 774 774 750 750 743 735 735 743 750 774 766 782 774 782 774 782 782 774 728 743 758 758 766 791 774 0 766 774 743 735 743 743 766 758 766 774 766 791 791 791 791 758 774 766 766 774 782 766 782 791 782 782 758 735 743 758 758 758 766 766 766 774 791 791 782 799 799 782 782 774 782 774 782 766 758 774 758 750 766 766 774 766 774 766 766 766 782 774 750 758 774 766 782 782 791 791 791 791 782 758 766 766 774 750 743 750 758 758 774 766 766 766 782 808 799 817 826 826 826 826 799 808 774 791 791 782 791 791 782 791 791 808 808 782 758 750 735 743 721 721 758 758 750 743 766 766 758 758 758 735 735 735 743 714 714 707 707 700 707 707 700 700 707 707 707 707 707 707 714 714 721 707 714 714 714 714 721 714 707 707 721 721 721 721 721 735 728 735 728 721 728 721 714 707 687 694 681 669 634 623 613 574 584 588 584 579 584 584 584 579 598 593 584 603 700 714 707 707 707 707 700 707 714 0 0 0 0 0
    0 0 0 0 0 0 0 0 0 0 0 0 0 0 0 0 0 0 0 0 0 0 0 0 0 0 0 0 0 0 0 0 0 0 0 0 0 0 0 0 0 0 0 0 0 0 0 0 0 0 0 0 0 0 0 0 0 0 0 0 0 0 0 0 0 0 0 0 0 735 735 743 743 743 735 743 743 743 766 766 750 743 750 766 774 774 774 750 758 758 774 774 766 758 743 743 735 728 728 728 735 766 750 766 766 766 766 766 758 750 721 728 735 735 743 758 743 0 750 758 728 735 735 743 758 750 758 766 758 782 782 782 782 743 758 750 750 758 766 758 758 758 758 750 735 721 735 743 743 743 750 750 758 758 782 782 766 782 782 766 758 766 758 750 758 750 750 750 743 750 750 750 758 758 766 758 750 758 758 766 758 750 766 758 766 766 774 774 774 782 766 750 758 758 766 743 735 743 750 750 758 750 758 750 774 808 799 817 845 845 836 826 808 808 774 791 791 782 782 782 782 791 782 799 774 750 728 728 721 728 714 721 750 743 743 735 766 758 758 758 750 735 728 735 735 707 707 707 707 707 707 714 700 700 714 707 707 707 707 707 707 707 714 700 700 707 700 700 707 700 700 694 714 714 714 721 721 728 721 721 721 714 714 714 700 700 687 687 675 663 634 629 613 579 593 593 584 579 584 588 588 584 603 588 579 603 0 707 700 700 694 694 687 694 707 0 0 0 0 0
    0 0 0 0 0 0 0 0 0 0 0 0 0 0 0 0 0 0 0 0 0 0 0 0 0 0 0 0 0 0 0 0 0 0 0 0 0 0 0 0 0 0 0 0 0 0 0 0 0 0 0 0 0 0 0 0 0 0 0 0 0 0 0 0 0 0 0 0 0 728 735 743 735 735 735 735 735 735 750 743 743 743 743 758 766 758 758 743 743 743 750 758 743 743 735 728 728 721 721 721 721 743 735 743 750 750 743 743 735 728 714 721 728 721 728 735 728 735 750 750 728 735 735 735 750 750 758 750 750 782 774 774 774 728 735 728 743 743 750 743 743 743 735 735 735 714 728 735 735 743 743 750 750 750 782 766 758 766 766 758 743 750 743 735 750 743 750 743 735 743 743 743 750 743 750 743 743 750 743 758 758 750 750 743 750 750 750 758 750 750 743 735 743 743 758 735 728 728 735 735 743 735 743 735 766 799 791 817 845 855 845 826 817 808 774 799 791 782 782 782 774 774 766 774 743 728 714 714 714 714 707 714 735 735 728 735 758 758 750 750 743 728 728 728 728 707 700 700 700 700 707 707 694 700 707 707 707 707 707 707 707 707 707 694 700 700 694 694 700 687 694 681 700 707 714 714 714 728 714 721 721 714 714 707 694 694 681 681 669 657 634 629 613 584 593 588 584 579 584 588 584 584 603 579 579 0 0 0 0 0 687 687 675 681 694 0 0 0 0 0
    0 0 0 0 0 0 0 0 0 0 0 0 0 0 0 0 0 0 0 0 0 0 0 0 0 0 0 0 0 0 0 0 0 0 0 0 0 0 0 0 0 0 0 0 0 0 0 0 0 0 0 0 0 0 0 0 0 0 0 0 0 0 0 0 0 0 0 0 0 721 735 735 735 728 728 728 735 735 743 735 735 735 743 743 758 743 743 735 728 721 728 735 728 728 728 721 721 721 721 714 714 721 721 721 735 728 728 728 728 721 714 714 721 714 721 728 721 735 750 743 728 735 735 735 743 750 750 743 743 782 766 758 758 721 721 721 735 735 743 735 735 735 728 728 735 714 728 735 735 735 743 743 743 750 782 766 750 750 758 750 735 743 743 735 743 735 743 735 735 743 735 728 743 735 743 728 728 735 728 743 758 743 743 735 735 735 728 735 728 728 721 721 728 728 735 721 714 721 721 721 728 728 728 721 750 782 774 808 826 836 826 808 808 808 766 791 782 782 782 774 766 750 750 750 721 714 707 707 707 707 707 714 728 728 721 728 750 750 750 743 728 721 721 728 721 700 694 694 694 700 694 694 687 694 700 700 694 700 700 700 700 700 700 694 694 694 694 694 694 681 687 681 687 700 707 714 714 728 721 721 721 707 707 700 694 694 681 681 669 657 639 629 613 584 588 588 579 579 579 584 579 584 598 570 574 0 669 0 0 0 687 687 675 681 0 0 0 0 0 0
    0 0 0 0 0 0 0 0 0 0 0 0 0 0 0 0 0 0 0 0 0 0 0 0 0 0 0 0 0 0 0 0 0 0 0 0 0 0 0 0 0 0 0 0 0 0 0 0 0 0 0 0 0 0 0 0 0 0 0 0 0 0 0 0 0 0 0 0 0 721 735 735 728 728 728 728 728 735 743 735 735 735 743 743 750 728 728 721 714 714 714 721 721 721 721 714 714 721 721 714 707 714 707 707 728 714 721 721 721 721 714 721 728 714 721 721 721 728 743 743 721 728 728 728 743 743 743 735 735 774 743 735 743 707 707 714 728 728 735 735 735 728 728 728 735 714 728 728 728 735 743 743 743 743 782 758 750 743 743 743 728 735 728 728 728 728 735 728 728 735 728 721 728 728 728 721 721 728 721 728 743 735 728 728 728 728 721 721 714 714 707 714 714 721 721 714 707 714 714 714 714 721 721 714 735 774 758 799 817 826 799 791 791 791 758 782 774 774 774 766 750 735 735 735 714 707 700 700 700 700 700 707 714 721 714 721 743 743 743 735 721 714 714 721 707 694 687 687 687 694 687 687 681 687 694 687 681 687 694 687 694 694 694 687 687 687 687 687 687 675 681 675 675 694 700 707 707 721 714 714 721 707 700 694 687 687 675 675 669 651 634 623 603 588 588 588 579 579 579 584 579 584 593 561 570 0 657 0 0 0 681 681 675 681 0 0 0 0 0 0
    0 0 0 0 0 0 0 0 0 0 0 0 0 0 0 0 0 0 0 0 0 0 0 0 0 0 0 0 0 0 0 0 0 0 0 0 0 0 0 0 0 0 0 0 0 0 0 0 0 0 0 0 0 0 0 0 0 0 0 0 0 0 0 0 0 0 0 0 0 728 735 735 735 728 728 728 735 735 743 735 735 735 743 735 750 728 721 728 714 714 721 721 721 721 721 714 721 721 721 714 707 714 707 707 721 714 714 714 714 721 721 721 728 721 721 714 714 721 735 735 714 728 728 728 735 735 735 728 721 758 721 721 721 700 700 700 714 714 721 728 728 721 721 728 735 714 728 728 728 728 735 743 743 735 782 743 735 728 728 728 721 721 721 721 721 721 728 721 721 728 721 714 721 721 728 714 721 721 714 721 743 728 721 714 721 721 714 714 707 707 707 707 714 714 721 707 707 707 707 707 707 714 721 714 735 774 750 782 791 799 758 750 758 766 750 766 758 766 758 750 735 721 721 721 707 707 700 700 700 700 700 700 707 714 714 721 735 735 735 735 714 714 714 714 700 687 687 687 681 694 681 681 675 681 687 681 669 675 687 681 687 687 687 681 687 681 681 681 681 669 669 669 669 681 700 707 707 714 714 714 714 700 700 687 675 687 675 675 663 645 639 623 598 588 588 584 579 579 579 584 579 588 593 561 570 0 618 0 0 0 675 681 669 681 0 0 0 0 0 0
    0 0 0 0 0 0 0 0 0 0 0 0 0 0 0 0 0 0 0 0 0 0 0 0 0 0 0 0 0 0 0 0 0 0 0 0 0 0 0 0 0 0 0 0 0 0 0 0 0 0 0 0 0 0 0 0 0 0 0 0 0 0 0 0 0 0 0 0 0 728 743 735 735 728 735 728 735 735 743 735 735 735 743 735 750 728 721 728 721 721 728 721 721 721 721 714 721 721 721 714 714 714 714 714 728 714 714 714 714 728 721 728 728 721 721 714 714 721 728 735 714 728 728 728 728 735 728 721 721 750 707 707 707 694 687 687 700 700 714 721 728 721 721 728 743 714 735 728 728 728 735 735 735 728 774 728 728 721 721 721 714 714 714 714 714 714 721 714 714 721 714 707 714 714 721 714 714 714 707 721 735 721 714 714 714 714 707 714 707 707 707 707 714 714 721 707 700 707 707 707 707 714 721 714 735 758 735 758 750 743 707 714 721 735 728 743 735 743 735 728 721 707 714 707 700 700 694 700 694 700 700 694 700 707 707 721 728 735 735 728 707 707 707 707 694 681 681 681 681 694 681 681 675 681 681 669 657 669 681 681 687 681 681 681 681 681 675 675 675 663 663 663 669 681 700 707 700 714 707 707 714 687 687 675 663 681 669 663 651 639 634 623 593 593 588 584 579 579 579 579 579 593 588 557 570 0 0 0 0 0 675 687 675 681 0 0 0 0 0 0
    0 0 0 0 0 0 0 0 0 0 0 0 0 0 0 0 0 0 0 0 0 0 0 0 0 0 0 0 0 0 0 0 0 0 0 0 0 0 0 0 0 0 0 0 0 0 0 0 0 0 0 0 0 0 0 0 0 0 0 0 0 0 0 0 0 0 0 0 0 728 743 743 735 728 735 728 735 735 743 735 735 735 743 735 750 728 721 728 721 714 728 728 721 721 721 714 721 721 721 714 714 714 714 714 728 714 721 721 721 728 728 728 735 721 728 714 714 714 728 728 707 728 728 728 728 735 728 721 721 750 707 707 700 694 681 675 681 675 694 714 728 728 721 721 735 714 735 728 728 728 735 735 735 728 774 735 728 721 721 721 714 714 714 714 714 714 721 714 714 721 714 707 714 714 714 707 714 714 714 721 735 728 721 714 714 714 714 714 714 707 707 714 721 721 728 714 707 707 707 707 707 714 721 714 728 735 721 728 728 714 700 700 707 714 721 721 721 721 721 714 707 700 700 700 694 694 700 700 700 700 700 694 700 700 707 714 721 728 728 721 694 700 700 700 687 675 681 681 681 694 681 681 675 675 681 663 657 663 681 681 687 681 681 681 681 675 675 669 675 657 663 663 669 675 694 694 687 694 694 700 700 663 669 657 651 669 657 651 634 629 629 618 588 593 588 584 579 579 579 584 579 598 588 561 579 0 0 0 0 0 0 0 669 0 0 0 0 0 0 0
    0 0 0 0 0 0 0 0 0 0 0 0 0 0 0 0 0 0 0 0 0 0 0 0 0 0 0 0 0 0 0 0 0 0 0 0 0 0 0 0 0 0 0 0 0 0 0 0 0 0 0 0 0 0 0 0 0 0 0 0 0 0 0 0 0 0 0 0 0 728 743 743 735 728 728 728 735 735 743 735 735 735 750 743 758 735 728 728 721 714 728 721 721 721 721 714 721 721 721 714 707 714 714 714 728 714 714 721 714 728 728 728 735 721 721 714 714 714 721 721 707 721 728 721 728 735 728 721 721 750 707 707 707 694 681 669 675 657 669 694 721 721 721 721 735 714 728 728 728 728 735 735 735 735 774 735 735 721 721 721 714 714 714 714 714 714 721 714 714 721 714 707 714 714 714 714 714 714 714 721 743 735 721 721 721 721 714 721 714 714 714 714 721 728 728 714 707 714 714 707 714 721 721 714 728 728 714 721 714 707 694 694 700 707 714 714 714 714 714 707 700 694 700 700 700 700 700 700 700 700 700 694 694 700 700 707 714 721 721 714 675 694 694 694 675 669 675 675 675 694 675 675 675 675 681 657 657 663 681 681 687 681 681 675 675 669 669 669 669 657 663 663 669 675 687 687 669 675 681 687 681 651 657 645 651 663 657 645 629 623 623 613 584 593 593 588 584 584 584 588 584 603 584 570 588 0 0 0 0 0 0 0 0 651 651 0 0 0 0 0
    0 0 0 0 0 0 0 0 0 0 0 0 0 0 0 0 0 0 0 0 0 0 0 0 0 0 0 0 0 0 0 0 0 0 0 0 0 0 0 0 0 0 0 0 0 0 0 0 0 0 0 0 0 0 0 0 0 0 0 0 0 0 0 0 0 0 0 0 0 728 735 735 728 721 728 721 728 728 743 728 735 735 743 735 750 728 721 728 714 707 714 714 714 714 721 714 714 721 721 714 707 707 707 707 728 707 707 714 714 728 721 721 728 721 714 707 707 714 714 714 707 721 721 721 728 728 728 721 721 743 707 707 700 694 675 669 669 645 651 663 694 707 707 714 728 714 728 728 728 728 728 735 735 728 766 728 735 721 721 721 714 714 714 714 714 714 721 714 714 721 714 707 714 714 721 714 721 721 714 728 743 735 728 721 721 721 721 728 721 714 714 721 728 735 728 714 707 714 714 714 714 721 721 714 735 728 721 721 721 714 700 700 707 714 714 714 714 714 714 707 700 700 700 707 700 700 700 707 707 707 700 694 694 694 694 700 700 707 707 707 663 687 687 687 669 669 675 675 675 687 669 675 669 675 675 651 645 657 675 675 681 675 675 669 669 663 663 663 663 651 657 663 669 675 681 681 663 663 675 681 681 651 663 645 651 669 657 645 623 623 618 608 584 593 593 588 584 588 588 588 588 603 584 579 598 0 0 0 0 0 0 0 663 657 657 0 0 0 0 0
    0 0 0 0 0 0 0 0 0 0 0 0 0 0 0 0 0 0 0 0 0 0 0 0 0 0 0 0 0 0 0 0 0 0 0 0 0 0 0 0 0 0 0 0 0 0 0 0 0 0 0 0 0 0 0 0 0 0 0 0 0 0 0 0 0 0 0 0 0 728 735 728 721 721 721 721 721 728 735 728 728 735 743 735 750 721 714 714 700 687 694 700 700 694 707 707 707 714 714 714 700 707 707 707 721 707 707 707 714 728 721 721 728 714 714 707 700 707 700 707 700 714 714 721 721 728 721 714 714 728 700 694 694 687 675 669 657 639 645 651 675 687 687 700 721 707 721 721 728 728 728 735 728 728 758 728 728 714 714 721 714 714 714 714 714 714 721 707 714 721 714 707 714 721 721 721 721 721 721 728 743 743 728 721 721 728 721 728 728 721 721 721 728 735 721 707 707 707 707 707 707 714 714 714 728 721 721 721 714 707 700 694 700 707 714 714 714 707 714 707 700 700 700 707 0 700 707 707 707 714 707 700 694 687 694 700 700 700 700 707 669 694 694 687 669 669 675 675 675 681 669 669 669 675 675 639 645 645 669 663 663 663 663 657 663 657 663 663 657 651 657 663 663 675 681 675 657 651 663 675 669 645 657 645 651 663 657 639 623 618 613 598 584 593 588 584 584 588 584 584 593 603 588 588 603 0 0 0 0 0 0 0 634 634 639 0 0 0 0 0
    0 0 0 0 0 0 0 0 0 0 0 0 0 0 0 0 0 0 0 0 0 0 0 0 0 0 0 0 0 0 0 0 0 0 0 0 0 0 0 0 0 0 0 0 0 0 0 0 0 0 0 0 0 0 0 0 0 0 0 0 0 0 0 0 0 0 0 0 0 721 728 721 721 714 714 714 721 721 728 721 721 728 735 728 735 721 707 707 687 675 681 681 681 675 687 687 700 707 714 707 0 700 707 707 714 707 707 707 714 728 721 721 721 714 707 694 694 694 694 694 694 707 707 714 714 721 714 714 714 721 700 687 687 687 675 669 663 645 651 651 669 675 675 681 700 694 714 714 721 728 721 728 721 721 750 728 721 707 707 714 707 714 714 714 714 714 714 707 714 714 714 707 714 721 721 714 721 721 714 728 735 735 721 714 721 721 721 728 728 721 721 728 735 735 721 707 707 707 707 707 707 707 707 707 714 707 707 700 700 694 687 687 694 700 700 707 707 700 700 700 694 700 700 707 700 700 707 707 707 714 707 700 694 687 694 700 700 700 707 707 675 694 694 694 675 675 681 675 681 681 669 669 669 675 675 634 645 639 663 657 651 651 651 645 651 645 657 657 657 651 657 657 663 669 675 669 645 639 639 645 634 634 645 639 639 657 651 634 618 618 613 593 584 593 588 584 584 584 584 584 593 603 588 593 608 0 0 0 0 0 0 593 608 0 623 0 0 0 0 0
    0 0 0 0 0 0 0 0 0 0 0 0 0 0 0 0 0 0 0 0 0 0 0 0 0 0 0 0 0 0 0 0 0 0 0 0 0 0 0 0 0 0 0 0 0 0 0 0 0 0 0 0 0 0 0 0 0 0 0 0 0 0 0 0 0 0 0 0 0 714 721 714 707 700 707 700 707 707 714 707 707 714 721 714 721 707 694 687 675 663 669 669 669 663 669 669 681 687 700 0 0 681 700 700 0 694 700 700 707 714 707 707 700 700 694 681 681 681 681 681 687 694 694 700 707 714 714 707 714 714 700 681 681 681 669 669 663 651 651 651 669 669 669 669 681 675 694 700 707 714 714 714 707 707 735 714 714 700 700 707 707 707 714 714 707 707 707 700 707 707 707 700 707 714 714 714 714 714 714 714 721 714 707 707 707 721 721 728 728 728 728 728 735 735 721 707 707 700 707 700 700 700 700 700 700 694 694 687 687 681 681 681 687 687 694 700 700 694 694 700 687 700 700 700 700 700 707 707 707 714 700 700 687 687 694 694 694 700 700 700 681 694 694 694 675 675 681 681 681 681 669 669 669 675 675 634 645 639 657 645 639 639 634 634 645 639 645 645 645 645 651 651 657 663 669 663 639 634 634 634 629 629 634 629 629 645 634 629 613 613 608 584 584 593 588 584 588 588 584 584 598 598 593 598 613 0 0 0 0 584 0 588 598 608 618 0 0 0 0 0
    0 0 0 0 0 0 0 0 0 0 0 0 0 0 0 0 0 0 0 0 0 0 0 0 0 0 0 0 0 0 0 0 0 0 0 0 0 0 0 0 0 0 0 0 0 0 0 0 0 0 0 0 0 0 0 0 0 0 0 0 0 0 0 0 0 0 0 0 0 707 714 714 0 694 694 687 694 694 700 694 694 700 707 700 707 700 687 675 669 651 663 657 657 651 657 657 669 669 687 675 0 0 681 681 687 681 687 687 681 694 687 687 687 687 675 675 675 669 669 675 675 675 687 694 694 700 700 700 707 700 700 675 681 681 669 669 663 651 657 645 669 663 669 663 669 663 681 687 700 700 700 700 700 700 721 700 700 694 694 700 700 700 700 700 700 700 700 694 700 700 707 700 707 714 707 707 714 707 707 700 707 694 694 694 700 707 714 721 728 728 721 721 735 728 714 700 700 694 700 694 694 694 687 687 694 687 681 675 681 675 675 681 681 687 687 694 700 687 687 694 681 700 694 700 700 694 700 707 707 707 694 687 675 669 681 681 681 687 694 694 681 694 694 694 675 675 681 681 681 681 669 663 669 669 669 634 645 645 645 639 639 634 634 629 639 639 639 645 645 645 651 651 657 663 669 663 639 634 629 634 629 629 634 629 629 645 623 623 608 608 603 584 588 593 588 588 588 588 588 588 598 598 593 598 618 623 657 634 629 608 588 593 598 603 618 0 0 0 0 0
    0 0 0 0 0 0 0 0 0 0 0 0 0 0 0 0 0 0 0 0 0 0 0 0 0 0 0 0 0 0 0 0 0 0 0 0 0 0 0 0 0 0 0 0 0 0 0 0 0 0 0 0 0 0 0 0 0 0 0 0 0 0 0 0 0 0 0 0 0 694 0 700 694 681 681 675 681 681 687 681 687 687 694 694 700 694 681 663 663 639 657 651 651 651 645 651 657 657 675 645 639 623 634 634 639 634 639 651 645 663 669 663 669 669 663 663 669 663 663 669 669 669 681 681 681 687 694 694 700 700 694 669 675 675 663 669 663 651 657 645 669 663 663 663 657 651 675 681 687 694 687 694 694 694 707 700 700 694 687 694 694 694 694 694 687 687 694 687 694 694 700 700 707 714 707 707 707 707 700 694 694 675 681 687 687 700 707 714 721 721 721 721 728 721 714 700 694 687 694 694 687 681 681 681 681 675 669 669 669 669 669 681 675 687 687 694 694 675 681 687 675 694 694 694 694 694 700 707 700 700 681 675 657 651 663 669 663 669 687 681 681 694 700 694 681 681 687 681 681 681 669 663 663 669 663 634 639 639 639 634 639 629 634 623 639 645 645 651 645 645 651 645 657 657 657 651 634 634 629 634 629 623 629 629 623 639 618 618 603 608 603 579 593 593 593 588 593 593 588 588 603 598 593 603 613 613 629 629 634 618 608 598 603 603 623 0 0 0 0 0
    0 0 0 0 0 0 0 0 0 0 0 0 0 0 0 0 0 0 0 0 0 0 0 0 0 0 0 0 0 0 0 0 0 0 0 0 0 0 0 0 0 0 0 0 0 0 0 0 0 0 0 0 0 0 0 0 0 0 0 0 0 0 0 0 0 0 0 0 0 0 0 694 681 669 669 663 669 669 675 675 675 681 687 687 687 681 669 639 651 634 651 645 651 645 645 645 651 645 663 629 623 613 613 613 618 623 629 634 634 651 657 645 651 657 651 657 663 657 657 663 663 663 669 669 675 675 681 694 694 694 700 669 675 675 669 669 663 657 657 651 669 657 657 657 645 645 663 669 681 681 681 681 681 694 700 694 700 694 687 687 687 694 687 681 675 681 681 681 687 687 694 694 700 707 700 700 700 700 700 687 687 663 675 681 681 687 694 700 714 714 714 707 714 707 700 687 681 681 687 681 681 669 669 669 675 669 669 663 669 663 675 681 681 687 687 687 687 663 669 681 669 687 687 694 694 694 700 707 700 687 675 663 639 639 645 651 645 657 675 663 681 694 700 700 681 687 687 681 681 675 663 657 663 663 657 634 639 639 634 634 639 623 629 623 639 645 639 651 645 645 645 639 645 651 645 645 634 629 623 629 613 608 608 608 598 613 608 613 603 608 603 584 593 598 593 593 593 593 588 588 603 598 593 603 608 613 618 623 623 623 608 598 603 598 623 0 0 0 0 0
    0 0 0 0 0 0 0 0 0 0 0 0 0 0 0 0 0 0 0 0 0 0 0 0 0 0 0 0 0 0 0 0 0 0 0 0 0 0 0 0 0 0 0 0 0 0 0 0 0 0 0 0 0 0 0 0 0 0 0 0 0 0 0 0 0 0 0 0 0 0 0 681 675 663 657 657 663 657 663 657 663 663 675 669 675 669 651 634 645 629 645 639 645 645 639 645 645 634 0 623 618 608 603 608 608 618 629 629 623 639 645 639 651 651 651 657 663 657 657 663 663 657 663 663 669 669 675 687 687 694 694 663 675 669 663 669 663 657 657 651 669 657 663 657 639 639 657 657 669 669 669 675 669 681 694 687 694 687 681 681 681 687 681 675 663 675 675 675 681 681 687 687 700 707 694 694 694 694 694 681 681 657 669 675 675 675 681 687 700 700 700 700 700 694 687 681 675 669 675 675 675 657 657 663 663 663 663 657 669 657 675 681 681 681 681 675 675 663 669 675 669 681 681 687 694 687 694 700 694 669 663 651 634 634 639 645 639 645 669 651 681 700 700 700 687 694 694 681 681 675 663 651 657 657 657 634 639 639 634 634 645 623 634 629 645 645 639 645 645 645 639 639 645 645 639 639 629 629 623 629 608 603 598 603 593 598 603 613 603 603 598 584 593 593 588 588 593 588 588 588 603 593 593 603 608 608 608 618 608 613 593 579 579 574 608 0 0 0 0 0
    0 0 0 0 0 0 0 0 0 0 0 0 0 0 0 0 0 0 0 0 0 0 0 0 0 0 0 0 0 0 0 0 0 0 0 0 0 0 0 0 0 0 0 0 0 0 0 0 0 0 0 0 0 0 0 0 0 0 0 0 0 0 0 0 0 0 0 0 0 663 657 669 669 657 651 645 657 651 657 645 651 657 669 657 663 651 639 629 645 629 645 639 645 645 645 645 645 634 0 0 0 0 603 608 608 623 629 634 0 639 645 639 651 651 651 651 663 657 657 663 663 663 663 663 663 657 669 675 675 681 681 645 663 657 657 669 663 651 651 651 669 657 663 657 639 634 651 651 657 657 657 657 651 0 681 675 681 675 675 669 669 681 675 663 657 669 669 675 681 681 681 681 694 700 687 687 694 687 687 675 669 645 657 669 663 663 669 675 694 694 694 694 694 681 675 669 669 663 675 669 669 645 651 657 657 663 663 657 663 651 669 675 669 675 663 663 663 657 663 669 657 675 669 681 681 675 675 687 675 645 645 645 634 634 639 639 639 645 669 651 681 694 700 700 694 694 694 681 681 669 657 645 657 651 651 634 639 634 634 634 639 623 629 618 634 629 629 629 629 634 634 634 639 639 639 639 634 629 623 629 608 603 603 603 593 584 608 608 603 598 598 584 593 593 588 588 588 588 593 588 603 593 598 603 608 608 613 623 608 623 613 598 593 584 0 0 0 0 0 0
    0 0 0 0 0 0 0 0 0 0 0 0 0 0 0 0 0 0 0 0 0 0 0 0 0 0 0 0 0 0 0 0 0 0 0 0 0 0 0 0 0 0 0 0 0 0 0 0 0 0 0 0 0 0 0 0 0 0 0 0 0 0 0 0 0 0 0 0 0 657 651 669 669 657 651 645 663 651 651 639 645 651 669 657 663 645 634 629 639 629 645 639 645 645 639 639 639 634 0 0 0 0 603 603 608 623 0 634 0 639 0 0 0 651 651 0 663 657 657 663 663 663 657 657 657 651 663 669 657 669 657 0 657 657 657 663 663 651 651 651 669 657 663 0 639 634 645 645 651 645 645 0 0 0 0 0 675 663 663 657 657 669 669 657 657 669 669 669 681 681 681 681 687 694 675 681 681 681 675 657 651 634 651 669 657 645 651 663 681 681 681 681 681 675 669 663 657 645 663 651 657 639 645 651 651 657 657 651 651 645 663 669 651 663 645 645 645 645 651 651 645 663 651 657 663 657 657 675 657 634 639 639 634 639 645 645 639 645 669 651 675 687 694 687 687 687 687 675 675 663 651 639 651 651 651 634 639 634 634 634 639 618 623 613 618 608 608 608 608 608 618 618 623 629 629 634 629 629 623 618 608 598 593 598 579 566 603 603 603 598 603 588 593 593 593 588 588 588 593 588 598 593 598 608 613 608 608 618 608 618 608 598 593 588 0 0 0 0 0 0
    0 0 0 0 0 0 0 0 0 0 0 0 0 0 0 0 0 0 0 0 0 0 0 0 0 0 0 0 0 0 0 0 0 0 0 0 0 0 0 0 0 0 0 0 0 0 0 0 0 0 0 0 0 0 0 0 0 0 0 0 0 0 0 0 0 0 0 0 0 651 639 0 669 651 651 639 663 651 0 0 645 645 663 0 663 639 629 623 634 623 639 634 645 645 639 639 639 634 0 629 623 0 603 603 608 629 634 0 0 0 0 0 0 0 0 0 0 0 657 663 657 657 657 651 657 645 663 663 651 675 663 0 663 663 657 669 663 657 651 651 669 657 663 0 0 634 645 639 645 639 639 0 0 219 0 0 0 0 663 651 657 669 669 657 657 669 669 669 681 675 675 681 687 687 669 675 675 669 663 651 645 634 645 663 657 639 645 0 0 0 675 675 675 663 657 657 645 639 645 639 645 634 639 645 645 651 651 645 651 645 657 663 645 657 639 639 645 645 645 645 639 651 639 639 645 639 645 657 645 629 634 639 634 645 651 645 639 645 669 657 675 681 681 669 669 669 669 657 657 651 639 634 645 639 645 634 639 634 634 634 639 618 623 613 618 608 603 603 593 593 598 598 613 613 613 618 618 623 618 608 598 584 566 566 549 545 574 593 603 598 603 593 598 598 593 593 588 588 593 588 598 588 593 603 608 603 603 608 598 593 588 0 0 0 0 0 0 0 0 0
    0 0 0 0 0 0 0 0 0 0 0 0 0 0 0 0 0 0 0 0 0 0 0 0 0 0 0 0 0 0 0 0 0 0 0 0 0 0 0 0 0 0 0 0 0 0 0 0 0 0 0 0 0 0 0 0 0 0 0 0 0 0 0 0 0 0 0 0 0 0 0 0 0 0 0 0 0 0 0 0 0 0 0 0 0 0 0 0 0 0 0 0 0 0 0 0 0 0 0 623 0 0 0 0 0 629 0 0 0 0 0 142 143 0 127 126 0 0 0 663 657 657 657 651 657 645 663 663 663 0 681 639 663 663 657 669 669 657 657 0 675 663 0 0 0 0 651 651 651 645 0 0 0 219 0 0 0 663 669 657 657 669 669 657 657 669 663 669 675 675 675 681 687 694 669 675 681 675 669 657 645 639 645 669 657 639 0 0 0 0 0 669 669 663 657 657 639 634 639 634 639 629 634 639 645 651 651 651 651 645 663 669 651 651 639 634 639 639 639 639 634 639 629 629 629 623 629 639 634 623 634 634 634 645 645 645 639 645 669 657 669 675 663 657 657 651 651 645 639 639 629 623 639 634 639 634 634 634 629 634 639 618 629 618 618 613 608 608 598 593 593 593 613 613 613 623 623 639 623 613 598 561 541 537 533 533 537 566 593 588 598 598 598 598 593 593 593 593 598 593 593 588 593 603 603 598 603 608 603 0 0 0 0 0 0 0 0 0 0 0
    0 0 0 0 0 0 0 0 0 0 0 0 0 0 0 0 0 0 0 0 0 0 0 0 0 0 0 0 0 0 0 0 0 0 0 0 0 0 0 0 0 0 0 0 0 0 0 0 0 0 0 0 0 0 0 0 0 0 0 0 0 0 0 0 0 0 0 0 0 0 0 0 0 0 0 0 0 0 0 0 0 0 0 0 0 0 0 0 0 0 0 0 125 0 125 0 0 0 0 0 0 187 0 0 0 0 0 174 0 143 142 142 142 0 0 0 0 129 0 0 0 0 0 0 657 651 663 0 0 0 0 0 675 669 663 675 675 663 657 663 675 0 0 102 102 0 0 0 0 0 0 0 0 220 0 0 0 0 669 651 651 657 663 657 657 663 663 663 675 675 675 675 687 694 669 681 687 681 675 657 651 639 645 669 663 0 0 0 0 0 0 681 681 669 663 657 639 639 639 0 639 629 634 645 645 651 651 651 657 645 669 675 651 663 639 634 639 639 639 639 634 634 623 629 623 618 623 634 629 623 634 634 634 645 645 645 639 645 669 657 663 669 651 645 645 639 634 629 623 629 623 618 634 629 634 634 634 634 629 634 645 623 634 618 618 618 613 618 603 598 598 598 613 613 613 623 629 645 629 618 598 557 537 537 537 533 537 561 584 579 598 603 603 598 598 593 598 593 598 593 588 579 588 593 588 0 0 0 0 0 0 0 0 0 0 0 0 0 0 0
    0 0 0 0 0 0 0 0 0 0 0 0 0 0 0 0 0 0 0 0 0 0 0 0 0 0 0 0 0 0 0 0 0 0 0 0 0 0 0 0 0 0 0 0 0 0 0 0 0 0 0 0 0 0 0 0 0 0 0 0 0 0 0 0 0 0 0 0 0 0 0 0 0 0 0 0 408 415 413 422 0 0 0 0 0 0 0 0 0 0 0 124 124 125 125 125 126 125 125 124 0 183 0 0 0 0 0 174 0 0 142 142 142 0 0 0 0 129 0 129 129 130 0 0 0 0 663 0 0 0 0 0 0 675 669 687 0 0 0 0 675 0 0 103 102 0 0 0 0 0 221 221 222 221 0 0 143 140 139 0 651 657 663 657 663 669 669 663 675 681 681 681 681 687 663 675 687 0 675 663 663 651 651 0 0 0 0 0 0 0 0 0 700 687 681 675 0 0 0 0 0 623 634 645 645 657 657 663 663 645 669 675 0 0 0 0 639 639 645 639 634 634 623 623 623 613 618 634 629 623 634 634 634 645 651 645 639 651 669 657 663 669 651 645 645 639 634 629 623 623 618 618 634 629 629 629 634 634 629 634 645 618 634 623 618 623 613 618 603 598 603 603 613 613 613 618 623 657 629 0 588 549 537 0 537 533 537 561 584 574 598 603 603 598 598 593 593 593 603 593 579 570 584 593 574 0 0 0 432 430 430 427 425 420 411 0 0 0 0 0
    0 0 0 0 0 0 0 0 0 0 0 0 0 0 0 0 0 0 0 0 0 0 0 0 0 0 0 0 0 0 0 0 0 0 0 0 0 0 0 0 0 0 0 0 0 0 0 0 0 0 0 0 0 0 0 0 0 0 0 0 0 0 0 0 0 0 0 0 0 0 0 0 0 0 0 0 425 427 427 427 430 435 440 435 0 0 0 0 0 0 0 0 0 0 125 125 126 0 0 0 0 0 0 0 281 0 0 0 0 0 0 142 142 0 0 0 0 0 0 130 129 131 130 130 130 0 0 0 0 0 0 0 0 0 0 0 0 0 0 0 0 0 0 103 102 0 0 0 221 220 0 0 0 219 0 0 144 140 139 0 0 0 0 0 0 0 101 101 0 0 0 0 675 669 639 639 681 0 669 0 0 0 0 0 0 0 0 0 0 0 0 0 0 0 0 0 0 0 402 0 0 0 0 0 645 0 0 0 669 651 0 0 0 0 0 0 0 651 651 639 639 639 623 623 618 608 618 623 623 623 634 634 639 651 651 645 651 657 669 657 669 669 651 651 663 639 634 629 618 613 613 618 629 623 629 629 634 634 639 645 657 629 639 634 618 618 608 618 603 588 593 598 598 608 603 613 618 0 623 570 549 537 537 0 537 537 545 566 584 570 598 608 603 603 598 598 593 593 608 593 0 0 0 0 0 443 432 435 430 427 427 425 422 418 411 0 0 0 0 0
    0 0 0 0 0 0 0 0 0 0 0 0 0 0 0 0 0 0 0 0 0 0 0 0 0 0 0 0 0 0 0 0 0 0 0 0 0 0 0 0 0 0 0 0 0 0 0 0 0 0 0 0 0 0 0 0 0 0 0 0 0 0 0 0 0 0 0 0 0 440 451 454 448 443 432 438 430 430 430 430 430 435 438 438 0 0 0 0 0 0 0 0 0 0 0 0 0 0 0 0 0 430 0 0 0 0 0 0 0 0 0 0 0 0 0 0 0 0 0 0 0 0 0 0 0 0 0 0 0 0 0 0 0 0 0 0 0 3345 0 0 0 0 0 103 0 0 0 0 0 0 0 0 0 0 0 0 145 142 0 0 0 0 438 432 0 0 0 103 0 0 106 106 107 0 0 0 0 0 0 0 0 0 0 0 0 0 150 149 149 149 0 0 0 422 425 427 430 418 413 415 418 411 0 0 0 0 0 0 0 651 0 0 0 0 0 0 0 663 663 651 645 639 623 618 608 593 0 0 0 0 0 0 639 657 657 0 0 0 0 1388 1388 0 1599 0 0 0 0 0 0 0 603 613 623 618 618 629 634 639 645 645 663 629 634 645 618 618 608 618 598 574 570 593 584 588 570 593 0 0 0 0 533 529 533 533 533 533 537 553 553 557 603 608 608 603 0 598 593 0 623 570 474 0 0 0 0 440 435 432 427 425 425 425 422 418 413 0 0 0 0 0
    0 0 0 0 0 0 0 0 0 0 0 0 0 0 0 0 0 0 0 0 0 0 0 0 0 0 0 0 0 0 0 0 0 0 0 0 0 0 0 0 0 0 0 0 0 0 0 0 0 0 0 0 0 0 0 0 0 0 0 0 0 0 0 0 0 0 0 0 0 440 446 448 448 443 435 0 0 430 432 432 432 438 438 438 432 0 0 0 0 0 427 425 0 0 425 430 420 427 427 432 435 432 430 432 0 0 0 0 0 0 0 0 430 432 430 427 0 0 0 0 0 0 0 0 0 0 0 0 0 0 0 0 0 0 0 0 0 0 0 0 0 0 0 0 0 0 0 77 0 0 0 159 0 0 0 0 146 0 0 0 0 0 438 432 430 427 427 0 0 0 0 0 0 0 0 0 430 425 0 0 425 427 0 0 0 0 0 0 149 149 0 0 0 430 430 432 435 430 425 430 430 422 435 430 425 420 422 425 0 0 0 0 0 0 0 0 0 0 0 675 657 645 623 618 593 561 0 0 0 0 0 425 422 0 0 0 0 1388 0 0 0 0 0 0 0 415 411 413 411 408 0 0 0 608 613 634 634 651 663 669 669 629 639 645 618 613 598 613 593 557 549 570 561 0 0 0 0 0 0 529 521 521 529 529 529 529 525 533 525 0 0 700 0 0 0 0 0 0 0 0 471 457 451 438 438 435 432 430 425 422 425 422 422 420 415 0 0 0 0 0
    0 0 0 0 0 0 0 0 0 0 0 0 0 0 0 0 0 0 0 0 0 0 0 0 0 0 0 0 0 0 0 0 0 0 0 0 0 0 0 0 0 0 0 0 0 0 0 0 0 0 0 0 0 0 0 0 0 0 0 0 0 0 0 0 0 0 0 0 0 440 443 443 443 440 432 0 0 430 430 432 432 438 438 438 432 435 0 0 0 430 425 422 425 0 425 432 422 430 427 435 438 432 430 432 432 435 435 438 435 430 0 440 432 432 430 427 427 0 0 0 0 0 0 0 0 0 0 438 0 0 0 0 0 0 0 0 432 430 0 435 435 0 443 0 0 0 0 0 427 425 425 0 430 0 0 0 0 0 0 0 0 432 435 432 432 430 430 430 432 432 430 0 0 0 427 430 427 425 418 427 422 425 427 432 430 0 430 432 0 0 0 0 432 430 430 432 438 432 430 435 432 427 432 430 425 422 425 425 420 422 427 413 420 0 0 5661 0 0 0 0 418 415 0 0 0 0 0 406 411 413 422 427 425 425 425 427 0 0 0 0 0 0 0 430 422 418 415 415 413 413 418 418 0 0 0 0 0 0 687 700 681 651 681 687 639 623 0 618 579 0 0 0 0 0 0 0 0 0 0 525 514 514 521 525 521 525 518 511 497 0 0 0 0 0 0 0 0 0 0 474 465 446 440 432 432 432 427 430 425 422 425 425 425 422 420 0 0 0 0 0
    0 0 0 0 0 0 0 0 0 0 0 0 0 0 0 0 0 0 0 0 0 0 0 0 0 0 0 0 0 0 0 0 0 0 0 0 0 0 0 0 0 0 0 0 0 0 0 0 0 0 0 0 0 0 0 0 0 0 0 0 0 0 0 0 0 0 0 0 0 440 440 440 443 440 435 0 0 0 430 432 432 435 435 435 430 432 0 0 427 427 425 422 0 0 425 432 427 432 430 438 438 435 430 432 432 435 435 438 435 430 432 438 430 432 430 427 427 427 0 0 0 0 0 440 0 0 440 440 438 443 438 435 0 432 432 430 430 427 427 432 435 435 440 438 427 0 432 432 427 427 427 427 430 432 435 432 0 0 0 438 432 432 435 432 432 430 427 430 430 432 430 430 435 432 430 430 430 425 418 427 422 422 427 430 430 427 430 430 430 435 432 432 432 432 432 432 438 435 432 435 432 427 430 427 425 420 420 422 418 420 425 418 422 413 0 0 425 427 425 427 425 427 432 430 432 427 415 408 418 415 422 430 425 427 430 430 432 432 435 435 432 0 430 430 422 422 420 422 422 420 422 422 420 0 422 0 0 0 0 0 687 663 694 700 669 634 0 0 0 430 427 427 427 427 430 430 0 0 0 518 504 504 514 521 518 521 514 500 487 462 457 0 457 451 454 451 457 454 459 457 454 440 438 427 427 430 422 427 425 422 422 422 425 422 420 0 0 0 0 0
    0 0 0 0 0 0 0 0 0 0 0 0 0 0 0 0 0 0 0 0 0 0 0 0 0 0 0 0 0 0 0 0 0 0 0 0 0 0 0 0 0 0 0 0 0 0 0 0 0 0 0 0 0 0 0 0 0 0 0 0 0 0 0 0 0 0 0 0 0 438 438 438 443 440 435 0 0 430 430 432 430 432 432 435 430 432 430 430 427 430 425 425 425 430 425 430 427 432 432 438 438 435 432 435 435 435 435 435 435 432 432 438 430 430 427 427 427 427 0 435 432 435 0 440 0 0 440 0 0 0 438 435 432 430 430 430 430 427 425 432 435 435 440 438 430 430 432 432 430 427 427 430 430 435 435 432 0 0 438 438 432 432 435 432 430 430 427 427 427 430 427 430 435 432 432 432 432 427 422 427 422 425 427 430 427 427 430 430 430 435 432 432 432 432 430 432 438 435 430 432 430 427 427 427 422 420 420 422 418 422 427 425 427 420 427 0 427 432 430 430 427 430 430 430 432 430 420 415 422 418 422 430 425 430 430 432 432 432 438 435 432 0 430 430 425 425 425 425 425 422 427 427 422 427 420 420 420 0 425 0 0 0 0 0 0 430 430 432 430 425 422 422 422 425 427 427 425 427 427 0 490 490 500 525 521 533 518 500 471 446 454 451 457 451 451 451 459 457 459 451 448 440 438 425 425 427 418 425 422 420 422 420 422 422 418 0 0 0 0 0
    0 0 0 0 0 0 0 0 0 0 0 0 0 0 0 0 0 0 0 0 0 0 0 0 0 0 0 0 0 0 0 0 0 0 0 0 0 0 0 0 0 0 0 0 0 0 0 0 0 0 0 0 0 0 0 0 0 0 0 0 0 0 0 0 0 0 0 0 0 435 438 438 440 440 432 435 432 430 432 432 432 432 432 435 432 432 432 430 427 430 427 425 425 427 425 430 427 432 432 438 438 435 432 435 435 435 435 435 435 432 432 435 427 427 427 427 427 427 427 432 430 432 0 435 0 0 0 0 0 0 438 435 432 430 427 430 430 427 427 432 432 435 440 438 430 432 432 432 430 430 427 430 430 432 432 430 432 438 435 435 432 432 435 430 432 430 427 427 427 430 430 430 435 432 432 435 432 430 425 430 425 427 430 430 430 430 432 430 432 435 432 432 432 432 430 430 435 432 430 430 427 427 425 427 425 422 422 427 422 427 430 430 430 425 430 427 430 432 430 430 427 430 430 432 432 430 425 422 425 420 425 430 427 430 430 432 432 432 438 435 432 435 430 430 425 427 425 425 427 425 427 427 422 427 422 422 422 420 427 425 427 427 430 435 432 427 427 430 427 422 420 420 422 425 427 427 427 430 430 0 481 471 0 0 0 0 0 420 422 418 427 432 440 440 443 446 454 451 457 451 448 440 438 420 422 425 418 425 420 420 420 420 425 422 420 0 0 0 0 0
    0 0 0 0 0 0 0 0 0 0 0 0 0 0 0 0 0 0 0 0 0 0 0 0 0 0 0 0 0 0 0 0 0 0 0 0 0 0 0 0 0 0 0 0 0 0 0 0 0 0 0 0 0 0 0 0 0 0 0 0 0 0 0 0 0 0 0 0 0 435 435 435 440 438 432 435 435 432 432 435 432 435 435 438 432 432 432 430 427 430 427 427 425 430 425 430 427 432 432 435 435 435 432 435 435 438 435 435 435 432 432 435 427 425 427 425 427 427 425 427 425 430 432 432 0 435 435 0 0 440 438 435 432 430 430 430 430 430 427 430 432 435 435 435 430 430 432 432 430 430 430 430 430 432 432 427 430 435 435 435 432 432 435 432 432 430 430 430 430 430 430 432 435 435 432 435 432 430 427 430 427 427 430 432 430 432 432 432 432 435 432 432 432 432 430 430 435 430 430 430 427 427 425 427 425 425 425 430 427 430 432 432 432 430 432 427 430 430 427 430 427 430 430 430 432 432 430 427 427 425 427 432 427 430 430 432 432 432 435 435 432 435 430 427 425 425 425 425 425 422 427 427 425 427 425 425 422 422 427 425 427 427 427 430 430 427 425 427 427 422 420 420 422 425 427 427 427 430 430 0 457 451 0 0 0 0 0 0 422 418 422 422 427 427 430 430 440 438 438 440 440 432 432 415 420 422 415 422 420 420 422 422 427 427 425 0 0 0 0 0
    0 0 0 0 0 0 0 0 0 0 0 0 0 0 0 0 0 0 0 0 0 0 0 0 0 0 0 0 0 0 0 0 0 0 0 0 0 0 0 0 0 0 0 0 0 0 0 0 0 0 0 0 0 0 0 0 0 0 0 0 0 0 0 0 0 0 0 0 0 432 435 435 438 438 432 435 435 432 432 435 432 435 435 438 432 432 430 427 425 427 425 425 425 427 425 427 425 430 430 430 432 432 430 432 435 435 435 435 435 435 435 438 430 427 427 425 427 427 422 425 422 427 427 430 432 432 432 432 435 438 435 435 432 430 430 430 432 430 430 430 432 435 435 432 430 430 432 432 430 430 430 432 432 432 432 427 430 435 432 432 432 432 435 432 435 432 430 432 432 432 432 432 435 432 432 432 432 430 427 430 427 430 430 430 430 432 432 432 432 435 432 432 432 432 430 430 435 430 430 430 430 430 427 430 430 430 430 432 430 432 435 435 435 432 432 430 430 430 430 430 430 430 430 432 432 435 435 432 430 427 430 432 430 430 430 432 432 432 435 435 432 435 430 427 425 425 425 425 425 422 425 425 425 427 425 425 425 425 427 425 427 430 430 432 430 427 427 430 427 422 420 422 422 425 425 427 427 430 430 435 440 443 438 430 0 425 0 422 422 420 425 425 430 430 432 430 438 432 432 435 432 427 427 411 420 422 418 422 420 420 422 425 430 430 427 0 0 0 0 0
    0 0 0 0 0 0 0 0 0 0 0 0 0 0 0 0 0 0 0 0 0 0 0 0 0 0 0 0 0 0 0 0 0 0 0 0 0 0 0 0 0 0 0 0 0 0 0 0 0 0 0 0 0 0 0 0 0 0 0 0 0 0 0 0 0 0 0 0 0 432 432 432 435 438 430 432 432 432 432 435 432 435 435 438 432 430 430 427 425 425 425 422 422 427 425 427 427 425 427 427 432 430 427 432 432 435 435 435 435 432 432 438 430 427 427 425 427 427 422 422 420 425 427 430 430 432 432 432 435 438 438 435 432 430 430 432 432 430 427 430 432 432 432 432 430 430 432 432 432 432 432 432 432 435 435 430 432 435 432 432 432 432 432 432 435 432 432 432 432 432 432 432 432 432 432 432 432 430 430 430 427 430 430 432 430 432 435 430 432 435 432 432 432 435 430 430 435 432 432 432 430 430 430 430 430 430 432 435 435 435 438 440 438 438 435 432 432 432 432 432 432 432 430 432 435 435 435 435 432 430 430 432 430 432 432 432 432 432 435 435 432 432 430 427 425 427 425 425 425 425 425 425 425 425 425 425 425 425 430 427 430 430 430 432 430 427 427 427 427 422 420 422 422 425 427 427 427 427 430 432 435 435 432 427 422 420 420 420 420 418 422 422 427 427 430 430 432 430 432 432 430 425 427 411 420 422 418 422 422 422 425 425 430 430 427 0 0 0 0 0
    0 0 0 0 0 0 0 0 0 0 0 0 0 0 0 0 0 0 0 0 0 0 0 0 0 0 0 0 0 0 0 0 0 0 0 0 0 0 0 0 0 0 0 0 0 0 0 0 0 0 0 0 0 0 0 0 0 0 0 0 0 0 0 0 0 0 0 0 0 432 430 430 432 435 427 430 432 430 432 432 432 432 432 435 432 427 427 425 422 425 425 422 425 427 427 430 430 425 427 425 432 430 425 432 432 432 435 435 435 432 432 438 430 425 427 425 425 427 422 422 418 422 422 427 427 430 0 0 0 438 438 438 432 432 432 432 432 430 427 427 432 432 432 432 430 432 435 435 432 432 432 435 435 435 435 430 430 435 432 430 430 430 432 432 432 432 430 430 430 430 432 432 432 430 432 432 432 430 430 430 430 432 432 432 430 432 435 432 432 435 432 432 432 435 432 432 435 432 430 430 430 430 430 430 430 432 432 438 435 435 435 440 438 438 438 435 432 432 432 432 432 435 432 435 435 435 435 435 435 430 432 432 432 432 432 432 435 432 438 435 432 432 432 430 427 427 427 425 427 425 427 425 425 425 425 425 425 425 427 427 427 430 430 430 430 427 427 430 430 422 420 425 422 425 427 427 427 427 430 432 432 432 432 425 422 422 422 420 420 420 422 422 427 425 427 427 430 432 432 430 430 425 427 411 422 422 418 422 422 422 425 425 432 430 427 0 0 0 0 0
    0 0 0 0 0 0 0 0 0 0 0 0 0 0 0 0 0 0 0 0 0 0 0 0 0 0 0 0 0 0 0 0 0 0 0 0 0 0 0 0 0 0 0 0 0 0 0 0 0 0 0 0 0 0 0 0 0 0 0 0 0 0 0 0 0 0 0 0 0 432 430 430 432 432 427 430 432 430 430 432 432 430 432 432 430 427 427 425 425 427 425 425 425 427 430 430 432 425 430 425 430 430 425 432 432 432 435 432 435 435 432 438 432 425 427 425 425 427 422 420 418 420 420 425 425 427 0 0 0 438 438 438 432 432 432 432 435 430 427 430 432 435 432 432 430 432 435 435 435 435 435 435 435 435 432 430 430 435 430 427 427 430 430 430 432 430 430 430 430 430 430 432 430 432 435 435 432 432 432 430 430 432 432 432 430 432 435 432 432 435 432 432 432 435 432 430 435 430 430 427 430 427 427 427 430 430 432 435 435 435 435 438 440 440 438 438 435 435 435 435 435 435 432 435 435 435 435 435 432 430 432 435 432 432 432 432 432 432 438 435 432 435 435 435 432 430 430 427 430 427 427 425 425 422 425 427 427 427 427 427 427 427 430 427 427 425 427 427 430 425 422 425 425 427 427 427 427 427 430 435 435 435 432 427 427 427 425 422 422 422 425 427 430 427 430 430 432 432 432 430 430 425 427 413 422 425 420 422 422 422 425 425 432 430 427 0 0 0 0 0
    0 0 0 0 0 0 0 0 0 0 0 0 0 0 0 0 0 0 0 0 0 0 0 0 0 0 0 0 0 0 0 0 0 0 0 0 0 0 0 0 0 0 0 0 0 0 0 0 0 0 0 0 0 0 0 0 0 0 0 0 0 0 0 0 0 0 0 0 0 435 432 432 435 435 432 432 435 432 430 432 432 432 432 432 430 427 430 430 427 430 430 427 430 430 432 430 432 427 430 422 430 430 425 432 435 435 435 432 432 435 432 438 432 425 427 425 425 427 422 420 418 420 418 422 422 427 425 0 0 438 440 440 435 435 435 435 435 432 430 430 432 435 435 435 432 432 435 435 435 435 435 435 435 435 432 430 430 435 430 427 427 430 432 430 432 430 430 430 430 430 430 432 430 432 435 435 432 432 432 432 432 435 432 432 430 432 435 432 435 435 432 432 432 435 430 430 432 427 427 425 427 425 425 425 427 427 432 435 435 435 435 440 440 443 440 438 435 435 435 438 435 435 432 435 435 435 435 435 432 430 432 435 432 432 432 432 435 435 438 435 435 438 435 435 435 432 432 430 430 427 427 425 425 422 425 425 427 427 430 427 427 427 430 427 427 425 425 427 430 425 422 425 425 427 427 427 427 430 432 435 435 438 435 430 430 427 427 422 422 422 427 427 430 427 430 430 432 435 432 432 430 427 427 413 422 425 420 422 422 422 425 425 432 427 425 0 0 0 0 0
    0 0 0 0 0 0 0 0 0 0 0 0 0 0 0 0 0 0 0 0 0 0 0 0 0 0 0 0 0 0 0 0 0 0 0 0 0 0 0 0 0 0 0 0 0 0 0 0 0 0 0 0 0 0 0 0 0 0 0 0 0 0 0 0 0 0 0 0 0 435 435 435 438 438 432 432 435 432 432 432 432 432 432 435 432 430 430 430 430 432 430 430 430 432 432 432 432 425 430 422 427 430 425 432 432 432 435 432 432 435 432 438 432 427 427 427 425 427 422 420 418 420 418 420 422 425 0 0 0 0 0 440 438 438 438 438 438 432 432 430 432 435 432 432 432 432 435 435 435 435 435 435 432 432 432 430 430 435 430 427 427 432 432 432 432 430 430 430 432 430 432 432 427 432 435 432 432 432 432 432 432 435 435 432 432 435 435 432 435 435 432 432 432 432 430 430 432 427 427 425 427 425 427 425 427 427 432 435 435 435 435 440 440 443 443 438 435 435 435 438 435 435 432 435 432 432 435 435 432 430 432 435 432 432 432 432 435 435 438 435 435 438 438 438 438 435 432 430 432 427 425 425 425 420 425 425 427 427 427 427 427 427 430 427 425 425 425 427 430 425 422 427 425 427 427 430 430 430 432 435 435 438 435 430 432 430 427 425 425 425 427 427 430 427 427 430 432 432 432 430 430 427 427 413 425 425 422 425 425 425 425 425 432 427 425 0 0 0 0 0
    0 0 0 0 0 0 0 0 0 0 0 0 0 0 0 0 0 0 0 0 0 0 0 0 0 0 0 0 0 0 0 0 0 0 0 0 0 0 0 0 0 0 0 0 0 0 0 0 0 0 0 0 0 0 0 0 0 0 0 0 0 0 0 0 0 0 0 0 0 438 438 438 440 440 432 432 435 432 432 435 435 435 435 435 432 432 430 430 430 432 430 430 432 432 432 432 432 425 430 422 427 430 425 430 432 432 435 432 432 435 432 438 432 430 430 427 425 427 425 420 418 420 415 420 420 425 0 0 0 0 0 440 440 440 440 440 440 435 432 430 432 432 432 432 432 430 435 435 435 435 435 435 432 432 432 430 430 432 427 425 430 432 432 432 432 432 432 432 432 432 432 432 427 432 432 430 430 432 432 432 432 435 435 435 435 438 435 435 435 435 435 432 432 432 430 430 432 427 430 427 427 425 427 425 430 427 432 432 435 435 435 438 440 443 443 438 438 435 435 438 438 438 435 435 435 432 435 435 432 432 432 435 432 432 432 432 432 435 435 435 435 435 438 438 438 435 432 432 432 427 425 425 425 420 425 425 425 427 427 427 427 427 430 425 425 425 425 430 430 425 425 427 425 427 430 430 430 430 432 435 435 438 435 430 432 430 427 427 425 425 427 430 432 427 427 430 430 432 430 430 430 425 425 415 425 425 422 425 425 425 425 427 432 427 425 0 0 0 0 0
    0 0 0 0 0 0 0 0 0 0 0 0 0 0 0 0 0 0 0 0 0 0 0 0 0 0 0 0 0 0 0 0 0 0 0 0 0 0 0 0 0 0 0 0 0 0 0 0 0 0 0 0 0 0 0 0 0 0 0 0 0 0 0 0 0 0 0 0 0 438 438 438 440 443 435 435 438 435 432 432 435 432 435 435 432 432 430 430 432 432 432 432 432 0 0 435 435 425 430 425 427 430 425 430 432 432 435 432 435 435 435 440 435 432 432 430 427 430 425 422 422 422 420 420 422 427 0 0 0 0 0 440 440 440 443 440 440 435 432 430 430 432 430 430 430 427 435 435 432 435 438 435 435 432 435 432 432 435 430 427 427 430 432 432 435 432 435 435 435 432 432 432 427 432 432 430 430 430 432 432 432 435 435 435 435 435 435 435 435 435 435 432 435 435 432 432 435 430 430 427 430 427 427 425 430 427 432 0 0 430 430 432 438 440 440 438 438 435 438 440 440 438 0 438 435 435 435 438 432 432 432 435 432 432 435 432 432 435 435 435 435 435 440 438 438 438 435 435 432 430 427 425 425 418 425 425 427 427 427 427 427 427 430 427 425 425 425 430 430 425 427 430 427 430 430 432 430 430 432 435 435 438 435 432 432 430 430 430 430 430 430 432 435 430 430 432 430 432 430 427 427 425 422 415 425 425 425 425 425 425 427 427 435 427 422 0 0 0 0 0
    0 0 0 0 0 0 0 0 0 0 0 0 0 0 0 0 0 0 0 0 0 0 0 0 0 0 0 0 0 0 0 0 0 0 0 0 0 0 0 0 0 0 0 0 0 0 0 0 0 0 0 0 0 0 0 0 0 0 0 0 0 0 0 0 0 0 0 0 0 438 438 438 440 446 438 438 438 435 432 432 432 432 432 432 432 430 430 432 435 435 432 432 435 435 435 435 435 425 430 425 427 430 425 430 432 432 435 432 435 435 435 440 435 432 432 432 427 430 427 425 422 422 420 422 420 425 0 430 0 0 440 440 443 443 443 440 440 435 432 430 432 430 430 432 432 430 435 435 435 438 438 438 435 435 435 435 435 435 430 427 427 430 432 432 432 430 432 432 432 432 432 432 425 430 432 430 430 430 432 432 432 435 435 435 432 435 435 432 435 435 435 435 435 435 435 435 435 432 432 430 432 427 430 427 430 427 430 427 430 422 425 427 435 438 440 440 440 440 440 443 446 443 440 440 438 435 435 435 430 430 432 435 432 432 435 432 432 438 435 438 435 438 440 440 440 440 438 438 435 432 430 427 425 420 425 425 427 427 427 430 430 430 432 430 427 427 425 432 430 425 427 430 427 430 432 432 432 430 432 435 432 438 435 430 430 430 432 432 430 430 430 432 438 432 430 432 430 432 430 427 425 425 420 418 425 425 425 422 425 425 425 427 432 422 418 0 0 0 0 0
    0 0 0 0 0 0 0 0 0 0 0 0 0 0 0 0 0 0 0 0 0 0 0 0 0 0 0 0 0 0 0 0 0 0 0 0 0 0 0 0 0 0 0 0 0 0 0 0 0 0 0 0 0 0 0 0 0 0 0 0 0 0 0 0 0 0 0 0 0 440 438 440 443 448 440 438 440 435 432 432 432 430 430 430 432 432 432 435 438 438 438 435 435 438 435 435 435 430 430 427 430 430 427 432 432 432 435 432 435 435 435 440 435 435 435 432 430 430 427 427 425 425 422 422 420 425 0 430 0 440 443 443 443 443 443 440 440 435 432 430 432 432 430 432 432 435 438 438 438 438 440 438 438 435 435 435 435 435 430 430 427 430 432 430 430 427 430 427 430 432 432 430 425 430 432 430 432 432 432 432 432 435 435 435 435 435 435 435 435 435 438 435 435 438 435 0 438 0 435 0 432 430 432 427 432 430 430 427 430 418 425 422 432 430 438 438 440 440 440 443 446 443 0 440 438 432 435 435 427 430 432 432 432 432 435 432 432 438 435 438 435 438 440 440 443 443 440 440 438 438 432 430 427 422 425 427 427 427 427 430 432 432 435 430 430 427 422 432 430 425 430 430 430 430 432 432 432 432 435 435 435 438 435 430 430 430 430 430 430 427 430 432 438 430 430 432 432 435 430 430 425 425 418 420 425 425 422 422 422 425 425 427 427 415 411 0 0 0 0 0
    0 0 0 0 0 0 0 0 0 0 0 0 0 0 0 0 0 0 0 0 0 0 0 0 0 0 0 0 0 0 0 0 0 0 0 0 0 0 0 0 0 0 0 0 0 0 0 0 0 0 0 0 0 0 0 0 0 0 0 0 0 0 0 0 0 0 0 0 0 443 440 443 446 454 443 440 443 438 435 432 432 432 430 430 432 435 435 438 440 440 438 435 438 438 438 435 438 432 432 430 432 432 427 432 435 435 435 432 435 435 435 440 435 435 435 432 432 430 427 427 425 425 420 418 418 425 0 0 0 440 443 443 443 446 443 440 440 435 435 432 435 432 432 435 435 438 438 438 438 438 438 438 435 435 435 432 435 435 430 427 427 430 430 430 427 427 430 427 430 432 432 432 427 430 432 430 432 432 432 432 435 438 435 435 435 435 435 435 435 435 438 435 435 435 435 435 438 0 435 432 432 430 432 430 432 430 432 430 430 422 425 422 430 427 430 430 438 438 438 443 443 440 440 440 435 430 432 432 425 430 430 432 432 432 435 435 435 440 438 438 438 440 443 443 446 446 443 443 443 440 435 432 430 425 427 427 430 427 427 432 432 432 438 435 435 430 425 432 432 425 430 432 430 432 432 435 432 432 435 435 435 440 435 430 430 430 430 430 427 427 430 432 440 435 432 438 438 438 432 430 422 422 415 420 425 425 422 422 422 425 422 427 425 411 408 0 0 0 0 0
    0 0 0 0 0 0 0 0 0 0 0 0 0 0 0 0 0 0 0 0 0 0 0 0 0 0 0 0 0 0 0 0 0 0 0 0 0 0 0 0 0 0 0 0 0 0 0 0 0 0 0 0 0 0 0 0 0 0 0 0 0 0 0 0 0 0 0 0 0 443 443 446 448 457 448 446 446 440 438 435 435 432 432 432 435 438 438 438 440 440 438 435 438 0 0 435 438 432 430 430 432 432 427 432 435 435 435 432 435 435 435 438 435 435 435 432 430 430 427 425 425 425 418 415 415 0 0 0 0 0 440 443 446 446 446 440 443 438 438 435 435 435 435 432 432 438 438 435 435 438 438 435 435 435 432 430 432 432 430 427 425 427 430 430 430 427 430 427 432 432 432 430 427 430 432 430 432 432 432 432 432 438 435 438 438 435 435 435 435 435 438 435 435 435 432 0 438 0 435 432 435 432 435 432 432 432 432 432 432 430 432 430 435 432 432 430 432 432 432 438 440 440 438 438 435 430 432 432 422 430 430 432 430 432 435 435 435 440 438 440 438 440 443 443 446 448 446 446 443 443 438 435 430 427 430 430 432 430 432 435 438 435 443 440 440 435 427 435 432 427 432 432 432 432 435 435 435 435 438 435 438 440 438 432 432 432 430 430 427 427 427 432 443 438 435 443 440 440 432 430 422 420 415 420 422 422 422 420 422 425 422 427 422 408 408 0 0 0 0 0
    0 0 0 0 0 0 0 0 0 0 0 0 0 0 0 0 0 0 0 0 0 0 0 0 0 0 0 0 0 0 0 0 0 0 0 0 0 0 0 0 0 0 0 0 0 0 0 0 0 0 0 0 0 0 0 0 0 0 0 0 0 0 0 0 0 0 0 0 0 443 443 446 451 462 451 448 448 443 440 438 435 435 432 432 435 438 435 435 440 440 438 432 435 0 0 435 438 432 430 430 432 432 427 432 435 435 435 432 435 435 435 438 435 435 435 432 430 427 427 425 0 425 418 415 0 0 0 0 0 0 0 440 443 446 446 440 443 438 440 435 435 435 432 430 432 432 438 432 435 435 435 435 435 0 432 427 430 432 427 427 425 427 430 430 430 427 430 427 430 432 432 430 427 430 432 430 432 432 432 432 435 438 438 438 438 435 435 432 435 438 438 438 435 435 432 0 440 440 438 435 435 435 0 0 435 438 438 438 438 438 440 440 440 440 435 430 432 432 432 435 438 438 435 438 435 430 432 432 420 430 430 432 432 432 435 435 435 440 438 440 440 443 443 446 446 446 443 443 440 440 435 432 427 427 430 430 432 432 432 435 440 443 448 446 446 438 432 435 432 430 435 432 432 432 435 435 435 435 438 435 438 440 435 430 430 430 427 427 427 425 425 430 440 435 432 443 438 438 427 427 418 418 415 420 422 422 422 420 420 422 422 425 418 406 404 0 0 0 0 0
    0 0 0 0 0 0 0 0 0 0 0 0 0 0 0 0 0 0 0 0 0 0 0 0 0 0 0 0 0 0 0 0 0 0 0 0 0 0 0 0 0 0 0 0 0 0 0 0 0 0 0 0 0 0 0 0 0 0 0 0 0 0 0 0 0 0 0 0 0 443 443 443 448 462 451 448 446 443 440 435 435 432 432 432 435 438 438 435 440 443 440 432 432 0 0 432 435 430 427 427 430 432 427 432 432 435 435 435 435 438 435 438 435 435 435 432 430 427 427 0 0 425 418 415 0 0 0 0 0 0 0 0 443 446 446 440 443 438 438 435 432 432 430 427 427 432 438 432 435 435 435 435 438 0 432 427 432 432 427 427 425 427 427 430 432 427 430 427 432 432 432 430 427 430 432 430 432 432 432 430 432 435 438 438 438 435 435 432 435 438 440 438 438 435 435 0 443 443 440 438 440 440 0 0 438 440 443 443 443 443 443 443 443 443 438 432 438 435 435 438 440 438 438 438 438 430 432 435 420 430 432 432 432 432 435 435 435 443 440 440 440 443 446 446 446 446 440 440 440 440 435 430 425 427 430 430 430 432 432 435 440 446 448 451 451 443 438 438 435 430 435 432 432 432 432 435 435 435 438 435 438 440 438 432 432 432 432 430 432 430 430 432 443 435 430 440 432 435 425 425 415 415 413 420 422 422 420 418 420 422 422 425 415 406 406 0 0 0 0 0
    0 0 0 0 0 0 0 0 0 0 0 0 0 0 0 0 0 0 0 0 0 0 0 0 0 0 0 0 0 0 0 0 0 0 0 0 0 0 0 0 0 0 0 0 0 0 0 0 0 0 0 0 0 0 0 0 0 0 0 0 0 0 0 0 0 0 0 0 0 440 440 443 448 462 454 448 446 443 443 438 438 432 432 432 438 440 440 438 443 446 443 435 0 0 0 432 435 0 0 422 430 430 425 430 432 435 435 435 438 438 438 438 435 435 435 432 430 427 427 0 0 425 420 0 0 0 0 0 0 0 0 0 446 448 448 0 443 440 440 435 435 432 430 427 427 435 438 0 435 435 438 438 440 0 432 427 432 430 427 425 422 425 425 430 432 427 430 430 432 435 432 430 427 430 432 430 432 435 432 432 432 435 438 438 438 435 435 432 435 0 440 438 438 438 0 0 446 446 440 440 440 443 0 0 440 443 443 443 443 443 443 443 443 443 435 432 438 435 435 438 440 440 440 440 438 432 435 435 420 432 432 435 432 435 435 435 435 443 440 440 440 443 446 446 446 446 440 440 440 440 435 430 425 427 430 430 430 432 435 438 443 448 448 451 451 443 438 440 435 430 435 432 432 432 432 435 432 435 438 435 438 440 440 438 440 440 438 438 438 435 432 435 440 432 422 432 422 427 418 422 413 415 413 420 422 420 420 418 418 422 420 422 413 406 408 0 0 0 0 0
    0 0 0 0 0 0 0 0 0 0 0 0 0 0 0 0 0 0 0 0 0 0 0 0 0 0 0 0 0 0 0 0 0 0 0 0 0 0 0 0 0 0 0 0 0 0 0 0 0 0 0 0 0 0 0 0 0 0 0 0 0 0 0 0 0 0 0 0 0 440 440 443 448 459 451 0 0 443 443 438 438 432 432 432 438 440 440 0 443 448 446 0 0 0 0 0 0 0 192 0 427 430 422 430 435 435 435 435 438 438 438 438 435 435 432 432 430 427 427 0 0 425 418 413 0 0 0 0 0 0 0 0 0 0 0 0 446 443 440 438 438 435 435 430 430 440 440 0 0 0 438 438 440 0 432 427 432 0 427 422 420 422 422 427 430 427 430 427 432 435 435 430 427 430 432 430 435 435 432 432 435 438 438 0 438 435 432 430 435 0 440 440 438 0 0 0 0 446 443 440 443 443 0 0 440 446 446 446 443 443 443 446 443 446 435 432 438 435 432 435 435 435 435 435 435 430 432 435 415 432 432 435 435 435 438 435 438 446 440 440 440 443 446 446 446 443 440 440 440 438 435 430 425 427 430 430 432 435 435 438 446 451 448 451 451 443 438 440 435 430 435 432 432 432 432 435 432 435 440 435 440 443 446 0 0 0 440 443 446 443 435 432 432 422 411 411 408 406 406 415 411 413 413 420 422 422 420 418 420 422 420 425 415 408 411 0 0 0 0 0
    0 0 0 0 0 0 0 0 0 0 0 0 0 0 0 0 0 0 0 0 0 0 0 0 0 0 0 0 0 0 0 0 0 0 0 0 0 0 0 0 0 0 0 0 0 0 0 0 0 0 0 0 0 0 0 0 0 0 0 0 0 0 0 0 0 0 0 0 0 443 443 443 448 459 0 0 0 0 0 0 440 432 430 430 0 0 0 0 0 0 0 0 0 0 0 0 0 123 191 0 0 427 420 427 432 435 432 435 438 435 435 435 435 435 432 432 432 427 427 0 0 425 413 406 0 0 0 0 0 0 0 0 0 454 0 0 451 448 443 0 440 440 438 430 432 440 0 0 0 0 0 0 443 0 432 425 430 0 422 418 415 420 422 427 430 425 430 427 430 432 432 430 427 427 432 430 435 435 432 430 0 0 438 0 0 435 432 430 0 0 440 440 0 0 707 0 0 0 443 443 443 446 0 448 443 448 448 448 446 446 446 448 446 448 435 432 435 432 432 430 432 430 430 430 432 425 430 430 411 430 432 432 435 435 438 435 438 446 443 443 443 443 446 448 446 443 440 440 440 438 435 427 425 425 427 430 430 435 435 435 443 448 446 448 448 443 440 438 435 430 432 430 432 432 432 432 432 435 443 438 440 443 0 0 0 0 0 446 465 448 435 430 427 415 406 404 404 399 399 408 406 411 413 420 420 418 418 415 415 418 418 418 408 406 408 0 0 0 0 0
    0 0 0 0 0 0 0 0 0 0 0 0 0 0 0 0 0 0 0 0 0 0 0 0 0 0 0 0 0 0 0 0 0 0 0 0 0 0 0 0 0 0 0 0 0 0 0 0 0 0 0 0 0 0 0 0 0 0 0 0 0 0 0 0 0 0 0 0 0 451 446 446 451 457 0 0 943 943 955 0 446 0 0 0 0 0 0 145 145 144 0 0 0 199 196 0 0 0 0 0 0 0 0 0 0 432 432 432 432 432 432 432 432 435 432 432 432 425 425 427 430 427 402 369 364 0 0 0 0 0 0 0 0 0 0 0 462 0 0 0 0 443 438 430 432 443 443 0 0 0 0 0 0 0 0 425 430 427 422 418 415 418 420 427 430 425 427 422 430 432 432 430 425 427 430 430 432 435 432 0 0 0 0 0 0 0 435 430 432 0 0 0 0 0 707 707 735 0 0 0 443 0 0 448 443 448 448 448 448 448 448 451 446 0 435 430 430 430 427 427 427 425 422 425 427 422 427 430 411 430 432 435 435 435 0 0 440 448 443 443 443 446 448 448 446 443 440 438 438 435 432 425 422 422 427 427 427 432 430 430 438 446 443 446 446 443 440 438 432 430 432 430 430 430 430 430 432 435 443 438 443 0 0 0 0 0 0 0 0 468 443 0 430 415 404 402 402 397 395 404 404 408 413 415 418 415 415 413 411 415 413 411 404 402 399 0 0 0 0 0
    0 0 0 0 0 0 0 0 0 0 0 0 0 0 0 0 0 0 0 0 0 0 0 0 0 0 0 0 0 0 0 0 0 0 0 0 0 0 0 0 0 0 0 0 0 0 0 0 0 0 0 0 0 0 0 0 0 0 0 0 0 0 0 0 0 0 0 0 0 457 446 0 0 0 0 0 0 0 223 223 0 0 0 215 0 145 145 144 143 142 142 141 0 201 199 0 0 129 129 0 0 0 0 0 0 0 427 430 430 430 430 425 0 0 432 430 427 413 411 0 0 0 0 0 0 0 0 0 0 0 0 0 0 1149 1168 0 0 0 106 0 0 0 438 415 0 0 0 0 90 0 0 90 90 91 0 422 427 425 420 411 408 411 413 425 430 422 427 422 427 432 432 430 425 425 430 427 0 0 0 0 0 0 0 0 0 258 0 0 0 0 0 2374 2374 0 714 721 0 0 0 0 0 0 0 0 440 448 448 448 448 448 448 451 448 0 0 0 0 0 0 422 425 420 413 420 422 415 422 430 413 432 435 435 438 438 440 440 440 451 443 443 446 446 448 448 446 443 438 438 435 432 432 425 420 422 425 427 427 432 432 430 435 443 443 0 0 0 440 438 432 430 432 427 430 430 430 427 430 0 448 0 0 0 0 0 908 897 0 0 0 0 0 0 0 0 0 395 395 393 391 397 402 406 413 415 418 415 415 411 411 413 411 406 402 397 397 0 0 0 0 0
    0 0 0 0 0 0 0 0 0 0 0 0 0 0 0 0 0 0 0 0 0 0 0 0 0 0 0 0 0 0 0 0 0 0 0 0 0 0 0 0 0 0 0 0 0 0 0 0 0 0 0 0 0 0 0 0 0 0 0 0 0 0 0 0 0 0 0 0 0 0 0 377 367 355 0 0 0 0 225 224 223 221 221 0 0 0 144 143 141 142 141 141 140 0 0 0 0 0 0 0 0 0 0 0 0 0 0 0 0 0 0 0 0 0 0 0 0 0 0 0 0 0 0 179 0 0 0 0 0 117 116 116 0 0 0 0 0 0 105 0 107 107 0 0 0 0 0 0 359 355 0 0 0 93 0 0 0 0 0 0 0 0 80 79 0 0 0 415 422 430 430 425 418 420 0 420 0 0 0 0 0 0 0 0 0 0 111 110 111 0 0 0 2725 0 0 0 0 0 0 0 0 0 0 0 440 446 448 448 451 451 448 451 0 0 0 0 0 0 0 0 427 420 408 415 415 408 413 435 422 438 438 438 438 440 443 440 443 451 443 0 0 0 446 446 443 440 438 435 432 430 430 420 415 420 422 425 422 435 440 432 438 0 0 0 339 333 0 438 430 430 430 427 430 432 430 427 0 0 462 451 459 0 0 0 943 931 0 0 0 0 0 0 0 0 0 0 391 389 385 395 399 408 415 413 418 415 415 411 411 411 411 404 402 397 395 0 0 0 0 0
    0 0 0 0 0 0 0 0 0 0 0 0 0 0 0 0 0 0 0 0 0 0 0 0 0 0 0 0 0 0 0 0 0 0 0 0 0 0 0 0 0 0 0 0 0 0 0 0 0 0 0 0 0 0 0 0 0 0 0 0 0 0 0 0 0 0 0 0 0 366 369 369 366 362 360 0 0 227 227 224 224 0 0 348 347 347 348 347 348 350 348 348 348 353 352 352 353 352 352 352 0 0 0 0 108 0 0 0 0 0 0 0 0 0 0 0 0 0 0 0 0 0 0 0 0 0 0 139 139 117 116 116 0 0 0 0 0 0 0 0 0 109 0 357 357 350 359 355 355 355 355 355 0 0 359 0 0 0 0 0 0 0 0 0 0 0 1149 1226 0 0 395 389 369 364 0 0 364 0 0 0 0 0 0 0 0 0 111 110 0 0 0 0 0 5661 6133 4599 3199 0 0 0 6133 5661 0 0 0 0 0 0 0 446 0 0 0 0 0 0 0 0 0 0 0 0 0 411 411 406 402 427 427 427 427 438 438 438 0 0 0 0 0 0 0 0 446 446 443 0 0 0 0 0 0 0 402 406 413 408 404 0 0 0 0 362 348 340 340 339 343 0 0 0 430 425 427 0 0 0 0 0 0 0 0 0 0 0 0 0 0 0 0 0 0 0 0 0 0 0 385 383 377 391 395 402 411 406 413 413 411 408 406 408 406 402 399 397 393 0 0 0 0 0
    0 0 0 0 0 0 0 0 0 0 0 0 0 0 0 0 0 0 0 0 0 0 0 0 0 0 0 0 0 0 0 0 0 0 0 0 0 0 0 0 0 0 0 0 0 0 0 0 0 0 0 0 0 0 0 0 0 0 0 0 0 0 0 0 0 0 0 0 0 362 366 366 364 360 360 0 0 0 0 0 0 0 0 343 345 345 345 345 347 348 348 350 348 353 353 353 353 353 353 352 348 0 0 0 0 0 0 0 0 0 348 0 342 340 340 337 0 0 0 215 215 0 0 0 0 0 0 140 140 0 0 0 0 0 0 0 0 0 0 109 0 0 350 353 352 348 353 353 353 353 353 353 353 355 357 353 355 355 0 0 355 348 0 0 1187 1115 1115 0 0 350 362 360 360 353 350 352 355 360 0 0 0 0 154 0 0 0 0 0 0 0 0 0 0 111 0 0 0 0 0 0 5256 5256 360 0 0 362 0 0 0 360 364 362 359 0 0 0 359 0 0 0 0 0 0 0 0 397 385 0 0 364 0 362 0 0 0 0 236 235 237 0 0 0 0 0 0 0 0 0 0 0 0 0 366 362 0 383 0 0 0 0 0 355 350 345 342 340 0 0 0 0 0 0 0 0 0 0 0 0 0 0 0 0 0 0 0 0 0 0 0 0 0 0 0 0 0 0 379 377 373 385 389 391 395 387 0 406 406 406 404 406 404 402 402 397 0 0 0 0 0 0
    0 0 0 0 0 0 0 0 0 0 0 0 0 0 0 0 0 0 0 0 0 0 0 0 0 0 0 0 0 0 0 0 0 0 0 0 0 0 0 0 0 0 0 0 0 0 0 0 0 0 0 0 0 0 0 0 0 0 0 0 0 0 0 0 0 0 0 0 0 362 366 366 364 359 359 352 345 345 348 343 342 0 0 342 343 343 345 345 347 347 348 350 348 352 352 353 353 353 353 352 350 357 0 0 0 0 0 0 0 352 352 347 345 343 343 342 348 343 0 0 0 0 186 0 140 140 0 0 0 0 0 0 0 0 0 0 0 0 0 0 0 353 350 355 352 350 353 353 353 353 353 355 355 355 355 353 355 357 355 359 355 350 355 355 0 0 367 366 359 348 362 359 359 352 352 352 355 359 364 362 364 362 0 0 0 0 0 0 0 0 0 0 112 111 0 364 350 360 359 360 359 0 359 359 359 362 357 357 355 359 362 359 357 350 0 357 360 362 360 355 0 0 0 366 0 0 0 0 360 360 359 359 350 352 352 0 0 0 0 0 0 0 0 0 364 355 350 357 357 353 353 357 360 357 360 364 362 0 0 0 0 0 0 0 0 0 0 0 0 0 0 0 0 0 0 0 0 0 0 0 0 0 0 0 1051 1036 0 0 0 0 0 0 0 0 0 0 0 375 373 379 379 375 373 366 362 0 0 393 389 395 397 395 395 395 391 0 0 0 0 0
    0 0 0 0 0 0 0 0 0 0 0 0 0 0 0 0 0 0 0 0 0 0 0 0 0 0 0 0 0 0 0 0 0 0 0 0 0 0 0 0 0 0 0 0 0 0 0 0 0 0 0 0 0 0 0 0 0 0 0 0 0 0 0 0 0 0 0 0 0 360 364 364 364 359 360 353 348 347 350 343 342 340 343 342 343 343 345 345 345 347 348 348 347 352 352 353 352 353 353 353 352 357 350 0 0 0 0 350 355 353 353 350 350 347 347 345 352 345 348 350 350 0 0 0 0 0 0 0 0 355 355 0 0 0 0 0 0 0 359 357 357 353 352 355 353 352 353 355 353 355 355 355 355 355 355 355 355 357 353 357 353 350 355 357 0 371 369 369 362 348 362 357 359 352 353 353 355 357 362 360 362 360 362 362 0 0 360 0 0 0 0 0 112 0 364 360 350 359 359 359 357 357 357 357 359 360 355 355 353 359 359 359 357 353 357 359 362 366 364 360 357 364 364 362 362 362 357 355 357 360 359 360 357 357 355 359 362 362 0 0 364 366 362 364 364 355 350 355 355 353 355 359 360 359 360 364 362 357 0 0 0 352 353 352 350 348 0 348 350 352 347 347 352 350 348 355 353 350 350 0 0 0 0 0 0 1082 0 0 0 0 0 0 0 0 0 0 0 0 369 371 373 369 0 366 362 364 364 369 371 375 383 387 387 389 383 0 0 0 0 0
    0 0 0 0 0 0 0 0 0 0 0 0 0 0 0 0 0 0 0 0 0 0 0 0 0 0 0 0 0 0 0 0 0 0 0 0 0 0 0 0 0 0 0 0 0 0 0 0 0 0 0 0 0 0 0 0 0 0 0 0 0 0 0 0 0 0 0 0 0 360 364 362 362 360 359 353 348 348 350 345 343 342 343 343 343 343 345 345 345 347 348 348 347 352 352 352 352 353 353 353 352 357 350 355 355 352 353 350 355 353 353 353 353 350 350 348 355 348 350 352 350 0 0 0 0 0 0 353 353 353 355 355 0 0 357 0 0 359 357 355 355 353 352 355 352 353 353 355 353 355 355 355 355 355 355 355 353 357 350 353 353 350 355 357 364 367 367 369 366 355 362 359 359 352 353 353 353 357 360 359 362 360 362 362 0 0 364 355 362 0 0 0 0 359 362 357 350 357 357 359 355 355 355 357 357 359 355 353 353 357 359 359 357 355 359 360 362 366 366 362 359 364 362 360 359 360 355 353 357 360 359 360 359 359 357 359 362 360 362 362 0 0 360 364 364 355 352 355 355 355 357 360 360 359 360 362 362 359 355 357 353 353 353 352 353 350 350 352 352 353 348 350 353 350 348 353 352 350 350 357 357 350 353 0 0 0 0 0 0 0 0 0 0 0 0 0 0 0 364 366 366 364 362 364 360 364 364 367 367 371 377 381 379 385 377 0 0 0 0 0
    0 0 0 0 0 0 0 0 0 0 0 0 0 0 0 0 0 0 0 0 0 0 0 0 0 0 0 0 0 0 0 0 0 0 0 0 0 0 0 0 0 0 0 0 0 0 0 0 0 0 0 0 0 0 0 0 0 0 0 0 0 0 0 0 0 0 0 0 0 360 364 362 362 360 359 355 350 350 350 345 343 342 343 343 343 343 345 345 345 347 348 348 347 352 352 352 352 353 353 353 352 357 350 355 353 352 353 352 355 353 353 355 355 353 353 352 357 348 353 355 352 0 353 353 355 0 357 353 353 353 355 355 359 359 357 355 0 357 357 353 355 353 352 355 352 353 355 355 353 355 355 355 355 357 355 355 355 357 353 355 355 352 357 359 362 364 366 367 366 359 362 359 357 352 355 353 353 357 360 359 360 360 362 362 364 0 364 355 364 348 357 360 357 359 360 355 350 357 357 357 353 355 355 355 357 359 353 353 353 357 357 357 357 357 359 360 360 364 364 362 359 362 362 360 359 359 357 355 357 359 359 360 359 359 357 359 360 360 362 360 0 0 360 364 366 359 353 355 357 355 357 359 359 357 360 360 362 359 355 357 353 353 353 352 353 350 350 350 352 353 350 352 353 352 350 355 352 352 352 357 357 352 355 359 355 0 0 0 0 0 352 353 352 0 0 359 357 357 359 362 362 362 362 362 360 364 364 364 364 364 366 371 369 373 367 0 0 0 0 0
    0 0 0 0 0 0 0 0 0 0 0 0 0 0 0 0 0 0 0 0 0 0 0 0 0 0 0 0 0 0 0 0 0 0 0 0 0 0 0 0 0 0 0 0 0 0 0 0 0 0 0 0 0 0 0 0 0 0 0 0 0 0 0 0 0 0 0 0 0 360 362 360 360 360 359 353 352 350 350 347 345 343 343 343 345 345 345 347 347 347 348 350 345 352 350 352 352 352 352 352 352 357 350 355 353 353 353 352 355 353 355 357 355 355 355 353 357 350 353 355 353 353 353 353 355 353 357 353 353 353 355 357 359 359 359 355 360 357 357 355 353 353 352 355 352 353 355 355 353 355 355 355 355 359 355 357 355 359 357 357 357 355 359 360 362 364 366 367 366 360 362 359 357 352 355 353 355 355 359 359 360 360 362 360 364 364 364 355 366 350 357 360 359 359 360 353 352 357 357 357 353 355 355 355 357 357 353 353 353 357 357 357 357 357 357 359 360 362 360 360 357 360 360 360 359 359 357 355 357 359 359 360 357 357 357 357 359 359 360 360 360 362 360 362 364 359 353 355 357 355 357 359 359 357 359 360 360 357 355 357 353 353 353 352 353 350 350 350 350 352 350 352 353 352 350 355 352 352 352 355 355 352 355 357 355 350 353 353 355 355 352 352 352 350 357 357 353 357 357 360 360 360 360 360 359 362 360 362 360 360 362 366 360 364 359 0 0 0 0 0
    0 0 0 0 0 0 0 0 0 0 0 0 0 0 0 0 0 0 0 0 0 0 0 0 0 0 0 0 0 0 0 0 0 0 0 0 0 0 0 0 0 0 0 0 0 0 0 0 0 0 0 0 0 0 0 0 0 0 0 0 0 0 0 0 0 0 0 0 0 359 360 359 360 360 359 353 352 350 350 347 347 343 342 343 347 345 347 348 347 347 348 350 347 352 350 352 350 352 352 353 352 359 350 355 352 353 353 352 355 353 355 357 357 357 357 355 357 352 355 357 353 353 353 353 357 355 357 353 353 355 357 357 359 359 359 357 360 357 359 355 353 353 353 355 352 355 355 355 353 355 355 355 355 359 355 357 357 360 357 357 357 355 359 360 362 364 366 366 366 360 360 357 355 352 353 353 355 355 359 357 359 360 362 360 364 362 364 357 367 355 357 360 359 360 360 352 352 357 357 355 353 355 355 355 357 357 355 353 355 357 357 357 357 357 357 359 359 360 360 359 357 359 359 359 359 359 357 357 357 359 359 360 357 359 357 357 359 359 360 360 360 360 360 360 364 359 353 355 357 355 357 359 357 357 359 360 360 355 355 357 353 355 353 353 353 352 352 353 352 353 350 352 353 353 350 355 352 352 352 355 355 352 353 357 353 352 353 353 355 355 353 353 353 350 357 357 352 357 357 359 359 359 359 359 359 362 360 362 360 360 362 366 362 364 355 0 0 0 0 0
    0 0 0 0 0 0 0 0 0 0 0 0 0 0 0 0 0 0 0 0 0 0 0 0 0 0 0 0 0 0 0 0 0 0 0 0 0 0 0 0 0 0 0 0 0 0 0 0 0 0 0 0 0 0 0 0 0 0 0 0 0 0 0 0 0 0 0 0 0 359 360 357 359 359 359 352 352 350 348 347 347 343 342 343 347 347 347 348 347 347 348 352 347 352 350 352 350 352 353 353 352 359 350 355 352 353 353 353 355 353 355 357 359 359 359 357 359 355 359 359 353 353 353 353 357 353 357 353 353 355 357 357 359 357 359 357 359 355 357 355 355 355 355 357 352 355 355 355 355 357 355 357 355 360 357 359 359 360 357 357 357 357 359 360 360 360 362 362 362 359 359 353 352 352 353 353 355 355 359 357 359 360 360 360 362 360 362 359 366 357 357 359 359 359 359 350 352 355 357 355 353 353 355 355 357 357 355 353 355 357 357 357 357 357 357 359 359 360 360 359 357 359 357 359 357 359 357 357 357 359 359 360 359 360 359 359 359 359 360 360 360 360 359 360 364 359 355 355 357 357 357 359 357 357 357 359 360 355 355 357 352 355 353 353 355 353 353 355 353 355 350 353 355 353 352 355 352 353 353 355 353 352 350 357 352 352 355 353 355 355 353 353 353 350 357 355 350 357 355 359 359 359 359 359 359 362 360 362 360 360 362 364 360 360 359 0 0 0 0 0
    0 0 0 0 0 0 0 0 0 0 0 0 0 0 0 0 0 0 0 0 0 0 0 0 0 0 0 0 0 0 0 0 0 0 0 0 0 0 0 0 0 0 0 0 0 0 0 0 0 0 0 0 0 0 0 0 0 0 0 0 0 0 0 0 0 0 0 0 0 359 360 357 359 359 357 352 352 350 350 347 347 347 343 343 347 347 347 348 347 347 348 350 345 352 350 352 352 353 353 353 353 359 352 357 353 355 353 353 355 352 355 357 359 359 359 357 359 357 360 359 355 355 353 353 357 353 357 352 353 355 357 357 357 357 357 357 359 355 357 355 355 355 355 357 352 357 357 355 355 357 357 357 355 360 357 360 359 360 359 359 359 359 359 360 360 360 360 360 360 357 355 352 348 350 353 353 355 357 359 357 359 360 360 359 360 359 360 357 364 357 357 359 359 359 357 348 352 355 357 355 353 353 353 355 357 357 353 353 355 357 355 355 357 357 357 359 359 359 360 359 357 357 355 357 355 357 357 357 359 359 359 360 360 360 359 359 359 357 359 359 360 360 359 360 364 362 357 355 359 357 355 359 357 357 357 359 359 353 355 357 352 353 353 353 355 353 353 355 352 355 352 355 355 355 352 355 353 353 353 355 352 350 348 353 350 352 353 352 353 352 353 353 352 350 355 353 350 355 355 357 359 357 359 359 359 362 360 362 360 362 364 366 362 360 362 0 0 0 0 0
    0 0 0 0 0 0 0 0 0 0 0 0 0 0 0 0 0 0 0 0 0 0 0 0 0 0 0 0 0 0 0 0 0 0 0 0 0 0 0 0 0 0 0 0 0 0 0 0 0 0 0 0 0 0 0 0 0 0 0 0 0 0 0 0 0 0 0 0 0 359 360 357 359 359 357 353 353 352 350 348 348 348 347 347 348 348 350 350 347 348 348 350 345 352 350 352 352 353 353 353 353 359 353 357 355 357 355 353 355 352 355 359 359 359 359 359 359 357 360 360 355 355 353 353 355 352 355 352 353 355 357 357 357 357 359 357 359 355 359 355 355 357 357 359 352 357 357 355 355 359 357 357 355 362 359 360 360 362 360 359 359 360 360 362 360 360 360 362 360 359 355 353 348 352 355 353 355 357 357 357 357 360 360 359 360 359 359 357 362 357 355 359 359 359 357 348 353 357 357 355 353 355 355 355 357 357 355 353 355 357 355 355 357 359 357 359 359 359 359 359 357 357 355 357 355 357 357 357 359 359 360 362 360 362 360 359 359 357 359 359 360 359 359 360 364 362 357 357 359 355 355 359 357 357 357 359 359 353 355 357 352 353 353 353 353 353 355 355 353 355 353 355 357 357 353 357 353 355 355 355 352 350 350 355 352 353 353 352 355 352 353 352 352 350 355 352 352 355 355 357 357 357 359 357 359 362 360 362 360 362 364 367 364 362 362 0 0 0 0 0
    0 0 0 0 0 0 0 0 0 0 0 0 0 0 0 0 0 0 0 0 0 0 0 0 0 0 0 0 0 0 0 0 0 0 0 0 0 0 0 0 0 0 0 0 0 0 0 0 0 0 0 0 0 0 0 0 0 0 0 0 0 0 0 0 0 0 0 0 0 359 360 357 359 360 359 357 357 352 352 352 352 352 348 348 350 350 353 353 348 350 348 350 345 352 350 352 352 353 353 353 353 359 353 357 357 357 357 353 357 352 355 359 359 359 359 359 360 359 360 360 355 355 353 353 353 352 353 352 353 355 357 357 357 357 359 357 359 357 359 355 355 357 357 359 352 357 357 357 355 359 357 355 357 362 359 362 362 364 362 360 360 362 362 362 360 360 360 360 360 360 353 355 348 353 355 355 355 355 357 355 357 360 359 359 359 357 357 357 360 355 355 359 357 357 357 347 353 355 357 355 352 355 355 355 357 357 355 353 357 357 355 357 357 359 359 360 359 359 359 357 357 357 355 357 355 357 357 357 359 360 360 362 362 362 360 359 359 359 359 357 359 359 359 360 364 362 355 357 359 355 355 357 355 355 355 359 359 352 355 355 352 353 352 353 353 355 355 355 355 357 355 357 357 357 355 357 355 355 355 353 352 350 352 355 352 353 353 352 355 352 353 353 352 352 355 352 352 355 355 357 357 357 357 357 359 362 360 362 359 362 362 366 362 360 360 0 0 0 0 0
    0 0 0 0 0 0 0 0 0 0 0 0 0 0 0 0 0 0 0 0 0 0 0 0 0 0 0 0 0 0 0 0 0 0 0 0 0 0 0 0 0 0 0 0 0 0 0 0 0 0 0 0 0 0 0 0 0 0 0 0 0 0 0 0 0 0 0 0 0 359 359 357 357 360 359 357 357 352 353 352 353 353 350 350 353 352 355 355 353 350 350 353 345 353 350 350 352 352 353 353 353 359 353 359 359 359 359 355 359 352 355 359 357 359 359 359 360 359 362 360 357 357 355 357 357 353 357 353 355 357 359 359 357 357 359 359 360 357 359 355 355 357 359 359 352 357 359 357 357 359 357 355 357 364 360 364 364 366 364 364 362 364 362 362 360 360 359 359 360 360 353 355 348 353 355 355 357 357 357 357 357 360 357 357 357 357 355 355 359 355 355 357 355 355 355 347 353 357 357 355 353 357 355 355 359 357 355 355 357 359 357 357 359 359 359 360 359 359 359 357 355 355 355 357 355 357 357 359 360 360 360 362 362 362 360 357 357 357 359 357 359 357 357 359 362 360 353 355 359 355 355 357 355 355 355 359 357 353 355 355 352 353 353 353 353 355 355 355 355 357 355 357 357 357 355 357 357 355 355 353 353 352 353 355 353 355 355 353 357 353 355 355 353 352 357 352 352 355 355 357 357 357 357 355 359 360 359 362 357 362 362 366 362 360 360 0 0 0 0 0
    0 0 0 0 0 0 0 0 0 0 0 0 0 0 0 0 0 0 0 0 0 0 0 0 0 0 0 0 0 0 0 0 0 0 0 0 0 0 0 0 0 0 0 0 0 0 0 0 0 0 0 0 0 0 0 0 0 0 0 0 0 0 0 0 0 0 0 0 0 359 359 359 357 360 359 357 357 352 353 353 353 355 350 350 353 352 357 355 355 352 350 353 345 353 350 352 353 353 353 353 353 360 355 359 359 359 359 355 359 350 355 357 357 357 357 359 359 359 362 360 357 359 357 359 360 357 359 355 357 359 359 359 357 357 359 359 360 357 359 357 355 359 359 360 352 359 359 357 357 359 357 357 357 364 362 364 364 366 364 364 364 364 362 364 360 360 359 357 359 360 353 355 350 355 355 357 357 357 357 357 357 359 357 357 357 355 355 355 359 355 355 357 355 355 355 347 353 357 357 357 355 357 357 357 360 359 357 357 359 359 359 359 359 360 359 360 357 357 359 355 355 355 353 357 355 359 359 359 360 360 360 362 360 360 360 355 357 357 359 355 357 357 357 359 362 360 353 355 359 355 355 357 355 355 355 359 357 352 355 353 352 353 353 353 352 355 355 355 357 357 355 359 359 359 355 357 357 355 355 353 353 352 355 355 355 355 357 357 359 355 357 355 355 353 357 352 353 355 355 357 357 357 357 355 359 359 357 360 357 362 362 366 362 360 362 0 0 0 0 0
    0 0 0 0 0 0 0 0 0 0 0 0 0 0 0 0 0 0 0 0 0 0 0 0 0 0 0 0 0 0 0 0 0 0 0 0 0 0 0 0 0 0 0 0 0 0 0 0 0 0 0 0 0 0 0 0 0 0 0 0 0 0 0 0 0 0 0 0 0 360 359 359 357 360 357 357 359 352 353 353 353 355 350 350 353 352 357 353 353 350 350 353 345 353 352 353 355 355 355 355 355 362 357 360 360 360 360 357 360 350 355 357 357 357 357 359 359 359 362 360 357 360 359 360 362 359 359 357 359 359 359 359 357 357 360 360 362 359 360 359 357 360 360 360 353 359 359 357 357 360 359 357 357 364 362 364 364 366 364 364 362 364 362 364 360 362 359 357 359 360 355 355 350 357 355 357 359 359 357 357 357 360 357 357 357 355 355 357 359 357 355 359 357 357 355 347 353 357 359 357 355 359 359 359 360 360 357 359 359 360 359 359 359 360 359 360 357 357 357 353 355 355 353 357 355 359 359 359 360 360 360 362 362 362 360 355 357 357 357 355 357 357 355 357 362 359 353 355 359 353 355 357 355 355 355 359 355 352 355 352 352 353 353 353 352 355 355 355 357 357 357 359 357 357 355 355 357 355 355 353 353 352 355 355 355 355 355 357 359 355 357 355 353 353 357 352 355 355 357 357 357 357 359 355 359 359 357 359 357 362 362 364 364 362 364 0 0 0 0 0
    0 0 0 0 0 0 0 0 0 0 0 0 0 0 0 0 0 0 0 0 0 0 0 0 0 0 0 0 0 0 0 0 0 0 0 0 0 0 0 0 0 0 0 0 0 0 0 0 0 0 0 0 0 0 0 0 0 0 0 0 0 0 0 0 0 0 0 0 0 360 360 360 359 360 359 359 360 353 357 355 355 357 352 352 353 352 355 352 352 350 348 353 345 355 353 355 357 357 357 357 357 362 359 360 360 360 360 355 359 348 355 357 357 357 357 359 359 359 362 360 359 360 360 360 362 359 360 359 359 360 359 359 357 355 359 359 360 359 360 359 357 360 360 360 353 359 359 359 357 360 359 357 357 364 362 364 362 364 362 364 362 364 362 364 362 362 359 359 359 359 355 355 352 357 357 359 359 359 359 357 359 360 357 357 357 355 357 357 359 357 355 359 357 357 355 347 353 359 359 359 357 359 359 359 360 360 359 359 360 360 359 360 359 360 359 362 357 357 359 355 355 355 353 357 355 359 359 359 360 360 362 364 362 362 360 355 357 357 357 355 357 357 357 357 360 359 353 355 359 353 355 357 355 357 357 359 355 353 355 353 353 353 353 355 353 357 355 355 357 357 357 359 359 359 355 357 357 357 357 353 353 353 355 357 355 357 357 357 357 355 357 355 353 353 357 352 355 355 357 357 357 357 359 355 359 357 359 357 355 360 360 362 364 364 364 0 0 0 0 0
    0 0 0 0 0 0 0 0 0 0 0 0 0 0 0 0 0 0 0 0 0 0 0 0 0 0 0 0 0 0 0 0 0 0 0 0 0 0 0 0 0 0 0 0 0 0 0 0 0 0 0 0 0 0 0 0 0 0 0 0 0 0 0 0 0 0 0 0 0 362 362 362 360 360 360 359 362 353 357 357 355 357 352 352 352 350 355 350 350 350 348 352 347 357 355 355 359 359 359 359 359 362 360 362 362 362 364 357 360 350 355 357 357 357 357 359 360 359 362 362 360 362 362 362 364 360 360 359 360 360 359 357 355 353 359 359 360 359 359 357 357 360 360 360 352 359 359 359 357 360 359 357 357 364 360 362 362 364 362 364 362 364 364 364 362 364 360 360 360 360 357 357 352 357 357 359 359 359 359 359 359 360 357 359 357 357 357 359 357 357 355 359 357 357 353 348 353 359 359 359 357 360 359 359 360 360 359 359 360 360 359 360 360 362 360 362 359 359 359 355 357 355 355 357 357 359 359 359 360 360 362 364 362 362 360 355 355 357 357 355 357 357 357 359 360 359 355 357 359 355 357 357 357 357 357 359 355 355 355 353 353 355 355 355 355 357 355 355 359 355 359 359 359 359 357 357 359 357 357 355 353 353 355 355 355 357 355 357 357 355 357 355 353 355 357 353 357 355 357 357 357 359 359 355 360 357 360 359 357 360 360 362 366 366 366 0 0 0 0 0
    0 0 0 0 0 0 0 0 0 0 0 0 0 0 0 0 0 0 0 0 0 0 0 0 0 0 0 0 0 0 0 0 0 0 0 0 0 0 0 0 0 0 0 0 0 0 0 0 0 0 0 0 0 0 0 0 0 0 0 0 0 0 0 0 0 0 0 0 0 360 360 362 360 362 360 360 362 355 359 357 357 357 353 352 352 348 355 348 352 350 350 353 347 357 357 357 359 359 359 359 359 362 360 362 364 364 366 359 362 353 357 359 359 359 359 359 360 359 364 362 362 364 364 364 364 362 362 362 362 362 360 359 355 353 357 357 359 357 357 353 357 359 360 360 352 359 359 359 359 359 359 357 357 362 359 360 362 364 364 364 364 364 366 367 366 366 362 362 362 362 360 357 353 359 357 359 359 359 359 359 360 362 359 359 359 359 359 359 357 357 355 357 357 357 353 348 355 359 359 359 357 360 359 359 360 360 359 359 360 360 359 360 360 362 360 362 359 359 359 353 357 355 355 359 357 359 359 360 360 360 362 362 362 362 359 355 355 357 359 355 357 357 357 359 360 359 357 357 359 355 357 359 357 357 357 359 355 357 355 353 355 355 355 357 355 359 355 357 359 357 359 359 359 359 357 357 359 357 357 355 355 353 355 355 355 357 355 357 357 355 357 357 355 357 359 355 359 357 359 359 359 359 359 355 360 357 360 360 360 364 362 364 369 371 369 0 0 0 0 0
    0 0 0 0 0 0 0 0 0 0 0 0 0 0 0 0 0 0 0 0 0 0 0 0 0 0 0 0 0 0 0 0 0 0 0 0 0 0 0 0 0 0 0 0 0 0 0 0 0 0 0 0 0 0 0 0 0 0 0 0 0 0 0 0 0 0 0 0 0 360 360 362 360 362 360 360 362 355 360 359 359 359 355 355 353 352 357 350 355 353 352 355 348 357 357 357 359 359 360 360 360 364 362 362 364 364 366 362 364 357 359 360 360 359 359 359 360 359 362 364 362 364 364 366 366 364 364 364 364 364 362 360 357 355 357 355 357 355 355 353 357 359 360 360 353 360 360 360 359 360 359 359 357 362 357 360 360 364 364 364 364 366 367 367 366 366 364 364 364 362 362 357 353 359 359 359 359 360 359 359 360 362 359 360 359 359 359 360 359 359 355 359 357 357 353 350 355 359 359 359 357 360 359 360 360 360 359 359 360 362 360 362 362 364 362 364 360 360 360 355 357 357 357 359 359 360 360 360 360 360 362 362 360 360 357 355 355 357 359 355 357 357 357 359 360 359 357 357 359 355 359 359 357 357 359 359 355 359 357 355 357 357 357 359 359 360 359 359 360 359 360 360 360 359 359 359 359 359 357 357 357 355 357 357 357 359 357 357 359 359 359 359 359 359 360 357 360 357 359 359 359 360 359 357 360 355 360 357 359 360 360 362 369 369 369 0 0 0 0 0
    0 0 0 0 0 0 0 0 0 0 0 0 0 0 0 0 0 0 0 0 0 0 0 0 0 0 0 0 0 0 0 0 0 0 0 0 0 0 0 0 0 0 0 0 0 0 0 0 0 0 0 0 0 0 0 0 0 0 0 0 0 0 0 0 0 0 0 0 0 360 360 360 359 360 360 360 360 353 359 359 359 359 355 357 355 352 359 352 357 355 353 357 350 359 359 359 360 359 360 360 360 364 362 364 364 366 367 364 366 360 360 362 362 360 360 360 362 360 364 364 364 366 364 366 367 366 366 366 366 366 362 360 357 355 357 353 353 353 353 353 357 360 360 362 357 362 360 360 360 360 360 359 359 362 359 360 362 364 364 364 366 366 367 367 366 366 364 364 364 362 362 359 355 359 359 360 360 360 360 360 362 362 360 360 360 360 360 360 359 359 357 359 359 357 355 350 357 359 359 359 357 360 359 360 362 360 359 360 362 362 362 362 364 364 362 366 364 364 362 355 359 359 359 360 360 360 360 360 360 360 362 362 360 360 357 355 355 357 359 355 357 357 357 359 359 359 357 357 359 357 359 359 359 359 359 359 355 359 357 355 357 359 359 359 360 362 360 360 362 360 362 360 360 359 357 359 359 359 357 357 357 357 357 359 357 359 359 359 360 360 360 360 360 360 360 359 360 359 360 360 359 360 360 357 360 355 359 353 357 359 359 359 367 369 369 0 0 0 0 0
    0 0 0 0 0 0 0 0 0 0 0 0 0 0 0 0 0 0 0 0 0 0 0 0 0 0 0 0 0 0 0 0 0 0 0 0 0 0 0 0 0 0 0 0 0 0 0 0 0 0 0 0 0 0 0 0 0 0 0 0 0 0 0 0 0 0 0 0 0 360 360 362 359 360 360 359 359 352 357 357 359 359 357 359 357 353 359 353 357 355 353 355 352 359 359 360 360 360 360 362 362 364 364 366 366 366 369 367 366 364 362 364 364 362 362 362 362 360 364 364 364 366 366 367 369 367 367 367 366 366 362 360 357 357 355 355 352 353 353 352 355 359 360 362 357 362 362 362 360 360 360 360 359 362 359 360 362 364 364 362 364 364 366 367 366 366 364 364 366 364 364 359 357 360 360 360 360 362 362 362 362 364 362 364 364 362 362 362 360 360 357 359 359 359 355 352 357 359 359 359 359 360 359 360 362 360 360 360 362 362 362 364 364 364 364 364 364 364 362 355 360 359 359 362 360 360 360 360 360 360 360 360 359 359 355 355 355 357 357 355 357 357 357 359 360 359 359 359 359 359 359 359 359 359 359 359 355 359 357 357 359 359 359 360 360 364 360 362 364 362 362 362 360 360 357 359 359 359 357 357 357 359 357 359 359 360 359 360 360 360 360 362 362 360 362 360 362 360 360 360 360 360 360 359 360 357 359 355 357 359 359 360 367 369 371 0 0 0 0 0</data></depth>
</opencv_storage>
