<?xml version="1.0"?>
<opencv_storage>
<gps_time_stamp>17993</gps_time_stamp>
<gps_x>-5.0411600619554520e-002</gps_x>
<gps_y>6.9036528468132019e-002</gps_y>
<gps_z>-2.1707255393266678e-002</gps_z>
<image_time_stamp>5965</image_time_stamp>
<depth type_id="opencv-matrix">
  <rows>85</rows>
  <cols>320</cols>
  <dt>s</dt>
  <data>
    0 0 0 0 0 0 0 0 0 0 0 0 0 0 0 0 0 0 0 0 0 0 0 0 0 0 0 0 0 0 0 0 0 0 0 0 0 0 0 0 0 0 0 0 0 0 0 0 0 0 0 0 0 0 0 0 0 0 0 0 0 0 0 0 0 0 0 0 0 0 0 0 0 0 0 0 0 0 0 0 0 0 0 0 0 0 0 0 0 0 0 0 0 0 0 0 0 0 0 0 0 0 0 0 0 0 0 0 0 0 0 0 0 0 0 0 0 0 0 0 0 0 0 0 0 0 0 0 0 0 0 0 0 0 0 0 0 0 0 0 0 0 0 0 0 0 0 0 0 0 0 0 0 0 0 0 0 0 0 0 0 0 0 0 0 0 0 0 0 0 0 0 0 0 0 0 0 0 0 0 0 0 0 0 0 0 0 0 0 0 0 0 0 0 0 0 0 0 0 0 0 0 0 0 0 0 0 0 0 0 0 0 0 0 0 0 0 0 0 0 0 0 0 0 0 0 0 0 0 0 0 0 0 0 0 0 0 0 0 0 0 0 0 0 0 0 0 0 0 0 0 0 0 0 0 0 0 0 0 0 0 0 0 0 0 0 0 0 0 0 0 0 0 0 0 0 0 0 0 0 0 0 0 0 0 0 0 0 0 0 0 0 0 0 0 0 0 0 0 0 0 0 0 0 0 0 0 0 0 0 0 0 0 0 0 0 0 0 0 0
    0 0 0 0 0 0 0 0 0 0 0 0 0 0 0 0 0 0 0 0 0 0 0 0 0 0 0 0 0 0 0 0 0 0 0 0 0 0 0 0 0 0 0 0 0 0 0 0 0 0 0 0 0 0 0 0 0 0 0 0 0 0 0 0 0 0 0 0 0 0 0 0 0 0 0 0 0 0 0 0 0 0 0 0 0 0 0 0 0 0 0 0 0 0 0 0 0 0 0 0 0 0 0 0 0 0 0 0 0 0 0 0 0 0 0 0 0 0 0 0 0 0 0 0 0 0 0 0 0 0 0 0 0 0 0 0 0 8177 8177 8177 7359 8177 8177 7359 0 0 0 0 0 0 0 0 0 0 0 229 0 3873 5661 5661 5256 6690 6690 7359 6690 6690 0 0 0 0 0 0 0 0 0 0 0 0 8177 7359 7359 7359 7359 8177 8177 7359 7359 7359 9199 0 0 0 0 0 0 0 0 0 0 0 0 0 0 0 0 0 0 0 0 0 0 0 3873 4088 4088 4329 4088 4088 4599 4088 3873 3873 3873 3873 3679 3504 3199 2943 2943 2943 2725 2374 2299 2374 2374 2628 2537 2453 2453 2537 2164 2164 2102 2044 2044 2102 2044 2044 2044 2164 2230 2164 2230 2230 2164 2299 2230 2230 2164 2164 2230 2230 2164 2164 2164 2164 2164 2230 2164 2102 1989 1989 1887 1839 1795 1752 1752 1839 1839 1839 1839 1887 1887 1887 1887 1936 1795 0 0 1565 1533 1565 1565 1599 1635 1672 1672 1839 1887 0 2044 1989 1989 1936 0 0 0 0 0 0 0 0 0 0 0 0 0 0 0 0
    0 0 0 0 0 0 0 0 0 0 0 0 0 0 0 0 0 0 0 0 0 0 0 0 0 0 0 0 0 0 0 0 0 0 0 0 0 0 0 0 0 0 0 0 0 0 0 0 0 0 0 0 0 0 0 0 0 0 0 0 0 0 0 0 0 0 0 0 0 0 0 0 0 0 0 0 0 0 0 0 0 0 0 0 0 0 0 0 0 0 0 0 0 0 0 0 0 0 0 0 0 0 0 0 0 0 0 0 0 0 0 0 0 0 0 0 0 0 0 0 0 0 0 0 0 0 8177 0 0 0 0 0 0 0 0 0 0 9199 8177 8177 7359 8177 8177 7359 0 0 0 0 0 0 0 0 0 0 0 0 0 3873 5661 5661 5256 6690 6690 7359 6690 6690 0 0 0 0 0 0 0 0 0 0 0 0 8177 6690 7359 7359 7359 7359 7359 7359 7359 7359 8177 0 0 8177 0 0 0 0 0 0 0 0 0 0 0 0 0 0 0 0 0 0 0 4088 3873 3873 4329 4599 4329 4329 4599 4088 3873 3873 3873 3873 3679 3504 3199 2943 2943 2943 2725 2453 2299 2374 2374 2628 2537 2537 2453 2537 2164 2164 2102 2102 2044 2164 2044 2102 2102 2230 2230 2230 2230 2299 2164 2230 2230 2230 2164 2164 2230 2164 2164 2164 2164 2164 2164 2164 2102 2102 1989 1989 1936 1839 1839 1752 1752 1839 1839 1887 1839 1887 1887 1887 1887 1887 1795 1752 1565 1565 1565 1599 1635 1672 1752 1752 1795 1936 1989 2164 2164 2044 2044 1936 1989 1936 0 0 0 0 0 0 0 0 0 0 0 0 0 0
    0 0 0 0 0 0 0 0 0 0 0 0 0 0 0 0 0 0 0 0 0 0 0 0 0 0 0 0 0 0 0 0 0 0 0 0 0 0 0 0 0 0 0 0 0 0 0 0 0 0 0 0 0 0 0 0 0 0 0 0 0 0 0 0 0 0 0 0 0 0 0 0 0 0 0 0 0 0 0 0 0 0 0 0 0 0 0 0 0 0 0 0 0 0 0 0 0 0 0 0 0 0 0 0 0 0 0 0 0 0 0 0 0 0 0 0 0 0 0 0 0 0 0 0 0 0 8177 0 0 0 0 0 0 0 0 0 0 8177 8177 8177 7359 8177 8177 7359 0 0 0 0 0 0 0 0 0 0 0 230 0 3873 5661 5661 5256 6133 6690 6690 6690 6690 0 0 0 0 0 0 0 0 0 8177 8177 8177 8177 6133 6690 6690 6133 6690 7359 6690 6690 6690 8177 0 0 8177 0 0 0 0 0 0 0 0 0 0 0 0 0 0 0 0 0 0 0 4088 4088 3873 4329 4599 4599 4599 4906 4329 4088 4088 4088 3873 3679 3504 3199 2725 2725 2725 2628 2374 2299 2374 2374 2628 2453 2453 2453 2453 2164 2164 2102 2044 2044 2164 2044 2044 2102 2164 2230 2230 2299 2299 2164 2230 2299 2164 2164 2164 2164 2164 2164 2164 2102 2102 2164 2164 2102 2102 1989 2044 1936 1887 1839 1795 1795 1839 1839 1887 1887 1887 1887 1887 1839 1795 1752 1711 1599 1565 1565 1599 1635 1711 1795 1839 1887 1989 2102 2230 2230 2102 2044 1936 1989 1936 1936 0 0 0 0 1989 0 0 0 0 0 0 0 0
    0 0 0 0 0 0 0 0 0 0 0 0 0 0 0 0 0 0 0 0 0 0 0 0 0 0 0 0 0 0 0 0 0 0 0 0 0 0 0 0 0 0 0 0 0 0 0 0 0 0 0 0 0 0 0 0 0 0 0 0 0 0 0 0 0 0 0 0 0 0 0 0 0 0 0 0 0 0 0 0 0 0 0 0 0 0 0 0 0 0 0 0 0 0 0 0 0 0 0 0 0 0 0 0 0 0 0 0 0 0 0 0 0 0 0 0 0 0 0 0 0 0 0 0 0 0 0 0 0 0 0 0 0 0 0 0 0 7359 8177 8177 7359 7359 8177 7359 0 0 0 0 0 0 0 0 0 0 0 229 0 3873 5256 5256 4906 6133 6690 6690 6690 6690 0 0 0 0 0 0 0 0 0 8177 8177 8177 8177 6133 6133 6133 6133 6133 7359 6690 6690 6690 0 0 0 0 0 0 0 0 0 0 0 0 0 0 0 0 0 0 0 0 0 0 4088 4329 4088 4088 4599 4599 4599 4329 4906 4599 4329 4329 4329 4088 3873 3679 3199 2628 2537 2537 2537 2453 2374 2374 2453 2537 2537 2453 2537 2374 2164 2164 2102 2044 2044 2164 2044 2044 2102 2164 2230 2230 2230 2230 2164 2230 2230 2164 2164 2102 2102 2102 2102 2102 2102 2102 2102 2164 2044 2102 1989 2044 1989 1936 1887 1839 1839 1887 1887 1887 1887 1887 1887 1839 1795 1795 1711 1672 1565 1565 1565 1599 1635 1711 1795 1839 1887 1989 2102 2164 2230 2102 2044 1989 1989 1989 1936 0 0 1752 1839 1936 2102 0 0 0 0 0 0 0
    0 0 0 0 0 0 0 0 0 0 0 0 0 0 0 0 0 0 0 0 0 0 0 0 0 0 0 0 0 0 0 0 0 0 0 0 0 0 0 0 0 0 0 0 0 0 0 0 0 0 0 0 0 0 0 0 0 0 0 0 0 0 0 0 0 0 0 0 0 0 0 0 0 0 0 0 0 0 0 0 0 0 0 0 0 0 0 0 0 0 0 0 0 0 0 0 0 0 0 0 0 0 0 0 0 0 0 0 0 0 0 0 0 0 0 0 0 0 0 0 0 0 0 0 0 0 0 0 0 0 0 0 0 0 0 0 0 6690 7359 8177 7359 7359 8177 8177 0 0 0 0 0 0 0 0 0 0 0 230 0 3873 5256 5256 5256 6133 6690 6690 6690 6690 0 0 0 0 0 0 0 0 0 0 8177 0 8177 6133 6133 6133 5661 5661 7359 7359 6690 6690 0 0 0 0 0 0 0 0 0 0 0 0 0 0 0 0 0 0 0 0 0 4329 4329 4329 4329 4329 4599 4906 4906 4599 4906 4599 4599 4329 4599 4329 3873 3679 3199 2537 2453 2374 2537 2453 2374 2374 2453 2537 2537 2537 2537 2374 2164 2102 2102 2044 2044 2164 2044 2044 2102 2164 2230 2230 2230 2230 2102 2164 2230 2102 2164 2102 2102 2044 2044 2102 2102 2044 2102 2164 2044 2102 2044 2102 2102 1989 1936 1887 1839 1887 1887 1887 1887 1887 1839 1839 1795 1752 1672 1672 1565 1565 1565 1599 1635 1711 1795 1839 1887 1989 2102 2164 2230 2102 2044 1989 1989 1989 1936 1839 1839 1795 1887 1989 2164 2230 0 0 0 0 0 0
    0 0 0 0 0 0 0 0 0 0 0 0 0 0 0 0 0 0 0 0 0 0 0 0 0 0 0 0 0 0 0 0 0 0 0 0 0 0 0 0 0 0 0 0 0 0 0 0 0 0 0 0 0 0 0 0 0 0 0 0 0 0 0 0 0 0 0 0 0 0 0 0 0 0 0 0 0 0 0 0 0 0 0 0 0 0 0 0 0 0 0 0 0 0 0 0 0 0 0 0 0 0 8177 0 0 0 0 0 0 0 0 0 0 0 0 0 0 0 0 0 0 0 0 0 0 0 0 0 0 0 0 0 0 0 0 0 0 0 0 0 7359 0 0 0 0 0 0 0 0 0 0 0 0 0 0 0 0 3873 5661 5661 5256 6133 6690 6690 6690 6690 0 0 0 0 0 0 0 0 0 0 8177 0 8177 6133 6133 6133 5661 5661 7359 7359 6690 6690 0 0 0 0 0 0 0 0 0 0 0 0 0 0 0 0 0 0 0 0 0 4329 4329 4329 4599 4329 4599 5256 4906 4599 5256 4906 4599 4599 4599 4329 3873 3679 3345 2628 2537 2453 2537 2453 2453 2374 2453 2537 2537 2537 2537 2374 2164 2102 2102 2044 2044 2164 2102 2102 2164 2164 2230 2230 2230 2230 2164 2230 2230 2102 2164 2102 2044 2044 2044 2044 2044 2044 2044 2102 2044 2102 2044 2102 2164 1989 1989 1887 1887 1887 1887 1887 1887 1839 1839 1795 1752 1752 1672 1672 1565 1565 1565 1635 1672 1752 1795 1887 1936 2044 2164 2230 2299 2164 2102 1989 1989 1989 1989 1887 1839 1795 1936 2044 2164 2230 0 0 0 0 0 0
    0 0 0 0 0 0 0 0 0 0 0 0 0 0 0 0 0 0 0 0 0 0 0 0 0 0 0 0 0 0 0 0 0 0 0 0 0 0 0 0 0 0 0 0 0 0 0 0 0 0 0 0 0 0 0 0 0 0 0 0 0 0 0 0 0 0 0 0 0 0 0 0 0 0 0 0 0 0 0 0 0 0 0 0 0 0 0 0 0 0 0 0 0 0 0 0 0 0 0 0 0 0 8177 0 0 0 0 0 0 0 0 0 0 0 0 0 0 0 0 0 0 0 0 0 0 0 0 0 0 0 0 0 0 0 0 0 0 0 0 0 3679 3199 0 0 0 0 0 0 0 0 0 0 0 0 0 0 0 4088 5661 5661 5256 6690 6690 6690 6690 6690 0 0 0 0 0 0 0 0 0 8177 8177 0 8177 6133 6133 6133 5256 5256 7359 6690 6690 6690 0 0 0 0 0 0 0 0 0 0 0 0 0 0 0 0 0 0 0 0 4329 4599 4329 4599 4599 4329 4906 5256 5256 4599 5256 5256 4906 4599 4906 4088 3873 3679 3345 2830 2725 2628 2628 2628 2537 2453 2453 2537 2537 2537 2537 2374 2230 2164 2164 2102 2102 2164 2102 2102 2164 2164 2299 2299 2299 2230 2164 2230 2230 2102 2164 2044 1989 1989 1989 2044 2044 2044 2044 2102 2044 2102 2044 2102 2102 1989 1989 1887 1887 1887 1887 1887 1839 1839 1795 1795 1711 1711 1635 1635 1565 1565 1565 1635 1672 1752 1839 1887 1989 2044 2164 2230 2230 2164 2102 2044 2044 2044 1989 1936 1936 1887 1989 2044 2102 2230 0 0 0 0 0 0
    0 0 0 0 0 0 0 0 0 0 0 0 0 0 0 0 0 0 0 0 0 0 0 0 0 0 0 0 0 0 0 0 0 0 0 0 0 0 0 0 0 0 0 0 0 0 0 0 0 0 0 0 0 0 0 0 0 0 0 0 0 0 0 0 0 0 0 0 0 0 0 0 0 0 0 0 0 0 0 0 0 0 0 0 0 0 0 0 0 0 0 0 0 0 0 0 0 0 0 0 0 0 0 0 0 0 0 0 0 8177 0 0 0 0 0 0 0 0 0 0 0 0 0 0 0 0 0 0 0 0 0 0 0 8177 0 0 0 8177 6690 9199 3873 3873 6690 7359 0 0 0 0 0 0 0 0 0 0 0 0 0 4088 5661 5661 5256 6690 6690 6690 6690 6690 0 0 0 0 0 0 0 0 0 8177 8177 0 8177 5661 6133 5661 5256 5661 7359 7359 7359 7359 0 0 0 0 0 0 0 0 0 0 0 0 0 0 0 0 0 0 0 4906 4906 4599 4599 4906 4906 4329 4906 5256 5256 4599 5256 5256 4906 4329 4599 3679 3504 3345 3199 2725 2628 2628 2628 2725 2628 2537 2453 2537 2537 2537 2537 2374 2299 2230 2230 2164 2102 2230 2164 2102 2230 2164 2230 2299 2299 2230 2164 2230 2230 2102 2164 2044 1989 1989 1989 2044 1989 1989 1989 2044 1989 2044 1989 2102 2044 1989 1989 1936 1887 1887 1887 1887 1839 1795 1752 1752 1672 1672 1635 1635 1565 1565 1565 1635 1672 1795 1887 1936 1989 2044 2164 2230 2230 2164 2102 2044 1989 1989 1989 1936 0 1839 0 0 0 0 0 0 0 0 0 0
    0 0 0 0 0 0 0 0 0 0 0 0 0 0 0 0 0 0 0 0 0 0 0 0 0 0 0 0 0 0 0 0 0 0 0 0 0 0 0 0 0 0 0 0 0 0 0 0 0 0 0 0 0 0 0 0 0 0 0 0 0 0 0 0 0 0 0 0 0 0 0 0 0 0 0 0 0 0 0 0 0 0 0 0 0 0 0 0 0 0 0 0 0 0 0 0 0 0 0 0 0 0 0 0 0 0 0 0 0 8177 0 0 0 0 0 0 0 0 0 0 0 0 0 0 0 0 0 0 0 0 0 0 0 8177 0 0 0 8177 6133 7359 3873 4088 6690 7359 0 0 0 0 0 0 0 0 0 0 0 0 8177 3873 5661 5661 5256 6690 6690 6690 7359 6690 0 0 0 0 0 0 0 0 0 7359 8177 0 8177 6133 6690 6133 5661 5661 7359 7359 7359 7359 0 0 0 0 0 0 0 0 0 0 0 0 0 0 0 0 0 0 0 4906 4906 4906 4906 4906 5256 4088 4906 5256 5256 4906 5256 4906 4906 4329 4599 3504 3504 3345 3066 2725 2628 2628 2628 2628 2628 2537 2374 2537 2537 2537 2537 2374 2374 2299 2230 2299 2164 2230 2164 2102 2230 2164 2299 2299 2299 2230 2164 2230 2230 2164 2164 2044 1936 1989 1989 2044 1989 1989 1989 2044 1989 1989 1989 2044 2044 1989 1989 1989 1936 1887 1839 1839 1752 1752 1711 1711 1635 1635 1635 1635 1599 1599 1599 1672 1711 1839 1936 2044 2044 2102 2164 2230 2230 2230 2102 2044 1989 1989 1989 1887 1839 1752 0 0 0 0 0 0 0 0 0 0
    0 0 0 0 0 0 0 0 0 0 0 0 0 0 0 0 0 0 0 0 0 0 0 0 0 0 0 0 0 0 0 0 0 0 0 0 0 0 0 0 0 0 0 0 0 0 0 0 0 0 0 0 0 0 0 0 0 0 0 0 0 0 0 0 0 0 0 0 0 0 0 0 0 0 0 0 0 0 0 0 0 0 0 0 0 0 0 0 0 0 0 0 0 0 0 0 0 0 0 0 0 0 0 0 0 0 0 0 0 8177 0 0 0 0 0 0 0 0 0 0 0 0 0 0 0 0 0 0 0 0 0 0 8177 7359 0 6690 0 6690 5661 6133 3679 4329 6690 6690 0 0 0 0 0 0 0 0 0 0 0 0 8177 3873 5256 5256 5256 6133 6690 6690 7359 6690 0 0 0 0 8177 8177 0 0 0 7359 0 0 0 6690 7359 6690 6133 6133 8177 7359 7359 7359 0 0 0 0 0 0 0 0 0 0 0 0 0 0 0 0 0 0 4906 4906 5256 5256 5256 5256 5256 4088 4906 5256 4906 4599 4599 4599 4599 4088 4599 3504 3504 3504 3199 2725 2628 2628 2628 2628 2628 2453 2374 2537 2537 2537 2537 2453 2453 2374 2299 2374 2230 2299 2230 2164 2299 2230 2299 2299 2374 2299 2230 2230 2299 2164 2230 2102 1936 1936 1989 1989 1989 1989 1936 2044 1936 1989 1989 1989 2044 1989 1989 1989 1936 1887 1795 1795 1711 1711 1672 1672 1599 1635 1635 1635 1599 1599 1599 1672 1752 1887 1989 2044 2102 2102 2102 2230 2164 2230 2102 2044 1989 1989 1989 1887 1795 1752 1795 1839 0 0 0 0 0 0 0 0
    0 0 0 0 0 0 0 0 0 0 0 0 0 0 0 0 0 0 0 0 0 0 0 0 0 0 0 0 0 0 0 0 0 0 0 0 0 0 0 0 0 0 0 0 0 0 0 0 0 0 0 0 0 0 0 0 0 0 0 0 0 0 0 0 0 0 0 0 0 0 0 0 0 0 0 0 0 0 0 0 0 0 0 0 0 0 0 0 0 0 0 0 0 0 0 0 0 0 0 0 0 0 0 0 0 0 0 0 0 8177 0 0 0 0 0 0 0 0 0 0 0 0 0 0 0 0 0 0 0 0 0 0 8177 7359 0 6133 0 6690 5661 7359 4088 5256 7359 8177 0 0 0 0 0 0 0 0 0 0 0 0 8177 3873 5256 5256 4906 6133 6690 6690 6690 6690 0 0 0 0 8177 8177 0 0 8177 7359 0 0 0 7359 7359 6690 6690 7359 0 8177 8177 8177 0 0 0 0 0 0 0 0 0 0 0 0 0 0 0 0 0 5256 5256 4906 5256 5256 5256 5256 4906 4088 4906 5256 4599 4599 4599 4599 4599 4329 4329 3504 3504 3679 3199 2830 2628 2628 2628 2628 2628 2453 2374 2453 2537 2537 2537 2453 2453 2374 2374 2374 2230 2299 2230 2164 2299 2230 2299 2299 2299 2299 2230 2299 2230 2164 2230 2102 2044 2044 2102 2044 2102 2044 2044 2102 2044 2044 2044 1989 2044 1989 2044 2044 1989 1887 1795 1752 1672 1672 1635 1635 1599 1635 1635 1635 1635 1635 1635 1711 1752 1887 1936 1989 1989 1989 2044 2102 2102 2230 2044 1989 1936 1989 1989 1887 1839 1839 1887 1936 2044 0 2164 0 0 0 0 0
    0 0 0 0 0 0 0 0 0 0 0 0 0 0 0 0 0 0 0 0 0 0 0 0 0 0 0 0 0 0 0 0 0 0 0 0 0 0 0 0 0 0 0 0 0 0 0 0 0 0 0 0 0 0 0 0 0 0 0 0 0 0 0 0 0 0 0 0 0 5256 0 0 0 0 0 0 0 0 0 0 0 0 0 0 0 0 0 0 0 0 0 0 0 0 0 0 0 0 0 0 0 0 0 0 0 0 0 0 0 0 0 0 0 0 0 0 0 0 0 0 0 0 0 0 0 0 0 0 0 0 0 0 8177 7359 0 6133 0 6690 5661 8177 3873 5661 8177 0 0 0 0 0 0 0 0 0 0 0 0 0 8177 3873 5256 5256 4906 6133 6690 6690 6690 6690 0 0 0 0 8177 8177 0 0 8177 8177 0 0 0 7359 8177 7359 7359 8177 0 0 0 0 0 0 0 0 0 0 0 0 0 0 0 0 0 0 0 0 0 5256 5256 5256 5661 5661 5256 5661 4599 4329 4906 5256 4599 4599 4599 4599 4599 4599 4599 3679 3679 3679 3345 2943 2725 2628 2628 2725 2628 2537 2374 2537 2537 2537 2537 2453 2453 2374 2374 2453 2230 2299 2230 2230 2299 2299 2299 2299 2299 2299 2230 2299 2230 2164 2164 2164 2164 2102 2164 2164 2164 2102 2102 2102 2044 2102 2044 2044 2044 2044 2102 2164 2102 1936 1795 1711 1635 1635 1635 1635 1599 1599 1599 1635 1635 1635 1635 1672 1711 1795 1839 1887 1936 1936 1936 2044 1989 2164 1989 1989 1936 1936 1936 1887 1887 1887 1887 1936 2044 2164 2164 0 0 0 0 0
    0 0 0 0 0 0 0 0 0 0 0 0 0 0 0 0 0 0 0 0 0 0 0 0 0 0 0 0 0 0 0 0 0 0 0 0 0 0 0 0 0 0 0 0 0 0 0 0 0 0 0 0 0 0 0 0 0 0 0 0 0 0 0 0 0 0 0 0 0 5256 0 0 0 0 0 0 0 0 0 0 0 0 0 0 0 0 0 0 0 0 0 0 0 0 0 0 0 0 0 0 0 0 0 0 0 0 0 0 0 0 0 0 0 0 0 0 0 0 0 0 0 0 0 0 0 0 0 0 0 0 0 0 8177 6690 0 0 0 6690 5661 8177 3873 6133 8177 0 0 0 0 0 0 0 0 0 0 0 0 0 8177 3873 5256 5661 4906 6133 6690 6690 6690 6690 0 0 0 0 8177 8177 9199 8177 8177 8177 0 0 0 7359 8177 8177 8177 0 0 0 0 0 0 0 0 0 0 0 0 0 0 0 0 0 0 0 0 0 4906 5256 5256 5256 5661 5661 5661 4906 4599 4329 4906 4906 4599 4599 4599 4599 4906 4599 4599 3679 3679 3679 3345 3066 2725 2725 2628 2725 2628 2537 2374 2537 2537 2537 2537 2537 2374 2374 2299 2374 2164 2230 2230 2230 2299 2299 2299 2374 2299 2374 2299 2299 2230 2164 2164 2164 2164 2164 2164 2164 2164 2164 2102 2164 2044 2102 2102 2044 2044 2044 2102 2299 2164 0 0 1672 1635 1635 1635 1635 1599 1635 1635 1635 1635 1672 1635 1711 1711 1795 1839 1887 1936 1936 1936 2044 1989 2164 1989 1989 1936 1936 1936 1887 1887 1887 1839 1887 0 0 0 0 0 0 0 0
    0 0 0 0 0 0 0 0 0 0 0 0 0 0 0 0 0 0 0 0 0 0 0 0 0 0 0 0 0 0 0 0 0 0 0 0 0 0 0 0 0 0 0 0 0 0 0 0 0 0 0 0 0 0 0 0 0 0 0 0 0 0 0 0 0 0 0 0 0 5661 5661 0 0 0 0 0 0 0 0 0 0 0 0 0 0 0 0 0 0 0 0 0 0 0 0 0 0 0 0 0 0 0 0 0 0 0 0 0 0 0 0 0 0 0 0 0 0 0 0 0 0 0 0 0 0 0 0 0 0 0 0 0 0 7359 0 0 0 7359 6133 8177 3873 6690 6690 0 0 0 0 0 0 0 0 0 0 0 0 0 8177 3873 5661 5661 4906 6133 6690 6690 6690 6690 0 0 0 0 8177 8177 0 8177 7359 8177 0 0 0 7359 8177 8177 8177 0 0 0 0 0 0 0 0 0 0 0 0 0 0 0 0 0 0 0 0 4906 5256 5256 5661 5661 5661 5661 5256 5256 4906 4329 4906 4906 4599 4599 4599 4906 4906 4599 4599 3679 3679 3679 3504 3199 2830 2725 2628 2725 2628 2537 2374 2453 2453 2537 2537 2453 2374 2374 2299 2374 2164 2230 2230 2230 2299 2299 2299 2299 2299 2374 2299 2299 2230 2164 2164 2230 2230 2164 2164 2164 2164 2164 2164 2164 2102 2102 2102 2102 2044 2102 2102 2299 2230 0 0 1711 1635 1672 1672 1711 1672 1711 1711 1711 1711 1752 1711 1795 1752 1795 1839 1887 1887 1887 1936 2044 1936 2102 1989 1936 1936 1936 1936 1887 1795 1795 1635 1711 0 0 0 0 0 0 0 0
    0 0 0 0 0 0 0 0 0 0 0 0 0 0 0 0 0 0 0 0 0 0 0 0 0 0 0 0 0 0 0 0 0 0 0 0 0 0 0 0 0 0 0 0 0 0 0 0 0 0 0 0 0 0 0 0 0 0 0 0 0 0 0 0 0 0 0 0 0 6133 6133 0 0 0 0 0 0 0 0 0 0 0 0 0 0 0 0 0 0 0 0 0 0 0 0 0 0 0 0 0 0 0 0 0 0 0 0 0 0 0 0 0 0 0 0 0 0 0 0 0 0 0 0 0 0 0 0 0 0 0 0 0 0 0 0 0 0 6690 6133 7359 3873 5661 5661 0 8177 0 0 0 0 0 0 0 0 0 0 0 8177 3873 5661 5661 5256 6133 6690 6690 6690 6690 0 0 0 0 0 0 0 8177 8177 0 0 0 0 7359 8177 8177 0 0 0 0 0 0 0 0 0 0 0 0 0 0 0 0 0 0 0 0 0 4906 4906 5256 5661 5661 5661 5661 4906 5256 4906 4329 5256 4906 4599 4599 4599 4906 4906 4599 4599 3873 3873 4088 3679 3345 3066 2943 2725 2830 2725 2628 2453 2537 2537 2537 2537 2453 2453 2374 2299 2374 2230 2230 2230 2164 2299 2299 2299 2299 2230 2299 2299 2230 2230 2164 2164 2230 2230 2164 2230 2164 2164 2164 2164 2164 2102 2164 2164 2102 2102 2164 2164 2537 2374 0 0 1795 1711 1711 1752 1795 1752 1795 1795 1795 1752 1839 1795 1795 1795 1795 1839 1887 1887 1839 1839 1989 1936 2164 2044 1936 1936 1887 1887 1839 1752 1752 1565 1635 0 1635 1711 0 0 0 0 0
    0 0 0 0 0 0 0 0 0 0 0 0 0 0 0 0 0 0 0 0 0 0 0 0 0 0 0 0 0 0 0 0 0 0 0 0 0 0 0 0 0 0 0 0 0 0 0 0 0 0 0 0 0 0 0 0 0 0 0 0 0 0 0 0 0 0 0 0 0 6690 6690 7359 0 0 0 0 0 0 0 0 0 0 0 0 0 0 0 0 0 0 0 0 0 0 0 0 0 0 0 0 0 0 0 0 0 0 0 0 0 0 0 0 0 0 0 0 0 0 0 0 0 0 0 0 0 0 0 0 0 0 0 0 0 0 0 0 0 6133 5256 7359 4329 6133 6133 7359 7359 9199 8177 0 0 0 0 0 0 0 0 0 8177 3873 5661 5661 5256 6133 6690 6690 7359 6690 0 0 0 0 0 0 0 8177 8177 0 0 0 0 8177 8177 0 0 0 0 0 0 0 0 0 0 9199 0 0 0 0 0 0 0 0 0 0 4906 4906 4906 5256 6133 5661 6133 5661 5256 5256 4906 4599 4906 4329 4329 4329 4329 4599 4329 4329 4599 3873 4088 3873 3504 3345 3066 3066 2830 2725 2628 2628 2374 2537 2537 2537 2453 2453 2374 2299 2230 2374 2230 2164 2230 2164 2230 2230 2230 2230 2230 2299 2299 2164 2230 2164 2164 2164 2230 2164 2230 2230 2164 2164 2230 2164 2164 2164 2164 2164 2164 2230 2299 2628 2537 0 0 1887 1795 1795 1839 1839 1839 1839 1839 1887 1839 1936 1839 1839 1839 1839 1839 1887 1887 1839 1839 2044 1936 2230 2102 1989 1989 1936 1936 1936 1795 1839 1635 0 1711 1752 1839 0 0 0 0 0
    0 0 0 0 0 0 0 0 0 0 0 0 0 0 0 0 0 0 0 0 0 0 0 0 0 0 0 0 0 0 0 0 0 0 0 0 0 0 0 0 0 0 0 0 0 0 0 0 0 0 0 0 0 0 0 0 0 0 0 0 0 0 0 0 0 0 0 0 0 6690 7359 7359 0 0 0 0 0 0 0 0 0 0 0 0 0 0 0 0 0 0 0 0 0 0 0 0 0 0 0 0 0 0 0 0 0 0 0 0 0 0 0 0 0 0 0 0 0 0 0 0 0 0 0 0 0 0 0 0 0 0 0 0 0 0 74 73 73 0 0 0 0 0 0 0 0 0 0 0 0 0 0 0 0 0 0 0 7359 3873 5661 5661 5256 6133 6690 6690 7359 6690 0 0 0 0 0 0 0 8177 8177 0 0 0 0 8177 8177 0 0 0 0 0 0 0 0 0 0 8177 0 8177 8177 8177 8177 8177 8177 7359 0 6133 5256 4599 4906 5256 5661 5661 5256 5256 4906 5256 4906 4599 4906 4088 4329 4329 4088 4329 4088 4088 4329 4088 4329 3873 3504 3504 3345 3345 3066 2725 2725 2628 2453 2537 2537 2537 2374 2374 2374 2299 2230 2299 2164 2164 2164 2164 2164 2230 2164 2230 2230 2230 2230 2164 2230 2164 2102 2164 2230 2164 2230 2230 2164 2230 2164 2230 2164 2164 2164 2102 2164 2164 2230 2453 2164 0 0 1839 1839 1839 1887 1887 1887 1936 1936 1936 1887 1989 1936 1887 1887 1839 1887 1887 1887 1839 1795 1989 1936 2102 2102 1989 1989 1989 1989 2044 1936 2044 1795 1839 1839 1936 1936 0 0 0 0 0
    0 0 0 0 0 0 0 0 0 0 0 0 0 0 0 0 0 0 0 0 0 0 0 0 0 0 0 0 0 0 0 0 0 0 0 0 0 0 0 0 0 0 0 0 0 0 0 0 0 0 0 0 0 0 0 0 0 0 0 0 0 0 0 0 0 0 0 0 0 6690 7359 7359 0 0 0 0 0 0 0 0 0 0 0 0 0 0 0 0 0 0 0 0 0 0 0 0 0 0 0 0 0 0 0 0 0 0 0 0 0 0 0 0 0 0 0 0 0 0 0 0 0 0 0 0 0 0 0 0 0 0 0 0 0 0 0 0 0 0 0 0 0 0 0 0 0 0 0 0 0 0 0 0 0 0 0 0 7359 4088 5661 5661 5256 6133 6690 6690 7359 6690 0 8177 0 0 0 0 0 8177 8177 0 0 0 0 8177 8177 0 0 0 0 0 0 0 0 0 0 8177 0 7359 7359 7359 7359 6690 6690 6133 0 6133 4906 4599 4599 5256 5661 5661 4906 4906 4906 4906 4906 4906 4906 4088 4329 4329 4088 4088 3873 3873 3873 3873 4088 3679 3345 3504 3345 3345 3066 2725 2725 2628 2537 2628 2537 2537 2374 2374 2299 2230 2164 2230 2164 2164 2164 2164 2164 2230 2164 2230 2230 2230 2230 2230 2230 2164 2164 2230 2230 2164 2164 2164 2164 2164 2164 2230 2164 2164 2164 2102 2102 2102 2102 2164 1936 1839 1795 1839 1839 1887 1887 1887 1936 1936 1936 1989 1936 2044 1936 1936 1887 1887 1887 1936 1887 1839 1795 1936 1887 1989 2044 1989 1936 1989 2102 2164 2102 2299 1989 2164 2230 2164 2102 0 0 0 0 0
    0 0 0 0 0 0 0 0 0 0 0 0 0 0 0 0 0 0 0 0 0 0 0 0 0 0 0 0 0 0 0 0 0 0 0 0 0 0 0 0 0 0 0 0 0 0 0 0 0 0 0 0 0 0 0 0 0 0 0 0 0 0 0 0 0 0 0 0 0 7359 8177 8177 0 0 0 0 0 0 0 0 0 0 0 0 0 0 0 0 0 0 0 0 0 0 0 0 0 0 0 0 0 0 0 0 0 0 0 0 0 8177 0 0 0 0 0 0 0 0 0 0 0 8177 0 0 0 0 0 0 0 0 0 0 0 0 0 0 0 0 0 0 0 0 0 0 0 0 0 0 0 0 0 0 0 0 8177 0 6690 4088 5661 6133 5661 0 0 6690 7359 6690 0 8177 8177 0 0 0 8177 7359 7359 8177 0 0 0 7359 8177 8177 0 0 0 0 0 0 0 0 0 7359 8177 6690 6133 6133 6133 5661 5661 5661 8177 5661 4599 4599 4329 4906 5256 5256 4906 5256 4906 4906 4906 5256 4906 4088 4599 4329 3873 4088 3873 3679 3679 3679 3873 3504 3345 3345 3345 3504 3066 2830 2725 2628 2537 2537 2537 2453 2374 2374 2299 2230 2164 2164 2164 2164 2164 2164 2164 2164 2164 2164 2164 2164 2164 2230 2230 2164 2164 2230 2230 2230 2164 2164 2164 2164 2164 2164 2102 2230 2102 2102 2044 2102 1989 1936 1839 1795 1795 1839 1839 1887 1887 1887 1936 1989 1989 1989 1989 2044 1989 1989 1989 1887 1887 1936 1936 1887 1887 1989 1936 1989 2102 2044 1989 2102 2299 2374 2299 2537 2164 2453 2537 2230 2164 0 0 0 0 0
    0 0 0 0 0 0 0 0 0 0 0 0 0 0 0 0 0 0 0 0 0 0 0 0 0 0 0 0 0 0 0 0 0 0 0 0 0 0 0 0 0 0 0 0 0 0 0 0 0 0 0 0 0 0 0 0 0 0 0 0 0 0 0 0 0 0 0 0 0 0 0 0 0 0 0 0 0 0 0 0 0 0 0 0 0 0 0 0 0 0 0 0 0 0 0 0 0 0 0 0 0 0 0 0 0 0 0 0 0 7359 8177 8177 0 0 0 0 0 0 0 0 0 8177 0 0 0 0 0 0 0 0 0 0 0 0 0 0 0 0 0 0 0 0 0 0 0 0 0 0 0 0 0 0 0 0 8177 0 6690 4088 6133 6133 5661 0 0 7359 7359 6690 0 7359 8177 0 0 0 8177 7359 7359 7359 0 0 0 7359 8177 8177 0 0 0 0 0 0 0 0 0 6133 7359 6690 5256 5256 5256 4906 5256 5256 7359 5661 4906 4329 4329 4906 5256 4906 4906 4906 4599 4906 4906 4906 4906 4088 4599 4329 4088 4088 3679 3679 3504 3504 3679 3345 3066 3199 3199 3199 2943 2830 2628 2628 2453 2537 2453 2453 2374 2299 2299 2230 2164 2164 2230 2164 2164 2102 2164 2164 2102 2164 2164 2164 2164 2164 2164 2164 2164 2230 2230 2230 2164 2164 2164 2164 2164 2164 2102 2164 2102 2102 1989 1989 1887 1839 1752 1752 1752 1795 1795 1839 1887 1887 1936 1989 1989 2044 1989 2102 2102 2102 2164 2044 2102 2102 2044 2044 2044 2102 2044 2044 2164 2102 2102 2164 2374 2374 2164 2537 1887 1989 0 1989 0 0 0 0 0 0
    0 0 0 0 0 0 0 0 0 0 0 0 0 0 0 0 0 0 0 0 0 0 0 0 0 0 0 0 0 0 0 0 0 0 0 0 0 0 0 0 0 0 0 0 0 0 0 0 0 0 0 0 0 0 0 0 0 0 0 0 0 0 0 0 0 0 0 0 0 0 0 0 0 0 0 0 0 0 0 0 0 0 0 0 0 0 0 0 0 0 0 0 0 0 0 0 0 0 0 0 0 0 0 0 0 0 0 0 0 6690 8177 8177 0 0 0 0 0 0 0 0 0 8177 8177 8177 0 0 0 0 0 0 0 0 0 0 0 0 0 0 0 0 0 0 0 0 0 0 0 0 0 0 0 0 0 0 0 0 6690 4088 6133 6690 6133 0 0 7359 7359 7359 0 8177 8177 0 0 0 8177 7359 6690 7359 0 0 0 7359 8177 0 0 0 0 0 0 0 0 0 0 6133 7359 6133 5256 4906 4599 4599 4906 4906 7359 5256 5256 4088 4329 4906 5256 4599 4906 4906 4599 4906 5256 4906 4906 4088 4599 4329 4088 4088 3679 3504 3504 3504 3679 3199 3066 3066 3199 3066 2943 2725 2628 2537 2453 2453 2453 2374 2374 2230 2299 2230 2230 2230 2299 2164 2164 2102 2164 2164 2102 2102 2164 2102 2164 2164 2164 2230 2102 2230 2164 2164 2164 2164 2102 2164 2102 2102 1989 1936 1887 1839 1752 1752 1672 1672 1672 1635 1711 1752 1795 1887 1887 1936 1989 2044 2044 2102 2044 2164 2230 2230 2374 2230 2230 2164 2164 2102 2102 2164 2164 2044 2164 2164 2230 2230 2453 2453 2164 2628 1887 0 0 0 0 0 0 0 0 0
    0 0 0 0 0 0 0 0 0 0 0 0 0 0 0 0 0 0 0 0 0 0 0 0 0 0 0 0 0 0 0 0 0 0 0 0 0 0 0 0 0 0 0 0 0 0 0 0 0 0 0 0 0 0 0 0 0 0 0 0 0 0 0 0 0 0 0 0 0 0 0 0 0 0 0 0 0 0 0 0 0 0 0 0 0 0 0 0 0 0 0 0 0 0 0 0 0 0 0 0 0 0 0 0 0 8177 8177 0 0 6690 8177 8177 0 0 0 0 0 0 0 0 0 8177 8177 8177 0 0 0 0 0 0 0 0 0 0 0 0 0 0 0 0 0 0 0 0 0 0 0 0 0 0 0 0 0 0 0 0 6690 4088 6690 6690 6690 0 0 7359 8177 8177 0 8177 8177 0 0 0 8177 7359 7359 7359 0 0 0 8177 0 0 0 0 0 0 0 0 0 0 0 5661 6690 6133 4906 4599 4599 4599 4906 4906 6690 5661 5256 3873 4599 4906 5661 4906 4906 4906 4906 4906 5256 4906 4906 4088 4599 4329 3873 3873 3504 3504 3345 3345 3504 3199 2943 3066 3066 3066 2830 2725 2628 2453 2374 2453 2453 2374 2299 2230 2299 2164 2230 2164 2230 2102 2102 2102 2164 2102 2102 2102 2164 2102 2164 2102 2164 2164 2102 2230 2164 2164 2164 2102 2102 2102 2044 2044 1936 1839 1752 1711 1635 1599 1565 1599 1599 1565 1711 1752 1795 1887 1936 1989 2044 2044 2102 2164 2102 2230 2299 2299 2453 2374 2374 2230 2230 2164 2164 2164 2164 2044 2102 2102 2164 2164 2453 2374 2164 2453 1989 0 0 2102 2164 0 0 0 0 0
    0 0 0 0 0 0 0 0 0 0 0 0 0 0 0 0 0 0 0 0 0 0 0 0 0 0 0 0 0 0 0 0 0 0 0 0 0 0 0 0 0 0 0 0 0 0 0 0 0 0 0 0 0 0 0 0 0 0 0 0 0 0 0 0 0 0 0 0 0 0 0 0 0 0 0 0 0 0 0 0 0 0 0 0 0 0 0 0 0 0 0 0 0 0 0 0 0 0 0 0 0 0 0 0 0 8177 8177 0 0 6690 8177 8177 0 0 0 0 0 0 0 0 0 8177 6690 7359 8177 8177 0 0 0 0 0 0 0 0 0 0 0 0 0 0 0 0 7359 0 0 0 0 0 0 0 0 0 0 0 0 0 6690 4329 6133 6690 6690 6690 6690 7359 8177 8177 0 8177 8177 0 0 0 8177 7359 7359 7359 0 0 0 0 0 0 0 0 0 0 0 0 0 0 0 5661 6690 6133 4906 4329 4599 4599 4599 4906 6690 5661 5256 3873 4599 4599 5256 4906 4906 4906 4906 4906 5256 4906 4906 4088 4599 4329 3873 3679 3504 3504 3345 3345 3345 3066 2943 2943 3066 3066 2830 2725 2628 2453 2374 2453 2453 2374 2230 2230 2230 2164 2164 2164 2164 2102 2102 2102 2164 2102 2102 2044 2102 2044 2102 2102 2164 2164 2102 2164 2164 2164 2164 2102 2102 2044 1989 1989 1887 1711 1672 1635 1565 1533 1533 1565 1565 1565 1711 1752 1795 1887 1936 1936 1989 2044 2102 2164 2102 2230 2299 2299 2453 2453 2453 2299 2230 2164 2164 2164 2102 2044 2102 2044 2102 2102 2230 2164 2044 2299 2164 2453 2943 2453 2537 0 0 0 0 0
    0 0 0 0 0 0 0 0 0 0 0 0 0 0 0 0 0 0 0 0 0 0 0 0 0 0 0 0 0 0 0 0 0 0 0 0 0 0 0 0 0 0 0 0 0 0 0 0 0 0 0 0 0 0 0 0 0 0 0 0 0 0 0 0 0 0 0 0 0 0 0 0 0 0 0 0 0 0 0 0 0 0 0 0 0 0 0 0 0 0 0 0 0 0 0 0 0 0 0 0 0 0 0 0 0 0 8177 0 0 7359 0 0 0 0 0 0 0 0 0 0 0 8177 6690 7359 8177 8177 0 0 0 0 0 0 0 0 0 0 0 0 0 0 0 0 0 0 0 0 0 0 0 0 0 0 0 0 0 0 6690 4329 6133 6690 6133 6690 6690 7359 8177 7359 0 8177 8177 0 0 0 8177 7359 7359 7359 0 0 0 0 0 0 0 0 0 0 0 0 0 0 0 5661 6690 6133 4599 4329 4599 4599 4599 4906 6690 5661 5256 3679 4599 4906 4906 4599 4906 4906 4906 4906 5256 4906 4599 4088 4329 4088 3679 3504 3345 3345 3199 3199 3199 3066 2943 2943 3066 2943 2830 2628 2537 2453 2374 2453 2453 2299 2230 2164 2164 2102 2164 2102 2164 2044 2044 2102 2164 2164 2102 2044 2164 2102 2102 2102 2164 2164 2164 2230 2164 2164 2164 2102 2102 2044 1936 1936 1839 1565 1635 1565 1471 1443 1471 1501 1501 1501 1711 1711 1752 1839 1887 1936 1989 1989 2044 2044 2044 2102 2102 2164 2374 2299 2299 2230 2164 2102 2164 2164 2044 1989 1989 1989 1936 1936 2044 1936 1887 1887 1989 1887 2725 2453 2628 0 0 0 0 0
    0 0 0 0 0 0 0 0 0 0 0 0 0 0 0 0 0 0 0 0 0 0 0 0 0 0 0 0 0 0 0 0 0 0 0 0 0 0 0 0 0 0 0 0 0 0 0 0 0 0 0 0 0 0 0 0 0 0 0 0 0 0 0 0 0 0 0 0 0 0 0 0 0 0 0 0 0 0 0 0 0 0 0 0 0 0 0 0 0 0 0 0 0 0 0 0 0 0 0 0 0 0 0 0 0 0 0 0 0 7359 0 0 0 0 0 0 0 0 0 0 0 8177 7359 7359 0 0 0 0 0 0 0 0 0 0 0 0 0 0 0 0 0 0 0 0 0 0 0 0 0 0 0 0 0 0 0 0 6133 4088 6133 6133 6133 6690 6690 7359 7359 7359 0 8177 8177 0 0 0 8177 7359 7359 7359 0 0 0 0 0 0 0 0 0 0 0 0 0 0 0 5256 6690 6133 4906 4599 4599 4599 4906 4906 7359 6133 4906 3873 4599 4599 4906 4599 4599 4906 4906 4906 5256 4906 4599 4088 4329 4088 3679 3504 3504 3345 3199 3066 3199 2943 2830 2943 2943 2830 2725 2628 2537 2374 2299 2374 2374 2230 2230 2164 2164 2102 2164 2102 2164 2102 2102 2164 2230 2230 2230 2164 2230 2164 2164 2164 2164 2230 2164 2230 2164 2102 2164 2102 2102 2044 1887 1887 1752 1501 1533 1471 1415 1415 1415 1443 1471 1471 1635 1635 1711 1752 1839 1936 1936 1936 1989 1936 1936 1989 1936 1989 2044 2102 2102 2044 2044 1989 2044 2102 1989 1936 1936 1887 1839 1795 1839 1752 1635 1635 1599 1599 0 1887 2628 0 0 0 0 0
    0 0 0 0 0 0 0 0 0 0 0 0 0 0 0 0 0 0 0 0 0 0 0 0 0 0 0 0 0 0 0 0 0 0 0 0 0 0 0 0 0 0 0 0 0 0 0 0 0 0 0 0 0 0 0 0 0 0 0 0 0 0 0 0 0 0 0 0 0 0 0 0 0 0 0 0 0 0 0 0 0 0 0 0 0 0 0 0 0 0 0 0 0 0 0 0 0 0 0 0 0 0 0 0 0 0 0 0 0 8177 0 0 0 0 0 0 0 0 0 0 0 0 8177 8177 0 0 0 0 0 0 0 0 0 8177 0 7359 0 0 0 0 0 836 0 0 0 0 0 0 0 0 0 0 0 0 0 0 6133 4088 5661 6133 5661 6133 6690 6690 7359 7359 0 8177 8177 0 0 0 8177 8177 8177 7359 0 0 0 0 0 0 0 0 0 0 0 0 0 0 0 5256 6133 6133 4906 4599 4599 4599 4906 4906 6690 5661 5661 4088 4906 4906 4906 4906 4906 5256 4906 4906 5256 4906 4906 4088 4329 4088 3873 3679 3504 3345 3199 3199 3199 2943 2830 2830 2830 2830 2628 2628 2453 2299 2230 2299 2299 2164 2164 2164 2102 2102 2164 2102 2102 2102 2164 2230 2299 2374 2374 2230 2374 2230 2230 2230 2230 2299 2164 2230 2164 2102 2102 2102 2044 1936 1839 1795 1672 1443 1471 1415 1388 1388 1415 1443 1443 1443 1599 1565 1635 1672 1752 1839 1839 1839 1887 1839 1887 1887 1839 1887 1936 1989 1989 1936 1989 1936 1989 2044 1989 1887 1887 1839 1795 1711 1711 1599 1501 1501 1443 1471 1501 1635 0 0 0 0 0 0
    0 0 0 0 0 0 0 0 0 0 0 0 0 0 0 0 0 0 0 0 0 0 0 0 0 0 0 0 0 0 0 0 0 0 0 0 0 0 0 0 0 0 0 0 0 0 0 0 0 0 0 0 0 0 0 0 0 0 0 0 0 0 0 0 0 0 0 0 0 0 0 0 0 0 0 0 0 0 0 0 0 0 0 0 0 0 0 0 0 0 0 0 0 0 0 0 0 0 0 0 0 0 0 0 0 0 0 0 0 8177 0 0 0 0 0 0 0 0 0 0 0 0 0 0 0 0 0 0 0 0 0 0 0 8177 0 7359 0 0 0 0 0 0 0 0 0 0 0 0 0 0 0 0 0 0 0 0 6690 4088 5661 6133 5661 6690 6690 6690 7359 7359 0 0 0 0 0 0 0 8177 8177 8177 0 0 0 0 0 0 0 0 0 0 0 0 0 0 0 4906 6133 6133 4906 4599 4906 4906 4906 4906 6690 5256 5256 4329 5256 4599 4906 4906 5256 5256 5256 4906 5256 4599 4599 3873 4088 3873 3679 3504 3504 3345 3199 3199 3345 3066 2830 2943 2943 2725 2628 2537 2453 2230 2164 2230 2230 2102 2164 2102 2044 2044 2102 2102 2102 2044 2164 2164 2374 2453 2453 2374 2453 2299 2299 2230 2230 2299 2164 2164 2102 2044 2102 2044 2044 1887 1711 1635 1565 1388 1443 1415 1388 1388 1388 1415 1443 1415 1565 1501 1533 1565 1672 1711 1752 1752 1839 1752 1795 1795 1752 1795 1839 1887 1887 1839 1936 1887 1936 2044 1936 1839 1795 1752 1711 1635 1635 1533 1443 1443 1415 1415 1443 1533 1635 0 0 0 0 0
    0 0 0 0 0 0 0 0 0 0 0 0 0 0 0 0 0 0 0 0 0 0 0 0 0 0 0 0 0 0 0 0 0 0 0 0 0 0 0 0 0 0 0 0 0 0 0 0 0 0 0 0 0 0 0 0 0 0 0 0 0 0 0 0 0 0 0 0 0 0 0 0 0 0 0 0 0 0 0 0 0 0 0 0 0 0 0 0 0 0 0 0 0 0 0 0 0 0 0 0 0 0 0 0 0 0 0 0 0 8177 0 0 0 0 0 0 0 0 0 0 0 0 0 0 0 0 0 0 0 0 0 0 0 8177 0 8177 0 0 0 0 0 0 0 6133 0 0 0 0 0 0 0 0 0 0 0 0 6690 4088 6133 6133 5661 6690 6690 6690 7359 7359 0 0 0 0 0 0 0 0 0 8177 0 0 0 0 0 0 0 0 0 0 0 0 0 0 0 4906 6133 6133 4906 4599 4906 4906 5256 5256 6690 5256 5256 4329 5256 4599 4906 4906 5256 5256 5256 4906 4906 4599 4599 3873 3873 3679 3504 3504 3345 3345 3199 3066 3199 2943 2830 2830 2830 2725 2628 2453 2453 2299 2164 2230 2230 2102 2102 2044 1989 1989 2044 2044 2044 2044 2164 2164 2299 2453 2453 2453 2453 2374 2374 2230 2299 2230 2164 2102 2044 1989 2102 1989 1989 1839 1635 1501 1443 1362 1388 1388 1362 1362 1388 1388 1415 1388 1501 1415 1443 1471 1533 1635 1635 1635 1795 1672 1711 1672 1635 1711 1711 1795 1795 1752 1839 1839 1887 1936 1839 1711 1672 1672 1599 1533 1501 1501 1415 1415 1388 1388 1388 1443 1471 0 0 0 0 0
    0 0 0 0 0 0 0 0 0 0 0 0 0 0 0 0 0 0 0 0 0 0 0 0 0 0 0 0 0 0 0 0 0 0 0 0 0 0 0 0 0 0 0 0 0 0 0 0 0 0 0 0 0 0 0 0 0 0 0 0 0 0 0 0 0 0 0 0 0 0 0 0 0 0 0 0 0 0 0 0 0 0 0 0 0 0 0 0 0 0 0 0 0 0 0 0 0 0 0 0 0 0 0 0 0 0 0 0 0 0 0 0 0 0 0 0 0 0 0 0 0 0 0 0 0 0 0 0 0 0 0 0 0 0 0 0 0 0 0 0 0 0 0 6690 0 0 0 0 0 0 0 0 0 0 0 5661 6690 4088 6133 6133 5661 6690 6690 6690 7359 7359 0 0 0 0 0 0 0 0 0 0 0 0 0 0 0 0 0 0 0 0 0 0 0 0 0 4599 5661 6133 4906 4599 4906 4906 4906 4906 6690 4906 5256 4329 4906 4599 4906 4906 5256 5256 5661 4906 4906 4599 4329 3679 3679 3504 3504 3345 3345 3345 3345 3199 3504 3066 3066 2943 2943 2725 2628 2453 2453 2230 2164 2230 2164 2102 2044 2044 1989 1989 2044 2044 2044 2044 2102 2230 2299 2453 2537 2453 2537 2453 2453 2374 2230 2230 2102 1989 1989 1936 1989 1936 1936 1795 1501 1471 1443 1362 1388 1388 1388 1388 1388 1415 1415 1362 1471 1362 1388 1388 1443 1501 1501 1533 1752 1565 1635 1565 1533 1635 1599 1672 1672 1635 1711 1752 1752 1839 1672 1599 1533 1533 1471 1471 1443 1443 1388 1415 1362 1362 1362 1388 1415 0 0 0 0 0
    0 0 0 0 0 0 0 0 0 0 0 0 0 0 0 0 0 0 0 0 0 0 0 0 0 0 0 0 0 0 0 0 0 0 0 0 0 0 0 0 0 0 0 0 0 0 0 0 0 0 0 0 0 0 0 0 0 0 0 0 0 0 0 0 0 0 0 0 0 0 0 0 0 0 0 0 0 0 0 0 0 0 0 0 0 0 0 0 0 0 0 0 0 0 0 0 0 0 0 0 0 0 0 0 0 0 0 0 0 0 0 0 0 0 0 0 0 0 0 0 0 0 0 0 0 0 0 0 0 0 0 0 0 0 0 0 0 0 0 0 0 0 0 7359 0 0 0 0 0 0 0 0 0 0 0 6690 7359 4329 6133 6133 5661 6133 6690 6690 7359 6690 0 0 0 0 0 0 0 0 0 0 0 0 0 0 0 0 0 0 0 9199 9199 9199 0 0 0 4088 5661 5661 4906 4599 4906 4906 4906 4599 6690 5256 5256 4906 4906 4906 4906 5256 5256 5661 5661 4906 4906 4599 4088 3679 3504 3345 3345 3199 3199 3199 3199 3199 3345 3199 3066 2943 2943 2830 2628 2453 2453 2230 2102 2230 2164 2102 1989 2044 1989 1936 1989 2044 1989 2044 2102 2299 2299 2453 2537 2453 2537 2537 2453 2453 2230 2164 2164 1989 1936 1887 1936 1887 1887 1711 1443 1443 1415 1338 1388 1388 1362 1362 1388 1388 1388 1362 1443 1362 1388 1388 1415 1415 1415 1415 1599 1443 1471 1443 1443 1501 1471 1533 1533 1501 1565 1599 1501 0 0 1443 1415 1415 1388 1415 1388 1415 1362 1388 1362 1362 1362 1388 1388 0 0 0 0 0
    0 0 0 0 0 0 0 0 0 0 0 0 0 0 0 0 0 0 0 0 0 0 0 0 0 0 0 0 0 0 0 0 0 0 0 0 0 0 0 0 0 0 0 0 0 0 0 0 0 0 0 0 0 0 0 0 0 0 0 0 0 0 0 0 0 0 0 0 0 0 0 0 0 0 0 0 0 0 0 0 0 0 0 0 0 0 0 0 0 0 0 0 0 0 0 0 0 0 0 0 0 0 0 0 0 0 0 0 0 0 0 0 0 0 0 0 0 0 0 0 0 0 0 0 0 0 0 0 0 0 0 0 0 0 0 0 0 0 0 0 0 0 0 8177 0 0 0 0 0 0 0 0 0 0 0 6690 7359 4329 6133 6133 5256 6133 6690 6690 6690 6690 0 0 0 0 0 0 0 0 0 0 0 0 0 0 0 0 0 0 0 8177 8177 8177 0 8177 8177 4088 5661 5661 4599 4906 4906 4906 4599 4599 6690 4906 5256 5256 5256 4906 5256 5661 5661 5661 5661 4906 4599 4329 3873 3504 3345 3345 3199 3199 3199 3199 3345 3345 3504 3199 3199 3199 2943 2830 2628 2537 2453 2299 2102 2164 2102 2102 1989 2044 1936 1989 1989 2044 2044 2102 2102 2374 2374 2537 2537 2537 2628 2537 2453 2537 2299 2299 2164 1989 1936 1839 1887 1839 1839 1635 1443 1415 1388 1338 1362 1362 1362 1362 1362 1362 1362 1338 1415 1362 1388 1388 1388 1388 1388 1388 1533 1388 1415 1388 1388 1443 1443 1471 1471 1471 1501 1533 1415 0 0 0 1362 1362 1362 1362 1362 1415 1362 1388 1362 1362 0 1362 1362 0 0 0 0 0
    0 0 0 0 0 0 0 0 0 0 0 0 0 0 0 0 0 0 0 0 0 0 0 0 0 0 0 0 0 0 0 0 0 0 0 0 0 0 0 0 0 0 0 0 0 0 0 0 0 0 0 0 0 0 0 0 0 0 0 0 0 0 0 0 0 0 0 0 0 0 0 0 0 0 0 0 0 0 0 0 0 0 0 0 0 0 0 0 0 0 0 0 0 0 0 0 0 0 0 0 0 0 0 0 0 0 0 0 0 0 0 0 0 0 0 0 0 0 0 0 0 0 0 0 0 0 0 0 0 0 0 0 0 0 0 0 0 0 0 0 0 0 0 0 0 0 0 0 0 0 0 0 0 0 0 0 7359 4599 6133 6690 5661 6690 6690 6690 7359 6690 0 0 0 0 0 0 0 0 0 0 0 0 0 0 0 0 0 0 0 7359 7359 7359 0 8177 8177 3873 5661 5661 4599 4906 4906 4906 4329 4599 6690 4599 5256 5256 5256 4906 5256 5661 5661 5661 5661 4906 4599 4088 3873 3345 3199 3199 3199 3199 3199 3199 3345 3345 3504 3345 3345 3199 3066 2943 2725 2537 2537 2374 2164 2230 2102 2102 2044 2044 1989 1989 1989 2044 2044 2164 2164 2374 2374 2537 2537 2537 2628 2537 2537 2628 2374 2374 2164 1936 1887 1795 1839 1752 1752 1565 1443 1415 1388 1338 1362 1362 1362 1362 1362 1338 1362 1314 1388 1362 1388 1388 1388 1388 1388 1388 1471 1362 1388 1362 1388 1443 1415 1443 1443 1443 1471 1533 1388 0 0 0 1338 1362 1338 1362 0 1388 1338 1362 1338 0 0 0 0 0 0 0 0 0
    0 0 0 0 0 0 0 0 0 0 0 0 0 0 0 0 0 0 0 0 0 0 0 0 0 0 0 0 0 0 0 0 0 0 0 0 0 0 0 0 0 0 0 0 0 0 0 0 0 0 0 0 0 0 0 0 0 0 0 0 0 0 0 0 0 0 0 0 0 0 0 0 0 0 0 0 0 0 0 0 0 0 0 0 0 0 0 0 0 0 0 0 0 0 0 0 0 0 0 0 0 0 0 0 0 0 0 0 0 0 0 0 0 0 0 0 0 0 0 0 0 0 0 0 0 0 0 0 0 0 0 0 0 0 0 0 0 0 0 0 0 0 0 0 0 0 0 0 0 0 0 0 0 0 0 0 8177 4599 6690 6690 5661 6690 7359 7359 7359 7359 0 0 0 0 0 0 0 0 0 0 0 0 0 0 0 0 0 0 0 7359 7359 7359 0 8177 8177 3679 5661 5661 4906 4906 4906 4906 4599 4906 6690 5256 5661 5256 5661 4906 5256 5661 5661 5661 5661 4906 4599 4088 4088 3345 3345 3199 3199 3199 3199 3345 3504 3345 3504 3345 3345 3199 3066 2943 2725 2628 2628 2453 2230 2230 2102 2102 2044 2044 1989 1936 1989 2044 2044 2164 2164 2374 2374 2537 2537 2537 2537 2537 2537 2537 2374 2374 2102 1936 1795 1795 1795 1711 1672 1501 1415 1415 1388 1362 1388 1388 1388 1362 1388 1362 1388 1338 1415 1362 1388 1388 1388 1388 1415 1415 1501 1362 1388 1362 1388 1415 1415 1443 1415 1443 1471 1501 1362 0 0 0 0 1338 0 0 0 1388 1338 1362 1362 0 0 0 0 0 0 0 0 0
    0 0 0 0 0 0 0 0 0 0 0 0 0 0 0 0 0 0 0 0 0 0 0 0 0 0 0 0 0 0 0 0 0 0 0 0 0 0 0 0 0 0 0 0 0 0 0 0 0 0 0 0 0 0 0 0 0 0 0 0 0 0 0 0 0 0 0 0 0 0 0 0 0 0 0 0 0 0 0 0 0 0 0 0 0 0 0 0 0 0 0 0 0 0 0 0 0 0 0 0 0 0 0 0 0 0 0 0 0 0 0 0 0 0 0 0 0 0 0 0 0 0 0 0 0 0 0 0 0 0 0 0 0 0 0 0 0 0 0 0 0 0 0 8177 0 0 0 0 0 0 0 0 0 0 0 0 8177 4906 7359 7359 6133 7359 7359 7359 7359 7359 0 0 0 0 0 0 0 0 0 0 0 0 0 0 0 0 0 0 0 8177 7359 7359 0 8177 8177 3873 5661 5661 5256 5661 5661 5661 5256 5256 7359 5661 6133 5661 5661 4906 5661 5661 5661 5661 6133 5256 4906 3873 4329 3345 3199 3199 3199 3199 3199 3199 3345 3199 3345 3199 3345 3345 3066 2943 2725 2628 2628 2453 2299 2230 2102 2102 2044 2044 1936 1936 1936 2044 1989 2044 2102 2299 2299 2453 2453 2453 2453 2537 2453 2537 2374 2299 2044 1839 1752 1711 1672 1599 1565 1471 1415 1415 1415 1362 1388 1388 1415 1388 1415 1388 1415 1338 1443 1362 1388 1388 1388 1388 1415 1415 1533 1388 1388 0 1388 1415 1415 1415 1388 1415 1415 1443 1338 0 0 0 0 0 0 0 0 0 0 0 0 327 328 328 328 0 0 0 0 0
    0 0 0 0 0 0 0 0 0 0 0 0 0 0 0 0 0 0 0 0 0 0 0 0 0 0 0 0 0 0 0 0 0 0 0 0 0 0 0 0 0 0 0 0 0 0 0 0 0 0 0 0 0 0 0 0 0 0 0 0 0 0 0 0 0 0 0 0 0 0 0 0 0 0 0 0 0 0 0 0 0 0 0 0 0 0 0 0 0 0 0 0 0 0 0 0 0 0 0 0 0 0 0 0 0 0 0 0 0 0 0 0 0 0 0 0 0 0 0 0 0 0 0 0 0 0 0 0 0 0 0 0 0 0 0 0 0 0 0 0 0 0 0 0 0 0 0 0 0 0 0 0 0 0 0 0 8177 5256 7359 8177 6690 0 7359 8177 8177 8177 0 0 0 0 0 0 0 0 0 0 0 0 0 0 0 0 0 0 0 8177 8177 8177 0 8177 0 3679 6133 5661 4906 5256 5661 5661 5256 5256 6690 5661 5661 5661 5661 4906 5256 5661 5661 5661 5661 5256 4906 3873 4329 3345 3199 3199 3199 3199 3199 3199 3504 3199 3199 3345 3345 3345 3066 2943 2830 2725 2725 2537 2374 2299 2164 2164 2044 1989 1936 1936 1936 2044 1989 2044 2044 2299 2230 2374 2453 2453 2374 2453 2453 2537 2299 2299 1989 1752 1711 1635 1599 1501 1533 1471 1415 1415 1415 1388 1415 1415 1443 1415 1443 1415 1415 1338 1443 1362 1388 1388 1388 1388 1415 1415 1533 1388 1388 0 1388 0 0 0 0 1388 1415 1415 1291 0 0 327 327 0 0 0 0 334 0 0 0 327 328 328 327 0 0 0 0 0
    0 0 0 0 0 0 0 0 0 0 0 0 0 0 0 0 0 0 0 0 0 0 0 0 0 0 0 0 0 0 0 0 0 0 0 0 0 0 0 0 0 0 0 0 0 0 0 0 0 0 0 0 0 0 0 0 0 0 0 0 0 0 0 0 0 0 0 0 0 0 0 0 0 0 0 0 0 0 0 0 0 0 0 0 0 0 0 0 0 0 0 0 0 0 0 0 0 0 0 0 0 0 0 0 0 0 0 0 0 0 0 0 0 0 0 0 0 0 0 0 0 0 0 0 0 0 0 0 0 0 0 0 0 8177 0 0 0 0 0 0 0 0 0 0 0 0 0 0 0 0 0 0 0 0 0 0 7359 5256 8177 8177 6690 0 8177 8177 8177 8177 0 0 0 0 0 0 0 0 0 0 0 0 0 0 0 0 0 0 0 0 0 0 0 0 8177 4088 6133 6133 4599 5256 5661 5256 5256 5256 6690 5256 5256 5661 5256 4599 5256 5661 5256 5256 5256 5256 4906 3873 4599 3504 3345 3345 3345 3345 3199 3345 3504 3199 3199 3345 3199 3199 2943 2943 2725 2725 2725 2628 2453 2374 2164 2230 2044 1989 1936 1936 1936 1989 1989 2044 1989 2299 2230 2374 2453 2374 2374 2453 2374 2537 2299 2164 1887 1672 1635 1565 1533 1471 1501 1443 1415 1443 1443 1388 1443 1443 1471 1415 1443 1443 1415 1338 1471 1362 1388 1388 1415 1415 1443 1415 1533 1362 1388 0 1388 1388 0 0 0 1388 1415 1443 1291 0 0 0 0 0 0 0 0 334 0 0 328 327 327 327 327 0 0 0 0 0
    0 0 0 0 0 0 0 0 0 0 0 0 0 0 0 0 0 0 0 0 0 0 0 0 0 0 0 0 0 0 0 0 0 0 0 0 0 0 0 0 0 0 0 0 0 0 0 0 0 0 0 0 0 0 0 0 0 0 0 0 0 0 0 0 0 0 0 0 0 0 0 0 0 0 0 0 0 0 0 0 0 0 0 0 0 0 0 0 0 0 0 0 0 0 0 0 0 0 0 0 0 0 0 0 0 0 0 0 0 0 0 0 0 0 0 0 0 0 0 0 0 0 0 0 0 0 0 0 0 0 0 0 0 8177 7359 7359 9199 0 0 0 0 0 0 0 0 0 0 0 0 0 0 0 0 0 0 6690 7359 5661 8177 8177 6690 8177 8177 8177 8177 8177 0 0 0 0 0 0 0 0 0 0 0 0 0 0 0 0 0 0 0 0 0 0 0 0 8177 4599 6690 5661 4599 5256 5661 5256 5256 5661 6690 5661 5661 5661 5661 4599 5256 5256 5256 5256 5256 5256 4599 3679 4599 3679 3504 3504 3504 3504 3345 3345 3504 3199 3199 3199 3066 3066 2830 2943 2830 2830 2830 2725 2628 2453 2299 2299 2044 2044 1936 1936 1936 1989 1989 1989 1989 2299 2230 2299 2374 2299 2299 2374 2299 2374 2102 1989 1795 1635 1635 1565 1533 1501 1533 1471 1415 1471 1471 1388 1471 1443 1501 1443 1501 1471 1415 1338 1471 1362 1415 1415 1415 1415 1443 1443 1533 1362 1362 0 1388 1388 1388 1388 1388 1415 1415 1471 1314 0 0 0 0 0 0 0 190 334 0 0 0 0 0 0 0 0 0 0 0 0
    0 0 0 0 0 0 0 0 0 0 0 0 0 0 0 0 0 0 0 0 0 0 0 0 0 0 0 0 0 0 0 0 0 0 0 0 0 0 0 0 0 0 0 0 0 0 0 0 0 0 0 0 0 0 0 0 0 0 0 0 0 0 0 0 0 0 0 0 0 0 0 0 0 0 0 0 0 0 0 0 0 0 0 0 0 0 0 0 0 0 0 0 0 0 0 0 0 0 0 0 0 0 0 0 0 0 0 0 0 0 0 0 0 0 0 0 0 0 0 0 0 0 0 0 0 0 0 8177 0 0 0 8177 0 7359 6690 6690 7359 8177 0 0 0 0 0 0 0 0 0 0 0 0 0 0 0 0 0 6690 7359 5661 8177 8177 6690 8177 8177 8177 0 0 0 0 0 0 0 0 0 0 0 0 0 0 0 0 0 0 0 0 0 0 0 0 0 8177 7359 5256 6690 6133 5256 5661 5661 5661 5661 5661 6133 5256 5661 5661 5661 4599 5256 5256 5256 4906 5256 4906 4906 3873 4906 3873 3504 3504 3345 3504 3199 3199 3345 2943 3066 3066 3066 3066 2943 2943 2943 2943 2943 2830 2725 2628 2453 2374 2164 2102 1989 1936 1936 1989 1989 1989 1989 2230 2164 2299 2374 2299 2299 2230 2102 2102 1887 1839 1711 1599 1599 1533 1565 1533 1533 1471 1443 1471 1471 1388 1471 1443 1501 1415 1533 1443 1443 1362 1471 1388 1415 1415 1415 1443 1443 0 1501 1362 1362 0 1388 1388 1388 1388 1388 1415 1443 1501 1338 0 0 0 0 0 0 190 190 0 0 0 0 0 0 0 0 0 0 0 0 0
    0 0 0 0 0 0 0 0 0 0 0 0 0 0 0 0 0 0 0 0 0 0 0 0 0 0 0 0 0 0 0 0 0 0 0 0 0 0 0 0 0 0 0 0 0 0 0 0 0 0 0 0 0 0 0 0 0 0 0 0 0 0 0 0 0 0 0 0 0 0 0 0 0 0 0 0 0 0 0 0 0 0 0 0 0 0 0 0 0 0 0 0 0 0 0 0 0 0 0 0 0 0 0 0 0 0 0 0 0 0 0 0 0 0 0 0 0 0 0 0 0 0 0 0 0 0 8177 8177 8177 8177 8177 7359 8177 6690 6133 5661 6690 7359 8177 8177 0 0 0 0 0 0 0 0 0 0 0 0 0 0 0 6690 6690 5661 8177 8177 6690 8177 8177 0 0 0 0 0 0 0 8177 8177 8177 0 0 0 0 0 0 0 0 0 0 0 0 0 0 0 0 7359 6690 5256 6133 5661 5256 5661 5256 5256 5661 5661 6133 5661 5661 5256 5661 4599 5256 5256 5256 5256 5256 4906 5256 3873 5256 4088 3679 3504 3504 3345 3199 3199 3345 2943 3066 3066 3066 3066 2943 2943 2943 2943 3066 2943 2830 2725 2628 2453 2299 2164 1989 1989 1936 1989 1989 1936 1989 2164 2164 2374 2374 2299 2164 2102 1989 1936 1752 1711 1599 1533 1599 1533 1565 1533 1533 1501 1471 1501 1471 1388 1501 1443 1501 1443 1533 1443 1443 1362 1471 0 1415 1415 1415 1415 1443 1443 1501 1362 1338 0 1388 1388 1388 1388 1362 1415 1415 1501 1362 0 0 0 0 0 0 0 190 0 0 0 132 131 0 0 0 0 0 0 0 0
    0 0 0 0 0 0 0 0 0 0 0 0 0 0 0 0 0 0 0 0 0 0 0 0 0 0 0 0 0 0 0 0 0 0 0 0 0 0 0 0 0 0 0 0 0 0 0 0 0 0 0 0 0 0 0 0 0 0 0 0 0 0 0 0 0 0 0 0 0 0 0 0 0 0 0 0 0 0 0 0 0 0 0 0 0 0 0 0 0 0 0 0 0 0 0 0 0 0 0 0 0 0 0 0 0 0 0 0 0 0 0 0 0 0 0 0 0 0 0 0 0 0 0 0 0 0 8177 8177 8177 8177 8177 7359 8177 6690 5661 5661 6133 6690 6690 7359 0 0 0 0 0 0 0 0 0 0 0 0 0 0 8177 6133 6690 5256 7359 8177 6690 8177 8177 0 0 0 0 0 0 0 8177 8177 8177 0 0 0 0 0 0 0 0 0 0 0 0 0 0 0 0 6690 6133 5661 6133 5256 4599 5256 4906 5256 5661 5661 5661 5661 5661 5661 5661 4906 5256 5256 5256 5256 4906 4906 4906 3679 4906 3873 3504 3504 3345 3345 3199 3066 3199 2943 2943 2943 2943 2943 2943 2943 3066 2943 3066 2943 2943 2830 2830 2453 2374 2164 1989 1989 1989 1989 1936 1887 1936 2102 2164 2374 2299 2164 2044 1989 1839 1795 1635 1635 1533 1501 1565 1501 1565 1533 1533 1533 1501 1501 1501 1415 1533 1471 1565 1471 1599 1471 1501 1362 1501 0 1443 1415 1415 1415 1443 1415 1471 1362 1338 0 1362 1388 1388 1362 1362 1415 1415 1501 1388 0 0 0 0 0 0 0 0 0 1362 1338 132 131 131 130 131 0 0 0 0 0
    0 0 0 0 0 0 0 0 0 0 0 0 0 0 0 0 0 0 0 0 0 0 0 0 0 0 0 0 0 0 0 0 0 0 0 0 0 0 0 0 0 0 0 0 0 0 0 0 0 0 0 0 0 0 0 0 0 0 0 0 0 0 0 0 0 0 0 0 0 0 0 0 0 0 0 0 0 0 0 0 0 0 0 0 0 0 0 0 0 0 0 0 0 0 0 0 0 0 0 0 0 0 0 0 0 0 0 0 0 0 0 0 0 0 0 0 0 0 0 0 0 0 0 0 0 0 8177 8177 8177 8177 8177 7359 8177 6690 5661 5661 6690 7359 7359 0 0 0 0 0 0 0 0 0 0 0 0 0 0 0 8177 6133 6133 5256 8177 8177 6690 8177 8177 0 0 0 0 0 0 0 8177 8177 0 0 0 0 0 0 0 0 0 0 0 0 0 0 0 0 0 6133 5661 5661 6133 5256 4329 4906 4329 4599 5256 5256 4906 4906 4906 5256 5661 4906 5256 5256 5256 5256 4906 4906 4906 3873 4906 3873 3504 3504 3345 3345 3199 2943 3066 2830 2943 2943 2943 2943 2943 2943 3199 3066 3199 3066 2943 2830 2830 2537 2453 2164 1989 1989 1989 1989 1936 1839 1887 2044 2044 2230 2102 2044 1936 1839 1711 1711 1565 1599 1565 1533 1565 1533 1565 1533 1533 1533 1501 1501 1533 1415 1533 1501 1599 1501 1635 1501 1501 1388 1501 0 0 0 1415 1415 1443 1415 1443 1338 1338 0 1362 1388 1388 1362 1388 1415 1443 1533 1388 0 0 0 0 0 0 0 0 0 1362 1338 132 131 131 130 130 0 0 0 0 0
    0 0 0 0 0 0 0 0 0 0 0 0 0 0 0 0 0 0 0 0 0 0 0 0 0 0 0 0 0 0 0 0 0 0 0 0 0 0 0 0 0 0 0 0 0 0 0 0 0 0 0 0 0 0 0 0 0 0 0 0 0 0 0 0 0 0 0 0 0 0 0 0 0 0 0 0 0 0 0 0 0 0 0 0 0 0 0 0 0 0 0 0 0 0 0 0 0 0 0 0 0 0 0 0 0 0 0 0 0 0 0 0 0 0 0 0 0 0 0 0 0 0 0 0 0 0 8177 8177 8177 7359 8177 7359 7359 6133 5256 5661 6133 6690 8177 0 0 0 0 0 0 0 0 0 0 0 0 0 0 0 8177 5661 6133 5256 8177 7359 6690 8177 8177 0 0 0 0 0 0 0 8177 8177 8177 0 0 0 0 0 0 0 0 0 0 0 0 0 0 0 0 6133 5661 6133 5661 4599 4088 4599 4088 4329 4906 4599 4599 4599 4599 5256 5256 4599 5256 5256 5256 4906 4906 4906 4906 3873 4906 3873 3504 3504 3345 3199 3066 2943 2943 2830 2830 2943 2943 2943 2943 2943 3199 3199 3199 3066 3066 2943 2943 2628 2537 2299 2044 2044 1989 1989 1989 1887 1887 1989 1989 2102 1936 1887 1839 1752 1672 1672 1565 1599 1599 1533 1599 1533 1565 1533 1533 1533 1501 1501 1533 1415 1533 1501 1565 1501 1599 1471 1471 1362 1471 0 1415 1415 1415 1415 1443 1415 1443 1338 1338 0 1388 1388 1388 1388 1388 1415 1443 1533 1415 0 0 0 0 0 0 0 0 0 1388 1338 132 131 0 130 0 0 0 0 0 0
    0 0 0 0 0 0 0 0 0 0 0 0 0 0 0 0 0 0 0 0 0 0 0 0 0 0 0 0 0 0 0 0 0 0 0 0 0 0 0 0 0 0 0 0 0 0 0 0 0 0 0 0 0 0 0 0 0 0 0 0 0 0 0 0 0 0 0 0 0 0 0 0 0 0 0 0 0 0 0 0 0 0 0 0 0 0 0 0 0 0 0 0 0 0 0 0 0 0 0 0 0 0 0 0 0 0 0 0 0 0 0 0 0 0 0 0 0 0 0 0 0 8177 8177 8177 0 0 8177 8177 8177 7359 8177 7359 8177 7359 6133 6690 6133 7359 0 0 0 0 0 0 0 0 0 0 0 0 0 0 0 0 0 0 5661 4906 7359 7359 6690 8177 0 0 0 0 0 0 0 0 8177 0 0 0 0 0 0 0 0 0 0 0 0 0 0 0 0 0 0 6133 5661 5661 5256 3873 3504 3679 3504 3679 4088 3873 3873 3873 4329 4906 4906 4906 5256 5256 4906 4906 4906 4906 4906 4088 4906 3873 3504 3504 3345 3199 3066 2943 2943 2830 2943 2943 2943 2943 3066 3066 3345 3345 3504 3199 3199 3066 3066 2725 2725 2453 2102 2102 2044 1989 1936 1839 1839 1936 1887 1887 1795 1752 1711 1672 1672 1672 1599 1635 1635 1599 1635 1565 1565 1533 1533 1533 1501 1501 1501 1388 1501 1471 1533 1471 1565 1443 1443 1362 1443 0 1415 1415 1415 1415 1443 1415 1443 1338 1338 0 1388 1388 1388 1388 1388 1415 1443 1533 1415 0 0 0 0 0 0 0 0 0 1362 1338 132 131 0 0 0 0 0 0 0 0
    0 0 0 0 0 0 0 0 0 0 0 0 0 0 0 0 0 0 0 0 0 0 0 0 0 0 0 0 0 0 0 0 0 0 0 0 0 0 0 0 0 0 0 0 0 0 0 0 0 0 0 0 0 0 0 0 0 0 0 0 0 0 0 0 0 0 0 0 0 0 0 0 0 0 0 0 0 0 0 0 0 0 0 0 0 0 0 0 0 0 0 0 0 0 0 0 0 0 0 0 0 0 0 0 0 0 0 0 0 0 0 0 0 0 0 0 0 0 0 0 0 8177 0 8177 0 0 8177 8177 8177 8177 8177 7359 8177 7359 6690 6690 5256 6690 6690 0 0 0 0 0 0 0 0 0 0 0 0 0 0 0 0 0 4088 4088 5661 6133 6133 8177 8177 0 0 0 0 0 0 0 8177 0 0 0 0 0 0 0 0 0 0 0 0 0 0 0 0 0 0 6690 5256 5256 4599 3504 3199 3345 3199 3504 3679 3504 3504 3679 4329 4906 5256 5256 5256 5256 5256 4906 4906 4906 4599 3873 4599 3679 3504 3345 3199 3066 2943 2830 2830 2830 2830 2830 2943 2943 3066 3066 3345 3345 3345 3345 3345 3066 3199 2830 2830 2628 2230 2164 2044 1989 1936 1839 1795 1887 1839 1795 1752 1672 1711 1672 1635 1672 1599 1635 1635 1599 1635 1565 1565 1565 1533 1565 1501 1501 1501 1388 1501 1471 1501 1471 1533 1415 1443 1362 1443 0 1415 1415 1415 1415 1415 1388 1443 1338 1338 0 1388 1388 1388 1388 1388 1415 1443 1533 1415 0 0 0 0 0 0 0 0 1471 1362 1338 132 131 0 0 0 0 0 0 0 0
    0 0 0 0 0 0 0 0 0 0 0 0 0 0 0 0 0 0 0 0 0 0 0 0 0 0 0 0 0 0 0 0 0 0 0 0 0 0 0 0 0 0 0 0 0 0 0 0 0 0 0 0 0 0 0 0 0 0 0 0 0 0 0 0 0 0 0 0 0 0 0 0 0 0 0 0 0 0 0 0 0 0 0 0 0 0 0 0 0 0 0 0 0 0 0 0 0 0 0 0 0 0 0 0 0 0 0 0 0 0 0 0 0 0 0 0 0 0 0 0 0 0 0 8177 0 0 0 0 8177 8177 8177 7359 0 7359 6133 6690 5661 6133 0 0 0 0 0 0 0 0 8177 0 0 0 0 0 0 0 0 0 0 3504 4088 4329 4599 7359 0 0 0 0 0 0 0 0 0 0 0 0 0 0 0 0 0 0 0 0 0 0 0 0 0 0 0 6690 5256 4906 4088 3345 3066 3066 3066 3345 3504 3199 3345 3679 4329 4906 5256 5661 5661 5256 5256 5256 5256 4906 4906 4088 4599 3679 3504 3199 3066 2830 2830 2725 2725 2725 2830 2830 2943 3066 3066 3066 3504 3504 3504 3345 3504 3199 3199 2943 2943 2725 2453 2374 2164 2044 1936 1795 1795 1795 1795 1711 1672 1599 1672 1672 1635 1672 1599 1635 1635 1599 1672 1565 1599 1565 1533 1565 1501 1533 1501 1388 1501 1471 1501 1471 1533 1415 1415 1362 1471 1362 1415 1388 1388 1388 1415 1388 1443 1338 1338 0 1388 1388 1388 1388 1388 1415 1443 1501 1415 0 0 0 0 0 0 0 0 1471 1362 1338 0 131 0 0 0 0 0 0 0 0
    0 0 0 0 0 0 0 0 0 0 0 0 0 0 0 0 0 0 0 0 0 0 0 0 0 0 0 0 0 0 0 0 0 0 0 0 0 0 0 0 0 0 0 0 0 0 0 0 0 0 0 0 0 0 0 0 0 0 0 0 0 0 0 0 0 0 0 0 0 0 0 0 0 0 0 0 0 0 0 0 0 0 0 0 0 0 0 0 0 0 0 0 0 0 0 0 0 0 0 0 0 0 0 0 0 0 0 0 0 0 0 0 0 0 0 0 0 0 0 0 0 8177 8177 7359 0 0 0 0 8177 8177 0 7359 0 7359 6133 6133 7359 8177 6133 0 0 0 0 0 0 8177 8177 0 8177 0 0 0 0 0 0 0 0 0 3345 3345 3504 0 0 0 0 0 0 0 0 0 0 0 0 0 0 8177 0 0 0 0 0 0 0 0 0 0 0 0 0 6690 5256 4906 3504 3199 2725 2830 2830 3199 3199 2943 3199 3345 4088 4906 5256 5661 5661 5256 5256 5256 5256 4906 4906 4088 4599 3679 3504 3199 3066 2830 2830 2725 2725 2830 2943 2943 3199 3199 3199 3199 3504 3345 3345 3199 3345 3066 3066 2943 2943 2725 2453 2537 2299 2044 1887 1839 1795 1795 1752 1711 1672 1599 1672 1672 1672 1672 1599 1635 1635 1599 1672 1565 1599 1533 1533 1533 1501 1501 1501 1388 1471 1471 1501 1471 1533 1443 1415 1362 1471 1362 1388 1388 1388 1388 1388 1388 1415 1338 1338 0 1388 1388 1388 1388 1415 1443 1443 1533 1415 0 0 0 0 0 0 0 0 1471 1362 1362 0 131 0 0 0 0 0 0 0 0
    0 0 0 0 0 0 0 0 0 0 0 0 0 0 0 0 0 0 0 0 0 0 0 0 0 0 0 0 0 0 0 0 0 0 0 0 0 0 0 0 0 0 0 0 0 0 0 0 0 0 0 0 0 0 0 0 0 0 0 0 0 0 0 0 0 0 0 0 0 0 0 0 0 0 0 0 0 0 0 0 0 0 0 0 0 0 0 0 0 0 0 0 0 0 0 0 0 0 0 8177 0 0 0 0 0 0 0 0 0 0 0 0 0 0 0 0 0 0 0 0 0 7359 7359 6690 8177 8177 0 0 8177 0 0 8177 0 8177 6690 6690 0 0 6133 0 0 0 0 0 6133 6690 0 0 0 0 0 0 0 0 0 0 1795 1752 2453 2537 0 0 0 0 0 0 0 0 0 0 0 0 0 0 8177 8177 0 0 0 0 0 0 0 0 0 0 0 0 0 6133 4599 3873 3199 2943 2374 2537 2453 2943 3066 2830 3066 3345 3873 5256 5661 6133 5661 5256 5256 5661 5661 4906 4906 4088 4329 3679 3345 3199 2943 2830 2830 2725 2725 2943 2943 2943 3199 3199 3199 3066 3345 3345 3199 3199 3345 3066 3066 2830 2943 2628 2374 2453 2230 1989 1839 1752 1752 1752 1752 1672 1672 1599 1635 1672 1672 1672 1635 1635 1635 1635 1672 1565 1565 1501 1501 1533 1471 1501 1471 1388 1471 1471 1501 1471 1533 1471 1415 1362 1443 1362 1388 1388 1362 1362 1388 1362 1388 1338 1338 0 1388 1388 1388 1388 1415 1443 1443 1533 1415 0 0 0 0 0 0 0 0 1501 1362 1362 0 0 0 0 0 0 0 0 0 0
    0 0 0 0 0 0 0 0 0 0 0 0 0 0 0 0 0 0 0 0 0 0 0 0 0 0 0 0 0 0 0 0 0 0 0 0 0 0 0 0 0 0 0 0 0 0 0 0 0 0 0 0 0 0 0 0 0 0 0 0 0 0 0 0 0 0 0 0 0 0 0 0 0 0 0 0 0 0 0 0 0 0 0 0 0 0 0 0 0 0 0 0 0 0 0 0 8177 8177 8177 8177 0 0 0 0 0 0 0 0 0 0 0 0 0 0 0 0 0 0 0 0 0 7359 7359 7359 0 0 0 0 0 0 0 0 0 0 8177 0 0 0 7359 0 0 0 0 0 0 5256 0 0 0 0 0 0 0 0 0 1839 1795 1752 1795 2044 0 0 0 0 0 0 0 0 0 0 0 0 0 0 7359 7359 8177 7359 7359 7359 7359 8177 0 0 0 0 0 0 0 5661 4088 3345 2943 2725 2102 2230 2230 2537 2830 2725 2943 3066 3679 5661 5661 6690 6133 5256 5661 5661 5256 5256 4599 4088 4088 3679 3345 3199 2943 2830 2830 2830 2830 2943 2943 2943 3066 3199 3199 3199 3345 3504 3199 3199 3345 3066 3066 2943 2943 2628 2374 2537 2299 1936 1711 1711 1711 1711 1711 1672 1672 1599 1672 1711 1711 1711 1672 1672 1672 1635 1672 1599 1599 1501 1501 1501 1471 1501 1471 1388 1471 1471 1501 1471 1533 1471 1415 1362 1443 1362 1388 1388 1388 1388 1388 1388 1415 1338 1338 0 1388 1388 1388 1388 1415 1443 1471 1533 1388 0 0 0 0 0 0 0 0 1501 1362 1362 1362 0 1362 0 1362 0 0 0 0 0
    0 0 0 0 0 0 0 0 0 0 0 0 0 0 0 0 0 0 0 0 0 0 0 0 0 0 0 0 0 0 0 0 0 0 0 0 0 0 0 0 0 0 0 0 0 0 0 0 0 0 0 0 0 0 0 0 0 0 0 0 0 0 0 0 0 0 0 0 0 0 0 0 0 0 0 0 0 0 0 0 0 0 0 0 0 0 0 0 0 0 0 0 0 0 0 0 8177 8177 7359 8177 0 0 0 0 8177 0 0 0 0 0 0 0 0 0 0 0 0 0 0 0 0 8177 7359 6690 8177 8177 0 0 8177 8177 0 0 0 0 0 0 0 0 0 0 0 0 0 0 0 4599 0 0 0 0 0 1711 1711 1752 1752 1795 1752 1752 1752 1839 1752 0 0 0 0 0 0 0 0 0 0 0 0 0 7359 6690 6690 6133 6133 6133 5256 5256 6133 0 0 0 0 0 8177 4329 3504 2943 2830 2537 2044 2164 2102 2299 2725 2628 2830 2943 3504 5256 5256 6133 5661 4906 5256 5256 5256 5256 4599 4329 4599 4088 3504 3345 3199 2943 2943 2943 2830 3066 2943 3066 3199 3199 3345 3199 3345 3504 3199 3199 3345 3066 3066 2943 2943 2725 2537 2725 2299 1887 1565 1635 1635 1635 1672 1635 1635 1599 1672 1711 1711 1711 1672 1672 1672 1635 1711 1599 1599 1501 1501 1501 1471 1501 1501 1415 1471 1471 1501 1471 1533 1471 1415 1362 1443 1362 1415 1415 1388 1388 1415 1388 1415 1362 1362 1362 1388 1388 1415 1388 1415 1443 1471 1533 1388 0 0 0 0 0 0 0 0 1471 1362 1362 1362 1362 1362 1388 1362 0 0 0 0 0
    0 0 0 0 0 0 0 0 0 0 0 0 0 0 0 0 0 0 0 0 0 0 0 0 0 0 0 0 0 0 0 0 0 0 0 0 0 0 0 0 0 0 0 0 0 0 0 0 0 0 0 0 0 0 0 0 0 0 0 0 0 0 0 0 0 0 0 0 0 0 0 0 0 0 0 0 0 0 0 0 0 0 0 0 0 0 0 0 0 0 0 0 0 0 0 0 8177 8177 7359 8177 0 0 0 0 8177 0 0 0 0 0 0 0 0 0 0 0 0 0 0 0 0 8177 7359 6690 7359 7359 7359 8177 7359 7359 8177 8177 0 0 0 0 0 0 0 0 0 0 0 0 4906 4088 0 0 0 0 1672 1711 1672 1711 1711 1752 1711 1672 1711 1795 1711 1635 0 0 0 0 0 0 0 0 0 8177 8177 8177 6133 5661 5661 5256 4329 4599 3504 3199 2943 0 0 0 0 7359 5256 3199 3199 2725 2537 2299 1989 2044 2044 2164 2628 2628 2943 3066 3873 5661 5661 6690 6133 5256 5256 5256 5256 4906 4599 4599 4906 4329 3873 3679 3679 3199 3199 3199 3066 3199 3066 3066 3199 3199 3345 3199 3345 3504 3199 3199 3345 3066 3066 2943 3066 2725 2725 2943 2725 1887 1443 1635 1635 1599 1672 1635 1672 1599 1672 1711 1711 1711 1711 1672 1672 1635 1672 1599 1599 1501 1501 1501 1471 1501 1471 1415 1471 1471 1471 1471 1533 1471 1415 1362 1415 1362 1388 1388 1388 1388 1415 1388 1415 1362 1362 1362 1415 1388 1415 1388 1415 1443 1471 1533 1415 0 0 0 0 0 0 0 0 1415 1338 1362 1362 1362 1388 1388 1388 0 0 0 0 0
    0 0 0 0 0 0 0 0 0 0 0 0 0 0 0 0 0 0 0 0 0 0 0 0 0 0 0 0 0 0 0 0 0 0 0 0 0 0 0 0 0 0 0 0 0 0 0 0 0 0 0 0 0 0 0 0 0 0 0 0 0 0 0 0 0 0 0 0 0 0 0 0 0 0 0 0 0 0 0 0 0 0 0 0 0 0 0 0 0 0 0 0 0 0 0 0 8177 8177 7359 8177 0 0 8177 0 8177 0 0 0 0 0 0 0 0 0 0 0 0 0 0 0 0 8177 8177 6690 7359 7359 7359 7359 7359 6690 8177 8177 0 0 0 0 0 0 0 0 0 0 0 0 4329 0 0 0 0 1711 1752 1752 1711 1711 1672 1752 1752 1711 1752 1752 1672 1599 1599 1752 1752 1752 0 0 0 0 0 8177 7359 7359 5661 4906 4906 4088 3679 3504 2943 2725 2725 0 8177 7359 6690 5661 4088 2943 2943 2628 2537 2230 1989 2044 1989 2044 2453 2453 2830 3066 3873 5661 5661 7359 6690 5661 5661 5661 5661 4906 4599 4906 5256 4329 3873 3873 3679 3504 3504 3504 3199 3199 3199 3199 3199 3199 3199 3066 3199 3199 3066 3066 3066 2830 2830 2725 2725 2537 2453 0 2299 1839 1415 1599 1635 1599 1672 1635 1672 1599 1672 1752 1711 1711 1672 1635 1672 1635 1672 1565 1565 1501 1471 1501 1471 1501 1501 1415 1501 1471 1501 1471 1533 1471 1415 1362 1415 1362 1388 1388 1388 1388 1388 1388 1388 1362 1362 1362 1388 1388 1388 1388 1415 1443 1471 1533 1388 0 0 0 1362 1338 0 0 0 1388 1338 1338 1362 1362 1388 1388 1388 0 0 0 0 0
    0 0 0 0 0 0 0 0 0 0 0 0 0 0 0 0 0 0 0 0 0 0 0 0 0 0 0 0 0 0 0 0 0 0 0 0 0 0 0 0 0 0 0 0 0 0 0 0 0 0 0 0 0 0 0 0 0 0 0 0 0 0 0 0 0 0 0 0 0 0 0 0 0 0 0 0 0 0 0 0 0 0 0 0 0 0 0 0 0 0 0 0 0 0 0 0 8177 0 7359 0 0 0 8177 0 8177 0 0 0 0 8177 0 0 0 0 0 0 0 0 0 0 0 0 8177 6690 7359 7359 7359 7359 6690 6690 7359 8177 0 0 0 0 0 0 0 0 0 0 0 0 0 0 0 0 0 1752 1752 1795 1752 1752 1711 1795 1752 1711 1711 1711 1672 1635 1635 1752 1711 1711 1989 0 0 0 0 8177 8177 7359 5661 4599 4599 3873 3504 3199 2725 2374 2374 2628 3679 3504 3504 3679 3345 2943 3066 2830 2628 2374 1989 2044 1989 2044 2453 2299 2725 2943 3679 5661 5661 7359 6690 5661 5661 6133 5661 4906 4329 4906 4906 4329 3873 4088 3679 3679 3504 3504 3199 3199 3199 3199 3066 3199 3066 3066 3066 3066 2830 2830 2725 2628 2537 2374 2299 2102 2044 2044 1936 1752 1443 1672 1672 1635 1672 1635 1711 1599 1672 1752 1711 1711 1672 1635 1635 1599 1635 1565 1565 1501 1501 1501 1471 1533 1501 1443 1501 1501 1501 1501 1565 1471 1415 1362 1415 1362 1388 1388 1388 1362 1388 1362 1362 1338 1338 1362 1388 1388 1388 1388 1415 1443 1471 1501 1388 0 0 0 1338 1338 1314 0 0 1388 1362 1338 1362 1362 1388 1388 1362 0 0 0 0 0
    0 0 0 0 0 0 0 0 0 0 0 0 0 0 0 0 0 0 0 0 0 0 0 0 0 0 0 0 0 0 0 0 0 0 0 0 0 0 0 0 0 0 0 0 0 0 0 0 0 0 0 0 0 0 0 0 0 0 0 0 0 0 0 0 0 0 0 0 0 0 0 0 0 0 0 0 0 0 0 0 0 0 0 0 0 0 0 0 0 0 0 0 0 0 0 0 8177 0 8177 0 0 0 0 0 8177 0 0 0 0 8177 0 0 0 0 0 0 0 0 0 0 0 0 8177 7359 7359 8177 7359 7359 7359 6690 7359 8177 0 0 0 0 0 0 0 0 0 0 0 0 0 0 0 0 1839 1795 1795 1839 1795 1795 1795 1839 1795 1711 1752 1711 1672 1672 1672 1752 1711 1711 1989 0 0 0 0 8177 8177 7359 5661 4599 4329 3679 0 3199 2725 2164 2230 2453 2830 2830 2830 2943 2943 2537 2943 2830 2725 2453 2044 1989 1989 1989 2374 2164 2453 2725 3345 5661 5661 7359 7359 6133 6133 6133 6133 5661 4599 5661 5256 4599 4088 4088 3873 3679 3679 3679 3345 3504 3345 3345 3199 3199 3066 3199 3066 3066 2830 2725 2537 2374 2374 2164 1989 1936 1887 1887 1795 1752 1501 1635 1635 1599 1672 1635 1672 1599 1672 1752 1711 1711 1672 1635 1635 1599 1635 1565 1565 1533 1501 1533 1501 1565 1565 1471 1533 1533 1533 1501 1565 1471 1388 1362 1388 1362 1388 1388 1388 1362 1388 1388 1362 1338 1338 1362 1388 1388 1415 1388 1415 1443 1501 1565 1415 0 0 0 1362 1338 1338 1362 0 1388 1362 1338 1362 1362 1362 1362 1362 0 0 0 0 0
    0 0 0 0 0 0 0 0 0 0 0 0 0 0 0 0 0 0 0 0 0 0 0 0 0 0 0 0 0 0 0 0 0 0 0 0 0 0 0 0 0 0 0 0 0 0 0 0 0 0 0 0 0 0 0 0 0 0 0 0 0 0 0 0 0 0 0 0 0 0 0 0 0 0 0 0 0 0 0 0 0 0 0 0 0 0 0 0 0 0 0 0 0 0 0 0 8177 0 8177 0 0 0 0 0 8177 0 0 0 0 0 0 0 0 0 0 0 0 0 0 0 0 8177 8177 8177 8177 0 8177 8177 7359 7359 8177 0 0 0 0 0 0 0 0 0 0 0 0 0 0 0 1672 0 0 1795 1839 1839 1839 1839 1795 1887 1795 1752 1752 1711 1672 1672 1672 1752 1711 1711 1936 0 0 0 0 7359 7359 7359 5661 4329 4088 3679 3199 3199 2725 2164 2164 2374 2537 2725 2725 2830 2725 2299 2830 2830 2725 2628 2102 1989 1989 1989 2230 1989 2044 2537 2943 5256 5256 6133 6690 5661 5661 6133 5661 5661 4599 5661 5661 4599 4329 4599 4088 3873 3679 3873 3504 3504 3504 3504 3199 3199 3199 3199 3199 3199 2830 2725 2453 2230 2299 2044 1887 1887 1839 1795 1839 1752 1599 1672 1635 1635 1672 1635 1711 1635 1672 1752 1711 1711 1672 1635 1635 1599 1635 1565 1565 1565 1533 1565 1501 1565 1565 1471 1533 1565 1533 1533 1565 1471 1388 1362 1388 1362 1388 1388 1388 1362 1388 1388 1388 1362 1362 0 0 1415 0 1415 1415 1443 1501 1565 1415 0 0 0 1362 1362 1338 0 0 1415 1338 1338 1362 1362 1362 1362 1338 0 0 0 0 0
    0 0 0 0 0 0 0 0 0 0 0 0 0 0 0 0 0 0 0 0 0 0 0 0 0 0 0 0 0 0 0 0 0 0 0 0 0 0 0 0 0 0 0 0 0 0 0 0 0 0 0 0 0 0 0 0 0 0 0 0 0 0 0 0 0 0 0 0 0 0 0 0 0 0 0 0 0 0 0 0 0 0 0 0 0 0 0 0 0 0 0 0 0 0 0 0 8177 0 8177 0 0 0 0 0 0 0 0 0 0 0 0 0 0 0 0 0 0 0 0 0 0 0 0 0 0 0 0 0 8177 7359 7359 8177 8177 0 0 0 0 0 0 0 8177 0 5256 0 0 0 0 0 0 1795 1839 1795 1795 1795 1752 1839 1795 1752 1795 1752 1672 1672 1672 1752 1752 1752 1936 0 0 0 0 8177 7359 7359 5661 4329 4088 3504 3066 3066 2725 2164 2102 2299 2453 2537 2628 2628 2453 2102 2725 2830 2725 2628 2044 1989 1989 1989 2230 1887 1887 2299 2725 4329 4599 4906 6133 5661 5661 5661 5256 5256 4599 5661 5661 4906 4329 4599 4088 3873 3873 4088 3504 3504 3504 3504 3199 3066 3199 3199 3199 3199 2830 2628 2374 2102 2230 2044 1839 1839 1839 1795 1839 1752 1711 1711 1672 1672 1711 1672 1711 1672 1711 1752 1711 1752 1672 1672 1635 1635 1635 1599 1599 1565 1533 1565 1565 1599 1565 1501 1565 1599 1565 1533 1565 1443 1388 1362 1388 1362 1388 1362 1388 1362 1388 1388 1388 1362 1362 0 0 0 0 0 0 1443 1501 1565 1388 0 0 0 0 0 0 0 0 0 1314 1314 1362 1362 1362 1362 1338 0 0 0 0 0
    0 0 0 0 0 0 0 0 0 0 0 0 0 0 0 0 0 0 0 0 0 0 0 0 0 0 0 0 0 0 0 0 0 0 0 0 0 0 0 0 0 0 0 0 0 0 0 0 0 0 0 0 0 0 0 0 0 0 0 0 0 0 0 0 0 0 0 0 0 0 0 0 0 0 0 0 0 0 0 0 0 0 0 0 0 0 0 0 0 0 0 0 0 0 0 0 0 0 0 0 0 0 0 0 0 0 0 0 0 0 0 0 0 0 0 0 0 0 0 0 0 0 0 0 0 0 0 0 8177 7359 6690 7359 8177 8177 8177 0 8177 0 0 0 0 0 6133 0 0 0 0 0 0 1752 1795 1795 1752 1752 1752 1795 1795 1752 1795 1752 1711 1711 1711 1752 1752 1752 1936 0 0 0 0 8177 8177 7359 6133 4599 4329 3679 3066 3066 2725 2164 2044 2164 2164 2374 2453 2453 2374 2044 2725 2943 2943 2830 2230 2164 2164 2044 2299 1936 1936 2044 2299 3504 3679 3873 5661 5256 5661 5256 5256 5256 4599 5661 6133 4906 4329 4599 4329 4088 4088 4329 3679 3504 3504 3504 3199 3066 3066 3066 3066 3066 2725 2374 2230 2044 2164 2044 1839 1887 1887 1795 1887 1795 0 1711 1711 1672 1711 1672 1711 1672 1711 1752 1711 1711 1672 1672 1635 1635 1672 1599 1599 1565 1565 1599 1599 1635 1599 1533 1599 1635 1599 1565 1599 1443 1388 1362 1388 1362 0 1362 1388 1362 1388 1388 1388 1362 1362 0 0 0 0 0 0 1443 1501 1565 1415 0 191 191 0 0 0 0 0 0 1291 0 1338 1338 1362 1362 1338 0 0 0 0 0
    0 0 0 0 0 0 0 0 0 0 0 0 0 0 0 0 0 0 0 0 0 0 0 0 0 0 0 0 0 0 0 0 0 0 0 0 0 0 0 0 0 0 0 0 0 0 0 0 0 0 0 0 0 0 0 0 0 0 0 0 0 0 0 0 0 0 0 0 0 0 0 0 0 0 0 0 0 0 0 0 0 0 0 0 0 0 0 0 0 0 0 0 0 0 0 0 0 0 0 0 0 0 0 0 0 0 0 0 0 0 0 0 0 0 0 0 0 0 0 0 0 0 0 0 0 0 0 0 8177 7359 6690 7359 7359 7359 8177 8177 8177 0 0 0 0 0 0 0 0 0 0 0 0 1711 1752 1752 1711 1711 1711 1795 1752 1752 1795 1711 1711 1711 1672 1752 1752 1795 1887 0 0 0 0 8177 8177 7359 6133 5256 4906 3679 3066 3066 2725 2164 2044 2164 2044 2164 2299 2374 2374 2044 2830 2943 3066 3066 2453 2453 2453 2230 2230 1887 1839 1936 1989 2943 3345 3504 4906 5256 5256 5256 4906 4906 4599 5256 6690 4906 4599 4906 4599 4329 4329 4906 3873 3679 3679 3679 3345 3066 2943 2943 2943 2943 2628 2164 2164 1989 2164 2102 1887 1887 1936 1887 1989 1839 0 1795 1752 1711 1711 1672 1711 1672 1711 1711 1711 1711 1635 1635 1635 1635 1635 1599 1565 1533 1533 1599 1565 1635 1599 1501 1599 1672 1635 1599 1599 1415 1388 1362 1388 1362 1362 1362 1362 1362 1388 1388 1388 1362 0 0 0 0 0 1388 1415 1443 1471 1533 1388 0 0 191 0 0 0 0 0 0 1291 1268 1314 1338 1362 1338 1338 0 0 0 0 0
    0 0 0 0 0 0 0 0 0 0 0 0 0 0 0 0 0 0 0 0 0 0 0 0 0 0 0 0 0 0 0 0 0 0 0 0 0 0 0 0 0 0 0 0 0 0 0 0 0 0 0 0 0 0 0 0 0 0 0 0 0 0 0 0 0 0 0 0 0 0 0 0 0 0 0 0 0 0 0 0 0 0 0 0 0 0 0 0 0 0 0 0 0 0 0 0 0 0 0 0 0 0 0 0 0 0 0 0 0 0 0 0 0 0 0 0 0 0 0 0 0 0 0 0 0 0 0 0 0 8177 7359 8177 0 7359 0 0 0 0 0 0 0 0 0 0 0 0 0 0 0 1711 1752 1711 1711 1711 1711 1795 1752 1711 1795 1711 1711 1711 1672 1711 1752 1795 2044 0 0 0 0 8177 8177 8177 6690 5661 5661 4599 3345 3345 2943 2453 2102 2299 0 2230 2230 2453 2453 2230 2830 2943 3066 3066 2628 2628 2537 2299 2044 1839 1795 1795 1795 1795 3199 3345 4906 4906 5256 4906 4906 4906 4599 5661 6690 4906 4329 4906 4329 4088 4088 4906 3679 3679 3679 3873 3066 3066 2453 0 0 2725 2453 1989 2102 1936 2044 2044 1887 1887 1936 1887 1989 1839 0 1795 1795 1752 1752 1672 1711 1672 1711 1711 1672 1711 1635 1635 1635 1635 1635 1565 1565 1501 1501 1599 1533 1599 1533 1471 1565 1672 1635 1599 1599 1415 1362 1362 1362 1362 1362 1362 1362 1362 1388 1388 1388 1338 0 0 0 0 1362 1362 1362 1388 1415 1443 1362 1362 1362 0 0 0 0 0 0 0 1291 1268 1314 1338 1362 1338 1338 0 0 0 0 0
    0 0 0 0 0 0 0 0 0 0 0 0 0 0 0 0 0 0 0 0 0 0 0 0 0 0 0 0 0 0 0 0 0 0 0 0 0 0 0 0 0 0 0 0 0 0 0 0 0 0 0 0 0 0 0 0 0 0 0 0 0 0 0 0 0 0 0 0 0 0 0 0 0 0 0 0 0 0 0 0 0 0 0 0 0 0 0 0 0 0 0 0 0 0 0 0 0 0 0 0 0 0 0 0 0 0 0 0 0 0 0 0 0 0 0 0 0 0 0 0 0 0 0 0 0 0 0 0 0 0 7359 0 0 0 0 0 0 0 0 0 0 0 0 0 0 0 0 0 0 1711 1752 1711 1711 1711 1711 1752 1795 1711 1795 1711 1711 1711 1635 1635 1711 1752 0 0 0 0 0 9199 0 8177 7359 6690 6133 5256 3873 3504 3199 2830 2374 0 0 2164 2164 2230 2374 2164 2537 2943 2943 3066 2628 0 2725 2374 2102 1887 1752 1752 1752 1752 3199 3199 4088 4599 4906 4906 4906 4906 4599 5256 6133 4906 4088 4329 4088 3873 3873 4329 3504 3345 3345 3504 2830 2537 0 0 0 2453 0 1989 2044 1936 2044 2044 1887 1887 1936 1887 1989 1839 1936 1839 1795 1795 1752 1711 1711 1672 1711 1672 1672 1711 1599 1635 1599 1599 1635 1565 1533 1501 1501 1599 1533 1599 1565 1471 1565 1672 1635 1599 1565 1415 1362 1362 1362 1362 1362 1362 1362 1362 1362 1388 1388 1338 1362 0 1388 1362 1362 1362 1362 1388 1415 1415 1362 1362 1362 1362 1338 0 0 0 0 0 1291 1268 1314 1314 1362 1338 1338 0 0 0 0 0
    0 0 0 0 0 0 0 0 0 0 0 0 0 0 0 0 0 0 0 0 0 0 0 0 0 0 0 0 0 0 0 0 0 0 0 0 0 0 0 0 0 0 0 0 0 0 0 0 0 0 0 0 0 0 0 0 0 0 0 0 0 0 0 0 0 0 0 0 0 0 0 8177 0 0 0 0 0 0 0 0 0 0 0 0 0 0 0 0 0 0 0 0 0 0 0 0 0 0 0 0 0 0 0 0 0 0 0 0 0 0 0 0 0 0 0 0 0 0 0 0 0 0 0 0 0 0 0 0 0 0 0 0 0 0 0 328 0 325 327 0 0 0 331 328 0 0 0 0 0 1672 1711 1672 1672 1711 1711 1752 1752 1711 1795 1752 1711 1711 1635 1565 1672 1752 0 0 0 0 0 8177 0 8177 8177 7359 7359 6133 4088 3679 3504 3066 2628 0 0 2164 2102 2102 2102 2044 0 2830 2943 3066 2628 0 2725 2537 2102 1887 1752 1711 1711 1711 0 3199 3679 4088 4599 4906 4906 4599 4906 5256 6133 4906 3873 4329 4088 3873 3679 4088 3199 0 0 0 2537 0 1268 0 0 2453 2164 1989 2102 1936 2044 2044 1936 1887 1936 1887 1936 1839 1887 1839 1795 1795 1752 1711 1711 1672 1711 1672 1635 1672 1599 1635 1599 1599 1635 1565 1533 1501 1501 1599 1565 1635 1565 1471 1565 1672 1635 1599 1533 1415 1388 1362 1388 1362 1362 1362 1362 1362 1362 1388 1362 1338 1362 1338 1362 1362 1362 1362 1338 1362 1415 1362 1338 1338 1338 1338 1338 1338 1338 1362 1314 1314 1291 1268 1314 1314 1338 1338 1338 0 0 0 0 0
    0 0 0 0 0 0 0 0 0 0 0 0 0 0 0 0 0 0 0 0 0 0 0 0 0 0 0 0 0 0 0 0 0 0 0 0 0 0 0 0 0 0 0 0 0 0 0 0 0 0 0 0 0 0 0 0 0 0 0 0 0 0 0 0 0 0 0 0 0 7359 8177 7359 8177 0 0 0 0 0 0 0 0 0 0 0 0 0 0 0 0 0 0 0 0 0 0 0 8177 8177 0 0 0 0 0 0 0 0 0 0 0 0 0 0 0 0 0 0 0 0 0 0 0 0 0 0 0 0 0 0 0 0 0 0 0 0 0 327 0 0 325 0 0 0 331 327 0 0 0 0 1711 1635 1672 1672 1672 1711 1711 1711 1752 1711 1795 1752 1711 1672 1565 1501 1635 0 0 0 0 0 0 7359 7359 6690 6690 6690 7359 6133 3679 3504 3345 3066 2725 0 1989 2102 2044 1989 1989 1936 0 2453 2628 3066 2453 0 0 2164 1936 1839 1711 1672 1672 1672 0 3199 3679 3873 4329 4599 4599 4599 4599 4906 6133 4906 3873 4088 4088 3873 3873 4088 3199 0 0 0 0 1533 1247 1082 0 0 0 0 2044 0 1989 2044 1887 1887 1936 1887 1936 1839 1887 1839 1795 1795 1752 1711 1711 1672 1711 1672 1635 1672 1565 1635 1599 1635 1635 1565 1565 1501 1501 1599 1565 1635 1533 1471 1565 1635 1635 1565 1533 1443 1388 1362 1388 1362 1388 1362 1388 1362 1362 1362 1388 1338 1362 1338 1362 1338 1362 1362 1338 1362 1388 1338 1314 1338 1338 1338 1338 1338 1338 1362 1338 1314 1291 1268 1314 1314 1362 1338 1362 0 0 0 0 0
    0 0 0 0 0 0 0 0 0 0 0 0 0 0 0 0 0 0 0 0 0 0 0 0 0 0 0 0 0 0 0 0 0 0 0 0 0 0 0 0 0 0 0 0 0 0 0 0 0 0 0 0 0 0 0 0 0 0 0 0 0 0 0 0 0 0 0 0 0 6690 7359 6690 6690 8177 7359 7359 7359 7359 0 0 0 0 0 0 0 0 0 0 0 0 0 0 0 0 0 0 3873 3873 5661 0 0 0 0 0 0 0 0 0 0 8177 0 0 0 0 0 0 0 0 0 0 0 0 0 0 0 0 0 0 0 0 0 0 0 0 0 0 0 0 0 0 0 0 330 325 0 0 0 0 1711 1635 1635 1635 1635 1672 1672 1672 1711 1672 1795 1752 1711 1672 1533 1501 1599 0 0 0 0 0 0 5661 4599 4329 4088 5256 0 5661 3345 3199 3345 3066 0 0 0 1936 1936 1887 1887 0 1752 2044 2299 2725 2164 0 0 0 0 1752 1635 1599 1599 1599 1672 0 3679 3679 4088 4329 4329 4599 4906 4906 6133 4599 3679 4088 4088 3873 3679 4088 3199 0 0 0 0 1362 1187 1036 0 0 0 0 0 0 0 0 1887 1887 1887 1887 1936 1839 1887 1839 1795 1795 1752 1711 1711 1672 1711 1635 1635 1672 1565 1635 1599 1635 1635 1565 1565 1501 1501 1635 1565 1635 1533 1443 1565 1635 1672 1599 1565 1471 1415 1388 1415 1362 1388 1388 1388 1388 1388 1388 1443 1338 1388 1362 1362 1338 1338 1338 1338 1362 1388 1338 1314 1338 1338 1338 1338 1338 1338 1362 1338 1338 1314 1268 1314 1314 1362 1338 1362 0 0 0 0 0
    0 0 0 0 0 0 0 0 0 0 0 0 0 0 0 0 0 0 0 0 0 0 0 0 0 0 0 0 0 0 0 0 0 0 0 0 0 0 0 0 0 0 0 0 0 0 0 0 0 0 0 0 0 0 0 0 0 0 0 0 0 0 0 0 0 0 0 0 0 5256 6690 5661 4599 5256 4088 3679 3504 3345 0 8177 0 0 0 0 0 0 0 0 0 0 0 7359 6690 6690 3066 2830 2943 2943 2943 0 0 0 8177 0 0 8177 7359 0 0 6690 0 0 0 0 0 0 0 0 0 0 0 0 0 0 0 0 0 0 0 0 0 0 0 5256 0 0 0 0 0 0 0 0 0 0 0 0 0 0 1672 1599 1599 1599 1599 1599 1635 1635 1672 1635 1752 1752 1711 1711 1565 1533 1635 1752 1752 1635 1471 0 8177 4088 3066 2830 2943 3345 0 3199 2830 2537 2830 2943 2299 0 0 0 0 1795 0 0 1672 1795 1989 2164 1989 1839 0 0 0 0 1599 1533 1533 1533 1599 0 0 274 0 0 4088 4329 4599 4599 6133 4329 3504 3873 3873 3679 3679 4088 3199 0 0 0 0 0 1098 1008 0 0 0 0 0 0 0 0 1839 1839 1887 0 1887 1795 1887 1839 1795 1795 1752 1711 1711 1672 1672 1635 1635 1672 1565 1599 1599 1599 1635 1565 1565 1501 1501 1599 1533 1599 1501 1443 1565 1635 1672 1599 1565 1471 1415 1362 1388 1362 1388 1388 1388 1388 1388 1388 1443 1338 1388 1362 1338 1338 1338 1338 1314 1338 1362 1314 1314 1338 1338 1338 1314 1338 1314 1338 1314 1314 1291 1268 1291 1314 1338 1338 1362 0 0 0 0 0
    0 0 0 0 0 0 0 0 0 0 0 0 0 0 0 0 0 0 0 0 0 0 0 0 0 0 0 0 0 0 0 0 0 0 0 0 0 0 0 0 0 0 0 0 0 0 0 0 0 0 0 0 0 0 0 0 0 0 0 0 0 0 0 0 0 0 0 0 0 3345 4088 3679 3199 3199 2943 2830 2725 2628 2537 2725 0 3504 3345 7359 0 8177 0 0 0 0 7359 5661 4906 3873 2725 2628 2725 2628 2725 2628 0 0 3504 5661 5661 4599 3873 3504 4599 3199 4088 4906 5661 6133 7359 0 6690 6133 0 0 0 0 0 0 0 0 0 0 0 0 0 0 0 0 0 0 0 0 0 0 0 651 0 0 0 0 0 0 1635 1565 1565 1565 1599 1599 1599 1599 1635 1599 1711 1752 1752 1711 1599 1533 1635 1752 1795 1672 0 0 4906 3199 2725 2230 2453 2628 0 2537 2453 2102 2299 2628 2102 0 1795 1795 1752 1752 1752 1795 1672 1711 1839 0 0 1752 0 0 0 0 1533 1443 1471 1471 1501 0 0 273 273 268 3679 3873 4329 4329 5661 4088 3504 3679 3679 3679 3504 3873 0 104 0 0 0 0 1051 994 0 0 1082 0 0 0 0 0 1839 1839 1839 0 0 1795 0 1795 1795 1795 1752 1672 1711 1635 1672 1599 1635 1672 1533 1599 1565 1599 1635 1533 1565 1471 1471 1599 1533 1599 1501 1471 1599 1635 1672 1599 1565 1471 1415 1362 1388 1362 1388 1388 1388 1388 1388 1388 1443 1362 1415 1362 1314 1314 1314 1314 1314 1314 1338 1291 1291 1338 1338 1314 1314 1338 1338 1338 1338 1338 1314 1291 1314 1314 1338 1338 1362 0 0 0 0 0
    0 0 0 0 0 0 0 0 0 0 0 0 0 0 0 0 0 0 0 0 0 0 0 0 0 0 0 0 0 0 0 0 0 0 0 0 0 0 0 0 0 0 0 0 0 0 0 0 0 0 0 0 0 0 0 0 0 0 0 0 0 0 0 0 0 0 0 0 0 2830 2943 2943 2830 2725 2628 2537 2537 2299 2230 2374 2102 2374 2374 2299 2453 2725 0 0 8177 0 3345 3504 3066 2943 2628 2453 2628 2453 2537 2537 2537 2628 2725 2830 2943 2830 2830 2628 2628 2537 2628 2830 2943 2830 2943 2943 3504 3066 3504 2943 2537 2725 2725 2725 2725 2537 2725 2537 2725 2830 2725 0 0 0 0 0 0 0 0 0 0 0 225 0 0 0 0 1635 1635 1565 1565 1565 1599 1599 1599 1599 1635 1599 1711 1752 1711 1752 1635 1565 1635 1711 1752 1635 1599 0 2453 2628 2453 2044 2164 2230 2102 2102 2164 1936 1887 0 1989 0 1752 1795 1752 1711 1711 1752 1635 1635 1795 0 0 1672 1711 1672 0 1533 1471 1415 1415 1415 1415 0 1226 274 275 271 0 3504 3679 3873 5256 3679 3345 3504 3504 3504 3345 0 104 104 0 0 0 0 1022 981 981 994 1022 1008 0 0 0 0 1711 1711 1752 0 0 0 0 0 0 0 0 1672 1711 1635 1672 1599 1635 1672 1565 1599 1565 1599 1635 1533 1533 1471 1471 1599 1565 1599 1533 1471 1599 1635 1672 1635 1565 1471 1443 1362 1415 1362 1388 1388 1415 1415 1388 1388 1443 1362 1415 1362 1314 1314 1314 1314 1291 1291 1314 1268 1268 1338 1338 1338 1338 1362 1362 1338 1362 1362 1314 1291 1291 1314 1338 1338 1362 0 0 0 0 0
    0 0 0 0 0 0 0 0 0 0 0 0 0 0 0 0 0 0 0 0 0 0 0 0 0 0 0 0 0 0 0 0 0 0 0 0 0 0 0 0 0 0 0 0 0 0 0 0 0 0 0 0 0 0 0 0 0 0 0 0 0 0 0 0 0 0 0 0 0 2453 2537 2628 2537 2374 2299 2230 2299 2102 2044 2164 1989 2102 2164 2102 2164 2230 2299 2374 2628 2628 2725 2830 2725 2628 2537 2374 2537 2299 2374 2374 2299 2453 2453 2453 0 2299 2374 2102 2044 2102 2044 2230 2230 2102 2299 2230 2628 2537 2628 2374 2102 2230 2230 2230 2230 1989 2164 2044 2230 2374 2164 0 2453 2299 2628 2374 2453 2299 0 2374 2374 2374 0 0 0 0 1887 1635 1672 1565 1565 1599 1635 1599 1599 1599 1672 1635 1711 1795 1752 1752 1672 1635 1672 1711 1711 1672 1752 1839 2044 2164 2164 1989 2102 2102 2102 1989 2044 1887 1839 2044 1936 1711 1711 1752 1711 1711 1672 1711 1599 1565 1752 1672 1635 1635 1635 1599 1533 1471 1443 1388 1388 1415 1388 0 1226 0 274 272 0 0 0 3345 4329 3345 3199 3345 3199 3199 3199 0 104 104 0 0 0 0 1008 981 968 981 1008 994 0 0 0 0 0 1388 1362 1443 0 0 0 0 0 0 651 0 0 0 1672 1599 1672 1711 1565 1599 1565 1599 1635 1533 1565 1471 1501 1599 1565 1599 1565 1501 1635 1635 1672 1635 1565 1501 1501 1388 1415 1388 1415 1415 1415 1415 1415 1388 1471 1362 1443 1388 1314 1314 1314 1314 1291 1291 1314 1268 1268 1338 1338 1338 1338 1362 1362 1362 1388 1388 1338 1291 1314 1314 1314 1314 1338 0 0 0 0 0
    0 0 0 0 0 0 0 0 0 0 0 0 0 0 0 0 0 0 0 0 0 0 0 0 0 0 0 0 0 0 0 0 0 0 0 0 0 0 0 0 0 0 0 0 0 0 0 0 0 0 0 0 0 0 0 0 0 0 0 0 0 0 0 0 0 0 0 0 0 2230 2230 2374 2230 2102 2102 2044 2102 1989 1989 2044 1936 1989 2044 2044 2102 2102 2164 2164 2299 2374 2453 2453 2453 2299 2299 2164 2299 2164 2230 2164 2102 2230 2230 2102 2164 1989 2044 1989 1936 1936 1936 1989 1989 1936 1989 1989 2044 2102 2164 2044 1989 2044 2044 2044 2044 1936 1989 1936 2044 2102 1989 2102 2102 2044 2374 2164 2230 2102 2102 2164 2164 2164 2230 1989 0 1887 1839 1635 1672 1635 1599 1635 1635 1635 1599 1599 1711 1635 1711 1795 1752 1752 1711 1711 1711 1711 1752 1711 1795 1887 1989 2044 2102 1989 2044 2044 2044 1989 1989 1887 1795 1887 1887 1635 1711 1711 1672 1672 1635 1672 1565 1501 1672 1599 1565 1599 1565 1565 1471 1471 1415 1388 1388 1388 1362 0 1226 0 0 0 0 1187 1149 1206 0 0 2943 3066 2725 2830 2943 0 104 103 0 0 0 1008 994 981 968 955 1008 981 981 0 0 0 1291 0 1226 0 0 0 0 0 0 791 735 0 0 114 0 0 1672 1711 1599 1635 1599 1599 1635 1565 1599 1501 1533 1599 1599 1635 1599 1533 1635 1635 1711 1672 1599 1533 1533 1388 1443 1415 1415 1415 1443 1443 1415 1388 1471 1362 1443 1388 1314 1338 1338 1338 1314 1314 1338 1291 1291 1362 1338 1338 1338 1362 1388 1388 1415 1415 1338 1314 1314 1314 1314 1314 1291 0 0 0 0 0
    0 0 0 0 0 0 0 0 0 0 0 0 0 0 0 0 0 0 0 0 0 0 0 0 0 0 0 0 0 0 0 0 0 0 0 0 0 0 0 0 0 0 0 0 0 0 0 0 0 0 0 0 0 0 0 0 0 0 0 0 0 0 0 0 0 0 0 0 0 2044 2044 2102 2102 2044 2044 1989 2044 1989 1989 2044 1936 1936 2044 1989 2044 2044 2102 2102 2102 2164 2164 2164 2164 2102 2164 2044 2164 2044 2102 2102 2044 2044 2044 1989 2044 1936 1989 1936 1887 1936 1936 1936 1936 1936 1936 1887 1936 1989 1989 1936 1936 1989 1989 1989 1989 1887 1936 1936 1989 1989 1936 2044 2044 1989 2299 2102 2102 2044 2044 2102 2044 2044 2102 1936 1989 1936 1887 1711 1711 1672 1635 1672 1672 1635 1599 1599 1711 1672 1711 1839 1839 1795 1752 1752 1752 1752 1752 1752 1795 1887 1989 1936 1936 1936 1989 1989 1989 1936 1936 1887 1795 1887 1839 1635 1672 1672 1635 1635 1599 1635 1533 1471 1599 1533 1533 1565 1533 1501 1415 1415 1415 1388 1362 1388 1338 1291 1226 1268 0 1268 1226 1187 1149 1187 1206 1752 1672 1795 1989 1795 0 0 0 104 0 0 0 981 981 968 955 943 994 968 955 1066 0 0 1082 0 994 0 955 876 826 791 808 791 758 0 0 115 0 0 1711 1711 1635 1635 1599 1635 1635 1565 1599 1533 1533 1599 1599 1635 1599 1533 1635 1635 1752 1672 1635 1565 1565 1388 1471 1415 1443 1443 1443 1443 1415 1388 1501 1388 1443 1362 1314 1338 1338 1314 1314 1291 1314 1268 1291 1362 1338 1362 1362 1388 1388 1415 1415 1415 1338 1338 1338 1314 1314 1314 1268 0 0 0 0 0
    0 0 0 0 0 0 0 0 0 0 0 0 0 0 0 0 0 0 0 0 0 0 0 0 0 0 0 0 0 0 0 0 0 0 0 0 0 0 0 0 0 0 0 0 0 0 0 0 0 0 0 0 0 0 0 0 0 0 0 0 0 0 0 0 0 0 0 0 0 1936 1936 1989 1989 1989 1989 1989 2044 1936 1936 2044 1936 1936 1989 1989 1989 1989 1989 1989 1989 1989 2044 2044 1989 1989 2044 1989 2044 1989 2044 1989 1989 1989 1989 1936 1936 1887 1936 1936 1887 1936 1936 1936 1936 1936 1936 1887 1936 1936 1936 1936 1936 1936 1936 1989 1936 1887 1936 1887 1936 1989 1936 1989 1989 1989 2230 2044 2102 2044 2044 2044 2044 1989 2044 1887 1989 1936 1887 1752 1752 1711 1635 1672 1672 1635 1599 1599 1672 1672 1711 1887 1839 1839 1795 1795 1795 1752 1752 1795 1839 1887 1936 1887 1887 1887 1936 1936 1936 1936 1887 1887 1839 1839 1839 1635 1672 1635 1599 1599 1565 1599 1533 1471 1599 1533 1533 1565 1533 1501 1415 1415 0 1362 1362 1362 0 0 1226 1268 1226 1247 1206 1187 1132 1168 1187 1247 1291 1314 1635 1443 0 0 0 0 0 0 0 0 955 955 943 943 1008 994 994 1098 994 1008 1022 955 886 876 845 836 808 782 799 782 774 782 0 0 0 115 0 1711 1635 1672 1635 1635 1635 1565 1599 1533 1533 1599 1599 1599 1565 1533 1635 1599 1752 1711 1635 1565 1565 1388 1443 1415 1415 1415 1443 1443 1415 1388 1501 1388 1443 1362 1314 1338 1338 1338 1338 1314 1338 1291 1314 1388 1362 1388 1388 1388 1415 1415 1415 1415 1338 1338 1338 1314 1338 1314 1291 0 0 0 0 0
    0 0 0 0 0 0 0 0 0 0 0 0 0 0 0 0 0 0 0 0 0 0 0 0 0 0 0 0 0 0 0 0 0 0 0 0 0 0 0 0 0 0 0 0 0 0 0 0 0 0 0 0 0 0 0 0 0 0 0 0 0 0 0 0 0 0 0 0 0 1887 1887 1989 1936 1989 1989 1936 1989 1936 1936 1989 1887 1936 1936 1936 1936 1936 1936 1936 1936 1936 1989 1936 1936 1936 1936 1887 1989 1936 1936 1936 1936 1989 1936 1887 1936 1887 1936 1887 1887 1887 1887 1936 1936 1936 1936 1887 1887 1936 1936 1887 1887 1936 1936 1989 1936 1887 1936 1887 1936 1936 1936 1989 1989 1989 2230 2044 2044 1989 1989 1989 1989 1936 1989 1887 1989 1936 1887 1795 1711 1711 1635 1672 1672 1635 1599 1635 1711 1711 1711 1887 1887 1839 1839 1839 1839 1752 1752 1795 1839 1887 1936 1887 1887 1887 1887 1936 1936 1887 1887 1839 1795 1795 1795 1599 1672 1635 1565 1599 1565 1599 1533 1471 1599 1533 1501 1565 1533 1471 1388 1388 0 0 0 0 0 0 1226 1268 1226 1226 1206 1168 1132 1168 1168 1206 1226 1268 1338 1291 1187 1247 1036 897 955 955 931 943 943 955 943 931 1008 981 981 1066 968 0 955 876 836 826 836 836 817 791 808 791 791 0 0 0 0 116 117 0 1635 1635 1599 1599 0 1565 1599 1501 1501 1565 1565 1599 1533 1501 1635 1599 1752 1711 1635 1565 1565 1388 1443 1388 1415 1415 1443 1443 1415 1388 1501 1362 1415 1338 1314 1338 1314 1314 1314 1291 1314 1291 1338 1388 1362 1388 1388 1388 1415 1415 1415 1443 1362 1338 1338 1314 1338 1338 1314 0 0 0 0 0
    0 0 0 0 0 0 0 0 0 0 0 0 0 0 0 0 0 0 0 0 0 0 0 0 0 0 0 0 0 0 0 0 0 0 0 0 0 0 0 0 0 0 0 0 0 0 0 0 0 0 0 0 0 0 0 0 0 0 0 0 0 0 0 0 0 0 0 0 0 1887 1839 1936 1936 1989 1936 1936 1989 1936 1936 1989 1887 1936 1936 1936 1936 1936 1936 1936 1887 1936 1936 1887 1887 1887 1936 1887 1936 1887 1936 1936 1936 1936 1936 1887 1887 1839 1887 1887 1839 1839 1887 1887 1887 1887 1887 1839 1839 1887 1887 1887 1887 1887 1887 1936 1887 1887 1887 1887 1936 1936 1887 1936 1936 1936 2102 1989 1989 1936 1936 1936 1936 1887 1936 1839 1887 1887 1839 1752 1711 1711 1672 1672 1672 1672 1599 1635 1711 1752 1752 1887 1887 1839 1839 1839 1839 1752 1752 1795 1839 1839 1887 1839 1839 1839 1887 1887 1936 1839 1839 1795 1752 1752 1752 1565 1672 1635 1565 1599 1565 1635 1565 1471 1599 1533 1501 1599 1533 1501 1388 1388 0 0 0 0 0 0 1226 1291 1247 1226 1206 1168 1132 1149 1149 1168 1187 1206 1291 1206 1098 1206 1036 886 955 943 931 943 931 943 931 919 1008 981 981 1338 0 1338 1098 0 876 836 855 836 808 791 808 799 799 808 0 0 0 0 0 0 1599 1599 1533 0 0 0 1565 1471 1501 1565 1565 1599 1533 1501 1672 1599 1752 1711 1635 1533 1533 1388 1443 1388 1415 1415 1415 1415 1415 1388 1471 1362 1388 1314 1291 1314 1291 1291 1291 1291 1291 1291 1338 1388 1388 1415 1388 1388 1443 1443 1415 1443 1362 1362 1338 1338 1362 1338 1314 0 0 0 0 0
    0 0 0 0 0 0 0 0 0 0 0 0 0 0 0 0 0 0 0 0 0 0 0 0 0 0 0 0 0 0 0 0 0 0 0 0 0 0 0 0 0 0 0 0 0 0 0 0 0 0 0 0 0 0 0 0 0 0 0 0 0 0 0 0 0 0 0 0 0 1839 1839 1887 1887 1936 1887 1887 1936 1887 1887 1989 1887 1936 1936 1936 1936 1936 1936 1936 1887 1887 1887 1839 1839 1839 1887 1839 1887 1839 1887 1887 1936 1936 1936 1839 1887 1839 1887 1839 1839 1839 1839 1839 1887 1839 1795 1795 1795 1795 1795 1795 1839 1839 1839 1887 1839 1839 1887 1839 1887 1887 1887 1839 1887 1887 1989 1936 1887 1887 1887 1887 1887 1839 1839 1795 1839 1839 1795 1752 1711 1711 1672 1711 1672 1672 1635 1672 1752 1795 1752 1887 1887 1839 1839 1839 1839 1752 1752 1795 1839 1887 1887 1887 1887 1839 1887 1887 1936 1839 1795 1795 1752 1752 1795 1565 1672 1635 1599 1599 1565 1635 1599 1471 1599 1533 1501 1599 1533 1501 1388 1388 0 1338 1338 1362 1291 1291 1226 1291 1268 1206 1206 1187 1115 1132 1132 1168 1168 1187 1268 1168 1082 1226 1036 886 955 955 931 943 943 955 931 931 0 0 0 1565 1533 1471 1388 1338 0 0 897 826 799 766 799 791 791 0 0 0 0 0 0 0 1565 1533 0 623 618 0 0 1415 1471 1533 1565 1565 1533 1501 1672 1635 1795 1752 1672 1533 1565 1388 1443 1415 1443 1443 1415 1415 1415 1388 1471 1338 1362 1291 1291 1291 1291 1291 1291 1291 1314 1268 1338 1388 1388 1415 1415 1415 1443 1501 1443 1501 1388 1388 1388 1362 1362 1338 1314 0 0 0 0 0
    0 0 0 0 0 0 0 0 0 0 0 0 0 0 0 0 0 0 0 0 0 0 0 0 0 0 0 0 0 0 0 0 0 0 0 0 0 0 0 0 0 0 0 0 0 0 0 0 0 0 0 0 0 0 0 0 0 0 0 0 0 0 0 0 0 0 0 0 0 1839 1795 1839 1839 1887 1839 1839 1887 1839 1839 1936 1839 1887 1887 1936 1887 1887 1887 1887 1839 1839 1839 1795 1795 1795 1839 1795 1795 1795 1839 1839 1887 1887 1887 1795 1839 1839 1887 1839 1839 1839 1839 1839 1839 1795 1795 1752 1752 1752 1752 1752 1752 1752 1795 1795 1795 1795 1839 1795 1839 1839 1839 1839 1839 1839 1936 1887 1839 1839 1839 1839 1839 1795 1795 1795 1795 1795 1752 1752 1711 1711 1711 1711 1711 1672 1672 1672 1752 1839 1752 1887 1887 1839 1839 1839 1839 1752 1711 1795 1795 1839 1887 1839 1839 1839 1887 1887 1936 1839 1795 1839 1752 1795 1795 1635 1672 1672 1599 1635 1599 1635 1635 1471 1599 1565 1533 1565 1533 1501 1388 1388 1388 1338 1338 1338 1314 1291 1247 1338 1291 1226 1206 1187 1115 1132 1132 1149 1149 1168 1268 1132 1066 1226 1036 886 955 955 943 943 943 955 943 931 0 0 1533 1635 1599 1565 1533 1443 1362 0 0 826 791 758 791 782 782 0 0 0 0 0 0 0 0 0 669 657 634 634 639 0 0 0 0 1565 1533 1471 1635 1599 1795 1795 1711 1565 1565 1388 1471 1443 1471 1443 1443 1443 1443 1388 1471 1314 1362 1268 1291 1291 1291 1291 0 1291 1314 1291 1362 1388 1415 1415 1415 1415 1443 1533 1415 1471 1362 1388 1362 1362 1362 1338 1291 0 0 0 0 0
    0 0 0 0 0 0 0 0 0 0 0 0 0 0 0 0 0 0 0 0 0 0 0 0 0 0 0 0 0 0 0 0 0 0 0 0 0 0 0 0 0 0 0 0 0 0 0 0 0 0 0 0 0 0 0 0 0 0 0 0 0 0 0 0 0 0 0 0 0 1839 1795 1795 1795 1839 1795 1795 1795 1752 1752 1839 1795 1795 1839 1839 1839 1839 1839 1839 1795 1795 1795 1752 1752 1711 1752 1752 1752 1752 1752 1752 1839 1839 1887 1795 1795 1795 1839 1839 1839 1839 1839 1839 1839 1795 1795 1752 1752 1752 1711 1711 1711 1752 1752 1752 1752 1752 1795 1795 1795 1795 1795 1795 1839 1839 1887 1839 1795 1795 1795 1795 1795 1752 1752 1752 1752 1795 1752 1711 1672 1711 1711 1711 1711 1711 1672 1711 1795 1887 1795 1887 1887 1839 1839 1839 1839 1752 1752 1795 1752 1795 1839 1839 1839 1839 1839 1887 1887 1839 1795 1795 1795 1795 1795 1672 1672 1711 1635 1672 1599 1672 1635 1471 1635 1565 1533 1533 1533 1501 1388 1362 0 1338 1338 1338 1314 1291 1247 1388 1314 1206 1206 1168 1115 1132 1132 1149 1149 1168 1268 1168 1082 1268 1036 886 955 955 943 943 943 0 943 931 0 0 1599 1672 1635 1635 1599 1471 1388 1338 0 808 799 743 791 782 791 0 0 799 0 0 808 735 743 721 700 687 669 669 675 639 645 613 588 1471 1443 1443 1635 1599 1795 1795 1672 1533 1533 1388 1471 1443 1471 1443 1443 1443 1443 1388 1471 1314 1338 1247 1268 1291 1291 1291 1291 1291 1314 1268 1362 1388 1415 1415 1415 1415 1443 1501 1415 1471 1388 1388 1388 1362 1388 1338 1291 0 0 0 0 0
    0 0 0 0 0 0 0 0 0 0 0 0 0 0 0 0 0 0 0 0 0 0 0 0 0 0 0 0 0 0 0 0 0 0 0 0 0 0 0 0 0 0 0 0 0 0 0 0 0 0 0 0 0 0 0 0 0 0 0 0 0 0 0 0 0 0 0 0 0 1839 1752 1752 1795 1839 1795 1752 1795 1752 1795 1839 1752 1795 1752 1795 1795 1795 1795 1752 1752 1752 1752 1711 1711 1672 1711 1711 1711 1752 1711 1752 1795 1795 1839 1752 1752 1752 1795 1839 1839 1839 1887 1839 1839 1839 1795 1752 1752 1752 1711 1711 1711 1711 1711 1711 1711 1711 1752 1752 1752 1752 1752 1752 1795 1795 1795 1795 1752 1752 1752 1752 1752 1711 1752 1752 1711 1752 1711 1711 1672 1711 1711 1711 1711 1711 1711 1752 1795 1839 1795 1887 1887 1839 1839 1839 1839 1752 1752 1795 1752 1795 1795 1795 1795 1795 1795 1839 1839 1839 1795 1795 1795 1839 1795 1711 1711 1711 1672 1672 1599 1672 1635 1471 1635 1565 1533 1533 1533 1501 1388 1388 0 0 1338 1338 1338 1291 1268 1388 1338 1206 1206 1168 1115 1132 1132 1149 1149 1168 1291 1187 1098 1314 1036 897 955 955 943 943 943 0 931 931 0 0 1635 1711 1672 1672 1635 1533 1415 1362 0 0 808 735 791 782 791 799 808 799 799 791 808 766 766 735 707 694 681 681 687 675 675 629 608 0 0 1362 1471 1471 1795 1752 1635 1471 1443 1362 1415 1415 1443 1415 1415 1415 1415 1362 1443 1268 1338 1226 1268 1268 1268 1291 1291 1268 1314 1268 1388 1388 1415 1415 1415 1415 1415 1471 1388 1415 1362 1388 1388 1362 1388 1338 1291 0 0 0 0 0
    0 0 0 0 0 0 0 0 0 0 0 0 0 0 0 0 0 0 0 0 0 0 0 0 0 0 0 0 0 0 0 0 0 0 0 0 0 0 0 0 0 0 0 0 0 0 0 0 0 0 0 0 0 0 0 0 0 0 0 0 0 0 0 0 0 0 0 0 0 1795 1711 1752 1711 1795 1752 1752 1752 1752 1795 1839 1752 1795 1752 1795 1752 1795 1752 1752 1711 1752 1752 1711 1711 1672 1711 1711 1711 1711 1711 1711 1752 1711 1795 1711 1711 1711 1752 1795 1795 1839 1887 1839 1839 1839 1795 1795 1752 1711 1711 1711 1711 1711 1672 1672 1672 1672 1711 1711 1711 1711 1711 1752 1795 1752 1752 1752 1711 1711 1711 1711 1711 1672 1711 1711 1635 1711 1672 1672 1635 1672 1672 1711 1672 1711 1672 1711 1752 1839 1795 1795 1839 1795 1795 1795 1839 1752 1752 1795 1752 1795 1795 1752 1752 1795 1752 1795 1795 1795 1752 1795 1795 1839 1795 1711 1711 1752 1672 1711 1599 1672 1635 1501 1635 1565 1533 1501 1533 1471 1388 1388 0 1338 1338 1362 1362 1291 1291 1388 1338 1187 1206 1168 1115 1132 1132 1149 1149 1149 1291 1206 1132 1314 1036 897 955 955 943 0 0 0 0 931 0 0 1635 1711 1711 1711 1672 1565 1415 1338 0 0 808 735 782 782 0 791 799 799 791 766 799 750 743 735 707 694 687 687 700 687 687 651 618 608 618 0 0 0 1565 1501 1533 1388 1362 1338 1388 1388 1388 1388 1388 1388 1388 1362 1415 1247 1314 1206 1247 0 1268 1268 1268 1268 1291 1268 1388 1388 1415 1415 1388 1388 1415 1443 1362 1388 1338 1362 1362 1362 1362 1338 1291 0 0 0 0 0
    0 0 0 0 0 0 0 0 0 0 0 0 0 0 0 0 0 0 0 0 0 0 0 0 0 0 0 0 0 0 0 0 0 0 0 0 0 0 0 0 0 0 0 0 0 0 0 0 0 0 0 0 0 0 0 0 0 0 0 0 0 0 0 0 0 0 0 0 0 1752 1672 1672 1672 1711 1672 1711 1672 1711 1752 1795 1711 1752 1711 1711 1752 1752 1711 1711 1711 1752 1711 1672 1672 1635 1672 1672 1711 1711 1672 1672 1711 1672 1752 1672 1635 1672 1672 1711 1711 1752 1839 1795 1795 1839 1795 1795 1752 1711 1711 1711 1672 1672 1635 1635 1635 1635 1672 1672 1672 1672 1711 1711 1752 1672 1711 1672 1672 1672 1672 1672 1711 1635 1672 1672 1635 1672 1635 1672 1635 1635 1672 1672 1672 1711 1672 1711 1752 1795 1795 1752 1795 1752 1752 1795 1795 1752 1752 1795 1795 1795 1795 1795 1795 1752 1752 1795 1752 1752 1752 1752 1752 1752 1752 1672 1672 1711 1672 1711 1599 1635 1635 1501 1635 1533 1501 1501 1533 1471 1388 1388 1388 1338 1362 1362 1362 1314 1291 1338 1338 1149 1206 1168 1115 1132 1132 0 1168 1168 1291 1206 1149 1291 1036 908 955 0 0 0 0 255 0 931 0 1388 1635 1752 1752 1752 1752 1635 1388 0 0 774 808 735 782 0 0 791 799 791 782 766 791 735 728 735 714 700 694 694 707 700 700 687 651 651 639 639 651 657 675 0 0 1314 1268 1291 1388 1362 1388 1362 1362 1362 1362 1362 1388 1226 1268 1187 0 0 0 0 1268 1247 1291 1268 1388 1388 1415 1388 1362 1388 1388 1388 1362 1388 1362 1362 1362 1362 1362 1338 1291 0 0 0 0 0
    0 0 0 0 0 0 0 0 0 0 0 0 0 0 0 0 0 0 0 0 0 0 0 0 0 0 0 0 0 0 0 0 0 0 0 0 0 0 0 0 0 0 0 0 0 0 0 0 0 0 0 0 0 0 0 0 0 0 0 0 0 0 0 0 0 0 0 0 0 1711 1635 1635 1635 1711 1635 1635 1599 1599 1672 1711 1635 1672 1635 1672 1672 1711 1672 1672 1672 1672 1672 1635 1635 1599 1635 1635 1635 1635 1635 1599 1672 1635 1711 1635 1635 1635 1635 1672 1672 1711 1752 1752 1752 1795 1752 1752 1752 1711 1711 1672 1635 1635 1599 1565 1599 1599 1672 1635 1635 1635 1635 1672 1711 1599 1635 1635 1635 1635 1635 1635 1635 1599 1599 1635 1565 1599 1599 1635 1599 1635 1672 1711 1672 1711 1711 1711 1752 1795 1795 1752 1752 1752 1752 1752 1795 1752 1795 1795 1795 1795 1795 1795 1795 1752 1711 1752 1711 1711 1711 1711 1711 1672 1672 1672 1635 1711 1672 1672 1565 1635 1672 1501 1599 1533 1501 1471 1501 1471 1388 1388 1388 1338 1362 1362 1362 1314 1314 1338 1314 1149 1206 1168 1115 0 0 0 1149 1149 1291 1206 1132 1268 1051 919 968 0 255 256 255 255 0 0 0 1443 1672 1752 1795 1795 1752 1635 1388 1314 0 0 799 735 774 782 0 782 791 791 774 750 782 728 721 728 714 700 700 694 721 714 714 707 694 694 669 669 669 663 675 669 681 694 0 0 675 0 1362 1338 1338 1338 1338 1338 1362 1206 1247 1168 1226 0 0 0 1247 1247 1291 1268 1388 1388 1415 1388 1362 1362 1362 1362 1338 1362 1338 1362 1362 1362 1338 1314 1268 0 0 0 0 0
    0 0 0 0 0 0 0 0 0 0 0 0 0 0 0 0 0 0 0 0 0 0 0 0 0 0 0 0 0 0 0 0 0 0 0 0 0 0 0 0 0 0 0 0 0 0 0 0 0 0 0 0 0 0 0 0 0 0 0 0 0 0 0 0 0 0 0 0 0 1672 1565 1565 1599 1599 1533 1533 1501 1471 1533 1599 1533 1599 1565 1599 1599 1635 1635 1635 1599 1599 1599 1533 1533 1501 1533 1533 1533 1501 1501 1471 1533 1533 1635 1565 1533 1565 1565 1565 1599 1635 1672 1672 1635 1711 1711 1711 1672 1635 1672 1599 1565 1565 1501 1501 1565 1565 1635 1599 1635 1635 1599 1635 1635 1533 1565 1565 1565 1565 1565 1599 1599 1565 1533 1599 1533 1533 1565 1565 1565 1599 1635 1672 1635 1672 1672 1672 1711 1711 1752 1711 1711 1711 1711 1752 1752 1752 1752 1752 1795 1752 1752 1752 1711 1711 1672 1711 1635 1672 1672 1672 1635 1635 1635 1635 1599 1672 1635 1599 1501 1599 1599 1471 1565 1501 1501 1443 1501 1443 1388 1388 1388 1362 1362 1362 1388 1338 1338 1338 1314 1132 1206 1168 1115 1132 0 0 1149 1149 1291 1206 1132 1247 1051 931 0 0 0 256 255 255 0 0 0 1443 1635 1752 1752 1752 1711 1565 1388 1314 0 0 791 728 774 774 766 774 774 782 766 735 766 721 721 728 721 707 700 700 750 743 743 743 714 714 694 694 687 681 681 675 675 681 681 669 663 645 629 0 0 1338 1338 1314 1338 1206 1247 1168 1226 1226 1226 1247 1268 1268 1291 1268 1388 1388 1415 1362 1338 1338 1338 1338 1338 1338 1338 1338 1338 1362 1338 1314 1247 0 0 0 0 0
    0 0 0 0 0 0 0 0 0 0 0 0 0 0 0 0 0 0 0 0 0 0 0 0 0 0 0 0 0 0 0 0 0 0 0 0 0 0 0 0 0 0 0 0 0 0 0 0 0 0 0 0 0 0 0 0 0 0 0 0 0 0 0 0 0 0 0 0 0 1599 1501 1471 1533 1533 1443 1471 1443 1388 1443 1501 1471 1533 1501 1533 1533 1565 1599 1565 1533 1533 1501 1443 1443 1415 1415 1415 1415 1388 1388 1388 1415 1415 1471 1443 1443 1443 1501 1471 1471 1501 1565 1565 1533 1672 1672 1635 1672 1635 1635 1533 1501 1501 1443 1443 1533 1501 1565 1533 1599 1599 1565 1599 1565 1471 1501 1471 1501 1471 1471 1533 1501 1501 1471 1533 1471 1501 1501 1533 1533 1565 1565 1599 1599 1635 1635 1635 1672 1672 1672 1635 1711 1672 1672 1711 1711 1711 1752 1711 1795 1711 1711 1711 1672 1672 1635 1635 1599 1635 1635 1672 1635 1635 1565 1599 1533 1565 1501 1443 1388 1471 1501 1415 1471 1443 1471 1415 1471 1443 1388 1388 1415 1362 1388 1388 1388 1338 1338 1314 1314 1115 1187 1168 1115 1132 1132 1149 1149 1149 1268 1187 1115 1226 1051 943 0 0 0 256 255 0 0 0 0 0 1599 1711 1711 1711 1672 1501 1362 1206 0 782 799 735 782 782 758 766 766 774 758 728 743 707 714 721 714 700 700 700 766 758 766 766 721 714 694 694 687 681 687 675 675 675 675 657 651 639 623 623 618 593 0 0 1314 1187 1247 1149 1226 1226 1226 1247 1268 1268 1291 1268 1415 1388 1415 1362 1338 1338 1314 1314 1314 1338 1314 1338 1338 1338 1338 1291 1226 0 0 0 0 0
    0 0 0 0 0 0 0 0 0 0 0 0 0 0 0 0 0 0 0 0 0 0 0 0 0 0 0 0 0 0 0 0 0 0 0 0 0 0 0 0 0 0 0 0 0 0 0 0 0 0 0 0 0 0 0 0 0 0 0 0 0 0 0 0 0 0 0 0 0 1501 1443 1415 1471 1471 1415 1415 1415 1388 1415 1471 1443 1501 1471 1501 1501 1533 1565 1501 1501 1471 1471 1415 1388 1388 1388 1388 1388 1362 1362 1362 1388 1388 1415 1443 1415 1443 1501 1443 1471 1471 1501 1533 1501 0 1635 1599 1672 1599 1635 1501 1471 1471 1415 1415 1471 1471 1501 1501 1565 1533 1501 1533 1471 1415 1443 1415 1443 1443 1443 1471 1443 1443 1415 1443 1443 1443 1443 1471 1471 1533 1533 1565 1565 1599 1599 1599 1635 1599 1635 1599 1672 1635 1635 1672 1672 1672 1711 1672 1752 1711 1672 1672 1565 1635 1565 1599 1533 1565 1565 1635 1599 1599 1501 1565 1471 1471 1415 1362 1362 1388 1415 1388 1415 1415 1443 1415 1443 1415 1388 1388 1415 1362 1388 1388 1388 1338 1338 1291 1291 1098 1187 1149 1115 1115 1115 1132 1149 1149 1268 1187 1098 1206 1051 0 0 0 0 0 255 0 0 931 1066 1149 1565 1599 1565 1533 1501 1388 1314 1036 0 808 817 735 782 782 758 758 758 766 743 721 735 700 707 0 707 0 0 694 782 766 791 799 735 721 700 707 700 687 694 687 681 681 675 663 651 634 623 629 618 603 603 593 0 1149 1206 1132 1206 1206 1206 1247 1247 1247 1291 1268 1415 1388 1415 1362 1338 1338 1314 1291 1291 1314 1314 1338 1338 1338 1314 1268 1206 0 0 0 0 0
    0 0 0 0 0 0 0 0 0 0 0 0 0 0 0 0 0 0 0 0 0 0 0 0 0 0 0 0 0 0 0 0 0 0 0 0 0 0 0 0 0 0 0 0 0 0 0 0 0 0 0 0 0 0 0 0 0 0 0 0 0 0 0 0 0 0 0 0 0 1443 1415 1388 1443 1415 1362 1362 1388 1362 1415 1443 1415 1443 1415 1471 1471 1471 1533 1443 1443 1415 1443 1388 1388 1388 1362 1362 1362 1338 1362 1362 1362 1388 1415 1415 1415 1415 1471 1443 1443 1443 1443 1471 1443 1599 1599 1501 1599 1501 1565 1415 1415 1415 1388 1388 1443 1443 1471 1471 1533 1471 1443 1471 1415 1388 1415 1388 1415 1415 1415 1443 1415 1415 1388 1415 1415 1415 1415 1443 1443 1471 1501 1533 1533 1565 1565 1565 1599 1565 1599 1565 1635 1599 1635 1672 1635 1635 1711 1635 1711 1672 1635 1599 0 1533 1501 1533 1471 1501 1501 1533 1565 1533 1415 1471 1415 1388 1362 1338 1314 1338 1362 1362 1362 1362 1415 1388 1415 1388 1388 1388 1415 1362 1388 1388 1388 1362 1338 1268 1247 1082 1168 1149 1115 1115 1115 1132 1149 1149 1268 1187 1098 1187 1051 0 0 0 0 0 254 0 0 931 1036 1051 1501 1501 1443 1415 1388 1338 1247 1008 836 826 826 735 782 782 758 758 758 766 743 721 728 700 700 0 0 0 0 0 791 774 808 817 766 735 707 714 700 694 700 687 681 681 675 663 639 629 623 623 618 598 598 584 584 579 0 1098 1168 1168 1187 1226 1247 1247 1291 1268 1415 1388 1415 1362 1314 1338 1314 1314 1314 1314 1314 1338 1314 1338 1291 1247 1187 0 0 0 0 0
    0 0 0 0 0 0 0 0 0 0 0 0 0 0 0 0 0 0 0 0 0 0 0 0 0 0 0 0 0 0 0 0 0 0 0 0 0 0 0 0 0 0 0 0 0 0 0 0 0 0 0 0 0 0 0 0 0 0 0 0 0 0 0 0 0 0 0 0 0 1388 1388 1362 1388 1388 1338 1338 1362 1362 1415 1415 1415 1415 1415 1443 1443 1415 1443 1362 1362 1362 1388 1388 1362 1362 1338 1338 1338 1338 1338 1338 1338 1388 1388 1415 1388 1415 1443 1415 1415 1388 1388 1415 1388 1501 1471 1415 1471 1388 1388 1338 1362 1362 1338 1338 1388 1388 1415 1415 1471 1415 1388 1415 1388 1362 1388 1362 1388 1388 1388 1415 1388 1388 1362 1362 1388 1388 1388 1388 1415 1443 1443 1501 1501 1533 1501 1533 1565 1501 1533 1501 1565 1533 1533 1565 1565 1565 1599 1533 1635 1565 1533 1501 0 1415 1415 1443 1388 1443 1443 1471 1471 1471 1388 1443 1388 1362 1338 1314 1314 1314 1338 1338 1338 1338 1388 1362 1388 1362 1388 1388 1388 1362 1388 1388 1415 1362 1338 1247 1226 1082 1168 1149 1115 1115 1115 1149 1149 1149 1268 1149 1082 1132 1051 931 0 0 0 0 0 0 0 0 0 0 1471 1443 1415 1415 1388 1338 1226 1008 865 855 836 743 791 791 758 766 758 766 743 721 728 700 694 0 0 0 0 0 782 791 845 855 808 766 714 721 707 700 694 681 681 681 681 663 639 629 623 623 613 598 593 570 574 570 557 0 0 1149 1149 1206 1226 1226 1268 1268 1388 1388 1388 1362 1314 1338 1314 1314 1314 1314 1314 1338 1314 1338 1291 1226 1168 0 0 0 0 0
    0 0 0 0 0 0 0 0 0 0 0 0 0 0 0 0 0 0 0 0 0 0 0 0 0 0 0 0 0 0 0 0 0 0 0 0 0 0 0 0 0 0 0 0 0 0 0 0 0 0 0 0 0 0 0 0 0 0 0 0 0 0 0 0 0 0 0 0 0 1362 1362 1362 1362 1338 1314 1314 1338 1338 1362 1388 1388 1388 1388 1388 1388 1388 1388 1338 1338 1338 1362 1362 1338 1338 1314 1314 1314 1314 1314 1314 1314 1338 1338 1362 1362 1362 1415 1388 1362 1362 1362 1362 1362 1415 1388 1362 1362 1314 1314 1291 1314 1314 1314 1314 1338 1338 1362 1388 1415 1362 1362 1388 1362 1362 1388 1362 1362 1362 1362 1388 1338 1362 1338 1338 1338 1338 1362 1362 1388 1415 1415 1443 1471 1471 1471 1501 1533 1443 1471 1443 1471 1415 1415 1415 1443 1388 1415 1388 1415 1362 1388 1388 1314 1314 1362 1362 1338 1388 1388 1415 1415 1415 1362 1388 1388 1338 1314 1291 1291 1314 1314 1338 1314 1314 1362 1362 1362 1362 1388 1362 1362 1338 1362 1362 1362 1338 1291 1206 1206 1066 1168 1132 1115 1115 1115 1149 1149 1149 1268 1115 1066 1098 1036 919 968 0 943 0 0 0 0 0 0 0 1501 1443 1388 1415 1415 1338 1226 1036 886 886 845 750 791 791 766 766 758 766 743 721 728 700 0 0 0 0 0 0 791 0 0 1008 931 0 782 774 735 721 707 687 687 681 681 663 639 623 618 623 618 603 598 574 579 570 570 570 561 0 0 1187 1226 1206 1247 1247 1338 1338 1362 1338 1291 1291 1291 1314 1314 1314 1291 1314 1314 1338 1291 1206 1149 0 0 0 0 0</data></depth>
</opencv_storage>
