<?xml version="1.0"?>
<opencv_storage>
<gps_time_stamp>21492</gps_time_stamp>
<gps_x>-2.5604870319366455e+000</gps_x>
<gps_y>1.9931520521640778e-001</gps_y>
<gps_z>-1.2062190473079681e-001</gps_z>
<image_time_stamp>9464</image_time_stamp>
<depth type_id="opencv-matrix">
  <rows>92</rows>
  <cols>320</cols>
  <dt>s</dt>
  <data>
    0 0 0 0 0 0 0 0 0 0 0 0 0 0 0 0 0 0 0 0 0 0 0 0 0 0 0 0 0 0 0 0 0 0 0 0 0 0 0 0 0 0 0 0 0 0 0 0 0 0 0 0 0 0 0 0 0 0 0 0 0 0 0 0 0 0 0 0 0 623 613 613 603 0 0 623 634 623 639 681 681 687 669 669 645 639 645 645 629 634 623 618 623 623 618 623 623 623 618 623 634 629 623 639 629 629 623 629 623 618 618 623 623 0 0 0 0 0 657 663 634 639 645 634 645 634 651 645 645 663 669 663 0 0 0 0 687 0 681 651 657 651 663 657 634 645 645 645 657 629 618 629 629 639 623 623 623 639 645 675 651 657 663 663 669 0 0 0 0 0 0 0 0 0 0 0 613 0 623 634 634 639 639 634 645 645 657 669 669 675 0 1051 1008 1022 994 994 1008 981 968 943 943 968 931 919 876 0 0 0 681 669 681 657 663 669 0 681 0 0 694 687 700 687 681 700 675 663 663 651 663 687 694 700 687 700 700 694 782 694 663 618 613 613 613 623 618 629 618 629 639 629 634 645 651 675 663 657 681 681 675 675 675 681 675 681 700 694 681 700 675 669 675 645 634 639 623 639 623 0 0 0 943 908 968 994 1022 1022 1022 1036 1082 0 0 1066 1082 1149 1098 994 0 817 721 0 0 0 0 471 474 457 471 474 474 468 471 477 474 474 487 0 0 0 0 0
    0 0 0 0 0 0 0 0 0 0 0 0 0 0 0 0 0 0 0 0 0 0 0 0 0 0 0 0 0 0 0 0 0 0 0 0 0 0 0 0 0 0 0 0 0 0 0 0 0 0 0 0 0 0 0 0 0 0 0 0 0 0 0 0 0 0 0 0 0 618 608 608 598 603 603 618 618 613 629 639 657 669 657 651 639 639 639 639 629 634 629 623 623 629 623 623 623 629 623 623 639 629 623 634 623 623 618 618 613 608 608 618 618 0 0 0 0 0 657 663 634 639 639 629 639 634 645 639 639 651 657 657 0 663 681 669 675 675 675 651 657 645 657 645 634 639 639 639 651 623 618 629 629 634 623 623 623 639 645 669 651 663 669 663 669 657 0 0 0 0 629 0 618 0 629 629 623 618 623 639 634 639 639 639 645 645 657 669 657 675 687 0 0 1022 1008 1022 1036 1008 981 955 955 968 919 886 0 687 681 675 669 657 669 645 651 663 681 669 669 675 675 675 694 681 681 687 669 663 663 645 663 675 681 681 675 681 675 669 694 657 629 613 608 608 603 613 608 623 618 629 639 629 634 639 645 669 651 657 675 675 669 669 669 669 669 675 694 681 669 681 651 651 657 629 629 629 618 629 613 618 0 0 0 0 0 0 1036 1022 0 0 0 0 0 0 0 0 0 0 0 721 707 0 389 0 0 471 471 457 471 474 474 468 471 477 474 474 487 0 0 0 0 0
    0 0 0 0 0 0 0 0 0 0 0 0 0 0 0 0 0 0 0 0 0 0 0 0 0 0 0 0 0 0 0 0 0 0 0 0 0 0 0 0 0 0 0 0 0 0 0 0 0 0 0 0 0 0 0 0 0 0 0 0 0 0 0 0 0 0 0 0 0 608 603 603 593 0 0 613 613 613 623 634 651 663 651 645 634 634 634 634 629 634 629 623 629 629 623 629 629 629 623 629 639 629 623 629 618 618 618 613 608 608 608 618 618 0 0 0 0 639 657 657 634 634 639 629 639 634 639 634 634 645 651 645 669 657 681 657 669 669 663 639 645 639 645 639 634 639 634 634 645 623 618 629 629 634 623 629 629 639 645 669 651 657 663 657 651 645 623 0 629 629 623 618 618 0 629 629 623 618 623 639 634 639 645 639 645 645 657 669 651 675 681 681 687 0 0 1082 1098 1051 1022 994 981 981 919 865 0 0 669 657 657 651 663 645 645 651 675 657 657 657 657 663 681 669 669 675 663 657 657 639 657 663 663 669 663 669 663 657 681 634 618 613 613 608 603 608 608 623 618 629 634 623 634 634 639 651 634 639 663 663 657 657 657 657 657 663 687 669 657 669 639 651 651 629 629 629 618 623 608 613 629 634 0 0 0 0 0 0 0 603 0 0 613 613 618 629 651 663 687 694 700 0 0 0 0 468 471 454 471 474 474 468 471 477 474 474 490 0 0 0 0 0
    0 0 0 0 0 0 0 0 0 0 0 0 0 0 0 0 0 0 0 0 0 0 0 0 0 0 0 0 0 0 0 0 0 0 0 0 0 0 0 0 0 0 0 0 0 0 0 0 0 0 0 0 0 0 0 0 0 0 0 0 0 0 0 0 0 0 0 0 0 0 593 593 579 0 0 0 603 603 613 623 634 639 634 629 618 623 623 629 618 634 623 623 629 634 629 629 629 634 623 629 639 623 618 629 618 618 618 618 608 608 608 613 618 0 0 0 629 639 657 663 634 634 639 629 639 634 639 634 634 645 645 645 663 651 675 651 657 663 651 634 639 639 639 634 634 639 634 634 645 623 618 629 629 634 623 629 629 634 639 663 645 651 657 645 645 639 623 634 629 629 623 623 623 0 629 629 623 623 623 639 634 639 645 639 645 645 657 669 651 669 681 675 675 669 663 657 1168 1098 1051 1036 994 981 908 0 687 645 663 651 651 651 657 645 645 651 669 645 645 651 645 657 669 663 663 669 657 651 651 634 657 657 651 657 651 657 645 639 669 623 608 608 608 603 603 608 603 618 613 629 629 623 629 629 629 634 623 629 639 634 639 639 639 639 639 651 675 657 645 657 634 645 639 623 623 623 618 623 613 618 623 623 623 613 608 608 598 603 603 593 603 603 603 608 613 623 645 669 694 694 700 675 0 0 0 465 471 454 471 474 474 465 471 477 474 474 490 0 0 0 0 0
    0 0 0 0 0 0 0 0 0 0 0 0 0 0 0 0 0 0 0 0 0 0 0 0 0 0 0 0 0 0 0 0 0 0 0 0 0 0 0 0 0 0 0 0 0 0 0 0 0 0 0 0 0 0 0 0 0 0 0 0 0 0 0 0 0 0 0 0 0 0 579 574 566 566 561 579 588 588 593 593 618 618 0 613 574 0 574 608 0 623 623 618 629 634 629 629 629 629 618 623 634 618 613 618 608 613 613 613 608 608 603 608 613 0 618 0 623 634 651 663 634 639 645 629 639 634 639 634 634 639 645 639 663 639 669 639 645 651 639 629 639 639 639 634 634 639 634 634 645 629 618 629 629 629 623 629 629 634 639 663 645 645 651 639 639 639 623 639 634 634 629 629 629 634 639 634 629 623 623 639 634 645 645 645 651 651 657 669 651 669 669 669 669 663 651 651 639 0 0 0 0 651 669 675 669 634 657 645 651 645 651 645 645 645 669 645 645 639 634 645 657 651 651 663 651 651 651 634 651 645 645 645 639 639 634 634 651 613 603 608 603 603 598 603 598 608 603 623 629 629 629 629 629 629 623 629 623 623 623 623 623 623 623 629 645 634 634 645 629 639 634 623 623 623 623 629 613 618 623 623 629 618 608 608 603 603 598 593 603 598 603 603 608 618 634 663 687 681 694 645 0 0 0 468 471 454 471 474 474 465 471 477 474 474 490 0 0 0 0 0
    0 0 0 0 0 0 0 0 0 0 0 0 0 0 0 0 0 0 0 0 0 0 0 0 0 0 0 0 0 0 0 0 0 0 0 0 0 0 0 0 0 0 0 0 0 0 0 0 0 0 0 0 0 0 0 0 0 0 0 0 0 0 0 0 0 0 0 0 0 0 557 0 549 0 0 549 570 570 561 557 549 0 0 545 0 0 529 537 0 0 613 618 623 629 623 629 623 623 613 618 618 603 588 593 584 579 579 584 588 588 593 0 0 0 0 613 0 0 634 651 629 629 629 623 634 629 634 629 629 639 639 634 657 634 669 629 639 645 634 629 634 634 639 634 634 639 634 629 639 623 618 623 623 629 623 623 623 634 639 657 639 639 645 639 634 634 623 634 629 629 629 629 629 634 639 639 629 629 623 645 639 645 645 645 651 651 657 669 651 669 663 657 657 657 645 645 639 639 639 634 629 629 645 651 645 629 651 645 645 645 651 645 645 645 663 639 639 639 634 639 645 639 645 657 645 651 651 634 651 645 645 645 639 634 634 629 651 613 598 603 598 598 598 598 588 588 588 613 618 613 618 618 618 623 618 618 613 608 608 608 608 608 608 613 618 618 618 629 623 629 623 618 623 623 623 623 618 623 623 623 629 623 613 608 603 603 598 598 603 603 603 608 613 623 634 663 687 663 669 629 0 0 0 468 468 451 471 474 474 465 468 477 474 474 490 0 0 0 0 0
    0 0 0 0 0 0 0 0 0 0 0 0 0 0 0 0 0 0 0 0 0 0 0 0 0 0 0 0 0 0 0 0 0 0 0 0 0 0 0 0 0 0 0 0 0 0 0 0 0 0 0 0 0 0 0 0 0 0 0 0 0 0 0 0 0 0 0 0 0 0 545 0 537 0 0 537 553 553 541 537 533 533 525 525 521 0 525 529 533 0 603 613 618 623 623 618 613 613 603 603 603 579 553 557 549 541 537 537 549 549 0 0 0 0 0 603 0 0 0 0 618 618 618 613 623 623 629 623 629 634 634 634 651 629 663 623 634 639 634 623 629 634 634 634 634 634 629 629 634 623 613 623 623 618 618 618 618 629 629 645 629 629 634 629 623 623 618 623 623 623 623 623 623 629 639 639 629 629 623 645 634 645 645 645 657 657 657 675 651 663 657 651 645 645 634 634 634 634 634 634 629 623 634 639 639 629 651 645 645 645 651 645 645 651 669 639 645 639 634 634 639 634 639 645 645 651 651 629 651 651 651 651 645 634 634 629 651 608 598 603 598 598 598 598 584 584 588 598 598 593 603 598 598 603 603 598 598 598 603 598 598 598 603 608 608 608 608 613 608 613 608 608 618 623 629 623 618 623 623 629 629 618 613 608 598 603 598 593 603 603 603 608 613 629 639 669 687 657 657 0 0 0 0 468 471 451 471 474 474 465 471 477 474 474 493 0 0 0 0 0
    0 0 0 0 0 0 0 0 0 0 0 0 0 0 0 0 0 0 0 0 0 0 0 0 0 0 0 0 0 0 0 0 0 0 0 0 0 0 0 0 0 0 0 0 0 0 0 0 0 0 0 0 0 0 0 0 0 0 0 0 0 0 0 0 0 0 0 0 0 0 533 529 533 533 533 533 545 541 537 537 529 533 521 521 514 0 525 525 529 529 549 549 0 618 613 608 593 593 579 561 566 549 537 537 537 537 529 533 537 537 0 0 0 0 0 574 0 0 0 0 598 0 0 593 618 613 618 618 623 623 629 629 645 618 651 618 629 634 623 618 623 629 634 629 629 629 623 618 623 618 608 618 618 613 608 613 613 618 618 629 613 613 618 618 608 608 603 613 608 613 608 613 618 629 634 634 623 629 618 639 634 639 645 645 651 651 651 675 639 657 645 634 634 629 618 623 618 629 623 623 623 618 629 634 634 623 651 645 645 651 657 651 651 651 669 645 645 639 629 629 629 629 629 634 639 651 651 629 651 651 651 651 651 634 629 629 645 608 598 598 598 598 598 598 584 579 579 579 574 566 570 570 574 584 584 584 593 593 598 593 598 598 598 603 603 608 603 603 598 598 593 598 603 608 613 613 608 613 613 618 623 608 593 593 584 593 588 588 598 593 593 598 608 618 623 657 675 634 0 0 0 0 0 471 471 454 471 474 474 468 471 477 474 474 497 0 0 0 0 0
    0 0 0 0 0 0 0 0 0 0 0 0 0 0 0 0 0 0 0 0 0 0 0 0 0 0 0 0 0 0 0 0 0 0 0 0 0 0 0 0 0 0 0 0 0 0 0 0 0 0 0 0 0 0 0 0 0 0 0 0 0 0 0 0 0 0 0 0 0 0 529 525 529 533 529 533 537 537 537 541 533 533 525 525 514 525 525 525 525 525 533 533 537 593 593 574 553 557 549 541 545 541 537 533 529 533 525 529 533 533 537 537 537 545 545 553 0 0 0 0 553 0 0 570 0 603 608 613 618 618 618 623 639 608 634 613 623 618 613 608 613 618 623 623 623 618 613 608 608 603 588 603 608 593 588 593 598 603 608 608 593 588 598 598 579 588 588 598 593 598 593 603 603 618 623 623 618 623 618 639 629 634 634 634 639 639 639 657 618 623 608 603 613 608 603 603 603 613 613 613 613 608 618 623 629 623 651 645 651 651 657 657 651 657 675 639 639 634 618 618 613 613 613 623 623 639 639 623 651 651 651 651 651 634 629 629 639 608 598 598 598 593 598 598 579 566 566 561 557 553 553 553 553 557 566 574 584 588 593 588 588 593 598 598 598 603 598 593 593 593 584 584 588 588 588 593 593 593 593 598 603 579 566 574 570 579 579 579 584 584 584 588 593 608 608 639 657 623 566 0 0 0 0 474 474 457 471 474 474 471 471 477 474 477 500 0 0 0 0 0
    0 0 0 0 0 0 0 0 0 0 0 0 0 0 0 0 0 0 0 0 0 0 0 0 0 0 0 0 0 0 0 0 0 0 0 0 0 0 0 0 0 0 0 0 0 0 0 0 0 0 0 0 0 0 0 0 0 0 0 0 0 0 0 0 0 0 0 0 0 525 525 525 529 533 529 533 537 537 537 541 537 537 529 525 514 525 525 525 525 525 533 529 529 537 537 545 541 541 537 533 537 533 533 529 525 529 518 525 529 529 533 533 533 537 537 545 0 0 541 529 541 0 0 553 0 584 593 608 613 613 618 623 634 603 0 598 613 608 598 593 603 608 613 613 618 603 598 0 584 570 553 579 593 574 561 574 574 579 584 588 574 561 574 579 561 574 570 579 579 584 579 584 588 608 608 613 603 613 613 634 623 629 629 623 629 623 618 618 598 588 584 570 570 570 570 579 0 593 598 593 603 598 608 613 623 618 645 639 645 651 657 657 651 651 669 634 629 618 603 598 593 593 593 603 613 623 623 618 645 651 645 651 645 634 629 629 639 603 593 598 593 593 593 593 566 561 557 553 549 549 549 549 545 553 553 561 574 584 584 579 579 584 593 593 593 598 579 574 579 574 566 566 566 561 557 566 566 561 566 566 561 549 553 557 561 570 570 570 570 570 570 570 574 588 579 598 584 593 549 0 0 0 0 474 477 459 474 474 474 471 471 477 474 474 497 0 0 0 0 0
    0 0 0 0 0 0 0 0 0 0 0 0 0 0 0 0 0 0 0 0 0 0 0 0 0 0 0 0 0 0 0 0 0 0 0 0 0 0 0 0 0 0 0 0 0 0 0 0 0 0 0 0 0 0 0 0 0 0 0 0 0 0 0 0 0 0 0 0 0 525 529 529 529 533 533 533 537 537 537 541 537 0 529 525 514 525 525 521 525 521 529 525 525 529 533 537 533 533 533 529 533 533 533 529 525 529 518 521 521 525 529 529 529 533 533 541 537 0 537 525 537 533 0 545 0 557 561 584 603 603 608 0 618 588 598 570 579 584 584 561 574 584 593 588 588 570 0 0 541 537 537 545 570 553 549 557 557 557 561 570 557 553 561 570 553 561 561 566 566 566 566 566 570 593 584 598 0 588 0 623 613 623 618 0 618 613 598 598 579 561 566 557 557 553 557 0 0 561 579 570 584 588 598 603 608 613 639 639 645 645 651 657 645 645 663 618 608 603 574 566 566 570 570 579 588 603 603 608 639 645 639 639 639 629 623 629 639 603 593 598 598 593 593 593 561 557 557 553 549 549 549 549 549 553 549 557 561 579 574 566 566 570 579 579 579 588 553 557 561 561 557 557 561 557 553 561 561 561 566 570 566 549 553 553 557 561 561 561 557 561 561 561 566 570 566 570 553 561 549 0 0 487 0 477 477 459 474 474 474 471 471 477 474 474 493 0 0 0 0 0
    0 0 0 0 0 0 0 0 0 0 0 0 0 0 0 0 0 0 0 0 0 0 0 0 0 0 0 0 0 0 0 0 0 0 0 0 0 0 0 0 0 0 0 0 0 0 0 0 0 0 0 0 0 0 0 0 0 0 0 0 0 0 0 0 0 0 0 0 0 529 529 529 533 537 537 537 537 541 537 541 541 541 533 525 511 521 525 521 525 521 525 525 525 525 529 529 525 529 529 529 529 529 533 529 525 529 514 521 518 521 525 525 529 533 533 537 533 537 537 525 537 533 529 0 0 545 541 545 584 561 584 0 0 553 553 549 553 561 561 549 549 553 557 553 545 541 533 529 533 533 533 537 549 545 541 549 549 549 553 557 553 549 557 566 549 557 557 557 557 557 557 553 553 574 557 570 549 549 537 0 593 608 0 0 0 593 566 579 561 553 557 553 553 549 553 0 0 553 561 557 566 570 584 584 598 603 629 634 639 645 651 651 645 639 651 603 584 588 557 553 557 553 557 561 566 574 579 588 629 634 629 629 629 618 618 623 629 603 593 598 593 593 593 588 557 557 557 549 549 549 549 549 545 553 545 553 557 570 566 557 557 561 566 561 561 570 545 549 557 553 553 553 557 557 553 561 561 561 570 579 584 570 574 561 566 561 561 566 557 561 557 557 561 561 561 561 549 557 545 521 0 487 0 477 477 462 474 474 474 471 471 477 474 474 487 0 0 0 0 0
    0 0 0 0 0 0 0 0 0 0 0 0 0 0 0 0 0 0 0 0 0 0 0 0 0 0 0 0 0 0 0 0 0 0 0 0 0 0 0 0 0 0 0 0 0 0 0 0 0 0 0 0 0 0 0 0 0 0 0 0 0 0 0 0 0 0 0 0 0 529 529 529 533 537 537 537 537 537 533 537 537 537 529 521 511 521 521 521 521 521 525 521 525 525 529 529 529 533 533 529 533 533 537 529 529 533 518 521 518 521 525 525 529 533 533 541 533 541 537 525 533 533 525 533 533 537 533 533 549 537 549 557 549 537 537 541 541 549 553 541 537 541 541 541 533 533 529 525 529 533 529 533 537 541 537 545 545 541 545 549 549 545 549 561 545 553 553 549 549 549 549 549 545 561 545 549 545 541 533 0 570 579 0 0 566 566 553 561 557 545 549 549 549 545 553 553 549 549 557 553 561 561 574 570 593 593 603 618 629 629 639 645 639 629 0 588 561 570 549 549 553 549 553 553 553 557 561 566 613 618 613 613 613 613 613 613 618 598 593 598 593 593 593 584 557 557 557 549 549 549 549 545 545 549 545 545 549 553 549 545 541 545 545 541 541 549 537 545 553 549 553 553 557 553 553 561 561 561 561 570 566 561 566 557 561 553 553 561 553 557 553 553 553 553 553 553 545 549 541 511 0 487 0 481 481 465 474 474 474 471 471 477 471 471 484 0 0 0 0 0
    0 0 0 0 0 0 0 0 0 0 0 0 0 0 0 0 0 0 0 0 0 0 0 0 0 0 0 0 0 0 0 0 0 0 0 0 0 0 0 0 0 0 0 0 0 0 0 0 0 0 0 0 0 0 0 0 0 0 0 0 0 0 0 0 0 0 0 0 0 533 533 533 533 537 533 537 537 533 533 537 533 537 529 521 511 521 525 521 521 521 525 521 525 529 529 529 529 533 537 533 537 537 537 533 533 533 521 521 518 521 525 525 529 533 533 541 533 537 537 525 533 533 529 533 533 533 533 533 541 537 537 0 537 529 529 537 537 549 549 541 533 541 541 541 533 533 529 529 529 533 529 533 537 537 533 541 541 541 541 545 545 541 545 557 541 549 549 549 549 549 545 545 541 553 541 545 541 0 537 541 553 557 549 549 549 553 545 553 553 545 549 549 549 545 549 553 549 549 557 553 557 557 570 566 579 579 584 598 598 603 613 629 629 0 0 561 553 561 545 545 549 549 549 549 549 553 553 557 588 603 603 593 598 598 598 603 608 593 584 593 593 588 588 584 553 557 557 549 549 549 549 545 545 549 541 541 541 541 537 525 525 529 529 521 533 533 533 537 549 549 549 549 553 553 553 557 561 557 557 557 541 541 545 545 545 537 541 549 545 549 549 545 545 545 549 545 541 545 533 507 504 490 471 481 481 465 474 474 471 471 471 477 471 471 481 0 0 0 0 0
    0 0 0 0 0 0 0 0 0 0 0 0 0 0 0 0 0 0 0 0 0 0 0 0 0 0 0 0 0 0 0 0 0 0 0 0 0 0 0 0 0 0 0 0 0 0 0 0 0 0 0 0 0 0 0 0 0 0 0 0 0 0 0 0 0 0 0 0 0 537 537 537 537 541 537 537 533 533 533 533 537 537 529 521 511 525 525 521 521 521 525 525 525 529 529 529 529 533 537 537 537 537 537 533 533 533 521 521 521 521 529 525 529 533 537 541 533 541 537 525 533 533 529 533 533 533 533 529 541 533 533 0 533 525 521 533 529 545 545 541 537 541 541 541 533 533 533 529 533 533 529 533 533 537 529 541 541 537 0 0 541 541 545 553 541 549 549 545 545 545 545 545 541 553 541 545 541 541 537 541 549 549 545 545 545 545 541 549 549 545 545 545 549 545 549 553 545 549 557 553 557 557 561 557 566 566 561 566 557 566 561 561 549 0 545 545 545 553 541 545 549 545 545 545 545 549 549 553 561 579 584 574 584 584 579 588 593 584 579 584 588 584 584 579 553 557 557 549 549 549 549 545 545 553 541 533 537 537 525 511 514 518 518 511 521 525 525 533 545 545 545 545 549 549 549 553 557 549 549 541 529 529 529 529 529 525 529 537 533 541 541 541 541 541 541 537 537 537 529 507 507 490 474 481 481 465 474 474 471 471 468 477 471 471 481 0 0 0 0 0
    0 0 0 0 0 0 0 0 0 0 0 0 0 0 0 0 0 0 0 0 0 0 0 0 0 0 0 0 0 0 0 0 0 0 0 0 0 0 0 0 0 0 0 0 0 0 0 0 0 0 0 0 0 0 0 0 0 0 0 0 0 0 0 0 0 0 0 0 0 537 537 537 537 541 537 537 537 537 537 541 541 541 533 529 514 525 529 521 525 521 525 525 525 529 529 529 529 533 537 533 537 537 537 533 533 533 521 525 521 521 529 529 533 533 537 541 533 541 537 529 533 533 529 533 533 533 529 529 537 533 529 537 529 521 518 529 529 541 545 541 537 545 541 541 533 537 533 533 533 537 533 533 537 537 529 541 541 537 0 0 541 541 545 553 537 545 549 545 545 545 545 545 541 557 541 0 0 541 537 541 549 549 541 541 545 545 541 549 549 545 545 545 549 545 549 553 545 549 557 549 557 553 561 553 557 557 553 553 545 549 545 545 541 545 541 541 545 549 541 545 549 545 545 545 545 545 549 553 553 557 561 557 566 570 566 574 584 574 570 574 584 574 574 570 549 557 557 549 549 549 549 549 549 561 541 525 529 533 518 504 511 511 511 507 521 518 518 525 537 541 545 545 545 545 545 549 549 541 537 529 518 518 521 518 518 518 521 529 529 537 541 537 537 537 541 537 529 533 529 504 504 490 471 481 481 462 471 471 468 468 468 474 471 471 481 0 0 0 0 0
    0 0 0 0 0 0 0 0 0 0 0 0 0 0 0 0 0 0 0 0 0 0 0 0 0 0 0 0 0 0 0 0 0 0 0 0 0 0 0 0 0 0 0 0 0 0 0 0 0 0 0 0 0 0 0 0 0 0 0 0 0 0 0 0 0 0 0 0 0 537 537 537 533 541 537 533 537 533 537 541 545 545 533 533 514 529 529 525 525 525 525 525 525 529 529 525 529 533 533 533 537 537 541 537 537 537 525 529 525 525 533 529 533 537 537 541 533 541 537 525 533 533 529 533 529 533 529 529 537 529 529 537 525 521 525 541 537 549 545 545 541 549 545 541 537 537 537 537 537 541 533 533 537 537 533 541 537 533 537 537 541 541 541 549 537 545 545 545 545 545 545 545 541 561 541 0 0 537 533 541 545 549 541 541 545 545 541 553 549 0 549 549 549 545 549 553 545 549 557 553 557 557 561 553 557 557 553 549 545 545 545 545 541 545 541 541 549 549 545 545 549 545 545 549 545 545 545 549 549 549 553 549 557 561 561 561 570 566 566 570 579 570 570 566 549 557 557 553 553 553 549 549 549 561 537 518 521 525 511 504 511 511 511 507 521 518 518 525 537 537 541 541 545 541 545 545 545 529 529 518 514 514 518 514 514 514 521 525 529 537 537 541 541 537 541 537 533 537 525 504 504 487 474 481 481 462 471 471 468 468 468 474 468 468 481 0 0 0 0 0
    0 0 0 0 0 0 0 0 0 0 0 0 0 0 0 0 0 0 0 0 0 0 0 0 0 0 0 0 0 0 0 0 0 0 0 0 0 0 0 0 0 0 0 0 0 0 0 0 0 0 0 0 0 0 0 0 0 0 0 0 0 0 0 0 0 0 0 0 0 533 529 529 525 529 525 518 0 0 0 0 0 541 529 529 0 0 529 525 525 525 525 525 525 529 525 521 529 533 533 533 537 537 541 537 541 537 529 529 525 525 533 533 533 537 541 541 0 541 541 525 533 533 525 529 529 533 529 525 537 529 525 537 525 529 533 537 541 541 541 541 537 545 541 541 541 541 541 541 541 545 537 537 537 533 533 541 541 537 537 541 541 541 545 549 533 545 545 549 549 549 549 549 545 566 545 0 0 537 529 537 541 545 537 541 545 545 541 553 549 0 0 549 549 545 549 553 545 549 557 549 557 553 557 553 557 553 549 549 545 545 545 545 545 545 541 545 549 549 545 549 549 545 545 549 545 545 545 549 545 545 545 545 549 553 553 553 557 557 561 566 574 566 566 557 545 557 561 553 553 553 549 549 549 566 533 507 514 521 511 507 511 514 511 511 525 521 518 525 537 529 537 541 541 541 541 545 541 521 525 514 507 511 511 507 511 507 518 518 525 537 537 537 541 537 541 541 533 533 521 497 500 487 474 481 481 462 471 471 468 468 468 471 468 468 481 0 0 0 0 0
    0 0 0 0 0 0 0 0 0 0 0 0 0 0 0 0 0 0 0 0 0 0 0 0 0 0 0 0 0 0 0 0 0 0 0 0 0 0 0 0 0 0 0 0 0 0 0 0 0 0 0 0 0 0 0 0 0 0 0 0 0 0 0 0 0 0 0 0 0 529 525 514 500 0 497 0 0 471 0 0 0 541 514 518 500 525 529 521 521 521 521 521 521 525 525 521 525 533 533 533 537 537 541 537 541 537 529 521 518 521 525 525 529 533 545 545 0 0 537 525 533 529 525 529 525 529 525 525 533 525 525 533 525 525 529 525 529 533 533 541 529 545 541 541 545 541 545 545 545 549 537 537 537 533 541 541 541 537 537 541 541 541 545 545 533 545 549 549 549 549 549 549 545 566 545 0 541 537 533 537 541 541 533 537 541 545 0 549 549 0 0 549 549 545 549 557 549 549 561 553 557 553 557 549 553 553 549 545 545 545 545 545 545 545 541 545 549 549 545 549 545 545 545 545 545 545 545 549 545 541 545 545 549 549 549 549 553 553 561 561 579 561 570 557 545 557 561 553 553 553 549 545 545 561 529 507 514 518 511 507 514 514 511 514 525 521 518 525 533 518 514 521 533 525 537 533 533 497 511 507 504 507 507 504 507 504 511 511 518 529 529 529 533 525 529 529 521 525 514 490 490 487 474 481 481 462 471 468 468 468 468 471 468 471 481 0 0 0 0 0
    0 0 0 0 0 0 0 0 0 0 0 0 0 0 0 0 0 0 0 0 0 0 0 0 0 0 0 0 0 0 0 0 0 0 0 0 0 0 0 0 0 0 0 0 0 0 0 0 0 0 0 0 0 0 0 0 0 0 0 0 0 0 0 0 0 0 0 0 0 529 514 500 0 0 0 471 0 465 465 0 0 0 500 507 493 521 529 521 518 521 521 525 525 525 525 518 525 533 533 533 533 537 541 541 545 537 529 511 500 507 507 500 0 0 0 0 0 0 537 518 529 529 521 525 525 529 521 525 533 521 518 529 518 514 511 507 500 504 518 529 518 529 541 545 545 541 545 549 549 553 541 541 537 533 541 545 545 541 541 541 541 541 549 545 533 545 549 549 549 549 549 549 549 570 545 557 545 537 533 541 541 541 533 537 545 545 0 549 549 0 549 549 549 549 553 557 549 553 561 553 561 553 557 549 553 553 549 545 545 545 545 549 545 545 545 545 549 549 541 549 545 545 545 545 545 541 541 545 541 541 541 541 545 549 549 549 553 549 557 561 574 557 566 553 541 557 557 553 553 553 549 545 545 561 529 507 514 518 511 511 514 511 511 514 521 514 511 518 525 493 484 481 481 481 474 484 484 484 493 497 500 504 504 500 504 500 507 504 507 518 514 514 521 507 507 504 500 507 493 484 484 484 474 481 477 462 468 468 465 468 468 471 468 471 481 0 0 0 0 0
    0 0 0 0 0 0 0 0 0 0 0 0 0 0 0 0 0 0 0 0 0 0 0 0 0 0 0 0 0 0 0 0 0 0 0 0 0 0 0 0 0 0 0 0 0 0 0 0 0 0 0 0 0 0 0 0 0 0 0 0 0 0 0 0 0 0 0 0 0 0 0 0 0 0 446 454 462 451 448 454 0 0 484 493 0 521 529 521 518 518 521 521 521 525 518 514 518 529 529 525 529 533 541 541 549 0 0 0 0 0 0 0 0 0 0 0 0 529 525 507 525 521 518 521 521 525 521 521 529 518 514 525 504 490 484 484 477 477 497 0 504 0 0 0 545 541 0 0 545 549 0 537 537 529 545 545 545 541 541 541 541 545 549 541 529 545 545 549 553 549 549 553 549 570 549 0 0 533 529 541 541 541 537 541 549 549 0 553 549 545 549 549 549 549 549 557 549 553 566 557 561 557 557 549 553 549 545 545 541 545 545 545 545 545 545 545 549 549 541 549 545 545 545 545 545 541 541 545 541 541 541 541 545 549 549 549 549 549 553 557 566 553 557 549 541 553 557 553 553 549 545 545 541 557 529 507 514 514 511 507 511 507 507 507 514 504 500 504 504 481 471 465 468 468 462 468 474 474 484 493 493 497 497 497 497 497 497 490 490 490 490 490 500 487 484 484 484 490 484 474 481 477 474 477 481 465 471 471 468 471 468 471 471 471 481 0 0 0 0 0
    0 0 0 0 0 0 0 0 0 0 0 0 0 0 0 0 0 0 0 0 0 0 0 0 0 0 0 0 0 0 0 0 0 0 0 0 0 0 0 0 0 0 0 0 0 0 0 0 0 0 0 0 0 0 0 0 0 0 0 0 0 0 0 0 0 0 0 0 0 0 0 0 0 0 435 440 446 443 440 440 443 451 462 477 465 0 529 521 521 518 518 521 518 521 507 500 504 511 511 0 0 0 529 0 0 0 0 411 415 420 0 0 0 0 0 0 435 0 497 493 511 511 507 514 518 521 518 518 529 511 507 521 493 477 468 454 446 448 448 451 484 0 0 0 0 525 0 0 0 0 0 0 529 518 545 545 545 541 541 541 541 541 549 537 518 541 545 545 553 549 549 553 553 579 553 0 0 525 504 533 529 529 525 0 0 549 0 553 549 545 549 549 549 545 549 557 549 553 566 557 561 561 557 553 549 549 541 545 541 545 545 545 545 545 545 549 549 549 545 549 545 549 545 545 545 541 541 545 537 541 537 537 545 549 545 545 549 549 549 557 561 553 553 549 541 553 557 553 553 549 545 541 541 553 525 507 514 514 511 511 511 507 504 500 504 493 490 490 487 474 468 459 462 462 459 459 468 468 481 487 490 493 493 493 493 490 490 484 0 0 477 477 484 477 474 474 474 477 474 465 471 474 471 474 481 468 471 471 471 471 471 474 471 471 481 0 0 0 0 0
    0 0 0 0 0 0 0 0 0 0 0 0 0 0 0 0 0 0 0 0 0 0 0 0 0 0 0 0 0 0 0 0 0 0 0 0 0 0 0 0 0 0 0 0 0 0 0 0 0 0 0 0 0 0 0 0 0 0 0 0 0 0 0 0 0 0 0 0 0 0 0 427 422 427 427 432 438 438 435 435 438 440 440 454 443 0 521 511 518 504 497 500 497 504 490 487 0 0 0 0 0 0 0 0 0 0 422 415 420 420 427 425 425 0 0 432 435 427 471 481 493 493 493 504 507 518 511 514 521 504 500 507 484 468 454 446 443 448 446 448 468 462 462 465 0 0 0 0 0 0 0 0 525 511 545 545 545 541 541 541 541 541 0 533 484 0 541 541 545 0 0 0 0 0 0 0 0 504 0 514 511 511 504 0 0 545 0 549 541 541 545 545 545 541 545 549 545 549 0 0 0 0 553 0 549 0 541 545 541 545 545 545 541 545 545 545 549 549 541 549 545 549 545 549 545 541 541 541 533 537 533 533 541 545 545 541 549 549 549 561 561 553 557 553 541 557 557 557 553 549 545 541 541 549 525 511 518 518 514 514 514 511 504 497 497 487 487 484 481 471 468 462 462 462 459 462 468 468 477 484 487 490 490 490 487 487 487 481 477 474 474 474 477 471 468 465 465 465 462 451 462 468 468 471 477 468 471 471 471 471 471 474 474 474 481 0 0 0 0 0
    0 0 0 0 0 0 0 0 0 0 0 0 0 0 0 0 0 0 0 0 0 0 0 0 0 0 0 0 0 0 0 0 0 0 0 0 0 0 0 0 0 0 0 0 0 0 0 0 0 0 0 0 0 0 0 0 0 0 0 0 0 0 0 0 0 0 0 0 0 427 432 425 422 425 425 430 435 432 432 432 432 435 435 435 435 432 443 454 481 471 462 468 477 0 468 462 0 0 0 0 462 457 462 457 443 435 427 422 427 425 430 427 427 430 432 432 435 425 443 443 471 481 484 493 493 511 504 507 518 500 493 493 477 462 448 443 443 448 446 446 457 454 454 457 0 471 0 0 0 0 0 0 518 497 549 545 549 537 537 537 537 529 0 0 474 0 0 0 0 0 0 0 0 0 0 0 0 0 0 0 0 493 493 0 0 537 0 545 537 537 541 541 541 541 541 545 0 0 0 0 0 0 0 0 0 0 0 549 0 545 541 541 541 541 541 545 549 549 545 553 549 549 549 549 545 541 541 541 533 537 529 525 533 537 537 537 541 541 545 557 557 553 557 553 541 557 557 557 557 553 545 541 541 545 525 514 518 518 514 518 514 511 504 497 490 484 484 481 477 471 465 462 462 462 462 462 468 465 477 481 487 487 487 487 484 484 484 474 474 471 474 471 477 468 462 459 459 457 457 448 457 462 465 468 474 471 474 474 474 471 474 474 474 474 481 0 0 0 0 0
    0 0 0 0 0 0 0 0 0 0 0 0 0 0 0 0 0 0 0 0 0 0 0 0 0 0 0 0 0 0 0 0 0 0 0 0 0 0 0 0 0 0 0 0 0 0 0 0 0 0 0 0 0 0 0 0 0 0 0 0 0 0 0 0 0 0 0 0 0 427 427 425 422 425 425 430 432 430 432 432 432 432 432 432 432 430 432 432 435 435 435 435 440 0 446 443 443 446 0 451 446 443 446 443 438 432 427 427 430 427 430 430 430 432 432 435 435 425 440 440 446 459 468 484 481 497 493 493 497 487 484 477 468 448 443 443 443 448 448 446 454 454 454 454 454 462 459 0 0 0 0 0 497 484 549 549 549 529 521 521 490 0 0 0 465 454 0 0 0 0 0 252 0 0 0 0 440 454 435 0 471 471 471 0 0 525 507 0 518 525 529 533 529 525 0 0 0 0 0 0 0 0 0 0 0 0 0 553 0 549 545 541 541 541 541 0 549 545 541 549 545 549 549 549 545 537 537 537 529 529 521 514 518 525 514 521 525 518 521 0 0 0 0 545 487 553 553 553 553 549 545 541 537 541 521 514 514 518 514 518 514 511 500 490 484 481 481 477 477 468 465 462 465 465 462 462 465 462 474 477 481 481 481 481 477 477 481 471 468 468 468 468 471 462 457 454 457 454 454 448 457 462 465 465 474 471 474 474 474 474 474 474 477 474 481 0 0 0 0 0
    0 0 0 0 0 0 0 0 0 0 0 0 0 0 0 0 0 0 0 0 0 0 0 0 0 0 0 0 0 0 0 0 0 0 0 0 0 0 0 0 0 0 0 0 0 0 0 0 0 0 0 0 0 0 0 0 0 0 0 0 0 0 0 0 0 0 0 0 0 425 427 425 422 425 425 430 430 430 430 430 430 432 432 432 430 427 430 430 430 432 430 432 435 435 440 438 440 443 0 446 440 440 440 438 438 432 430 430 432 430 432 432 432 432 432 435 435 425 438 438 440 446 448 465 465 484 484 484 481 477 474 468 457 446 443 443 443 446 448 446 451 451 451 451 451 457 454 457 0 0 0 459 471 471 0 553 553 511 0 0 474 0 0 0 454 446 0 0 0 0 0 0 0 0 0 446 438 448 435 435 446 451 448 0 0 484 477 493 481 484 0 487 0 0 0 0 0 0 0 0 448 446 451 451 0 0 0 0 0 549 545 0 0 497 0 0 0 541 537 545 541 545 545 545 541 533 529 533 521 525 507 497 493 493 487 490 493 481 477 471 468 471 474 474 471 0 545 545 549 549 541 537 537 541 521 514 518 518 518 518 514 507 497 487 477 477 477 474 471 468 462 462 465 465 462 462 465 462 471 474 471 474 474 471 471 474 474 465 465 465 465 465 465 459 454 451 457 451 454 448 457 459 462 465 474 474 474 474 477 474 474 474 477 474 477 0 0 0 0 0
    0 0 0 0 0 0 0 0 0 0 0 0 0 0 0 0 0 0 0 0 0 0 0 0 0 0 0 0 0 0 0 0 0 0 0 0 0 0 0 0 0 0 0 0 0 0 0 0 0 0 0 0 0 0 0 0 0 0 0 0 0 0 0 0 0 0 0 0 0 425 425 422 422 422 422 427 427 427 430 427 427 430 430 430 427 427 427 427 427 432 430 432 435 435 438 438 438 440 438 443 440 438 438 438 438 432 430 432 432 432 435 435 435 435 432 438 438 427 435 435 438 440 440 446 446 465 474 468 465 468 465 457 451 446 440 443 443 446 448 446 451 451 448 451 448 451 451 451 448 443 443 448 451 457 462 0 0 0 468 471 462 459 0 0 448 443 446 451 446 0 0 448 448 0 451 440 438 440 435 435 438 443 440 448 443 448 454 468 462 468 468 468 0 0 465 459 451 454 446 446 448 446 451 448 454 0 0 0 471 0 0 0 0 468 440 0 0 533 490 541 533 545 541 541 537 525 511 521 507 514 493 481 481 477 474 477 481 474 471 465 462 465 468 468 465 471 529 518 545 541 541 537 533 537 521 511 518 521 518 518 511 500 493 481 474 474 474 471 468 465 462 462 465 462 459 462 465 465 468 471 468 468 468 462 465 465 465 457 459 459 459 459 459 457 451 451 454 451 454 448 457 459 459 462 471 474 474 474 477 474 474 474 477 474 474 0 0 0 0 0
    0 0 0 0 0 0 0 0 0 0 0 0 0 0 0 0 0 0 0 0 0 0 0 0 0 0 0 0 0 0 0 0 0 0 0 0 0 0 0 0 0 0 0 0 0 0 0 0 0 0 0 0 0 0 0 0 0 0 0 0 0 0 0 0 0 0 0 0 0 425 425 422 422 422 422 427 427 425 427 427 427 427 427 430 425 425 425 425 427 432 430 432 435 435 438 438 438 438 438 440 438 438 438 438 438 435 432 432 432 432 435 435 435 435 432 438 438 425 435 435 435 438 438 440 438 440 459 448 448 454 454 448 446 443 440 443 443 446 448 446 448 448 448 448 448 448 448 448 446 443 443 448 448 451 454 0 0 468 451 457 451 451 446 446 446 443 443 448 443 446 443 443 443 443 446 438 435 435 435 435 438 440 438 440 438 440 443 446 448 454 454 454 457 454 457 454 448 451 446 443 448 446 451 448 454 457 457 459 468 0 0 0 0 457 446 451 0 0 471 0 477 0 537 533 529 507 487 487 481 481 484 468 474 465 468 471 474 468 468 459 459 459 465 462 462 462 477 477 0 521 521 529 529 537 514 504 514 518 514 514 504 493 487 471 471 474 471 468 465 465 462 459 465 465 459 462 462 465 465 471 465 462 459 457 459 457 454 448 454 457 457 457 454 451 448 448 454 451 451 448 457 459 459 462 471 477 477 477 477 471 471 471 474 471 462 0 0 0 0 0
    0 0 0 0 0 0 0 0 0 0 0 0 0 0 0 0 0 0 0 0 0 0 0 0 0 0 0 0 0 0 0 0 0 0 0 0 0 0 0 0 0 0 0 0 0 0 0 0 0 0 0 0 0 0 0 0 0 0 0 0 0 0 0 0 0 0 0 0 0 425 425 422 422 422 422 427 427 425 427 427 427 430 427 430 425 425 427 427 427 435 430 435 438 438 438 438 438 440 438 443 438 438 440 438 440 440 438 435 435 435 435 435 435 435 430 438 438 425 435 435 435 435 438 438 435 438 448 443 440 443 446 443 446 443 440 443 446 446 448 446 448 448 448 451 451 448 451 448 448 446 446 448 448 451 454 454 451 454 446 448 446 446 443 443 443 440 443 448 443 446 443 440 440 443 443 438 438 438 438 438 440 443 438 440 438 438 440 440 446 448 448 448 451 448 451 448 448 448 446 443 448 446 448 448 451 454 451 457 465 457 0 0 0 446 446 446 448 454 451 446 459 0 0 0 487 484 468 468 468 468 471 457 465 457 462 465 468 465 465 454 457 457 462 459 462 462 474 474 477 481 481 481 500 518 493 487 493 500 500 500 493 487 484 468 468 471 468 465 462 462 462 462 465 465 462 462 465 468 468 471 465 462 457 454 457 454 451 446 451 454 451 451 451 446 446 448 454 451 451 448 457 457 459 462 474 481 481 481 481 471 474 471 477 465 454 0 0 0 0 0
    0 0 0 0 0 0 0 0 0 0 0 0 0 0 0 0 0 0 0 0 0 0 0 0 0 0 0 0 0 0 0 0 0 0 0 0 0 0 0 0 0 0 0 0 0 0 0 0 0 0 0 0 0 0 0 0 0 0 0 0 0 0 0 0 0 0 0 0 0 425 425 422 425 425 422 427 427 427 430 427 430 430 427 430 425 427 427 430 430 435 430 435 438 438 440 438 438 440 438 443 440 440 443 440 443 446 440 438 438 438 438 438 435 432 427 435 435 422 432 432 432 435 435 438 435 435 446 438 438 440 440 440 443 443 443 446 448 451 454 451 454 451 451 451 451 448 451 448 448 446 446 446 448 448 451 448 448 448 446 448 446 446 443 443 443 443 443 448 443 443 443 443 440 443 446 440 440 440 440 440 443 446 440 443 440 440 443 443 446 446 446 446 451 446 448 448 446 448 446 443 448 446 448 448 448 451 448 451 459 451 459 448 446 443 446 446 446 446 446 443 448 446 454 451 457 457 454 454 457 454 457 448 457 451 457 457 459 459 459 454 457 454 459 457 459 459 468 468 471 474 474 474 477 481 481 477 481 484 487 490 487 481 477 462 465 468 468 465 457 462 462 462 465 465 465 465 465 471 471 471 468 468 459 457 459 454 451 446 448 448 446 446 443 440 443 446 451 448 451 451 457 457 457 459 468 471 468 465 468 457 462 462 465 459 448 0 0 0 0 0
    0 0 0 0 0 0 0 0 0 0 0 0 0 0 0 0 0 0 0 0 0 0 0 0 0 0 0 0 0 0 0 0 0 0 0 0 0 0 0 0 0 0 0 0 0 0 0 0 0 0 0 0 0 0 0 0 0 0 0 0 0 0 0 0 0 0 0 0 0 425 425 422 425 425 425 430 427 427 430 427 430 430 427 430 425 427 427 430 430 435 432 438 438 438 440 0 438 440 438 446 440 440 443 443 446 448 443 443 440 440 440 438 438 432 427 435 435 420 432 432 432 432 435 435 432 432 443 438 435 438 440 438 443 443 443 446 451 454 459 454 457 454 454 451 451 446 448 443 0 440 440 443 446 446 446 448 446 448 446 448 448 446 446 446 443 443 443 448 446 446 446 446 443 446 448 446 446 443 443 440 443 446 440 440 443 440 446 443 446 446 446 446 448 446 446 446 446 446 443 443 448 446 448 448 448 448 448 451 459 448 457 448 446 443 448 446 446 446 446 443 446 446 448 446 448 446 448 448 448 446 448 446 454 448 454 451 454 454 457 451 454 454 457 454 457 457 462 462 465 468 465 465 468 468 471 471 468 471 474 481 481 477 474 459 459 465 465 462 454 459 459 459 465 468 465 465 465 471 468 471 465 465 457 454 451 446 443 440 443 440 438 438 438 432 438 443 448 448 451 451 454 454 454 457 459 451 448 440 443 440 440 443 443 443 438 0 0 0 0 0
    0 0 0 0 0 0 0 0 0 0 0 0 0 0 0 0 0 0 0 0 0 0 0 0 0 0 0 0 0 0 0 0 0 0 0 0 0 0 0 0 0 0 0 0 0 0 0 0 0 0 0 0 0 0 0 0 0 0 0 0 0 0 0 0 0 0 0 0 0 425 425 425 427 427 427 430 430 427 430 430 430 430 430 430 425 427 427 430 430 435 432 438 438 440 440 440 440 0 440 448 440 440 443 443 446 448 443 443 440 440 440 440 440 435 430 435 435 422 432 432 432 432 435 435 432 432 440 435 432 435 438 438 440 443 443 446 451 457 462 454 459 459 457 451 448 446 446 440 0 438 0 0 443 443 446 446 446 448 446 448 448 446 446 446 443 443 446 448 446 446 446 446 443 446 448 446 446 446 443 440 440 446 438 440 443 440 446 446 446 446 446 446 448 446 446 443 443 443 443 440 448 446 448 448 448 448 448 448 457 446 454 446 443 440 446 446 446 446 446 443 448 446 448 446 448 446 446 446 448 446 448 446 451 448 451 451 454 451 457 451 457 454 457 454 457 454 457 457 462 462 457 457 457 457 459 459 457 457 459 468 468 468 471 454 454 462 462 459 448 459 457 459 465 468 462 462 462 474 465 471 465 459 451 451 446 438 435 432 427 425 420 415 425 422 438 440 446 446 451 451 457 454 454 457 457 448 448 440 443 440 440 440 438 438 432 0 0 0 0 0
    0 0 0 0 0 0 0 0 0 0 0 0 0 0 0 0 0 0 0 0 0 0 0 0 0 0 0 0 0 0 0 0 0 0 0 0 0 0 0 0 0 0 0 0 0 0 0 0 0 0 0 0 0 0 0 0 0 0 0 0 0 0 0 0 0 0 0 0 0 425 427 425 427 427 430 432 430 430 432 430 430 432 430 430 427 430 427 432 430 435 432 438 438 438 440 0 0 0 440 0 440 440 440 440 446 446 0 440 440 440 443 440 440 435 430 438 435 425 432 432 432 432 435 435 432 432 440 438 435 438 440 438 440 443 443 446 451 457 465 457 459 462 459 451 451 446 443 440 0 438 0 0 440 443 446 446 446 448 446 448 446 446 446 446 443 443 443 446 443 443 443 443 440 446 448 446 446 446 446 443 443 446 440 440 443 443 446 446 448 448 448 448 451 446 448 446 446 443 443 440 446 446 448 448 448 448 448 448 457 448 454 443 440 440 446 446 446 448 448 446 448 446 448 446 448 446 446 446 448 446 448 446 451 448 451 451 451 451 457 451 457 454 457 454 457 454 457 454 457 457 454 454 454 451 454 454 451 451 454 459 459 462 465 451 454 462 462 457 446 457 454 457 462 465 459 459 462 474 465 468 465 457 448 448 440 430 425 418 411 406 408 404 406 408 427 440 443 446 451 451 457 451 451 454 451 446 446 440 440 438 438 438 435 438 430 0 0 0 0 0
    0 0 0 0 0 0 0 0 0 0 0 0 0 0 0 0 0 0 0 0 0 0 0 0 0 0 0 0 0 0 0 0 0 0 0 0 0 0 0 0 0 0 0 0 0 0 0 0 0 0 0 0 0 0 0 0 0 0 0 0 0 0 0 0 0 0 0 0 0 425 427 425 427 427 430 432 430 430 432 432 432 432 430 430 427 430 430 432 432 435 432 438 438 438 438 0 0 0 0 0 440 440 443 443 446 446 0 440 440 440 443 440 440 438 432 435 435 427 432 432 432 432 435 435 432 435 440 438 435 438 440 440 443 443 446 446 454 459 465 459 462 462 459 451 451 443 443 440 0 438 0 0 443 443 446 446 446 448 446 448 446 446 446 446 443 443 443 446 443 443 440 440 440 443 446 446 446 446 446 443 446 448 440 440 443 443 446 446 448 448 451 451 454 448 451 448 446 443 446 440 446 446 446 448 448 448 448 448 459 448 454 443 443 443 446 448 448 451 448 446 446 446 446 446 448 448 446 446 446 446 451 446 451 448 451 451 451 451 457 451 459 454 457 454 457 454 457 454 457 459 454 457 454 454 457 457 454 451 451 459 454 459 462 448 451 459 459 457 446 457 454 454 462 465 457 459 459 474 465 465 465 457 448 448 440 430 422 415 406 404 404 402 399 402 406 425 438 440 446 446 451 448 446 448 440 435 435 435 432 432 432 432 432 435 427 0 0 0 0 0
    0 0 0 0 0 0 0 0 0 0 0 0 0 0 0 0 0 0 0 0 0 0 0 0 0 0 0 0 0 0 0 0 0 0 0 0 0 0 0 0 0 0 0 0 0 0 0 0 0 0 0 0 0 0 0 0 0 0 0 0 0 0 0 0 0 0 0 0 0 425 425 425 427 425 427 430 430 430 432 432 435 435 432 432 430 432 430 435 432 435 432 435 435 438 435 0 0 0 0 0 0 440 440 443 443 446 0 440 440 440 443 440 440 0 435 435 432 427 432 432 432 432 435 435 435 435 440 440 438 440 440 440 443 446 446 448 457 462 465 462 465 465 462 454 454 446 446 443 440 440 0 0 443 443 446 446 443 448 443 448 446 446 446 446 443 446 443 446 443 440 440 438 438 443 443 446 446 446 446 446 446 448 443 440 446 443 446 446 448 448 451 454 457 451 454 451 451 446 446 440 446 446 446 448 448 448 448 448 459 454 459 448 446 448 451 457 451 454 451 446 448 446 446 448 448 448 448 448 448 448 454 446 454 448 454 451 454 451 457 451 459 454 454 454 454 454 457 454 459 459 457 459 457 457 457 459 454 454 451 459 457 459 462 448 448 459 459 457 443 457 454 454 459 462 457 457 457 474 462 462 462 454 448 446 438 430 425 420 411 404 406 402 399 399 402 399 420 430 438 440 443 440 438 0 427 420 415 420 418 418 418 422 425 427 422 0 0 0 0 0
    0 0 0 0 0 0 0 0 0 0 0 0 0 0 0 0 0 0 0 0 0 0 0 0 0 0 0 0 0 0 0 0 0 0 0 0 0 0 0 0 0 0 0 0 0 0 0 0 0 0 0 0 0 0 0 0 0 0 0 0 0 0 0 0 0 0 0 0 0 425 425 422 425 425 427 432 430 432 435 435 438 438 435 435 432 435 432 435 432 432 432 435 435 435 435 438 435 0 0 0 0 438 440 440 443 443 0 440 0 440 440 440 0 0 0 435 432 427 432 432 432 432 435 435 432 435 440 438 435 438 443 443 446 448 448 448 459 462 465 462 465 465 462 454 0 446 446 446 0 440 440 443 443 443 446 446 443 446 443 446 446 446 446 446 446 446 443 448 443 443 440 438 438 440 443 443 443 443 446 443 443 446 443 440 446 443 446 446 448 448 451 454 457 451 454 451 454 446 443 440 443 443 446 446 446 446 448 448 454 451 454 448 446 448 451 459 454 457 451 448 448 446 446 448 448 448 448 448 451 451 454 446 454 448 451 451 454 451 454 451 459 454 454 454 454 451 457 454 457 459 454 459 454 457 457 459 454 454 454 459 457 459 462 451 448 459 459 457 443 457 457 454 459 462 457 457 457 474 459 457 457 451 446 443 438 432 427 420 411 404 406 402 399 399 399 399 406 411 422 418 425 427 425 422 413 408 406 406 406 404 406 406 415 415 413 0 0 0 0 0
    0 0 0 0 0 0 0 0 0 0 0 0 0 0 0 0 0 0 0 0 0 0 0 0 0 0 0 0 0 0 0 0 0 0 0 0 0 0 0 0 0 0 0 0 0 0 0 0 0 0 0 0 0 0 0 0 0 0 0 0 0 0 0 0 0 0 0 0 0 425 425 425 427 427 432 432 432 432 435 435 438 438 438 435 435 435 432 435 432 432 430 435 432 432 432 435 435 0 0 0 438 438 440 440 440 443 0 440 440 443 443 440 438 0 0 435 432 427 432 435 432 432 435 435 432 435 440 438 432 435 440 440 443 448 448 448 457 462 465 462 465 462 459 451 451 446 443 443 440 440 440 440 443 443 443 446 443 446 443 446 446 446 446 446 446 446 443 448 443 443 440 438 438 438 440 443 443 440 443 443 443 443 443 440 446 446 446 448 448 448 448 451 454 448 451 448 448 443 443 440 443 443 443 446 443 446 446 446 451 451 451 446 443 446 446 454 451 454 451 446 446 446 446 448 448 448 446 448 448 448 454 446 454 448 454 451 454 451 457 451 459 451 451 451 451 451 454 451 454 457 454 459 454 457 457 462 457 457 454 459 457 459 462 451 448 457 459 457 443 454 454 454 457 459 457 454 454 474 454 451 451 448 446 443 438 430 427 422 415 406 408 404 402 402 402 402 404 404 413 0 413 415 411 408 406 402 399 399 402 397 399 399 404 406 408 0 0 0 0 0
    0 0 0 0 0 0 0 0 0 0 0 0 0 0 0 0 0 0 0 0 0 0 0 0 0 0 0 0 0 0 0 0 0 0 0 0 0 0 0 0 0 0 0 0 0 0 0 0 0 0 0 0 0 0 0 0 0 0 0 0 0 0 0 0 0 0 0 0 0 427 427 425 430 427 432 432 430 432 435 435 440 438 438 435 435 438 432 432 430 427 430 432 430 430 430 0 0 0 0 0 0 0 0 0 440 440 0 440 440 446 446 443 440 0 0 438 435 430 435 435 435 435 435 435 432 435 440 435 435 438 440 440 443 448 448 451 454 459 462 457 459 457 454 448 446 443 440 440 438 438 438 440 440 440 443 443 440 446 440 446 443 443 446 446 443 446 443 448 446 443 440 438 435 438 438 440 440 440 440 440 440 443 443 440 446 446 448 448 446 448 448 451 454 446 451 446 448 443 440 440 440 443 443 446 443 443 446 448 448 451 448 446 443 443 443 451 451 451 451 446 446 446 446 448 446 448 446 446 446 446 454 443 454 448 454 454 454 451 457 454 459 451 451 451 451 451 451 448 451 454 451 457 454 457 457 459 457 457 454 459 454 457 457 448 446 451 457 454 443 454 454 454 457 459 454 454 451 471 454 448 446 443 443 440 432 430 427 425 418 411 411 406 402 404 404 402 402 404 411 0 0 411 406 406 404 402 397 397 397 395 395 395 397 399 404 0 0 0 0 0
    0 0 0 0 0 0 0 0 0 0 0 0 0 0 0 0 0 0 0 0 0 0 0 0 0 0 0 0 0 0 0 0 0 0 0 0 0 0 0 0 0 0 0 0 0 0 0 0 0 0 0 0 0 0 0 0 0 0 0 0 0 0 0 0 0 0 0 0 0 430 427 427 427 427 432 432 427 430 432 435 438 438 435 435 435 438 432 432 427 425 427 0 430 0 0 0 0 0 0 0 0 0 0 0 435 435 0 440 440 446 443 443 0 0 0 440 435 432 435 435 435 435 435 435 435 435 440 438 435 440 446 446 446 448 448 454 454 454 457 451 451 451 451 446 440 440 440 440 438 438 438 440 440 440 443 443 440 446 440 446 443 443 446 446 443 446 443 448 443 440 440 435 435 435 435 438 435 438 440 440 440 443 443 440 446 446 446 446 446 446 448 448 451 446 448 446 446 443 440 440 440 443 443 446 443 446 446 448 448 451 448 446 443 446 443 454 451 451 451 448 446 446 443 448 446 448 446 446 446 448 457 443 454 451 454 454 454 451 454 454 459 451 454 451 451 451 454 448 451 454 451 454 451 454 457 459 457 457 451 459 451 454 451 446 443 446 451 451 440 451 454 454 454 457 454 451 451 468 451 443 440 440 438 435 432 430 427 422 418 411 411 408 404 404 404 404 402 404 0 0 411 413 408 408 404 404 399 397 397 393 393 393 393 399 402 0 0 0 0 0
    0 0 0 0 0 0 0 0 0 0 0 0 0 0 0 0 0 0 0 0 0 0 0 0 0 0 0 0 0 0 0 0 0 0 0 0 0 0 0 0 0 0 0 0 0 0 0 0 0 0 0 0 0 0 0 0 0 0 0 0 0 0 0 0 0 0 0 0 0 430 427 427 430 427 435 432 427 430 432 432 438 438 435 432 435 438 430 430 425 422 0 0 0 0 0 0 0 0 0 0 0 0 0 438 432 430 435 440 440 448 443 443 0 0 0 443 438 435 435 438 435 438 438 438 435 438 440 440 438 446 448 446 448 448 448 454 451 451 451 446 448 448 448 0 0 443 440 440 440 440 440 443 443 443 443 446 440 446 443 446 443 443 446 443 443 446 443 446 443 0 0 432 432 432 435 435 435 435 438 440 440 443 443 440 443 446 446 446 443 446 446 448 451 446 448 446 446 443 438 440 438 440 443 443 443 446 443 448 448 454 448 446 443 448 443 451 451 451 451 448 446 443 443 446 446 446 446 448 448 454 462 446 457 454 457 454 454 451 454 454 459 451 454 451 451 451 454 451 451 454 451 457 454 457 457 459 459 459 451 457 448 451 448 443 443 446 451 454 443 451 454 454 454 457 454 451 448 465 451 440 438 438 435 432 430 430 427 422 418 411 411 408 404 402 402 402 402 404 413 0 0 411 406 404 402 399 395 395 389 383 387 389 389 393 399 0 0 0 0 0
    0 0 0 0 0 0 0 0 0 0 0 0 0 0 0 0 0 0 0 0 0 0 0 0 0 0 0 0 0 0 0 0 0 0 0 0 0 0 0 0 0 0 0 0 0 0 0 0 0 0 0 0 0 0 0 0 0 0 0 0 0 0 0 0 0 0 0 0 0 425 422 422 427 425 432 432 422 427 0 0 0 0 0 0 0 0 0 427 422 0 0 0 0 179 179 179 179 179 179 0 0 0 0 0 427 422 432 0 440 446 443 0 0 0 0 440 438 0 435 438 438 438 438 438 438 438 443 440 440 448 451 0 454 454 451 457 0 451 0 446 448 448 446 443 438 0 440 443 440 443 440 446 446 446 446 446 443 448 443 446 443 443 446 443 443 446 443 0 443 0 0 432 432 430 435 435 435 435 438 440 443 446 446 440 443 446 448 443 443 443 443 448 451 446 448 446 446 446 435 438 438 443 443 443 443 446 446 454 451 457 448 448 446 451 446 451 451 451 451 448 443 443 440 446 443 446 446 448 448 457 462 448 459 454 457 457 457 451 454 454 457 451 454 451 451 451 457 451 454 459 457 462 459 459 459 459 462 459 451 457 448 448 446 443 446 446 451 457 443 451 454 457 457 457 454 451 448 465 451 440 438 432 432 432 430 430 427 422 415 413 411 406 404 402 399 399 399 402 404 404 0 0 402 404 399 397 389 387 377 373 377 381 381 379 389 0 0 0 0 0
    0 0 0 0 0 0 0 0 0 0 0 0 0 0 0 0 0 0 0 0 0 0 0 0 0 0 0 0 0 0 0 0 0 0 0 0 0 0 0 0 0 0 0 0 0 0 0 0 0 0 0 0 0 0 0 0 0 0 0 0 0 0 0 0 0 0 0 0 0 413 404 406 420 415 425 427 418 0 0 0 0 0 0 0 0 0 0 0 0 0 0 179 179 180 180 180 179 179 0 0 0 0 0 0 0 0 427 0 0 0 0 0 0 0 0 0 0 0 0 438 438 438 438 438 438 0 446 440 0 0 0 0 0 0 0 0 0 0 0 0 446 446 446 440 438 443 443 443 443 443 440 446 446 446 446 446 443 448 443 446 443 443 446 443 443 446 446 0 0 0 0 0 0 430 0 0 432 0 438 440 443 446 446 440 443 446 448 443 440 443 440 446 448 443 446 443 443 446 432 438 438 443 443 443 443 446 446 454 451 457 446 448 446 451 446 451 451 451 451 448 443 443 440 446 443 443 446 448 448 457 465 451 459 457 459 457 457 451 454 454 457 451 454 451 451 451 457 451 454 459 457 462 457 457 459 457 459 457 448 454 446 446 443 443 446 446 451 459 443 454 459 459 459 459 457 454 451 465 451 440 438 432 432 430 430 430 427 422 413 413 413 408 404 399 397 397 397 397 397 395 395 393 395 397 385 387 377 375 371 369 371 373 373 373 373 0 0 0 0 0
    0 0 0 0 0 0 0 0 0 0 0 0 0 0 0 0 0 0 0 0 0 0 0 0 0 0 0 0 0 0 0 0 0 0 0 0 0 0 0 0 0 0 0 0 0 0 0 0 0 0 0 0 0 0 0 0 0 0 0 0 0 0 0 0 0 0 0 0 0 0 389 395 0 0 422 0 0 0 0 242 243 246 249 250 248 0 0 0 0 0 0 180 0 181 180 181 181 0 0 0 0 0 0 0 0 0 0 0 0 0 0 0 221 0 0 0 0 0 0 0 440 435 438 435 0 0 0 0 0 0 0 0 0 0 0 0 0 0 0 0 0 0 0 0 0 446 443 446 446 446 443 446 446 446 0 0 0 446 443 446 443 443 446 443 443 446 0 0 0 0 0 0 0 0 0 0 0 0 0 0 440 443 443 438 440 443 448 440 438 440 438 443 443 440 443 440 438 443 430 438 438 443 443 443 446 446 446 457 448 457 443 448 446 448 443 446 451 448 451 448 443 443 438 443 440 443 448 448 448 454 465 448 457 457 459 457 457 451 454 454 457 451 454 451 451 451 457 451 454 459 457 462 457 454 457 454 459 454 448 454 446 446 443 446 448 448 454 465 446 457 462 462 459 459 459 454 448 462 448 440 438 435 432 430 430 430 427 422 413 413 413 408 404 399 399 397 397 397 395 395 395 391 393 387 375 379 375 371 367 366 367 367 367 366 366 0 0 0 0 0
    0 0 0 0 0 0 0 0 0 0 0 0 0 0 0 0 0 0 0 0 0 0 0 0 0 0 0 0 0 0 0 0 0 0 0 0 0 0 0 0 0 0 0 0 0 0 0 0 0 0 0 0 0 0 0 0 0 0 0 0 0 0 0 0 0 0 0 0 0 337 0 0 0 0 0 0 0 0 0 244 242 0 249 249 0 0 0 0 0 0 0 180 0 180 180 180 0 0 0 0 0 0 0 0 293 0 0 0 0 0 0 0 0 0 0 0 0 0 0 0 0 435 435 435 0 0 0 0 0 0 0 0 0 0 0 0 0 0 0 8177 0 0 0 0 0 0 446 0 0 443 443 448 443 0 0 0 0 448 446 446 443 443 443 0 0 0 0 0 0 113 111 0 0 0 0 7359 0 0 0 0 438 438 0 0 0 0 446 0 0 440 438 443 440 443 443 435 435 435 418 438 432 443 443 0 446 448 0 0 0 459 438 440 440 443 440 440 443 443 446 443 438 432 425 432 430 438 443 446 446 451 465 446 459 457 459 457 457 451 454 451 457 451 451 451 451 448 454 448 454 459 457 459 454 451 454 451 459 454 448 457 448 448 448 448 0 454 454 465 446 457 462 465 462 459 459 457 451 462 451 443 438 435 432 432 430 430 427 422 413 415 413 408 404 399 397 397 397 397 395 393 393 387 383 373 369 373 369 369 366 364 364 364 366 366 364 0 0 0 0 0
    0 0 0 0 0 0 0 0 0 0 0 0 0 0 0 0 0 0 0 0 0 0 0 0 0 0 0 0 0 0 0 0 0 0 0 0 0 0 0 0 0 0 0 0 0 0 0 0 0 0 0 0 0 0 0 0 0 0 0 0 0 0 0 0 0 0 0 0 0 334 336 336 336 334 334 333 0 0 0 0 0 0 246 245 0 0 0 0 0 0 0 0 0 0 0 0 0 0 0 0 0 0 0 0 288 280 0 0 0 0 0 0 0 0 0 0 0 0 0 0 0 0 0 0 0 0 0 0 0 0 0 0 0 0 0 0 0 0 0 7359 7359 7359 6690 0 0 0 0 0 0 0 0 0 0 0 0 0 0 0 457 0 0 0 0 0 0 0 0 0 0 0 0 0 8177 0 0 0 0 0 0 0 0 0 0 0 0 0 0 0 0 0 0 446 440 451 446 435 0 430 404 0 0 0 0 0 0 0 0 0 0 0 0 0 0 0 0 0 0 0 0 0 364 357 357 359 0 0 0 0 0 448 459 446 459 457 459 457 454 451 454 451 457 448 451 448 448 448 454 446 454 459 462 465 462 454 459 457 468 459 457 454 446 443 446 0 0 0 0 0 0 457 465 465 465 462 462 457 451 462 451 443 438 435 432 430 430 430 427 422 415 418 415 408 404 399 397 397 397 395 393 391 389 383 377 369 366 369 367 366 364 362 362 362 364 364 364 0 0 0 0 0
    0 0 0 0 0 0 0 0 0 0 0 0 0 0 0 0 0 0 0 0 0 0 0 0 0 0 0 0 0 0 0 0 0 0 0 0 0 0 0 0 0 0 0 0 0 0 0 0 0 0 0 0 0 0 0 0 0 0 0 0 0 0 0 0 0 0 0 0 0 333 333 333 333 330 331 331 331 331 334 0 0 0 0 0 0 0 0 0 0 0 0 0 0 0 0 0 0 0 0 0 0 0 0 0 286 0 0 0 0 0 0 0 337 340 342 0 339 339 0 0 0 0 0 0 0 0 0 0 0 0 0 0 0 0 108 108 0 0 0 0 4906 4906 4599 0 0 0 0 0 0 0 0 0 0 0 0 0 0 0 0 0 0 0 0 0 0 0 0 0 0 0 0 0 0 0 0 0 0 0 0 0 0 0 0 0 0 101 0 101 0 101 0 0 0 0 457 0 0 0 0 0 0 0 0 0 0 0 0 0 0 348 353 359 359 364 362 362 362 364 0 0 362 357 357 357 355 0 0 0 0 459 462 451 459 459 459 457 454 451 454 451 457 448 451 448 448 448 457 446 465 468 471 471 468 0 474 471 474 468 465 454 0 0 0 0 0 0 0 0 0 0 0 462 462 462 465 459 451 462 454 440 438 435 430 430 430 432 427 425 418 420 415 411 404 399 397 395 395 395 391 389 387 379 373 367 366 367 366 364 362 360 360 360 362 362 362 0 0 0 0 0
    0 0 0 0 0 0 0 0 0 0 0 0 0 0 0 0 0 0 0 0 0 0 0 0 0 0 0 0 0 0 0 0 0 0 0 0 0 0 0 0 0 0 0 0 0 0 0 0 0 0 0 0 0 0 0 0 0 0 0 0 0 0 0 0 0 0 0 0 0 334 334 333 334 328 331 333 333 334 337 337 339 0 0 0 0 0 0 0 0 0 0 0 0 0 0 0 0 0 0 0 0 0 0 0 0 0 0 0 0 0 334 339 337 339 342 340 339 339 340 0 0 0 0 0 0 0 0 0 0 0 0 0 0 0 0 0 109 109 0 0 0 3873 3504 0 0 0 0 0 0 0 0 0 336 331 0 0 0 0 0 0 0 0 0 0 0 0 0 0 0 0 0 0 0 0 0 0 0 0 0 0 0 0 0 0 0 0 352 0 0 0 357 353 357 350 0 0 0 0 0 0 0 0 0 0 0 0 348 0 352 348 353 357 357 362 362 360 362 362 359 362 360 357 355 355 353 355 350 355 355 0 0 0 462 462 462 457 457 454 457 451 454 448 0 448 448 440 459 443 0 0 0 0 0 0 0 0 0 0 0 0 362 364 355 357 343 343 343 343 0 345 0 0 462 459 465 459 448 459 451 440 438 432 427 427 427 432 430 425 415 418 415 406 402 395 395 393 395 393 389 387 383 375 371 367 366 364 364 360 360 360 360 359 360 360 362 0 0 0 0 0
    0 0 0 0 0 0 0 0 0 0 0 0 0 0 0 0 0 0 0 0 0 0 0 0 0 0 0 0 0 0 0 0 0 0 0 0 0 0 0 0 0 0 0 0 0 0 0 0 0 0 0 0 0 0 0 0 0 0 0 0 0 0 0 0 0 0 0 0 0 334 333 333 334 328 333 334 334 336 339 339 340 0 0 0 0 0 340 337 337 0 0 339 0 0 339 0 345 0 0 0 0 0 0 0 0 0 0 0 342 0 339 340 339 339 342 340 340 339 339 339 340 340 342 340 342 0 0 0 0 0 0 347 0 0 0 0 110 0 0 0 0 0 0 0 0 0 0 0 0 0 336 334 336 333 336 339 0 345 345 345 347 343 0 0 0 0 0 343 0 0 0 0 0 0 0 0 0 0 0 0 0 0 116 116 0 348 345 352 357 357 355 348 355 348 353 357 355 352 357 352 359 350 353 352 348 352 352 350 353 350 353 357 355 359 359 359 359 359 355 359 357 355 355 353 353 353 350 353 353 355 357 0 357 0 0 0 0 0 0 454 0 0 0 0 0 0 357 0 0 0 0 0 0 0 0 0 353 357 355 359 359 359 352 355 347 350 347 350 350 348 347 353 0 0 0 457 446 457 446 438 432 427 420 420 422 430 430 422 408 415 413 399 397 393 393 391 393 391 387 383 379 373 369 366 364 362 362 360 360 359 359 359 359 360 362 0 0 0 0 0
    0 0 0 0 0 0 0 0 0 0 0 0 0 0 0 0 0 0 0 0 0 0 0 0 0 0 0 0 0 0 0 0 0 0 0 0 0 0 0 0 0 0 0 0 0 0 0 0 0 0 0 0 0 0 0 0 0 0 0 0 0 0 0 0 0 0 0 0 0 334 333 333 334 328 334 336 336 337 339 339 340 0 0 0 0 0 340 339 337 0 340 339 0 0 339 345 347 348 347 0 0 348 0 0 0 0 0 0 345 343 340 340 339 339 342 340 340 340 340 340 339 340 340 340 342 342 342 342 0 0 0 343 0 0 0 0 0 0 0 340 342 342 340 0 0 0 0 339 0 0 337 336 336 333 336 342 347 350 350 347 348 347 347 345 348 347 347 345 347 347 347 347 347 343 342 0 0 0 0 0 0 0 0 0 352 345 343 347 355 357 357 350 357 352 355 357 355 352 355 350 357 352 355 353 350 352 353 350 353 350 353 353 352 357 357 355 357 355 353 357 353 355 353 352 352 352 352 353 352 353 355 355 357 357 359 359 359 359 360 357 359 350 355 353 353 359 359 357 359 0 0 0 0 357 350 353 352 353 353 353 355 355 350 353 348 352 350 352 352 352 350 355 359 360 359 0 0 0 0 0 0 0 406 0 0 0 0 0 397 408 406 393 393 387 387 387 389 387 379 377 375 373 369 367 366 362 362 360 360 359 360 359 359 360 360 0 0 0 0 0
    0 0 0 0 0 0 0 0 0 0 0 0 0 0 0 0 0 0 0 0 0 0 0 0 0 0 0 0 0 0 0 0 0 0 0 0 0 0 0 0 0 0 0 0 0 0 0 0 0 0 0 0 0 0 0 0 0 0 0 0 0 0 0 0 0 0 0 0 0 334 333 0 334 0 0 336 336 337 337 0 339 0 0 339 0 0 339 339 339 339 340 340 340 342 340 345 347 348 348 347 348 347 348 350 343 0 343 342 347 345 340 342 340 339 342 340 340 340 340 340 340 340 342 339 340 342 342 342 342 343 343 342 342 342 342 342 340 0 0 339 340 342 340 340 0 0 0 339 0 339 337 337 336 333 336 342 347 350 350 347 348 347 347 345 347 347 347 345 347 347 347 347 347 343 342 343 350 350 352 0 0 353 352 0 348 345 343 345 353 355 357 352 359 352 355 357 355 350 353 348 355 350 353 352 350 350 353 350 355 350 352 353 352 353 355 353 355 353 352 355 353 355 353 352 352 350 352 353 352 352 353 353 355 355 357 357 357 355 359 355 357 350 353 352 352 357 357 357 359 357 360 359 359 359 353 355 353 353 353 352 353 353 350 353 350 353 350 353 353 352 353 355 357 359 355 360 0 0 0 0 0 0 0 381 375 367 0 0 375 0 387 373 371 371 371 375 375 373 371 369 369 369 367 367 364 359 362 360 360 359 360 359 359 359 360 0 0 0 0 0
    0 0 0 0 0 0 0 0 0 0 0 0 0 0 0 0 0 0 0 0 0 0 0 0 0 0 0 0 0 0 0 0 0 0 0 0 0 0 0 0 0 0 0 0 0 0 0 0 0 0 0 0 0 0 0 0 0 0 0 0 0 0 0 0 0 0 0 0 0 336 334 0 0 0 0 336 337 337 339 339 339 0 0 339 337 0 339 339 339 0 339 339 0 0 339 343 345 348 347 347 348 348 348 350 347 348 343 342 345 343 342 343 340 339 342 342 340 340 340 340 340 340 343 340 342 343 343 343 343 343 343 342 343 343 342 342 342 340 340 340 340 0 340 340 0 0 0 339 0 339 337 337 337 334 336 342 347 350 350 347 348 348 348 347 348 347 347 345 347 347 347 347 347 345 343 345 350 350 350 348 347 352 348 347 347 343 343 347 353 355 355 352 359 352 353 355 353 350 352 347 352 348 352 350 350 350 352 350 355 350 353 353 350 353 355 353 355 353 352 355 353 355 353 352 350 350 352 353 352 352 353 353 355 353 357 355 355 355 357 353 355 350 353 352 352 355 357 355 359 357 362 360 359 360 355 357 353 355 353 352 353 352 350 353 350 353 352 353 355 353 355 357 357 359 355 359 357 357 360 362 362 362 364 367 366 366 0 366 367 366 0 0 362 364 362 364 362 362 360 360 360 364 364 366 362 357 360 360 360 359 359 359 359 359 360 0 0 0 0 0
    0 0 0 0 0 0 0 0 0 0 0 0 0 0 0 0 0 0 0 0 0 0 0 0 0 0 0 0 0 0 0 0 0 0 0 0 0 0 0 0 0 0 0 0 0 0 0 0 0 0 0 0 0 0 0 0 0 0 0 0 0 0 0 0 0 0 0 0 0 336 334 0 336 0 0 337 337 337 339 0 339 0 0 339 339 0 339 339 340 0 340 0 0 0 0 0 0 343 343 343 345 347 348 350 345 348 343 342 343 343 343 345 342 340 342 342 342 342 342 342 342 342 345 340 342 343 345 343 343 343 343 343 343 343 343 343 342 342 342 342 340 342 340 340 340 0 0 0 0 337 337 337 337 334 337 342 345 348 348 347 348 347 347 347 347 347 347 345 347 347 348 348 348 347 347 347 352 352 350 348 347 348 347 345 345 343 345 347 352 355 355 353 357 352 352 353 352 350 350 347 350 348 350 352 350 350 353 350 355 352 353 353 350 353 355 353 355 352 352 355 353 355 353 350 350 350 352 353 352 350 353 352 353 353 355 355 355 353 357 353 355 348 355 353 353 355 357 355 359 357 362 360 360 360 357 357 355 355 355 352 355 352 350 353 350 353 352 353 355 353 355 357 357 359 357 359 357 357 360 362 362 362 364 366 364 366 366 364 362 364 0 0 360 364 360 362 360 362 359 360 357 360 360 362 360 353 359 357 359 359 360 359 359 360 362 0 0 0 0 0
    0 0 0 0 0 0 0 0 0 0 0 0 0 0 0 0 0 0 0 0 0 0 0 0 0 0 0 0 0 0 0 0 0 0 0 0 0 0 0 0 0 0 0 0 0 0 0 0 0 0 0 0 0 0 0 0 0 0 0 0 0 0 0 0 0 0 0 0 0 337 336 0 336 0 0 337 337 337 0 0 340 0 340 339 339 340 340 340 340 0 342 0 0 0 0 0 0 0 343 342 345 345 348 348 347 348 345 343 345 343 343 345 342 340 343 343 343 342 342 342 342 342 345 340 342 343 343 343 343 343 343 343 345 345 343 343 343 342 342 342 340 342 340 340 340 0 0 0 0 337 337 337 337 337 339 343 343 347 347 345 347 345 347 345 345 345 345 345 347 347 348 347 348 348 348 348 352 353 350 348 347 347 343 343 345 345 343 347 350 355 355 353 357 350 350 352 352 350 350 347 350 348 352 352 350 350 352 350 355 350 352 352 348 352 355 353 355 352 353 355 353 355 353 348 348 348 352 352 350 350 352 352 353 352 355 355 353 353 355 352 355 348 355 353 353 357 357 355 359 357 362 359 359 360 355 357 355 355 355 352 355 352 352 353 352 353 352 353 355 353 357 357 359 359 357 359 357 357 360 362 362 362 364 364 364 366 364 364 359 360 362 362 360 362 360 362 360 362 359 359 357 359 359 362 359 353 359 357 359 359 360 360 360 360 364 0 0 0 0 0
    0 0 0 0 0 0 0 0 0 0 0 0 0 0 0 0 0 0 0 0 0 0 0 0 0 0 0 0 0 0 0 0 0 0 0 0 0 0 0 0 0 0 0 0 0 0 0 0 0 0 0 0 0 0 0 0 0 0 0 0 0 0 0 0 0 0 0 0 0 337 336 0 0 0 0 339 337 337 0 0 339 0 339 339 339 0 340 340 340 0 0 0 0 0 0 0 0 0 342 342 345 345 347 347 345 348 345 343 345 343 343 347 342 340 343 343 342 342 342 342 342 342 345 340 342 343 345 343 345 343 345 345 345 345 343 343 343 342 342 342 340 342 340 340 340 342 0 0 0 339 339 0 339 339 340 345 345 348 347 347 347 345 347 345 345 345 345 345 345 347 348 347 350 348 350 348 350 353 348 347 345 345 342 342 343 343 343 345 350 355 357 355 357 350 350 353 353 352 350 347 350 348 352 352 350 348 350 348 352 348 348 350 347 350 355 353 355 350 353 355 353 355 353 348 348 348 352 350 350 348 350 350 353 352 353 353 352 352 355 352 355 348 355 353 353 357 357 355 359 357 362 359 359 360 353 355 352 355 355 352 355 352 352 353 352 355 352 353 355 353 357 357 359 359 357 360 357 359 360 362 360 360 362 364 364 366 364 364 359 360 362 362 359 360 359 360 360 362 360 359 357 359 359 360 359 352 359 357 359 360 360 360 360 360 364 0 0 0 0 0
    0 0 0 0 0 0 0 0 0 0 0 0 0 0 0 0 0 0 0 0 0 0 0 0 0 0 0 0 0 0 0 0 0 0 0 0 0 0 0 0 0 0 0 0 0 0 0 0 0 0 0 0 0 0 0 0 0 0 0 0 0 0 0 0 0 0 0 0 0 337 336 0 0 0 0 339 337 337 337 337 337 0 339 337 337 0 340 0 0 0 0 0 0 0 0 0 0 0 340 340 343 343 345 347 347 348 345 343 345 343 345 347 342 342 343 343 343 342 342 342 342 342 343 340 342 343 343 342 345 343 345 345 345 345 345 345 345 343 342 342 340 342 342 340 342 342 342 342 0 342 340 342 343 342 343 345 345 348 348 347 347 345 347 343 345 343 345 345 345 347 347 347 348 348 350 348 348 352 347 345 345 343 342 342 345 343 343 345 348 353 355 353 357 352 352 353 353 352 352 348 350 350 352 352 348 347 348 347 350 348 347 350 347 350 355 353 355 350 352 355 353 355 353 348 348 348 352 350 348 347 350 350 352 350 353 353 352 352 355 350 355 348 355 353 353 357 357 357 359 357 362 359 360 362 353 355 350 355 353 350 353 350 352 353 352 355 352 353 355 353 357 357 357 359 355 359 355 357 359 0 360 360 362 364 364 366 366 366 362 362 362 362 359 360 357 360 360 360 359 359 357 359 359 360 357 352 359 359 359 360 362 360 362 362 364 0 0 0 0 0
    0 0 0 0 0 0 0 0 0 0 0 0 0 0 0 0 0 0 0 0 0 0 0 0 0 0 0 0 0 0 0 0 0 0 0 0 0 0 0 0 0 0 0 0 0 0 0 0 0 0 0 0 0 0 0 0 0 0 0 0 0 0 0 0 0 0 0 0 0 337 334 0 0 0 0 0 0 336 337 336 336 336 336 336 336 337 0 0 0 0 0 0 0 0 0 0 0 0 339 339 340 342 343 345 347 348 345 347 347 345 347 347 343 342 343 343 343 342 343 342 342 342 343 340 340 343 343 342 345 343 345 345 347 347 345 347 347 343 343 343 342 343 342 340 342 342 342 343 342 342 342 343 345 342 343 347 347 348 348 348 347 345 347 343 343 343 343 343 343 345 347 345 348 347 348 347 347 350 345 343 343 343 343 343 345 345 345 347 348 353 353 353 355 350 352 353 353 353 352 348 350 350 350 350 348 347 348 347 350 348 347 350 348 348 355 353 355 350 352 355 352 355 353 347 347 347 352 348 348 345 348 348 350 348 352 352 352 352 355 350 353 348 355 353 353 357 357 357 359 357 364 360 362 364 355 355 350 355 355 350 355 350 352 353 353 355 353 353 355 353 355 357 357 357 355 357 353 357 0 0 360 360 362 362 364 367 366 366 364 362 364 364 360 360 357 360 359 360 360 359 357 359 359 360 357 353 359 359 359 360 362 362 362 362 366 0 0 0 0 0
    0 0 0 0 0 0 0 0 0 0 0 0 0 0 0 0 0 0 0 0 0 0 0 0 0 0 0 0 0 0 0 0 0 0 0 0 0 0 0 0 0 0 0 0 0 0 0 0 0 0 0 0 0 0 0 0 0 0 0 0 0 0 0 0 0 0 0 0 0 337 334 0 0 334 0 0 0 336 336 336 336 334 334 333 333 336 337 0 0 0 0 0 0 0 0 0 0 0 339 337 339 340 343 343 345 345 345 345 343 343 345 345 342 342 343 343 343 342 343 343 342 345 345 340 342 345 347 343 347 345 347 347 348 348 348 348 350 345 345 345 342 343 342 340 342 342 342 343 342 342 342 343 345 343 343 347 347 348 348 348 347 345 347 343 343 343 343 343 343 345 345 345 347 347 348 347 347 347 343 343 345 343 343 343 347 347 347 348 348 352 352 352 353 348 352 353 353 353 350 348 350 350 350 348 348 345 347 347 350 348 347 350 348 348 355 353 353 350 352 355 353 353 355 347 348 348 352 350 348 345 348 347 350 348 352 352 350 352 355 350 355 348 357 353 353 357 357 357 359 357 364 360 362 366 359 357 352 355 355 352 355 352 352 355 353 357 353 355 357 353 357 357 357 357 355 357 353 355 0 0 360 360 362 362 364 367 367 367 364 362 364 364 360 360 357 359 359 360 360 359 357 359 359 360 357 353 359 360 360 362 362 362 362 362 364 0 0 0 0 0
    0 0 0 0 0 0 0 0 0 0 0 0 0 0 0 0 0 0 0 0 0 0 0 0 0 0 0 0 0 0 0 0 0 0 0 0 0 0 0 0 0 0 0 0 0 0 0 0 0 0 0 0 0 0 0 0 0 0 0 0 0 0 0 0 0 0 0 0 0 336 333 0 336 333 336 0 0 334 334 334 336 334 334 333 333 336 337 0 0 0 0 0 0 0 0 0 0 0 339 337 337 339 342 343 345 345 343 343 340 342 342 343 342 342 343 343 342 342 343 343 343 345 347 342 343 347 347 345 348 347 347 348 350 352 350 352 352 348 348 347 345 345 342 342 342 342 342 343 342 342 342 343 345 343 345 347 347 348 347 347 347 347 347 343 343 342 343 343 343 345 345 345 347 347 348 347 347 345 342 343 345 343 345 345 347 347 348 348 350 352 352 350 350 347 350 350 352 353 350 348 350 350 350 348 348 345 347 348 350 350 348 350 348 348 355 355 353 350 352 353 353 353 355 348 348 348 352 350 348 347 350 347 350 348 352 352 350 352 353 350 355 348 357 353 353 357 357 357 359 357 364 362 364 367 360 359 353 357 357 352 355 352 352 353 353 357 353 355 357 355 357 357 357 357 355 357 353 0 0 0 360 360 362 362 364 366 366 366 364 362 362 362 360 359 357 359 360 362 362 360 359 359 360 359 355 352 357 360 360 362 362 362 362 362 364 0 0 0 0 0
    0 0 0 0 0 0 0 0 0 0 0 0 0 0 0 0 0 0 0 0 0 0 0 0 0 0 0 0 0 0 0 0 0 0 0 0 0 0 0 0 0 0 0 0 0 0 0 0 0 0 0 0 0 0 0 0 0 0 0 0 0 0 0 0 0 0 0 0 0 336 333 336 334 333 336 336 334 334 334 334 336 334 334 334 334 337 0 0 0 0 0 0 0 0 0 0 0 0 337 337 337 337 340 342 343 343 343 342 339 340 340 342 342 340 343 343 342 342 343 343 342 345 347 342 343 347 347 345 350 348 348 352 353 353 352 353 353 348 348 348 347 347 343 342 342 342 342 343 343 342 342 343 345 343 347 347 347 348 347 348 347 347 347 345 343 343 343 343 343 345 345 345 347 347 348 347 347 345 342 343 345 345 345 345 348 348 350 350 350 352 352 350 348 345 350 350 350 352 348 350 350 352 352 350 350 347 348 350 350 352 350 352 350 350 355 355 355 350 353 353 353 353 355 348 348 348 352 348 347 345 348 347 348 348 350 352 350 352 353 350 355 348 355 353 353 357 357 357 359 357 364 362 364 367 360 359 353 357 357 353 353 352 352 353 353 357 353 353 355 355 357 357 357 355 353 357 353 357 0 0 359 360 362 362 364 366 366 366 362 362 362 362 362 360 359 360 360 362 362 360 359 359 360 359 353 350 357 359 359 360 362 362 362 362 364 0 0 0 0 0
    0 0 0 0 0 0 0 0 0 0 0 0 0 0 0 0 0 0 0 0 0 0 0 0 0 0 0 0 0 0 0 0 0 0 0 0 0 0 0 0 0 0 0 0 0 0 0 0 0 0 0 0 0 0 0 0 0 0 0 0 0 0 0 0 0 0 0 0 0 336 331 336 334 333 336 334 334 334 334 336 336 334 336 334 0 0 0 0 0 0 0 0 0 0 0 0 0 0 339 337 337 337 340 342 343 342 342 340 337 337 339 340 340 340 343 342 342 342 342 342 342 343 345 340 342 345 347 347 350 348 350 352 353 353 352 353 353 348 348 348 347 347 343 342 342 342 342 343 342 342 342 343 345 345 347 348 348 348 348 348 347 347 347 343 343 342 343 343 343 345 345 345 347 347 348 347 347 345 342 343 345 345 345 345 348 348 350 350 350 353 352 352 348 345 348 350 350 352 350 352 350 352 352 352 350 348 348 350 350 352 348 352 350 350 355 355 353 350 353 353 352 353 355 348 348 348 352 348 347 345 348 347 347 348 350 352 350 352 353 348 353 347 355 353 353 355 357 357 359 357 364 360 364 367 360 360 353 357 357 353 355 352 352 355 353 357 353 353 355 353 357 357 355 353 352 355 353 357 357 0 359 0 362 362 362 366 364 366 366 364 366 366 366 364 362 362 362 364 362 362 360 359 362 359 353 350 355 359 359 360 360 362 362 360 364 0 0 0 0 0
    0 0 0 0 0 0 0 0 0 0 0 0 0 0 0 0 0 0 0 0 0 0 0 0 0 0 0 0 0 0 0 0 0 0 0 0 0 0 0 0 0 0 0 0 0 0 0 0 0 0 0 0 0 0 0 0 0 0 0 0 0 0 0 0 0 0 0 0 0 336 331 336 334 333 336 336 334 334 333 336 336 334 336 0 0 0 0 0 0 0 0 345 0 342 340 0 340 342 342 340 339 339 340 342 342 342 342 340 337 337 337 340 340 340 342 342 342 342 342 342 342 342 343 340 342 345 347 347 350 348 350 350 353 353 352 353 353 348 348 348 347 347 343 342 342 342 342 343 343 343 342 345 347 345 347 348 348 348 348 348 347 347 347 345 343 342 343 342 343 345 345 345 345 345 347 347 347 345 342 343 345 345 345 347 348 348 350 352 352 353 353 353 348 345 350 350 350 352 348 352 350 352 352 350 350 347 348 348 348 350 348 352 350 348 355 353 353 348 352 353 352 352 355 350 348 350 353 348 348 347 350 348 348 348 352 353 353 353 355 350 355 348 353 352 353 355 355 357 359 357 364 360 364 366 359 359 352 357 355 353 353 352 352 353 352 357 353 353 355 353 357 357 353 353 352 355 353 357 355 357 357 359 362 362 362 364 364 367 367 366 367 369 367 366 364 364 364 366 364 362 362 360 364 359 355 348 355 360 359 360 360 360 360 360 362 0 0 0 0 0
    0 0 0 0 0 0 0 0 0 0 0 0 0 0 0 0 0 0 0 0 0 0 0 0 0 0 0 0 0 0 0 0 0 0 0 0 0 0 0 0 0 0 0 0 0 0 0 0 0 0 0 0 0 0 0 0 0 0 0 0 0 0 0 0 0 0 0 0 0 336 331 336 334 333 336 336 334 334 333 336 336 334 334 0 0 0 0 0 0 0 0 0 0 0 0 339 340 340 340 339 337 337 339 340 340 339 340 339 337 337 337 339 340 340 343 342 342 342 342 342 342 342 343 339 340 343 345 347 350 350 352 350 353 353 352 353 355 350 350 348 347 347 343 342 342 340 340 343 343 343 342 345 347 345 347 348 348 348 348 350 347 347 347 345 343 342 342 342 343 343 343 343 345 345 347 347 347 345 343 343 345 345 347 347 348 348 350 352 352 355 353 353 348 345 350 348 350 350 348 350 350 350 350 348 348 347 348 348 348 350 348 350 350 347 353 353 353 348 352 352 350 350 355 350 350 350 353 348 348 350 353 353 350 352 355 355 357 357 357 350 355 348 353 352 353 355 355 355 359 357 362 360 364 367 359 357 350 355 355 353 353 352 352 353 352 357 353 353 355 353 357 357 353 355 353 357 355 359 357 359 357 359 360 362 364 366 0 369 369 367 369 371 369 366 366 364 364 364 364 362 362 360 364 359 355 348 353 359 359 359 359 359 359 359 360 0 0 0 0 0
    0 0 0 0 0 0 0 0 0 0 0 0 0 0 0 0 0 0 0 0 0 0 0 0 0 0 0 0 0 0 0 0 0 0 0 0 0 0 0 0 0 0 0 0 0 0 0 0 0 0 0 0 0 0 0 0 0 0 0 0 0 0 0 0 0 0 0 0 0 334 330 334 333 333 336 334 334 334 333 336 336 334 334 333 0 0 0 0 0 0 0 0 0 0 339 339 339 339 339 337 336 336 336 337 337 334 337 336 336 336 336 339 340 340 343 343 342 342 342 342 342 342 342 339 340 342 343 347 352 352 353 350 355 352 352 353 353 350 348 347 348 347 343 340 342 340 340 343 342 343 342 345 347 345 347 348 348 348 348 348 347 347 347 345 343 342 342 343 343 343 345 345 345 345 347 347 347 345 343 345 345 347 348 348 350 350 350 352 352 353 352 350 347 345 348 347 347 348 347 350 348 350 350 348 350 348 350 350 348 350 350 352 352 347 355 353 353 348 352 352 350 350 355 350 350 350 355 348 350 352 355 355 352 355 357 357 359 359 359 352 355 348 353 352 353 355 355 355 357 357 362 360 364 367 364 359 355 357 357 355 353 352 352 353 353 357 353 353 355 355 357 357 355 357 353 359 357 360 359 359 359 359 360 362 364 364 0 0 369 367 369 369 369 367 366 364 362 364 364 362 362 360 362 359 353 347 350 359 359 359 357 359 359 359 360 0 0 0 0 0
    0 0 0 0 0 0 0 0 0 0 0 0 0 0 0 0 0 0 0 0 0 0 0 0 0 0 0 0 0 0 0 0 0 0 0 0 0 0 0 0 0 0 0 0 0 0 0 0 0 0 0 0 0 0 0 0 0 0 0 0 0 0 0 0 0 0 0 0 0 334 330 333 333 330 334 333 333 334 334 0 336 0 334 333 0 0 0 0 0 0 0 342 342 0 339 339 339 339 339 337 336 334 334 336 334 331 334 331 331 333 336 339 339 340 343 343 342 342 342 342 342 342 343 339 340 342 343 347 353 353 353 350 353 348 348 350 350 348 348 347 348 347 342 342 342 340 340 342 342 342 342 345 347 345 347 348 348 350 350 348 347 347 348 347 345 345 343 345 345 345 345 347 347 347 347 348 348 345 345 347 347 348 348 348 350 350 350 352 350 353 350 350 347 343 347 347 347 348 347 348 348 350 352 350 352 350 350 352 350 352 352 352 352 347 355 353 353 348 352 352 350 350 355 350 350 350 355 350 350 353 355 357 353 357 359 357 359 360 359 352 355 348 353 352 353 355 355 355 357 355 362 360 364 366 364 360 359 359 359 355 353 352 352 353 353 355 353 353 355 355 357 357 357 359 355 360 359 362 360 360 359 360 362 364 364 364 0 0 369 367 369 371 371 367 367 364 364 364 364 364 362 359 360 357 353 345 348 359 357 357 357 359 359 359 360 0 0 0 0 0
    0 0 0 0 0 0 0 0 0 0 0 0 0 0 0 0 0 0 0 0 0 0 0 0 0 0 0 0 0 0 0 0 0 0 0 0 0 0 0 0 0 0 0 0 0 0 0 0 0 0 0 0 0 0 0 0 0 0 0 0 0 0 0 0 0 0 0 0 0 334 330 334 333 330 334 333 333 336 334 0 336 0 336 334 0 0 0 336 0 0 0 0 340 340 339 339 339 339 339 337 336 333 333 334 331 330 331 325 328 331 334 339 339 340 342 342 342 342 342 342 342 342 343 339 340 0 0 343 350 350 350 345 348 343 345 347 347 345 345 345 347 345 342 340 340 339 340 342 342 342 342 347 347 347 348 348 348 350 350 350 348 348 348 347 348 347 345 345 347 347 347 347 347 347 347 350 348 347 347 347 347 348 348 348 350 350 350 353 350 353 352 352 347 345 347 347 347 348 347 348 348 350 353 352 353 352 352 353 352 353 352 350 350 345 353 353 353 347 352 352 350 350 355 352 350 350 357 350 350 353 355 357 355 357 359 357 359 360 359 352 355 348 352 352 352 353 355 355 357 355 360 359 360 362 360 359 359 360 359 357 353 352 352 352 353 355 353 355 355 355 359 359 357 359 357 360 360 362 362 362 362 364 364 366 366 364 364 369 371 367 371 371 373 367 367 366 364 362 362 362 360 357 357 353 350 345 348 359 357 357 357 359 359 359 360 0 0 0 0 0
    0 0 0 0 0 0 0 0 0 0 0 0 0 0 0 0 0 0 0 0 0 0 0 0 0 0 0 0 0 0 0 0 0 0 0 0 0 0 0 0 0 0 0 0 0 0 0 0 0 0 0 0 0 0 0 0 0 0 0 0 0 0 0 0 0 0 0 0 0 336 333 336 336 333 336 334 336 337 336 337 337 336 337 336 0 0 0 0 0 0 0 0 0 0 339 339 339 337 339 337 336 334 333 334 333 331 334 330 331 333 336 339 340 340 343 343 342 342 342 342 340 342 342 339 339 0 0 340 343 345 345 342 345 342 343 343 345 345 345 345 347 343 342 340 340 340 340 342 342 343 343 347 347 348 350 350 348 350 350 350 347 348 348 347 348 348 345 345 345 345 347 347 347 345 347 350 350 348 347 347 347 348 350 350 352 350 350 353 350 355 352 352 347 345 347 348 347 350 347 350 348 352 355 353 353 353 353 353 352 353 352 348 348 345 352 353 353 347 352 352 352 350 355 352 350 350 357 350 350 353 355 357 353 357 359 357 359 360 357 352 353 347 352 350 352 353 353 353 355 353 359 357 359 360 359 359 359 359 359 357 355 353 352 352 352 353 352 353 355 355 359 357 357 359 357 360 360 362 360 362 362 364 364 366 366 364 364 373 371 369 371 373 379 371 371 367 364 362 362 360 357 352 352 350 348 343 347 359 357 357 357 359 359 359 362 0 0 0 0 0
    0 0 0 0 0 0 0 0 0 0 0 0 0 0 0 0 0 0 0 0 0 0 0 0 0 0 0 0 0 0 0 0 0 0 0 0 0 0 0 0 0 0 0 0 0 0 0 0 0 0 0 0 0 0 0 0 0 0 0 0 0 0 0 0 0 0 0 0 0 337 0 0 0 334 337 336 337 339 337 339 337 337 337 337 337 336 0 0 0 0 0 0 0 0 339 339 340 339 339 339 337 336 336 336 333 331 334 333 336 334 337 339 339 340 343 342 342 340 342 340 340 340 340 337 337 339 0 0 342 343 343 342 345 342 343 343 345 345 345 345 347 343 342 342 342 340 340 343 342 343 343 347 347 348 350 352 348 350 350 350 347 347 347 345 347 348 343 345 345 345 347 347 347 345 345 352 350 352 348 348 347 348 350 350 352 350 348 353 350 355 353 352 348 345 347 348 347 350 347 350 348 352 355 355 353 353 352 353 350 352 350 348 347 345 352 353 353 347 352 353 352 350 355 350 350 350 357 348 348 353 355 355 353 357 359 355 359 360 359 353 355 348 350 350 350 352 352 352 353 352 357 355 357 360 359 359 359 359 359 357 357 355 352 352 353 353 352 353 355 355 359 357 359 359 357 360 360 362 360 360 362 364 364 367 367 366 366 373 373 369 371 375 381 373 371 367 364 364 360 359 353 350 348 348 347 343 348 357 357 357 357 359 360 360 364 0 0 0 0 0
    0 0 0 0 0 0 0 0 0 0 0 0 0 0 0 0 0 0 0 0 0 0 0 0 0 0 0 0 0 0 0 0 0 0 0 0 0 0 0 0 0 0 0 0 0 0 0 0 0 0 0 0 0 0 0 0 0 0 0 0 0 0 0 0 0 0 0 0 0 0 336 339 0 334 339 337 340 340 339 339 339 337 339 337 336 336 0 0 0 0 0 0 0 0 342 342 345 342 342 340 340 340 340 0 334 330 331 330 334 333 334 337 339 339 342 343 342 340 340 340 340 340 340 337 337 0 0 0 0 0 0 0 0 340 340 342 343 343 345 347 345 343 342 343 343 342 342 343 342 343 343 347 347 348 350 352 348 350 350 350 348 347 345 343 345 347 343 345 345 345 347 347 347 345 343 353 347 350 347 347 348 350 352 352 352 350 348 355 350 355 355 352 348 345 350 350 348 352 347 350 348 352 355 353 353 352 352 352 348 352 348 347 347 343 352 352 353 347 352 353 352 350 355 350 348 348 355 348 348 352 353 355 353 355 357 357 359 360 357 355 355 350 350 350 350 352 352 353 353 352 357 357 357 360 359 359 357 359 359 357 357 355 353 352 353 352 353 355 357 357 359 359 360 362 360 362 362 362 360 362 362 364 366 367 369 369 371 377 375 371 373 379 385 373 371 367 362 362 362 359 355 350 350 350 348 345 348 357 359 359 357 359 359 360 364 0 0 0 0 0
    0 0 0 0 0 0 0 0 0 0 0 0 0 0 0 0 0 0 0 0 0 0 0 0 0 0 0 0 0 0 0 0 0 0 0 0 0 0 0 0 0 0 0 0 0 0 0 0 0 0 0 0 0 0 0 0 0 0 0 0 0 0 0 0 0 0 0 0 0 339 337 337 337 334 340 337 340 340 339 339 339 337 339 336 336 334 0 0 0 0 0 0 0 0 0 342 345 340 342 340 0 0 0 0 0 327 0 328 0 331 0 336 337 339 342 342 342 340 340 339 340 339 339 336 336 0 0 0 0 0 0 0 0 339 337 340 343 343 345 348 347 345 343 345 345 343 343 343 343 345 343 347 347 348 350 353 348 352 350 350 348 347 343 343 343 345 342 345 345 345 345 347 347 345 343 352 345 348 345 347 347 348 352 352 353 350 348 355 350 355 355 350 348 345 353 352 348 355 348 350 352 353 357 353 355 353 350 352 350 350 348 345 345 342 352 352 350 347 352 352 350 348 353 348 348 348 353 347 348 352 353 353 353 355 357 357 359 360 357 357 355 350 352 350 350 352 352 353 353 352 357 355 357 359 359 357 357 357 357 357 357 357 353 353 353 352 353 355 357 357 359 357 360 360 362 364 362 362 360 362 362 364 364 367 369 367 369 373 371 366 369 371 373 367 364 364 359 360 362 360 355 350 352 352 350 347 348 359 359 359 357 357 359 359 362 0 0 0 0 0
    0 0 0 0 0 0 0 0 0 0 0 0 0 0 0 0 0 0 0 0 0 0 0 0 0 0 0 0 0 0 0 0 0 0 0 0 0 0 0 0 0 0 0 0 0 0 0 0 0 0 0 0 0 0 0 0 0 0 0 0 0 0 0 0 0 0 0 0 0 337 336 337 336 331 339 336 340 342 339 339 339 337 337 336 334 333 0 334 0 0 0 0 0 0 0 0 0 0 340 340 0 0 0 0 0 0 0 0 0 0 0 0 337 337 342 342 342 340 340 339 340 339 339 336 0 0 0 82 0 0 0 0 0 0 337 340 345 342 345 350 345 345 343 347 347 345 347 345 343 347 345 347 347 350 352 355 350 352 350 350 350 347 343 342 342 345 342 345 345 345 345 347 347 345 343 352 343 347 345 347 348 350 353 355 353 350 348 355 348 353 352 347 347 345 0 352 350 357 350 353 355 355 357 355 355 355 352 355 352 352 348 345 345 343 350 350 350 347 350 352 350 348 352 347 347 348 352 347 347 352 353 353 353 355 355 357 357 360 355 355 355 352 352 350 350 352 352 353 353 352 355 355 357 359 357 357 357 357 357 357 357 357 355 353 355 353 353 355 357 357 359 357 360 360 360 364 362 362 360 362 364 364 366 367 366 366 366 369 367 359 362 364 362 362 359 360 357 359 362 357 352 348 348 350 347 345 348 359 359 357 357 357 359 359 362 0 0 0 0 0
    0 0 0 0 0 0 0 0 0 0 0 0 0 0 0 0 0 0 0 0 0 0 0 0 0 0 0 0 0 0 0 0 0 0 0 0 0 0 0 0 0 0 0 0 0 0 0 0 0 0 0 0 0 0 0 0 0 0 0 0 0 0 0 0 0 0 0 0 0 337 336 336 334 330 337 333 340 342 339 339 339 337 339 336 336 333 330 334 0 0 0 0 0 0 0 0 0 0 345 345 0 0 0 0 0 0 0 0 138 0 139 0 337 336 340 342 342 339 340 339 340 339 340 337 0 0 0 0 0 0 0 0 0 0 0 0 343 342 345 350 345 343 345 348 348 347 348 347 345 347 347 347 347 352 355 355 352 353 352 350 352 348 343 342 343 345 342 345 345 343 345 347 347 345 342 352 340 345 0 347 348 350 357 357 355 350 348 355 347 352 352 345 345 0 0 352 352 357 352 353 355 357 359 357 357 357 353 357 352 353 348 345 345 342 350 350 348 347 350 352 350 348 352 347 347 347 352 348 347 352 352 353 352 353 355 355 355 359 353 353 353 350 350 350 350 352 350 353 353 352 355 355 357 359 357 359 357 357 357 357 359 357 355 353 355 353 353 355 357 357 359 357 360 359 360 364 364 362 360 362 364 364 366 367 364 362 362 366 362 353 359 360 360 364 362 362 359 360 364 359 353 350 348 348 347 345 347 359 359 357 357 357 359 359 362 0 0 0 0 0
    0 0 0 0 0 0 0 0 0 0 0 0 0 0 0 0 0 0 0 0 0 0 0 0 0 0 0 0 0 0 0 0 0 0 0 0 0 0 0 0 0 0 0 0 0 0 0 0 0 0 0 0 0 0 0 0 0 0 0 0 0 0 0 0 0 0 0 0 0 0 0 339 337 0 0 0 0 343 340 342 340 340 340 339 337 334 331 0 0 0 0 0 0 0 0 0 0 0 352 0 0 0 0 0 0 0 0 139 138 138 139 138 0 0 339 339 340 339 339 339 340 339 0 0 0 0 0 0 0 0 0 0 0 0 0 0 0 0 0 353 347 345 345 350 350 348 350 347 345 347 347 347 347 352 355 355 353 355 355 352 352 348 343 342 343 345 342 343 343 343 343 345 345 343 340 347 339 0 0 345 347 350 359 357 357 350 350 357 0 0 0 0 0 0 0 353 353 357 353 355 357 359 359 357 357 357 355 359 353 353 348 345 345 342 350 350 347 345 350 350 350 347 352 345 347 347 350 347 347 350 352 352 352 353 353 353 352 357 348 350 352 350 350 350 348 350 348 353 352 352 353 353 355 359 357 357 355 357 357 357 359 359 353 353 355 353 353 355 359 359 359 357 360 359 360 364 364 362 360 362 364 364 366 367 364 362 360 364 359 350 355 357 0 0 362 364 0 0 0 0 359 355 352 353 350 350 350 360 360 359 357 357 359 359 362 0 0 0 0 0
    0 0 0 0 0 0 0 0 0 0 0 0 0 0 0 0 0 0 0 0 0 0 0 0 0 0 0 0 0 0 0 0 0 0 0 0 0 0 0 0 0 0 0 0 0 0 0 0 0 0 0 0 0 0 0 0 0 0 0 0 0 0 0 0 0 0 0 0 0 342 343 342 342 0 347 347 350 0 0 343 343 0 342 0 0 0 0 0 0 0 0 0 146 0 0 0 0 0 0 0 0 0 0 0 0 0 0 139 138 138 139 138 0 0 0 339 340 337 337 337 339 337 0 0 0 0 0 0 0 0 0 0 0 0 0 0 0 0 0 0 348 0 0 353 352 352 350 347 345 348 348 347 347 352 357 357 355 355 357 352 353 348 0 0 342 343 342 343 343 342 343 343 343 342 339 340 339 0 0 0 0 352 362 360 359 350 0 0 0 0 0 0 0 0 0 355 353 357 353 355 357 357 357 357 357 357 355 359 353 353 348 345 345 342 348 348 345 345 348 350 348 347 350 345 345 347 348 347 347 350 352 350 350 352 352 352 348 355 347 347 348 350 348 347 347 347 347 0 350 350 352 352 355 357 357 357 355 357 357 357 359 359 355 353 357 353 355 357 359 359 359 357 360 0 360 0 0 360 359 360 364 362 364 367 362 360 360 0 355 347 350 350 0 0 360 0 0 0 0 0 0 0 0 357 353 352 350 359 360 357 355 355 357 357 360 0 0 0 0 0
    0 0 0 0 0 0 0 0 0 0 0 0 0 0 0 0 0 0 0 0 0 0 0 0 0 0 0 0 0 0 0 0 0 0 0 0 0 0 0 0 0 0 0 0 0 0 0 0 0 0 0 0 0 0 0 0 0 0 0 0 0 0 0 0 0 0 0 0 0 342 343 343 0 0 0 0 0 0 0 0 0 0 0 0 0 274 270 83 83 0 0 0 146 0 0 0 0 0 0 118 0 0 0 0 0 0 0 139 138 138 138 138 138 138 138 0 340 336 336 334 0 0 0 0 0 0 0 0 0 0 0 0 0 0 0 0 0 0 0 0 348 0 0 355 355 359 355 352 345 350 348 345 345 0 357 359 357 0 359 352 353 347 0 0 0 342 342 342 343 342 342 343 343 342 339 339 339 339 0 0 0 0 0 0 359 0 0 0 0 0 0 0 0 0 0 352 352 353 352 353 357 357 357 355 357 357 355 359 350 353 347 345 345 340 348 347 345 345 348 348 347 343 347 343 343 345 347 347 345 350 352 350 350 350 352 350 347 0 0 0 0 353 350 348 347 0 0 0 352 352 352 353 355 359 357 359 355 357 357 357 360 360 357 353 357 353 355 357 359 359 359 0 0 0 0 0 0 360 0 0 0 360 362 366 362 357 0 360 0 0 347 0 0 0 0 0 518 0 0 0 0 0 0 0 357 352 347 357 359 353 350 348 350 350 355 0 0 0 0 0
    0 0 0 0 0 0 0 0 0 0 0 0 0 0 0 0 0 0 0 0 0 0 0 0 0 0 0 0 0 0 0 0 0 0 0 0 0 0 0 0 0 0 0 0 0 0 0 0 0 0 0 0 0 0 0 0 0 0 0 0 0 0 0 0 0 0 0 0 0 0 340 0 0 0 0 0 0 0 0 0 0 0 0 0 0 0 0 0 0 0 0 0 0 0 0 0 0 0 0 0 0 0 0 0 0 0 0 0 138 138 138 138 138 137 137 0 0 333 0 0 0 0 91 91 0 0 0 0 0 0 0 0 0 0 0 5256 3873 0 0 0 0 0 0 355 357 362 357 0 0 0 0 0 0 0 0 0 360 0 364 353 353 347 0 0 0 0 0 0 342 340 340 343 343 343 340 342 339 0 0 0 0 0 0 0 0 0 0 0 0 0 0 0 0 0 0 0 0 353 352 353 0 357 355 353 353 353 352 357 350 352 347 347 345 340 347 345 342 343 345 345 343 342 345 342 343 343 345 347 345 350 352 350 350 350 350 350 347 0 0 0 0 357 353 353 0 0 0 0 0 0 357 357 357 359 360 359 353 355 353 353 359 362 0 352 359 353 355 359 360 359 357 0 0 0 0 0 0 0 0 0 0 0 0 367 0 0 0 0 0 0 0 0 0 0 0 0 0 0 0 0 0 0 0 0 348 347 343 352 355 352 345 342 342 343 343 0 0 0 0 0
    0 0 0 0 0 0 0 0 0 0 0 0 0 0 0 0 0 0 0 0 0 0 0 0 0 0 0 0 0 0 0 0 0 0 0 0 0 0 0 0 0 0 0 0 0 0 0 0 0 0 0 0 0 0 0 0 0 0 0 0 0 0 0 0 0 0 0 0 0 0 0 0 0 0 0 0 0 0 0 0 0 0 0 0 0 0 0 0 0 0 0 0 0 0 0 0 0 0 0 0 0 0 0 0 0 0 0 0 0 0 0 0 0 0 0 0 0 0 0 0 0 0 0 0 0 0 0 0 0 0 0 0 0 0 0 0 0 0 0 0 0 0 0 0 0 0 0 0 0 73 73 73 73 73 0 0 0 0 369 360 0 0 0 0 334 334 336 0 339 339 337 340 343 343 340 0 0 0 0 0 0 0 0 0 0 0 0 0 0 0 0 0 0 0 0 0 0 0 0 0 0 357 353 352 352 353 350 359 353 352 347 347 345 340 345 342 340 342 340 342 339 339 343 342 342 343 342 347 345 350 352 348 350 350 348 353 347 350 345 0 0 357 0 0 0 0 0 0 0 0 364 0 0 0 0 359 0 0 0 266 261 0 0 0 0 0 0 0 0 359 355 0 0 0 0 0 0 0 0 0 0 0 0 0 0 0 0 0 0 0 0 0 0 0 0 0 0 0 0 675 663 629 588 0 342 343 340 0 350 343 337 336 336 336 336 0 0 0 0 0
    0 0 0 0 0 0 0 0 0 0 0 0 0 0 0 0 0 0 0 0 0 0 0 0 0 0 0 0 0 0 0 0 0 0 0 0 0 0 0 0 0 0 0 0 0 0 0 0 0 0 0 0 0 0 0 0 0 0 0 0 0 0 0 0 0 0 0 0 0 0 0 0 0 0 0 0 0 0 0 0 0 0 0 0 0 0 0 0 0 0 0 0 0 0 0 0 0 0 0 0 0 0 0 0 0 0 0 0 0 0 0 0 0 0 0 0 0 0 0 0 0 0 0 0 0 0 0 0 0 0 0 0 0 0 0 0 0 0 0 0 0 0 0 0 0 0 0 0 0 0 0 73 73 73 0 0 0 0 0 0 0 0 0 0 0 0 0 0 0 0 0 0 0 0 0 0 0 0 0 0 0 0 0 0 0 0 0 0 0 0 0 0 0 0 0 0 0 0 0 0 0 0 355 0 0 0 350 0 0 0 345 343 342 339 340 339 336 337 336 337 334 0 0 0 0 0 0 0 0 0 0 0 0 0 0 0 0 0 0 0 0 0 0 0 0 0 0 0 845 0 0 0 0 0 0 0 0 278 263 257 252 0 0 0 226 0 0 0 0 0 0 0 0 0 0 0 0 0 0 0 0 0 0 0 0 0 0 0 0 0 0 0 0 0 0 579 557 588 0 0 0 0 0 0 0 336 336 0 342 333 331 330 328 333 333 0 0 0 0 0
    0 0 0 0 0 0 0 0 0 0 0 0 0 0 0 0 0 0 0 0 0 0 0 0 0 0 0 0 0 0 0 0 0 0 0 0 0 0 0 0 0 0 0 0 0 0 0 0 0 0 0 0 0 0 0 0 0 0 0 0 0 0 0 0 0 0 0 0 0 0 0 0 0 0 0 0 0 0 0 0 0 0 0 0 0 0 0 0 0 0 0 0 0 0 0 0 0 0 0 0 0 0 0 0 0 0 0 0 0 0 0 0 0 0 0 0 0 0 0 0 0 0 0 0 0 0 0 0 0 0 0 0 0 0 0 0 0 0 0 0 0 0 0 0 0 0 0 0 0 0 0 0 0 0 0 0 0 0 0 0 0 0 0 0 0 0 0 0 0 0 0 0 0 0 0 0 0 0 0 0 0 0 0 0 0 0 0 0 0 0 0 0 0 0 0 0 0 0 0 0 0 0 0 0 0 0 0 0 0 0 0 0 0 0 0 0 0 0 0 0 0 0 0 0 0 0 0 0 0 0 0 0 0 0 0 0 0 0 0 0 0 0 0 0 0 0 0 0 0 0 0 0 0 0 0 0 0 283 268 0 242 0 217 0 0 0 0 0 0 0 0 0 0 0 0 0 0 0 0 0 0 0 0 0 0 0 0 0 0 0 0 0 0 0 0 553 537 0 0 0 0 0 0 0 0 322 325 319 328 324 328 325 328 333 333 0 0 0 0 0
    0 0 0 0 0 0 0 0 0 0 0 0 0 0 0 0 0 0 0 0 0 0 0 0 0 0 0 0 0 0 0 0 0 0 0 0 0 0 0 0 0 0 0 0 0 0 0 0 0 0 0 0 0 0 0 0 0 0 0 0 0 0 0 0 0 0 0 0 0 0 0 0 0 0 0 0 0 0 0 0 0 0 0 0 0 0 0 0 0 0 0 0 0 0 0 0 0 0 0 0 0 0 0 0 0 0 0 0 0 0 0 0 0 0 0 0 0 0 0 0 0 0 0 0 0 0 0 0 0 0 0 0 0 0 0 0 0 0 0 0 0 0 0 0 0 0 0 0 0 0 0 0 0 0 0 0 0 0 0 0 0 0 0 0 0 0 0 0 0 0 0 0 0 0 0 0 0 0 0 0 0 0 0 0 0 0 0 0 0 0 0 0 0 0 0 0 0 0 0 0 0 0 0 0 0 0 0 0 0 0 0 0 0 0 0 0 0 0 0 0 0 0 0 0 0 0 0 0 0 0 0 0 0 0 0 0 0 0 0 0 0 0 0 0 0 0 0 0 0 0 0 0 0 0 0 0 0 0 0 0 0 0 0 0 0 0 0 0 0 0 0 0 0 0 0 0 0 0 0 0 0 0 0 0 0 0 0 0 7359 0 0 0 0 0 0 570 541 0 0 0 0 0 0 0 0 331 330 318 319 321 321 0 0 324 325 0 0 0 0 0
    0 0 0 0 0 0 0 0 0 0 0 0 0 0 0 0 0 0 0 0 0 0 0 0 0 0 0 0 0 0 0 0 0 0 0 0 0 0 0 0 0 0 0 0 0 0 0 0 0 0 0 0 0 0 0 0 0 0 0 0 0 0 0 0 0 0 0 0 0 0 0 0 0 0 0 0 0 0 0 0 0 0 0 0 0 0 0 0 0 0 0 0 0 0 0 0 0 0 0 0 0 0 0 0 0 0 0 0 0 0 0 0 0 0 0 0 0 0 0 0 0 0 0 0 0 0 0 0 0 0 0 0 0 0 0 0 0 0 0 0 0 0 0 0 0 0 0 0 0 0 0 0 0 0 0 0 0 0 0 0 0 0 0 0 0 0 0 0 0 0 0 0 0 0 0 0 0 0 0 0 0 0 0 0 0 0 0 0 0 0 0 0 0 0 0 0 0 0 0 0 0 0 0 0 0 0 0 0 0 0 0 0 0 0 0 0 0 0 0 0 0 0 0 0 0 0 0 0 0 0 0 0 0 0 0 0 0 0 0 0 0 0 0 0 0 0 0 0 0 0 0 0 0 0 0 0 0 0 0 0 0 0 0 0 0 0 0 0 0 0 0 0 0 0 0 0 0 0 0 0 0 0 0 0 0 0 0 0 0 4906 0 0 0 0 0 584 549 0 0 0 0 0 0 0 0 0 334 319 321 322 0 0 0 0 321 0 0 0 0 0
    0 0 0 0 0 0 0 0 0 0 0 0 0 0 0 0 0 0 0 0 0 0 0 0 0 0 0 0 0 0 0 0 0 0 0 0 0 0 0 0 0 0 0 0 0 0 0 0 0 0 0 0 0 0 0 0 0 0 0 0 0 0 0 0 0 0 0 0 0 0 0 0 0 0 0 0 0 0 0 0 0 0 0 0 0 0 0 0 0 0 0 0 0 0 0 0 0 0 0 0 0 0 0 0 0 0 0 0 0 0 0 0 0 0 0 0 0 0 0 0 0 0 0 0 0 0 0 0 0 0 0 0 0 0 0 0 0 0 0 0 0 0 0 0 0 0 0 0 0 0 0 0 0 0 0 0 0 0 0 0 0 0 0 0 0 0 0 0 0 0 0 0 0 0 0 0 0 0 0 0 0 0 0 0 0 0 0 0 0 0 0 0 0 0 0 0 0 0 0 0 0 0 0 0 0 0 0 0 0 0 0 0 0 0 0 0 0 0 0 0 0 0 0 0 0 0 0 0 0 0 0 0 0 0 0 0 0 0 0 0 0 0 0 0 0 0 0 0 0 0 0 0 0 0 0 0 0 0 0 0 0 0 0 0 0 0 0 0 0 0 0 0 0 0 0 0 0 0 0 0 0 0 0 0 0 0 0 0 0 5256 4088 0 0 0 0 593 545 0 0 0 0 0 0 0 0 0 0 317 0 318 0 314 307 0 0 0 0 0 0 0
    0 0 0 0 0 0 0 0 0 0 0 0 0 0 0 0 0 0 0 0 0 0 0 0 0 0 0 0 0 0 0 0 0 0 0 0 0 0 0 0 0 0 0 0 0 0 0 0 0 0 0 0 0 0 0 0 0 0 0 0 0 0 0 0 0 0 0 0 0 0 0 0 0 0 0 0 0 0 0 0 0 0 0 0 0 0 0 0 0 0 0 0 0 0 0 0 0 0 0 0 0 0 0 0 0 0 0 0 0 0 0 0 0 0 0 0 0 0 0 0 0 0 0 0 0 0 0 0 0 0 0 0 0 0 0 0 0 0 0 0 0 0 0 0 0 0 0 0 0 0 0 0 0 0 0 0 0 0 0 0 0 0 0 0 0 0 0 0 0 0 0 0 0 0 0 0 0 0 0 0 0 0 0 0 0 0 0 0 0 0 0 0 0 0 0 0 0 0 0 0 0 0 0 0 0 0 0 0 0 0 0 0 0 0 0 0 0 0 0 0 0 0 0 0 0 0 0 0 0 0 0 0 0 0 0 0 0 0 0 0 0 0 0 0 0 0 0 0 0 0 0 0 0 0 0 0 0 0 0 0 0 0 0 0 0 0 0 0 0 0 0 0 0 0 0 0 0 0 0 0 0 0 0 0 0 0 0 0 0 5256 3873 0 0 0 0 603 584 0 0 0 0 0 0 0 0 0 0 314 0 318 0 311 304 0 0 0 0 0 0 0
    0 0 0 0 0 0 0 0 0 0 0 0 0 0 0 0 0 0 0 0 0 0 0 0 0 0 0 0 0 0 0 0 0 0 0 0 0 0 0 0 0 0 0 0 0 0 0 0 0 0 0 0 0 0 0 0 0 0 0 0 0 0 0 0 0 0 0 0 0 0 0 0 0 0 0 0 0 0 0 0 0 0 0 0 0 0 0 0 0 0 0 0 0 0 0 0 0 0 0 0 0 0 0 0 0 0 0 0 0 0 0 0 0 0 0 0 0 0 0 0 0 0 0 0 0 0 0 0 0 0 0 0 0 0 0 0 0 0 0 0 0 0 0 0 0 0 0 0 0 0 0 0 0 0 0 0 0 0 0 0 0 0 0 0 0 0 0 0 0 0 0 0 0 0 0 0 0 0 0 0 0 0 0 0 0 0 0 0 0 0 0 0 0 0 0 0 0 0 0 0 0 0 0 0 0 0 0 0 0 0 0 0 0 0 0 0 0 0 0 0 0 0 0 0 0 0 0 0 0 0 0 0 0 0 0 0 0 0 0 0 0 0 0 0 0 0 0 0 0 0 0 0 0 0 0 0 0 0 0 0 0 0 0 0 0 0 0 0 0 0 0 0 0 261 268 272 267 0 0 0 0 0 0 0 0 0 0 0 6690 4599 0 0 0 0 645 608 0 0 0 0 0 0 0 0 0 0 296 0 0 0 0 0 0 285 0 0 0 0 0 0
    0 0 0 0 0 0 0 0 0 0 0 0 0 0 0 0 0 0 0 0 0 0 0 0 0 0 0 0 0 0 0 0 0 0 0 0 0 0 0 0 0 0 0 0 0 0 0 0 0 0 0 0 0 0 0 0 0 0 0 0 0 0 0 0 0 0 0 0 0 0 0 0 0 0 0 0 0 0 0 0 0 0 0 0 0 0 0 0 0 0 0 0 0 0 0 0 0 0 0 0 0 0 0 0 0 0 0 0 0 0 0 0 0 0 0 0 0 0 0 0 0 0 0 0 0 0 0 0 0 0 0 0 0 0 0 0 0 0 0 0 0 0 0 0 0 0 0 0 0 0 0 0 0 0 0 0 0 0 0 0 0 0 0 0 0 0 0 0 0 0 0 0 0 0 0 0 0 0 0 0 0 0 0 0 0 0 0 0 0 0 0 0 0 0 0 0 0 0 0 0 0 0 0 0 0 0 0 0 0 0 0 0 0 0 0 0 0 0 0 0 0 0 0 0 0 0 0 0 0 0 0 0 0 0 0 0 0 0 0 0 0 0 86 86 86 0 86 86 0 0 86 100 0 0 0 0 260 0 0 0 0 0 0 0 0 0 0 0 0 249 249 257 259 258 0 0 0 0 0 0 0 0 0 0 0 0 0 0 6690 4906 0 0 0 0 639 598 0 0 0 0 0 0 0 0 0 0 289 294 0 0 0 0 0 296 0 0 0 0 0 0
    0 0 0 0 0 0 0 0 0 0 0 0 0 0 0 0 0 0 0 0 0 0 0 0 0 0 0 0 0 0 0 0 0 0 0 0 0 0 0 0 0 0 0 0 0 0 0 0 0 0 0 0 0 0 0 0 0 0 0 0 0 0 0 0 0 0 0 0 0 0 0 0 0 0 0 0 0 0 0 0 0 0 0 0 0 0 0 0 0 240 240 239 242 241 242 240 240 238 239 240 241 240 242 241 241 242 241 242 242 242 239 239 240 243 0 0 0 0 0 0 0 0 0 0 0 0 0 0 0 0 0 0 0 0 0 0 0 0 0 0 0 0 389 389 0 0 0 0 0 0 0 0 0 0 0 0 0 0 0 0 0 0 0 0 0 0 0 0 0 0 0 0 0 0 0 0 0 0 0 0 254 0 0 0 0 0 0 0 0 0 0 250 0 0 0 0 0 0 0 0 0 0 0 0 0 0 0 0 0 0 0 0 0 0 0 0 0 0 0 0 0 0 0 0 0 0 0 0 0 0 0 0 0 0 0 0 0 0 128 0 0 0 86 0 0 0 0 86 0 86 86 0 0 0 253 258 257 254 257 0 265 0 0 0 0 0 0 0 251 250 250 253 256 254 252 258 257 258 0 0 0 0 0 0 0 0 0 8177 0 4906 0 0 0 0 0 0 0 0 0 0 0 283 0 0 276 276 279 285 0 0 0 0 0 0 0 0 0 0 0 0
    0 0 0 0 0 0 0 0 0 0 0 0 0 0 0 0 0 0 0 0 0 0 0 0 0 0 0 0 0 0 0 0 0 0 0 0 0 0 0 0 0 0 0 0 0 0 0 0 0 0 0 0 0 0 0 0 0 0 0 0 0 0 0 0 0 0 0 0 0 0 0 240 240 0 0 0 0 0 0 0 0 0 0 0 0 0 239 238 240 240 240 239 242 241 242 240 241 239 239 240 242 240 242 241 242 242 241 242 242 242 239 239 241 242 242 0 0 0 249 246 0 0 0 0 0 0 0 0 0 0 0 0 0 0 0 250 249 0 0 0 0 0 0 0 0 0 0 249 0 0 246 245 0 0 0 0 0 0 0 0 0 0 0 0 0 0 0 0 0 0 0 0 0 0 0 0 0 0 0 260 252 249 249 252 0 0 0 0 0 0 251 250 249 250 250 249 0 0 0 0 0 0 0 0 0 0 0 0 0 0 0 0 0 0 263 0 261 0 0 0 0 0 259 259 256 0 0 0 0 0 0 0 0 0 0 0 0 109 0 0 0 0 0 0 0 0 86 86 86 86 0 0 250 251 252 256 255 253 256 256 262 262 259 258 258 253 254 0 252 252 252 254 255 255 252 257 257 258 257 0 0 0 0 0 0 0 0 0 0 0 0 0 0 0 0 0 0 0 0 0 0 278 276 274 273 274 277 279 274 0 0 0 0 0 0 0 0 0 0 0
    0 0 0 0 0 0 0 0 0 0 0 0 0 0 0 0 0 0 0 0 0 0 0 0 0 0 0 0 0 0 0 0 0 0 0 0 0 0 0 0 0 0 0 0 0 0 0 0 0 0 0 0 0 0 0 0 0 0 0 0 0 0 0 0 0 0 0 0 0 0 238 239 239 241 241 242 239 239 240 0 0 0 0 0 0 0 240 239 241 241 241 240 242 241 242 240 241 239 240 240 242 240 242 241 242 242 241 242 242 242 240 240 242 242 242 0 246 247 249 246 0 0 0 0 0 0 0 0 0 242 246 245 243 245 246 249 249 0 246 246 0 0 0 0 0 0 0 246 246 0 245 244 243 242 242 0 0 0 0 0 0 0 98 0 0 0 0 0 0 0 0 0 0 0 0 0 0 0 256 256 251 249 249 252 249 248 248 249 249 250 252 251 249 250 250 250 249 249 246 246 0 0 0 0 0 0 0 0 0 0 0 0 0 0 260 260 259 259 260 259 259 256 259 259 256 255 0 0 0 0 0 0 0 0 0 0 0 109 0 0 0 0 0 0 0 0 0 0 0 0 0 0 251 252 252 256 255 253 256 256 260 260 259 258 259 256 257 254 252 252 252 254 254 255 252 257 256 258 257 0 0 0 0 0 0 0 0 0 0 0 0 0 0 0 0 0 0 0 0 0 274 273 272 269 268 272 275 277 271 0 0 0 0 0 264 0 0 0 0 0
    0 0 0 0 0 0 0 0 0 0 0 0 0 0 0 0 0 0 0 0 0 0 0 0 0 0 0 0 0 0 0 0 0 0 0 0 0 0 0 0 0 0 0 0 0 0 0 0 0 0 0 0 0 0 0 0 0 0 0 0 0 0 0 0 0 0 0 0 0 237 238 238 239 240 240 241 240 240 240 0 0 239 238 237 237 237 239 239 240 240 240 239 242 240 241 240 240 239 240 240 241 240 242 241 242 242 240 242 242 242 241 241 242 242 242 0 246 247 248 246 0 0 0 0 0 0 0 0 240 241 244 244 242 244 246 248 0 0 246 245 244 246 246 0 246 246 246 246 246 246 244 243 242 243 242 243 244 243 0 0 0 0 0 0 0 0 0 0 0 0 87 86 0 0 0 0 0 0 253 255 252 250 250 252 250 249 249 249 249 250 252 251 250 250 250 250 250 250 247 246 0 0 0 0 0 0 0 0 0 0 0 258 259 257 260 260 258 259 260 259 260 257 259 259 256 256 255 0 0 0 0 0 0 0 0 0 0 0 0 257 256 0 0 0 0 252 251 251 251 250 250 250 252 252 254 256 255 253 256 257 260 261 260 258 259 257 258 257 253 253 252 254 254 255 252 257 255 258 257 258 258 0 257 260 0 1415 0 0 0 0 0 0 0 0 0 0 0 0 0 0 266 265 266 264 264 266 270 0 0 0 0 0 260 260 260 0 0 0 0 0
    0 0 0 0 0 0 0 0 0 0 0 0 0 0 0 0 0 0 0 0 0 0 0 0 0 0 0 0 0 0 0 0 0 0 0 0 0 0 0 0 0 0 0 0 0 0 0 0 0 0 0 0 0 0 0 0 0 0 0 0 0 0 0 0 0 0 0 0 0 237 238 238 238 239 240 240 240 239 239 242 0 239 238 237 237 238 240 239 240 241 240 240 242 241 241 240 241 240 240 240 241 240 242 241 242 242 240 242 242 242 241 241 242 242 242 246 245 246 246 246 245 243 0 0 244 242 241 239 240 241 243 243 242 244 245 247 247 246 246 244 243 246 245 246 245 245 246 245 246 246 245 244 242 243 242 244 244 244 246 0 0 243 0 0 0 0 0 0 0 0 0 0 0 0 0 0 0 250 252 254 252 250 250 252 250 249 249 249 249 250 252 251 250 250 251 250 250 250 248 246 246 0 0 0 0 0 0 252 254 253 256 255 258 256 259 259 257 258 259 258 259 258 259 259 257 256 256 0 0 0 0 0 0 0 0 252 0 0 0 258 257 257 253 0 252 252 251 252 251 250 251 251 252 252 254 256 255 252 255 256 260 260 260 258 259 257 258 257 254 253 252 254 254 255 252 256 255 258 257 257 258 258 258 260 259 0 0 0 261 258 0 0 0 0 0 0 0 0 0 265 263 263 263 262 261 263 265 0 0 0 0 0 260 260 260 0 0 0 0 0
    0 0 0 0 0 0 0 0 0 0 0 0 0 0 0 0 0 0 0 0 0 0 0 0 0 0 0 0 0 0 0 0 0 0 0 0 0 0 0 0 0 0 0 0 0 0 0 0 0 0 0 0 0 0 0 0 0 0 0 0 0 0 0 0 0 0 0 0 0 237 238 238 238 239 240 240 240 238 238 240 238 238 237 236 236 238 239 239 240 241 241 240 242 242 242 241 241 240 240 241 241 240 242 241 242 242 240 242 242 242 241 241 242 242 242 244 244 244 245 244 244 243 244 243 244 242 242 240 241 241 244 243 242 243 244 246 246 245 246 244 243 245 245 246 245 245 246 245 246 246 245 244 243 244 243 244 245 245 246 244 245 244 0 0 0 0 0 0 0 0 0 0 0 0 0 0 249 250 252 253 251 250 250 252 250 249 249 250 249 250 252 252 250 251 251 251 251 251 249 248 247 248 249 0 250 248 250 252 253 252 254 253 255 254 257 257 255 255 257 257 258 258 259 260 257 257 256 254 252 0 0 0 0 0 0 252 252 252 0 257 257 256 252 252 252 252 251 252 252 251 251 251 252 252 254 256 255 252 255 255 259 259 258 257 258 256 258 257 255 254 253 254 255 255 252 256 255 258 256 257 257 258 258 260 259 0 0 260 261 259 259 258 261 262 262 0 0 0 263 263 261 261 261 260 260 261 262 0 0 0 0 259 259 260 260 0 0 0 0 0
    0 0 0 0 0 0 0 0 0 0 0 0 0 0 0 0 0 0 0 0 0 0 0 0 0 0 0 0 0 0 0 0 0 0 0 0 0 0 0 0 0 0 0 0 0 0 0 0 0 0 0 0 0 0 0 0 0 0 0 0 0 0 0 0 0 0 0 0 0 237 237 238 238 239 239 240 239 238 238 0 238 238 237 235 236 238 239 239 240 240 241 240 242 241 242 241 241 240 240 241 241 240 242 241 241 242 240 242 242 242 241 241 242 242 242 244 244 244 244 244 243 242 243 243 244 242 242 240 241 242 244 243 243 242 244 245 246 245 245 244 243 245 245 246 246 245 246 245 246 245 245 244 244 245 244 245 245 245 246 245 246 245 242 0 0 0 241 0 0 0 0 0 246 248 246 248 249 249 250 252 251 250 250 252 250 249 249 250 249 250 252 251 250 251 252 252 252 251 250 248 248 248 249 248 249 248 250 251 252 252 252 252 253 252 254 253 253 253 255 255 257 257 258 260 258 258 257 255 252 251 251 250 251 252 252 252 252 253 255 255 256 255 252 252 252 251 252 252 252 251 251 252 252 252 254 256 255 252 254 255 258 257 257 256 257 256 258 257 255 254 253 255 255 255 252 255 254 258 256 257 257 258 258 260 259 260 259 260 261 260 259 257 260 261 261 261 260 260 261 261 260 260 260 260 260 260 260 0 0 0 0 259 259 260 260 0 0 0 0 0
    0 0 0 0 0 0 0 0 0 0 0 0 0 0 0 0 0 0 0 0 0 0 0 0 0 0 0 0 0 0 0 0 0 0 0 0 0 0 0 0 0 0 0 0 0 0 0 0 0 0 0 0 0 0 0 0 0 0 0 0 0 0 0 0 0 0 0 0 0 236 237 238 238 239 239 240 239 238 238 239 0 238 238 236 237 238 239 239 240 241 241 241 242 241 242 241 241 240 240 241 240 240 242 240 241 241 239 241 241 242 242 241 242 242 242 244 243 244 244 244 244 242 243 243 244 242 242 241 241 242 244 244 244 244 245 245 246 244 245 244 243 245 245 246 246 245 246 245 246 245 245 245 244 245 245 245 246 246 246 246 246 246 244 0 245 244 243 245 248 246 246 247 247 248 247 248 249 249 250 251 250 249 250 252 250 249 249 249 249 250 252 251 251 251 252 252 251 251 250 249 249 0 248 248 249 248 250 250 252 252 252 252 252 252 254 253 253 252 254 254 256 257 258 260 258 259 257 256 253 252 252 251 251 252 252 252 252 253 254 255 256 255 252 253 252 252 252 252 252 252 252 252 252 253 254 255 254 252 254 254 256 255 256 255 256 256 258 257 256 255 253 254 254 254 252 255 254 257 256 258 257 258 258 260 260 260 260 261 262 261 260 258 260 260 261 260 260 260 261 261 260 260 260 259 259 259 259 0 0 260 259 258 258 259 259 0 0 0 0 0</data></depth>
</opencv_storage>
