<?xml version="1.0"?>
<opencv_storage>
<gps_time_stamp>19792</gps_time_stamp>
<gps_x>-9.7280341386795044e-001</gps_x>
<gps_y>7.3721587657928467e-002</gps_y>
<gps_z>5.7874359190464020e-003</gps_z>
<image_time_stamp>7764</image_time_stamp>
<depth type_id="opencv-matrix">
  <rows>85</rows>
  <cols>320</cols>
  <dt>s</dt>
  <data>
    0 0 0 0 0 0 0 0 0 0 0 0 0 0 0 0 0 0 0 0 0 0 0 0 0 0 0 0 0 0 0 0 0 0 0 0 0 0 0 0 0 0 0 0 0 0 0 0 0 0 0 0 0 0 0 0 0 0 0 0 0 0 0 0 0 0 0 0 0 0 0 0 0 0 0 0 0 0 0 0 0 0 0 0 0 0 0 0 0 0 0 0 0 0 0 0 0 0 0 0 0 0 0 0 0 0 0 0 0 0 0 0 0 0 0 0 0 0 0 0 8177 8177 7359 0 0 0 0 0 0 0 0 0 0 0 0 0 0 0 0 0 0 0 0 0 0 4088 6133 5661 6133 0 0 7359 6690 6690 0 0 0 0 8177 8177 7359 0 0 0 0 0 0 9199 8177 8177 0 8177 7359 6690 6690 6690 8177 7359 8177 4329 5661 5661 4599 4599 4599 4599 4599 4599 0 0 0 0 0 0 5661 5661 5661 5661 5661 5661 5661 4906 4329 5256 5256 4906 4906 4329 4329 4329 4599 4906 3345 3199 3504 3199 3199 3066 2943 2830 2725 2943 2830 2725 2725 2537 2628 2628 2537 2628 2537 2453 2537 2299 2453 2299 2374 2299 2230 2230 2299 2230 2299 2102 2102 1989 2102 2044 2044 1989 1989 2102 2102 2044 2164 2044 2102 2102 2044 2102 2044 2044 2044 2044 2044 2044 1989 2102 2044 2102 2102 0 0 1887 1752 1711 1711 1711 1711 1711 1711 1711 1711 1711 1752 1795 0 1839 1887 1887 1936 2044 2102 2044 1989 1936 1887 1887 0 1887 0 0 0 0 0 0 0 0 0 0 0 0 0 0 0 0 0 0 0 0
    0 0 0 0 0 0 0 0 0 0 0 0 0 0 0 0 0 0 0 0 0 0 0 0 0 0 0 0 0 0 0 0 0 0 0 0 0 0 0 0 0 0 0 0 0 0 0 0 0 0 0 0 0 0 0 0 0 0 0 0 0 0 0 0 0 0 0 0 0 0 0 0 0 0 0 0 0 0 0 0 0 0 0 0 0 0 0 0 0 0 0 0 0 0 0 0 0 0 0 0 0 0 0 0 0 0 0 0 0 0 0 0 0 0 0 0 0 0 0 0 8177 7359 6690 0 0 0 0 0 0 0 0 0 0 0 0 0 0 0 0 0 0 0 0 0 0 4088 5661 5256 5661 0 0 6690 6690 6133 0 0 0 0 8177 0 8177 0 0 0 0 0 0 0 0 0 0 8177 8177 7359 6690 6690 8177 8177 8177 4329 5661 5661 4599 4599 4599 4599 4599 4599 0 0 0 0 0 0 5256 5661 5256 5256 5256 5256 5661 4599 4088 4906 4906 4599 4906 4329 4599 4599 4906 4906 3504 3345 3504 3345 3345 3066 2943 2943 2830 3066 2943 2725 2725 2537 2628 2628 2537 2628 2537 2374 2453 2230 2453 2299 2299 2299 2230 2230 2299 2230 2230 2102 2102 2044 2102 2044 2044 2044 1989 2102 2102 2044 2164 2044 2102 2102 2102 2164 2102 2102 2102 2164 2102 2164 2044 2230 2164 2230 2164 0 2044 1936 1795 1752 1711 1711 1711 1711 1711 1672 1711 1711 1711 1752 1795 1795 1839 1795 1887 1989 2044 2044 2044 1989 1936 1936 1936 1936 0 0 0 0 0 0 0 0 0 0 0 0 0 0 0 0 0 0 0 0
    0 0 0 0 0 0 0 0 0 0 0 0 0 0 0 0 0 0 0 0 0 0 0 0 0 0 0 0 0 0 0 0 0 0 0 0 0 0 0 0 0 0 0 0 0 0 0 0 0 0 0 0 0 0 0 0 0 0 0 0 0 0 0 0 0 0 0 0 0 0 0 0 0 0 0 0 0 0 0 0 0 0 0 0 0 0 0 0 0 0 0 0 0 0 0 0 0 0 0 0 0 0 0 0 0 0 0 0 0 0 0 0 0 0 0 0 0 0 0 0 7359 0 6690 8177 0 0 0 0 0 0 0 0 0 0 0 0 0 0 0 0 0 0 0 0 8177 4088 5661 5256 5661 0 0 6690 6690 6133 0 0 0 0 0 0 0 0 0 0 0 0 0 0 0 0 0 8177 8177 7359 7359 7359 8177 8177 8177 4329 5661 5661 4599 4599 4599 4599 4599 4599 0 0 0 0 0 4906 5256 5661 5661 5256 5256 5661 5256 4599 4088 4906 4906 4599 4906 4599 4599 4906 4906 4906 3504 3345 3679 3345 3345 3199 3066 3066 2943 3066 2943 2725 2725 2537 2628 2628 2537 2628 2537 2374 2453 2230 2374 2299 2374 2299 2299 2230 2299 2230 2230 2102 2102 2044 2102 2044 2044 1989 1989 2044 2102 2044 2102 2044 2102 2102 2164 2164 2164 2164 2164 2230 2164 2230 2102 2299 2299 2299 2230 2164 1989 1936 1795 1752 1711 1672 1711 1672 1672 1672 1672 1711 1711 1711 1752 1752 1795 1752 1795 1936 1989 1989 2044 1989 1887 1887 1936 1936 1795 0 0 0 0 0 0 0 0 0 0 0 0 2299 1936 0 0 0 0 0
    0 0 0 0 0 0 0 0 0 0 0 0 0 0 0 0 0 0 0 0 0 0 0 0 0 0 0 0 0 0 0 0 0 0 0 0 0 0 0 0 0 0 0 0 0 0 0 0 0 0 0 0 0 0 0 0 0 0 0 0 0 0 0 0 0 0 0 0 0 0 0 0 0 0 0 0 0 0 0 0 0 0 0 0 0 0 0 0 0 0 0 0 0 0 0 0 0 0 0 0 0 0 0 0 0 0 0 0 0 0 0 0 0 0 0 0 0 0 0 0 7359 0 6690 6690 7359 0 0 0 0 0 0 0 0 0 0 0 0 0 0 0 0 0 0 0 8177 4088 5661 5256 5661 0 0 6690 6690 6690 0 0 0 0 0 0 0 0 0 0 0 0 0 0 0 0 0 8177 0 7359 7359 7359 0 8177 8177 4329 5661 5661 4599 4599 4599 4599 4599 4599 0 0 0 0 5661 5661 5661 6133 6133 5661 5661 5661 4906 4599 4329 4906 4906 4599 4906 4599 4599 4906 4906 4906 3679 3679 3679 3504 3504 3345 3199 3199 3066 3199 2943 2830 2830 2628 2628 2537 2453 2537 2453 2374 2374 2230 2374 2299 2374 2230 2230 2230 2299 2230 2230 2102 2102 1989 2102 1989 2044 1989 1989 2044 2102 2044 2102 2102 2102 2164 2164 2164 2164 2230 2230 2230 2230 2230 2102 2299 2299 2299 2164 2044 1936 1887 1752 1752 1672 1635 1672 1672 1672 1672 1711 1711 1752 1752 1795 1795 1839 1795 1887 1989 2044 2044 2044 1936 1887 1839 1936 1887 1795 0 0 0 0 0 0 0 0 1989 2102 2299 2230 2628 2230 0 0 0 0 0
    0 0 0 0 0 0 0 0 0 0 0 0 0 0 0 0 0 0 0 0 0 0 0 0 0 0 0 0 0 0 0 0 0 0 0 0 0 0 0 0 0 0 0 0 0 0 0 0 0 0 0 0 0 0 0 0 0 0 0 0 0 0 0 0 0 0 0 0 0 0 0 0 0 0 0 0 0 0 0 0 0 0 0 0 0 0 0 0 0 0 0 0 0 0 0 0 0 0 0 0 0 0 0 0 0 0 0 0 0 0 0 0 0 0 0 0 0 0 0 0 0 0 6690 6690 7359 0 0 0 0 0 0 0 0 0 0 0 0 0 0 0 0 0 0 0 8177 4088 5256 5256 5661 0 0 6690 7359 6690 0 0 0 0 0 0 0 0 0 0 0 0 0 0 0 0 0 0 0 8177 8177 8177 0 8177 0 4599 6133 5661 4599 4599 4599 4599 4599 4599 0 0 0 0 5256 5256 5256 5661 5256 4906 5661 4906 4599 4599 4329 4599 4599 4088 4599 4329 4088 4329 4088 4329 3679 3679 4088 3679 3873 3679 3679 3679 3345 3199 3066 2943 2943 2628 2628 2537 2537 2537 2453 2374 2299 2230 2299 2299 2374 2230 2230 2230 2230 2164 2164 2102 2102 1989 2044 1989 2044 2044 2044 2044 2102 2044 2164 2102 2164 2164 2230 2230 2230 2230 2230 2230 2230 2164 2102 2164 2102 2102 1989 1887 1839 1795 1752 1711 1711 1672 1711 1711 1752 1752 1795 1795 1795 1887 1887 1936 1989 1887 1989 2102 2164 2102 2044 1989 1936 1936 1989 1887 1795 0 0 0 0 0 0 0 0 2044 2374 2453 2374 2628 2164 0 0 0 0 0
    0 0 0 0 0 0 0 0 0 0 0 0 0 0 0 0 0 0 0 0 0 0 0 0 0 0 0 0 0 0 0 0 0 0 0 0 0 0 0 0 0 0 0 0 0 0 0 0 0 0 0 0 0 0 0 0 0 0 0 0 0 0 0 0 0 0 0 0 0 0 0 0 0 0 0 0 0 0 0 0 0 0 0 0 0 0 0 0 0 0 0 0 0 0 0 0 0 0 0 0 0 0 0 0 0 0 0 0 0 0 0 0 0 0 0 0 0 0 0 0 0 0 8177 0 0 0 0 0 0 0 0 0 0 0 0 0 0 0 0 8177 8177 0 0 0 8177 4088 5661 5256 6133 0 0 6690 7359 6690 0 0 0 0 0 0 0 0 0 0 0 0 0 0 0 0 0 0 0 8177 8177 8177 0 8177 0 4599 6133 5661 4599 4599 4599 4599 4599 4599 0 0 0 5256 5661 5256 5661 6133 5661 5661 5256 4906 4906 4599 4329 4329 4329 4088 4329 4088 3873 3873 3679 3679 3679 3504 3679 3504 3504 3679 3679 3873 3504 3199 3066 3066 3066 2725 2628 2537 2537 2537 2453 2374 2299 2230 2299 2230 2299 2230 2230 2164 2164 2164 2164 2102 2102 2044 2102 2044 2044 2044 2044 2102 2102 2102 2164 2102 2164 2164 2230 2230 2230 2230 2230 2230 2164 2164 2102 2102 2044 2044 1936 1839 1839 1795 1752 1752 1711 1711 1752 1752 1795 1795 1839 1989 1989 2102 2102 2164 2230 2044 2299 2299 2164 2164 2044 2044 2044 1936 1989 1936 1839 0 0 0 0 0 0 0 1887 2537 2628 2453 2374 2453 2230 0 0 0 0 0
    0 0 0 0 0 0 0 0 0 0 0 0 0 0 0 0 0 0 0 0 0 0 0 0 0 0 0 0 0 0 0 0 0 0 0 0 0 0 0 0 0 0 0 0 0 0 0 0 0 0 0 0 0 0 0 0 0 0 0 0 0 0 0 0 0 0 0 0 0 0 0 0 0 0 0 0 0 0 0 0 0 0 0 0 0 0 0 0 0 0 0 0 0 0 0 0 0 0 0 0 0 0 0 0 0 0 0 0 0 0 0 0 0 0 0 0 0 0 0 0 0 0 0 0 0 0 0 0 0 0 0 0 0 0 0 0 0 0 0 8177 8177 0 0 0 7359 4088 5661 5661 6690 0 0 7359 7359 7359 0 0 0 0 0 0 0 0 0 0 0 0 0 0 0 0 0 0 0 0 0 0 0 8177 0 4599 6133 5661 4599 4599 4599 4599 4599 4599 0 0 0 5256 4906 5256 5661 5661 5661 5661 5661 5661 5256 5256 4599 4599 4329 4088 4088 3679 3504 3504 3345 3345 3199 3199 3199 3199 3199 3504 3679 3873 3504 3199 3199 3066 3066 2830 2725 2628 2537 2537 2453 2374 2299 2230 2299 2230 2299 2230 2230 2164 2164 2164 2164 2102 2102 2044 2102 2044 2102 2044 2044 2102 2102 2102 2102 2102 2164 2164 2230 2230 2230 2230 2164 2164 1989 1839 1795 1752 1752 1752 1711 1711 1711 1711 1752 1711 1752 1752 1752 1795 1887 1887 1989 2164 2164 2299 2299 2374 2453 2374 2453 2453 2230 2374 2102 2102 2102 1989 1989 1936 1887 0 0 0 0 0 0 0 2044 3066 2725 2628 2299 2374 2230 0 0 0 0 0
    0 0 0 0 0 0 0 0 0 0 0 0 0 0 0 0 0 0 0 0 0 0 0 0 0 0 0 0 0 0 0 0 0 0 0 0 0 0 0 0 0 0 0 0 0 0 0 0 0 0 0 0 0 0 0 0 0 0 0 0 0 0 0 0 0 0 0 0 0 0 0 0 0 0 0 0 0 0 0 0 0 0 0 0 0 0 0 0 0 0 0 0 0 0 0 0 0 0 0 0 0 0 0 0 0 0 0 0 0 0 0 0 0 0 0 0 0 0 0 0 7359 0 0 0 0 0 0 7359 0 0 0 0 0 0 0 0 0 0 0 8177 0 0 0 0 7359 4088 5661 5661 6690 0 0 7359 7359 7359 0 0 0 0 0 0 0 0 0 0 0 0 0 0 0 0 0 0 0 0 0 0 0 8177 8177 4329 6133 5661 4599 4599 4599 4599 4599 4329 0 0 5256 5256 4599 4906 5256 5661 5661 5256 5256 5256 5256 4906 4906 4599 4329 4088 4088 3679 3504 3504 3199 3199 3199 3199 3199 3199 3199 3345 3504 3679 3345 3199 3066 3066 2943 2830 2628 2537 2453 2453 2453 2299 2299 2230 2299 2230 2299 2164 2230 2164 2164 2164 2164 2164 2102 2044 2102 2044 2044 2044 2044 2102 2102 2102 2102 2164 2164 2164 2230 2230 2230 2230 2102 2102 1887 1599 1672 1635 1599 1635 1635 1635 1672 1635 1752 1711 1752 1752 1795 1839 1936 1936 2102 2299 2299 2453 2453 2453 2537 2453 2537 2537 2299 2453 2164 2102 2102 1989 1989 1887 1839 1839 0 0 0 0 0 2299 2230 2628 2628 2537 2299 2299 2164 0 0 0 0 0
    0 0 0 0 0 0 0 0 0 0 0 0 0 0 0 0 0 0 0 0 0 0 0 0 0 0 0 0 0 0 0 0 0 0 0 0 0 0 0 0 0 0 0 0 0 0 0 0 0 0 0 0 0 0 0 0 0 0 0 0 0 0 0 0 0 0 0 0 0 0 0 0 0 0 0 0 0 0 0 0 0 0 0 0 0 0 0 0 0 0 0 0 0 0 0 0 0 0 0 0 0 0 0 0 0 0 0 0 0 0 0 0 0 0 0 0 0 0 0 0 7359 0 0 8177 8177 8177 6690 5256 0 0 0 0 0 0 0 0 0 0 0 8177 8177 9199 0 0 6690 4088 5661 6133 6690 0 0 7359 8177 7359 0 0 0 0 0 0 0 0 0 0 0 0 0 0 0 0 0 0 0 0 0 0 0 8177 8177 4329 6133 5661 4599 4599 4599 4599 4599 4329 0 5256 5661 5256 4906 4906 5661 5661 5661 5256 5661 5661 5256 5256 5661 4906 4599 4329 4088 3679 3504 3504 3199 3066 3066 3066 3066 3199 3199 3199 3504 3679 3345 3345 3066 3066 2943 2725 2628 2453 2453 2453 2453 2299 2299 2299 2299 2299 2374 2230 2230 2164 2164 2164 2102 2164 2102 2044 2102 2044 2102 2044 2044 2044 2044 2102 2102 2102 2164 2164 2230 2230 2164 2164 1989 1989 1839 1415 1565 1565 1533 1565 1565 1599 1599 1599 1752 1711 1752 1839 1887 1989 2044 2044 2230 2374 2299 2453 2453 2453 2453 2374 2453 2374 2230 2299 2044 2044 2044 1936 1936 1839 1839 1887 1795 1795 1795 1752 1936 2374 2230 2537 2537 2453 2230 2230 2164 0 0 0 0 0
    0 0 0 0 0 0 0 0 0 0 0 0 0 0 0 0 0 0 0 0 0 0 0 0 0 0 0 0 0 0 0 0 0 0 0 0 0 0 0 0 0 0 0 0 0 0 0 0 0 0 0 0 0 0 0 0 0 0 0 0 0 0 0 0 0 0 0 0 0 0 0 0 0 0 0 0 0 0 0 0 0 0 0 0 0 0 0 0 0 0 0 0 0 0 0 0 0 0 0 0 0 0 0 0 0 0 0 0 0 0 0 0 0 0 0 0 0 0 0 0 7359 8177 0 0 0 0 6690 0 0 0 0 0 0 0 0 0 0 0 8177 8177 0 9199 0 4599 6690 4088 6133 6133 7359 0 0 7359 8177 8177 0 0 0 0 0 0 0 0 0 0 0 0 0 0 0 0 0 0 0 0 0 0 0 7359 7359 4329 6133 6133 4906 4906 4906 4906 4599 4599 0 5256 5256 4906 4599 4329 5256 5661 5256 5256 5661 5256 5256 5661 5661 4906 4599 4599 4088 3873 3504 3504 3199 3199 3066 3199 3066 3199 3066 3199 3345 3679 3345 3199 3066 2943 2830 2628 2628 2453 2374 2374 2374 2299 2230 2230 2299 2230 2299 2164 2164 2164 2102 2164 2102 2102 2044 2044 2044 2044 2044 2044 2044 2044 2044 2044 2044 2102 2164 2164 2230 2102 2102 2102 1936 1887 1672 1338 1443 1471 1443 1471 1471 1471 1501 1565 1752 1752 1795 1887 1989 2102 2230 2164 2374 2453 2374 2453 2453 2374 2299 2164 2230 2102 1936 2044 1887 1839 1936 1887 1887 1752 1795 1839 1752 1752 1752 1672 1795 2044 2102 2374 2453 2374 2230 2230 2164 0 0 0 0 0
    0 0 0 0 0 0 0 0 0 0 0 0 0 0 0 0 0 0 0 0 0 0 0 0 0 0 0 0 0 0 0 0 0 0 0 0 0 0 0 0 0 0 0 0 0 0 0 0 0 0 0 0 0 0 0 0 0 0 0 0 0 0 0 0 0 0 0 0 0 0 0 0 0 0 0 0 0 0 0 0 0 0 0 0 0 0 0 0 0 0 0 0 0 0 0 0 0 0 0 0 0 0 0 0 0 0 0 0 0 0 0 0 0 0 0 0 0 0 0 0 8177 0 0 0 0 0 0 0 0 0 0 0 0 0 0 0 0 0 8177 0 0 8177 0 0 6690 3873 6133 6690 0 0 0 7359 8177 8177 0 0 0 0 0 0 0 0 0 0 0 0 0 8177 0 0 0 0 0 0 0 0 0 8177 7359 4599 6133 6690 5256 5256 5256 4906 4906 4906 7359 5661 5661 5661 4329 4329 5256 5661 5256 5256 5661 5256 5256 5661 5661 4906 4599 4599 4329 3873 3679 3504 3199 3199 3199 3199 3066 3199 3199 3199 3345 3504 3345 3199 2943 2830 2830 2628 2628 2453 2374 2374 2374 2299 2230 2230 2299 2230 2299 2102 2164 2102 2102 2102 2044 2044 2044 1989 2044 1989 2044 1989 2044 2044 2044 2044 2102 2164 2164 2164 2164 2102 2044 1989 1839 1711 1471 1338 1388 1388 1362 1388 1388 1415 1415 1443 1672 1635 1752 1887 2044 2299 2374 2299 2453 2453 2374 2374 2374 2299 2102 2044 2102 1989 1795 1887 1839 1795 1887 1887 1839 1711 1795 1795 1752 1711 1672 1635 1752 1839 1936 2102 2374 2299 2230 2230 2164 0 0 0 0 0
    0 0 0 0 0 0 0 0 0 0 0 0 0 0 0 0 0 0 0 0 0 0 0 0 0 0 0 0 0 0 0 0 0 0 0 0 0 0 0 0 0 0 0 0 0 0 0 0 0 0 0 0 0 0 0 0 0 0 0 0 0 0 0 0 0 0 0 0 0 0 0 0 0 0 0 0 0 0 0 0 0 0 0 0 0 0 0 0 0 0 0 0 0 0 0 0 0 0 0 0 0 0 0 0 0 0 0 0 0 0 0 0 0 0 0 0 0 0 0 0 8177 0 0 0 0 0 0 7359 0 0 0 0 0 0 0 0 0 0 0 0 0 0 0 0 6690 4088 6690 6690 0 0 0 8177 8177 8177 0 0 0 0 0 0 0 0 0 0 0 0 0 8177 0 0 0 0 0 0 0 0 0 8177 7359 4906 6690 7359 6133 5661 5661 5661 5661 5661 8177 6133 6133 5661 4088 4599 5256 5661 4906 5256 5256 4906 5256 5661 5256 5256 4329 4906 4329 3873 3679 3504 3199 3345 3199 3199 3066 3199 3066 3199 3345 3504 3345 3066 2943 2830 2830 2628 2628 2453 2374 2299 2299 2299 2230 2164 2299 2164 2230 2102 2102 2102 2102 2102 2044 2044 2044 1989 2044 1989 2044 2044 2044 2044 2044 2102 2102 2164 2230 2164 2102 2044 1989 1887 1711 1501 1415 1314 1388 1362 1338 1362 1362 1388 1388 1415 1565 1501 1565 1795 1989 2230 2299 2164 2374 2374 2299 2299 2230 2164 1989 1936 2044 1936 1795 1839 1839 1839 1887 1887 1839 1711 1795 1752 1711 1672 1635 1635 1752 1839 1936 2102 2299 2299 2299 2230 2299 0 0 0 0 0
    0 0 0 0 0 0 0 0 0 0 0 0 0 0 0 0 0 0 0 0 0 0 0 0 0 0 0 0 0 0 0 0 0 0 0 0 0 0 0 0 0 0 0 0 0 0 0 0 0 0 0 0 0 0 0 0 0 0 0 0 0 0 0 0 0 0 0 0 0 0 0 0 0 0 0 0 0 0 0 0 0 0 0 0 0 0 0 0 0 0 0 0 0 0 0 0 0 0 0 0 0 0 0 0 0 0 0 0 0 0 0 0 0 0 0 0 0 0 0 0 8177 0 0 0 0 0 0 8177 0 0 0 8177 0 0 0 0 0 0 0 0 0 0 0 0 6690 4329 7359 7359 0 0 0 0 0 0 0 0 0 8177 0 0 0 0 0 8177 0 0 0 8177 0 0 0 0 0 8177 8177 8177 0 8177 8177 5256 7359 8177 7359 6690 6133 6133 6133 6133 8177 6133 5661 5256 3873 4599 4906 5256 4599 4906 4906 4906 5256 5661 5256 4906 4329 4906 4329 4088 3679 3504 3345 3345 3199 3345 3066 3199 3066 3199 3345 3504 3199 3066 2830 2725 2725 2537 2537 2374 2299 2299 2299 2230 2230 2102 2230 2102 2164 2102 2044 2102 2044 2102 2044 2044 2044 1989 1989 2044 2044 2044 2044 2044 2044 2102 2164 2230 2230 2164 2102 1989 1936 1839 1635 1388 1388 1314 1362 1362 1338 1362 1362 1362 1388 1388 1471 1415 1415 1599 1711 1887 1989 1936 2102 2102 2044 2044 1989 0 1839 1839 1936 1887 1752 1795 1795 1752 1839 1839 1752 1672 1711 1711 1672 1599 1599 1599 1752 1839 1936 2164 2374 2374 2453 2299 2453 0 0 0 0 0
    0 0 0 0 0 0 0 0 0 0 0 0 0 0 0 0 0 0 0 0 0 0 0 0 0 0 0 0 0 0 0 0 0 0 0 0 0 0 0 0 0 0 0 0 0 0 0 0 0 0 0 0 0 0 0 0 0 0 0 0 0 0 0 0 0 0 0 0 0 0 0 0 0 0 0 0 0 0 0 0 0 0 0 0 0 0 0 0 0 0 0 0 0 0 0 0 0 0 0 0 0 0 0 0 0 0 0 0 0 0 0 0 0 0 0 0 0 0 0 0 0 0 0 0 0 0 0 0 0 0 0 0 0 0 0 0 0 0 0 0 0 0 0 0 6690 4599 7359 7359 0 0 0 0 0 0 0 0 0 8177 0 0 8177 8177 0 8177 0 0 0 0 0 0 0 0 0 8177 8177 8177 0 8177 8177 5661 8177 0 8177 7359 7359 7359 6690 6690 0 6690 6133 5661 3873 4599 4906 5256 4599 4906 4906 4906 5256 5661 5256 5256 4599 4906 4599 4088 3873 3679 3345 3345 3199 3199 3066 3199 3066 3066 3199 3345 3199 2943 2725 2628 2628 2374 2453 2374 2230 2230 2230 2230 2164 2044 2164 2044 2102 2044 1989 2044 2044 2044 2164 2102 2164 2044 2044 2044 2102 2044 2044 2044 2044 2102 2164 2164 2230 2164 2044 1989 1887 1795 1533 1338 1338 1291 1338 1338 1338 1338 1338 1338 1362 1338 1388 1338 1291 1362 1338 1415 1752 1752 1887 1989 1839 1839 1795 0 1711 0 0 0 1672 1711 1752 1635 1795 1672 1635 1565 1599 1599 1599 1533 1599 1565 1711 1795 1839 1989 2164 2299 2374 2164 2453 0 0 0 0 0
    0 0 0 0 0 0 0 0 0 0 0 0 0 0 0 0 0 0 0 0 0 0 0 0 0 0 0 0 0 0 0 0 0 0 0 0 0 0 0 0 0 0 0 0 0 0 0 0 0 0 0 0 0 0 0 0 0 0 0 0 0 0 0 0 0 0 0 0 0 0 0 0 0 0 0 0 0 0 0 0 0 0 0 0 0 0 0 0 0 0 0 0 0 0 0 0 0 0 0 0 0 0 0 0 0 0 0 0 0 0 0 0 0 0 0 0 0 0 0 0 0 0 0 0 0 0 0 0 0 0 0 0 0 0 0 0 0 0 0 0 0 0 0 0 7359 4599 7359 7359 0 0 0 0 0 0 0 0 0 8177 0 8177 7359 7359 8177 7359 0 0 0 8177 0 0 0 0 0 0 0 0 0 8177 0 6133 0 0 0 0 8177 8177 7359 7359 0 6690 6133 5256 3873 4599 4906 4906 4599 4599 4906 4906 5256 5661 4906 4906 4599 4906 4599 4088 4088 3679 3504 3504 3199 3345 3066 3066 3066 2943 3066 3199 3066 2943 2628 2537 2453 2299 2374 2299 2164 2230 2164 2164 2102 1989 2102 2044 2102 2044 1989 2044 2044 2102 2230 2164 2230 2102 2102 2102 2164 2102 2102 2102 2044 2102 2164 2164 2164 2044 1989 1887 1839 1752 1443 1338 1338 1314 1338 1338 1338 1338 1338 1338 1338 1338 1338 1291 1268 1291 1291 1291 1338 1415 1415 1839 1565 1672 1599 1533 1533 0 0 1635 1533 1565 1635 1443 1635 0 0 0 0 0 1533 1471 1565 1501 1635 1711 1711 1795 1989 2044 2230 0 0 0 0 0 0 0
    0 0 0 0 0 0 0 0 0 0 0 0 0 0 0 0 0 0 0 0 0 0 0 0 0 0 0 0 0 0 0 0 0 0 0 0 0 0 0 0 0 0 0 0 0 0 0 0 0 0 0 0 0 0 0 0 0 0 0 0 0 0 0 0 0 0 0 0 0 0 0 0 0 0 0 0 0 0 0 0 0 0 0 0 0 0 0 0 0 0 0 0 0 0 0 0 0 0 0 0 0 0 0 0 0 0 0 0 0 0 0 0 0 0 0 0 0 0 0 0 0 0 0 0 0 0 1501 1443 0 0 0 0 0 0 0 0 0 0 0 0 0 0 0 0 7359 4906 7359 7359 0 0 0 0 0 0 0 0 0 7359 0 8177 7359 8177 8177 7359 0 0 0 8177 0 0 0 0 0 0 0 0 0 0 0 7359 0 0 0 0 0 0 0 8177 0 7359 6133 4906 4088 4599 4906 4906 4599 4906 4906 4906 5256 5256 4906 4906 4599 4599 4599 4329 4329 4088 3873 3679 3345 3345 3199 3199 3066 2943 2943 3066 3066 2943 2628 2453 2453 2230 2299 2299 2164 2164 2102 2102 2044 1936 1989 1989 1989 1936 1936 2044 2044 2164 2299 2299 2299 2164 2230 2164 2164 2164 2164 2044 1989 2102 2164 2164 2164 1989 1887 1795 1711 1599 1388 1338 1338 1314 1338 1338 1314 1338 1338 1338 1338 1314 1314 1291 1268 1291 1268 1268 1291 1291 1291 1533 1338 1415 1388 1362 1362 0 0 1388 1415 1415 1443 0 1443 0 0 0 0 0 0 0 1471 1443 1533 1599 1565 0 0 0 0 0 321 0 0 0 0 0
    0 0 0 0 0 0 0 0 0 0 0 0 0 0 0 0 0 0 0 0 0 0 0 0 0 0 0 0 0 0 0 0 0 0 0 0 0 0 0 0 0 0 0 0 0 0 0 0 0 0 0 0 0 0 0 0 0 0 0 0 0 0 0 0 0 0 0 0 0 0 0 0 0 0 0 0 0 0 0 0 0 0 0 0 0 0 0 0 0 0 0 0 0 0 0 0 0 0 0 0 0 0 0 0 0 0 0 0 0 0 0 0 0 0 0 0 0 0 0 0 0 0 0 0 0 0 0 0 0 0 0 0 0 0 0 0 0 0 0 0 0 0 0 0 7359 4599 7359 8177 0 0 0 8177 0 0 0 8177 0 7359 8177 8177 7359 8177 8177 7359 0 0 0 8177 0 0 0 0 0 0 0 0 0 0 0 0 0 0 0 0 0 0 0 0 0 7359 5661 4906 4088 4599 4599 4599 4329 4906 4906 4906 5256 5256 4599 4906 4329 4599 4329 4088 4088 3873 3873 3679 3345 3345 3199 3199 3199 3066 3066 3066 3066 2830 2628 2537 2453 2299 2299 2299 2164 2164 2044 2044 1936 1887 1887 1936 1887 1887 1887 1989 2044 2164 2299 2299 2299 2230 2299 2230 2164 2164 2164 2044 1989 2044 2102 2044 2044 1839 1752 1672 1599 1501 1388 1338 1338 1314 1314 1314 1314 1314 1291 1314 1314 1291 1291 1291 1247 1268 1268 1268 1268 1291 1291 1338 1291 1362 1338 1314 1338 0 0 1338 1388 1388 1388 0 0 0 0 0 0 0 0 0 0 1388 1415 0 0 0 0 0 0 0 319 0 0 0 0 0
    0 0 0 0 0 0 0 0 0 0 0 0 0 0 0 0 0 0 0 0 0 0 0 0 0 0 0 0 0 0 0 0 0 0 0 0 0 0 0 0 0 0 0 0 0 0 0 0 0 0 0 0 0 0 0 0 0 0 0 0 0 0 0 0 0 0 0 0 0 0 0 0 0 0 0 0 0 0 0 0 0 0 0 0 0 0 0 0 0 0 0 0 0 0 0 0 0 0 0 0 0 0 0 0 0 0 0 0 0 0 0 0 0 0 0 0 0 0 0 0 0 0 0 0 0 0 0 0 0 0 0 0 0 0 0 0 0 0 0 0 0 0 0 0 7359 4906 8177 8177 0 0 0 0 0 0 0 8177 0 7359 8177 8177 7359 8177 8177 7359 0 0 0 9199 0 0 0 0 0 0 0 0 0 0 0 0 0 0 0 0 0 0 0 0 0 7359 6690 5661 4599 5256 4906 5256 4906 4906 4906 4906 5256 4906 4599 4906 4088 4329 4088 4088 3873 3679 3873 3679 3345 3345 3199 3199 3066 3066 2943 2943 2943 2830 2537 2628 2537 2374 2299 2374 2164 2102 2044 1989 1887 1839 1839 1887 1839 1839 1839 1989 2044 2164 2299 2374 2299 2299 2299 2374 2164 2164 2164 2044 1936 2044 2102 1989 1936 1839 1752 1635 1565 1471 1362 1338 1338 1314 1291 1291 1291 1291 1291 1291 1291 1268 1247 1268 1247 1268 1247 1268 1268 0 1268 1314 1291 1338 1314 1314 1314 0 0 0 1362 1362 1388 0 0 0 0 0 0 0 184 184 0 1362 1362 0 0 0 0 321 319 319 319 0 0 0 0 0
    0 0 0 0 0 0 0 0 0 0 0 0 0 0 0 0 0 0 0 0 0 0 0 0 0 0 0 0 0 0 0 0 0 0 0 0 0 0 0 0 0 0 0 0 0 0 0 0 0 0 0 0 0 0 0 0 0 0 0 0 0 0 0 0 0 0 0 0 0 0 0 0 0 0 0 0 0 0 0 0 0 0 0 0 0 0 0 0 0 0 0 0 0 0 0 0 0 0 0 0 0 0 0 0 0 0 0 0 0 0 0 0 0 0 0 0 0 0 0 0 0 0 0 0 0 0 0 0 0 0 0 0 0 0 0 0 0 0 0 0 0 0 0 0 7359 4906 0 8177 0 0 0 0 0 0 0 8177 0 7359 8177 8177 8177 8177 8177 7359 0 0 0 0 0 0 0 0 0 0 0 0 0 0 0 0 0 0 0 0 0 0 0 0 0 6690 6690 5661 4599 5256 4906 4906 4906 4906 4906 4906 4906 4906 4599 4599 4088 4088 3873 3873 3679 3679 3679 3504 3345 3345 3199 3199 3199 3066 3066 3066 3066 2943 2830 2830 2725 2537 2374 2453 2164 2044 1989 1989 1887 1839 1839 1887 1839 1839 1887 2044 2044 2164 2299 2374 2374 2374 2374 2453 2230 2299 2164 2102 1989 2044 2102 2044 1936 1839 1752 1635 1599 1471 1362 1314 1338 1314 1314 1314 1291 1291 1291 1291 1291 1291 1247 1268 1226 1247 1247 1247 1268 0 0 1291 1291 1314 1314 0 0 0 0 0 0 0 1362 0 0 0 0 0 0 0 184 184 184 0 0 0 0 0 0 0 0 0 0 0 0 0 0 0
    0 0 0 0 0 0 0 0 0 0 0 0 0 0 0 0 0 0 0 0 0 0 0 0 0 0 0 0 0 0 0 0 0 0 0 0 0 0 0 0 0 0 0 0 0 0 0 0 0 0 0 0 0 0 0 0 0 0 0 0 0 0 0 0 0 0 0 0 0 0 0 0 0 0 0 0 0 0 0 0 0 0 0 0 0 0 0 0 0 0 0 0 0 0 0 0 0 0 0 0 0 0 0 0 0 0 0 0 0 0 0 0 0 0 0 0 0 0 0 0 0 0 0 0 0 0 0 0 0 0 0 0 0 0 0 0 0 0 0 0 0 0 0 0 8177 5256 0 0 0 0 0 0 0 0 0 8177 0 7359 8177 8177 8177 8177 8177 7359 0 0 0 0 0 0 0 0 0 0 0 0 0 0 0 0 0 0 0 0 0 0 0 0 0 6690 6133 5661 4906 4906 4906 4906 4906 4906 4599 4906 4906 4599 4599 4329 4088 3873 3873 3873 3504 3504 3679 3504 3345 3345 3066 3066 3066 3199 3066 3066 3066 2943 2830 2943 2830 2628 2374 2537 2164 2102 1989 1989 1887 1839 1887 1936 1887 1887 1936 2044 2102 2230 2374 2374 2374 2374 2374 2453 2230 2299 2164 2102 1936 2044 2044 1887 1795 1752 1711 1599 1565 1471 1362 1338 1338 1314 1314 1314 1314 1291 1291 1314 1291 1291 1226 1268 1226 1247 1247 0 0 1268 1268 1291 1268 0 0 0 0 324 324 324 0 0 1314 0 0 0 0 0 0 0 184 0 0 0 0 0 0 0 0 0 0 0 0 0 0 0 0 0
    0 0 0 0 0 0 0 0 0 0 0 0 0 0 0 0 0 0 0 0 0 0 0 0 0 0 0 0 0 0 0 0 0 0 0 0 0 0 0 0 0 0 0 0 0 0 0 0 0 0 0 0 0 0 0 0 0 0 0 0 0 0 0 0 0 0 0 0 0 0 0 0 0 0 0 0 0 0 0 0 0 0 0 0 0 0 0 0 0 0 0 0 0 0 0 0 0 8177 8177 0 0 0 0 0 0 0 0 0 0 0 0 0 0 0 0 0 0 0 0 0 0 0 0 0 0 0 0 0 0 0 0 0 0 0 0 0 0 0 0 0 0 0 0 0 0 5661 0 0 0 0 0 0 0 0 0 8177 8177 7359 8177 8177 8177 8177 8177 7359 0 0 0 0 0 0 0 0 0 0 0 0 0 0 0 0 0 0 0 0 0 0 0 0 0 7359 6690 5661 5256 5256 5256 5256 5256 4906 4906 4906 5256 4599 4599 4329 4088 3873 3873 3504 3345 3345 3345 3345 3199 3199 3066 3066 3199 3066 2943 2943 3066 2943 2830 2830 2725 2537 2374 2537 2230 2102 1989 1989 1887 1839 1887 1936 1887 1887 1936 2044 2102 2230 2374 2374 2374 2374 2374 2374 2230 2164 2102 1989 1887 1989 1887 1752 1711 1672 1635 1565 1565 1471 1388 1362 1362 1338 1314 1314 1314 1291 1291 1314 1291 1268 1206 1247 0 0 0 0 0 0 1268 1291 1268 0 0 322 325 325 325 327 327 0 1291 0 0 182 0 0 0 0 0 0 0 325 321 0 0 0 0 0 0 183 183 0 0 0 0 0
    0 0 0 0 0 0 0 0 0 0 0 0 0 0 0 0 0 0 0 0 0 0 0 0 0 0 0 0 0 0 0 0 0 0 0 0 0 0 0 0 0 0 0 0 0 0 0 0 0 0 0 0 0 0 0 0 0 0 0 0 0 0 0 0 0 0 0 0 0 0 0 0 0 0 0 0 0 0 0 0 0 0 0 0 0 0 0 0 0 0 0 0 0 0 0 0 8177 8177 8177 0 0 0 0 0 0 0 0 0 0 0 0 0 0 0 0 0 0 0 0 0 0 0 0 0 0 0 0 0 0 0 0 0 0 0 0 0 0 0 0 0 0 0 0 0 0 6133 0 0 0 0 0 0 0 0 0 8177 8177 7359 8177 8177 0 0 8177 8177 0 0 0 0 0 0 0 0 0 0 0 0 0 0 0 0 0 0 0 0 0 0 0 0 0 6690 5661 5256 5256 5256 4906 5256 5661 4906 4906 5256 5256 4906 4599 4329 4088 3679 3679 3504 3199 3199 3199 3199 3199 3066 2943 2943 3066 3066 2943 2943 3066 2830 2830 2830 2725 2628 2537 2537 2299 2164 2044 1989 1887 1839 1887 1887 1887 1887 1936 2044 2164 2299 2374 2374 2299 2299 2374 2374 2230 2102 2044 1936 1887 1887 1795 1672 1635 1599 1565 1533 1533 1471 1388 1388 1388 1338 1314 1314 1291 1291 1268 1291 1268 1268 1206 0 0 0 0 0 0 0 0 1268 1268 324 322 324 325 327 327 327 327 325 1314 0 0 0 0 0 0 0 0 0 0 325 321 0 321 0 0 0 0 183 183 0 0 0 0 0
    0 0 0 0 0 0 0 0 0 0 0 0 0 0 0 0 0 0 0 0 0 0 0 0 0 0 0 0 0 0 0 0 0 0 0 0 0 0 0 0 0 0 0 0 0 0 0 0 0 0 0 0 0 0 0 0 0 0 0 0 0 0 0 0 0 0 0 0 0 0 0 0 0 0 0 0 0 0 0 0 0 0 0 0 0 0 0 0 0 0 0 0 0 0 0 0 0 0 0 0 0 0 0 0 0 0 0 0 0 0 0 0 0 0 0 0 0 0 0 9199 8177 8177 8177 8177 0 0 0 0 0 0 0 0 0 0 0 0 0 0 0 0 0 0 0 0 0 6690 0 0 0 0 0 0 0 0 0 8177 8177 7359 8177 0 0 0 0 0 0 0 0 0 0 0 0 0 0 0 0 0 0 0 0 0 0 0 0 0 0 0 0 0 0 7359 6690 6133 6133 5661 5256 5661 6133 5256 5256 5256 5256 4906 4599 4329 3873 3679 3679 3345 3199 3199 3345 3199 3199 3066 3066 3066 3199 3066 2943 2943 3066 2943 2943 2943 2830 2830 2628 2628 2374 2230 2044 1936 1839 1839 1887 1887 1839 1887 1936 2044 2164 2299 2374 2374 2299 2299 2374 2299 2230 2102 1989 1839 1795 1795 1672 1565 1565 1501 1533 1501 1501 1471 1415 1443 1443 1362 1338 1314 1291 1291 1268 1314 1268 1268 1187 0 0 0 0 0 0 0 0 1268 1247 324 322 324 325 327 327 327 328 325 1314 0 0 0 0 0 0 0 0 0 0 325 321 0 0 0 0 0 0 0 0 0 0 0 0 0
    0 0 0 0 0 0 0 0 0 0 0 0 0 0 0 0 0 0 0 0 0 0 0 0 0 0 0 0 0 0 0 0 0 0 0 0 0 0 0 0 0 0 0 0 0 0 0 0 0 0 0 0 0 0 0 0 0 0 0 0 0 0 0 0 0 0 0 0 0 0 0 0 0 0 0 0 0 0 0 0 0 0 0 0 0 0 0 0 0 0 0 0 0 0 0 0 0 0 0 0 0 0 0 0 0 0 0 0 0 0 0 0 0 0 0 0 0 0 0 8177 8177 7359 7359 6690 7359 0 0 0 0 0 0 0 0 0 0 0 0 0 0 0 0 0 0 0 0 8177 0 0 0 0 0 0 0 0 0 8177 7359 6690 8177 0 0 0 0 0 0 0 0 0 0 0 0 0 0 0 0 0 0 0 0 8177 0 0 8177 8177 8177 8177 8177 7359 0 6690 6133 6133 5661 5661 4906 5661 5661 5256 5256 5256 4906 4906 4599 4906 4088 3873 3679 3345 3199 3199 3199 3199 3199 3066 2943 3066 3199 3066 3066 3066 3066 2943 2943 2943 2943 2830 2725 2628 2453 2230 2044 1936 1839 1839 1887 1887 1839 1887 1936 2044 2230 2299 2374 2299 2230 2299 2299 2299 2102 1936 1839 1711 1711 1711 1599 1533 1533 1501 1533 1501 1533 1471 1443 1471 1471 1388 1362 1314 1291 1291 1268 1291 1247 1247 1187 0 0 0 0 0 0 0 0 1268 1247 324 322 324 325 327 327 327 328 325 1314 0 0 0 0 0 0 0 0 0 0 325 0 0 0 1268 1291 0 0 0 1268 0 0 0 0 0
    0 0 0 0 0 0 0 0 0 0 0 0 0 0 0 0 0 0 0 0 0 0 0 0 0 0 0 0 0 0 0 0 0 0 0 0 0 0 0 0 0 0 0 0 0 0 0 0 0 0 0 0 0 0 0 0 0 0 0 0 0 0 0 0 0 0 0 0 0 0 0 0 0 0 0 0 0 0 0 0 0 0 0 0 0 0 0 0 0 0 0 0 0 0 0 0 8177 8177 8177 0 0 0 0 8177 8177 0 0 0 0 0 0 0 0 0 0 0 0 0 8177 7359 7359 6133 6133 6133 6690 8177 0 0 0 0 0 0 0 0 0 0 0 0 0 0 0 0 0 0 0 0 0 0 0 0 0 0 0 0 0 8177 7359 7359 8177 8177 0 0 8177 8177 0 0 0 0 0 0 0 0 0 0 0 0 0 0 0 8177 0 0 8177 7359 8177 8177 7359 7359 8177 6690 6133 6133 5661 5661 4906 5661 5661 5256 5256 5256 4906 4906 4599 4906 4088 4088 3873 3345 3199 3199 3199 3199 3199 3066 3066 3066 3345 3199 3199 3066 3199 3066 3066 3066 2943 2943 2725 2628 2453 2374 2102 1936 1839 1839 1887 1887 1839 1887 1936 2044 2164 2230 2374 2230 2164 2299 2230 2230 1989 1795 1752 1635 1672 1635 1533 1533 1533 1501 1533 1501 1533 1471 1443 1501 1471 1388 1362 1338 1314 1268 1268 1291 1247 1247 1187 0 0 0 0 0 0 0 0 1268 1247 325 322 325 327 327 327 328 328 325 0 0 0 0 0 0 0 0 0 0 0 325 0 0 0 1268 1268 1268 1268 1291 1268 0 0 0 0 0
    0 0 0 0 0 0 0 0 0 0 0 0 0 0 0 0 0 0 0 0 0 0 0 0 0 0 0 0 0 0 0 0 0 0 0 0 0 0 0 0 0 0 0 0 0 0 0 0 0 0 0 0 0 0 0 0 0 0 0 0 0 0 0 0 0 0 0 0 0 0 0 0 0 0 0 0 0 0 0 0 0 0 0 0 0 0 0 0 0 0 0 0 0 0 0 0 7359 8177 8177 8177 0 0 0 7359 7359 0 0 0 0 0 0 0 0 0 0 0 0 0 7359 6690 6690 5661 5661 6133 6133 8177 0 0 0 0 0 0 0 0 0 0 0 0 0 0 0 0 0 0 0 0 0 0 0 0 0 0 0 0 0 8177 7359 7359 8177 0 0 0 8177 8177 0 0 0 0 0 0 0 0 0 0 0 0 0 0 0 8177 0 0 8177 6690 7359 7359 6690 6690 7359 6133 6133 5661 5661 5661 4906 5661 5661 5256 4906 4906 4906 4906 4329 4906 4088 4088 4088 3504 3345 3345 3345 3345 3345 3066 2943 3066 3199 3199 3066 3066 3066 2943 2943 2943 2943 2830 2830 2725 2537 2453 2102 1989 1887 1839 1936 1936 1887 1936 1936 2044 2230 2230 2374 2164 2164 2230 2164 2102 1936 1752 1672 1565 1599 1565 1501 1501 1501 1471 1533 1501 1533 1471 1471 1501 1471 1415 1388 1338 1291 1268 1268 1291 1247 1247 1206 0 0 0 0 0 0 0 0 1268 1247 325 324 325 327 327 328 328 330 327 0 0 0 0 0 0 0 0 0 0 0 0 0 0 0 1268 1268 0 0 1268 0 0 0 0 0 0
    0 0 0 0 0 0 0 0 0 0 0 0 0 0 0 0 0 0 0 0 0 0 0 0 0 0 0 0 0 0 0 0 0 0 0 0 0 0 0 0 0 0 0 0 0 0 0 0 0 0 0 0 0 0 0 0 0 0 0 0 0 0 0 0 0 0 0 0 0 0 0 0 0 0 0 0 0 0 0 0 0 0 0 0 0 0 0 0 0 0 0 0 0 0 0 0 6690 7359 7359 7359 8177 8177 8177 7359 6690 0 0 0 0 0 0 0 0 0 0 0 0 0 7359 6133 6690 5256 5661 6133 6690 8177 0 0 0 0 9199 8177 8177 7359 8177 8177 8177 0 0 0 0 0 0 0 0 0 0 0 0 0 0 0 0 0 0 8177 8177 7359 8177 0 0 0 8177 8177 0 0 0 0 0 0 0 0 0 0 0 0 0 0 0 7359 0 0 8177 6133 6690 7359 6133 6133 7359 6133 5256 5256 5661 5256 4599 5256 5256 4906 4599 4906 4599 4599 4088 5256 4088 4088 3873 3345 3345 3345 3345 3345 3199 3066 2943 3066 3199 3066 3066 2943 3066 2943 2943 2943 2943 2830 2830 2725 2537 2537 2164 1989 1887 1887 1936 1936 1936 1936 1936 2044 2230 2230 2374 2164 2164 2230 2164 2044 1887 1711 1635 1533 1565 1565 1471 1471 1501 1471 1533 1501 1565 1471 1471 1501 1501 1415 1388 1314 1291 1268 1247 1291 1247 1268 1206 0 0 0 0 0 0 0 0 1268 1268 325 324 327 328 327 328 330 330 328 0 0 0 0 0 0 0 0 0 0 0 0 0 0 0 1247 1247 0 0 1268 0 0 0 0 0 0
    0 0 0 0 0 0 0 0 0 0 0 0 0 0 0 0 0 0 0 0 0 0 0 0 0 0 0 0 0 0 0 0 0 0 0 0 0 0 0 0 0 0 0 0 0 0 0 0 0 0 0 0 0 0 0 0 0 0 0 0 0 0 0 0 0 0 0 0 0 0 0 0 0 0 0 0 0 0 0 0 0 0 0 0 0 0 0 0 0 0 0 0 0 0 0 0 6690 7359 7359 7359 7359 8177 8177 6690 6690 0 0 0 0 0 0 0 0 0 0 0 0 0 7359 6690 7359 6133 6690 7359 7359 0 0 0 0 8177 7359 5661 6690 6133 7359 7359 8177 8177 9199 0 0 0 0 0 0 0 0 0 0 0 0 0 0 0 0 8177 8177 7359 8177 0 0 0 8177 8177 0 0 0 0 0 0 0 0 0 0 0 0 0 0 0 8177 0 0 7359 6133 6690 7359 6690 6690 7359 6133 5661 5661 5661 5256 4599 5256 5256 4906 4906 4906 4599 4599 4088 5661 4088 4088 3873 3345 3345 3345 3345 3345 3199 3066 2943 3066 3199 2943 2943 2725 2943 2830 2830 2943 2830 2830 2830 2725 2725 2628 2299 1989 1936 1887 1936 1887 1887 1887 1887 1989 2230 2230 2453 2164 2102 2164 2044 1887 1752 1599 1565 1471 1533 1533 1471 1471 1501 1443 1533 1501 1565 1471 1471 1501 1501 1415 1415 1314 1291 1247 1247 1268 1247 1247 1206 0 0 0 0 0 0 0 0 1268 1268 325 324 325 327 327 328 330 330 0 0 0 0 0 0 0 0 0 0 0 184 0 0 0 0 1247 1247 1247 1247 1247 1247 0 0 0 0 0
    0 0 0 0 0 0 0 0 0 0 0 0 0 0 0 0 0 0 0 0 0 0 0 0 0 0 0 0 0 0 0 0 0 0 0 0 0 0 0 0 0 0 0 0 0 0 0 0 0 0 0 0 0 0 0 0 0 0 0 0 0 0 0 0 0 0 0 0 0 0 0 0 0 0 0 0 0 0 0 0 0 0 0 0 0 0 0 0 0 0 0 0 0 0 0 0 7359 8177 8177 7359 7359 8177 8177 7359 6690 0 0 0 0 0 0 0 0 0 0 0 0 8177 7359 6690 7359 6690 7359 8177 0 0 0 0 0 0 6690 5256 6133 6690 7359 8177 8177 8177 0 0 0 0 0 0 0 0 0 0 0 0 0 0 0 0 0 8177 7359 7359 8177 0 0 0 8177 0 0 0 0 0 0 0 0 0 0 0 0 0 0 0 0 7359 8177 0 7359 6133 6690 6690 6133 6690 7359 6133 5661 5256 5256 5256 4329 5256 5256 4906 4906 5256 5256 4906 4329 6690 4329 4088 3679 3345 3345 3345 3345 3199 3066 3066 2830 2943 3066 2830 2830 2628 2830 2830 2830 2943 2830 2830 2943 2830 2725 2628 2299 0 1887 1839 1887 1839 1839 1839 1839 1936 2164 2164 2374 2102 2044 2044 1936 1795 1672 1501 1501 1443 1501 1501 1471 1471 1501 1443 1533 1471 1533 1471 1471 1501 1501 1415 1415 1314 1291 1268 1247 1268 1226 1226 1187 0 0 0 0 0 0 0 0 1268 1268 325 324 325 327 327 327 328 330 0 0 0 0 0 0 0 0 0 0 0 184 0 0 0 1247 1226 1247 1247 1247 1247 1247 0 0 0 0 0
    0 0 0 0 0 0 0 0 0 0 0 0 0 0 0 0 0 0 0 0 0 0 0 0 0 0 0 0 0 0 0 0 0 0 0 0 0 0 0 0 0 0 0 0 0 0 0 0 0 0 0 0 0 0 0 0 0 0 0 0 0 0 0 0 0 0 0 0 0 0 0 0 0 0 0 0 0 0 0 0 0 0 0 0 0 0 0 0 0 0 0 0 0 0 0 0 7359 8177 8177 8177 8177 0 8177 7359 7359 0 0 0 0 0 0 0 0 0 8177 8177 8177 8177 7359 6690 7359 6690 7359 0 0 0 0 0 0 0 7359 5661 6690 7359 8177 8177 8177 8177 8177 0 0 0 0 0 0 0 0 0 0 0 0 0 0 0 0 7359 6690 6690 8177 8177 0 0 8177 0 0 0 0 0 0 0 0 0 0 0 0 0 0 0 0 6690 7359 7359 6690 5661 6133 6133 6133 6690 6690 5661 5256 4906 4906 5256 4088 4906 4906 4906 5256 5256 5661 5256 4906 6690 4329 4329 3873 3345 3504 3504 3345 3199 3066 3066 2830 2943 2943 2725 2725 2725 2830 2943 2943 3066 2943 2943 3066 2943 2830 2725 2230 0 1839 1795 1839 1795 1795 1795 1795 1839 2102 2102 2299 1989 1936 1887 1795 1711 1635 1501 1501 1443 1533 1501 1471 1471 1501 1443 1533 1471 1533 1443 1471 1501 1501 1415 1443 1314 1291 1268 1268 1268 1226 1226 1187 0 0 0 0 0 0 0 0 1291 1291 325 324 325 327 327 327 330 330 330 0 0 0 0 0 0 0 0 0 0 0 0 0 1226 1247 1247 1247 1247 1247 1247 1268 0 0 0 0 0
    0 0 0 0 0 0 0 0 0 0 0 0 0 0 0 0 0 0 0 0 0 0 0 0 0 0 0 0 0 0 0 0 0 0 0 0 0 0 0 0 0 0 0 0 0 0 0 0 0 0 0 0 0 0 0 0 0 0 0 0 0 0 0 0 0 0 0 0 0 0 0 0 0 0 0 0 0 0 0 0 0 0 0 0 0 0 0 0 0 0 0 0 0 0 0 0 8177 0 0 8177 8177 0 0 8177 8177 0 0 0 0 0 0 0 0 0 8177 8177 8177 7359 7359 6690 7359 6690 6690 0 0 0 0 0 0 0 7359 6133 6690 7359 7359 8177 8177 8177 8177 0 0 8177 8177 0 0 0 0 0 0 0 0 0 0 0 0 7359 6690 6690 8177 8177 0 0 8177 0 0 0 0 0 0 0 0 0 0 0 0 0 0 0 8177 6690 7359 8177 6690 6133 6133 6133 6133 7359 6690 5256 5256 4599 4599 5256 4088 5256 4906 4906 6133 5661 6133 5256 5256 6690 4329 4329 3873 3504 3504 3504 3345 3199 3066 3066 2830 2943 2943 2725 2830 2725 2830 2943 2943 3066 3066 3066 3066 2943 2830 2830 2299 0 1839 1795 1839 1795 1752 1795 1795 1795 1989 1989 2164 1887 1839 1752 1711 1599 1599 1471 1501 1443 1501 1501 1501 1471 1501 1443 1533 1471 1533 1443 1443 1501 1501 1415 1443 1314 1314 1291 1291 1291 1247 1247 1206 0 0 0 0 0 0 0 0 1291 1291 325 324 327 327 327 328 330 330 330 0 0 0 0 0 0 0 0 0 0 0 0 0 1226 1247 1247 1247 1247 1247 1247 1268 0 0 0 0 0
    0 0 0 0 0 0 0 0 0 0 0 0 0 0 0 0 0 0 0 0 0 0 0 0 0 0 0 0 0 0 0 0 0 0 0 0 0 0 0 0 0 0 0 0 0 0 0 0 0 0 0 0 0 0 0 0 0 0 0 0 0 0 0 0 0 0 0 0 0 0 0 0 0 0 0 0 0 0 0 0 0 0 0 0 0 0 0 0 0 0 0 0 0 0 0 0 0 0 0 0 0 0 0 8177 8177 0 0 0 0 0 0 0 8177 8177 7359 7359 7359 7359 7359 6133 7359 6690 7359 0 0 0 0 0 0 8177 8177 0 6690 7359 7359 7359 7359 7359 8177 8177 8177 8177 7359 0 0 0 0 0 0 0 0 0 0 0 0 6690 6133 6690 8177 0 0 0 0 0 0 0 0 0 0 0 0 0 0 0 0 0 0 0 7359 7359 6690 7359 6690 5661 5661 6133 5661 6690 6133 5256 4599 4088 4329 4599 3873 4906 4906 4906 6133 5661 6133 5661 5256 6690 4599 4329 4088 3504 3679 3504 3345 3199 3066 3199 2830 2943 2943 2830 2943 2830 2830 2943 2943 3066 3066 3066 3066 2943 2830 2830 0 0 1887 1839 1839 1795 1752 1752 1752 1752 1936 1936 2044 1795 1752 1672 1635 1599 1565 1501 1533 1443 1533 1501 1533 1471 1533 1443 1533 1471 1533 1443 1443 1471 1471 1415 1415 1291 1291 1268 1268 1268 1247 1247 1206 0 0 0 0 0 0 0 0 1291 1314 325 324 327 327 327 328 330 330 330 0 0 0 0 0 0 0 0 0 0 0 0 0 1226 0 1247 1247 1247 1247 1268 0 0 0 0 0 0
    0 0 0 0 0 0 0 0 0 0 0 0 0 0 0 0 0 0 0 0 0 0 0 0 0 0 0 0 0 0 0 0 0 0 0 0 0 0 0 0 0 0 0 0 0 0 0 0 0 0 0 0 0 0 0 0 0 0 0 0 0 0 0 0 0 0 0 0 0 0 0 0 0 0 0 0 0 0 0 0 0 0 0 0 0 0 0 0 0 0 0 0 0 0 0 0 0 0 0 0 0 0 0 0 0 0 0 0 0 0 0 0 8177 7359 6690 7359 6690 6690 7359 6690 8177 7359 7359 0 0 0 0 0 0 8177 8177 0 6690 7359 6690 7359 6690 7359 7359 7359 8177 7359 6690 6133 0 0 0 0 0 0 0 0 0 0 0 6133 6133 7359 0 0 0 0 0 0 0 0 0 0 0 0 0 0 0 0 0 0 0 0 6690 7359 6690 6690 6133 5661 5661 5661 5661 6690 5661 5256 4906 4088 4599 4906 3873 4906 5256 5256 6133 5661 6690 5256 5661 6690 4599 4329 4088 3504 3679 3345 3199 3199 3066 3199 2943 2943 2943 2943 2943 2830 2830 2943 2943 3066 3066 3066 3066 2943 2943 2943 0 0 1936 1839 1839 1795 1752 1752 1711 1711 1839 1839 1936 1752 1672 1635 1599 1599 1565 1533 1565 1471 1533 1533 1533 1501 1533 1443 1533 1443 1533 1415 1415 1415 1443 1388 1362 1291 1291 1268 1268 1268 1247 1226 1206 0 0 0 0 0 0 0 0 1314 1314 325 324 327 327 328 328 328 330 328 0 0 0 0 0 0 0 0 0 0 1415 0 0 1226 0 1247 0 0 0 0 0 0 0 0 0 0
    0 0 0 0 0 0 0 0 0 0 0 0 0 0 0 0 0 0 0 0 0 0 0 0 0 0 0 0 0 0 0 0 0 0 0 0 0 0 0 0 0 0 0 0 0 0 0 0 0 0 0 0 0 0 0 0 0 0 0 0 0 0 0 0 0 0 0 0 0 0 0 0 0 0 0 0 0 0 0 0 0 0 0 0 0 0 0 0 0 0 0 0 0 0 0 0 0 0 0 0 0 0 0 0 0 0 0 0 0 0 0 0 8177 8177 7359 7359 6690 6690 7359 6133 8177 0 8177 0 0 0 0 0 0 0 8177 0 6690 6690 6690 6690 6690 6690 7359 7359 7359 7359 6690 6133 0 0 0 0 0 0 0 0 0 0 0 5661 6133 7359 0 0 0 0 0 0 0 0 0 0 0 0 0 0 0 0 0 0 0 0 6690 8177 6690 6133 5661 5256 5256 5256 5661 6133 5256 4906 4599 4088 4599 4906 4088 4599 5256 5256 6690 6133 6690 5661 5661 6133 4599 4329 4088 3504 3504 3345 3199 3066 2943 3199 2830 2943 2943 2943 2943 2830 2943 3066 3066 3066 3199 3066 3199 3066 3066 2943 2628 0 1989 1839 1887 1795 1752 1711 1672 1672 1795 1752 1839 1711 1672 1565 1599 1565 1565 1533 1565 1471 1533 1533 1565 1501 1565 1471 1533 1471 1533 1443 1415 1415 1443 1388 1362 1291 1291 1268 1268 1268 1247 1206 1187 0 0 0 0 0 0 0 0 1338 1338 325 324 327 327 328 328 328 330 328 0 0 0 0 0 0 0 0 0 1388 1443 0 1314 1247 0 1247 0 0 0 0 0 0 0 0 0 0
    0 0 0 0 0 0 0 0 0 0 0 0 0 0 0 0 0 0 0 0 0 0 0 0 0 0 0 0 0 0 0 0 0 0 0 0 0 0 0 0 0 0 0 0 0 0 0 0 0 0 0 0 0 0 0 0 0 0 0 0 0 0 0 0 0 0 0 0 0 0 0 0 0 0 0 0 0 0 0 0 0 0 0 0 0 0 0 0 0 0 0 0 0 0 0 0 0 0 0 0 0 0 0 0 0 0 0 0 0 0 0 0 8177 8177 8177 7359 7359 7359 8177 6690 0 0 8177 0 0 0 0 0 0 0 0 0 6690 6690 6133 6133 6133 6690 6690 0 0 6133 5661 0 0 0 0 0 0 0 0 0 0 0 0 4599 5256 7359 0 0 0 0 0 0 0 0 0 0 0 0 0 0 0 0 0 0 0 0 6690 8177 6690 6133 5661 5256 5256 5256 5256 6133 5256 4329 4088 3679 0 0 0 0 5256 0 0 0 7359 5661 5661 6133 4906 4329 4088 3504 3504 3199 3199 3066 2943 3066 2830 2943 2943 2943 2943 2943 2943 3199 3066 3345 3345 3345 3199 3199 3345 3199 2725 0 2044 1839 1839 1752 1711 1672 1635 1635 1752 1711 1839 1711 1672 1565 1599 1599 1565 1565 1565 1501 1533 1533 1565 1533 1599 1471 1533 1471 1565 1443 1415 1443 1443 1388 1388 1291 1291 1268 1268 1268 1226 1187 1168 0 0 0 0 0 0 0 0 1338 1338 325 325 327 328 328 328 328 330 328 0 0 0 0 0 0 0 0 0 0 1471 0 0 0 0 0 0 0 0 0 0 0 0 0 0 0
    0 0 0 0 0 0 0 0 0 0 0 0 0 0 0 0 0 0 0 0 0 0 0 0 0 0 0 0 0 0 0 0 0 0 0 0 0 0 0 0 0 0 0 0 0 0 0 0 0 0 0 0 0 0 0 0 0 0 0 0 0 0 0 0 0 0 0 0 0 0 0 0 0 0 0 0 0 0 0 0 0 0 0 0 0 0 0 0 0 0 0 0 0 0 0 0 0 0 0 0 0 0 0 0 0 0 0 0 0 0 0 0 8177 8177 8177 7359 7359 7359 8177 6690 0 0 7359 0 0 0 0 0 0 0 0 0 6690 6690 5661 5661 5661 5661 5661 5256 0 4906 4329 0 0 0 0 0 0 0 0 0 0 0 0 3504 0 7359 0 0 0 0 0 0 0 0 0 0 0 0 0 0 0 0 0 0 0 0 6133 8177 7359 6690 5661 5661 5661 5256 5661 6690 5256 4329 4088 3345 0 0 0 0 0 0 0 0 7359 6133 5661 5661 4906 4599 4088 3504 3504 3199 3066 3066 2943 3199 2943 2943 3066 3066 3066 3066 3199 3345 3199 3345 3345 3345 3345 3345 3345 3199 2830 2628 2230 1839 1839 1752 1672 1635 1565 1635 1711 1672 1795 1711 1672 1599 1599 1599 1565 1565 1565 1501 1533 1533 1599 1565 1599 1471 1533 1471 1533 1443 1415 1443 1443 1388 1388 1291 1291 1291 1268 1268 1226 1168 1168 0 0 0 0 0 0 0 1291 1338 1338 327 325 328 328 330 328 330 330 0 0 0 0 0 0 0 0 0 0 0 1471 0 1314 0 0 1268 0 0 0 0 0 0 0 0 0 0
    0 0 0 0 0 0 0 0 0 0 0 0 0 0 0 0 0 0 0 0 0 0 0 0 0 0 0 0 0 0 0 0 0 0 0 0 0 0 0 0 0 0 0 0 0 0 0 0 0 0 0 0 0 0 0 0 0 0 0 0 0 0 0 0 0 0 0 0 0 0 0 0 0 0 0 0 0 0 0 0 0 0 0 0 0 0 0 0 0 0 0 0 0 0 0 0 0 0 0 0 0 0 0 0 0 0 0 0 0 0 0 0 8177 8177 8177 8177 7359 7359 8177 6690 0 8177 7359 0 0 0 0 8177 0 0 0 0 6133 6133 4599 4329 4329 4599 4329 3873 0 3873 3679 0 0 0 0 0 0 0 0 0 0 0 0 3066 2299 6690 0 0 0 0 0 0 0 0 0 0 0 0 0 0 0 0 0 0 0 0 5661 8177 7359 6133 5661 5256 5256 5256 5661 6690 4906 3873 3679 0 0 0 0 0 0 0 0 0 7359 6133 5661 5661 4599 4329 4088 3504 3345 3199 3066 3066 2943 3199 3066 3066 3066 3199 3199 3199 3199 3345 3199 3199 3199 3199 3199 3199 3199 3066 2725 2628 2374 1887 1887 1752 1711 1672 1565 1635 1711 1672 1795 1711 1711 1599 1599 1635 1599 1565 1599 1501 1533 1533 1599 1565 1599 1501 1565 1471 1533 1443 1443 1443 1471 1415 1388 1314 1314 1291 1291 1268 1226 1168 1187 1247 1247 1268 1268 0 0 1291 1291 1338 1338 0 0 0 0 330 330 331 0 0 1362 0 0 0 0 0 0 0 0 0 0 0 1291 1268 0 0 0 0 0 0 0 0 0 0 0 0
    0 0 0 0 0 0 0 0 0 0 0 0 0 0 0 0 0 0 0 0 0 0 0 0 0 0 0 0 0 0 0 0 0 0 0 0 0 0 0 0 0 0 0 0 0 0 0 0 0 0 0 0 0 0 0 0 0 0 0 0 0 0 0 0 0 0 0 0 0 0 0 0 0 0 0 0 0 0 0 0 0 0 0 0 0 0 0 0 0 0 0 0 0 0 0 0 0 0 0 0 0 0 0 0 0 0 0 0 0 0 0 0 0 8177 8177 8177 7359 7359 8177 6690 0 8177 8177 0 0 0 0 8177 0 0 0 0 0 4906 3679 0 0 0 0 0 0 0 0 0 0 0 0 0 0 0 0 0 0 0 1795 1936 1839 0 0 0 0 0 0 0 0 0 0 8177 6690 6690 6133 5661 6690 6690 6690 6690 7359 0 4599 7359 6690 5661 5256 4906 4599 4906 5256 6133 4599 3679 0 0 1672 0 105 105 105 0 7359 5661 6690 5661 5256 5256 4329 4088 3873 3345 3345 3066 3066 3066 3066 3199 3199 3199 3345 3345 3345 3504 3345 3504 3199 3199 3199 3199 3199 3199 3199 3066 2725 2830 2628 1989 1936 1839 1752 1752 1565 1672 1711 1672 1795 1711 1711 1635 1635 1635 1599 1599 1599 1533 1533 1533 1599 1565 1599 1533 1565 1501 1565 1501 1443 1443 1471 1415 1388 1314 1314 1291 1291 1291 1247 1187 1206 1268 1268 1291 1291 1291 1291 1291 1314 1362 1362 0 0 0 0 0 0 0 0 0 1338 1291 1291 0 0 0 0 0 0 0 0 0 0 0 0 0 0 0 0 0 0 0 0 0 0 0
    0 0 0 0 0 0 0 0 0 0 0 0 0 0 0 0 0 0 0 0 0 0 0 0 0 0 0 0 0 0 0 0 0 0 0 0 0 0 0 0 0 0 0 0 0 0 0 0 0 0 0 0 0 0 0 0 0 0 0 0 0 0 0 0 0 0 0 0 0 0 0 0 0 0 0 0 0 0 0 0 0 0 0 0 0 0 0 0 0 0 0 0 0 0 0 0 0 0 0 0 0 0 0 0 0 0 0 0 0 0 0 0 0 0 8177 8177 8177 7359 8177 6690 8177 8177 7359 8177 7359 6690 7359 6690 7359 7359 0 0 0 3873 0 0 0 0 0 0 0 0 0 0 0 0 0 0 1752 1635 1672 1711 1711 1711 1711 1752 1711 1711 0 0 0 0 0 0 0 8177 7359 7359 6133 5661 4599 4329 4599 5256 4906 5256 0 6690 3873 6690 6133 6133 4906 4599 4329 4599 4906 5256 3873 3345 0 1795 1672 0 0 0 0 0 6133 5256 6133 4906 4599 4599 4329 4088 3679 3345 3345 3199 3066 3199 3199 3345 3345 3345 3504 3345 3504 3504 3504 3504 3199 3199 3345 3345 3199 3066 3066 2943 2725 2725 2725 2299 2164 2102 1989 1839 1599 1752 1711 1672 1795 1752 1752 1672 1672 1672 1635 1599 1635 1533 1533 1533 1599 1565 1599 1533 1565 1533 1599 1501 1443 1471 1471 1415 1362 1314 1314 1291 1268 1291 1247 1187 1206 1291 1291 1291 1291 1291 1291 1314 1338 1362 1362 0 0 0 0 0 0 0 0 0 0 1268 1268 0 0 1268 0 0 0 0 0 185 0 0 0 0 0 0 0 0 0 0 0 0 0 0
    0 0 0 0 0 0 0 0 0 0 0 0 0 0 0 0 0 0 0 0 0 0 0 0 0 0 0 0 0 0 0 0 0 0 0 0 0 0 0 0 0 0 0 0 0 0 0 0 0 0 0 0 0 0 0 0 0 0 0 0 0 0 0 0 0 0 0 0 0 0 0 0 0 0 0 0 0 0 0 0 0 0 0 0 0 0 0 0 0 0 0 0 0 0 0 0 0 0 0 0 0 0 0 0 0 0 0 0 0 0 0 0 0 0 0 0 8177 8177 8177 7359 8177 7359 6690 6690 6133 6133 6133 6133 6133 6133 6133 4599 0 0 0 0 0 1711 1752 1711 1672 1672 1672 1672 1672 0 1711 1752 1711 1599 1672 1635 1635 1672 1672 1635 1599 1599 0 0 8177 0 0 0 0 8177 7359 7359 6690 5661 3679 3345 3504 3873 0 0 0 4599 3504 6690 6690 5661 4906 4599 4599 4599 4906 5256 3679 3199 0 1752 1635 0 0 0 0 0 4906 0 5661 4329 3873 3873 4088 4088 3679 3345 3345 3199 3199 3199 3199 3345 3345 3345 3504 3504 3504 3504 3504 3504 3199 3199 3345 3199 3199 2943 2943 2830 2374 2453 2453 1989 1936 1936 1887 1839 1635 1752 1752 1711 1839 1795 1795 1711 1672 1711 1635 1635 1635 1533 1565 1565 1599 1565 1599 1533 1565 1533 1599 1533 1443 1471 1471 1415 1362 1314 1291 1291 1268 1291 1226 1168 1206 1291 1291 1291 1291 1314 1314 1314 1338 1362 1362 0 0 0 0 0 333 0 0 0 0 1247 1247 0 1247 1268 1268 0 0 0 0 185 0 0 0 0 0 0 0 0 0 0 0 0 0 0
    0 0 0 0 0 0 0 0 0 0 0 0 0 0 0 0 0 0 0 0 0 0 0 0 0 0 0 0 0 0 0 0 0 0 0 0 0 0 0 0 0 0 0 0 0 0 0 0 0 0 0 0 0 0 0 0 0 0 0 0 0 0 0 0 0 0 0 0 0 0 0 0 0 0 0 0 0 0 0 0 0 0 0 0 0 0 0 0 0 0 0 0 0 0 0 0 0 0 0 0 0 0 0 0 0 0 0 0 0 0 0 0 0 0 0 0 0 0 0 8177 8177 7359 6690 6690 6133 6133 6133 5661 6133 6133 6133 4906 0 0 0 1936 1752 1672 1711 1672 1635 1635 1599 1599 1599 1635 1672 1672 1672 1565 1635 1599 1635 1635 1635 1635 1599 1565 1795 0 6133 6133 7359 8177 8177 7359 6690 7359 6133 4088 3199 2943 2830 0 0 0 0 3066 3066 5661 7359 6133 5256 4599 4906 4906 5256 0 0 0 1711 1672 1599 1599 0 1711 0 0 3873 3679 4906 3873 3504 3679 3873 4088 3679 3345 3345 3345 3199 3345 3199 3345 3345 3345 3345 3345 3345 3345 3504 3504 3199 3199 3199 3066 3066 2830 2725 2537 2102 2164 2164 1887 1887 1839 1795 1839 1711 1795 1752 1752 1839 1795 1795 1711 1672 1711 1635 1599 1635 1533 1565 1565 1599 1599 1599 1533 1565 1565 1599 1533 1443 1471 1471 1415 1362 1314 1314 1291 1268 1291 1247 1168 1226 1291 1291 1291 1291 1314 1314 1338 1338 1362 1338 0 0 0 0 0 334 0 0 0 0 0 1247 1247 1247 1247 1247 1247 1247 0 0 185 0 0 0 0 0 0 0 1268 0 0 0 0 0 0
    0 0 0 0 0 0 0 0 0 0 0 0 0 0 0 0 0 0 0 0 0 0 0 0 0 0 0 0 0 0 0 0 0 0 0 0 0 0 0 0 0 0 0 0 0 0 0 0 0 0 0 0 0 0 0 0 0 0 0 0 0 0 0 0 0 0 0 0 0 0 0 0 0 0 0 0 0 0 0 0 0 0 0 0 0 8177 0 0 0 0 0 0 0 0 0 0 0 0 0 0 0 0 0 0 0 0 0 0 0 0 0 0 0 0 0 0 0 0 0 8177 8177 6690 6133 6690 6133 6133 6133 5661 6133 6133 6690 5661 0 0 0 1795 1672 1565 1599 1599 1565 1533 1533 1501 1501 1501 1599 1635 1635 1533 1635 1599 1599 1635 1635 1635 1565 1565 1752 0 4906 5256 6690 7359 7359 7359 6690 6690 5661 3504 2943 2725 2628 0 2725 2537 2453 2628 2830 0 0 6690 5661 5256 5661 0 0 0 0 0 1672 1672 1599 1565 1635 1635 1711 0 3066 3199 3679 3504 3066 3345 3679 3873 3679 3504 3504 3504 3345 3504 3345 3504 3504 3345 3504 3345 3199 3345 3504 3504 3199 3199 3199 2943 2943 2725 2628 2374 2044 2044 2044 1887 1887 1795 1795 1839 1752 1795 1752 1752 1839 1795 1795 1711 1711 1672 1599 1599 1599 1533 1533 1533 1599 1599 1565 1533 1565 1565 1635 1533 1471 1471 1471 1415 1388 1338 1314 1291 1291 1291 1226 1187 1226 1291 1291 1291 1291 1291 1291 1314 1338 1338 0 0 0 0 0 0 0 0 0 0 0 0 1226 0 1226 1247 1247 1247 1247 0 0 185 181 182 0 0 0 0 0 1268 0 0 0 0 0 0
    0 0 0 0 0 0 0 0 0 0 0 0 0 0 0 0 0 0 0 0 0 0 0 0 0 0 0 0 0 0 0 0 0 0 0 0 0 0 0 0 0 0 0 0 0 0 0 0 0 0 0 0 0 0 0 0 0 0 0 0 0 0 0 0 0 0 0 0 0 0 0 0 0 0 0 0 0 0 0 0 0 0 0 0 0 8177 0 0 0 0 0 0 0 0 0 0 0 0 0 0 0 0 0 0 0 0 0 0 0 0 0 0 0 0 0 0 0 0 0 0 8177 6690 6133 6690 5661 6133 5661 5661 5661 5661 6133 0 0 0 1936 1711 1599 1533 1533 1533 1533 1501 1501 1471 1471 1471 1565 1599 1599 1533 1635 1599 1599 1599 1635 1599 1565 1565 1752 1672 4906 5661 6690 7359 7359 7359 6690 6690 4906 3066 2830 2628 2453 2537 2537 2374 2230 2374 2725 0 0 6690 6133 5661 0 0 0 0 0 0 1672 1635 1599 1533 1599 1599 1752 2102 2830 2943 3345 3066 2943 3504 3504 3873 3873 3679 3504 3679 3504 3504 3345 3504 3504 3345 3345 3199 3066 3345 3345 3345 3199 3066 3066 2725 2830 2453 2164 2044 1887 1936 1936 1839 1839 1795 1752 1795 1839 1839 1795 1795 1839 1795 1795 1752 1711 1672 1599 1599 1599 1533 1533 1533 1599 1599 1565 1533 1565 1565 1635 1533 1501 1471 1471 1415 1388 1314 1314 1291 1268 1291 1226 1187 1226 1268 1268 1268 1268 1291 1291 1291 1314 1291 1314 0 0 0 0 0 0 0 0 0 0 0 1226 0 1226 0 1226 1226 1226 0 0 185 0 0 1291 1291 1291 0 0 1268 0 0 0 0 0 0
    0 0 0 0 0 0 0 0 0 0 0 0 0 0 0 0 0 0 0 0 0 0 0 0 0 0 0 0 0 0 0 0 0 0 0 0 0 0 0 0 0 0 0 0 0 0 0 0 0 0 0 0 0 0 0 0 0 0 0 0 0 0 0 0 0 0 0 0 0 0 0 0 0 0 0 0 0 0 0 0 0 0 0 0 0 0 0 0 0 0 0 0 0 0 0 0 0 0 0 0 0 0 0 0 0 0 0 0 0 0 0 0 0 0 0 0 0 0 0 0 0 6690 6133 6690 5661 6133 5661 5256 5256 5256 5661 0 0 1362 1752 1635 1533 1501 1501 1471 1471 1471 1443 1443 1443 1443 1501 1533 1565 1533 1635 1599 1599 1599 1635 1599 1565 1565 1711 1635 5256 6133 7359 7359 7359 7359 6690 6690 4599 2943 2628 2453 2299 2230 2299 2102 1989 2102 2725 0 0 8177 6690 7359 0 0 0 0 0 0 1635 1599 1565 1533 1599 1599 1752 2537 2943 3066 3199 3066 3066 3873 3679 3873 4088 3873 3679 3679 3504 3504 3345 3345 3504 3345 3199 3066 2943 3199 3066 3066 3066 2830 2725 2299 2453 2102 1936 1887 1839 1887 1887 1795 1839 1795 1795 1795 1839 1839 1795 1752 1795 1752 1795 1711 1711 1672 1599 1599 1635 1533 1565 1533 1599 1599 1565 1533 1565 1533 1635 1533 1533 1471 1471 1415 1362 1314 1314 1291 1268 1291 1247 1206 1247 1291 1268 1268 1268 1268 1268 1291 1291 1291 1291 0 0 333 0 0 0 0 0 0 0 0 1226 1247 1226 1247 1226 1226 1226 0 0 0 0 0 1291 1291 1291 0 0 1291 0 0 0 0 0 0
    0 0 0 0 0 0 0 0 0 0 0 0 0 0 0 0 0 0 0 0 0 0 0 0 0 0 0 0 0 0 0 0 0 0 0 0 0 0 0 0 0 0 0 0 0 0 0 0 0 0 0 0 0 0 0 0 0 0 0 0 0 0 0 0 0 0 0 0 0 0 0 0 0 0 0 0 0 0 0 0 0 0 0 0 0 0 0 0 0 0 0 0 0 0 0 0 0 0 0 0 0 0 0 0 0 0 0 0 0 0 0 0 0 0 0 0 0 0 0 0 0 0 6133 6690 6133 6133 5661 5256 5256 4906 0 0 0 1388 1599 1565 1501 1443 1471 1471 1471 1471 1443 1471 1471 1443 1501 1501 1533 1533 1565 1565 1565 1565 1599 1599 1533 1565 1672 1635 6133 6133 7359 8177 7359 7359 6690 6690 4329 2725 2537 2299 2230 2102 2164 1989 1936 1936 2537 0 0 8177 8177 8177 0 0 0 0 0 0 1599 0 1533 1501 1565 1565 1752 2830 3066 3066 3066 2943 3199 4329 4088 4088 4329 4088 3873 3873 3679 3679 3345 3504 3504 3345 3199 2943 2830 3066 2830 2830 2725 2453 2299 1989 2102 1989 1839 1839 1795 1839 1839 1795 1795 1711 1711 1711 1795 1795 1752 1711 1752 1711 1752 1672 1711 1672 1599 1599 1635 1501 1565 1533 1599 1599 1599 1565 1599 1565 1672 1565 1565 1501 1471 1415 1362 1338 1314 1291 1268 1291 1247 1226 1247 1314 1291 1268 1268 1291 1291 1291 1291 1291 1291 0 0 0 0 0 0 0 1338 1338 1314 1268 1226 1247 1226 1247 1226 1226 1226 1247 1247 0 0 0 1291 1291 1291 1314 0 0 0 0 0 0 0 0
    0 0 0 0 0 0 0 0 0 0 0 0 0 0 0 0 0 0 0 0 0 0 0 0 0 0 0 0 0 0 0 0 0 0 0 0 0 0 0 0 0 0 0 0 0 0 0 0 0 0 0 0 0 0 0 0 0 0 0 0 0 0 0 0 0 0 0 0 0 0 0 0 0 0 0 0 0 0 0 0 0 0 0 0 0 0 0 0 0 0 0 0 0 0 0 0 0 0 0 0 0 0 0 0 0 0 0 0 0 0 0 0 0 0 0 0 0 0 0 0 0 0 6690 0 6690 6690 6690 6133 5661 5256 0 0 0 1362 1501 1501 1471 1415 1471 1471 1443 1471 1443 1471 1471 1443 1501 1471 1471 1501 1533 1533 1501 1501 1565 1565 1533 1533 1672 1599 6133 6690 8177 8177 7359 7359 6690 6690 4329 2725 2537 2299 2230 2044 2102 1936 1887 1839 0 0 0 0 8177 0 0 0 0 0 0 0 0 0 1533 1471 1533 1471 1752 2230 2830 2830 2943 2943 3199 5256 4599 4599 4906 4329 4088 4088 3873 3679 3345 3504 3504 3345 3199 2830 2537 2628 2102 1936 1936 0 0 0 0 1887 1752 1711 1752 1795 1752 1711 1711 1672 1635 1672 1711 1752 1711 1672 1711 1711 1752 1711 1711 1672 1599 1599 1635 1533 1565 1533 1599 1599 1599 1565 1565 1565 1672 1565 1565 1501 1471 1415 1388 1338 1314 1291 1268 1268 1226 1226 1247 1314 1291 1291 1291 1291 1291 1291 1291 1291 1291 1291 0 0 1314 1314 1291 1291 1314 1314 1291 1247 1206 1226 1226 1247 1226 1226 1226 1226 1247 1291 1247 1291 1314 1291 1291 1314 1314 1314 0 0 0 0 0 0
    0 0 0 0 0 0 0 0 0 0 0 0 0 0 0 0 0 0 0 0 0 0 0 0 0 0 0 0 0 0 0 0 0 0 0 0 0 0 0 0 0 0 0 0 0 0 0 0 0 0 0 0 0 0 0 0 0 0 0 0 0 0 0 0 0 0 0 0 0 0 0 0 0 0 0 0 0 0 0 0 0 0 0 0 0 0 0 0 0 0 0 0 0 0 0 0 0 0 0 0 0 0 0 0 0 0 0 0 0 0 0 0 0 0 8177 0 0 0 0 0 0 0 0 0 7359 0 0 6690 6133 5661 0 0 0 1362 1471 1565 1471 1415 1471 1471 1443 1471 1443 1443 1415 1415 1443 1443 1443 1471 1501 1501 1471 1471 1533 1533 1501 1533 1635 1501 6690 6690 8177 8177 7359 7359 7359 8177 4906 2725 2453 2230 2230 1989 1989 1887 1887 1839 0 0 0 0 0 0 0 0 0 0 0 0 0 0 0 1471 1501 1443 0 0 2725 2830 2830 2830 3066 5661 5661 5256 5256 4906 4599 4329 4329 3873 3504 3504 3504 3345 3066 2725 2299 0 0 0 0 0 144 142 142 143 0 1672 1795 1839 1752 1672 1672 1599 1501 1565 0 1711 1635 1599 1672 1711 1752 1711 1672 1635 1565 1565 1599 1501 1565 1501 1565 1599 1599 1533 1565 1533 1635 1533 1533 1471 1443 1388 1388 1338 1338 1268 1247 1268 1226 1226 1247 1314 1291 1291 1291 1291 1291 1291 1291 1291 1268 1314 1314 1338 1314 1314 1291 1314 1314 1314 1291 1226 1206 1226 1226 1226 1206 1247 1226 1247 1247 1291 1268 1291 1314 1291 1291 1314 1314 1314 0 0 0 0 0 0
    0 0 0 0 0 0 0 0 0 0 0 0 0 0 0 0 0 0 0 0 0 0 0 0 0 0 0 0 0 0 0 0 0 0 0 0 0 0 0 0 0 0 0 0 0 0 0 0 0 0 0 0 0 0 0 0 0 0 0 0 0 0 0 0 0 0 0 0 0 0 0 0 0 0 0 0 0 0 0 0 0 0 0 0 0 0 0 0 0 0 0 0 0 0 0 0 0 0 0 0 0 0 0 0 0 0 0 0 0 0 0 0 0 0 8177 0 0 0 0 0 0 0 0 0 8177 0 0 0 6690 0 0 0 0 1388 1533 1599 1501 1415 1471 1471 1415 1443 1415 1415 1388 1388 1443 1415 1415 1443 1501 1501 1471 1471 1533 1533 1501 1501 1635 1501 6690 7359 8177 8177 7359 8177 7359 8177 4599 2537 2299 2044 2102 1936 1887 1839 1839 1839 1936 0 0 0 0 7359 0 0 0 0 0 0 0 0 1533 1471 1501 1443 0 0 2628 2725 2725 2725 3066 6133 5661 5256 5661 5256 4906 4599 4599 4088 3345 3504 3504 3199 2943 2628 0 0 0 0 0 144 143 142 142 142 0 0 1711 0 1635 1533 1533 1471 1415 1443 0 1565 1565 0 0 1635 1711 1635 1635 1635 1565 1533 1599 1471 1533 1471 1565 1599 1565 1501 1533 1501 1599 1501 1533 1443 1415 1388 1388 1338 1338 1268 1247 1268 1226 1247 1247 1314 1291 1291 1291 1291 1291 1314 1291 1291 1291 1314 1314 1338 1338 1338 1314 1314 1314 1314 1291 1226 1187 1206 1206 1226 1206 1226 1226 1226 1247 1291 1268 1291 1291 1291 1291 1314 1314 1314 1291 0 0 0 0 0
    0 0 0 0 0 0 0 0 0 0 0 0 0 0 0 0 0 0 0 0 0 0 0 0 0 0 0 0 0 0 0 0 0 0 0 0 0 0 0 0 0 0 0 0 0 0 0 0 0 0 0 0 0 0 0 0 0 0 0 0 0 0 0 0 0 0 0 0 0 0 0 0 0 0 0 0 0 0 0 0 0 0 0 0 0 0 0 0 0 0 0 0 0 0 0 0 0 0 0 0 0 0 0 0 0 0 8177 8177 8177 8177 8177 8177 8177 0 8177 0 0 0 0 0 0 0 0 0 0 0 0 0 0 0 0 0 0 0 0 1635 1501 1443 1471 1471 1415 1415 1415 1388 1388 1388 1415 1388 1415 1443 1501 1501 1471 1471 1565 1533 1533 1533 1635 1501 7359 7359 8177 8177 7359 8177 8177 8177 4329 2628 2299 1989 2102 1936 1839 1795 1795 1839 1936 0 0 0 0 0 0 0 623 629 0 0 0 0 1533 1443 1471 1415 0 0 2044 2628 2628 2453 3066 0 6133 5256 5661 5661 5256 4906 4906 4329 3504 3504 3679 3199 2943 2537 0 273 265 263 0 144 143 142 142 143 141 0 0 1752 1599 1443 1443 1415 1338 0 0 0 0 0 1471 1533 1635 1565 1565 1565 1533 1501 1565 1443 1501 1471 1565 1599 1565 1471 1533 1471 1599 1501 1533 1443 1415 1388 1362 1338 1338 1268 1247 1247 1226 1226 1247 1314 1291 1291 1291 1291 1291 1291 1291 1291 1291 1314 1314 1338 1314 1314 1291 1291 1291 1291 1268 1206 1187 1206 1206 1206 1187 1206 1206 1226 1226 1268 1226 1268 1291 1291 1291 1314 1314 1314 1291 0 0 0 0 0
    0 0 0 0 0 0 0 0 0 0 0 0 0 0 0 0 0 0 0 0 0 0 0 0 0 0 0 0 0 0 0 0 0 0 0 0 0 0 0 0 0 0 0 0 0 0 0 0 0 0 0 0 0 0 0 0 0 0 0 0 0 0 0 0 0 0 0 0 0 0 0 0 0 0 0 0 0 0 0 0 0 0 0 0 0 0 0 0 0 0 0 0 0 0 0 0 0 0 0 0 0 0 0 0 0 0 8177 7359 8177 7359 8177 7359 8177 8177 7359 0 0 0 0 0 0 0 0 0 0 0 0 0 0 0 0 0 0 0 0 1599 1501 1443 1471 1471 1388 1415 1415 1388 1388 1388 1415 1388 1415 1443 1533 1565 1501 1501 1565 1533 1565 1533 1635 1443 8177 8177 0 8177 7359 8177 8177 8177 4329 2628 2102 1936 2044 1936 1887 1795 1795 1839 1936 0 0 0 0 0 0 0 0 0 0 0 0 0 1501 1415 1471 1415 1471 1599 1752 1711 1936 1839 2830 0 0 5256 6133 6133 5661 5256 5256 4599 3504 3504 3679 3345 3066 2453 0 0 268 265 262 0 144 142 142 0 0 0 0 0 1501 1388 1388 1388 0 0 0 0 0 1362 1362 1415 1533 1471 1501 1501 1471 1471 1501 1415 1443 1415 1471 1533 1533 1443 1471 1443 1565 1501 1533 1471 1415 1388 1362 1338 1338 1268 1226 1226 1226 1226 1226 1291 1268 1291 1268 1291 1291 1291 1268 1291 1291 1314 1314 1314 1291 1268 1247 1268 1247 1247 1226 1206 1187 1206 1226 1206 1187 1226 1187 1206 1226 1247 1226 1247 1268 1268 1291 1314 1314 1314 1291 0 0 0 0 0
    0 0 0 0 0 0 0 0 0 0 0 0 0 0 0 0 0 0 0 0 0 0 0 0 0 0 0 0 0 0 0 0 0 0 0 0 0 0 0 0 0 0 0 0 0 0 0 0 0 0 0 0 0 0 0 0 0 0 0 0 0 0 0 0 0 0 0 0 0 0 0 0 0 0 0 0 0 0 0 0 0 0 0 0 0 0 0 0 0 0 0 0 0 0 0 0 0 0 0 0 0 0 0 0 0 0 7359 6690 7359 7359 7359 6690 7359 8177 7359 0 0 0 0 0 0 0 0 0 0 0 0 0 0 0 0 0 0 1471 1565 1599 1501 1443 1501 1471 1415 1415 1415 1388 1388 1415 1415 1388 1415 1443 1501 1565 1501 1501 1565 1565 1565 1599 1672 1565 7359 7359 6690 6690 5256 6133 7359 8177 3679 2453 2044 1887 2044 1989 1887 0 1795 1839 1936 1936 0 2299 0 0 0 0 0 0 0 0 1635 1565 1501 1388 1443 1388 1443 1533 1672 1533 1672 1711 2453 0 0 0 0 0 5661 5256 5661 4906 3679 3679 3873 3504 3066 2374 1936 0 0 267 263 0 144 143 142 0 0 0 0 0 1415 1362 1362 1362 1149 0 0 0 0 0 0 0 0 1415 1388 1388 1415 0 0 1388 0 0 0 0 0 1415 1415 1388 1501 1471 1471 1443 1415 1388 1362 1362 1338 1268 1247 1247 1226 1226 1226 1291 1268 1291 1291 1291 1291 0 1291 1291 1291 1338 1314 1291 1268 1226 1226 1226 1226 1226 1206 1187 1187 1206 1226 1226 1206 1226 1206 1226 1226 1226 1187 1206 1247 1226 1247 1268 1291 1291 1314 0 0 0 0 0
    0 0 0 0 0 0 0 0 0 0 0 0 0 0 0 0 0 0 0 0 0 0 0 0 0 0 0 0 0 0 0 0 0 0 0 0 0 0 0 0 0 0 0 0 0 0 0 0 0 0 0 0 0 0 0 0 0 0 0 0 0 0 0 0 0 0 0 0 0 0 0 0 0 0 0 0 0 0 0 8177 0 0 0 0 0 0 0 0 0 0 0 0 0 0 0 0 0 0 0 0 0 0 0 0 0 0 6690 6133 6690 6690 7359 6133 6690 0 6690 0 0 0 0 0 0 0 0 0 0 0 0 0 0 0 0 0 0 1501 1599 1599 1501 1471 1533 1501 1415 1443 1443 1388 1415 1415 1415 1362 1415 1443 1501 1565 1533 1501 1533 1599 1599 1599 1711 1752 4599 3679 3504 3199 2943 3345 3679 3345 3066 2299 1936 1839 1989 0 0 0 1795 1795 0 0 0 1989 1989 0 0 0 0 0 0 0 1599 1533 1471 1362 1388 1362 1388 1443 1565 1338 1388 1501 1635 0 0 0 3679 4906 5661 5661 6133 5661 4088 4088 4088 3873 3199 2453 1936 0 0 0 0 0 0 0 0 0 0 0 0 1839 1388 1338 1338 1338 1082 994 886 836 886 0 0 799 750 721 750 728 0 0 608 0 608 598 608 608 570 1388 1388 1362 1443 1443 1443 1443 1415 1388 1362 1362 1338 1291 1247 1247 1226 1226 1226 1314 1291 1291 1291 1314 1314 0 1291 1314 1291 1338 1314 1268 1247 1206 1206 1226 1206 1206 1206 1187 1187 1206 1226 1226 1206 1226 1206 1226 1226 1226 1187 1187 1226 1206 1226 1247 1268 1268 1291 0 0 0 0 0
    0 0 0 0 0 0 0 0 0 0 0 0 0 0 0 0 0 0 0 0 0 0 0 0 0 0 0 0 0 0 0 0 0 0 0 0 0 0 0 0 0 0 0 0 0 0 0 0 0 0 0 0 0 0 0 0 0 0 0 0 0 0 0 0 0 0 0 0 0 0 0 0 0 0 0 0 0 0 0 2830 2628 2628 0 2537 0 0 0 0 0 0 0 0 0 0 0 0 0 0 0 0 0 0 0 0 0 0 6133 5256 5661 0 0 0 0 0 0 0 0 0 0 0 0 0 0 0 0 0 0 0 0 0 0 0 0 1533 1599 1599 1533 1471 1533 1501 1415 1443 1443 1388 1415 1415 1415 1388 1415 1443 1501 1599 1565 1533 1533 1565 1599 1599 1752 1839 3199 2830 2725 2628 2537 2628 2725 2628 2725 2164 1936 1839 1936 0 0 0 1839 1839 1887 1887 1989 1936 1936 0 0 0 0 1752 1752 0 1565 1501 1443 1338 1362 1338 1338 1362 1415 1291 1291 1388 1388 1314 0 0 0 3873 4906 4906 6133 6133 4599 4329 4088 3873 3199 2374 0 1795 0 0 0 90 0 90 0 0 0 0 0 1887 1388 1362 1362 1388 1168 981 876 826 836 808 791 791 743 728 758 721 714 707 629 681 618 603 623 618 593 0 1388 1338 1362 1388 1388 1388 1388 1362 1362 1338 1314 1268 1226 1247 1206 1226 1226 1314 1291 1314 1314 1338 1314 1338 1291 1362 1314 1362 1291 1268 1247 1206 1206 1206 1206 1187 1187 1187 1168 1187 1226 1206 1206 1226 1187 1206 1206 1206 1168 1187 1226 1206 1226 1247 1226 1247 1268 0 0 0 0 0
    0 0 0 0 0 0 0 0 0 0 0 0 0 0 0 0 0 0 0 0 0 0 0 0 0 0 0 0 0 0 0 0 0 0 0 0 0 0 0 0 0 0 0 0 0 0 0 0 0 0 0 0 0 0 0 0 0 0 0 0 0 0 0 0 0 0 0 0 0 0 0 0 0 8177 0 0 0 2725 0 2453 2374 2299 2299 2299 2299 0 0 0 0 0 0 0 0 0 0 0 0 0 0 0 0 0 0 0 0 0 5661 0 0 0 0 0 0 304 0 311 311 313 0 0 0 209 210 0 211 212 0 214 0 0 0 0 1711 1565 1599 1599 1533 1471 1533 1471 1443 1443 1443 1388 1415 1443 1443 1388 1443 1443 1533 1599 1599 1565 1565 1565 1599 1599 1752 1839 2164 2374 2374 2374 2230 2374 2453 2374 2537 2102 1936 1839 1936 0 0 0 1795 1839 1887 1887 1989 1936 1887 0 1989 0 1795 1711 1672 1501 1533 1471 1415 1338 1338 1314 1314 1338 1362 1268 1268 1338 1314 1291 1247 0 1268 0 3873 4088 0 6133 4599 4088 4088 3873 3199 2299 0 1672 1362 0 0 89 0 90 90 0 0 0 0 1936 1415 1388 1388 1471 1314 0 897 836 817 791 774 782 750 743 774 735 728 714 700 700 687 639 657 634 613 0 1362 1314 1314 1338 1338 1362 1362 1338 1338 1314 1291 1247 1206 1226 1206 1226 1206 1314 1268 1291 1291 1314 1314 1314 1291 1362 1314 1362 1268 1247 1226 1187 1187 1187 1187 1187 1168 1187 1168 1187 1226 1206 1206 1206 1187 1206 1206 1206 1168 1168 1226 1206 1226 1226 1206 1226 1247 0 0 0 0 0
    0 0 0 0 0 0 0 0 0 0 0 0 0 0 0 0 0 0 0 0 0 0 0 0 0 0 0 0 0 0 0 0 0 0 0 0 0 0 0 0 0 0 0 0 0 0 0 0 0 0 0 0 0 0 0 0 0 0 0 0 0 0 0 0 0 0 0 0 0 0 0 0 0 7359 0 0 2830 2374 0 2230 2164 2102 2044 2102 2044 1989 0 0 0 0 0 0 1752 1752 0 0 0 0 0 0 0 0 0 0 0 0 4329 0 0 0 0 3679 0 305 0 0 0 0 0 0 207 208 209 210 211 212 212 213 213 0 0 0 1711 1565 1599 1599 1501 1471 1533 1471 1443 1415 1443 1415 1415 1443 1443 1415 1501 1443 1565 1635 1672 1599 1565 1565 1599 1599 1711 1839 1936 2044 2102 2164 2102 2230 2230 2164 2299 2102 1936 1839 1887 1936 1839 1795 1795 1839 1887 1887 1936 1887 1887 0 1887 1795 1711 1635 1565 1443 1501 1443 1362 1314 1314 1291 1291 0 1314 1247 1247 1314 1291 1268 1206 1247 1206 1187 0 0 0 0 4088 3873 3873 3873 3199 2299 0 0 1206 1036 0 89 0 0 0 0 0 0 0 0 0 1415 1443 1599 1362 1247 0 865 836 799 782 791 766 774 791 774 743 721 707 700 700 675 675 657 634 0 0 1247 1247 0 1291 1338 1338 1314 1314 1314 1291 1247 1168 1226 1206 1206 1206 1291 1268 1291 1291 1314 1291 1291 1291 1338 1314 1362 1247 1226 1187 1168 1187 1187 1187 1168 1168 1187 1168 1187 1226 1206 1206 1226 1187 1206 1226 1226 1168 1187 1226 1187 1187 1226 1187 1187 1206 0 0 0 0 0
    0 0 0 0 0 0 0 0 0 0 0 0 0 0 0 0 0 0 0 0 0 0 0 0 0 0 0 0 0 0 0 0 0 0 0 0 0 0 0 0 0 0 0 0 0 0 0 0 0 0 0 0 0 0 0 0 0 0 0 0 0 0 0 0 0 0 0 0 0 0 0 0 0 0 0 0 2374 1989 2044 1989 1989 1936 1936 1989 1989 1887 0 0 0 0 0 1752 1752 1752 1795 1887 2102 2164 0 0 0 0 0 0 0 0 3345 0 0 2725 3066 2943 0 0 0 0 0 0 0 0 205 206 207 209 209 210 211 212 212 0 0 1752 1711 1599 1565 1599 1501 1471 1501 1443 1443 1415 1443 1415 1415 1471 1471 1443 1599 1471 1565 1635 1672 1599 1533 1565 1565 1599 1711 1887 1936 1989 2044 2102 2102 2164 2164 2102 2164 2044 1936 1839 1887 1887 1839 1752 1795 1795 1839 1887 1887 1839 1839 1752 1795 1752 1635 1533 1471 1415 1471 1388 0 1291 0 0 0 0 0 1247 1226 1314 1291 1268 1187 1206 1168 1149 1115 0 0 0 0 6133 3679 3873 3199 1936 0 1206 1036 1022 886 89 0 0 0 0 0 0 0 0 0 1443 1471 1672 1533 1362 0 0 855 808 782 782 758 782 799 782 750 721 707 700 694 687 681 669 651 0 0 0 0 0 1247 1314 1291 1291 1268 1268 0 1168 1082 1132 1149 1187 1187 1247 1247 1268 1268 1291 1291 1291 1291 1291 1338 1362 1168 1206 1168 1149 1168 1168 1168 1168 1168 1187 1168 1206 1247 1247 1247 1226 1206 1226 1226 1226 1168 1187 1226 1187 1187 1206 1168 1187 1206 0 0 0 0 0
    0 0 0 0 0 0 0 0 0 0 0 0 0 0 0 0 0 0 0 0 0 0 0 0 0 0 0 0 0 0 0 0 0 0 0 0 0 0 0 0 0 0 0 0 0 0 0 0 0 0 0 0 0 0 0 0 0 0 0 0 0 0 0 0 0 0 0 0 0 1887 1795 1752 1887 2164 0 0 1936 1839 1887 1887 1887 1839 1839 1887 1887 1839 1839 1795 0 0 1795 1752 1752 1752 1795 1839 1887 1887 2044 2164 0 0 0 0 0 0 2725 2374 2374 2230 2374 2374 2044 0 0 0 0 0 0 0 0 0 0 0 0 0 0 0 0 0 0 1711 1672 1599 1533 1565 1471 1471 1471 1443 1443 1415 1443 1443 1415 1501 1501 1501 1635 1533 1565 1635 1672 1599 1501 1533 1565 1599 1711 1887 1936 1989 1989 2044 2044 2044 2044 2044 2044 1989 1887 1839 1839 1839 1839 1711 1752 1752 1795 1839 1839 1795 1752 1635 1711 1635 1533 1471 1415 1388 1443 1362 0 1291 0 0 0 0 0 1226 1206 1291 1268 1247 1149 1149 1132 1132 1098 1149 1206 0 0 0 0 3679 3199 1936 0 1168 994 994 876 0 0 0 0 0 0 0 0 0 0 1501 1565 1752 1711 1501 1471 1362 0 0 799 808 774 808 826 817 758 707 700 687 694 687 687 675 663 675 681 0 0 0 0 0 1247 1187 0 0 663 0 0 0 1082 1051 1098 1187 1206 1268 1268 1291 1268 1268 1268 1291 1338 1338 1115 1187 1149 1132 1149 1168 1168 1149 1168 1206 1168 1226 1268 1268 1268 1268 1247 1247 1247 1247 1187 1206 1247 1206 1206 1226 1187 1187 1226 0 0 0 0 0
    0 0 0 0 0 0 0 0 0 0 0 0 0 0 0 0 0 0 0 0 0 0 0 0 0 0 0 0 0 0 0 0 0 0 0 0 0 0 0 0 0 0 0 0 0 0 0 0 0 0 0 0 0 0 0 0 0 0 0 0 0 0 0 0 0 0 0 0 0 1887 1839 1795 1887 1887 1839 1795 1795 1752 1795 1795 1839 1795 1795 1839 1839 1839 1839 1795 1795 1795 1795 1752 1752 1752 1795 1795 1795 1795 1839 1839 2044 1936 0 1989 1989 2044 2044 1989 1989 1936 1936 1936 1839 1839 1795 0 1795 1795 1795 1795 1795 1795 1887 1936 1887 1936 1887 1887 1887 1795 1752 1711 1635 1599 1501 1533 1443 1443 1471 1415 1443 1415 1415 1443 1415 1533 1533 1533 1672 1533 1565 1635 1635 1599 1501 1533 1565 1599 1711 1887 1936 1936 1989 1989 1989 1989 1989 1989 1989 1936 1887 1839 1839 1839 1795 1672 1711 1711 1752 1795 1795 1752 1752 1599 1672 1565 1471 1443 1415 1388 1415 1362 0 1291 0 0 0 0 0 1206 1206 1291 1268 1268 1168 1115 1132 1115 1098 1115 1149 1187 1149 1226 0 3504 3199 1887 0 1168 981 981 865 0 0 0 0 0 0 0 0 0 0 1599 1635 1752 1752 1672 1599 1471 1388 1362 0 0 799 0 981 845 774 700 694 681 687 681 681 675 669 681 687 0 0 0 0 0 0 0 645 623 645 681 707 0 0 0 0 0 1149 1247 1247 1268 1268 1268 1268 1291 1338 1338 1098 1168 1132 1132 1149 1168 1168 1149 1168 1206 1187 1226 1268 1291 1291 1291 1291 1291 1291 1268 1226 1268 1247 1226 1226 1247 1206 1206 1247 0 0 0 0 0
    0 0 0 0 0 0 0 0 0 0 0 0 0 0 0 0 0 0 0 0 0 0 0 0 0 0 0 0 0 0 0 0 0 0 0 0 0 0 0 0 0 0 0 0 0 0 0 0 0 0 0 0 0 0 0 0 0 0 0 0 0 0 0 0 0 0 0 0 0 1887 1839 1839 1839 1887 1839 1795 1795 1795 1795 1795 1795 1795 1795 1795 1839 1795 1795 1795 1795 1752 1752 1711 1711 1711 1752 1752 1795 1752 1795 1795 1887 1839 1839 1839 1839 1887 1887 1887 1887 1887 1839 1839 1795 1795 1752 1752 1752 1752 1752 1795 1752 1752 1839 1839 1839 1887 1839 1839 1839 1795 1752 1711 1672 1599 1501 1533 1443 1443 1471 1415 1471 1443 1443 1471 1471 1565 1565 1565 1672 1533 1565 1635 1635 1599 1471 1501 1565 1599 1752 1887 1936 1936 1936 1989 1936 1989 1936 1936 1936 1887 1839 1839 1795 1795 1795 1672 1711 1711 1752 1752 1752 1711 1711 1599 1635 1501 1443 1415 1415 1388 1388 1338 1268 0 0 230 0 0 0 1226 1226 1314 1291 1291 1206 1115 1115 1098 1082 1098 1098 1115 1098 1149 1268 1247 0 1599 1291 1098 943 968 865 0 0 0 0 0 0 0 132 0 133 1599 1672 1752 1839 1752 1711 1635 1533 1443 1338 1362 0 1051 994 845 774 707 700 681 687 681 687 681 675 681 687 0 120 121 121 0 0 0 629 623 645 669 687 681 681 657 629 613 0 0 0 0 1247 1226 1247 0 1338 1338 1082 1168 1132 1149 1168 1168 1168 1168 1168 1206 1187 1226 1268 1291 1291 1291 1291 1291 1314 1291 1268 1314 1268 1247 1247 1247 1226 1206 1226 0 0 0 0 0
    0 0 0 0 0 0 0 0 0 0 0 0 0 0 0 0 0 0 0 0 0 0 0 0 0 0 0 0 0 0 0 0 0 0 0 0 0 0 0 0 0 0 0 0 0 0 0 0 0 0 0 0 0 0 0 0 0 0 0 0 0 0 0 0 0 0 0 0 0 1887 1887 1839 1887 1887 1839 1839 1839 1795 1795 1795 1795 1795 1752 1795 1795 1795 1795 1752 1752 1752 1752 1711 1752 1752 1752 1752 1795 1752 1795 1795 1887 1839 1839 1839 1839 1839 1839 1839 1839 1839 1839 1839 1752 1752 1711 1752 1752 1752 1752 1752 1752 1752 1795 1795 1795 1839 1839 1839 1795 1752 1752 1711 1635 1635 1501 1501 1471 1443 1471 1415 1471 1471 1443 1471 1471 1565 1565 1565 1672 1533 1533 1635 1635 1599 1471 1501 1533 1599 1752 1839 1936 1936 1936 1936 1936 1989 1936 1936 1936 1839 1795 1795 1752 1795 1752 1635 1711 1711 1711 1752 1711 1711 1672 1565 1599 1471 1415 1415 1415 1388 1388 1338 1268 1291 0 0 0 0 0 1206 1226 1338 1291 1314 1247 1115 1149 1132 1098 1115 1098 1115 1098 1149 1247 1187 1226 1443 1314 0 919 943 855 0 799 0 0 131 0 0 0 0 0 1839 1795 1839 1887 1795 1795 1752 1711 1599 1415 1415 1268 1082 1008 855 758 700 700 681 687 681 687 681 681 681 694 0 0 120 121 0 0 651 623 623 639 657 675 669 681 651 618 608 603 584 579 561 0 0 0 0 1291 1338 1051 1149 1115 1149 1168 1168 1168 1149 1149 1226 1187 1226 1268 1291 1291 1291 1291 1291 1291 1338 1314 1362 1314 1291 1268 1268 1247 1247 1247 0 0 0 0 0
    0 0 0 0 0 0 0 0 0 0 0 0 0 0 0 0 0 0 0 0 0 0 0 0 0 0 0 0 0 0 0 0 0 0 0 0 0 0 0 0 0 0 0 0 0 0 0 0 0 0 0 0 0 0 0 0 0 0 0 0 0 0 0 0 0 0 0 0 0 1839 1839 1839 1839 1839 1839 1839 1795 1795 1752 1752 1711 1711 1711 1711 1752 1752 1752 1752 1752 1752 1752 1711 1752 1752 1795 1795 1795 1795 1795 1795 1839 1839 1795 1795 1795 1795 1795 1795 1795 1795 1795 1795 1752 1711 1711 1752 1752 1752 1752 1752 1752 1752 1752 1795 1752 1795 1795 1795 1795 1752 1752 1711 1599 1635 1501 1471 1471 1443 1471 1415 1471 1471 1443 1471 1471 1533 1565 1565 1672 1501 1533 1599 1599 1599 1471 1501 1533 1599 1711 1795 1887 1887 1887 1936 1936 1936 1936 1936 1887 1839 1795 1795 1752 1752 1752 1599 1672 1672 1711 1711 1711 1672 1672 1565 1565 1471 1415 1415 1415 1415 1415 1338 0 0 1268 0 0 0 1206 1226 1226 1388 1362 1362 1291 1115 1168 1149 1098 1115 1098 1115 1115 1149 1247 1206 1206 1362 1226 994 919 943 855 758 799 799 0 131 132 0 0 0 0 1839 1887 1839 1887 1839 1839 1795 1752 1635 1443 1415 1291 1149 1022 855 758 0 700 675 687 681 687 681 681 681 694 681 0 0 0 0 629 634 618 618 634 634 663 663 681 651 623 608 608 593 593 574 549 545 566 570 541 553 0 1098 1082 1132 1168 1168 1168 1149 1149 1226 1187 1247 1268 1291 1291 1291 1314 1291 1291 1362 1314 1362 1338 1314 1291 1291 1268 1268 1247 0 0 0 0 0
    0 0 0 0 0 0 0 0 0 0 0 0 0 0 0 0 0 0 0 0 0 0 0 0 0 0 0 0 0 0 0 0 0 0 0 0 0 0 0 0 0 0 0 0 0 0 0 0 0 0 0 0 0 0 0 0 0 0 0 0 0 0 0 0 0 0 0 0 0 1839 1839 1839 1839 1839 1795 1795 1795 1752 1711 1711 1672 1711 1711 1672 1752 1711 1711 1752 1752 1752 1752 1711 1752 1752 1795 1795 1795 1795 1795 1795 1795 1752 1752 1752 1752 1752 1752 1752 1752 1752 1752 1752 1711 1672 1672 1711 1711 1711 1711 1711 1711 1711 1752 1752 1752 1752 1752 1752 1752 1752 1752 1711 1565 1599 1471 1471 1471 1443 1471 1415 1471 1471 1443 1471 1471 1533 1565 1533 1672 1471 1533 1565 1565 1565 1471 1533 1533 1599 1711 1795 1839 1839 1887 1887 1887 1936 1887 1887 1839 1795 1795 1795 1752 1752 1711 1599 1672 1672 1672 1711 1672 1672 1672 1565 1533 1471 1415 1415 1415 1415 1415 1362 1268 0 1268 1268 1268 1226 1226 1247 1247 1471 1415 1388 1314 1115 1187 1168 1115 1115 1098 1115 1115 1149 1247 1187 1187 1362 1168 897 908 931 855 758 799 799 0 132 0 0 0 0 0 1839 1887 1839 1887 1887 1887 1839 1795 1711 1471 1415 1314 1291 1168 0 0 0 0 0 681 681 681 681 675 681 694 681 0 0 0 0 618 623 613 608 618 618 639 634 681 657 623 608 613 598 598 588 574 570 584 584 553 557 561 545 0 0 1149 1168 1168 1149 1168 1226 1187 1247 1268 1291 1314 1314 1338 1314 1314 1388 1338 1362 1338 1338 1314 1314 1291 1291 1291 0 0 0 0 0
    0 0 0 0 0 0 0 0 0 0 0 0 0 0 0 0 0 0 0 0 0 0 0 0 0 0 0 0 0 0 0 0 0 0 0 0 0 0 0 0 0 0 0 0 0 0 0 0 0 0 0 0 0 0 0 0 0 0 0 0 0 0 0 0 0 0 0 0 0 1839 1839 1795 1839 1795 1795 1795 1752 1752 1711 1711 1635 1672 1672 1672 1711 1711 1711 1711 1711 1752 1711 1711 1752 1752 1752 1752 1795 1752 1795 1752 1752 1711 1672 1672 1672 1711 1711 1711 1711 1752 1711 1672 1672 1635 1635 1672 1672 1672 1672 1672 1672 1711 1711 1752 1711 1752 1752 1752 1752 1752 1752 1711 1533 1599 1471 1443 1471 1415 1443 1415 1471 1471 1443 1471 1471 1501 1565 1533 1635 1471 1471 1565 1533 1565 1471 1501 1533 1599 1672 1795 1795 1839 1839 1887 1887 1887 1839 1839 1839 1795 1795 1795 1752 1711 1711 1599 1672 1672 1672 1711 1672 1635 1635 1565 1501 1471 1443 1443 1443 1415 1443 1362 1291 0 1268 1268 1268 1247 1247 1247 1247 1501 1415 1415 1338 1115 1187 1168 1115 1132 1115 1115 0 1132 1268 1206 1206 1415 1206 865 908 931 845 750 799 799 0 0 0 0 0 0 955 1839 1839 1795 1839 1795 1839 1795 1795 1752 1565 1471 1338 1314 1268 0 0 0 0 0 681 675 681 681 675 681 687 675 0 119 0 0 608 613 603 603 608 608 623 0 700 675 629 613 618 608 608 598 588 579 584 588 557 557 553 541 537 553 0 0 1149 1132 1132 1226 1206 1247 1268 1314 1314 1338 1338 1314 1314 1362 1338 1362 1314 1314 0 1314 1314 1314 1291 0 0 0 0 0
    0 0 0 0 0 0 0 0 0 0 0 0 0 0 0 0 0 0 0 0 0 0 0 0 0 0 0 0 0 0 0 0 0 0 0 0 0 0 0 0 0 0 0 0 0 0 0 0 0 0 0 0 0 0 0 0 0 0 0 0 0 0 0 0 0 0 0 0 0 1795 1795 1795 1795 1795 1752 1752 1711 1711 1711 1711 1635 1672 1672 1635 1672 1672 1672 1635 1672 1711 1711 1711 1795 1752 1795 1752 1795 1752 1795 1711 1711 1635 1635 1635 1635 1635 1672 1635 1711 1711 1635 1635 1635 1599 1599 1635 1635 1635 1635 1635 1635 1672 1635 1711 1711 1711 1752 1752 1752 1752 1711 1711 1533 1599 1501 1443 1471 1443 1443 1415 1471 1471 1415 1443 1471 1471 1565 1501 1599 1471 1471 1533 1533 1565 1471 1533 1533 1635 1672 1752 1752 1795 1795 1839 1839 1839 1839 1839 1795 1795 1752 1752 1752 1711 1711 1599 1672 1672 1672 1711 1672 1599 1635 1565 1471 1501 1443 1443 1443 1415 1443 1362 1291 0 1268 1268 1268 1247 1247 1247 1268 1471 1415 1415 1362 1149 1206 1206 1132 1149 1132 1132 1168 1168 1291 1247 1247 1443 1291 886 943 943 855 758 799 799 0 0 0 0 0 0 943 0 1752 1711 1752 1752 1752 1752 1752 1752 1635 1471 1314 1247 0 845 743 687 694 663 681 675 681 681 681 681 687 675 687 0 0 0 608 608 603 598 603 603 618 0 714 687 634 613 618 608 608 598 588 579 579 574 557 557 557 545 545 553 549 533 0 0 0 1206 1187 0 1268 1314 1314 0 1314 0 0 0 0 0 0 0 0 0 1314 1314 1291 0 0 0 0 0
    0 0 0 0 0 0 0 0 0 0 0 0 0 0 0 0 0 0 0 0 0 0 0 0 0 0 0 0 0 0 0 0 0 0 0 0 0 0 0 0 0 0 0 0 0 0 0 0 0 0 0 0 0 0 0 0 0 0 0 0 0 0 0 0 0 0 0 0 0 1795 1795 1795 1795 1795 1752 1752 1711 1711 1672 1672 1635 1672 1635 1635 1672 1672 1672 1672 1711 1711 1752 1752 1795 1752 1795 1752 1795 1752 1752 1672 1672 1635 1635 1599 1599 1599 1635 1635 1672 1672 1565 1565 1599 1565 1565 1599 1599 1599 1599 1635 1635 1672 1599 1711 1672 1711 1711 1711 1711 1711 1672 1752 1501 1599 1533 1415 1501 1443 1471 1415 1471 1501 1443 1443 1471 1471 1533 1501 1565 1443 1471 1501 1501 1565 1471 1533 1533 1635 1672 1672 1711 1752 1752 1795 1795 1795 1795 1795 1795 1752 1752 1752 1752 1711 1711 1635 1672 1635 1635 1672 1672 1565 1599 1533 1443 1471 1443 1415 1415 1415 1415 1362 1291 0 1268 1247 1268 1247 1247 1247 1247 1471 1415 1388 1338 1149 1206 1206 1149 1149 1132 1149 1168 1168 1291 1291 1291 1471 1314 886 943 955 855 766 799 799 0 0 0 0 799 799 943 0 1711 1635 1711 1672 1711 1711 1711 1711 1672 1471 1314 1051 908 826 728 687 694 663 675 675 681 681 681 681 687 669 681 0 0 0 0 603 598 593 603 598 608 0 721 700 669 618 618 603 608 603 593 579 574 570 553 553 557 545 549 557 553 541 545 566 545 541 0 533 518 518 0 561 537 549 541 541 0 529 521 533 529 0 0 1314 1268 0 0 0 0 0
    0 0 0 0 0 0 0 0 0 0 0 0 0 0 0 0 0 0 0 0 0 0 0 0 0 0 0 0 0 0 0 0 0 0 0 0 0 0 0 0 0 0 0 0 0 0 0 0 0 0 0 0 0 0 0 0 0 0 0 0 0 0 0 0 0 0 0 0 0 1795 1795 1752 1795 1752 1752 1752 1711 1711 1635 1672 1599 1635 1635 1599 1635 1635 1672 1672 1711 1711 1752 1752 1795 1752 1795 1752 1795 1711 1711 1635 1599 1599 1599 1565 1599 1599 1635 1599 1635 1635 1533 1533 1565 1565 1565 1565 1599 1565 1565 1635 1635 1672 1565 1672 1635 1672 1672 1672 1672 1672 1635 1711 1471 1599 1565 1415 1501 1471 1471 1443 1501 1501 1471 1443 1501 1471 1533 1471 1565 1443 1501 1501 1533 1565 1501 1533 1533 1635 1672 1635 1711 1711 1752 1795 1795 1795 1752 1795 1795 1752 1752 1752 1752 1672 1672 1635 1635 1599 1599 1635 1599 1533 1565 1501 1415 1443 1415 1415 1415 1388 1415 1362 1291 0 1268 1247 1268 1247 1247 1247 1268 1443 1388 1362 1338 1149 1206 1187 1149 1149 1132 1132 1168 1168 1291 1291 1291 1471 1338 0 931 955 855 766 799 799 0 0 0 0 808 799 919 0 1672 1599 1635 1635 1635 1635 1635 1635 1635 1443 1314 1051 0 799 714 687 694 657 675 669 681 681 675 681 681 663 669 119 0 0 0 0 598 593 603 603 618 0 721 700 687 629 618 603 603 598 584 570 566 561 549 549 557 549 561 579 561 553 561 579 561 553 549 533 521 521 0 541 525 529 525 525 521 521 518 529 529 525 0 0 1247 0 0 0 0 0
    0 0 0 0 0 0 0 0 0 0 0 0 0 0 0 0 0 0 0 0 0 0 0 0 0 0 0 0 0 0 0 0 0 0 0 0 0 0 0 0 0 0 0 0 0 0 0 0 0 0 0 0 0 0 0 0 0 0 0 0 0 0 0 0 0 0 0 0 0 1752 1752 1752 1752 1752 1752 1711 1672 1672 1599 1635 1599 1599 1599 1565 1599 1599 1635 1599 1635 1635 1672 1711 1752 1711 1752 1711 1752 1672 1672 1565 1565 1565 1565 1533 1565 1565 1599 1599 1599 1635 1501 1533 1565 1533 1565 1565 1599 1599 1599 1635 1672 1635 1565 1635 1599 1599 1635 1635 1635 1599 1599 1672 1443 1565 1565 1415 1533 1471 1501 1471 1533 1533 1501 1471 1533 1471 1533 1471 1533 1443 1501 1501 1501 1533 1501 1533 1533 1635 1635 1635 1672 1711 1711 1752 1752 1795 1752 1752 1752 1711 1711 1752 1711 1635 1635 1599 1565 1599 1565 1565 1533 1471 1533 1501 1388 1443 1415 1415 1415 1388 1388 1338 1291 1314 1268 1247 1268 1247 1268 1247 1268 1415 1362 1338 1314 1149 1206 1187 1149 1149 1132 1149 1187 1168 1291 1291 1268 1471 1314 0 943 968 855 766 799 808 0 0 0 0 799 799 897 0 1672 1565 1599 1599 1599 1599 1565 1533 1565 1415 1314 1066 0 0 694 675 687 645 669 663 675 675 675 681 675 657 663 0 0 0 0 0 0 593 0 598 608 0 735 714 707 657 629 608 608 598 574 557 557 549 545 549 561 553 579 598 579 561 574 584 566 557 549 533 525 525 541 541 525 529 504 500 497 500 500 511 521 493 490 0 0 0 0 0 0 0
    0 0 0 0 0 0 0 0 0 0 0 0 0 0 0 0 0 0 0 0 0 0 0 0 0 0 0 0 0 0 0 0 0 0 0 0 0 0 0 0 0 0 0 0 0 0 0 0 0 0 0 0 0 0 0 0 0 0 0 0 0 0 0 0 0 0 0 0 0 1711 1711 1711 1711 1672 1672 1599 1565 1599 1533 1599 1533 1565 1533 1501 1565 1533 1565 1533 1565 1565 1635 1672 1672 1672 1672 1635 1711 1599 1635 1501 1501 1533 1533 1501 1501 1501 1533 1533 1565 1565 1443 1471 1533 1501 1533 1565 1599 1599 1565 1635 1635 1599 1501 1599 1565 1565 1565 1565 1599 1533 1533 1599 1388 1501 1533 1415 1501 1471 1501 1443 1501 1533 1471 1471 1533 1443 1501 1471 1501 1443 1501 1501 1501 1533 1533 1533 1533 1599 1635 1635 1635 1672 1635 1711 1711 1711 1672 1672 1672 1672 1672 1672 1672 1635 1565 1565 1533 1565 1501 1471 1471 1443 1471 1471 1388 1443 1415 1415 1415 1388 1388 1338 1291 1291 1268 1247 1247 1247 1247 1247 1268 1388 1362 1314 1314 1132 1206 1187 1149 1149 1149 1149 1187 1187 1291 1291 1291 1501 1338 1098 955 968 855 758 799 808 817 0 0 0 799 799 897 886 1635 1565 1565 1533 1599 1565 1501 1471 1501 1388 1314 1132 0 0 0 663 675 634 663 657 669 675 669 681 669 651 657 0 0 0 598 598 593 593 0 593 603 598 766 0 0 629 634 645 629 0 566 545 545 537 541 541 553 553 588 603 588 570 579 579 561 553 545 533 525 525 545 541 529 533 518 507 497 493 487 487 497 477 477 471 474 0 0 0 0 0
    0 0 0 0 0 0 0 0 0 0 0 0 0 0 0 0 0 0 0 0 0 0 0 0 0 0 0 0 0 0 0 0 0 0 0 0 0 0 0 0 0 0 0 0 0 0 0 0 0 0 0 0 0 0 0 0 0 0 0 0 0 0 0 0 0 0 0 0 0 1635 1672 1635 1635 1565 1533 1415 1415 1443 1443 1471 1415 1443 1415 1415 1501 1471 1501 1443 1443 1443 0 1565 1501 1501 1471 1443 1533 1443 1471 1415 1443 1501 1501 1471 1471 1471 1443 1443 1471 1443 1388 1415 1471 1471 1471 1533 1533 1565 1533 1599 1565 1471 1415 1501 1471 1471 1471 1501 1501 1471 1443 1501 1362 1443 1471 1388 1471 1443 1471 1443 1471 1501 1443 1443 1501 1415 1471 1443 1471 1443 1471 1471 1471 1533 1501 1501 1533 1599 1565 1599 1565 1565 1533 1599 1599 1599 1565 1565 1565 1565 1599 1599 1599 1533 1471 1471 1443 1443 1388 1388 1388 1362 1388 1415 1362 1415 1388 1415 1388 1362 1362 1338 1268 1291 1247 1226 1247 1247 1247 1226 1247 1362 1338 1291 1291 1115 1187 1187 1149 1149 1149 1149 1187 1168 1291 1268 1268 1415 1314 1082 968 981 855 758 799 808 817 817 0 0 0 0 931 919 1533 1471 1501 1471 1501 1501 1443 1443 1443 1362 1314 1226 0 0 0 0 0 0 657 651 669 675 669 681 669 651 657 0 0 0 593 593 588 588 0 588 603 0 791 1082 1051 0 0 0 0 0 0 0 537 533 537 537 553 557 598 608 598 588 593 588 566 557 549 537 529 529 541 533 533 537 521 514 504 493 487 484 490 471 468 468 471 0 0 0 0 0
    0 0 0 0 0 0 0 0 0 0 0 0 0 0 0 0 0 0 0 0 0 0 0 0 0 0 0 0 0 0 0 0 0 0 0 0 0 0 0 0 0 0 0 0 0 0 0 0 0 0 0 0 0 0 0 0 0 0 0 0 0 0 0 0 0 0 0 0 0 1533 1565 1533 1533 1415 1415 1314 1338 1338 1362 1362 1338 1338 1338 1314 1388 1388 1388 1338 0 1338 0 1362 1314 1338 1338 1314 1388 1362 1388 1388 1415 1471 1471 1443 1443 1415 1388 1388 1388 1362 1338 1362 1415 1415 1443 1471 1501 1533 1471 1533 1471 1388 1362 1415 1388 1388 1388 1415 1415 1388 1388 1388 1338 1388 1415 1362 1415 1415 1415 1415 1443 1443 1415 1388 1443 1388 1415 1415 1443 1443 1443 1471 1471 1501 1501 1471 1501 1565 1501 1565 1501 1501 1415 1471 1471 1501 1443 1471 1501 1501 1501 1533 1501 1471 1415 1415 1388 1362 1314 1338 1338 1338 1338 1362 1338 1362 1362 1388 1362 1338 1338 1314 1268 1291 1247 1226 1247 1247 1247 1247 1247 1338 1338 1247 1268 1098 1168 1168 1149 1149 1149 1149 1187 1168 1291 1268 1247 1362 1268 1098 1022 994 865 766 808 808 826 0 0 0 0 0 968 955 1415 1388 1415 1415 1415 1443 1415 1415 1415 1338 1338 1247 0 269 0 0 0 0 651 651 663 675 669 681 669 657 657 0 0 0 593 593 588 588 0 588 603 0 0 1149 1132 1187 1187 1187 1268 0 0 0 0 0 0 537 541 557 613 618 608 603 598 579 566 557 549 533 529 525 537 525 521 529 511 504 497 493 484 481 487 474 471 471 468 0 0 0 0 0
    0 0 0 0 0 0 0 0 0 0 0 0 0 0 0 0 0 0 0 0 0 0 0 0 0 0 0 0 0 0 0 0 0 0 0 0 0 0 0 0 0 0 0 0 0 0 0 0 0 0 0 0 0 0 0 0 0 0 0 0 0 0 0 0 0 0 0 0 0 1443 1471 1415 1415 1362 1362 1268 1291 1291 1314 1314 1291 1291 1268 1268 1291 1314 1314 1291 1291 1291 1247 1291 1268 1291 1291 1291 1338 1338 1338 1362 1388 1415 1443 1415 1415 1388 1338 1338 1338 1314 1314 1338 1362 1362 1388 1443 1471 1501 1443 1471 1388 1314 1314 1338 1338 1338 1338 1362 1362 1362 1362 1362 1314 1362 1362 1338 1388 1362 1388 1388 1415 1415 1388 1362 1388 1362 1415 1415 1415 1415 1415 1443 1443 1501 1471 1443 1443 1533 1443 1501 1471 1443 1388 1388 1415 1415 1388 1415 1443 1443 1443 1471 1443 1415 1362 1338 1338 1314 1268 1291 1291 1291 1291 1291 1291 1314 1291 1338 1338 1314 1314 1291 1268 1268 1247 1247 1247 1247 1247 1226 1247 1314 1291 1206 1247 1082 1168 1168 1132 1149 1149 1149 1187 1187 1291 1268 1247 1338 1268 1098 1022 1008 876 791 0 0 0 0 0 0 0 0 981 981 1338 1362 1362 1388 1388 1388 1362 1388 1388 1338 1314 1206 1066 0 0 0 0 623 657 657 669 675 675 681 669 657 663 0 0 0 593 593 593 0 0 0 0 0 0 1187 1187 1226 1226 1247 1291 1247 0 0 0 0 0 0 0 0 681 663 629 623 613 584 557 545 537 533 529 525 533 521 521 529 514 504 500 497 490 487 490 481 477 474 474 0 0 0 0 0
    0 0 0 0 0 0 0 0 0 0 0 0 0 0 0 0 0 0 0 0 0 0 0 0 0 0 0 0 0 0 0 0 0 0 0 0 0 0 0 0 0 0 0 0 0 0 0 0 0 0 0 0 0 0 0 0 0 0 0 0 0 0 0 0 0 0 0 0 0 1362 1362 1362 1362 1338 1314 1226 1247 1247 1268 1268 1247 1247 1247 1247 1268 1268 1268 1268 1268 1268 1206 1268 1247 1247 1268 1268 1291 1291 1291 1338 1362 1388 1388 1388 1388 1362 1314 1314 1291 1291 1291 1314 1338 1338 1362 1388 1415 1443 1388 1415 1338 1268 1291 1291 1291 1314 1314 1314 1314 1314 1314 1314 1291 1314 1338 1314 1362 1338 1338 1362 1388 1362 1362 1338 1362 1338 1388 1388 1388 1415 1415 1415 1415 1471 1443 1415 1415 1471 1415 1415 1415 1388 1362 0 0 1388 1362 1362 1388 1388 1388 1388 1362 1338 1314 1291 1291 1291 1226 1268 1247 1247 1247 1268 1268 1268 1247 1314 1291 1268 1291 1268 1247 1268 1247 1226 1226 1226 1247 1226 1247 1291 1247 1187 1226 1082 1149 1149 1132 1132 1149 1149 1187 1168 1291 1226 1226 1291 1226 1082 1008 1008 886 0 0 0 0 0 0 0 0 0 1008 1008 1291 1314 1338 1362 1362 1362 1338 1338 1362 1291 1291 1168 1051 0 0 0 0 623 657 657 663 675 669 681 669 663 669 0 0 0 0 0 0 0 0 0 0 0 1132 1187 1206 1206 1226 1247 1268 1247 1226 1226 0 0 0 0 0 799 707 694 675 669 629 613 603 574 541 537 529 529 525 518 521 529 507 500 497 493 490 487 493 484 484 481 477 0 0 0 0 0
    0 0 0 0 0 0 0 0 0 0 0 0 0 0 0 0 0 0 0 0 0 0 0 0 0 0 0 0 0 0 0 0 0 0 0 0 0 0 0 0 0 0 0 0 0 0 0 0 0 0 0 0 0 0 0 0 0 0 0 0 0 0 0 0 0 0 0 0 0 1291 1291 1268 1314 1291 1314 1206 1226 1226 1226 1247 1226 1226 1206 1206 1247 1247 1247 1247 1247 1247 1187 1226 1226 1226 1247 1247 1247 1268 1268 1314 1338 1338 1338 1338 1314 1314 1247 1268 1247 1268 1268 1291 1291 1314 1338 1362 1362 1388 1338 1338 1268 1206 1247 1247 1247 1268 1268 1268 1291 1268 1291 1268 1247 1268 1291 1268 1314 1291 1291 1314 1338 1338 1338 1314 1338 1314 1362 1362 1362 1338 1338 1362 1338 1362 1338 1338 1338 1362 1338 1338 1291 1314 1314 0 0 1314 1314 1314 1338 1338 1314 1314 1291 1291 1268 1247 1268 1268 1206 1226 1226 1226 1226 1226 1226 1226 1206 1268 1247 1247 1247 1247 1247 1268 1247 1247 1226 1247 1247 1226 1247 1268 1187 1115 1187 1066 1132 1132 1115 1132 1132 1149 1187 1149 1268 1187 1187 1268 1206 1082 981 994 886 808 0 0 0 0 0 0 0 0 1008 994 1168 1247 1247 1268 1291 1314 1291 1291 1314 1268 1247 1168 1066 0 0 0 0 629 657 657 657 669 669 675 663 663 669 0 0 0 0 0 0 0 0 0 0 0 1132 1168 1187 1206 1206 1226 1247 1226 1226 1226 1187 1098 0 0 0 855 0 766 0 687 634 629 629 613 566 553 545 537 533 518 525 521 504 497 497 497 493 490 497 487 487 484 484 0 0 0 0 0
    0 0 0 0 0 0 0 0 0 0 0 0 0 0 0 0 0 0 0 0 0 0 0 0 0 0 0 0 0 0 0 0 0 0 0 0 0 0 0 0 0 0 0 0 0 0 0 0 0 0 0 0 0 0 0 0 0 0 0 0 0 0 0 0 0 0 0 0 0 1268 1226 1206 1247 1247 1291 1187 1206 1206 1206 1206 1206 1187 1187 1168 1206 1206 1187 1206 1206 1206 1149 1206 1187 1187 1226 1226 1226 1247 1268 1291 1314 1291 1291 1291 1268 1247 1168 1226 1206 1247 1247 1268 1268 1291 1291 1314 1314 1338 1268 1247 1226 1132 1206 1226 1206 1226 1226 1226 1247 1226 1247 1226 1206 1226 1226 1226 1247 1226 1247 1268 1268 1268 1268 1268 1268 1268 1291 1291 1291 1268 1247 1268 1247 1268 1268 1268 1268 1268 1291 1268 1247 1268 1268 1268 1268 1268 1268 1268 1268 1291 1268 1268 1268 1268 1247 1206 1247 1247 1187 1206 1206 1206 1206 1206 1206 1187 1187 1247 1226 1206 1226 1226 1247 1247 1247 1247 1226 1247 1247 1226 1206 1149 1082 1036 1098 1036 1098 1098 1098 1115 1132 1149 1168 1149 1247 1149 1168 1206 1132 1051 943 968 876 808 0 0 0 0 0 0 0 0 981 968 1036 1132 1115 1149 1132 1168 1132 1149 1226 1187 1168 1115 1051 0 0 0 0 629 663 663 651 669 669 675 657 663 669 618 0 0 0 0 0 0 0 0 0 0 1149 1168 1187 1206 1206 1206 1226 1206 1187 1206 1187 1115 1066 1036 1022 955 886 0 0 0 0 0 634 618 584 0 0 598 574 0 537 533 511 500 497 493 493 490 493 484 481 481 477 0 0 0 0 0
    0 0 0 0 0 0 0 0 0 0 0 0 0 0 0 0 0 0 0 0 0 0 0 0 0 0 0 0 0 0 0 0 0 0 0 0 0 0 0 0 0 0 0 0 0 0 0 0 0 0 0 0 0 0 0 0 0 0 0 0 0 0 0 0 0 0 0 0 0 1247 1187 1187 1226 1226 1247 1187 1187 1187 1187 1206 1187 1168 1168 1149 1187 1168 1149 1168 1149 1168 1132 1168 1149 1168 1206 1206 1226 1247 1247 1291 1291 1291 1291 1268 1226 1206 1132 1187 1187 1206 1206 1226 1206 1226 1226 1268 1226 1226 1149 1132 1149 1098 1168 1168 1168 1187 1187 1187 1206 1187 1206 1168 1168 1187 1187 1187 1206 1187 1206 1226 1206 1206 1226 1226 1226 1226 1247 1226 1226 1206 1187 1226 1206 1206 1226 1226 1247 1247 1268 1268 1226 1247 1247 1247 1247 1247 1247 1247 1247 1268 1247 1247 1247 1247 1226 1187 1206 1226 1149 1187 1187 1187 1168 1187 1206 1168 1168 1206 1206 1187 1187 1226 1206 1206 1226 1226 1206 1226 1206 1168 1115 1051 1022 968 1022 1022 1082 1066 1082 1098 1115 1132 1168 1132 1247 1115 1132 1168 1066 1022 908 943 865 826 836 836 0 0 836 0 0 0 968 955 1008 1066 1051 1051 1036 0 1036 1036 1098 1066 1082 1066 1022 0 0 681 687 634 663 663 651 663 669 675 657 663 675 623 0 0 0 0 0 0 0 0 0 0 1168 1149 1168 1187 1168 1206 1206 1168 1168 1168 1149 1115 1082 1051 1036 994 1008 994 943 0 0 0 0 0 0 0 0 0 0 0 588 545 514 500 493 490 490 484 484 484 481 477 477 0 0 0 0 0
    0 0 0 0 0 0 0 0 0 0 0 0 0 0 0 0 0 0 0 0 0 0 0 0 0 0 0 0 0 0 0 0 0 0 0 0 0 0 0 0 0 0 0 0 0 0 0 0 0 0 0 0 0 0 0 0 0 0 0 0 0 0 0 0 0 0 0 0 0 1247 1187 1168 1226 1206 1247 1168 1187 1187 1187 1187 1187 1168 1149 1149 1168 1168 1132 1149 1132 1149 1115 1149 1132 1149 1168 1187 1206 1247 1247 1291 1291 1291 1291 1268 1226 1206 1115 1168 1168 1187 1187 1187 1168 1206 1187 1206 1168 1149 1098 1082 1098 1082 1149 1149 1132 1149 1168 1187 1187 1149 1187 1149 1149 1168 1168 1168 1149 1149 1187 1187 1168 1149 1168 1168 1168 1187 1206 1168 1187 1168 1168 1206 1168 1187 1187 1206 1206 1226 1226 1226 1206 1226 1226 1247 1247 1247 1226 1226 1247 1247 1226 1226 1206 1206 1206 1168 1187 1187 1115 1149 1168 1168 1149 1149 1187 1149 1149 1187 1168 1149 1149 1187 1168 1168 1187 1187 1149 1187 1132 1082 1036 968 919 855 943 968 1051 1051 1066 1082 1098 1132 1149 1115 1247 1066 1066 1066 981 955 876 908 865 836 845 845 836 836 845 845 0 0 968 943 1008 1036 1022 1008 0 0 0 981 1008 994 1022 1022 943 0 0 700 700 639 669 669 651 663 669 675 657 663 675 623 639 0 0 0 0 0 0 0 0 0 1149 1098 1115 1149 1132 1168 1168 1132 1132 1132 1168 1115 1115 1098 1036 1008 1022 994 981 943 955 919 0 0 0 0 0 0 0 0 0 0 533 518 507 500 500 490 490 487 481 477 474 0 0 0 0 0
    0 0 0 0 0 0 0 0 0 0 0 0 0 0 0 0 0 0 0 0 0 0 0 0 0 0 0 0 0 0 0 0 0 0 0 0 0 0 0 0 0 0 0 0 0 0 0 0 0 0 0 0 0 0 0 0 0 0 0 0 0 0 0 0 0 0 0 0 0 1226 1187 1168 1206 1206 1226 1168 1168 1187 1168 1187 1187 1149 1149 1132 1168 1168 1132 1132 1132 1149 1115 1149 1132 1132 1149 1168 1187 1226 1226 1291 1268 0 1268 1268 1206 1187 1098 1168 1149 1168 1168 1168 1168 1187 1168 1187 1149 1132 1066 1066 1082 1066 1115 1115 1115 1132 1149 1168 1187 1149 1187 1132 1149 1168 1149 1149 1132 1115 1168 1168 1132 1115 1132 1132 1132 1149 1168 1132 1132 1149 1149 1168 1132 1149 1149 1168 1168 1187 1206 1206 1168 1206 1206 1206 1206 1226 1187 1206 1226 1226 1206 1206 1187 1187 1168 1132 1149 1149 1098 1132 1132 1149 1132 1132 1149 1115 1115 1168 1132 1115 1115 1168 1115 1115 1149 1149 1098 1149 1098 1036 981 876 855 836 876 897 1022 1022 1036 1066 1082 1098 1115 1098 1226 1036 1008 994 886 886 855 876 855 836 845 845 836 845 845 845 836 845 955 908 994 981 943 0 0 0 0 897 919 919 955 981 897 0 694 735 707 645 675 675 657 669 669 669 657 663 675 629 639 639 0 0 0 0 0 0 0 0 1132 1051 1066 1098 1098 1132 1115 1082 1082 1098 1132 1082 1115 1115 1022 994 1022 994 994 968 981 968 981 968 943 876 855 0 0 0 0 0 0 493 493 507 521 511 507 497 487 481 477 0 0 0 0 0
    0 0 0 0 0 0 0 0 0 0 0 0 0 0 0 0 0 0 0 0 0 0 0 0 0 0 0 0 0 0 0 0 0 0 0 0 0 0 0 0 0 0 0 0 0 0 0 0 0 0 0 0 0 0 0 0 0 0 0 0 0 0 0 0 0 0 0 0 0 1226 1187 1149 1206 1187 1206 1149 1149 1149 1132 1149 1149 1098 1098 1098 1132 1115 1098 1115 1115 1132 1098 1132 1115 1098 1132 1149 1149 1187 1168 1247 1206 0 1206 1168 1132 1149 1066 1132 1115 1149 1149 1168 1149 1168 1149 1149 1098 1082 1036 1036 1036 1036 1066 1066 1066 1082 1115 1149 1149 1115 1149 1098 1115 1132 1115 1115 1098 1082 1115 1115 1082 1066 1082 1082 1082 1082 1082 1036 1066 1098 1115 1132 1098 1098 1115 1115 1115 1132 1132 1132 1098 1149 1115 0 1098 1132 1098 1149 1168 1168 1149 1187 1149 1168 1132 1115 1132 1132 1082 1115 1132 1149 1115 1115 1132 1098 1098 1115 1082 1066 1066 1098 1066 1051 1066 1082 1051 1082 1051 1008 908 845 836 826 845 865 931 981 1008 1051 1066 1066 1082 1066 1226 1008 855 908 836 845 836 855 845 836 845 845 836 845 845 845 836 836 897 855 919 886 855 0 0 0 0 855 865 865 876 919 876 836 728 766 714 657 681 681 663 669 669 669 651 657 669 629 639 645 0 0 0 0 0 0 0 0 1066 886 1036 1051 1066 1066 1066 1051 1051 1066 1098 1051 1066 1066 1008 981 1008 994 981 943 968 943 955 919 919 865 0 0 0 0 0 0 0 487 484 493 507 500 518 514 493 0 477 0 0 0 0 0
    0 0 0 0 0 0 0 0 0 0 0 0 0 0 0 0 0 0 0 0 0 0 0 0 0 0 0 0 0 0 0 0 0 0 0 0 0 0 0 0 0 0 0 0 0 0 0 0 0 0 0 0 0 0 0 0 0 0 0 0 0 0 0 0 0 0 0 0 0 1206 1168 1132 1187 1168 1168 1115 1115 1098 1098 1098 1082 1036 1022 1036 1066 1022 1036 1082 1082 1098 1082 1098 1098 1082 1115 1098 1098 1115 1066 1149 0 0 0 1022 1051 1098 1051 1082 1066 1098 1098 1132 1098 1115 1082 1082 1051 1051 981 981 968 968 0 1008 1022 1036 1066 1115 1115 1082 1115 1066 1066 1066 1066 1066 1036 1051 1082 1066 1051 0 1036 1036 1036 1036 1022 981 1008 1036 1066 1082 1051 1051 1066 1066 1066 1066 1066 1066 0 1066 0 0 0 0 0 0 0 1082 0 1115 1082 1115 1098 1098 1098 1098 1066 1098 1115 1132 1082 1098 1098 1066 1066 1066 1051 1036 1022 1036 1008 1008 1008 1022 1008 1022 1022 968 876 836 826 826 826 836 845 897 919 1022 1036 1036 1051 1051 1187 981 826 836 826 826 826 845 836 836 836 845 836 836 845 845 836 836 865 836 855 845 836 826 0 826 826 845 845 845 845 876 855 836 743 774 721 669 687 681 669 675 675 675 651 657 669 629 639 645 0 0 0 0 0 0 681 0 968 817 897 968 1022 1022 1022 1008 1022 1022 1051 1022 1036 1022 981 955 968 955 943 876 897 865 855 855 876 845 845 836 0 799 0 0 0 0 481 0 504 0 0 0 0 0 0 0 0 0 0 0
    0 0 0 0 0 0 0 0 0 0 0 0 0 0 0 0 0 0 0 0 0 0 0 0 0 0 0 0 0 0 0 0 0 0 0 0 0 0 0 0 0 0 0 0 0 0 0 0 0 0 0 0 0 0 0 0 0 0 0 0 0 0 0 0 0 0 0 0 0 1206 1115 1115 1168 1132 1082 1066 1082 1051 1036 1051 1008 968 931 955 968 943 968 1036 1051 1082 1066 1082 1082 1066 1082 1066 0 0 0 981 968 0 0 955 955 1036 1022 0 1022 1051 1066 1082 1051 1066 1051 1022 0 1022 897 876 865 865 886 943 955 981 0 1051 1051 0 0 1022 1036 0 0 1022 994 0 1036 1022 0 968 994 994 968 994 955 908 931 897 1036 1036 1036 1022 1036 1051 1051 1036 1036 1036 0 0 0 0 132 131 0 0 0 0 0 0 1036 1066 1066 1082 1066 1051 1051 1066 1082 1098 1066 1066 1066 1051 1051 1036 1022 1008 994 994 981 981 968 994 968 994 981 919 855 826 826 817 826 817 826 845 855 931 994 1008 1022 1022 1066 931 826 836 826 826 826 836 836 826 836 836 836 836 836 836 836 836 845 826 845 845 836 826 826 826 826 836 845 845 836 855 845 836 750 774 721 675 687 687 669 675 675 675 651 657 669 629 639 645 0 0 0 0 0 0 681 0 897 817 845 836 865 865 876 876 886 886 994 931 968 968 931 886 886 897 886 845 855 817 808 782 845 836 836 817 836 836 817 0 0 0 0 0 471 0 0 0 0 0 0 0 0 0 0 0
    0 0 0 0 0 0 0 0 0 0 0 0 0 0 0 0 0 0 0 0 0 0 0 0 0 0 0 0 0 0 0 0 0 0 0 0 0 0 0 0 0 0 0 0 0 0 0 0 0 0 0 0 0 0 0 0 0 0 0 0 0 0 0 0 0 0 0 0 0 1168 1051 1066 1115 1082 1036 1022 1036 994 0 0 943 886 855 876 865 876 0 1022 1051 1082 1066 1066 1066 1051 1066 0 0 0 886 876 855 845 865 865 876 968 968 968 994 1008 1022 1036 1008 0 1008 955 955 943 865 845 836 836 845 865 876 886 897 0 994 0 0 1008 994 0 0 968 908 0 0 968 968 897 955 943 919 931 886 865 876 845 1008 1022 1022 0 0 1036 1036 1022 0 0 0 0 0 0 0 131 0 131 0 0 0 0 0 0 0 0 1022 1008 1008 1036 1051 1066 1051 1051 1051 1036 1036 1022 1008 981 968 968 968 955 943 981 955 968 955 886 845 817 826 817 817 808 817 826 826 836 886 886 908 897 955 865 817 826 826 826 826 826 826 826 826 826 826 826 826 836 826 836 836 826 836 836 826 826 826 826 826 836 836 836 836 845 836 817 743 758 721 681 687 687 669 675 675 669 651 651 669 629 645 645 623 0 0 0 0 0 681 0 865 808 826 817 826 817 817 817 808 808 817 817 845 855 855 836 836 845 845 817 817 791 774 735 766 782 799 791 799 817 817 791 791 774 743 0 0 0 0 0 0 0 0 0 0 0 0 0
    0 0 0 0 0 0 0 0 0 0 0 0 0 0 0 0 0 0 0 0 0 0 0 0 0 0 0 0 0 0 0 0 0 0 0 0 0 0 0 0 0 0 0 0 0 0 0 0 0 0 0 0 0 0 0 0 0 0 0 0 0 0 0 0 0 0 0 0 0 0 908 0 1051 1036 1008 981 994 943 876 876 886 855 836 845 0 0 0 0 0 1066 0 0 1051 0 1036 0 0 0 865 845 836 836 845 845 845 897 876 886 943 968 981 1008 968 0 994 886 908 886 845 826 826 817 826 845 845 845 855 0 931 955 0 981 955 0 0 886 855 0 0 908 897 855 908 897 876 876 855 845 855 836 981 931 981 0 0 1008 994 0 0 0 0 0 919 0 0 131 0 0 0 0 0 0 855 0 0 0 981 943 955 968 1022 1022 1022 1022 994 994 994 981 968 955 943 943 931 943 931 968 931 943 919 865 845 808 817 817 808 799 808 808 808 808 826 817 817 808 817 817 791 808 817 808 817 826 817 826 826 826 817 817 817 826 826 836 826 817 826 826 817 817 817 817 817 826 826 817 817 836 817 791 735 750 714 681 687 681 669 675 675 669 651 651 663 629 645 645 623 0 0 0 0 0 0 0 836 799 817 799 808 799 791 791 791 791 791 799 817 808 826 817 817 836 826 799 799 774 766 743 743 750 774 774 791 799 799 791 799 782 750 728 758 735 0 0 0 0 0 0 0 0 0 0
    0 0 0 0 0 0 0 0 0 0 0 0 0 0 0 0 0 0 0 0 0 0 0 0 0 0 0 0 0 0 0 0 0 0 0 0 0 0 0 0 0 0 0 0 0 0 0 0 0 0 0 0 0 0 0 0 0 0 0 0 0 0 0 0 0 0 0 0 0 808 845 0 0 981 943 908 919 876 845 836 845 836 826 826 817 0 0 0 0 0 0 0 0 0 0 845 0 855 845 836 826 826 826 836 836 865 845 845 897 919 943 968 919 0 943 855 865 845 836 808 817 808 817 0 826 836 836 845 876 886 908 943 876 855 845 845 845 0 0 865 855 836 865 865 855 855 836 836 845 826 919 845 876 0 0 943 919 931 919 0 0 0 886 845 0 0 817 0 826 0 0 0 0 826 897 897 943 897 919 919 968 968 981 968 919 943 919 931 919 908 908 908 908 931 908 943 908 908 886 855 836 799 808 808 799 774 791 791 791 791 808 791 791 782 799 791 766 791 799 799 808 808 808 817 817 817 808 808 808 808 817 817 799 782 808 808 799 808 808 808 808 817 808 808 808 826 808 782 743 743 714 681 687 681 669 669 669 669 651 651 669 629 645 645 629 629 0 0 0 0 687 629 836 799 808 799 808 799 791 791 791 782 791 799 808 799 808 808 808 817 808 782 782 774 766 750 743 750 774 782 799 799 799 782 782 774 743 728 743 728 0 0 0 0 0 0 0 0 0 0
    0 0 0 0 0 0 0 0 0 0 0 0 0 0 0 0 0 0 0 0 0 0 0 0 0 0 0 0 0 0 0 0 0 0 0 0 0 0 0 0 0 0 0 0 0 0 0 0 0 0 0 0 0 0 0 0 0 0 0 0 0 0 0 0 0 0 0 0 0 799 826 808 836 855 855 855 845 845 826 817 826 826 826 826 817 808 799 0 808 799 0 0 0 808 791 817 791 836 826 826 817 826 826 826 826 865 836 836 876 886 897 897 865 855 855 826 0 836 826 791 808 799 808 826 826 826 826 826 845 855 865 886 845 836 826 836 826 0 0 845 845 826 845 845 836 836 826 826 826 817 865 836 845 836 0 886 876 886 876 865 855 855 865 836 845 0 817 817 817 0 0 817 826 817 845 855 886 865 886 886 897 886 908 886 845 865 865 865 0 876 886 876 886 919 886 919 886 886 865 836 836 791 808 799 799 766 791 782 782 782 799 774 774 774 799 774 758 774 782 791 799 799 791 808 799 799 791 782 774 774 791 782 743 750 766 782 774 799 808 799 799 808 808 808 808 817 799 782 735 750 721 681 687 687 669 669 675 669 651 651 669 634 645 651 629 629 0 0 0 0 687 623 836 799 799 791 808 799 791 791 782 782 782 791 799 791 799 791 791 799 791 774 774 774 758 750 743 750 766 766 782 774 766 758 750 750 735 728 743 728 700 0 0 0 0 0 0 0 0 0
    0 0 0 0 0 0 0 0 0 0 0 0 0 0 0 0 0 0 0 0 0 0 0 0 0 0 0 0 0 0 0 0 0 0 0 0 0 0 0 0 0 0 0 0 0 0 0 0 0 0 0 0 0 0 0 0 0 0 0 0 0 0 0 0 0 0 0 0 0 791 808 791 817 817 826 826 826 826 817 808 817 817 817 817 808 808 799 808 799 791 750 774 728 758 758 799 766 817 817 826 817 817 826 826 826 0 826 826 845 855 855 855 836 817 826 808 0 826 826 774 808 791 808 817 817 817 817 817 836 836 855 855 836 817 817 826 817 826 826 826 826 808 836 826 826 826 817 817 817 817 845 826 826 826 845 865 855 865 855 855 845 845 855 836 836 0 817 817 817 0 817 817 817 808 826 826 855 855 865 865 865 855 855 845 817 836 0 845 0 0 0 855 855 886 865 886 865 865 845 826 826 782 808 808 799 766 791 791 782 782 799 766 766 766 791 766 758 766 774 774 791 782 782 799 782 774 774 766 750 750 766 750 728 743 758 774 774 799 808 791 799 808 799 808 799 808 782 766 728 743 721 681 687 687 669 669 675 669 651 651 663 634 645 651 629 0 0 0 0 0 681 608 0 817 799 782 799 791 791 791 782 774 774 782 782 782 782 782 774 791 782 766 774 782 758 758 735 743 743 743 750 750 735 735 735 743 721 728 743 728 700 0 0 0 0 0 0 0 0 0</data></depth>
</opencv_storage>
