<?xml version="1.0"?>
<opencv_storage>
<gps_time_stamp>26892</gps_time_stamp>
<gps_x>-6.1378545761108398e+000</gps_x>
<gps_y>8.1515938043594360e-001</gps_y>
<gps_z>-1.5005284547805786e+000</gps_z>
<image_time_stamp>14864</image_time_stamp>
<depth type_id="opencv-matrix">
  <rows>98</rows>
  <cols>320</cols>
  <dt>s</dt>
  <data>
    0 0 0 0 0 0 0 0 0 0 0 0 0 0 0 0 0 0 0 0 0 0 0 0 0 0 0 0 0 0 0 0 0 0 0 0 0 0 0 0 0 0 0 0 0 0 0 0 0 0 0 0 0 0 0 0 0 0 0 0 0 0 0 0 0 0 0 0 0 0 0 474 468 471 0 0 0 471 471 471 0 0 0 0 0 0 0 0 0 0 73 0 0 73 0 0 0 471 0 0 468 465 468 0 471 465 459 465 0 0 0 0 0 0 97 0 0 0 0 0 0 0 143 0 681 687 687 687 681 687 694 700 700 0 694 0 0 700 707 707 694 675 681 681 694 675 657 634 0 0 0 0 0 0 0 0 0 0 0 0 0 714 694 694 694 694 694 694 700 687 0 0 0 0 0 0 0 0 0 694 700 694 700 714 721 721 721 707 721 714 721 728 721 721 721 728 766 728 743 735 728 728 714 0 0 0 0 0 728 714 714 721 707 714 714 700 707 707 714 707 707 728 714 758 791 782 750 766 758 743 743 735 700 700 700 707 687 687 687 681 681 700 694 687 687 700 694 0 0 663 0 657 669 663 669 657 657 663 651 657 629 603 593 557 537 533 0 623 645 669 663 663 675 669 669 651 669 0 0 0 0 0 0 0 0 0 471 0 0 0 0 0 0 0 826 791 0 0 0 0 0 0 0 0 0 0 521 497 484 490 484 468 474 471 474 0 0 0 0 0
    0 0 0 0 0 0 0 0 0 0 0 0 0 0 0 0 0 0 0 0 0 0 0 0 0 0 0 0 0 0 0 0 0 0 0 0 0 0 0 0 0 0 0 0 0 0 0 0 0 0 0 0 0 0 0 0 0 0 0 0 0 0 0 0 0 0 0 0 0 0 0 474 471 471 471 471 468 471 471 471 468 0 0 0 0 0 0 0 0 73 73 73 73 0 0 0 468 468 465 468 468 468 468 465 471 468 465 471 0 0 0 0 0 0 0 0 0 0 0 0 0 0 0 0 0 0 0 694 687 694 700 707 0 0 0 0 0 0 0 0 0 0 0 669 694 0 0 0 0 0 0 0 0 0 0 0 0 0 0 0 0 0 0 0 0 0 0 0 0 0 0 0 0 0 0 0 4906 0 0 0 0 0 0 0 0 707 721 707 714 714 714 721 721 721 714 714 750 721 735 735 0 0 0 0 0 0 0 0 0 0 0 714 694 707 707 700 707 700 714 700 700 728 707 0 0 791 750 782 774 743 743 735 700 700 700 707 694 694 694 687 681 700 694 687 681 687 651 0 0 0 0 618 629 629 634 639 639 645 639 645 618 598 588 553 537 533 0 0 639 663 657 663 675 669 669 0 0 0 0 0 0 0 481 0 474 477 481 477 0 0 0 0 0 0 0 0 448 446 451 446 451 443 0 462 474 484 487 487 484 487 484 471 477 474 474 0 0 0 0 0
    0 0 0 0 0 0 0 0 0 0 0 0 0 0 0 0 0 0 0 0 0 0 0 0 0 0 0 0 0 0 0 0 0 0 0 0 0 0 0 0 0 0 0 0 0 0 0 0 0 0 0 0 0 0 0 0 0 0 0 0 0 0 0 0 0 0 0 0 0 474 468 474 471 474 474 474 471 474 474 474 471 468 0 0 0 0 0 0 0 0 73 74 0 0 468 465 465 468 465 468 468 468 468 468 474 474 474 474 474 0 0 0 0 0 0 0 0 0 0 0 0 0 0 0 0 0 0 0 0 0 0 0 0 0 484 490 0 0 0 0 0 0 0 669 714 0 0 0 0 0 0 0 0 0 0 0 0 0 0 0 0 0 0 126 126 0 0 77 0 0 0 0 0 0 0 0 5256 0 0 471 474 468 474 465 468 0 721 700 714 714 714 721 714 714 714 714 735 700 721 0 0 0 0 471 462 0 0 0 462 459 457 0 0 0 0 0 0 0 0 0 0 0 0 203 204 0 0 0 799 743 750 728 687 694 694 700 694 694 687 687 687 714 700 687 681 675 629 0 0 0 0 0 613 618 618 629 629 629 629 634 613 588 579 549 533 533 533 0 0 657 651 663 675 663 0 0 0 0 0 0 487 490 477 477 474 477 481 481 0 0 0 471 465 0 0 448 448 446 451 443 451 448 462 465 474 477 481 484 481 487 484 474 477 474 477 0 0 0 0 0
    0 0 0 0 0 0 0 0 0 0 0 0 0 0 0 0 0 0 0 0 0 0 0 0 0 0 0 0 0 0 0 0 0 0 0 0 0 0 0 0 0 0 0 0 0 0 0 0 0 0 0 0 0 0 0 0 0 0 0 0 0 0 0 0 0 0 0 0 0 474 465 471 471 474 474 474 474 474 474 474 471 471 0 0 0 0 0 0 0 0 0 0 0 0 468 465 465 468 465 468 468 468 471 465 471 474 474 474 474 0 471 0 0 0 0 0 0 0 0 0 0 465 0 471 468 474 0 0 0 0 0 0 0 481 484 487 484 487 481 484 481 481 484 0 0 477 477 481 0 0 0 0 0 0 0 0 474 471 477 477 0 0 0 0 126 0 0 0 0 0 0 0 0 0 0 0 0 0 474 471 474 471 474 468 471 0 0 0 714 707 714 721 714 707 700 707 714 681 0 0 0 481 474 468 459 465 471 471 462 462 462 454 468 468 0 146 0 0 0 0 0 0 0 0 0 0 0 0 0 0 0 0 0 687 687 694 694 694 694 687 687 721 700 687 669 0 608 0 0 0 0 0 0 0 0 623 623 618 618 623 608 579 566 545 529 533 529 533 0 651 645 663 675 0 0 0 0 0 500 487 487 487 481 481 477 481 484 481 477 0 477 474 474 0 0 457 459 457 454 446 457 454 462 468 474 477 481 484 481 484 484 474 477 477 474 0 0 0 0 0
    0 0 0 0 0 0 0 0 0 0 0 0 0 0 0 0 0 0 0 0 0 0 0 0 0 0 0 0 0 0 0 0 0 0 0 0 0 0 0 0 0 0 0 0 0 0 0 0 0 0 0 0 0 0 0 0 0 0 0 0 0 0 0 0 0 0 0 0 0 471 462 468 468 471 474 474 471 474 474 474 474 471 474 474 471 468 465 0 0 465 462 462 462 462 468 468 465 468 465 468 468 468 471 465 468 474 471 471 471 471 468 468 0 465 465 0 0 0 459 465 468 465 471 471 471 474 468 0 0 471 0 474 477 481 481 484 481 484 481 481 481 477 481 477 481 474 474 477 477 468 471 468 474 471 474 471 474 474 477 477 474 474 481 0 0 0 0 0 0 0 481 0 0 0 477 468 0 468 471 471 474 468 474 468 471 477 0 0 0 707 714 714 714 707 681 687 694 0 0 0 477 474 471 465 457 462 465 468 462 459 465 457 471 471 465 0 0 0 0 0 0 0 0 0 0 487 487 487 484 487 484 481 0 675 675 681 687 687 687 681 675 714 687 0 0 0 533 521 0 0 0 0 0 0 0 603 613 603 608 608 593 561 553 541 525 529 525 529 525 0 0 0 675 0 0 0 0 0 490 487 487 487 481 481 481 484 484 484 477 481 477 477 477 0 0 462 465 465 454 448 459 457 465 471 474 477 481 481 481 484 484 474 477 477 474 0 0 0 0 0
    0 0 0 0 0 0 0 0 0 0 0 0 0 0 0 0 0 0 0 0 0 0 0 0 0 0 0 0 0 0 0 0 0 0 0 0 0 0 0 0 0 0 0 0 0 0 0 0 0 0 0 0 0 0 0 0 0 0 0 0 0 0 0 0 0 0 0 0 0 471 462 468 468 471 471 474 471 474 474 474 474 474 474 474 471 471 468 468 471 468 465 465 462 462 468 465 462 465 465 468 468 468 471 465 468 474 471 471 468 471 471 471 474 471 468 468 465 468 465 468 468 465 468 471 471 474 468 474 474 474 474 477 481 481 481 484 484 484 481 481 481 477 481 477 481 471 471 474 474 465 471 468 474 474 474 474 474 474 481 477 477 474 481 481 0 0 487 0 0 481 477 471 474 474 477 471 474 471 474 471 474 471 474 471 474 477 484 481 0 0 0 707 0 0 0 0 0 0 481 471 474 471 468 465 459 465 468 468 462 465 471 462 471 471 468 471 471 474 471 0 0 0 0 493 481 487 487 487 484 487 484 477 0 0 675 681 694 694 687 681 675 721 0 0 487 504 500 500 493 493 0 0 0 0 0 541 579 566 566 574 570 549 0 533 511 525 518 521 518 0 525 529 0 0 0 0 0 490 484 484 487 487 481 481 481 484 484 484 477 477 477 477 474 471 474 462 468 468 459 451 462 459 468 474 474 477 477 481 481 481 484 474 477 477 474 0 0 0 0 0
    0 0 0 0 0 0 0 0 0 0 0 0 0 0 0 0 0 0 0 0 0 0 0 0 0 0 0 0 0 0 0 0 0 0 0 0 0 0 0 0 0 0 0 0 0 0 0 0 0 0 0 0 0 0 0 0 0 0 0 0 0 0 0 0 0 0 0 0 0 474 462 471 471 471 471 474 471 474 474 474 474 474 474 474 471 471 471 468 471 468 465 462 459 459 468 465 462 465 468 468 471 468 471 468 471 474 471 468 468 471 471 474 474 471 471 468 468 471 465 471 468 465 468 471 471 474 471 477 474 477 481 484 484 487 484 484 487 487 484 484 481 481 481 477 481 471 471 474 471 465 471 471 474 474 477 474 477 477 481 477 477 477 481 481 477 477 484 477 477 477 477 471 474 474 477 474 477 474 477 474 477 474 477 474 474 477 481 481 484 484 500 497 507 493 481 481 481 481 477 474 474 471 471 468 465 468 468 471 468 468 474 465 474 474 471 471 471 474 474 474 481 481 487 490 484 484 487 487 484 484 481 477 0 0 0 0 0 0 0 687 687 728 0 504 481 490 490 490 487 0 0 493 0 500 497 521 533 537 529 541 545 533 504 514 500 518 511 514 511 511 514 514 504 511 490 490 481 484 481 484 487 484 481 484 481 484 484 487 481 481 481 477 474 471 474 465 468 465 457 454 465 465 471 471 471 474 474 477 477 477 481 477 481 481 481 0 0 0 0 0
    0 0 0 0 0 0 0 0 0 0 0 0 0 0 0 0 0 0 0 0 0 0 0 0 0 0 0 0 0 0 0 0 0 0 0 0 0 0 0 0 0 0 0 0 0 0 0 0 0 0 0 0 0 0 0 0 0 0 0 0 0 0 0 0 0 0 0 0 0 474 462 468 468 468 471 471 471 474 474 474 474 474 474 474 474 471 471 471 471 471 468 465 459 459 471 468 465 468 468 468 471 471 471 468 471 474 474 471 468 471 474 474 477 471 474 471 468 471 468 471 468 468 468 471 471 474 474 477 477 477 484 487 487 490 487 484 487 487 487 487 481 481 481 477 481 474 471 471 471 468 471 471 477 474 477 474 477 477 481 477 477 474 477 477 474 474 481 474 474 477 474 471 474 474 477 474 477 474 477 474 477 474 477 474 474 477 484 481 484 484 487 487 490 484 481 481 481 481 477 477 477 471 474 471 468 474 471 474 471 474 477 471 474 477 471 474 474 474 474 474 481 481 484 484 481 484 484 484 481 481 481 477 481 484 0 0 0 0 0 0 0 0 490 490 481 487 487 487 484 484 484 487 487 490 490 497 500 497 497 497 511 500 487 493 490 511 504 507 504 504 504 504 497 500 487 487 477 481 477 484 484 484 484 484 484 487 487 493 484 484 481 474 468 459 465 454 459 451 446 448 462 462 471 471 471 468 471 471 471 474 474 474 484 484 484 0 0 0 0 0
    0 0 0 0 0 0 0 0 0 0 0 0 0 0 0 0 0 0 0 0 0 0 0 0 0 0 0 0 0 0 0 0 0 0 0 0 0 0 0 0 0 0 0 0 0 0 0 0 0 0 0 0 0 0 0 0 0 0 0 0 0 0 0 0 0 0 0 0 0 474 462 468 468 468 471 474 471 474 474 477 474 474 474 477 474 471 471 471 471 471 468 465 462 462 471 471 465 468 471 471 471 471 474 471 471 477 474 471 471 471 474 477 474 471 471 471 465 468 465 468 465 465 468 468 468 474 474 477 477 481 481 487 487 487 487 484 484 484 484 484 481 481 477 477 481 474 474 471 471 468 471 471 477 477 477 477 477 477 481 477 477 477 477 477 474 474 477 474 474 477 474 474 477 477 477 474 477 477 477 477 477 474 477 474 474 477 481 481 481 481 484 481 487 484 481 481 484 484 481 477 481 474 477 474 474 474 474 477 474 474 477 471 477 477 474 474 474 474 474 474 481 477 481 481 481 481 484 484 481 481 481 477 481 481 481 0 477 477 477 481 481 481 481 481 481 484 487 484 484 484 484 487 487 487 487 490 490 490 493 484 487 487 481 487 487 500 497 500 500 500 497 497 493 493 487 484 477 477 477 481 484 484 481 484 481 487 490 497 487 484 477 471 465 451 459 448 454 448 446 454 465 468 474 471 471 468 468 468 468 465 468 462 462 462 471 0 0 0 0 0
    0 0 0 0 0 0 0 0 0 0 0 0 0 0 0 0 0 0 0 0 0 0 0 0 0 0 0 0 0 0 0 0 0 0 0 0 0 0 0 0 0 0 0 0 0 0 0 0 0 0 0 0 0 0 0 0 0 0 0 0 0 0 0 0 0 0 0 0 0 474 462 468 471 471 471 474 474 474 477 477 477 477 477 477 474 471 474 471 474 474 471 468 465 462 474 471 465 471 471 471 474 471 474 471 474 477 477 474 471 471 474 477 474 471 471 468 465 468 465 465 462 462 465 465 465 471 471 474 474 477 481 484 484 487 484 481 484 484 484 484 481 477 477 477 481 474 474 471 468 468 471 471 477 477 477 477 481 481 484 481 481 477 477 477 474 477 481 477 477 477 477 474 477 477 477 477 477 477 477 477 477 477 477 474 474 477 481 477 481 481 481 481 484 484 484 481 487 484 481 481 481 477 477 477 474 477 474 477 477 477 481 474 477 481 477 477 477 477 477 477 481 481 481 481 481 481 484 484 481 481 481 477 481 481 481 477 477 474 477 477 481 481 477 481 481 484 484 484 484 481 484 484 484 487 484 487 487 481 484 477 471 468 465 474 477 487 487 490 490 490 490 490 487 487 484 484 474 477 474 481 481 481 481 481 481 487 487 493 481 474 471 462 454 443 448 443 446 443 440 446 459 465 474 474 471 468 468 468 468 462 465 451 446 446 451 0 0 0 0 0
    0 0 0 0 0 0 0 0 0 0 0 0 0 0 0 0 0 0 0 0 0 0 0 0 0 0 0 0 0 0 0 0 0 0 0 0 0 0 0 0 0 0 0 0 0 0 0 0 0 0 0 0 0 0 0 0 0 0 0 0 0 0 0 0 0 0 0 0 0 477 468 471 474 471 471 474 474 474 474 477 477 477 477 477 474 471 474 474 471 474 471 468 468 462 474 471 465 471 471 471 474 471 474 474 474 481 477 474 471 471 474 474 474 471 468 468 465 468 468 465 462 459 462 465 465 468 471 471 474 477 477 484 487 487 487 481 484 484 484 484 481 477 477 477 481 474 474 474 471 468 471 471 477 477 481 481 481 484 484 484 481 481 481 477 477 477 481 477 477 477 477 474 477 477 477 477 477 477 477 477 481 477 481 474 474 477 481 477 477 477 477 477 481 481 481 481 484 484 481 477 481 477 477 477 474 477 477 477 477 477 481 474 477 481 477 481 481 481 481 481 484 484 487 484 487 487 487 487 484 484 484 481 484 484 484 481 477 477 481 481 481 481 477 481 481 481 484 481 481 481 481 484 484 484 481 484 484 481 484 477 462 457 459 465 471 477 481 484 484 487 487 487 487 487 484 484 474 477 474 481 481 481 481 481 477 484 484 487 477 468 462 454 448 438 443 440 443 440 440 446 454 462 474 474 471 468 465 465 465 459 459 446 443 440 443 0 0 0 0 0
    0 0 0 0 0 0 0 0 0 0 0 0 0 0 0 0 0 0 0 0 0 0 0 0 0 0 0 0 0 0 0 0 0 0 0 0 0 0 0 0 0 0 0 0 0 0 0 0 0 0 0 0 0 0 0 0 0 0 0 0 0 0 0 0 0 0 0 0 0 477 471 468 474 471 471 474 474 474 474 477 477 477 477 477 471 471 474 474 471 477 471 468 468 462 474 471 465 474 474 474 474 471 477 474 474 477 474 471 468 468 474 474 474 471 471 468 465 468 468 465 459 459 462 465 465 468 468 471 471 474 477 484 484 487 487 477 484 484 484 481 477 477 477 477 481 477 474 474 471 471 474 474 481 481 481 484 484 487 487 487 484 484 484 481 477 477 481 477 477 477 477 474 477 477 477 477 477 477 477 477 481 481 481 477 474 477 481 474 477 474 474 474 474 481 477 477 481 484 477 477 481 477 477 477 474 477 477 477 481 481 481 477 481 481 481 481 481 481 481 484 487 487 490 490 490 490 493 490 490 487 487 484 484 484 487 481 481 481 484 484 484 481 477 481 481 481 481 481 481 481 481 484 484 484 481 484 484 481 487 477 462 457 459 468 471 474 477 477 484 484 481 484 487 484 484 484 477 481 477 484 484 481 481 481 481 484 484 487 474 465 454 446 443 435 440 438 443 440 438 440 448 462 474 471 468 462 459 462 462 454 454 443 443 440 443 0 0 0 0 0
    0 0 0 0 0 0 0 0 0 0 0 0 0 0 0 0 0 0 0 0 0 0 0 0 0 0 0 0 0 0 0 0 0 0 0 0 0 0 0 0 0 0 0 0 0 0 0 0 0 0 0 0 0 0 0 0 0 0 0 0 0 0 0 0 0 0 0 0 0 477 474 471 474 474 474 474 477 477 477 477 477 477 474 477 471 471 474 474 471 474 471 471 471 462 474 474 468 474 474 474 477 474 477 474 474 481 474 471 471 471 474 474 474 471 471 471 468 468 471 465 462 459 462 465 462 465 468 468 471 474 474 481 481 484 484 474 481 481 481 481 477 474 474 474 481 477 474 477 471 474 474 477 481 484 484 484 487 490 490 487 484 484 484 481 477 481 481 477 477 477 474 474 477 474 477 477 481 481 481 481 484 484 487 481 477 477 481 474 474 471 471 474 474 477 477 474 481 484 477 477 481 477 477 481 477 481 477 481 481 481 481 481 481 484 481 484 481 481 481 487 487 487 490 490 493 493 497 493 493 487 487 484 484 484 487 481 481 481 484 484 484 481 481 477 481 481 481 484 484 481 484 484 484 484 484 487 484 481 487 477 465 462 465 471 474 474 474 474 481 481 481 484 484 481 481 481 477 481 477 481 481 481 481 481 481 484 484 481 471 459 448 443 438 435 438 435 438 438 435 438 443 457 471 465 462 451 451 457 457 448 446 435 440 438 440 0 0 0 0 0
    0 0 0 0 0 0 0 0 0 0 0 0 0 0 0 0 0 0 0 0 0 0 0 0 0 0 0 0 0 0 0 0 0 0 0 0 0 0 0 0 0 0 0 0 0 0 0 0 0 0 0 0 0 0 0 0 0 0 0 0 0 0 0 0 0 0 0 0 0 477 477 474 481 481 477 477 477 477 477 477 477 474 474 474 471 468 474 474 471 477 471 471 474 465 474 474 468 474 474 477 477 474 477 477 477 481 477 474 471 471 474 477 474 471 471 471 468 468 474 468 465 462 465 465 465 468 468 468 471 474 474 481 481 484 484 471 481 477 477 477 474 474 474 471 481 477 474 477 474 474 477 481 481 484 487 487 490 493 490 487 484 484 484 481 481 481 481 477 477 477 474 474 477 474 477 477 481 481 484 484 487 487 490 484 481 477 481 474 474 471 471 474 471 477 474 474 481 484 477 477 481 481 481 481 477 481 477 0 484 484 481 484 484 487 481 484 484 484 484 490 487 487 490 490 493 493 497 493 490 487 487 481 484 484 484 481 481 481 481 481 484 477 477 477 481 481 481 484 484 481 484 484 484 484 484 487 484 481 490 477 465 462 468 471 474 474 474 474 477 481 477 481 481 481 481 477 477 481 481 481 481 481 484 481 484 484 484 481 471 459 446 440 438 432 438 435 438 438 435 438 440 454 468 457 454 446 446 448 448 443 440 435 440 438 440 0 0 0 0 0
    0 0 0 0 0 0 0 0 0 0 0 0 0 0 0 0 0 0 0 0 0 0 0 0 0 0 0 0 0 0 0 0 0 0 0 0 0 0 0 0 0 0 0 0 0 0 0 0 0 0 0 0 0 0 0 0 0 0 0 0 0 0 0 0 0 0 0 0 0 477 477 477 481 481 481 477 481 481 481 477 477 474 471 474 471 468 474 474 468 474 471 471 474 465 474 471 468 477 477 477 477 474 477 477 477 481 477 474 471 468 474 477 474 471 474 471 471 471 0 471 471 468 471 468 468 468 471 471 474 477 477 481 481 484 484 468 477 477 474 474 471 471 471 471 481 477 474 477 474 477 477 481 481 484 484 487 490 497 490 484 484 484 484 481 481 481 481 477 481 481 477 477 477 474 477 477 481 481 484 487 487 490 490 484 481 481 481 474 474 471 468 471 468 474 471 471 477 477 471 477 481 484 481 484 481 484 481 0 487 487 481 484 484 487 484 484 484 484 484 490 487 487 490 490 493 493 493 493 490 487 490 484 487 484 487 481 481 481 481 481 484 477 477 477 481 481 481 484 484 481 484 484 484 484 484 490 481 481 490 477 465 462 471 471 474 474 474 471 477 481 481 484 481 481 481 474 481 481 481 481 481 481 484 481 487 484 481 474 471 457 443 440 435 432 438 435 435 438 435 438 440 448 462 446 443 438 440 443 446 440 438 432 440 438 440 0 0 0 0 0
    0 0 0 0 0 0 0 0 0 0 0 0 0 0 0 0 0 0 0 0 0 0 0 0 0 0 0 0 0 0 0 0 0 0 0 0 0 0 0 0 0 0 0 0 0 0 0 0 0 0 0 0 0 0 0 0 0 0 0 0 0 0 0 0 0 0 0 0 0 474 474 471 477 481 477 477 481 481 481 477 477 474 471 474 474 471 474 474 471 477 474 474 474 468 474 474 471 477 477 477 477 474 477 477 481 484 481 477 474 471 477 477 474 474 474 474 474 474 0 474 474 471 474 471 471 468 471 471 474 474 474 477 481 481 484 465 474 474 471 471 471 468 471 468 481 474 474 477 474 477 477 481 481 481 481 484 487 493 487 484 484 484 484 484 484 481 481 481 481 481 477 477 481 474 477 477 481 481 484 487 487 490 490 484 484 481 481 474 474 471 468 471 468 474 471 471 477 474 471 474 481 484 484 484 0 484 484 0 490 487 481 484 484 484 484 484 484 481 484 490 484 487 490 490 490 490 493 493 490 490 490 484 490 487 487 484 481 481 484 481 481 481 474 477 481 481 481 487 484 484 487 487 487 484 484 490 481 481 487 477 468 465 471 474 474 474 477 474 477 481 481 484 484 481 481 474 477 481 481 481 481 481 481 481 490 481 474 468 462 454 443 440 438 435 438 435 435 438 435 438 438 443 448 440 438 435 435 438 440 438 432 432 438 438 438 0 0 0 0 0
    0 0 0 0 0 0 0 0 0 0 0 0 0 0 0 0 0 0 0 0 0 0 0 0 0 0 0 0 0 0 0 0 0 0 0 0 0 0 0 0 0 0 0 0 0 0 0 0 0 0 0 0 0 0 0 0 0 0 0 0 0 0 0 0 0 0 0 0 0 471 471 465 477 477 477 477 481 481 481 477 477 474 474 477 477 474 477 477 471 477 474 471 474 468 474 471 468 477 477 477 477 477 481 477 481 484 481 477 474 471 474 474 477 474 0 0 0 0 0 0 0 0 0 0 0 468 0 471 474 474 474 477 477 481 481 462 471 471 468 468 468 465 468 468 481 474 474 477 477 481 481 481 481 481 481 484 487 497 490 484 487 487 487 484 487 484 484 484 484 484 481 481 481 474 481 477 477 481 484 487 487 490 493 487 484 484 481 474 474 471 471 474 471 474 474 471 477 474 471 471 481 484 484 484 481 484 481 484 487 487 477 484 484 484 484 484 484 481 484 490 487 487 490 490 490 493 497 493 493 490 497 487 490 490 490 487 484 484 484 484 484 481 474 477 477 481 477 487 484 484 487 487 487 487 487 490 481 481 484 477 468 465 471 471 474 471 477 474 477 481 484 484 484 481 484 471 477 481 481 477 481 481 481 481 493 481 471 465 459 451 443 440 438 438 438 435 435 438 435 438 435 440 443 438 435 432 432 432 438 432 427 427 430 430 430 0 0 0 0 0
    0 0 0 0 0 0 0 0 0 0 0 0 0 0 0 0 0 0 0 0 0 0 0 0 0 0 0 0 0 0 0 0 0 0 0 0 0 0 0 0 0 0 0 0 0 0 0 0 0 0 0 0 0 0 0 0 0 0 0 0 0 0 0 0 0 0 0 0 0 471 471 468 477 481 477 477 481 484 481 477 477 474 474 477 481 474 481 477 471 477 474 471 474 468 474 471 468 477 477 477 481 477 481 477 481 484 481 477 474 471 474 474 0 0 0 0 0 0 0 0 0 0 0 0 0 0 0 0 0 474 477 477 477 481 484 459 471 468 465 468 465 465 465 465 481 477 474 481 481 481 484 0 0 0 0 487 490 497 490 487 490 490 490 487 487 487 484 487 487 484 481 481 481 474 481 477 477 481 484 487 490 490 493 490 487 487 481 477 474 471 471 474 471 477 474 471 477 471 468 459 477 484 481 481 477 481 484 484 490 487 477 484 484 484 484 484 484 481 481 490 484 487 490 490 490 493 497 497 497 493 497 490 493 493 497 490 490 487 490 487 490 484 477 477 481 481 481 487 484 484 487 487 487 487 487 490 481 481 481 474 468 465 471 468 471 465 471 471 474 481 481 484 487 481 484 474 481 481 481 481 481 481 481 481 493 481 468 465 457 454 443 438 435 435 438 435 432 435 435 435 435 440 440 438 435 432 432 435 438 435 430 427 430 427 427 0 0 0 0 0
    0 0 0 0 0 0 0 0 0 0 0 0 0 0 0 0 0 0 0 0 0 0 0 0 0 0 0 0 0 0 0 0 0 0 0 0 0 0 0 0 0 0 0 0 0 0 0 0 0 0 0 0 0 0 0 0 0 0 0 0 0 0 0 0 0 0 0 0 0 0 0 459 474 481 477 477 481 484 481 477 477 474 474 477 477 474 481 477 468 474 471 471 471 465 471 471 468 477 477 481 481 477 481 481 481 484 477 477 474 468 471 0 0 0 98 0 0 0 0 0 0 0 0 0 0 0 0 0 0 477 477 481 481 481 484 459 471 465 465 465 462 462 465 465 0 0 0 481 481 481 484 0 0 0 0 487 487 493 490 484 490 490 490 487 487 487 484 487 487 484 481 481 481 477 481 477 477 481 484 490 490 493 497 490 490 487 484 477 474 471 468 474 471 474 471 468 474 468 462 443 474 481 481 477 477 481 484 487 490 487 477 484 484 484 481 484 484 481 0 487 484 487 490 490 493 493 497 497 497 497 500 493 493 497 500 497 493 490 493 490 497 493 477 481 484 481 481 487 487 487 487 487 487 484 487 490 481 477 481 477 474 471 474 471 471 465 471 468 471 474 477 481 487 481 484 474 484 484 484 481 481 481 481 481 490 477 465 462 459 451 440 438 435 438 438 435 435 438 438 438 438 443 443 440 443 435 432 440 438 438 435 427 427 425 427 0 0 0 0 0
    0 0 0 0 0 0 0 0 0 0 0 0 0 0 0 0 0 0 0 0 0 0 0 0 0 0 0 0 0 0 0 0 0 0 0 0 0 0 0 0 0 0 0 0 0 0 0 0 0 0 0 0 0 0 0 0 0 0 0 0 0 0 0 0 0 0 0 0 0 0 0 0 0 484 484 0 0 493 487 481 484 484 481 0 0 0 0 0 0 0 471 468 471 468 471 468 468 481 477 481 481 481 481 481 484 481 477 477 471 468 471 0 98 97 98 0 0 0 0 0 0 0 0 0 0 0 0 0 0 477 481 481 481 484 484 457 468 465 462 462 459 459 462 462 0 0 0 0 481 481 484 0 0 0 0 484 487 493 487 484 490 490 490 487 487 487 484 487 487 484 481 481 481 474 481 477 477 481 484 490 490 493 497 490 490 490 484 481 477 471 468 474 471 474 471 468 474 465 462 0 474 0 0 0 0 0 487 487 493 490 477 487 484 484 484 484 481 481 0 487 484 487 487 490 490 490 493 493 497 497 497 497 493 497 500 500 493 490 490 493 500 500 477 481 487 484 484 490 487 487 487 487 487 487 490 490 481 477 481 477 474 474 474 468 471 459 468 465 465 471 474 477 484 481 481 474 484 484 484 481 481 484 484 484 493 477 471 468 465 451 443 440 438 440 440 438 440 440 440 440 438 443 443 440 443 432 432 435 432 430 425 420 413 411 425 0 0 0 0 0
    0 0 0 0 0 0 0 0 0 0 0 0 0 0 0 0 0 0 0 0 0 0 0 0 0 0 0 0 0 0 0 0 0 0 0 0 0 0 0 0 0 0 0 0 0 0 0 0 0 0 0 0 0 0 0 0 0 0 0 0 0 0 0 0 0 0 0 0 0 0 0 0 0 490 490 493 497 504 490 0 0 0 0 0 0 0 0 0 0 0 468 468 468 0 468 462 462 477 477 477 477 474 477 477 481 481 477 477 474 0 0 99 98 0 0 0 0 0 0 0 0 0 0 0 0 0 0 0 0 0 0 481 484 484 484 457 471 465 459 459 454 459 462 462 0 0 0 0 0 481 0 0 0 0 481 484 487 490 487 484 490 493 490 487 487 487 487 487 490 484 481 481 481 474 481 477 477 481 484 487 490 490 497 0 493 0 484 0 477 474 471 474 0 477 474 471 477 0 0 0 0 0 0 0 0 0 487 487 497 487 474 487 484 484 484 484 481 481 481 487 484 487 487 490 490 490 493 493 497 493 497 493 493 497 504 500 493 487 484 490 504 529 474 481 487 484 484 490 490 487 490 490 487 487 490 493 481 477 481 477 474 474 474 465 468 451 462 459 457 465 471 474 477 474 477 471 481 481 481 481 481 481 481 484 490 477 471 471 468 454 443 440 440 440 443 440 440 440 443 443 443 443 443 440 440 430 427 425 418 415 411 406 402 404 411 0 0 0 0 0
    0 0 0 0 0 0 0 0 0 0 0 0 0 0 0 0 0 0 0 0 0 0 0 0 0 0 0 0 0 0 0 0 0 0 0 0 0 0 0 0 0 0 0 0 0 0 0 0 0 0 0 0 0 0 0 0 0 0 0 0 0 0 0 0 0 0 0 0 0 0 0 179 0 0 487 493 0 0 0 0 391 381 375 0 0 0 0 0 0 0 0 0 0 0 0 448 0 474 471 468 462 465 471 471 477 474 471 468 468 0 0 99 98 97 0 0 0 0 0 0 0 0 0 0 0 0 179 176 0 177 176 0 0 481 477 446 462 457 451 448 446 448 451 459 0 99 99 0 0 0 0 0 0 0 0 481 0 487 484 481 490 493 490 487 0 0 487 487 490 484 481 481 481 477 0 0 0 0 481 487 487 487 0 0 0 0 0 0 0 0 0 96 0 0 0 0 0 0 0 0 0 0 0 0 0 0 0 484 490 487 468 484 484 481 481 481 481 481 481 487 481 484 487 487 487 487 493 493 497 497 497 493 490 497 504 500 493 487 481 500 0 549 0 484 487 481 484 490 487 487 487 490 487 487 493 493 481 477 477 474 471 471 468 459 459 446 454 454 448 459 465 468 468 468 471 468 481 481 481 481 477 481 481 484 487 477 474 474 471 457 446 443 440 443 446 440 440 440 443 443 443 446 448 443 440 430 427 420 413 411 408 402 399 399 404 0 0 0 0 0
    0 0 0 0 0 0 0 0 0 0 0 0 0 0 0 0 0 0 0 0 0 0 0 0 0 0 0 0 0 0 0 0 0 0 0 0 0 0 0 0 0 0 0 0 0 0 0 0 0 0 0 0 0 0 0 0 0 0 0 0 0 0 0 0 0 0 0 0 0 0 0 0 0 0 468 0 448 415 0 391 391 383 379 379 385 385 0 0 0 0 0 0 0 0 0 0 0 0 0 448 435 0 448 454 471 465 462 454 0 0 0 99 98 97 0 0 0 0 0 0 0 0 0 0 0 0 178 174 177 176 175 0 0 0 0 0 0 446 446 440 435 440 0 0 99 100 100 0 0 0 0 0 0 0 0 477 0 487 484 481 490 490 490 487 0 0 0 490 490 484 481 481 484 477 0 0 0 0 477 481 0 0 0 0 116 0 0 0 0 0 0 0 0 0 0 0 0 0 0 0 0 0 0 0 0 0 0 0 0 481 459 477 477 474 477 477 477 474 477 481 477 484 487 484 487 487 490 493 497 493 493 493 490 497 504 504 493 493 0 541 561 561 553 0 500 0 0 487 484 487 487 487 484 484 490 490 481 474 471 468 459 454 457 446 440 438 440 440 435 443 448 446 443 451 462 462 477 477 477 477 477 477 477 481 484 474 468 471 468 451 443 443 443 443 446 443 443 443 443 443 443 443 446 440 438 427 422 411 408 406 404 402 399 399 404 0 0 0 0 0
    0 0 0 0 0 0 0 0 0 0 0 0 0 0 0 0 0 0 0 0 0 0 0 0 0 0 0 0 0 0 0 0 0 0 0 0 0 0 0 0 0 0 0 0 0 0 0 0 0 0 0 0 0 0 0 0 0 0 0 0 0 0 0 0 0 0 0 0 0 0 0 0 0 0 443 446 432 406 395 391 391 385 381 383 385 383 381 383 381 383 383 0 0 385 0 0 0 0 0 0 418 0 0 0 0 0 0 0 0 0 0 0 0 0 0 0 0 0 0 0 177 0 0 0 0 0 0 0 0 0 0 0 0 0 0 0 0 0 0 422 408 404 0 0 0 0 100 0 0 0 0 0 0 0 0 0 0 0 487 481 487 490 490 0 0 0 0 0 0 0 477 481 484 477 0 0 0 0 0 0 0 0 117 116 0 0 0 420 0 0 0 0 0 0 0 0 0 0 0 0 0 0 0 0 0 0 465 465 459 438 440 474 471 462 468 468 465 468 471 477 462 477 484 481 484 484 487 487 490 490 487 487 484 493 0 497 0 0 0 579 588 588 570 0 0 0 0 487 481 484 484 484 481 481 487 487 481 468 471 462 0 0 451 435 399 415 420 427 425 432 438 430 427 435 438 451 474 477 474 477 477 477 477 481 481 468 468 468 468 448 440 440 440 440 443 440 440 440 443 443 443 443 443 438 432 418 411 404 404 404 402 399 399 402 404 0 0 0 0 0
    0 0 0 0 0 0 0 0 0 0 0 0 0 0 0 0 0 0 0 0 0 0 0 0 0 0 0 0 0 0 0 0 0 0 0 0 0 0 0 0 0 0 0 0 0 0 0 0 0 0 0 0 0 0 0 0 0 0 0 0 0 0 0 0 0 0 0 0 0 391 0 0 0 0 0 411 411 399 393 391 391 385 383 385 385 385 383 381 381 383 385 385 385 387 389 393 0 0 0 0 0 0 0 0 393 395 395 0 0 0 0 0 0 0 0 0 179 178 0 0 0 0 0 76 75 74 73 0 0 0 0 0 0 0 0 395 395 0 0 404 399 397 0 0 0 0 100 101 0 0 0 0 0 0 0 0 0 0 487 474 0 497 490 0 0 0 1565 1635 0 481 468 471 481 471 0 0 0 0 0 0 0 0 0 0 408 413 415 413 0 0 0 90 90 0 0 0 0 0 0 0 0 0 0 0 427 432 435 0 432 418 413 465 457 448 451 446 443 0 451 457 432 0 0 462 454 443 0 0 0 0 465 465 0 0 0 427 420 406 404 0 0 0 0 0 0 0 0 0 477 481 484 481 474 471 484 0 0 465 462 0 0 0 0 420 393 399 397 411 411 425 425 422 420 425 422 435 471 474 471 477 477 477 477 481 477 468 468 471 468 443 438 438 438 435 440 438 440 440 443 440 440 440 438 430 422 408 406 402 402 402 402 399 402 402 406 0 0 0 0 0
    0 0 0 0 0 0 0 0 0 0 0 0 0 0 0 0 0 0 0 0 0 0 0 0 0 0 0 0 0 0 0 0 0 0 0 0 0 0 0 0 0 0 0 0 0 0 0 0 0 0 0 0 0 0 0 0 0 0 0 0 0 0 0 0 0 0 0 0 0 389 389 391 391 389 389 397 402 397 391 391 391 387 385 387 385 385 385 381 381 383 385 387 385 387 389 391 393 395 0 0 0 0 393 389 393 395 395 393 0 0 0 0 0 0 0 0 178 0 0 0 391 391 0 0 0 0 0 385 0 0 0 0 0 0 397 395 395 395 397 399 395 395 399 0 0 0 100 0 0 0 0 395 0 0 406 406 397 399 0 418 411 0 411 413 0 0 0 1599 0 448 440 446 459 451 438 0 408 395 391 399 395 399 404 404 408 411 408 408 0 0 0 90 90 0 0 0 0 0 0 0 0 0 0 0 420 425 422 0 415 404 399 0 432 427 420 418 418 418 422 425 408 397 406 399 406 413 0 0 0 432 430 427 422 420 418 415 411 402 402 0 0 397 395 0 0 0 0 0 0 0 451 468 451 440 465 0 0 451 440 0 0 418 0 406 393 397 395 402 402 411 408 411 408 408 408 415 0 465 454 474 474 477 474 481 477 468 471 471 468 438 432 435 432 430 435 435 438 440 443 440 438 440 430 425 413 404 404 402 402 402 402 402 402 402 408 0 0 0 0 0
    0 0 0 0 0 0 0 0 0 0 0 0 0 0 0 0 0 0 0 0 0 0 0 0 0 0 0 0 0 0 0 0 0 0 0 0 0 0 0 0 0 0 0 0 0 0 0 0 0 0 0 0 0 0 0 0 0 0 0 0 0 0 0 0 0 0 0 0 0 389 389 391 389 385 387 395 397 397 391 391 391 385 385 387 385 385 385 383 383 385 387 389 387 389 391 391 395 397 0 0 0 393 393 391 393 395 395 393 393 395 397 399 0 395 0 0 0 0 0 395 391 393 387 387 389 389 385 383 387 0 0 176 176 0 399 397 397 399 399 399 397 397 399 399 402 0 100 0 397 0 397 393 395 395 404 408 402 402 402 406 406 406 406 404 402 404 406 413 413 425 420 427 438 438 418 0 393 389 383 391 391 399 404 402 404 406 406 406 404 0 0 0 0 0 0 0 0 0 0 0 418 415 0 415 413 420 413 0 406 399 399 413 413 408 404 404 404 404 404 406 402 399 402 402 402 404 404 406 408 413 413 411 408 411 411 411 408 402 402 0 397 399 397 0 0 0 0 402 0 411 408 422 430 422 432 440 0 440 427 430 418 411 411 402 393 395 395 399 399 408 406 408 406 406 406 408 411 430 422 0 465 474 474 481 474 465 471 0 465 432 425 438 432 427 432 432 438 438 443 438 435 438 420 415 408 402 404 399 399 402 402 402 402 404 408 0 0 0 0 0
    0 0 0 0 0 0 0 0 0 0 0 0 0 0 0 0 0 0 0 0 0 0 0 0 0 0 0 0 0 0 0 0 0 0 0 0 0 0 0 0 0 0 0 0 0 0 0 0 0 0 0 0 0 0 0 0 0 0 0 0 0 0 0 0 0 0 0 0 0 389 391 391 389 385 385 393 395 397 389 389 391 387 387 387 385 385 387 383 385 385 389 389 389 391 391 391 395 397 0 0 0 393 393 391 393 395 393 393 393 395 397 397 0 395 0 0 0 0 0 393 391 391 387 387 387 387 383 383 387 0 0 176 176 0 399 397 397 399 399 399 397 397 399 399 402 0 0 0 397 397 397 393 393 395 404 406 402 402 404 406 406 408 404 404 402 402 404 406 406 411 408 411 411 415 404 393 391 389 387 389 391 399 402 402 404 404 404 404 402 0 0 0 0 0 0 0 0 0 0 406 415 411 408 411 406 411 406 0 404 399 399 406 406 404 399 402 404 402 402 404 402 399 402 402 402 399 402 404 402 404 406 404 404 406 408 408 408 404 404 399 399 402 399 0 0 397 402 404 406 406 404 408 411 411 415 427 406 427 413 418 408 406 404 399 395 397 395 399 399 408 406 408 408 406 408 408 408 422 404 402 0 481 471 481 474 468 0 0 462 430 420 430 425 413 415 418 427 430 438 432 427 430 411 408 406 399 402 399 399 402 402 402 402 404 411 0 0 0 0 0
    0 0 0 0 0 0 0 0 0 0 0 0 0 0 0 0 0 0 0 0 0 0 0 0 0 0 0 0 0 0 0 0 0 0 0 0 0 0 0 0 0 0 0 0 0 0 0 0 0 0 0 0 0 0 0 0 0 0 0 0 0 0 0 0 0 0 0 0 0 389 391 389 389 385 385 391 393 395 389 389 391 389 389 387 385 385 387 383 385 387 389 389 389 391 391 391 395 397 397 395 395 393 393 391 395 395 395 395 395 395 397 397 397 393 391 0 0 0 395 391 389 391 387 387 387 385 383 385 387 0 0 0 0 0 399 399 399 399 399 399 397 397 399 399 402 399 397 399 397 397 397 393 395 395 402 404 402 402 404 406 406 406 404 404 402 402 402 404 404 406 404 406 404 406 402 395 393 391 389 393 391 399 402 402 402 404 404 404 402 406 402 0 0 0 0 0 0 402 404 404 413 408 406 408 404 406 404 0 404 399 0 404 404 404 399 402 404 402 402 404 402 402 402 404 402 399 402 402 402 404 404 404 402 404 408 406 408 404 404 402 402 404 402 402 0 399 404 406 408 408 406 408 411 408 413 418 402 411 406 408 404 402 399 397 393 395 395 397 397 406 406 408 408 408 411 408 408 415 402 402 397 408 422 430 438 438 0 0 0 0 413 406 404 0 399 402 404 406 411 413 411 418 406 406 404 399 402 399 399 402 402 402 402 404 411 0 0 0 0 0
    0 0 0 0 0 0 0 0 0 0 0 0 0 0 0 0 0 0 0 0 0 0 0 0 0 0 0 0 0 0 0 0 0 0 0 0 0 0 0 0 0 0 0 0 0 0 0 0 0 0 0 0 0 0 0 0 0 0 0 0 0 0 0 0 0 0 0 0 0 389 389 387 387 381 381 387 389 391 387 389 391 389 389 387 385 385 387 381 385 387 389 389 389 391 391 391 395 395 395 395 395 395 395 393 395 395 395 395 395 395 395 395 395 393 391 391 395 395 393 391 389 391 389 389 389 387 385 387 389 395 395 399 0 402 399 399 399 402 399 399 399 399 399 399 399 397 397 399 397 395 395 393 395 397 402 402 399 399 402 404 404 404 404 402 402 402 402 402 402 404 402 404 399 402 402 397 395 395 393 395 393 402 402 402 404 404 404 404 404 406 402 395 0 397 397 399 397 402 402 402 411 406 406 406 404 404 404 0 404 0 0 406 406 406 402 402 406 404 402 404 404 402 404 404 404 399 402 402 402 404 404 404 402 404 408 406 408 404 404 402 402 404 402 404 402 402 406 408 408 408 408 411 413 411 413 415 402 406 404 406 404 402 397 395 391 393 393 395 395 406 404 406 408 406 411 408 408 418 402 406 402 406 418 418 425 430 0 0 0 420 411 404 402 399 397 397 399 402 399 402 402 404 402 402 402 397 402 399 402 402 402 404 404 406 415 0 0 0 0 0
    0 0 0 0 0 0 0 0 0 0 0 0 0 0 0 0 0 0 0 0 0 0 0 0 0 0 0 0 0 0 0 0 0 0 0 0 0 0 0 0 0 0 0 0 0 0 0 0 0 0 0 0 0 0 0 0 0 0 0 0 0 0 0 0 0 0 0 0 0 389 387 387 385 381 381 385 385 387 385 385 389 385 389 387 385 385 387 381 387 387 389 389 391 391 391 391 395 393 393 395 395 393 395 391 395 395 397 397 395 397 395 395 395 391 391 391 395 395 393 393 391 391 391 389 389 387 385 389 391 395 397 399 399 402 399 399 399 402 399 399 399 399 399 397 397 395 395 397 395 393 395 393 395 395 397 397 395 395 399 399 402 402 402 402 402 402 402 402 402 404 402 402 399 402 399 397 399 397 395 397 395 402 402 402 404 404 404 404 404 406 402 397 397 397 397 397 397 399 402 402 408 406 404 404 402 404 404 0 404 402 0 406 406 406 404 404 406 404 404 404 404 404 404 404 404 399 402 404 402 404 404 404 404 406 408 406 406 404 404 402 402 404 402 404 404 402 406 408 411 408 408 408 411 408 411 411 402 404 404 404 402 399 397 395 391 393 393 395 395 404 404 406 408 406 408 408 408 420 402 406 402 402 411 411 418 420 413 415 408 408 406 406 404 402 399 399 399 402 399 402 399 404 399 399 399 397 402 402 402 402 402 404 406 406 418 0 0 0 0 0
    0 0 0 0 0 0 0 0 0 0 0 0 0 0 0 0 0 0 0 0 0 0 0 0 0 0 0 0 0 0 0 0 0 0 0 0 0 0 0 0 0 0 0 0 0 0 0 0 0 0 0 0 0 0 0 0 0 0 0 0 0 0 0 0 0 0 0 0 0 387 387 385 385 381 383 385 385 387 385 385 389 385 389 385 385 387 387 379 387 389 389 391 391 393 393 391 395 393 393 395 393 393 395 393 397 397 397 397 397 397 397 395 397 393 393 393 395 395 393 391 391 391 391 389 391 389 387 391 391 397 0 399 402 402 402 402 402 402 399 402 402 399 399 399 397 395 395 397 395 393 393 391 393 393 395 395 393 393 397 397 399 399 399 402 402 402 402 402 399 402 399 399 397 399 402 399 399 399 397 397 393 402 402 402 402 404 404 404 404 406 402 397 399 399 397 399 0 402 402 402 408 406 406 404 402 404 404 0 404 404 404 406 406 406 406 404 408 404 404 404 404 404 404 406 406 402 404 406 404 406 406 406 404 406 408 406 406 404 404 402 402 404 404 404 404 404 408 408 411 411 411 411 411 408 411 408 404 404 404 404 402 402 397 395 393 393 393 395 395 406 404 406 408 406 408 408 408 420 402 408 402 402 408 406 413 415 413 415 408 406 406 404 402 399 397 395 397 397 397 399 399 402 399 399 399 397 402 402 402 402 402 406 406 406 418 0 0 0 0 0
    0 0 0 0 0 0 0 0 0 0 0 0 0 0 0 0 0 0 0 0 0 0 0 0 0 0 0 0 0 0 0 0 0 0 0 0 0 0 0 0 0 0 0 0 0 0 0 0 0 0 0 0 0 0 0 0 0 0 0 0 0 0 0 0 0 0 0 0 0 387 387 385 383 381 381 385 383 387 387 385 389 387 391 385 385 387 389 379 389 391 391 391 393 393 393 393 397 393 393 395 393 391 393 393 397 397 397 397 397 397 397 397 397 393 393 393 393 395 393 391 389 391 389 389 389 389 387 391 393 397 0 399 402 402 402 402 402 402 402 402 402 402 399 402 397 395 395 395 395 391 393 391 393 393 395 393 391 391 395 395 397 397 399 399 399 399 399 399 397 399 397 397 395 397 399 397 399 402 399 399 395 402 402 402 402 404 404 404 404 406 402 397 399 399 397 399 0 402 402 402 408 406 406 404 402 404 404 402 404 404 404 406 406 406 406 404 408 406 406 406 406 406 406 408 411 402 406 406 404 406 406 406 404 406 408 404 406 404 404 402 402 404 404 406 406 406 408 411 411 411 411 411 413 408 413 411 406 408 406 406 406 404 402 397 395 395 395 397 395 404 404 406 408 406 411 408 408 422 402 408 404 402 408 406 415 415 415 418 411 411 408 408 404 399 397 395 395 397 397 397 399 402 399 402 402 399 402 402 402 402 402 408 406 406 418 0 0 0 0 0
    0 0 0 0 0 0 0 0 0 0 0 0 0 0 0 0 0 0 0 0 0 0 0 0 0 0 0 0 0 0 0 0 0 0 0 0 0 0 0 0 0 0 0 0 0 0 0 0 0 0 0 0 0 0 0 0 0 0 0 0 0 0 0 0 0 0 0 0 0 387 387 385 383 381 381 385 383 387 387 385 389 387 389 383 387 387 387 377 391 391 391 393 393 393 393 393 397 393 393 395 393 391 393 393 397 397 399 397 397 397 397 397 397 393 393 391 393 393 391 389 389 389 389 389 389 389 389 391 393 397 397 399 402 402 399 402 402 404 402 402 402 402 0 0 397 391 393 393 393 389 391 391 391 393 395 393 393 391 395 395 397 397 399 399 399 399 399 399 397 397 397 397 395 395 397 397 399 402 399 399 397 402 402 402 402 404 404 404 404 408 402 399 399 402 397 399 399 402 404 402 408 404 406 404 402 402 404 402 406 404 404 406 406 408 408 404 411 408 406 406 408 408 408 411 411 402 406 406 404 406 406 406 404 404 406 402 404 404 402 402 402 404 404 406 408 406 411 411 411 411 413 413 413 411 413 413 408 408 408 408 408 406 406 399 397 395 397 397 395 404 404 406 408 408 411 408 408 422 406 413 406 404 408 406 415 415 415 418 413 413 411 411 406 402 399 395 397 397 397 397 399 402 399 402 402 399 402 402 402 402 402 408 404 404 413 0 0 0 0 0
    0 0 0 0 0 0 0 0 0 0 0 0 0 0 0 0 0 0 0 0 0 0 0 0 0 0 0 0 0 0 0 0 0 0 0 0 0 0 0 0 0 0 0 0 0 0 0 0 0 0 0 0 0 0 0 0 0 0 0 0 0 0 0 0 0 0 0 0 0 387 387 383 381 379 381 381 381 385 385 381 385 383 387 381 387 385 387 377 391 393 391 393 395 395 395 395 397 393 393 397 395 391 395 395 399 399 399 399 397 399 397 397 397 393 393 391 391 393 389 389 387 389 389 389 391 389 389 391 0 397 399 399 402 402 399 402 402 402 402 402 402 399 0 0 395 389 391 391 393 389 391 391 391 393 395 395 393 393 397 395 399 399 399 402 402 399 399 399 397 397 395 395 393 395 395 397 397 402 399 402 397 402 402 402 399 404 404 404 404 408 404 399 402 402 399 399 402 402 402 402 406 404 406 404 402 402 404 402 406 404 406 406 406 408 408 406 411 408 406 406 408 408 408 408 408 402 406 406 404 406 406 404 404 404 0 0 402 402 402 399 402 404 404 406 408 408 411 413 413 413 415 413 415 411 415 413 408 408 408 406 408 406 406 399 397 397 399 399 397 406 406 408 411 408 413 411 411 425 408 420 408 402 408 406 415 415 415 418 415 413 413 411 408 404 399 397 399 399 399 399 399 402 399 402 402 402 402 404 404 404 404 411 404 404 411 0 0 0 0 0
    0 0 0 0 0 0 0 0 0 0 0 0 0 0 0 0 0 0 0 0 0 0 0 0 0 0 0 0 0 0 0 0 0 0 0 0 0 0 0 0 0 0 0 0 0 0 0 0 0 0 0 0 0 0 0 0 0 0 0 0 0 0 0 0 0 0 0 0 0 387 385 383 381 379 383 383 383 385 389 387 387 385 387 379 385 385 387 377 391 395 391 393 395 395 395 393 397 393 391 395 393 391 393 393 399 399 399 399 399 399 397 397 397 393 391 389 389 391 389 389 387 389 389 389 391 391 391 393 0 399 399 399 402 402 399 402 402 402 399 402 402 399 0 0 395 389 391 391 393 389 391 391 393 395 397 395 395 393 399 395 397 397 397 399 399 399 397 397 397 395 395 395 393 395 395 397 397 402 399 399 395 402 402 402 399 404 404 404 404 411 404 402 402 404 399 399 402 402 402 402 406 404 404 404 0 402 404 402 406 404 406 406 406 408 408 406 411 408 406 406 408 408 408 408 406 402 406 404 404 404 404 404 402 404 0 0 402 402 402 402 402 404 406 408 411 411 413 413 413 413 415 413 418 411 413 411 408 408 408 406 408 406 406 402 402 399 402 402 399 406 406 408 411 408 413 411 411 425 411 422 418 406 408 408 418 415 415 418 413 413 411 411 408 404 402 399 402 402 402 402 402 404 399 404 404 402 402 404 404 404 404 413 404 404 411 0 0 0 0 0
    0 0 0 0 0 0 0 0 0 0 0 0 0 0 0 0 0 0 0 0 0 0 0 0 0 0 0 0 0 0 0 0 0 0 0 0 0 0 0 0 0 0 0 0 0 0 0 0 0 0 0 0 0 0 0 0 0 0 0 0 0 0 0 0 0 0 0 0 0 391 387 383 383 383 387 387 387 389 391 391 389 387 387 379 385 383 385 377 391 395 391 393 395 393 393 393 395 393 391 395 393 391 393 393 399 397 399 399 397 399 397 397 397 393 391 387 389 391 389 389 0 389 389 391 393 0 0 395 0 399 399 399 402 402 399 402 399 402 399 399 402 399 0 0 395 387 391 391 393 391 393 393 393 395 397 395 395 393 397 395 397 397 397 399 399 399 399 397 397 397 395 395 393 395 395 397 397 399 397 399 395 402 399 402 399 404 404 404 406 413 406 404 404 406 399 399 402 402 402 402 404 402 404 404 0 402 404 404 406 404 406 406 408 408 408 406 411 408 408 406 408 408 406 406 404 399 404 404 404 404 404 404 402 404 0 0 402 402 402 402 402 404 406 408 411 413 415 415 413 413 415 413 418 411 413 408 408 408 408 408 408 406 406 404 404 402 402 402 399 404 404 408 408 408 413 411 411 425 413 422 420 411 411 411 415 413 411 413 411 408 408 408 408 406 402 399 404 402 404 402 404 404 399 404 404 404 404 404 404 404 404 415 406 404 408 0 0 0 0 0
    0 0 0 0 0 0 0 0 0 0 0 0 0 0 0 0 0 0 0 0 0 0 0 0 0 0 0 0 0 0 0 0 0 0 0 0 0 0 0 0 0 0 0 0 0 0 0 0 0 0 0 0 0 0 0 0 0 0 0 0 0 0 0 0 0 0 0 0 0 0 389 387 385 389 389 389 389 389 391 391 389 387 385 379 385 385 385 377 391 395 391 393 393 393 393 393 395 393 391 395 395 391 395 393 397 397 397 397 397 397 397 395 397 393 393 389 389 393 0 0 0 0 0 0 0 0 0 0 0 402 402 402 402 402 399 402 402 402 402 402 402 399 0 0 393 385 391 391 393 391 393 393 395 397 399 397 395 393 397 395 397 397 397 399 399 399 399 399 399 397 397 395 393 395 395 397 395 397 397 399 395 399 399 399 399 404 404 404 406 413 406 404 404 406 402 402 402 402 402 402 404 0 0 0 0 404 404 404 406 404 408 406 408 408 411 408 413 411 411 408 411 408 408 406 404 402 404 404 404 402 402 404 402 404 0 0 402 402 402 402 402 404 406 406 408 413 413 415 413 413 415 413 418 411 413 408 408 408 411 408 408 406 406 404 404 402 404 404 402 404 404 408 408 408 411 411 411 422 415 420 418 408 411 411 413 415 411 411 411 408 408 408 411 408 404 402 406 406 408 404 406 404 399 404 404 404 404 406 406 406 406 420 406 404 408 0 0 0 0 0
    0 0 0 0 0 0 0 0 0 0 0 0 0 0 0 0 0 0 0 0 0 0 0 0 0 0 0 0 0 0 0 0 0 0 0 0 0 0 0 0 0 0 0 0 0 0 0 0 0 0 0 0 0 0 0 0 0 0 0 0 0 0 0 0 0 0 0 0 0 0 0 391 389 393 393 395 393 393 393 393 391 387 387 379 383 385 387 379 391 393 391 393 393 393 393 393 395 393 391 397 395 393 395 395 397 395 397 397 397 397 397 397 399 395 397 393 0 395 0 0 0 0 0 0 0 0 0 0 404 402 402 402 402 402 399 402 402 402 402 402 399 399 0 0 393 385 391 391 395 391 395 395 395 397 402 399 399 397 399 395 397 397 399 402 402 399 399 399 399 397 397 395 393 395 395 397 395 397 397 397 395 399 397 399 397 402 402 404 406 411 406 404 404 408 404 404 404 404 402 404 406 0 0 0 404 404 404 404 406 406 408 406 408 408 411 408 413 411 411 408 411 408 408 406 404 402 404 404 404 402 402 402 402 402 0 0 402 402 402 402 402 404 406 406 408 413 413 413 413 413 413 413 418 411 413 408 408 411 411 408 408 406 406 404 404 404 404 404 402 404 404 406 408 408 411 408 408 418 413 411 408 404 406 408 408 413 411 411 411 411 411 413 415 415 408 408 413 411 411 406 408 404 399 404 404 404 404 406 406 406 406 420 406 404 406 0 0 0 0 0
    0 0 0 0 0 0 0 0 0 0 0 0 0 0 0 0 0 0 0 0 0 0 0 0 0 0 0 0 0 0 0 0 0 0 0 0 0 0 0 0 0 0 0 0 0 0 0 0 0 0 0 0 0 0 0 0 0 0 0 0 0 0 0 0 0 0 0 0 0 0 0 395 393 397 397 399 399 399 397 397 393 389 389 381 383 383 387 379 391 395 391 393 395 395 395 393 395 395 393 397 397 395 397 395 397 395 395 395 395 397 397 397 399 397 399 395 0 0 0 0 0 0 0 0 0 0 0 0 404 402 402 404 402 402 399 402 402 402 402 399 399 399 0 408 395 389 391 391 395 393 395 397 397 399 402 399 399 399 399 397 399 397 399 402 402 399 399 399 399 397 397 395 393 395 395 395 393 397 397 397 393 397 397 399 397 402 402 404 404 411 404 404 404 408 404 406 404 404 404 406 406 404 404 404 404 404 404 404 404 404 408 406 408 408 408 408 411 411 411 408 411 411 408 406 404 402 404 404 404 402 402 402 0 402 0 0 402 402 402 404 402 406 406 408 408 413 413 413 411 413 411 413 415 411 413 408 408 413 413 411 411 408 406 406 406 404 404 404 404 404 404 408 408 408 411 408 408 415 413 411 413 406 406 408 408 413 411 413 413 411 413 418 420 422 411 411 413 411 411 406 408 404 402 406 406 404 404 406 406 406 408 420 406 404 406 0 0 0 0 0
    0 0 0 0 0 0 0 0 0 0 0 0 0 0 0 0 0 0 0 0 0 0 0 0 0 0 0 0 0 0 0 0 0 0 0 0 0 0 0 0 0 0 0 0 0 0 0 0 0 0 0 0 0 0 0 0 0 0 0 0 0 0 0 0 0 0 0 0 0 0 404 402 399 402 399 402 402 402 395 397 391 387 385 379 381 383 387 385 393 395 393 393 395 395 395 395 395 395 393 397 397 397 397 395 397 395 395 395 395 397 397 397 399 397 397 397 0 0 0 0 0 0 0 0 0 0 0 0 404 402 402 404 402 402 397 402 402 402 402 399 397 399 399 406 395 391 393 0 397 395 397 397 399 402 402 402 404 402 402 399 402 399 399 404 402 402 402 402 402 399 397 397 395 397 395 395 393 395 395 397 395 397 397 397 397 402 402 402 404 408 404 404 404 408 404 406 404 406 404 406 406 404 404 404 404 404 402 404 404 404 408 406 408 411 408 411 411 411 411 408 413 411 408 406 404 402 404 402 404 402 402 404 402 402 0 0 402 402 402 404 402 406 406 406 408 413 411 411 411 411 411 411 415 411 413 411 411 413 413 413 413 411 406 406 406 406 406 404 404 404 404 408 408 406 411 411 411 415 418 413 415 411 411 413 411 420 415 415 415 411 413 418 422 425 411 413 413 411 413 408 408 404 402 406 406 404 404 406 408 406 411 420 406 406 406 0 0 0 0 0
    0 0 0 0 0 0 0 0 0 0 0 0 0 0 0 0 0 0 0 0 0 0 0 0 0 0 0 0 0 0 0 0 0 0 0 0 0 0 0 0 0 0 0 0 0 0 0 0 0 0 0 0 0 0 0 0 0 0 0 0 0 0 0 0 0 0 0 0 0 408 408 406 406 404 402 404 402 399 393 395 393 387 385 377 383 387 389 393 395 397 395 393 395 395 395 395 395 395 393 397 397 399 399 395 397 395 395 395 395 397 397 395 397 395 397 395 395 0 0 0 0 0 404 406 406 406 404 404 404 402 402 404 402 402 397 402 402 402 402 399 397 399 399 406 395 395 397 395 399 397 397 399 402 402 402 402 404 404 404 402 402 402 402 404 402 402 402 402 404 402 399 397 397 397 397 397 393 397 397 397 395 397 397 399 397 402 402 402 404 408 404 404 404 411 406 408 406 408 406 408 406 404 404 404 404 404 404 404 404 404 408 406 411 411 408 411 413 411 411 408 413 411 406 406 404 402 404 402 406 402 402 404 402 402 0 0 402 402 402 402 402 406 406 406 406 411 408 408 408 408 408 411 413 411 413 411 408 413 415 411 413 408 406 406 406 404 404 404 404 402 404 406 408 406 408 411 415 418 425 420 422 418 415 418 413 420 413 413 411 406 411 418 420 425 411 415 415 413 413 408 411 404 402 406 406 406 404 406 408 408 413 420 406 406 406 0 0 0 0 0
    0 0 0 0 0 0 0 0 0 0 0 0 0 0 0 0 0 0 0 0 0 0 0 0 0 0 0 0 0 0 0 0 0 0 0 0 0 0 0 0 0 0 0 0 0 0 0 0 0 0 0 0 0 0 0 0 0 0 0 0 0 0 0 0 0 0 0 0 0 411 408 408 408 404 402 404 0 0 391 395 393 387 385 379 387 389 391 395 395 397 395 393 393 393 393 395 395 395 393 397 0 399 397 395 395 393 393 393 393 395 395 395 395 395 395 395 395 0 0 0 0 406 408 411 411 411 406 406 404 404 402 404 402 402 397 402 402 402 402 399 399 399 402 411 399 399 399 397 402 399 399 402 402 404 402 402 404 404 406 404 404 404 402 404 402 402 402 402 404 402 399 397 397 402 399 402 395 397 397 399 397 399 399 399 399 402 402 404 404 408 404 404 406 411 406 408 406 406 404 408 404 402 402 402 404 404 404 404 404 404 408 406 411 408 406 411 411 411 413 408 413 411 406 406 404 404 404 402 406 402 402 404 402 402 402 402 402 402 402 404 402 406 406 406 406 411 408 408 408 408 408 411 413 411 411 408 408 413 413 411 411 406 404 404 404 404 402 402 402 402 404 406 406 406 408 411 415 418 425 418 420 418 415 418 415 418 411 413 411 406 406 415 418 422 408 415 413 413 413 411 411 404 404 408 406 406 406 408 411 408 418 422 408 406 408 0 0 0 0 0
    0 0 0 0 0 0 0 0 0 0 0 0 0 0 0 0 0 0 0 0 0 0 0 0 0 0 0 0 0 0 0 0 0 0 0 0 0 0 0 0 0 0 0 0 0 0 0 0 0 0 0 0 0 0 0 0 0 0 0 0 0 0 0 0 0 0 0 0 0 411 0 411 411 406 404 406 404 0 391 395 395 389 389 383 389 391 395 395 393 395 395 393 391 393 393 393 395 395 0 0 0 0 397 393 395 391 391 391 391 393 393 393 395 393 393 393 395 0 0 0 0 0 411 418 413 413 406 406 404 404 404 404 402 402 399 402 402 402 402 402 399 402 404 415 402 402 402 399 402 399 399 402 402 402 402 402 404 404 406 404 404 404 404 404 402 402 402 402 404 399 399 397 399 404 399 402 395 399 397 399 399 399 399 399 399 404 402 404 404 408 404 404 406 411 408 411 406 406 404 406 402 399 399 0 402 402 402 402 402 404 406 406 408 406 404 408 411 411 411 408 413 413 408 406 404 404 404 402 406 402 402 404 404 404 404 404 404 402 404 404 404 406 406 406 406 411 408 408 406 408 408 411 413 411 411 411 408 415 413 411 408 406 402 404 404 402 399 399 402 399 402 404 404 404 406 408 413 413 422 415 420 418 415 415 418 418 413 413 413 406 406 415 418 420 406 413 413 413 413 411 408 404 404 408 408 406 406 408 408 408 415 415 404 402 402 0 0 0 0 0
    0 0 0 0 0 0 0 0 0 0 0 0 0 0 0 0 0 0 0 0 0 0 0 0 0 0 0 0 0 0 0 0 0 0 0 0 0 0 0 0 0 0 0 0 0 0 0 0 0 0 0 0 0 0 0 0 0 0 0 0 0 0 0 0 0 0 0 0 0 411 411 411 411 406 406 408 406 0 391 397 395 391 393 387 393 395 0 397 393 395 393 391 391 391 391 0 395 0 0 0 0 0 397 395 395 391 391 391 391 393 393 395 395 393 393 393 395 0 0 0 0 0 413 418 413 413 406 406 404 404 404 404 402 402 399 402 404 402 402 402 399 402 406 418 404 402 404 402 402 399 399 399 402 402 402 0 404 404 406 404 404 404 404 406 404 404 402 402 406 402 399 399 402 406 402 404 397 399 397 399 399 399 399 399 399 402 402 404 402 408 404 404 406 411 408 411 408 406 404 404 402 399 0 0 399 399 399 399 402 402 404 404 406 406 404 408 408 411 411 408 415 415 408 408 406 406 406 404 406 402 402 404 404 404 404 404 404 402 404 404 404 406 406 406 406 411 408 408 406 408 406 411 413 411 408 411 408 413 413 411 406 404 402 404 402 402 399 397 399 397 402 402 402 402 404 406 411 411 420 413 418 418 413 413 413 415 411 411 408 404 404 413 415 418 406 411 411 413 411 411 406 404 404 408 406 406 404 406 408 408 413 408 399 397 402 0 0 0 0 0
    0 0 0 0 0 0 0 0 0 0 0 0 0 0 0 0 0 0 0 0 0 0 0 0 0 0 0 0 0 0 0 0 0 0 0 0 0 0 0 0 0 0 0 0 0 0 0 0 0 0 0 0 0 0 0 0 0 0 0 0 0 0 0 0 0 0 0 0 0 411 413 415 413 406 406 408 0 0 389 393 395 389 393 385 393 397 399 397 393 395 395 391 391 393 391 0 399 0 0 0 0 0 397 397 395 391 391 391 391 395 395 397 397 395 395 395 0 0 0 0 0 0 0 415 411 413 406 406 404 404 404 404 402 402 399 404 404 404 404 402 402 402 406 418 404 404 404 399 402 399 397 399 402 402 399 0 404 404 406 404 406 404 404 406 404 404 402 402 404 399 399 399 404 408 402 406 399 402 399 402 399 399 399 399 399 402 402 404 402 406 404 404 406 411 408 411 408 406 404 404 402 399 0 0 399 399 399 399 402 402 404 404 404 404 402 406 408 411 411 408 415 418 408 408 406 406 406 404 408 404 404 406 406 404 404 404 406 402 404 404 404 406 406 406 406 408 406 406 406 408 406 408 411 411 408 411 408 413 413 411 408 402 399 402 399 399 397 395 397 395 399 402 399 402 404 406 411 411 420 415 420 420 415 415 413 413 408 411 408 404 404 411 411 415 406 411 411 411 408 408 406 404 406 408 406 404 402 404 406 406 408 404 397 397 399 0 0 0 0 0
    0 0 0 0 0 0 0 0 0 0 0 0 0 0 0 0 0 0 0 0 0 0 0 0 0 0 0 0 0 0 0 0 0 0 0 0 0 0 0 0 0 0 0 0 0 0 0 0 0 0 0 0 0 0 0 0 0 0 0 0 0 0 0 0 0 0 0 0 0 413 0 0 0 406 408 0 0 0 389 395 395 389 393 0 395 395 399 0 0 395 395 393 393 395 393 0 404 404 0 0 0 0 0 395 0 391 393 393 391 395 397 399 397 395 395 0 0 0 0 0 310 0 0 415 408 411 404 406 404 404 404 402 402 399 397 402 402 402 402 402 399 402 406 415 404 404 0 0 399 397 0 397 399 399 0 0 0 404 406 406 406 404 404 404 404 402 399 399 399 397 397 397 402 408 402 408 399 404 399 402 399 399 399 402 402 404 402 404 402 406 406 406 408 411 408 411 408 406 404 404 399 402 397 0 397 399 399 399 399 402 402 404 402 404 402 404 406 408 411 408 415 418 408 408 406 406 406 404 408 404 404 408 406 406 404 404 404 402 404 404 402 406 406 406 406 408 406 406 406 408 404 408 411 408 408 411 411 413 413 413 408 402 399 402 399 399 395 393 397 395 399 399 399 402 404 406 411 411 422 415 422 422 418 415 413 411 408 411 406 404 404 413 413 415 408 413 411 411 406 406 404 404 406 408 406 404 402 404 406 406 408 399 397 397 402 0 0 0 0 0
    0 0 0 0 0 0 0 0 0 0 0 0 0 0 0 0 0 0 0 0 0 0 0 0 0 0 0 0 0 0 0 0 0 0 0 0 0 0 0 0 0 0 0 0 0 0 0 0 0 0 0 0 0 0 0 0 0 0 0 0 0 0 0 0 0 0 0 0 0 415 0 0 0 0 0 0 0 0 389 393 397 391 0 0 395 395 399 0 0 397 397 393 393 395 0 0 404 402 0 0 0 0 391 0 0 391 393 393 393 395 397 399 397 395 393 395 0 0 0 0 0 0 0 413 408 411 402 404 399 404 402 399 399 399 395 402 402 402 402 399 402 402 406 413 404 0 0 0 0 0 0 391 0 0 0 0 0 402 406 406 406 406 404 404 402 402 397 399 397 397 395 397 0 418 411 415 402 406 399 404 402 402 402 402 402 404 402 406 404 408 406 406 411 411 408 411 408 406 404 404 399 402 397 0 397 399 399 399 399 399 399 402 399 402 399 402 404 406 408 408 413 418 406 408 406 406 406 404 408 404 406 411 408 408 406 0 406 0 404 404 402 406 404 406 404 406 406 406 404 406 404 408 411 408 408 411 411 413 415 413 406 402 395 399 395 397 395 391 397 395 399 399 399 402 404 406 413 413 425 418 425 425 418 0 0 411 406 408 406 406 406 415 413 415 406 413 411 411 402 402 399 404 406 406 406 404 402 402 404 404 402 397 395 395 397 0 0 0 0 0
    0 0 0 0 0 0 0 0 0 0 0 0 0 0 0 0 0 0 0 0 0 0 0 0 0 0 0 0 0 0 0 0 0 0 0 0 0 0 0 0 0 0 0 0 0 0 0 0 0 0 0 0 0 0 0 0 0 0 0 0 0 0 0 0 0 0 0 0 0 0 0 0 0 0 0 0 0 0 0 0 0 0 0 0 0 397 0 0 0 399 397 393 391 0 0 0 0 0 0 0 0 0 385 0 0 0 391 393 391 395 397 399 395 393 391 0 0 0 0 0 0 0 0 413 408 411 399 404 397 402 399 0 0 0 395 399 402 402 402 402 402 404 406 413 404 0 0 0 0 0 0 0 0 0 73 73 73 0 408 406 406 406 404 404 404 402 0 0 397 395 395 393 457 0 451 432 0 413 399 404 402 402 402 402 402 404 402 408 404 408 408 411 415 411 411 411 408 406 404 404 0 402 0 0 0 399 399 0 399 402 399 402 397 399 397 399 402 404 408 408 415 418 408 408 408 406 406 406 408 404 406 413 411 413 0 0 406 0 404 404 402 404 404 406 404 406 404 406 402 406 404 408 411 411 408 411 411 413 413 411 402 397 389 393 389 391 391 385 395 393 399 399 399 402 404 406 413 413 425 418 425 425 420 0 0 408 406 408 406 406 406 415 411 415 406 413 406 406 397 395 395 402 404 406 404 402 399 399 399 399 397 393 391 391 393 0 0 0 0 0
    0 0 0 0 0 0 0 0 0 0 0 0 0 0 0 0 0 0 0 0 0 0 0 0 0 0 0 0 0 0 0 0 0 0 0 0 0 0 0 0 0 0 0 0 0 0 0 0 0 0 0 0 0 0 0 0 0 0 0 0 0 0 0 0 0 0 0 0 0 0 0 0 0 0 0 0 0 0 0 0 0 0 0 0 0 0 0 0 0 0 0 0 0 0 0 0 0 0 0 0 0 0 0 0 127 0 0 391 389 391 395 397 0 393 391 0 0 95 0 0 0 0 0 0 408 411 0 0 395 399 397 395 0 0 0 402 402 402 402 402 404 406 413 413 408 406 0 0 0 0 0 0 0 0 73 73 73 73 408 406 406 406 404 404 402 0 0 0 0 393 0 0 474 0 0 0 0 415 399 404 402 402 402 402 404 406 404 411 406 415 415 415 420 0 413 411 408 404 0 402 0 0 0 0 0 0 0 0 399 402 0 402 397 397 395 395 399 399 404 406 415 420 408 408 408 406 406 406 408 404 0 0 413 415 0 0 408 0 406 406 404 406 404 406 404 408 406 406 402 408 404 411 411 408 406 411 408 413 408 408 395 389 381 381 379 385 387 381 393 393 0 399 399 402 404 406 413 413 422 415 422 0 0 0 0 0 0 0 406 406 406 418 0 415 404 411 402 402 395 389 387 402 404 406 404 402 395 395 397 397 393 391 387 387 391 0 0 0 0 0
    0 0 0 0 0 0 0 0 0 0 0 0 0 0 0 0 0 0 0 0 0 0 0 0 0 0 0 0 0 0 0 0 0 0 0 0 0 0 0 0 0 0 0 0 0 0 0 0 0 0 0 0 0 0 0 0 0 0 0 0 0 0 0 0 0 0 0 0 0 0 0 0 0 0 0 0 0 0 0 0 0 0 0 0 0 0 0 0 0 0 0 0 0 0 0 0 0 0 0 0 0 0 0 0 0 0 0 385 385 387 393 395 0 0 389 0 96 0 0 0 96 0 0 0 0 0 0 140 0 399 397 395 0 116 0 0 404 404 404 404 406 413 420 418 413 0 0 0 0 0 0 0 0 0 73 73 0 0 0 408 406 406 404 402 402 200 199 198 0 0 0 0 0 0 0 0 0 0 0 404 402 402 399 402 402 404 404 408 404 0 413 411 0 0 0 0 0 0 0 0 0 0 0 0 0 0 0 0 0 0 0 399 393 395 393 393 397 397 399 406 415 422 408 411 0 0 0 0 0 0 0 0 0 0 0 0 411 408 408 411 406 411 408 411 406 411 406 408 404 413 404 411 411 408 0 411 408 413 404 408 395 383 377 375 375 385 385 379 393 391 0 0 0 0 0 0 408 408 418 0 0 0 0 0 4329 0 0 0 0 0 0 0 0 0 404 404 0 0 391 381 375 369 399 399 399 397 389 387 389 391 389 387 385 385 0 0 0 0 0 0
    0 0 0 0 0 0 0 0 0 0 0 0 0 0 0 0 0 0 0 0 0 0 0 0 0 0 0 0 0 0 0 0 0 0 0 0 0 0 0 0 0 0 0 0 0 0 0 0 0 0 0 0 0 0 0 0 0 0 0 0 0 0 0 0 0 0 0 0 0 0 0 0 0 0 0 0 0 0 0 0 0 0 0 0 0 0 0 0 0 0 0 0 0 0 0 0 0 0 0 0 0 0 0 0 0 0 0 0 0 0 0 0 0 0 0 0 0 0 0 0 0 0 0 0 0 0 0 0 0 0 0 0 0 0 117 0 404 402 0 0 0 0 0 0 0 0 0 0 0 0 0 0 0 0 0 0 0 0 0 0 0 0 0 0 0 0 0 0 0 0 0 0 0 0 0 0 0 0 0 0 0 0 397 399 399 402 399 406 402 0 0 0 0 0 0 0 0 0 0 0 0 0 0 0 0 0 0 0 0 0 0 0 0 0 0 0 0 0 0 0 0 0 0 0 0 81 0 0 0 0 81 81 81 0 0 0 0 413 0 0 0 415 411 413 406 411 406 408 402 411 399 406 0 0 0 0 0 411 402 408 395 0 0 0 0 0 0 0 0 389 0 0 0 0 0 0 404 0 0 0 0 0 0 0 5256 0 0 0 0 0 0 0 0 0 0 0 0 0 387 373 369 366 366 377 385 383 379 377 377 381 383 383 383 381 0 0 0 0 0 0
    0 0 0 0 0 0 0 0 0 0 0 0 0 0 0 0 0 0 0 0 0 0 0 0 0 0 0 0 0 0 0 0 0 0 0 0 0 0 0 0 0 0 0 0 0 0 0 0 0 0 0 0 0 0 0 0 0 0 0 0 0 0 0 0 0 0 0 0 0 0 0 0 0 0 0 0 0 0 0 0 0 0 0 0 0 0 0 0 0 0 0 0 0 0 0 0 0 0 0 0 0 0 0 0 0 0 0 0 0 0 0 0 0 0 0 0 0 0 0 0 0 0 0 0 0 0 0 0 0 0 0 0 0 0 0 0 0 0 0 0 0 0 0 0 0 0 0 0 0 0 0 0 0 0 0 0 0 0 0 0 0 0 0 0 0 0 0 0 0 0 0 0 0 0 0 0 0 0 0 0 0 0 0 0 0 0 0 0 0 0 0 0 0 0 0 0 0 0 0 0 0 0 0 0 0 0 0 0 0 0 0 0 0 0 0 0 0 0 0 0 0 0 0 0 0 81 0 0 0 81 81 81 81 80 0 0 0 0 0 0 0 0 0 0 0 0 0 0 0 0 0 0 0 0 0 0 0 0 0 0 0 0 0 0 0 0 0 0 0 0 0 0 0 0 0 0 0 0 0 8177 0 0 0 0 6690 0 0 0 0 1022 1008 0 0 0 0 0 2230 0 379 369 367 364 362 364 367 367 371 367 369 371 373 379 379 0 0 0 0 0 0 0
    0 0 0 0 0 0 0 0 0 0 0 0 0 0 0 0 0 0 0 0 0 0 0 0 0 0 0 0 0 0 0 0 0 0 0 0 0 0 0 0 0 0 0 0 0 0 0 0 0 0 0 0 0 0 0 0 0 0 0 0 0 0 0 0 0 0 0 0 0 0 0 0 0 0 0 0 0 0 0 0 0 0 0 0 0 0 0 0 0 0 0 0 0 0 0 0 0 0 0 0 0 0 0 0 0 0 0 0 0 0 0 0 0 0 0 0 0 0 0 0 0 0 0 0 0 0 0 0 0 0 0 0 0 0 0 0 0 0 0 0 0 0 0 0 0 0 0 0 0 0 0 0 0 0 0 0 0 0 0 0 0 0 0 0 0 0 0 0 0 0 0 0 0 0 0 0 0 0 0 0 0 0 0 0 0 0 0 0 0 0 0 0 0 0 0 0 0 0 0 0 0 0 0 0 0 0 0 0 0 0 0 0 0 0 0 0 0 0 0 0 0 0 0 0 0 0 0 0 0 0 0 0 0 0 0 0 0 0 0 0 0 0 0 0 0 0 0 0 0 0 0 0 0 0 0 0 0 0 0 0 0 0 0 0 0 0 0 0 0 0 0 0 0 0 0 0 0 0 0 0 0 8177 6690 8177 5256 0 0 0 0 1008 0 0 0 0 0 0 0 0 366 362 360 359 355 352 359 359 362 355 359 364 366 371 373 366 371 0 0 0 0 0
    0 0 0 0 0 0 0 0 0 0 0 0 0 0 0 0 0 0 0 0 0 0 0 0 0 0 0 0 0 0 0 0 0 0 0 0 0 0 0 0 0 0 0 0 0 0 0 0 0 0 0 0 0 0 0 0 0 0 0 0 0 0 0 0 0 0 0 0 0 0 0 0 0 0 0 0 0 307 309 309 307 307 0 0 0 0 0 0 0 0 0 0 0 0 0 0 0 0 0 0 0 0 0 0 0 0 0 0 0 0 0 0 0 0 0 0 0 0 0 0 0 0 0 0 0 0 0 0 0 0 0 0 0 0 0 0 0 0 0 0 0 0 0 0 0 0 0 0 0 0 0 0 0 0 0 0 0 0 0 0 0 0 0 0 0 0 0 0 0 0 0 0 0 0 0 0 0 0 0 0 0 0 0 0 0 0 0 0 317 315 315 317 315 317 322 319 318 315 317 0 0 0 0 0 0 0 0 0 0 0 0 0 0 0 0 0 0 0 0 0 0 0 0 0 0 0 0 0 0 0 0 0 0 0 0 0 0 0 0 0 0 0 0 0 0 0 0 0 0 0 0 0 0 0 0 0 0 0 0 0 0 0 0 0 0 0 0 0 0 0 0 0 0 0 0 305 0 0 0 0 0 0 0 0 0 0 0 0 0 0 0 0 0 0 0 0 0 0 360 353 352 352 348 345 347 348 342 342 345 348 353 366 367 355 366 0 0 0 0 0
    0 0 0 0 0 0 0 0 0 0 0 0 0 0 0 0 0 0 0 0 0 0 0 0 0 0 0 0 0 0 0 0 0 0 0 0 0 0 0 0 0 0 0 0 0 0 0 0 0 0 0 0 0 0 0 0 0 0 0 0 0 0 0 0 0 0 0 0 0 0 0 0 0 314 306 310 311 309 309 309 307 307 305 310 305 305 0 307 0 311 313 313 0 0 0 314 313 313 310 0 0 0 0 315 317 315 0 0 0 0 0 0 0 0 0 0 0 0 0 0 0 0 318 314 309 307 300 0 0 0 0 0 0 0 0 0 0 313 313 311 0 0 0 309 0 0 0 0 304 0 0 305 0 307 309 0 511 0 0 0 0 0 0 0 0 0 0 0 0 0 0 0 0 325 325 328 0 0 0 330 0 0 199 0 0 318 319 321 322 321 321 319 318 318 324 321 318 317 318 0 0 91 0 0 0 0 0 0 0 0 0 0 0 0 0 0 0 0 0 0 0 0 0 0 0 0 0 0 0 0 0 0 0 0 0 0 0 0 0 0 0 0 0 0 0 0 0 318 319 322 319 321 321 324 321 0 0 0 0 0 0 0 0 0 0 0 0 0 0 0 0 0 0 0 311 310 0 0 0 0 0 0 0 0 0 0 0 0 0 0 0 0 0 0 0 0 0 0 352 347 345 345 343 342 342 343 339 339 342 345 347 359 362 347 355 0 0 0 0 0
    0 0 0 0 0 0 0 0 0 0 0 0 0 0 0 0 0 0 0 0 0 0 0 0 0 0 0 0 0 0 0 0 0 0 0 0 0 0 0 0 0 0 0 0 0 0 0 0 0 0 0 0 0 0 0 0 0 0 0 0 0 0 0 0 0 0 0 0 0 313 0 0 315 314 309 311 311 310 310 309 309 307 306 310 305 305 305 307 309 310 311 314 313 0 0 314 314 314 310 0 0 0 0 314 315 314 311 0 315 315 311 314 0 0 0 319 0 0 0 321 0 0 318 315 311 310 305 313 313 311 315 0 0 0 0 0 0 315 314 314 313 310 310 311 306 304 304 306 305 306 306 306 307 307 309 310 0 0 0 0 328 330 328 0 0 0 331 321 324 319 319 322 319 325 325 325 325 324 327 327 322 0 0 0 0 319 321 322 327 325 330 322 321 319 324 322 319 318 318 0 0 0 0 0 0 0 0 0 0 0 0 0 0 0 0 0 0 0 0 0 337 0 0 3504 0 0 273 272 273 0 0 0 0 0 0 231 343 343 0 0 0 0 0 0 0 0 322 317 318 319 319 321 321 324 322 324 331 330 0 0 0 0 0 327 325 327 0 0 325 324 325 0 319 315 313 314 0 0 0 0 0 0 0 0 0 0 0 0 0 0 0 0 0 0 0 0 0 345 343 340 339 342 340 339 339 339 337 336 339 340 339 342 347 340 337 0 0 0 0 0
    0 0 0 0 0 0 0 0 0 0 0 0 0 0 0 0 0 0 0 0 0 0 0 0 0 0 0 0 0 0 0 0 0 0 0 0 0 0 0 0 0 0 0 0 0 0 0 0 0 0 0 0 0 0 0 0 0 0 0 0 0 0 0 0 0 0 0 0 0 311 313 313 314 314 309 311 313 311 311 310 310 309 307 311 309 307 306 307 309 311 313 314 314 314 313 315 314 314 311 310 309 0 313 313 314 314 311 314 315 314 311 314 315 0 0 319 0 318 319 321 321 318 318 318 315 314 314 318 315 315 318 319 319 319 0 0 318 317 315 315 313 311 311 311 309 306 306 309 306 309 309 309 310 309 310 311 310 314 317 318 322 324 324 324 325 324 331 322 324 319 319 322 319 324 324 324 324 324 327 327 324 328 0 0 318 319 321 321 324 324 327 322 322 321 324 321 321 318 317 317 0 0 0 0 0 0 0 0 0 0 315 0 0 0 336 334 0 0 0 0 336 334 0 0 0 0 0 0 0 0 0 0 0 0 343 0 342 343 0 0 0 0 0 0 0 0 321 317 319 321 319 321 322 324 322 325 331 330 330 0 0 0 324 327 325 328 327 325 325 325 327 324 322 317 314 314 319 319 322 325 331 331 336 340 342 340 340 0 337 337 0 0 333 331 333 330 333 337 339 337 336 337 337 336 336 337 334 334 336 339 337 337 342 339 334 0 0 0 0 0
    0 0 0 0 0 0 0 0 0 0 0 0 0 0 0 0 0 0 0 0 0 0 0 0 0 0 0 0 0 0 0 0 0 0 0 0 0 0 0 0 0 0 0 0 0 0 0 0 0 0 0 0 0 0 0 0 0 0 0 0 0 0 0 0 0 0 0 0 0 311 311 311 313 313 309 311 311 311 311 311 310 310 309 313 310 310 309 309 310 311 313 314 314 314 314 315 315 314 311 311 310 0 314 314 314 315 314 315 315 315 313 314 315 315 315 318 318 318 318 319 321 318 319 319 318 315 317 321 317 317 318 319 319 319 317 318 318 317 315 315 313 311 311 313 310 309 309 310 309 311 311 310 311 311 311 313 311 315 317 318 321 322 322 322 322 321 325 321 322 319 318 319 318 322 322 322 321 321 324 322 322 325 317 317 318 319 321 321 324 324 327 322 322 322 324 322 321 318 317 317 0 80 80 0 0 0 0 0 0 0 317 314 321 322 334 334 0 0 0 0 333 330 331 330 331 328 327 325 331 321 0 0 0 325 337 0 340 343 340 0 0 0 0 0 0 322 322 318 321 321 321 322 322 325 324 325 331 330 330 330 322 0 324 327 325 327 327 324 325 325 325 322 321 318 314 315 319 319 321 324 330 331 336 340 342 340 340 339 337 337 337 336 334 333 333 330 330 334 336 334 334 336 334 334 334 336 334 333 334 336 334 336 339 337 334 0 0 0 0 0
    0 0 0 0 0 0 0 0 0 0 0 0 0 0 0 0 0 0 0 0 0 0 0 0 0 0 0 0 0 0 0 0 0 0 0 0 0 0 0 0 0 0 0 0 0 0 0 0 0 0 0 0 0 0 0 0 0 0 0 0 0 0 0 0 0 0 0 0 0 311 313 311 313 311 310 311 311 311 313 311 311 310 310 313 311 311 310 310 311 311 313 314 314 313 313 314 315 314 313 313 311 315 314 314 314 315 314 317 317 315 314 314 315 315 315 317 318 317 317 319 319 318 318 319 318 317 318 321 318 318 319 321 321 319 317 318 318 317 315 314 313 311 311 314 311 310 310 311 311 313 313 311 313 311 311 314 313 315 315 318 319 321 321 321 319 319 321 319 321 319 318 319 318 322 322 322 321 319 321 321 321 321 317 317 318 319 319 321 322 322 324 322 322 321 324 322 322 319 318 317 0 80 0 0 0 0 0 0 0 318 318 317 321 324 333 334 330 333 334 325 331 330 330 328 331 330 327 325 333 322 325 321 327 324 330 327 339 342 340 0 0 331 0 327 324 322 322 319 322 322 321 322 324 325 324 325 331 330 330 331 322 321 324 327 325 327 325 322 324 322 324 321 318 317 314 317 319 319 321 324 328 331 336 339 342 340 340 339 339 339 339 337 336 334 334 333 330 334 334 333 333 334 333 333 331 334 331 331 333 333 331 333 336 334 333 0 0 0 0 0
    0 0 0 0 0 0 0 0 0 0 0 0 0 0 0 0 0 0 0 0 0 0 0 0 0 0 0 0 0 0 0 0 0 0 0 0 0 0 0 0 0 0 0 0 0 0 0 0 0 0 0 0 0 0 0 0 0 0 0 0 0 0 0 0 0 0 0 0 0 313 313 313 314 313 311 311 311 311 313 311 311 310 310 313 311 311 311 310 311 311 313 313 313 311 311 313 313 311 313 311 311 314 313 314 314 314 314 315 315 315 314 314 315 315 315 317 317 317 317 318 318 318 318 318 318 317 317 321 317 318 319 321 321 319 317 318 318 317 317 314 314 311 311 314 313 311 311 313 313 314 314 314 314 313 313 315 314 317 315 318 319 321 321 321 318 318 319 318 321 319 318 319 319 324 322 324 321 321 321 321 321 321 317 317 317 318 319 319 322 322 324 322 324 322 324 322 322 319 318 318 0 0 0 0 0 0 0 0 318 318 318 317 321 324 331 331 327 331 331 324 330 328 328 328 330 330 327 325 333 322 325 324 327 327 327 327 336 339 337 331 333 330 330 327 324 322 322 319 322 322 322 322 324 327 325 325 331 330 331 333 325 324 324 327 327 327 325 324 324 322 324 321 318 317 314 317 319 319 321 322 327 330 333 339 342 340 342 339 339 339 337 337 336 334 334 334 331 333 334 331 333 334 333 333 331 333 331 331 333 331 331 331 333 333 331 0 0 0 0 0
    0 0 0 0 0 0 0 0 0 0 0 0 0 0 0 0 0 0 0 0 0 0 0 0 0 0 0 0 0 0 0 0 0 0 0 0 0 0 0 0 0 0 0 0 0 0 0 0 0 0 0 0 0 0 0 0 0 0 0 0 0 0 0 0 0 0 0 0 0 313 314 313 315 314 313 313 313 311 313 311 311 310 310 313 313 313 311 310 311 311 313 313 311 311 310 311 311 310 313 310 311 313 313 314 314 314 314 314 315 315 314 314 315 315 315 317 317 317 315 318 318 318 317 318 317 315 317 319 317 317 318 319 319 318 317 318 318 317 317 315 314 313 313 315 313 313 313 314 314 315 315 315 315 314 314 317 317 317 317 318 319 321 321 319 318 318 318 318 319 318 317 318 318 322 322 322 321 319 321 321 321 321 317 317 317 318 319 319 322 322 322 322 322 322 324 322 322 319 318 318 0 0 0 0 313 314 314 317 317 317 318 317 319 324 331 328 327 331 331 324 330 328 328 327 330 328 327 325 333 324 327 325 328 330 327 328 334 336 336 330 331 328 328 327 324 324 322 319 322 322 322 324 324 327 325 327 331 330 331 333 327 325 325 327 327 327 327 324 324 322 324 319 317 317 314 317 319 319 321 321 325 328 331 337 340 339 340 339 339 339 337 337 336 334 336 334 331 333 334 331 333 334 333 333 331 333 333 331 334 333 331 331 333 331 330 0 0 0 0 0
    0 0 0 0 0 0 0 0 0 0 0 0 0 0 0 0 0 0 0 0 0 0 0 0 0 0 0 0 0 0 0 0 0 0 0 0 0 0 0 0 0 0 0 0 0 0 0 0 0 0 0 0 0 0 0 0 0 0 0 0 0 0 0 0 0 0 0 0 0 313 314 314 315 314 313 314 313 313 313 311 311 310 311 313 313 313 313 311 313 313 313 313 311 310 310 311 311 310 311 310 313 313 313 314 314 314 314 315 315 315 315 314 315 315 315 315 317 317 315 317 317 317 317 317 317 315 315 319 317 317 318 319 319 318 315 318 317 317 317 0 314 314 314 317 314 314 314 315 315 317 317 317 317 317 317 318 318 318 317 318 318 321 321 319 318 318 317 317 318 318 317 317 317 321 321 321 319 319 319 319 319 319 317 317 317 318 319 319 321 322 322 321 322 322 324 322 322 321 318 318 318 318 317 315 314 314 314 317 318 318 319 318 321 324 330 327 325 330 327 324 328 327 327 327 330 328 327 327 333 325 328 328 328 328 327 327 333 331 333 328 330 325 327 325 324 324 322 319 322 322 322 322 324 325 325 325 331 330 330 333 328 327 325 327 327 327 327 324 324 322 324 319 317 318 315 318 319 321 321 322 324 328 330 336 339 337 339 339 339 337 337 336 336 334 334 334 330 333 333 331 333 333 333 333 333 333 333 331 334 333 333 331 333 331 330 0 0 0 0 0
    0 0 0 0 0 0 0 0 0 0 0 0 0 0 0 0 0 0 0 0 0 0 0 0 0 0 0 0 0 0 0 0 0 0 0 0 0 0 0 0 0 0 0 0 0 0 0 0 0 0 0 0 0 0 0 0 0 0 0 0 0 0 0 0 0 0 0 0 0 313 315 314 317 315 314 314 313 313 313 313 311 311 311 313 314 314 314 313 313 313 313 313 313 310 310 311 311 310 313 311 313 313 314 314 314 315 315 315 317 315 315 314 315 315 314 314 317 315 315 317 317 317 317 318 318 317 317 319 317 317 317 318 318 318 315 317 317 317 0 0 315 314 314 317 315 315 315 315 317 318 318 319 318 318 318 319 319 319 318 318 318 319 319 319 318 318 317 318 318 317 317 317 315 318 318 319 318 318 319 318 318 319 317 317 317 318 318 319 321 321 321 321 322 321 322 322 322 321 318 319 318 317 315 315 314 315 315 319 319 321 321 321 321 324 325 324 324 327 324 322 327 325 325 325 327 327 325 327 331 325 328 330 327 328 325 325 327 327 330 325 327 324 325 325 322 324 322 319 322 321 322 322 324 325 324 324 331 328 330 333 330 328 327 327 328 327 0 324 322 322 324 321 319 321 318 321 322 322 322 322 325 330 330 336 337 336 339 339 339 337 337 337 339 339 0 334 330 333 334 331 331 333 333 331 331 333 331 331 334 331 331 330 331 330 327 0 0 0 0 0
    0 0 0 0 0 0 0 0 0 0 0 0 0 0 0 0 0 0 0 0 0 0 0 0 0 0 0 0 0 0 0 0 0 0 0 0 0 0 0 0 0 0 0 0 0 0 0 0 0 0 0 0 0 0 0 0 0 0 0 0 0 0 0 0 0 0 0 0 0 313 314 314 315 314 314 315 314 314 314 314 313 313 313 314 315 315 314 313 314 314 314 313 313 310 310 311 313 310 313 311 314 314 314 314 314 315 317 315 317 315 315 314 315 315 314 314 317 315 315 317 317 317 317 318 318 317 317 319 317 317 318 319 319 318 315 317 317 317 0 0 315 314 314 318 315 315 315 317 317 319 319 321 321 319 319 321 322 321 318 318 318 319 319 319 317 317 317 318 317 317 315 315 315 318 317 318 317 317 318 317 318 319 317 317 317 318 318 318 319 321 321 319 321 321 322 321 322 321 318 319 318 315 314 314 313 317 317 319 321 324 324 322 322 325 324 324 324 325 322 322 325 324 324 325 327 325 325 327 331 325 328 330 327 327 324 324 324 324 325 322 324 322 324 324 322 322 322 319 322 322 322 322 324 325 324 325 331 327 330 334 330 0 0 325 328 0 0 325 322 324 324 322 319 321 319 321 322 322 322 322 324 330 328 336 334 334 336 337 337 336 337 0 0 340 0 336 330 333 333 330 331 331 331 331 331 331 331 331 334 330 328 327 330 325 322 0 0 0 0 0
    0 0 0 0 0 0 0 0 0 0 0 0 0 0 0 0 0 0 0 0 0 0 0 0 0 0 0 0 0 0 0 0 0 0 0 0 0 0 0 0 0 0 0 0 0 0 0 0 0 0 0 0 0 0 0 0 0 0 0 0 0 0 0 0 0 0 0 0 0 313 314 314 315 314 315 315 314 314 315 314 314 314 314 314 315 315 315 314 314 314 314 313 313 310 311 311 313 311 314 311 314 314 314 314 314 315 317 315 318 317 317 315 315 315 314 314 315 315 314 315 317 317 317 317 318 317 317 318 317 317 318 318 318 318 314 317 317 317 0 0 315 314 314 318 317 317 317 318 318 321 319 322 321 321 321 322 324 322 319 319 319 321 321 319 318 317 317 317 317 317 315 314 314 317 317 317 0 0 0 317 319 319 318 318 317 319 319 319 319 321 319 319 321 321 322 321 322 321 319 319 319 317 314 315 314 318 319 321 322 324 324 324 322 325 322 324 324 325 322 322 325 325 324 325 327 325 325 327 331 325 327 328 327 325 322 324 322 322 325 322 322 322 325 325 324 325 324 321 324 324 324 322 324 324 324 324 330 325 328 334 330 330 325 325 0 0 0 327 324 325 325 324 319 322 319 322 322 324 324 324 324 331 330 334 333 333 334 336 336 336 336 336 337 337 0 334 328 331 333 328 331 331 331 330 330 331 331 331 334 331 328 327 328 325 322 0 0 0 0 0
    0 0 0 0 0 0 0 0 0 0 0 0 0 0 0 0 0 0 0 0 0 0 0 0 0 0 0 0 0 0 0 0 0 0 0 0 0 0 0 0 0 0 0 0 0 0 0 0 0 0 0 0 0 0 0 0 0 0 0 0 0 0 0 0 0 0 0 0 0 313 315 314 315 314 315 315 314 314 315 315 314 314 315 315 315 315 315 314 314 314 314 313 313 311 311 311 313 311 314 313 315 315 315 315 315 315 317 317 318 317 317 315 317 315 315 314 315 315 314 314 315 315 315 315 317 315 315 317 317 315 318 318 318 317 313 317 317 317 317 315 315 315 315 319 318 318 318 319 319 321 321 322 322 322 321 322 324 324 321 322 321 321 321 319 318 317 317 317 317 315 314 314 314 317 317 318 0 0 0 318 318 319 318 318 318 319 319 319 319 321 319 319 321 321 322 322 322 322 321 321 321 321 317 319 317 321 321 322 324 325 325 324 322 327 322 322 324 324 322 322 325 325 324 327 327 327 325 328 331 325 327 330 328 325 322 322 321 322 325 322 322 322 325 327 325 327 325 322 325 325 324 324 324 324 324 324 327 322 325 331 327 327 327 327 334 330 333 330 324 325 325 324 321 324 321 324 324 325 325 325 327 331 330 334 333 331 336 336 336 336 337 336 337 336 337 334 330 331 331 328 331 331 331 331 331 333 331 331 334 330 328 327 327 322 319 0 0 0 0 0
    0 0 0 0 0 0 0 0 0 0 0 0 0 0 0 0 0 0 0 0 0 0 0 0 0 0 0 0 0 0 0 0 0 0 0 0 0 0 0 0 0 0 0 0 0 0 0 0 0 0 0 0 0 0 0 0 0 0 0 0 0 0 0 0 0 0 0 0 0 314 315 314 317 314 315 315 314 314 315 315 315 315 315 315 317 315 315 314 314 314 314 313 313 311 311 311 313 313 314 313 315 314 314 314 315 315 315 317 318 317 317 317 317 317 317 315 315 315 315 314 315 314 314 314 315 315 314 315 315 315 317 317 318 317 313 315 315 315 317 315 315 315 315 319 318 318 318 319 319 321 321 324 324 322 322 322 324 324 322 324 322 322 322 321 319 318 317 317 317 315 315 314 315 318 317 318 318 318 318 318 319 321 319 319 319 321 321 321 321 322 321 321 321 322 322 322 322 322 321 321 321 321 317 318 317 321 322 322 322 324 324 324 322 325 321 322 324 325 324 322 325 325 325 327 328 327 325 328 331 327 328 330 328 327 322 322 321 322 324 322 321 324 325 328 325 327 325 322 325 325 324 322 322 322 322 322 325 322 322 324 324 327 325 324 328 328 330 328 325 324 324 324 322 325 322 325 325 327 328 328 330 333 330 334 333 331 334 333 334 334 334 333 334 334 336 333 331 333 333 330 331 331 331 331 331 333 333 331 334 331 330 328 327 322 321 0 0 0 0 0
    0 0 0 0 0 0 0 0 0 0 0 0 0 0 0 0 0 0 0 0 0 0 0 0 0 0 0 0 0 0 0 0 0 0 0 0 0 0 0 0 0 0 0 0 0 0 0 0 0 0 0 0 0 0 0 0 0 0 0 0 0 0 0 0 0 0 0 0 0 313 314 314 315 314 315 317 315 314 314 315 315 315 315 315 317 315 315 314 314 314 314 313 313 313 311 313 313 313 314 311 314 314 314 314 314 314 315 317 319 318 318 317 318 318 318 317 317 315 315 314 315 314 314 314 315 314 314 315 315 315 317 317 317 315 313 315 314 314 315 315 315 315 314 318 317 318 318 319 319 321 321 324 324 324 322 322 324 325 324 325 324 324 324 321 319 318 317 317 315 315 314 314 314 317 315 317 315 315 317 318 319 321 321 321 319 321 321 322 321 324 322 321 321 322 322 322 322 322 319 321 321 322 315 317 317 321 322 322 322 324 324 324 324 327 322 322 325 327 324 324 325 325 325 327 327 327 325 328 330 327 327 327 327 324 321 321 319 321 322 321 321 322 325 327 324 325 324 322 324 325 324 322 321 322 321 321 321 321 321 321 319 322 322 319 322 325 322 322 322 324 322 322 325 328 324 327 328 328 330 330 331 333 331 333 330 330 331 330 330 331 330 330 331 333 333 331 331 333 333 330 331 331 331 330 331 333 331 331 333 330 328 331 330 324 324 0 0 0 0 0
    0 0 0 0 0 0 0 0 0 0 0 0 0 0 0 0 0 0 0 0 0 0 0 0 0 0 0 0 0 0 0 0 0 0 0 0 0 0 0 0 0 0 0 0 0 0 0 0 0 0 0 0 0 0 0 0 0 0 0 0 0 0 0 0 0 0 0 0 0 313 314 313 314 313 315 315 314 314 314 314 315 315 315 315 317 315 315 314 314 314 314 313 314 313 311 313 314 314 314 313 315 314 314 315 314 315 315 318 321 319 318 318 319 318 318 318 317 317 315 315 315 313 314 314 315 314 314 315 315 315 317 317 315 315 313 314 313 313 315 314 314 314 314 0 317 318 318 318 318 319 321 322 322 324 322 324 324 325 324 325 324 324 324 321 319 318 317 317 315 314 314 313 0 315 314 314 314 314 315 318 319 322 321 322 321 322 322 322 321 324 322 321 321 324 322 322 322 322 319 319 321 322 314 315 317 321 322 322 324 324 324 324 324 327 322 324 325 327 324 324 324 325 325 327 325 325 325 327 328 325 322 324 322 321 319 319 318 319 319 321 319 321 324 325 322 324 322 324 324 324 322 321 319 321 318 318 317 318 318 318 317 319 319 318 319 324 321 319 321 322 321 322 327 330 325 328 331 331 333 331 333 334 333 334 330 330 331 328 328 328 327 327 330 331 331 330 331 334 333 331 333 333 331 330 331 333 331 328 330 327 325 328 328 322 322 0 0 0 0 0
    0 0 0 0 0 0 0 0 0 0 0 0 0 0 0 0 0 0 0 0 0 0 0 0 0 0 0 0 0 0 0 0 0 0 0 0 0 0 0 0 0 0 0 0 0 0 0 0 0 0 0 0 0 0 0 0 0 0 0 0 0 0 0 0 0 0 0 0 0 313 313 311 314 313 314 315 314 313 313 314 315 315 315 315 315 315 315 314 314 314 314 313 314 313 313 314 314 314 314 313 315 314 314 315 315 315 315 318 321 319 318 318 319 319 319 318 318 317 317 315 315 313 314 314 314 314 314 315 315 315 318 317 315 315 313 313 313 313 314 314 314 314 314 315 317 317 318 318 318 318 319 321 322 322 322 322 324 327 325 327 325 324 324 321 319 318 318 318 315 314 314 313 0 0 314 313 314 314 315 317 319 322 322 322 321 322 322 324 322 324 322 322 321 324 324 321 322 322 319 319 321 321 314 314 317 322 324 322 324 325 325 325 324 327 321 324 325 325 324 324 324 325 325 327 325 325 324 325 325 324 321 322 321 321 318 318 318 319 319 319 319 321 324 325 322 322 322 324 322 324 322 319 318 319 318 317 315 317 318 317 317 319 319 318 319 324 321 319 321 324 321 322 328 331 327 331 333 333 334 333 334 336 334 334 330 330 331 327 325 327 324 324 328 330 330 327 330 334 333 333 334 333 331 330 331 333 330 327 327 325 325 325 327 322 321 0 0 0 0 0
    0 0 0 0 0 0 0 0 0 0 0 0 0 0 0 0 0 0 0 0 0 0 0 0 0 0 0 0 0 0 0 0 0 0 0 0 0 0 0 0 0 0 0 0 0 0 0 0 0 0 0 0 0 0 0 0 0 0 0 0 0 0 0 0 0 0 0 0 0 313 311 310 311 310 313 313 311 311 313 314 315 317 317 315 315 315 315 314 313 313 314 313 314 314 313 314 315 315 314 313 315 314 314 315 314 314 315 318 321 319 318 318 321 319 319 319 318 317 317 315 315 313 314 314 314 314 314 315 315 315 318 317 315 315 313 311 311 311 313 313 313 313 313 313 315 317 317 317 317 317 318 319 321 322 322 322 324 327 325 328 328 324 325 321 321 319 318 318 317 315 315 314 0 317 315 314 314 314 315 318 321 324 322 324 322 324 324 325 322 325 324 322 321 324 324 322 322 322 319 319 321 321 314 314 317 322 324 322 324 325 325 325 325 328 321 324 324 325 324 324 322 325 324 327 324 325 324 324 325 324 319 321 321 319 318 318 318 318 318 319 318 319 324 325 321 322 322 324 322 324 322 319 318 319 318 317 315 317 317 317 317 319 319 318 321 325 321 319 322 324 321 324 330 333 330 334 336 334 336 334 336 336 334 336 330 330 331 327 325 327 324 324 327 328 327 325 328 333 330 330 333 331 331 328 331 333 331 328 327 325 325 325 325 321 321 0 0 0 0 0
    0 0 0 0 0 0 0 0 0 0 0 0 0 0 0 0 0 0 0 0 0 0 0 0 0 0 0 0 0 0 0 0 0 0 0 0 0 0 0 0 0 0 0 0 0 0 0 0 0 0 0 0 0 0 0 0 0 0 0 0 0 0 0 0 0 0 0 0 0 311 310 309 310 309 313 311 310 310 311 314 315 317 317 315 315 314 314 313 311 313 313 311 314 314 313 314 315 315 314 313 315 314 314 314 314 313 313 318 321 319 318 319 322 322 322 322 318 317 317 315 315 311 313 313 314 314 314 315 315 315 319 318 315 315 313 311 311 310 311 311 313 313 311 311 313 315 315 0 0 315 318 319 321 321 321 321 322 325 327 328 328 325 325 321 321 319 318 318 317 0 0 315 0 318 317 315 314 315 315 319 321 324 322 324 322 324 325 327 324 327 325 325 322 325 325 322 322 324 319 319 321 322 315 314 317 322 322 322 324 324 325 325 325 328 321 324 325 325 325 324 324 327 325 327 325 325 324 324 325 322 319 319 321 319 317 318 318 318 317 318 318 319 324 325 321 322 322 324 324 325 322 319 318 319 318 317 314 317 317 0 0 319 319 318 0 0 321 319 321 0 319 322 333 334 331 337 337 336 337 336 336 337 336 337 333 331 331 327 327 327 324 322 325 325 325 324 325 330 328 328 333 330 330 325 330 333 330 327 324 322 322 322 322 319 318 0 0 0 0 0
    0 0 0 0 0 0 0 0 0 0 0 0 0 0 0 0 0 0 0 0 0 0 0 0 0 0 0 0 0 0 0 0 0 0 0 0 0 0 0 0 0 0 0 0 0 0 0 0 0 0 0 0 0 0 0 0 0 0 0 0 0 0 0 0 0 0 0 0 0 311 310 307 310 309 311 311 310 309 310 313 315 317 317 314 313 313 313 311 310 310 313 311 314 314 313 314 315 315 314 314 315 314 313 314 314 313 311 318 321 319 318 319 322 322 324 325 319 317 317 315 314 311 311 311 313 314 314 314 315 315 319 318 314 314 313 310 310 309 310 311 311 313 310 309 311 315 315 0 0 315 0 0 319 321 321 321 321 325 327 328 328 325 325 321 321 319 318 0 317 317 0 0 0 0 317 315 314 314 315 319 321 324 322 324 322 324 325 327 325 328 327 328 324 327 325 324 324 324 321 319 321 322 315 314 317 322 322 321 322 324 325 325 324 328 321 325 325 327 327 324 324 327 325 327 324 327 324 324 325 322 318 318 319 319 317 317 318 318 317 318 318 321 324 324 321 322 322 325 324 325 322 319 318 319 318 315 314 317 0 0 0 0 319 318 0 0 0 0 0 0 0 319 334 336 333 0 340 337 339 336 337 337 337 339 334 333 333 328 328 328 324 322 324 324 324 322 324 330 328 328 333 331 330 325 330 333 328 327 322 321 321 321 321 319 318 0 0 0 0 0
    0 0 0 0 0 0 0 0 0 0 0 0 0 0 0 0 0 0 0 0 0 0 0 0 0 0 0 0 0 0 0 0 0 0 0 0 0 0 0 0 0 0 0 0 0 0 0 0 0 0 0 0 0 0 0 0 0 0 0 0 0 0 0 0 0 0 0 0 0 310 309 306 309 309 311 310 307 306 306 310 315 314 314 313 310 311 313 310 307 306 311 310 313 314 311 314 315 315 314 314 315 314 313 315 314 311 311 321 322 321 321 321 325 325 327 328 321 318 318 317 0 311 311 311 313 313 313 314 315 315 319 317 311 311 311 309 309 307 309 310 310 0 309 304 311 315 317 0 0 0 0 0 0 322 321 321 321 324 325 327 327 324 325 321 319 318 317 0 315 315 0 0 0 0 0 314 314 313 314 319 321 324 322 324 322 324 325 328 325 328 328 328 324 328 325 324 324 325 319 319 319 322 314 313 317 319 321 321 322 322 324 324 325 328 322 327 327 328 330 325 324 327 325 327 324 325 324 322 324 322 317 317 318 319 317 317 318 319 317 319 318 319 322 322 321 321 321 324 322 324 322 319 318 319 317 314 313 317 0 0 0 0 319 0 0 0 0 0 0 0 0 0 0 0 0 0 343 0 0 0 0 0 0 340 336 333 333 328 328 327 322 321 322 322 321 321 322 328 327 328 333 331 330 325 330 333 328 325 322 321 321 321 322 319 318 0 0 0 0 0
    0 0 0 0 0 0 0 0 0 0 0 0 0 0 0 0 0 0 0 0 0 0 0 0 0 0 0 0 0 0 0 0 0 0 0 0 0 0 0 0 0 0 0 0 0 0 0 0 0 0 0 0 0 0 0 0 0 0 0 0 0 0 0 0 0 0 0 0 0 310 307 304 307 307 311 307 305 304 302 307 313 305 305 304 306 310 311 310 306 305 310 310 314 314 310 314 315 315 314 313 314 313 311 314 311 307 306 322 325 322 324 322 0 328 328 328 321 318 317 317 0 311 311 0 313 313 313 314 314 315 319 317 309 311 313 309 309 306 0 0 0 0 0 302 0 0 0 0 0 0 0 0 0 322 321 322 321 324 324 327 327 325 324 0 315 0 0 0 0 0 0 0 968 0 0 0 0 310 313 318 0 324 322 325 324 325 328 328 324 327 327 330 324 328 325 322 322 324 318 318 319 322 314 310 318 0 0 321 319 321 322 0 0 330 325 330 327 331 331 327 324 325 325 324 322 324 322 321 322 321 314 311 313 317 315 314 317 317 313 317 317 318 321 321 318 319 319 324 321 322 322 319 0 319 0 0 313 0 0 0 0 0 0 0 0 0 0 0 0 0 0 0 0 0 0 0 0 0 0 0 459 0 0 347 337 334 333 327 327 324 321 319 319 319 318 318 321 325 324 328 334 331 330 325 333 334 331 328 324 322 322 322 322 319 318 0 0 0 0 0
    0 0 0 0 0 0 0 0 0 0 0 0 0 0 0 0 0 0 0 0 0 0 0 0 0 0 0 0 0 0 0 0 0 0 0 0 0 0 0 0 0 0 0 0 0 0 0 0 0 0 0 0 0 0 0 0 0 0 0 0 0 0 0 0 0 0 0 0 0 310 307 302 307 307 310 307 306 304 301 304 310 299 299 300 301 304 309 305 304 301 307 309 313 313 307 314 315 315 314 313 314 313 311 315 309 304 0 0 0 0 0 325 0 0 330 328 321 317 317 318 0 313 0 0 0 0 315 318 317 321 322 318 306 310 311 307 307 305 0 0 0 0 0 0 94 94 0 0 0 220 219 217 0 0 0 324 319 322 321 0 0 0 0 87 0 0 0 87 0 0 0 0 0 0 0 0 86 0 0 0 0 0 0 0 0 0 0 0 0 324 325 331 324 328 327 322 322 325 319 319 319 322 313 299 0 0 0 0 0 0 0 0 435 413 0 0 0 0 0 0 0 325 324 322 321 322 319 318 318 318 310 302 305 0 0 309 313 315 305 317 0 0 318 318 317 318 318 324 321 0 0 0 0 0 0 132 311 0 0 0 0 127 126 126 0 0 0 0 0 0 0 0 0 0 0 0 0 0 0 477 465 446 0 0 0 336 334 328 327 322 318 317 317 317 314 315 317 319 319 324 334 330 328 324 331 333 328 327 322 321 321 321 321 318 317 0 0 0 0 0
    0 0 0 0 0 0 0 0 0 0 0 0 0 0 0 0 0 0 0 0 0 0 0 0 0 0 0 0 0 0 0 0 0 0 0 0 0 0 0 0 0 0 0 0 0 0 0 0 0 0 0 0 0 0 0 0 0 0 0 0 0 0 0 0 0 0 0 0 0 310 307 301 306 306 309 305 304 302 300 301 309 296 297 296 297 0 0 0 0 0 0 0 0 311 307 0 314 315 315 315 315 314 0 0 0 0 0 0 0 0 0 0 0 0 0 0 0 0 0 0 0 0 0 0 0 0 0 0 0 0 0 0 0 0 310 305 306 305 0 0 0 0 0 0 0 0 0 0 0 0 0 0 0 0 0 0 0 0 0 0 0 0 0 0 0 0 0 115 0 0 0 115 0 0 0 0 86 86 0 0 0 0 0 0 4088 3345 3679 3679 0 0 325 334 327 330 327 322 322 322 0 0 0 0 311 293 0 0 0 0 0 0 0 0 0 0 0 0 1443 0 0 0 322 324 324 322 319 321 319 317 315 315 309 300 301 309 0 0 0 0 297 318 0 318 319 319 317 318 319 324 321 0 0 0 0 0 0 131 310 0 0 0 0 127 126 126 0 0 0 0 0 0 0 0 0 0 0 0 0 0 0 481 474 454 0 0 0 0 0 0 0 321 315 315 314 313 310 311 313 315 315 318 327 321 322 321 330 333 330 327 321 319 321 319 319 317 315 0 0 0 0 0
    0 0 0 0 0 0 0 0 0 0 0 0 0 0 0 0 0 0 0 0 0 0 0 0 0 0 0 0 0 0 0 0 0 0 0 0 0 0 0 0 0 0 0 0 0 0 0 0 0 0 0 0 0 0 0 0 0 0 0 0 0 0 0 0 0 0 0 0 0 0 306 300 304 304 304 302 301 301 299 299 306 295 0 0 0 0 0 0 0 0 0 0 0 0 0 0 0 0 0 0 0 0 0 0 0 0 0 0 0 0 0 0 0 0 0 0 0 0 0 0 0 0 0 0 0 0 0 0 0 0 0 0 0 0 0 0 0 0 0 0 0 0 0 0 0 0 0 0 0 0 0 0 0 0 0 0 0 0 0 0 0 0 0 0 0 0 0 0 0 0 0 0 0 0 0 0 0 0 0 0 0 0 0 0 0 0 0 0 0 0 0 0 0 0 0 0 0 0 0 0 0 0 0 0 0 0 0 0 0 0 0 0 0 0 0 0 0 0 0 0 0 0 0 0 0 0 0 0 0 0 0 0 0 0 0 0 0 0 0 318 0 318 0 319 0 0 0 0 0 0 0 0 0 0 0 0 0 0 0 0 0 0 0 0 0 127 0 0 0 0 0 0 0 0 0 0 0 0 0 484 484 474 448 0 477 451 0 0 0 0 314 313 310 309 305 306 309 311 311 313 0 314 0 315 0 328 327 330 319 318 319 319 318 317 315 0 0 0 0 0
    0 0 0 0 0 0 0 0 0 0 0 0 0 0 0 0 0 0 0 0 0 0 0 0 0 0 0 0 0 0 0 0 0 0 0 0 0 0 0 0 0 0 0 0 0 0 0 0 0 0 0 0 0 0 0 0 0 0 0 0 0 0 0 0 0 0 0 0 0 0 0 0 0 0 300 299 299 301 297 0 0 0 0 0 0 0 0 0 0 0 0 0 0 0 0 0 0 0 0 0 0 0 0 0 0 0 0 0 0 0 0 0 0 0 0 0 0 0 0 0 0 0 0 0 0 0 0 0 0 0 0 0 0 0 0 0 0 0 0 0 0 0 0 0 0 0 0 0 0 0 0 0 0 0 0 0 0 0 0 0 0 0 0 0 0 0 0 0 0 0 0 0 0 0 0 0 0 0 0 0 0 0 0 0 0 0 0 0 0 0 0 0 0 0 0 0 0 0 0 0 0 0 0 0 0 0 0 0 0 0 0 0 0 0 0 0 0 0 0 0 0 0 0 0 0 0 0 0 0 0 0 0 0 0 0 0 0 0 0 0 0 0 0 0 0 0 0 0 0 0 0 0 0 0 0 0 0 0 0 0 0 0 0 0 0 0 0 0 0 0 0 0 0 0 0 0 0 0 0 493 493 484 0 493 487 462 0 0 0 0 0 311 306 302 300 299 301 302 302 302 297 297 294 0 0 0 0 0 318 315 315 318 315 315 314 0 0 0 0 0
    0 0 0 0 0 0 0 0 0 0 0 0 0 0 0 0 0 0 0 0 0 0 0 0 0 0 0 0 0 0 0 0 0 0 0 0 0 0 0 0 0 0 0 0 0 0 0 0 0 0 0 0 0 0 0 0 0 0 0 0 0 0 0 0 0 0 0 0 0 0 0 0 0 0 0 0 0 0 0 0 0 0 0 0 0 0 0 0 0 0 0 0 0 0 0 0 0 0 0 0 0 0 0 0 0 0 0 0 0 0 0 0 0 0 0 0 0 0 0 0 0 0 0 0 0 0 0 0 0 0 0 0 0 0 0 0 0 0 0 0 0 0 0 0 0 0 0 0 0 0 0 0 0 0 0 0 0 0 0 0 0 0 0 0 0 0 0 0 0 0 0 0 0 0 0 0 0 0 0 0 0 0 0 0 0 0 0 0 0 0 0 0 0 0 0 0 0 0 0 0 0 0 0 0 0 0 0 0 0 0 0 0 0 0 0 0 0 0 0 0 0 0 0 0 0 0 0 0 0 0 0 0 0 0 0 0 0 0 0 0 0 0 0 0 0 0 0 0 0 0 0 0 0 0 0 0 0 0 0 0 0 0 0 0 0 0 0 0 0 0 0 0 0 0 0 0 0 0 0 487 487 0 0 0 484 457 435 0 0 0 0 313 306 301 299 297 300 301 300 299 294 292 292 289 0 0 296 0 309 309 313 315 314 314 313 0 0 0 0 0
    0 0 0 0 0 0 0 0 0 0 0 0 0 0 0 0 0 0 0 0 0 0 0 0 0 0 0 0 0 0 0 0 0 0 0 0 0 0 0 0 0 0 0 0 0 0 0 0 0 0 0 0 0 0 0 0 0 0 0 0 0 0 0 0 0 0 0 0 0 0 0 0 0 0 0 0 0 0 0 0 0 0 0 0 0 0 0 0 0 0 0 0 0 0 0 0 0 0 0 0 0 0 0 0 0 0 0 0 0 0 0 0 0 0 0 0 0 0 0 0 0 0 0 0 0 0 0 0 0 0 0 0 0 0 0 0 0 0 0 0 0 0 0 0 0 0 0 0 0 0 0 0 0 0 0 0 0 0 0 0 0 0 0 0 0 0 0 0 0 0 0 0 0 0 0 0 0 0 0 0 0 0 0 0 0 0 0 0 0 0 0 0 0 0 0 0 0 0 0 0 0 0 0 0 0 0 0 0 0 0 0 0 0 0 0 0 0 0 0 0 0 0 0 0 0 0 0 0 0 0 0 0 0 0 0 0 0 0 0 0 0 0 0 0 0 0 0 0 0 0 0 0 0 0 0 0 0 0 0 0 0 0 0 0 0 0 0 0 0 0 0 0 0 0 0 0 0 0 0 0 0 490 0 497 487 465 0 0 0 0 0 313 306 301 297 296 300 300 297 0 290 288 289 288 296 294 294 0 0 0 0 325 318 0 0 0 0 0 0 0
    0 0 0 0 0 0 0 0 0 0 0 0 0 0 0 0 0 0 0 0 0 0 0 0 0 0 0 0 0 0 0 0 0 0 0 0 0 0 0 0 0 0 0 0 0 0 0 0 0 0 0 0 0 0 0 0 0 0 0 0 0 0 0 0 0 0 0 0 0 0 0 0 0 0 0 0 0 0 0 0 0 0 0 0 0 0 0 0 0 0 0 0 0 0 0 0 0 0 0 0 0 0 0 0 0 0 0 0 0 0 0 0 0 0 0 0 0 0 0 0 0 0 0 0 0 0 0 0 0 0 0 0 0 0 0 0 0 0 0 0 0 0 0 0 0 0 0 0 0 0 0 0 0 0 0 0 0 0 0 0 0 0 0 0 0 0 0 0 0 0 0 0 0 0 0 0 0 0 0 0 0 0 0 0 0 0 0 0 0 0 0 0 0 0 0 0 0 0 0 0 0 0 0 0 0 0 0 0 0 0 0 0 0 0 0 0 0 0 0 0 0 0 0 0 0 0 0 0 0 0 0 0 0 0 0 0 0 0 0 0 0 0 0 0 0 0 0 0 0 0 0 0 0 0 0 0 0 0 0 0 0 0 0 0 0 0 0 0 0 0 0 0 0 0 0 0 0 0 0 0 0 0 0 504 487 468 0 0 0 0 0 313 304 300 297 295 297 299 296 0 290 287 288 285 292 290 290 0 0 0 0 337 0 0 0 0 0 0 0 0
    0 0 0 0 0 0 0 0 0 0 0 0 0 0 0 0 0 0 0 0 0 0 0 0 0 0 0 0 0 0 0 0 0 0 0 0 0 0 0 0 0 0 0 0 0 0 0 0 0 0 0 0 0 0 0 0 0 0 0 0 0 0 0 0 0 0 0 0 0 0 0 0 0 0 0 0 0 0 0 0 0 0 0 0 0 0 0 0 0 0 0 0 0 0 0 0 0 0 0 0 0 0 0 0 0 0 0 0 0 0 0 0 0 0 0 0 0 0 0 0 0 0 0 0 0 0 0 0 0 0 0 0 0 0 0 0 0 0 0 0 0 0 0 0 0 0 0 0 0 0 0 0 0 0 0 0 0 0 0 0 0 0 0 0 0 0 0 0 0 0 0 0 0 0 0 0 0 0 0 0 0 0 0 0 0 0 0 0 0 0 0 0 0 0 0 0 0 0 0 0 0 0 0 0 0 0 0 0 0 0 0 0 0 0 0 0 0 0 0 0 0 0 0 0 0 0 0 0 0 0 0 0 0 0 0 0 0 0 0 0 0 0 0 0 0 0 0 0 0 0 0 0 0 0 0 0 0 0 0 0 0 0 0 0 0 0 0 0 0 0 0 0 0 0 0 0 0 0 0 0 0 0 0 514 493 474 0 0 0 0 0 0 0 299 295 292 293 296 292 0 0 281 281 280 281 283 281 0 0 0 0 0 0 0 0 0 0 0 0 0
    0 0 0 0 0 0 0 0 0 0 0 0 0 0 0 0 0 0 0 0 0 0 0 0 0 0 0 0 0 0 0 0 0 0 0 0 0 0 0 0 0 0 0 0 0 0 0 0 0 0 0 0 0 0 0 0 0 0 0 0 0 0 0 0 0 0 0 0 0 0 0 0 0 0 0 0 0 0 0 0 0 0 0 0 0 0 0 0 0 0 0 0 0 0 0 0 0 0 0 0 0 0 0 0 0 0 0 0 0 0 0 0 0 0 0 0 0 0 0 0 0 0 0 0 0 0 0 0 0 0 0 0 0 0 0 0 0 0 0 0 0 0 0 0 0 0 0 0 0 0 0 0 0 0 0 0 0 0 0 0 0 0 0 0 0 0 0 0 0 0 0 0 0 0 0 0 0 0 0 0 0 0 0 0 0 0 0 0 0 0 0 0 0 0 0 0 0 0 0 0 0 0 0 0 0 0 0 0 0 0 0 0 0 0 0 0 0 0 0 0 0 0 0 0 0 0 0 0 0 0 0 0 0 0 0 0 0 0 0 0 0 0 0 0 0 0 0 0 0 0 0 0 0 0 0 0 0 0 0 0 0 0 0 0 0 0 0 0 0 0 0 0 0 0 0 0 0 0 0 0 0 0 0 0 0 0 0 0 0 0 0 0 0 0 292 286 284 0 284 0 0 278 278 277 277 280 279 276 277 277 0 0 0 0 0 0 0 0 0 0
    0 0 0 0 0 0 0 0 0 0 0 0 0 0 0 0 0 0 0 0 0 0 0 0 0 0 0 0 0 0 0 0 0 0 0 0 0 0 0 0 0 0 0 0 0 0 0 0 0 0 0 0 0 0 0 0 0 0 0 0 0 0 0 0 0 0 0 0 0 0 0 0 0 0 0 0 0 0 0 0 0 0 0 0 0 0 0 0 0 0 0 0 0 0 0 0 0 0 0 0 0 0 0 0 0 0 0 0 0 0 0 0 0 0 0 0 0 0 0 0 0 0 0 0 0 0 0 0 0 0 0 0 0 0 0 0 0 0 0 0 0 0 0 0 0 0 0 0 0 0 0 0 0 0 0 0 0 0 0 0 0 0 0 0 0 0 0 0 0 0 0 0 0 0 0 0 0 0 0 0 0 0 0 0 0 0 0 0 0 0 0 0 0 0 0 0 0 0 0 0 0 0 0 0 0 0 0 0 0 0 0 0 0 0 0 0 0 0 0 0 0 0 0 0 0 0 0 0 0 0 0 0 0 0 0 0 0 0 0 0 0 0 0 0 0 0 0 0 0 0 0 0 0 0 0 0 0 0 0 0 0 0 0 0 0 0 0 0 0 0 0 0 0 0 0 0 0 0 0 0 1168 0 1098 0 0 0 0 0 0 0 0 0 0 0 281 278 276 0 0 274 275 275 275 275 0 0 277 274 276 275 0 0 0 0 0 0 0 0 0 0
    0 0 0 0 0 0 0 0 0 0 0 0 0 0 0 0 0 0 0 0 0 0 0 0 0 0 0 0 0 0 0 0 0 0 0 0 0 0 0 0 0 0 0 0 0 0 0 0 0 0 0 0 0 0 0 0 0 0 0 0 0 0 0 0 0 0 0 0 0 0 0 0 0 0 0 0 0 0 0 0 0 0 0 0 0 0 0 0 0 0 0 0 0 0 0 0 0 0 0 0 0 0 0 0 0 0 0 0 0 0 0 0 0 0 0 0 0 0 0 0 0 0 0 0 0 0 0 0 0 0 0 0 0 0 0 0 0 0 0 0 0 0 0 0 0 0 0 0 0 0 0 0 0 0 0 0 0 0 0 0 0 0 0 0 0 0 0 0 0 0 0 0 0 0 0 0 0 0 0 0 0 0 0 0 0 0 0 0 0 0 0 0 0 0 0 0 0 0 0 0 0 0 0 0 0 0 0 0 0 0 0 0 0 0 0 0 0 0 0 0 0 0 0 0 0 0 0 0 0 0 0 0 0 0 0 0 0 0 0 0 0 0 0 0 0 0 0 0 0 0 0 0 0 0 0 0 0 0 0 0 0 0 0 0 0 0 0 0 0 0 0 0 0 0 0 0 0 0 0 0 1149 0 0 0 0 0 0 0 0 0 0 0 0 0 277 276 274 274 276 273 273 274 274 274 0 0 0 274 276 0 0 0 0 0 0 0 0 0 0 0
    0 0 0 0 0 0 0 0 0 0 0 0 0 0 0 0 0 0 0 0 0 0 0 0 0 0 0 0 0 0 0 0 0 0 0 0 0 0 0 0 0 0 0 0 0 0 0 0 0 0 0 0 0 0 0 0 0 0 0 0 0 0 0 0 0 0 0 0 0 0 0 0 0 0 0 0 0 0 0 0 0 0 0 0 0 0 0 0 0 0 0 0 0 0 0 0 0 0 0 0 0 0 0 0 0 0 0 0 0 0 0 0 0 0 0 0 0 0 0 0 0 0 0 0 0 0 0 0 0 0 0 0 0 0 0 0 0 0 0 0 0 0 0 0 0 0 0 0 0 0 0 0 0 0 0 0 0 0 0 0 0 0 0 0 0 0 0 0 0 0 0 0 0 0 0 0 0 0 0 0 0 0 0 0 0 0 0 0 0 0 0 0 0 0 0 0 0 0 0 0 0 0 0 0 0 0 0 0 0 0 0 0 0 0 0 0 0 0 0 0 0 0 0 0 0 0 0 0 0 0 0 0 0 0 0 0 0 0 0 0 0 0 0 0 0 0 0 0 0 0 0 0 0 0 0 0 0 0 0 0 0 0 0 0 0 0 0 0 0 0 0 0 0 0 0 0 0 766 0 0 0 0 0 0 0 0 0 0 0 0 0 0 276 275 277 276 275 274 275 270 272 272 273 272 269 0 0 0 276 0 0 0 0 0 265 0 0 0 0 0
    0 0 0 0 0 0 0 0 0 0 0 0 0 0 0 0 0 0 0 0 0 0 0 0 0 0 0 0 0 0 0 0 0 0 0 0 0 0 0 0 0 0 0 0 0 0 0 0 0 0 0 0 0 0 0 0 0 0 0 0 0 0 0 0 0 0 0 0 0 0 0 0 0 0 0 0 0 0 0 0 0 0 0 0 0 0 0 0 0 0 0 0 0 0 0 0 0 0 0 0 0 0 0 0 0 0 0 0 0 0 0 0 0 0 0 0 0 0 0 0 0 0 0 0 0 0 0 0 0 0 0 0 0 0 0 0 0 0 0 0 0 0 0 0 0 0 0 0 0 0 0 0 0 0 0 0 0 0 0 0 0 0 0 0 0 0 0 0 0 0 0 0 0 0 0 0 0 0 0 0 0 0 0 0 0 0 0 0 0 0 0 0 0 0 0 0 0 0 0 0 0 0 0 0 0 0 0 0 0 0 0 0 0 0 0 0 0 0 0 0 0 0 0 0 0 0 0 0 0 0 0 0 0 0 0 0 0 0 0 0 0 0 0 0 0 0 0 0 0 0 0 0 0 0 0 0 0 0 0 0 0 0 0 0 0 0 0 0 0 0 0 0 0 0 0 0 0 791 808 0 0 0 0 0 0 0 0 0 0 0 0 0 0 272 274 274 273 272 272 267 269 268 270 269 266 267 0 269 275 0 0 0 0 0 262 0 0 0 0 0
    0 0 0 0 0 0 0 0 0 0 0 0 0 0 0 0 0 0 0 0 0 0 0 0 0 0 0 0 0 0 0 0 0 0 0 0 0 0 0 0 0 0 0 0 0 0 0 0 0 0 0 0 0 0 0 0 0 0 0 0 0 0 0 0 0 0 0 0 0 0 0 0 0 0 0 0 0 0 0 0 0 0 0 0 0 0 0 0 0 0 0 0 0 0 0 0 0 0 0 0 0 0 0 0 0 0 0 0 0 0 0 0 0 0 0 0 0 0 0 0 0 0 0 0 0 0 0 0 0 0 0 0 0 0 0 0 0 0 0 0 0 0 0 0 0 0 0 0 0 0 0 0 0 0 0 0 0 0 0 0 0 0 0 0 0 0 0 0 0 0 0 0 0 0 0 0 0 0 0 0 0 0 0 0 0 0 0 0 0 0 0 0 0 0 0 0 0 0 0 0 0 0 0 0 0 0 0 0 0 0 0 0 0 0 0 0 0 0 0 0 0 0 0 0 0 0 0 0 0 0 0 0 0 0 0 0 0 0 0 0 0 0 0 0 0 0 0 0 0 0 0 0 0 0 0 0 0 0 0 0 0 0 0 0 0 0 0 0 0 0 0 0 0 0 0 0 0 782 782 735 0 0 0 0 0 0 0 0 0 0 0 0 0 0 273 274 273 272 272 266 268 266 267 266 264 264 264 265 272 265 0 0 250 0 257 0 0 0 0 0
    0 0 0 0 0 0 0 0 0 0 0 0 0 0 0 0 0 0 0 0 0 0 0 0 0 0 0 0 0 0 0 0 0 0 0 0 0 0 0 0 0 0 0 0 0 0 0 0 0 0 0 0 0 0 0 0 0 0 0 0 0 0 0 0 0 0 0 0 0 0 0 0 0 0 0 0 0 0 0 0 0 0 0 0 0 0 0 0 0 0 0 0 0 0 0 0 0 0 0 0 0 0 0 0 0 0 0 0 0 0 0 0 0 0 0 0 0 0 0 0 0 0 0 0 0 0 0 0 0 0 0 0 0 0 0 0 0 0 0 0 0 0 0 0 0 0 0 0 0 0 0 0 0 0 0 0 0 0 0 0 0 0 0 0 0 0 0 0 0 0 0 0 0 0 0 0 0 0 0 0 0 0 0 0 0 0 0 0 0 0 0 0 0 0 0 0 0 0 0 0 0 0 0 0 0 0 0 0 0 0 0 0 0 0 0 0 0 0 0 0 0 0 0 0 0 0 0 0 0 0 0 0 0 0 0 0 0 0 0 0 0 0 0 0 0 0 0 0 0 0 0 0 0 0 0 0 0 0 0 0 0 0 0 0 0 0 0 0 0 0 0 0 0 0 0 0 0 758 728 0 0 0 0 0 0 0 0 0 0 0 0 0 0 0 0 274 272 271 272 264 266 263 264 264 262 261 260 262 268 264 0 0 250 0 260 0 0 0 0 0
    0 0 0 0 0 0 0 0 0 0 0 0 0 0 0 0 0 0 0 0 0 0 0 0 0 0 0 0 0 0 0 0 0 0 0 0 0 0 0 0 0 0 0 0 0 0 0 0 0 0 0 0 0 0 0 0 0 0 0 0 0 0 0 0 0 0 0 0 0 0 0 0 0 0 0 0 0 0 0 0 0 0 0 0 0 0 0 0 0 0 0 0 0 0 0 0 0 0 0 0 0 0 0 0 0 0 0 0 0 0 0 0 0 0 0 0 0 0 0 0 0 0 0 0 0 0 0 0 0 0 0 0 0 0 0 0 0 0 0 0 0 0 0 0 0 0 0 0 0 0 0 0 0 0 0 0 0 0 0 0 0 0 0 0 0 0 0 0 0 0 0 0 0 0 0 0 0 0 0 0 0 0 0 0 0 0 0 0 0 0 0 0 0 0 0 0 0 0 0 0 0 0 0 0 0 0 0 0 0 0 0 0 0 0 0 0 0 0 0 0 0 0 0 0 0 0 0 0 0 0 0 0 0 0 0 0 0 0 0 0 0 0 0 0 0 0 0 0 0 0 0 0 0 0 0 0 0 0 0 0 0 0 0 0 0 0 0 0 0 0 0 0 0 0 0 0 0 735 0 0 0 0 0 886 0 0 0 0 0 0 0 0 0 0 0 272 270 269 267 261 263 261 262 262 260 257 256 257 0 0 0 0 250 249 257 0 0 0 0 0
    0 0 0 0 0 0 0 0 0 0 0 0 0 0 0 0 0 0 0 0 0 0 0 0 0 0 0 0 0 0 0 0 0 0 0 0 0 0 0 0 0 0 0 0 0 0 0 0 0 0 0 0 0 0 0 0 0 0 0 0 0 0 0 0 0 0 0 0 0 0 0 0 0 0 0 0 0 0 0 0 0 0 0 0 0 0 0 0 0 0 0 0 0 0 0 0 0 0 0 0 0 0 0 0 0 0 0 0 0 0 0 0 0 0 0 0 0 0 0 0 0 0 0 0 0 0 0 0 0 0 0 0 0 0 0 0 0 0 0 0 0 0 0 0 0 0 0 0 0 0 0 0 0 0 0 0 0 0 0 0 0 0 0 0 0 0 0 0 0 0 0 0 0 0 0 0 0 0 0 0 0 0 0 0 0 0 0 0 0 0 0 0 0 0 0 0 0 0 0 0 0 0 0 0 0 0 0 0 0 0 0 0 0 0 0 0 0 0 0 0 0 0 0 0 0 0 0 0 0 0 0 0 0 0 0 0 0 0 0 0 0 0 0 0 0 0 0 0 0 0 0 0 0 0 0 0 0 0 0 0 0 0 0 0 0 0 0 0 0 0 0 0 0 0 0 0 0 0 0 0 0 0 826 0 826 0 0 0 0 0 0 0 0 0 0 0 268 268 266 261 262 260 260 259 0 0 0 0 0 0 0 0 0 0 251 0 0 0 0 0
    0 0 0 0 0 0 0 0 0 0 0 0 0 0 0 0 0 0 0 0 0 0 0 0 0 0 0 0 0 0 0 0 0 0 0 0 0 0 0 0 0 0 0 0 0 0 0 0 0 0 0 0 0 0 0 0 0 0 0 0 0 0 0 0 0 0 0 0 0 0 0 0 0 0 0 0 0 0 0 0 0 0 0 0 0 0 0 0 0 0 0 0 0 0 0 0 0 0 0 0 0 0 0 0 0 0 0 0 0 0 0 0 0 0 0 0 0 0 0 0 0 0 0 0 0 0 0 0 0 0 0 0 0 0 0 0 0 0 0 0 0 0 0 0 0 0 0 0 0 0 0 0 0 0 0 0 0 0 0 0 0 0 0 0 0 0 0 0 0 0 0 0 0 0 0 0 0 0 0 0 0 0 0 0 0 0 0 0 0 0 0 0 0 0 0 0 0 0 0 0 0 0 0 0 0 0 0 0 0 0 0 0 0 0 0 0 0 0 0 0 0 0 0 0 0 0 0 0 0 0 0 0 0 0 0 0 0 0 0 0 0 0 0 0 0 0 0 0 0 0 0 0 0 0 0 0 0 0 0 0 0 0 0 0 0 0 0 0 0 0 0 0 0 0 0 0 0 0 0 0 681 0 735 758 750 721 0 0 0 0 0 0 0 0 0 0 271 271 271 0 0 260 258 252 0 0 245 245 244 247 0 0 246 246 246 0 0 0 0 0
    0 0 0 0 0 0 0 0 0 0 0 0 0 0 0 0 0 0 0 0 0 0 0 0 0 0 0 0 0 0 0 0 0 0 0 0 0 0 0 0 0 0 0 0 0 0 0 0 0 0 0 0 0 0 0 0 0 0 0 0 0 0 0 0 0 0 0 0 0 0 0 0 0 0 0 0 0 0 0 0 0 0 0 0 0 0 0 0 0 0 0 0 0 0 0 0 0 0 0 0 0 0 0 0 0 0 0 0 0 0 0 0 0 0 0 0 0 0 0 0 0 0 0 0 0 0 0 0 0 0 0 0 0 0 0 0 0 0 0 0 0 0 0 0 0 0 0 0 0 0 0 0 0 0 0 0 0 0 0 0 0 0 0 0 0 0 0 0 0 0 0 0 0 0 0 0 0 0 0 0 0 0 0 0 0 0 0 0 0 0 0 0 0 0 0 0 0 0 0 0 0 0 0 0 0 0 0 0 0 0 0 0 0 0 0 0 0 0 0 0 0 0 0 0 0 0 0 0 0 0 0 0 0 0 0 0 0 0 0 0 0 0 0 0 0 0 0 0 0 0 0 0 0 0 0 0 0 0 0 0 0 0 0 0 0 0 0 0 0 0 0 0 0 0 0 0 0 0 0 0 0 0 0 0 0 0 0 0 0 0 0 0 0 0 0 273 270 272 269 0 0 0 0 0 246 244 242 243 242 247 0 247 246 246 246 0 0 0 0 0
    0 0 0 0 0 0 0 0 0 0 0 0 0 0 0 0 0 0 0 0 0 0 0 0 0 0 0 0 0 0 0 0 0 0 0 0 0 0 0 0 0 0 0 0 0 0 0 0 0 0 0 0 0 0 0 0 0 0 0 0 0 0 0 0 0 0 0 0 0 0 0 0 0 0 0 0 0 0 0 0 0 0 0 0 0 0 0 0 0 0 0 0 0 0 0 0 0 0 0 0 0 0 0 0 0 0 0 0 0 0 0 0 0 0 0 0 0 0 0 0 0 0 0 0 0 0 0 0 0 0 0 0 0 0 0 0 0 0 0 0 0 0 0 0 0 0 0 0 0 0 0 0 0 0 0 0 0 0 0 0 0 0 0 0 0 0 0 0 0 0 0 0 0 0 0 0 0 0 0 0 0 0 0 0 0 0 0 0 0 0 0 0 0 0 0 0 0 0 0 0 0 0 0 0 0 0 0 0 0 0 0 0 0 0 0 0 0 0 0 0 0 0 0 0 0 0 0 0 0 0 0 0 0 0 0 0 0 0 0 0 0 0 0 0 0 0 0 0 0 0 0 0 0 0 0 0 0 0 0 0 0 0 0 0 0 0 0 0 0 0 0 0 0 0 0 0 0 0 0 0 0 0 0 0 0 0 0 0 0 0 0 0 0 0 0 0 264 266 0 252 245 0 0 0 244 242 242 242 243 0 0 0 0 246 246 0 0 0 0 0
    0 0 0 0 0 0 0 0 0 0 0 0 0 0 0 0 0 0 0 0 0 0 0 0 0 0 0 0 0 0 0 0 0 0 0 0 0 0 0 0 0 0 0 0 0 0 0 0 0 0 0 0 0 0 0 0 0 0 0 0 0 0 0 0 0 0 0 0 0 0 0 0 0 0 0 0 0 0 0 0 0 0 0 0 0 0 0 0 0 0 0 0 0 0 0 0 0 0 0 0 0 0 0 0 0 0 0 0 0 0 0 0 0 0 0 0 0 0 0 0 0 0 0 0 0 0 0 0 0 0 0 0 0 0 0 0 0 0 0 0 0 0 0 0 0 0 0 0 0 0 0 0 0 0 0 0 0 0 0 0 0 0 0 0 0 0 0 0 0 0 0 0 0 0 0 0 0 0 0 0 0 0 0 0 0 0 0 0 0 0 0 0 0 0 0 0 0 0 0 0 0 0 0 0 0 0 0 0 0 0 0 0 0 0 0 0 0 0 0 0 0 0 0 0 0 0 0 0 0 0 0 0 0 0 0 0 0 0 0 0 0 0 0 0 0 0 0 0 0 0 0 0 0 0 0 0 0 0 0 0 0 0 0 0 0 0 0 0 0 0 0 0 0 0 0 0 0 0 0 0 0 0 0 0 0 0 0 0 0 0 6690 8177 0 7359 0 0 0 0 0 249 243 238 238 238 242 242 241 242 242 0 0 0 0 246 246 0 0 0 0 0
    0 0 0 0 0 0 0 0 0 0 0 0 0 0 0 0 0 0 0 0 0 0 0 0 0 0 0 0 0 0 0 0 0 0 0 0 0 0 0 0 0 0 0 0 0 0 0 0 0 0 0 0 0 0 0 0 0 0 0 0 0 0 0 0 0 0 0 0 0 0 0 0 0 0 0 0 0 0 0 0 0 0 0 0 0 0 0 0 0 0 0 0 0 0 0 0 0 0 0 0 0 0 0 0 0 0 0 0 0 0 0 0 0 0 0 0 0 0 0 0 0 0 0 0 0 0 0 0 0 0 0 0 0 0 0 0 0 0 0 0 0 0 0 0 0 0 0 0 0 0 0 0 0 0 0 0 0 0 0 0 0 0 0 0 0 0 0 0 0 0 0 0 0 0 0 0 0 0 0 0 0 0 0 0 0 0 0 0 0 0 0 0 0 0 0 0 0 0 0 0 0 0 0 0 0 0 0 0 0 0 0 0 0 0 0 0 0 0 0 0 0 0 0 0 0 0 0 0 0 0 0 0 0 0 0 0 0 0 0 0 0 0 0 0 0 0 0 0 0 0 0 0 0 0 0 0 0 0 0 0 0 0 0 0 0 0 0 0 0 0 0 0 0 0 0 0 0 0 0 0 0 0 256 0 0 0 0 0 0 0 0 0 0 0 0 0 0 0 0 245 240 238 238 237 242 242 241 0 0 0 0 0 0 0 245 0 0 0 0 0</data></depth>
</opencv_storage>
