<?xml version="1.0"?>
<opencv_storage>
<gps_time_stamp>16793</gps_time_stamp>
<gps_x>1.9111070781946182e-002</gps_x>
<gps_y>1.2366322800517082e-002</gps_y>
<gps_z>-7.8291669487953186e-003</gps_z>
<image_time_stamp>4765</image_time_stamp>
<depth type_id="opencv-matrix">
  <rows>80</rows>
  <cols>320</cols>
  <dt>s</dt>
  <data>
    0 0 0 0 0 0 0 0 0 0 0 0 0 0 0 0 0 0 0 0 0 0 0 0 0 0 0 0 0 0 0 0 0 0 0 0 0 0 0 0 0 0 0 0 0 0 0 0 0 0 0 0 0 0 0 0 0 0 0 0 0 0 0 0 0 0 0 0 0 5661 4906 5661 5661 6690 6133 6690 6133 7359 6133 8177 8177 8177 7359 6690 5661 0 0 0 0 0 0 0 0 0 0 0 0 0 0 0 0 0 0 0 0 0 0 0 0 0 0 0 0 0 0 0 0 0 0 0 0 0 0 0 0 0 0 0 0 0 0 0 0 0 0 0 0 0 7359 0 7359 0 0 0 0 0 0 0 0 0 0 0 0 0 0 0 0 6133 6133 6690 6690 7359 6690 6690 6690 6690 8177 0 8177 5661 0 0 0 0 0 0 0 0 0 0 0 8177 8177 0 0 8177 0 8177 8177 7359 0 8177 6690 7359 4599 5661 6133 5661 5256 6690 6690 6690 6690 0 0 0 4329 6690 5661 4599 4599 4599 4599 4599 4599 0 0 0 0 0 4088 4329 4088 4329 4599 4599 4906 4599 4088 4088 4599 4599 4088 4088 4329 4329 4088 3873 3679 3199 3345 3345 3066 2725 2628 2537 2628 2628 2628 2453 2374 2453 2453 2453 2453 2374 2299 2374 2299 2374 2230 2230 2230 2164 2230 2230 2164 2164 2102 2102 2102 2102 2102 2102 2044 2102 2164 2164 2044 2044 1989 1989 2044 1989 2044 2044 2044 2044 1989 2044 2044 1989 2044 1936 1839 1752 1752 1752 1752 1752 1711 1672 1635 1635 1635 1635 1635 1635 1672 1672 1752 1839 1936 1936 1989 0 0 0 0 0
    0 0 0 0 0 0 0 0 0 0 0 0 0 0 0 0 0 0 0 0 0 0 0 0 0 0 0 0 0 0 0 0 0 0 0 0 0 0 0 0 0 0 0 0 0 0 0 0 0 0 0 0 0 0 0 0 0 0 0 0 0 0 0 0 0 0 0 0 0 4906 4599 5256 5256 5661 5661 6133 5661 6690 5661 7359 6690 8177 7359 6690 5661 5661 0 0 0 0 0 0 0 0 0 0 0 0 0 0 0 0 0 0 0 0 0 0 0 0 0 0 0 0 0 0 0 0 0 0 0 0 0 0 0 0 0 0 0 0 0 0 0 0 0 0 8177 8177 7359 8177 8177 0 0 0 0 0 0 0 0 0 0 0 0 0 0 0 0 6690 0 7359 7359 7359 7359 7359 7359 7359 0 0 0 5661 0 0 0 0 0 0 0 0 0 0 0 8177 7359 0 0 7359 8177 7359 8177 7359 0 0 7359 8177 4906 6133 6133 6133 5661 6690 6690 6690 6690 0 0 0 4329 6690 5256 4599 4599 4599 4599 4599 4599 0 0 0 0 4088 4088 4329 4088 4088 4329 4599 4599 4329 4329 4088 4599 4599 4088 4088 4329 4329 4329 3873 3679 3199 3345 3345 3066 2725 2628 2628 2725 2725 2628 2537 2374 2453 2537 2453 2537 2453 2299 2374 2230 2374 2230 2299 2299 2230 2230 2299 2230 2230 2102 2164 2102 2102 2102 2102 2102 2102 2230 2230 2102 2102 2044 2044 2044 2044 2044 2044 2044 2044 2044 2044 1989 1989 2102 1989 1936 0 0 1795 1752 1795 1752 1672 1635 1635 1672 1635 1635 1635 1672 1672 1795 1839 1936 1936 1989 0 0 0 0 0
    0 0 0 0 0 0 0 0 0 0 0 0 0 0 0 0 0 0 0 0 0 0 0 0 0 0 0 0 0 0 0 0 0 0 0 0 0 0 0 0 0 0 0 0 0 0 0 0 0 0 0 0 0 0 0 0 0 0 0 0 0 0 0 0 0 0 0 0 0 4599 4599 5256 5256 5256 4906 5661 5661 6133 5256 6690 6133 7359 7359 7359 6690 6133 0 0 0 0 7359 8177 8177 8177 8177 8177 7359 0 0 0 0 0 0 0 0 0 0 0 0 0 0 0 0 0 0 0 0 0 0 0 0 0 0 0 0 0 0 0 0 0 0 0 0 8177 0 0 7359 7359 7359 8177 7359 8177 0 0 0 0 0 0 0 0 0 0 0 0 0 0 0 6690 0 7359 8177 8177 8177 7359 7359 7359 0 0 0 5661 0 0 0 0 0 0 0 0 0 0 0 7359 6690 0 0 7359 7359 6690 7359 7359 0 0 0 0 5661 6690 6690 6690 5661 7359 6690 6690 6690 0 9199 0 4329 6690 5256 4599 4599 4599 4599 4599 4599 0 0 0 0 4329 4329 4599 4329 4329 4599 4599 4329 4599 4329 4329 4599 4329 4088 4088 4329 4599 4329 3873 3679 3199 3504 3504 3199 2830 2725 2725 2725 2725 2725 2628 2374 2453 2453 2453 2537 2453 2299 2374 2230 2374 2230 2299 2299 2230 2230 2299 2230 2230 2102 2230 2164 2164 2164 2102 2102 2102 2230 2230 2102 2102 2044 2044 2044 1989 1989 1989 1989 2044 1989 1989 1989 1989 2102 1989 1989 0 0 1839 1795 1839 1795 1711 1672 1672 1672 1672 1672 1711 1711 1711 1795 1839 1936 1936 1936 0 0 0 0 0
    0 0 0 0 0 0 0 0 0 0 0 0 0 0 0 0 0 0 0 0 0 0 0 0 0 0 0 0 0 0 0 0 0 0 0 0 0 0 0 0 0 0 0 0 0 0 0 0 0 0 0 0 0 0 0 0 0 0 0 0 0 0 0 0 0 0 0 0 0 4599 4329 4906 4906 5256 4599 5256 4906 6133 4906 6133 6133 8177 8177 0 7359 6690 7359 0 0 0 6133 6690 6690 6690 6690 6690 6690 0 0 0 0 0 0 0 0 0 0 0 8177 8177 0 0 0 0 0 0 0 0 0 0 0 0 0 0 0 0 0 0 0 0 0 0 0 8177 8177 0 7359 6690 6690 7359 7359 8177 8177 8177 0 0 0 0 0 0 0 0 0 0 0 0 0 7359 0 8177 0 8177 8177 8177 7359 7359 0 0 0 5256 0 0 0 0 0 0 0 0 0 0 0 7359 6133 8177 8177 7359 6690 6690 6690 6690 0 0 0 0 6133 6690 7359 6690 6133 7359 6690 6690 6690 0 8177 0 4329 6690 5256 4599 4599 4599 4599 4599 4329 0 0 0 4088 3873 4088 4906 4599 4329 4906 4329 4599 4599 4599 4599 4599 4329 4088 4088 4599 4599 4329 4088 3873 3504 3679 3873 3504 2943 2830 2830 2725 2830 2725 2628 2453 2537 2537 2453 2537 2453 2374 2453 2299 2374 2230 2299 2299 2230 2230 2299 2230 2230 2102 2230 2164 2164 2164 2164 2102 2102 2230 2230 2164 2102 2044 2044 1989 1989 1989 1936 1989 1989 1989 1989 1989 2044 2164 2102 2102 0 0 1887 1839 1839 1795 1752 1711 1711 1711 1711 1711 1752 1752 1795 1839 1839 1887 1887 1936 0 0 0 0 0
    0 0 0 0 0 0 0 0 0 0 0 0 0 0 0 0 0 0 0 0 0 0 0 0 0 0 0 0 0 0 0 0 0 0 0 0 0 0 0 0 0 0 0 0 0 0 0 0 0 0 0 0 0 0 0 0 0 0 0 0 0 0 0 0 0 0 0 0 0 4599 4329 4906 4599 5256 4599 5256 4906 5661 4906 5661 6133 8177 8177 0 7359 7359 7359 0 0 0 5256 5661 5661 5661 5661 5661 5661 8177 0 0 0 0 0 0 0 0 0 0 9199 0 0 0 0 0 0 0 0 0 0 0 0 0 0 0 0 0 0 0 0 0 0 0 0 8177 8177 0 6690 6133 6133 7359 6690 7359 8177 8177 8177 0 0 0 0 0 0 0 0 0 0 0 0 7359 0 8177 0 8177 8177 8177 7359 7359 8177 0 0 5256 0 0 0 0 0 0 0 0 0 0 0 7359 6133 8177 8177 6690 6133 6133 6690 6690 9199 0 0 0 6690 7359 7359 7359 6133 7359 7359 7359 7359 0 0 0 4329 6690 5256 4599 4599 4599 4599 4599 4329 0 0 3873 4088 3873 3873 4599 4329 4599 4329 4329 4599 4599 4599 4599 4329 4329 4088 4088 4329 4329 4329 4088 3873 3504 3679 3679 3345 2830 2725 2725 2725 2725 2628 2628 2453 2537 2537 2453 2453 2374 2374 2374 2299 2374 2230 2230 2230 2164 2164 2230 2230 2164 2102 2164 2164 2164 2164 2230 2102 2044 2164 2164 2102 2102 2044 2044 1989 1989 1989 1936 1936 1936 1989 2044 2044 2102 2299 2299 2374 0 0 0 1887 1839 1795 1795 1752 1711 1752 1711 1752 1752 1795 1795 1839 1887 1887 1887 1887 0 0 0 0 0
    0 0 0 0 0 0 0 0 0 0 0 0 0 0 0 0 0 0 0 0 0 0 0 0 0 0 0 0 0 0 0 0 0 0 0 0 0 0 0 0 0 0 0 0 0 0 0 0 0 0 0 0 0 0 0 0 0 0 0 0 0 0 0 0 0 0 0 0 0 4906 4329 4599 4599 4906 4599 4906 4599 5256 4329 5256 5661 7359 6690 8177 7359 7359 7359 0 0 0 5256 5256 5256 5256 5256 5256 4906 7359 0 0 0 0 0 0 0 0 0 0 0 0 0 0 0 0 0 0 0 0 0 0 0 0 0 0 0 0 0 0 0 0 0 0 0 0 0 0 6133 6133 6133 7359 6690 7359 7359 7359 8177 8177 0 0 0 0 0 73 0 0 0 0 0 5661 0 7359 8177 8177 8177 7359 7359 7359 8177 0 0 5661 0 0 0 0 0 0 0 0 0 0 0 7359 6133 8177 8177 6690 6133 6133 6133 6133 8177 0 0 0 7359 8177 8177 8177 6690 8177 7359 7359 7359 0 0 0 4906 7359 5661 4906 4906 4906 4906 4906 4599 0 0 4329 3873 3873 4088 4906 4599 4599 4329 4599 4906 4906 4599 4906 4329 4088 4088 3873 4088 3873 3873 3873 3504 3504 3679 3679 3199 2725 2628 2725 2725 2628 2628 2628 2453 2628 2537 2453 2374 2374 2299 2299 2230 2299 2230 2230 2164 2230 2164 2230 2164 2164 2164 2230 2164 2230 2164 2230 2044 2044 2102 2102 2044 2044 1989 1989 1989 1989 1989 1936 1936 1936 1989 2044 2102 2102 2299 2299 2299 0 0 1989 1887 1839 1839 1795 1752 1752 1752 1752 1752 1795 1839 1839 1887 1887 1887 1887 1887 0 0 0 0 0
    0 0 0 0 0 0 0 0 0 0 0 0 0 0 0 0 0 0 0 0 0 0 0 0 0 0 0 0 0 0 0 0 0 0 0 0 0 0 0 0 0 0 0 0 0 0 0 0 0 0 0 0 0 0 0 0 0 0 0 0 0 0 0 0 0 0 0 0 0 4599 4329 4329 4329 4906 4599 4906 4599 4906 4329 4906 5661 7359 7359 9199 8177 7359 8177 0 0 0 5256 4906 4599 4599 4599 4599 4906 6690 0 0 0 0 0 0 0 0 0 0 8177 0 0 0 0 0 0 0 0 0 0 0 0 0 0 0 0 0 0 0 0 0 0 0 0 0 0 0 6690 6133 6133 7359 6690 7359 7359 7359 8177 8177 0 0 0 0 0 0 1752 0 0 0 0 4599 6690 7359 7359 7359 7359 7359 7359 7359 8177 8177 0 6133 0 0 0 0 0 0 0 0 0 0 0 7359 6133 8177 8177 6690 6690 6690 6690 6690 8177 0 0 0 8177 8177 8177 8177 6690 8177 8177 8177 8177 0 0 0 5661 7359 6133 5661 5661 5661 5661 4906 4906 0 4088 4088 3873 4088 4088 5256 4906 4599 4599 4906 4906 4906 4906 5256 4088 4088 4088 3679 3873 3679 3873 3504 3504 3504 3873 3679 3679 2943 2943 2943 2943 2628 2628 2628 2537 2628 2537 2453 2374 2374 2299 2230 2164 2164 2164 2230 2164 2230 2164 2230 2164 2230 2230 2230 2164 2230 2164 2299 2044 2044 2102 2044 2044 1989 1989 1989 1989 1989 1989 1936 1936 1936 1989 1989 2044 2044 2164 2102 2164 2044 1989 1936 1887 1839 1839 1795 1795 1752 1752 1752 1795 1839 1839 1839 1887 1887 1839 1839 1839 0 0 0 0 0
    0 0 0 0 0 0 0 0 0 0 0 0 0 0 0 0 0 0 0 0 0 0 0 0 0 0 0 0 0 0 0 0 0 0 0 0 0 0 0 0 0 0 0 0 0 0 0 0 0 0 0 0 0 0 0 0 0 0 0 0 0 0 0 0 0 0 0 0 0 4599 4599 4329 4329 4906 4599 4906 4599 4906 4329 4906 5661 7359 8177 0 8177 8177 8177 0 0 0 5661 4906 4599 4599 4599 4599 4906 6690 0 0 0 0 0 0 0 0 0 0 0 0 0 0 0 0 0 0 0 0 0 0 0 0 0 0 0 0 0 0 0 0 0 0 0 0 0 0 7359 6690 6690 7359 7359 8177 7359 8177 8177 8177 0 0 0 0 0 0 0 0 0 0 5256 4329 6690 6690 7359 7359 7359 7359 7359 7359 8177 8177 0 6690 0 0 0 0 0 0 0 0 0 0 0 7359 6690 8177 0 7359 7359 7359 7359 7359 0 0 0 0 0 0 8177 0 7359 8177 8177 8177 8177 8177 8177 0 6133 8177 6690 6133 6133 6133 5661 5661 5661 6690 4088 4088 3873 4088 4088 5256 5256 4906 5256 5256 5256 5256 5256 5256 4088 3873 3873 3504 3679 3504 3679 3345 3345 3345 3679 3504 3504 2943 3066 2943 2830 2628 2628 2537 2537 2628 2537 2453 2299 2299 2230 2230 2164 2164 2164 2164 2164 2164 2164 2230 2164 2164 2230 2164 2164 2230 2164 2230 2044 2044 2102 2044 2044 1989 1989 1989 1989 1989 1989 1887 1936 1887 1989 1936 1936 1936 1989 1887 1936 1839 1887 1839 1839 1839 1839 1839 1839 1795 1795 1795 1839 1887 1887 1936 1887 1887 1887 1887 1887 0 0 0 0 0
    0 0 0 0 0 0 0 0 0 0 0 0 0 0 0 0 0 0 0 0 0 0 0 0 0 0 0 0 0 0 0 0 0 0 0 0 0 0 0 0 0 0 0 0 0 0 0 0 0 0 0 0 0 0 0 0 0 0 0 0 0 0 0 0 0 0 0 0 0 4599 4599 4088 4329 4599 4599 4906 4599 4906 4599 4599 5661 8177 0 0 0 0 0 0 0 0 5661 4906 4906 4599 4599 4599 4906 6690 0 0 0 0 0 0 0 0 0 0 0 0 0 0 0 0 0 0 0 0 0 0 0 0 0 8177 0 0 0 0 0 0 0 0 0 0 0 0 7359 7359 6690 7359 7359 8177 8177 8177 0 0 0 0 0 0 0 0 0 0 0 0 4906 4088 6133 6690 6690 7359 7359 7359 7359 7359 8177 8177 0 7359 0 0 0 0 0 0 0 0 0 0 0 8177 7359 0 0 8177 8177 8177 8177 0 0 0 0 0 0 0 0 0 7359 0 0 0 0 8177 8177 8177 7359 0 8177 7359 7359 7359 6690 6690 6133 6690 4329 4329 3873 4088 4088 5661 4906 4906 5256 5256 4906 5256 5661 5256 4088 4088 3873 3504 3679 3504 3504 3199 3345 3345 3345 3199 3066 2830 2943 2830 2725 2537 2537 2453 2453 2537 2537 2374 2299 2299 2299 2230 2230 2164 2164 2164 2102 2164 2164 2230 2164 2164 2164 2164 2102 2230 2102 2230 2044 2044 2044 1989 1989 1989 1989 1989 1989 1989 1989 1887 1936 1887 1989 1936 1887 1839 1839 1752 1795 1752 1795 1795 1752 1795 1795 1839 1839 1839 1887 1887 1887 1989 1989 2102 2044 2044 1936 1989 1989 0 0 0 0 0
    0 0 0 0 0 0 0 0 0 0 0 0 0 0 0 0 0 0 0 0 0 0 0 0 0 0 0 0 0 0 0 0 0 0 0 0 0 0 0 0 0 0 0 0 0 0 0 0 0 0 0 0 0 0 0 0 0 0 0 0 0 0 0 0 0 0 0 0 0 4599 4599 4088 4329 4599 4329 4906 4599 4906 4599 4599 5661 0 0 0 0 0 0 0 0 0 5661 5256 5256 4599 4599 4599 4906 6690 0 0 0 0 0 0 0 0 0 0 0 0 0 0 0 0 0 0 0 0 0 8177 0 0 0 8177 0 0 0 0 0 0 0 0 0 0 0 0 7359 7359 6690 8177 7359 8177 8177 8177 0 0 0 0 0 0 0 0 0 0 0 0 4599 4088 5661 6690 6690 7359 7359 7359 7359 7359 8177 8177 0 7359 0 0 0 0 0 0 0 0 0 0 0 8177 8177 0 0 0 0 0 0 0 0 0 0 0 0 0 0 0 8177 0 0 0 0 8177 8177 8177 0 0 0 0 0 8177 7359 6690 6690 6133 4329 4599 3679 4088 4088 5256 4906 4906 4906 4906 4906 5256 5256 5256 4088 4088 3873 3679 3679 3504 3504 3345 3199 3199 3199 3066 2943 2830 2830 2628 2628 2453 2453 2374 2374 2537 2453 2374 2299 2230 2299 2230 2299 2164 2230 2164 2102 2164 2164 2230 2164 2164 2164 2164 2102 2230 2102 2230 1989 1989 2044 1989 1989 1936 1936 1989 1989 1989 1989 1887 1936 1839 1936 1887 1839 1795 1752 1672 1752 1711 1752 1752 1752 1795 1795 1887 1887 1887 1936 1936 1989 2102 2164 2299 2230 2230 2102 2102 2164 0 0 0 0 0
    0 0 0 0 0 0 0 0 0 0 0 0 0 0 0 0 0 0 0 0 0 0 0 0 0 0 0 0 0 0 0 0 0 0 0 0 0 0 0 0 0 0 0 0 0 0 0 0 0 0 0 0 0 0 0 0 0 0 0 0 0 0 0 0 0 0 0 0 0 4599 4599 4088 4329 4599 4329 4906 4599 4906 4599 4329 6690 0 0 0 0 0 0 0 0 4599 5661 5661 5256 4906 4599 4599 4906 6690 0 0 0 0 0 0 0 0 0 0 0 0 0 0 0 0 0 0 0 0 0 0 0 0 0 0 0 0 0 0 0 0 0 0 0 0 0 0 8177 7359 7359 8177 7359 8177 8177 8177 0 0 0 0 0 0 0 0 1711 1936 1752 0 4329 3873 5661 6690 6690 7359 7359 7359 7359 8177 8177 8177 0 6690 0 0 0 0 0 0 0 0 0 0 0 0 0 0 0 0 0 0 0 0 0 0 0 0 0 0 0 0 8177 0 0 0 0 8177 8177 8177 0 0 0 0 0 0 8177 7359 7359 6133 4599 4599 3679 4329 4088 5256 4599 4599 4599 4599 4599 5256 4906 5256 3873 4088 3873 3679 3679 3504 3504 3345 3199 3199 3066 3066 2830 2725 2830 2628 2628 2374 2453 2299 2374 2453 2453 2299 2299 2230 2299 2164 2299 2164 2230 2164 2102 2164 2102 2164 2164 2102 2164 2102 2102 2164 2044 2164 1989 1989 1989 1936 1936 1936 1936 1989 1936 1936 1936 1839 1752 1711 1711 1672 1599 1599 1565 1565 1635 1711 1711 1752 1795 1795 1839 1887 1936 1989 2044 2044 2044 2164 2374 2374 2374 2374 2230 2230 2230 0 0 0 0 0
    0 0 0 0 0 0 0 0 0 0 0 0 0 0 0 0 0 0 0 0 0 0 0 0 0 0 0 0 0 0 0 0 0 0 0 0 0 0 0 0 0 0 0 0 0 0 0 0 0 0 0 0 0 0 0 0 0 0 0 0 0 0 0 0 0 0 0 0 0 4599 4599 4088 4329 4599 4329 4906 4599 5256 4906 4906 7359 0 0 0 0 0 0 0 0 4599 5661 5661 5256 4906 4906 4599 4906 6690 0 0 0 0 0 0 0 0 0 0 0 0 0 0 0 0 0 0 0 0 0 0 0 0 0 0 0 0 0 0 0 0 0 0 0 0 0 0 0 8177 8177 0 0 0 0 0 0 0 0 0 7359 0 2628 2102 2044 2299 1989 0 4329 3679 6133 7359 8177 8177 8177 8177 8177 0 0 0 0 0 0 0 0 0 0 0 0 0 0 0 0 0 0 0 0 0 0 0 0 0 0 0 0 0 0 0 0 0 0 0 0 0 0 8177 8177 8177 0 0 0 0 0 0 0 8177 8177 6133 4906 4599 3504 4329 4088 4906 4599 4599 4599 4599 4906 5256 4906 4906 3873 4088 3873 3504 3504 3345 3345 3199 3066 3066 3066 2943 2830 2725 2830 2628 2628 2374 2453 2299 2374 2453 2453 2299 2299 2164 2299 2164 2299 2164 2230 2102 2102 2164 2102 2102 2102 2044 2102 2044 2044 2102 1989 2164 1936 1989 1989 1887 1936 1936 1936 1989 1936 1936 1887 1839 1672 1635 1635 1533 1501 1501 1533 1501 1565 1672 1672 1752 1795 1839 1839 1936 1936 1989 2044 2102 2102 2164 2374 2374 2453 2537 2374 2374 2374 0 0 0 0 0
    0 0 0 0 0 0 0 0 0 0 0 0 0 0 0 0 0 0 0 0 0 0 0 0 0 0 0 0 0 0 0 0 0 0 0 0 0 0 0 0 0 0 0 0 0 0 0 0 0 0 0 0 0 0 0 0 0 0 0 0 0 0 0 0 0 0 0 0 0 4599 4599 4088 4329 4599 4329 4599 4599 4906 4906 4906 6133 7359 7359 8177 0 0 8177 0 8177 4599 5661 5256 5256 4906 4906 4599 4906 6133 0 0 0 0 0 0 0 0 0 0 0 0 0 0 0 0 0 0 0 0 0 0 0 0 0 0 0 0 0 0 0 0 0 0 0 0 0 0 0 0 0 0 0 0 0 0 0 8177 8177 8177 3679 3066 2628 2164 2230 2453 2102 0 5256 3873 8177 8177 0 0 0 0 0 0 0 0 0 0 0 7359 0 0 0 0 0 0 0 0 0 0 0 0 0 0 0 0 0 0 0 0 0 0 0 0 0 0 0 0 0 0 0 0 0 0 0 0 0 0 0 0 0 0 8177 6133 4906 4599 3679 4599 4329 5256 4906 4906 4906 4906 4906 5256 4906 4906 3873 4088 3873 3504 3504 3345 3345 3199 3066 3066 2943 2943 2830 2725 2830 2628 2628 2374 2453 2299 2299 2453 2374 2230 2299 2164 2299 2164 2230 2164 2164 2102 2102 2164 2102 2102 2102 2044 2102 2044 2044 2044 1989 2102 1936 1989 1936 1887 1887 1887 1936 1936 1887 1887 1839 1795 1565 1635 1599 1501 1471 1471 1501 1471 1501 1635 1599 1672 1752 1795 1839 1887 1936 1936 1989 2044 2044 2102 2299 2299 2374 2453 2374 2299 2374 0 0 0 0 0
    0 0 0 0 0 0 0 0 0 0 0 0 0 0 0 0 0 0 0 0 0 0 0 0 0 0 0 0 0 0 0 0 0 0 0 0 0 0 0 0 0 0 0 0 0 0 0 0 0 0 0 0 0 0 0 0 0 0 0 0 0 0 0 0 0 0 0 0 0 4329 4329 4088 4329 4329 4329 4599 4599 5256 5661 6133 7359 8177 0 0 0 0 8177 8177 8177 4329 5661 5661 5256 4906 4906 4906 4906 6133 0 0 0 0 0 0 0 0 0 0 0 0 0 0 0 0 0 0 0 0 0 0 0 0 0 8177 0 0 0 0 0 0 0 0 0 0 0 0 0 0 0 0 0 0 0 0 0 8177 7359 6690 3345 2830 2537 2102 2299 2453 2102 0 0 0 8177 8177 0 0 0 0 0 0 0 0 0 0 0 6690 0 0 0 0 0 0 0 0 0 0 0 0 0 0 0 0 0 0 0 0 0 0 0 0 0 0 0 0 0 0 0 0 0 0 0 0 0 0 0 0 0 0 0 6690 4906 4329 3679 4906 4599 5256 4906 4906 4906 4906 4906 5256 4599 4906 3873 4088 3873 3504 3504 3345 3345 3199 3066 3066 2943 2943 2830 2725 2830 2628 2537 2453 2453 2230 2299 2374 2374 2230 2374 2164 2230 2164 2230 2164 2164 2164 2164 2164 2164 2164 2164 2102 2164 2044 2044 2044 1989 2044 1989 1989 1936 1887 1887 1887 1936 1936 1887 1839 1839 1711 1443 1533 1501 1415 1388 1415 1415 1415 1443 1599 1533 1599 1711 1795 1795 1887 1887 1887 1989 1989 1989 1989 2164 2164 2299 2453 2299 2230 2299 0 0 0 0 0
    0 0 0 0 0 0 0 0 0 0 0 0 0 0 0 0 0 0 0 0 0 0 0 0 0 0 0 0 0 0 0 0 0 0 0 0 0 0 0 0 0 0 0 0 0 0 0 0 0 0 0 0 0 0 0 0 0 0 0 0 0 0 0 0 0 0 0 0 0 4329 4088 4088 4329 4329 4329 4599 4906 5256 5661 6690 7359 8177 0 0 0 0 0 0 0 4599 6133 5661 5661 5256 4906 4906 4906 6133 0 0 0 0 0 0 0 0 0 0 0 0 0 0 0 0 0 0 0 0 0 0 0 0 0 8177 0 0 0 0 0 0 0 0 0 0 0 0 0 0 0 0 0 0 0 0 0 8177 8177 6690 4088 3199 2725 2230 2725 2628 2453 0 4599 0 7359 8177 0 0 0 0 0 0 0 0 0 0 0 6133 0 0 0 0 0 0 0 0 0 0 0 0 0 0 0 0 0 0 0 0 0 0 0 0 0 0 0 0 0 0 0 0 0 0 0 0 0 0 0 0 0 0 0 6690 4906 4599 3873 5256 4599 5256 4906 4906 4906 4906 4906 4906 4599 4599 3679 4088 3873 3504 3504 3345 3345 3199 3066 3199 3066 2943 2830 2830 2830 2537 2537 2453 2374 2164 2299 2374 2374 2164 2374 2164 2230 2102 2299 2102 2164 2102 2230 2164 2230 2230 2230 2164 2230 2102 2044 2044 1989 2044 1989 2044 1989 1936 1887 1887 1936 1936 1839 1795 1752 1635 1415 1471 1443 1388 1388 1388 1415 1415 1443 1533 1471 1533 1635 1752 1752 1839 1839 1887 1936 1936 1936 1936 1989 1989 2044 2299 2164 2102 2230 0 0 0 0 0
    0 0 0 0 0 0 0 0 0 0 0 0 0 0 0 0 0 0 0 0 0 0 0 0 0 0 0 0 0 0 0 0 0 0 0 0 0 0 0 0 0 0 0 0 0 0 0 0 0 0 0 0 0 0 0 0 0 0 0 0 0 0 0 0 0 0 0 0 0 4329 3873 3873 4088 4329 4088 4329 4906 5256 5661 6690 7359 8177 8177 0 0 0 0 0 8177 4599 6133 6133 5661 5256 4906 5256 4906 6133 0 0 0 0 0 0 0 0 0 0 0 0 0 0 0 0 0 0 0 0 0 0 0 0 0 8177 0 0 0 0 0 0 0 0 0 0 0 0 0 0 0 0 0 0 0 0 0 0 8177 6690 5256 4088 3199 0 3679 3345 3345 4599 5661 5661 8177 8177 8177 0 0 0 0 0 0 0 0 0 0 6133 0 0 0 0 0 0 0 0 0 0 0 0 0 0 0 0 0 0 0 0 0 0 0 0 0 0 0 0 0 0 0 0 0 0 0 0 0 0 0 0 0 0 0 6690 4599 4906 4088 5256 4599 5256 4906 4906 5256 5256 4906 4906 4329 4599 3679 4088 3679 3679 3504 3504 3345 3199 3066 3199 2943 2830 2725 2725 2725 2453 2453 2374 2374 2164 2230 2299 2299 2164 2374 2102 2164 2102 2230 2102 2164 2102 2230 2164 2299 2230 2299 2164 2230 2102 2044 2044 2044 2044 1989 1989 1989 1887 1887 1887 1887 1887 1795 1711 1672 1533 1388 1443 1415 1388 1388 1388 1388 1415 1415 1501 1415 1443 1533 1599 1599 1711 1752 1795 1887 1887 1887 1887 1887 1936 1936 2164 2102 2044 2102 0 0 0 0 0
    0 0 0 0 0 0 0 0 0 0 0 0 0 0 0 0 0 0 0 0 0 0 0 0 0 0 0 0 0 0 0 0 0 0 0 0 0 0 0 0 0 0 0 0 0 0 0 0 0 0 0 0 0 0 0 0 0 0 0 0 0 0 0 0 0 0 0 0 0 4329 3679 3873 4088 4088 4088 4329 4906 5256 5661 6690 7359 8177 0 0 0 0 0 0 0 4906 6690 6133 6133 5256 5256 5256 4906 6133 0 0 0 0 0 0 0 0 0 0 0 0 0 0 0 0 0 0 0 0 0 0 0 0 0 8177 0 0 0 0 0 0 0 0 0 0 0 0 0 0 0 0 0 0 0 0 0 0 8177 6690 5661 4599 3679 3679 4329 4329 3873 5661 6690 7359 0 0 0 0 0 0 0 0 0 0 0 0 0 5661 0 0 0 0 0 0 0 0 0 0 0 0 0 0 0 0 0 0 0 0 0 0 0 0 0 0 0 0 0 0 0 0 0 0 0 0 0 0 0 0 0 0 0 6133 4599 4906 4329 5256 4599 4906 4599 4906 4906 4906 4599 4599 4088 4329 3504 3679 3504 3504 3345 3345 3199 3199 3066 3199 2943 2725 2628 2725 2628 2374 2453 2299 2299 2102 2230 2230 2230 2102 2374 2044 2164 2044 2164 2044 2102 2102 2230 2164 2299 2230 2299 2230 2230 2102 2044 2044 2044 2044 1989 1989 1989 1887 1887 1887 1839 1839 1711 1533 1471 1415 1338 1388 1388 1362 1362 1362 1388 1388 1388 1443 1362 1388 1415 1415 1443 1565 1599 1672 1795 1795 1795 1795 1752 1839 1839 2044 1989 1936 2044 0 0 0 0 0
    0 0 0 0 0 0 0 0 0 0 0 0 0 0 0 0 0 0 0 0 0 0 0 0 0 0 0 0 0 0 0 0 0 0 0 0 0 0 0 0 0 0 0 0 0 0 0 0 0 0 0 0 0 0 0 0 0 0 0 0 0 0 0 0 0 0 0 0 0 4329 3679 3873 3873 4088 4088 4329 4599 5256 5661 6690 7359 8177 8177 0 0 0 0 0 0 4906 6690 6133 5661 5256 5256 5256 4599 5661 0 0 0 0 0 0 0 0 0 0 0 0 0 0 0 0 0 0 0 0 0 0 0 0 0 0 0 0 0 0 0 0 0 0 0 0 0 8177 0 0 0 0 0 0 0 0 0 0 0 6690 5661 4906 4088 4088 4906 5661 4906 6690 8177 0 0 0 0 0 0 0 0 0 0 8177 8177 0 0 5256 8177 8177 0 0 0 0 8177 8177 0 0 0 8177 0 0 0 0 0 0 0 0 0 0 0 0 0 0 0 0 0 0 0 0 0 0 0 0 0 0 0 8177 8177 8177 8177 5661 4599 4906 4329 4906 4599 4906 4906 4906 4906 4906 4599 4599 4088 4088 3345 3504 3345 3345 3199 3199 3066 3066 2943 3066 2943 2725 2628 2725 2628 2453 2453 2374 2374 2102 2299 2230 2230 2102 2230 2044 2102 1989 2102 1989 2044 2044 2230 2102 2299 2230 2374 2230 2299 2164 2102 2102 2044 2044 1989 1936 1936 1839 1839 1839 1795 1752 1672 1443 1388 1388 1314 1362 1362 1338 1362 1362 1362 1362 1362 1415 1362 1362 1388 1362 1388 1443 1471 1599 1711 1672 1672 1672 1672 1752 1752 1887 1936 1839 1936 0 0 0 0 0
    0 0 0 0 0 0 0 0 0 0 0 0 0 0 0 0 0 0 0 0 0 0 0 0 0 0 0 0 0 0 0 0 0 0 0 0 0 0 0 0 0 0 0 0 0 0 0 0 0 0 0 0 0 0 0 0 0 0 0 0 0 0 0 0 0 0 0 0 0 4599 3679 3873 4088 4088 4329 4329 4906 4906 5256 6690 7359 8177 8177 0 0 0 0 0 0 5661 6690 6690 5661 5256 5256 5256 4599 5661 0 0 0 0 0 0 0 0 0 0 0 0 0 0 0 0 0 0 0 0 0 0 0 0 0 0 0 0 0 0 0 0 0 0 0 0 0 8177 0 0 0 0 0 0 0 0 0 0 8177 6690 5256 4599 3873 3873 4906 5661 5256 7359 9199 0 0 0 0 0 0 0 0 0 0 8177 8177 0 0 5256 7359 7359 8177 0 0 8177 8177 7359 0 0 0 7359 0 0 0 0 0 0 0 0 0 8177 0 0 0 0 0 0 0 0 0 0 0 8177 0 0 8177 7359 7359 7359 7359 6690 8177 5661 4599 4599 4599 4599 4599 4906 5256 4906 5256 5256 4599 4329 4088 3873 3345 3199 3199 3066 3066 3066 2943 2943 2830 2943 2943 2830 2725 2725 2628 2537 2453 2453 2374 2102 2299 2230 2230 2044 2164 1989 1989 1989 2044 1936 1936 2044 2164 2102 2299 2299 2374 2299 2374 2299 2230 2230 2102 2044 1989 1887 1887 1795 1795 1795 1752 1711 1565 1388 1388 1362 1314 1362 1338 1338 1338 1338 1362 1362 1362 1388 1362 1362 1362 1362 1362 1388 1415 1501 1635 1471 1471 1471 1471 1599 1599 1711 1752 1752 1795 0 0 0 0 0
    0 0 0 0 0 0 0 0 0 0 0 0 0 0 0 0 0 0 0 0 0 0 0 0 0 0 0 0 0 0 0 0 0 0 0 0 0 0 0 0 0 0 0 0 0 0 0 0 0 0 0 0 0 0 0 0 0 0 0 0 0 0 0 0 0 0 0 0 0 4329 3679 3873 4088 4088 4329 4599 4906 5256 5661 6690 6690 7359 8177 0 0 0 0 0 0 6690 8177 7359 6133 5661 5661 5661 5256 6690 0 0 0 0 0 0 0 0 0 0 0 0 0 0 0 0 0 0 0 0 0 0 0 0 0 0 0 0 0 0 0 0 0 0 0 0 0 8177 0 0 0 0 0 0 0 0 0 8177 8177 6133 5256 4329 3679 3873 5256 5661 4906 7359 8177 0 0 0 0 0 0 0 0 0 0 8177 0 0 0 4906 6690 6690 8177 7359 7359 7359 7359 6690 0 8177 0 7359 0 8177 8177 0 0 8177 0 0 0 8177 0 0 0 0 0 0 0 0 0 0 0 6690 0 0 7359 6690 6690 6690 6690 5661 7359 5661 4329 4906 4906 4906 4906 5256 5661 5661 5661 6133 5256 4599 4329 3679 3199 3066 3066 2943 2943 2943 2943 2943 2830 2943 2943 2830 2830 2830 2725 2628 2453 2537 2453 2164 2299 2230 2164 2044 2102 1989 1936 1936 1989 1887 1936 2044 2164 2164 2299 2299 2374 2374 2453 2374 2299 2299 2102 2044 1989 1839 1887 1752 1752 1711 1711 1672 1501 1388 1362 1338 1314 1338 1338 1338 1338 1338 1362 1338 1338 1388 1362 1362 1362 1362 1362 1362 1388 1415 1471 1338 1314 1338 1362 1415 1415 1471 1565 1565 1635 0 0 0 0 0
    0 0 0 0 0 0 0 0 0 0 0 0 0 0 0 0 0 0 0 0 0 0 0 0 0 0 0 0 0 0 0 0 0 0 0 0 0 0 0 0 0 0 0 0 0 0 0 0 0 0 0 0 0 0 0 0 0 0 0 0 0 0 0 0 0 0 0 0 0 4599 3873 4088 4088 4088 4329 4599 4906 5256 5661 6690 7359 8177 8177 0 0 0 0 0 0 7359 8177 8177 7359 6690 6133 6690 6133 7359 0 0 0 0 0 0 0 0 0 0 0 0 0 0 0 0 0 0 0 0 0 0 0 0 0 0 0 0 0 0 0 0 0 0 0 0 0 8177 0 0 0 0 0 0 0 8177 0 8177 8177 6133 5256 4599 4088 4088 5661 5661 4599 6690 9199 0 0 0 0 0 8177 0 0 0 0 8177 8177 0 0 4906 6690 6690 7359 7359 7359 7359 6690 6690 0 8177 8177 7359 0 8177 8177 0 8177 7359 0 0 0 7359 0 0 0 0 0 0 0 0 0 0 0 5661 8177 8177 6133 6133 6133 6133 5661 5256 6690 5256 4599 5256 4906 4906 4906 5661 6133 6133 6133 6133 5256 4599 4088 3873 3199 3066 3066 2943 2943 2943 2943 2943 2943 2943 2943 2943 2943 2830 2830 2725 2537 2537 2453 2230 2299 2230 2164 2044 2044 1936 1887 1887 1936 1887 1887 1989 2164 2230 2299 2374 2453 2374 2453 2453 2374 2374 2164 2102 1989 1839 1839 1711 1672 1711 1672 1599 1443 1388 1362 1338 1314 1338 1314 1314 1338 1338 1338 1338 1338 1362 1362 1362 1362 1338 1338 1362 1362 1388 1415 1291 1291 1314 1314 1362 1388 0 0 0 0 0 0 0 0 0
    0 0 0 0 0 0 0 0 0 0 0 0 0 0 0 0 0 0 0 0 0 0 0 0 0 0 0 0 0 0 0 0 0 0 0 0 0 0 0 0 0 0 0 0 0 0 0 0 0 0 0 0 0 0 0 0 0 0 0 0 0 0 0 0 0 0 0 0 0 4599 3873 4329 4329 4329 4599 4906 5256 5661 6133 7359 7359 8177 0 0 0 0 0 0 0 8177 0 0 8177 7359 7359 7359 6690 8177 0 0 0 0 0 0 0 0 0 0 0 0 0 0 0 0 0 0 0 0 0 0 0 0 0 0 0 0 0 0 0 0 8177 8177 0 0 0 8177 0 0 0 0 0 0 0 8177 0 8177 8177 6690 5661 5256 4599 4599 7359 6690 5661 7359 0 0 0 0 0 0 8177 0 0 0 0 7359 8177 0 0 5256 6690 6690 7359 7359 7359 7359 7359 6690 0 0 0 7359 9199 8177 8177 0 8177 7359 0 0 0 7359 0 0 0 0 0 0 0 0 0 0 0 4906 6690 7359 5661 5256 5256 5661 4906 4906 6133 4906 4599 5256 5256 5256 4906 5661 6133 6133 6133 6133 5256 4599 3873 3873 3066 3066 2943 2943 2943 2943 2943 3066 2943 2943 2943 2943 2943 2830 2830 2628 2628 2537 2537 2299 2374 2230 2230 2044 2044 1989 1936 1887 1989 1887 1936 1989 2164 2230 2299 2374 2453 2374 2453 2453 2374 2453 2230 2102 1989 1795 1795 1711 1672 1672 1599 1533 1415 1362 1362 1338 1314 1314 1314 1314 1314 1338 1338 1314 1314 1338 1362 1362 1362 1362 1338 1338 1362 1388 1388 1291 1268 1291 0 0 0 0 0 0 0 0 0 0 0 0
    0 0 0 0 0 0 0 0 0 0 0 0 0 0 0 0 0 0 0 0 0 0 0 0 0 0 0 0 0 0 0 0 0 0 0 0 0 0 0 0 0 0 0 0 0 0 0 0 0 0 0 0 0 0 0 0 0 0 0 0 0 0 0 0 0 0 0 0 0 4906 4088 4599 4329 4599 4599 4906 5256 5256 6133 6690 7359 8177 8177 0 0 0 0 0 0 8177 0 0 8177 8177 8177 7359 6690 0 0 0 0 0 0 0 0 0 0 0 0 0 0 0 0 0 0 0 0 0 0 0 0 0 0 0 0 0 0 0 0 0 8177 8177 0 0 0 8177 0 8177 0 0 0 0 0 8177 0 8177 9199 6690 6133 6133 5256 5256 7359 7359 6690 8177 0 0 0 0 0 0 0 0 0 0 0 8177 8177 0 0 5256 6690 6690 7359 7359 8177 8177 7359 7359 0 0 0 8177 0 0 0 0 8177 7359 0 0 0 6690 0 0 0 0 0 0 0 0 0 0 0 4599 6690 7359 6133 5256 5661 6133 5256 5256 6133 5256 4906 5256 5661 5256 4906 5661 5661 6133 6133 6133 5256 4599 3873 3873 3066 2943 2830 2943 2830 2943 2943 2943 2943 2830 2943 2943 2943 2830 2725 2628 2628 2537 2537 2374 2453 2230 2230 2044 2044 1989 1936 1887 1936 1887 1936 1989 2164 2164 2299 2374 2453 2374 2374 2453 2374 2374 2230 2044 1936 1752 1711 1672 1599 1565 1471 1415 1362 1338 1338 1338 1314 1338 1338 1338 1338 1338 1338 1338 1338 1314 1338 1338 1338 1338 1338 1338 1362 1388 1362 1291 1268 1291 0 0 0 0 0 0 0 0 0 0 0 0
    0 0 0 0 0 0 0 0 0 0 0 0 0 0 0 0 0 0 0 0 0 0 0 0 0 0 0 0 0 0 0 0 0 0 0 0 0 0 0 0 0 0 0 0 0 0 0 0 0 0 0 0 0 0 0 0 0 0 0 0 0 0 0 0 0 0 0 0 0 4906 4088 4599 4329 4906 4906 4906 5256 5661 6133 6690 6690 8177 8177 0 0 0 0 0 0 8177 0 0 8177 8177 8177 8177 7359 0 0 0 0 0 0 0 0 0 0 0 0 0 0 0 0 0 0 0 0 0 0 0 0 0 0 0 0 0 0 0 0 0 8177 8177 0 0 0 8177 0 0 0 0 0 0 0 8177 0 8177 0 6690 5661 6133 5256 5661 7359 6690 7359 8177 0 0 0 0 0 0 0 0 0 0 0 8177 0 0 0 5256 6690 6690 7359 8177 8177 8177 7359 7359 0 0 0 8177 0 0 0 0 0 7359 0 0 0 6690 8177 8177 8177 8177 0 0 0 0 0 0 0 0 6133 6690 6133 5256 5661 6133 5661 5256 6133 5256 5256 5256 5661 5256 4906 5661 6133 6133 6133 6133 5661 5256 4088 4329 3199 3066 2943 2943 2943 2943 2943 2943 2830 2830 2943 2943 2943 2830 2725 2725 2628 2628 2628 2453 2453 2230 2164 2044 2044 1989 1936 1887 1936 1887 1936 1989 2164 2164 2299 2299 2374 2374 2374 2453 2374 2374 2164 1989 1839 1672 1635 1565 1533 1501 1415 1388 1362 1362 1362 1338 1314 1338 1338 1338 1338 1338 1338 1314 1314 1314 1314 1338 1338 1338 1338 1338 1362 1362 1362 1291 1268 0 0 0 322 0 324 0 0 0 0 0 0 0
    0 0 0 0 0 0 0 0 0 0 0 0 0 0 0 0 0 0 0 0 0 0 0 0 0 0 0 0 0 0 0 0 0 0 0 0 0 0 0 0 0 0 0 0 0 0 0 0 0 0 0 0 0 0 0 0 0 0 0 0 0 0 0 0 0 0 0 0 0 4906 4599 4906 4329 4906 5256 5256 5256 5661 6133 6690 7359 8177 0 0 0 0 0 0 0 8177 0 0 0 0 0 0 8177 0 0 0 0 0 0 0 0 0 0 0 0 0 0 0 0 0 0 0 0 0 0 0 0 0 0 0 0 0 0 0 0 0 8177 8177 0 0 0 0 0 0 0 0 0 0 0 0 0 8177 8177 6690 5256 5661 4599 5256 6690 6690 8177 0 0 0 0 0 0 0 0 0 0 0 0 8177 8177 0 0 4906 6690 6690 7359 7359 8177 8177 7359 7359 0 0 0 0 0 0 0 0 0 8177 8177 8177 0 6690 7359 7359 7359 8177 0 0 0 0 0 0 0 0 6133 6690 5661 5256 5661 6133 5256 5256 6133 5256 5256 5256 5661 5256 4906 5661 6133 6133 6133 6133 6133 5256 4088 4329 3199 3066 2943 3066 3066 3066 3066 3066 2943 2830 2943 2943 2943 2830 2725 2725 2725 2628 2628 2537 2537 2230 2230 2102 2044 1989 1936 1936 1936 1936 1936 1989 2102 2164 2230 2230 2374 2299 2299 2374 2374 2453 2230 2044 1839 1599 1565 1533 1471 1443 1415 1388 1362 1362 1362 1338 1314 1338 1338 1338 1338 1338 1338 1291 1291 1291 1314 1338 1338 1338 0 0 0 1362 1362 1291 0 0 0 0 322 322 324 322 0 0 0 0 0 0
    0 0 0 0 0 0 0 0 0 0 0 0 0 0 0 0 0 0 0 0 0 0 0 0 0 0 0 0 0 0 0 0 0 0 0 0 0 0 0 0 0 0 0 0 0 0 0 0 0 0 0 0 0 0 0 0 0 0 0 0 0 0 0 0 0 0 0 0 0 4906 4906 4906 4329 4906 5256 5256 5661 5661 6133 6690 7359 8177 0 0 0 0 0 0 8177 8177 0 0 0 0 0 0 0 0 0 0 0 0 0 0 0 0 0 0 0 0 0 0 0 0 0 0 0 0 0 0 0 0 0 0 0 0 0 0 0 8177 8177 7359 0 0 0 0 0 0 0 0 0 0 0 8177 0 7359 7359 6133 4599 4599 4088 4599 5661 6133 8177 0 8177 0 0 0 0 0 0 0 0 0 0 8177 0 0 0 4906 6133 6133 6690 0 7359 7359 7359 7359 0 0 0 0 0 0 0 0 0 8177 8177 8177 8177 6133 6690 6690 6690 7359 8177 8177 8177 8177 0 8177 7359 4329 6133 6690 5256 4906 5256 5661 5256 5256 6133 5256 5256 5256 5661 5256 5256 6133 6133 6133 6133 6133 6133 4906 3873 4329 3345 3066 3066 3066 3066 3066 3066 3066 2943 2830 2943 2943 2943 2830 2830 2830 2725 2725 2725 2537 2537 2299 2230 2102 2044 1989 1936 1887 1989 1887 1936 1989 2102 2102 2164 2230 2299 2230 2299 2374 2374 2453 2164 1936 1752 1533 1501 1471 1443 1443 1415 1388 1362 1362 1388 1338 1338 1338 1338 1362 1362 1362 1362 1291 1291 1291 1314 1314 1314 1338 0 0 1338 1362 1362 1291 0 0 0 0 321 321 322 0 0 0 0 0 0 0
    0 0 0 0 0 0 0 0 0 0 0 0 0 0 0 0 0 0 0 0 0 0 0 0 0 0 0 0 0 0 0 0 0 0 0 0 0 0 0 0 0 0 0 0 0 0 0 0 0 0 0 0 0 0 0 0 0 0 0 0 0 0 0 0 0 0 0 0 0 4906 4906 4906 4329 4906 4906 5256 5661 5661 6690 6690 7359 8177 0 0 0 0 0 0 0 0 0 0 0 0 0 0 0 0 0 0 0 0 0 0 0 0 0 0 0 0 0 0 0 0 0 0 0 0 0 0 0 0 0 0 0 0 8177 0 0 8177 7359 7359 0 0 0 0 0 0 0 0 0 0 0 8177 8177 7359 7359 6133 4599 4906 4088 4906 5256 6133 6690 0 6690 0 0 0 0 0 0 0 0 0 0 0 0 0 0 4906 6133 6133 6690 0 0 7359 7359 7359 0 0 0 0 0 0 0 0 0 7359 8177 8177 8177 6133 6690 6133 6690 6690 7359 7359 7359 7359 0 8177 8177 5256 6690 6690 5256 5256 5661 6133 5661 5661 6133 5256 5256 5256 5661 5661 5256 5661 6133 5661 6133 5661 6133 4906 3679 4329 3199 3066 3066 2943 3066 2943 2943 2943 2830 2830 2943 2943 2943 2943 2830 2830 2830 2725 2725 2628 2628 2299 2299 2102 2044 2044 1936 1887 1989 1936 1936 1989 2102 2102 2102 2230 2299 2164 2230 2299 2164 2164 1839 1752 1635 1443 1443 1443 1415 1415 1388 1388 1362 1362 1388 1362 1362 1362 1362 1362 1362 1388 1362 1291 1291 1247 1268 1291 1291 1314 1314 1314 1314 1338 1338 1268 0 1268 0 0 0 0 0 0 0 0 0 0 0 0
    0 0 0 0 0 0 0 0 0 0 0 0 0 0 0 0 0 0 0 0 0 0 0 0 0 0 0 0 0 0 0 0 0 0 0 0 0 0 0 0 0 0 0 0 0 0 0 0 0 0 0 0 0 0 0 0 0 0 0 0 0 0 0 0 0 0 0 0 0 4906 4906 4906 4329 4906 4906 5256 5661 5661 6690 6690 7359 0 0 0 0 0 0 0 0 0 0 0 0 0 0 0 0 0 0 0 0 0 0 0 0 0 0 0 0 0 0 0 0 0 0 0 0 0 0 0 0 0 0 0 0 0 8177 8177 8177 7359 6690 6690 0 0 0 8177 8177 8177 8177 8177 0 0 0 8177 0 7359 8177 7359 5661 6690 5256 5661 6133 7359 7359 0 6690 6133 8177 8177 0 0 0 0 0 0 0 0 0 0 0 4599 6133 5661 6133 0 0 8177 7359 7359 0 0 0 0 0 0 0 0 0 7359 7359 7359 7359 6133 6690 6133 6133 6690 7359 7359 7359 6690 0 7359 0 5661 6690 6690 5661 5661 5661 6133 6133 5661 5661 5256 5256 5256 5661 5661 4906 5661 5661 5661 6133 5661 6133 4906 3679 4599 3199 3066 3066 3066 3066 2943 2943 3066 2830 2943 2943 2943 3066 2943 2943 2943 2943 2943 2830 2725 2725 2453 2453 2164 2164 2044 1989 1936 1989 1936 1989 1989 2164 2044 2102 2230 2299 2164 2164 2102 1989 1887 1711 1635 1501 1415 1415 1415 1415 1415 1388 1388 1362 1388 1415 1362 1388 1388 1362 1388 1362 1388 1338 1291 1268 1226 1247 1247 1268 1268 1291 1268 1291 1314 1314 1268 0 0 0 0 0 0 0 0 0 0 0 0 0 0
    0 0 0 0 0 0 0 0 0 0 0 0 0 0 0 0 0 0 0 0 0 0 0 0 0 0 0 0 0 0 0 0 0 0 0 0 0 0 0 0 0 0 0 0 0 0 0 0 0 0 0 0 0 0 0 0 0 0 0 0 0 0 0 0 0 0 0 0 0 4906 5256 5256 4329 5256 4906 5256 5661 6133 6690 7359 7359 0 0 0 0 0 0 0 0 0 0 0 0 0 0 0 0 0 0 0 0 0 0 0 0 0 0 0 0 0 0 0 0 0 0 0 0 0 0 0 0 0 0 0 0 8177 8177 8177 8177 7359 6690 6133 0 0 0 8177 7359 7359 8177 8177 0 0 0 0 0 8177 9199 0 8177 9199 7359 6690 6690 8177 8177 8177 6690 6133 8177 7359 0 0 0 0 0 0 0 0 0 0 0 4599 6133 5661 6133 0 0 0 8177 7359 0 0 0 0 0 0 0 0 0 7359 7359 7359 8177 6133 6690 6133 6133 6690 7359 7359 6690 6133 7359 5256 4906 4329 6133 6690 5256 5661 6133 6690 6690 6133 6133 5661 5661 5256 5661 5661 4906 5661 5661 5256 5661 5256 5661 4599 3679 4906 3504 3199 3199 3066 3199 3066 2943 3066 2830 2943 2943 2943 2943 2943 2943 3066 2943 2943 2943 2830 2830 2537 2537 2299 2299 2102 1989 0 1989 1989 1989 1936 2102 1989 2044 2230 2230 2102 2102 1989 1839 1795 1565 1501 1415 1388 1415 1388 1415 1415 1388 1388 1388 1415 1443 1388 1415 1415 1388 1388 1388 1415 1338 1291 1268 1206 1226 1226 1247 1268 1268 1268 1291 1291 1314 1268 0 0 0 1291 0 0 0 0 0 0 0 0 0 0
    0 0 0 0 0 0 0 0 0 0 0 0 0 0 0 0 0 0 0 0 0 0 0 0 0 0 0 0 0 0 0 0 0 0 0 0 0 0 0 0 0 0 0 0 0 0 0 0 0 0 0 0 0 0 0 0 0 0 0 0 0 0 0 0 0 0 0 0 0 4906 5256 5256 4599 5256 5256 5661 5661 6133 6690 7359 7359 0 0 0 0 0 0 0 0 0 0 0 0 0 0 0 0 0 0 0 0 0 0 0 0 0 0 0 0 0 0 0 0 0 0 0 0 0 0 0 0 0 0 0 0 8177 8177 8177 8177 7359 6133 6133 0 0 0 8177 7359 7359 7359 8177 8177 8177 0 0 0 8177 0 0 0 0 0 7359 0 0 8177 7359 6690 5661 7359 6690 8177 8177 8177 0 0 0 0 0 0 0 8177 4088 5661 5256 5661 0 0 0 8177 8177 0 0 0 0 0 0 0 0 0 8177 8177 7359 8177 6133 6133 6133 6133 6690 7359 7359 6133 5256 5661 3345 2830 3199 3873 5256 3873 4599 6133 7359 6690 6690 6690 6133 5661 5256 6133 5661 4906 5661 5256 5256 5256 4906 5661 4329 3679 4906 3504 3199 3199 3066 3199 2943 2943 3066 2830 2943 2943 2943 3066 2943 2943 3066 3066 3066 2943 2830 2830 2628 2537 2299 2299 2164 2044 1989 1989 1989 1989 1936 2164 1989 2044 2164 2164 2044 1936 1839 1711 1672 1471 1443 1415 1388 1415 1415 1415 1415 1388 1415 1388 1443 1443 1388 1415 1415 1415 1388 1388 1415 1338 1268 1247 1206 1226 1226 1247 1247 1247 1247 1268 1291 1291 1268 0 0 0 1268 1268 1268 0 0 0 0 0 0 0 0
    0 0 0 0 0 0 0 0 0 0 0 0 0 0 0 0 0 0 0 0 0 0 0 0 0 0 0 0 0 0 0 0 0 0 0 0 0 0 0 0 0 0 0 0 0 0 0 0 0 0 0 0 0 0 0 0 0 0 0 0 0 0 0 0 0 0 0 0 0 4599 5256 5256 4599 5256 5256 5661 6133 6690 7359 7359 7359 0 0 0 0 0 0 0 0 0 0 0 0 0 0 0 0 0 0 0 0 0 0 0 0 0 0 0 0 0 0 0 0 0 0 0 0 0 0 0 0 0 0 0 0 8177 8177 8177 8177 7359 6690 6133 0 0 0 8177 7359 7359 7359 8177 8177 8177 8177 0 0 8177 0 0 0 0 0 0 8177 0 8177 6690 6133 4906 5661 5256 6690 7359 7359 7359 8177 8177 0 8177 0 6133 6690 3679 4906 4599 4906 0 0 7359 8177 8177 0 0 0 0 0 0 0 0 0 8177 8177 7359 8177 6133 6133 6133 6133 6133 7359 7359 5661 4599 4329 2943 2537 2725 2830 3345 3199 3873 5661 7359 7359 6690 6690 6133 5661 5256 6133 5661 4599 5256 4906 4906 4906 4599 5256 4088 3679 4599 3504 3199 3199 3066 3066 2943 2943 3066 2830 2943 3066 2943 3066 3066 3066 3199 3066 3066 3066 2943 2830 2725 2628 2299 2299 2102 2044 1989 1989 1989 1936 1936 2164 1936 2044 2102 1989 1887 1795 1711 1635 1599 1443 1443 1443 1415 1443 1415 1443 1415 1415 1443 1415 1443 1471 1415 1443 1443 1415 1388 1388 1415 1338 1268 1247 1187 1206 1226 1247 1247 1247 1247 1247 1268 1291 1268 0 0 1268 1268 1268 1268 1268 0 0 0 0 0 0 0
    0 0 0 0 0 0 0 0 0 0 0 0 0 0 0 0 0 0 0 0 0 0 0 0 0 0 0 0 0 0 0 0 0 0 0 0 0 0 0 0 0 0 0 0 0 0 0 0 0 0 0 0 0 0 0 0 0 0 0 0 0 0 0 0 0 0 0 0 0 4329 4906 5256 4599 5256 5256 6133 6690 6690 7359 8177 0 0 0 0 0 0 0 0 0 0 0 0 0 0 0 0 0 0 0 0 0 0 0 0 0 0 0 0 0 0 0 0 0 0 0 0 0 0 0 0 0 0 0 0 0 8177 8177 8177 8177 7359 6690 6133 0 0 0 7359 7359 7359 7359 7359 7359 7359 7359 8177 8177 7359 0 0 0 0 0 8177 7359 8177 6690 5661 5256 4088 4599 4088 4906 5661 5256 6133 6690 6690 0 7359 7359 3873 4599 3345 4088 3873 4088 0 0 0 8177 8177 0 0 0 0 0 0 0 0 0 7359 8177 7359 8177 6133 6133 5661 5661 6133 6690 6690 5256 3873 3679 2725 2164 2102 2230 2628 2725 0 4906 6690 7359 6690 6133 6133 5661 5661 5661 5661 4599 5256 5256 4906 5256 4906 5256 4329 3873 4906 3504 3345 3199 3066 3066 2943 2830 2943 2830 2943 3066 2943 3066 3066 3199 3345 3199 3199 3066 3066 2943 2830 2725 2299 2299 2102 2044 2044 2044 1989 1936 1936 2102 1936 1936 1936 1839 1795 1711 1635 1599 1599 1471 1471 1471 1443 1471 1443 1443 1443 1415 1471 1443 1471 1501 1415 1471 1471 1443 1415 1415 1415 1338 1268 1247 1187 1206 1206 1226 1226 1226 1226 1247 1247 1291 1247 0 0 1247 1268 1268 1268 1268 0 0 0 0 0 0 0
    0 0 0 0 0 0 0 0 0 0 0 0 0 0 0 0 0 0 0 0 0 0 0 0 0 0 0 0 0 0 0 0 0 0 0 0 0 0 0 0 0 0 0 0 0 0 0 0 0 0 0 0 0 0 0 0 0 0 0 0 0 0 0 0 0 0 0 0 0 4329 5256 5661 4599 5256 5256 6133 6690 6690 8177 8177 0 0 0 0 0 0 0 0 0 0 0 0 0 0 0 0 0 0 0 0 0 0 0 0 0 0 0 0 0 0 0 0 0 0 0 0 0 0 0 0 0 0 0 0 0 0 0 0 0 7359 6690 6690 0 0 0 7359 6690 6690 6690 6690 6690 6690 7359 7359 7359 6690 7359 0 8177 8177 7359 7359 6690 8177 6690 5256 4329 3679 3679 3345 3504 0 0 4329 0 0 0 6133 5661 3345 3504 3199 3504 0 0 0 0 0 0 0 0 0 0 0 0 0 0 0 0 7359 7359 7359 8177 6133 6133 5661 5661 5661 6690 6133 4599 3504 3504 2537 1936 1839 1887 1887 2044 0 0 5256 6690 6133 5661 5661 5661 5661 5661 6133 4599 5256 4906 4599 4906 4599 4906 4088 3679 4599 3504 3199 3066 2943 2943 2830 2725 2830 2830 2830 2943 2943 3066 3199 3199 3504 3345 3345 3199 3199 2943 2943 2830 2453 2374 2164 2102 2044 2044 1989 1936 1936 2044 1887 1839 1839 1752 1711 1672 1635 1599 1599 1501 1501 1501 1471 1501 1471 1471 1443 1443 1471 1443 1501 1501 1415 1471 1471 1471 1415 1415 1415 1338 1291 1247 1187 1206 1206 1226 1226 1226 1226 1226 1247 1291 1247 0 0 1247 1247 1247 1247 0 0 0 0 0 0 0 0
    0 0 0 0 0 0 0 0 0 0 0 0 0 0 0 0 0 0 0 0 0 0 0 0 0 0 0 0 0 0 0 0 0 0 0 0 0 0 0 0 0 0 0 0 0 0 0 0 0 0 0 0 0 0 0 0 0 0 0 0 0 0 0 0 0 0 0 0 0 4329 5256 6133 4906 5661 5661 6133 6690 6690 8177 8177 8177 0 0 0 0 0 0 0 0 0 0 0 0 8177 8177 0 8177 0 8177 8177 7359 0 0 0 0 0 0 0 0 0 0 0 0 0 0 0 0 0 0 0 0 0 0 0 0 0 0 0 0 8177 7359 7359 0 0 0 7359 6690 6690 6690 6690 6690 6690 6690 6690 7359 6690 7359 8177 7359 7359 7359 6690 6690 6690 5661 0 0 0 3199 0 0 0 0 0 0 0 0 0 5661 3345 3199 3066 3345 0 0 0 0 0 0 0 0 0 0 0 0 0 0 0 0 7359 8177 7359 8177 6133 6133 5661 5256 5661 6133 5661 4088 3345 3199 2453 1936 1887 1887 1887 1989 0 0 0 5661 5256 5661 5661 5661 5661 5661 6133 4329 4906 4599 4599 4906 4329 4599 4088 3679 4599 3504 3199 3066 2943 2830 2725 2628 2830 2725 2830 2943 2943 3066 3199 3199 3504 3345 3345 3345 3345 3066 3066 2943 2628 2537 2299 2230 2102 2044 1989 1887 1887 1989 1839 1795 1752 1672 1672 1599 1599 1599 1599 1501 1533 1533 1501 1533 1471 1471 1443 1443 1501 1443 1501 1501 1415 1501 1471 1471 1415 1415 1415 1338 1314 1268 1187 1206 1206 1226 1226 1226 1226 1226 1247 1291 1247 0 0 1247 0 1247 0 0 0 0 0 0 0 0 0
    0 0 0 0 0 0 0 0 0 0 0 0 0 0 0 0 0 0 0 0 0 0 0 0 0 0 0 0 0 0 0 0 0 0 0 0 0 0 0 0 0 0 0 0 0 0 0 0 0 0 0 0 0 0 0 0 0 0 0 0 0 0 0 0 0 0 0 0 0 4329 5661 6690 5256 5661 5661 6133 6690 6690 8177 6690 6133 0 0 0 0 0 0 0 0 0 0 0 8177 8177 8177 8177 7359 8177 7359 7359 7359 0 0 0 0 0 0 0 0 0 0 0 0 0 0 0 0 0 0 0 0 0 0 0 0 0 0 0 0 9199 8177 8177 0 0 0 7359 6690 6690 6690 6690 6690 6690 6690 7359 7359 6690 7359 8177 8177 7359 6690 6133 6133 5661 0 0 0 0 2628 2164 2299 2453 2453 0 0 0 133 0 4088 3066 0 0 0 0 0 0 0 0 0 0 0 0 0 0 0 0 0 0 0 8177 8177 8177 0 6133 6133 5661 4906 5661 5661 5256 4088 3199 2943 2453 1936 1936 1887 1887 0 0 0 0 5661 5256 5661 5661 5661 5661 5661 6133 4329 4906 4599 4599 4906 4599 4599 4088 3873 4599 3504 3345 3066 2943 2830 2725 2628 2830 2725 2830 2943 3066 3066 3199 3199 3504 3345 3345 3199 3345 3066 3066 2943 2725 2537 2299 2299 2164 2044 1989 1887 1839 1936 1795 1752 1711 1672 1672 1635 1635 1635 1635 1533 1565 1565 1533 1533 1501 1501 1443 1443 1533 1471 1501 1501 1415 1501 1471 1471 1415 1415 1415 1362 1314 1268 1187 1206 1226 1226 1226 1226 1226 1247 1247 1291 1247 0 0 1247 0 0 0 0 0 0 0 0 0 0 0
    0 0 0 0 0 0 0 0 0 0 0 0 0 0 0 0 0 0 0 0 0 0 0 0 0 0 0 0 0 0 0 0 0 0 0 0 0 0 0 0 0 0 0 0 0 0 0 0 0 0 0 0 0 0 0 0 0 0 0 0 0 0 0 0 0 0 0 0 0 4329 5661 6690 5256 5661 5661 6133 7359 6690 7359 6133 4906 0 0 0 0 0 0 0 0 0 0 0 0 8177 8177 8177 6690 8177 7359 7359 7359 0 0 0 0 0 0 0 0 0 0 0 0 0 0 0 0 0 0 0 0 0 0 0 0 0 0 0 0 0 8177 8177 0 0 0 7359 7359 6690 6690 6690 6690 6690 6690 6690 6690 6133 7359 6690 6690 5661 5256 3873 4599 4088 0 0 0 2102 2044 1936 1989 2044 1989 1989 2044 0 0 0 2725 2299 0 0 0 0 0 0 0 0 0 0 0 0 0 0 0 0 0 0 0 8177 8177 8177 0 6133 6133 5661 4906 5256 5661 4599 3679 3066 2830 2374 1936 1936 1887 1887 1936 0 0 0 4906 4599 5661 5256 5661 5661 5661 6690 4329 4906 4906 4599 4906 4599 4599 4088 3873 4599 3679 3345 3199 2943 2830 2830 2725 2830 2830 2943 2943 3199 3199 3199 3199 3504 3345 3345 3199 3345 3066 3066 3066 2830 2628 2374 2374 2230 2044 1936 1839 1839 1887 1795 1752 1711 1635 1672 1635 1635 1635 1635 1565 1599 1599 1599 1565 1533 1533 1471 1443 1533 1471 1471 1471 1415 1501 1471 1471 1415 1443 1415 1362 1338 1291 1206 1206 1226 1247 1247 1247 1226 1247 1247 1291 1268 0 1268 1247 1268 1268 0 0 0 0 0 0 0 0 0
    0 0 0 0 0 0 0 0 0 0 0 0 0 0 0 0 0 0 0 0 0 0 0 0 0 0 0 0 0 0 0 0 0 0 0 0 0 0 0 0 0 0 0 0 0 0 0 0 0 0 0 0 0 0 0 0 0 0 0 0 0 0 0 0 0 0 0 0 0 4088 5256 6133 5256 4906 5256 5661 6690 6133 6690 6133 5256 0 0 0 0 0 0 0 0 0 0 0 8177 7359 8177 8177 6690 7359 7359 7359 7359 0 0 0 0 0 0 0 0 0 0 0 0 0 0 0 0 0 0 0 0 0 0 0 0 0 0 0 0 0 0 0 0 0 0 8177 7359 7359 7359 6690 6690 6690 6690 6133 6133 5661 6133 5256 5661 4906 4599 3679 0 3679 0 0 0 1989 1936 1839 1887 1936 1887 1887 1936 1989 1936 1989 2299 1989 1887 0 0 0 0 0 0 0 0 0 0 0 0 0 0 0 0 0 0 7359 8177 8177 8177 5661 5661 4906 4329 5256 5256 4088 3504 3066 2943 2453 1989 1989 1839 1839 1936 1936 0 0 4599 4599 5661 5661 5661 5661 5661 6690 4329 4906 4599 4906 4906 4599 4599 4329 4088 4599 3679 3345 3199 2943 2830 2830 2830 2830 2943 2943 3066 3066 3199 3199 3199 3345 3345 3199 3199 3199 3066 3066 2943 2725 2537 2374 2453 2230 2044 1887 1839 1839 1839 1752 1711 1672 1599 1635 1635 1635 1635 1635 1565 1599 1599 1599 1599 1565 1565 1471 1471 1565 1471 1471 1443 1388 1471 1443 1443 1415 1443 1443 1362 1338 1291 1206 1226 1226 1247 1247 1247 1247 1247 1268 1291 1268 0 1268 1268 1268 1268 1268 0 0 1268 0 0 0 0 0
    0 0 0 0 0 0 0 0 0 0 0 0 0 0 0 0 0 0 0 0 0 0 0 0 0 0 0 0 0 0 0 0 0 0 0 0 0 0 0 0 0 0 0 0 0 0 0 0 0 0 0 0 0 0 0 0 0 0 0 0 0 0 0 0 0 0 0 0 0 3679 4599 5256 3873 3679 3873 3679 4599 4599 0 5256 4906 0 0 0 0 0 0 0 0 0 0 0 8177 7359 8177 8177 6690 7359 7359 7359 7359 0 0 0 0 0 0 0 0 0 8177 0 7359 8177 8177 0 0 0 0 0 0 0 0 0 0 0 0 0 0 0 0 0 0 0 0 8177 7359 7359 7359 7359 7359 7359 6690 6133 6133 6133 6690 5661 6133 5661 5661 4088 0 0 0 0 0 1936 1887 1839 1887 1936 1887 1887 1936 1936 1936 1936 2102 1936 1887 0 0 0 0 0 0 0 0 0 0 0 0 0 0 0 0 0 8177 7359 7359 6690 7359 5256 4599 4088 3679 4599 4599 3679 3345 3066 2830 2537 2044 2044 1887 1936 1989 2044 2299 0 3873 4088 4906 5256 5661 5661 5661 6690 4329 4906 4906 4906 4906 4599 4329 4088 3873 4329 3504 3066 2943 2830 2725 2830 2830 2830 2943 2943 2943 3066 3066 3199 3199 3345 3345 3066 3199 3199 2943 2943 2943 2725 2537 2374 2453 2299 2044 1887 1839 1795 1839 1711 1711 1672 1599 1599 1635 1635 1635 1635 1565 1599 1599 1599 1599 1599 1565 1471 1471 1533 1443 1443 1443 1388 1471 1443 1443 1443 1443 1471 1362 1362 1314 1206 1226 1226 1247 1247 1247 1247 1247 1268 1291 0 0 0 1268 0 0 0 0 1268 1268 0 0 0 0 0
    0 0 0 0 0 0 0 0 0 0 0 0 0 0 0 0 0 0 0 0 0 0 0 0 0 0 0 0 0 0 0 0 0 0 0 0 0 0 0 0 0 0 0 0 0 0 0 0 0 0 0 0 0 0 0 0 0 0 0 0 0 0 0 0 0 0 0 0 0 3199 3504 3873 3066 0 2830 2943 3066 3345 0 0 3873 0 0 0 0 0 0 0 0 0 0 0 7359 7359 7359 7359 6690 7359 7359 7359 6690 0 0 0 0 0 0 0 0 0 7359 8177 6690 8177 8177 0 0 0 0 0 0 0 0 0 0 0 0 0 0 0 0 0 0 0 0 8177 8177 8177 8177 8177 7359 7359 7359 6690 6690 6133 6690 5661 6133 6133 6133 0 0 0 0 0 0 1887 1839 1887 1887 1887 1887 1839 1936 1887 1887 1887 1989 1887 1839 0 0 0 0 321 321 0 0 0 0 0 0 0 0 0 0 8177 6690 6133 6133 5256 6133 4088 3504 3345 3199 3679 3873 3345 3345 3066 2830 2537 2102 2102 1936 1989 2044 2102 2453 0 3873 4088 4906 5256 5661 5661 5256 6690 4599 4906 4906 4906 4906 4906 4329 4329 4088 4329 3504 3199 3066 3066 2830 2943 2943 2830 2943 2943 2943 3066 3066 3199 3199 3345 3345 3066 3199 3199 3066 3066 2943 2830 2537 2374 2537 2299 1989 1795 1752 1752 1752 1672 1672 1635 1599 1599 1635 1599 1635 1635 1565 1599 1599 1599 1635 1599 1533 1471 1443 1501 1415 1443 1415 1362 1471 1443 1443 1443 1443 1471 1362 1362 1314 1226 1226 1247 1247 1247 1247 1247 1247 1268 1314 0 0 0 0 0 0 0 0 0 1291 0 0 0 0 0
    0 0 0 0 0 0 0 0 0 0 0 0 0 0 0 0 0 0 0 0 0 0 0 0 0 0 0 0 0 0 0 0 0 0 0 0 0 0 0 0 0 0 0 0 0 0 0 0 0 0 0 0 0 0 0 0 0 0 0 0 0 0 0 0 0 0 0 0 0 2725 2537 2943 2164 1752 1711 1795 1795 0 0 0 0 0 0 0 0 0 0 0 0 0 0 0 8177 6690 7359 7359 6690 7359 7359 7359 7359 0 0 0 0 0 0 0 0 0 7359 7359 6690 8177 8177 0 0 0 0 0 0 0 0 0 0 0 0 0 0 0 0 0 0 0 0 8177 8177 8177 9199 8177 7359 7359 7359 6690 6690 6133 6133 5256 5661 6133 6133 0 0 0 0 0 1887 1887 1839 1936 1936 1936 1887 1887 1936 1887 1887 1887 1887 1839 0 0 0 0 0 0 0 0 1711 0 0 0 0 0 0 0 0 7359 6133 5661 4906 4599 4599 3345 3066 2943 2830 3066 3504 3066 3199 3066 2943 2628 2230 2230 1989 2044 2044 2102 2374 0 3679 3873 4906 5256 5661 5661 4906 6133 4599 4906 4906 4906 5256 4906 4599 4329 4599 4599 3873 3504 3504 3199 3066 3199 3066 2943 3066 3066 3066 3066 3199 3199 3066 3345 3345 3066 3066 3199 2943 2943 2943 2830 2537 2453 2537 2299 1936 1501 1672 1711 1711 1635 1635 1672 1599 1599 1635 1635 1635 1635 1565 1565 1565 1599 1599 1565 1533 1443 1443 1501 1415 1415 1415 1362 1443 1443 1443 1443 1443 1471 1362 1388 1338 1247 1247 1247 1247 1268 1247 0 1247 1268 1314 0 0 0 0 0 0 0 0 0 1314 0 0 0 0 0
    0 0 0 0 0 0 0 0 0 0 0 0 0 0 0 0 0 0 0 0 0 0 0 0 0 0 0 0 0 0 0 0 0 0 0 0 0 0 0 0 0 0 0 0 0 0 0 0 0 0 0 0 0 0 0 0 0 0 0 0 0 0 0 0 0 0 0 0 0 2164 1936 2044 1839 1599 1599 1565 1635 0 0 0 0 0 7359 0 0 0 0 0 0 0 0 0 8177 7359 8177 8177 7359 8177 8177 8177 7359 0 0 0 0 0 0 8177 8177 0 6690 7359 6133 7359 8177 0 0 0 0 0 0 0 0 0 0 0 0 0 0 0 0 0 0 0 0 8177 8177 0 0 0 8177 8177 7359 7359 7359 6690 6690 5256 5661 5661 5661 0 0 0 0 1752 1887 1887 1839 1936 1936 1936 1887 1839 1936 1839 1839 1839 1839 1839 0 0 0 0 0 319 0 1752 1752 1795 0 0 0 0 0 0 8177 7359 6133 4906 4088 3679 3504 2943 2628 2453 2374 2628 2943 2943 3066 3066 2943 2725 2374 2453 2102 2102 2102 2230 2374 0 3504 3873 4599 5256 5661 5661 4906 6133 4906 4906 5256 4906 4906 4599 4088 4329 4599 4329 3679 3504 3504 3345 3199 3345 3199 3066 3199 3199 3066 3066 3199 3199 3066 3199 3199 2943 2943 2943 2830 2830 2725 2725 2374 2230 2374 2044 1839 1415 1565 1672 1635 1599 1635 1672 1599 1599 1672 1635 1599 1635 1565 1565 1565 1565 1565 1533 1471 1415 1415 1471 1388 1388 1388 1362 1443 1415 1415 1415 1443 1443 1362 1362 1314 1247 1268 0 0 1268 1268 0 1268 1268 1291 0 0 324 324 324 0 0 0 0 1362 0 0 0 0 0
    0 0 0 0 0 0 0 0 0 0 0 0 0 0 0 0 0 0 0 0 0 0 0 0 0 0 0 0 0 0 0 0 0 0 0 0 0 0 0 0 0 0 0 0 0 0 0 0 0 0 0 0 0 0 0 0 0 0 0 0 0 0 0 0 0 0 0 0 0 1989 1887 1936 1711 1415 1599 0 0 0 0 0 0 3873 5256 0 0 0 0 0 0 0 0 0 8177 7359 7359 8177 7359 8177 8177 8177 8177 0 0 0 0 0 9199 7359 7359 0 6133 6690 5661 6690 7359 0 0 0 0 0 0 0 0 0 0 0 0 0 0 0 0 0 8177 8177 9199 8177 8177 0 0 0 0 0 8177 8177 8177 8177 7359 6133 6690 6690 6133 0 0 0 1711 1711 1887 1887 1795 1887 1887 1887 1887 1839 1887 1795 1795 1839 1839 1795 1795 0 0 0 0 0 0 1711 1711 1795 0 0 0 0 0 0 0 8177 6133 4906 3873 3345 3199 2830 2299 2044 2102 2230 2725 2725 3066 3066 2943 2830 2628 2628 2453 2374 2299 2453 2374 3199 3504 4088 4906 5256 5661 5256 4906 6133 5256 5256 5256 5256 5256 4906 4329 4599 4906 4329 3873 3679 3679 3679 3345 3679 3345 3199 3345 3345 3199 3199 3199 3199 2943 3066 3066 2725 2830 2725 2725 2628 2537 2453 2164 2102 2230 1936 1839 1443 1599 1672 1635 1565 1599 1672 1565 1599 1672 1599 1599 1599 1565 1565 1533 1565 1501 1501 1443 1388 1388 1415 1362 1362 1362 1362 1443 1415 1415 1415 1443 1443 1338 1362 1314 1247 1268 0 0 1291 1291 0 1291 1291 1314 0 0 325 327 325 0 0 0 0 1362 0 0 0 0 0
    0 0 0 0 0 0 0 0 0 0 0 0 0 0 0 0 0 0 0 0 0 0 0 0 0 0 0 0 0 0 0 0 0 0 0 0 0 0 0 0 0 0 0 0 0 0 0 0 0 0 0 0 0 0 0 0 0 0 0 0 0 0 0 0 0 0 0 0 0 1989 1887 1989 1752 0 0 0 0 0 0 0 2943 4329 5256 0 0 0 0 0 0 0 0 0 8177 8177 8177 0 8177 8177 0 0 8177 0 0 0 0 0 8177 7359 7359 8177 5661 6133 5256 6690 7359 8177 0 0 8177 0 0 0 0 0 0 0 0 0 0 0 8177 0 8177 8177 8177 7359 7359 0 0 0 0 0 0 0 0 8177 8177 6690 6690 6690 0 0 0 0 1711 1711 1887 1887 1795 1887 1887 1887 1839 1795 1887 1795 1795 1839 1839 1795 1795 1795 1795 1752 1711 1711 1752 1711 1711 1752 0 0 0 0 0 0 8177 7359 6133 4906 3679 3345 2943 2725 2230 1989 2102 2164 2453 2537 2943 3066 2943 2830 2725 2725 2628 2453 2374 2453 2230 0 3679 4329 4906 5661 6133 5256 4599 6133 4906 5256 5256 5256 5256 4906 4329 4906 4906 4599 3873 3873 3679 3679 3504 3679 3504 3345 3345 3504 3199 3199 3066 3199 2943 2943 3066 2628 2725 2537 2537 2453 2299 2164 2102 2044 2102 1887 1839 1443 1599 1635 1599 1565 1599 1635 1565 1599 1672 1599 1565 1565 1533 1533 1501 1533 1471 1471 1415 1388 1388 1388 1362 1362 1362 1362 1415 1415 1415 1388 1415 1443 1338 1338 1314 1268 1291 0 0 1291 1314 0 1291 1291 1314 0 0 327 328 327 0 0 0 0 1338 0 0 0 0 0
    0 0 0 0 0 0 0 0 0 0 0 0 0 0 0 0 0 0 0 0 0 0 0 0 0 0 0 0 0 0 0 0 0 0 0 0 0 0 0 0 0 0 0 0 0 0 0 0 0 0 0 0 0 0 0 0 0 0 0 0 0 0 0 0 0 0 0 0 0 1989 1887 2044 1887 0 0 3345 0 3504 0 3504 3679 6690 6690 0 0 0 0 0 0 0 0 0 0 8177 8177 0 0 0 0 0 8177 0 0 0 0 0 8177 6690 6690 8177 5661 5661 4906 6690 6690 7359 8177 8177 8177 0 0 0 0 0 0 0 0 0 8177 0 8177 0 7359 7359 7359 7359 7359 8177 8177 0 0 0 0 8177 0 9199 8177 7359 7359 7359 0 639 0 0 0 0 1887 1839 1795 1839 1839 1839 1839 1795 1839 1795 1795 1839 1839 1839 1795 1839 1839 1795 1711 1711 1752 1711 1711 1795 1795 0 0 0 0 0 8177 7359 6133 4906 3679 3199 2830 2628 2164 1936 2102 2102 2230 2453 2725 2943 2943 2830 2725 2725 2628 2537 2299 2230 1989 0 0 4329 5256 5661 6133 5256 4599 5661 4906 5661 5661 5256 5256 4906 4599 5256 5256 4599 3873 4088 3873 3873 3679 3873 3504 3345 3504 3679 3345 3199 3066 3199 2943 2943 3066 2537 2628 2374 2453 2374 2102 2044 2044 1989 1989 1839 1839 1501 1635 1672 1599 1565 1599 1635 1533 1565 1635 1533 1533 1533 1501 1501 1471 1501 1471 1443 1415 1388 1388 1388 1362 1338 1362 1338 1415 1415 1415 1388 1443 1443 1338 1338 1314 1268 1291 0 0 1314 1314 0 1314 1291 1314 1268 0 328 328 328 0 0 0 0 1338 0 0 0 0 0
    0 0 0 0 0 0 0 0 0 0 0 0 0 0 0 0 0 0 0 0 0 0 0 0 0 0 0 0 0 0 0 0 0 0 0 0 0 0 0 0 0 0 0 0 0 0 0 0 0 0 0 0 0 0 0 0 0 0 0 0 0 0 0 0 0 0 0 0 0 1989 1936 2164 0 0 0 3679 0 4088 4906 4088 4088 7359 6690 0 0 0 0 0 0 0 0 0 0 7359 7359 8177 8177 8177 0 8177 7359 0 0 0 0 0 7359 6690 6690 8177 5661 5661 4906 6690 6133 7359 7359 7359 7359 0 8177 0 0 0 0 0 0 0 0 0 8177 0 7359 7359 7359 7359 7359 8177 8177 0 0 0 0 0 0 0 0 8177 8177 8177 0 0 663 0 0 0 0 1887 1795 1887 1887 1839 1887 1839 1887 0 0 1887 1887 1887 1887 1887 1887 1839 1752 1752 1795 1752 1752 1795 1795 0 8177 7359 0 0 8177 7359 6133 5256 3679 3199 2725 2628 2230 1936 2102 2102 2164 2374 2830 2943 2943 2830 2830 2830 2725 2628 2374 2230 1989 0 3504 4599 5256 6133 6133 5256 4599 5256 4906 5661 5256 5256 4906 4906 4599 5256 5661 4906 4088 4329 4088 4088 3873 4088 3679 3504 3679 3679 3345 3199 3066 3199 2943 2943 3066 2537 2628 2299 2299 2299 2044 1989 1989 1936 1936 1839 1839 1565 1635 1672 1599 1565 1599 1635 1501 1533 1635 1501 1533 1501 1501 1471 1471 1501 1443 1443 1415 1388 1388 1388 1362 1338 1362 1362 1415 1415 1415 1415 1443 1415 1338 1338 1338 1291 0 0 0 0 1338 0 1338 1291 1314 1268 333 330 330 328 330 0 0 0 1338 0 0 0 0 0
    0 0 0 0 0 0 0 0 0 0 0 0 0 0 0 0 0 0 0 0 0 0 0 0 0 0 0 0 0 0 0 0 0 0 0 0 0 0 0 0 0 0 0 0 0 0 0 0 0 0 0 0 0 0 0 0 0 0 0 0 0 0 0 0 0 0 0 0 0 1989 1936 2374 0 0 0 4088 4088 4329 5661 4088 3873 7359 7359 0 0 0 0 0 0 0 0 0 0 8177 8177 8177 8177 8177 0 8177 7359 0 0 0 0 8177 7359 6690 6133 7359 5661 6133 5256 6690 6690 7359 8177 8177 7359 0 8177 0 0 0 0 0 0 0 0 0 0 0 8177 8177 8177 8177 7359 8177 8177 0 0 0 0 8177 0 0 0 0 0 0 0 645 663 663 651 0 0 1936 1839 1887 1887 1839 1839 1839 1887 1887 1887 1936 1936 1936 1887 1936 1936 1839 1752 1711 1752 1752 1752 1887 1887 0 8177 7359 0 8177 8177 8177 6690 6133 3873 3199 2725 2628 2299 1936 2044 2044 2102 2230 2725 0 2830 2628 2725 2725 2725 2628 2453 2230 1936 0 3345 4329 4906 5661 6133 4906 4329 4906 5256 5661 5256 4906 4906 4906 4599 5256 6133 4906 4329 4599 4329 4329 4088 4599 3873 3873 3679 3873 3345 3199 3066 3066 2943 2943 2830 2453 2537 2230 2164 2164 1989 1936 1936 1887 1936 1839 1795 1635 1672 1672 1599 1565 1565 1599 1501 1565 1599 1501 1501 1501 1501 1471 1471 1501 1443 1443 1388 1388 1388 1362 1388 1338 1362 1362 1443 1443 1443 1415 1471 1415 1338 1362 1338 1314 1338 0 1338 1362 1362 1443 1338 1362 1338 1291 0 331 330 0 331 0 0 0 1338 0 0 0 0 0
    0 0 0 0 0 0 0 0 0 0 0 0 0 0 0 0 0 0 0 0 0 0 0 0 0 0 0 0 0 0 0 0 0 0 0 0 0 0 0 0 0 0 0 0 0 0 0 0 0 0 0 0 0 0 0 0 0 0 0 0 0 0 0 0 0 0 0 0 0 1989 1989 2537 0 0 0 4329 4329 4329 5661 3873 3504 5256 4906 6690 0 0 0 0 0 0 0 0 0 8177 8177 8177 8177 8177 0 8177 8177 0 0 0 0 8177 7359 6690 6133 7359 5661 6133 5661 7359 7359 8177 0 0 8177 0 0 0 0 0 0 0 0 0 0 0 0 0 8177 8177 8177 8177 7359 8177 8177 0 0 0 0 8177 0 0 0 0 0 0 0 0 663 663 657 0 0 0 1839 1887 1887 1795 1839 1795 0 1887 1887 1989 1989 1989 1936 2044 2044 1887 1752 1711 1752 1752 1752 1936 1887 0 8177 8177 0 8177 8177 7359 7359 6133 4329 3199 2725 2725 2374 1989 2102 2044 2044 2102 2628 0 2725 2537 2537 2453 2537 2537 2230 2044 1795 1795 0 4329 4906 5661 5661 4329 4329 4329 5256 5661 5256 4906 4906 4906 4599 5256 6133 5256 4329 4906 4599 4599 4329 4906 4088 3873 3679 4088 3345 3199 3066 2943 2830 2830 2725 2230 2374 2102 2102 2102 1989 1936 1936 1887 1887 1839 1795 1672 1672 1672 1599 1565 1565 1599 1471 1565 1565 1501 1533 1471 1501 1471 1471 1501 1443 1415 1388 1362 1388 1362 1388 1362 1362 1362 1443 1443 1443 1443 1501 1388 1338 1362 1338 1338 1362 0 1362 1388 1388 1471 1388 1443 1338 1291 0 333 331 0 0 0 1338 1362 1338 0 0 0 0 0
    0 0 0 0 0 0 0 0 0 0 0 0 0 0 0 0 0 0 0 0 0 0 0 0 0 0 0 0 0 0 0 0 0 0 0 0 0 0 0 0 0 0 0 0 0 0 0 0 0 0 0 0 0 0 0 0 0 0 0 0 0 0 0 0 0 0 0 0 0 2044 2102 2628 0 0 0 4599 4906 4906 6133 4088 3679 5661 4906 5661 0 0 0 0 0 0 0 0 0 8177 8177 8177 8177 8177 0 8177 8177 0 0 0 8177 8177 7359 6133 5661 6690 4906 5661 5256 7359 7359 8177 0 0 8177 0 0 0 0 0 0 0 0 0 0 0 0 0 8177 0 8177 8177 7359 8177 8177 0 0 0 0 0 0 336 334 333 0 0 0 0 0 663 0 0 0 0 1839 1887 1887 1795 1839 1795 0 0 1936 1989 2044 2044 1936 2102 2044 1887 1752 1672 1711 1795 1795 2164 2102 2943 0 8177 0 8177 7359 7359 0 7359 5661 3873 0 0 2628 0 2044 1989 2044 2044 2374 0 2537 2230 2230 2164 2299 2102 1887 1839 1711 1599 1533 0 3873 4599 5256 3873 4088 4088 4906 5256 4906 4599 4906 4906 4329 5256 6133 5256 4088 4906 4599 4329 4088 5256 3873 3873 3679 4329 3345 3066 2943 2725 2725 2628 2628 2164 2230 2102 2044 2044 1989 1887 1887 1887 1887 1839 1795 1711 1672 1672 1599 1565 1565 1599 1471 1565 1565 1501 1533 1471 1501 1471 1471 1501 1443 1415 1388 1388 1415 1362 1443 1362 1388 1388 1501 1471 1471 1443 1471 1362 1338 1362 1362 1362 1388 1362 1388 1415 1415 1533 1415 1599 1338 1291 0 0 0 0 0 0 1338 1338 1338 0 0 0 0 0
    0 0 0 0 0 0 0 0 0 0 0 0 0 0 0 0 0 0 0 0 0 0 0 0 0 0 0 0 0 0 0 0 0 0 0 0 0 0 0 0 0 0 0 0 0 0 0 0 0 0 0 0 0 0 0 0 0 0 0 0 0 0 0 0 0 0 0 0 0 2044 0 2725 2725 3504 4599 4599 5256 4906 6133 4088 3873 5661 5256 5256 0 0 0 0 0 0 0 0 0 7359 7359 8177 7359 8177 8177 8177 8177 0 0 0 8177 7359 6690 5661 4906 5256 3873 4906 4329 6133 7359 8177 8177 8177 7359 0 8177 0 8177 0 0 0 0 0 0 0 0 0 0 0 8177 8177 7359 8177 8177 0 0 0 0 0 333 334 334 333 0 0 328 0 0 0 0 0 0 0 0 1839 1839 1795 1839 1795 0 1887 0 2044 2164 2102 1989 2230 2164 1989 1752 1711 1711 1839 1887 2628 2725 3066 0 0 0 8177 8177 8177 0 0 8177 5256 3199 0 0 0 0 2102 2044 2044 2164 0 2299 2044 1989 1936 2044 1989 0 1795 1672 1533 1471 1501 1501 1443 1443 0 3679 3679 4329 4906 4599 4329 4329 4906 4329 5256 6133 5256 3873 4599 4329 4088 3873 4599 3504 3345 3345 3873 2943 0 2299 0 2453 2374 2453 2102 2230 2044 2044 2044 1989 1936 1887 1887 1887 1839 1795 1752 1711 1672 1635 1599 1599 1635 1471 1565 1565 1501 1565 1471 1501 1471 1471 1501 1443 1415 1415 1388 1415 1388 1471 1388 1388 1388 1533 1471 1501 1443 1471 1362 1338 1362 1362 1362 1388 1388 1415 1443 1443 1565 1443 1672 1314 1268 0 0 1247 1268 1268 1268 1291 1314 1291 0 0 0 0 0
    0 0 0 0 0 0 0 0 0 0 0 0 0 0 0 0 0 0 0 0 0 0 0 0 0 0 0 0 0 0 0 0 0 0 0 0 0 0 0 0 0 0 0 0 0 0 0 0 0 0 0 0 0 0 0 0 0 0 0 0 0 0 0 0 0 0 0 0 0 2044 0 0 2725 3504 3873 4088 4329 4329 5661 3873 3679 5256 5256 4599 0 0 0 0 0 0 0 0 7359 5661 6690 7359 6133 6690 7359 7359 6690 8177 0 8177 6133 5256 4906 4088 3504 3504 3066 3504 3504 4906 6133 8177 8177 8177 7359 0 6690 0 7359 0 0 0 0 0 0 0 0 0 0 0 8177 8177 7359 8177 0 0 0 0 330 327 330 333 333 331 0 0 0 0 0 0 0 0 0 0 1887 1887 1887 1839 1839 1839 1839 1936 2102 2374 2374 2102 1989 2299 2230 1989 1752 1672 1635 1839 1989 2943 0 0 0 8177 8177 7359 7359 6690 0 0 0 6690 3345 0 0 187 0 0 2102 2044 2102 0 2102 1887 1839 1795 1839 0 0 1752 1635 1501 1443 1501 1443 1362 1388 1415 0 3199 4088 4329 4088 4088 4088 4599 4088 5256 6133 5256 3873 4329 4329 4088 3679 4329 3345 0 0 0 0 0 0 1051 2453 2374 2453 2102 2230 2102 2044 2102 2044 1936 1887 1887 1887 1795 1752 1752 1711 1672 1635 1599 1599 1635 1471 1565 1533 1501 1533 1443 1501 1443 1471 1501 1443 1415 1415 1388 1443 1388 1533 1415 1415 1388 1599 1501 1565 1471 1501 1388 1362 1388 1388 1388 1415 1388 1415 1443 1443 1565 1443 1635 1314 1268 1291 1314 1247 1247 1247 1268 1291 1291 1291 0 0 0 0 0
    0 0 0 0 0 0 0 0 0 0 0 0 0 0 0 0 0 0 0 0 0 0 0 0 0 0 0 0 0 0 0 0 0 0 0 0 0 0 0 0 0 0 0 0 0 0 0 0 0 0 0 0 0 0 0 0 0 0 0 0 0 0 0 0 0 0 0 0 0 2102 0 0 0 3345 3504 3679 3679 3679 4906 3679 3504 4906 5256 3873 0 0 7359 0 0 0 0 0 2725 3199 4906 6133 4906 5256 6133 6690 6690 8177 8177 6133 5256 4329 3679 3504 3066 2943 2830 3066 3066 3504 3679 7359 7359 8177 6690 8177 4599 0 5256 0 8177 0 0 0 0 0 0 0 0 0 0 7359 6690 0 0 0 324 327 330 325 328 331 330 328 325 324 0 0 0 651 0 0 0 1989 1936 1989 1936 1887 1887 1887 1936 1989 2299 2537 2374 1989 1936 2164 2044 1936 1752 1672 1672 1795 2044 2830 0 2830 8177 6690 6690 5256 5256 4906 0 0 0 8177 3199 0 3199 186 0 0 2102 2044 2044 2164 1989 1839 1795 1795 1795 1839 1711 1711 1635 1533 1471 1533 1471 1415 1388 1415 0 0 3504 3873 3873 3873 4088 4599 4329 5256 6690 5256 3873 4329 4329 4088 3679 4329 0 0 0 0 0 0 1226 1022 0 2102 0 2044 2164 2044 0 1989 1936 1839 1839 1839 0 1752 1711 1752 1711 1672 1635 1635 1599 1635 1471 1565 1533 1471 1533 1443 1501 1443 1471 1533 1471 1443 1443 1388 1471 1415 1565 1443 1443 1415 1599 1501 1599 1471 1471 1388 1362 1388 1388 1388 1415 1388 1415 1443 1443 1533 1443 1599 1314 1268 1291 1314 1247 1247 1247 1247 1268 1268 1268 0 0 0 0 0
    0 0 0 0 0 0 0 0 0 0 0 0 0 0 0 0 0 0 0 0 0 0 0 0 0 0 0 0 0 0 0 0 0 0 0 0 0 0 0 0 0 0 0 0 0 0 0 0 0 0 0 0 0 0 0 0 0 0 0 0 0 0 0 0 0 0 0 0 0 2102 0 0 0 0 3199 3504 3199 3504 4088 3504 3345 3679 3873 3199 0 6133 3873 0 2628 2453 2453 2453 2299 2537 2628 2830 2943 2943 3504 4599 4599 7359 6690 4329 4088 3679 3345 3199 2830 2830 2628 2830 2830 2943 2943 4599 4088 6133 4906 5256 3345 5661 3199 0 6133 8177 6690 0 0 0 0 0 0 0 0 6133 0 0 0 0 324 328 331 325 330 331 330 327 0 322 0 0 0 0 0 0 2102 1989 1936 1989 1989 1887 1887 1936 1936 2044 2374 2628 2230 1989 1887 1989 1989 1936 1795 1711 1711 1795 1989 2628 2943 2537 5661 5661 4599 3199 3066 3066 2725 0 0 4906 3066 0 3199 0 0 0 2044 1887 1887 1936 1887 1752 1711 1752 1752 1752 1672 1672 1599 1471 1443 1443 1415 1362 1362 1338 0 0 0 3679 3679 3873 3873 4599 4329 5256 6133 4906 3873 4088 4088 3873 3679 4329 0 0 0 0 225 0 1115 1008 994 0 0 0 2044 1989 0 0 1887 1795 1752 1795 1795 1752 1672 1752 1711 1672 1672 1635 1599 1635 1471 1565 1501 1471 1565 1443 1501 1415 1471 1533 1471 1443 1443 1388 1471 1443 1599 1471 1443 1415 1599 1471 1599 1443 1443 1388 1362 1388 1388 1388 1415 1388 1415 1415 1415 1471 1415 1533 1291 1247 1268 1291 1247 1247 1247 1226 1247 1268 1247 0 0 0 0 0
    0 0 0 0 0 0 0 0 0 0 0 0 0 0 0 0 0 0 0 0 0 0 0 0 0 0 0 0 0 0 0 0 0 0 0 0 0 0 0 0 0 0 0 0 0 0 0 0 0 0 0 0 0 0 0 0 0 0 0 0 0 0 0 0 0 0 0 0 0 2044 0 0 0 0 2943 3199 2943 3199 3504 3199 3066 3066 3066 2830 2537 3066 2830 2537 2299 2164 2230 2230 2164 2299 2102 2374 2453 2453 2537 2830 2943 4906 4329 3066 3199 3199 2943 2943 2725 2725 2537 2537 2628 2725 2725 2943 2830 0 0 0 2725 2725 2725 2537 2943 3199 3066 0 0 0 0 0 3504 2830 2943 2943 3504 3504 0 0 0 331 333 330 333 0 0 0 0 0 0 0 0 0 0 2164 2044 1989 1936 2044 1989 1936 1936 1936 2044 2102 2374 2537 2102 1989 1887 1936 1936 1936 1795 1752 1752 1839 1989 2537 2830 2374 0 4599 3345 2830 2628 2628 2374 2628 0 2830 2830 0 3066 0 0 0 1989 1839 1795 1839 1839 1711 1635 1711 1711 1711 1672 1635 1533 1443 1415 1388 1388 1362 1338 1314 0 0 0 0 3345 3504 3679 4088 4088 4906 6133 4599 3679 3873 3873 3679 3504 3873 0 0 0 0 0 0 1051 994 968 955 0 0 0 1887 0 0 0 1752 1711 0 0 1752 1672 1752 1711 1672 1672 1635 1599 1635 1501 1599 1501 1501 1565 1443 1501 1443 1471 1533 1471 1443 1443 1415 1471 1443 1599 1471 1443 1415 1599 1471 1599 1471 1471 1388 1362 1388 1388 1388 1415 1388 1388 1415 1415 1415 1388 1471 1268 1247 1247 1247 1226 1226 1226 1226 1247 1247 1247 0 0 0 0 0
    0 0 0 0 0 0 0 0 0 0 0 0 0 0 0 0 0 0 0 0 0 0 0 0 0 0 0 0 0 0 0 0 0 0 0 0 0 0 0 0 0 0 0 0 0 0 0 0 0 0 0 0 0 0 0 0 0 0 0 0 0 0 0 0 0 0 0 0 0 1989 0 0 0 0 2628 2830 2537 2830 2943 2830 2725 2628 2537 2537 2230 2537 2537 2230 2102 2044 2102 2164 2044 2164 2044 2164 2230 2230 2299 2374 2374 2830 2943 2830 2830 2943 2725 2830 2537 2628 2453 2453 2537 2537 2537 2725 2537 0 0 2537 2453 2230 2299 2164 2453 2628 2537 2537 2628 2725 2537 2537 2537 2299 2374 2374 2628 2725 2537 0 2725 0 0 0 0 0 0 0 0 0 0 0 0 0 2102 1989 1936 1936 1936 1989 1989 1936 1936 1936 2044 2044 2230 2374 1989 1936 1839 1887 1887 1936 1839 1795 1752 1887 1989 2374 2725 2164 2230 3066 2830 2628 2374 2453 2230 2453 2725 2628 2628 2830 2943 2537 0 0 1887 1795 1795 1795 1795 1672 1635 1711 1711 1711 1635 1635 1533 1415 1415 1388 1362 1338 1338 1291 1247 0 0 0 3199 3199 3345 3679 3679 4906 5661 4329 3504 3679 3679 3504 3345 3679 0 0 0 0 0 0 1022 981 955 943 1008 0 0 0 0 0 0 0 1599 0 0 1711 1635 1711 1711 1635 1635 1635 1599 1635 1471 1565 1501 1501 1565 1443 1501 1443 1471 1501 1471 1415 1443 1388 1471 1415 1565 1471 1443 1415 1565 1471 1565 1443 1471 1415 1388 1388 1388 1388 1388 1388 1388 1388 1388 1415 1388 1443 1268 1247 1247 1226 1206 1206 1206 1206 1226 1247 1226 0 0 0 0 0
    0 0 0 0 0 0 0 0 0 0 0 0 0 0 0 0 0 0 0 0 0 0 0 0 0 0 0 0 0 0 0 0 0 0 0 0 0 0 0 0 0 0 0 0 0 0 0 0 0 0 0 0 0 0 0 0 0 0 0 0 0 0 0 0 0 0 0 0 0 1989 0 0 1887 2102 2374 2453 2164 2453 2299 2537 2453 2230 2230 2230 2102 2299 2230 2102 2044 1989 2044 2044 2044 2102 1989 2102 2164 2164 2164 2164 2164 2453 2537 2537 2537 2628 2453 2628 2374 2453 2299 2299 2374 2374 2374 2453 2299 2453 2164 2164 2044 1989 2044 2044 2102 2230 2164 2230 2230 2299 2230 2230 2164 2044 2102 2044 2230 2230 2102 2299 2164 2164 2164 2044 2102 2044 1936 2044 1936 2102 2044 2044 2102 2044 1989 1989 1936 1936 1936 1989 1989 1989 1936 1989 2044 2044 2164 2230 1887 1839 1752 1795 1839 1887 1839 1795 1752 1887 1936 2230 2537 2044 2044 2628 2537 2374 2164 2299 2164 2299 2537 2537 2453 2537 2725 2374 0 0 1887 1795 1795 1795 1795 1672 1635 1711 1711 1672 1635 1599 1501 1388 1388 1362 1338 1338 1314 1291 1247 0 0 0 2102 2725 3066 3199 3345 4329 5256 3873 3345 3504 3504 3345 3199 0 0 0 103 103 0 1008 1008 968 955 943 1008 1008 0 0 0 257 0 0 0 0 0 1635 1565 1635 1635 1533 1599 1599 1565 1599 1443 1533 1471 1533 1599 1443 1501 1443 1471 1533 1443 1415 1443 1388 1471 1415 1533 1471 1443 1415 1533 1415 1533 1443 1443 1388 1362 1362 1388 1362 1388 1388 1388 1388 1388 1388 1388 1415 1268 1226 1226 1187 1187 1187 1187 1187 1206 1226 1226 0 0 0 0 0
    0 0 0 0 0 0 0 0 0 0 0 0 0 0 0 0 0 0 0 0 0 0 0 0 0 0 0 0 0 0 0 0 0 0 0 0 0 0 0 0 0 0 0 0 0 0 0 0 0 0 0 0 0 0 0 0 0 0 0 0 0 0 0 0 0 0 0 0 0 0 0 0 1839 1887 1989 1989 1936 2044 1839 1887 2044 1936 1989 2044 1989 2102 2044 2044 2044 1989 2044 2044 1989 2102 1989 2044 2102 2102 2044 2044 2044 2102 2102 2164 2102 2299 2102 2374 2164 2299 2230 2230 2230 2230 2164 2230 2102 2164 1936 1989 1936 1936 1989 1989 1989 2044 2044 2044 2044 2102 2044 2044 1989 1989 1989 1989 2102 2102 1989 2102 2044 2044 2044 1936 1989 1936 1887 1989 1887 1989 1936 1989 1989 1989 1936 1989 1936 1989 1936 2044 2044 1989 1989 2044 2044 2044 2102 2164 1839 1839 1752 1752 1795 1839 1795 1752 1752 1839 1887 2044 2299 1989 1989 2374 2299 2230 2102 2230 2102 2230 2374 2453 2230 2230 2628 2164 0 1795 1795 1752 1752 1795 1795 1672 1599 1752 1711 1672 1635 1599 1501 1388 1388 1362 1338 1314 1314 1268 1226 1226 1314 1291 1599 1565 1795 1887 2725 3873 4906 3679 3199 3345 3345 3345 3066 0 0 0 0 0 0 994 994 968 955 943 994 994 0 0 0 0 0 0 0 0 0 1501 1471 1501 1471 1415 1501 1471 1533 1599 1415 1501 1501 1533 1599 1471 1533 1443 1471 1533 1443 1443 1443 1415 1471 1415 1533 1471 1443 1415 1501 1415 1533 1415 1415 1362 1362 1362 1362 1362 1388 1388 1388 1388 1388 1388 1362 1388 1247 1226 1187 1149 1149 1149 1168 1168 1187 1206 1206 0 0 0 0 0
    0 0 0 0 0 0 0 0 0 0 0 0 0 0 0 0 0 0 0 0 0 0 0 0 0 0 0 0 0 0 0 0 0 0 0 0 0 0 0 0 0 0 0 0 0 0 0 0 0 0 0 0 0 0 0 0 0 0 0 0 0 0 0 0 0 0 0 0 0 1936 1936 1936 1839 1887 1936 1936 1887 1936 1839 1887 1936 1936 1936 1989 1989 2044 1989 1989 1989 1989 2044 1989 1989 2044 1936 1989 2044 2044 1989 1989 1989 1989 1936 1989 1936 2044 1989 2102 2044 2164 2102 2102 2164 2102 2102 2164 1989 2044 1887 1887 1887 1887 1936 1936 1936 1989 1989 1989 1989 2044 2044 1989 1989 1989 1989 1989 2102 2044 1989 2044 1989 1989 1989 1936 1936 1887 1839 1936 1839 1936 1936 1936 1936 1936 1887 1936 1936 1989 1936 1989 1989 1989 1989 2044 2044 1989 2044 2102 1795 1839 1752 1752 1795 1795 1795 1752 1752 1795 1795 1887 2044 1887 1936 2102 2044 2102 2044 2102 2044 2164 2299 2299 2102 2044 2374 2044 0 1795 1752 1711 1711 1752 1752 1635 1565 1711 1672 1672 1599 1599 1471 1388 1388 1362 1314 1314 1291 1268 1206 1206 1291 1247 1291 1268 1291 1291 1471 0 4088 3345 3199 0 3066 3066 0 0 0 0 0 0 0 968 968 955 943 931 994 968 981 0 0 0 0 0 0 0 0 0 0 0 0 0 0 0 0 1565 1415 1471 1501 1565 1565 1471 1533 1443 1471 1533 1443 1443 1443 1415 1471 1443 1533 1471 1443 1443 1501 1415 1533 1415 1415 1362 1362 1338 1362 1338 1362 1362 1362 1362 1362 1362 1362 1362 1226 1226 1168 1132 1149 1132 1149 1149 1168 1187 1168 0 0 0 0 0
    0 0 0 0 0 0 0 0 0 0 0 0 0 0 0 0 0 0 0 0 0 0 0 0 0 0 0 0 0 0 0 0 0 0 0 0 0 0 0 0 0 0 0 0 0 0 0 0 0 0 0 0 0 0 0 0 0 0 0 0 0 0 0 0 0 0 0 0 0 1936 1936 1936 1839 1887 1887 1887 1887 1936 1839 1936 1936 1887 1936 1989 1936 2044 1989 1989 1936 1936 1989 1936 1936 2044 1936 1989 1989 1989 1989 1989 1989 1989 1936 1936 1936 1989 1887 1989 1936 2044 2044 2044 2044 2044 2044 2044 1936 1936 1839 1839 1839 1839 1887 1887 1887 1936 1936 1989 1989 1989 1989 1989 1989 1989 1989 1989 2044 1989 1989 1989 1989 1989 1989 1936 1936 1887 1839 1936 1839 1936 1936 1936 1936 1936 1887 1936 1887 1989 1936 1989 1989 1989 1989 2044 2044 1989 2044 2102 1795 1839 1795 1752 1795 1795 1795 1752 1752 1795 1795 1839 1936 1839 1887 1989 1989 2044 1989 2044 2044 2164 2230 2164 2044 1989 2164 1989 1752 1752 1752 1711 1711 1711 1711 1635 1565 1711 1672 1635 1599 1565 1471 1388 1388 1362 1314 1314 1291 1247 1206 1206 1268 1247 1247 1247 1247 1226 1268 1291 0 0 0 1839 1839 2537 0 0 0 0 0 0 0 955 955 943 931 919 994 931 968 0 931 865 0 0 0 994 1008 897 791 791 774 735 791 0 0 0 1388 1443 1471 1533 1565 1471 1533 1443 1471 1533 1443 1443 1443 1415 1471 1443 1533 1471 1443 1443 1501 1443 1533 1415 1415 1362 1362 1338 1338 1338 1338 1338 1338 1338 1338 1338 1338 1338 1226 1206 1132 1115 1149 1115 1149 1149 1149 1168 1168 0 0 0 0 0
    0 0 0 0 0 0 0 0 0 0 0 0 0 0 0 0 0 0 0 0 0 0 0 0 0 0 0 0 0 0 0 0 0 0 0 0 0 0 0 0 0 0 0 0 0 0 0 0 0 0 0 0 0 0 0 0 0 0 0 0 0 0 0 0 0 0 0 0 0 1936 1936 1989 1887 1936 1887 1887 1887 1936 1839 1936 1936 1887 1936 1936 1936 1989 1936 1989 1887 1887 1936 1887 1887 1936 1887 1936 1936 1989 1989 1989 1989 2044 1936 1989 1936 1936 1887 1936 1936 1989 1989 1989 2044 2044 2044 2044 1936 1936 1839 1839 1839 1795 1839 1839 1839 1887 1887 1936 1936 1989 1989 1989 1989 1989 1936 1989 1989 1936 1936 1936 1936 1936 1936 1887 1887 1839 0 1887 1839 1887 1887 1887 1887 1887 1887 1936 1887 1989 1887 1989 1989 1936 1989 1989 1989 1989 1989 2044 1839 1839 1795 1752 1795 1795 1795 1752 1752 1795 1795 1795 1887 1839 1887 1936 1989 1989 1989 2044 2044 2102 2164 2102 1989 1936 2044 1936 1711 1752 1711 1711 1711 1711 1711 1635 1565 1711 1672 1635 1635 1599 1471 1388 1388 0 1314 1314 0 1268 1226 1206 1268 1247 1226 1226 1206 1187 1206 1226 1247 1291 0 1635 1443 0 0 0 0 876 943 0 0 943 943 955 943 931 1008 981 1008 0 968 931 919 865 865 876 886 855 782 782 782 758 808 799 0 0 0 0 0 1565 1599 1501 1565 1471 1471 1501 1443 1443 1415 1415 1471 1443 1501 1471 1443 1471 1471 1471 1533 1415 1415 1338 1338 1314 1338 1314 1314 1314 1314 1314 1314 1314 1338 1338 1206 1206 1115 1098 1132 1115 1132 1132 1132 1168 1149 0 0 0 0 0
    0 0 0 0 0 0 0 0 0 0 0 0 0 0 0 0 0 0 0 0 0 0 0 0 0 0 0 0 0 0 0 0 0 0 0 0 0 0 0 0 0 0 0 0 0 0 0 0 0 0 0 0 0 0 0 0 0 0 0 0 0 0 0 0 0 0 0 0 0 1936 1936 1936 1887 1936 1839 1887 1887 1887 1839 1936 1936 1887 1936 1936 1936 1989 1936 1936 1839 1887 1887 1839 1795 1839 1839 1887 1887 1936 1936 1936 1989 1989 1936 1989 1887 1936 1839 1887 1887 1936 1936 1936 1936 1989 1989 1989 1936 1887 1795 1839 1839 1795 1839 1795 1839 1887 1887 1936 1887 1936 1936 1936 1936 1936 1887 1936 1936 1887 1887 1887 1887 1887 1887 1887 1839 1839 0 1887 1839 1887 1887 1887 1887 1887 1887 1936 1887 1936 1887 1936 1936 1936 1936 1989 1936 1989 1936 1989 1795 1839 1839 1795 1839 1839 1795 1795 1795 1839 1795 1839 1887 1839 1839 1936 1936 1936 1936 1989 1989 2044 2044 1989 1936 1887 1936 1887 1672 1711 1711 1672 1672 1711 1711 1599 1533 1672 1635 1599 1599 1599 1471 0 1362 0 0 0 0 1268 1226 1206 1291 1268 1226 1226 1206 1168 1206 1206 1226 1226 1247 1314 1291 1187 1187 994 981 865 931 919 919 931 943 955 943 943 1008 1008 1008 1008 955 919 886 845 836 826 836 836 774 766 782 766 808 817 0 0 0 0 0 1565 1565 1501 1533 1471 1471 1501 1415 1443 1415 1415 1471 1443 1501 1471 1443 1471 1471 1471 1471 1415 1415 1338 1338 1314 1314 1291 1314 1314 1291 1314 1314 1314 1338 1338 1206 1206 1098 1098 1132 1115 1132 1149 1132 1168 1149 0 0 0 0 0
    0 0 0 0 0 0 0 0 0 0 0 0 0 0 0 0 0 0 0 0 0 0 0 0 0 0 0 0 0 0 0 0 0 0 0 0 0 0 0 0 0 0 0 0 0 0 0 0 0 0 0 0 0 0 0 0 0 0 0 0 0 0 0 0 0 0 0 0 0 1936 1936 1936 1887 1936 1839 1887 1887 1887 1839 1936 1936 1887 1936 1936 1936 1936 1887 1936 1839 1839 1839 1795 1752 1795 1795 1839 1839 1887 1887 1887 1936 1936 1936 1936 1887 1887 1839 1795 1839 1839 1839 1887 1887 1936 1936 1936 1887 1839 1795 1795 1795 1795 1795 1795 1795 1839 1839 1887 1887 1887 1887 1887 1887 1887 1887 1936 1887 1839 1795 1839 1795 1839 1839 1839 1795 1795 1752 1839 1795 1839 1839 1839 1839 1839 1839 1936 1839 1936 1887 1887 1887 1936 1936 1936 1936 1989 1936 1936 1795 1839 1839 1839 1839 1839 1795 1795 1795 1839 1795 1795 1839 1795 1839 1887 1936 1936 1936 1989 1936 1989 1989 1936 1887 1839 1887 1887 1635 1711 1711 1672 1711 1711 1711 1635 1533 1711 1635 1565 1599 1599 1471 0 1362 0 0 0 0 1291 1226 1206 1314 1314 1226 1247 1226 1168 1187 1206 1226 1206 1206 1291 1247 1115 1082 981 955 855 931 908 931 931 931 955 943 943 1008 994 1291 0 0 0 0 0 836 826 826 836 808 791 799 791 826 817 0 0 0 0 0 1533 1533 1471 1501 1443 1443 0 1415 1415 1388 1415 1443 1443 1471 1471 1443 1471 1443 1471 1471 1443 1388 1338 1338 1314 1314 1291 1314 1314 1291 1314 1314 1314 1338 1338 1206 1206 1098 1115 1132 1132 1149 1149 1132 1168 1149 0 0 0 0 0
    0 0 0 0 0 0 0 0 0 0 0 0 0 0 0 0 0 0 0 0 0 0 0 0 0 0 0 0 0 0 0 0 0 0 0 0 0 0 0 0 0 0 0 0 0 0 0 0 0 0 0 0 0 0 0 0 0 0 0 0 0 0 0 0 0 0 0 0 0 1936 1887 1936 1887 1936 1839 1839 1887 1887 1839 1936 1936 1887 1887 1887 1887 1887 1839 1887 1795 1795 1795 1752 1711 1711 1711 1795 1752 1839 1839 1839 1887 1887 1887 1887 1795 1839 1752 1752 1795 1795 1795 1795 1839 1887 1887 1887 1839 1795 1752 1752 1752 1752 1752 1752 1752 1795 1795 1839 1795 1839 1839 1839 1839 1839 1839 1887 1839 1839 1795 1795 1795 1795 1795 1795 1795 1795 1711 1839 1795 1839 1839 1839 1795 1839 1795 1936 1839 1936 1887 1887 1887 1936 1936 1936 1936 1936 1887 1936 1795 1839 1839 1839 1839 1795 1795 1752 1752 1795 1752 1752 1795 1795 1839 1839 1936 1936 1887 1936 1936 1989 1989 1936 1887 1795 1839 1887 1635 1711 1711 1672 1711 1711 1711 1672 1533 1672 1635 1565 1565 1599 1471 1362 1362 0 0 0 0 1291 1247 1226 1338 1314 1247 1247 1226 1168 1187 1187 1206 1187 1187 1268 1206 1098 1066 994 968 865 931 919 931 943 943 955 955 943 0 0 1388 1471 1415 1388 1388 1338 0 0 836 836 817 782 799 791 817 817 0 0 0 0 0 1471 1471 1443 1471 1415 1415 0 1388 1388 1388 1388 1443 1443 1471 1471 1443 1501 1443 1501 1471 1443 1388 1338 1338 1314 1314 1314 1314 1314 1291 1314 1314 1314 1338 1338 1187 1226 1098 1115 1149 1132 1149 1149 1132 1168 1132 0 0 0 0 0
    0 0 0 0 0 0 0 0 0 0 0 0 0 0 0 0 0 0 0 0 0 0 0 0 0 0 0 0 0 0 0 0 0 0 0 0 0 0 0 0 0 0 0 0 0 0 0 0 0 0 0 0 0 0 0 0 0 0 0 0 0 0 0 0 0 0 0 0 0 1936 1887 1887 1887 1887 1839 1839 1839 1887 1839 1887 1887 1887 1887 1887 1887 1887 1839 1839 1752 1752 1752 1711 1672 1672 1672 1711 1711 1752 1752 1795 1839 1839 1839 1839 1795 1795 1752 1752 1752 1752 1752 1795 1795 1795 1839 1839 1752 1711 1711 1711 1711 1711 1711 1711 1711 1711 1752 1752 1752 1795 1795 1795 1839 1839 1839 1887 1839 1795 1795 1795 1752 1795 1795 1795 1752 1752 1711 1795 1752 1795 1795 1795 1795 1795 1752 1936 1839 1936 1887 1887 1887 1936 1936 1936 1887 1887 1839 1887 1795 1839 1839 1839 1795 1795 1795 1752 1752 1795 1752 1711 1752 1752 1795 1795 1839 1839 1839 1887 1839 1887 1887 1839 1839 1795 1795 1839 1672 1711 1711 1711 1711 1711 1711 1672 1501 1672 1635 1565 1565 1565 1471 1388 1362 0 0 0 0 1314 1268 1247 1362 1338 1247 1247 1226 1168 1187 1187 1206 1187 1187 1268 1206 1098 1066 994 981 876 943 931 943 943 943 968 955 955 0 1362 1471 1501 1501 1501 1501 1415 1362 0 0 865 826 782 799 791 808 817 817 0 0 0 0 0 1443 1415 1415 0 0 0 0 1388 1362 1388 1415 1443 1471 1471 1443 1501 1443 1533 1533 1471 1388 1314 1338 1314 1314 1291 1314 1314 1291 1314 1314 1291 1314 1338 1168 1206 1098 1132 1149 1132 1149 1168 1132 1187 1132 0 0 0 0 0
    0 0 0 0 0 0 0 0 0 0 0 0 0 0 0 0 0 0 0 0 0 0 0 0 0 0 0 0 0 0 0 0 0 0 0 0 0 0 0 0 0 0 0 0 0 0 0 0 0 0 0 0 0 0 0 0 0 0 0 0 0 0 0 0 0 0 0 0 0 1839 1839 1795 1839 1839 1795 1795 1839 1839 1795 1887 1887 1839 1839 1839 1839 1839 1795 1795 1711 1711 1672 1672 1672 1635 1635 1711 1672 1752 1752 1795 1839 1839 1839 1839 1795 1839 1752 1752 1752 1752 1752 1752 1752 1752 1795 1795 1752 1711 1711 1711 1711 1711 1711 1672 1711 1711 1711 1752 1752 1795 1795 1795 1839 1795 1839 1839 1839 1795 1752 1752 1752 1752 1752 1752 1752 1752 1672 1752 1711 1752 1752 1752 1752 1752 1752 1887 1795 1887 1839 1839 1839 1839 1839 1887 1839 1839 1795 1795 1795 1795 1839 1839 1795 1795 1795 1752 1752 1752 1711 1711 1711 1711 1752 1752 1795 1795 1795 1795 1795 1795 1839 1795 1839 1795 1795 1839 1711 1711 1711 1711 1752 1672 1711 1672 1501 1672 1599 1565 1533 1533 1471 1388 1388 0 0 0 0 1338 1291 1268 1362 1338 1206 1226 1206 1149 1168 1168 1168 1149 1168 1268 1206 1098 1115 994 994 886 955 943 943 943 943 968 955 955 1008 1415 1533 1565 1533 1565 1565 1443 1362 0 0 845 799 758 791 782 799 799 808 808 799 808 0 0 0 0 0 663 651 629 623 0 1338 0 0 0 1501 1471 1443 1501 1471 1599 1599 1565 1415 1314 1338 1314 1314 1314 1314 1291 1291 1314 1314 1291 1291 1314 1149 1206 1098 1149 1149 1149 1149 1168 1149 1187 1132 0 0 0 0 0
    0 0 0 0 0 0 0 0 0 0 0 0 0 0 0 0 0 0 0 0 0 0 0 0 0 0 0 0 0 0 0 0 0 0 0 0 0 0 0 0 0 0 0 0 0 0 0 0 0 0 0 0 0 0 0 0 0 0 0 0 0 0 0 0 0 0 0 0 0 1711 1711 1672 1752 1795 1752 1752 1795 1795 1752 1839 1839 1795 1795 1795 1795 1795 1752 1795 1672 1672 1599 1635 1635 1635 1635 1672 1672 1711 1752 1795 1839 1839 1839 1839 1795 1839 1752 1752 1752 1752 1711 1711 1711 1711 1711 1711 1711 1672 1672 1672 1672 1672 1672 1672 1672 1672 1711 1711 1752 1752 1752 1795 1795 1795 1795 1795 1795 1752 1711 1752 1711 1752 1752 1711 1752 1752 1635 1752 1711 1711 1711 1752 1752 1752 1711 1795 1795 1795 1795 1752 1752 1795 1752 1795 1795 1795 1795 1752 1795 1795 1839 1839 1795 1795 1795 1752 1795 1752 1711 1711 1711 1672 1711 1711 1752 1752 1752 1795 1752 1795 1839 1795 1839 1839 1795 1795 1711 1711 1711 1711 1711 1635 1672 1635 1471 1635 1565 1533 1501 1501 1443 1388 1388 0 0 0 0 1362 1314 1291 1388 1338 1206 1226 1206 1149 1168 1168 1168 1149 1149 1291 1226 1132 1226 1008 1008 908 968 0 955 943 943 968 955 955 1008 0 1533 1565 1565 1565 1565 1443 1338 0 0 845 808 750 791 782 791 799 799 808 791 791 817 750 758 728 694 687 675 657 675 669 651 0 0 0 0 1443 1443 1471 1471 1599 1599 1565 1443 1338 1338 1314 1338 1314 1314 1314 1291 1314 1314 1291 1291 1314 1149 1206 1115 1168 1149 1168 1168 1168 1149 1206 1149 0 0 0 0 0
    0 0 0 0 0 0 0 0 0 0 0 0 0 0 0 0 0 0 0 0 0 0 0 0 0 0 0 0 0 0 0 0 0 0 0 0 0 0 0 0 0 0 0 0 0 0 0 0 0 0 0 0 0 0 0 0 0 0 0 0 0 0 0 0 0 0 0 0 0 1565 1599 1565 1672 1711 1711 1711 1752 1752 1711 1752 1795 1752 1752 1752 1752 1711 1711 1752 1635 1635 1565 1565 1599 1599 1599 1635 1635 1711 1711 1752 1795 1795 1795 1839 1795 1752 1711 1711 1711 1711 1672 1672 1672 1672 1672 1711 1672 1635 1672 1635 1635 1635 1635 1635 1599 1599 1672 1672 1672 1711 1711 1752 1752 1752 1752 1711 1752 1752 1711 1711 1711 1711 1711 1711 1711 1711 1599 1711 1672 1711 1711 1752 1752 1752 1711 1795 1752 1752 1752 1752 1711 1752 1752 1752 1752 1752 1795 1752 1795 1795 1795 1839 1795 1752 1795 1752 1752 1752 1672 1711 1672 1672 1711 1711 1752 1752 1752 1752 1752 1752 1795 1752 1795 1795 1795 1795 1711 1711 1711 1672 1711 1599 1635 1599 1471 1635 1533 1501 1471 1501 1443 1388 1388 0 0 0 0 1388 1338 1338 1388 1338 1206 1226 1206 1149 1168 1149 1187 1149 1149 1291 1226 1149 1226 1008 1008 931 0 0 955 955 955 968 968 968 1008 1443 1501 1565 1599 1599 1599 1443 0 0 0 0 808 0 0 0 0 799 799 808 782 774 808 735 735 735 700 687 681 675 694 687 687 675 629 603 0 1362 1362 1415 1443 1565 1565 1533 1415 1338 1338 1314 1338 1314 1314 1314 1291 1314 1314 1291 1314 1314 1132 1206 1115 1168 1168 1168 1187 1187 1168 1206 1168 0 0 0 0 0
    0 0 0 0 0 0 0 0 0 0 0 0 0 0 0 0 0 0 0 0 0 0 0 0 0 0 0 0 0 0 0 0 0 0 0 0 0 0 0 0 0 0 0 0 0 0 0 0 0 0 0 0 0 0 0 0 0 0 0 0 0 0 0 0 0 0 0 0 0 1471 1533 1501 1599 1672 1672 1635 1711 1672 1672 1672 1711 1672 1672 1672 1672 1635 1672 1711 1599 1635 1533 1501 1565 1565 1565 1599 1599 1635 1635 1711 1752 1752 1711 1752 1711 1672 1672 1672 1672 1672 1599 1635 1599 1599 1635 1672 1635 1599 1599 1599 1599 1599 1565 1565 1565 1533 1635 1599 1635 1672 1672 1711 1711 1672 1672 1635 1672 1711 1672 1672 1672 1672 1672 1672 1711 1672 1565 1635 1635 1672 1672 1711 1711 1711 1672 1752 1752 1672 1672 1672 1672 1672 1711 1711 1752 1711 1752 1752 1839 1795 1795 1839 1795 1752 1795 1711 1752 1711 1672 1672 1672 1672 1711 1711 1711 1711 1711 1711 1711 1711 1752 1711 1752 1752 1752 1752 1672 1672 1711 1672 1672 1565 1635 1565 1471 1599 1533 1501 1471 1501 1443 1388 1415 0 0 0 1388 1415 1362 1362 1362 1338 1206 1226 1187 1149 1168 1149 1187 1149 1168 1291 1226 1187 1268 1036 1022 981 0 0 981 968 968 0 981 981 0 1443 1471 1533 1599 1599 1599 1443 0 0 0 0 0 0 0 169 0 799 799 808 782 766 799 721 721 728 700 694 687 681 700 694 700 700 645 618 598 0 0 0 1338 1388 1415 1471 1388 1314 1314 1314 1314 1291 1314 1314 1314 1314 1338 1314 1314 1314 1149 1206 1132 1187 1168 1187 1187 1206 1187 1226 1187 0 0 0 0 0
    0 0 0 0 0 0 0 0 0 0 0 0 0 0 0 0 0 0 0 0 0 0 0 0 0 0 0 0 0 0 0 0 0 0 0 0 0 0 0 0 0 0 0 0 0 0 0 0 0 0 0 0 0 0 0 0 0 0 0 0 0 0 0 0 0 0 0 0 0 1415 1501 1471 1565 1635 1599 1599 1672 1599 1565 1565 1599 1565 1533 1565 1599 1501 1599 1672 1533 1599 1501 1471 1533 1533 1533 1533 1533 1599 1599 1635 1672 1672 1635 1635 1599 1565 1533 1533 1533 1533 1471 1533 1501 1533 1565 1599 1599 1533 1533 1533 1501 1501 1471 1501 1471 1471 1565 1565 1565 1635 1635 1672 1635 1599 1599 1533 1565 1672 1635 1635 1635 1672 1672 1635 1672 1635 1533 1599 1599 1635 1599 1635 1672 1635 1635 1672 1672 1599 1599 1599 1599 1599 1635 1672 1672 1635 1711 1672 1795 1752 1795 1795 1752 1711 1752 1711 1752 1672 1635 1635 1635 1635 1672 1672 1635 1635 1635 1672 1635 1635 1672 1672 1711 1711 1711 1711 1672 1672 1672 1635 1599 1501 1599 1533 1443 1533 1501 1471 1443 1471 1415 1388 1415 1388 1362 1388 1388 1415 1362 1388 1362 1338 1206 1226 1187 1149 1168 1149 1187 1149 1168 1291 1226 1187 1247 1066 1022 1022 0 0 0 981 981 0 0 0 0 1471 1471 1471 1533 1533 1533 1388 1247 0 0 0 0 0 0 168 0 791 791 799 766 750 782 714 721 728 707 694 694 687 714 714 714 707 675 663 669 681 700 681 700 714 0 1362 1314 1247 1268 1268 1338 1314 1314 1314 1314 1338 1338 1314 1314 1291 1132 1206 1132 1187 1168 1187 1206 1206 1187 1226 1206 0 0 0 0 0
    0 0 0 0 0 0 0 0 0 0 0 0 0 0 0 0 0 0 0 0 0 0 0 0 0 0 0 0 0 0 0 0 0 0 0 0 0 0 0 0 0 0 0 0 0 0 0 0 0 0 0 0 0 0 0 0 0 0 0 0 0 0 0 0 0 0 0 0 0 1415 1471 1471 1565 1635 1599 1533 1635 1565 1501 1501 1501 1471 1471 1471 1501 1415 1501 1599 1471 1501 1443 1443 1501 1501 1501 1501 1533 1565 1565 1635 1672 1635 1599 1599 1501 1471 1443 1443 1443 1443 1415 1443 1443 1471 1501 1565 1565 1471 1501 1501 1443 1471 1443 1471 1443 1443 1533 1533 1501 1599 1599 1599 1565 1501 1533 1443 1471 1599 1565 1565 1599 1599 1635 1599 1599 1565 1471 1501 1533 1565 1533 1599 1565 1565 1533 1565 1599 1501 1533 1533 1565 1565 1599 1635 1635 1599 1672 1635 1752 1711 1711 1711 1711 1635 1672 1635 1672 1599 1565 1565 1565 1599 1635 1599 1533 1565 1565 1599 1599 1599 1635 1599 1635 1711 1635 1635 1635 1599 1635 1565 1533 1443 1501 1501 1443 1501 1471 1443 1415 1443 1415 1388 1415 1388 1362 1388 1388 1415 1362 1415 1362 1338 1206 1226 1187 1149 1168 1168 1187 1149 1149 1268 1206 1168 1168 1022 1008 1022 0 0 0 981 981 0 994 0 0 1471 1443 1443 1501 1471 1471 1362 1247 0 0 808 808 735 782 0 774 782 782 791 758 735 766 707 714 728 707 700 694 694 728 728 728 721 694 694 700 700 707 694 700 694 694 728 0 0 0 0 0 1314 1314 1314 1291 1314 1338 1314 1291 1268 1132 1206 1149 1206 1187 1206 1206 1206 1206 1247 1226 0 0 0 0 0
    0 0 0 0 0 0 0 0 0 0 0 0 0 0 0 0 0 0 0 0 0 0 0 0 0 0 0 0 0 0 0 0 0 0 0 0 0 0 0 0 0 0 0 0 0 0 0 0 0 0 0 0 0 0 0 0 0 0 0 0 0 0 0 0 0 0 0 0 0 1415 1471 1471 1533 1565 1533 1501 1533 1471 1443 1471 1443 1415 1415 1415 1443 1388 1415 1443 1388 1415 1415 1415 1443 1443 1471 1471 1501 1533 1533 1565 1635 1533 1471 1501 1443 1388 1388 1388 1388 1415 1388 1415 1415 1443 1471 1501 1501 1443 1443 1471 1388 1415 1388 1415 1388 1388 1471 1471 1471 1565 1533 1533 1501 1443 1471 1415 1443 1533 1501 1471 1533 1533 1565 1533 1533 1471 1415 1443 1443 1471 1471 1501 1501 1471 1471 1501 1533 1443 1471 1501 1533 1533 1565 1599 1635 1599 1635 1599 1711 1672 1672 1672 1672 1599 1635 1599 1635 1565 1533 1533 1533 1565 1565 1565 1471 1501 1501 1501 1501 1501 1533 1533 1565 1672 1565 1599 1565 1501 1533 1471 1471 1415 1471 1471 1415 1471 1471 1415 1415 1415 1388 1388 1415 1388 1388 1388 1388 1415 1388 1415 1338 1314 1168 1206 1168 1149 1168 1149 1187 1149 1149 1268 1187 1149 1098 1022 994 0 0 0 0 981 981 0 0 0 0 1471 1443 1443 1471 1443 1443 1362 1187 0 0 799 799 735 782 774 766 766 774 782 750 728 743 700 707 714 700 694 694 694 735 735 743 735 707 714 707 707 707 700 700 694 694 694 681 687 687 675 675 623 0 0 0 1291 1291 1291 1268 1247 1132 1206 1168 1206 1187 1206 1206 1226 1206 1247 1226 0 0 0 0 0
    0 0 0 0 0 0 0 0 0 0 0 0 0 0 0 0 0 0 0 0 0 0 0 0 0 0 0 0 0 0 0 0 0 0 0 0 0 0 0 0 0 0 0 0 0 0 0 0 0 0 0 0 0 0 0 0 0 0 0 0 0 0 0 0 0 0 0 0 0 1388 1415 1415 1443 1501 1471 1443 1471 1415 1415 1415 1415 1415 1388 1388 1415 1362 1388 1362 1338 1362 1388 1388 1415 1415 1443 1443 1471 1501 1501 1501 1533 1415 1388 1415 1388 1338 1338 1338 1338 1338 1338 1362 1388 1388 1443 1471 1471 1443 1415 1415 1362 1388 1362 1388 1362 1388 1415 1415 1415 1501 1443 1443 1415 1415 1415 1362 1388 1443 1415 1415 1471 1471 1471 1443 1443 1388 1388 1388 1388 1415 1415 1415 1443 1415 1443 1443 1443 1415 1443 1443 1471 1471 1533 1533 1565 1533 1599 1565 1672 1635 1635 1635 1599 1565 1565 1565 1599 1533 1501 1501 1501 1533 1533 1533 1443 1443 1443 1443 1471 1471 1501 1501 1501 1599 1471 1533 1533 1471 1501 1443 1443 1415 1443 1443 1415 1443 1443 1388 1388 1388 1388 1388 1415 1388 1388 1388 1415 1415 1388 1388 1291 1291 1149 1206 1168 1149 1149 1149 1187 1132 1149 1268 1187 1168 1098 1022 0 0 0 0 0 0 981 0 0 1291 994 1471 1443 1443 1415 1362 1388 1338 1132 0 0 799 799 735 774 774 758 758 766 774 735 721 728 700 700 0 700 694 694 694 758 750 766 766 721 714 707 707 707 700 700 694 694 687 669 663 669 645 645 613 598 593 566 0 1268 1268 1247 1226 1132 1187 1168 1206 1187 1206 1206 1226 1226 1247 1247 0 0 0 0 0
    0 0 0 0 0 0 0 0 0 0 0 0 0 0 0 0 0 0 0 0 0 0 0 0 0 0 0 0 0 0 0 0 0 0 0 0 0 0 0 0 0 0 0 0 0 0 0 0 0 0 0 0 0 0 0 0 0 0 0 0 0 0 0 0 0 0 0 0 0 1338 1338 1388 1362 1415 1388 1388 1415 1388 1388 1388 1362 1388 1362 1362 1388 1338 1338 1338 1338 1338 1362 1362 1388 1388 1388 1415 1443 1443 1443 1471 1471 1362 1362 1362 1362 1314 1314 1314 1314 1314 1338 1338 1362 1362 1388 1415 1415 1388 1362 1362 1338 1362 1338 1362 1338 1362 1388 1388 1388 1443 1388 1388 1362 1362 1362 1338 1362 1362 1362 1362 1388 1362 1362 1362 1362 1314 1338 1338 1362 1362 1362 1362 1388 1388 1415 1388 1415 1388 1388 1388 1415 1415 1443 1443 1471 1471 1501 1471 1635 1599 1533 1565 1533 1501 1501 1501 1565 1471 1443 1471 1443 1471 1501 1471 1415 1415 1415 1415 1415 1415 1443 1443 1471 1565 1443 1471 1471 1415 1471 1415 1388 1388 1388 1415 1388 1415 1415 1362 1362 1362 1362 1388 1415 1388 1388 1388 1388 1415 1388 1362 1291 1268 1132 1187 1149 1149 1149 1149 1187 1149 1149 1247 1168 1168 1066 0 0 0 0 981 981 981 968 0 0 0 994 1501 1443 1471 1415 1338 1362 1314 1098 0 0 799 791 728 774 774 750 758 758 766 735 714 721 700 0 0 0 0 0 694 774 766 791 791 728 721 707 707 707 694 694 687 694 681 675 663 657 639 629 618 608 603 579 579 0 0 1226 1206 1098 1168 1168 1206 1187 1226 1226 1226 1226 1247 1247 0 0 0 0 0
    0 0 0 0 0 0 0 0 0 0 0 0 0 0 0 0 0 0 0 0 0 0 0 0 0 0 0 0 0 0 0 0 0 0 0 0 0 0 0 0 0 0 0 0 0 0 0 0 0 0 0 0 0 0 0 0 0 0 0 0 0 0 0 0 0 0 0 0 0 1268 1314 1338 1338 1362 1362 1338 1362 1362 1362 1362 1338 1362 1314 1338 1338 1338 1314 1338 1314 1338 1338 1338 1362 1362 1362 1388 1388 1415 1388 1388 1415 1314 1338 1338 1338 1291 1291 1291 1291 1314 1314 1338 1338 1338 1362 1362 1362 1338 1314 1314 1291 1314 1314 1338 1314 1338 1362 1362 1362 1415 1338 1338 1338 1338 1338 1314 1338 1338 1338 1314 1314 1291 1291 1291 1291 1268 1291 1291 1314 1314 1338 1314 1338 1338 1362 1338 1362 1338 1362 1362 1362 1388 1388 1388 1415 1415 1415 1388 1501 1443 1388 1443 1415 1388 1388 1415 1443 1388 1388 1388 1388 1415 1443 1415 1388 1362 1388 1388 1388 1388 1388 1415 1415 1471 1388 1443 1415 1388 1415 1388 1362 1362 1362 1362 1362 1362 1388 1338 1338 1362 1362 1388 1415 1388 1388 1388 1388 1415 1362 1338 1268 1268 1115 1187 1149 1149 1149 1149 1187 1149 1149 1247 1168 1168 1022 0 0 0 0 968 968 968 968 0 0 1226 994 1443 1388 1388 1362 1314 1314 1291 1082 876 0 799 791 728 774 766 743 750 758 758 728 714 721 700 0 0 0 0 0 694 791 774 0 808 735 721 707 714 714 700 700 694 694 687 675 669 651 634 623 618 613 593 579 579 570 574 549 0 0 1132 1149 1206 1187 1206 1226 1247 1226 1247 1268 0 0 0 0 0
    0 0 0 0 0 0 0 0 0 0 0 0 0 0 0 0 0 0 0 0 0 0 0 0 0 0 0 0 0 0 0 0 0 0 0 0 0 0 0 0 0 0 0 0 0 0 0 0 0 0 0 0 0 0 0 0 0 0 0 0 0 0 0 0 0 0 0 0 0 1187 1168 1314 1314 1338 1338 1338 1362 1362 1338 1338 1291 1314 1291 1314 1291 1291 1268 1314 1314 1338 1338 1314 1338 1338 1338 1362 1362 1362 1362 1338 1362 1291 1338 1338 1314 1291 1291 1291 1291 1291 1314 1338 1338 1338 1338 1314 1291 1314 1268 1268 1247 1268 1291 1314 1314 1338 1338 1362 1338 1388 1338 1338 1314 1314 1314 1314 1314 1314 1291 1291 1291 1268 1247 1247 1247 1206 1268 1268 1268 1291 1291 1291 1291 1291 1314 1291 1314 1314 1314 1314 1338 1338 1338 1338 1362 1362 1362 1338 1388 1362 1314 1338 1338 1314 1338 1314 1338 1338 1314 1338 1338 1362 1388 1362 1362 1338 1362 1362 1338 1362 1362 1362 1388 1388 1388 1415 1388 1388 1388 1362 1338 1314 1338 1338 1314 1314 1338 1314 1314 1338 1362 1388 1388 1362 1362 1362 1338 1362 1338 1268 1247 1226 1098 1187 1149 1149 1149 1149 1187 1149 1149 1226 1132 1132 994 981 886 0 0 955 955 955 955 0 0 1247 0 1443 1388 1388 1338 1291 1291 1226 1082 886 774 799 782 728 766 758 743 743 750 750 728 714 721 700 0 0 0 0 0 700 791 0 0 836 774 750 721 721 721 707 707 687 687 681 669 657 645 629 623 618 613 593 579 566 566 566 553 549 545 0 0 1187 1168 1206 1226 1226 1226 1268 1291 0 0 0 0 0
    0 0 0 0 0 0 0 0 0 0 0 0 0 0 0 0 0 0 0 0 0 0 0 0 0 0 0 0 0 0 0 0 0 0 0 0 0 0 0 0 0 0 0 0 0 0 0 0 0 0 0 0 0 0 0 0 0 0 0 0 0 0 0 0 0 0 0 0 0 1051 1008 1036 1115 1247 1291 1291 1314 1314 1291 1291 1247 1268 1268 1247 1226 1206 1132 1268 1268 1314 1314 1291 1314 1314 1314 1314 1338 1338 1314 1314 1338 1268 1314 1314 1314 1291 1291 1291 1268 1291 1314 1314 1314 1314 1291 1291 1268 1291 1226 1226 1206 1247 1268 1291 1291 1314 1314 1338 1338 1362 1314 1314 1314 1314 1314 1314 1291 1291 1291 1291 1268 1268 1226 1226 1247 1206 1247 1247 1268 1268 1291 1268 1268 1268 1314 1291 1291 1291 1291 1291 1314 1338 1338 1314 1338 1362 1338 1338 1338 1291 1268 1291 1291 1268 1268 1268 1291 1291 1291 1314 1291 1291 1338 1314 1314 1291 1314 1314 1314 1338 1338 1338 1338 1362 1362 1388 1388 1362 1362 1338 1314 1314 1314 1314 1291 1291 1314 1291 1291 1314 1314 1338 1338 1291 1291 1268 1268 1268 1247 1149 1187 1168 1066 1149 1132 1149 1149 1149 1187 1132 1149 1226 1115 1098 981 968 876 0 0 931 943 943 955 0 0 0 0 1471 1362 1362 1291 1268 1268 1206 1066 897 782 808 782 721 758 750 735 743 743 743 721 707 721 700 0 0 0 0 0 714 791 0 0 943 0 808 743 750 735 714 714 694 687 675 669 657 639 623 618 613 608 593 579 566 561 561 557 557 553 549 549 0 1132 1187 1206 1226 1226 1247 1291 0 0 0 0 0
    0 0 0 0 0 0 0 0 0 0 0 0 0 0 0 0 0 0 0 0 0 0 0 0 0 0 0 0 0 0 0 0 0 0 0 0 0 0 0 0 0 0 0 0 0 0 0 0 0 0 0 0 0 0 0 0 0 0 0 0 0 0 0 0 0 0 0 0 0 1008 994 994 1008 1051 1187 1206 1226 1247 1206 1226 1187 1187 1187 1066 1051 1022 1008 1082 1168 1268 1268 0 0 1268 1268 1291 1291 1291 1268 1247 1291 1247 1291 1291 1291 1268 1268 1268 1247 1247 1291 1268 1268 1268 1268 1247 1247 1291 1206 1206 1187 1226 1226 1247 1247 1268 1268 1314 1291 1314 1268 1268 1291 1291 1291 1291 1291 1268 1291 1268 1247 1247 1206 1187 1206 1149 1226 1226 1226 1268 1268 1268 1268 1247 1291 1268 1268 1268 1291 1268 1314 1314 1314 1314 1338 1338 1338 1314 1338 1291 1268 1268 1268 1247 1268 1247 1268 1247 1247 1268 1247 1268 1268 1247 1268 1247 1268 1268 1268 1314 1314 1314 1338 1314 1338 1362 1362 1338 1338 1314 1314 1291 1291 1291 1268 1268 1268 1268 1268 1291 1268 1268 1268 1268 1226 1187 1187 1149 1115 1066 1115 1098 1051 1132 1115 1132 1149 1132 1168 1132 1132 1226 1082 1066 968 955 876 931 943 919 931 931 943 955 943 1008 955 0 1291 1247 1168 1206 1206 1132 1051 919 808 817 782 721 750 743 735 735 735 735 714 707 721 700 0 0 0 0 714 735 782 0 1098 981 0 0 0 791 758 721 707 681 675 663 651 639 629 623 613 608 608 598 588 579 574 570 566 566 553 553 553 545 549 537 0 0 1168 1187 1247 0 0 0 0 0
    0 0 0 0 0 0 0 0 0 0 0 0 0 0 0 0 0 0 0 0 0 0 0 0 0 0 0 0 0 0 0 0 0 0 0 0 0 0 0 0 0 0 0 0 0 0 0 0 0 0 0 0 0 0 0 0 0 0 0 0 0 0 0 0 0 0 0 0 0 994 981 981 994 1008 1098 1132 1168 1168 1132 1149 1098 1082 1066 1008 994 981 981 1008 1066 1036 1149 0 0 1168 1187 1226 1226 1206 1168 1149 1247 1187 1247 1247 1247 1226 1226 1226 1187 1187 1247 1206 1187 1206 1187 1187 1168 1247 1149 1115 1098 1132 1168 1168 1187 1187 1149 1206 1168 1206 1132 1132 1226 1247 1247 1247 1268 1247 1247 1247 1226 1206 1132 1115 1132 1066 1168 1132 1168 1206 1226 1226 1226 1226 1268 1226 1247 1247 1226 1206 1268 1247 1247 0 1268 1291 1291 1268 1291 1247 1247 1247 1247 1206 1226 1226 1226 1206 1206 1226 1168 1187 1206 1187 1206 1187 1226 1226 1247 1291 1291 1291 1314 1314 1314 1314 1338 1314 1314 1291 1291 1291 1291 1291 1268 1268 1268 1268 1268 1291 1268 1247 1247 1226 1168 1115 1082 1051 1036 1036 1066 1051 1036 1115 1098 1132 1149 1132 1168 1115 1115 1187 1066 1036 955 943 865 919 919 908 908 908 919 931 919 981 919 931 0 0 1022 1066 1082 1051 1022 919 836 836 791 721 750 735 728 728 728 728 714 707 721 707 0 0 0 721 721 766 791 0 1115 1036 1008 0 0 994 943 826 743 700 694 675 663 645 623 618 613 613 613 598 593 593 588 584 579 574 561 561 557 557 557 553 561 545 545 0 0 0 0 0 0 0
    0 0 0 0 0 0 0 0 0 0 0 0 0 0 0 0 0 0 0 0 0 0 0 0 0 0 0 0 0 0 0 0 0 0 0 0 0 0 0 0 0 0 0 0 0 0 0 0 0 0 0 0 0 0 0 0 0 0 0 0 0 0 0 0 0 0 0 0 0 981 968 981 981 1008 1051 1066 1098 1082 1066 1066 1051 1022 1008 994 968 968 955 981 1008 1008 1051 0 0 1082 1082 1132 1132 1066 1066 1066 1168 1149 1226 1206 1206 1187 1168 1168 1149 1132 1206 1082 1082 1051 1082 1098 1082 1168 1082 1051 1051 1066 1098 1051 1082 1066 1036 1022 1022 1036 1022 1022 1098 1149 1206 1206 1247 1226 1226 1206 1168 1149 1082 1051 1066 1036 1082 1066 1082 1132 1168 1187 1187 1206 1226 1168 1187 1187 1149 1098 1206 1168 1149 0 1187 1187 1187 1168 1226 1149 1168 1187 1168 1132 1187 1168 1187 1149 1132 1149 1082 1098 1132 1082 1098 1066 1098 1132 1149 1247 1247 1268 1291 1291 1291 1314 1338 1314 1268 1268 1247 1247 1247 1268 1247 1247 1247 1268 1268 1291 1268 1226 1226 1187 1115 1051 1036 1022 1008 1008 1036 1022 1008 1082 1082 1115 1115 1115 1149 1098 1098 1168 1051 1022 943 931 865 919 908 897 897 897 908 908 908 968 886 897 968 981 968 994 1008 994 981 908 855 836 791 721 750 728 721 721 728 728 707 714 728 714 721 0 728 728 728 782 782 0 1082 1022 994 994 1008 968 968 931 836 791 728 694 694 657 623 613 603 608 613 603 598 593 588 588 588 584 570 566 561 553 557 553 553 545 545 549 549 0 0 0 0 0
    0 0 0 0 0 0 0 0 0 0 0 0 0 0 0 0 0 0 0 0 0 0 0 0 0 0 0 0 0 0 0 0 0 0 0 0 0 0 0 0 0 0 0 0 0 0 0 0 0 0 0 0 0 0 0 0 0 0 0 0 0 0 0 0 0 0 0 0 0 968 968 968 981 994 1022 1022 1036 1036 1022 1022 1008 994 981 981 955 943 943 968 981 981 1008 0 0 1036 1051 1066 1066 1036 1022 1036 1149 1115 1206 1187 1187 1149 1132 1132 1098 1082 1132 1051 1036 1008 1022 1036 1036 1098 1066 1036 1036 1022 1051 1008 1022 1008 994 981 981 994 994 994 1036 1066 1115 1132 1206 1187 1187 1168 1115 1098 1036 1022 1022 1022 0 1036 1022 1066 1082 1115 1149 1168 1168 1098 1115 1115 1082 1051 1132 1082 1066 0 1082 1082 1066 1066 1149 1051 1066 1115 1082 1066 1098 1098 1115 1098 0 1082 1051 1051 1082 1051 1036 1022 1022 1036 1051 1149 1149 1187 1226 1247 1268 1268 1314 1291 1206 1226 1206 1187 1206 1206 1206 1187 1206 1247 1226 1247 1247 1187 1187 1149 1066 1022 1008 994 994 981 994 994 981 1036 1051 1082 1098 1098 1132 1082 1082 1149 1022 994 943 931 876 919 908 897 886 886 897 897 897 955 876 897 931 955 931 943 968 968 955 886 845 836 782 721 743 728 721 721 721 721 707 714 735 721 728 728 735 728 728 782 766 0 968 981 955 955 968 931 943 919 876 845 826 0 774 721 700 669 623 629 629 613 603 593 593 588 584 584 570 566 566 553 561 557 557 549 549 557 557 0 0 0 0 0
    0 0 0 0 0 0 0 0 0 0 0 0 0 0 0 0 0 0 0 0 0 0 0 0 0 0 0 0 0 0 0 0 0 0 0 0 0 0 0 0 0 0 0 0 0 0 0 0 0 0 0 0 0 0 0 0 0 0 0 0 0 0 0 0 0 0 0 0 0 968 968 968 968 981 994 1008 1008 1008 994 1008 994 981 968 968 943 943 943 968 968 981 994 981 994 1022 1036 1051 1036 1022 1022 1022 1132 1098 1168 1132 1132 1098 1082 1098 1066 1036 1066 1008 1008 994 1008 1008 1008 1066 1066 1022 1036 1008 1022 981 994 994 981 968 968 968 981 968 1008 1022 1051 1066 1168 1132 1168 1132 1082 1066 1022 1008 1008 1008 0 1008 1008 1036 1051 1082 1098 1132 1115 1066 1082 1082 1051 1022 1082 1051 1022 0 1036 1036 1022 1036 1066 0 0 1082 1051 1036 1066 1066 1082 0 0 0 1036 0 1051 1022 1022 1008 994 1008 1022 1036 1082 1082 1132 1187 1226 1206 1247 1226 1115 1149 1115 1115 1132 1132 1132 1132 1149 1206 1168 1187 1187 1115 1149 1098 1036 994 981 981 981 968 968 968 955 1008 1036 1066 1066 1082 1098 1066 1051 1098 1008 981 943 931 876 919 908 897 897 897 908 897 897 955 876 876 897 931 908 919 943 943 943 886 845 836 782 721 735 721 721 714 721 721 700 714 735 721 735 735 735 735 735 774 743 791 886 955 943 943 955 931 943 931 897 886 0 0 0 817 799 714 681 681 657 629 613 603 598 588 584 574 566 561 561 553 553 549 549 545 545 549 545 0 0 0 0 0</data></depth>
</opencv_storage>
