<?xml version="1.0"?>
<opencv_storage>
<gps_time_stamp>23400</gps_time_stamp>
<gps_x>-3.7332272529602051e+000</gps_x>
<gps_y>3.2572409510612488e-001</gps_y>
<gps_z>-5.8035641908645630e-001</gps_z>
<image_time_stamp>11364</image_time_stamp>
<depth type_id="opencv-matrix">
  <rows>92</rows>
  <cols>320</cols>
  <dt>s</dt>
  <data>
    0 0 0 0 0 0 0 0 0 0 0 0 0 0 0 0 0 0 0 0 0 0 0 0 0 0 0 0 0 0 0 0 0 0 0 0 0 0 0 0 0 0 0 0 0 0 0 0 0 0 0 0 0 0 0 0 0 0 0 0 0 0 0 0 0 0 0 0 0 817 836 845 836 836 836 845 836 826 836 836 836 836 836 836 826 836 845 836 836 845 836 845 855 855 845 855 855 865 845 845 855 855 845 855 845 855 845 845 845 836 836 855 845 845 836 836 0 817 808 808 817 799 808 817 808 817 826 826 826 826 855 865 865 968 943 919 955 919 897 886 855 865 855 836 855 845 845 845 845 855 845 0 876 865 876 865 865 865 876 876 876 886 886 876 897 886 886 865 865 855 0 799 758 728 714 714 694 675 687 681 687 694 687 687 687 687 694 681 700 707 774 799 799 782 791 791 750 758 766 743 735 735 743 735 728 743 714 700 700 700 694 687 687 687 687 687 700 694 700 707 707 714 735 758 782 826 836 836 836 826 826 826 817 826 855 855 855 876 955 943 919 931 865 817 817 808 808 817 817 791 808 817 808 845 845 855 855 886 943 994 994 994 943 931 919 908 865 845 836 845 826 817 817 817 826 826 845 799 721 0 0 593 593 574 593 593 593 598 603 613 608 603 657 663 0 817 886 897 897 908 994 981 994 981 981 968 994 994 1008 931 943 931 886 886 845 0 0 0 0 0
    0 0 0 0 0 0 0 0 0 0 0 0 0 0 0 0 0 0 0 0 0 0 0 0 0 0 0 0 0 0 0 0 0 0 0 0 0 0 0 0 0 0 0 0 0 0 0 0 0 0 0 0 0 0 0 0 0 0 0 0 0 0 0 0 0 0 0 0 0 791 808 817 817 817 808 826 826 817 836 836 836 836 836 836 826 826 845 836 826 836 826 836 836 826 826 836 826 836 836 0 845 845 836 845 845 845 845 836 845 836 836 855 845 845 836 836 817 808 791 791 799 791 799 817 808 817 817 826 826 826 836 836 826 865 855 855 865 865 865 855 845 855 845 836 845 836 836 836 836 845 836 845 855 845 855 845 855 855 855 855 865 865 865 865 876 865 865 845 855 845 826 791 750 728 714 714 694 675 681 681 687 694 687 687 694 687 700 694 735 743 799 817 808 799 799 791 758 750 758 743 728 735 735 728 728 743 721 707 707 714 694 694 694 694 687 687 700 707 707 721 721 728 750 774 791 817 826 826 836 817 817 808 808 817 826 817 817 817 836 845 836 845 826 808 808 808 799 808 808 782 799 799 808 826 826 836 836 865 919 981 955 968 886 876 886 876 836 826 808 808 808 791 799 791 799 808 808 782 728 0 0 593 593 584 593 593 598 598 603 618 608 613 651 657 0 791 836 836 845 836 919 886 876 886 865 865 0 0 908 845 0 897 836 897 845 0 0 0 0 0
    0 0 0 0 0 0 0 0 0 0 0 0 0 0 0 0 0 0 0 0 0 0 0 0 0 0 0 0 0 0 0 0 0 0 0 0 0 0 0 0 0 0 0 0 0 0 0 0 0 0 0 0 0 0 0 0 0 0 0 0 0 0 0 0 0 0 0 0 0 774 791 799 799 799 791 808 817 817 836 826 826 826 826 826 817 817 826 826 808 817 817 817 817 808 808 808 808 808 817 799 826 826 826 836 836 836 836 836 845 836 836 855 845 836 826 826 808 799 782 782 791 782 791 808 799 808 808 826 826 826 836 836 826 845 836 845 845 845 855 845 836 845 836 817 836 836 836 826 826 836 826 836 855 836 845 845 845 845 855 855 855 855 855 855 865 855 855 836 845 836 817 774 743 728 714 714 694 675 681 675 687 694 694 694 694 694 700 700 766 774 808 817 817 799 799 791 758 750 758 735 728 735 735 728 728 743 728 714 714 721 700 700 700 694 694 694 707 714 714 728 728 735 766 791 799 808 826 826 826 808 808 808 791 799 799 791 782 782 808 799 799 808 799 799 808 799 799 799 808 782 799 808 817 836 836 836 836 855 897 955 897 931 865 855 855 855 826 808 782 782 782 766 774 766 774 782 782 774 721 0 0 598 593 593 598 598 603 603 603 623 618 645 657 663 728 758 808 808 836 817 876 855 826 836 808 808 782 799 0 808 817 845 826 876 836 0 0 0 0 0
    0 0 0 0 0 0 0 0 0 0 0 0 0 0 0 0 0 0 0 0 0 0 0 0 0 0 0 0 0 0 0 0 0 0 0 0 0 0 0 0 0 0 0 0 0 0 0 0 0 0 0 0 0 0 0 0 0 0 0 0 0 0 0 0 0 0 0 0 0 774 782 791 791 782 774 791 799 799 817 817 817 817 817 817 808 808 826 817 799 808 808 808 808 782 791 791 791 799 799 791 808 817 826 836 836 836 826 826 836 826 826 845 836 826 817 817 808 799 766 774 782 774 782 799 782 799 799 817 826 817 836 826 817 836 826 826 836 817 836 826 817 836 826 808 836 826 826 826 826 836 826 836 855 836 845 845 845 845 855 845 845 845 845 836 845 845 845 826 826 826 799 758 743 721 707 707 694 675 681 675 694 700 700 700 700 700 714 707 791 782 799 817 808 799 791 782 758 743 758 735 728 735 743 735 735 743 735 721 721 728 707 707 707 700 700 700 707 721 721 728 735 743 766 791 799 799 817 826 826 799 799 799 791 791 791 774 774 766 791 782 782 791 791 791 799 799 799 799 808 791 799 799 808 817 817 817 817 817 855 897 865 865 836 817 826 826 808 782 750 758 766 758 766 750 758 766 758 758 714 623 0 598 593 598 603 603 608 608 608 629 629 675 669 675 735 758 791 799 826 817 865 845 817 817 782 782 758 766 782 782 791 808 808 826 817 0 0 0 0 0
    0 0 0 0 0 0 0 0 0 0 0 0 0 0 0 0 0 0 0 0 0 0 0 0 0 0 0 0 0 0 0 0 0 0 0 0 0 0 0 0 0 0 0 0 0 0 0 0 0 0 0 0 0 0 0 0 0 0 0 0 0 0 0 0 0 0 0 0 0 766 774 782 791 782 766 782 782 799 799 808 808 808 808 808 799 799 817 808 791 799 799 791 799 766 782 782 782 782 791 782 799 799 817 817 826 826 817 817 826 817 817 836 826 808 808 808 791 782 750 758 766 766 774 782 774 782 791 808 808 817 826 817 808 826 817 826 826 808 817 808 782 817 808 791 826 817 817 817 817 826 817 826 845 836 836 836 836 836 845 845 836 845 836 836 845 836 836 817 826 826 791 743 728 714 707 707 694 681 681 675 700 700 707 707 707 707 721 721 791 782 791 808 808 791 791 782 758 743 758 743 728 735 743 735 735 743 743 728 728 735 714 714 714 707 707 707 714 721 728 728 735 743 758 782 791 791 808 817 817 782 791 791 782 791 782 766 766 758 791 774 774 782 782 799 799 799 799 799 799 791 799 782 791 791 791 791 774 774 791 774 799 750 758 743 791 799 782 758 735 750 766 758 766 750 750 750 743 743 0 0 0 598 593 608 608 608 608 613 613 634 634 681 669 675 735 750 791 808 826 817 845 836 808 808 774 774 758 758 758 766 774 791 782 799 782 0 0 0 0 0
    0 0 0 0 0 0 0 0 0 0 0 0 0 0 0 0 0 0 0 0 0 0 0 0 0 0 0 0 0 0 0 0 0 0 0 0 0 0 0 0 0 0 0 0 0 0 0 0 0 0 0 0 0 0 0 0 0 0 0 0 0 0 0 0 0 0 0 0 0 766 774 774 774 774 766 774 774 791 791 791 791 799 799 799 791 791 808 799 799 791 799 782 791 758 782 774 774 782 782 774 791 791 817 808 817 817 817 808 817 808 808 817 817 799 791 791 782 758 743 750 758 758 766 774 758 766 774 791 799 808 817 808 799 817 817 826 826 808 799 791 758 808 791 782 808 799 808 808 808 817 808 817 836 826 826 826 826 826 826 826 826 836 836 826 836 836 826 817 817 817 774 728 728 714 707 707 694 681 681 675 707 707 707 707 714 714 721 721 782 774 782 799 799 782 782 774 758 750 758 743 735 743 750 743 735 758 750 735 735 743 728 728 721 721 714 707 714 721 728 728 728 735 750 766 774 774 808 799 808 774 782 782 774 782 774 758 758 758 782 774 766 782 782 799 799 799 799 791 791 782 782 774 782 774 774 774 750 743 758 735 743 714 714 728 766 782 766 758 735 743 766 758 758 743 743 743 735 728 0 0 0 603 598 613 613 613 618 618 618 639 639 681 669 675 728 743 782 799 826 817 836 826 791 791 758 758 743 750 743 750 750 766 743 766 743 0 0 0 0 0
    0 0 0 0 0 0 0 0 0 0 0 0 0 0 0 0 0 0 0 0 0 0 0 0 0 0 0 0 0 0 0 0 0 0 0 0 0 0 0 0 0 0 0 0 0 0 0 0 0 0 0 0 0 0 0 0 0 0 0 0 0 0 0 0 0 0 0 0 0 758 766 766 766 766 758 758 758 782 766 766 782 782 782 782 774 774 799 791 791 774 782 758 782 743 766 758 766 766 774 766 791 782 808 799 808 808 808 791 799 791 791 799 799 774 782 774 766 750 750 750 758 758 766 766 750 758 766 782 791 799 808 799 791 808 808 817 817 799 782 774 743 799 774 774 791 791 799 799 791 808 791 817 826 817 817 808 817 817 817 817 817 826 817 817 826 826 817 808 808 808 758 721 721 714 707 707 694 687 681 675 714 714 707 707 714 714 721 721 774 774 774 791 791 774 774 774 758 750 758 743 743 743 750 743 743 758 750 735 735 743 728 728 728 721 714 714 721 728 728 728 728 735 743 766 766 766 799 799 799 766 782 782 766 774 766 750 750 750 774 750 743 750 743 782 766 766 766 766 766 774 774 766 774 774 774 774 750 750 766 743 758 721 721 728 758 774 758 743 728 743 758 758 758 750 743 743 728 721 0 0 0 0 603 623 623 618 623 623 629 645 651 687 669 675 728 743 782 791 817 817 836 817 766 774 735 743 735 735 735 743 743 743 728 743 721 0 0 0 0 0
    0 0 0 0 0 0 0 0 0 0 0 0 0 0 0 0 0 0 0 0 0 0 0 0 0 0 0 0 0 0 0 0 0 0 0 0 0 0 0 0 0 0 0 0 0 0 0 0 0 0 0 0 0 0 0 0 0 0 0 0 0 0 0 0 0 0 0 0 0 750 750 750 750 750 750 750 743 766 743 743 766 774 774 774 758 766 782 782 782 758 774 743 766 735 758 750 758 758 766 758 782 766 808 782 799 799 782 774 774 758 758 766 758 743 766 766 758 743 750 750 758 758 758 758 750 743 758 766 774 774 791 782 766 791 799 799 799 782 758 758 735 791 758 766 782 782 791 782 782 799 782 808 817 799 799 791 808 808 799 799 799 808 808 799 817 808 791 791 799 791 750 721 721 714 707 714 694 681 681 675 707 707 700 707 707 714 721 721 750 766 766 774 782 766 774 766 758 750 750 750 743 743 750 743 743 758 750 735 735 743 728 728 728 721 721 721 728 728 728 728 728 735 750 766 758 766 799 799 799 766 782 782 766 774 750 743 743 743 766 728 728 735 721 750 728 728 735 743 750 750 766 758 774 766 774 782 758 758 782 750 782 735 743 743 766 774 766 743 728 743 758 758 758 750 735 735 721 721 0 634 0 613 608 623 623 618 623 623 629 651 651 687 663 675 721 728 758 758 799 791 817 743 735 750 721 728 728 735 735 735 735 743 721 735 714 0 0 0 0 0
    0 0 0 0 0 0 0 0 0 0 0 0 0 0 0 0 0 0 0 0 0 0 0 0 0 0 0 0 0 0 0 0 0 0 0 0 0 0 0 0 0 0 0 0 0 0 0 0 0 0 0 0 0 0 0 0 0 0 0 0 0 0 0 0 0 0 0 0 0 750 750 750 750 750 743 743 743 766 735 743 758 774 774 774 758 766 782 782 782 758 774 735 766 728 758 750 750 758 758 750 774 758 799 766 774 774 758 750 743 735 735 743 735 728 750 750 750 735 750 750 758 758 766 750 750 743 750 750 758 758 766 758 750 766 782 791 774 766 743 735 728 774 743 758 766 766 774 774 774 791 774 799 808 799 791 774 799 799 791 791 782 791 782 782 799 791 758 774 782 774 735 721 714 714 714 714 694 681 681 675 700 700 700 707 707 714 721 721 743 758 750 758 774 758 766 758 758 743 750 750 750 743 758 743 743 750 750 743 735 750 735 728 728 721 721 728 728 735 735 735 735 743 758 774 766 766 799 799 799 766 782 774 758 758 735 735 735 735 743 714 714 714 707 728 714 714 721 728 743 735 758 750 774 758 766 774 750 750 774 743 766 735 735 735 750 766 758 743 721 735 750 758 750 743 728 721 714 707 681 634 0 613 613 629 623 618 623 629 634 651 651 681 657 669 700 707 728 728 766 735 766 700 728 735 721 728 728 735 735 735 743 735 721 721 700 0 0 0 0 0
    0 0 0 0 0 0 0 0 0 0 0 0 0 0 0 0 0 0 0 0 0 0 0 0 0 0 0 0 0 0 0 0 0 0 0 0 0 0 0 0 0 0 0 0 0 0 0 0 0 0 0 0 0 0 0 0 0 0 0 0 0 0 0 0 0 0 0 0 0 750 750 750 750 750 743 743 743 766 735 743 766 791 782 774 766 758 774 766 758 743 758 728 758 728 750 750 750 750 758 750 766 750 791 750 766 766 743 743 735 735 728 735 728 721 735 743 750 735 750 750 758 758 766 758 750 743 750 750 750 750 750 750 743 758 774 782 758 750 728 728 721 750 735 750 758 758 766 758 766 782 766 799 791 791 782 766 791 791 774 782 774 774 774 774 791 782 743 766 766 758 728 714 714 707 714 714 694 681 681 687 707 707 707 707 714 714 721 721 743 750 743 743 758 750 750 750 758 743 743 750 750 743 758 743 743 735 743 735 735 743 735 728 728 721 728 728 735 735 735 735 735 750 766 782 774 774 799 799 799 766 782 766 750 750 721 721 721 721 728 714 707 707 700 721 707 707 714 714 728 728 743 750 766 750 758 758 735 728 743 728 728 714 714 707 714 728 728 721 714 721 735 743 735 728 714 707 707 700 669 634 0 618 613 629 629 623 629 629 634 645 651 681 651 663 700 700 721 721 743 721 735 700 714 721 714 721 721 735 735 735 735 735 714 714 687 0 0 0 0 0
    0 0 0 0 0 0 0 0 0 0 0 0 0 0 0 0 0 0 0 0 0 0 0 0 0 0 0 0 0 0 0 0 0 0 0 0 0 0 0 0 0 0 0 0 0 0 0 0 0 0 0 0 0 0 0 0 0 0 0 0 0 0 0 0 0 0 0 0 0 743 735 735 735 743 735 743 735 766 735 735 766 791 774 758 743 735 735 728 728 721 728 714 743 721 750 743 750 750 758 750 766 750 791 743 758 758 735 735 735 728 728 728 721 707 714 714 721 721 735 743 750 750 758 750 750 743 750 750 750 750 750 743 743 750 766 774 750 743 721 721 714 743 728 743 743 750 750 750 758 774 758 791 774 782 766 758 791 782 766 774 766 766 766 774 782 766 735 758 758 743 728 721 721 714 714 721 700 687 694 694 707 707 707 714 714 714 721 721 735 743 735 735 743 743 743 743 750 750 750 758 758 750 766 750 750 735 743 728 735 735 735 728 728 728 728 735 735 735 735 735 735 750 758 774 782 782 808 799 799 766 774 766 750 735 707 714 714 714 714 707 707 707 700 721 707 707 714 714 721 714 728 743 758 750 750 743 721 714 721 714 714 700 700 700 700 707 714 707 707 714 721 735 721 714 700 694 694 687 657 634 618 618 613 634 629 623 629 629 639 645 651 681 651 663 700 700 721 714 735 714 714 694 707 707 707 714 714 728 721 728 728 721 0 0 675 0 0 0 0 0
    0 0 0 0 0 0 0 0 0 0 0 0 0 0 0 0 0 0 0 0 0 0 0 0 0 0 0 0 0 0 0 0 0 0 0 0 0 0 0 0 0 0 0 0 0 0 0 0 0 0 0 0 0 0 0 0 0 0 0 0 0 0 0 0 0 0 0 0 0 728 721 721 721 728 735 735 735 766 743 743 782 791 758 735 728 721 714 0 700 0 0 0 721 714 735 735 743 743 750 743 758 743 774 735 743 735 721 721 721 721 714 714 707 687 694 694 700 700 721 721 735 735 743 743 743 735 750 735 743 735 735 735 735 743 758 766 743 743 721 721 714 735 721 735 735 743 743 743 750 766 758 791 766 782 766 758 791 782 766 774 766 766 766 774 782 766 728 758 750 743 728 721 721 714 714 721 694 687 694 694 700 707 707 714 714 721 721 721 728 743 728 735 743 735 743 743 750 750 750 750 758 743 758 750 743 735 735 728 735 728 735 735 728 728 735 735 743 743 743 735 735 750 750 766 774 774 799 799 791 758 758 750 743 721 700 707 707 707 700 700 700 700 694 707 700 700 700 707 707 700 707 728 750 743 750 735 721 707 714 707 700 694 694 694 694 700 700 694 700 707 714 735 721 687 669 669 681 669 645 629 618 623 613 629 629 623 629 629 634 645 645 681 645 663 700 694 707 700 714 700 700 694 700 700 694 707 700 714 707 707 714 0 0 681 663 0 0 0 0 0
    0 0 0 0 0 0 0 0 0 0 0 0 0 0 0 0 0 0 0 0 0 0 0 0 0 0 0 0 0 0 0 0 0 0 0 0 0 0 0 0 0 0 0 0 0 0 0 0 0 0 0 0 0 0 0 0 0 0 0 0 0 0 0 0 0 0 0 0 0 714 714 714 714 721 728 728 735 766 758 0 799 799 758 728 0 0 0 694 694 694 0 0 0 707 721 728 728 735 735 735 750 728 758 721 728 0 707 707 707 707 700 700 694 681 681 681 687 687 707 714 721 721 735 735 735 728 743 728 735 728 728 728 728 728 743 743 735 728 721 714 714 721 714 728 728 728 728 728 735 750 750 782 750 766 750 758 791 774 766 766 766 766 758 774 782 758 728 758 743 735 728 721 714 714 714 721 694 687 694 700 700 707 707 714 714 714 721 714 728 743 728 735 743 735 743 743 750 750 743 750 750 735 750 735 728 728 728 728 728 728 735 735 728 735 735 735 743 743 743 735 735 750 743 750 750 750 791 782 766 743 735 735 728 714 687 700 700 700 694 694 694 700 694 700 694 687 687 694 694 687 687 700 721 721 735 728 714 700 707 694 694 687 687 687 687 694 700 694 700 700 0 750 0 0 618 634 669 651 634 629 623 623 618 629 629 623 629 629 634 639 639 675 645 657 687 687 694 687 700 687 694 687 694 694 687 694 687 694 694 687 681 681 0 657 657 0 0 0 0 0
    0 0 0 0 0 0 0 0 0 0 0 0 0 0 0 0 0 0 0 0 0 0 0 0 0 0 0 0 0 0 0 0 0 0 0 0 0 0 0 0 0 0 0 0 0 0 0 0 0 0 0 0 0 0 0 0 0 0 0 0 0 0 0 0 0 0 0 0 0 707 707 700 700 707 721 721 728 758 758 0 0 808 758 728 0 0 0 687 687 0 0 0 0 0 0 0 721 0 0 735 743 721 0 0 0 0 0 700 707 700 694 694 687 675 675 681 681 681 700 707 714 714 728 728 728 721 735 721 728 721 721 721 721 721 735 735 728 728 721 714 707 714 707 721 714 714 714 714 721 735 735 766 735 750 743 750 782 766 750 758 750 750 750 758 758 743 721 750 743 728 721 721 714 714 714 721 694 687 700 700 694 700 707 707 707 714 721 714 721 735 728 728 735 735 743 743 743 743 735 743 743 728 735 728 721 721 728 728 728 728 728 735 728 735 735 735 743 743 743 743 735 750 735 728 728 714 728 728 728 721 707 714 721 707 675 700 700 700 694 694 694 694 687 700 687 681 681 687 681 675 675 681 694 694 714 714 707 687 694 694 694 687 681 681 681 687 694 687 694 694 687 0 0 613 0 634 663 651 634 623 623 623 618 629 623 618 623 629 634 634 639 675 645 669 694 694 694 687 694 687 694 687 681 681 669 681 669 669 675 651 0 663 639 663 669 0 0 0 0 0
    0 0 0 0 0 0 0 0 0 0 0 0 0 0 0 0 0 0 0 0 0 0 0 0 0 0 0 0 0 0 0 0 0 0 0 0 0 0 0 0 0 0 0 0 0 0 0 0 0 0 0 0 0 0 0 0 0 0 0 0 0 0 0 0 0 0 0 0 0 0 694 687 694 0 0 0 735 0 0 0 0 0 758 0 0 0 0 0 0 0 0 0 0 0 0 0 0 0 0 0 0 0 0 0 0 0 0 700 707 700 687 687 681 669 675 675 675 681 694 700 707 707 721 721 728 721 728 714 721 714 714 714 714 714 721 728 728 728 721 714 707 0 707 721 714 714 714 707 714 728 735 766 728 743 743 750 782 758 743 743 743 735 735 743 743 735 721 750 735 721 721 728 714 714 714 721 694 694 700 700 694 700 707 707 707 714 721 714 721 728 721 728 728 728 735 735 743 735 728 735 728 721 721 714 714 721 728 721 728 728 728 735 728 735 735 735 743 743 743 743 735 750 728 714 714 700 700 707 707 707 694 707 714 707 687 700 700 700 694 700 694 694 694 694 681 681 675 681 675 669 663 675 675 681 694 700 694 681 687 687 687 681 675 675 669 681 681 675 675 681 675 687 657 639 618 639 657 645 629 623 623 623 613 623 623 618 623 623 629 629 634 669 645 669 694 694 0 687 0 0 408 404 397 0 399 393 0 0 0 0 0 651 0 0 0 0 0 0 0 0
    0 0 0 0 0 0 0 0 0 0 0 0 0 0 0 0 0 0 0 0 0 0 0 0 0 0 0 0 0 0 0 0 0 0 0 0 0 0 0 0 0 0 0 0 0 0 0 0 0 0 0 0 0 0 0 0 0 0 0 0 0 0 0 0 0 0 0 0 0 0 0 0 0 0 0 0 0 0 0 0 0 0 0 0 0 0 0 0 0 0 0 0 0 0 243 0 0 0 0 0 0 0 0 0 0 0 0 700 707 700 687 687 681 669 669 669 675 675 681 694 700 700 714 714 721 714 728 714 714 707 707 707 707 0 0 0 0 0 0 0 0 0 0 0 0 0 0 0 0 0 743 758 735 743 743 758 782 758 743 750 735 735 735 743 743 728 721 743 735 721 721 728 714 714 707 714 694 687 700 700 0 0 714 714 714 721 728 714 721 721 714 721 728 728 735 728 735 728 721 728 721 714 714 707 707 714 728 728 728 735 735 743 735 743 743 735 743 750 743 750 743 758 721 714 707 700 700 700 707 700 687 700 707 707 681 700 700 694 687 700 700 700 694 694 681 675 675 681 675 663 663 669 669 675 681 700 687 675 687 681 681 675 669 669 657 669 669 657 663 663 663 669 657 657 623 639 639 634 623 618 623 623 613 623 618 618 623 629 634 629 629 669 645 675 0 0 0 0 415 408 408 404 397 399 399 395 395 0 402 393 0 0 0 0 651 0 0 0 0 0
    0 0 0 0 0 0 0 0 0 0 0 0 0 0 0 0 0 0 0 0 0 0 0 0 0 0 0 0 0 0 0 0 0 0 0 0 0 0 0 0 0 0 0 0 0 0 0 0 0 0 0 0 0 0 0 0 0 0 0 0 0 0 0 0 0 0 0 0 0 0 0 0 0 0 0 0 0 0 0 0 0 0 0 425 422 0 0 0 0 0 0 0 0 0 243 0 0 0 0 0 0 0 0 0 0 0 0 0 0 700 694 694 681 663 669 669 669 675 669 681 687 694 0 0 0 707 0 714 707 707 707 700 700 0 0 0 0 74 0 0 0 0 0 0 0 152 152 0 0 0 0 758 735 735 735 774 791 758 743 735 728 728 728 735 728 721 714 735 728 714 721 714 707 700 700 700 687 681 694 0 0 0 0 721 721 728 728 714 714 714 707 714 721 721 728 728 735 721 721 728 714 0 0 0 0 714 735 728 728 735 743 750 743 750 750 743 750 758 750 758 750 766 714 0 0 0 687 707 707 694 687 700 700 707 687 700 694 694 681 694 694 694 687 694 675 675 669 681 669 657 657 663 663 675 675 694 681 675 681 675 675 669 663 657 645 663 657 645 645 651 657 657 645 651 618 629 629 629 618 618 634 629 613 623 623 623 623 629 639 623 634 669 651 0 0 0 0 432 415 411 411 406 402 402 402 399 399 406 408 399 0 0 0 0 0 0 0 0 0 0
    0 0 0 0 0 0 0 0 0 0 0 0 0 0 0 0 0 0 0 0 0 0 0 0 0 0 0 0 0 0 0 0 0 0 0 0 0 0 0 0 0 0 0 0 0 0 0 0 0 0 0 0 0 0 0 0 0 0 0 0 0 0 0 0 0 0 0 0 0 0 0 0 0 0 75 0 0 0 0 0 0 0 0 427 425 0 0 0 0 0 0 0 0 0 244 0 0 420 422 422 420 425 425 0 0 0 0 0 0 0 0 687 675 657 663 663 663 669 663 669 675 0 0 0 0 0 0 0 0 0 0 0 0 0 0 0 0 74 0 0 0 0 0 0 0 0 0 153 152 152 0 743 728 728 721 774 799 758 735 728 0 0 0 0 0 0 0 0 0 0 0 0 0 0 0 0 681 681 0 0 0 0 0 0 0 0 0 728 721 721 707 0 0 0 0 728 728 714 714 0 0 0 0 0 0 0 0 728 728 735 735 750 743 750 750 735 743 750 743 0 0 0 0 454 443 443 0 0 0 694 687 700 714 707 700 707 700 700 687 707 700 700 694 694 669 675 669 681 663 657 657 657 663 675 675 694 681 669 675 669 663 657 657 657 645 657 657 645 651 651 657 651 639 645 613 629 0 0 0 613 639 629 618 629 623 623 629 629 639 623 629 669 651 0 0 0 0 432 422 415 415 408 404 406 406 404 406 413 413 404 415 427 420 430 427 0 0 0 0 0
    0 0 0 0 0 0 0 0 0 0 0 0 0 0 0 0 0 0 0 0 0 0 0 0 0 0 0 0 0 0 0 0 0 0 0 0 0 0 0 0 0 0 0 0 0 0 0 0 0 0 0 0 0 0 0 0 0 0 0 0 0 0 0 0 0 0 0 0 0 0 0 0 0 0 0 0 0 0 0 0 0 440 432 430 427 420 0 420 413 0 0 0 0 0 0 422 425 425 425 425 425 430 430 430 0 432 0 0 0 0 430 0 669 645 657 0 0 0 657 657 0 0 0 0 0 0 0 0 0 0 0 0 0 0 0 0 0 0 0 0 438 446 440 0 0 0 0 0 0 0 0 0 0 0 0 0 0 0 435 432 430 422 427 422 425 425 430 0 0 0 432 0 0 0 0 0 0 408 413 406 0 425 418 418 418 420 420 420 430 422 0 425 427 425 425 0 0 0 0 0 0 0 0 0 0 422 422 415 0 0 735 750 743 758 743 735 735 743 735 0 0 0 0 438 435 0 0 0 0 0 681 700 714 707 707 714 707 707 687 707 700 707 694 687 663 669 663 675 657 651 651 657 657 669 669 694 681 669 675 663 651 651 651 651 639 657 651 645 645 645 651 639 634 639 603 0 0 0 0 0 645 634 0 623 618 623 623 629 634 623 623 663 0 0 0 0 0 430 420 415 418 411 406 408 406 406 408 418 418 408 418 427 420 427 422 0 0 0 0 0
    0 0 0 0 0 0 0 0 0 0 0 0 0 0 0 0 0 0 0 0 0 0 0 0 0 0 0 0 0 0 0 0 0 0 0 0 0 0 0 0 0 0 0 0 0 0 0 0 0 0 0 0 0 0 0 0 0 0 0 0 0 0 0 0 0 0 0 0 0 432 0 0 0 0 0 0 0 0 0 0 0 440 435 435 432 427 0 425 420 420 418 425 422 422 427 425 427 425 425 425 425 430 430 430 430 432 435 435 435 435 430 0 0 0 0 0 0 0 0 0 0 0 0 0 0 0 0 0 0 0 432 430 0 0 0 0 0 0 0 435 438 443 440 0 0 0 0 0 0 0 0 0 0 440 0 432 435 435 432 430 430 425 427 422 422 422 427 425 427 427 430 427 427 430 427 422 427 420 425 413 425 427 422 422 422 422 422 425 430 427 425 427 430 430 432 427 427 0 0 0 425 0 0 0 420 422 422 418 415 411 0 0 743 750 743 728 728 728 0 0 0 0 0 0 0 0 0 0 0 0 0 0 707 707 707 714 714 707 694 707 707 707 700 687 663 663 657 669 657 651 651 651 657 669 669 694 681 663 663 645 639 639 639 639 629 645 639 634 639 639 639 634 0 0 579 0 0 0 0 0 639 629 0 618 618 618 618 623 629 618 0 0 0 0 0 0 0 427 418 418 418 413 408 411 408 408 413 420 420 411 418 425 420 425 420 0 0 0 0 0
    0 0 0 0 0 0 0 0 0 0 0 0 0 0 0 0 0 0 0 0 0 0 0 0 0 0 0 0 0 0 0 0 0 0 0 0 0 0 0 0 0 0 0 0 0 0 0 0 0 0 0 0 0 0 0 0 0 0 0 0 0 0 0 0 0 0 0 0 0 0 0 0 0 427 427 430 427 425 425 0 0 440 438 440 435 432 0 427 425 422 420 427 425 422 427 427 427 427 427 427 425 430 430 430 430 430 435 435 435 435 430 432 432 435 440 0 0 0 0 0 0 0 0 420 0 427 425 0 430 432 432 430 0 432 435 438 432 432 432 432 432 438 438 432 435 438 440 0 0 0 0 0 440 438 432 432 432 432 432 430 430 427 427 420 422 422 425 425 427 427 427 430 430 430 432 430 430 427 430 422 427 430 427 425 425 425 425 427 432 430 427 430 432 432 432 432 430 432 430 427 425 427 0 413 420 420 420 418 418 415 408 408 411 0 0 0 0 0 0 0 0 0 0 0 0 0 0 0 0 430 0 0 0 687 0 0 714 714 700 707 700 707 700 694 663 663 651 663 651 645 651 645 651 663 663 687 675 645 634 629 0 0 0 0 0 0 629 629 0 0 0 0 0 0 0 0 0 465 451 0 0 629 0 618 0 618 618 623 0 618 0 0 0 0 0 0 0 425 418 418 418 415 411 411 411 411 418 420 420 415 420 425 422 422 422 0 0 0 0 0
    0 0 0 0 0 0 0 0 0 0 0 0 0 0 0 0 0 0 0 0 0 0 0 0 0 0 0 0 0 0 0 0 0 0 0 0 0 0 0 0 0 0 0 0 0 0 0 0 0 0 0 0 0 0 0 0 0 0 0 0 0 0 0 0 0 0 0 0 0 438 0 0 0 430 427 430 427 425 425 430 435 438 438 440 438 432 0 430 427 425 425 427 427 425 427 427 427 427 427 425 425 427 430 430 430 430 432 435 435 435 432 432 432 435 440 438 0 0 0 0 0 0 432 427 425 427 425 430 430 430 430 430 432 435 435 438 432 432 432 432 430 435 435 432 432 435 438 435 435 438 435 432 435 432 430 430 430 430 427 430 427 425 427 420 422 422 427 427 427 427 427 430 432 432 435 432 432 430 432 425 430 427 427 425 425 425 427 427 432 430 430 430 432 432 435 432 430 432 430 427 427 430 425 413 422 422 420 422 422 422 418 418 420 413 413 411 411 408 0 427 0 0 0 0 0 0 0 0 430 430 435 0 0 0 440 438 0 714 707 714 707 707 707 700 669 663 651 663 645 645 645 639 639 657 645 687 651 0 0 0 427 418 408 411 415 411 406 0 408 0 0 0 0 0 0 440 432 440 435 0 0 634 0 0 0 0 0 0 0 0 0 0 0 0 0 0 435 425 420 420 418 415 413 413 413 415 420 422 420 420 422 427 427 425 425 0 0 0 0 0
    0 0 0 0 0 0 0 0 0 0 0 0 0 0 0 0 0 0 0 0 0 0 0 0 0 0 0 0 0 0 0 0 0 0 0 0 0 0 0 0 0 0 0 0 0 0 0 0 0 0 0 0 0 0 0 0 0 0 0 0 0 0 0 0 0 0 0 0 0 0 0 0 425 425 422 425 422 422 422 427 432 435 432 0 435 432 0 430 427 425 427 427 427 425 427 427 427 425 427 425 425 427 427 430 430 430 432 435 435 435 432 435 435 435 440 440 438 440 435 438 435 435 435 430 427 427 427 430 430 430 430 430 432 435 438 438 432 432 432 432 430 432 432 430 432 435 435 432 435 438 435 432 432 427 427 427 427 425 425 425 425 425 427 420 422 422 427 425 427 427 427 427 432 432 432 432 432 430 430 425 427 427 427 425 425 425 427 427 432 430 430 430 432 432 432 432 430 432 430 427 430 430 430 420 425 425 425 427 427 427 425 425 430 427 427 427 422 420 422 430 0 425 430 430 427 430 430 430 427 427 432 427 425 430 435 435 432 430 0 0 0 0 721 707 675 675 657 663 651 651 645 634 634 657 634 0 0 0 432 430 425 420 415 415 420 418 411 408 408 411 413 0 0 415 427 432 430 432 432 0 0 0 0 0 0 0 0 0 0 0 0 0 0 432 430 432 432 420 420 420 418 418 415 415 415 418 422 422 420 420 425 425 425 422 425 0 0 0 0 0
    0 0 0 0 0 0 0 0 0 0 0 0 0 0 0 0 0 0 0 0 0 0 0 0 0 0 0 0 0 0 0 0 0 0 0 0 0 0 0 0 0 0 0 0 0 0 0 0 0 0 0 0 0 0 0 0 0 0 0 0 0 0 0 0 0 0 0 0 0 432 427 0 422 422 420 425 422 422 420 425 430 432 432 0 432 430 0 427 427 422 425 427 425 425 427 427 427 427 427 427 425 427 430 430 430 430 435 435 435 435 432 435 435 435 440 440 440 443 435 440 435 438 438 432 427 430 427 430 432 432 432 430 435 438 440 438 432 432 432 432 427 430 430 430 432 432 432 432 432 435 432 432 432 425 425 427 425 425 422 425 425 422 427 418 422 422 425 425 427 427 427 427 432 430 432 430 430 427 430 422 427 427 427 425 425 425 427 427 432 430 430 427 430 430 432 430 427 430 427 425 430 430 430 420 427 427 427 430 430 430 427 427 432 430 432 432 427 427 425 430 430 422 427 427 427 427 427 430 427 425 430 425 422 425 427 430 430 427 430 430 430 430 425 0 422 0 645 657 651 645 645 634 629 0 0 425 425 430 430 427 425 422 418 418 422 420 415 411 411 413 415 420 420 415 425 430 427 432 430 430 427 427 0 411 397 0 393 377 371 0 0 418 430 430 427 430 430 415 418 420 418 418 418 418 420 420 427 425 420 422 425 425 425 422 422 0 0 0 0 0
    0 0 0 0 0 0 0 0 0 0 0 0 0 0 0 0 0 0 0 0 0 0 0 0 0 0 0 0 0 0 0 0 0 0 0 0 0 0 0 0 0 0 0 0 0 0 0 0 0 0 0 0 0 0 0 0 0 0 0 0 0 0 0 0 0 0 0 0 0 432 427 427 420 422 420 422 418 420 418 420 0 0 430 0 432 430 430 427 427 422 427 427 427 425 427 427 430 427 430 430 427 430 432 432 432 432 435 435 435 438 435 435 435 435 438 440 440 443 435 0 435 438 438 432 430 430 427 432 432 432 432 430 435 438 440 440 430 432 432 432 425 430 427 430 430 432 432 430 432 435 432 432 432 425 427 427 427 425 425 425 427 425 430 420 425 425 427 427 427 427 427 427 432 430 430 430 430 427 430 422 427 427 427 425 427 427 427 427 432 430 427 427 430 430 430 427 427 427 425 422 427 427 427 415 427 427 427 430 430 427 427 427 432 430 432 432 430 430 425 430 427 420 427 427 425 427 427 427 427 425 430 425 422 425 425 427 427 427 427 430 427 427 422 420 418 418 422 422 422 425 0 0 430 430 427 425 422 425 427 427 425 422 418 418 422 422 418 415 415 418 418 422 422 420 425 427 427 430 427 430 427 430 430 420 406 408 408 406 406 413 422 422 430 430 427 427 427 415 420 422 420 420 420 422 422 422 430 427 422 425 427 425 425 418 415 0 0 0 0 0
    0 0 0 0 0 0 0 0 0 0 0 0 0 0 0 0 0 0 0 0 0 0 0 0 0 0 0 0 0 0 0 0 0 0 0 0 0 0 0 0 0 0 0 0 0 0 0 0 0 0 0 0 0 0 0 0 0 0 0 0 0 0 0 0 0 0 0 0 0 432 427 427 422 0 420 422 415 418 418 418 425 427 430 0 432 432 0 427 427 425 427 427 427 427 427 430 430 430 430 430 430 432 432 432 432 435 435 438 435 440 435 440 438 438 440 440 440 443 432 0 432 0 440 432 432 430 430 0 432 432 435 430 435 438 440 438 427 430 430 430 422 427 425 427 430 432 432 430 432 435 432 435 432 427 430 427 430 425 427 427 427 427 430 422 427 427 427 427 427 430 427 427 432 430 430 430 430 430 430 422 430 430 430 427 427 427 430 430 432 430 427 427 430 427 430 427 425 427 425 420 427 425 425 413 427 425 427 427 427 427 427 427 432 427 432 432 430 430 425 427 427 420 425 425 425 427 425 427 427 425 430 425 425 425 425 427 427 427 427 427 425 427 422 420 418 418 420 422 425 427 427 430 430 430 427 425 422 422 425 425 422 422 418 418 422 422 420 418 418 420 420 422 425 422 425 427 425 427 427 427 427 427 425 422 418 418 418 418 418 420 425 427 430 427 427 425 425 413 420 422 420 420 422 422 425 425 430 430 425 427 427 422 413 404 402 0 0 0 0 0
    0 0 0 0 0 0 0 0 0 0 0 0 0 0 0 0 0 0 0 0 0 0 0 0 0 0 0 0 0 0 0 0 0 0 0 0 0 0 0 0 0 0 0 0 0 0 0 0 0 0 0 0 0 0 0 0 0 0 0 0 0 0 0 0 0 0 0 0 0 435 432 430 427 425 425 422 418 420 418 418 422 427 430 0 0 435 0 430 430 425 430 427 427 427 427 430 430 430 430 430 430 430 432 435 435 435 440 440 438 446 443 451 443 443 438 443 0 0 432 0 430 0 440 0 432 0 430 0 0 435 435 430 435 438 438 438 425 430 430 427 422 427 422 427 430 432 432 430 432 435 435 440 435 430 432 430 430 425 430 430 430 430 430 425 430 427 430 427 427 427 427 427 432 430 430 430 430 430 430 422 430 430 430 0 430 430 430 430 435 430 430 427 430 427 430 427 425 427 422 418 425 425 425 413 427 427 427 430 430 427 427 427 432 427 432 430 430 430 425 427 427 420 425 425 425 427 427 427 427 425 430 427 425 425 425 427 427 425 427 427 425 425 422 420 418 418 420 420 422 427 425 430 430 427 427 422 420 422 422 422 422 422 418 418 425 422 422 420 420 422 422 425 425 422 422 425 422 425 425 425 425 427 425 427 425 425 425 422 422 425 430 427 430 427 427 425 425 411 418 420 418 420 420 422 425 422 430 427 422 425 425 411 404 397 395 0 0 0 0 0
    0 0 0 0 0 0 0 0 0 0 0 0 0 0 0 0 0 0 0 0 0 0 0 0 0 0 0 0 0 0 0 0 0 0 0 0 0 0 0 0 0 0 0 0 0 0 0 0 0 0 0 0 0 0 0 0 0 0 0 0 0 0 0 0 0 0 0 0 0 435 432 432 430 427 425 425 420 420 418 418 422 425 427 432 432 435 0 430 432 427 432 430 430 427 430 430 430 430 430 430 430 430 435 435 435 438 443 443 440 451 451 459 446 443 435 438 0 0 430 427 427 0 0 0 0 0 0 0 0 432 432 0 435 435 438 438 422 427 427 427 420 425 420 425 427 432 430 430 430 435 435 443 435 435 435 432 432 425 430 430 430 430 432 425 430 430 430 430 427 430 427 427 432 430 430 430 427 430 430 420 430 430 430 0 430 432 432 432 435 430 430 427 430 427 427 425 425 425 422 418 425 425 425 418 427 427 430 430 430 430 427 430 432 427 432 430 430 430 425 430 427 420 425 425 427 427 427 427 427 425 430 427 425 425 425 427 425 425 425 425 422 422 422 420 420 420 422 422 425 430 427 432 430 430 425 420 418 422 422 422 422 422 418 420 425 425 422 420 420 422 422 425 425 422 422 422 422 422 422 422 422 425 422 425 425 427 427 427 425 430 432 430 430 427 427 425 425 408 418 420 418 420 422 422 425 422 430 427 420 422 425 404 397 393 393 0 0 0 0 0
    0 0 0 0 0 0 0 0 0 0 0 0 0 0 0 0 0 0 0 0 0 0 0 0 0 0 0 0 0 0 0 0 0 0 0 0 0 0 0 0 0 0 0 0 0 0 0 0 0 0 0 0 0 0 0 0 0 0 0 0 0 0 0 0 0 0 0 0 0 432 432 430 427 427 427 425 422 422 420 418 422 425 427 432 430 435 432 430 0 430 432 430 430 427 430 430 432 430 432 430 432 432 435 435 438 438 446 443 443 451 448 454 443 438 425 430 0 0 427 425 425 430 0 0 0 0 0 91 91 432 0 0 0 435 438 438 420 427 427 425 420 425 420 425 427 432 430 430 430 435 432 443 435 435 435 432 430 422 430 430 430 430 430 425 430 430 430 430 427 430 430 430 432 430 430 432 430 430 430 420 430 430 430 0 430 432 432 432 435 430 430 427 430 427 427 425 425 425 422 418 425 425 427 420 430 427 430 430 432 430 430 430 435 427 432 430 430 430 425 430 430 420 427 427 427 427 427 427 427 425 430 427 425 425 425 425 422 422 425 425 422 422 420 420 420 420 425 422 425 430 430 435 432 430 427 422 420 422 425 425 422 425 420 420 425 425 422 422 422 422 422 425 427 422 422 422 422 422 422 422 425 425 422 425 427 427 430 427 427 430 432 430 432 427 427 425 425 408 418 420 418 418 422 422 425 422 430 427 420 422 427 404 395 391 389 0 0 0 0 0
    0 0 0 0 0 0 0 0 0 0 0 0 0 0 0 0 0 0 0 0 0 0 0 0 0 0 0 0 0 0 0 0 0 0 0 0 0 0 0 0 0 0 0 0 0 0 0 0 0 0 0 0 0 0 0 0 0 0 0 0 0 0 0 0 0 0 0 0 0 432 430 430 430 427 427 427 425 425 425 422 425 425 430 432 430 432 432 430 0 430 432 430 432 427 430 430 432 430 432 432 432 432 435 438 438 440 446 440 443 448 446 448 438 435 422 422 430 0 427 425 425 430 432 0 0 0 0 91 91 0 432 0 0 435 438 435 418 425 425 422 418 425 418 425 425 430 430 430 430 435 432 443 435 432 435 432 427 420 427 430 427 427 427 425 430 430 430 430 427 430 430 432 432 432 430 432 430 430 427 418 427 430 430 0 430 430 432 432 435 430 430 427 430 427 427 425 425 425 422 420 427 425 427 422 430 430 432 432 432 432 432 432 435 430 432 427 430 430 425 430 430 420 427 427 427 427 427 427 425 425 430 427 425 425 425 425 425 425 427 427 425 425 425 422 425 425 427 427 427 432 432 438 435 432 430 425 422 425 425 425 422 425 420 420 425 425 422 422 422 422 422 427 430 425 427 425 425 425 425 425 425 425 425 427 430 432 435 432 432 432 435 432 432 430 427 425 425 408 418 420 418 418 422 422 425 422 430 427 420 422 430 0 391 387 385 0 0 0 0 0
    0 0 0 0 0 0 0 0 0 0 0 0 0 0 0 0 0 0 0 0 0 0 0 0 0 0 0 0 0 0 0 0 0 0 0 0 0 0 0 0 0 0 0 0 0 0 0 0 0 0 0 0 0 0 0 0 0 0 0 0 0 0 0 0 0 0 0 0 0 432 432 432 430 430 430 430 430 427 427 425 425 427 430 432 432 432 432 427 0 430 432 430 430 425 430 432 432 430 432 432 432 432 438 438 438 440 446 440 440 443 443 446 435 432 422 420 430 430 427 425 427 430 432 0 0 0 0 91 91 0 432 432 432 432 435 435 418 425 425 422 420 425 418 425 425 430 427 430 430 432 430 438 435 432 435 432 427 422 427 430 430 427 427 427 430 430 430 430 427 430 432 432 432 432 430 430 427 430 427 418 427 427 427 427 430 430 430 430 432 430 430 427 430 427 427 425 425 422 422 420 425 425 427 422 430 430 432 432 432 432 430 432 435 427 430 425 427 427 425 430 427 420 425 425 427 427 425 427 425 425 430 427 425 425 425 427 425 425 430 430 427 427 427 425 427 430 432 430 432 435 435 438 438 432 430 425 425 425 425 425 422 425 420 420 425 422 422 422 422 422 422 427 430 427 430 430 427 427 430 430 430 427 430 432 435 438 438 438 438 438 438 435 435 430 430 427 425 408 418 420 420 418 420 422 422 422 430 427 418 420 427 0 391 387 385 0 0 0 0 0
    0 0 0 0 0 0 0 0 0 0 0 0 0 0 0 0 0 0 0 0 0 0 0 0 0 0 0 0 0 0 0 0 0 0 0 0 0 0 0 0 0 0 0 0 0 0 0 0 0 0 0 0 0 0 0 0 0 0 0 0 0 0 0 0 0 0 0 0 0 432 432 432 432 430 432 430 430 430 427 427 427 427 430 432 432 430 430 422 430 0 432 430 432 425 432 432 435 432 432 435 435 435 440 438 438 438 443 435 438 438 438 440 430 430 420 415 430 430 430 427 427 430 432 432 432 425 427 0 430 430 432 432 432 432 435 435 420 427 427 422 420 427 418 425 425 430 427 430 430 430 430 435 432 430 432 432 430 427 432 432 432 430 430 430 430 430 430 430 430 430 432 432 432 432 430 432 430 430 427 420 427 427 427 427 430 430 432 430 432 430 430 427 430 427 425 422 425 422 420 418 425 425 425 420 430 427 432 432 432 430 430 430 432 425 430 425 425 425 422 427 427 418 425 425 427 427 425 427 425 425 430 427 425 425 425 427 425 427 430 430 427 427 427 427 430 432 435 432 432 435 435 438 438 435 430 427 425 425 427 425 422 425 420 420 425 422 422 422 425 422 422 427 432 427 430 432 430 430 432 432 432 430 430 435 435 438 438 438 435 438 438 435 435 432 430 430 427 408 418 420 420 418 420 422 422 420 430 427 420 420 425 406 395 391 389 0 0 0 0 0
    0 0 0 0 0 0 0 0 0 0 0 0 0 0 0 0 0 0 0 0 0 0 0 0 0 0 0 0 0 0 0 0 0 0 0 0 0 0 0 0 0 0 0 0 0 0 0 0 0 0 0 0 0 0 0 0 0 0 0 0 0 0 0 0 0 0 0 0 0 432 432 432 432 432 432 430 430 430 427 427 425 427 430 435 0 0 0 0 0 0 0 0 432 427 435 435 435 432 432 435 435 432 438 435 438 440 443 435 0 0 0 440 430 430 415 408 427 0 0 0 0 0 432 0 0 0 0 0 427 0 432 0 432 432 435 435 422 427 427 422 422 427 420 425 425 430 427 430 430 430 427 435 430 430 432 432 432 430 432 435 435 432 430 432 432 430 430 430 427 430 432 432 432 432 430 432 430 430 427 425 427 430 430 427 430 432 432 432 432 432 430 427 430 427 427 422 425 422 422 420 425 425 425 422 427 427 430 430 430 430 427 427 432 422 427 420 422 420 420 427 425 420 425 425 427 427 427 427 425 425 430 427 427 427 427 427 425 427 430 430 427 427 427 427 430 432 435 432 432 435 435 435 435 432 430 427 425 427 427 425 422 425 420 420 425 422 422 422 425 425 422 427 432 430 432 435 432 432 435 435 432 427 425 430 430 435 430 432 427 432 435 432 432 432 430 432 430 408 420 422 422 420 420 422 422 420 432 427 418 415 422 404 395 393 391 0 0 0 0 0
    0 0 0 0 0 0 0 0 0 0 0 0 0 0 0 0 0 0 0 0 0 0 0 0 0 0 0 0 0 0 0 0 0 0 0 0 0 0 0 0 0 0 0 0 0 0 0 0 0 0 0 0 0 0 0 0 0 0 0 0 0 0 0 0 0 0 0 0 0 432 435 432 432 430 430 430 430 430 0 0 0 0 0 0 0 0 0 0 0 0 0 0 432 425 432 432 432 430 432 432 432 432 435 435 438 440 0 0 0 0 0 0 0 430 413 404 0 0 0 0 0 225 0 0 0 194 190 0 0 0 0 0 0 432 435 432 422 427 427 420 422 427 420 425 425 430 427 430 430 430 427 435 430 432 432 432 430 430 430 432 432 432 430 432 430 430 430 430 427 430 430 432 430 432 432 432 430 430 427 425 427 430 427 427 430 430 432 432 432 432 430 430 430 427 427 425 425 422 422 422 425 425 427 422 427 427 430 430 430 430 427 427 432 425 427 420 422 418 420 425 425 420 425 427 427 427 427 427 425 425 430 427 427 427 425 427 425 427 430 430 427 427 427 430 430 432 432 430 430 432 432 432 432 432 427 425 425 427 430 425 425 425 420 420 425 425 422 422 425 425 425 430 435 432 435 435 435 435 438 438 435 432 427 432 432 435 430 435 427 432 432 432 432 432 432 432 430 408 420 422 422 418 420 420 420 420 430 425 413 413 418 404 395 395 393 0 0 0 0 0
    0 0 0 0 0 0 0 0 0 0 0 0 0 0 0 0 0 0 0 0 0 0 0 0 0 0 0 0 0 0 0 0 0 0 0 0 0 0 0 0 0 0 0 0 0 0 0 0 0 0 0 0 0 0 0 0 0 0 0 0 0 0 0 0 0 0 0 0 0 435 435 432 432 432 430 430 0 0 0 0 0 0 0 0 0 0 0 0 0 0 0 0 0 0 432 432 432 430 430 432 432 430 435 432 0 438 0 0 3345 2830 0 0 0 0 0 406 0 0 0 0 0 0 0 0 0 0 191 193 190 187 0 186 0 432 435 432 425 430 427 420 422 427 420 425 425 430 427 430 0 430 427 0 430 430 432 432 430 430 0 432 432 432 427 432 427 425 425 427 427 430 0 0 430 432 432 432 432 430 425 425 427 427 430 427 430 430 432 432 430 432 430 427 430 427 427 425 425 422 422 422 427 425 427 422 427 427 430 430 430 430 427 427 430 425 425 420 420 418 422 427 427 422 427 427 427 427 427 427 425 425 430 427 425 425 425 427 425 425 430 430 427 427 430 430 432 432 435 430 430 430 432 430 432 430 425 425 425 427 430 425 425 425 422 422 425 425 422 422 425 425 425 430 435 432 435 435 435 438 438 440 438 432 432 432 435 438 0 435 427 432 432 430 432 430 430 430 430 408 420 422 420 418 420 420 420 418 430 420 411 413 418 406 397 397 397 0 0 0 0 0
    0 0 0 0 0 0 0 0 0 0 0 0 0 0 0 0 0 0 0 0 0 0 0 0 0 0 0 0 0 0 0 0 0 0 0 0 0 0 0 0 0 0 0 0 0 0 0 0 0 0 0 0 0 0 0 0 0 0 0 0 0 0 0 0 0 0 0 0 0 432 435 432 432 432 430 430 0 0 0 0 0 0 0 0 0 425 0 0 0 0 0 0 0 212 0 0 0 427 430 432 432 430 435 0 0 0 0 4088 3504 2943 0 0 0 0 0 0 0 0 220 219 0 0 0 0 0 0 190 192 190 0 188 187 0 0 435 432 427 430 430 422 425 427 422 427 427 430 427 427 0 427 425 0 0 430 432 432 430 0 430 432 432 430 427 432 427 422 422 427 0 0 0 0 432 432 435 435 432 430 425 425 425 430 430 427 432 430 432 432 430 430 427 425 427 427 427 422 425 0 0 425 427 427 427 425 427 427 430 430 430 427 427 427 430 427 427 425 425 422 427 427 427 425 427 427 427 427 425 427 425 425 427 425 425 427 427 427 425 427 427 427 427 427 430 430 432 432 435 430 432 430 430 430 430 427 422 425 425 427 430 427 425 427 422 425 427 427 425 422 425 425 425 430 435 432 435 435 435 438 440 440 440 435 438 438 440 440 0 435 425 427 427 427 430 430 430 430 430 408 420 422 422 418 418 420 418 418 430 418 411 413 415 408 399 399 397 0 0 0 0 0
    0 0 0 0 0 0 0 0 0 0 0 0 0 0 0 0 0 0 0 0 0 0 0 0 0 0 0 0 0 0 0 0 0 0 0 0 0 0 0 0 0 0 0 0 0 0 0 0 0 0 0 0 0 0 0 0 0 0 0 0 0 0 0 0 0 0 0 0 0 435 435 430 430 430 0 0 0 0 0 0 0 0 0 0 0 425 0 0 0 0 0 0 0 0 0 290 0 0 427 432 432 430 430 0 0 0 0 6690 4329 3066 3199 3199 0 4088 3345 0 0 221 218 217 216 0 0 165 165 0 190 191 190 188 188 188 188 0 0 0 0 435 432 425 427 430 425 0 427 430 427 430 0 427 425 0 0 0 432 432 0 0 0 0 432 430 422 430 427 0 0 0 0 0 0 0 432 435 435 435 432 430 425 425 425 427 430 430 432 430 432 432 427 432 427 422 427 427 427 0 0 931 955 0 0 427 427 0 427 427 430 430 430 427 427 427 430 430 432 432 430 430 432 432 432 427 430 430 427 427 425 427 425 425 425 422 425 425 425 427 425 427 427 427 427 427 430 430 430 432 435 432 432 430 430 427 430 427 422 425 425 427 430 427 427 427 425 425 427 430 427 425 427 427 427 430 435 432 432 432 432 435 440 443 443 440 443 438 443 443 0 432 418 425 422 425 430 430 430 430 430 408 420 422 422 420 418 420 420 418 430 415 411 411 413 408 397 397 397 0 0 0 0 0
    0 0 0 0 0 0 0 0 0 0 0 0 0 0 0 0 0 0 0 0 0 0 0 0 0 0 0 0 0 0 0 0 0 0 0 0 0 0 0 0 0 0 0 0 0 0 0 0 0 0 0 0 0 0 0 0 0 0 0 0 0 0 0 0 0 0 0 0 0 0 435 0 0 0 0 318 319 319 0 0 0 333 334 325 0 0 0 0 0 0 0 0 0 0 0 292 281 0 0 430 0 0 420 0 0 0 0 0 5661 4088 5661 5256 6690 7359 4088 0 0 218 216 215 214 0 0 0 0 0 0 192 191 189 189 189 0 0 0 0 0 0 435 430 432 435 0 0 0 0 0 430 0 427 0 0 0 0 0 0 0 0 0 0 0 0 0 0 0 0 0 0 0 0 0 0 435 435 438 435 435 430 425 427 425 430 432 430 432 432 432 432 425 432 425 420 427 427 0 0 0 0 0 0 0 0 427 425 427 427 430 430 427 425 425 425 430 430 432 432 430 430 435 432 435 432 432 430 430 427 427 427 425 425 422 420 422 420 425 427 422 427 427 427 430 430 432 432 432 435 438 432 435 432 430 430 430 430 422 422 425 427 430 427 425 427 425 427 427 430 427 427 430 430 427 430 435 432 430 430 425 430 438 446 443 440 0 0 446 446 440 435 418 427 422 427 432 432 432 432 432 411 422 425 422 420 418 420 420 418 430 413 408 408 408 406 395 395 395 0 0 0 0 0
    0 0 0 0 0 0 0 0 0 0 0 0 0 0 0 0 0 0 0 0 0 0 0 0 0 0 0 0 0 0 0 0 0 0 0 0 0 0 0 0 0 0 0 0 0 0 0 0 0 0 0 0 0 0 0 0 0 0 0 0 0 0 0 0 0 0 0 0 0 0 0 0 317 315 319 327 331 325 334 0 336 336 334 330 327 0 0 333 327 319 0 0 0 0 296 293 285 278 0 0 0 0 0 0 0 0 0 0 0 3504 4088 3345 0 0 0 0 0 218 215 0 0 0 0 0 0 0 0 194 193 191 190 189 188 0 0 184 182 0 0 0 0 0 0 0 0 0 0 0 0 0 0 0 0 0 0 0 0 0 0 0 0 0 0 0 0 0 0 190 0 0 0 0 0 0 0 440 438 432 430 432 427 432 435 430 432 432 430 430 420 427 422 413 422 427 427 427 0 0 0 0 0 0 427 425 427 427 427 427 425 418 418 418 425 425 427 430 427 427 432 432 435 432 430 430 430 427 425 427 425 422 420 418 420 418 422 422 420 422 422 425 425 427 0 430 427 432 438 432 432 430 430 427 0 0 422 422 422 425 430 427 425 427 425 427 430 430 427 430 430 430 427 432 435 432 430 430 422 425 430 446 443 440 430 432 440 443 435 427 413 425 420 425 432 432 432 432 432 411 425 425 425 422 420 420 420 418 430 411 406 406 408 404 395 393 393 0 0 0 0 0
    0 0 0 0 0 0 0 0 0 0 0 0 0 0 0 0 0 0 0 0 0 0 0 0 0 0 0 0 0 0 0 0 0 0 0 0 0 0 0 0 0 0 0 0 0 0 0 0 0 0 0 0 0 0 0 0 0 0 0 0 0 0 0 0 0 0 0 0 0 331 333 330 328 325 330 334 333 333 336 337 337 336 334 331 330 333 336 333 328 324 318 319 315 305 309 296 292 0 0 0 0 350 342 0 0 0 0 0 0 0 3504 0 0 0 0 0 0 0 0 0 0 0 0 0 0 0 0 194 193 192 190 0 187 185 0 0 0 0 0 0 0 0 0 0 0 0 0 0 0 0 0 0 0 0 0 0 0 0 0 0 0 0 0 0 0 0 0 192 0 0 0 0 0 0 0 0 0 0 0 432 427 438 438 430 435 432 430 427 418 427 420 411 422 427 430 430 0 0 0 0 0 0 427 425 425 425 422 422 418 408 408 411 420 420 427 430 427 427 435 432 432 432 427 427 430 425 422 425 422 420 415 413 420 415 420 422 418 418 418 422 422 422 0 0 0 0 0 0 0 430 430 430 0 0 422 422 422 425 430 427 425 427 427 430 430 432 430 432 432 432 430 432 435 432 427 427 422 427 427 443 0 0 411 0 0 443 0 438 422 430 422 430 435 432 432 432 432 411 425 425 422 420 418 420 418 418 427 411 406 406 406 404 393 391 393 0 0 0 0 0
    0 0 0 0 0 0 0 0 0 0 0 0 0 0 0 0 0 0 0 0 0 0 0 0 0 0 0 0 0 0 0 0 0 0 0 0 0 0 0 0 0 0 0 0 0 0 0 0 0 0 0 0 0 0 0 0 0 0 0 0 0 0 0 0 0 0 0 0 0 333 334 333 333 331 333 334 333 333 334 334 334 334 333 331 330 333 333 330 328 325 322 322 321 321 322 322 0 0 334 336 339 339 337 336 336 0 0 0 0 0 0 0 0 0 0 0 334 0 0 0 0 0 0 0 0 0 0 0 0 0 0 0 0 0 0 336 334 334 0 0 339 337 0 0 0 0 0 0 0 0 0 0 0 0 0 0 0 0 0 0 0 0 0 0 0 0 0 0 0 0 0 0 0 0 0 0 0 0 0 0 425 0 440 432 440 432 427 427 413 0 415 0 0 0 0 435 432 0 0 0 0 0 427 422 422 422 418 415 406 402 402 404 418 418 427 432 427 430 440 435 438 438 432 430 438 430 425 425 425 422 413 411 420 413 418 420 415 415 415 418 418 0 0 0 0 0 0 0 0 432 432 0 0 0 427 425 425 427 430 427 425 427 427 430 430 435 432 435 435 432 430 435 435 0 427 422 415 427 427 0 0 0 0 0 0 0 0 0 0 0 427 443 440 432 435 435 432 413 422 425 420 418 415 418 418 415 425 406 402 402 404 402 389 387 389 0 0 0 0 0
    0 0 0 0 0 0 0 0 0 0 0 0 0 0 0 0 0 0 0 0 0 0 0 0 0 0 0 0 0 0 0 0 0 0 0 0 0 0 0 0 0 0 0 0 0 0 0 0 0 0 0 0 0 0 0 0 0 0 0 0 0 0 0 0 0 0 0 0 0 336 336 336 334 333 333 334 333 333 334 333 333 333 333 331 331 333 334 331 331 328 327 325 327 328 330 327 322 333 334 336 337 337 336 334 336 339 336 336 340 337 0 0 0 0 0 0 334 0 0 0 0 0 0 0 0 171 170 0 328 330 0 0 0 333 334 336 334 334 334 337 337 336 331 334 0 0 0 0 0 0 0 0 0 0 0 0 0 0 0 0 0 0 0 0 0 0 0 0 0 0 0 0 0 0 0 0 0 0 336 336 0 0 0 0 0 0 0 0 0 339 336 336 336 333 324 0 0 0 897 0 0 0 0 0 0 0 406 397 379 0 0 0 0 0 0 0 0 0 454 440 443 440 438 0 448 430 422 420 422 415 406 406 415 411 415 415 415 418 415 420 418 0 0 0 0 0 0 0 0 0 0 0 0 0 430 427 430 430 432 427 425 430 430 432 432 438 435 440 438 435 0 0 0 0 0 0 0 0 0 0 0 0 0 0 0 0 0 0 0 0 448 454 443 432 432 435 430 411 422 422 420 415 415 418 418 415 425 406 402 404 404 402 389 385 385 0 0 0 0 0
    0 0 0 0 0 0 0 0 0 0 0 0 0 0 0 0 0 0 0 0 0 0 0 0 0 0 0 0 0 0 0 0 0 0 0 0 0 0 0 0 0 0 0 0 0 0 0 0 0 0 0 0 0 0 0 0 0 0 0 0 0 0 0 0 0 0 0 0 0 337 0 337 337 334 334 336 336 334 336 334 334 333 333 333 331 333 334 331 331 330 330 327 330 331 330 327 325 333 334 336 337 336 336 336 337 340 337 339 340 339 0 0 0 0 0 0 0 0 333 334 334 331 327 0 0 0 0 330 328 331 331 331 331 333 334 336 334 334 334 334 336 336 331 333 328 333 333 331 333 334 334 334 0 0 0 0 0 1187 1206 0 0 0 0 0 0 0 0 0 0 0 0 0 0 0 0 0 0 336 336 336 336 339 336 0 333 0 337 337 336 336 336 336 336 334 331 328 0 0 0 0 0 0 0 0 0 0 0 0 347 343 343 342 337 336 337 334 0 330 0 0 0 0 0 0 0 0 0 0 0 0 0 0 0 406 411 408 411 415 418 420 418 0 0 0 0 0 0 0 0 0 0 0 0 0 435 430 430 430 430 422 415 430 430 435 435 440 440 448 446 0 0 0 791 758 735 0 0 0 0 0 0 0 0 0 0 0 0 0 0 0 451 462 446 432 430 432 427 408 420 422 418 415 415 418 418 415 422 404 402 404 404 402 387 381 379 0 0 0 0 0
    0 0 0 0 0 0 0 0 0 0 0 0 0 0 0 0 0 0 0 0 0 0 0 0 0 0 0 0 0 0 0 0 0 0 0 0 0 0 0 0 0 0 0 0 0 0 0 0 0 0 0 0 0 0 0 0 0 0 0 0 0 0 0 0 0 0 0 0 0 0 0 337 339 337 336 339 337 336 337 336 336 334 334 333 333 334 334 331 331 331 331 328 333 333 331 330 328 334 334 337 339 337 337 337 339 342 339 339 340 339 339 0 0 0 336 334 334 333 334 334 334 331 328 331 331 331 333 331 330 331 333 333 331 334 334 336 334 336 334 336 336 337 334 334 330 334 333 333 334 334 334 334 333 0 0 0 0 0 0 0 337 0 0 0 0 0 0 0 0 0 0 0 0 0 0 0 334 333 333 334 336 337 336 334 333 336 337 337 336 336 336 336 336 336 333 331 336 337 0 0 0 0 0 0 339 336 337 337 340 339 339 337 336 334 336 331 333 331 325 327 328 0 0 0 0 0 0 0 0 337 0 337 336 0 0 0 406 411 415 418 0 0 0 318 321 324 322 324 324 0 0 0 0 0 0 0 0 0 0 0 0 0 0 435 435 443 446 459 0 0 0 0 799 758 735 0 0 0 0 0 0 0 0 0 0 0 0 0 0 465 451 468 446 430 0 0 422 406 418 422 418 411 415 418 415 413 420 402 399 399 0 397 379 375 375 0 0 0 0 0
    0 0 0 0 0 0 0 0 0 0 0 0 0 0 0 0 0 0 0 0 0 0 0 0 0 0 0 0 0 0 0 0 0 0 0 0 0 0 0 0 0 0 0 0 0 0 0 0 0 0 0 0 0 0 0 0 0 0 0 0 0 0 0 0 0 0 0 0 0 339 339 337 337 337 336 339 339 337 337 336 336 336 334 334 333 334 334 331 333 333 331 330 333 334 333 331 331 336 336 337 339 339 337 339 340 342 340 339 340 339 339 336 337 337 336 334 334 333 334 334 334 333 331 333 333 331 333 331 330 331 333 333 333 334 334 336 334 336 336 336 336 336 333 334 331 334 333 333 334 336 334 334 333 336 334 339 337 337 337 337 336 339 339 0 0 0 0 0 0 0 0 0 0 0 330 331 331 330 330 331 334 336 334 333 331 333 336 336 334 334 334 336 334 336 334 333 336 337 337 0 0 0 0 339 337 334 336 336 337 337 337 336 336 334 337 333 333 333 328 328 328 331 334 0 336 334 334 334 336 336 336 336 334 334 0 333 0 328 0 325 322 321 322 325 328 330 327 328 330 333 337 337 0 0 0 336 337 337 334 336 336 336 0 0 0 0 0 471 0 0 0 0 774 743 735 0 0 0 0 0 0 0 340 0 0 0 0 0 0 465 0 0 0 0 347 343 0 0 413 418 413 408 415 418 413 411 418 399 393 0 0 0 371 371 371 0 0 0 0 0
    0 0 0 0 0 0 0 0 0 0 0 0 0 0 0 0 0 0 0 0 0 0 0 0 0 0 0 0 0 0 0 0 0 0 0 0 0 0 0 0 0 0 0 0 0 0 0 0 0 0 0 0 0 0 0 0 0 0 0 0 0 0 0 0 0 0 0 0 0 337 339 337 337 337 336 340 339 337 337 336 336 336 334 334 333 334 334 331 333 333 333 331 334 334 333 331 333 336 336 337 339 337 337 337 339 340 340 339 340 339 340 337 337 336 336 333 334 333 334 333 334 333 331 333 333 331 333 331 328 331 333 331 333 334 334 336 334 337 334 334 336 337 334 333 331 334 334 334 336 336 336 336 336 337 336 339 337 337 336 336 336 337 337 337 337 336 336 336 336 334 333 330 327 328 330 330 331 330 331 331 333 334 333 333 330 333 336 334 333 334 334 334 334 334 334 333 336 337 337 336 336 0 337 337 336 331 334 334 336 336 336 336 336 334 337 334 334 333 330 330 330 330 333 333 334 333 333 333 334 334 334 334 333 333 333 331 328 328 325 327 327 324 327 328 330 331 328 331 331 333 334 336 333 0 334 334 336 336 336 337 337 339 331 337 336 334 0 0 0 0 0 0 0 0 0 0 0 0 0 0 0 342 339 0 0 0 0 0 0 0 0 0 0 339 342 340 336 336 336 0 406 402 411 418 413 408 415 397 0 0 514 0 350 364 366 0 0 0 0 0
    0 0 0 0 0 0 0 0 0 0 0 0 0 0 0 0 0 0 0 0 0 0 0 0 0 0 0 0 0 0 0 0 0 0 0 0 0 0 0 0 0 0 0 0 0 0 0 0 0 0 0 0 0 0 0 0 0 0 0 0 0 0 0 0 0 0 0 0 0 337 337 337 337 336 336 339 337 337 337 336 336 336 334 334 334 334 334 331 333 333 333 333 334 334 334 331 333 334 334 336 336 336 336 336 339 339 339 339 340 340 340 337 337 336 334 333 334 333 334 333 334 333 333 333 333 331 333 331 330 331 333 333 333 334 336 336 334 337 336 336 337 337 334 334 333 334 336 336 336 336 336 337 337 339 337 340 339 339 337 336 336 336 336 337 336 336 336 334 336 334 333 331 330 330 331 331 333 333 334 334 334 336 334 333 331 333 334 333 331 333 333 334 333 334 334 333 336 336 336 334 334 337 336 336 334 330 334 334 336 336 336 336 336 334 337 334 334 334 331 331 331 331 333 331 333 331 331 331 333 333 331 331 331 331 331 330 327 328 325 327 327 325 328 330 330 333 330 333 333 331 334 334 331 331 333 333 334 334 334 337 337 339 333 336 334 331 327 327 327 325 0 0 0 0 0 0 0 0 0 0 0 339 336 333 0 0 333 0 0 0 339 342 340 339 340 339 334 334 334 333 336 336 0 418 411 402 0 0 0 0 0 0 337 0 345 0 0 0 0 0
    0 0 0 0 0 0 0 0 0 0 0 0 0 0 0 0 0 0 0 0 0 0 0 0 0 0 0 0 0 0 0 0 0 0 0 0 0 0 0 0 0 0 0 0 0 0 0 0 0 0 0 0 0 0 0 0 0 0 0 0 0 0 0 0 0 0 0 0 0 337 337 336 336 336 336 337 337 336 337 336 336 336 334 334 334 334 336 331 333 333 334 333 334 334 334 331 333 334 334 336 336 336 336 336 337 339 339 337 339 339 340 337 337 336 334 333 334 331 333 333 334 333 333 333 333 331 333 331 330 333 333 333 333 334 336 336 336 337 336 337 337 337 336 334 334 337 337 339 337 336 336 337 339 339 339 339 337 337 337 337 336 334 336 336 336 334 334 334 334 333 333 333 331 333 333 333 334 334 336 336 336 336 334 333 331 333 333 330 330 331 331 333 333 333 333 333 336 336 336 334 334 337 336 334 333 328 333 333 334 336 334 334 336 334 337 333 333 334 333 333 333 333 334 331 333 331 333 330 333 333 331 331 331 333 333 330 327 328 325 327 328 325 328 330 331 333 330 333 333 331 333 333 331 331 333 333 333 333 334 336 336 337 331 333 331 327 322 322 322 322 328 333 330 330 336 0 337 0 339 339 339 339 336 334 0 334 334 0 0 336 339 339 339 337 339 336 333 333 333 333 334 331 333 336 0 0 0 0 0 0 0 0 336 340 343 0 0 0 0 0
    0 0 0 0 0 0 0 0 0 0 0 0 0 0 0 0 0 0 0 0 0 0 0 0 0 0 0 0 0 0 0 0 0 0 0 0 0 0 0 0 0 0 0 0 0 0 0 0 0 0 0 0 0 0 0 0 0 0 0 0 0 0 0 0 0 0 0 0 0 337 337 337 337 336 336 337 337 336 337 336 336 336 336 336 336 334 336 333 334 334 334 334 334 334 334 331 333 334 333 334 334 334 334 336 337 339 339 337 339 339 339 337 337 336 334 333 334 331 333 333 334 331 333 333 334 333 334 333 331 333 334 333 334 334 336 336 336 337 336 337 339 337 336 334 333 336 337 337 337 336 336 336 337 339 337 337 336 337 336 336 334 334 334 334 334 334 334 333 334 334 334 333 333 333 333 334 336 334 336 336 336 336 334 333 331 333 333 330 330 331 331 333 333 334 333 333 336 337 336 334 334 336 334 334 331 327 333 333 333 334 334 334 334 334 336 333 333 334 333 333 333 333 334 331 333 331 331 330 333 333 331 331 331 333 333 331 328 330 327 328 330 327 330 331 331 333 330 333 333 331 333 333 331 331 333 333 333 333 334 336 334 336 330 331 331 325 321 321 321 321 327 331 328 330 336 336 0 0 0 0 339 0 0 333 334 0 0 0 334 334 334 336 336 336 336 331 331 331 331 331 333 331 331 333 336 337 337 0 0 0 0 0 336 337 337 0 0 0 0 0
    0 0 0 0 0 0 0 0 0 0 0 0 0 0 0 0 0 0 0 0 0 0 0 0 0 0 0 0 0 0 0 0 0 0 0 0 0 0 0 0 0 0 0 0 0 0 0 0 0 0 0 0 0 0 0 0 0 0 0 0 0 0 0 0 0 0 0 0 0 337 337 336 337 336 336 337 337 336 337 336 336 336 336 336 336 336 337 333 334 334 336 334 334 334 333 330 333 333 333 334 334 334 334 336 337 337 339 337 339 337 339 337 337 336 336 333 334 331 334 333 334 331 333 333 334 333 334 333 333 334 334 334 334 336 336 336 336 337 336 337 339 337 336 334 333 336 336 337 336 334 334 336 337 339 337 339 337 337 336 334 333 334 334 334 333 333 333 333 334 334 334 333 333 333 333 334 334 334 334 334 334 334 334 333 331 333 333 330 330 331 331 333 333 333 333 333 336 336 336 334 333 334 333 333 330 327 331 331 333 334 334 334 334 334 336 333 334 334 333 333 333 333 334 333 334 331 333 331 333 333 331 331 331 331 333 331 328 330 328 330 330 327 330 331 331 331 330 333 333 331 334 334 331 331 334 334 334 334 336 336 336 337 333 331 333 327 321 321 322 322 327 331 331 333 336 336 337 339 339 337 337 337 333 331 333 333 331 330 331 331 330 331 333 333 331 327 330 330 331 331 333 331 333 333 336 337 336 336 334 330 334 334 333 333 336 0 0 0 0 0
    0 0 0 0 0 0 0 0 0 0 0 0 0 0 0 0 0 0 0 0 0 0 0 0 0 0 0 0 0 0 0 0 0 0 0 0 0 0 0 0 0 0 0 0 0 0 0 0 0 0 0 0 0 0 0 0 0 0 0 0 0 0 0 0 0 0 0 0 0 336 336 336 336 334 336 0 339 337 337 337 337 336 336 336 336 336 337 333 334 334 334 334 334 334 333 330 334 333 333 334 334 333 334 336 337 337 337 337 339 337 339 337 337 336 334 333 334 331 334 333 334 331 334 334 334 334 334 334 333 334 336 334 334 336 336 336 336 337 336 337 339 337 336 336 334 336 336 337 336 336 336 337 337 339 337 339 337 336 334 333 331 331 331 331 331 330 331 331 333 334 334 333 334 333 333 334 334 334 334 334 334 334 334 334 333 334 334 330 330 331 333 333 331 333 333 333 336 336 336 334 333 334 333 333 328 327 331 331 331 333 333 334 333 334 336 333 334 334 333 333 334 333 336 334 336 333 333 331 333 333 331 331 331 331 333 330 328 330 328 330 330 327 330 330 331 331 330 333 333 331 334 334 331 333 334 334 334 334 334 336 334 336 334 334 334 331 324 322 324 324 327 331 330 333 334 334 336 337 337 336 336 334 331 328 328 330 328 325 327 325 325 327 330 330 327 322 327 330 330 331 333 331 331 333 336 336 334 334 334 330 333 333 331 327 331 0 0 0 0 0
    0 0 0 0 0 0 0 0 0 0 0 0 0 0 0 0 0 0 0 0 0 0 0 0 0 0 0 0 0 0 0 0 0 0 0 0 0 0 0 0 0 0 0 0 0 0 0 0 0 0 0 0 0 0 0 0 0 0 0 0 0 0 0 0 0 0 0 0 0 334 334 336 336 334 336 337 337 337 337 337 337 337 336 337 336 336 337 331 334 334 334 336 334 334 334 331 334 333 333 333 333 333 333 334 336 336 336 336 337 337 339 337 336 334 334 333 334 330 333 331 334 333 334 334 334 334 334 334 334 336 336 334 334 336 336 336 336 337 336 337 339 339 337 336 336 336 337 339 337 336 0 339 339 0 337 337 336 336 334 331 331 331 330 331 330 330 330 331 333 333 334 334 334 334 334 334 333 333 333 333 333 333 333 333 331 334 334 328 330 331 331 333 331 333 333 333 336 336 336 334 333 334 331 331 328 327 331 331 331 333 333 334 333 334 336 333 334 334 333 334 334 334 337 336 337 333 334 331 333 333 331 331 333 331 333 330 328 330 328 328 330 325 330 330 331 331 330 333 333 331 334 334 333 333 334 334 333 334 334 336 334 336 336 334 336 333 327 327 325 325 328 331 328 330 333 334 336 337 337 336 336 336 333 331 330 328 328 327 327 325 325 327 328 331 328 324 328 330 331 331 333 331 331 333 336 336 334 334 333 331 336 334 334 328 331 0 0 0 0 0
    0 0 0 0 0 0 0 0 0 0 0 0 0 0 0 0 0 0 0 0 0 0 0 0 0 0 0 0 0 0 0 0 0 0 0 0 0 0 0 0 0 0 0 0 0 0 0 0 0 0 0 0 0 0 0 0 0 0 0 0 0 0 0 0 0 0 0 0 0 334 334 334 336 334 336 336 336 336 337 336 337 336 336 336 336 336 337 331 336 334 334 336 334 336 334 333 334 333 331 331 331 331 331 333 334 334 334 334 336 336 337 336 334 334 333 333 334 330 333 331 334 333 333 334 334 333 334 334 334 336 336 334 336 336 337 337 337 337 336 337 339 339 337 336 336 337 337 340 337 337 0 339 0 0 0 337 337 337 336 333 331 331 330 330 330 330 330 331 333 334 334 334 336 336 334 334 333 334 333 333 333 333 331 333 331 334 334 328 330 330 331 333 331 333 333 333 336 336 336 334 333 333 330 330 328 327 331 331 331 334 333 334 333 334 336 333 334 334 333 334 334 334 337 336 337 333 334 331 333 333 333 333 333 333 334 331 330 331 330 330 330 325 330 331 331 331 330 333 333 333 334 334 331 331 334 334 333 333 334 334 333 336 336 334 336 331 325 325 324 325 327 328 327 328 331 333 334 337 336 336 336 336 333 333 331 330 328 328 330 327 325 328 330 331 330 325 330 330 331 333 333 331 331 333 336 336 334 333 333 333 336 336 336 330 331 0 0 0 0 0
    0 0 0 0 0 0 0 0 0 0 0 0 0 0 0 0 0 0 0 0 0 0 0 0 0 0 0 0 0 0 0 0 0 0 0 0 0 0 0 0 0 0 0 0 0 0 0 0 0 0 0 0 0 0 0 0 0 0 0 0 0 0 0 0 0 0 0 0 0 334 334 334 334 333 334 336 336 336 337 336 336 336 336 337 336 336 337 333 336 334 336 336 334 334 334 331 333 331 331 331 331 330 330 333 333 333 333 334 334 336 336 336 334 333 333 333 333 328 333 331 333 333 333 334 334 333 334 333 336 336 336 336 336 336 337 337 337 337 336 337 339 339 337 336 336 337 337 340 336 337 340 340 342 342 0 339 0 0 337 334 333 333 331 330 331 331 330 331 333 334 336 336 336 336 334 336 334 334 334 333 334 334 333 334 333 336 336 328 330 331 331 333 331 331 333 333 336 336 336 333 331 333 330 330 327 327 331 330 331 334 334 334 333 334 336 333 334 334 333 334 334 334 336 336 337 333 334 333 334 334 333 334 334 333 336 333 331 331 330 330 330 325 330 331 333 331 330 333 333 333 334 334 331 331 334 333 333 333 333 334 333 334 336 334 334 331 325 325 322 324 325 327 324 325 328 331 333 337 334 334 334 336 333 333 331 330 328 330 330 327 325 328 330 331 330 327 330 330 333 333 333 331 333 333 334 334 334 333 333 333 336 334 336 330 330 0 0 0 0 0
    0 0 0 0 0 0 0 0 0 0 0 0 0 0 0 0 0 0 0 0 0 0 0 0 0 0 0 0 0 0 0 0 0 0 0 0 0 0 0 0 0 0 0 0 0 0 0 0 0 0 0 0 0 0 0 0 0 0 0 0 0 0 0 0 0 0 0 0 0 334 334 334 334 333 334 336 336 336 337 337 337 336 336 337 337 337 337 331 334 333 334 336 333 334 333 330 333 331 331 331 331 331 331 333 334 334 333 334 334 334 336 334 334 333 333 333 331 328 331 330 333 333 333 334 333 333 334 333 336 337 337 336 337 337 339 339 339 339 337 337 339 339 339 337 336 337 336 337 334 336 0 339 339 340 339 337 0 0 0 334 333 334 331 331 333 333 331 334 334 334 336 336 337 336 334 334 333 334 334 333 334 334 333 336 334 337 336 330 331 331 331 333 331 333 333 333 336 336 336 334 331 333 328 330 327 327 331 330 331 333 334 334 333 334 336 333 334 334 333 334 336 334 336 336 337 333 334 333 334 334 334 336 336 334 337 334 333 334 333 331 331 327 331 331 333 331 330 333 333 333 334 334 331 331 334 333 333 333 333 333 333 334 336 336 336 334 330 330 325 327 327 328 324 327 327 330 333 336 334 334 336 337 334 334 0 333 330 330 330 325 324 327 328 330 327 325 330 330 331 333 333 331 333 333 336 334 334 333 333 333 336 334 336 330 328 0 0 0 0 0
    0 0 0 0 0 0 0 0 0 0 0 0 0 0 0 0 0 0 0 0 0 0 0 0 0 0 0 0 0 0 0 0 0 0 0 0 0 0 0 0 0 0 0 0 0 0 0 0 0 0 0 0 0 0 0 0 0 0 0 0 0 0 0 0 0 0 0 0 0 334 334 336 336 334 334 0 336 336 337 337 337 336 336 337 336 337 337 331 334 334 334 336 333 333 331 330 333 331 331 331 331 331 331 333 334 334 333 336 336 334 334 334 333 334 333 334 331 330 333 331 333 333 333 334 333 333 334 333 336 337 337 337 337 0 339 339 339 337 337 337 339 339 337 337 336 337 336 336 334 334 336 337 336 339 336 336 336 0 0 334 333 334 331 331 333 333 333 334 334 334 336 334 336 334 331 333 330 331 331 331 333 333 333 336 336 339 337 331 333 331 333 333 331 333 333 333 336 336 337 334 331 331 328 330 327 328 331 330 331 333 333 334 333 336 336 334 336 334 334 334 334 334 336 336 336 330 333 331 334 334 334 336 336 334 337 336 334 334 333 333 333 327 331 333 333 331 330 333 333 333 334 334 331 331 334 333 333 333 333 333 333 334 336 336 337 336 333 333 328 330 330 330 327 330 330 331 333 336 334 336 337 339 334 0 0 334 331 331 331 325 324 327 327 328 324 325 330 330 331 333 333 333 333 334 336 334 334 333 333 333 334 333 334 328 327 0 0 0 0 0
    0 0 0 0 0 0 0 0 0 0 0 0 0 0 0 0 0 0 0 0 0 0 0 0 0 0 0 0 0 0 0 0 0 0 0 0 0 0 0 0 0 0 0 0 0 0 0 0 0 0 0 0 0 0 0 0 0 0 0 0 0 0 0 0 0 0 0 0 0 334 334 336 336 334 334 337 336 337 337 337 337 337 336 337 337 337 337 333 334 333 334 336 331 331 330 328 331 331 330 330 330 331 331 333 334 334 333 336 336 336 334 334 333 334 333 334 333 330 333 333 333 334 333 334 333 334 334 333 336 337 337 336 336 337 337 339 339 337 336 336 339 337 336 336 334 336 334 333 331 333 333 336 334 337 336 336 337 0 0 334 333 334 333 331 333 333 334 336 334 334 336 336 337 334 330 331 328 330 330 330 331 333 333 336 337 340 339 333 333 333 333 334 331 333 333 333 336 336 336 334 331 333 330 331 327 328 331 331 333 334 334 334 333 336 336 334 337 336 334 333 334 334 336 334 333 328 331 330 333 333 333 334 334 334 337 336 334 334 333 333 333 327 333 333 333 331 331 333 333 333 334 333 331 331 334 333 333 333 333 333 333 334 336 336 337 336 334 334 331 331 331 331 328 330 330 333 333 336 334 334 336 337 334 0 0 333 330 331 331 325 324 327 327 328 324 327 330 330 331 333 333 333 333 334 336 334 334 333 331 331 333 330 334 324 322 0 0 0 0 0
    0 0 0 0 0 0 0 0 0 0 0 0 0 0 0 0 0 0 0 0 0 0 0 0 0 0 0 0 0 0 0 0 0 0 0 0 0 0 0 0 0 0 0 0 0 0 0 0 0 0 0 0 0 0 0 0 0 0 0 0 0 0 0 0 0 0 0 0 0 334 334 336 336 336 336 339 337 339 339 339 339 339 336 337 337 337 337 331 334 333 333 336 330 331 330 328 331 331 331 331 331 333 331 334 333 336 331 337 336 336 334 334 333 334 333 334 331 331 333 333 333 336 333 334 334 334 334 333 334 336 336 334 336 336 337 337 337 337 336 336 337 337 336 334 333 336 334 333 330 331 333 0 336 339 336 337 339 0 0 0 333 334 331 331 333 334 336 337 336 336 336 336 337 336 330 331 328 330 330 330 331 333 333 337 337 340 339 334 334 333 333 334 331 333 333 333 336 334 336 334 331 333 330 331 328 330 333 331 333 334 334 334 334 337 337 336 337 336 334 333 336 334 336 334 331 328 331 331 334 333 334 334 336 334 336 336 333 333 333 331 331 327 331 333 333 330 331 333 333 333 334 333 331 331 334 333 331 333 331 333 333 334 336 336 336 336 334 336 333 333 333 331 330 330 330 331 333 334 333 334 336 337 336 0 0 334 331 333 333 330 328 330 330 331 325 328 331 331 333 333 333 333 333 334 336 333 333 331 330 331 333 330 333 322 322 0 0 0 0 0
    0 0 0 0 0 0 0 0 0 0 0 0 0 0 0 0 0 0 0 0 0 0 0 0 0 0 0 0 0 0 0 0 0 0 0 0 0 0 0 0 0 0 0 0 0 0 0 0 0 0 0 0 0 0 0 0 0 0 0 0 0 0 0 0 0 0 0 0 0 334 334 336 336 336 337 340 337 339 340 339 339 339 337 339 337 337 336 331 333 331 333 336 330 331 331 330 331 333 331 333 331 334 333 334 334 337 333 337 336 336 334 334 333 334 333 334 331 331 331 333 333 334 333 334 333 333 333 330 333 334 334 333 334 336 336 337 337 336 336 336 337 337 336 334 334 336 334 334 331 333 334 337 337 342 337 337 339 0 0 0 0 336 333 333 334 336 337 337 336 334 336 336 337 334 330 330 328 330 331 331 333 334 334 337 339 340 339 334 334 333 333 334 333 333 334 333 336 336 337 336 334 334 331 333 328 331 334 333 333 334 334 334 334 337 336 336 337 336 334 333 336 336 337 336 331 328 331 333 336 334 336 336 337 336 337 337 334 333 333 331 331 325 331 331 333 330 330 333 333 333 334 333 331 330 333 333 330 331 331 331 331 333 334 334 336 336 334 336 333 334 333 333 330 331 330 333 333 336 334 334 336 339 337 0 336 336 334 334 334 331 330 331 333 333 328 331 333 333 333 334 334 333 334 334 334 333 333 331 330 331 333 330 333 324 322 0 0 0 0 0
    0 0 0 0 0 0 0 0 0 0 0 0 0 0 0 0 0 0 0 0 0 0 0 0 0 0 0 0 0 0 0 0 0 0 0 0 0 0 0 0 0 0 0 0 0 0 0 0 0 0 0 0 0 0 0 0 0 0 0 0 0 0 0 0 0 0 0 0 0 334 336 336 336 337 337 339 337 339 340 339 339 339 337 339 337 337 337 333 333 333 333 336 330 331 331 330 331 333 333 334 333 336 334 336 336 339 334 337 336 336 334 334 333 334 333 334 331 331 331 333 333 334 331 333 331 331 331 328 333 334 333 333 334 336 336 337 339 337 336 336 339 337 336 336 334 337 336 336 333 334 337 342 342 345 340 339 343 0 0 0 0 0 334 334 336 336 337 337 336 333 334 334 336 334 328 328 328 328 330 331 333 334 334 337 339 340 339 336 334 334 333 334 334 334 334 333 336 336 337 337 334 334 331 334 328 333 334 333 334 334 334 336 334 337 337 336 337 334 333 333 336 336 0 334 330 328 331 334 337 336 0 336 337 0 337 337 334 333 333 331 331 327 333 331 333 330 330 333 333 333 334 333 331 331 333 333 331 333 331 331 331 333 334 334 334 333 333 333 331 333 333 333 331 331 331 333 334 334 334 334 336 337 0 337 336 336 334 336 336 333 331 333 333 333 331 333 334 333 333 334 334 334 334 334 334 333 333 331 331 331 333 328 331 324 321 0 0 0 0 0
    0 0 0 0 0 0 0 0 0 0 0 0 0 0 0 0 0 0 0 0 0 0 0 0 0 0 0 0 0 0 0 0 0 0 0 0 0 0 0 0 0 0 0 0 0 0 0 0 0 0 0 0 0 0 0 0 0 0 0 0 0 0 0 0 0 0 0 0 0 334 334 334 334 334 334 337 336 339 340 340 340 340 339 339 339 337 337 333 333 331 333 334 330 330 331 328 330 333 334 334 334 336 336 337 337 340 336 337 336 336 334 334 333 334 333 334 331 333 331 331 331 334 330 331 328 330 330 328 331 333 333 333 334 336 337 337 339 337 337 337 337 337 336 334 334 336 334 334 331 333 337 343 345 348 345 343 345 345 0 0 0 0 336 334 337 337 339 339 336 334 334 334 336 333 328 328 328 327 328 331 331 334 334 337 339 340 340 336 336 336 334 336 334 334 334 334 337 336 336 337 334 334 331 334 328 333 334 333 334 334 334 334 334 339 337 336 337 334 331 331 333 334 333 331 328 328 331 0 0 336 0 336 337 0 336 336 333 333 333 331 331 328 333 333 333 331 330 333 333 333 334 333 331 331 334 334 331 333 331 331 331 331 333 333 333 333 331 333 331 333 333 333 331 333 331 333 334 333 333 333 334 337 336 336 336 336 336 339 339 334 333 334 334 334 331 333 334 333 334 334 334 334 334 334 334 333 333 333 333 331 331 328 330 325 321 0 0 0 0 0
    0 0 0 0 0 0 0 0 0 0 0 0 0 0 0 0 0 0 0 0 0 0 0 0 0 0 0 0 0 0 0 0 0 0 0 0 0 0 0 0 0 0 0 0 0 0 0 0 0 0 0 0 0 0 0 0 0 0 0 0 0 0 0 0 0 0 0 0 0 334 333 333 333 333 333 334 334 337 339 340 339 339 339 339 339 339 337 331 331 330 331 334 327 328 330 327 331 333 334 336 334 337 336 337 339 340 337 337 336 336 336 336 334 334 333 334 331 333 331 331 330 333 330 331 328 330 328 328 331 333 333 331 334 336 337 337 339 337 337 337 337 337 336 334 334 334 333 333 333 334 336 342 343 348 345 343 345 342 342 0 339 337 336 336 337 336 339 339 337 336 334 334 336 333 330 328 328 327 330 333 333 334 334 339 340 342 340 337 337 337 336 337 336 336 334 334 337 336 334 336 334 333 331 334 327 333 334 333 334 334 334 334 334 339 337 336 337 334 333 331 331 333 331 330 328 330 331 0 0 336 337 336 336 0 336 334 333 333 333 331 331 330 333 333 333 331 330 333 333 333 336 334 333 333 334 336 333 334 331 331 331 331 331 331 333 333 331 334 333 334 334 334 333 333 331 333 334 331 331 331 333 336 334 334 334 334 336 337 337 334 331 333 333 334 331 333 334 334 334 334 334 334 334 336 336 334 333 333 333 331 330 325 327 325 321 0 0 0 0 0
    0 0 0 0 0 0 0 0 0 0 0 0 0 0 0 0 0 0 0 0 0 0 0 0 0 0 0 0 0 0 0 0 0 0 0 0 0 0 0 0 0 0 0 0 0 0 0 0 0 0 0 0 0 0 0 0 0 0 0 0 0 0 0 0 0 0 0 0 0 333 331 331 331 331 331 333 334 336 339 339 339 339 339 339 339 337 337 331 331 330 331 333 327 328 330 328 331 334 336 336 336 337 336 337 339 342 339 337 336 336 336 336 336 336 333 334 331 331 331 331 330 331 328 330 327 330 327 328 331 333 333 333 334 336 337 337 339 337 337 337 337 336 334 333 334 334 334 334 0 0 337 345 343 348 343 343 343 340 340 339 337 336 334 334 334 334 336 336 336 334 334 334 334 333 330 330 328 328 331 334 334 336 336 339 340 342 340 337 337 337 337 337 337 336 336 336 337 336 334 336 334 331 333 333 328 333 334 334 334 334 336 336 336 339 337 337 339 334 333 333 333 334 333 330 328 331 333 336 0 337 337 336 336 0 334 334 333 333 333 331 331 331 333 333 333 331 331 333 333 334 336 336 334 336 336 337 334 336 331 331 331 331 331 331 331 333 331 334 333 334 334 334 333 333 333 333 334 330 331 330 333 334 333 333 333 333 334 334 336 334 331 333 333 333 331 333 334 334 334 334 334 336 336 336 337 334 333 334 334 333 328 325 324 322 319 0 0 0 0 0
    0 0 0 0 0 0 0 0 0 0 0 0 0 0 0 0 0 0 0 0 0 0 0 0 0 0 0 0 0 0 0 0 0 0 0 0 0 0 0 0 0 0 0 0 0 0 0 0 0 0 0 0 0 0 0 0 0 0 0 0 0 0 0 0 0 0 0 0 0 331 330 330 330 330 330 330 333 334 337 339 339 339 339 339 339 337 337 331 331 330 331 333 327 328 331 328 333 334 336 336 336 336 336 337 339 340 339 336 0 0 0 337 337 336 333 334 333 333 330 331 328 330 325 328 327 328 327 328 333 333 333 333 334 336 337 337 339 337 337 337 337 336 334 333 334 334 333 0 0 0 0 342 342 345 342 340 342 340 340 339 336 334 334 333 333 331 333 331 331 330 331 331 333 333 328 330 330 330 333 334 334 334 334 339 339 342 340 337 337 339 337 339 337 337 337 337 337 334 333 334 334 331 333 333 328 334 336 336 336 336 336 336 336 339 337 336 337 334 333 333 333 334 333 331 328 331 333 336 337 337 337 334 336 333 334 333 331 331 333 331 330 331 333 333 333 331 331 334 334 336 336 337 337 337 339 339 336 336 331 331 330 330 330 328 330 330 330 333 331 334 334 334 334 333 334 334 334 330 331 331 333 333 333 333 333 333 336 334 336 336 333 333 333 334 333 334 334 336 334 336 336 336 336 337 339 336 336 340 340 336 330 327 321 319 318 0 0 0 0 0
    0 0 0 0 0 0 0 0 0 0 0 0 0 0 0 0 0 0 0 0 0 0 0 0 0 0 0 0 0 0 0 0 0 0 0 0 0 0 0 0 0 0 0 0 0 0 0 0 0 0 0 0 0 0 0 0 0 0 0 0 0 0 0 0 0 0 0 0 0 328 328 327 328 327 328 328 331 333 337 339 339 339 339 339 339 337 337 331 331 328 331 331 328 330 333 330 333 334 336 336 336 337 336 337 339 340 337 334 0 0 0 0 337 0 333 333 333 331 330 0 327 327 324 328 327 328 325 327 333 333 333 333 334 336 337 337 339 337 337 336 337 336 334 0 0 0 0 0 0 0 0 0 342 343 0 0 0 0 0 339 337 334 334 333 331 331 330 328 328 327 328 330 330 331 328 331 331 330 333 334 334 334 333 337 339 340 340 339 339 339 339 339 339 337 337 337 337 334 333 333 331 330 330 331 328 334 336 336 336 336 336 337 337 340 337 337 337 334 333 334 331 333 333 333 331 334 336 337 339 339 339 336 336 333 333 333 331 331 333 331 328 331 333 333 333 331 331 334 334 336 337 337 337 339 339 339 336 337 331 331 327 327 328 327 327 328 328 333 331 334 334 334 336 334 336 336 336 331 333 333 334 334 333 333 333 331 336 336 336 336 333 334 334 334 334 334 334 336 336 336 336 337 336 337 339 337 0 357 347 342 334 334 324 321 319 0 0 0 0 0
    0 0 0 0 0 0 0 0 0 0 0 0 0 0 0 0 0 0 0 0 0 0 0 0 0 0 0 0 0 0 0 0 0 0 0 0 0 0 0 0 0 0 0 0 0 0 0 0 0 0 0 0 0 0 0 0 0 0 0 0 0 0 0 0 0 0 0 0 0 325 325 325 328 325 325 325 328 331 336 339 339 339 339 339 339 339 339 333 331 328 333 331 330 333 334 331 334 336 339 339 339 337 337 339 340 340 0 0 0 0 89 0 0 0 331 331 331 331 328 325 324 325 322 327 325 327 325 327 333 333 333 333 334 336 337 337 340 339 339 337 337 336 0 0 0 0 0 0 0 0 0 0 342 0 0 0 0 0 0 0 336 334 334 333 331 330 328 0 325 324 325 327 328 330 327 331 331 331 333 334 336 336 333 337 339 340 340 340 340 339 340 340 339 337 339 337 337 334 331 331 328 328 327 328 327 331 333 334 334 336 336 337 337 339 339 337 339 336 336 336 333 334 333 333 333 336 0 339 340 339 340 337 336 334 333 333 331 333 333 331 328 331 334 331 333 331 333 334 334 336 337 337 339 340 340 339 337 337 333 331 328 328 328 328 327 328 328 333 333 337 336 336 337 337 337 336 337 334 336 336 336 334 334 334 334 333 336 336 336 336 334 336 334 337 334 334 334 336 336 336 336 336 336 337 340 339 347 364 353 345 337 340 325 322 321 0 0 0 0 0
    0 0 0 0 0 0 0 0 0 0 0 0 0 0 0 0 0 0 0 0 0 0 0 0 0 0 0 0 0 0 0 0 0 0 0 0 0 0 0 0 0 0 0 0 0 0 0 0 0 0 0 0 0 0 0 0 0 0 0 0 0 0 0 0 0 0 0 0 0 321 322 322 325 322 322 324 325 328 333 336 337 336 337 337 339 337 337 331 331 328 333 331 331 331 334 331 336 336 0 340 340 339 339 340 342 342 0 0 0 0 0 0 0 0 0 330 331 330 0 0 324 324 322 327 325 327 325 328 333 333 333 334 336 337 339 337 340 339 339 337 0 0 0 0 0 0 0 0 0 0 0 0 342 0 0 0 0 0 0 0 0 334 0 333 331 330 327 0 324 322 324 325 325 328 325 331 331 330 333 334 336 334 331 337 339 340 340 340 340 340 342 342 340 339 339 339 337 334 333 331 328 327 325 327 327 331 333 333 334 334 336 337 337 0 340 0 0 337 337 336 333 334 333 331 331 334 336 337 339 339 339 336 336 333 333 331 331 331 333 333 328 331 333 330 333 331 333 334 333 336 337 337 340 342 342 340 337 339 334 333 330 328 330 328 327 328 327 330 331 337 336 334 337 337 337 336 337 334 336 336 337 334 334 333 334 333 336 334 336 336 336 336 336 337 334 336 334 334 336 336 336 336 336 337 340 340 348 360 357 347 340 342 330 324 322 0 0 0 0 0
    0 0 0 0 0 0 0 0 0 0 0 0 0 0 0 0 0 0 0 0 0 0 0 0 0 0 0 0 0 0 0 0 0 0 0 0 0 0 0 0 0 0 0 0 0 0 0 0 0 0 0 0 0 0 0 0 0 0 0 0 0 0 0 0 0 0 0 0 0 314 0 319 322 319 319 321 322 327 331 336 336 334 337 336 337 337 337 330 327 327 331 328 0 0 333 328 334 0 0 0 340 337 337 339 340 0 0 0 0 89 0 0 0 0 0 0 0 330 0 0 0 0 0 325 325 327 325 330 334 333 334 336 337 339 340 339 342 340 340 339 0 0 0 0 0 0 0 0 0 0 0 0 343 0 0 0 0 0 0 0 0 0 0 331 331 328 325 0 324 322 324 324 0 0 325 333 331 330 333 334 336 334 331 337 339 340 340 342 342 342 343 343 340 339 339 339 337 334 331 330 327 325 325 325 325 330 331 333 334 334 336 337 339 0 0 0 0 0 0 0 333 334 333 331 331 334 334 336 337 337 337 336 334 333 333 331 331 331 333 334 330 333 333 331 333 333 333 333 333 336 336 337 342 342 342 340 337 339 334 333 330 328 330 327 324 325 325 325 328 334 333 331 336 336 336 336 337 334 336 336 336 334 334 333 333 333 334 334 334 334 334 334 334 336 334 336 336 336 336 336 336 337 336 337 339 339 345 352 353 343 339 343 333 325 321 0 0 0 0 0
    0 0 0 0 0 0 0 0 0 0 0 0 0 0 0 0 0 0 0 0 0 0 0 0 0 0 0 0 0 0 0 0 0 0 0 0 0 0 0 0 0 0 0 0 0 0 0 0 0 0 0 0 0 0 0 0 0 0 0 0 0 0 0 0 0 0 0 0 0 0 0 0 321 318 319 321 322 325 328 333 334 333 336 334 334 0 0 0 0 0 0 0 170 0 0 325 0 0 0 337 339 334 334 331 0 0 0 0 0 89 0 0 0 0 0 0 0 0 197 197 0 0 0 327 325 328 324 334 334 334 334 337 340 340 342 340 342 340 342 0 0 0 0 0 0 0 0 0 0 0 0 0 340 0 0 0 0 0 0 0 0 0 0 331 330 328 325 0 0 0 0 325 0 0 325 0 0 331 333 334 334 334 331 336 337 340 340 343 342 342 345 345 342 339 340 340 337 334 331 328 325 324 324 324 325 330 330 333 334 334 336 337 339 0 0 0 0 0 0 0 0 333 333 331 330 334 334 336 334 337 336 336 333 331 331 331 331 331 334 334 330 333 333 331 333 333 333 333 333 336 336 337 342 342 342 340 337 337 334 333 330 330 330 328 325 327 327 328 328 333 331 327 333 333 334 334 337 336 337 337 337 336 336 334 334 333 334 333 334 334 334 334 334 336 333 336 334 334 334 334 336 337 336 337 339 340 347 350 350 343 337 345 336 328 324 0 0 0 0 0
    0 0 0 0 0 0 0 0 0 0 0 0 0 0 0 0 0 0 0 0 0 0 0 0 0 0 0 0 0 0 0 0 0 0 0 0 0 0 0 0 0 0 0 0 0 0 0 0 0 0 0 0 0 0 0 0 0 0 0 0 0 0 0 0 0 0 0 0 0 0 0 0 322 319 321 322 322 325 327 0 0 0 331 0 0 240 238 242 251 252 256 0 171 0 0 0 140 139 0 0 0 330 0 0 0 0 0 0 0 0 0 0 0 0 0 0 191 0 195 195 0 0 0 330 330 331 328 336 336 334 336 339 342 0 0 342 0 0 0 6690 0 0 0 0 0 0 0 1338 0 0 0 0 0 0 0 0 0 0 0 0 0 0 0 0 328 327 324 321 322 321 0 322 0 325 321 0 0 331 333 334 336 334 331 337 339 342 340 343 342 342 345 345 342 339 340 340 337 334 331 327 324 324 322 324 325 330 330 333 334 334 337 340 0 0 0 0 0 0 0 0 0 334 334 333 331 336 334 334 334 337 337 336 334 331 331 330 331 330 333 334 328 333 333 330 333 333 333 333 333 336 336 337 340 342 340 339 337 337 334 333 330 330 331 330 325 327 327 328 330 333 331 325 333 333 336 336 339 337 0 339 339 337 337 336 334 334 334 333 334 334 334 334 333 334 331 334 333 333 333 333 334 336 334 337 337 339 347 353 353 343 336 347 340 331 324 0 0 0 0 0
    0 0 0 0 0 0 0 0 0 0 0 0 0 0 0 0 0 0 0 0 0 0 0 0 0 0 0 0 0 0 0 0 0 0 0 0 0 0 0 0 0 0 0 0 0 0 0 0 0 0 0 0 0 0 0 0 0 0 0 0 0 0 0 0 0 0 0 0 0 0 0 0 0 0 0 0 0 0 324 325 325 325 0 0 0 0 231 0 256 252 0 0 0 0 0 0 0 0 0 0 0 0 0 0 0 0 0 0 0 0 0 0 0 190 190 191 192 193 194 0 0 194 0 0 328 328 333 0 0 0 0 0 0 0 0 0 0 0 6690 6690 0 0 0 0 0 0 0 1565 0 0 0 0 0 0 0 0 0 0 0 468 468 0 0 0 0 325 321 319 318 0 0 321 321 321 0 721 0 330 331 0 0 333 0 0 0 0 340 0 342 342 345 347 342 339 340 340 337 336 333 327 324 324 322 324 325 330 331 334 337 336 337 0 0 0 0 0 0 507 0 0 0 0 337 334 333 336 333 333 333 336 337 331 331 327 328 328 330 325 328 333 325 331 333 330 333 333 334 333 333 336 334 336 339 340 339 337 336 336 336 333 331 331 331 330 327 328 328 328 330 333 331 324 334 334 336 336 0 0 0 0 0 0 339 337 336 334 334 334 334 336 336 334 334 336 331 334 333 331 331 331 333 336 334 336 336 337 339 0 347 340 336 345 342 336 324 0 0 0 0 0
    0 0 0 0 0 0 0 0 0 0 0 0 0 0 0 0 0 0 0 0 0 0 0 0 0 0 0 0 0 0 0 0 0 0 0 0 0 0 0 0 0 0 0 0 0 0 0 0 0 0 0 0 0 0 0 0 0 0 0 0 0 0 0 0 0 0 0 0 0 0 0 0 0 0 0 0 0 0 0 0 0 0 0 0 0 0 0 0 0 0 0 0 0 0 0 0 0 0 0 0 0 0 0 0 0 0 0 0 0 0 0 0 0 0 0 0 0 0 0 0 0 0 0 0 0 0 0 728 714 0 0 0 791 799 0 0 0 0 0 0 0 0 0 0 0 0 0 0 0 0 0 0 222 223 222 0 0 0 0 0 0 0 0 0 0 0 0 0 0 0 0 0 0 0 0 728 694 0 0 0 0 0 0 188 186 184 0 0 0 342 348 348 342 340 340 342 337 336 333 327 324 324 321 324 324 330 328 333 0 336 0 0 0 0 487 493 0 504 0 0 0 0 339 336 0 336 331 330 331 334 0 0 327 322 325 324 327 322 324 333 325 331 333 328 333 333 334 333 333 334 334 334 339 339 339 337 336 336 336 334 331 331 333 331 327 330 328 327 330 0 331 322 336 336 337 0 0 0 0 0 0 0 342 339 337 336 334 334 336 336 337 336 334 337 334 336 333 330 331 330 333 334 333 334 333 336 336 333 337 336 333 342 0 0 330 0 0 0 0 0
    0 0 0 0 0 0 0 0 0 0 0 0 0 0 0 0 0 0 0 0 0 0 0 0 0 0 0 0 0 0 0 0 0 0 0 0 0 0 0 0 0 0 0 0 0 0 0 0 0 0 0 0 0 0 0 0 0 0 0 0 0 0 0 0 0 0 0 0 0 0 0 0 0 0 0 0 0 0 0 0 0 0 0 0 0 0 0 0 0 0 0 0 0 0 0 0 0 0 0 0 0 0 0 0 0 0 0 0 0 0 0 0 0 0 0 0 0 0 0 0 0 0 0 0 0 0 0 0 0 0 0 0 0 0 0 0 0 0 0 0 0 0 0 0 0 0 0 0 0 0 0 0 0 0 0 0 0 0 0 0 0 0 0 0 0 0 0 0 0 0 0 0 0 0 0 735 707 0 185 0 184 0 0 0 0 182 181 0 0 0 350 348 342 0 0 0 336 334 333 327 322 322 319 324 322 324 322 0 0 0 0 0 0 484 487 493 497 0 0 0 0 0 0 0 0 0 328 325 333 334 0 0 0 0 0 0 327 321 0 0 328 330 333 328 331 331 333 331 331 333 333 333 337 337 336 337 336 0 337 334 331 0 0 0 0 0 0 325 330 0 331 0 0 0 0 0 0 0 0 0 0 0 0 339 336 336 334 334 336 337 337 336 336 339 336 337 334 331 331 331 333 336 331 333 330 333 333 327 328 328 328 334 333 330 324 0 0 0 0 0
    0 0 0 0 0 0 0 0 0 0 0 0 0 0 0 0 0 0 0 0 0 0 0 0 0 0 0 0 0 0 0 0 0 0 0 0 0 0 0 0 0 0 0 0 0 0 0 0 0 0 0 0 0 0 0 0 0 0 0 0 0 0 0 0 0 0 0 0 0 0 0 0 0 0 0 0 0 0 0 0 0 0 0 0 0 0 0 0 0 0 0 0 0 0 0 0 0 0 0 0 0 0 0 0 0 0 0 0 0 0 0 0 0 0 0 0 0 0 0 0 0 0 0 0 0 0 0 0 0 0 0 0 0 0 0 0 0 0 0 0 0 0 0 0 0 0 0 0 0 0 0 0 0 0 0 0 0 0 0 0 0 0 0 0 0 0 0 0 0 0 0 0 0 0 0 0 0 0 0 0 0 0 766 750 750 845 0 0 0 0 994 994 981 955 955 955 0 0 0 0 0 0 0 0 0 319 318 0 845 0 0 0 0 0 504 511 0 0 0 0 0 0 0 0 0 0 315 313 317 0 0 0 0 269 270 270 0 0 0 0 0 328 331 327 331 331 333 331 328 331 331 331 336 333 334 336 334 0 0 333 331 0 5256 4088 3679 3873 0 0 0 0 0 0 0 1443 1247 0 0 0 0 0 0 0 0 336 334 0 0 334 336 336 337 336 336 337 336 339 336 333 333 333 334 337 333 333 328 330 331 324 321 322 324 325 325 322 317 0 0 0 0 0
    0 0 0 0 0 0 0 0 0 0 0 0 0 0 0 0 0 0 0 0 0 0 0 0 0 0 0 0 0 0 0 0 0 0 0 0 0 0 0 0 0 0 0 0 0 0 0 0 0 0 0 0 0 0 0 0 0 0 0 0 0 0 0 0 0 0 0 0 0 0 0 0 0 0 0 0 0 0 0 0 0 0 0 0 0 0 0 0 0 0 0 0 0 0 0 0 0 0 0 0 0 0 0 0 0 0 0 0 0 0 0 0 0 0 0 0 0 0 0 0 0 0 0 0 0 0 0 0 0 0 0 0 0 0 0 0 0 0 0 0 0 0 0 0 0 0 0 0 0 0 0 0 0 0 0 0 0 0 0 0 0 0 0 0 0 0 0 0 0 0 0 0 0 0 0 0 0 0 0 0 0 0 0 0 0 0 0 0 0 0 0 0 0 0 0 0 0 0 0 0 0 0 0 0 0 0 0 0 0 0 0 0 0 0 0 774 766 0 721 707 0 0 0 311 304 0 314 307 302 0 0 0 0 0 0 0 0 0 0 0 0 0 328 327 0 0 333 328 325 328 330 330 330 319 0 0 0 0 0 0 0 0 0 4599 4329 3679 0 0 0 2628 0 0 0 1388 1226 0 0 0 0 0 0 0 0 0 0 0 0 0 336 0 0 336 0 0 0 342 339 334 336 336 0 342 334 333 328 330 331 324 318 319 322 324 324 324 0 0 0 0 0 0
    0 0 0 0 0 0 0 0 0 0 0 0 0 0 0 0 0 0 0 0 0 0 0 0 0 0 0 0 0 0 0 0 0 0 0 0 0 0 0 0 0 0 0 0 0 0 0 0 0 0 0 0 0 0 0 0 0 0 0 0 0 0 0 0 0 0 0 0 0 0 0 0 0 0 232 234 237 0 0 181 0 182 0 0 0 0 0 0 0 0 0 0 0 0 0 0 0 0 0 0 0 0 0 0 0 0 0 0 0 0 0 0 0 0 0 0 0 0 0 0 0 0 0 0 0 0 0 0 0 0 0 0 0 0 0 0 0 0 0 0 0 0 0 0 0 0 0 0 0 0 0 0 0 0 0 0 0 0 0 0 0 0 0 0 0 0 0 0 0 0 0 0 0 0 0 0 0 0 0 0 0 0 0 0 0 0 0 0 0 0 0 0 0 0 0 0 0 0 0 0 0 0 0 0 0 0 0 0 0 0 0 0 0 0 0 0 0 0 0 0 0 0 0 0 0 0 0 0 0 0 0 0 0 0 0 0 0 0 0 0 0 0 0 0 0 0 333 327 324 325 324 0 0 309 293 0 0 0 0 0 192 192 0 0 3679 3345 2943 3066 3345 2943 2725 2374 1887 1471 0 0 0 0 0 0 0 0 0 0 0 0 0 0 0 0 0 0 0 0 0 0 0 334 0 339 0 345 334 334 328 330 331 322 317 318 322 324 322 0 314 0 0 0 0 0
    0 0 0 0 0 0 0 0 0 0 0 0 0 0 0 0 0 0 0 0 0 0 0 0 0 0 0 0 0 0 0 0 0 0 0 0 0 0 0 0 0 0 0 0 0 0 0 0 0 0 0 0 0 0 0 0 0 0 0 0 0 0 0 0 0 0 0 0 0 238 239 238 237 237 236 236 238 0 0 0 0 0 0 243 246 246 248 249 0 0 0 0 0 0 0 0 0 0 0 0 0 0 0 0 0 0 0 0 0 0 0 0 0 0 0 0 0 0 0 0 0 0 0 0 0 0 0 0 0 0 0 0 0 0 0 0 0 0 0 0 0 0 0 0 0 0 0 0 0 0 0 0 0 0 0 0 0 0 0 0 0 0 0 0 0 0 0 0 0 0 0 0 0 0 0 0 0 0 0 0 0 0 0 0 0 0 0 0 0 0 0 0 0 0 0 0 0 0 0 0 0 0 0 0 0 0 0 0 0 0 0 0 0 0 0 0 0 0 0 0 0 0 0 0 0 0 0 0 0 0 0 0 0 0 0 0 0 0 0 0 0 0 0 0 0 0 0 0 0 0 0 0 0 0 0 0 0 0 0 0 0 0 0 0 0 0 0 2537 2725 2453 2628 2537 0 0 0 0 0 0 0 0 0 0 0 0 0 0 0 0 0 0 0 0 0 446 0 0 0 334 0 339 0 343 333 334 327 330 0 322 317 318 321 322 319 0 313 0 0 0 0 0
    0 0 0 0 0 0 0 0 0 0 0 0 0 0 0 0 0 0 0 0 0 0 0 0 0 0 0 0 0 0 0 0 0 0 0 0 0 0 0 0 0 0 0 0 0 0 0 0 0 0 0 0 0 0 0 0 0 0 0 0 0 0 0 0 0 0 0 0 0 241 240 239 238 238 238 236 237 0 0 0 0 0 0 242 244 242 243 243 242 0 0 0 0 0 238 238 0 0 0 0 0 155 155 0 0 0 0 0 169 168 168 170 170 174 0 0 0 0 0 215 0 0 0 0 0 0 0 0 0 0 0 0 0 0 0 0 0 0 0 0 0 0 0 0 0 0 0 0 0 0 0 0 0 0 0 0 0 0 0 0 0 0 0 0 0 0 0 0 0 0 0 0 0 0 0 0 0 0 0 0 0 0 0 0 0 0 0 0 0 0 0 0 0 0 0 0 0 0 0 0 0 0 0 0 0 0 0 0 0 0 0 0 0 0 0 0 0 0 0 0 0 0 0 0 0 0 0 0 0 0 0 0 0 0 0 0 0 0 0 0 0 0 0 0 0 0 0 0 0 0 0 0 0 0 0 0 0 0 0 0 0 0 0 0 0 0 0 0 0 0 0 0 0 0 0 0 0 0 0 0 0 0 0 0 0 0 0 0 0 0 0 0 0 0 0 0 0 0 348 343 0 345 0 336 327 330 0 321 314 315 318 318 317 313 309 0 0 0 0 0
    0 0 0 0 0 0 0 0 0 0 0 0 0 0 0 0 0 0 0 0 0 0 0 0 0 0 0 0 0 0 0 0 0 0 0 0 0 0 0 0 0 0 0 0 0 0 0 0 0 0 0 0 0 0 0 0 0 0 0 0 0 0 0 0 0 0 0 0 0 241 241 240 239 238 238 237 237 235 236 237 236 237 0 240 243 241 241 242 240 242 240 238 238 238 238 238 238 0 230 0 0 0 0 0 0 227 230 0 0 168 168 167 166 0 0 134 133 0 0 226 0 0 0 0 0 0 0 0 0 0 0 0 0 0 0 0 0 0 0 0 0 0 0 0 529 504 504 0 521 0 1291 1168 389 359 0 375 355 0 782 0 0 0 0 0 0 0 0 0 0 0 0 0 0 0 0 0 0 0 0 0 0 0 0 0 0 0 0 0 0 0 0 0 0 0 0 0 0 0 0 0 0 0 0 0 0 0 0 0 0 0 0 0 0 0 0 0 0 0 0 0 0 0 0 0 0 0 0 0 0 0 0 0 0 0 0 0 0 0 0 0 0 0 0 0 0 0 0 0 0 0 0 0 0 0 0 0 0 0 0 0 0 0 0 0 0 0 0 0 0 0 0 0 0 0 0 0 0 0 0 0 0 0 0 0 0 0 0 0 0 0 0 0 0 0 0 0 0 0 0 353 345 347 0 336 324 321 325 317 310 306 311 314 313 305 305 0 0 0 0 0
    0 0 0 0 0 0 0 0 0 0 0 0 0 0 0 0 0 0 0 0 0 0 0 0 0 0 0 0 0 0 0 0 0 0 0 0 0 0 0 0 0 0 0 0 0 0 0 0 0 0 0 0 0 0 0 0 0 0 0 0 0 0 0 0 0 0 0 0 0 241 242 241 240 239 239 238 238 236 237 238 237 238 239 240 242 241 241 241 239 241 239 238 238 238 237 238 237 235 232 0 0 233 231 229 229 230 233 233 0 0 0 0 0 0 0 133 0 0 232 231 230 0 235 233 0 0 0 0 0 0 234 0 0 0 7359 0 0 0 0 0 0 0 0 721 529 500 0 1149 0 1338 1314 1187 0 311 0 0 347 337 0 700 0 0 0 0 0 0 0 0 0 0 0 0 0 714 714 0 700 707 0 714 623 0 0 0 364 359 237 0 237 237 0 422 422 0 0 0 0 0 0 0 0 0 0 0 0 0 0 0 0 0 0 0 0 0 0 0 0 0 0 0 0 0 0 0 0 0 0 0 0 0 0 0 0 0 0 0 0 0 0 0 0 0 0 0 0 0 0 0 0 0 0 0 0 0 0 0 0 0 0 0 0 0 0 0 0 0 0 0 0 0 0 0 0 0 0 0 0 0 0 0 0 0 0 0 0 0 0 0 0 0 0 0 0 0 0 0 0 0 0 355 0 350 0 337 322 0 0 313 304 300 300 304 304 0 0 0 0 0 0 0
    0 0 0 0 0 0 0 0 0 0 0 0 0 0 0 0 0 0 0 0 0 0 0 0 0 0 0 0 0 0 0 0 0 0 0 0 0 0 0 0 0 0 0 0 0 0 0 0 0 0 0 0 0 0 0 0 0 0 0 0 0 0 0 0 0 0 0 0 0 241 241 241 239 238 238 238 238 236 237 237 237 237 238 239 240 239 239 239 239 0 0 0 18 238 237 237 236 0 232 0 234 232 231 230 229 231 233 234 235 235 236 237 0 0 0 0 0 0 235 234 233 235 235 234 233 235 235 235 235 234 234 235 236 238 0 0 0 0 0 0 0 799 758 735 0 504 0 1314 1314 1362 1314 1206 0 0 0 0 0 0 0 0 0 0 0 0 0 0 0 0 0 0 0 721 707 700 681 687 645 657 651 645 603 561 0 0 0 0 0 236 236 0 0 0 0 0 146 0 0 0 0 0 0 0 0 0 0 0 493 481 0 0 236 0 0 235 0 0 0 0 0 235 234 235 235 234 235 234 234 0 0 0 142 142 0 0 121 0 0 0 0 0 0 0 0 0 0 0 0 0 0 0 0 0 0 0 0 0 0 0 0 0 0 0 0 0 0 0 0 0 0 0 0 0 0 0 0 0 0 0 0 0 0 0 0 0 0 0 0 0 0 1711 0 0 0 0 0 0 0 0 0 0 0 0 0 0 0 0 0 300 299 296 296 295 0 283 0 0 0 0 0 0
    0 0 0 0 0 0 0 0 0 0 0 0 0 0 0 0 0 0 0 0 0 0 0 0 0 0 0 0 0 0 0 0 0 0 0 0 0 0 0 0 0 0 0 0 0 0 0 0 0 0 0 0 0 0 0 0 0 0 0 0 0 0 0 0 0 0 0 0 0 241 240 240 238 238 238 237 236 235 236 236 236 236 237 238 238 238 238 238 238 238 238 238 238 238 237 237 236 0 233 233 233 232 231 231 231 232 234 234 235 235 237 238 238 237 238 238 0 236 235 235 234 236 235 235 234 235 235 235 235 235 235 235 236 238 237 238 0 0 0 0 0 817 782 758 0 518 0 0 0 0 1338 1206 0 0 0 397 373 0 0 0 0 0 0 0 0 0 0 758 758 743 721 0 687 657 618 0 0 603 0 0 579 0 0 0 0 0 236 236 236 0 0 0 0 0 0 0 0 0 0 0 0 0 0 242 238 238 237 0 238 236 237 236 237 236 235 236 235 235 235 235 234 235 234 234 235 233 234 0 0 0 0 0 0 0 0 0 0 191 192 0 0 0 0 0 0 0 0 0 0 0 0 0 0 0 0 1599 0 0 0 0 1989 2102 2044 2102 2230 2102 2044 1989 1887 1839 0 0 0 0 0 0 0 0 0 0 0 0 0 0 0 0 0 0 1565 1533 0 0 0 0 0 0 0 0 0 0 0 0 0 0 0 0 0 290 290 288 286 283 280 278 275 0 0 0 0 0
    0 0 0 0 0 0 0 0 0 0 0 0 0 0 0 0 0 0 0 0 0 0 0 0 0 0 0 0 0 0 0 0 0 0 0 0 0 0 0 0 0 0 0 0 0 0 0 0 0 0 0 0 0 0 0 0 0 0 0 0 0 0 0 0 0 0 0 0 0 242 239 240 238 238 237 236 236 235 236 236 236 236 237 238 238 238 238 238 238 238 238 238 238 238 237 238 236 0 234 234 234 233 232 232 232 232 234 234 235 235 236 237 237 237 238 237 236 236 235 235 233 236 235 235 234 235 235 236 235 235 235 236 237 238 237 238 239 241 0 0 0 0 0 0 0 525 507 0 0 0 0 0 0 0 0 0 379 0 0 0 0 0 0 73 0 0 743 735 743 728 707 0 0 613 598 0 588 584 0 0 566 0 0 238 0 0 235 235 0 0 0 0 0 0 0 0 0 0 0 0 0 0 0 240 238 238 238 238 238 237 238 237 237 237 236 236 235 235 235 235 235 235 235 234 235 233 233 235 0 0 0 0 0 0 0 0 0 0 0 236 238 239 236 235 0 0 0 234 0 0 0 228 0 196 0 1635 0 0 0 0 0 2230 2164 2164 2299 2044 1989 1989 1936 1887 1839 1936 0 0 0 0 0 0 0 0 0 0 0 0 0 0 0 1795 1565 1533 0 0 0 0 0 0 0 0 0 0 0 279 0 0 0 0 281 0 280 280 280 0 0 0 0 0 0 0 0 0
    0 0 0 0 0 0 0 0 0 0 0 0 0 0 0 0 0 0 0 0 0 0 0 0 0 0 0 0 0 0 0 0 0 0 0 0 0 0 0 0 0 0 0 0 0 0 0 0 0 0 0 0 0 0 0 0 0 0 0 0 0 0 0 0 0 0 0 0 0 242 239 241 238 238 238 237 236 236 236 236 236 236 236 238 238 238 237 238 238 238 238 238 238 238 237 238 237 0 0 235 235 234 232 232 232 232 233 233 234 235 235 236 236 236 237 236 237 236 235 235 233 236 235 235 235 235 235 236 235 236 236 237 237 238 238 238 238 240 238 239 0 0 0 0 0 529 0 0 0 0 0 0 0 0 242 0 0 0 246 0 0 0 0 73 0 799 750 0 0 728 0 0 0 0 0 0 0 0 0 0 0 236 236 237 237 236 235 236 236 237 0 0 0 0 0 0 0 0 0 0 0 0 241 240 238 238 238 239 238 238 238 237 238 238 236 236 235 235 236 236 235 235 235 235 235 234 234 235 0 0 0 143 0 0 0 0 0 0 0 237 238 238 237 236 235 235 234 235 235 234 0 230 227 196 0 0 0 0 0 0 0 0 0 0 2102 0 0 0 1936 1887 1839 2044 2164 0 0 0 230 231 0 0 0 0 0 0 0 0 0 0 1599 0 0 0 0 0 0 0 0 0 0 0 279 278 276 0 0 0 0 0 0 0 0 0 0 0 0 0 0 0 0 0
    0 0 0 0 0 0 0 0 0 0 0 0 0 0 0 0 0 0 0 0 0 0 0 0 0 0 0 0 0 0 0 0 0 0 0 0 0 0 0 0 0 0 0 0 0 0 0 0 0 0 0 0 0 0 0 0 0 0 0 0 0 0 0 0 0 0 0 0 0 241 239 240 238 238 238 237 236 236 237 237 237 236 237 237 237 238 237 238 238 238 238 238 238 238 237 238 237 0 0 0 235 235 234 234 233 234 235 234 235 235 235 236 236 237 237 237 237 237 236 236 235 237 236 235 235 235 236 236 236 237 236 237 237 238 238 238 238 239 238 238 238 239 238 239 238 0 0 238 0 0 0 238 0 241 242 240 0 0 246 0 0 0 0 73 0 0 0 0 0 0 0 0 0 0 0 0 0 0 240 238 0 236 236 237 237 236 236 236 236 237 236 237 0 0 0 0 0 0 0 0 0 238 240 240 238 238 238 239 238 238 238 238 238 238 238 237 236 237 237 237 236 236 236 235 235 235 234 235 235 237 235 0 0 0 0 0 0 0 0 238 239 238 237 237 236 235 235 235 235 234 0 230 227 0 0 0 0 0 0 0 0 0 0 0 0 0 0 0 0 0 0 0 0 0 0 231 230 231 230 0 0 0 0 0 0 0 0 0 0 0 0 0 0 0 0 0 0 0 0 0 283 279 0 0 0 232 0 236 235 235 0 0 0 0 0 0 0 0 0 0
    0 0 0 0 0 0 0 0 0 0 0 0 0 0 0 0 0 0 0 0 0 0 0 0 0 0 0 0 0 0 0 0 0 0 0 0 0 0 0 0 0 0 0 0 0 0 0 0 0 0 0 0 0 0 0 0 0 0 0 0 0 0 0 0 0 0 0 0 0 241 238 240 238 238 238 237 236 237 237 237 237 237 237 237 237 238 237 238 238 238 238 238 238 238 237 238 237 236 236 236 235 235 235 235 235 235 235 235 235 236 237 238 237 238 238 238 238 237 236 236 235 237 237 236 235 236 237 237 237 237 237 237 238 239 238 238 238 239 238 239 238 239 238 238 238 0 0 238 237 0 0 238 238 240 241 240 242 244 245 0 0 0 0 73 0 0 0 0 0 0 0 0 0 0 0 0 238 238 238 238 236 236 236 237 237 236 236 236 236 237 236 237 237 0 0 0 0 0 0 239 241 238 240 240 238 238 238 239 238 238 238 238 238 238 238 238 237 237 237 237 235 236 236 235 235 235 234 235 235 237 235 0 0 0 0 0 0 0 0 238 240 239 238 237 236 235 235 235 235 234 233 232 229 0 0 0 236 0 236 238 0 238 237 238 0 0 0 0 0 0 0 237 0 0 234 232 231 232 231 0 0 0 0 0 0 0 0 0 0 0 0 0 0 826 817 0 0 0 0 0 288 0 0 0 238 234 0 237 235 0 0 0 0 0 0 0 0 0 0 0
    0 0 0 0 0 0 0 0 0 0 0 0 0 0 0 0 0 0 0 0 0 0 0 0 0 0 0 0 0 0 0 0 0 0 0 0 0 0 0 0 0 0 0 0 0 0 0 0 0 0 0 0 0 0 0 0 0 0 0 0 0 0 0 0 0 0 0 0 0 241 238 240 238 238 238 238 237 238 237 238 238 237 237 238 237 238 237 238 238 238 238 238 238 238 237 237 237 236 236 236 235 235 235 236 235 235 235 235 236 237 238 238 238 238 238 238 238 238 237 236 235 238 237 237 235 236 237 238 237 238 237 238 238 240 239 238 238 239 238 239 239 239 238 239 238 238 238 238 238 0 238 238 238 240 241 240 242 243 243 246 244 243 0 0 0 0 238 238 238 0 0 0 0 238 238 238 238 238 238 238 236 236 236 237 236 235 235 236 236 237 236 238 237 0 237 238 0 238 238 239 242 238 240 240 238 238 238 239 238 238 238 238 238 238 238 238 238 238 237 237 235 235 236 235 235 235 235 235 235 237 235 235 0 238 240 240 238 237 238 238 241 239 238 237 237 236 236 235 235 234 233 232 231 0 235 235 235 235 236 237 0 0 0 0 0 0 238 0 238 238 238 237 236 0 0 233 232 232 232 0 234 235 0 0 0 0 0 0 0 1187 0 0 897 855 0 865 0 0 0 297 293 0 0 0 238 235 0 238 236 0 0 0 0 0 0 0 0 0 0 0
    0 0 0 0 0 0 0 0 0 0 0 0 0 0 0 0 0 0 0 0 0 0 0 0 0 0 0 0 0 0 0 0 0 0 0 0 0 0 0 0 0 0 0 0 0 0 0 0 0 0 0 0 0 0 0 0 0 0 0 0 0 0 0 0 0 0 0 0 0 241 238 240 239 238 238 237 237 238 238 237 237 237 237 238 237 238 238 238 238 238 238 238 237 238 236 236 237 235 236 236 235 236 236 237 0 236 236 235 237 238 237 238 238 238 238 237 238 237 237 236 235 238 237 237 236 236 238 238 238 238 238 238 238 240 239 238 238 238 238 238 238 238 238 239 238 238 238 238 238 238 238 238 238 239 239 239 241 242 242 245 242 242 239 238 237 236 237 238 237 238 238 238 238 238 238 238 238 238 238 238 236 236 236 236 236 235 235 236 236 237 237 238 238 237 238 238 238 238 238 239 241 238 240 239 238 238 238 239 238 238 238 238 238 238 238 238 238 238 237 238 235 236 236 235 235 235 235 236 235 237 236 236 237 238 239 240 238 237 238 238 240 240 238 237 237 237 237 236 235 235 234 234 233 0 235 235 235 235 236 0 0 0 0 237 238 238 238 238 238 238 238 238 237 0 235 235 233 233 233 0 235 235 235 0 0 0 0 0 0 0 0 994 897 865 845 865 0 0 0 0 290 0 0 0 238 234 0 237 235 0 0 238 0 0 0 0 0 0 0 0
    0 0 0 0 0 0 0 0 0 0 0 0 0 0 0 0 0 0 0 0 0 0 0 0 0 0 0 0 0 0 0 0 0 0 0 0 0 0 0 0 0 0 0 0 0 0 0 0 0 0 0 0 0 0 0 0 0 0 0 0 0 0 0 0 0 0 0 0 0 241 238 240 239 238 238 237 237 237 237 237 237 236 237 238 237 238 238 238 238 238 238 238 238 238 237 236 237 235 236 236 235 236 236 238 0 236 237 236 238 238 237 238 238 238 238 237 238 237 237 236 236 238 238 238 237 237 238 238 238 238 238 238 238 239 238 237 237 238 237 238 238 237 237 238 238 238 238 238 238 238 238 238 238 238 238 239 240 242 241 243 242 241 239 239 238 237 238 238 238 238 238 238 238 238 238 237 238 238 237 238 236 237 236 236 236 235 235 236 236 238 237 238 238 238 238 238 238 238 238 238 240 238 239 239 238 239 238 239 238 238 238 238 238 238 238 238 238 238 238 238 236 236 237 235 236 236 235 237 237 238 237 237 238 239 240 239 238 238 238 239 240 240 239 238 238 238 239 238 237 236 235 236 235 236 236 236 236 236 236 236 237 237 236 237 237 238 238 238 238 237 237 238 237 237 236 235 234 233 234 235 235 235 236 0 237 0 0 238 0 1187 1051 1008 0 0 836 0 0 0 0 0 0 0 0 242 237 234 236 236 235 236 238 238 0 0 0 0 0 0 0 0
    0 0 0 0 0 0 0 0 0 0 0 0 0 0 0 0 0 0 0 0 0 0 0 0 0 0 0 0 0 0 0 0 0 0 0 0 0 0 0 0 0 0 0 0 0 0 0 0 0 0 0 0 0 0 0 0 0 0 0 0 0 0 0 0 0 0 0 0 0 241 238 240 239 238 238 237 237 237 237 237 237 237 237 237 238 237 238 238 238 238 238 238 238 238 237 236 237 236 237 236 236 237 237 238 238 237 238 236 238 238 237 238 238 238 238 236 237 236 236 236 236 238 238 238 237 237 238 238 238 238 238 238 238 238 238 237 236 237 237 237 237 237 236 237 237 238 238 238 238 238 238 238 238 238 238 239 240 242 241 243 242 241 239 239 238 238 238 238 238 238 238 238 238 238 238 238 238 238 237 238 237 237 236 236 235 235 236 237 237 238 238 238 238 238 238 238 238 238 237 237 239 238 239 239 238 238 239 239 239 238 238 238 238 238 238 238 238 238 238 238 236 237 238 235 236 236 236 237 237 238 238 238 238 239 239 239 239 238 239 239 240 241 239 239 239 239 240 238 238 237 237 237 237 237 237 236 236 236 236 237 237 237 236 237 238 238 238 238 238 237 238 238 238 238 237 236 235 235 235 236 236 236 236 236 237 237 238 238 238 0 0 0 0 0 0 0 0 0 237 238 238 238 236 237 236 234 235 235 235 235 237 238 237 0 0 0 0 0 0 0
    0 0 0 0 0 0 0 0 0 0 0 0 0 0 0 0 0 0 0 0 0 0 0 0 0 0 0 0 0 0 0 0 0 0 0 0 0 0 0 0 0 0 0 0 0 0 0 0 0 0 0 0 0 0 0 0 0 0 0 0 0 0 0 0 0 0 0 0 0 239 238 239 239 238 239 238 238 238 238 238 237 237 238 238 238 238 238 238 238 238 238 238 238 238 237 236 238 236 237 237 237 238 238 238 238 238 238 237 238 238 237 238 238 238 238 237 238 236 236 236 236 237 238 238 237 237 238 238 238 238 238 238 238 238 238 237 236 237 237 237 237 236 236 237 237 237 237 238 238 238 238 238 238 238 238 239 239 241 241 244 243 242 239 240 239 238 238 238 238 238 238 239 238 238 238 238 238 238 237 238 237 237 236 235 235 235 236 237 237 238 238 238 239 238 239 239 238 238 237 237 239 238 238 238 238 238 239 239 239 238 238 239 238 238 238 238 238 238 238 239 236 237 238 235 236 236 236 237 237 238 237 237 238 238 238 238 238 238 239 239 240 240 239 239 240 239 241 239 238 238 238 238 239 238 238 237 236 236 236 237 237 237 236 236 238 238 238 240 239 238 238 238 238 238 238 238 237 236 236 237 237 237 237 237 238 238 238 239 238 238 0 0 0 0 0 0 0 0 0 238 238 238 236 236 236 235 235 235 235 236 237 238 238 238 0 0 0 0 0 0
    0 0 0 0 0 0 0 0 0 0 0 0 0 0 0 0 0 0 0 0 0 0 0 0 0 0 0 0 0 0 0 0 0 0 0 0 0 0 0 0 0 0 0 0 0 0 0 0 0 0 0 0 0 0 0 0 0 0 0 0 0 0 0 0 0 0 0 0 0 239 238 238 239 239 240 239 239 238 238 238 238 238 238 238 238 238 238 237 238 238 238 238 238 237 237 236 238 236 238 237 237 238 238 239 239 238 238 237 238 239 237 238 237 237 238 236 237 236 236 236 236 237 238 238 237 237 238 238 238 238 238 238 238 239 239 237 237 237 238 238 237 236 236 236 237 237 237 238 238 238 238 239 240 239 239 240 240 242 241 243 242 241 239 240 239 238 239 238 238 239 239 239 238 238 239 238 238 238 238 238 238 238 237 236 235 235 236 238 237 238 238 239 239 239 239 239 238 238 237 237 239 238 238 239 238 238 239 239 239 238 238 239 238 238 238 238 238 238 238 239 236 238 238 236 237 236 236 237 237 238 237 237 237 238 238 238 238 238 238 239 239 240 239 239 240 239 241 239 238 238 238 238 240 238 238 237 236 237 237 237 237 237 237 237 238 239 239 240 240 238 239 238 239 240 239 239 238 238 237 238 238 238 238 238 238 238 238 240 238 238 238 0 0 0 0 0 0 0 0 0 237 237 235 235 236 235 235 235 236 236 236 238 238 0 0 0 0 0 0 0</data></depth>
</opencv_storage>
