<?xml version="1.0"?>
<opencv_storage>
<gps_time_stamp>17492</gps_time_stamp>
<gps_x>1.2996088480576873e-003</gps_x>
<gps_y>5.1625046879053116e-002</gps_y>
<gps_z>-6.9345082156360149e-003</gps_z>
<image_time_stamp>5464</image_time_stamp>
<depth type_id="opencv-matrix">
  <rows>81</rows>
  <cols>320</cols>
  <dt>s</dt>
  <data>
    0 0 0 0 0 0 0 0 0 0 0 0 0 0 0 0 0 0 0 0 0 0 0 0 0 0 0 0 0 0 0 0 0 0 0 0 0 0 0 0 0 0 0 0 0 0 0 0 0 0 0 0 0 0 0 0 0 0 0 0 0 0 0 0 0 0 0 0 0 1887 1839 1887 1795 1752 1711 0 1839 0 2374 2725 2725 3345 3199 3873 4906 5661 6690 6690 6690 8177 8177 0 0 0 0 0 0 0 0 0 0 0 0 0 8177 7359 6690 7359 7359 0 0 0 0 0 0 0 0 0 0 0 0 0 0 0 0 0 0 0 0 0 0 0 0 0 0 0 8177 8177 7359 8177 7359 7359 7359 7359 7359 7359 7359 6690 8177 7359 6690 6133 4599 0 0 1415 1565 1533 1672 1752 1752 1711 1752 1795 1752 1795 1839 1795 1795 1752 1795 1795 1839 1887 1839 1839 1936 2102 2830 3066 4906 6690 8177 6690 7359 8177 8177 8177 6690 5256 3504 2943 2830 2628 2164 2044 2102 2230 2628 2725 2725 2164 1936 1989 1887 1936 1887 1795 1752 1711 1752 0 0 3873 4906 5661 6133 5661 4906 6133 5256 5661 5661 6133 5661 5256 4599 5661 5256 4906 3873 3873 3679 3679 3504 3679 3504 3345 3345 3345 3199 3066 3066 3066 2830 2943 2943 2537 2628 2537 2537 2453 2230 2102 1989 1989 2044 1839 1839 1471 1635 1711 1672 1599 1599 1599 1533 1565 1599 1533 1533 1533 1501 1501 1501 1533 1501 1471 1415 1388 1388 1388 1362 1362 1362 1338 1415 1415 1471 1471 1501 1599 1388 1443 1388 1362 1362 1338 1338 1338 1338 1388 1338 1338 1314 1314 1338 0 0 0 0 0 0 0 0 0 0 0 0 0
    0 0 0 0 0 0 0 0 0 0 0 0 0 0 0 0 0 0 0 0 0 0 0 0 0 0 0 0 0 0 0 0 0 0 0 0 0 0 0 0 0 0 0 0 0 0 0 0 0 0 0 0 0 0 0 0 0 0 0 0 0 0 0 0 0 0 0 0 0 1839 1795 1887 1752 0 1795 2537 0 0 0 0 3066 3504 3345 4088 5661 5661 6690 7359 6690 8177 8177 0 0 0 0 0 0 0 0 0 0 0 0 0 8177 7359 6133 6690 7359 0 0 0 0 0 0 0 0 0 0 0 0 0 0 0 0 0 0 0 0 0 0 0 0 0 0 0 0 0 8177 8177 8177 7359 7359 6690 6690 7359 7359 6690 7359 7359 6690 0 4599 0 1268 1471 1533 1501 1635 1752 1752 1711 1752 1795 1795 1795 1887 1839 1795 1795 1839 1795 1839 1887 1795 1839 1887 1936 2453 2725 3873 6690 7359 6690 7359 8177 7359 7359 6133 5256 3504 2943 2725 2453 2102 1989 2102 2164 2537 2628 2628 2230 1936 1936 1936 1887 1839 1752 1711 1672 1711 0 0 3504 3873 5256 5256 4906 4599 5661 5256 5256 5661 5661 5661 5256 4599 5661 5256 4599 3679 4088 3873 3679 3504 3679 3504 3345 3345 3504 3199 3066 3066 3066 2830 2830 2830 2453 2537 2374 2453 2374 2102 2044 1989 1936 2044 1839 1839 1501 1635 1711 1635 1599 1599 1635 1501 1565 1635 1533 1533 1533 1533 1533 1501 1533 1501 1471 1443 1388 1415 1388 1362 1388 1388 1362 1415 1415 1471 1471 1501 1599 1362 1415 1362 1388 1362 1338 1338 1338 1362 1415 1338 1338 1314 1291 0 0 0 0 0 0 0 0 0 0 0 0 0 0
    0 0 0 0 0 0 0 0 0 0 0 0 0 0 0 0 0 0 0 0 0 0 0 0 0 0 0 0 0 0 0 0 0 0 0 0 0 0 0 0 0 0 0 0 0 0 0 0 0 0 0 0 0 0 0 0 0 0 0 0 0 0 0 0 0 0 0 0 0 1839 1795 1887 1795 0 0 3066 0 0 0 3199 3345 4088 3504 4329 6133 6133 7359 7359 7359 8177 8177 0 0 0 0 0 0 0 0 0 0 0 0 0 8177 7359 6133 6690 7359 0 0 0 0 0 0 0 0 0 0 0 0 0 0 0 0 0 0 0 0 0 0 0 0 0 0 0 0 0 8177 8177 8177 8177 8177 7359 7359 8177 8177 7359 7359 7359 6690 0 0 0 0 1471 1533 1471 1599 1711 1711 1711 1752 1795 1795 1839 1887 1839 1839 1795 1839 1795 1839 1839 1795 1795 1839 1887 2299 2628 3873 5661 6690 6133 7359 8177 7359 7359 6690 5661 3504 2943 2537 2374 2044 1936 2102 2102 2453 2537 2537 2164 1887 1887 1936 1839 1839 1711 1711 1672 1711 0 0 0 3504 4906 4906 4599 4329 5661 5256 5661 5661 6133 5661 5256 4906 5661 5256 4599 3873 4329 4088 3873 3679 4088 3679 3504 3504 3679 3345 3199 3066 3066 2830 2830 2943 2453 2537 2299 2374 2299 1989 1989 1989 1936 1989 1839 1839 1565 1635 1711 1672 1599 1599 1635 1533 1565 1635 1533 1533 1533 1533 1533 1533 1565 1533 1501 1471 1415 1443 1415 1388 1388 1388 1362 1415 1415 1471 1471 1501 1565 1362 1415 1362 1388 1362 1362 1338 1362 1362 1443 1338 1362 1314 1268 0 0 0 0 0 0 0 0 0 0 0 0 0 0
    0 0 0 0 0 0 0 0 0 0 0 0 0 0 0 0 0 0 0 0 0 0 0 0 0 0 0 0 0 0 0 0 0 0 0 0 0 0 0 0 0 0 0 0 0 0 0 0 0 0 0 0 0 0 0 0 0 0 0 0 0 0 0 0 0 0 0 0 0 1839 1795 1936 0 0 0 0 0 0 0 0 3873 4906 3679 4329 6133 6133 7359 8177 8177 8177 8177 0 0 0 0 0 0 0 0 0 0 0 0 0 0 7359 6690 6690 7359 0 0 0 0 0 0 0 0 0 0 0 0 0 0 0 0 0 0 0 0 0 0 0 0 0 0 0 0 0 8177 0 9199 0 0 7359 8177 0 0 7359 7359 7359 7359 634 639 0 0 0 1533 1443 1599 1711 1711 1711 1752 1839 1839 1839 1887 1839 1839 1795 1795 1795 1839 1795 1752 1752 1795 1839 1989 2044 3066 4088 5661 5661 7359 8177 7359 8177 7359 6133 3504 2943 2537 2374 2044 1936 2044 2102 2299 2374 2374 2102 1839 1839 2044 1839 1795 1711 1711 1672 1752 1839 0 0 3504 4906 4906 4599 4329 5256 5256 5661 5661 5661 5661 5256 4906 5661 5661 4906 3873 4329 4088 4088 3873 4329 3679 3504 3504 3679 3345 3199 3066 3066 2830 2830 2943 2374 2537 2230 2299 2230 1989 1936 1936 1936 1989 1839 1839 1599 1672 1711 1635 1599 1599 1635 1533 1565 1599 1533 1533 1533 1533 1533 1533 1565 1533 1501 1471 1443 1471 1443 1415 1415 1388 1388 1443 1443 1471 1471 1501 1501 1362 1415 1362 1388 1388 1362 1338 1362 1388 1443 0 1415 1338 1291 0 0 0 0 0 0 331 328 0 0 0 0 0 0
    0 0 0 0 0 0 0 0 0 0 0 0 0 0 0 0 0 0 0 0 0 0 0 0 0 0 0 0 0 0 0 0 0 0 0 0 0 0 0 0 0 0 0 0 0 0 0 0 0 0 0 0 0 0 0 0 0 0 0 0 0 0 0 0 0 0 0 0 0 1839 1795 0 0 0 0 0 0 0 0 0 3679 4906 3504 4088 6690 6133 8177 8177 8177 0 0 0 0 0 0 0 0 0 0 0 0 0 0 0 0 8177 7359 6690 7359 0 0 0 0 0 0 0 0 0 0 0 0 0 0 0 0 0 0 0 0 0 0 0 0 0 0 0 0 0 0 0 8177 0 0 7359 0 0 0 0 8177 7359 0 634 639 0 0 0 0 1443 1565 1672 1672 1711 1752 1795 1839 1839 1936 1887 1887 1887 1839 1795 1839 1795 1752 1752 1795 1795 1839 1795 2453 3504 4599 5256 7359 7359 7359 7359 7359 6690 3504 2830 2453 2374 2044 1936 2044 2044 2164 2230 2299 2102 1887 1839 2230 1989 1887 1752 1752 1752 1795 1839 1989 0 3199 4329 4329 4088 4088 4599 5256 5661 5256 5256 5256 4906 4906 5661 6133 5256 4329 4906 4599 4329 4088 4906 4088 3873 3679 4088 3504 3199 3066 2943 2830 2830 2830 2299 2453 2164 2230 2164 1936 1887 1936 1887 1936 1839 1795 1672 1672 1711 1635 1599 1599 1635 1533 1599 1599 1533 1533 1533 1533 1533 1533 1565 1533 1501 1471 1443 1501 1443 1443 1415 1388 1388 1443 1443 1501 1471 1501 1443 1362 1415 1362 1388 1388 1362 0 0 0 0 0 1533 1338 1268 0 0 328 328 328 330 331 328 0 0 0 0 0 0
    0 0 0 0 0 0 0 0 0 0 0 0 0 0 0 0 0 0 0 0 0 0 0 0 0 0 0 0 0 0 0 0 0 0 0 0 0 0 0 0 0 0 0 0 0 0 0 0 0 0 0 0 0 0 0 0 0 0 0 0 0 0 0 0 0 0 0 0 0 1839 0 0 339 0 0 0 0 0 0 0 3504 4599 3345 3873 7359 6690 0 0 0 0 0 0 0 0 0 0 0 0 0 0 0 0 0 0 0 8177 7359 6690 7359 0 0 0 8177 0 0 0 0 0 0 0 8177 0 0 0 0 0 0 0 0 0 0 0 0 0 0 0 0 0 0 0 8177 0 0 7359 0 0 0 0 0 8177 0 634 639 0 0 0 0 0 0 1711 1672 1711 1752 1795 1795 1887 1936 1839 1887 1887 1839 1839 1887 1795 1752 1752 1795 1839 1936 1936 2830 3345 4329 5256 8177 7359 7359 7359 8177 6690 4329 3066 2537 2453 2164 1936 2044 2044 2164 2102 2230 2102 1887 1795 2230 2044 1887 1752 1752 0 1795 1795 1752 1752 0 3873 3873 3679 3873 4329 5256 5661 5256 5256 5256 5256 4599 5661 6133 5256 4599 5256 4906 4599 4329 5256 4329 4088 3873 4599 3504 3199 3066 2943 2725 2725 2725 2230 2374 2102 2102 2102 1936 1887 1887 1887 1936 1839 1795 1711 1711 1711 1635 1635 1599 1635 1533 1599 1599 1533 1565 1533 1533 1533 1501 1565 1501 1501 1471 1415 1501 1443 1443 1415 1388 1362 1443 1443 1501 1471 1501 1415 1338 1388 1362 1362 1388 0 0 0 0 0 0 1635 1362 1268 0 328 328 328 330 330 333 330 0 0 0 0 0 0
    0 0 0 0 0 0 0 0 0 0 0 0 0 0 0 0 0 0 0 0 0 0 0 0 0 0 0 0 0 0 0 0 0 0 0 0 0 0 0 0 0 0 0 0 0 0 0 0 0 0 0 0 0 0 0 0 0 0 0 0 0 0 0 0 0 0 0 0 0 1887 0 0 342 0 0 0 0 0 6133 3504 3504 4599 3345 4088 6690 6690 9199 0 0 0 0 0 0 0 0 0 0 0 0 0 0 0 0 0 0 8177 8177 6690 6690 8177 0 0 8177 0 0 0 0 0 0 0 8177 0 8177 0 0 0 0 0 0 0 0 0 0 0 0 0 0 0 0 8177 8177 0 0 0 0 0 0 0 0 0 0 0 639 0 0 0 0 0 0 1711 1711 1711 1752 1795 1795 1839 1936 1839 1839 1839 1839 1839 1887 1795 1752 1752 1795 1887 2102 2230 3066 3504 4088 5256 7359 6690 6690 6690 0 7359 6133 3873 2628 2725 2374 1989 2044 1989 2102 2044 2102 2044 1839 1795 2044 1936 0 1711 1711 1752 1752 1795 1711 1672 1752 0 3345 3504 3679 4088 4906 5256 4906 4906 5256 5256 4599 5661 6133 5661 4329 5256 4599 4599 4088 5256 3873 3873 3873 4599 3345 3066 2943 2725 2628 2628 2628 2102 2299 2102 2102 2102 1989 1936 1936 1887 1936 1839 1839 1752 1752 1752 1672 1635 1635 1672 1565 1635 1599 1533 1565 1533 1533 1533 1501 1565 1501 1471 1471 1415 1501 1415 1471 1443 1415 1388 1471 1443 1533 1471 1501 1415 1338 1388 1362 1362 1362 1338 1338 1338 1362 1443 1362 1599 1338 1268 0 0 330 0 0 0 0 0 1362 0 0 0 0 0
    0 0 0 0 0 0 0 0 0 0 0 0 0 0 0 0 0 0 0 0 0 0 0 0 0 0 0 0 0 0 0 0 0 0 0 0 0 0 0 0 0 0 0 0 0 0 0 0 0 0 0 0 0 0 0 0 0 0 0 0 0 0 0 0 0 0 0 0 0 0 0 0 0 0 0 0 0 0 6133 3679 3679 4906 3504 4088 6690 6133 7359 8177 8177 0 0 0 0 0 0 0 0 0 0 0 0 0 0 0 0 7359 7359 5661 6133 7359 7359 8177 6690 8177 0 0 0 0 0 0 8177 0 8177 0 0 0 0 0 0 0 0 0 0 0 0 0 0 0 0 8177 8177 0 0 0 0 0 0 0 0 0 0 0 0 0 0 0 0 0 0 0 1752 1752 1752 1795 1795 1887 1936 1887 1839 1839 1795 1839 1887 1795 1752 1795 1839 1936 2299 2537 3199 3504 4329 5661 7359 6690 6690 6690 0 0 8177 5661 3066 3066 2830 2230 2230 2102 2102 1989 1989 1887 1795 1752 1795 1839 1887 1711 1752 1752 1795 1795 1711 1635 1672 1672 0 0 3504 3679 4599 4906 4599 4599 4906 5256 4599 5661 6133 5256 3873 4599 4329 4088 3873 4599 3504 3504 0 3679 0 0 0 0 2453 2299 2374 2044 2299 2102 2102 2102 2044 1936 1989 1936 1989 1839 1839 1795 1752 1752 1711 1672 1672 1672 1565 1635 1599 1565 1599 1501 1565 1501 1501 1565 1501 1471 1471 1415 1501 1415 1501 1443 1415 1388 1501 1443 1533 1471 1501 1388 1314 1362 1338 1338 1338 1338 1314 1314 1338 1415 1338 1599 1338 1247 0 0 0 0 1291 1291 1291 1314 1338 0 0 0 0 0
    0 0 0 0 0 0 0 0 0 0 0 0 0 0 0 0 0 0 0 0 0 0 0 0 0 0 0 0 0 0 0 0 0 0 0 0 0 0 0 0 0 0 0 0 0 0 0 0 0 0 0 0 0 0 0 0 0 0 0 0 0 0 0 0 0 0 0 0 0 0 0 0 0 0 0 6133 0 8177 6133 3679 3679 4906 3679 3873 5661 5661 5661 7359 7359 0 0 0 0 0 0 0 0 0 0 0 0 0 0 8177 8177 6690 6133 4088 3873 4329 3199 5661 4906 6690 8177 9199 0 0 8177 8177 6690 9199 6690 0 0 0 0 0 0 0 0 0 0 0 0 0 0 0 0 0 0 327 328 325 0 0 0 0 0 0 0 0 0 0 0 0 0 0 0 0 1752 1839 1795 1839 1887 1936 1989 1989 1936 1936 1839 1887 1887 1795 1752 1752 1795 1887 2299 2628 3199 3504 4088 5256 6690 5661 5661 5256 0 0 0 6133 3066 3504 3066 2628 2537 2374 2230 1989 1936 1839 1795 1711 1752 1795 1839 1711 1752 1752 1795 1795 1752 1672 1635 1635 1752 1565 3199 3199 4088 4329 4329 4329 4329 4906 4599 5256 6690 5256 4088 4599 4329 4088 3873 0 0 0 0 0 0 0 1247 1066 2299 2299 2374 2102 2374 2164 2102 2102 2044 1936 1936 1936 1936 1795 1795 1795 1795 1752 1711 1672 1635 1672 1565 1635 1599 1533 1599 1501 1565 1501 1501 1565 1501 1471 1501 1415 1501 1415 1533 1471 1415 1362 1501 1415 1501 1443 1443 1338 1291 1338 1314 1314 1338 1314 1291 1314 1314 1362 1314 1565 1314 1247 1291 1314 1291 1291 1268 1268 1268 1291 1291 0 0 0 0 0
    0 0 0 0 0 0 0 0 0 0 0 0 0 0 0 0 0 0 0 0 0 0 0 0 0 0 0 0 0 0 0 0 0 0 0 0 0 0 0 0 0 0 0 0 0 0 0 0 0 0 0 0 0 0 0 0 0 0 0 0 0 0 0 0 0 0 0 0 0 0 276 0 276 0 0 5256 7359 7359 5256 3504 3504 4329 3504 3679 4599 4906 4329 5256 4599 7359 8177 6133 0 0 0 0 0 0 0 0 0 0 8177 6690 6690 4906 4088 3199 2943 3066 2725 3199 3199 4088 6690 7359 0 0 8177 7359 5661 7359 5661 0 0 0 0 0 0 0 0 0 0 0 0 0 0 0 319 321 321 324 327 322 328 0 0 0 0 0 0 0 0 0 0 0 0 0 0 0 1795 1887 1839 1839 1887 1989 1989 2044 1936 1936 1795 1887 1936 1795 1752 1752 1839 1989 2628 2943 3066 3345 3679 4088 4906 3679 3679 3504 0 7359 9199 5661 3066 3504 3199 2725 0 2537 2230 1989 1936 1887 1795 1711 1752 1839 1887 1752 1752 1752 1839 1839 1752 1672 1635 1599 1711 1565 0 0 3679 4088 4088 4329 4329 4906 4599 5661 6690 5256 4088 4329 4329 4088 3873 0 0 0 0 228 227 0 1226 1036 0 2102 2044 2044 2299 2102 1989 2044 1936 1887 1887 1887 1887 1795 1752 1795 1795 1752 1711 1672 1635 1672 1565 1635 1599 1533 1599 1501 1565 1501 1501 1565 1501 1471 1471 1415 1501 1415 1501 1443 1388 1362 1471 1388 1471 1415 1388 1314 1291 1314 1314 1291 1314 1291 1291 1291 1314 1338 1314 1471 1291 1226 1268 1291 1268 1268 1268 1268 1247 1268 1268 0 0 0 0 0
    0 0 0 0 0 0 0 0 0 0 0 0 0 0 0 0 0 0 0 0 0 0 0 0 0 0 0 0 0 0 0 0 0 0 0 0 0 0 0 0 0 0 0 0 0 0 0 0 0 0 0 0 0 0 0 0 0 0 0 0 0 0 0 0 0 0 0 0 0 0 275 277 274 0 8177 3873 4329 5256 4329 3199 3066 3504 3066 3199 3199 3679 3199 3199 2943 2830 2725 2628 0 0 0 0 0 0 0 0 0 8177 6690 4088 4329 3679 3066 2943 2725 2830 2537 2725 2725 2943 0 5661 7359 8177 6690 6133 3679 5661 3504 6133 7359 7359 0 0 0 0 0 0 7359 0 0 0 0 0 0 319 319 325 327 322 328 0 0 0 0 0 0 0 0 0 0 0 0 0 0 0 1839 1887 1839 1839 1887 1936 1989 1989 1887 1887 1752 1839 1839 1752 1752 1711 1795 1936 2044 2628 3066 3066 3345 3504 3504 3066 2943 2943 2537 3199 4599 3679 2830 3345 3199 2725 0 2374 2044 1887 1839 1795 1795 1711 1711 1795 1839 1711 1752 1752 1795 1752 1711 1599 1565 1533 1635 1362 0 0 0 3679 3873 4088 4088 4599 4599 5661 6690 5256 3873 4329 4329 4088 3873 0 0 0 0 227 227 0 1132 1008 994 0 0 0 2102 2044 0 0 0 1839 1839 1887 1839 1752 1711 1795 1795 1795 1752 1672 1672 1672 1565 1635 1565 1533 1599 1471 1533 1471 1471 1533 1471 1443 1443 1388 1471 1388 1501 1415 1388 1338 1471 1388 1471 1388 1362 1314 1268 1314 1291 1268 1291 1291 1291 1291 1291 1314 1291 1415 1268 1247 1247 1268 1226 1247 1247 1247 1226 1247 1247 0 0 0 0 0
    0 0 0 0 0 0 0 0 0 0 0 0 0 0 0 0 0 0 0 0 0 0 0 0 0 0 0 0 0 0 0 0 0 0 0 0 0 0 0 0 0 0 0 0 0 0 0 0 0 0 0 0 0 0 0 0 0 0 0 0 0 0 0 0 0 0 0 0 0 0 272 275 270 0 4906 3345 2943 3873 3679 2943 2830 2943 2830 2725 2628 3066 2830 2725 2537 2453 2453 2230 2299 2374 2102 2453 2537 2537 0 0 0 5661 3873 2943 2943 3066 2830 2725 2537 2628 2453 2537 2537 2628 2725 3066 0 0 0 0 2830 2943 2830 2830 3066 3504 3504 0 0 0 6133 0 3873 2830 3066 0 3504 3345 0 0 0 328 331 325 0 0 217 219 0 0 0 0 0 0 0 0 0 0 0 0 1887 1887 1839 1839 1887 1936 1989 1989 1839 1887 1752 1887 1839 1752 1752 1711 1795 1887 1839 2164 2230 2830 3066 3199 2943 2628 2453 2537 2230 2453 2830 2943 2725 3199 3066 2628 0 2102 1936 0 1795 1752 1795 1672 1711 1795 1839 1752 1752 1752 1752 1711 1672 1533 1501 1501 1533 1338 0 0 0 3504 3504 3504 3679 4329 4088 5256 6690 5256 3873 4088 4088 3873 3679 0 0 0 0 0 0 0 1051 994 968 968 0 0 0 0 0 0 0 0 0 0 0 1752 1672 1795 1795 1752 1711 1672 1635 1672 1565 1635 1565 1565 1599 1471 1533 1471 1471 1533 1471 1443 1415 1388 1443 1388 1471 1415 1362 1338 1471 1388 1443 1362 1362 1291 1268 1291 1291 1268 1268 1291 1291 1291 1291 1314 1314 1388 1268 1247 1247 1247 1226 1226 1226 1226 1226 1247 1226 0 0 0 0 0
    0 0 0 0 0 0 0 0 0 0 0 0 0 0 0 0 0 0 0 0 0 0 0 0 0 0 0 0 0 0 0 0 0 0 0 0 0 0 0 0 0 0 0 0 0 0 0 0 0 0 0 0 0 0 0 0 0 0 0 0 0 0 0 0 0 0 0 0 0 0 0 270 265 266 2830 2830 2628 2943 2943 2628 2453 2374 2453 2230 2102 2628 2453 2299 2164 2164 2164 2102 2102 2164 2044 2164 2230 2299 2374 2453 2453 2830 2830 2830 2725 2830 2628 2628 2453 2537 2299 2299 2299 2374 2374 2628 0 0 2374 2453 2299 2374 2374 2374 2537 0 0 2830 2943 2943 2830 2943 2628 2164 2374 2299 2628 2537 2628 2725 2628 2628 0 0 217 217 217 0 0 0 0 0 0 0 0 0 0 0 0 1989 1887 1936 1839 1887 1887 1936 1989 2044 1795 1839 1752 1839 1795 1752 1752 1711 1752 1839 1795 1936 1795 2453 2725 2725 2628 2299 2102 2230 2102 2164 2628 2628 2453 2943 2943 2453 0 1887 0 0 1795 1752 1795 1672 1672 1795 1795 1711 1711 1711 1635 1599 1565 1443 1443 1415 1415 0 0 1388 1415 0 3199 3345 3345 3679 3679 4906 6133 4599 3504 3873 3873 3679 3504 0 0 0 0 0 0 0 1022 981 955 955 1008 994 0 0 0 259 259 0 0 129 129 1711 1672 1752 1795 1795 1752 1711 1635 1672 1565 1635 1565 1565 1599 1471 1533 1471 1471 1533 1443 1415 1415 1388 1443 1388 1443 1388 1362 1338 1471 1388 1415 1362 1338 1291 1268 1268 1268 1247 1268 1291 1291 1291 1268 1314 1291 1362 1226 1247 1226 1206 1206 1206 1206 1206 1206 1226 1226 0 0 0 0 0
    0 0 0 0 0 0 0 0 0 0 0 0 0 0 0 0 0 0 0 0 0 0 0 0 0 0 0 0 0 0 0 0 0 0 0 0 0 0 0 0 0 0 0 0 0 0 0 0 0 0 0 0 0 0 0 0 0 0 0 0 0 0 0 0 0 0 0 0 0 0 0 0 0 0 2453 2374 2299 2537 2374 2299 2164 1989 2102 1989 1989 2299 2230 2102 2044 2044 2102 2044 2044 2102 2044 2102 2164 2230 2299 2299 2299 2537 2453 2453 2374 2453 2230 2374 2164 2299 2102 2102 2044 2044 2044 2230 2044 2299 1989 1989 1989 1989 2044 2044 2102 2102 2102 2230 2374 2374 2299 2230 2044 1989 2044 2044 2230 2102 2164 2164 2102 2164 2102 0 0 1989 0 1989 0 2044 0 0 0 0 0 0 0 1936 1795 2044 1936 1989 1887 1936 1936 1989 1989 2044 1795 1795 1711 1795 1711 1752 1711 1711 1711 1795 1795 1887 1795 2102 2164 2299 2164 2044 1936 2044 2044 0 2374 2453 2164 2453 2830 2230 0 0 0 0 1795 1752 1795 1672 1672 1795 1795 1672 1672 1599 1533 0 1471 1388 1388 1388 1362 1268 1268 1338 1388 0 2628 0 3066 3199 3199 4599 5661 4088 3345 3679 3679 3504 3345 0 0 0 0 103 103 0 1008 968 955 955 994 981 0 0 0 258 0 0 0 129 129 0 1635 1711 0 0 1711 1635 1635 1672 1533 1599 1565 1599 1635 1471 1533 1471 1471 1533 1443 1415 1388 1362 1443 1362 1443 1388 1362 1362 1443 1388 1415 1338 1338 1291 1268 1268 1268 1247 1268 1268 1291 1268 1268 1291 1291 1338 1226 1247 1206 1187 1187 1187 1187 1187 1187 1206 1206 0 0 0 0 0
    0 0 0 0 0 0 0 0 0 0 0 0 0 0 0 0 0 0 0 0 0 0 0 0 0 0 0 0 0 0 0 0 0 0 0 0 0 0 0 0 0 0 0 0 0 0 0 0 0 0 0 0 0 0 0 0 0 0 0 0 0 0 0 0 0 0 0 0 0 0 0 0 1887 1989 1989 1989 1989 2102 1936 1989 2044 1936 1989 1989 1936 2102 2102 2044 1989 1989 2044 1989 2044 2102 1989 2044 2102 2164 2164 2164 2102 2102 2102 2164 2044 2044 1989 2102 1989 2102 1989 1989 1989 1936 1936 1989 1936 1989 1887 1887 1887 1936 1936 1989 1936 1989 1989 2044 2044 2044 2044 2044 1989 1989 1989 1989 2102 1989 2044 1989 1936 1989 1936 1936 1887 1887 0 1936 1839 1989 1887 1936 1989 1936 0 1887 0 1936 1795 2044 1989 1989 1936 1936 1989 1989 1989 2044 1752 1752 1672 1752 1672 1711 1711 1672 1711 1795 1752 1795 1711 1936 1936 2044 1989 1989 1887 1989 1989 2044 2164 2299 2044 2044 2628 2102 0 0 0 0 1752 1752 1752 1672 1635 1752 1752 1672 1635 1565 1501 1443 1443 1362 1362 1362 1338 1247 1247 1291 1362 1314 1672 1711 0 1989 2102 3873 5256 3679 3199 3345 3345 3199 0 0 0 0 103 103 103 994 994 968 955 955 994 955 0 0 0 0 0 0 0 129 0 0 0 0 0 629 0 0 0 1635 1501 1533 1533 1565 1599 1471 1533 1471 1471 1501 1443 1415 1388 1362 1443 1388 1443 1415 1388 1388 1443 1415 1415 1338 1338 1291 1268 1268 1268 1268 1268 1291 1291 1291 1291 1314 1291 1338 1226 1226 1206 1168 1168 1168 1168 1187 1168 1206 1187 0 0 0 0 0
    0 0 0 0 0 0 0 0 0 0 0 0 0 0 0 0 0 0 0 0 0 0 0 0 0 0 0 0 0 0 0 0 0 0 0 0 0 0 0 0 0 0 0 0 0 0 0 0 0 0 0 0 0 0 0 0 0 0 0 0 0 0 0 0 0 0 0 0 0 0 0 1887 1887 1989 1936 1936 1936 1989 1839 1887 1936 1839 1936 1936 1936 1989 1989 1989 1989 1936 2044 1989 1989 2044 1989 1989 2044 2102 2102 2044 1989 1936 1936 1936 1887 1936 1887 1936 1887 1936 1936 1936 1887 1887 1887 1936 1887 1936 1839 1887 1887 1887 1887 1936 1887 1887 1887 1989 1989 1989 2044 2044 1936 1989 1989 1989 2102 1936 1989 1936 1887 1936 1887 1887 1887 1839 0 1887 1839 1936 1887 1936 1936 1887 1887 1887 1887 1989 1839 2044 1989 2044 1936 1989 2044 1989 1989 2044 1752 1752 1635 1711 1672 1672 1672 1672 1672 1795 1711 1752 1711 1795 1887 1936 1887 1887 1839 1936 1936 1989 2102 2164 1989 1936 2230 1989 0 0 0 0 1752 1752 1752 1635 1635 1752 1711 1672 1635 1565 1471 1415 1415 0 1362 1338 1314 1247 1247 1268 1338 1291 1338 1291 1291 1291 1443 1415 4088 3345 3066 2725 3066 3066 0 0 0 0 103 103 0 968 968 955 943 943 994 931 968 0 1036 0 0 0 0 0 0 845 743 743 714 700 721 0 0 0 1443 1471 1501 1565 1565 1471 1533 1471 1471 1501 1443 1415 1388 1388 1471 1388 1443 1415 1415 1415 1471 1443 1415 1338 1314 1291 1291 1291 1291 1291 1291 1314 1314 1314 1314 1314 1314 1338 1226 1226 1168 1149 1168 1149 1149 1168 1149 1187 1168 0 0 0 0 0
    0 0 0 0 0 0 0 0 0 0 0 0 0 0 0 0 0 0 0 0 0 0 0 0 0 0 0 0 0 0 0 0 0 0 0 0 0 0 0 0 0 0 0 0 0 0 0 0 0 0 0 0 0 0 0 0 0 0 0 0 0 0 0 0 0 0 0 0 0 1887 1887 1936 1887 1989 1887 1887 1887 1936 1839 1887 1887 1839 1887 1936 1887 1936 1936 1989 1936 1936 1989 1936 1936 2044 1936 1989 1989 1989 1989 1936 1936 1887 1839 1887 1839 1839 1795 1839 1839 1887 1839 1839 1839 1887 1839 1887 1839 1887 1839 1839 1887 1887 1887 1887 1887 1887 1887 1936 1989 1989 1989 2044 1989 1989 1989 1989 2044 1936 1936 1887 1839 1887 1887 1839 1839 1839 0 1887 1839 1936 1936 1936 1936 1936 1936 1887 1887 2044 1839 2102 1989 2044 1989 1989 2044 1989 2044 2102 1752 1752 1672 1711 1672 1672 1672 1672 1672 1752 1711 1752 1711 1752 1839 1887 1887 1887 1839 1887 1936 1989 2044 2044 1936 1887 1989 1936 1672 1711 1711 0 1752 1752 1752 1672 1635 1752 1711 1672 1635 1533 1443 1388 1388 0 1338 1338 1314 1247 1247 1247 1338 1291 1291 1247 1247 1226 1268 1268 1247 0 0 1795 1752 1936 0 0 0 0 0 0 0 955 955 955 931 931 994 943 968 1008 981 931 0 994 968 955 955 855 791 782 766 735 766 750 0 114 0 1471 1501 1565 1565 1471 1565 1471 1471 1501 1443 1415 1415 1415 1471 1415 1443 1443 1415 1415 1471 1443 1415 1338 1314 1291 1314 1314 1314 1314 1314 1338 1338 1338 1338 1338 1338 1338 1226 1226 1132 1115 1149 1132 1132 1149 1132 1168 1149 0 0 0 0 0
    0 0 0 0 0 0 0 0 0 0 0 0 0 0 0 0 0 0 0 0 0 0 0 0 0 0 0 0 0 0 0 0 0 0 0 0 0 0 0 0 0 0 0 0 0 0 0 0 0 0 0 0 0 0 0 0 0 0 0 0 0 0 0 0 0 0 0 0 0 1936 1887 1936 1887 1936 1839 1839 1839 1887 1795 1839 1887 1839 1887 1887 1887 1936 1936 1936 1887 1887 1936 1887 1936 1989 1887 1936 1936 1936 1936 1887 1887 1839 1795 1839 1795 1795 1752 1795 1795 1795 1795 1839 1839 1839 1839 1887 1839 1887 1839 1839 1839 1839 1839 1887 1839 1887 1839 1936 1936 1936 1989 1989 1989 2044 1989 2044 2044 1936 1936 1887 1839 1887 1839 1839 1887 1839 0 1887 1839 1936 1887 1936 1936 1887 1936 1936 1887 1989 1839 2044 1989 1989 1989 1989 2044 1989 2044 2102 1711 1752 1672 1711 1635 1672 1672 1635 1672 1752 1711 1752 1711 1795 1839 1887 1887 1887 1887 1936 1936 1989 2044 1989 1936 1839 1887 1887 1635 1672 1672 1711 1752 1752 1752 1672 1635 1752 1711 1635 1599 1501 1443 1362 1388 1338 1338 1338 0 1268 1247 1247 1314 1291 1247 1226 1206 1187 1206 1206 1206 1226 1268 1362 1388 0 0 0 0 0 0 0 0 0 943 955 943 943 994 981 1008 1008 994 968 994 931 865 876 865 836 782 774 782 758 782 791 0 0 0 0 0 1599 1565 1501 1565 1501 1501 1501 1415 1415 1388 1415 1471 1415 1443 1443 1443 1443 1471 1471 1443 1362 1338 1314 1338 1314 1338 1338 1338 1362 1362 1362 1362 1362 1362 1338 1226 1226 1115 1115 1149 1132 1132 1149 1132 1168 1149 0 0 0 0 0
    0 0 0 0 0 0 0 0 0 0 0 0 0 0 0 0 0 0 0 0 0 0 0 0 0 0 0 0 0 0 0 0 0 0 0 0 0 0 0 0 0 0 0 0 0 0 0 0 0 0 0 0 0 0 0 0 0 0 0 0 0 0 0 0 0 0 0 0 0 1936 1936 1936 1887 1936 1795 1839 1839 1839 1795 1839 1887 1839 1887 1936 1887 1936 1887 1936 1887 1887 1936 1887 1887 1989 1887 1936 1936 1936 1936 1839 1839 1795 1795 1795 1752 1752 1711 1711 1752 1752 1752 1795 1795 1795 1795 1839 1839 1887 1795 1839 1839 1839 1839 1839 1795 1839 1795 1887 1887 1887 1936 1936 1936 1989 1989 2044 2044 1936 1936 1887 1839 1887 1839 1839 1839 1839 0 1839 1839 1887 1887 1887 1887 1887 1887 1936 1887 1936 1839 2044 1989 1989 1989 1989 2044 2044 2044 2102 1711 1711 1672 1711 1635 1672 1672 1635 1672 1752 1711 1752 1711 1795 1839 1887 1887 1887 1839 1887 1936 1989 1989 1936 1887 1795 1839 1839 1565 1672 1635 1672 1711 1711 1752 1635 1599 1711 1635 1599 1599 1501 1415 1362 1362 0 0 0 0 1247 1247 1226 1338 1314 1247 1226 1206 1168 1206 1206 1206 1187 1206 1291 1314 1187 1206 981 955 865 943 919 931 943 943 955 955 943 1008 994 1022 1008 981 931 931 876 836 836 826 826 791 774 791 766 799 808 0 0 0 0 0 1565 1565 1471 1533 1471 1471 1501 1415 1415 1388 1415 1501 1443 1471 1443 1443 1471 1471 1471 1415 1362 1362 1338 1362 1338 1362 1338 1362 1388 1388 1388 1388 1362 1362 1338 1206 1226 1115 1115 1132 1132 1132 1149 1132 1168 1149 0 0 0 0 0
    0 0 0 0 0 0 0 0 0 0 0 0 0 0 0 0 0 0 0 0 0 0 0 0 0 0 0 0 0 0 0 0 0 0 0 0 0 0 0 0 0 0 0 0 0 0 0 0 0 0 0 0 0 0 0 0 0 0 0 0 0 0 0 0 0 0 0 0 0 1936 1936 1936 1887 1936 1795 1839 1839 1839 1795 1839 1887 1839 1887 1936 1887 1887 1887 1887 1839 1839 1936 1839 1887 1887 1839 1887 1887 1887 1887 1795 1795 1752 1752 1752 1711 1752 1711 1711 1711 1752 1752 1752 1795 1795 1795 1795 1795 1839 1795 1795 1795 1795 1795 1795 1795 1795 1795 1839 1839 1839 1887 1887 1887 1936 1936 1989 1989 1887 1936 1887 1839 1887 1839 1839 1839 1839 0 1839 1795 1887 1887 1887 1839 1839 1887 1887 1839 1936 1839 1989 1989 1989 1989 1989 2044 2044 2102 2102 1711 1711 1672 1672 1635 1635 1635 1635 1635 1752 1711 1752 1752 1752 1795 1839 1887 1887 1839 1887 1887 1936 1989 1936 1839 1752 1795 1795 1565 1672 1635 1635 1711 1711 1752 1672 1599 1711 1635 1635 1565 1501 1415 1362 1362 0 0 0 0 1268 1247 1247 1362 1314 1247 1226 1206 1149 1187 1187 1187 1168 1187 1268 1247 1115 0 981 955 865 943 931 943 943 943 968 955 955 1008 994 1338 1338 0 0 0 943 855 845 836 836 808 791 799 782 808 817 0 0 0 0 0 0 1533 1443 1501 1471 1471 0 1388 1415 1388 1415 1471 1443 1443 1443 1443 1501 1471 1471 1415 1338 1362 1338 1362 1338 1362 1362 1362 1388 1388 1388 1388 1362 1362 1338 1206 1226 1098 1115 1132 1132 1132 1149 1132 1168 1149 0 0 0 0 0
    0 0 0 0 0 0 0 0 0 0 0 0 0 0 0 0 0 0 0 0 0 0 0 0 0 0 0 0 0 0 0 0 0 0 0 0 0 0 0 0 0 0 0 0 0 0 0 0 0 0 0 0 0 0 0 0 0 0 0 0 0 0 0 0 0 0 0 0 0 1936 1887 1887 1839 1887 1752 1795 1795 1795 1752 1839 1839 1839 1887 1887 1887 1887 1839 1887 1839 1795 1887 1795 1795 1839 1795 1839 1795 1839 1795 1752 1752 1711 1711 1711 1672 1711 1672 1711 1711 1711 1752 1752 1752 1752 1711 1752 1752 1752 1752 1752 1752 1752 1752 1752 1752 1752 1711 1795 1795 1795 1839 1839 1839 1887 1936 1936 1936 1887 1887 1839 1839 1839 1839 1839 1839 1795 1752 1795 1795 1839 1839 1839 1839 1795 1839 1887 1839 1887 1795 1989 1989 1989 1989 1989 2044 2044 2102 2044 1672 1711 1672 1672 1635 1635 1599 1599 1635 1752 1711 1752 1752 1752 1795 1839 1887 1839 1839 1839 1887 1936 1936 1887 1795 1711 1752 1795 1565 1635 1635 1635 1711 1711 1752 1672 1565 1711 1635 1599 1565 1501 1443 1362 1362 0 0 0 0 1268 1268 1247 1362 1314 1247 1226 1206 1149 1168 1168 1187 1149 1187 1268 1247 1098 0 981 968 876 955 931 943 943 955 968 968 968 0 0 1443 1471 1443 1415 1362 1362 1362 0 0 845 826 782 799 791 808 817 817 0 0 0 0 0 1471 1443 1443 1443 0 0 0 1388 1362 1415 1471 1443 1443 1443 1443 1501 1471 1501 1443 1362 1362 1338 1362 1338 1362 1362 1388 1388 1388 1388 1388 1362 1362 1338 1187 1226 1115 1132 1149 1132 1149 1168 1149 1187 1168 0 0 0 0 0
    0 0 0 0 0 0 0 0 0 0 0 0 0 0 0 0 0 0 0 0 0 0 0 0 0 0 0 0 0 0 0 0 0 0 0 0 0 0 0 0 0 0 0 0 0 0 0 0 0 0 0 0 0 0 0 0 0 0 0 0 0 0 0 0 0 0 0 0 0 1839 1839 1795 1795 1839 1711 1752 1752 1795 1752 1795 1839 1795 1839 1887 1839 1839 1839 1887 1795 1795 1839 1752 1795 1795 1795 1795 1752 1752 1752 1711 1711 1672 1711 1711 1672 1711 1672 1672 1711 1672 1711 1711 1711 1752 1711 1752 1711 1711 1711 1711 1711 1711 1672 1711 1672 1711 1711 1752 1752 1752 1795 1839 1839 1887 1936 1936 1936 1887 1887 1839 1839 1839 1839 1795 1839 1795 1711 1795 1795 1795 1795 1795 1795 1795 1795 1887 1795 1839 1795 1936 1989 1936 1989 1989 2044 2044 2044 1989 1672 1672 1672 1635 1635 1635 1599 1599 1635 1752 1711 1752 1752 1752 1795 1795 1839 1839 1795 1839 1839 1887 1887 1839 1795 1711 1711 1752 1599 1635 1635 1635 1711 1711 1711 1672 1533 1711 1635 1599 1533 1501 1443 1362 1362 1362 1338 1338 1314 1314 1291 1268 1362 1314 1206 1206 1187 1132 1149 1149 1168 1149 1168 1268 1226 1098 1051 981 981 897 968 943 955 955 955 981 968 981 0 0 1599 1565 1471 1443 1471 1415 1388 1314 968 876 836 782 808 0 808 808 817 0 808 0 0 0 1471 1415 1415 0 0 608 0 1362 1338 1362 1415 1443 1471 1471 1471 1533 1471 1565 1565 1415 1388 1338 1362 1338 1388 1362 1388 1388 1388 1388 1388 1362 1362 1314 1187 1226 1115 1149 1149 1149 1149 1168 1149 1187 1149 0 0 0 0 0
    0 0 0 0 0 0 0 0 0 0 0 0 0 0 0 0 0 0 0 0 0 0 0 0 0 0 0 0 0 0 0 0 0 0 0 0 0 0 0 0 0 0 0 0 0 0 0 0 0 0 0 0 0 0 0 0 0 0 0 0 0 0 0 0 0 0 0 0 0 1752 1752 1711 1711 1752 1672 1711 1752 1752 1711 1795 1839 1795 1839 1887 1839 1839 1795 1839 1795 1752 1795 1752 1752 1752 1752 1752 1711 1711 1711 1711 1711 1711 1711 1711 1672 1711 1672 1711 1711 1711 1711 1711 1752 1752 1711 1752 1711 1711 1711 1711 1711 1672 1672 1711 1672 1672 1672 1752 1752 1752 1795 1795 1839 1839 1887 1887 1887 1839 1839 1795 1795 1795 1795 1795 1795 1752 1711 1752 1752 1795 1795 1752 1795 1752 1752 1887 1795 1839 1795 1936 1936 1936 1936 1936 1989 2044 1989 1936 1672 1672 1672 1672 1635 1599 1599 1599 1672 1752 1711 1752 1752 1711 1795 1795 1839 1795 1795 1795 1795 1795 1839 1752 1752 1752 1711 1752 1599 1672 1635 1672 1711 1672 1711 1672 1501 1672 1599 1565 1501 1501 1443 1362 1362 0 0 0 1338 1338 1314 1291 1362 1338 1206 1206 1187 1132 1149 1149 1168 1149 1168 1268 1247 1115 1206 994 994 931 981 968 968 968 955 981 981 981 0 0 1711 1672 1565 1501 1533 1443 1388 0 0 876 826 766 799 0 799 799 808 808 791 791 808 750 0 0 694 681 675 639 639 651 0 0 0 0 1443 1471 1471 1501 1471 1599 1565 1443 1388 1314 1362 1338 1388 1362 1388 1388 1388 1415 1415 1362 1388 1338 1187 1226 1115 1149 1149 1149 1168 1168 1149 1206 1168 0 0 0 0 0
    0 0 0 0 0 0 0 0 0 0 0 0 0 0 0 0 0 0 0 0 0 0 0 0 0 0 0 0 0 0 0 0 0 0 0 0 0 0 0 0 0 0 0 0 0 0 0 0 0 0 0 0 0 0 0 0 0 0 0 0 0 0 0 0 0 0 0 0 0 1672 1672 1599 1672 1672 1635 1711 1711 1711 1711 1752 1795 1795 1795 1839 1795 1795 1752 1795 1752 1752 1711 1711 1672 1672 1672 1711 1672 1672 1672 1711 1672 1672 1711 1711 1672 1752 1711 1711 1711 1711 1752 1752 1752 1752 1672 1711 1672 1672 1672 1672 1711 1672 1672 1711 1672 1672 1672 1711 1711 1711 1752 1795 1795 1795 1887 1795 1839 1795 1795 1795 1795 1795 1795 1752 1795 1752 1672 1752 1752 1752 1752 1752 1752 1752 1711 1839 1752 1795 1795 1887 1887 1887 1887 1936 1936 2044 1989 1887 1711 1672 1672 1672 1635 1599 1599 1599 1672 1752 1711 1752 1752 1711 1752 1795 1795 1795 1795 1752 1752 1795 1795 1752 1752 1752 1711 1711 1635 1635 1635 1635 1672 1599 1672 1599 1471 1635 1565 1533 1471 1471 1415 1388 1388 0 0 0 1362 1388 1338 1314 1362 1338 1187 1206 1187 1132 1149 1149 1168 1149 1149 1268 1226 1149 1247 1008 1008 955 994 0 981 968 968 0 981 994 1008 0 1635 1672 1565 1533 1533 1443 1388 0 0 897 836 758 0 0 799 799 808 808 791 782 799 743 743 728 700 700 694 675 694 694 700 707 623 0 0 1388 1388 1443 1443 1565 1501 1415 1388 1314 1338 1314 1362 1362 1388 1388 1388 1415 1415 1362 1388 1314 1149 1206 1115 1168 1149 1168 1168 1187 1168 1206 1168 0 0 0 0 0
    0 0 0 0 0 0 0 0 0 0 0 0 0 0 0 0 0 0 0 0 0 0 0 0 0 0 0 0 0 0 0 0 0 0 0 0 0 0 0 0 0 0 0 0 0 0 0 0 0 0 0 0 0 0 0 0 0 0 0 0 0 0 0 0 0 0 0 0 0 1533 1533 1471 1565 1599 1565 1635 1672 1672 1672 1711 1752 1752 1752 1795 1795 1752 1752 1795 1711 1711 1672 1672 1635 1635 1635 1635 1599 1635 1635 1672 1635 1672 1672 1672 1672 1711 1672 1711 1711 1711 1711 1711 1711 1711 1672 1711 1672 1635 1672 1635 1672 1672 1635 1672 1635 1635 1635 1672 1672 1672 1711 1752 1711 1752 1839 1752 1795 1795 1795 1752 1752 1752 1752 1711 1795 1711 1635 1711 1711 1711 1711 1711 1711 1711 1672 1795 1711 1752 1752 1839 1839 1839 1839 1887 1887 1989 1936 1839 1672 1672 1672 1635 1635 1635 1599 1599 1672 1711 1711 1752 1752 1711 1752 1795 1795 1752 1752 1752 1752 1752 1752 1711 1711 1711 1672 1672 1599 1599 1565 1565 1635 1533 1635 1565 1471 1635 1533 1533 1471 1471 1443 1388 1388 1388 1362 0 1362 1388 1338 1338 1338 1314 1168 1206 1187 1132 1149 1149 1168 1149 1149 1268 1226 1168 1268 1022 1008 994 0 0 994 981 968 0 994 1008 0 1533 1635 1672 1599 1565 1565 1443 1362 0 0 886 836 0 0 169 0 799 808 808 782 774 799 728 728 728 707 700 694 687 707 707 721 721 694 629 0 0 1338 1362 1362 1471 1443 1388 1362 1291 1338 1314 1362 1362 1362 1388 1388 1415 1415 1362 1388 1314 1132 1206 1132 1168 1168 1168 1187 1187 1168 1226 1187 0 0 0 0 0
    0 0 0 0 0 0 0 0 0 0 0 0 0 0 0 0 0 0 0 0 0 0 0 0 0 0 0 0 0 0 0 0 0 0 0 0 0 0 0 0 0 0 0 0 0 0 0 0 0 0 0 0 0 0 0 0 0 0 0 0 0 0 0 0 0 0 0 0 0 1443 1443 1415 1501 1565 1533 1599 1672 1635 1635 1672 1711 1672 1672 1752 1711 1672 1752 1752 1635 1672 1599 1565 1565 1565 1565 1565 1565 1599 1565 1635 1635 1635 1635 1635 1635 1672 1635 1672 1672 1672 1672 1672 1672 1672 1635 1672 1635 1599 1635 1599 1635 1599 1565 1599 1565 1565 1599 1599 1635 1635 1672 1672 1672 1711 1752 1672 1752 1752 1752 1752 1752 1752 1752 1711 1752 1672 1599 1672 1672 1672 1672 1672 1672 1672 1635 1711 1672 1672 1711 1752 1795 1795 1795 1839 1839 1887 1839 1795 1672 1635 1672 1635 1635 1599 1599 1599 1672 1711 1672 1711 1711 1711 1711 1752 1752 1711 1672 1672 1672 1672 1711 1672 1672 1672 1635 1635 1565 1565 1533 1501 1533 1443 1565 1501 1443 1599 1501 1501 1471 1471 1415 1388 1415 1388 1362 1388 1362 1388 1362 1338 1314 1314 1149 1206 1168 1132 1149 1149 1168 1149 1149 1291 1247 1187 1291 1066 1022 1036 1022 0 0 994 981 0 0 0 0 1533 1599 1672 1635 1565 1599 1443 1338 0 0 0 0 0 0 169 0 0 799 799 774 758 791 721 721 721 707 700 694 694 707 707 728 721 707 657 663 675 0 0 0 0 1291 1247 1338 1247 1268 1268 1338 1338 1362 1362 1388 1415 1415 1362 1388 1314 1168 1226 1149 1187 1168 1187 1187 1206 1187 1226 1206 0 0 0 0 0
    0 0 0 0 0 0 0 0 0 0 0 0 0 0 0 0 0 0 0 0 0 0 0 0 0 0 0 0 0 0 0 0 0 0 0 0 0 0 0 0 0 0 0 0 0 0 0 0 0 0 0 0 0 0 0 0 0 0 0 0 0 0 0 0 0 0 0 0 0 1415 1415 1388 1471 1533 1471 1565 1635 1599 1599 1635 1635 1599 1599 1635 1635 1565 1672 1711 1501 1599 1471 1471 1501 1501 1501 1501 1533 1533 1533 1599 1599 1565 1565 1599 1565 1565 1565 1599 1599 1599 1565 1565 1565 1599 1599 1599 1565 1533 1565 1533 1533 1533 1501 1533 1501 1501 1565 1565 1565 1599 1599 1635 1599 1599 1672 1599 1672 1711 1711 1711 1711 1752 1711 1672 1711 1635 1533 1599 1599 1599 1599 1599 1635 1599 1565 1635 1635 1635 1672 1711 1711 1711 1711 1752 1795 1795 1752 1672 1635 1599 1635 1599 1599 1599 1565 1565 1672 1635 1635 1672 1672 1672 1672 1672 1635 1599 1599 1599 1599 1599 1635 1599 1635 1635 1599 1599 1533 1533 1501 1443 1443 1388 1533 1471 1415 1533 1501 1501 1443 1471 1415 1415 1415 1388 1388 1388 1362 1388 1362 1362 1291 1291 1149 1206 1168 1132 1149 1149 1168 1149 1149 1291 1247 1187 1247 1066 1022 1051 1036 0 0 0 0 0 0 0 0 1533 1565 1635 1599 1501 1565 1415 1314 0 0 808 808 735 0 169 0 782 791 799 766 743 774 714 714 721 707 700 700 700 721 721 735 728 714 700 700 694 687 707 700 700 0 0 0 1082 981 1206 1314 1338 1338 1338 1362 1388 1415 1362 1362 1314 1187 1226 1168 1206 1187 1206 1206 1206 1206 1226 1226 0 0 0 0 0
    0 0 0 0 0 0 0 0 0 0 0 0 0 0 0 0 0 0 0 0 0 0 0 0 0 0 0 0 0 0 0 0 0 0 0 0 0 0 0 0 0 0 0 0 0 0 0 0 0 0 0 0 0 0 0 0 0 0 0 0 0 0 0 0 0 0 0 0 0 1388 1388 1362 1443 1471 1443 1501 1599 1533 1533 1565 1565 1533 1533 1565 1565 1471 1635 1635 1415 1501 1415 1415 1443 1443 1471 1443 1471 1501 1501 1565 1599 1533 1533 1565 1501 1533 1533 1501 1533 1533 1471 1471 1471 1565 1533 1565 1533 1501 1501 1501 1471 1501 1443 1501 1471 1471 1565 1533 1533 1599 1599 1599 1565 1533 1599 1471 1533 1635 1635 1635 1672 1672 1672 1599 1635 1565 1471 1533 1501 1533 1501 1565 1565 1533 1533 1565 1565 1565 1599 1599 1599 1635 1635 1672 1672 1672 1672 1565 1599 1565 1565 1565 1533 1533 1501 1533 1599 1565 1565 1565 1599 1599 1599 1635 1565 1533 1533 1533 1533 1565 1565 1565 1599 1599 1533 1533 1533 1471 1443 1415 1388 1362 1471 1443 1415 1501 1501 1471 1443 1443 1415 1415 1443 1415 1388 1388 1388 1415 1362 1388 1291 1291 1149 1206 1168 1149 1149 1149 1168 1149 1149 1291 1226 1168 1115 1036 1008 1036 1036 0 0 0 0 0 0 1226 0 1533 1565 1599 1599 1443 1471 1362 1268 0 0 808 808 735 782 0 774 774 782 791 750 735 758 707 714 721 707 700 700 707 735 743 758 743 728 721 714 707 700 714 700 700 700 694 700 0 766 700 681 0 1291 1314 1314 1338 1362 1338 1338 1314 1187 1226 1168 1206 1187 1206 1206 1226 1206 1247 1226 0 0 0 0 0
    0 0 0 0 0 0 0 0 0 0 0 0 0 0 0 0 0 0 0 0 0 0 0 0 0 0 0 0 0 0 0 0 0 0 0 0 0 0 0 0 0 0 0 0 0 0 0 0 0 0 0 0 0 0 0 0 0 0 0 0 0 0 0 0 0 0 0 0 0 1388 1362 1362 1415 1415 1388 1443 1501 1471 1471 1501 1501 1471 1501 1533 1501 1443 1565 1501 1338 1388 1362 1388 1415 1415 1415 1415 1443 1471 1471 1533 1533 1471 1471 1533 1471 1471 1471 1471 1471 1471 1443 1443 1443 1501 1501 1533 1533 1471 1501 1501 1471 1501 1443 1471 1443 1443 1565 1533 1533 1599 1565 1565 1501 1471 1533 1415 1471 1565 1533 1565 1599 1635 1635 1565 1599 1471 1443 1471 1443 1471 1443 1501 1501 1471 1471 1501 1501 1471 1501 1501 1533 1565 1565 1599 1599 1565 1599 1471 1565 1501 1471 1471 1443 1471 1443 1471 1533 1443 1471 1501 1533 1565 1565 1565 1471 1501 1501 1471 1501 1533 1533 1533 1533 1599 1471 1501 1471 1415 1415 1388 1388 1362 1443 1443 1415 1471 1471 1443 1443 1443 1388 1415 1443 1415 1388 1388 1388 1415 1388 1362 1291 1268 1132 1187 1168 1149 1149 1149 1187 1149 1149 1268 1206 1168 1051 1022 981 1036 1022 0 0 0 0 0 0 1168 1008 0 1501 1533 1533 1415 1443 1362 1206 0 0 799 808 735 782 782 766 766 774 782 743 728 735 700 707 714 700 700 700 707 750 758 774 758 743 728 721 714 700 721 700 700 700 687 681 681 687 681 651 629 603 0 0 1314 1338 1314 1314 1291 1187 1206 1187 1206 1187 1206 1226 1226 1226 1247 1247 0 0 0 0 0
    0 0 0 0 0 0 0 0 0 0 0 0 0 0 0 0 0 0 0 0 0 0 0 0 0 0 0 0 0 0 0 0 0 0 0 0 0 0 0 0 0 0 0 0 0 0 0 0 0 0 0 0 0 0 0 0 0 0 0 0 0 0 0 0 0 0 0 0 0 1362 1338 1338 1362 1362 1362 1388 1415 1388 1415 1471 1443 1443 1443 1471 1471 1415 1501 1362 1291 1338 1338 1362 1388 1388 1388 1388 1415 1443 1443 1471 1443 1388 1388 1415 1415 1415 1415 1415 1415 1443 1415 1415 1415 1471 1471 1501 1501 1443 1471 1471 1415 1471 1415 1443 1443 1443 1533 1471 1471 1565 1501 1533 1471 1443 1471 1415 1471 1501 1471 1501 1565 1565 1565 1471 1471 1388 1388 1415 1415 1443 1415 1443 1443 1443 1443 1471 1471 1443 1471 1471 1471 1501 1533 1533 1533 1533 1565 1471 1565 1471 1443 1443 1443 1443 1415 1443 1501 1415 1443 1443 1471 1533 1533 1533 1443 1443 1471 1471 1471 1471 1501 1501 1533 1565 1443 1471 1443 1388 1415 1388 1388 1362 1388 1415 1388 1415 1471 1443 1415 1415 1388 1415 1443 1415 1388 1388 1388 1415 1362 1338 1247 1226 1098 1168 1149 1132 1132 1149 1187 1149 1149 1268 1206 1187 1066 1022 968 1022 0 0 0 0 0 0 0 1132 1008 0 1388 1388 1415 1338 1388 1314 1098 0 0 799 808 735 782 782 758 766 766 774 735 721 728 700 0 0 700 694 0 700 758 766 791 774 743 728 714 707 700 707 694 694 694 687 681 675 669 657 639 623 608 603 588 557 0 1291 1291 1268 1149 1187 1168 1206 1187 1206 1226 1226 1226 1247 1247 0 0 0 0 0
    0 0 0 0 0 0 0 0 0 0 0 0 0 0 0 0 0 0 0 0 0 0 0 0 0 0 0 0 0 0 0 0 0 0 0 0 0 0 0 0 0 0 0 0 0 0 0 0 0 0 0 0 0 0 0 0 0 0 0 0 0 0 0 0 0 0 0 0 0 1338 1314 1314 1314 1338 1314 1338 1362 1362 1388 1443 1415 1443 1415 1443 1415 1388 1415 1338 1268 1314 1314 1338 1362 1388 1388 1362 1388 1415 1415 1415 1388 1314 1314 1362 1362 1362 1362 1362 1362 1388 1415 1388 1388 1443 1471 1443 1471 1415 1443 1443 1388 1415 1388 1415 1415 1415 1471 1443 1443 1533 1443 1471 1415 1415 1415 1388 1415 1443 1415 1415 1443 1415 1415 1362 1362 1338 1338 1362 1362 1388 1388 1415 1388 1388 1415 1415 1415 1388 1415 1415 1415 1443 1471 1443 1443 1443 1471 1415 1533 1443 1415 1388 1388 1388 1388 1388 1443 1388 1388 1388 1415 1443 1471 1471 1388 1388 1415 1415 1443 1443 1443 1443 1471 1501 1415 1443 1415 1362 1388 1362 1362 1338 1362 1388 1362 1388 1443 1415 1415 1388 1362 1388 1415 1388 1388 1388 1362 1388 1362 1291 1226 1206 1082 1168 1132 1132 1132 1132 1187 1149 1149 1268 1187 1187 1036 1008 943 0 0 981 0 0 981 0 0 1132 1008 0 1362 1388 1415 1388 1415 1314 1082 0 0 808 808 735 782 782 758 758 758 766 735 714 721 694 0 0 0 0 0 700 774 774 799 791 766 743 728 714 707 714 700 700 694 694 681 681 663 651 634 623 608 603 593 570 579 570 0 0 0 1168 1168 1206 1187 1226 1226 1226 1226 1247 1268 0 0 0 0 0
    0 0 0 0 0 0 0 0 0 0 0 0 0 0 0 0 0 0 0 0 0 0 0 0 0 0 0 0 0 0 0 0 0 0 0 0 0 0 0 0 0 0 0 0 0 0 0 0 0 0 0 0 0 0 0 0 0 0 0 0 0 0 0 0 0 0 0 0 0 1291 1268 1268 1268 1291 1268 1314 1338 1338 1362 1415 1388 1415 1415 1415 1388 1362 1362 1314 1268 1314 1314 1314 1338 1338 1362 1338 1362 1362 1362 1362 1362 1268 1291 1314 1314 1314 1338 1338 1338 1362 1362 1388 1362 1388 1415 1388 1415 1388 1388 1388 1338 1388 1362 1388 1388 1388 1443 1415 1415 1501 1415 1415 1388 1388 1388 1362 1388 1362 1362 1338 1314 1314 1314 1291 1291 1268 1314 1314 1314 1338 1338 1362 1362 1362 1388 1362 1388 1362 1362 1362 1388 1388 1388 1388 1388 1388 1388 1362 1415 1362 1338 1338 1314 1291 1314 1314 1362 1314 1314 1338 1338 1388 1415 1388 1362 1362 1388 1388 1388 1415 1415 1415 1443 1443 1388 1415 1388 1338 1362 1338 1338 1314 1338 1362 1338 1362 1415 1388 1388 1362 1362 1388 1415 1388 1362 1362 1338 1362 1338 1268 1226 1206 1082 1168 1132 1132 1132 1149 1187 1149 1149 1268 1168 1168 981 994 897 0 0 955 968 968 968 0 0 1168 0 1443 1362 1388 1415 1415 1388 1314 1098 897 774 808 808 735 782 774 758 758 758 758 728 714 721 694 0 0 0 0 0 700 791 791 0 817 782 750 728 721 714 707 700 700 694 687 675 675 657 639 623 618 608 603 588 574 574 566 561 545 545 0 1149 1187 1187 1206 1226 1226 1247 1268 1291 0 0 0 0 0
    0 0 0 0 0 0 0 0 0 0 0 0 0 0 0 0 0 0 0 0 0 0 0 0 0 0 0 0 0 0 0 0 0 0 0 0 0 0 0 0 0 0 0 0 0 0 0 0 0 0 0 0 0 0 0 0 0 0 0 0 0 0 0 0 0 0 0 0 0 1247 1168 1226 1206 1247 1268 1291 1314 1314 1338 1362 1362 1388 1362 1388 1362 1338 1314 1291 1268 1314 1314 1291 1338 1314 1338 1338 1338 1338 1314 1314 1314 1247 1268 1291 1314 1314 1314 1314 1314 1338 1362 1362 1362 1388 1388 1362 1362 1338 1362 1362 1314 1362 1338 1362 1362 1362 1388 1362 1388 1471 1388 1388 1338 1338 1338 1338 1338 1314 1291 1291 1268 1247 1226 1206 1226 1206 1268 1268 1291 1314 1314 1314 1314 1314 1338 1338 1362 1338 1338 1338 1362 1338 1362 1338 1338 1338 1338 1314 1338 1291 1291 1268 1247 1226 1268 1268 1291 1291 1291 1291 1314 1338 1362 1338 1338 1314 1362 1362 1362 1388 1388 1388 1415 1415 1388 1388 1362 1338 1338 1314 1314 1314 1314 1314 1314 1314 1362 1362 1362 1362 1362 1388 1388 1362 1338 1338 1314 1338 1314 1206 1206 1187 1082 1168 1132 1132 1132 1149 1187 1149 1168 1268 1168 1149 931 968 876 0 0 943 955 955 968 0 0 0 0 1443 1362 1362 1415 1415 1388 1291 1098 919 791 817 808 735 774 766 750 758 750 758 728 714 721 694 0 0 0 0 0 700 791 791 0 876 808 774 735 721 707 707 694 694 681 681 675 675 651 639 623 618 608 603 588 579 570 566 561 553 549 553 545 0 1168 1206 1226 1226 1247 1247 1314 0 0 0 0 0
    0 0 0 0 0 0 0 0 0 0 0 0 0 0 0 0 0 0 0 0 0 0 0 0 0 0 0 0 0 0 0 0 0 0 0 0 0 0 0 0 0 0 0 0 0 0 0 0 0 0 0 0 0 0 0 0 0 0 0 0 0 0 0 0 0 0 0 0 0 1168 1036 1098 1115 1187 1226 1247 1268 1291 1291 1314 1314 1338 1338 1314 1291 1268 1247 1268 1247 1268 1268 1247 1314 1291 1314 1314 1314 1314 1291 1291 1291 1226 1268 1291 1314 1314 1314 1314 1314 1338 1362 1362 1338 1362 1362 1338 1338 1338 1338 1338 1291 1338 1314 1338 1338 1338 1362 1338 1362 1415 1338 1362 1314 1338 1338 1314 1314 1291 1268 1268 1247 1226 1187 1168 1206 1187 1247 1247 1268 1291 1291 1291 1291 1291 1314 1314 1314 1314 1314 1314 1338 1314 1338 1314 1338 1314 1314 1291 1314 1268 1268 1247 1226 1206 1226 1226 1247 1247 1247 1268 1268 1291 1338 1314 1314 1314 1338 1338 1338 1362 1362 1362 1362 1388 1362 1362 1362 1338 1314 1314 1314 1314 1314 1314 1291 1291 1314 1314 1314 1314 1291 1314 1314 1291 1291 1268 1268 1268 1268 1115 1168 1132 1066 1149 1115 1132 1132 1149 1187 1149 1149 1268 1149 1115 919 943 865 943 955 919 931 943 955 0 0 0 0 0 1314 1314 1338 1388 1362 1268 1082 943 799 817 799 735 774 758 750 750 743 743 721 707 714 694 0 0 0 0 0 0 791 0 1098 1036 886 0 0 758 743 728 700 707 687 687 675 669 645 629 618 608 603 598 584 579 570 570 566 557 557 557 549 545 0 0 1226 1206 1226 1226 1291 0 0 0 0 0
    0 0 0 0 0 0 0 0 0 0 0 0 0 0 0 0 0 0 0 0 0 0 0 0 0 0 0 0 0 0 0 0 0 0 0 0 0 0 0 0 0 0 0 0 0 0 0 0 0 0 0 0 0 0 0 0 0 0 0 0 0 0 0 0 0 0 0 0 0 1051 1008 1022 1051 1098 1187 1206 1226 1247 1226 1268 1247 1268 1268 1206 1168 1132 1082 1187 1187 1206 1226 1187 1268 1247 1268 1268 1268 1268 1247 1226 1268 1187 1247 1268 1268 1268 1291 1291 1291 1314 1338 1338 1314 1338 1314 1314 1338 1338 1314 1338 1268 1338 1314 1314 1338 1314 1314 1314 1338 1388 1314 1338 1314 1314 1314 1314 1314 1268 1268 1247 1226 1206 1132 1132 1149 1132 1226 1226 1247 1268 1291 1291 1291 1291 1314 1314 1314 1291 1314 1291 1314 1314 1314 1314 1314 1314 1314 1291 1291 1268 1247 1226 1206 1168 1206 1206 1226 1226 1226 1247 1226 1268 1291 1268 1291 1268 1314 1314 1314 1362 1338 1362 1362 1362 1338 1362 1362 1314 1314 1291 1314 1314 1291 1291 1268 1268 1291 1291 1291 1291 1247 1247 1268 1268 1247 1206 1206 1187 1149 1066 1115 1082 1051 1115 1098 1132 1132 1132 1187 1132 1132 1247 1082 1051 919 931 865 931 943 919 919 931 943 955 943 1008 0 0 1226 1206 1206 1314 1314 1226 1066 955 836 836 808 728 774 758 743 743 735 743 714 707 721 700 0 0 0 0 0 0 791 0 1066 1036 1022 0 0 865 836 799 721 714 687 687 675 663 639 623 618 613 608 603 593 584 584 579 579 566 566 561 549 545 537 533 533 521 0 0 1206 0 0 0 0 0
    0 0 0 0 0 0 0 0 0 0 0 0 0 0 0 0 0 0 0 0 0 0 0 0 0 0 0 0 0 0 0 0 0 0 0 0 0 0 0 0 0 0 0 0 0 0 0 0 0 0 0 0 0 0 0 0 0 0 0 0 0 0 0 0 0 0 0 0 0 1008 981 994 1022 1051 1132 1149 1168 1168 1132 1187 1149 1149 1132 1036 1036 1036 1008 1082 1149 1149 1187 1149 1226 1206 1226 1226 1226 1206 1187 1187 1226 1168 1226 1226 1247 1226 1268 1247 1247 1268 1291 1314 1314 1314 1291 1268 1314 1314 1291 1291 1247 1314 1291 1291 1291 1268 1268 1268 1314 1338 1247 1291 1291 1291 1314 1291 1291 1247 1226 1206 1187 1149 1082 1082 1066 1066 0 1149 1206 0 1268 1268 1268 1268 1314 1291 1291 1268 1268 1247 1291 1268 1268 1268 1268 1268 1291 1268 1291 1226 1226 1206 1187 1149 1168 1168 1187 1187 1187 1206 1187 1226 1247 1206 1226 1206 1268 1268 1291 1338 1314 1338 1338 1362 1338 1338 1338 1314 1291 1291 1291 1291 1291 1291 1268 1268 1268 1291 1268 1268 1247 1206 1226 1206 1168 1149 1115 1082 1066 1036 1082 1066 1036 1115 1098 1132 1132 1132 1187 1132 1115 1226 1051 1008 908 919 865 919 919 908 908 919 931 943 931 994 943 955 1098 1066 1066 1082 1187 1098 1036 943 865 855 808 735 774 750 743 735 735 735 714 714 721 700 0 0 0 714 714 766 791 0 1098 1051 1036 0 0 955 0 886 836 782 714 707 681 675 639 618 613 608 608 608 593 593 588 588 588 574 574 570 553 541 533 533 533 525 525 525 518 0 0 0 0 0
    0 0 0 0 0 0 0 0 0 0 0 0 0 0 0 0 0 0 0 0 0 0 0 0 0 0 0 0 0 0 0 0 0 0 0 0 0 0 0 0 0 0 0 0 0 0 0 0 0 0 0 0 0 0 0 0 0 0 0 0 0 0 0 0 0 0 0 0 0 994 981 994 1008 1036 1082 1082 1098 1098 1066 1082 1051 1036 1008 994 994 994 994 1022 1098 1115 1132 1098 1149 1132 1149 1168 1168 1098 1098 1098 1168 1132 1187 1187 1206 1168 1187 1168 1168 1187 1206 1168 1206 1187 1226 1226 1247 1291 1206 1247 1187 1247 1226 1187 1168 1132 1066 1082 1098 1206 1098 1149 1226 1247 1268 1268 1268 1206 1187 1132 1098 1082 1036 1022 1022 0 0 1066 0 0 0 0 1226 1247 1268 1226 1247 1226 1187 1149 1226 1187 1168 1187 1187 1187 1226 1206 1226 1149 1149 1168 1132 1098 1132 1132 1149 1132 1149 1168 1115 1149 1187 1115 1115 1082 1115 1168 1187 1291 1291 1314 1314 1338 1314 1314 1314 1291 1247 1247 1247 1268 1268 1247 1247 1226 1247 1268 1247 1247 1206 1149 1187 1168 1115 1082 1066 1036 1022 1008 1036 1022 1022 1082 1082 1115 1115 1115 1168 1098 1098 1187 1022 981 919 908 865 919 919 908 908 908 931 943 931 994 931 955 1051 1022 1022 1008 1008 1022 1022 931 876 855 808 735 766 743 735 735 735 735 714 714 728 707 721 0 714 721 721 766 774 0 1036 1036 994 994 968 919 968 908 876 855 836 817 0 728 675 613 608 608 608 603 598 593 588 588 584 574 570 566 553 545 545 549 541 541 541 537 533 0 0 0 0 0
    0 0 0 0 0 0 0 0 0 0 0 0 0 0 0 0 0 0 0 0 0 0 0 0 0 0 0 0 0 0 0 0 0 0 0 0 0 0 0 0 0 0 0 0 0 0 0 0 0 0 0 0 0 0 0 0 0 0 0 0 0 0 0 0 0 0 0 0 0 994 981 981 994 1022 1051 1051 1051 1051 1022 1036 1008 1008 994 981 968 968 968 994 1036 1051 1082 1051 1098 1082 1098 1132 1098 1066 1066 1082 1149 1115 1187 1149 1168 1098 1115 1098 1082 1066 1082 1022 1036 1036 1098 1149 1149 1247 1168 1168 1115 1149 1132 1051 1036 1036 1008 1008 1008 1022 1008 1008 1098 1115 1168 1168 1206 1115 1082 1066 1051 1036 1008 994 994 994 0 0 0 0 0 0 0 0 1187 1115 1149 1132 1082 1051 1132 1098 1066 0 0 1082 1082 1082 1149 1066 1066 1115 1082 1066 1098 1082 1115 1098 0 1115 1066 0 1115 1051 1051 1022 1022 1051 1066 1206 1226 1268 1291 1314 1291 1291 1314 1291 1206 1206 1206 1206 1226 1206 1187 1168 1187 1206 1168 1168 1132 1082 1132 1098 1066 1036 1022 1008 1008 994 1008 994 994 1051 1051 1082 1098 1098 1149 1082 1066 1149 1008 968 919 908 876 908 919 908 897 897 931 931 919 981 897 931 994 994 981 968 981 994 994 919 865 845 799 735 766 743 728 728 728 735 707 714 735 714 728 728 728 728 728 774 750 791 886 981 943 931 931 919 955 919 897 897 865 886 865 826 758 694 669 629 623 613 603 598 588 588 588 574 574 570 557 549 545 545 541 541 537 533 533 0 0 0 0 0
    0 0 0 0 0 0 0 0 0 0 0 0 0 0 0 0 0 0 0 0 0 0 0 0 0 0 0 0 0 0 0 0 0 0 0 0 0 0 0 0 0 0 0 0 0 0 0 0 0 0 0 0 0 0 0 0 0 0 0 0 0 0 0 0 0 0 0 0 0 981 968 981 981 1008 1022 1022 1022 1022 1008 1008 994 981 981 981 955 955 968 981 994 1008 1036 1022 1051 1051 1066 1098 1082 1051 1051 1066 1168 1098 1168 1132 1132 1082 1066 1066 1051 1036 1036 1008 1008 1008 1051 1098 1082 1226 1132 1132 1098 1082 1066 1022 1008 1008 981 981 981 994 994 994 1022 1036 1051 1066 1115 1066 1051 1036 1036 1036 1008 981 981 981 0 994 994 1008 0 1051 1066 1132 1082 1051 1082 1082 1036 1022 1066 1066 1022 0 0 1022 1022 1022 1066 1022 1022 1066 1051 1036 1066 1066 1082 0 0 0 1051 0 1066 1036 1022 1008 994 1022 1022 1066 1132 1187 1247 1291 1268 1247 1268 1247 1132 1149 1132 1115 1149 1132 1132 1115 1132 1149 1098 1098 1082 1051 1082 1066 1036 1008 994 994 981 968 981 981 968 1008 1036 1051 1066 1082 1132 1066 1051 1066 994 943 908 908 876 908 908 908 908 908 931 919 908 968 865 876 897 955 943 931 955 968 968 908 865 845 799 735 758 735 728 728 728 728 707 721 735 721 735 728 728 728 728 774 743 782 855 943 931 931 931 919 955 931 919 919 876 897 876 865 855 817 707 663 639 623 608 603 593 593 579 570 570 566 553 545 541 541 537 537 537 537 533 0 0 0 0 0
    0 0 0 0 0 0 0 0 0 0 0 0 0 0 0 0 0 0 0 0 0 0 0 0 0 0 0 0 0 0 0 0 0 0 0 0 0 0 0 0 0 0 0 0 0 0 0 0 0 0 0 0 0 0 0 0 0 0 0 0 0 0 0 0 0 0 0 0 0 968 955 955 968 994 994 1008 1008 1008 981 994 981 981 968 968 955 955 955 968 981 994 1008 994 1022 1022 1036 1051 1051 1036 1036 1036 1132 1082 1132 1066 1066 1036 1036 1036 1036 1008 1008 994 1008 1008 1008 1051 1036 1206 1115 1115 1082 1036 1036 981 981 994 968 968 968 968 981 981 1008 1008 1008 1036 1066 1036 1036 1022 1022 1022 994 981 981 981 0 994 994 994 994 1008 0 1051 1008 1008 1022 1036 1008 1008 1036 1036 994 0 0 1008 994 1008 1036 1008 1008 1051 1036 1022 1036 1036 1051 0 0 0 1022 0 1036 1008 1008 994 981 1008 1008 0 1082 1082 1206 1247 1247 1206 1206 1206 1082 1098 1066 1066 1082 1082 1082 1082 1082 1082 1036 1066 1051 1036 1066 1036 1022 981 981 981 968 955 968 955 943 981 1008 1022 1036 1051 1082 1036 1008 1008 968 919 908 908 886 919 919 919 919 908 943 919 897 955 865 876 876 931 931 919 943 955 955 908 865 845 799 0 743 728 728 721 721 728 700 721 743 721 735 735 735 735 735 774 735 774 845 908 908 908 897 908 931 931 919 931 886 897 876 876 876 0 0 687 663 629 608 603 588 593 574 566 566 557 549 545 537 537 533 533 533 529 529 0 0 0 0 0
    0 0 0 0 0 0 0 0 0 0 0 0 0 0 0 0 0 0 0 0 0 0 0 0 0 0 0 0 0 0 0 0 0 0 0 0 0 0 0 0 0 0 0 0 0 0 0 0 0 0 0 0 0 0 0 0 0 0 0 0 0 0 0 0 0 0 0 0 0 955 943 943 955 968 968 981 981 981 955 968 968 955 955 955 943 943 943 968 968 981 994 981 1008 1008 1008 1008 1022 1008 1008 994 1051 1022 1051 1008 1022 1008 1008 1008 1008 994 994 981 994 994 994 1008 981 1098 1051 1051 1036 994 1008 943 968 981 968 968 968 968 968 968 994 994 1008 1008 1036 1008 1008 1008 0 994 968 955 968 968 968 981 981 981 981 994 994 1008 994 981 994 1008 994 994 1008 1008 981 0 994 981 981 981 994 981 981 1022 1022 981 1008 1008 0 0 0 0 994 981 1008 981 994 981 981 994 994 994 1051 1022 1132 1187 1206 1168 1132 1168 1051 1082 1036 1036 1051 1036 1051 1036 1036 1051 1008 0 1022 1022 1036 1022 1022 955 968 968 943 943 943 943 919 943 981 994 994 1022 1036 1008 968 981 955 897 908 908 886 919 919 919 919 908 943 919 897 943 876 876 865 908 908 897 919 931 943 897 855 845 791 0 743 721 728 721 721 721 700 721 743 721 735 735 735 735 735 774 728 766 826 876 876 876 865 876 897 897 897 908 886 886 886 886 876 845 817 735 0 681 663 618 598 598 579 570 561 553 545 537 533 529 529 525 525 521 525 0 0 0 0 0
    0 0 0 0 0 0 0 0 0 0 0 0 0 0 0 0 0 0 0 0 0 0 0 0 0 0 0 0 0 0 0 0 0 0 0 0 0 0 0 0 0 0 0 0 0 0 0 0 0 0 0 0 0 0 0 0 0 0 0 0 0 0 0 0 0 0 0 0 0 955 931 931 931 955 943 955 968 955 931 955 943 943 931 955 931 931 943 955 955 968 994 981 994 994 994 994 994 968 968 955 994 955 968 968 981 981 994 994 994 981 981 981 981 981 981 981 955 994 981 981 968 919 955 908 955 955 955 955 955 955 955 955 981 968 968 981 981 943 955 955 955 968 943 931 943 955 955 955 955 968 955 968 968 981 968 955 968 981 955 968 981 994 943 968 981 968 955 968 968 968 955 994 968 943 968 981 968 968 968 968 981 955 994 968 981 968 981 981 981 994 1008 1008 1066 1098 1132 1115 1082 1066 1022 1051 994 1008 1008 1008 1008 1008 1008 1008 994 0 994 1008 1022 1008 1008 931 955 955 931 931 931 919 908 919 968 943 943 981 981 955 931 955 931 886 897 897 886 908 908 919 908 908 931 919 897 931 886 876 865 897 886 886 897 919 919 886 855 836 791 735 743 721 721 721 714 721 700 721 735 721 735 728 735 735 735 774 721 750 817 845 855 855 855 865 876 876 876 897 886 886 886 876 876 845 817 774 721 0 707 639 0 613 588 574 570 553 541 533 529 521 525 525 521 518 521 0 0 0 0 0
    0 0 0 0 0 0 0 0 0 0 0 0 0 0 0 0 0 0 0 0 0 0 0 0 0 0 0 0 0 0 0 0 0 0 0 0 0 0 0 0 0 0 0 0 0 0 0 0 0 0 0 0 0 0 0 0 0 0 0 0 0 0 0 0 0 0 0 0 0 955 931 919 919 943 931 943 943 931 908 943 943 931 919 943 919 919 931 955 943 955 981 968 994 981 968 968 968 919 919 919 943 908 931 931 943 955 968 981 968 968 968 968 968 955 968 968 955 981 955 955 908 886 919 886 919 931 919 931 919 931 931 919 955 919 919 931 908 886 908 919 908 943 908 897 919 931 943 943 943 955 943 955 943 955 943 931 931 955 931 943 955 968 919 943 955 943 931 943 943 943 931 968 919 908 943 943 943 931 943 955 955 943 981 955 968 968 968 968 968 968 994 981 1008 1022 1051 1066 1022 994 994 1022 955 981 981 981 981 981 981 981 968 994 968 994 994 981 981 908 955 955 919 919 931 919 908 908 943 897 897 931 908 865 876 908 897 876 886 897 886 897 897 897 897 886 908 886 876 897 865 865 855 886 876 876 886 897 908 876 845 836 791 735 735 721 728 721 714 721 700 721 735 721 735 0 728 728 728 766 714 743 817 845 845 845 845 855 865 865 865 886 876 876 876 876 865 855 836 817 791 782 758 735 0 629 593 579 561 549 533 525 525 514 521 521 518 518 518 0 0 0 0 0
    0 0 0 0 0 0 0 0 0 0 0 0 0 0 0 0 0 0 0 0 0 0 0 0 0 0 0 0 0 0 0 0 0 0 0 0 0 0 0 0 0 0 0 0 0 0 0 0 0 0 0 0 0 0 0 0 0 0 0 0 0 0 0 0 0 0 0 0 0 943 919 908 908 931 908 919 931 919 897 931 919 919 908 931 908 897 908 943 931 943 955 955 981 968 955 955 943 865 865 876 0 0 897 908 931 943 943 955 955 955 955 943 955 943 943 943 943 968 943 0 886 886 919 886 919 919 908 908 908 919 919 897 931 897 886 897 897 886 886 897 897 908 886 886 908 919 931 931 931 943 931 943 931 943 931 908 919 943 919 943 943 955 908 931 943 943 919 943 931 931 919 955 897 897 919 931 919 908 919 943 943 931 968 943 955 955 955 943 955 955 981 955 994 994 1008 1036 1008 968 981 994 919 955 943 955 955 943 955 943 931 955 919 955 943 943 955 886 943 943 908 908 919 908 908 897 931 876 876 897 865 836 855 865 876 876 886 886 886 897 886 886 876 865 886 876 855 865 855 845 845 876 865 865 876 886 897 876 845 836 782 735 735 721 728 721 714 721 700 721 728 721 0 0 721 728 728 766 707 743 817 845 855 855 845 855 865 865 865 876 865 865 865 865 865 865 845 836 826 826 817 808 750 0 588 566 553 549 533 529 525 511 521 521 514 514 518 0 0 0 0 0
    0 0 0 0 0 0 0 0 0 0 0 0 0 0 0 0 0 0 0 0 0 0 0 0 0 0 0 0 0 0 0 0 0 0 0 0 0 0 0 0 0 0 0 0 0 0 0 0 0 0 0 0 0 0 0 0 0 0 0 0 0 0 0 0 0 0 0 0 0 931 897 897 897 919 908 908 919 908 886 919 908 908 897 908 897 886 897 931 908 919 943 943 955 943 919 931 908 845 855 865 0 865 897 908 919 931 931 943 943 943 943 931 931 919 931 931 943 0 0 0 0 0 886 865 897 897 886 897 886 897 908 886 919 886 876 886 886 876 876 876 876 876 865 876 886 897 908 919 931 931 919 943 931 943 919 908 919 931 908 931 943 943 908 931 943 931 908 931 919 919 908 931 886 886 908 919 908 897 908 931 931 919 955 931 943 931 931 931 931 943 968 943 955 981 994 1022 994 943 968 968 886 943 919 919 919 908 908 897 897 931 886 908 897 908 919 876 931 931 897 908 919 908 897 897 919 865 865 886 855 836 845 865 876 876 886 886 886 886 865 876 855 855 865 855 845 845 845 845 836 865 865 865 865 876 886 865 836 826 774 735 735 721 728 721 721 714 700 714 728 0 331 328 0 714 721 758 700 728 817 855 855 855 855 865 865 865 865 886 855 865 865 865 865 855 845 836 836 836 826 826 799 808 0 579 553 545 529 533 529 511 521 521 514 514 518 0 0 0 0 0
    0 0 0 0 0 0 0 0 0 0 0 0 0 0 0 0 0 0 0 0 0 0 0 0 0 0 0 0 0 0 0 0 0 0 0 0 0 0 0 0 0 0 0 0 0 0 0 0 0 0 0 0 0 0 0 0 0 0 0 0 0 0 0 0 0 0 0 0 0 919 886 886 886 908 897 897 908 897 876 897 897 897 886 897 886 886 886 908 897 908 919 931 931 897 876 886 876 836 845 855 0 865 886 908 908 919 919 943 931 943 943 919 897 908 0 919 908 0 0 0 0 0 865 855 876 876 876 876 876 886 886 876 897 865 865 876 876 865 876 865 865 865 845 865 876 886 897 897 919 919 919 943 931 943 919 897 908 919 897 919 931 931 897 919 931 919 897 919 908 908 886 919 876 886 908 919 897 886 897 931 931 919 931 919 919 919 919 908 919 908 943 919 919 955 955 1008 968 919 955 955 886 931 908 908 908 897 886 886 886 908 865 886 876 886 897 876 919 919 897 908 908 908 897 897 919 865 865 876 855 836 845 855 855 855 865 876 876 876 865 865 865 855 865 855 845 855 845 845 836 855 855 855 865 865 876 855 826 826 766 735 735 721 735 728 0 714 700 0 721 0 330 327 324 707 714 758 700 735 817 855 855 865 855 865 865 865 865 886 865 865 865 865 865 855 845 836 836 836 836 836 808 817 728 0 0 545 525 533 525 504 518 518 511 514 514 0 0 0 0 0
    0 0 0 0 0 0 0 0 0 0 0 0 0 0 0 0 0 0 0 0 0 0 0 0 0 0 0 0 0 0 0 0 0 0 0 0 0 0 0 0 0 0 0 0 0 0 0 0 0 0 0 0 0 0 0 0 0 0 0 0 0 0 0 0 0 0 0 0 0 886 876 865 876 897 886 886 897 886 876 886 897 886 876 876 876 876 876 897 897 886 897 919 908 886 855 865 855 826 826 0 0 855 876 897 886 897 908 931 919 931 943 897 855 855 0 886 0 0 0 0 0 0 845 845 865 865 865 865 865 876 876 876 886 865 865 865 876 865 865 855 865 855 845 855 865 876 886 876 897 897 908 943 919 943 908 886 897 897 886 897 908 908 886 897 908 908 886 897 897 886 876 886 855 865 876 897 876 876 876 931 908 908 908 908 886 897 897 886 897 886 908 886 876 919 908 994 943 897 943 943 886 931 919 897 897 886 865 865 876 886 855 865 865 876 876 876 908 919 886 897 908 897 886 886 908 865 855 876 845 836 836 836 836 845 855 865 865 865 855 865 865 855 865 855 845 845 845 845 836 836 845 836 845 845 865 855 817 817 758 743 743 728 735 728 0 721 700 0 0 0 330 327 324 707 707 750 707 782 817 855 855 855 845 855 855 855 865 865 855 855 855 865 855 855 836 826 826 826 826 836 817 808 743 675 0 0 507 521 521 497 514 514 507 511 514 0 0 0 0 0
    0 0 0 0 0 0 0 0 0 0 0 0 0 0 0 0 0 0 0 0 0 0 0 0 0 0 0 0 0 0 0 0 0 0 0 0 0 0 0 0 0 0 0 0 0 0 0 0 0 0 0 0 0 0 0 0 0 0 0 0 0 0 0 0 0 0 0 0 0 865 845 845 855 865 865 855 876 876 855 865 876 876 855 865 876 876 876 897 897 886 886 908 886 876 845 845 836 826 826 0 0 845 865 876 876 886 886 908 886 897 0 836 817 817 826 0 0 0 0 0 0 0 836 836 845 855 855 855 855 865 865 865 876 855 855 865 876 865 865 855 865 855 845 855 855 865 865 865 876 876 886 919 908 931 886 876 876 886 876 886 886 886 886 886 886 886 876 886 876 876 855 865 845 855 855 865 855 845 855 908 886 897 876 886 876 886 876 876 876 876 876 876 865 897 865 955 865 865 897 897 876 908 897 876 876 865 845 855 855 865 845 855 865 865 865 876 908 908 876 897 908 897 886 886 908 865 855 865 836 826 826 836 826 836 845 855 855 865 845 865 845 845 845 836 836 836 836 836 826 826 826 826 836 826 845 845 799 808 758 750 750 728 743 735 721 721 700 0 0 0 330 327 0 700 700 750 707 0 826 855 855 855 845 845 845 845 855 855 845 855 855 855 855 845 836 826 817 817 826 826 817 808 735 694 0 0 500 518 521 493 514 511 504 511 511 0 0 0 0 0
    0 0 0 0 0 0 0 0 0 0 0 0 0 0 0 0 0 0 0 0 0 0 0 0 0 0 0 0 0 0 0 0 0 0 0 0 0 0 0 0 0 0 0 0 0 0 0 0 0 0 0 0 0 0 0 0 0 0 0 0 0 0 0 0 0 0 0 0 0 0 826 817 836 855 855 845 855 855 845 845 865 855 845 855 865 855 865 886 897 876 876 897 876 865 845 836 836 826 826 836 836 845 865 876 865 865 865 886 865 0 0 817 808 808 0 0 0 0 0 0 0 0 826 836 836 845 845 845 845 865 865 865 865 855 855 855 876 865 865 845 865 855 836 845 845 855 855 855 865 855 865 897 886 931 876 876 876 876 876 876 876 865 876 876 876 876 865 865 865 865 855 855 845 845 845 855 845 836 836 886 865 876 845 865 855 865 865 865 865 855 865 865 855 886 855 886 845 855 865 855 855 886 876 845 845 845 826 836 845 845 836 845 855 855 855 865 886 886 876 886 897 897 876 886 897 865 855 855 836 826 826 836 826 826 836 836 845 845 836 855 836 836 836 826 826 826 826 826 817 817 817 817 817 826 836 826 791 799 750 758 750 735 743 735 728 721 700 0 0 0 330 327 0 694 694 743 707 0 826 855 845 845 836 826 836 826 845 836 836 845 845 855 845 845 826 817 817 817 817 817 808 799 743 707 0 549 497 521 521 497 514 511 504 511 511 0 0 0 0 0
    0 0 0 0 0 0 0 0 0 0 0 0 0 0 0 0 0 0 0 0 0 0 0 0 0 0 0 0 0 0 0 0 0 0 0 0 0 0 0 0 0 0 0 0 0 0 0 0 0 0 0 0 0 0 0 0 0 0 0 0 0 0 0 0 0 0 0 0 0 0 0 0 826 845 845 845 855 855 845 855 865 865 855 865 865 865 865 886 886 865 865 876 855 855 836 826 826 826 826 836 836 845 865 876 865 865 855 876 855 0 0 817 808 808 0 0 0 0 0 0 817 0 826 826 836 836 836 836 845 855 855 865 865 845 855 855 876 865 865 855 865 855 836 845 836 845 845 845 845 836 845 886 876 931 865 876 865 876 865 865 865 855 865 855 865 865 855 865 855 855 845 845 845 845 845 845 836 0 0 876 855 865 826 836 836 845 845 845 845 0 0 855 0 876 855 876 845 845 855 855 855 876 865 836 826 836 0 0 836 836 826 836 845 855 855 865 876 876 876 876 897 886 876 886 897 865 855 855 845 836 836 836 826 826 826 826 826 826 817 836 817 817 817 817 808 808 808 817 808 808 817 808 817 817 836 826 791 799 743 758 758 743 750 743 735 728 707 0 700 0 330 328 687 687 687 728 707 0 826 865 855 855 845 836 836 826 836 826 826 836 836 845 845 836 826 817 817 817 817 817 799 782 728 700 0 549 497 521 521 497 514 514 504 514 511 0 0 0 0 0
    0 0 0 0 0 0 0 0 0 0 0 0 0 0 0 0 0 0 0 0 0 0 0 0 0 0 0 0 0 0 0 0 0 0 0 0 0 0 0 0 0 0 0 0 0 0 0 0 0 0 0 0 0 0 0 0 0 0 0 0 0 0 0 0 0 0 0 0 0 0 0 0 817 826 845 836 855 865 855 855 876 865 855 865 876 865 865 886 897 876 865 876 855 855 836 826 826 817 817 826 836 855 865 876 865 865 865 886 865 865 845 826 826 826 0 0 0 0 0 817 817 817 826 826 826 836 836 836 836 855 855 855 865 845 855 855 876 865 865 855 865 855 836 845 836 845 845 836 845 826 826 865 855 897 855 855 845 855 855 855 855 845 865 845 855 865 845 855 855 855 845 845 845 845 845 845 836 0 0 886 845 865 817 826 826 845 845 845 0 0 0 0 0 0 836 855 826 845 845 836 845 855 845 817 817 817 799 0 826 826 817 826 845 845 845 855 865 865 865 865 886 876 865 886 897 876 855 855 845 845 836 845 826 817 817 817 817 817 799 817 808 799 799 808 799 799 799 799 799 799 799 799 799 817 817 817 791 791 735 758 758 743 750 743 735 728 707 714 700 0 0 0 687 687 687 728 714 836 836 876 886 865 865 855 855 845 845 817 817 817 826 836 836 826 817 808 817 817 826 817 799 766 707 645 0 549 0 525 525 500 514 514 507 514 511 0 0 0 0 0
    0 0 0 0 0 0 0 0 0 0 0 0 0 0 0 0 0 0 0 0 0 0 0 0 0 0 0 0 0 0 0 0 0 0 0 0 0 0 0 0 0 0 0 0 0 0 0 0 0 0 0 0 0 0 0 0 0 0 0 0 0 0 0 0 0 0 0 0 0 0 782 774 808 817 836 836 855 865 855 855 865 876 865 865 876 865 876 886 908 876 876 886 865 855 845 826 826 817 817 836 836 855 865 876 865 876 865 886 876 876 865 836 826 826 836 855 0 826 817 808 808 808 817 817 817 826 826 826 836 845 855 855 865 845 855 855 876 865 855 845 865 855 836 836 836 836 836 0 0 817 817 855 845 886 836 845 845 845 855 855 855 845 865 845 855 855 845 855 845 855 845 845 845 845 845 845 0 0 0 886 845 865 808 826 836 845 845 845 0 96 96 96 0 0 826 0 817 826 826 817 817 826 817 799 808 808 791 0 0 826 817 826 845 845 845 855 855 855 855 865 865 865 845 876 886 876 855 855 845 845 836 855 826 817 817 817 817 808 791 817 808 782 799 799 782 791 791 799 791 791 791 791 791 808 808 799 782 782 735 758 758 743 750 743 735 728 707 0 700 694 0 0 687 687 687 735 728 817 817 865 876 865 865 855 865 845 845 826 817 817 826 836 826 826 817 808 817 826 826 817 799 743 694 629 0 549 0 525 525 500 518 514 507 514 511 0 0 0 0 0
    0 0 0 0 0 0 0 0 0 0 0 0 0 0 0 0 0 0 0 0 0 0 0 0 0 0 0 0 0 0 0 0 0 0 0 0 0 0 0 0 0 0 0 0 0 0 0 0 0 0 0 0 0 0 0 0 0 0 0 0 0 0 0 0 0 0 0 0 0 774 774 774 799 808 826 836 865 865 855 845 865 865 865 865 876 865 876 886 908 886 886 876 855 855 836 826 826 817 817 817 826 836 855 865 865 865 865 886 876 876 865 836 836 826 826 845 817 817 808 808 808 799 808 808 817 817 817 826 836 845 845 855 855 845 855 855 876 855 855 845 865 845 826 836 826 836 836 826 826 817 817 845 836 865 826 836 836 845 845 845 845 845 865 845 855 855 845 845 845 845 836 836 0 836 836 0 0 0 0 876 836 855 799 817 826 845 845 845 0 96 0 0 0 0 817 817 808 808 808 799 808 817 808 799 808 808 799 0 0 826 826 826 845 845 845 855 845 845 845 845 855 855 836 876 886 876 855 855 845 845 836 855 826 808 808 808 808 799 782 808 791 774 791 791 766 782 782 791 791 782 782 782 782 808 799 799 791 774 735 766 758 743 750 743 743 728 707 0 694 694 0 687 687 687 687 735 728 799 782 836 865 855 855 855 865 855 845 826 817 817 826 836 817 817 808 808 817 817 826 808 791 735 681 623 0 545 504 521 521 500 514 514 507 511 511 0 0 0 0 0
    0 0 0 0 0 0 0 0 0 0 0 0 0 0 0 0 0 0 0 0 0 0 0 0 0 0 0 0 0 0 0 0 0 0 0 0 0 0 0 0 0 0 0 0 0 0 0 0 0 0 0 0 0 0 0 0 0 0 0 0 0 0 0 0 0 0 0 0 0 750 750 750 774 782 808 836 855 855 845 836 855 855 855 855 865 865 876 886 908 886 876 865 845 836 826 817 808 799 799 799 808 826 836 845 845 845 845 855 855 865 855 836 826 826 826 836 817 808 799 799 799 799 799 799 808 808 817 817 826 836 836 845 845 836 845 845 865 845 845 845 865 845 826 826 817 826 826 817 817 808 808 826 826 845 808 817 817 826 826 836 836 836 855 845 855 845 836 836 836 836 826 826 826 826 826 0 0 0 826 865 826 845 782 799 817 836 836 0 0 0 0 0 826 0 808 799 799 791 808 791 808 817 808 799 808 808 799 0 826 826 817 826 845 836 836 845 836 836 836 836 836 836 817 876 876 876 855 845 845 845 836 845 817 799 799 799 799 791 774 791 782 758 774 774 750 766 766 774 782 774 774 782 774 799 782 782 774 758 735 766 758 743 750 743 743 728 700 0 694 694 694 687 687 687 687 728 728 782 728 799 808 817 826 836 855 836 826 817 817 808 817 826 808 808 799 808 817 817 826 808 782 721 663 0 0 0 500 521 521 500 514 511 504 511 511 0 0 0 0 0
    0 0 0 0 0 0 0 0 0 0 0 0 0 0 0 0 0 0 0 0 0 0 0 0 0 0 0 0 0 0 0 0 0 0 0 0 0 0 0 0 0 0 0 0 0 0 0 0 0 0 0 0 0 0 0 0 0 0 0 0 0 0 0 0 0 0 0 0 0 735 735 735 758 766 782 817 836 836 845 826 845 845 855 855 855 855 865 876 908 886 865 855 836 826 808 799 791 791 782 782 799 808 817 817 817 817 817 826 826 845 836 826 817 817 826 836 817 799 799 791 791 791 791 791 791 799 808 808 817 836 836 836 826 826 836 836 836 836 836 836 855 836 817 817 817 817 817 808 808 799 799 817 808 826 799 799 799 817 817 826 826 826 836 836 845 836 826 826 826 817 817 817 817 817 817 0 0 808 817 826 817 817 766 782 799 836 826 836 826 817 817 826 817 817 799 791 791 782 799 782 799 808 799 791 808 808 799 808 817 817 817 817 836 836 826 826 826 817 817 817 817 817 799 865 876 876 855 845 845 845 836 845 808 791 791 791 791 774 766 774 766 758 758 774 735 750 758 766 774 766 766 774 766 791 766 766 766 750 735 758 750 735 743 743 743 728 700 0 687 694 694 687 687 687 687 721 721 750 714 743 743 766 774 799 817 799 791 791 791 774 791 808 782 774 782 808 817 826 826 808 766 707 629 0 0 0 497 518 514 500 514 511 504 511 511 0 0 0 0 0
    0 0 0 0 0 0 0 0 0 0 0 0 0 0 0 0 0 0 0 0 0 0 0 0 0 0 0 0 0 0 0 0 0 0 0 0 0 0 0 0 0 0 0 0 0 0 0 0 0 0 0 0 0 0 0 0 0 0 0 0 0 0 0 0 0 0 0 0 0 743 743 743 750 766 782 808 826 826 836 826 836 845 845 845 845 845 865 865 897 876 845 836 799 808 799 791 782 774 774 774 782 799 799 799 799 799 799 808 817 817 817 808 808 808 817 826 808 791 791 791 782 782 782 782 782 791 799 799 808 826 826 826 817 817 826 826 817 817 817 817 845 817 808 808 799 808 808 799 799 782 799 808 799 808 782 791 791 808 817 817 817 826 826 826 845 826 817 808 817 808 808 808 808 808 808 808 817 799 817 826 817 817 791 791 799 826 826 826 817 799 808 808 808 808 799 782 782 782 799 782 799 808 799 782 799 799 791 799 808 808 808 808 817 817 808 808 808 799 799 808 799 799 782 855 865 865 845 836 836 836 826 836 808 791 782 782 791 774 766 766 758 758 750 758 735 743 743 750 758 758 750 758 758 774 750 750 758 735 728 750 735 728 735 728 735 714 694 694 687 687 694 687 687 687 687 714 721 735 714 721 721 735 743 766 799 774 774 774 774 758 774 799 774 750 774 808 826 836 845 808 728 675 0 0 0 0 493 518 514 500 511 507 504 511 511 0 0 0 0 0
    0 0 0 0 0 0 0 0 0 0 0 0 0 0 0 0 0 0 0 0 0 0 0 0 0 0 0 0 0 0 0 0 0 0 0 0 0 0 0 0 0 0 0 0 0 0 0 0 0 0 0 0 0 0 0 0 0 0 0 0 0 0 0 0 0 0 0 0 0 743 743 750 750 774 782 808 826 817 836 826 826 826 836 845 836 836 845 845 865 855 817 808 766 782 782 774 766 766 766 766 774 791 791 782 791 791 791 799 799 799 808 799 799 799 808 817 799 774 782 782 782 782 782 774 774 782 791 791 791 808 808 808 808 808 808 817 808 817 808 808 836 791 791 791 791 799 799 791 791 782 799 799 791 799 766 782 774 791 799 799 799 799 808 799 826 817 808 799 808 799 799 799 808 799 799 799 808 791 808 817 817 808 799 782 791 808 817 808 808 782 799 791 799 799 791 782 774 774 799 791 799 799 791 782 799 799 791 799 799 799 799 799 808 799 791 791 782 782 791 782 782 782 774 836 845 845 836 826 826 826 817 826 791 782 782 782 782 766 758 758 758 758 743 743 728 735 735 750 750 743 743 750 743 758 735 743 743 728 728 735 728 721 728 728 721 707 687 694 687 687 687 687 687 681 687 714 714 714 707 714 707 714 721 728 774 743 758 758 750 743 743 782 750 728 750 799 826 845 845 799 714 645 0 0 0 0 493 514 511 500 511 507 504 511 511 0 0 0 0 0
    0 0 0 0 0 0 0 0 0 0 0 0 0 0 0 0 0 0 0 0 0 0 0 0 0 0 0 0 0 0 0 0 0 0 0 0 0 0 0 0 0 0 0 0 0 0 0 0 0 0 0 0 0 0 0 0 0 0 0 0 0 0 0 0 0 0 0 0 0 743 750 750 758 782 782 808 817 808 817 808 808 799 808 817 808 808 799 808 826 826 782 774 743 766 766 766 766 766 758 758 774 782 782 774 782 782 774 782 791 782 799 791 791 782 799 799 791 766 782 774 774 774 774 766 766 766 782 774 766 782 782 791 791 791 799 808 799 799 791 791 808 758 782 782 782 791 782 782 782 774 799 791 791 791 766 774 774 782 791 782 774 774 782 774 799 791 791 782 799 782 791 782 799 791 791 791 799 782 799 808 808 791 791 766 774 791 799 799 799 766 782 774 782 782 766 766 758 766 791 782 791 799 782 782 791 791 791 799 799 799 791 791 791 782 774 774 766 766 774 766 774 766 766 817 826 826 808 808 817 808 808 808 782 774 774 774 774 758 750 750 750 750 728 728 721 728 728 735 735 728 728 743 735 750 728 735 735 721 721 728 721 714 721 721 721 707 687 694 687 687 694 687 687 681 694 707 707 707 700 700 700 700 707 700 721 714 721 721 721 721 714 743 735 714 735 758 782 826 836 766 707 0 0 0 0 0 493 514 507 500 511 507 507 511 511 0 0 0 0 0
    0 0 0 0 0 0 0 0 0 0 0 0 0 0 0 0 0 0 0 0 0 0 0 0 0 0 0 0 0 0 0 0 0 0 0 0 0 0 0 0 0 0 0 0 0 0 0 0 0 0 0 0 0 0 0 0 0 0 0 0 0 0 0 0 0 0 0 0 0 743 750 758 758 782 782 808 808 799 799 782 774 766 750 743 735 721 728 735 782 782 750 750 735 758 758 766 766 766 766 758 766 782 774 766 774 766 766 774 782 774 782 782 774 774 791 791 774 750 774 766 766 774 766 758 758 758 774 758 758 766 766 782 782 782 791 799 791 791 782 782 791 743 774 774 774 782 774 774 774 766 799 782 782 782 766 782 774 782 782 774 774 766 782 774 791 774 782 766 791 774 782 774 782 774 782 774 791 766 791 782 791 782 782 766 774 782 791 791 782 743 766 758 766 758 750 743 743 750 782 758 782 774 766 774 782 782 782 782 791 782 782 782 782 766 758 758 750 750 750 750 758 758 758 782 808 799 791 791 799 791 799 799 774 766 774 774 774 758 750 750 743 750 728 721 714 721 721 735 728 721 721 735 728 735 721 728 728 714 714 714 707 707 714 714 714 700 687 687 687 694 694 687 687 687 694 707 707 707 700 700 700 700 700 694 700 700 700 0 700 707 707 714 721 707 721 721 721 735 750 728 0 0 0 0 0 0 493 511 504 500 511 507 507 511 511 0 0 0 0 0
    0 0 0 0 0 0 0 0 0 0 0 0 0 0 0 0 0 0 0 0 0 0 0 0 0 0 0 0 0 0 0 0 0 0 0 0 0 0 0 0 0 0 0 0 0 0 0 0 0 0 0 0 0 0 0 0 0 0 0 0 0 0 0 0 0 0 0 0 0 743 743 743 750 774 774 808 799 791 791 774 782 766 750 735 728 728 721 728 0 750 0 743 735 758 758 766 766 766 766 758 766 774 774 766 766 758 758 766 782 766 782 774 766 766 782 782 774 750 774 766 766 774 766 758 758 758 774 766 758 758 758 774 774 782 791 791 782 782 774 782 791 735 774 766 774 774 766 774 774 766 808 774 791 782 774 782 774 774 782 774 766 766 782 766 774 758 766 758 774 758 766 758 766 758 766 766 774 750 774 758 774 774 774 766 758 766 774 766 766 728 743 743 750 750 743 743 743 750 782 750 766 766 750 758 766 774 766 766 782 766 774 766 758 750 750 750 743 743 743 743 750 750 758 766 782 774 774 774 791 774 782 791 758 766 774 774 774 750 750 750 743 766 728 721 714 714 721 721 721 714 714 728 721 728 714 714 714 714 714 714 700 707 707 707 707 700 687 687 687 687 694 687 687 687 694 700 700 700 700 694 694 694 700 694 700 694 700 700 694 694 700 694 707 700 714 707 700 700 707 714 0 0 0 0 0 0 493 507 500 500 507 504 507 507 514 0 0 0 0 0
    0 0 0 0 0 0 0 0 0 0 0 0 0 0 0 0 0 0 0 0 0 0 0 0 0 0 0 0 0 0 0 0 0 0 0 0 0 0 0 0 0 0 0 0 0 0 0 0 0 0 0 0 0 0 0 0 0 0 0 0 0 0 0 0 0 0 0 0 0 743 743 743 743 774 774 808 799 782 782 758 766 766 750 743 728 0 728 0 0 0 0 743 735 750 750 766 758 766 766 758 766 774 766 758 766 750 750 758 774 758 774 774 766 766 782 774 774 750 774 766 766 774 766 758 766 758 774 774 766 766 766 774 782 791 799 799 791 791 791 791 799 735 774 758 766 766 766 766 774 766 808 774 791 782 774 782 774 774 774 766 766 766 774 758 766 743 758 743 766 750 758 750 758 750 758 758 766 750 766 750 766 766 766 758 750 750 750 743 743 721 735 735 743 743 743 743 735 750 782 750 758 758 743 750 750 766 750 750 758 743 758 750 750 735 743 743 743 735 743 735 743 743 750 743 758 750 750 766 766 758 766 774 750 766 766 766 766 750 750 750 743 766 721 721 714 714 721 707 707 707 707 714 714 714 707 707 707 700 707 707 700 700 707 707 707 700 687 687 687 687 687 681 681 681 687 694 694 694 694 694 694 694 700 694 694 694 694 700 687 694 700 694 700 694 714 694 681 687 687 694 687 657 0 0 0 0 493 507 497 500 507 504 507 507 514 0 0 0 0 0
    0 0 0 0 0 0 0 0 0 0 0 0 0 0 0 0 0 0 0 0 0 0 0 0 0 0 0 0 0 0 0 0 0 0 0 0 0 0 0 0 0 0 0 0 0 0 0 0 0 0 0 0 0 0 0 0 0 0 0 0 0 0 0 0 0 0 0 0 0 743 743 750 743 774 766 817 808 791 791 750 743 750 728 0 714 0 0 0 0 0 0 0 735 750 750 766 758 766 758 758 758 766 758 750 750 750 750 750 766 758 0 782 766 758 774 766 774 750 766 766 758 774 766 766 766 758 774 774 774 774 774 774 791 791 799 808 791 799 791 799 799 735 774 758 766 766 766 774 774 766 808 774 799 782 782 782 774 774 774 766 758 758 766 750 758 728 743 735 750 743 750 743 750 743 758 750 758 743 766 750 766 766 766 766 758 758 758 743 743 721 735 735 743 735 743 743 743 750 782 758 766 758 743 750 750 758 743 743 750 735 750 743 743 735 743 743 743 735 743 735 743 743 750 735 743 743 743 750 750 743 750 758 735 758 758 766 766 743 750 750 743 774 721 721 714 707 714 700 687 681 687 700 694 700 700 700 700 694 700 694 694 694 700 700 700 694 687 687 687 681 687 681 681 675 687 694 687 694 694 694 694 694 700 694 700 694 694 700 700 700 707 700 707 700 714 687 675 675 675 687 681 651 0 0 0 0 497 507 497 504 507 504 507 511 514 0 0 0 0 0
    0 0 0 0 0 0 0 0 0 0 0 0 0 0 0 0 0 0 0 0 0 0 0 0 0 0 0 0 0 0 0 0 0 0 0 0 0 0 0 0 0 0 0 0 0 0 0 0 0 0 0 0 0 0 0 0 0 0 0 0 0 0 0 0 0 0 0 0 0 735 743 743 743 774 766 808 808 791 799 750 0 721 0 0 0 0 0 0 314 0 0 0 735 750 750 766 758 766 766 758 758 766 750 743 743 735 743 743 750 743 758 758 750 735 743 735 743 735 758 758 758 774 774 774 774 766 782 782 782 782 782 791 799 808 808 817 799 799 791 799 799 735 774 766 766 766 766 774 774 766 808 782 799 791 791 782 774 782 782 774 766 750 766 743 750 728 735 735 750 743 743 735 743 743 758 758 758 750 766 758 774 774 774 766 758 758 758 743 735 728 735 735 743 735 743 743 743 758 782 758 758 766 750 750 750 758 743 743 750 735 758 743 750 735 743 743 743 743 743 735 743 743 758 735 735 735 735 750 743 735 743 750 728 758 758 766 758 743 750 750 743 774 714 714 707 700 700 687 663 657 669 681 681 681 687 687 687 687 700 694 694 694 700 700 700 694 694 687 694 681 687 681 681 675 694 687 687 687 694 694 694 694 700 694 694 687 687 700 694 700 700 694 687 681 707 675 669 657 657 681 681 651 629 0 0 0 497 511 497 507 511 504 507 511 518 0 0 0 0 0
    0 0 0 0 0 0 0 0 0 0 0 0 0 0 0 0 0 0 0 0 0 0 0 0 0 0 0 0 0 0 0 0 0 0 0 0 0 0 0 0 0 0 0 0 0 0 0 0 0 0 0 0 0 0 0 0 0 0 0 0 0 0 0 0 0 0 0 0 0 735 735 743 735 766 758 808 799 774 791 0 0 0 0 0 0 0 0 0 0 0 0 721 728 743 743 758 758 758 758 750 750 750 735 735 728 728 728 735 735 728 735 735 728 721 721 714 721 728 743 743 750 766 774 774 782 774 782 791 791 791 782 799 808 817 817 0 817 808 799 817 799 735 766 766 766 758 766 774 774 766 808 782 808 791 799 791 782 782 774 774 766 743 766 735 743 721 735 735 743 735 735 735 735 735 750 750 750 743 758 750 766 766 766 758 743 743 743 735 735 721 728 735 735 735 735 735 735 750 774 750 750 758 750 750 750 758 750 750 758 735 758 750 750 743 750 750 750 743 750 735 750 743 758 735 735 728 735 743 735 728 735 743 728 750 758 758 750 735 743 735 735 758 707 707 707 694 700 681 663 657 663 669 675 669 681 681 681 681 694 687 694 694 700 700 700 694 694 694 694 681 687 675 675 675 694 687 681 687 687 687 687 687 694 687 687 681 681 687 681 687 687 675 669 651 675 645 657 639 645 669 675 657 634 0 0 0 500 511 497 507 511 504 511 511 518 0 0 0 0 0
    0 0 0 0 0 0 0 0 0 0 0 0 0 0 0 0 0 0 0 0 0 0 0 0 0 0 0 0 0 0 0 0 0 0 0 0 0 0 0 0 0 0 0 0 0 0 0 0 0 0 0 0 0 0 0 0 0 0 0 0 0 0 0 0 0 0 0 0 0 721 728 728 721 735 728 791 766 735 735 0 0 0 0 0 0 0 663 675 0 0 0 700 714 721 0 0 735 735 735 728 728 728 721 721 721 721 728 728 721 714 721 0 0 0 694 687 700 714 721 728 735 750 774 774 774 766 774 782 782 774 774 782 808 817 817 0 817 808 799 799 782 721 750 750 750 750 750 758 766 766 799 774 799 782 791 782 774 766 766 766 758 743 750 728 735 707 721 721 728 721 721 721 721 721 735 735 735 735 743 735 758 758 750 743 735 735 743 735 735 721 728 728 721 721 728 721 721 728 735 721 721 743 743 735 743 743 743 743 750 735 758 743 750 735 750 750 750 743 750 735 750 743 766 728 728 728 728 743 735 728 735 735 721 750 750 750 735 728 735 735 735 750 707 707 707 700 700 681 651 651 663 663 669 663 675 675 669 681 694 687 700 700 707 707 700 700 700 694 700 681 681 675 675 675 687 681 675 681 681 681 675 675 681 675 681 675 675 675 675 681 681 669 657 639 651 634 645 639 645 657 675 663 645 629 0 0 504 514 497 511 511 504 511 511 518 0 0 0 0 0
    0 0 0 0 0 0 0 0 0 0 0 0 0 0 0 0 0 0 0 0 0 0 0 0 0 0 0 0 0 0 0 0 0 0 0 0 0 0 0 0 0 0 0 0 0 0 0 0 0 0 0 0 0 0 0 0 0 0 0 0 0 0 0 0 0 0 0 0 0 714 714 721 707 714 714 735 721 714 707 694 651 629 0 629 634 663 657 663 0 0 675 675 687 700 0 0 0 0 0 0 0 0 700 707 707 707 714 714 700 0 0 0 0 681 675 663 681 687 694 700 707 714 735 758 758 735 743 750 758 743 743 750 782 808 799 0 782 774 750 750 735 707 728 728 735 728 728 735 743 743 782 743 774 0 774 758 766 750 0 0 743 728 728 714 714 681 0 700 707 0 707 700 700 707 714 721 721 728 728 728 743 743 735 735 728 728 735 728 728 721 721 721 707 707 714 707 707 714 707 707 700 721 728 728 735 735 735 735 735 728 743 735 743 735 750 750 750 750 750 743 758 750 758 728 721 721 728 735 735 721 721 728 714 743 743 743 728 721 735 728 735 750 714 707 707 700 700 681 651 657 663 663 663 669 675 675 669 681 694 687 700 700 707 700 700 700 700 694 694 681 681 675 681 681 681 675 669 675 675 675 663 663 675 675 675 675 675 675 669 675 681 663 657 634 639 629 645 639 651 651 669 663 651 629 0 0 507 514 497 511 511 504 511 511 518 0 0 0 0 0
    0 0 0 0 0 0 0 0 0 0 0 0 0 0 0 0 0 0 0 0 0 0 0 0 0 0 0 0 0 0 0 0 0 0 0 0 0 0 0 0 0 0 0 0 0 0 0 0 0 0 0 0 0 0 0 0 0 0 0 0 0 0 0 0 0 0 0 0 0 707 707 714 700 694 694 700 694 694 687 681 651 0 0 629 634 0 651 657 657 663 663 663 669 681 651 0 0 675 0 0 0 687 681 687 687 694 694 700 681 681 0 0 0 669 663 651 669 675 681 681 694 694 700 721 735 707 714 0 0 0 707 0 0 0 774 0 750 743 721 721 707 700 707 714 721 714 714 714 728 728 750 714 735 0 0 0 743 0 0 0 0 0 714 707 707 675 687 681 694 687 694 687 687 694 694 700 700 707 714 714 721 728 721 728 721 728 721 721 714 714 714 714 700 700 707 700 700 700 700 694 694 714 714 714 728 728 728 728 728 721 735 728 735 728 743 743 743 743 750 735 750 743 743 721 714 714 714 721 721 707 707 707 707 728 735 728 721 714 728 728 728 743 707 707 700 694 694 675 657 663 669 669 669 675 681 687 681 687 694 694 700 700 700 700 687 694 687 681 681 669 663 663 669 681 681 669 669 675 669 669 657 657 675 675 675 675 669 669 669 675 675 657 651 634 639 629 639 639 645 639 657 651 645 629 0 0 0 521 497 514 511 504 511 511 518 0 0 0 0 0
    0 0 0 0 0 0 0 0 0 0 0 0 0 0 0 0 0 0 0 0 0 0 0 0 0 0 0 0 0 0 0 0 0 0 0 0 0 0 0 0 0 0 0 0 0 0 0 0 0 0 0 0 0 0 0 0 0 0 0 0 0 0 0 0 0 0 0 0 0 707 707 707 694 687 687 687 681 675 663 0 639 0 0 629 634 657 651 657 657 657 663 657 663 669 639 669 663 663 663 669 0 675 675 687 675 681 681 681 669 669 651 0 675 663 663 645 663 669 669 669 0 0 687 0 721 687 694 0 0 687 0 0 0 0 743 0 728 0 0 0 687 687 687 700 707 694 694 694 707 707 707 694 0 0 0 0 0 0 0 0 0 694 694 687 694 663 675 669 687 681 681 675 675 681 681 681 687 694 700 700 707 714 707 714 707 714 707 707 707 707 714 714 700 700 700 694 694 700 687 687 687 694 700 694 707 707 707 707 700 700 714 707 721 714 728 728 735 728 743 728 743 728 728 707 700 700 700 700 700 694 687 694 687 714 714 714 707 707 721 721 721 728 700 700 687 687 687 675 657 663 669 669 669 681 681 687 681 687 700 694 700 700 700 694 681 681 675 669 669 657 651 663 657 675 675 669 669 675 663 669 651 663 675 675 675 669 669 669 663 675 663 651 645 634 634 629 634 634 639 639 645 645 639 623 0 0 0 525 497 514 514 504 511 511 518 0 0 0 0 0
    0 0 0 0 0 0 0 0 0 0 0 0 0 0 0 0 0 0 0 0 0 0 0 0 0 0 0 0 0 0 0 0 0 0 0 0 0 0 0 0 0 0 0 0 0 0 0 0 0 0 0 0 0 0 0 0 0 0 0 0 0 0 0 0 0 0 0 0 0 707 707 707 694 681 681 681 681 675 669 663 651 0 651 639 639 663 651 657 657 657 657 651 657 663 634 663 651 657 657 657 669 669 669 681 663 675 669 663 657 657 645 639 669 657 657 645 657 663 663 663 0 0 0 0 0 675 681 0 687 675 0 0 0 0 0 0 714 0 0 663 675 681 675 681 687 681 681 681 694 694 687 687 681 0 681 675 0 0 0 0 687 675 681 675 681 651 663 657 675 669 669 663 669 669 675 675 675 681 687 694 694 700 687 694 694 700 694 694 694 700 700 707 694 694 694 687 687 687 681 681 675 681 681 681 694 694 700 700 681 687 694 694 700 700 707 707 707 721 721 714 721 714 707 694 687 687 687 687 694 681 681 681 681 700 700 700 694 694 707 707 707 707 694 687 681 681 681 669 657 663 663 669 669 681 681 681 681 687 694 687 694 700 687 687 669 675 669 657 657 651 651 657 651 669 675 669 669 681 663 669 657 669 675 675 675 669 669 663 657 669 657 645 645 634 639 629 639 639 639 639 645 639 634 618 0 0 525 529 497 518 514 504 511 511 518 0 0 0 0 0
    0 0 0 0 0 0 0 0 0 0 0 0 0 0 0 0 0 0 0 0 0 0 0 0 0 0 0 0 0 0 0 0 0 0 0 0 0 0 0 0 0 0 0 0 0 0 0 0 0 0 0 0 0 0 0 0 0 0 0 0 0 0 0 0 0 0 0 0 0 694 694 694 681 669 675 675 681 681 669 669 657 657 651 639 639 657 651 657 657 657 657 651 651 663 634 663 651 651 657 657 663 669 669 681 657 669 669 663 657 657 645 639 663 651 657 639 657 657 657 657 663 0 669 669 687 663 675 663 675 669 651 639 639 657 681 663 694 687 687 645 669 675 663 675 675 669 669 669 681 681 669 675 669 669 675 663 681 681 681 675 675 663 669 663 675 639 651 645 657 657 651 651 657 657 669 663 669 669 675 681 681 681 669 675 681 681 681 681 687 694 687 700 687 687 687 681 681 681 675 681 675 681 675 669 687 687 694 694 675 681 681 687 687 687 687 694 687 700 700 694 700 694 694 687 681 681 681 681 687 675 675 675 675 687 694 687 681 681 694 694 694 694 681 675 669 669 675 669 657 663 663 669 663 675 675 663 657 663 669 657 663 681 669 675 657 669 657 651 645 651 645 657 645 669 669 669 669 681 663 675 669 669 669 669 669 663 657 657 645 657 645 645 645 639 639 634 639 645 645 645 657 634 629 613 0 0 533 533 504 518 518 507 514 511 518 0 0 0 0 0
    0 0 0 0 0 0 0 0 0 0 0 0 0 0 0 0 0 0 0 0 0 0 0 0 0 0 0 0 0 0 0 0 0 0 0 0 0 0 0 0 0 0 0 0 0 0 0 0 0 0 0 0 0 0 0 0 0 0 0 0 0 0 0 0 0 0 0 0 0 681 681 687 669 669 675 675 681 681 669 669 657 651 651 645 634 657 651 657 657 657 657 651 651 663 639 663 651 657 657 657 663 669 675 681 657 669 663 663 663 663 651 639 669 657 657 645 657 651 657 657 663 651 669 663 687 663 675 669 669 669 657 645 651 663 675 663 694 687 681 639 663 669 657 663 663 663 663 657 675 669 657 669 663 663 669 651 675 675 669 669 663 657 663 657 669 639 645 639 645 651 639 645 651 651 657 657 663 663 663 675 669 669 651 663 663 663 663 669 675 681 675 694 675 681 681 675 675 675 675 675 669 681 669 669 687 687 687 687 669 675 675 675 681 675 675 675 675 687 681 687 687 687 681 681 675 675 675 681 681 669 669 669 669 675 675 669 663 657 675 675 675 681 663 669 651 663 669 663 657 657 663 663 657 669 657 634 623 623 623 618 618 0 639 663 651 663 657 645 645 657 645 651 639 657 657 651 657 669 645 669 663 663 657 645 657 657 657 651 639 651 645 645 651 639 634 629 634 639 645 645 651 629 618 613 0 0 537 533 507 521 518 511 514 514 518 0 0 0 0 0
    0 0 0 0 0 0 0 0 0 0 0 0 0 0 0 0 0 0 0 0 0 0 0 0 0 0 0 0 0 0 0 0 0 0 0 0 0 0 0 0 0 0 0 0 0 0 0 0 0 0 0 0 0 0 0 0 0 0 0 0 0 0 0 0 0 0 0 0 0 687 681 687 675 675 681 681 681 681 675 675 663 657 663 645 639 657 651 657 657 657 657 651 657 657 645 663 651 657 663 663 669 669 675 681 657 669 663 663 669 669 657 639 669 657 663 645 657 657 657 657 669 657 669 669 681 669 675 669 669 669 663 651 657 663 669 663 687 681 675 634 657 669 651 663 663 657 657 657 669 663 651 669 663 657 663 651 669 669 663 663 657 651 663 657 669 639 651 645 651 651 645 645 651 651 663 657 663 663 657 669 663 663 645 651 651 651 651 663 669 675 663 681 663 675 675 669 669 669 669 675 669 681 669 669 681 681 681 675 657 669 663 669 669 669 657 663 663 681 669 675 675 675 669 675 669 669 669 675 675 669 663 669 663 669 663 645 645 639 657 657 657 663 651 657 645 657 663 663 657 663 663 663 645 669 629 618 613 608 613 608 608 608 629 657 645 669 657 651 639 657 645 651 639 651 645 645 645 651 634 645 645 651 634 629 639 645 651 639 634 639 634 639 645 634 629 623 623 634 639 639 639 623 613 613 561 0 537 533 511 521 518 511 514 511 518 0 0 0 0 0
    0 0 0 0 0 0 0 0 0 0 0 0 0 0 0 0 0 0 0 0 0 0 0 0 0 0 0 0 0 0 0 0 0 0 0 0 0 0 0 0 0 0 0 0 0 0 0 0 0 0 0 0 0 0 0 0 0 0 0 0 0 0 0 0 0 0 0 0 0 687 681 687 675 675 681 681 681 681 675 675 669 663 669 651 645 657 651 657 657 657 657 651 657 657 651 669 657 663 663 669 669 669 681 681 663 675 669 669 669 669 663 639 669 663 663 651 657 657 657 657 669 663 675 669 681 669 675 675 675 675 669 657 669 669 675 669 681 669 669 634 651 663 651 657 657 651 657 651 669 657 645 663 657 651 657 645 663 663 663 663 657 657 663 663 675 651 657 651 651 657 651 651 657 657 663 657 663 663 657 669 663 657 645 645 645 651 651 663 669 669 657 675 657 675 675 663 663 663 669 675 669 681 669 663 681 681 675 669 645 663 657 663 663 663 657 663 663 675 663 669 669 675 669 669 669 669 669 675 675 663 663 669 663 669 657 645 639 639 651 657 657 657 645 657 634 657 657 657 657 657 657 657 639 663 613 613 608 603 608 608 603 608 623 645 645 663 663 651 645 657 651 651 634 639 634 634 634 634 623 629 634 639 629 629 634 639 645 639 623 623 623 634 639 629 623 618 623 634 639 639 634 618 608 603 557 0 541 533 511 521 518 514 514 514 518 0 0 0 0 0
    0 0 0 0 0 0 0 0 0 0 0 0 0 0 0 0 0 0 0 0 0 0 0 0 0 0 0 0 0 0 0 0 0 0 0 0 0 0 0 0 0 0 0 0 0 0 0 0 0 0 0 0 0 0 0 0 0 0 0 0 0 0 0 0 0 0 0 0 0 694 687 694 675 681 681 675 681 681 675 669 657 651 663 651 645 657 651 657 657 657 657 651 657 657 651 675 657 663 669 669 669 669 681 675 657 669 663 669 669 669 669 645 669 663 663 651 663 657 657 657 669 663 669 669 681 669 675 675 675 675 669 669 675 675 681 681 681 669 663 634 657 657 645 657 651 651 657 651 669 657 645 663 657 651 657 651 663 663 663 663 663 657 669 669 681 657 663 651 651 657 651 651 657 657 663 657 663 663 657 663 663 651 645 645 645 657 651 663 675 669 663 681 663 681 675 663 663 669 675 681 675 681 669 669 681 687 675 669 651 663 663 669 669 669 663 669 663 681 663 669 663 663 657 669 663 669 669 669 669 663 663 669 663 657 651 634 634 634 639 645 645 645 645 651 634 657 657 657 657 657 657 651 639 669 608 608 603 598 598 598 603 598 608 629 634 657 651 645 639 657 645 639 629 634 623 623 623 623 618 623 629 634 623 623 618 623 629 618 613 608 613 629 639 629 623 618 623 634 639 639 629 613 603 593 553 0 537 533 514 521 518 514 518 518 521 0 0 0 0 0
    0 0 0 0 0 0 0 0 0 0 0 0 0 0 0 0 0 0 0 0 0 0 0 0 0 0 0 0 0 0 0 0 0 0 0 0 0 0 0 0 0 0 0 0 0 0 0 0 0 0 0 0 0 0 0 0 0 0 0 0 0 0 0 0 0 0 0 0 0 694 687 694 675 681 681 675 675 675 675 669 651 651 651 639 645 657 651 657 657 657 657 651 657 651 657 675 663 669 669 669 669 669 687 681 657 669 657 663 663 669 669 645 669 669 669 657 663 663 663 663 669 663 669 669 681 669 675 675 675 681 669 669 675 681 687 694 687 675 669 634 657 663 645 657 651 645 657 651 669 657 645 663 657 645 651 645 663 657 663 663 663 657 663 669 675 651 663 645 645 657 645 651 657 657 663 657 669 663 657 669 657 645 645 645 645 651 651 657 669 669 663 675 663 681 681 663 669 675 675 681 681 681 669 663 681 687 675 669 651 663 663 669 669 669 663 669 669 681 663 669 663 657 651 663 657 663 663 669 669 657 663 669 663 657 645 629 634 629 634 639 634 639 639 645 629 651 657 657 657 657 657 645 634 663 608 603 603 598 598 598 603 598 603 618 623 634 634 634 629 639 634 629 618 618 618 618 618 618 613 618 629 634 623 618 613 623 629 623 618 613 618 629 634 629 623 618 618 629 639 639 623 608 593 579 549 0 541 533 518 525 521 518 518 518 521 0 0 0 0 0
    0 0 0 0 0 0 0 0 0 0 0 0 0 0 0 0 0 0 0 0 0 0 0 0 0 0 0 0 0 0 0 0 0 0 0 0 0 0 0 0 0 0 0 0 0 0 0 0 0 0 0 0 0 0 0 0 0 0 0 0 0 0 0 0 0 0 0 0 0 687 675 687 669 681 681 675 681 681 675 669 657 651 651 639 645 651 651 657 657 657 663 657 663 657 657 675 663 669 669 675 669 669 687 681 663 675 657 663 663 0 0 645 675 669 669 663 669 669 669 663 675 663 669 675 0 0 0 0 0 681 0 0 0 694 700 714 700 687 675 634 663 663 651 657 651 651 657 657 675 657 651 663 651 645 645 645 657 651 657 657 657 651 657 669 675 651 657 639 645 657 645 657 657 657 663 663 669 669 663 669 663 651 645 651 645 657 657 663 669 669 663 675 663 681 681 663 669 675 681 681 681 681 675 663 681 681 675 663 651 663 663 669 675 669 663 669 669 681 675 675 669 657 657 663 657 663 663 663 663 657 663 669 663 657 645 634 634 634 634 639 634 639 639 645 629 651 651 657 651 657 651 639 634 657 608 603 603 603 603 603 608 603 603 613 613 618 618 618 618 629 623 613 608 613 613 613 613 608 608 613 618 623 618 608 608 618 623 623 618 613 613 629 634 629 618 613 613 623 629 634 618 603 584 570 553 541 541 537 521 529 521 521 521 518 521 0 0 0 0 0
    0 0 0 0 0 0 0 0 0 0 0 0 0 0 0 0 0 0 0 0 0 0 0 0 0 0 0 0 0 0 0 0 0 0 0 0 0 0 0 0 0 0 0 0 0 0 0 0 0 0 0 0 0 0 0 0 0 0 0 0 0 0 0 0 0 0 0 0 0 687 675 687 663 687 694 687 687 687 681 681 663 663 663 645 645 657 651 657 657 657 663 663 669 657 663 675 669 675 675 675 675 675 687 687 669 675 657 663 0 0 0 0 675 675 669 669 669 669 669 669 675 669 669 675 0 184 184 184 183 0 0 0 0 0 714 721 707 694 681 639 663 663 651 657 657 651 663 663 675 663 651 669 657 651 639 639 651 651 657 657 651 645 657 669 675 651 657 639 645 657 651 657 657 651 657 657 669 669 657 669 663 651 657 657 657 669 663 669 675 675 669 681 669 681 675 657 663 675 681 681 681 681 669 663 681 681 669 663 651 663 669 675 675 675 669 675 675 687 681 681 675 663 657 669 657 663 669 669 663 657 669 675 669 669 651 634 634 634 639 645 639 639 639 651 623 657 657 657 651 657 645 634 634 651 608 603 598 598 598 603 608 598 603 603 608 613 618 608 608 613 613 603 603 603 608 608 608 608 608 608 618 623 618 608 603 613 618 618 613 608 608 618 629 623 608 608 603 608 629 629 613 603 574 566 553 545 545 537 525 529 525 525 521 521 521 0 0 0 0 0
    0 0 0 0 0 0 0 0 0 0 0 0 0 0 0 0 0 0 0 0 0 0 0 0 0 0 0 0 0 0 0 0 0 0 0 0 0 0 0 0 0 0 0 0 0 0 0 0 0 0 0 0 0 0 0 0 0 0 0 0 0 0 0 0 0 0 0 0 0 634 629 639 0 0 0 0 0 0 0 0 657 645 645 629 645 651 651 657 657 657 663 663 669 657 669 681 675 681 681 681 675 675 694 694 675 681 657 669 663 669 681 645 675 675 675 675 675 675 675 675 681 669 669 675 0 0 0 0 183 0 0 0 0 0 721 728 707 694 681 645 669 669 657 663 657 651 663 663 681 663 651 0 0 0 634 639 645 645 657 657 651 651 657 675 681 657 657 639 639 657 651 651 657 651 657 657 669 669 657 663 663 651 657 663 663 675 669 675 681 681 675 687 669 681 669 651 657 675 681 681 675 675 669 663 681 681 675 663 657 669 675 675 681 681 675 681 681 694 687 687 681 669 657 663 657 663 669 669 663 663 669 675 675 669 651 629 629 634 639 645 645 645 645 657 623 657 663 663 657 657 645 634 629 645 608 598 593 598 598 598 603 598 598 603 608 608 613 608 608 608 603 598 598 598 603 603 603 603 603 608 613 618 618 608 608 618 623 623 618 608 603 608 608 608 593 593 588 593 613 618 608 598 574 566 557 549 549 541 529 529 525 525 521 518 521 0 0 0 0 0
    0 0 0 0 0 0 0 0 0 0 0 0 0 0 0 0 0 0 0 0 0 0 0 0 0 0 0 0 0 0 0 0 0 0 0 0 0 0 0 0 0 0 0 0 0 0 0 0 0 0 0 0 0 0 0 0 0 0 0 0 0 0 0 0 0 0 0 0 0 608 0 0 0 0 383 383 0 0 0 0 623 613 608 613 634 639 639 651 651 657 663 669 675 657 675 681 681 687 681 687 675 669 694 694 681 675 657 669 657 0 687 645 0 0 0 0 0 0 0 0 0 675 669 0 0 0 0 0 0 0 100 0 0 0 0 735 714 0 0 645 0 663 0 0 657 651 663 663 681 669 645 0 0 0 0 0 0 651 663 669 657 657 663 687 694 663 669 639 639 657 651 651 657 645 651 651 669 663 651 651 657 645 657 669 669 681 675 681 687 681 681 694 669 681 669 651 663 681 681 681 675 675 663 663 687 681 669 663 663 669 675 681 687 681 675 681 687 694 694 687 687 669 657 663 657 663 669 669 663 663 669 675 669 669 651 623 623 634 639 651 651 651 657 657 629 663 663 663 657 651 645 629 629 645 608 603 603 603 603 603 603 603 598 593 603 598 593 593 588 588 588 588 584 588 593 593 593 593 593 593 608 608 608 603 598 0 618 0 618 598 598 598 598 588 579 579 574 579 603 603 603 593 574 566 553 549 545 541 525 529 525 525 521 518 521 0 0 0 0 0
    0 0 0 0 0 0 0 0 0 0 0 0 0 0 0 0 0 0 0 0 0 0 0 0 0 0 0 0 0 0 0 0 0 0 0 0 0 0 0 0 0 0 0 0 0 0 0 0 0 0 0 0 0 0 0 0 0 0 0 0 0 0 0 0 0 0 0 0 0 588 584 0 0 0 0 0 0 0 0 608 608 588 574 579 623 629 634 639 639 657 663 669 675 657 681 687 0 687 681 681 669 663 687 694 663 645 618 634 623 0 663 0 0 0 0 0 0 0 0 0 0 681 669 0 0 0 183 184 0 0 100 0 0 0 0 0 0 0 0 0 0 0 86 86 0 0 0 663 0 0 0 0 166 161 156 157 0 0 669 681 669 669 675 700 700 675 675 645 645 657 651 651 651 645 651 645 663 651 634 634 639 629 657 669 675 687 687 687 687 687 694 700 681 687 675 645 663 681 681 675 675 675 657 657 681 681 669 669 663 669 681 681 694 687 681 687 687 700 694 687 687 663 651 663 657 663 669 669 669 663 669 681 669 669 663 634 629 639 651 663 663 663 669 663 629 663 663 657 651 645 639 629 629 651 613 608 608 608 608 608 608 608 593 593 598 588 588 584 579 570 570 570 566 566 574 579 579 584 584 579 603 603 608 598 588 0 603 593 0 579 574 574 579 570 566 566 570 584 598 598 598 593 579 566 553 545 541 537 525 529 521 525 521 518 521 0 0 0 0 0
    0 0 0 0 0 0 0 0 0 0 0 0 0 0 0 0 0 0 0 0 0 0 0 0 0 0 0 0 0 0 0 0 0 0 0 0 0 0 0 0 0 0 0 0 0 0 0 0 0 0 0 0 0 0 0 0 0 0 0 0 0 0 0 0 0 0 0 0 0 566 561 561 0 0 0 0 566 584 588 603 598 579 574 566 603 613 613 618 623 634 651 663 669 651 681 681 687 681 675 669 645 634 645 651 623 603 593 603 593 598 0 0 0 0 0 0 0 0 0 0 681 675 657 675 0 0 0 0 0 0 0 0 0 0 0 0 0 0 0 0 0 0 0 0 0 0 0 0 0 0 0 0 0 159 156 156 156 0 0 681 669 669 681 721 700 663 669 634 639 645 645 645 639 629 634 629 639 623 613 613 618 608 651 657 663 694 694 694 687 687 700 714 694 700 675 645 657 681 681 675 669 663 645 639 675 681 669 663 663 669 681 0 0 687 681 687 687 700 694 687 687 663 651 663 657 657 669 669 669 663 669 675 669 675 669 639 629 645 657 669 669 675 669 663 623 663 663 657 651 639 634 623 634 651 618 613 608 608 613 608 618 608 593 593 598 584 584 584 574 566 566 566 561 561 570 570 566 574 574 570 598 593 603 588 574 0 0 579 0 0 0 0 553 557 557 549 549 566 584 593 588 588 574 561 549 541 541 537 521 529 525 525 521 521 525 0 0 0 0 0</data></depth>
</opencv_storage>
