<?xml version="1.0"?>
<opencv_storage>
<gps_time_stamp>26432</gps_time_stamp>
<gps_x>-5.6865382194519043e+000</gps_x>
<gps_y>8.2532823085784912e-001</gps_y>
<gps_z>-1.4356347322463989e+000</gps_z>
<image_time_stamp>14367</image_time_stamp>
<depth type_id="opencv-matrix">
  <rows>97</rows>
  <cols>320</cols>
  <dt>s</dt>
  <data>
    0 0 0 0 0 0 0 0 0 0 0 0 0 0 0 0 0 0 0 0 0 0 0 0 0 0 0 0 0 0 0 0 0 0 0 0 0 0 0 0 0 0 0 0 0 0 0 0 0 0 0 0 0 0 0 0 0 0 0 0 0 0 0 0 0 0 0 0 0 836 826 836 855 845 845 845 836 0 0 836 836 826 826 836 836 836 845 845 855 845 845 836 836 826 826 836 826 817 826 836 836 836 836 836 826 836 836 826 817 826 817 808 808 808 799 782 782 799 808 791 808 817 817 817 817 817 817 808 826 817 817 808 808 836 845 845 855 855 845 855 836 845 845 845 845 845 836 845 836 865 836 826 836 826 826 826 826 826 826 836 845 845 836 845 845 845 836 836 836 836 836 855 826 836 808 836 836 836 836 836 836 836 845 845 817 826 826 826 826 817 826 817 826 845 826 826 817 817 791 791 799 808 817 817 817 808 817 826 817 817 826 817 817 817 826 836 826 845 855 855 855 826 845 855 845 836 826 826 817 817 826 799 791 791 799 791 774 766 774 782 774 782 758 766 758 766 766 758 750 750 743 766 743 774 750 743 750 758 758 750 750 758 758 728 721 721 714 714 714 707 700 700 700 728 721 799 808 855 845 836 808 0 750 750 766 766 758 735 750 782 766 782 799 791 791 766 0 0 0 0 0 541 518 533 537 533 529 529 0 0 0 0 639 663 663 0 0 0 0 0
    0 0 0 0 0 0 0 0 0 0 0 0 0 0 0 0 0 0 0 0 0 0 0 0 0 0 0 0 0 0 0 0 0 0 0 0 0 0 0 0 0 0 0 0 0 0 0 0 0 0 0 0 0 0 0 0 0 0 0 0 0 0 0 0 0 0 0 0 0 791 791 808 836 836 836 836 836 0 0 826 826 826 826 826 826 836 836 845 845 845 845 836 826 826 817 836 826 817 826 836 836 836 836 836 826 836 836 826 817 817 817 808 808 799 799 782 782 799 808 782 808 808 817 817 817 817 808 808 817 808 808 808 808 826 836 845 855 855 845 855 836 845 836 836 845 845 0 0 836 855 826 826 836 826 826 826 826 826 836 836 845 845 836 855 845 845 845 845 845 836 836 855 826 826 808 836 836 836 0 836 836 836 836 845 817 826 826 826 817 817 817 817 826 836 817 808 808 799 766 766 766 774 791 799 808 791 808 817 817 817 817 817 817 817 826 826 826 836 845 836 845 808 845 845 836 0 826 826 817 808 817 799 782 791 799 782 766 758 766 766 758 766 743 758 750 750 758 750 735 743 735 750 735 758 743 728 750 766 766 750 743 758 750 721 728 728 721 721 721 721 714 714 728 728 728 799 774 836 826 817 782 774 728 743 750 750 758 735 758 791 774 791 808 791 791 750 0 0 0 0 0 545 525 541 541 537 537 537 0 0 0 634 639 663 657 0 0 0 0 0
    0 0 0 0 0 0 0 0 0 0 0 0 0 0 0 0 0 0 0 0 0 0 0 0 0 0 0 0 0 0 0 0 0 0 0 0 0 0 0 0 0 0 0 0 0 0 0 0 0 0 0 0 0 0 0 0 0 0 0 0 0 0 0 0 0 0 0 0 0 774 774 782 808 826 817 826 826 826 0 826 826 826 826 826 826 826 836 836 845 836 836 826 817 808 808 817 817 808 817 826 836 836 836 836 826 826 836 826 817 817 817 808 808 791 782 766 774 799 799 782 808 808 817 817 817 817 808 808 817 799 808 808 799 817 826 826 836 845 836 845 817 836 826 836 836 836 0 0 826 845 826 826 826 826 826 826 826 826 826 836 845 836 836 855 845 845 836 836 845 836 836 855 826 817 799 836 826 836 826 836 836 836 836 845 817 826 826 817 817 808 817 817 826 826 799 799 808 799 774 766 766 758 774 791 799 774 799 808 808 808 817 808 808 808 826 817 817 826 826 826 836 791 836 836 836 817 817 817 817 808 817 791 782 782 791 782 750 750 758 750 743 750 735 750 735 743 743 743 735 735 735 750 735 750 743 735 758 766 766 750 735 750 750 721 735 735 728 728 728 728 721 721 750 728 721 782 735 758 791 791 774 766 735 743 743 743 750 735 750 782 774 791 808 791 766 0 0 0 0 593 566 549 537 545 545 541 541 541 0 553 0 634 639 657 651 0 0 0 0 0
    0 0 0 0 0 0 0 0 0 0 0 0 0 0 0 0 0 0 0 0 0 0 0 0 0 0 0 0 0 0 0 0 0 0 0 0 0 0 0 0 0 0 0 0 0 0 0 0 0 0 0 0 0 0 0 0 0 0 0 0 0 0 0 0 0 0 0 0 0 758 750 758 782 808 808 826 826 826 826 826 826 817 817 826 817 817 826 826 826 826 817 817 791 799 799 808 808 799 817 817 826 826 826 826 826 826 826 817 808 799 808 799 791 782 766 743 766 782 791 774 808 808 817 817 817 817 808 808 817 799 808 799 799 808 808 799 808 817 826 836 808 817 817 826 826 826 826 826 817 845 826 826 826 826 826 836 826 826 826 826 836 836 826 845 836 836 836 836 836 836 826 845 817 808 799 826 0 826 826 836 836 826 836 836 817 826 817 817 799 799 808 808 817 817 791 791 791 799 782 766 766 766 782 799 808 782 0 0 808 808 817 808 799 808 817 808 799 817 817 808 817 791 836 836 836 817 817 817 817 808 817 791 774 782 791 774 750 750 758 758 743 750 728 750 735 743 743 735 735 735 735 750 735 750 743 743 766 766 758 735 721 735 735 714 735 735 728 735 735 735 728 728 766 721 714 0 0 0 721 758 766 766 735 743 743 750 750 728 750 782 758 774 0 758 0 0 0 0 593 561 549 549 541 545 545 545 545 545 557 566 603 629 639 657 651 0 0 0 0 0
    0 0 0 0 0 0 0 0 0 0 0 0 0 0 0 0 0 0 0 0 0 0 0 0 0 0 0 0 0 0 0 0 0 0 0 0 0 0 0 0 0 0 0 0 0 0 0 0 0 0 0 0 0 0 0 0 0 0 0 0 0 0 0 0 0 0 0 0 0 750 750 750 774 791 799 826 826 826 826 826 826 817 817 817 817 817 817 817 817 817 799 799 766 782 782 791 791 791 808 808 817 826 826 826 817 826 826 808 799 791 799 799 799 782 766 750 774 774 782 766 799 799 808 808 808 808 808 808 817 791 799 799 791 799 799 791 799 817 817 826 799 808 817 817 826 817 817 817 817 836 826 826 826 826 826 836 826 826 826 826 826 826 817 845 836 826 826 826 826 817 817 826 808 791 799 817 0 826 826 836 836 826 836 836 817 817 808 808 799 791 799 799 808 808 782 782 791 799 791 774 774 774 782 799 808 782 0 0 799 808 808 808 791 799 808 799 791 808 808 799 799 791 826 826 826 808 817 817 817 808 808 791 774 782 791 774 758 758 766 774 750 758 735 758 735 735 735 735 735 735 735 743 728 743 735 728 735 728 728 0 707 721 714 707 735 735 728 735 735 743 735 728 774 721 0 0 694 629 675 743 774 774 735 743 750 750 750 728 750 774 0 0 0 0 0 0 0 0 570 549 0 549 541 545 545 545 545 545 561 574 603 623 634 651 645 0 0 0 0 0
    0 0 0 0 0 0 0 0 0 0 0 0 0 0 0 0 0 0 0 0 0 0 0 0 0 0 0 0 0 0 0 0 0 0 0 0 0 0 0 0 0 0 0 0 0 0 0 0 0 0 0 0 0 0 0 0 0 0 0 0 0 0 0 0 0 0 0 0 0 750 758 758 766 791 799 826 826 826 826 826 817 817 817 808 808 808 808 808 808 808 782 791 750 782 774 782 782 782 791 808 808 817 817 817 808 826 826 799 782 782 799 791 791 766 750 758 782 791 799 774 799 799 799 808 808 799 799 799 808 782 799 791 791 799 799 799 799 817 826 826 791 808 808 817 817 817 808 817 808 845 826 826 826 817 817 836 817 826 826 826 826 826 817 836 826 826 817 817 817 808 808 817 808 782 799 808 817 817 817 826 836 826 836 826 808 817 799 808 782 774 791 791 799 799 782 782 782 791 791 774 782 766 782 799 799 774 0 0 799 799 808 799 782 791 808 791 791 791 791 782 791 782 808 826 826 799 817 817 808 799 799 791 774 774 782 766 758 758 758 782 758 758 735 766 735 728 728 728 728 721 721 728 714 721 714 700 694 657 603 593 608 687 694 700 735 735 728 735 735 750 728 728 766 707 0 0 669 603 598 0 774 774 743 750 758 758 750 735 0 0 0 0 0 0 0 0 0 0 549 0 0 549 541 545 545 545 545 545 561 579 603 623 634 645 645 0 0 0 0 0
    0 0 0 0 0 0 0 0 0 0 0 0 0 0 0 0 0 0 0 0 0 0 0 0 0 0 0 0 0 0 0 0 0 0 0 0 0 0 0 0 0 0 0 0 0 0 0 0 0 0 0 0 0 0 0 0 0 0 0 0 0 0 0 0 0 0 0 0 0 758 758 758 758 782 791 817 817 817 817 817 799 808 799 799 791 791 808 808 799 808 774 782 743 774 766 774 774 766 782 799 791 817 799 808 799 0 0 0 766 766 0 0 0 0 0 0 782 791 799 766 799 799 799 808 799 791 791 799 808 774 791 782 782 791 808 791 799 817 826 817 774 799 799 808 817 808 808 808 808 836 826 826 817 817 817 826 817 836 826 826 826 826 817 836 826 817 808 808 808 808 799 808 799 782 799 799 808 817 817 826 836 817 836 817 808 808 791 808 774 766 791 791 799 799 774 782 774 791 791 766 766 758 758 791 791 758 0 0 0 791 808 799 766 782 799 782 782 782 782 774 782 782 799 817 817 799 817 817 808 799 791 782 774 766 774 758 750 750 758 782 750 758 743 774 735 721 728 721 721 714 707 707 694 700 694 669 657 618 598 593 598 603 657 681 735 735 735 735 735 750 728 721 750 694 0 0 623 598 588 0 735 750 728 743 750 758 750 0 0 0 0 0 0 0 518 504 511 521 0 0 533 545 537 545 541 545 545 545 566 579 603 618 629 639 639 0 0 0 0 0
    0 0 0 0 0 0 0 0 0 0 0 0 0 0 0 0 0 0 0 0 0 0 0 0 0 0 0 0 0 0 0 0 0 0 0 0 0 0 0 0 0 0 0 0 0 0 0 0 0 0 0 0 0 0 0 0 0 0 0 0 0 0 0 0 0 0 0 0 0 743 743 750 743 766 766 799 799 774 791 791 766 774 758 758 758 766 791 791 0 0 0 0 735 0 758 766 766 766 766 791 774 0 782 0 0 97 0 0 0 0 0 1471 0 0 533 537 0 0 0 0 0 791 799 799 799 0 0 0 799 758 782 766 774 782 799 774 782 808 826 817 766 791 791 799 808 808 799 799 791 826 808 0 799 791 799 0 0 0 826 0 0 817 799 0 826 799 791 799 791 799 791 799 799 774 0 0 0 808 808 826 826 799 817 791 791 799 774 799 766 766 782 782 799 791 774 782 774 791 791 758 758 750 750 791 782 0 169 169 0 0 791 774 743 766 782 758 766 766 758 750 766 774 791 808 817 799 808 817 808 799 791 782 766 758 766 758 750 750 750 774 743 743 750 782 735 721 721 714 714 707 707 694 681 687 681 0 0 613 598 593 598 603 618 623 735 735 728 735 735 750 728 721 0 0 593 0 598 584 588 584 0 714 714 728 735 743 743 0 0 0 0 0 0 521 514 507 514 521 533 0 529 541 541 541 541 545 545 545 566 584 598 618 623 639 634 0 0 0 0 0
    0 0 0 0 0 0 0 0 0 0 0 0 0 0 0 0 0 0 0 0 0 0 0 0 0 0 0 0 0 0 0 0 0 0 0 0 0 0 0 0 0 0 0 0 0 0 0 0 0 0 0 0 0 0 0 0 0 0 0 0 0 0 0 0 0 0 0 0 0 743 0 0 735 743 0 0 0 0 0 728 714 721 714 0 0 0 0 0 0 0 0 0 0 0 0 0 766 766 758 782 766 0 0 0 0 0 0 0 0 0 0 0 0 537 533 533 0 0 0 0 0 0 0 0 0 162 162 0 163 162 0 0 758 750 782 758 774 791 817 799 743 782 782 791 808 799 782 782 791 817 799 0 750 0 0 0 0 0 0 0 0 0 0 0 0 774 743 0 750 0 0 0 0 0 0 0 0 0 0 0 0 799 799 774 782 799 766 782 750 758 782 782 791 782 758 774 766 782 782 750 0 743 0 0 0 0 171 0 0 0 0 735 721 743 750 743 743 750 743 735 750 766 774 0 808 799 808 817 808 799 782 782 774 766 758 758 750 743 743 774 728 728 743 758 707 687 687 700 694 687 694 681 669 675 669 0 0 608 593 588 593 598 603 603 728 728 721 728 728 735 721 0 0 613 574 566 579 570 579 579 0 714 707 728 743 750 735 0 0 0 0 504 514 518 514 511 514 525 529 529 529 541 541 545 541 549 545 549 570 588 603 613 623 634 634 0 0 0 0 0
    0 0 0 0 0 0 0 0 0 0 0 0 0 0 0 0 0 0 0 0 0 0 0 0 0 0 0 0 0 0 0 0 0 0 0 0 0 0 0 0 0 0 0 0 0 0 0 0 0 0 0 0 0 0 0 0 0 0 0 0 0 0 0 0 0 0 0 0 0 728 0 0 0 0 0 0 0 0 0 618 0 0 0 0 0 0 0 0 0 0 0 0 0 0 0 0 0 0 0 774 750 0 0 0 0 0 545 0 0 0 0 0 533 537 533 533 0 0 0 0 0 0 0 0 0 0 0 0 0 0 0 0 0 743 758 743 750 766 791 766 0 0 743 766 791 782 766 766 782 826 799 0 0 0 0 0 533 0 0 0 0 0 0 0 0 735 0 0 0 75 75 75 74 0 0 0 0 0 0 0 0 0 0 0 0 0 0 766 728 750 766 766 774 758 743 750 743 766 0 0 0 0 0 0 529 533 0 0 0 0 0 0 0 0 0 735 735 750 735 721 743 766 758 0 0 799 799 817 808 799 774 791 782 766 758 758 750 743 735 766 714 0 721 0 0 0 0 545 0 639 681 663 645 657 651 629 0 603 593 588 593 598 598 598 0 714 714 714 714 0 0 579 561 570 557 553 557 553 557 566 0 0 0 743 766 766 735 0 0 0 0 507 518 518 514 511 514 525 533 529 533 545 549 549 545 553 549 553 579 593 603 613 623 634 639 0 0 0 0 0
    0 0 0 0 0 0 0 0 0 0 0 0 0 0 0 0 0 0 0 0 0 0 0 0 0 0 0 0 0 0 0 0 0 0 0 0 0 0 0 0 0 0 0 0 0 0 0 0 0 0 0 0 0 0 0 0 0 0 0 0 0 0 0 0 0 0 0 0 0 0 0 0 0 0 0 0 0 566 545 566 574 549 0 545 525 545 537 529 533 533 0 0 0 0 0 0 0 0 0 0 0 0 0 0 85 0 541 537 537 537 533 537 533 537 533 533 0 0 0 0 0 0 0 0 0 0 0 557 557 557 561 570 0 0 0 0 0 0 0 0 541 0 0 0 0 0 0 0 0 0 0 541 537 541 533 0 533 0 0 0 0 0 0 0 0 0 0 0 0 0 0 0 0 0 0 0 0 0 0 0 0 525 529 525 0 0 537 0 0 735 750 750 750 743 735 743 735 0 0 0 0 0 0 529 525 529 525 533 533 521 529 537 541 0 0 0 0 0 728 714 0 0 0 0 0 0 0 0 799 799 743 782 774 766 758 750 750 735 728 758 694 593 0 557 0 0 0 533 529 0 0 634 623 634 623 618 0 593 584 584 584 588 588 584 588 675 0 0 0 0 549 549 545 549 549 549 549 549 553 557 549 0 0 0 0 782 0 497 507 0 521 507 518 518 514 511 514 525 529 529 529 549 549 549 545 549 0 545 566 588 588 608 623 634 634 0 0 0 0 0
    0 0 0 0 0 0 0 0 0 0 0 0 0 0 0 0 0 0 0 0 0 0 0 0 0 0 0 0 0 0 0 0 0 0 0 0 0 0 0 0 0 0 0 0 0 0 0 0 0 0 0 0 0 0 0 0 0 0 0 0 0 0 0 0 0 0 0 0 0 0 0 0 0 0 0 0 553 549 541 549 553 541 537 541 525 545 537 529 533 533 0 533 529 0 0 0 0 0 0 0 0 0 0 0 0 549 541 537 537 537 533 537 533 537 533 533 0 0 0 0 73 0 0 0 0 0 549 553 553 549 553 553 541 533 537 541 537 545 0 545 545 541 549 549 541 545 533 537 537 537 537 537 533 537 533 537 533 0 537 0 0 0 0 541 0 566 566 0 0 0 0 0 0 0 0 0 0 0 0 0 529 529 533 529 529 529 537 0 0 728 735 735 735 728 721 728 721 0 0 0 0 533 529 529 521 529 525 533 533 525 529 533 537 545 0 0 0 0 0 0 0 0 0 0 0 537 529 529 0 0 0 774 766 766 750 743 743 735 728 750 623 566 0 537 533 529 529 525 525 529 0 0 593 618 608 603 588 579 574 574 574 584 574 570 570 588 579 549 0 541 537 537 537 541 541 545 545 541 545 545 537 537 521 518 514 521 518 507 518 504 529 518 521 518 518 514 514 521 525 521 525 537 537 541 537 541 537 537 545 566 557 579 618 0 629 0 0 0 0 0
    0 0 0 0 0 0 0 0 0 0 0 0 0 0 0 0 0 0 0 0 0 0 0 0 0 0 0 0 0 0 0 0 0 0 0 0 0 0 0 0 0 0 0 0 0 0 0 0 0 0 0 0 0 0 0 0 0 0 0 0 0 0 0 0 0 0 0 0 0 0 0 0 0 557 553 541 537 541 537 541 549 541 537 541 533 545 537 529 537 533 0 533 529 529 0 0 0 0 0 0 0 0 0 0 0 549 541 537 537 537 533 537 537 537 533 537 537 0 0 0 0 0 0 0 0 549 545 549 549 545 545 541 537 529 529 533 529 537 541 537 541 537 545 541 537 541 533 533 533 533 537 533 533 537 533 537 537 541 541 545 545 545 545 545 545 553 553 545 549 549 0 0 0 0 0 0 0 529 525 529 529 529 533 529 533 533 537 541 549 0 728 721 728 714 707 714 707 0 0 0 529 533 529 525 525 529 529 533 533 525 529 533 537 541 545 553 553 561 593 584 570 0 561 549 537 537 529 529 525 533 537 529 0 0 0 0 0 0 0 0 598 557 541 537 533 525 529 525 521 525 533 537 537 593 593 574 566 561 561 566 566 566 561 557 553 549 549 533 533 533 533 537 537 537 541 541 541 541 541 537 533 533 518 514 514 521 518 514 521 511 529 521 521 521 518 518 518 521 521 518 521 529 529 533 529 537 529 529 533 545 537 549 598 598 613 0 0 0 0 0
    0 0 0 0 0 0 0 0 0 0 0 0 0 0 0 0 0 0 0 0 0 0 0 0 0 0 0 0 0 0 0 0 0 0 0 0 0 0 0 0 0 0 0 0 0 0 0 0 0 0 0 0 0 0 0 0 0 0 0 0 0 0 0 0 0 0 0 0 0 0 0 518 537 537 537 533 529 537 537 541 549 541 541 541 541 545 541 537 537 537 0 0 533 533 529 0 0 0 0 0 533 537 541 545 541 545 541 533 533 537 533 537 537 537 533 537 537 537 537 0 0 533 533 533 537 541 537 541 545 541 541 537 533 529 529 529 529 533 537 533 537 533 537 537 537 537 533 533 529 529 533 529 529 533 533 537 537 541 541 545 545 545 549 545 545 553 549 545 545 541 537 537 537 533 533 529 0 533 529 529 529 529 537 533 533 533 537 541 541 537 537 0 0 0 593 541 0 529 0 529 525 529 529 525 525 529 529 533 533 525 529 533 537 541 545 549 545 553 579 566 557 557 545 545 537 537 533 529 525 533 537 529 533 553 566 579 588 588 593 588 579 549 541 537 529 529 529 525 525 525 529 533 533 566 570 557 557 553 557 561 561 561 553 545 545 537 537 529 525 533 529 533 537 537 537 541 541 541 537 533 529 525 511 507 511 514 511 511 521 514 525 521 521 521 521 521 521 521 525 521 525 529 525 529 514 521 514 511 504 504 500 500 500 0 0 0 0 0 0 0
    0 0 0 0 0 0 0 0 0 0 0 0 0 0 0 0 0 0 0 0 0 0 0 0 0 0 0 0 0 0 0 0 0 0 0 0 0 0 0 0 0 0 0 0 0 0 0 0 0 0 0 0 0 0 0 0 0 0 0 0 0 0 0 0 0 0 0 0 0 533 529 514 533 533 537 533 529 537 537 541 549 541 545 545 541 549 541 541 541 537 0 0 0 0 529 533 533 0 533 537 533 537 541 545 541 541 541 529 533 533 533 537 533 537 537 537 541 537 537 0 0 533 529 529 533 537 537 537 537 537 537 533 533 529 525 529 529 529 537 533 537 529 537 537 537 537 533 529 529 529 533 529 525 529 529 533 537 541 541 545 545 545 549 545 549 549 549 541 541 541 537 537 537 529 533 533 0 533 529 533 533 533 537 533 537 533 537 541 541 541 537 553 553 549 553 541 529 529 521 525 525 525 529 525 525 529 533 533 537 525 533 533 537 541 541 545 545 545 561 557 553 549 541 545 537 537 533 529 525 533 537 529 533 541 545 557 561 570 570 570 561 545 537 537 529 529 529 525 525 525 529 529 525 545 549 545 553 545 553 553 553 549 545 537 537 525 525 525 521 529 529 533 533 537 537 541 541 541 537 533 525 521 507 507 507 511 511 511 518 511 521 521 525 525 521 525 525 525 525 521 529 529 529 529 511 514 507 507 497 493 490 0 0 0 471 0 0 0 0 0
    0 0 0 0 0 0 0 0 0 0 0 0 0 0 0 0 0 0 0 0 0 0 0 0 0 0 0 0 0 0 0 0 0 0 0 0 0 0 0 0 0 0 0 0 0 0 0 0 0 0 0 0 0 0 0 0 0 0 0 0 0 0 0 0 0 0 0 0 0 529 525 518 533 533 533 533 529 537 537 537 545 541 545 541 541 549 541 541 541 541 0 0 0 0 533 533 533 533 533 533 533 537 537 541 0 541 537 529 533 533 533 533 533 537 537 537 541 537 537 533 533 533 529 525 529 533 533 533 537 537 537 533 533 529 529 529 529 533 537 533 537 529 537 537 537 537 533 529 529 529 533 529 525 525 529 533 533 537 541 541 541 545 549 545 549 549 545 541 541 541 537 537 537 529 533 533 0 533 533 537 533 537 541 537 541 537 537 545 545 549 545 553 557 553 553 545 533 529 518 521 525 525 525 525 529 529 533 537 537 529 533 533 537 541 541 541 541 545 553 549 549 545 541 541 537 537 533 533 529 537 537 533 533 537 541 549 549 557 557 553 553 0 0 537 529 529 529 525 525 525 533 529 525 533 541 533 541 537 541 541 537 533 533 525 525 521 518 518 518 529 529 533 533 537 537 541 541 537 533 529 525 518 504 500 504 504 507 507 511 500 518 525 525 525 521 525 525 529 525 525 529 533 533 533 511 518 511 507 500 497 493 490 0 0 0 0 0 0 0 0
    0 0 0 0 0 0 0 0 0 0 0 0 0 0 0 0 0 0 0 0 0 0 0 0 0 0 0 0 0 0 0 0 0 0 0 0 0 0 0 0 0 0 0 0 0 0 0 0 0 0 0 0 0 0 0 0 0 0 0 0 0 0 0 0 0 0 0 0 0 533 529 518 529 533 533 529 529 533 537 537 545 541 541 541 541 549 541 541 541 541 0 0 0 537 533 533 533 529 533 533 529 537 537 541 0 541 537 525 533 533 533 533 533 537 537 537 541 537 537 533 529 529 525 521 521 525 529 529 529 529 533 529 529 529 529 529 529 533 537 537 537 529 537 537 537 537 533 529 529 525 533 525 521 521 529 529 533 537 541 541 541 545 549 545 549 549 545 541 541 541 537 537 537 533 533 533 0 537 537 537 537 537 545 541 549 541 541 545 545 553 553 557 561 557 557 545 537 529 521 521 525 525 525 525 529 529 533 537 537 529 537 533 537 541 541 541 541 545 553 549 549 545 541 541 541 537 533 537 533 541 537 533 533 537 541 545 545 549 545 545 545 0 537 537 529 529 529 529 529 529 533 529 521 533 533 529 537 525 529 525 525 525 525 521 521 518 514 518 525 533 529 533 537 537 537 541 541 537 529 529 525 514 500 500 500 504 507 511 511 504 521 533 525 529 525 525 529 529 529 525 529 537 537 529 511 514 511 507 500 493 490 487 0 0 0 0 0 0 0 0
    0 0 0 0 0 0 0 0 0 0 0 0 0 0 0 0 0 0 0 0 0 0 0 0 0 0 0 0 0 0 0 0 0 0 0 0 0 0 0 0 0 0 0 0 0 0 0 0 0 0 0 0 0 0 0 0 0 0 0 0 0 0 0 0 0 0 0 0 0 533 529 521 529 533 533 529 529 533 537 537 545 541 541 541 541 545 541 541 541 541 541 0 0 537 537 0 533 533 533 533 533 537 537 541 0 537 533 525 529 533 533 533 533 537 537 537 545 541 537 533 529 529 521 514 518 518 521 521 525 525 529 525 529 525 529 529 529 529 537 537 537 529 541 541 537 537 533 533 529 529 533 529 521 525 529 533 537 541 541 545 545 545 549 545 549 549 545 541 541 537 537 537 537 529 533 533 0 537 537 541 537 541 545 545 553 541 545 549 549 557 553 561 561 557 561 549 541 529 518 521 521 525 525 525 529 529 533 533 537 529 537 533 537 541 541 541 541 545 553 549 549 545 541 541 541 541 537 537 533 541 541 537 533 537 537 545 541 549 545 545 545 0 537 537 529 529 529 529 529 529 533 529 521 533 533 525 533 525 525 521 521 525 521 518 518 518 514 521 525 533 529 533 537 537 537 541 545 537 529 525 521 514 500 504 500 504 507 507 507 504 518 533 525 525 525 529 529 529 529 529 525 537 533 518 500 504 500 500 493 490 487 484 0 0 465 0 0 0 0 0
    0 0 0 0 0 0 0 0 0 0 0 0 0 0 0 0 0 0 0 0 0 0 0 0 0 0 0 0 0 0 0 0 0 0 0 0 0 0 0 0 0 0 0 0 0 0 0 0 0 0 0 0 0 0 0 0 0 0 0 0 0 0 0 0 0 0 0 0 0 533 529 521 529 533 533 533 533 533 537 537 541 541 541 541 541 541 541 541 541 541 541 541 537 541 537 0 537 533 537 537 533 537 537 537 537 537 533 521 529 533 533 533 533 537 537 537 545 537 533 529 525 525 514 507 511 514 518 518 521 525 525 525 529 525 529 529 529 529 537 537 537 533 541 541 541 537 537 533 533 533 537 529 525 525 533 537 541 545 545 549 549 549 553 549 553 549 545 537 537 537 533 533 533 529 529 529 537 537 537 541 541 541 549 545 557 545 545 549 549 557 553 557 561 557 561 549 541 529 521 518 521 525 525 525 529 529 533 537 537 533 537 537 537 541 541 541 541 541 549 549 549 545 541 541 541 541 537 541 533 541 541 537 533 537 537 545 545 549 545 545 541 0 537 537 533 533 533 529 529 529 533 529 521 533 533 525 529 525 521 521 521 521 521 518 514 518 514 518 521 529 529 533 533 537 537 541 545 537 525 521 521 514 500 504 504 504 507 507 507 504 511 529 521 521 521 525 525 529 525 525 518 525 514 500 493 497 493 493 490 487 487 484 0 0 462 0 0 0 0 0
    0 0 0 0 0 0 0 0 0 0 0 0 0 0 0 0 0 0 0 0 0 0 0 0 0 0 0 0 0 0 0 0 0 0 0 0 0 0 0 0 0 0 0 0 0 0 0 0 0 0 0 0 0 0 0 0 0 0 0 0 0 0 0 0 0 0 0 0 0 533 529 525 525 533 533 533 529 533 537 537 541 541 541 541 541 545 545 541 545 541 541 541 541 541 541 0 0 537 537 537 533 537 533 537 537 537 533 521 529 533 533 533 533 537 537 537 545 537 529 529 525 525 514 507 511 511 514 518 518 525 525 525 529 525 529 529 533 529 537 537 537 533 545 545 541 537 541 537 537 533 537 529 525 529 537 537 545 545 545 549 549 549 553 549 553 549 541 537 537 537 533 533 533 529 529 533 537 537 537 541 541 545 549 549 561 549 549 553 549 557 553 557 557 557 557 549 541 529 521 518 521 525 525 525 529 529 537 537 541 537 537 537 537 541 541 541 541 541 545 545 545 545 541 545 541 541 541 541 537 545 541 537 537 541 541 545 545 549 541 545 541 0 541 541 533 533 533 533 529 529 533 529 525 533 529 525 529 525 521 521 521 521 521 521 514 518 511 514 521 529 529 529 529 533 533 541 545 533 521 518 521 514 500 504 504 507 507 504 500 500 507 525 518 521 518 525 525 529 525 525 511 521 507 497 493 493 493 493 490 490 487 484 0 0 0 0 0 0 0 0
    0 0 0 0 0 0 0 0 0 0 0 0 0 0 0 0 0 0 0 0 0 0 0 0 0 0 0 0 0 0 0 0 0 0 0 0 0 0 0 0 0 0 0 0 0 0 0 0 0 0 0 0 0 0 0 0 0 0 0 0 0 0 0 0 0 0 0 0 0 529 525 525 525 529 533 529 529 533 533 533 537 541 541 541 541 541 545 541 545 545 545 541 541 541 545 0 0 0 0 537 533 537 533 537 533 533 533 521 529 533 529 529 529 533 533 533 545 537 529 529 525 525 518 511 514 514 518 518 518 525 525 525 529 525 529 529 533 533 533 537 537 533 545 545 541 541 541 541 537 537 541 529 525 529 537 533 541 541 545 545 545 545 549 545 553 545 541 537 537 533 533 533 533 529 529 533 537 537 541 545 541 545 549 549 561 549 549 553 549 557 549 553 557 557 557 545 537 529 521 518 521 521 525 525 529 529 537 537 541 541 541 537 541 541 541 541 541 541 541 545 545 545 541 545 545 545 545 549 541 549 545 541 537 541 537 541 545 545 541 545 541 541 541 541 0 537 537 533 533 533 537 533 525 533 529 525 533 529 525 525 521 525 525 525 518 518 511 511 521 529 529 529 529 533 533 541 541 533 521 518 518 511 497 500 500 500 500 497 493 493 500 521 511 518 511 521 518 529 521 521 504 521 497 493 490 490 490 487 487 487 484 481 481 474 465 0 0 0 0 0
    0 0 0 0 0 0 0 0 0 0 0 0 0 0 0 0 0 0 0 0 0 0 0 0 0 0 0 0 0 0 0 0 0 0 0 0 0 0 0 0 0 0 0 0 0 0 0 0 0 0 0 0 0 0 0 0 0 0 0 0 0 0 0 0 0 0 0 0 0 529 525 525 525 533 533 533 529 533 533 533 533 537 537 537 537 541 541 541 545 545 545 541 541 545 545 0 0 0 537 537 533 537 533 533 533 529 529 521 529 533 529 529 529 533 533 533 541 537 525 529 525 529 521 518 518 518 518 521 521 529 525 529 529 529 533 533 537 537 537 537 541 533 549 545 541 541 541 541 541 537 541 529 525 525 533 529 537 533 541 541 541 541 545 541 549 545 537 533 533 533 533 533 533 529 529 533 541 541 541 545 545 549 549 549 566 549 553 557 549 557 549 553 561 557 561 545 537 529 521 518 521 521 521 521 529 529 537 537 541 541 541 541 541 541 541 537 537 537 541 541 545 545 541 545 545 549 549 553 545 549 545 545 537 541 537 541 541 545 537 545 541 541 545 541 0 541 541 537 537 537 537 533 533 537 533 533 537 537 529 529 529 529 529 529 521 525 514 514 525 529 529 529 529 533 533 537 541 529 514 514 507 504 493 493 493 497 493 490 487 490 493 500 493 497 493 493 487 490 487 477 471 0 484 484 487 487 484 481 484 484 481 481 477 474 468 0 0 0 0 0
    0 0 0 0 0 0 0 0 0 0 0 0 0 0 0 0 0 0 0 0 0 0 0 0 0 0 0 0 0 0 0 0 0 0 0 0 0 0 0 0 0 0 0 0 0 0 0 0 0 0 0 0 0 0 0 0 0 0 0 0 0 0 0 0 0 0 0 0 0 529 525 529 525 533 533 533 533 533 533 533 533 537 537 537 533 537 541 0 545 545 0 0 0 0 545 0 0 537 533 0 525 533 529 533 525 525 529 518 529 533 529 529 529 533 533 0 541 533 525 529 529 533 521 521 518 518 521 525 521 529 529 529 533 533 537 537 541 541 541 541 541 533 549 545 541 541 541 541 541 537 545 529 521 525 533 525 533 529 533 533 533 537 541 537 541 541 533 533 533 533 533 533 533 529 533 533 541 541 541 545 545 545 549 549 566 549 557 561 557 561 553 557 561 561 561 545 541 525 518 518 518 521 521 521 525 529 537 537 541 541 541 541 541 541 541 537 537 0 537 541 541 545 541 541 541 545 545 549 541 549 545 541 541 541 537 541 541 541 533 541 541 541 541 541 0 537 541 541 537 541 541 541 541 541 541 541 541 537 525 525 525 529 529 529 525 521 518 518 529 533 533 529 529 533 533 537 541 529 518 518 507 504 493 493 493 493 493 490 487 490 487 490 484 484 481 474 468 468 468 465 462 471 468 471 484 484 481 477 481 481 481 481 481 481 477 0 0 0 0 0
    0 0 0 0 0 0 0 0 0 0 0 0 0 0 0 0 0 0 0 0 0 0 0 0 0 0 0 0 0 0 0 0 0 0 0 0 0 0 0 0 0 0 0 0 0 0 0 0 0 0 0 0 0 0 0 0 0 0 0 0 0 0 0 0 0 0 0 0 0 525 521 529 529 533 533 533 533 533 533 533 533 537 533 533 529 529 533 533 537 0 0 0 0 0 549 541 541 537 533 533 525 533 529 529 525 521 525 518 529 533 533 529 529 533 533 0 541 533 525 533 533 533 525 525 521 521 525 529 521 533 533 533 537 537 541 541 545 541 541 541 541 533 549 549 545 541 545 541 541 541 0 529 521 525 529 525 529 521 529 529 0 537 537 533 541 541 533 533 533 533 533 533 533 533 533 533 541 541 541 541 545 545 545 545 566 549 561 566 561 566 557 557 566 561 561 545 541 525 514 514 514 518 518 518 521 525 533 537 537 541 541 541 541 541 541 537 537 0 537 537 541 541 541 541 541 545 545 545 541 545 541 541 541 545 541 541 541 541 533 541 537 541 541 541 537 537 541 541 537 541 541 541 0 0 0 537 537 525 514 514 521 525 525 529 521 521 518 518 529 533 529 529 529 533 533 537 541 525 518 518 511 504 493 493 493 497 493 490 490 497 493 490 487 484 481 474 468 468 465 457 457 459 459 465 481 481 481 477 481 481 481 481 481 477 481 0 0 0 0 0
    0 0 0 0 0 0 0 0 0 0 0 0 0 0 0 0 0 0 0 0 0 0 0 0 0 0 0 0 0 0 0 0 0 0 0 0 0 0 0 0 0 0 0 0 0 0 0 0 0 0 0 0 0 0 0 0 0 0 0 0 0 0 0 0 0 0 0 0 0 518 507 525 525 533 533 533 529 533 533 533 533 537 533 533 525 525 0 0 0 0 127 0 126 0 0 0 541 0 533 533 525 529 529 529 525 521 525 518 529 533 533 529 529 533 533 0 541 537 529 533 533 537 529 533 525 529 529 529 521 533 533 533 537 537 537 0 545 541 541 541 541 533 549 549 545 541 545 541 541 541 0 529 521 525 529 521 529 525 525 525 0 537 537 533 541 537 533 533 533 533 533 533 537 533 533 537 541 541 541 541 545 541 545 0 0 0 0 570 561 561 553 553 561 557 549 541 533 518 507 511 511 514 514 514 514 521 525 533 533 541 541 541 541 541 541 0 0 0 0 537 541 541 537 537 537 541 545 545 541 545 541 541 545 545 541 545 0 545 537 545 541 541 545 541 537 537 541 541 537 541 541 541 0 0 0 533 533 518 507 500 518 521 518 521 521 518 518 514 529 529 529 525 529 529 533 533 537 525 518 518 511 504 493 493 497 497 493 490 490 497 493 487 484 481 474 468 465 462 459 457 457 454 448 457 481 481 477 474 477 477 477 481 481 477 481 0 0 0 0 0
    0 0 0 0 0 0 0 0 0 0 0 0 0 0 0 0 0 0 0 0 0 0 0 0 0 0 0 0 0 0 0 0 0 0 0 0 0 0 0 0 0 0 0 0 0 0 0 0 0 0 0 0 0 0 0 0 0 0 0 0 0 0 0 0 0 0 0 0 0 500 484 511 521 533 533 533 529 533 529 529 529 537 529 529 521 0 0 0 0 127 127 0 126 0 0 529 533 525 521 525 514 521 518 525 518 514 518 511 525 533 533 0 529 0 533 537 537 533 525 533 533 537 533 533 529 529 529 533 521 533 525 0 0 0 0 0 0 0 537 537 537 521 549 545 541 541 541 0 545 0 0 529 525 529 529 521 533 521 521 525 525 533 533 533 537 537 529 533 533 533 533 533 537 533 533 537 541 541 537 537 541 537 537 0 76 76 76 0 553 553 0 0 0 545 541 525 511 507 500 507 511 511 511 511 507 514 518 525 525 537 541 537 537 541 0 0 0 0 0 533 537 537 533 537 533 537 541 541 537 545 541 541 545 549 541 545 549 549 541 545 541 541 545 541 537 537 541 541 537 541 541 537 545 549 0 537 537 514 497 487 504 511 500 507 518 511 514 514 529 529 525 525 525 529 529 529 533 521 514 514 507 500 490 490 497 497 493 490 490 493 487 484 477 474 468 462 459 457 454 457 454 459 446 454 481 477 477 474 477 474 474 481 481 477 481 0 0 0 0 0
    0 0 0 0 0 0 0 0 0 0 0 0 0 0 0 0 0 0 0 0 0 0 0 0 0 0 0 0 0 0 0 0 0 0 0 0 0 0 0 0 0 0 0 0 0 0 0 0 0 0 0 0 0 0 0 0 0 0 0 0 0 0 0 0 0 0 0 0 0 481 474 487 0 533 529 529 525 529 525 525 521 533 521 525 514 0 0 0 0 127 127 0 127 127 0 500 500 497 487 490 484 484 484 493 497 490 497 493 518 0 0 0 0 0 529 533 533 525 507 521 529 537 529 533 525 529 529 533 518 529 500 0 0 0 0 0 0 0 0 537 533 511 545 541 537 537 0 0 0 0 0 529 521 0 521 518 521 511 511 518 518 529 533 529 537 537 529 533 529 533 533 533 537 533 533 537 541 541 537 537 537 529 525 0 76 0 0 0 0 0 0 0 0 0 0 0 0 0 490 500 507 507 507 507 0 504 507 511 500 525 537 533 533 0 0 0 0 0 0 0 529 529 525 529 529 533 537 537 533 541 541 0 541 545 541 0 0 0 500 0 541 0 541 537 533 537 541 541 537 541 541 537 545 545 537 533 533 500 487 471 487 490 487 487 500 500 500 504 525 525 521 521 525 525 525 529 529 518 511 507 500 493 487 487 493 490 487 487 487 487 477 474 468 468 462 457 457 454 454 459 457 465 446 454 481 477 477 471 474 474 471 474 477 474 477 0 0 0 0 0
    0 0 0 0 0 0 0 0 0 0 0 0 0 0 0 0 0 0 0 0 0 0 0 0 0 0 0 0 0 0 0 0 0 0 0 0 0 0 0 0 0 0 0 0 0 0 0 0 0 0 0 0 0 0 0 0 0 0 0 0 0 0 0 0 0 0 0 0 0 468 465 468 468 521 521 518 518 525 521 514 514 521 504 0 493 0 0 0 0 0 0 0 0 127 0 0 474 0 471 471 471 471 471 474 477 474 477 477 0 0 0 0 0 0 0 525 529 514 493 511 525 541 533 537 525 521 0 0 0 0 457 0 0 0 0 0 0 0 0 533 533 500 541 537 0 533 0 0 0 0 0 0 0 0 0 0 497 493 497 507 507 525 529 521 533 533 525 529 529 529 529 529 537 533 537 537 541 537 533 533 533 518 504 0 0 0 446 443 443 448 0 0 0 454 459 459 0 0 0 0 490 493 493 490 0 0 490 484 477 0 525 521 529 537 0 0 0 0 0 504 507 500 493 497 504 507 518 514 514 518 0 0 514 0 477 474 468 465 468 465 471 474 529 521 518 525 533 537 537 537 537 533 541 541 533 529 511 487 484 457 468 477 477 474 481 484 484 487 518 518 511 511 521 521 521 521 525 518 511 507 497 490 484 481 487 484 484 481 481 481 465 468 459 465 457 454 454 454 457 462 457 468 448 457 474 474 471 462 462 465 462 471 474 471 471 0 0 0 0 0
    0 0 0 0 0 0 0 0 0 0 0 0 0 0 0 0 0 0 0 0 0 0 0 0 0 0 0 0 0 0 0 0 0 0 0 0 0 0 0 0 0 0 0 0 0 0 0 0 0 0 0 0 0 0 0 0 0 0 0 0 0 0 0 0 0 0 0 0 0 459 457 459 457 493 493 484 500 525 514 500 497 500 484 477 481 471 462 457 462 0 0 0 0 0 0 0 454 0 459 462 462 462 465 465 468 468 468 471 474 0 0 0 0 0 0 0 504 490 477 0 0 0 0 0 514 0 0 0 0 0 446 443 0 0 446 0 0 0 0 0 497 484 477 490 481 0 481 477 477 0 0 0 0 0 0 0 484 484 0 504 504 525 529 518 525 525 518 525 521 525 521 521 533 529 533 537 0 0 529 525 521 500 484 474 468 462 454 446 446 448 454 454 451 451 454 451 451 451 459 457 471 468 468 454 446 462 471 468 462 462 481 481 493 529 0 0 0 0 490 481 481 477 474 477 481 481 0 0 0 0 0 0 477 468 468 465 459 457 462 459 462 465 481 487 490 497 514 525 533 533 533 525 537 537 529 514 490 477 474 451 459 468 471 468 471 474 474 477 500 500 500 500 514 518 518 518 521 518 507 504 493 487 481 477 481 481 481 481 481 477 462 465 457 462 457 454 454 454 457 462 457 468 448 457 465 465 457 451 448 454 454 465 471 468 471 0 0 0 0 0
    0 0 0 0 0 0 0 0 0 0 0 0 0 0 0 0 0 0 0 0 0 0 0 0 0 0 0 0 0 0 0 0 0 0 0 0 0 0 0 0 0 0 0 0 0 0 0 0 0 0 0 0 0 0 0 0 0 0 0 0 0 0 0 0 0 0 0 0 0 454 454 457 454 477 477 474 0 504 497 481 481 481 474 465 468 459 451 451 454 448 448 443 443 443 451 448 448 454 454 457 459 457 462 459 462 462 462 465 462 0 0 0 0 0 474 0 0 477 468 0 0 0 0 0 474 448 440 0 440 440 443 443 446 443 443 443 440 446 0 0 471 471 465 474 471 474 471 468 468 465 0 471 0 0 0 0 0 481 0 497 497 511 521 500 493 500 490 500 497 507 500 507 0 525 533 533 533 529 521 514 500 487 468 465 457 454 454 448 448 448 454 454 454 451 454 451 451 454 454 454 459 451 454 446 446 448 459 459 454 459 468 474 474 477 481 471 468 468 471 468 465 462 465 465 471 474 0 0 0 474 474 474 468 465 462 462 457 454 459 459 462 465 471 477 477 481 484 490 521 521 518 500 518 533 518 490 477 457 468 448 454 459 462 462 465 468 471 471 481 490 490 493 507 514 514 511 518 511 504 497 487 481 474 471 477 477 477 477 477 477 462 465 459 462 457 457 457 457 457 465 459 468 451 457 462 459 451 451 448 451 454 465 471 468 471 0 0 0 0 0
    0 0 0 0 0 0 0 0 0 0 0 0 0 0 0 0 0 0 0 0 0 0 0 0 0 0 0 0 0 0 0 0 0 0 0 0 0 0 0 0 0 0 0 0 0 0 0 0 0 0 0 0 0 0 0 0 0 0 0 0 0 0 0 0 0 0 0 0 0 448 448 454 448 462 465 462 465 471 474 468 468 471 465 462 462 454 448 448 451 446 446 443 443 443 448 448 451 451 454 457 457 454 457 454 459 459 459 462 459 465 474 474 474 474 465 465 465 468 462 459 459 459 454 457 465 446 446 448 440 440 443 443 446 443 446 443 443 448 448 459 462 462 454 465 465 465 465 462 459 459 459 465 454 457 454 465 471 474 477 487 487 481 493 481 474 481 474 477 474 477 477 0 0 0 0 529 518 507 500 490 484 468 454 457 451 451 454 451 448 451 457 454 454 451 454 451 451 454 451 454 457 451 451 448 446 448 454 457 451 454 457 459 459 462 465 454 451 457 459 462 457 454 462 462 465 468 468 468 465 468 468 465 459 459 459 462 457 454 459 459 459 465 468 471 471 471 474 474 484 493 490 481 477 477 481 477 468 454 462 448 451 457 459 459 462 465 465 468 474 481 481 487 497 504 504 507 511 514 507 504 493 477 468 465 471 474 474 474 474 474 459 465 462 462 459 457 457 459 457 465 459 465 454 459 465 459 451 459 457 457 457 468 471 468 468 0 0 0 0 0
    0 0 0 0 0 0 0 0 0 0 0 0 0 0 0 0 0 0 0 0 0 0 0 0 0 0 0 0 0 0 0 0 0 0 0 0 0 0 0 0 0 0 0 0 0 0 0 0 0 0 0 0 0 0 0 0 0 0 0 0 0 0 0 0 0 0 0 0 0 446 446 448 446 451 451 451 454 457 459 459 459 459 454 454 454 451 446 446 448 446 446 443 443 443 448 448 451 451 454 454 454 451 457 454 457 457 457 459 457 462 471 468 468 465 454 457 457 459 457 457 457 457 454 457 459 446 446 451 443 443 446 446 448 446 446 446 443 451 448 454 457 457 451 459 457 459 457 459 457 454 454 465 454 454 451 459 462 468 477 481 477 471 474 471 462 471 465 468 465 465 468 468 468 474 468 487 0 471 474 468 462 446 446 451 448 451 454 451 451 451 457 454 454 451 457 451 451 451 451 454 454 451 451 448 448 448 451 454 451 451 451 454 448 451 454 448 446 451 454 457 454 451 459 459 459 459 462 459 457 459 465 459 454 459 457 459 457 454 459 459 459 462 462 465 462 465 465 465 471 477 471 471 468 468 465 465 462 454 462 451 454 454 457 457 462 462 462 462 471 474 477 481 487 487 484 490 493 504 497 493 481 465 457 457 465 468 471 465 465 465 451 462 459 462 459 457 457 459 457 468 459 468 457 465 474 468 462 468 468 459 462 465 468 465 465 0 0 0 0 0
    0 0 0 0 0 0 0 0 0 0 0 0 0 0 0 0 0 0 0 0 0 0 0 0 0 0 0 0 0 0 0 0 0 0 0 0 0 0 0 0 0 0 0 0 0 0 0 0 0 0 0 0 0 0 0 0 0 0 0 0 0 0 0 0 0 0 0 0 0 446 446 448 446 451 451 451 454 457 459 457 459 459 454 454 451 448 446 446 448 446 446 446 443 446 448 448 451 451 454 454 451 451 457 454 457 457 457 457 457 459 468 462 462 459 451 454 457 457 454 457 454 459 454 459 454 443 446 451 443 443 446 446 448 446 448 448 446 454 451 454 457 457 451 457 457 459 454 457 457 454 454 465 457 459 457 462 468 471 477 481 474 468 471 468 459 465 462 465 462 462 465 462 465 471 462 474 459 454 468 457 454 443 443 451 448 451 457 454 454 454 459 454 454 451 454 451 448 448 448 451 454 451 448 448 448 451 451 457 451 454 451 457 451 454 457 451 448 454 457 459 457 451 459 459 459 459 459 457 457 457 462 457 454 459 457 459 459 454 459 459 457 459 457 459 457 459 459 459 462 465 459 462 459 459 454 459 457 454 462 451 454 454 454 457 459 459 459 457 465 468 471 471 474 471 471 474 474 481 481 474 471 459 454 451 457 462 465 459 457 459 446 462 459 459 457 457 457 459 457 471 459 468 459 465 468 465 457 457 451 448 448 451 454 454 454 0 0 0 0 0
    0 0 0 0 0 0 0 0 0 0 0 0 0 0 0 0 0 0 0 0 0 0 0 0 0 0 0 0 0 0 0 0 0 0 0 0 0 0 0 0 0 0 0 0 0 0 0 0 0 0 0 0 0 0 0 0 0 0 0 0 0 0 0 0 0 0 0 0 0 446 446 448 448 451 451 451 457 457 459 459 459 459 451 451 448 448 446 446 448 446 446 446 446 448 448 448 451 451 451 454 451 451 457 451 457 457 457 457 457 462 468 462 465 459 448 454 457 457 454 457 457 459 454 459 454 443 448 451 443 443 446 446 448 446 448 448 446 454 451 454 457 454 451 457 454 459 454 457 457 454 454 465 459 462 459 465 468 468 471 474 471 465 468 465 457 465 462 465 462 462 465 462 465 468 459 471 457 457 468 459 462 443 446 454 451 451 457 457 454 454 459 457 454 451 457 451 448 448 448 454 454 451 448 448 448 451 454 457 454 457 454 462 454 457 459 454 451 454 459 462 459 454 462 459 459 462 459 457 457 457 465 457 454 459 457 459 459 454 459 459 459 459 457 459 457 459 459 457 459 462 457 459 457 459 451 459 457 457 462 451 454 454 454 457 457 457 459 454 465 462 468 468 465 465 465 468 471 474 471 471 465 459 457 451 457 457 462 459 459 459 446 462 459 459 457 457 457 459 459 471 459 471 465 471 468 462 446 443 440 438 438 438 435 435 435 0 0 0 0 0
    0 0 0 0 0 0 0 0 0 0 0 0 0 0 0 0 0 0 0 0 0 0 0 0 0 0 0 0 0 0 0 0 0 0 0 0 0 0 0 0 0 0 0 0 0 0 0 0 0 0 0 0 0 0 0 0 0 0 0 0 0 0 0 0 0 0 0 0 0 446 446 451 448 451 451 454 457 457 459 459 459 459 451 451 448 446 446 446 446 446 446 448 446 446 446 448 448 448 448 451 448 448 454 451 457 457 457 457 457 462 468 459 465 459 448 454 457 457 457 457 457 459 457 462 459 448 448 451 446 446 446 448 451 448 451 451 448 457 454 457 457 457 451 457 457 459 454 457 457 454 457 462 459 459 459 462 465 465 468 471 465 462 462 459 454 462 459 462 459 459 462 459 462 465 457 465 454 454 465 459 468 446 448 457 454 454 459 459 459 457 462 459 454 454 457 454 448 451 448 454 451 451 448 448 448 451 451 457 454 459 454 462 454 457 462 457 454 457 459 462 459 454 462 459 459 462 459 457 457 457 465 457 454 462 459 459 459 457 459 459 459 459 457 459 457 459 459 457 459 459 454 459 457 459 454 462 462 459 462 451 457 454 454 457 457 457 457 454 465 462 468 471 465 465 465 471 471 477 474 474 468 462 459 451 454 457 459 459 459 457 448 462 459 459 459 459 459 459 459 474 459 468 465 465 451 446 432 411 422 425 425 427 425 427 427 0 0 0 0 0
    0 0 0 0 0 0 0 0 0 0 0 0 0 0 0 0 0 0 0 0 0 0 0 0 0 0 0 0 0 0 0 0 0 0 0 0 0 0 0 0 0 0 0 0 0 0 0 0 0 0 0 0 0 0 0 0 0 0 0 0 0 0 0 0 0 0 0 0 0 446 448 451 451 451 451 454 457 457 459 459 459 459 451 451 448 446 446 446 446 446 446 448 446 446 446 446 446 446 448 448 446 448 454 451 457 457 457 457 457 462 465 457 465 457 448 454 454 454 454 457 457 459 454 465 459 451 451 454 448 448 448 451 454 451 454 454 451 459 454 459 459 457 454 457 457 459 454 457 454 454 454 462 457 459 457 459 462 459 462 465 459 454 454 454 451 459 457 459 459 457 459 457 462 462 454 462 451 451 462 459 468 446 448 457 454 454 459 459 459 457 462 459 457 454 459 454 451 451 448 454 451 451 448 448 448 451 451 457 454 459 457 465 457 459 462 459 457 457 459 462 459 454 462 459 459 459 459 457 457 457 465 457 454 459 459 459 459 457 459 459 459 462 457 459 457 459 459 457 462 459 454 459 459 459 454 462 462 459 462 451 457 454 454 457 457 457 457 454 465 462 468 471 465 465 465 471 474 481 474 474 468 462 459 454 454 459 459 459 459 459 448 462 462 462 459 459 459 459 462 474 457 465 459 451 438 432 425 411 418 415 420 422 422 425 425 0 0 0 0 0
    0 0 0 0 0 0 0 0 0 0 0 0 0 0 0 0 0 0 0 0 0 0 0 0 0 0 0 0 0 0 0 0 0 0 0 0 0 0 0 0 0 0 0 0 0 0 0 0 0 0 0 0 0 0 0 0 0 0 0 0 0 0 0 0 0 0 0 0 0 446 448 454 454 454 454 454 459 459 459 459 459 459 451 454 451 448 448 448 446 448 448 451 448 448 446 448 448 448 448 448 446 448 454 451 457 457 457 457 457 462 462 457 465 457 446 454 454 454 454 457 457 459 454 465 459 451 454 457 448 448 448 451 454 451 454 454 451 459 457 459 462 457 454 459 459 459 457 459 457 454 457 462 457 457 459 459 459 457 459 459 454 451 451 451 451 459 457 459 459 457 459 457 462 459 454 459 451 454 462 462 471 446 448 457 454 451 459 457 459 457 462 462 457 454 459 457 451 451 448 454 448 451 448 451 451 451 451 457 454 462 457 465 457 459 462 459 457 457 459 462 459 454 462 459 459 459 459 457 457 457 462 454 457 459 459 459 459 457 462 459 462 462 459 459 459 459 459 457 462 459 451 459 457 457 451 459 462 459 462 451 457 454 454 457 457 457 457 454 465 462 468 474 468 468 471 474 474 481 474 474 468 465 462 457 457 462 462 462 462 459 451 462 462 462 459 459 459 459 462 471 451 457 451 443 430 430 422 411 415 413 418 420 420 422 420 0 0 0 0 0
    0 0 0 0 0 0 0 0 0 0 0 0 0 0 0 0 0 0 0 0 0 0 0 0 0 0 0 0 0 0 0 0 0 0 0 0 0 0 0 0 0 0 0 0 0 0 0 0 0 0 0 0 0 0 0 0 0 0 0 0 0 0 0 0 0 0 0 0 0 448 448 454 457 457 457 457 459 459 459 462 459 459 451 451 448 446 448 446 446 451 451 454 451 451 448 451 454 448 454 451 446 451 457 451 457 457 457 457 457 462 462 457 465 457 446 454 457 457 454 457 459 462 457 465 459 451 454 457 451 448 448 451 454 451 454 454 451 459 454 459 462 457 457 459 459 459 457 462 457 454 457 462 454 459 459 459 459 459 459 462 457 454 454 451 454 459 459 462 462 459 459 457 465 459 454 459 454 454 465 462 471 446 451 459 454 451 457 457 459 457 462 462 454 454 462 457 451 451 446 454 448 454 448 451 451 454 454 459 457 465 459 468 459 459 465 459 457 459 462 462 459 457 462 459 459 459 459 457 457 457 462 454 457 462 459 459 462 457 462 459 462 462 459 459 459 459 459 457 459 454 451 457 457 454 451 459 462 459 462 454 457 454 457 459 459 457 459 454 465 462 468 474 468 465 468 471 474 481 471 474 465 465 462 457 454 459 459 459 459 457 448 462 462 462 459 459 459 459 462 471 448 448 446 438 422 425 420 411 413 413 415 420 420 422 415 0 0 0 0 0
    0 0 0 0 0 0 0 0 0 0 0 0 0 0 0 0 0 0 0 0 0 0 0 0 0 0 0 0 0 0 0 0 0 0 0 0 0 0 0 0 0 0 0 0 0 0 0 0 0 0 0 0 0 0 0 0 0 0 0 0 0 0 0 0 0 0 0 0 0 451 451 457 459 457 459 459 459 457 459 459 454 454 448 451 448 446 448 446 446 454 454 459 454 454 451 454 457 451 457 451 443 451 457 451 457 457 457 457 457 462 462 457 468 457 446 457 457 457 454 457 457 459 457 465 459 451 451 457 451 448 451 451 451 451 454 454 451 459 451 457 459 454 454 459 459 459 457 462 459 457 459 465 457 462 462 459 459 459 462 465 459 454 454 451 457 459 462 462 465 459 462 457 465 459 454 457 451 451 459 459 468 446 451 457 454 451 457 457 459 457 465 462 454 454 462 457 448 448 446 451 446 454 448 451 451 454 454 459 457 465 459 471 459 462 465 462 459 462 462 462 459 457 462 459 459 462 459 457 459 457 465 454 459 462 462 459 462 457 462 459 465 462 459 459 459 459 459 457 459 454 454 457 457 457 454 459 465 462 465 457 462 457 459 462 462 459 459 454 465 459 468 474 465 462 468 471 471 477 468 471 462 462 459 454 451 457 454 457 459 451 448 462 462 459 457 459 459 459 465 474 446 446 443 432 418 422 420 411 411 411 415 418 418 420 411 0 0 0 0 0
    0 0 0 0 0 0 0 0 0 0 0 0 0 0 0 0 0 0 0 0 0 0 0 0 0 0 0 0 0 0 0 0 0 0 0 0 0 0 0 0 0 0 0 0 0 0 0 0 0 0 0 0 0 0 0 0 0 0 0 0 0 0 0 0 0 0 0 0 0 457 454 459 462 462 465 462 462 459 462 459 454 451 448 448 448 448 448 446 446 457 457 459 457 454 451 457 454 451 454 448 443 448 457 451 457 454 457 457 457 462 462 454 465 454 446 457 457 457 454 457 457 459 454 465 454 448 448 451 448 448 448 451 451 448 454 451 451 457 451 457 459 454 457 459 459 459 459 462 459 457 462 465 459 462 465 462 462 459 462 462 459 451 454 451 459 459 462 462 465 459 459 457 465 457 451 454 451 448 454 457 462 443 451 457 454 451 457 457 457 457 465 462 454 454 465 457 451 448 446 451 446 454 448 454 454 457 457 462 459 468 462 471 462 465 468 462 459 462 462 462 459 459 462 459 462 462 459 459 459 459 465 457 462 462 462 459 462 459 465 459 465 462 459 459 462 459 459 457 462 454 454 457 457 457 454 459 465 462 465 459 462 459 459 465 465 459 462 457 465 462 468 477 468 468 471 471 471 474 465 468 457 459 457 451 448 454 451 454 459 448 448 459 462 462 457 459 462 459 468 474 446 443 440 432 420 422 420 411 411 411 413 415 418 418 411 0 0 0 0 0
    0 0 0 0 0 0 0 0 0 0 0 0 0 0 0 0 0 0 0 0 0 0 0 0 0 0 0 0 0 0 0 0 0 0 0 0 0 0 0 0 0 0 0 0 0 0 0 0 0 0 0 0 0 0 0 0 0 0 0 0 0 0 0 0 0 0 0 0 0 457 454 459 465 465 471 471 465 462 462 459 451 451 448 446 446 448 448 448 446 454 454 457 454 451 448 454 451 448 448 446 443 448 457 451 457 454 457 457 457 462 462 454 465 454 448 457 457 457 454 457 457 459 454 462 454 446 446 448 446 446 448 448 448 446 451 451 451 454 448 457 462 454 457 462 459 459 459 462 459 457 462 462 457 462 462 459 462 459 459 462 459 454 457 451 457 457 462 462 462 459 459 454 462 454 451 454 451 451 454 457 459 446 451 459 457 451 457 457 457 457 465 462 454 454 465 457 451 451 446 451 446 0 0 454 454 457 457 462 462 468 465 471 465 465 468 462 459 462 465 462 457 459 462 457 459 462 459 459 462 459 465 457 465 465 465 462 465 459 465 459 465 459 457 459 462 459 459 457 462 451 457 454 457 457 454 459 462 462 465 459 462 462 462 465 465 459 462 457 468 462 468 481 471 471 477 474 474 477 465 468 457 459 457 451 448 457 454 454 459 448 451 459 462 462 457 459 462 459 468 474 446 443 440 435 422 422 418 411 411 411 413 415 415 418 411 0 0 0 0 0
    0 0 0 0 0 0 0 0 0 0 0 0 0 0 0 0 0 0 0 0 0 0 0 0 0 0 0 0 0 0 0 0 0 0 0 0 0 0 0 0 0 0 0 0 0 0 0 0 0 0 0 0 0 0 0 0 0 0 0 0 0 0 0 0 0 0 0 0 0 459 454 459 465 468 477 0 468 465 462 457 448 448 446 446 446 448 448 446 446 454 454 454 454 448 448 451 448 448 448 446 443 448 457 451 457 457 457 457 457 462 462 454 465 457 448 457 457 459 457 459 459 459 454 465 457 448 448 451 448 446 448 448 448 446 448 448 448 451 448 457 462 451 459 462 459 459 462 462 459 457 462 459 454 457 459 457 459 457 459 459 459 454 457 451 457 457 459 459 462 457 457 454 462 454 451 454 451 451 454 457 459 446 454 459 457 454 459 457 459 459 465 465 454 457 468 462 459 459 451 457 446 0 0 459 459 459 459 465 465 471 465 471 462 465 468 462 459 462 462 459 457 459 462 457 462 462 459 457 462 459 465 457 465 465 465 462 465 459 465 459 465 459 457 459 459 459 459 457 462 451 454 454 457 457 454 459 462 459 465 459 462 462 462 465 465 462 465 462 468 465 468 477 474 474 477 477 474 477 465 465 454 457 457 451 451 457 454 454 459 448 454 459 459 462 457 459 462 459 468 468 443 443 440 435 422 422 418 411 411 411 413 413 415 415 408 0 0 0 0 0
    0 0 0 0 0 0 0 0 0 0 0 0 0 0 0 0 0 0 0 0 0 0 0 0 0 0 0 0 0 0 0 0 0 0 0 0 0 0 0 0 0 0 0 0 0 0 0 0 0 0 0 0 0 0 0 0 0 0 0 0 0 0 0 0 0 0 0 0 0 457 448 454 459 465 477 0 468 465 462 459 451 448 451 448 448 451 451 448 446 454 457 454 451 446 443 451 448 446 446 443 443 448 457 454 457 454 457 457 457 459 462 454 465 457 451 457 459 462 459 459 462 462 457 468 462 451 451 454 451 448 448 448 448 446 448 448 448 448 448 457 465 451 459 462 462 459 462 462 459 457 462 457 454 457 459 454 457 457 459 462 459 454 459 451 457 457 459 459 462 459 459 454 462 454 454 459 451 451 454 457 457 448 454 459 457 454 459 457 459 459 468 465 457 457 468 465 465 462 451 457 448 0 0 459 459 462 462 465 465 471 468 471 462 462 465 459 459 462 465 459 459 462 462 457 462 459 459 457 462 459 462 457 465 462 465 462 465 459 465 459 465 459 457 457 459 457 459 454 462 448 454 451 457 457 457 459 462 459 462 459 462 459 462 465 465 462 462 465 468 465 468 471 468 468 468 471 471 468 462 462 451 454 454 451 451 454 454 454 457 448 454 459 459 459 457 459 459 457 468 462 440 438 440 432 422 420 418 413 411 411 415 413 415 418 411 0 0 0 0 0
    0 0 0 0 0 0 0 0 0 0 0 0 0 0 0 0 0 0 0 0 0 0 0 0 0 0 0 0 0 0 0 0 0 0 0 0 0 0 0 0 0 0 0 0 0 0 0 0 0 0 0 0 0 0 0 0 0 0 0 0 0 0 0 0 0 0 0 0 0 457 451 454 462 468 477 474 468 471 465 465 454 454 454 451 451 454 454 448 0 457 459 457 457 451 446 448 448 446 451 443 446 448 459 454 454 454 457 454 457 459 459 451 459 457 454 459 462 465 459 462 462 465 459 465 465 451 451 454 451 448 448 446 446 446 448 446 446 448 448 457 462 451 459 462 459 459 462 462 462 457 465 459 454 459 459 457 459 457 462 462 459 457 459 454 459 459 459 459 465 462 462 459 465 459 457 465 457 451 451 457 454 448 454 457 454 451 457 457 457 459 465 465 457 457 465 457 459 457 451 451 448 0 0 462 462 462 465 468 468 474 468 471 462 465 465 459 459 462 462 457 459 462 459 457 459 459 457 457 462 457 459 454 462 462 462 462 465 459 468 459 465 459 457 457 457 454 457 451 457 446 448 448 457 454 454 457 459 459 459 459 459 459 459 462 462 462 462 465 465 465 468 471 468 468 468 474 477 474 471 468 457 459 457 451 451 454 451 451 454 448 454 459 462 459 457 459 459 459 468 459 440 440 443 432 427 425 422 415 413 413 415 415 418 418 411 0 0 0 0 0
    0 0 0 0 0 0 0 0 0 0 0 0 0 0 0 0 0 0 0 0 0 0 0 0 0 0 0 0 0 0 0 0 0 0 0 0 0 0 0 0 0 0 0 0 0 0 0 0 0 0 0 0 0 0 0 0 0 0 0 0 0 0 0 0 0 0 0 0 0 459 454 457 462 471 481 477 471 471 468 468 459 459 457 451 451 0 0 0 0 0 0 0 462 459 451 454 0 0 457 448 448 448 459 457 454 454 457 454 457 459 462 451 457 457 457 459 465 465 459 459 462 465 462 465 465 448 448 0 0 446 443 443 443 443 446 446 446 448 448 454 459 451 457 459 459 459 462 465 459 457 465 459 454 459 462 457 459 459 465 465 465 462 465 457 459 459 459 459 465 462 462 459 465 459 459 465 457 451 451 454 451 448 451 457 451 451 457 457 457 459 465 462 454 457 465 448 454 448 448 448 0 0 0 462 465 465 468 468 471 474 471 471 462 465 465 457 459 462 462 457 459 462 459 457 459 459 457 457 462 457 459 457 462 462 462 462 465 459 468 459 465 459 457 457 457 454 454 448 451 443 448 446 454 454 454 457 459 457 457 459 459 459 459 462 462 459 459 465 462 465 465 471 471 468 471 474 481 481 474 471 459 462 459 448 451 451 448 446 454 446 454 462 462 462 459 462 462 459 468 459 443 446 446 435 427 427 420 418 413 413 415 413 415 413 411 0 0 0 0 0
    0 0 0 0 0 0 0 0 0 0 0 0 0 0 0 0 0 0 0 0 0 0 0 0 0 0 0 0 0 0 0 0 0 0 0 0 0 0 0 0 0 0 0 0 0 0 0 0 0 0 0 0 0 0 0 0 0 0 0 0 0 0 0 0 0 0 0 0 0 459 454 454 459 471 477 474 471 471 468 468 462 459 459 451 448 0 0 0 0 457 0 0 0 0 459 457 0 0 462 451 448 448 459 457 454 454 457 454 457 459 465 454 454 459 459 459 465 465 459 459 462 468 462 468 0 0 0 0 0 443 443 440 440 443 446 446 446 448 446 451 457 451 457 459 459 459 462 465 459 457 462 459 454 459 462 457 462 462 468 468 468 468 468 459 462 462 459 459 465 462 462 459 462 459 457 465 457 451 451 454 448 448 451 454 451 451 457 457 457 459 465 462 454 457 462 446 454 448 451 448 0 0 0 462 465 462 468 468 471 474 471 471 462 465 468 457 459 462 462 457 459 462 459 457 462 459 457 457 462 457 459 457 465 462 465 462 465 462 468 462 465 459 457 457 457 454 454 448 448 443 448 446 454 454 457 457 459 459 457 459 459 459 459 459 459 459 459 465 462 465 465 471 471 468 468 474 481 481 474 471 459 462 462 448 454 451 448 446 454 446 457 462 465 462 459 462 462 462 468 462 446 448 448 438 430 427 418 415 413 413 413 413 413 411 408 0 0 0 0 0
    0 0 0 0 0 0 0 0 0 0 0 0 0 0 0 0 0 0 0 0 0 0 0 0 0 0 0 0 0 0 0 0 0 0 0 0 0 0 0 0 0 0 0 0 0 0 0 0 0 0 0 0 0 0 0 0 0 0 0 0 0 0 0 0 0 0 0 0 0 457 451 454 457 465 471 468 468 471 468 471 465 465 462 454 0 0 0 0 0 0 0 0 0 0 462 459 0 0 465 454 451 448 457 457 454 454 457 451 454 457 465 451 451 457 459 459 465 465 462 459 465 468 465 471 0 0 0 0 0 446 443 440 440 443 446 446 443 448 446 451 454 448 454 457 457 459 462 462 459 457 462 457 457 459 462 459 462 465 468 468 468 468 468 462 462 462 457 459 465 462 462 459 462 459 459 468 457 451 451 454 448 448 451 454 451 451 457 457 457 459 462 462 454 457 462 446 451 446 451 448 451 0 459 465 465 465 471 468 471 474 471 471 462 465 468 457 459 462 462 454 462 462 459 457 462 459 457 457 462 457 457 457 462 462 465 462 468 462 468 462 465 462 457 457 454 451 451 448 448 443 448 446 451 451 457 457 459 457 457 459 457 457 459 459 459 459 459 465 462 465 468 471 471 471 468 474 484 481 477 468 459 459 457 446 457 454 451 448 459 448 459 462 465 462 459 462 462 459 468 459 448 451 451 438 432 430 420 418 413 413 413 411 413 415 413 0 0 0 0 0
    0 0 0 0 0 0 0 0 0 0 0 0 0 0 0 0 0 0 0 0 0 0 0 0 0 0 0 0 0 0 0 0 0 0 0 0 0 0 0 0 0 0 0 0 0 0 0 0 0 0 0 0 0 0 0 0 0 0 0 0 0 0 0 0 0 0 0 0 0 454 451 451 454 462 465 465 465 471 468 471 468 468 465 459 0 0 0 0 0 0 0 0 0 0 465 459 0 0 465 457 454 451 459 459 454 454 457 451 454 457 462 448 446 451 459 457 465 465 462 462 468 471 468 471 0 0 0 0 0 446 443 440 443 443 446 446 446 451 448 451 454 448 454 457 457 459 459 462 457 454 462 457 457 459 462 459 462 465 468 468 465 465 468 459 459 459 454 457 462 462 459 457 459 459 459 468 459 454 451 454 448 448 451 454 451 451 457 457 454 459 462 462 454 454 459 446 448 446 451 448 454 0 462 465 468 465 471 471 474 474 474 471 462 462 468 457 459 462 462 454 462 462 459 457 459 459 457 457 462 454 454 457 459 459 462 462 465 462 468 459 465 459 454 454 451 448 448 446 443 440 443 443 448 448 454 457 459 457 451 457 454 454 457 457 457 457 457 462 462 465 468 471 471 471 468 474 481 477 477 468 462 462 457 446 457 457 454 451 459 451 459 465 468 462 462 462 462 462 468 457 446 446 451 438 432 430 420 418 415 413 413 411 413 415 415 0 0 0 0 0
    0 0 0 0 0 0 0 0 0 0 0 0 0 0 0 0 0 0 0 0 0 0 0 0 0 0 0 0 0 0 0 0 0 0 0 0 0 0 0 0 0 0 0 0 0 0 0 0 0 0 0 0 0 0 0 0 0 0 0 0 0 0 0 0 0 0 0 0 0 451 448 448 451 462 465 462 465 468 468 474 471 468 468 459 0 0 0 0 0 0 0 0 0 0 465 0 0 0 0 462 454 451 459 459 454 454 454 448 451 454 459 446 443 448 457 457 465 465 465 465 471 474 474 474 0 0 0 0 0 446 446 443 446 446 448 448 446 454 451 454 454 448 454 454 454 457 459 459 457 454 459 454 457 457 459 459 462 465 468 468 465 465 468 459 457 459 454 457 462 462 462 457 462 465 465 474 468 459 454 454 448 451 451 451 448 451 454 457 457 462 459 462 454 454 457 443 446 443 451 448 454 457 462 465 468 465 474 468 474 474 474 471 462 462 468 457 462 465 462 454 462 462 459 457 459 457 454 454 462 451 451 454 454 457 457 457 459 457 462 457 459 454 451 448 448 446 443 443 438 438 440 440 448 448 457 459 459 459 451 457 454 454 457 454 457 457 454 462 459 465 465 468 471 468 468 471 481 481 477 471 465 468 462 446 459 457 454 448 462 451 459 465 468 462 459 459 459 457 462 451 440 440 443 432 430 427 413 413 413 411 413 411 413 413 415 0 0 0 0 0
    0 0 0 0 0 0 0 0 0 0 0 0 0 0 0 0 0 0 0 0 0 0 0 0 0 0 0 0 0 0 0 0 0 0 0 0 0 0 0 0 0 0 0 0 0 0 0 0 0 0 0 0 0 0 0 0 0 0 0 0 0 0 0 0 0 0 0 0 0 451 451 451 457 465 465 465 468 471 471 477 477 0 0 0 0 0 0 0 0 0 0 0 0 0 0 0 0 0 0 465 454 454 457 459 454 451 454 446 448 451 451 440 438 446 459 459 465 465 465 468 474 477 474 0 0 0 188 0 0 0 0 0 0 448 451 448 448 457 451 454 454 448 454 451 454 457 457 459 454 451 457 0 454 457 459 459 459 465 471 465 465 465 465 459 454 459 454 457 465 465 465 459 462 468 468 0 0 0 454 454 446 451 448 451 448 448 454 457 454 462 457 462 457 454 0 440 443 440 448 446 451 451 459 462 468 465 474 468 474 474 474 471 465 462 465 454 462 465 462 454 465 462 459 459 459 457 454 454 459 448 451 451 448 448 448 448 0 0 454 454 454 0 451 448 446 0 443 443 435 438 438 438 448 448 459 459 459 459 448 454 451 451 454 454 454 457 454 462 459 465 465 471 474 471 468 0 0 484 481 477 477 477 471 443 459 454 448 440 451 446 451 457 462 451 451 448 454 451 454 443 435 435 435 422 420 418 406 408 406 406 408 408 411 411 413 0 0 0 0 0
    0 0 0 0 0 0 0 0 0 0 0 0 0 0 0 0 0 0 0 0 0 0 0 0 0 0 0 0 0 0 0 0 0 0 0 0 0 0 0 0 0 0 0 0 0 0 0 0 0 0 0 0 0 0 0 0 0 0 0 0 0 0 0 0 0 0 0 0 0 454 457 457 465 468 465 465 471 474 477 487 487 0 0 0 0 0 0 0 0 0 0 0 0 0 0 0 0 0 0 0 0 0 0 457 454 0 454 0 0 0 0 0 0 0 459 454 465 465 465 465 471 474 474 0 0 0 0 0 0 0 0 0 0 0 457 451 451 459 454 457 451 448 451 451 451 457 454 457 448 451 0 0 459 462 468 465 462 465 471 465 459 0 462 459 454 457 454 457 465 465 465 459 459 462 0 0 0 0 0 448 0 448 446 448 446 446 448 451 451 457 451 0 0 0 0 0 0 0 0 0 0 0 0 0 0 0 0 0 0 0 0 0 0 0 471 454 459 465 459 457 465 462 457 459 459 457 457 457 459 448 451 451 446 0 0 0 135 0 0 0 0 0 0 0 0 0 0 0 432 435 432 432 0 0 457 465 462 457 0 0 0 0 0 0 0 0 451 459 454 0 462 0 0 471 0 0 0 493 487 484 481 484 0 0 465 451 443 430 0 0 0 0 446 440 440 435 446 443 446 438 435 425 413 404 399 402 399 404 402 402 404 406 408 411 415 0 0 0 0 0
    0 0 0 0 0 0 0 0 0 0 0 0 0 0 0 0 0 0 0 0 0 0 0 0 0 0 0 0 0 0 0 0 0 0 0 0 0 0 0 0 0 0 0 0 0 0 0 0 0 0 0 0 0 0 0 0 0 0 0 0 0 0 0 0 0 0 0 0 0 0 459 462 465 471 0 0 0 0 481 487 490 484 0 153 152 152 0 0 0 0 0 236 232 0 0 0 0 0 0 0 0 0 0 0 0 0 0 0 0 0 0 0 0 0 0 0 0 0 457 457 0 0 0 0 0 0 78 0 0 0 0 0 0 0 454 451 451 459 451 454 448 451 448 443 446 448 448 454 443 440 443 0 462 0 0 0 0 0 0 0 0 0 0 0 0 459 454 459 465 465 465 457 451 451 0 0 0 0 0 0 80 0 0 446 440 0 0 0 0 0 0 0 0 0 95 0 0 425 0 0 96 0 0 0 0 0 0 0 1989 2102 2164 2102 1989 0 0 0 0 0 0 0 465 462 457 459 459 459 457 457 459 448 448 457 0 135 0 0 0 0 0 0 0 0 0 0 0 0 0 0 415 0 399 402 0 0 391 377 0 0 0 0 0 0 0 0 0 0 0 0 443 0 0 0 0 0 0 0 0 518 497 0 484 487 481 0 0 0 0 0 0 0 0 0 0 432 435 430 440 435 440 435 430 399 395 395 393 395 395 402 399 399 402 404 406 408 415 0 0 0 0 0
    0 0 0 0 0 0 0 0 0 0 0 0 0 0 0 0 0 0 0 0 0 0 0 0 0 0 0 0 0 0 0 0 0 0 0 0 0 0 0 0 0 0 0 0 0 0 0 0 0 0 0 0 0 0 0 0 0 0 0 0 0 0 0 0 0 0 0 0 0 353 350 0 0 0 0 0 0 0 487 481 487 477 0 0 0 0 0 0 0 0 234 0 0 0 0 0 0 0 0 0 0 0 0 0 0 0 0 0 0 103 103 0 0 0 0 373 0 0 0 0 0 0 0 0 0 0 0 0 0 0 0 0 399 393 0 0 446 0 0 0 0 0 0 0 0 0 391 0 0 0 393 0 0 0 0 0 391 387 0 0 0 0 0 125 125 0 0 0 0 0 0 0 0 0 0 0 0 381 383 0 0 0 0 0 0 74 73 74 0 0 0 0 0 0 0 0 385 0 0 0 0 0 1635 0 0 1635 1635 0 0 0 1989 0 0 387 0 393 395 0 0 462 471 462 459 462 457 459 454 457 457 446 448 457 0 0 0 158 0 375 371 371 375 377 381 381 381 379 385 387 393 389 0 0 0 0 385 0 0 79 0 0 0 0 0 0 0 0 0 0 0 0 0 389 387 0 0 0 0 0 497 0 0 0 0 0 0 0 0 0 0 0 0 0 0 420 420 413 422 420 422 415 402 393 389 389 391 393 391 399 397 399 402 406 406 413 418 0 0 0 0 0
    0 0 0 0 0 0 0 0 0 0 0 0 0 0 0 0 0 0 0 0 0 0 0 0 0 0 0 0 0 0 0 0 0 0 0 0 0 0 0 0 0 0 0 0 0 0 0 0 0 0 0 0 0 0 0 0 0 0 0 0 0 0 0 0 0 0 0 0 0 360 360 0 371 371 367 371 371 364 0 0 0 0 0 0 0 0 0 0 0 235 0 0 0 0 0 0 0 0 0 0 0 0 369 371 0 0 0 0 0 0 0 0 0 0 0 369 371 373 0 0 385 383 377 387 385 0 0 0 389 383 393 406 397 391 399 0 0 343 0 357 0 369 369 379 377 375 377 375 381 375 375 176 0 0 375 375 379 375 377 375 375 0 371 373 371 373 369 369 0 0 0 0 0 371 0 0 0 379 379 0 0 0 385 387 393 385 0 0 0 0 0 371 379 377 377 377 377 373 369 371 0 0 0 0 0 0 362 364 0 375 379 379 381 381 381 385 387 381 383 383 0 0 0 0 0 0 0 0 443 0 0 0 0 0 0 0 373 373 371 371 377 377 379 381 381 381 383 385 391 385 0 0 0 385 389 387 0 0 0 0 0 0 0 0 373 373 371 373 377 375 385 385 383 0 0 383 383 385 391 0 0 0 375 375 373 379 379 379 377 383 0 0 0 408 408 406 406 408 408 404 395 391 385 387 391 393 391 395 393 393 395 399 397 406 413 0 0 0 0 0
    0 0 0 0 0 0 0 0 0 0 0 0 0 0 0 0 0 0 0 0 0 0 0 0 0 0 0 0 0 0 0 0 0 0 0 0 0 0 0 0 0 0 0 0 0 0 0 0 0 0 0 0 0 0 0 0 0 0 0 0 0 0 0 0 0 0 0 0 0 360 362 367 367 366 364 367 369 364 0 0 0 375 373 377 377 373 377 0 375 373 0 0 0 371 371 369 371 369 371 0 0 379 369 373 375 377 0 379 379 381 375 385 371 373 369 367 369 373 373 379 385 383 377 385 385 383 385 385 387 379 387 395 389 385 389 369 373 364 371 367 373 375 371 377 377 375 377 375 379 373 373 0 369 371 373 371 375 373 375 375 375 381 373 377 375 375 371 371 371 371 367 369 367 371 367 369 371 377 377 383 385 383 383 387 383 383 379 377 377 379 377 373 377 377 375 375 375 371 369 371 0 0 0 0 0 362 364 366 367 373 375 375 377 379 377 381 385 381 383 381 383 385 383 389 387 385 391 0 0 399 0 0 0 0 0 0 373 373 371 371 377 377 379 379 379 381 381 383 391 383 393 389 393 391 393 389 393 0 0 375 0 0 0 369 375 375 373 373 375 375 381 383 379 0 0 381 383 385 389 387 377 0 377 375 375 379 377 377 377 381 385 391 0 406 404 402 402 406 404 399 393 389 383 383 389 391 391 391 391 391 393 395 395 399 411 0 0 0 0 0
    0 0 0 0 0 0 0 0 0 0 0 0 0 0 0 0 0 0 0 0 0 0 0 0 0 0 0 0 0 0 0 0 0 0 0 0 0 0 0 0 0 0 0 0 0 0 0 0 0 0 0 0 0 0 0 0 0 0 0 0 0 0 0 0 0 0 0 0 0 362 366 367 369 367 366 369 369 367 367 371 373 373 375 377 377 375 375 373 373 371 373 371 367 371 371 371 371 371 373 369 371 379 371 373 375 377 379 379 381 381 375 381 371 371 369 367 371 373 371 377 383 383 377 383 385 381 383 385 387 379 385 391 387 383 385 375 373 367 371 367 373 373 371 377 377 375 377 377 381 373 375 379 371 371 373 371 375 375 377 375 375 379 375 377 375 375 371 373 371 371 369 371 369 371 369 371 373 377 377 381 381 379 381 381 379 381 379 377 377 379 379 373 377 379 375 377 375 373 369 371 375 366 0 366 366 366 367 369 371 375 377 375 377 379 377 379 383 381 381 383 385 387 383 389 389 385 391 387 393 393 395 397 381 387 375 0 373 373 371 371 377 377 377 379 377 379 379 381 389 381 391 389 391 391 393 389 393 0 387 377 0 0 367 373 377 377 375 375 377 377 381 383 381 0 381 383 383 387 389 385 379 369 375 375 375 379 377 377 377 379 383 387 391 399 402 402 399 404 402 397 389 385 379 379 385 387 389 389 389 389 389 393 393 391 395 0 0 0 0 0
    0 0 0 0 0 0 0 0 0 0 0 0 0 0 0 0 0 0 0 0 0 0 0 0 0 0 0 0 0 0 0 0 0 0 0 0 0 0 0 0 0 0 0 0 0 0 0 0 0 0 0 0 0 0 0 0 0 0 0 0 0 0 0 0 0 0 0 0 0 366 369 369 371 371 369 371 371 369 371 371 375 375 371 373 375 373 375 373 373 371 375 373 369 371 371 373 373 371 373 371 373 379 373 375 375 377 381 379 381 381 375 379 373 371 369 369 371 373 371 377 383 383 379 381 385 381 381 385 385 377 383 387 385 379 381 375 373 371 371 367 373 373 371 377 377 375 377 377 381 375 375 381 371 373 375 373 377 375 379 377 377 381 375 379 377 377 373 373 373 373 369 373 371 371 369 373 373 377 375 381 377 377 379 379 377 379 377 377 377 379 379 375 377 379 377 379 377 375 371 373 377 369 0 369 369 369 369 369 373 377 379 375 379 379 377 379 383 381 381 381 385 387 383 389 391 387 391 387 393 391 391 393 383 385 377 375 373 373 371 371 377 377 377 377 377 377 377 379 387 377 387 0 389 389 391 387 391 391 385 375 0 369 369 373 377 379 375 377 379 379 381 385 381 377 381 383 383 385 387 383 377 369 375 375 375 377 377 377 377 379 383 387 391 399 399 399 399 404 402 397 387 381 377 377 383 383 385 385 385 385 387 391 391 389 395 0 0 0 0 0
    0 0 0 0 0 0 0 0 0 0 0 0 0 0 0 0 0 0 0 0 0 0 0 0 0 0 0 0 0 0 0 0 0 0 0 0 0 0 0 0 0 0 0 0 0 0 0 0 0 0 0 0 0 0 0 0 0 0 0 0 0 0 0 0 0 0 0 0 0 367 369 369 371 371 369 373 371 369 371 371 377 373 371 373 375 373 375 373 373 371 375 373 371 373 371 373 373 373 375 371 373 377 373 375 375 377 381 377 381 379 375 379 373 371 369 369 373 375 373 377 383 383 379 381 385 381 381 383 385 377 381 387 383 379 379 375 375 373 373 369 373 373 371 377 377 375 377 377 381 375 375 383 373 373 375 373 377 377 381 379 377 381 377 381 379 379 377 375 375 375 371 375 373 373 371 373 375 377 377 381 377 377 379 379 377 379 377 377 377 379 377 375 377 379 377 379 377 375 371 375 381 371 373 369 371 371 369 371 373 375 379 375 379 379 375 379 381 379 381 379 385 385 381 389 391 387 389 387 391 389 389 391 383 385 379 377 375 375 373 373 377 377 377 377 377 377 377 379 385 375 383 0 383 385 389 385 389 389 383 375 371 371 369 373 379 379 377 377 379 381 381 385 381 377 381 383 383 383 385 381 375 369 375 375 373 377 377 377 379 381 385 387 391 397 399 399 397 402 399 397 387 385 379 377 383 383 385 385 385 385 383 389 387 387 393 0 0 0 0 0
    0 0 0 0 0 0 0 0 0 0 0 0 0 0 0 0 0 0 0 0 0 0 0 0 0 0 0 0 0 0 0 0 0 0 0 0 0 0 0 0 0 0 0 0 0 0 0 0 0 0 0 0 0 0 0 0 0 0 0 0 0 0 0 0 0 0 0 0 0 367 369 369 371 371 369 371 369 369 371 371 377 373 371 373 375 373 373 373 373 371 373 373 371 371 371 373 373 371 375 371 373 377 373 377 375 377 381 379 381 379 375 377 373 371 369 369 373 375 375 377 383 383 379 381 383 381 381 383 385 377 381 385 385 379 381 377 377 375 375 371 375 375 371 377 379 375 377 379 381 375 375 383 373 373 375 373 377 377 381 379 377 381 379 381 381 381 377 375 377 377 373 377 373 373 371 373 375 377 377 379 377 377 379 379 377 377 375 377 377 379 377 375 377 377 377 377 375 375 371 375 381 371 373 371 373 373 373 373 375 375 377 375 377 377 375 377 381 379 381 381 383 385 383 389 389 387 391 385 391 389 389 391 387 387 383 381 379 377 375 373 377 377 379 379 377 379 377 379 385 377 381 0 383 383 387 383 389 387 383 377 371 371 371 375 379 381 379 379 379 381 379 385 379 375 379 379 379 383 385 383 377 369 375 375 373 377 379 379 381 383 385 387 389 397 399 397 399 402 402 397 387 387 381 379 383 383 383 385 383 385 383 387 385 385 393 0 0 0 0 0
    0 0 0 0 0 0 0 0 0 0 0 0 0 0 0 0 0 0 0 0 0 0 0 0 0 0 0 0 0 0 0 0 0 0 0 0 0 0 0 0 0 0 0 0 0 0 0 0 0 0 0 0 0 0 0 0 0 0 0 0 0 0 0 0 0 0 0 0 0 369 371 369 371 369 369 371 369 369 369 371 377 373 371 373 375 373 373 373 371 371 373 373 371 371 371 373 373 371 375 371 373 377 375 377 375 377 381 379 381 379 375 377 373 371 369 369 371 373 373 375 381 381 379 379 383 381 381 383 383 377 381 385 385 381 381 379 379 377 377 371 377 375 371 379 379 375 379 379 381 375 375 383 373 373 375 373 377 377 381 381 379 383 379 383 381 381 379 377 377 379 375 377 375 375 371 373 375 377 375 377 375 377 377 379 377 377 375 377 377 379 377 375 379 379 377 379 377 377 373 377 383 375 375 375 375 377 375 375 377 377 377 375 377 377 375 377 381 379 381 381 385 385 383 391 389 389 391 387 391 389 389 391 387 385 383 383 381 379 375 373 379 377 379 379 379 379 379 381 387 377 385 0 383 383 389 385 391 387 385 379 373 375 373 377 381 381 379 377 377 379 375 381 375 373 373 375 377 381 381 385 379 371 375 375 375 379 379 379 381 383 387 387 389 397 397 397 399 404 399 395 385 387 385 383 385 385 385 387 385 385 385 387 385 385 391 0 0 0 0 0
    0 0 0 0 0 0 0 0 0 0 0 0 0 0 0 0 0 0 0 0 0 0 0 0 0 0 0 0 0 0 0 0 0 0 0 0 0 0 0 0 0 0 0 0 0 0 0 0 0 0 0 0 0 0 0 0 0 0 0 0 0 0 0 0 0 0 0 0 0 369 371 369 371 369 369 371 369 369 369 371 375 371 371 371 373 373 373 373 371 371 373 373 373 371 373 375 373 373 377 373 375 377 375 377 377 377 381 377 381 377 375 375 373 371 369 369 371 371 371 375 379 379 377 379 381 381 379 381 383 377 379 383 383 379 379 381 379 379 379 373 379 379 373 379 379 377 379 379 381 377 377 383 373 373 375 375 377 377 381 379 379 383 379 383 381 383 381 379 379 381 375 379 375 375 373 375 375 377 375 377 375 377 377 379 377 377 375 379 379 381 379 377 379 379 379 381 377 379 375 379 387 381 379 379 379 381 379 379 377 377 377 377 375 377 373 377 379 379 383 383 385 387 385 391 391 389 391 387 389 389 389 389 385 383 383 381 379 379 375 375 379 379 381 379 379 379 379 381 385 377 385 377 381 383 385 383 387 381 381 377 373 375 375 379 381 381 381 379 379 381 377 381 377 375 375 377 379 383 383 387 383 375 377 375 375 379 379 379 381 383 387 387 391 395 397 397 397 399 395 389 379 381 381 381 383 381 383 383 381 381 381 383 381 379 385 0 0 0 0 0
    0 0 0 0 0 0 0 0 0 0 0 0 0 0 0 0 0 0 0 0 0 0 0 0 0 0 0 0 0 0 0 0 0 0 0 0 0 0 0 0 0 0 0 0 0 0 0 0 0 0 0 0 0 0 0 0 0 0 0 0 0 0 0 0 0 0 0 0 0 371 373 369 371 371 369 371 369 369 371 371 373 371 371 371 373 373 373 373 371 371 373 373 375 373 373 375 375 375 379 375 377 379 377 377 377 377 381 377 381 375 375 375 373 371 371 371 371 371 371 373 377 379 377 379 381 381 379 381 381 377 379 381 381 379 377 381 379 379 379 375 379 379 373 379 379 375 379 379 381 377 377 383 373 375 377 375 377 377 381 381 379 383 381 383 383 383 383 381 383 383 379 381 377 377 375 375 377 377 375 375 373 375 377 379 377 377 375 379 379 383 381 377 381 381 381 383 379 379 375 379 389 381 379 379 379 381 379 379 377 375 375 375 375 377 373 377 379 379 383 385 387 387 385 391 391 389 389 383 385 383 383 385 381 379 381 381 381 379 377 377 381 379 383 379 379 379 379 379 383 375 379 377 381 381 383 381 385 381 383 377 371 377 375 381 383 381 383 381 381 383 379 381 379 377 379 379 381 381 381 383 383 375 375 375 373 377 379 379 383 383 387 389 393 395 397 393 393 391 385 381 377 377 377 377 379 377 377 377 377 375 375 377 375 373 377 0 0 0 0 0
    0 0 0 0 0 0 0 0 0 0 0 0 0 0 0 0 0 0 0 0 0 0 0 0 0 0 0 0 0 0 0 0 0 0 0 0 0 0 0 0 0 0 0 0 0 0 0 0 0 0 0 0 0 0 0 0 0 0 0 0 0 0 0 0 0 0 0 0 0 371 373 369 371 371 369 373 371 371 371 373 375 371 371 371 373 371 373 373 371 371 371 373 375 371 373 375 375 375 379 375 379 377 379 377 375 377 379 377 379 375 375 375 373 371 371 371 369 371 371 373 377 377 377 377 379 379 379 381 381 375 377 379 381 377 377 381 379 379 379 375 379 377 373 379 377 375 377 379 379 377 377 385 375 375 377 377 377 379 381 381 379 381 383 383 385 385 383 381 385 385 381 383 379 377 373 375 375 375 373 373 371 375 375 377 375 377 375 379 379 383 383 377 381 381 381 383 379 381 375 377 387 379 377 379 379 381 379 379 377 377 375 375 375 377 373 377 379 379 381 383 387 387 385 391 389 387 387 383 385 383 381 383 383 377 383 383 381 379 379 377 381 379 383 379 379 379 379 379 381 373 377 381 379 381 381 381 385 385 387 381 373 381 377 383 383 381 383 379 381 383 379 381 381 379 379 381 381 379 377 379 379 373 373 373 371 375 379 379 383 385 387 389 391 393 393 389 387 385 379 377 377 377 375 377 377 377 377 377 379 375 375 377 373 371 373 0 0 0 0 0
    0 0 0 0 0 0 0 0 0 0 0 0 0 0 0 0 0 0 0 0 0 0 0 0 0 0 0 0 0 0 0 0 0 0 0 0 0 0 0 0 0 0 0 0 0 0 0 0 0 0 0 0 0 0 0 0 0 0 0 0 0 0 0 0 0 0 0 0 0 371 373 369 371 371 371 373 371 373 373 373 375 371 371 369 373 371 373 373 371 371 371 371 375 371 373 375 373 373 377 375 377 377 377 377 375 375 377 375 379 375 373 373 373 371 371 371 369 371 371 371 375 377 377 375 377 379 377 379 379 375 377 379 381 379 377 381 379 381 381 377 377 375 371 377 377 373 375 379 379 377 377 385 377 377 379 377 377 379 381 379 381 381 383 383 385 387 385 381 383 383 381 381 377 375 373 373 375 373 371 371 369 373 373 373 373 375 375 379 377 383 383 377 381 383 381 381 377 379 373 375 381 379 375 379 381 381 381 379 379 379 375 377 375 377 375 377 379 381 381 383 387 387 387 391 389 387 389 387 387 383 381 383 383 377 381 381 379 379 377 379 381 381 385 381 381 381 381 381 381 375 377 381 377 379 381 381 385 385 389 383 375 383 379 385 383 381 381 379 383 385 381 381 383 381 379 381 379 377 377 377 377 371 371 371 371 375 379 377 385 385 387 389 391 391 387 385 385 381 377 375 377 377 377 379 377 377 375 375 377 373 373 0 369 367 369 0 0 0 0 0
    0 0 0 0 0 0 0 0 0 0 0 0 0 0 0 0 0 0 0 0 0 0 0 0 0 0 0 0 0 0 0 0 0 0 0 0 0 0 0 0 0 0 0 0 0 0 0 0 0 0 0 0 0 0 0 0 0 0 0 0 0 0 0 0 0 0 0 0 0 371 371 369 371 371 371 375 373 373 373 373 375 371 371 369 373 371 373 373 371 371 371 371 373 371 373 373 373 373 377 375 377 377 377 377 375 375 375 375 379 373 373 375 373 371 371 371 369 371 373 371 373 375 375 375 375 377 375 377 379 375 377 379 381 379 377 381 381 381 383 379 377 375 373 377 375 373 375 377 377 377 377 383 377 377 379 377 377 379 379 379 381 381 385 383 385 387 385 381 385 385 383 381 377 375 371 371 373 373 371 369 369 373 373 373 373 373 375 379 377 383 383 377 381 381 381 379 377 379 373 375 383 381 375 381 383 381 381 379 379 377 375 377 375 377 375 377 379 381 381 385 389 389 389 391 389 389 389 387 389 383 379 379 381 377 381 381 379 377 377 379 381 381 387 383 383 383 383 383 381 375 377 381 377 377 379 381 385 385 389 383 375 385 379 385 383 381 381 379 383 385 381 381 383 381 379 381 379 377 375 375 377 369 371 371 369 375 379 377 385 385 387 387 389 389 385 383 383 379 379 377 379 379 377 379 379 379 375 375 377 371 369 371 366 362 364 0 0 0 0 0
    0 0 0 0 0 0 0 0 0 0 0 0 0 0 0 0 0 0 0 0 0 0 0 0 0 0 0 0 0 0 0 0 0 0 0 0 0 0 0 0 0 0 0 0 0 0 0 0 0 0 0 0 0 0 0 0 0 0 0 0 0 0 0 0 0 0 0 0 0 371 371 369 371 371 371 373 373 371 371 373 373 371 371 371 373 371 373 373 371 371 369 369 371 369 371 371 371 371 375 375 377 375 377 377 375 375 375 375 377 373 373 373 373 371 371 371 369 371 373 371 373 375 375 373 375 377 375 377 377 375 377 379 383 381 379 381 381 383 383 379 379 377 373 377 375 373 375 377 375 377 377 383 377 377 379 379 377 379 379 379 381 381 383 383 383 387 385 383 385 385 383 381 377 375 371 371 373 371 371 369 369 373 373 373 373 373 375 379 377 383 383 377 381 381 381 379 377 379 371 373 381 379 373 381 381 381 381 379 379 377 373 377 375 375 375 377 379 381 381 387 389 389 389 391 389 387 389 387 387 383 379 379 379 375 381 381 379 377 377 381 383 383 387 385 385 383 385 385 383 375 379 381 377 377 379 381 385 385 391 385 377 387 381 385 383 379 381 379 381 385 381 379 383 379 379 379 379 377 375 375 377 369 369 369 366 373 377 375 383 383 383 385 387 387 383 381 383 383 381 379 383 381 379 381 379 379 375 373 375 369 369 369 364 360 359 0 0 0 0 0
    0 0 0 0 0 0 0 0 0 0 0 0 0 0 0 0 0 0 0 0 0 0 0 0 0 0 0 0 0 0 0 0 0 0 0 0 0 0 0 0 0 0 0 0 0 0 0 0 0 0 0 0 0 0 0 0 0 0 0 0 0 0 0 0 0 0 0 0 0 371 371 369 371 371 371 373 373 371 371 373 373 371 373 371 373 371 373 373 371 371 367 367 371 367 369 371 369 371 375 375 377 375 377 375 375 375 375 375 377 373 373 373 373 371 371 371 367 369 371 369 371 373 373 373 373 377 375 377 377 375 377 379 383 381 379 383 381 383 383 379 379 377 373 377 375 373 373 375 375 377 377 381 377 377 377 379 377 377 377 377 379 381 383 381 383 387 385 383 385 385 383 381 375 375 371 371 371 371 369 369 367 373 371 373 371 373 375 379 379 385 385 379 383 383 381 379 377 377 371 371 379 379 373 379 381 381 381 379 379 377 373 377 375 377 375 377 379 381 383 387 391 391 391 391 387 389 389 387 387 383 377 379 379 375 381 379 377 377 377 381 383 383 389 385 385 385 387 387 385 377 381 383 379 379 381 383 387 387 391 385 377 389 383 387 385 379 379 377 381 383 381 379 383 379 377 379 379 377 375 375 377 367 369 367 364 371 375 373 379 381 383 383 387 385 383 383 385 385 383 381 383 381 379 381 379 377 375 373 373 367 367 367 362 357 353 0 0 0 0 0
    0 0 0 0 0 0 0 0 0 0 0 0 0 0 0 0 0 0 0 0 0 0 0 0 0 0 0 0 0 0 0 0 0 0 0 0 0 0 0 0 0 0 0 0 0 0 0 0 0 0 0 0 0 0 0 0 0 0 0 0 0 0 0 0 0 0 0 0 0 371 371 369 371 371 373 373 375 373 371 375 373 371 373 369 373 371 373 373 371 371 367 367 371 367 371 371 371 371 375 377 377 375 377 375 373 373 373 373 375 373 373 373 373 373 371 371 367 369 369 369 369 371 371 371 373 375 373 375 375 373 375 377 381 379 377 381 381 383 385 381 379 375 373 375 373 371 373 375 373 377 379 381 379 377 379 379 377 377 377 375 379 379 383 381 383 385 385 381 383 385 383 379 0 375 371 369 369 369 367 367 367 371 371 373 371 373 375 381 381 389 389 381 385 385 383 381 379 379 371 371 379 379 373 379 379 381 381 379 379 379 375 377 375 377 377 377 381 383 385 389 393 393 393 391 389 389 389 389 387 381 377 377 377 373 379 377 375 375 377 381 383 383 389 385 385 385 387 387 383 377 381 385 379 379 381 385 387 387 391 387 379 391 385 387 383 377 379 377 381 383 381 379 383 381 379 381 379 377 375 375 377 369 369 369 362 369 373 371 375 377 381 383 387 385 383 381 385 385 383 379 383 381 379 379 377 377 375 375 375 367 367 366 360 355 352 0 0 0 0 0
    0 0 0 0 0 0 0 0 0 0 0 0 0 0 0 0 0 0 0 0 0 0 0 0 0 0 0 0 0 0 0 0 0 0 0 0 0 0 0 0 0 0 0 0 0 0 0 0 0 0 0 0 0 0 0 0 0 0 0 0 0 0 0 0 0 0 0 0 0 369 369 369 371 371 375 375 377 373 373 375 373 373 371 369 371 369 373 373 371 371 366 366 371 367 369 369 369 371 375 377 377 375 377 373 373 373 371 373 375 371 373 373 373 371 371 371 367 369 371 369 369 371 371 371 371 375 373 375 373 371 373 375 381 377 377 379 379 381 383 379 377 373 373 373 371 369 369 371 371 375 379 381 381 379 381 381 379 377 375 373 379 379 383 381 383 387 385 381 383 383 383 377 0 373 369 367 0 367 360 362 360 371 371 371 371 373 377 381 381 391 391 381 387 387 385 379 379 379 369 369 375 377 371 377 377 379 379 379 377 379 373 377 375 377 377 377 381 385 383 389 393 393 393 393 389 389 387 389 387 381 375 375 375 373 377 377 375 375 377 383 383 383 389 387 387 387 0 0 381 377 379 385 379 379 381 385 387 387 393 387 381 391 387 389 385 377 377 377 381 385 383 377 385 381 379 381 0 375 0 375 377 369 371 371 362 367 373 369 375 375 377 379 385 381 381 381 385 387 385 379 383 381 379 383 379 379 375 375 379 369 369 367 360 355 350 0 0 0 0 0
    0 0 0 0 0 0 0 0 0 0 0 0 0 0 0 0 0 0 0 0 0 0 0 0 0 0 0 0 0 0 0 0 0 0 0 0 0 0 0 0 0 0 0 0 0 0 0 0 0 0 0 0 0 0 0 0 0 0 0 0 0 0 0 0 0 0 0 0 0 367 367 369 371 371 375 375 377 373 373 375 373 373 373 371 373 371 373 373 373 371 364 366 367 367 367 367 367 369 371 375 375 373 375 373 371 371 369 371 373 371 373 373 373 371 371 373 369 371 373 369 371 0 373 371 371 373 371 373 371 369 373 373 381 377 377 377 377 379 383 377 373 369 371 367 366 366 366 366 367 371 375 375 381 377 381 381 377 377 375 373 379 375 383 379 381 389 387 379 379 381 381 373 0 0 0 0 0 367 357 0 0 0 0 371 369 371 375 379 377 389 389 381 383 385 383 377 377 377 367 367 371 373 369 373 373 375 375 375 377 379 373 375 375 377 377 377 381 385 381 387 395 395 395 391 389 387 385 387 387 379 373 375 375 375 377 375 373 373 377 385 383 385 389 389 389 0 0 0 0 377 379 387 379 379 383 385 387 389 395 391 387 397 397 393 387 375 367 371 377 383 383 375 0 0 0 0 0 0 0 0 0 0 0 0 360 0 367 367 373 373 375 377 383 379 381 381 385 389 387 383 385 385 383 385 381 379 375 375 379 371 369 367 362 355 350 0 0 0 0 0
    0 0 0 0 0 0 0 0 0 0 0 0 0 0 0 0 0 0 0 0 0 0 0 0 0 0 0 0 0 0 0 0 0 0 0 0 0 0 0 0 0 0 0 0 0 0 0 0 0 0 0 0 0 0 0 0 0 0 0 0 0 0 0 0 0 0 0 0 0 366 366 367 369 371 375 375 377 373 371 375 373 373 373 373 373 371 375 375 373 369 360 362 364 364 362 362 362 364 364 371 369 371 371 373 369 369 366 369 371 369 371 371 371 371 371 371 367 371 0 0 0 182 373 367 367 369 0 0 367 367 371 371 383 381 379 379 379 383 385 377 371 369 371 366 367 366 366 366 367 373 377 371 379 375 0 0 0 0 373 0 0 0 0 379 0 0 0 0 234 0 0 238 0 0 0 0 0 0 0 0 0 111 0 0 0 0 0 0 0 0 0 0 0 387 379 373 373 0 366 364 366 371 369 369 375 375 375 375 381 389 373 373 375 377 377 375 379 383 377 0 0 393 393 391 389 389 389 393 391 385 375 375 377 377 377 375 369 371 373 385 0 0 0 0 0 0 0 161 0 377 381 387 377 379 0 0 389 393 397 393 391 0 0 0 0 0 0 0 0 0 0 0 0 0 0 0 0 1887 0 0 0 0 0 0 0 0 0 364 371 371 371 375 379 379 377 379 385 389 387 383 387 385 383 387 381 379 375 375 377 371 369 369 362 359 355 0 0 0 0 0
    0 0 0 0 0 0 0 0 0 0 0 0 0 0 0 0 0 0 0 0 0 0 0 0 0 0 0 0 0 0 0 0 0 0 0 0 0 0 0 0 0 0 0 0 0 0 0 0 0 0 0 0 0 0 0 0 0 0 0 0 0 0 0 0 0 0 0 0 0 366 366 367 369 369 375 373 379 373 371 373 373 373 373 373 375 371 377 379 377 371 359 362 364 364 362 362 362 364 364 371 369 369 369 373 0 0 362 367 0 0 369 373 371 0 371 373 0 371 0 0 366 0 369 364 364 0 0 0 0 0 0 0 0 0 0 0 0 0 387 377 369 373 373 369 369 367 0 366 367 0 0 0 0 112 0 76 76 76 0 0 0 0 0 0 0 0 0 0 0 0 0 0 0 0 0 0 74 0 0 75 75 0 0 4329 3199 0 0 0 87 88 87 0 0 387 377 0 0 0 364 360 364 373 0 0 0 0 0 0 0 0 0 0 0 0 0 0 0 0 0 0 566 0 399 0 0 391 391 0 391 385 375 0 375 377 373 371 366 366 0 0 156 0 161 0 161 160 162 162 0 377 379 0 0 0 0 0 0 0 0 0 0 0 0 0 0 0 0 0 0 0 0 0 0 0 0 0 0 0 2725 2537 1989 0 0 0 0 0 0 360 366 366 369 369 375 375 375 377 387 391 385 383 387 385 383 385 377 375 371 371 371 369 366 366 362 359 355 0 0 0 0 0
    0 0 0 0 0 0 0 0 0 0 0 0 0 0 0 0 0 0 0 0 0 0 0 0 0 0 0 0 0 0 0 0 0 0 0 0 0 0 0 0 0 0 0 0 0 0 0 0 0 0 0 0 0 0 0 0 0 0 0 0 0 0 0 0 0 0 0 0 0 366 366 367 367 369 373 373 379 371 369 373 371 373 373 375 377 373 0 379 375 369 353 359 360 360 359 0 362 362 364 371 373 369 369 0 0 0 0 0 0 0 0 0 0 0 0 0 0 0 0 0 0 0 0 0 0 0 0 171 0 0 168 0 0 0 77 0 0 0 0 0 371 373 375 0 0 0 0 0 0 0 0 0 0 0 0 0 0 0 0 0 0 0 0 0 0 0 0 0 0 0 0 0 0 0 0 0 0 0 0 0 0 0 0 0 0 0 0 0 0 0 87 86 0 0 0 0 73 73 73 0 0 0 0 0 0 0 0 0 0 0 0 0 0 0 0 0 0 0 0 0 0 0 0 0 0 395 397 395 391 379 369 367 0 0 0 0 0 0 0 0 0 0 0 0 0 0 0 0 0 0 0 0 0 0 0 0 0 0 0 0 0 0 0 0 0 0 0 0 0 0 0 1226 0 0 0 0 0 0 0 0 0 0 0 0 0 0 0 353 353 352 360 366 371 375 379 385 391 393 383 381 383 379 383 385 373 369 371 371 367 0 366 364 355 352 348 0 0 0 0 0
    0 0 0 0 0 0 0 0 0 0 0 0 0 0 0 0 0 0 0 0 0 0 0 0 0 0 0 0 0 0 0 0 0 0 0 0 0 0 0 0 0 0 0 0 0 0 0 0 0 0 0 0 0 0 0 0 0 0 0 0 0 0 0 0 0 0 0 0 0 364 0 0 0 0 0 0 0 0 0 0 0 0 0 0 0 0 0 0 0 0 0 0 0 0 0 0 0 362 0 0 0 0 0 0 0 0 0 0 0 0 0 0 0 0 0 0 0 0 0 0 0 0 0 0 0 0 0 0 0 0 0 0 0 0 0 0 0 0 0 0 0 0 0 0 0 0 0 0 0 0 0 0 0 0 0 0 0 0 0 0 0 0 0 0 0 0 0 0 0 0 0 0 0 0 0 0 0 0 0 0 0 0 0 0 0 0 0 0 0 0 0 0 0 0 0 0 0 0 0 0 0 0 0 0 0 0 0 0 0 0 0 0 0 0 0 0 0 0 0 0 0 0 0 0 0 0 0 0 0 0 0 0 0 0 0 0 0 0 0 0 0 0 0 0 0 0 0 0 0 0 0 0 0 0 0 0 0 0 0 0 0 0 0 0 0 0 0 0 0 0 1168 1098 1132 0 0 0 0 0 4906 0 0 0 0 0 0 0 0 0 0 342 347 0 375 377 383 0 0 389 373 373 375 371 377 379 371 367 371 371 367 0 366 362 348 345 343 0 0 0 0 0
    0 0 0 0 0 0 0 0 0 0 0 0 0 0 0 0 0 0 0 0 0 0 0 0 0 0 0 0 0 0 0 0 0 0 0 0 0 0 0 0 0 0 0 0 0 0 0 0 0 0 0 0 0 0 0 0 0 0 0 0 0 0 0 0 0 0 0 0 0 0 0 0 0 0 0 0 0 0 0 0 0 0 0 0 0 0 0 0 0 0 0 0 0 0 0 0 0 0 0 0 0 0 0 0 0 0 0 0 0 0 0 0 0 0 0 0 0 0 0 0 0 0 0 0 0 0 0 0 0 0 0 0 0 0 0 0 0 0 0 0 0 0 0 0 0 0 0 0 0 0 0 0 0 0 0 0 0 0 0 0 0 0 0 0 0 0 0 0 0 0 0 0 0 0 0 0 0 0 0 0 0 0 0 0 0 0 0 0 0 0 0 0 0 0 0 0 0 0 0 0 0 0 0 0 0 0 0 0 0 0 0 0 0 0 0 0 0 0 0 0 0 0 0 0 0 0 0 0 0 0 0 0 0 0 0 0 0 0 0 0 0 0 0 0 0 0 0 0 0 0 0 0 0 0 0 0 0 0 0 0 0 0 0 0 0 0 0 0 0 0 1066 1008 0 0 0 0 0 0 4906 3345 0 0 0 0 608 593 0 0 0 337 0 0 0 0 0 0 0 381 369 369 373 369 377 381 373 371 373 373 371 0 367 362 343 339 339 0 0 0 0 0
    0 0 0 0 0 0 0 0 0 0 0 0 0 0 0 0 0 0 0 0 0 0 0 0 0 0 0 0 0 0 0 0 0 0 0 0 0 0 0 0 0 0 0 0 0 0 0 0 0 0 0 0 0 0 0 0 0 0 0 0 0 0 0 0 0 0 0 0 0 0 0 0 0 0 0 0 0 0 0 0 0 0 0 0 0 0 0 0 0 0 0 0 0 0 0 0 0 0 0 0 0 0 0 0 0 0 0 0 0 0 0 0 0 0 0 0 0 0 0 0 0 0 0 0 0 0 0 0 0 0 0 0 0 0 0 0 0 0 0 0 0 0 0 0 0 0 0 0 0 0 0 0 0 0 0 0 0 0 0 0 0 0 0 0 0 0 0 0 0 0 0 0 0 0 0 0 0 0 0 0 0 0 0 0 0 0 0 0 0 0 0 0 0 0 0 0 0 0 0 0 0 0 0 0 0 0 0 0 0 0 0 0 0 0 0 0 0 0 0 0 0 0 0 0 0 0 0 0 0 0 0 0 0 0 0 0 0 0 0 0 0 0 0 0 0 0 0 0 0 0 0 0 0 0 0 0 0 0 0 0 0 0 0 0 0 0 0 0 0 0 0 955 955 0 0 0 0 8177 6690 5256 0 0 0 0 0 0 0 0 0 334 333 0 0 0 0 0 0 0 367 0 371 369 379 387 379 375 371 373 373 0 0 362 342 333 317 0 0 0 0 0
    0 0 0 0 0 0 0 0 0 0 0 0 0 0 0 0 0 0 0 0 0 0 0 0 0 0 0 0 0 0 0 0 0 0 0 0 0 0 0 0 0 0 0 0 0 0 0 0 0 0 0 0 0 0 0 0 0 0 0 0 0 0 0 0 0 0 0 0 0 0 0 0 0 0 0 0 0 0 0 0 0 0 0 0 0 0 0 0 0 0 0 0 0 0 0 0 0 0 0 0 0 0 0 0 0 0 0 0 0 0 0 0 0 0 0 0 0 0 0 0 0 0 0 0 0 0 0 0 0 0 0 0 0 0 0 0 0 0 0 0 0 0 0 0 0 0 0 0 0 0 0 0 0 0 0 0 0 0 0 0 0 0 0 0 0 0 0 0 0 0 0 0 0 0 0 0 0 0 0 0 0 0 0 0 0 0 0 0 0 0 0 0 0 0 0 0 0 0 0 0 0 0 0 0 0 0 0 0 0 0 0 0 0 0 0 0 0 0 0 0 0 0 0 0 0 0 0 0 0 0 0 0 0 0 0 0 0 0 0 0 0 0 0 0 0 0 0 0 0 0 0 0 0 0 0 0 0 0 0 0 0 0 0 0 0 0 0 0 0 0 0 943 908 0 0 0 0 8177 8177 0 0 0 0 0 0 0 0 0 0 0 334 0 333 330 330 0 0 0 342 0 0 0 0 395 381 371 366 0 0 0 0 366 340 319 313 0 0 0 0 0
    0 0 0 0 0 0 0 0 0 0 0 0 0 0 0 0 0 0 0 0 0 0 0 0 0 0 0 0 0 0 0 0 0 0 0 0 0 0 0 0 0 0 0 0 0 0 0 0 0 0 0 0 0 0 0 0 0 0 0 0 0 0 0 0 0 0 0 0 0 0 0 0 0 0 0 0 0 0 0 0 0 0 0 0 0 0 0 0 0 0 0 0 0 0 0 0 0 0 0 0 0 0 0 0 0 0 0 0 0 0 0 0 0 0 0 0 0 0 0 0 0 0 0 0 0 0 0 0 0 0 0 0 0 0 0 0 0 0 0 0 0 0 0 0 0 0 0 0 0 0 0 0 0 0 0 0 0 0 0 0 0 0 0 0 0 0 0 0 0 0 0 0 0 0 0 0 0 0 0 0 0 0 0 0 0 0 0 0 0 0 0 0 0 0 0 0 0 0 0 0 0 0 0 0 0 0 0 0 0 0 0 0 0 0 0 0 0 0 0 0 0 0 0 0 0 0 0 0 0 0 0 0 0 0 0 0 0 0 0 0 0 0 0 0 0 0 0 0 0 0 0 0 0 0 0 0 0 0 0 0 0 0 0 0 0 0 0 0 0 0 0 943 908 1008 1022 0 0 0 0 0 0 0 0 0 0 0 0 0 327 325 324 330 325 319 319 317 317 319 319 319 0 0 0 395 0 0 0 0 0 0 0 0 322 314 307 0 0 0 0 0
    0 0 0 0 0 0 0 0 0 0 0 0 0 0 0 0 0 0 0 0 0 0 0 0 0 0 0 0 0 0 0 0 0 0 0 0 0 0 0 0 0 0 0 0 0 0 0 0 0 0 0 0 0 0 0 0 0 0 0 0 0 0 0 0 0 0 0 0 0 0 0 0 0 0 0 0 0 0 0 0 0 0 0 0 0 0 0 0 0 0 0 0 0 0 0 0 0 0 0 0 0 0 0 0 0 0 0 0 0 0 0 0 0 0 0 0 0 0 0 0 0 0 0 0 0 0 0 0 0 0 0 0 0 0 0 0 0 0 0 0 0 0 0 0 0 0 0 0 0 0 0 0 0 0 0 0 0 0 0 0 0 0 0 0 0 0 0 0 0 0 0 0 0 0 0 0 0 0 0 0 0 0 0 0 0 0 0 0 0 0 0 0 0 0 0 0 0 0 0 0 0 0 0 0 0 0 0 0 0 0 0 0 0 0 0 0 0 0 0 0 0 0 0 0 0 0 0 0 0 0 0 0 0 0 0 0 0 0 0 0 0 0 0 0 0 0 0 0 0 0 0 0 0 0 0 0 0 0 0 0 0 0 0 0 0 0 0 0 0 0 0 0 0 1051 0 0 0 0 0 0 0 0 0 603 0 0 327 324 319 317 317 319 318 317 315 313 314 314 310 307 304 302 305 0 0 0 0 0 313 315 313 0 315 311 301 0 0 0 0 0
    0 0 0 0 0 0 0 0 0 0 0 0 0 0 0 0 0 0 0 0 0 0 0 0 0 0 0 0 0 0 0 0 0 0 0 0 0 0 0 0 0 0 0 0 0 0 0 0 0 0 0 0 0 0 0 0 0 0 0 0 0 0 0 0 0 0 0 0 0 0 0 0 0 0 0 0 0 0 0 0 0 0 0 0 0 0 0 0 0 0 0 0 0 0 0 0 0 0 0 0 0 0 0 0 0 0 0 0 0 0 0 0 0 0 0 0 0 0 0 0 0 0 0 0 0 0 0 0 0 0 0 0 0 0 0 0 0 0 0 0 0 0 0 0 0 0 0 0 0 0 0 0 0 0 0 0 0 0 0 0 0 0 0 0 0 0 0 0 0 0 0 0 0 0 0 0 0 0 0 0 0 0 0 0 0 0 0 0 0 0 0 0 0 0 0 0 0 0 0 0 0 0 0 0 0 0 0 0 0 0 0 0 0 0 0 0 0 0 0 0 0 0 0 0 0 0 0 0 0 0 0 0 0 0 0 0 0 0 0 0 0 0 0 0 0 0 0 0 0 0 0 0 0 0 0 0 0 0 0 0 0 0 0 0 0 0 0 0 0 283 287 289 293 294 0 0 0 0 0 0 0 0 0 0 0 0 315 0 0 311 309 311 313 315 311 311 313 311 304 299 299 296 296 0 0 0 306 305 305 309 307 309 313 309 300 0 0 0 0 0
    0 0 0 0 0 0 0 0 0 0 0 0 0 0 0 0 0 0 0 0 0 0 0 0 0 0 0 0 0 0 0 0 0 0 0 0 0 0 0 0 0 0 0 0 0 0 0 0 0 0 0 0 0 0 0 0 0 0 0 0 0 0 0 0 0 0 0 0 0 0 0 0 0 0 0 0 0 0 0 0 0 0 0 0 0 0 0 0 0 0 0 0 0 0 0 0 0 0 0 0 0 0 0 0 0 0 0 0 0 0 0 0 0 0 0 0 0 0 0 0 0 0 0 0 0 0 0 0 0 0 0 0 0 0 0 0 0 0 0 0 0 0 0 0 0 0 0 0 0 0 0 0 0 0 0 0 0 0 0 0 0 0 0 0 0 0 0 0 0 0 0 0 0 0 0 0 0 0 0 0 0 0 0 0 0 0 0 0 0 0 0 0 0 0 0 0 0 0 0 0 0 0 0 0 0 0 0 0 0 0 0 0 0 0 0 0 0 0 0 0 0 0 0 0 0 0 0 0 0 0 0 0 0 0 0 0 0 0 0 0 0 0 0 0 0 0 0 0 0 0 0 0 0 0 0 0 0 0 0 0 0 0 0 0 0 0 0 317 297 284 289 290 293 294 290 0 0 735 0 0 0 0 0 0 0 0 309 0 0 305 300 0 307 0 309 310 307 309 299 296 296 293 294 0 0 0 0 299 0 304 304 302 304 304 297 0 0 0 0 0
    0 0 0 0 0 0 0 0 0 0 0 0 0 0 0 0 0 0 0 0 0 0 0 0 0 0 0 0 0 0 0 0 0 0 0 0 0 0 0 0 0 0 0 0 0 0 0 0 0 0 0 0 0 0 0 0 0 0 0 0 0 0 0 0 0 0 0 0 0 0 0 0 0 0 0 0 0 0 0 0 0 0 0 0 0 0 0 0 0 0 0 0 0 0 0 0 0 0 0 0 0 0 0 0 0 0 0 0 0 0 0 0 0 0 0 0 0 0 0 0 0 0 0 0 0 0 0 0 0 0 0 0 0 0 0 0 0 0 0 0 0 0 0 0 0 0 0 0 0 0 0 0 0 0 0 0 0 0 0 0 0 0 0 0 0 0 0 0 0 0 0 0 0 0 0 0 0 0 0 0 0 0 0 0 0 0 0 0 0 0 0 0 0 0 0 0 0 0 0 0 0 0 0 0 0 0 0 0 0 0 0 0 0 0 0 0 0 0 0 0 0 0 0 0 0 0 0 0 0 0 0 0 0 0 0 0 0 0 0 0 0 0 0 0 0 0 0 0 0 0 0 0 0 0 0 0 0 0 0 0 0 0 0 0 0 0 314 314 299 284 290 292 293 293 290 288 285 0 0 0 0 0 0 0 0 0 301 0 0 0 295 0 0 0 0 0 0 0 293 289 290 289 0 0 0 0 0 0 0 0 301 299 297 299 295 0 0 0 0 0
    0 0 0 0 0 0 0 0 0 0 0 0 0 0 0 0 0 0 0 0 0 0 0 0 0 0 0 0 0 0 0 0 0 0 0 0 0 0 0 0 0 0 0 0 0 0 0 0 0 0 0 0 0 0 0 0 0 0 0 0 0 0 0 0 0 0 0 0 0 0 0 0 0 0 0 0 0 0 0 0 0 0 0 0 0 0 0 0 0 0 0 0 0 0 0 0 0 0 0 0 0 0 0 0 0 0 0 0 0 0 0 0 0 0 0 0 0 0 0 0 0 0 0 0 0 0 0 0 0 0 0 0 0 0 0 0 0 0 0 0 0 0 0 0 0 0 0 0 0 0 0 0 0 0 0 0 0 0 0 0 0 0 0 0 0 0 0 0 0 0 0 0 0 0 0 0 0 0 0 0 0 0 0 0 0 0 0 0 0 0 0 0 0 0 0 0 0 0 0 0 0 0 0 0 0 0 0 0 0 0 0 0 0 0 0 0 0 0 0 0 0 0 0 0 0 0 0 0 0 0 0 0 0 0 0 0 0 0 0 0 0 0 0 0 0 0 0 0 0 0 0 0 0 0 0 0 0 0 0 0 0 0 0 0 0 311 306 301 296 284 288 289 289 289 287 285 281 280 286 280 280 280 283 281 285 0 294 0 0 0 0 0 0 0 0 0 290 286 286 281 284 284 283 279 0 0 0 0 0 0 297 296 295 296 294 0 0 0 0 0
    0 0 0 0 0 0 0 0 0 0 0 0 0 0 0 0 0 0 0 0 0 0 0 0 0 0 0 0 0 0 0 0 0 0 0 0 0 0 0 0 0 0 0 0 0 0 0 0 0 0 0 0 0 0 0 0 0 0 0 0 0 0 0 0 0 0 0 0 0 0 0 0 0 0 0 0 0 0 0 0 0 0 0 0 0 0 0 0 0 0 0 0 0 0 0 0 0 0 0 0 0 0 0 0 0 0 0 0 0 0 0 0 0 0 0 0 0 0 0 0 0 0 0 0 0 0 0 0 0 0 0 0 0 0 0 0 0 0 0 0 0 0 0 0 0 0 0 0 0 0 0 0 0 0 0 0 0 0 0 0 0 0 0 0 0 0 0 0 0 0 0 0 0 0 0 0 0 0 0 0 0 0 0 0 0 0 0 0 0 0 0 0 0 0 0 0 0 0 0 0 0 0 0 0 0 0 0 0 0 0 0 0 0 0 0 0 0 0 0 0 0 0 0 0 0 0 0 0 0 0 0 0 0 0 0 0 0 0 0 0 0 0 0 0 0 0 0 0 0 0 0 0 0 0 0 0 0 0 0 0 0 0 0 0 0 311 306 301 296 284 288 289 289 287 286 284 281 280 283 279 279 279 280 278 279 0 0 0 0 0 0 0 0 0 0 287 287 283 283 280 281 283 281 278 277 0 0 0 0 0 294 293 293 294 292 0 0 0 0 0
    0 0 0 0 0 0 0 0 0 0 0 0 0 0 0 0 0 0 0 0 0 0 0 0 0 0 0 0 0 0 0 0 0 0 0 0 0 0 0 0 0 0 0 0 0 0 0 0 0 0 0 0 0 0 0 0 0 0 0 0 0 0 0 0 0 0 0 0 0 0 0 0 0 0 0 0 0 0 0 0 0 0 0 0 0 0 0 0 0 0 0 0 0 0 0 0 0 0 0 0 0 0 0 0 0 0 0 0 0 0 0 0 0 0 0 0 0 0 0 0 0 0 0 0 0 0 0 0 0 0 0 0 0 0 0 0 0 0 0 0 0 0 0 0 0 0 0 0 0 0 0 0 0 0 0 0 0 0 0 0 0 0 0 0 0 0 0 0 0 0 0 0 0 0 0 0 0 0 0 0 0 0 0 0 0 0 0 0 0 0 0 0 0 0 0 0 0 0 0 0 0 0 0 0 0 0 0 0 0 0 0 0 0 0 0 0 0 0 0 0 0 0 0 0 0 0 0 0 0 0 0 0 0 0 0 0 0 0 0 0 0 0 0 0 0 0 0 0 0 0 0 0 0 0 0 0 0 0 0 0 0 0 0 0 0 311 306 301 296 284 288 289 289 287 286 285 281 280 284 280 279 279 280 277 279 0 0 0 0 0 0 0 0 0 287 285 286 281 283 280 281 283 281 278 276 272 0 0 0 0 0 292 293 293 290 0 0 0 0 0
    0 0 0 0 0 0 0 0 0 0 0 0 0 0 0 0 0 0 0 0 0 0 0 0 0 0 0 0 0 0 0 0 0 0 0 0 0 0 0 0 0 0 0 0 0 0 0 0 0 0 0 0 0 0 0 0 0 0 0 0 0 0 0 0 0 0 0 0 0 0 0 0 0 0 0 0 0 0 0 0 0 0 0 0 0 0 0 0 0 0 0 0 0 0 0 0 0 0 0 0 0 0 0 0 0 0 0 0 0 0 0 0 0 0 0 0 0 0 0 0 0 0 0 0 0 0 0 0 0 0 0 0 0 0 0 0 0 0 0 0 0 0 0 0 0 0 0 0 0 0 0 0 0 0 0 0 0 0 0 0 0 0 0 0 0 0 0 0 0 0 0 0 0 0 0 0 0 0 0 0 0 0 0 0 0 0 0 0 0 0 0 0 0 0 0 0 0 0 0 0 0 0 0 0 0 0 0 0 0 0 0 0 0 0 0 0 0 0 0 0 0 0 0 0 0 0 0 0 0 0 0 0 0 0 0 0 0 0 0 0 0 0 0 0 0 0 0 0 0 0 0 0 0 0 0 0 0 0 0 0 0 0 0 0 0 0 306 301 296 284 288 289 289 287 286 285 281 280 284 280 280 279 281 279 281 286 289 0 0 0 0 0 0 0 0 283 284 279 283 280 281 283 281 278 276 273 0 0 0 290 288 288 293 293 290 0 0 0 0 0
    0 0 0 0 0 0 0 0 0 0 0 0 0 0 0 0 0 0 0 0 0 0 0 0 0 0 0 0 0 0 0 0 0 0 0 0 0 0 0 0 0 0 0 0 0 0 0 0 0 0 0 0 0 0 0 0 0 0 0 0 0 0 0 0 0 0 0 0 0 0 0 0 0 0 0 0 0 0 0 0 0 0 0 0 0 0 0 0 0 0 0 0 0 0 0 0 0 0 0 0 0 0 0 0 0 0 0 0 0 0 0 0 0 0 0 0 0 0 0 0 0 0 0 0 0 0 0 0 0 0 0 0 0 0 0 0 0 0 0 0 0 0 0 0 0 0 0 0 0 0 0 0 0 0 0 0 0 0 0 0 0 0 0 0 0 0 0 0 0 0 0 0 0 0 0 0 0 0 0 0 0 0 0 0 0 0 0 0 0 0 0 0 0 0 0 0 0 0 0 0 0 0 0 0 0 0 0 0 0 0 0 0 0 0 0 0 0 0 0 0 0 0 0 0 0 0 0 0 0 0 0 0 0 0 0 0 0 0 0 0 0 0 0 0 0 0 0 0 0 0 0 0 0 0 0 0 0 0 0 0 0 0 0 0 0 0 306 301 296 284 288 289 289 287 286 285 281 280 285 281 280 280 281 279 280 283 285 0 0 0 0 0 0 0 0 0 281 278 283 279 280 281 283 279 0 269 0 0 0 0 0 0 0 283 284 0 0 0 0 0
    0 0 0 0 0 0 0 0 0 0 0 0 0 0 0 0 0 0 0 0 0 0 0 0 0 0 0 0 0 0 0 0 0 0 0 0 0 0 0 0 0 0 0 0 0 0 0 0 0 0 0 0 0 0 0 0 0 0 0 0 0 0 0 0 0 0 0 0 0 0 0 0 0 0 0 0 0 0 0 0 0 0 0 0 0 0 0 0 0 0 0 0 0 0 0 0 0 0 0 0 0 0 0 0 0 0 0 0 0 0 0 0 0 0 0 0 0 0 0 0 0 0 0 0 0 0 0 0 0 0 0 0 0 0 0 0 0 0 0 0 0 0 0 0 0 0 0 0 0 0 0 0 0 0 0 0 0 0 0 0 0 0 0 0 0 0 0 0 0 0 0 0 0 0 0 0 0 0 0 0 0 0 0 0 0 0 0 0 0 0 0 0 0 0 0 0 0 0 0 0 0 0 0 0 0 0 0 0 0 0 0 0 0 0 0 0 0 0 0 0 0 0 0 0 0 0 0 0 0 0 0 0 0 0 0 0 0 0 0 0 0 0 0 0 0 0 0 0 0 0 0 0 0 0 0 0 0 0 0 0 0 0 0 0 0 0 310 306 297 284 289 289 289 286 285 284 280 279 283 279 279 278 279 277 277 279 279 0 0 277 278 0 0 0 0 0 279 277 280 277 275 0 0 0 252 0 0 0 0 0 0 0 0 273 276 0 0 0 0 0
    0 0 0 0 0 0 0 0 0 0 0 0 0 0 0 0 0 0 0 0 0 0 0 0 0 0 0 0 0 0 0 0 0 0 0 0 0 0 0 0 0 0 0 0 0 0 0 0 0 0 0 0 0 0 0 0 0 0 0 0 0 0 0 0 0 0 0 0 0 0 0 0 0 0 0 0 0 0 0 0 0 0 0 0 0 0 0 0 0 0 0 0 0 0 0 0 0 0 0 0 0 0 0 0 0 0 0 0 0 0 0 0 0 0 0 0 0 0 0 0 0 0 0 0 0 0 0 0 0 0 0 0 0 0 0 0 0 0 0 0 0 0 0 0 0 0 0 0 0 0 0 0 0 0 0 0 0 0 0 0 0 0 0 0 0 0 0 0 0 0 0 0 0 0 0 0 0 0 0 0 0 0 0 0 0 0 0 0 0 0 0 0 0 0 0 0 0 0 0 0 0 0 0 0 0 0 0 0 0 0 0 0 0 0 0 0 0 0 0 0 0 0 0 0 0 0 0 0 0 0 0 0 0 0 0 0 0 0 0 0 0 0 0 0 0 0 0 0 0 0 0 0 0 0 0 0 0 0 0 0 0 0 0 0 0 0 0 301 0 0 289 289 287 283 284 281 279 278 283 278 279 277 278 276 276 277 277 276 276 274 276 277 0 0 0 277 278 276 279 0 0 0 0 0 0 0 250 0 0 0 252 255 0 271 271 0 0 0 0 0
    0 0 0 0 0 0 0 0 0 0 0 0 0 0 0 0 0 0 0 0 0 0 0 0 0 0 0 0 0 0 0 0 0 0 0 0 0 0 0 0 0 0 0 0 0 0 0 0 0 0 0 0 0 0 0 0 0 0 0 0 0 0 0 0 0 0 0 0 0 0 0 0 0 0 0 0 0 0 0 0 0 0 0 0 0 0 0 0 0 0 0 0 0 0 0 0 0 0 0 0 0 0 0 0 0 0 0 0 0 0 0 0 0 0 0 0 0 0 0 0 0 0 0 0 0 0 0 0 0 0 0 0 0 0 0 0 0 0 0 0 0 0 0 0 0 0 0 0 0 0 0 0 0 0 0 0 0 0 0 0 0 0 0 0 0 0 0 0 0 0 0 0 0 0 0 0 0 0 0 0 0 0 0 0 0 0 0 0 0 0 0 0 0 0 0 0 0 0 0 0 0 0 0 0 0 0 0 0 0 0 0 0 0 0 0 0 0 0 0 0 0 0 0 0 0 0 0 0 0 0 0 0 0 0 0 0 0 0 0 0 0 0 0 0 0 0 0 0 0 0 0 0 0 0 0 0 0 0 0 0 0 0 0 0 0 0 0 0 0 0 0 0 284 279 281 280 278 278 281 279 279 277 278 276 275 276 276 274 275 272 273 274 275 275 274 272 274 273 277 276 0 0 0 0 0 0 252 0 0 256 252 253 0 272 267 0 0 0 0 0
    0 0 0 0 0 0 0 0 0 0 0 0 0 0 0 0 0 0 0 0 0 0 0 0 0 0 0 0 0 0 0 0 0 0 0 0 0 0 0 0 0 0 0 0 0 0 0 0 0 0 0 0 0 0 0 0 0 0 0 0 0 0 0 0 0 0 0 0 0 0 0 0 0 0 0 0 0 0 0 0 0 0 0 0 0 0 0 0 0 0 0 0 0 0 0 0 0 0 0 0 0 0 0 0 0 0 0 0 0 0 0 0 0 0 0 0 0 0 0 0 0 0 0 0 0 0 0 0 0 0 0 0 0 0 0 0 0 0 0 0 0 0 0 0 0 0 0 0 0 0 0 0 0 0 0 0 0 0 0 0 0 0 0 0 0 0 0 0 0 0 0 0 0 0 0 0 0 0 0 0 0 0 0 0 0 0 0 0 0 0 0 0 0 0 0 0 0 0 0 0 0 0 0 0 0 0 0 0 0 0 0 0 0 0 0 0 0 0 0 0 0 0 0 0 0 0 0 0 0 0 0 0 0 0 0 0 0 0 0 0 0 0 0 0 0 0 0 0 0 0 0 0 0 0 0 0 0 0 0 0 0 0 0 0 0 0 0 0 0 0 0 0 0 0 0 278 0 0 280 279 279 276 277 275 274 275 275 273 273 269 270 270 271 273 270 268 271 270 274 275 0 0 0 0 0 0 0 0 0 256 252 0 0 0 0 0 0 0 0 0
    0 0 0 0 0 0 0 0 0 0 0 0 0 0 0 0 0 0 0 0 0 0 0 0 0 0 0 0 0 0 0 0 0 0 0 0 0 0 0 0 0 0 0 0 0 0 0 0 0 0 0 0 0 0 0 0 0 0 0 0 0 0 0 0 0 0 0 0 0 0 0 0 0 0 0 0 0 0 0 0 0 0 0 0 0 0 0 0 0 0 0 0 0 0 0 0 0 0 0 0 0 0 0 0 0 0 0 0 0 0 0 0 0 0 0 0 0 0 0 0 0 0 0 0 0 0 0 0 0 0 0 0 0 0 0 0 0 0 0 0 0 0 0 0 0 0 0 0 0 0 0 0 0 0 0 0 0 0 0 0 0 0 0 0 0 0 0 0 0 0 0 0 0 0 0 0 0 0 0 0 0 0 0 0 0 0 0 0 0 0 0 0 0 0 0 0 0 0 0 0 0 0 0 0 0 0 0 0 0 0 0 0 0 0 0 0 0 0 0 0 0 0 0 0 0 0 0 0 0 0 0 0 0 0 0 0 0 0 0 0 0 0 0 0 0 0 0 0 0 0 0 0 0 0 0 0 0 0 0 0 0 0 0 663 645 0 0 0 0 0 0 0 0 0 0 0 0 0 0 0 0 0 0 275 274 276 276 273 273 269 268 268 268 267 265 264 264 264 265 263 262 260 256 252 0 0 0 0 0 0 0 0 0 0 260 0 0 0 0 0
    0 0 0 0 0 0 0 0 0 0 0 0 0 0 0 0 0 0 0 0 0 0 0 0 0 0 0 0 0 0 0 0 0 0 0 0 0 0 0 0 0 0 0 0 0 0 0 0 0 0 0 0 0 0 0 0 0 0 0 0 0 0 0 0 0 0 0 0 0 0 0 0 0 0 0 0 0 0 0 0 0 0 0 0 0 0 0 0 0 0 0 0 0 0 0 0 0 0 0 0 0 0 0 0 0 0 0 0 0 0 0 0 0 0 0 0 0 0 0 0 0 0 0 0 0 0 0 0 0 0 0 0 0 0 0 0 0 0 0 0 0 0 0 0 0 0 0 0 0 0 0 0 0 0 0 0 0 0 0 0 0 0 0 0 0 0 0 0 0 0 0 0 0 0 0 0 0 0 0 0 0 0 0 0 0 0 0 0 0 0 0 0 0 0 0 0 0 0 0 0 0 0 0 0 0 0 0 0 0 0 0 0 0 0 0 0 0 0 0 0 0 0 0 0 0 0 0 0 0 0 0 0 0 0 0 0 0 0 0 0 0 0 0 0 0 0 0 0 0 0 0 0 0 0 0 0 0 0 0 0 0 0 0 0 0 0 1672 0 0 0 0 0 0 0 0 0 0 0 0 0 0 0 0 0 277 277 277 274 274 269 267 266 266 264 263 261 261 261 260 260 260 258 254 252 250 0 0 0 0 0 0 0 0 0 252 0 0 0 0 0
    0 0 0 0 0 0 0 0 0 0 0 0 0 0 0 0 0 0 0 0 0 0 0 0 0 0 0 0 0 0 0 0 0 0 0 0 0 0 0 0 0 0 0 0 0 0 0 0 0 0 0 0 0 0 0 0 0 0 0 0 0 0 0 0 0 0 0 0 0 0 0 0 0 0 0 0 0 0 0 0 0 0 0 0 0 0 0 0 0 0 0 0 0 0 0 0 0 0 0 0 0 0 0 0 0 0 0 0 0 0 0 0 0 0 0 0 0 0 0 0 0 0 0 0 0 0 0 0 0 0 0 0 0 0 0 0 0 0 0 0 0 0 0 0 0 0 0 0 0 0 0 0 0 0 0 0 0 0 0 0 0 0 0 0 0 0 0 0 0 0 0 0 0 0 0 0 0 0 0 0 0 0 0 0 0 0 0 0 0 0 0 0 0 0 0 0 0 0 0 0 0 0 0 0 0 0 0 0 0 0 0 0 0 0 0 0 0 0 0 0 0 0 0 0 0 0 0 0 0 0 0 0 0 0 0 0 0 0 0 0 0 0 0 0 0 0 0 0 0 0 0 0 0 0 0 0 0 0 0 0 0 0 0 0 3199 1989 1711 1415 0 0 0 0 0 735 0 0 0 0 0 0 0 0 0 0 277 277 277 274 274 270 267 265 265 263 262 261 260 260 260 259 258 256 252 251 248 247 0 0 248 251 248 0 0 0 0 0 0 0 0 0
    0 0 0 0 0 0 0 0 0 0 0 0 0 0 0 0 0 0 0 0 0 0 0 0 0 0 0 0 0 0 0 0 0 0 0 0 0 0 0 0 0 0 0 0 0 0 0 0 0 0 0 0 0 0 0 0 0 0 0 0 0 0 0 0 0 0 0 0 0 0 0 0 0 0 0 0 0 0 0 0 0 0 0 0 0 0 0 0 0 0 0 0 0 0 0 0 0 0 0 0 0 0 0 0 0 0 0 0 0 0 0 0 0 0 0 0 0 0 0 0 0 0 0 0 0 0 0 0 0 0 0 0 0 0 0 0 0 0 0 0 0 0 0 0 0 0 0 0 0 0 0 0 0 0 0 0 0 0 0 0 0 0 0 0 0 0 0 0 0 0 0 0 0 0 0 0 0 0 0 0 0 0 0 0 0 0 0 0 0 0 0 0 0 0 0 0 0 0 0 0 0 0 0 0 0 0 0 0 0 0 0 0 0 0 0 0 0 0 0 0 0 0 0 0 0 0 0 0 0 0 0 0 0 0 0 0 0 0 0 0 0 0 0 0 0 0 0 0 0 0 0 0 0 0 0 0 0 0 0 0 0 0 0 0 3679 2725 1839 1565 0 0 0 0 0 0 0 0 0 0 0 0 0 0 0 0 276 276 276 274 274 272 268 266 265 263 261 260 260 259 257 257 256 254 252 251 251 250 250 251 249 250 247 0 0 0 246 0 0 0 0 0
    0 0 0 0 0 0 0 0 0 0 0 0 0 0 0 0 0 0 0 0 0 0 0 0 0 0 0 0 0 0 0 0 0 0 0 0 0 0 0 0 0 0 0 0 0 0 0 0 0 0 0 0 0 0 0 0 0 0 0 0 0 0 0 0 0 0 0 0 0 0 0 0 0 0 0 0 0 0 0 0 0 0 0 0 0 0 0 0 0 0 0 0 0 0 0 0 0 0 0 0 0 0 0 0 0 0 0 0 0 0 0 0 0 0 0 0 0 0 0 0 0 0 0 0 0 0 0 0 0 0 0 0 0 0 0 0 0 0 0 0 0 0 0 0 0 0 0 0 0 0 0 0 0 0 0 0 0 0 0 0 0 0 0 0 0 0 0 0 0 0 0 0 0 0 0 0 0 0 0 0 0 0 0 0 0 0 0 0 0 0 0 0 0 0 0 0 0 0 0 0 0 0 0 0 0 0 0 0 0 0 0 0 0 0 0 0 0 0 0 0 0 0 0 0 0 0 0 0 0 0 0 0 0 0 0 0 0 0 0 0 0 0 0 0 0 0 0 0 0 0 0 0 0 0 0 0 0 0 0 0 0 0 0 0 6133 0 1887 0 0 0 0 0 0 0 0 0 0 0 0 0 0 0 0 0 277 275 277 276 275 273 269 265 263 261 260 260 259 257 255 255 256 254 253 252 252 252 252 252 250 250 247 246 242 0 245 0 0 0 0 0
    0 0 0 0 0 0 0 0 0 0 0 0 0 0 0 0 0 0 0 0 0 0 0 0 0 0 0 0 0 0 0 0 0 0 0 0 0 0 0 0 0 0 0 0 0 0 0 0 0 0 0 0 0 0 0 0 0 0 0 0 0 0 0 0 0 0 0 0 0 0 0 0 0 0 0 0 0 0 0 0 0 0 0 0 0 0 0 0 0 0 0 0 0 0 0 0 0 0 0 0 0 0 0 0 0 0 0 0 0 0 0 0 0 0 0 0 0 0 0 0 0 0 0 0 0 0 0 0 0 0 0 0 0 0 0 0 0 0 0 0 0 0 0 0 0 0 0 0 0 0 0 0 0 0 0 0 0 0 0 0 0 0 0 0 0 0 0 0 0 0 0 0 0 0 0 0 0 0 0 0 0 0 0 0 0 0 0 0 0 0 0 0 0 0 0 0 0 0 0 0 0 0 0 0 0 0 0 0 0 0 0 0 0 0 0 0 0 0 0 0 0 0 0 0 0 0 0 0 0 0 0 0 0 0 0 0 0 0 0 0 0 0 0 0 0 0 0 0 0 0 0 0 0 0 0 0 0 0 0 0 0 0 0 0 0 0 2628 0 4088 3199 2830 0 0 0 0 0 0 0 0 0 0 0 0 0 0 279 284 279 279 278 272 264 262 261 260 260 258 256 253 252 253 252 251 249 248 248 247 246 245 244 241 240 240 238 240 0 0 0 0 0</data></depth>
</opencv_storage>
