<?xml version="1.0"?>
<opencv_storage>
<gps_time_stamp>33091</gps_time_stamp>
<gps_x>-1.0253408432006836e+001</gps_x>
<gps_y>1.1550518274307251e+000</gps_y>
<gps_z>-2.7053813934326172e+000</gps_z>
<image_time_stamp>21063</image_time_stamp>
<depth type_id="opencv-matrix">
  <rows>90</rows>
  <cols>320</cols>
  <dt>s</dt>
  <data>
    0 0 0 0 0 0 0 0 0 0 0 0 0 0 0 0 0 0 0 0 0 0 0 0 0 0 0 0 0 0 0 0 0 0 0 0 0 0 0 0 0 0 0 0 0 0 0 0 0 0 0 0 0 0 0 0 0 0 0 0 0 0 0 0 0 0 0 0 0 8177 0 0 0 0 0 0 0 0 0 0 0 0 0 0 0 0 0 0 0 0 0 0 0 0 0 0 0 0 0 0 0 0 0 0 0 0 0 0 8177 0 0 0 0 0 0 0 0 0 0 0 7359 0 0 0 0 0 0 0 0 0 0 0 0 0 0 0 8177 0 0 0 579 574 566 557 0 290 0 290 288 0 6133 6690 0 0 0 0 7359 7359 7359 0 0 0 0 0 0 0 0 0 0 549 0 0 0 0 0 0 0 0 0 0 0 0 0 0 0 7359 6690 6690 6690 0 0 0 0 0 0 0 0 0 0 0 0 6690 7359 7359 7359 0 0 8177 8177 8177 8177 6690 8177 8177 7359 6690 5661 6690 6690 6690 6690 6133 5661 5256 5661 6690 4906 4906 4906 5256 4599 4906 5256 4906 4599 5256 4906 4088 3504 3679 3679 3345 4088 4088 4088 4088 4329 4906 4329 4599 7359 4088 4906 4599 3345 4088 4088 4088 3504 3199 3199 3066 3066 2943 2725 2628 2628 2628 3066 3066 3066 3066 3199 2830 2628 2725 2628 2628 2537 2628 2628 2628 2628 2628 2628 2628 2537 2628 2374 2374 2164 2164 2102 2164 1989 1989 1936 0 0 0 0 0 0 0 0 0 0 598 593 584 574 570 557 557 0 0 0 0 0 0
    0 0 0 0 0 0 0 0 0 0 0 0 0 0 0 0 0 0 0 0 0 0 0 0 0 0 0 0 0 0 0 0 0 0 0 0 0 0 0 0 0 0 0 0 0 0 0 0 0 0 0 0 0 0 0 0 0 0 0 0 0 0 0 0 0 0 0 0 0 8177 0 0 0 0 0 0 0 0 0 0 0 0 0 0 0 0 0 0 0 0 0 0 0 0 0 0 0 0 0 0 0 0 0 0 0 0 0 0 8177 0 9199 0 0 0 0 0 0 0 0 0 8177 0 0 0 0 0 0 0 0 0 0 0 0 0 0 0 8177 0 0 0 0 574 566 557 0 290 287 289 288 0 6690 6690 0 0 0 0 7359 0 0 0 0 0 0 0 0 0 0 0 0 0 0 0 0 0 0 0 0 0 0 0 0 0 0 0 0 7359 6133 6133 6133 8177 7359 8177 0 0 0 0 0 0 0 0 0 7359 7359 8177 7359 0 0 8177 8177 8177 7359 6690 7359 8177 7359 6690 5661 6690 6690 6690 6690 6133 5256 5256 5661 6690 5256 4906 5256 5256 4906 5256 5256 4906 4599 5256 4906 3679 3504 3873 3679 3345 4088 4088 4088 4088 4329 4906 4329 4599 7359 4599 5256 5256 3345 4329 4329 4329 3679 3345 3199 3199 3066 3066 2725 2628 2725 2725 3199 3066 3199 3199 3199 2943 2628 2725 2628 2628 2537 2628 2537 2537 2628 2725 2628 2725 2725 2725 2537 2537 2102 2164 2102 2164 1989 1989 1936 0 0 0 0 0 0 0 0 0 0 603 593 588 579 570 561 557 0 0 0 0 0 0
    0 0 0 0 0 0 0 0 0 0 0 0 0 0 0 0 0 0 0 0 0 0 0 0 0 0 0 0 0 0 0 0 0 0 0 0 0 0 0 0 0 0 0 0 0 0 0 0 0 0 0 0 0 0 0 0 0 0 0 0 0 0 0 0 0 0 0 0 0 8177 0 0 0 0 0 0 0 0 0 0 0 0 0 0 0 0 0 0 0 0 0 0 0 0 0 0 0 0 0 0 0 0 0 0 0 0 0 0 8177 0 0 0 0 0 0 0 0 0 0 0 8177 0 0 0 0 0 0 0 0 0 0 0 8177 0 0 0 8177 0 0 0 574 0 0 557 0 289 0 0 0 0 6690 6690 0 0 0 0 7359 0 0 0 0 0 0 0 0 0 0 0 0 0 0 0 0 0 0 0 194 192 0 0 0 0 0 0 0 6690 5661 5661 6133 8177 7359 8177 8177 9199 0 0 0 0 0 0 0 0 8177 0 7359 0 0 8177 8177 8177 7359 6690 7359 8177 7359 6690 5661 6690 6690 6690 6690 6133 5256 5256 5256 6133 4906 4906 5256 5256 4906 5256 5256 4906 4599 5256 4329 3504 3504 3679 3873 3345 4088 4088 4088 4088 4599 4906 4599 4599 8177 4906 5661 5661 3345 4599 4329 4599 3679 3345 3345 3199 3199 3345 2830 2725 2830 2830 3199 3199 3199 3345 3199 2943 2628 2725 2725 2628 2537 2628 2537 2537 2628 2628 2537 2628 2628 2628 2374 2453 2044 2102 2044 2102 1989 1989 1936 0 0 0 0 0 0 0 0 0 0 603 598 588 584 570 561 557 0 0 0 0 0 0
    0 0 0 0 0 0 0 0 0 0 0 0 0 0 0 0 0 0 0 0 0 0 0 0 0 0 0 0 0 0 0 0 0 0 0 0 0 0 0 0 0 0 0 0 0 0 0 0 0 0 0 0 0 0 0 0 0 0 0 0 0 0 0 0 0 0 0 0 0 8177 8177 8177 8177 0 8177 0 0 0 0 0 0 0 0 0 0 0 0 0 0 0 0 0 0 0 0 0 0 0 0 0 0 0 0 0 0 0 0 0 0 0 0 0 0 0 0 0 0 0 0 0 7359 0 0 0 0 8177 8177 0 8177 0 0 0 8177 0 0 0 8177 0 0 0 0 0 0 557 0 0 6690 0 0 7359 7359 6690 6690 0 8177 0 7359 0 0 0 0 0 0 0 0 0 0 0 0 0 0 0 0 0 0 0 0 0 0 0 82 0 0 0 0 6690 5661 5661 5661 7359 6690 7359 7359 8177 8177 0 0 0 0 0 0 0 0 0 8177 0 0 8177 8177 8177 7359 6690 7359 8177 7359 6690 5661 6690 6133 6690 6690 5661 5256 5256 5256 6133 4906 5256 5256 5256 4906 5256 5256 5256 4906 5661 4329 3504 3504 3873 3873 3345 4088 4088 4088 4088 4599 4906 4329 4599 8177 5256 6133 5661 3504 4599 4599 4906 3873 3504 3504 3345 3199 3504 2830 2830 2943 2830 3345 3199 3345 3345 3345 3066 2830 2830 2725 2725 2628 2628 2537 2537 2537 2628 2537 2628 2628 2453 2299 2453 2102 2164 2044 2164 2044 1989 1936 0 0 0 0 0 0 0 0 0 0 603 598 593 584 570 557 557 0 0 0 0 0 0
    0 0 0 0 0 0 0 0 0 0 0 0 0 0 0 0 0 0 0 0 0 0 0 0 0 0 0 0 0 0 0 0 0 0 0 0 0 0 0 0 0 0 0 0 0 0 0 0 0 0 0 0 0 0 0 0 0 0 0 0 0 0 0 0 0 0 0 0 0 6690 7359 7359 7359 8177 8177 0 8177 8177 0 0 0 0 0 0 0 0 0 0 0 0 0 0 0 0 0 0 0 0 0 0 0 0 0 0 0 0 0 0 0 0 0 0 0 0 0 0 0 0 0 0 7359 0 8177 0 0 8177 8177 8177 8177 0 0 0 8177 8177 0 0 8177 0 8177 0 0 0 0 0 6133 0 6690 0 7359 7359 7359 7359 6690 0 8177 8177 8177 0 7359 7359 0 0 0 0 0 0 0 285 0 0 0 0 0 0 0 6133 0 0 0 0 0 82 0 0 0 6690 6133 5661 5661 7359 6690 6690 7359 7359 7359 0 0 0 0 0 0 0 0 0 8177 0 0 8177 8177 8177 8177 6690 7359 8177 7359 6690 6133 6690 6133 6690 6690 5661 4906 4906 4906 5661 4599 4906 5256 5256 5256 5256 5256 5661 5256 6133 4329 3345 3679 3873 3873 3345 4329 4088 4088 4329 4906 4906 4329 4599 7359 5256 5661 5661 3504 4599 4599 4906 3873 3504 3504 3345 3345 3679 2830 2830 2943 2830 3199 3199 3199 3345 3345 3066 2830 2830 2725 2830 2628 2628 2537 2537 2537 2628 2537 2628 2537 2374 2164 2374 2044 2102 2044 2102 2044 1989 1936 0 0 0 0 0 0 0 0 0 0 0 603 593 584 566 557 557 0 0 0 0 0 0
    0 0 0 0 0 0 0 0 0 0 0 0 0 0 0 0 0 0 0 0 0 0 0 0 0 0 0 0 0 0 0 0 0 0 0 0 0 0 0 0 0 0 0 0 0 0 0 0 0 0 0 0 0 0 0 0 0 0 0 0 0 0 0 0 0 0 0 0 0 6133 7359 7359 7359 7359 7359 0 8177 8177 0 0 0 0 0 0 0 0 0 0 0 0 0 0 0 0 0 0 0 0 0 0 0 0 0 0 0 0 0 0 0 0 0 0 0 0 0 0 0 0 0 0 6690 8177 8177 0 0 8177 8177 8177 8177 0 0 0 7359 8177 0 0 8177 8177 7359 7359 8177 0 0 0 6690 7359 7359 8177 8177 8177 8177 8177 7359 0 0 0 8177 0 0 0 0 0 0 0 0 0 0 286 0 0 0 0 0 0 0 5661 0 8177 0 0 0 0 0 8177 0 7359 6133 6133 6133 7359 6690 6690 7359 7359 8177 0 0 0 0 0 0 0 0 0 8177 0 8177 8177 8177 8177 8177 6690 7359 8177 6690 6690 5661 6133 6133 6133 6133 5661 4906 4906 4906 5661 4599 5256 5661 5256 5256 5661 5661 5661 5256 6690 4329 3345 3679 3873 3873 3345 4329 4088 4088 4329 4906 4599 4329 4599 7359 5256 5661 5661 3504 4906 4906 4906 3873 3504 3679 3504 3345 3873 2830 2830 2943 2830 3199 3199 3199 3199 3199 3066 2830 2830 2725 2830 2725 2628 2537 2537 2537 2628 2453 2537 2453 2299 2164 2299 2044 2102 2044 2164 2102 1989 1936 0 0 0 0 0 0 0 0 0 0 603 603 598 584 561 553 557 584 0 0 0 0 0
    0 0 0 0 0 0 0 0 0 0 0 0 0 0 0 0 0 0 0 0 0 0 0 0 0 0 0 0 0 0 0 0 0 0 0 0 0 0 0 0 0 0 0 0 0 0 0 0 0 0 0 0 0 0 0 0 0 0 0 0 0 0 0 0 0 0 0 0 0 5661 6690 7359 7359 7359 7359 0 0 0 0 0 0 0 0 0 0 0 0 0 0 0 0 0 0 0 0 0 0 0 0 0 0 0 0 0 0 0 0 0 8177 0 0 0 0 0 0 0 0 0 0 0 6690 8177 7359 0 8177 8177 8177 8177 8177 0 0 0 7359 8177 0 8177 8177 8177 7359 7359 0 0 8177 8177 8177 8177 8177 0 0 0 0 0 8177 0 0 0 0 0 0 8177 0 8177 8177 8177 7359 8177 8177 0 0 7359 0 0 0 0 6690 5256 8177 7359 8177 0 0 0 0 8177 0 7359 6690 6133 6133 7359 6690 7359 7359 8177 0 0 0 0 0 0 0 0 0 0 8177 0 8177 8177 8177 8177 8177 6690 6690 6690 6133 6133 5661 6133 5661 5661 6133 5256 5256 4599 4906 5256 4599 5256 5256 5256 5256 5256 5661 5661 5256 7359 4329 3345 3873 3873 3873 3345 4329 4088 4088 4329 4906 4599 4329 4599 7359 5256 6133 5661 3679 4906 4906 5256 4088 3679 3679 3504 3345 3873 2830 2830 2943 2943 3345 3199 3199 3199 3199 3066 2830 2830 2830 2830 2725 2628 2628 2628 2537 2628 2537 2628 2453 2374 2230 2374 2102 2164 2102 2164 2102 1989 1936 0 0 0 0 0 0 0 0 0 0 608 603 598 579 557 553 557 584 0 0 0 0 0
    0 0 0 0 0 0 0 0 0 0 0 0 0 0 0 0 0 0 0 0 0 0 0 0 0 0 0 0 0 0 0 0 0 0 0 0 0 0 0 0 0 0 0 0 0 0 0 0 0 0 0 0 0 0 0 0 0 0 0 0 0 0 0 0 0 0 0 0 0 5256 6690 7359 6690 7359 7359 0 8177 8177 0 8177 8177 7359 8177 8177 8177 0 0 0 0 0 0 0 0 0 0 0 0 0 0 0 0 0 0 0 0 0 0 0 8177 0 0 0 0 0 0 0 0 0 0 0 6690 8177 7359 0 0 0 8177 8177 8177 0 0 0 7359 7359 7359 7359 7359 7359 8177 8177 0 0 0 0 0 0 0 0 0 0 0 0 0 0 0 0 0 0 0 8177 0 8177 8177 8177 7359 8177 8177 7359 0 8177 8177 0 7359 0 6133 4599 6690 7359 7359 7359 0 0 0 7359 0 6690 6690 6133 6133 7359 7359 7359 8177 8177 0 0 0 0 0 0 0 0 0 0 8177 0 7359 7359 7359 7359 7359 6133 6133 6133 5661 5661 4906 4906 4906 5256 5661 5256 5256 4329 4599 5256 4599 5256 5256 5256 5256 5256 5661 5661 5256 7359 3873 3504 4329 4329 4329 3504 4329 4329 4329 4599 5256 4599 4329 4599 7359 5661 6133 6133 3679 5256 4906 5256 4088 3679 3679 3504 3504 3873 2943 2943 3066 2943 3345 3199 3199 3199 3199 3066 2943 2943 2830 2943 2725 2725 2628 2628 2628 2725 2628 2628 2628 2537 2453 2537 2230 2299 2164 2230 2164 1989 1936 0 0 0 0 0 0 0 0 0 0 608 608 598 579 557 553 553 0 0 0 0 0 0
    0 0 0 0 0 0 0 0 0 0 0 0 0 0 0 0 0 0 0 0 0 0 0 0 0 0 0 0 0 0 0 0 0 0 0 0 0 0 0 0 0 0 0 0 0 0 0 0 0 0 0 0 0 0 0 0 0 0 0 0 0 0 0 0 0 0 0 0 0 4906 6133 6690 6690 6690 6690 8177 8177 8177 0 7359 7359 7359 7359 7359 7359 0 0 0 0 0 0 0 0 0 0 0 0 0 0 0 0 0 0 0 0 0 0 0 8177 0 0 0 0 0 0 0 0 0 0 0 6690 7359 7359 0 0 0 0 0 0 0 0 0 8177 7359 6690 7359 6690 7359 8177 8177 8177 0 0 0 0 0 0 0 0 0 0 0 0 0 0 0 0 0 0 7359 0 8177 8177 0 8177 0 0 0 0 0 0 0 7359 3679 5661 4329 6690 6690 6690 7359 0 0 8177 7359 0 6690 6133 6133 6133 6690 7359 7359 8177 8177 0 0 0 0 0 0 0 0 0 0 8177 8177 6690 6690 6690 6690 6690 5256 5661 5661 5256 5256 4906 4088 4329 5256 5256 4906 4906 4088 4599 4906 4329 5256 4906 4906 5256 5256 5661 5256 4906 7359 3504 3504 4088 4088 4088 3504 4329 4329 4329 4599 5256 4599 4329 4599 8177 6133 6690 6133 3679 5256 5256 5256 4329 3679 3679 3679 3504 3873 2943 2830 2943 2943 3345 3066 3066 3199 3199 3066 2943 2943 2943 2943 2830 2725 2628 2725 2830 2830 2725 2830 2830 2628 2537 2628 2374 2374 2299 2374 2230 2044 1989 0 0 0 0 0 0 0 0 0 0 0 608 598 584 557 549 549 0 0 0 0 0 0
    0 0 0 0 0 0 0 0 0 0 0 0 0 0 0 0 0 0 0 0 0 0 0 0 0 0 0 0 0 0 0 0 0 0 0 0 0 0 0 0 0 0 0 0 0 0 0 0 0 0 0 0 0 0 0 0 0 0 0 0 0 0 0 0 0 0 0 0 0 4599 6133 6690 6133 6690 6690 8177 8177 8177 0 7359 8177 7359 7359 7359 8177 0 0 0 0 0 0 0 0 0 0 0 0 0 0 0 0 0 0 0 0 0 0 0 0 0 0 0 0 0 0 0 0 0 0 0 6133 7359 6690 0 0 0 0 0 0 0 0 0 0 8177 8177 8177 6690 7359 8177 8177 8177 8177 8177 9199 0 0 0 0 0 0 0 0 0 0 0 0 0 0 8177 6133 0 0 0 0 0 0 0 0 0 0 0 0 7359 3504 5256 4329 6133 6690 6690 7359 0 0 0 8177 0 6690 6690 6690 6133 7359 7359 7359 8177 8177 0 0 0 0 0 0 0 0 0 0 0 8177 6690 6690 6690 6690 6690 5256 5661 5256 5661 5661 4599 4329 4906 4906 4906 4329 4329 3504 4088 4329 3873 4599 4599 4599 4906 4906 5661 5256 4906 7359 3504 3504 4088 4088 4088 3504 4329 4329 4329 4599 5256 4599 4329 4599 7359 6133 6690 6133 3679 5256 5256 5256 4329 3873 3679 3679 3504 3873 2943 2830 2830 2830 3199 3066 3066 3199 3199 3066 3066 3066 2943 2830 2830 2725 2628 2725 2830 2830 2628 2725 2830 2628 2537 2628 2453 2374 2374 2374 2299 2044 1989 0 0 0 0 0 0 0 0 0 0 0 608 598 579 557 545 244 0 0 0 0 0 0
    0 0 0 0 0 0 0 0 0 0 0 0 0 0 0 0 0 0 0 0 0 0 0 0 0 0 0 0 0 0 0 0 0 0 0 0 0 0 0 0 0 0 0 0 0 0 0 0 0 0 0 0 0 0 0 0 0 0 0 0 0 0 0 0 0 0 0 0 0 4329 5661 6133 6133 6133 6133 8177 8177 8177 0 7359 8177 7359 7359 7359 7359 0 0 0 0 0 0 0 0 0 0 0 0 0 0 0 0 0 0 0 0 0 0 0 0 0 0 0 0 0 0 0 0 0 0 0 5661 7359 6690 8177 0 0 0 0 0 0 0 0 0 0 0 0 7359 0 0 8177 8177 8177 8177 8177 8177 0 0 0 0 0 0 0 0 0 0 7359 0 8177 8177 5661 0 0 0 0 0 0 0 0 0 0 0 0 6690 3504 5256 4088 6133 6690 6690 0 82 0 0 8177 0 6690 6690 6690 6690 8177 8177 8177 8177 0 0 0 0 0 0 0 0 0 0 0 0 8177 6133 6690 6690 6690 6690 5256 5661 4906 5661 6133 4329 4599 5256 4599 4906 4088 4088 3504 3873 4088 3873 4329 4329 4329 4599 4906 5661 4906 4906 7359 3504 3504 4088 4088 4088 3504 4329 4329 4329 4599 5256 4599 4329 4599 7359 6133 6690 6133 3873 5256 5256 5661 4329 3873 3679 3679 3504 4088 2943 2830 2830 2830 3199 3066 3066 3199 3199 3199 3199 3199 3066 2943 2943 2830 2830 2830 2943 2830 2725 2725 2830 2628 2537 2628 2453 2453 2453 2453 2453 2102 2044 0 0 0 0 0 0 0 0 0 0 0 603 598 579 553 0 244 0 0 0 0 0 0
    0 0 0 0 0 0 0 0 0 0 0 0 0 0 0 0 0 0 0 0 0 0 0 0 0 0 0 0 0 0 0 0 0 0 0 0 0 0 0 0 0 0 0 0 0 0 0 0 0 0 0 0 0 0 0 0 0 0 0 0 0 0 0 0 0 0 0 0 0 4329 5661 6133 5661 6133 6133 8177 7359 7359 0 7359 7359 8177 7359 0 0 0 0 0 0 0 0 0 0 0 0 0 0 0 0 0 0 0 0 0 0 0 0 0 0 0 0 0 0 0 0 0 0 0 0 0 5661 6690 6690 0 0 0 0 8177 9199 0 0 0 0 0 0 0 7359 0 0 8177 8177 8177 8177 8177 8177 0 8177 8177 8177 0 0 0 0 0 0 6690 8177 8177 8177 5256 0 0 0 0 0 0 0 0 0 0 0 0 6690 3504 5256 4088 6133 6690 7359 0 82 0 0 0 0 7359 6690 6690 6690 8177 8177 8177 8177 0 0 0 0 0 0 0 0 0 0 0 0 8177 5661 6133 6133 6133 6133 4906 5256 4599 5256 6133 4088 4599 5256 4906 4906 4329 4088 3504 3873 4088 3873 4088 4329 4088 4329 4599 5661 4906 5256 7359 3679 3504 4329 4329 4088 3504 4329 4329 4329 4599 5256 4599 4329 4599 7359 6133 6133 5661 3873 5256 5256 5661 4329 3873 3873 3873 3679 4088 2943 2943 2830 2943 3199 3066 3066 3199 3199 3199 3199 3345 3066 3066 3066 2943 2943 3066 2943 2943 2830 2725 2830 2725 2628 2628 2537 2453 2453 2537 2537 2164 2102 0 0 0 0 0 0 0 0 0 0 0 603 593 574 553 0 244 0 0 0 0 0 0
    0 0 0 0 0 0 0 0 0 0 0 0 0 0 0 0 0 0 0 0 0 0 0 0 0 0 0 0 0 0 0 0 0 0 0 0 0 0 0 0 0 0 0 0 0 0 0 0 0 0 0 0 0 0 0 0 0 0 0 0 0 0 0 0 0 0 0 0 0 4329 5256 6133 5661 5661 5661 7359 7359 6690 0 8177 7359 8177 8177 0 0 0 0 0 0 0 0 0 0 0 0 0 0 0 0 0 0 0 0 0 0 0 0 0 0 0 0 0 0 0 0 0 0 0 0 0 6133 7359 6690 0 0 0 0 8177 8177 0 0 0 0 0 0 0 7359 0 0 8177 8177 8177 8177 8177 8177 0 8177 0 8177 0 0 0 0 0 0 6690 7359 8177 8177 4906 0 0 0 0 0 0 0 0 0 0 0 0 0 3679 5256 4088 6133 6690 7359 0 82 0 0 0 0 7359 6690 6690 6690 8177 8177 8177 8177 8177 0 0 0 0 0 0 0 0 0 0 0 8177 5661 6133 6133 6133 5661 4599 4906 4599 5256 6133 4088 4599 5256 5256 5256 4599 4088 3679 4088 4329 3873 4088 4088 4088 4329 4599 5256 4599 4906 7359 3679 3504 4329 4329 4329 3504 4329 4329 4329 4599 5256 4329 4329 4599 7359 5256 5256 5256 3873 5256 5256 5661 4329 4088 3873 3873 3679 4329 2943 3066 2943 3066 3199 2943 3066 3199 3066 3345 3199 3345 3199 3199 3199 3066 3066 3199 3066 3066 2943 2830 2830 2830 2830 2830 2628 2537 2537 2537 2725 2230 2102 0 0 0 0 0 0 0 0 0 0 603 598 584 570 553 0 244 0 0 0 0 0 0
    0 0 0 0 0 0 0 0 0 0 0 0 0 0 0 0 0 0 0 0 0 0 0 0 0 0 0 0 0 0 0 0 0 0 0 0 0 0 0 0 0 0 0 0 0 0 0 0 0 0 0 0 0 0 0 0 0 0 0 0 0 0 0 0 0 0 0 0 0 4329 5256 6133 5661 5661 5661 8177 7359 6690 0 8177 7359 8177 8177 0 0 0 0 0 0 0 0 0 0 0 0 0 0 0 0 0 0 0 0 0 0 0 0 0 0 0 0 0 0 0 0 0 0 0 0 0 6133 7359 6690 0 0 0 0 8177 8177 0 0 0 0 0 0 0 7359 0 0 0 8177 8177 8177 8177 8177 0 8177 8177 8177 0 0 0 0 0 8177 6690 7359 8177 8177 4906 0 0 0 0 0 0 0 0 0 0 0 0 6690 3873 5256 4088 6133 6690 7359 0 82 7359 0 0 0 7359 7359 7359 7359 8177 8177 8177 8177 0 0 0 0 0 0 0 0 0 0 0 0 8177 5661 6133 6133 6133 6133 4599 5256 4906 5256 6133 4088 5256 5661 5256 5661 4906 4088 3679 4329 4599 3873 4088 4088 4088 4088 4906 5256 4329 4906 6690 3679 3504 4329 4329 4088 3504 4329 4329 4329 4599 4906 4329 4329 4599 7359 5256 5256 5256 3873 5661 5661 5661 4329 4329 4088 4088 3873 4599 3066 3199 3066 3345 3345 3066 3066 3199 3066 3345 3345 3504 3199 3199 3199 3199 3066 3345 3199 3199 3066 2943 2943 2943 2943 2943 2628 2537 2628 2628 2725 2374 2102 0 0 0 0 0 0 0 0 0 0 598 593 579 566 557 0 0 0 0 0 0 0 0
    0 0 0 0 0 0 0 0 0 0 0 0 0 0 0 0 0 0 0 0 0 0 0 0 0 0 0 0 0 0 0 0 0 0 0 0 0 0 0 0 0 0 0 0 0 0 0 0 0 0 0 0 0 0 0 0 0 0 0 0 0 0 0 0 0 0 0 0 0 4329 4906 6133 5661 5661 5661 7359 6690 6133 8177 8177 8177 8177 8177 0 0 0 0 0 0 0 0 0 0 0 0 0 0 0 0 0 0 0 0 0 0 0 0 0 0 0 0 0 0 0 0 0 0 0 0 0 6133 7359 6690 0 0 0 0 8177 8177 0 0 0 0 0 0 0 7359 0 0 0 0 0 0 0 8177 0 8177 7359 7359 0 0 0 0 7359 6690 6690 7359 8177 7359 4329 0 0 196 196 196 196 196 0 0 0 0 8177 6133 3873 4906 4088 6133 6690 6690 7359 0 7359 0 0 0 7359 7359 7359 7359 0 8177 0 0 0 0 0 0 0 0 0 0 0 0 0 0 8177 5661 6133 6133 6133 6133 4906 5661 5256 5661 6690 4599 5661 6133 5661 6133 5256 4329 3873 4599 4599 3873 3873 3873 3873 4088 4906 5256 4088 4906 6690 3504 3504 4329 4329 4088 3504 4329 4329 4329 4599 4906 4329 4088 4329 6690 4906 4906 4906 3873 5661 5661 6133 4329 4329 4329 4329 3873 4599 3199 3345 3199 3679 3345 3199 3066 3345 3066 3504 3504 3679 3199 3199 3345 3199 3199 3504 3345 3199 3199 3066 3066 3066 3066 3199 2725 2628 2628 2628 2830 2453 2164 0 0 0 0 0 0 0 0 0 0 593 584 570 561 557 0 0 0 0 0 0 0 0
    0 0 0 0 0 0 0 0 0 0 0 0 0 0 0 0 0 0 0 0 0 0 0 0 0 0 0 0 0 0 0 0 0 0 0 0 0 0 0 0 0 0 0 0 0 0 0 0 0 0 0 0 0 0 0 0 0 0 0 0 0 0 0 0 0 0 0 0 0 4329 4599 5661 5256 5256 5256 6690 5661 5661 8177 8177 8177 0 0 0 0 0 0 0 0 0 0 0 0 0 0 0 0 0 0 0 0 0 0 0 0 0 0 0 0 0 0 0 8177 0 0 0 0 0 0 0 6133 7359 6690 0 0 0 0 8177 8177 0 0 0 0 0 0 0 7359 0 0 0 8177 8177 8177 8177 8177 0 8177 6690 6690 0 0 0 8177 6690 5661 6133 7359 7359 7359 4088 6690 0 0 0 0 0 0 0 0 0 0 8177 6133 3873 5256 4088 5661 6690 6690 7359 0 7359 0 0 0 7359 7359 7359 7359 0 0 0 0 0 0 0 0 0 0 0 0 0 0 0 0 0 5661 6133 6133 6133 6690 5256 6133 5661 6133 6690 4599 5661 6690 5661 0 4906 3873 3873 4599 4599 3679 3873 3873 3873 4088 4906 4906 4088 4906 6690 3504 3504 4088 4088 4088 3504 4329 4329 4329 4599 4906 4329 4088 4329 6690 4599 4329 4599 3873 5661 5661 5661 4329 4599 4329 4329 4088 4599 3345 3345 3345 3679 3345 3199 3066 3199 3066 3345 3345 3679 3199 3345 3345 3345 3199 3679 3504 3345 3199 3199 3199 3066 3199 3199 2725 2537 2628 2628 2830 2537 2102 0 0 0 0 0 0 0 0 0 0 588 579 566 561 0 0 0 0 0 0 0 0 0
    0 0 0 0 0 0 0 0 0 0 0 0 0 0 0 0 0 0 0 0 0 0 0 0 0 0 0 0 0 0 0 0 0 0 0 0 0 0 0 0 0 0 0 0 0 0 0 0 0 0 0 0 0 0 0 0 0 0 0 0 0 0 0 0 0 0 0 0 0 4329 4906 5256 4906 4906 4906 6690 5256 5661 8177 0 0 0 0 0 0 0 0 0 0 0 0 0 0 0 0 0 0 0 0 0 0 0 0 0 0 0 0 0 0 0 0 0 8177 0 0 0 0 0 0 0 6690 7359 6690 8177 0 0 8177 7359 7359 0 0 0 0 0 0 0 8177 0 0 0 0 8177 8177 8177 8177 0 8177 6690 6690 0 0 0 0 0 6690 9199 0 0 8177 4329 7359 7359 7359 7359 7359 7359 7359 8177 0 8177 8177 8177 6133 4088 5256 4088 5661 6133 6690 7359 0 7359 0 0 0 8177 8177 8177 8177 0 0 0 0 0 0 0 0 0 0 0 0 0 0 0 0 0 6133 6690 6690 6690 7359 5661 6133 6133 6133 6690 4906 5661 6133 5256 5661 4329 3679 3873 4329 4329 3679 3679 3873 3873 3873 4906 4599 3873 4906 7359 3679 3504 4329 4088 4088 3504 4329 4088 4088 4329 4599 4088 3873 4088 6133 4088 3873 3873 3679 5256 5256 5661 4088 4329 4329 4329 4088 4599 3345 3345 3345 3679 3066 2943 2830 2943 2830 3199 3199 3504 3199 3345 3345 3504 3345 3679 3504 3345 3345 0 3199 3066 3066 0 2628 2453 2537 2537 2725 2537 2044 0 0 0 0 0 0 0 0 0 0 579 570 561 557 0 0 0 0 0 0 0 0 0
    0 0 0 0 0 0 0 0 0 0 0 0 0 0 0 0 0 0 0 0 0 0 0 0 0 0 0 0 0 0 0 0 0 0 0 0 0 0 0 0 0 0 0 0 0 0 0 0 0 0 0 0 0 0 0 0 0 0 0 0 0 0 0 0 0 0 0 0 0 4599 4906 5256 5256 4906 4906 6133 4906 5256 8177 0 0 0 0 0 0 0 0 0 0 0 0 0 0 0 0 0 0 0 0 0 0 0 0 0 0 0 0 0 0 0 0 0 8177 0 0 0 0 0 0 0 6690 7359 6690 8177 8177 0 8177 7359 7359 0 0 0 0 0 0 0 7359 0 0 0 0 8177 0 0 0 0 0 6690 6690 0 0 0 0 0 0 0 0 0 7359 4599 6690 7359 6690 7359 7359 6690 7359 7359 0 0 8177 7359 5661 4088 5256 4088 5661 6133 6690 6690 6690 7359 0 0 0 8177 8177 8177 8177 8177 8177 0 0 0 0 0 0 0 0 0 0 0 0 0 0 0 6133 6690 6690 6690 8177 5661 6690 6690 6133 6690 5256 6133 6133 5256 5661 4329 3504 4088 4329 4329 3679 3679 3873 3679 3679 4906 4088 3679 4599 6690 3679 3679 4088 4088 3873 3345 4088 3873 3873 4088 4088 3679 3504 3679 5256 3504 3504 3345 3345 4906 4906 5256 3873 4088 4088 3873 3873 4329 3199 3199 3199 3345 2943 2725 2628 2628 2537 2943 2943 3066 3066 3345 3345 3345 3199 3679 3504 3345 3199 0 2943 2943 2943 0 2537 2453 2537 2453 2725 2537 2044 0 0 0 0 0 0 0 0 0 0 566 561 553 549 0 0 0 0 0 0 0 0 0
    0 0 0 0 0 0 0 0 0 0 0 0 0 0 0 0 0 0 0 0 0 0 0 0 0 0 0 0 0 0 0 0 0 0 0 0 0 0 0 0 0 0 0 0 0 0 0 0 0 0 0 0 0 0 0 0 0 0 0 0 0 0 0 0 0 0 0 0 0 4599 4906 5661 5256 5256 4906 6133 5256 5661 0 0 0 0 0 0 0 0 0 0 0 0 0 0 0 0 0 0 0 0 0 0 0 0 0 0 0 0 0 0 0 0 0 0 8177 0 0 8177 8177 0 0 0 6690 7359 7359 0 0 0 0 8177 8177 0 0 0 0 0 0 8177 6690 0 0 0 0 8177 0 88 0 0 259 0 0 0 0 0 0 0 0 0 0 9199 6690 4599 6690 7359 6690 6690 6690 6133 6690 7359 0 0 8177 8177 5661 3873 5256 3873 5661 6133 6690 7359 7359 7359 0 0 0 0 0 8177 8177 8177 8177 0 0 0 8177 0 0 0 0 0 0 0 0 0 0 0 6690 6690 6690 6690 8177 5661 6690 6690 6133 6690 5256 5661 6133 5256 5661 4906 3873 4906 4906 4599 3873 3679 3873 3679 3679 4599 3679 3504 4329 6133 3504 3504 4088 3873 3873 3345 3873 3873 3873 4088 3873 3679 3504 3679 5256 3345 3345 3199 3199 4329 4329 4906 3679 3873 3679 3679 3679 4088 3199 3066 3066 3066 2830 2537 2453 2164 2230 2537 2725 2628 2725 3199 3199 3345 3199 3679 3345 0 3199 0 2830 2830 2830 0 2537 2453 2537 2453 2628 2374 1989 0 0 0 0 0 0 0 0 0 0 557 553 549 545 0 0 0 0 0 0 0 0 0
    0 0 0 0 0 0 0 0 0 0 0 0 0 0 0 0 0 0 0 0 0 0 0 0 0 0 0 0 0 0 0 0 0 0 0 0 0 0 0 0 0 0 0 0 0 0 0 0 0 0 0 0 0 0 0 0 0 0 0 0 0 0 0 0 0 0 0 0 0 4599 4906 5661 5661 5256 5256 6690 5661 0 0 0 0 0 0 0 0 0 0 0 0 0 0 0 0 0 0 0 0 0 0 0 0 0 0 0 0 0 0 0 8177 8177 8177 8177 0 0 0 0 8177 0 0 0 7359 7359 7359 0 0 0 0 8177 8177 0 0 0 0 8177 0 7359 6133 8177 0 0 0 0 0 88 0 0 258 248 0 0 0 0 0 0 0 0 0 0 0 0 0 7359 7359 7359 6690 6133 7359 7359 0 0 0 8177 6690 4088 5256 3873 6133 6690 6690 7359 7359 7359 0 0 0 0 0 0 8177 8177 0 0 0 0 8177 8177 7359 0 0 0 0 0 0 0 0 0 6690 6690 7359 6690 8177 5661 6690 6690 6133 6690 5661 5661 6133 5256 6133 5256 4088 5256 5661 4906 3873 3679 3873 3504 3679 4088 3345 3345 3873 5661 3504 3504 4088 3873 3873 3345 3873 3873 3873 4088 3873 3504 3504 3679 4599 3199 3199 3199 3199 4088 4088 4599 3504 3679 3679 3679 3679 3873 3199 3066 3066 2943 2725 2299 2102 1989 2044 2230 2374 2374 2453 3066 3066 3066 3199 3504 3345 0 3199 0 2830 2830 2943 0 2628 2453 2628 2628 2725 2164 1936 0 0 0 0 0 0 0 0 0 0 553 549 545 545 553 533 0 0 0 0 0 0 0
    0 0 0 0 0 0 0 0 0 0 0 0 0 0 0 0 0 0 0 0 0 0 0 0 0 0 0 0 0 0 0 0 0 0 0 0 0 0 0 0 0 0 0 0 0 0 0 0 0 0 0 0 0 0 0 0 0 0 0 0 0 0 0 0 0 0 0 0 0 4906 5256 5661 5661 5661 5256 6690 5661 0 0 0 0 0 0 0 0 0 0 0 0 0 0 0 0 0 125 0 0 0 0 0 0 0 0 0 0 0 0 0 0 0 0 0 0 0 0 0 8177 0 0 0 7359 8177 7359 0 0 0 0 8177 0 0 0 0 0 0 0 7359 6133 0 0 0 0 0 88 88 87 87 258 248 0 0 0 0 0 0 0 584 0 0 0 0 0 0 8177 8177 7359 0 0 0 0 0 0 0 0 4088 5256 3679 6133 6690 6690 7359 7359 7359 0 0 0 0 0 0 0 0 0 0 0 0 0 0 0 0 0 0 0 0 0 0 0 0 6690 7359 7359 6690 8177 5661 6690 6690 6133 6690 5661 5661 6133 5256 6133 4906 4088 5256 5661 5256 3873 3873 3873 3504 3679 4088 3199 3199 3504 5661 3504 3504 3873 3679 3679 3345 3873 3679 3679 3873 3679 3504 3345 3504 4088 3066 3066 3066 3066 3873 3873 4329 3504 3679 3504 3504 3504 3679 3066 2943 2943 2943 2628 2164 2044 1887 2044 2164 2374 2299 2374 2943 2943 3066 3066 3504 3345 0 0 0 0 0 0 0 2628 2537 2725 2537 2628 1936 0 0 0 0 0 0 0 0 0 0 549 549 549 545 541 549 533 0 0 0 0 0 0 0
    0 0 0 0 0 0 0 0 0 0 0 0 0 0 0 0 0 0 0 0 0 0 0 0 0 0 0 0 0 0 0 0 0 0 0 0 0 0 0 0 0 0 0 0 0 0 0 0 0 0 0 0 0 0 0 0 0 0 0 0 0 0 0 0 0 0 0 0 0 5256 5256 5661 5661 6133 5256 6690 0 0 0 0 0 0 0 0 0 0 0 0 0 0 0 598 0 0 0 0 0 0 0 0 0 0 0 0 0 0 0 0 0 0 0 0 0 0 0 0 0 0 0 0 7359 7359 7359 8177 8177 0 0 0 0 0 0 0 0 0 0 0 0 0 78 0 0 0 88 88 87 87 0 0 0 0 0 0 0 0 574 574 570 579 0 77 76 0 0 0 0 0 0 0 0 0 0 0 0 0 0 3345 5661 6690 6690 7359 7359 7359 8177 8177 0 0 0 0 0 0 0 0 0 0 0 0 0 0 0 0 0 0 0 0 0 0 6690 7359 7359 6690 0 5661 6690 6690 6690 6690 5661 5661 6133 4906 5661 4906 4088 5256 6133 5256 4088 4088 4088 3679 3873 4329 3345 3199 3679 6133 3504 3504 3873 3679 3679 3345 3679 3504 3504 3679 3504 3345 3345 3345 3679 0 0 3066 3199 3873 3679 4088 3345 3504 3504 3504 3504 3679 3066 2830 2830 2830 2537 2102 1989 1887 1989 2102 2164 2102 2230 2830 2830 2943 0 3504 3504 0 0 0 0 0 0 0 2628 2537 2628 2537 2453 1936 0 0 0 0 0 0 0 0 0 0 549 545 545 545 545 549 537 545 0 0 0 0 0 0
    0 0 0 0 0 0 0 0 0 0 0 0 0 0 0 0 0 0 0 0 0 0 0 0 0 0 0 0 0 0 0 0 0 0 0 0 0 0 0 0 0 0 0 0 0 0 0 0 0 0 0 0 0 0 0 0 0 0 0 0 0 0 0 0 0 0 0 0 0 5256 0 6133 6133 6133 5256 6690 0 0 0 0 0 0 0 0 0 0 0 0 0 0 0 598 593 0 0 0 0 0 0 0 0 0 0 0 0 588 588 588 0 0 0 0 0 0 0 0 0 0 0 0 7359 7359 7359 8177 0 0 0 0 0 0 0 0 0 0 0 79 78 78 78 78 78 0 88 88 87 87 0 0 0 0 570 570 566 570 574 574 570 579 566 0 0 557 0 0 0 0 0 0 0 0 0 0 0 0 0 0 0 6133 6133 7359 7359 7359 8177 8177 0 0 0 0 0 0 0 0 0 0 0 561 570 574 570 579 574 0 0 0 0 0 7359 7359 7359 6133 0 5661 6690 6690 6690 6690 5661 5256 6133 4906 5256 4599 4088 5256 5661 5256 0 0 4329 3679 3873 4329 3345 3345 3873 6690 3504 3345 3679 3504 3345 3199 3504 3345 3199 3345 3199 3199 3199 3199 0 0 0 3066 3199 3873 3679 4088 3504 3504 3504 3504 3345 3504 2943 2830 2725 2725 2453 2044 1936 1795 1936 2044 2044 1989 2102 0 0 0 0 3345 3345 0 0 0 0 0 0 0 2725 2537 2725 2628 2453 1989 0 0 0 0 0 0 0 0 0 0 545 545 545 541 541 549 537 549 588 0 0 0 0 0
    0 0 0 0 0 0 0 0 0 0 0 0 0 0 0 0 0 0 0 0 0 0 0 0 0 0 0 0 0 0 0 0 0 0 0 0 0 0 0 0 0 0 0 0 0 0 0 0 0 0 0 0 0 0 0 0 0 0 0 0 0 0 0 0 0 0 0 0 0 0 579 579 574 0 0 0 0 0 0 0 0 0 0 0 603 0 0 0 0 0 593 593 593 588 584 570 0 0 0 0 0 111 0 570 570 584 584 584 584 574 579 0 0 0 0 0 0 0 0 0 7359 0 0 0 0 0 0 0 0 0 0 0 0 0 0 0 0 0 0 0 0 0 88 88 87 0 0 579 561 566 570 570 570 574 574 574 570 579 566 557 561 557 549 549 0 0 0 0 0 0 0 0 0 0 0 0 557 0 0 0 7359 0 0 8177 0 0 557 557 0 545 0 0 0 0 570 557 570 570 566 574 566 557 0 0 0 0 8177 8177 7359 6133 0 5256 6690 6690 6133 6133 5256 4599 5256 4329 4906 4088 3873 5256 0 0 0 0 4906 3679 4088 4906 3504 3504 5256 7359 3873 3504 3873 3679 3345 3199 3504 3199 3066 3199 3066 0 0 0 0 0 0 2943 0 3873 3679 4088 3504 3679 3504 3345 3345 3345 2943 2628 2628 2537 2374 1989 1936 1795 1936 1989 1989 1936 1989 0 0 0 0 0 0 0 0 0 0 0 0 0 2830 2725 0 0 0 2044 0 0 0 0 0 0 0 0 0 537 541 541 541 537 537 545 537 553 584 0 0 0 0 0
    0 0 0 0 0 0 0 0 0 0 0 0 0 0 0 0 0 0 0 0 0 0 0 0 0 0 0 0 0 0 0 0 0 0 0 0 0 0 0 0 0 0 0 0 0 0 0 0 0 0 0 0 0 0 0 0 0 0 0 0 0 0 0 0 0 0 0 0 0 584 579 579 574 574 574 579 0 0 0 0 0 0 598 588 593 588 588 588 588 593 588 588 588 584 584 574 0 570 0 0 570 0 570 570 566 579 579 584 579 570 579 574 584 588 584 579 570 574 0 0 0 561 574 557 579 553 553 0 553 0 0 0 557 566 584 588 584 588 593 588 588 0 0 0 0 574 570 579 566 570 574 570 570 574 570 570 566 579 566 557 561 557 549 553 557 561 566 566 561 0 0 0 0 566 561 561 557 0 0 561 574 574 0 0 0 0 579 574 557 549 0 0 0 593 566 557 570 566 561 570 566 557 561 566 557 0 0 0 7359 5661 0 0 7359 6690 6133 6690 5661 4599 0 4599 5256 0 0 5256 0 0 0 270 0 4088 4906 5661 4088 0 0 0 0 0 4088 3873 3345 3199 3504 3066 3066 3066 2943 0 0 0 0 0 0 2830 0 566 0 0 0 0 3679 3345 3345 3199 2943 2628 2537 2537 2299 1989 1936 0 1887 1936 1936 0 521 529 521 0 0 518 514 497 0 533 0 0 0 0 0 2943 0 0 0 0 0 0 0 0 0 0 0 0 0 529 537 537 537 533 537 541 537 553 570 0 0 0 0 0
    0 0 0 0 0 0 0 0 0 0 0 0 0 0 0 0 0 0 0 0 0 0 0 0 0 0 0 0 0 0 0 0 0 0 0 0 0 0 0 0 0 0 0 0 0 0 0 0 0 0 0 0 0 0 0 0 0 0 0 0 0 0 0 0 0 0 0 0 0 584 579 579 579 579 579 584 579 584 570 584 579 584 588 574 579 579 584 584 579 584 588 584 588 584 584 579 570 570 566 561 570 566 566 566 566 574 574 579 579 570 574 570 579 579 574 574 570 570 579 570 574 561 579 566 588 566 561 557 561 557 561 566 561 566 579 584 584 584 593 588 588 593 584 570 566 574 570 579 566 570 574 570 570 574 570 570 566 574 561 557 561 557 549 553 561 566 566 570 566 566 570 570 574 557 557 557 557 561 561 561 574 570 579 570 570 593 588 584 570 561 553 566 584 584 561 557 566 566 561 566 561 557 561 561 561 553 557 566 0 0 0 0 0 6690 6690 7359 6133 4906 0 0 0 0 0 0 0 0 0 273 0 0 0 0 0 584 570 584 588 588 0 0 0 0 3679 3199 3066 3199 3066 0 0 0 0 0 0 0 0 566 553 0 0 0 0 0 0 0 2943 2453 2537 2453 2230 0 0 0 0 0 0 525 521 525 521 518 521 529 533 518 541 541 541 549 553 553 545 0 557 0 0 549 0 0 0 0 557 541 0 0 0 529 533 529 529 529 529 537 533 553 557 0 0 0 0 0
    0 0 0 0 0 0 0 0 0 0 0 0 0 0 0 0 0 0 0 0 0 0 0 0 0 0 0 0 0 0 0 0 0 0 0 0 0 0 0 0 0 0 0 0 0 0 0 0 0 0 0 0 0 0 0 0 0 0 0 0 0 0 0 0 0 0 0 0 0 584 579 584 579 579 579 584 579 584 574 584 574 574 584 570 574 579 579 579 579 584 588 579 588 588 588 579 570 570 566 566 570 566 566 566 566 579 574 579 574 570 574 570 579 574 570 574 570 570 574 570 579 561 584 566 593 579 570 566 566 561 570 570 570 570 579 584 584 584 593 588 588 588 579 566 566 570 570 579 566 570 574 570 574 579 574 570 566 579 566 557 561 557 553 561 566 566 566 566 566 566 566 566 561 557 557 557 557 566 566 566 574 570 579 579 584 598 593 588 579 570 570 574 584 584 561 557 561 561 561 566 561 557 557 561 561 557 561 566 570 579 584 588 588 0 0 0 0 0 584 0 0 0 566 553 566 584 557 557 561 566 561 561 570 579 566 579 584 584 579 584 584 574 0 0 3345 3345 3199 3345 0 0 0 0 0 0 561 570 557 566 561 561 557 553 553 553 0 0 549 0 0 0 0 0 0 0 545 529 533 533 533 529 537 545 545 537 549 545 549 549 549 553 545 545 553 545 549 549 549 549 545 549 557 541 549 533 529 529 529 529 529 525 529 533 537 553 553 0 0 0 0 0
    0 0 0 0 0 0 0 0 0 0 0 0 0 0 0 0 0 0 0 0 0 0 0 0 0 0 0 0 0 0 0 0 0 0 0 0 0 0 0 0 0 0 0 0 0 0 0 0 0 0 0 0 0 0 0 0 0 0 0 0 0 0 0 0 0 0 0 0 0 584 579 584 579 579 579 584 579 584 574 584 574 579 584 570 574 579 579 579 579 584 584 579 588 588 588 579 570 574 566 566 574 570 566 566 566 579 574 579 574 570 574 570 584 579 570 574 570 570 574 570 584 561 574 566 588 584 574 574 570 561 570 574 570 574 579 584 584 584 593 584 584 584 566 557 561 566 566 570 561 566 574 570 579 579 574 570 570 579 566 561 561 557 557 561 566 570 566 566 566 566 566 566 557 553 557 561 561 566 566 566 574 574 584 584 588 603 593 593 588 579 579 579 584 584 557 557 561 561 561 566 561 561 561 566 566 561 561 570 570 579 579 588 584 593 588 584 579 574 574 570 566 566 561 557 566 574 557 557 561 566 561 561 566 574 561 574 579 579 574 574 579 570 566 570 557 0 0 0 553 553 557 561 566 570 561 574 557 570 566 566 557 557 561 561 553 570 553 549 553 553 549 0 545 545 541 537 541 537 541 545 549 557 553 545 553 549 549 549 549 553 549 545 553 545 549 549 549 549 545 549 557 545 553 537 533 537 529 529 529 529 529 533 537 545 541 0 0 0 0 0
    0 0 0 0 0 0 0 0 0 0 0 0 0 0 0 0 0 0 0 0 0 0 0 0 0 0 0 0 0 0 0 0 0 0 0 0 0 0 0 0 0 0 0 0 0 0 0 0 0 0 0 0 0 0 0 0 0 0 0 0 0 0 0 0 0 0 0 0 0 584 579 579 579 579 579 584 579 584 579 584 574 574 579 570 574 574 574 579 579 584 584 574 584 584 584 579 566 570 566 570 574 574 570 570 570 579 574 584 574 574 574 570 579 579 574 574 570 570 574 570 579 561 574 570 584 579 574 574 570 561 570 570 570 574 579 579 579 579 593 584 584 584 561 553 557 561 566 570 561 570 579 574 584 579 574 570 570 579 566 561 561 557 557 561 566 566 561 561 561 566 566 561 557 553 557 557 561 566 566 566 574 579 584 588 593 598 598 598 593 584 584 584 588 588 561 557 566 566 566 566 566 561 561 570 570 566 570 570 570 574 574 584 579 584 579 574 570 570 570 566 561 566 570 561 566 574 557 561 561 566 566 566 566 570 561 574 574 574 570 570 570 566 566 574 557 561 557 557 557 557 566 561 566 566 557 570 557 566 566 566 561 561 561 566 557 570 553 549 553 553 549 541 545 545 541 537 549 545 545 549 549 561 553 545 553 553 553 553 553 557 549 549 557 549 549 549 549 549 545 549 557 541 545 533 529 525 518 518 521 521 525 529 529 533 529 0 0 0 0 0
    0 0 0 0 0 0 0 0 0 0 0 0 0 0 0 0 0 0 0 0 0 0 0 0 0 0 0 0 0 0 0 0 0 0 0 0 0 0 0 0 0 0 0 0 0 0 0 0 0 0 0 0 0 0 0 0 0 0 0 0 0 0 0 0 0 0 0 0 0 579 579 579 579 579 579 584 579 584 574 584 570 570 574 561 566 570 570 574 579 579 579 570 584 584 584 579 566 570 566 574 579 574 574 574 574 584 579 588 574 574 574 570 579 579 570 570 570 566 570 566 579 561 570 566 579 574 570 570 570 561 570 570 566 570 574 579 574 574 593 574 579 579 557 549 557 561 566 574 566 570 579 574 584 579 574 570 570 579 566 561 561 557 557 561 566 566 561 561 561 566 566 561 553 553 557 557 561 566 566 566 574 579 588 588 593 603 603 603 598 588 588 584 588 593 566 557 566 566 566 566 566 561 561 570 574 570 570 574 574 579 579 584 579 579 574 566 561 561 566 561 561 570 574 561 570 579 557 561 561 566 566 566 566 566 557 574 570 574 570 570 570 566 561 570 561 561 561 561 557 561 570 566 570 570 557 574 557 566 566 561 557 561 561 566 557 570 557 549 553 557 549 545 545 549 541 537 553 549 545 549 549 561 553 545 553 553 553 553 553 557 549 549 561 549 553 553 553 553 549 553 561 541 541 529 525 521 511 514 518 514 521 525 525 525 525 0 0 0 0 0
    0 0 0 0 0 0 0 0 0 0 0 0 0 0 0 0 0 0 0 0 0 0 0 0 0 0 0 0 0 0 0 0 0 0 0 0 0 0 0 0 0 0 0 0 0 0 0 0 0 0 0 0 0 0 0 0 0 0 0 0 0 0 0 0 0 0 0 0 0 579 579 579 574 579 579 584 579 579 570 574 561 561 561 557 557 561 561 570 570 579 579 570 579 584 579 579 566 570 570 579 584 579 579 584 579 593 588 593 579 570 574 570 574 570 566 561 566 561 566 561 574 561 570 566 579 570 570 570 570 557 570 570 566 570 574 574 574 574 593 579 579 584 557 549 561 566 570 574 566 574 579 574 584 579 574 574 570 579 566 561 561 557 557 561 566 566 561 561 561 566 566 561 553 553 557 557 561 566 566 561 574 579 588 588 593 593 593 593 593 593 588 588 593 593 566 561 566 566 566 566 566 561 561 570 574 570 574 574 574 584 584 584 579 584 579 574 570 570 570 561 566 579 584 561 566 579 557 561 561 566 566 566 566 566 557 570 570 570 570 566 566 566 566 574 561 561 561 561 561 561 570 566 570 570 561 574 557 566 566 561 557 561 561 566 557 574 561 553 557 561 553 553 549 553 549 541 557 553 557 553 549 566 553 545 557 557 553 553 553 557 549 549 557 549 553 553 553 553 549 553 561 537 537 529 521 518 507 511 514 514 521 521 518 518 521 0 0 0 0 0
    0 0 0 0 0 0 0 0 0 0 0 0 0 0 0 0 0 0 0 0 0 0 0 0 0 0 0 0 0 0 0 0 0 0 0 0 0 0 0 0 0 0 0 0 0 0 0 0 0 0 0 0 0 0 0 0 0 0 0 0 0 0 0 0 0 0 0 0 0 574 574 579 574 574 574 579 570 574 561 561 553 553 557 553 549 557 549 561 561 570 570 561 570 574 570 574 566 570 566 579 584 584 579 584 584 593 593 593 574 566 566 561 566 561 561 557 557 553 561 561 574 566 574 570 584 574 574 579 570 561 566 570 566 566 570 574 570 570 588 574 570 579 553 549 561 566 570 574 566 574 579 574 584 579 574 574 570 579 561 561 561 557 557 566 570 570 566 566 566 566 570 561 553 553 561 561 566 566 566 561 570 579 584 584 584 584 579 588 588 593 584 584 588 588 566 566 566 566 566 566 566 561 561 574 574 574 574 574 579 584 584 588 584 584 584 584 579 579 574 557 0 574 579 561 566 579 557 561 561 566 566 566 566 566 557 574 570 570 566 566 566 566 566 574 561 566 561 561 557 561 566 561 566 570 557 570 557 561 561 561 557 561 561 570 557 574 566 557 561 566 557 553 549 553 549 541 561 557 561 557 553 566 553 545 553 553 553 549 553 557 549 549 561 553 553 553 557 553 549 557 561 533 529 525 518 511 504 511 511 511 518 514 514 511 518 0 0 0 0 0
    0 0 0 0 0 0 0 0 0 0 0 0 0 0 0 0 0 0 0 0 0 0 0 0 0 0 0 0 0 0 0 0 0 0 0 0 0 0 0 0 0 0 0 0 0 0 0 0 0 0 0 0 0 0 0 0 0 0 0 0 0 0 0 0 0 0 0 0 0 574 574 574 574 574 566 570 557 557 549 549 545 545 549 545 541 545 541 549 549 557 553 545 549 557 557 566 557 566 566 579 584 584 584 584 584 593 588 593 566 557 553 549 549 549 549 549 549 545 553 557 570 566 574 574 588 574 574 579 570 561 566 566 561 566 570 570 566 566 579 561 557 557 541 541 553 557 561 566 561 570 574 570 579 570 570 566 561 574 561 557 561 557 561 566 570 570 566 566 570 566 574 561 557 557 561 561 566 566 566 561 570 579 579 584 579 574 574 584 588 593 584 584 588 588 566 566 566 566 566 566 561 561 561 574 574 574 574 574 579 584 579 588 584 588 579 584 574 579 574 561 0 574 574 561 566 584 557 566 566 566 566 566 566 566 557 574 566 566 566 566 566 570 566 574 561 566 561 561 557 557 561 561 566 566 553 566 557 561 561 561 557 561 561 570 557 579 570 561 561 570 553 549 549 553 545 537 561 553 566 557 553 561 549 545 553 549 549 549 549 553 549 549 561 557 557 557 561 557 553 561 574 533 525 521 514 507 504 507 507 507 518 511 504 504 511 0 0 0 0 0
    0 0 0 0 0 0 0 0 0 0 0 0 0 0 0 0 0 0 0 0 0 0 0 0 0 0 0 0 0 0 0 0 0 0 0 0 0 0 0 0 0 0 0 0 0 0 0 0 0 0 0 0 0 0 0 0 0 0 0 0 0 0 0 0 0 0 0 0 0 570 566 570 566 561 553 553 545 541 537 537 533 525 533 533 521 525 521 533 533 537 533 525 533 541 541 553 545 557 557 570 584 579 584 588 584 593 588 588 557 549 545 545 0 0 0 0 0 537 0 545 561 566 570 570 584 574 574 579 570 557 566 566 561 561 566 566 561 561 574 553 541 537 529 529 0 0 549 553 553 561 566 561 566 561 557 557 557 566 553 553 557 557 561 566 570 570 566 566 570 570 574 561 557 561 561 561 566 566 566 557 566 579 566 579 561 553 553 561 570 579 570 570 584 579 566 566 570 570 566 566 561 561 561 574 570 570 574 570 579 584 579 588 579 588 574 579 570 574 566 0 0 0 566 557 566 579 557 566 566 566 570 570 566 566 557 574 566 566 566 566 566 570 566 574 561 566 561 561 557 557 561 557 561 561 549 561 553 557 557 561 557 561 561 574 561 579 570 557 557 566 549 545 545 545 541 529 553 545 566 561 545 553 541 541 545 545 541 545 545 549 545 549 557 553 553 557 561 557 553 561 574 529 514 521 518 507 504 504 504 507 514 504 497 497 500 0 0 0 0 0
    0 0 0 0 0 0 0 0 0 0 0 0 0 0 0 0 0 0 0 0 0 0 0 0 0 0 0 0 0 0 0 0 0 0 0 0 0 0 0 0 0 0 0 0 0 0 0 0 0 0 0 0 0 0 0 0 0 0 0 0 0 0 0 0 0 0 0 0 0 566 557 561 557 549 545 545 537 533 521 521 518 507 518 518 504 511 511 521 525 525 525 514 521 525 533 541 541 549 0 566 579 574 584 588 584 593 588 588 553 0 0 541 529 0 0 529 0 529 533 537 549 561 561 566 579 566 570 574 570 553 561 561 557 557 561 557 557 553 561 545 529 525 521 514 0 0 0 545 545 553 557 553 553 549 549 549 549 557 549 549 557 557 561 566 570 570 566 566 570 570 579 561 557 561 561 566 566 566 566 557 561 579 553 570 545 541 537 541 549 553 549 553 570 566 557 566 570 566 566 561 561 557 557 570 561 566 566 566 570 579 570 579 570 588 566 557 557 561 557 0 0 0 0 0 0 566 549 557 561 566 566 566 566 566 561 574 566 566 566 566 566 570 566 574 561 566 566 566 557 557 561 557 561 557 549 557 553 553 557 557 553 557 557 566 553 570 561 553 549 566 545 0 0 0 529 521 0 0 0 0 0 0 533 529 541 537 537 537 541 545 541 545 553 549 549 557 557 557 549 561 574 518 504 521 518 504 504 504 504 507 514 504 497 493 497 0 0 0 0 0
    0 0 0 0 0 0 0 0 0 0 0 0 0 0 0 0 0 0 0 0 0 0 0 0 0 0 0 0 0 0 0 0 0 0 0 0 0 0 0 0 0 0 0 0 0 0 0 0 0 0 0 0 0 0 0 0 0 0 0 0 0 0 0 0 0 0 0 0 0 561 553 553 549 541 533 533 521 518 504 504 500 493 504 500 493 497 500 514 518 518 521 511 521 525 0 0 0 545 0 0 574 0 0 593 588 598 588 579 0 0 0 0 518 521 521 518 518 521 521 529 533 553 553 553 561 557 557 561 557 545 549 553 549 553 553 549 545 541 549 537 514 514 514 500 0 0 529 541 525 545 549 545 545 545 541 541 541 549 545 0 553 553 561 566 570 566 566 566 570 570 574 561 557 561 561 561 561 557 561 553 557 561 545 553 537 533 521 529 537 541 537 537 549 545 549 561 561 561 561 557 557 553 553 566 553 557 557 557 561 566 557 566 553 566 541 504 487 0 0 0 0 0 0 0 0 0 541 549 553 557 557 561 561 566 557 570 561 561 561 561 561 566 566 574 557 566 561 561 553 553 553 553 553 553 0 557 549 549 553 553 549 553 553 557 549 557 549 541 0 0 0 0 0 0 490 504 0 0 0 0 0 0 525 521 533 533 529 533 537 537 537 537 545 541 541 549 549 545 545 549 566 504 500 521 518 504 500 504 504 507 518 504 493 493 497 0 0 0 0 0
    0 0 0 0 0 0 0 0 0 0 0 0 0 0 0 0 0 0 0 0 0 0 0 0 0 0 0 0 0 0 0 0 0 0 0 0 0 0 0 0 0 0 0 0 0 0 0 0 0 0 0 0 0 0 0 0 0 0 0 0 0 0 0 0 0 0 0 0 0 553 545 545 541 529 518 518 511 504 497 497 493 487 497 493 490 493 497 507 514 514 514 511 521 521 521 525 525 533 0 0 0 0 0 593 588 598 0 0 0 529 529 525 507 514 514 511 511 514 511 518 525 541 541 0 541 541 545 545 545 533 537 545 537 541 541 537 537 533 537 529 504 500 507 493 0 0 518 529 0 0 545 0 0 0 533 533 533 545 537 0 545 553 557 561 566 561 561 561 566 566 574 557 561 561 557 561 557 553 553 545 549 541 537 537 525 525 500 514 518 521 518 518 537 533 537 557 557 557 553 549 549 545 545 553 533 0 545 0 0 549 545 549 529 529 493 484 484 484 477 474 474 0 0 0 0 0 0 0 545 545 549 553 557 557 557 566 557 557 557 557 561 566 561 566 553 557 553 553 549 549 549 549 549 549 0 553 545 549 549 549 541 545 549 549 0 541 533 518 0 0 518 0 481 481 477 487 474 477 477 465 465 0 514 514 525 529 525 529 533 533 533 529 537 533 529 537 537 525 529 529 537 493 497 514 514 500 500 504 500 504 518 497 490 490 490 0 0 0 0 0
    0 0 0 0 0 0 0 0 0 0 0 0 0 0 0 0 0 0 0 0 0 0 0 0 0 0 0 0 0 0 0 0 0 0 0 0 0 0 0 0 0 0 0 0 0 0 0 0 0 0 0 0 0 0 0 0 0 0 0 0 0 0 0 0 0 0 0 0 0 0 537 529 529 504 500 507 500 497 493 493 490 487 493 490 490 490 493 504 507 511 511 507 514 514 514 518 514 518 525 0 0 0 0 0 0 0 0 0 511 518 518 514 500 507 507 504 507 511 504 504 511 533 514 511 518 511 511 521 525 518 518 529 529 529 533 529 521 518 525 518 493 493 500 490 0 514 511 518 0 0 537 0 0 521 518 518 521 537 529 525 537 549 549 557 561 557 557 557 561 561 570 557 561 561 561 561 557 553 557 545 545 537 533 529 511 507 490 500 497 507 504 497 511 514 518 549 545 545 541 529 533 525 525 521 484 477 477 0 0 0 0 0 487 497 481 477 481 481 477 477 477 0 474 465 474 0 0 0 529 0 0 545 549 553 553 561 549 549 549 549 553 553 0 0 537 545 545 545 541 541 541 541 545 541 537 545 541 545 545 545 533 0 0 0 525 0 507 0 0 0 500 484 477 477 471 481 468 471 468 468 471 0 497 500 511 521 514 521 529 521 518 507 514 514 504 507 507 497 504 514 518 490 497 514 511 500 500 504 500 504 514 493 487 487 484 0 0 0 0 0
    0 0 0 0 0 0 0 0 0 0 0 0 0 0 0 0 0 0 0 0 0 0 0 0 0 0 0 0 0 0 0 0 0 0 0 0 0 0 0 0 0 0 0 0 0 0 0 0 0 0 0 0 0 0 0 0 0 0 0 0 0 0 0 0 0 0 0 0 0 507 514 497 511 490 493 497 497 493 490 490 490 487 493 490 487 487 490 497 500 500 504 504 507 504 507 511 507 507 514 0 0 0 0 0 0 0 0 0 493 507 511 507 493 504 504 500 504 507 500 497 500 529 490 497 500 497 497 507 514 507 507 521 521 518 521 518 507 507 507 504 493 493 500 493 504 511 511 511 0 0 514 0 0 504 504 504 507 529 518 511 525 537 541 549 549 545 545 549 553 553 557 553 561 561 561 561 557 553 553 545 541 533 529 518 500 497 484 493 490 493 493 490 493 497 497 533 529 533 529 507 514 511 507 497 481 477 477 474 474 477 481 0 484 490 481 481 487 487 481 481 481 484 477 471 477 477 487 490 507 507 518 533 541 541 545 549 537 0 0 0 0 0 0 0 493 511 518 521 525 521 521 525 529 529 525 533 533 541 0 541 511 0 0 504 497 493 490 0 0 0 490 481 477 477 471 481 465 471 465 471 474 477 487 490 493 504 500 511 514 504 493 487 487 490 487 484 484 484 481 493 493 487 490 507 507 497 500 504 500 504 514 490 487 487 481 0 0 0 0 0
    0 0 0 0 0 0 0 0 0 0 0 0 0 0 0 0 0 0 0 0 0 0 0 0 0 0 0 0 0 0 0 0 0 0 0 0 0 0 0 0 0 0 0 0 0 0 0 0 0 0 0 0 0 0 0 0 0 0 0 0 0 0 0 0 0 0 0 0 0 493 497 490 497 487 490 493 493 493 490 490 490 487 0 490 487 487 490 497 497 497 497 497 500 500 500 504 500 500 504 511 0 0 0 0 0 0 0 484 487 497 504 500 490 500 500 497 500 500 497 493 493 521 481 490 493 490 490 497 504 500 504 514 511 507 507 504 493 497 497 493 490 490 493 490 497 504 504 504 0 500 500 493 497 493 497 493 497 521 504 500 511 504 514 497 500 504 500 504 514 490 507 533 553 557 553 553 549 545 549 541 537 525 521 504 490 487 477 487 484 487 487 484 484 490 490 518 500 511 497 493 497 497 497 487 477 477 474 474 474 477 481 481 484 487 484 484 490 493 487 487 487 487 481 477 481 477 484 487 493 493 497 518 525 521 529 529 518 500 504 490 497 497 0 0 490 500 500 507 514 507 507 507 507 511 504 507 514 507 0 0 490 0 487 487 487 487 484 481 481 0 487 481 477 477 471 474 459 465 462 468 471 471 481 484 484 490 490 493 493 490 481 481 477 481 481 477 477 477 477 484 481 484 481 490 493 490 490 493 490 490 497 481 471 443 448 0 0 0 0 0
    0 0 0 0 0 0 0 0 0 0 0 0 0 0 0 0 0 0 0 0 0 0 0 0 0 0 0 0 0 0 0 0 0 0 0 0 0 0 0 0 0 0 0 0 0 0 0 0 0 0 0 0 0 0 0 0 0 0 0 0 0 0 0 0 0 0 0 0 0 493 493 487 493 487 490 493 493 490 490 490 490 0 0 490 487 487 490 493 493 493 497 497 500 500 500 500 500 500 500 500 497 0 0 0 0 477 481 477 484 493 497 497 490 500 497 497 500 500 493 490 493 518 481 487 490 487 490 493 497 497 500 504 504 497 500 497 490 490 490 490 487 487 490 490 493 497 500 500 0 493 493 490 493 490 490 490 493 514 497 493 497 490 493 484 484 487 487 484 487 481 487 477 497 537 521 0 533 533 537 529 525 518 511 493 487 484 474 484 484 484 484 484 484 487 484 504 487 490 484 484 487 487 490 484 474 477 474 474 474 477 477 481 484 487 484 484 490 493 487 487 487 487 481 477 481 477 484 484 487 487 487 500 507 504 514 511 500 490 497 490 493 493 497 493 493 497 497 500 507 500 497 497 497 493 493 490 493 0 0 490 484 0 481 481 484 481 481 481 481 481 487 481 477 477 471 474 462 465 462 468 471 474 481 484 481 484 484 484 484 481 471 474 471 477 477 474 477 474 474 481 477 481 474 477 484 468 448 465 448 443 443 438 430 425 430 0 0 0 0 0
    0 0 0 0 0 0 0 0 0 0 0 0 0 0 0 0 0 0 0 0 0 0 0 0 0 0 0 0 0 0 0 0 0 0 0 0 0 0 0 0 0 0 0 0 0 0 0 0 0 0 0 0 0 0 0 0 0 0 0 0 0 0 0 0 0 0 0 0 0 493 490 487 490 484 487 490 490 490 487 490 490 0 0 490 484 484 487 493 490 493 497 500 504 507 504 504 504 500 504 504 497 0 0 0 0 477 477 474 484 487 497 493 487 500 497 497 500 500 497 493 493 521 481 490 493 490 493 493 500 497 500 504 500 497 497 497 490 490 487 487 487 487 487 487 490 493 497 493 0 490 490 487 490 487 487 487 490 511 490 490 490 487 490 484 481 484 484 484 484 481 487 477 484 490 490 487 493 500 514 511 507 504 500 490 484 484 474 484 484 487 487 484 484 487 487 500 487 487 481 0 481 484 484 477 468 474 474 474 474 477 477 481 481 484 481 484 487 490 484 487 487 484 481 477 481 481 481 484 484 484 484 490 493 493 497 497 490 487 490 487 490 493 497 493 493 497 497 500 507 500 497 497 493 490 490 487 484 481 477 481 477 468 477 477 481 481 481 481 481 481 487 481 477 477 474 474 462 462 465 471 474 474 484 484 481 484 484 481 481 477 465 471 471 474 474 474 477 477 477 487 484 487 477 477 471 0 425 427 427 425 427 425 420 420 425 0 0 0 0 0
    0 0 0 0 0 0 0 0 0 0 0 0 0 0 0 0 0 0 0 0 0 0 0 0 0 0 0 0 0 0 0 0 0 0 0 0 0 0 0 0 0 0 0 0 0 0 0 0 0 0 0 0 0 0 0 0 0 0 0 0 0 0 0 0 0 0 0 0 0 493 490 0 490 484 487 490 490 490 487 0 0 0 0 484 481 481 484 487 487 490 493 504 507 511 507 511 507 504 507 504 497 0 0 0 468 474 471 471 481 487 493 490 487 497 497 497 500 500 497 493 493 521 484 493 497 493 493 497 500 497 500 504 500 497 497 493 490 490 487 487 484 484 484 484 487 490 490 490 477 490 487 487 490 487 487 487 490 514 493 493 493 493 497 490 487 487 487 487 487 484 487 481 487 490 487 487 490 493 500 504 500 500 500 490 487 484 474 484 487 487 487 487 484 487 487 500 487 487 481 481 481 487 487 481 471 477 474 474 474 477 477 477 481 481 481 481 487 487 484 484 484 484 481 481 484 481 484 484 484 484 484 487 490 487 490 490 487 484 487 484 487 490 493 490 490 493 497 504 507 500 497 497 497 490 490 487 481 477 474 477 474 468 477 477 477 481 481 481 481 481 484 481 477 474 474 471 462 459 465 471 474 477 481 481 481 487 484 481 477 474 457 468 468 474 474 474 477 477 477 493 487 490 481 481 468 0 422 420 406 420 425 422 415 420 425 0 0 0 0 0
    0 0 0 0 0 0 0 0 0 0 0 0 0 0 0 0 0 0 0 0 0 0 0 0 0 0 0 0 0 0 0 0 0 0 0 0 0 0 0 0 0 0 0 0 0 0 0 0 0 0 0 0 0 0 0 0 0 0 0 0 0 0 0 0 0 0 0 0 0 497 493 0 493 487 490 490 490 490 490 0 0 0 0 484 477 477 481 484 481 484 490 504 504 511 507 511 507 507 504 504 497 0 0 0 465 468 468 468 477 484 490 490 487 497 497 497 500 500 497 490 493 521 481 490 493 490 493 497 500 500 504 507 504 500 500 493 490 490 490 487 484 484 487 484 487 490 490 490 477 490 487 487 490 487 490 490 493 521 497 497 497 497 500 493 487 487 487 487 487 484 487 484 490 493 490 490 493 500 504 511 500 504 497 490 490 487 477 484 487 487 487 487 487 487 487 500 490 487 481 481 481 487 487 481 477 481 477 477 477 477 477 481 481 484 481 481 487 490 484 487 487 487 481 481 484 481 484 484 484 484 484 487 487 484 487 490 487 484 484 484 487 487 490 487 487 490 493 500 507 500 500 493 493 490 490 487 481 477 477 477 477 471 477 477 481 481 481 0 481 477 481 477 477 474 474 474 465 462 471 474 477 481 484 481 484 490 490 484 477 474 451 471 471 474 474 474 477 477 477 493 487 490 481 477 457 440 427 425 422 427 427 425 422 425 427 0 0 0 0 0
    0 0 0 0 0 0 0 0 0 0 0 0 0 0 0 0 0 0 0 0 0 0 0 0 0 0 0 0 0 0 0 0 0 0 0 0 0 0 0 0 0 0 0 0 0 0 0 0 0 0 0 0 0 0 0 0 0 0 0 0 0 0 0 0 0 0 0 0 0 497 493 490 497 487 490 493 493 493 490 0 0 487 490 484 477 477 477 484 481 484 487 504 504 511 504 507 504 504 500 500 493 0 0 0 465 471 471 471 477 484 493 490 487 497 497 497 500 500 497 490 490 525 481 490 493 490 493 493 500 504 504 507 507 504 504 497 493 493 490 490 487 487 490 487 490 490 493 493 481 490 490 487 490 490 490 490 493 525 500 497 497 497 500 490 484 487 487 484 484 484 487 487 490 493 490 490 497 504 504 511 500 500 493 487 487 484 474 484 487 487 487 487 487 487 490 500 493 487 484 481 481 487 490 484 481 481 477 477 477 477 477 481 481 484 484 484 487 490 487 487 487 487 481 481 484 481 481 484 484 484 484 490 490 487 490 493 487 487 487 487 487 487 493 487 487 487 490 493 500 497 497 490 493 490 490 487 484 477 477 477 477 471 0 0 0 481 481 0 481 477 481 477 477 474 474 474 468 465 471 477 477 481 484 481 484 487 487 484 477 474 451 468 471 471 471 474 474 477 474 493 484 487 477 474 451 440 432 425 427 430 430 425 425 425 427 0 0 0 0 0
    0 0 0 0 0 0 0 0 0 0 0 0 0 0 0 0 0 0 0 0 0 0 0 0 0 0 0 0 0 0 0 0 0 0 0 0 0 0 0 0 0 0 0 0 0 0 0 0 0 0 0 0 0 0 0 0 0 0 0 0 0 0 0 0 0 0 0 0 0 500 493 493 497 490 493 493 493 493 490 493 493 490 493 487 477 477 481 484 481 481 487 500 500 507 504 507 504 500 500 500 490 0 0 0 465 471 471 471 477 487 493 493 487 500 497 497 504 504 504 493 493 525 481 490 493 490 493 493 500 504 507 507 507 504 504 500 497 497 493 487 487 487 490 487 490 490 493 493 484 490 490 490 490 490 490 490 493 521 493 493 490 490 493 487 484 487 487 487 484 484 487 490 493 497 490 490 493 500 504 504 493 493 490 487 487 484 477 484 487 487 490 487 487 487 490 504 497 487 487 481 487 493 493 484 484 481 477 477 474 477 474 477 481 481 484 484 487 490 487 487 487 487 481 481 484 481 481 484 484 484 484 490 490 487 490 493 490 487 487 487 487 487 493 490 490 487 490 493 500 497 497 490 493 487 490 487 484 481 477 481 481 471 0 0 0 0 0 0 481 477 481 477 477 474 471 474 465 465 468 474 474 477 477 477 481 484 487 481 477 474 451 468 471 471 471 471 474 474 474 490 484 484 474 471 451 440 432 425 425 430 427 425 425 425 427 0 0 0 0 0
    0 0 0 0 0 0 0 0 0 0 0 0 0 0 0 0 0 0 0 0 0 0 0 0 0 0 0 0 0 0 0 0 0 0 0 0 0 0 0 0 0 0 0 0 0 0 0 0 0 0 0 0 0 0 0 0 0 0 0 0 0 0 0 0 0 0 0 0 0 500 493 493 497 490 493 497 497 497 493 497 497 493 500 490 481 477 481 484 481 0 0 497 500 507 504 507 504 500 500 500 490 0 0 0 465 471 471 474 477 487 497 497 487 500 500 500 504 504 504 493 493 521 487 493 497 493 493 497 504 504 507 507 507 504 504 500 497 497 493 484 487 484 487 487 487 487 490 490 484 490 490 490 490 490 490 487 490 518 490 490 487 487 487 484 484 487 490 490 487 487 490 490 497 497 493 490 493 497 500 497 490 490 487 487 487 484 477 487 490 490 490 490 490 487 490 504 500 490 490 487 490 497 497 487 487 484 481 477 474 477 474 477 477 477 484 484 487 490 487 490 490 490 484 481 484 481 481 484 484 484 487 490 493 490 493 493 493 490 490 487 490 487 493 490 490 484 487 487 497 490 493 487 490 487 487 487 484 477 481 481 481 474 0 481 481 481 481 481 477 477 481 477 474 474 471 471 465 465 468 471 471 471 474 474 481 484 484 477 477 474 451 471 471 471 471 471 474 474 474 490 481 477 471 471 451 440 432 422 425 427 427 425 425 425 427 0 0 0 0 0
    0 0 0 0 0 0 0 0 0 0 0 0 0 0 0 0 0 0 0 0 0 0 0 0 0 0 0 0 0 0 0 0 0 0 0 0 0 0 0 0 0 0 0 0 0 0 0 0 0 0 0 0 0 0 0 0 0 0 0 0 0 0 0 0 0 0 0 0 0 500 490 493 500 490 497 497 497 497 493 500 497 493 504 490 484 481 484 487 484 0 0 500 504 507 504 504 504 500 500 500 0 0 0 0 465 471 471 477 481 487 497 497 490 500 500 500 500 504 504 493 493 514 487 493 493 490 493 493 504 504 507 504 504 504 504 500 497 493 493 484 484 484 484 484 484 484 490 490 484 490 490 490 487 490 490 487 490 514 487 490 487 487 484 484 487 490 490 493 487 487 490 493 497 500 493 493 493 497 497 497 487 487 484 487 490 490 484 487 490 490 490 490 490 487 490 504 504 490 490 487 493 497 497 487 487 484 481 481 477 477 474 477 481 477 481 484 487 493 490 490 493 493 487 481 484 484 481 0 484 484 484 490 493 490 490 493 493 490 490 487 490 487 493 493 490 484 484 484 487 481 484 484 487 484 487 484 481 477 481 481 477 474 0 481 481 484 481 481 477 477 481 477 474 474 471 471 468 468 474 474 471 474 474 474 481 481 481 477 477 471 457 471 474 471 471 474 474 474 474 487 481 477 471 471 448 438 432 420 425 427 427 425 427 425 427 0 0 0 0 0
    0 0 0 0 0 0 0 0 0 0 0 0 0 0 0 0 0 0 0 0 0 0 0 0 0 0 0 0 0 0 0 0 0 0 0 0 0 0 0 0 0 0 0 0 0 0 0 0 0 0 0 0 0 0 0 0 0 0 0 0 0 0 0 0 0 0 0 0 0 504 490 493 500 490 497 500 500 497 497 500 497 493 504 490 484 484 484 490 490 0 0 0 0 0 0 507 504 500 0 497 0 0 0 0 465 468 468 481 484 490 500 500 490 500 500 500 504 504 504 497 493 514 490 493 493 490 493 497 504 504 507 504 504 504 504 500 497 493 493 481 484 481 484 484 484 484 490 490 484 490 490 490 490 490 490 487 490 507 484 487 484 487 481 484 484 490 490 493 487 487 490 493 497 500 493 493 490 497 497 493 487 487 484 487 493 493 484 490 493 493 490 490 490 487 490 500 500 487 490 487 490 497 497 487 487 484 481 481 477 477 474 474 477 474 481 481 487 490 490 490 493 493 487 481 484 481 481 0 484 484 484 487 493 490 490 493 493 490 490 493 493 490 497 493 497 487 487 481 481 477 484 481 487 484 487 487 484 481 481 481 477 474 477 477 481 481 481 481 477 477 481 477 477 474 474 474 474 474 477 477 474 477 477 477 481 481 481 474 477 471 459 471 474 471 471 474 474 474 477 487 481 477 471 0 454 0 0 0 427 430 430 427 430 427 430 0 0 0 0 0
    0 0 0 0 0 0 0 0 0 0 0 0 0 0 0 0 0 0 0 0 0 0 0 0 0 0 0 0 0 0 0 0 0 0 0 0 0 0 0 0 0 0 0 0 0 0 0 0 0 0 0 0 0 0 0 0 0 0 0 0 0 0 0 0 0 0 0 0 0 504 490 493 500 490 497 500 500 500 497 500 497 493 504 487 481 481 481 490 490 490 0 500 0 0 0 511 507 500 500 500 490 0 0 0 468 468 468 484 484 490 500 500 490 500 500 500 504 504 504 497 493 514 487 493 493 490 493 497 507 504 507 504 504 504 504 500 497 493 493 481 481 481 481 487 484 484 490 490 487 490 490 490 490 490 493 490 487 500 484 484 484 487 481 484 484 490 490 493 490 487 490 493 497 497 493 493 490 497 497 493 487 490 487 490 497 497 487 490 497 493 493 493 490 487 490 500 497 484 487 484 487 493 493 487 487 484 484 481 477 477 474 474 477 474 481 481 487 493 490 487 490 490 484 477 481 481 481 481 0 481 481 484 490 487 487 487 490 487 490 490 493 490 497 493 500 493 490 481 481 477 481 481 487 484 484 484 484 481 484 481 477 474 477 477 481 481 481 481 477 477 477 481 477 474 474 477 474 474 481 477 477 477 477 474 477 477 477 474 474 468 462 474 474 474 471 474 474 477 477 484 481 477 471 0 465 0 0 0 432 432 430 430 432 430 430 0 0 0 0 0
    0 0 0 0 0 0 0 0 0 0 0 0 0 0 0 0 0 0 0 0 0 0 0 0 0 0 0 0 0 0 0 0 0 0 0 0 0 0 0 0 0 0 0 0 0 0 0 0 0 0 0 0 0 0 0 0 0 0 0 0 0 0 0 0 0 0 0 0 0 507 490 497 500 490 500 500 504 500 497 500 500 493 511 490 481 481 481 490 493 493 497 500 504 0 0 511 507 500 497 500 490 0 0 0 471 468 0 0 487 493 504 500 490 500 500 500 504 504 504 493 493 511 487 490 490 487 490 493 504 504 507 504 504 500 500 497 497 493 493 481 481 477 481 484 484 484 490 493 487 490 493 490 490 493 493 490 487 497 484 484 484 487 481 484 484 490 493 497 493 490 493 497 497 500 493 493 493 493 497 493 487 490 487 493 497 500 490 490 497 493 493 493 490 487 490 497 493 481 481 481 484 490 490 484 487 484 484 481 477 477 474 474 477 474 481 484 490 493 493 487 490 490 484 474 481 477 477 477 481 481 481 481 487 484 484 484 487 487 490 490 490 487 490 490 493 487 481 471 474 471 474 477 481 477 477 481 484 477 484 481 474 474 474 477 477 481 477 477 477 477 477 481 477 477 474 477 477 477 481 481 477 477 477 474 477 477 477 474 477 468 468 477 477 477 474 474 477 477 481 481 477 474 471 0 0 0 0 427 430 430 430 427 430 427 427 0 0 0 0 0
    0 0 0 0 0 0 0 0 0 0 0 0 0 0 0 0 0 0 0 0 0 0 0 0 0 0 0 0 0 0 0 0 0 0 0 0 0 0 0 0 0 0 0 0 0 0 0 0 0 0 0 0 0 0 0 0 0 0 0 0 0 0 0 0 0 0 0 0 0 0 0 493 500 490 500 504 504 504 500 504 500 497 514 490 484 484 477 0 0 0 497 0 0 0 0 0 504 0 0 497 0 0 0 0 471 0 0 0 487 493 504 500 493 500 500 504 504 504 504 493 490 500 481 484 484 484 484 490 500 500 507 507 507 504 504 500 497 493 497 484 484 481 484 487 487 490 497 497 487 493 493 493 490 493 493 490 487 493 484 484 484 484 481 481 481 487 490 493 493 493 493 500 504 500 493 490 490 490 493 490 484 487 484 490 497 500 490 490 497 493 493 493 490 487 490 493 490 481 481 481 484 490 487 481 484 484 481 481 477 477 474 474 477 474 481 484 490 497 497 490 493 490 484 474 477 477 477 477 481 481 481 481 487 484 487 484 487 484 487 490 490 487 490 487 0 484 0 471 474 471 474 477 477 477 474 477 481 477 481 477 471 474 471 477 477 481 477 477 474 477 477 481 477 477 477 481 481 481 484 484 481 484 481 481 477 477 477 477 477 468 474 477 477 477 474 477 477 477 481 481 474 471 465 0 454 0 432 425 430 430 427 425 427 422 427 0 0 0 0 0
    0 0 0 0 0 0 0 0 0 0 0 0 0 0 0 0 0 0 0 0 0 0 0 0 0 0 0 0 0 0 0 0 0 0 0 0 0 0 0 0 0 0 0 0 0 0 0 0 0 0 0 0 0 0 0 0 0 0 0 0 0 0 0 0 0 0 0 0 0 0 0 0 497 490 504 504 504 504 497 500 500 497 514 490 484 484 0 0 0 0 0 0 0 0 389 0 0 0 0 0 0 0 0 0 0 0 0 0 0 0 504 500 493 500 500 500 500 504 500 490 490 493 477 477 481 0 481 490 504 504 514 511 511 504 504 500 493 493 497 0 0 0 0 0 0 493 504 500 490 493 493 490 490 493 490 487 487 487 484 481 481 481 477 474 477 481 487 487 490 490 493 497 500 497 487 487 484 487 487 484 477 481 481 490 497 500 490 490 497 493 493 493 490 487 487 493 487 477 477 477 484 490 487 481 484 484 481 477 477 477 474 474 477 474 481 484 490 493 497 490 493 493 487 474 481 477 477 477 477 477 477 481 484 484 484 481 484 481 0 0 490 487 487 487 487 484 484 474 474 471 474 477 477 477 468 474 474 471 474 474 465 471 471 474 474 477 474 477 474 477 477 481 477 477 474 481 481 484 484 484 484 484 484 481 481 477 477 477 477 468 474 477 477 477 477 477 477 477 481 477 474 468 465 468 454 435 432 425 430 427 427 425 427 422 427 0 0 0 0 0
    0 0 0 0 0 0 0 0 0 0 0 0 0 0 0 0 0 0 0 0 0 0 0 0 0 0 0 0 0 0 0 0 0 0 0 0 0 0 0 0 0 0 0 0 0 0 0 0 0 0 0 0 0 0 0 0 0 0 0 0 0 0 0 0 0 0 0 0 0 0 0 0 0 487 504 500 504 504 497 500 500 493 511 484 0 0 0 1501 1443 0 0 0 0 389 389 389 0 0 0 0 0 0 0 0 0 0 0 413 0 0 0 0 493 497 497 500 500 500 497 490 487 487 474 468 468 0 0 0 0 504 518 518 514 507 500 497 493 487 0 0 0 0 0 80 80 0 507 500 487 490 490 490 490 490 487 484 487 487 481 481 481 477 474 471 471 474 481 484 0 487 490 493 493 493 487 484 481 484 484 481 474 474 477 487 497 500 487 490 497 497 493 490 487 484 487 493 484 474 468 474 484 493 490 481 484 481 477 474 474 474 474 474 477 474 481 484 493 497 497 493 493 490 487 474 481 474 477 474 477 477 477 477 481 477 481 477 477 468 0 0 487 487 0 0 0 484 484 474 474 471 471 477 474 477 459 468 468 468 468 471 462 471 468 474 474 477 474 474 474 477 474 477 474 477 471 481 477 481 484 0 0 0 0 0 481 477 474 474 477 465 477 481 481 481 477 477 477 477 484 474 471 465 462 465 454 0 435 430 432 430 430 427 427 425 430 0 0 0 0 0
    0 0 0 0 0 0 0 0 0 0 0 0 0 0 0 0 0 0 0 0 0 0 0 0 0 0 0 0 0 0 0 0 0 0 0 0 0 0 0 0 0 0 0 0 0 0 0 0 0 0 0 0 0 0 0 0 0 0 0 0 0 0 0 0 0 0 0 0 0 0 0 0 0 0 504 500 507 504 497 497 497 490 504 481 0 0 0 1501 1443 0 0 0 0 391 391 391 393 391 0 0 0 0 0 397 0 408 415 411 415 0 0 0 490 497 497 497 497 497 493 487 487 0 462 440 0 432 0 0 0 0 0 521 511 504 493 490 487 481 0 0 0 0 0 80 0 0 507 493 487 490 490 487 487 487 487 481 484 484 481 477 477 474 471 468 465 0 0 0 0 0 0 0 0 0 484 477 477 484 481 477 471 471 474 484 497 497 487 490 493 493 490 490 484 481 481 0 477 451 427 0 427 0 0 0 474 477 471 471 471 474 474 474 481 477 481 487 500 504 504 497 493 490 487 468 481 474 471 474 474 474 474 474 477 474 477 474 471 448 0 0 0 0 0 0 0 0 0 471 468 465 471 474 0 471 448 462 457 457 462 462 454 465 465 474 471 477 474 474 471 474 474 474 471 474 471 481 481 484 487 0 0 0 0 0 474 471 468 465 471 454 477 481 481 481 477 481 481 477 484 474 465 459 457 462 451 438 438 435 435 432 430 430 427 425 430 0 0 0 0 0
    0 0 0 0 0 0 0 0 0 0 0 0 0 0 0 0 0 0 0 0 0 0 0 0 0 0 0 0 0 0 0 0 0 0 0 0 0 0 0 0 0 0 0 0 0 0 0 0 0 0 0 0 0 0 0 0 0 0 0 0 0 0 0 0 0 0 0 0 0 418 0 427 425 427 504 500 504 497 497 493 493 487 0 468 435 0 0 1443 0 0 0 393 393 395 395 395 397 397 397 0 0 0 0 402 408 406 411 408 411 413 0 0 490 493 497 497 493 493 490 481 0 0 440 430 427 422 418 415 0 418 411 0 0 497 0 0 471 0 0 0 413 0 0 0 0 0 518 493 0 0 487 484 484 484 484 477 484 484 477 471 474 471 462 459 457 0 0 0 0 0 0 0 0 0 0 430 0 0 468 465 451 451 454 0 493 493 484 487 490 490 487 487 477 465 468 0 457 430 411 418 415 408 418 425 0 0 459 465 468 471 474 477 484 481 484 493 504 507 507 497 490 484 0 448 474 468 468 471 471 471 474 474 477 471 474 471 462 443 0 427 425 427 430 0 0 0 0 0 0 0 471 477 0 0 443 459 451 454 457 457 451 465 462 471 468 474 471 471 465 474 468 471 465 474 468 481 481 487 490 0 0 0 0 0 0 0 446 440 451 443 471 481 481 481 477 477 481 477 484 471 462 454 451 459 451 438 438 435 435 432 432 430 427 425 427 0 0 0 0 0
    0 0 0 0 0 0 0 0 0 0 0 0 0 0 0 0 0 0 0 0 0 0 0 0 0 0 0 0 0 0 0 0 0 0 0 0 0 0 0 0 0 0 0 0 0 0 0 0 0 0 0 0 0 0 0 0 0 0 0 0 0 0 0 0 0 0 0 0 0 418 0 425 422 425 0 0 0 0 0 487 487 0 0 446 432 425 418 0 0 406 404 397 399 399 399 404 406 408 406 408 411 406 406 404 408 406 408 408 408 411 422 430 0 490 493 493 490 490 487 0 432 0 427 422 418 415 411 411 415 411 408 0 420 0 0 427 427 420 411 408 406 399 0 0 0 0 0 0 402 0 0 474 471 474 465 457 477 477 474 459 465 459 443 0 0 0 0 0 425 0 0 0 0 402 411 411 413 406 418 418 425 413 425 420 440 0 471 0 487 487 484 484 465 440 432 0 427 418 406 411 408 406 411 413 413 425 0 446 0 459 468 474 481 474 481 487 493 500 497 484 468 432 420 430 459 457 457 465 465 468 471 471 474 468 471 465 446 432 415 420 418 422 425 425 0 0 0 0 0 0 0 0 0 0 0 457 451 451 454 454 448 459 459 471 462 468 465 468 462 471 462 465 454 471 459 481 481 490 0 0 115 116 0 0 0 0 0 425 432 435 462 481 481 481 477 477 477 477 484 471 459 454 451 459 448 438 438 435 435 432 432 430 427 425 427 0 0 0 0 0
    0 0 0 0 0 0 0 0 0 0 0 0 0 0 0 0 0 0 0 0 0 0 0 0 0 0 0 0 0 0 0 0 0 0 0 0 0 0 0 0 0 0 0 0 0 0 0 0 0 0 0 0 0 0 0 0 0 0 0 0 0 0 0 0 0 0 0 0 0 415 418 422 420 420 420 0 0 0 0 432 432 435 0 435 427 422 413 420 0 0 406 402 402 402 402 406 406 411 408 408 413 406 408 404 408 406 408 408 408 408 418 422 430 484 490 487 487 0 446 427 427 427 422 418 413 411 411 411 413 411 408 408 413 0 0 411 413 408 406 406 406 402 0 397 0 0 0 0 399 0 0 432 430 438 435 435 440 468 465 446 448 448 435 440 435 427 0 415 411 406 0 0 0 402 406 406 411 404 413 411 415 411 418 415 425 427 0 0 465 0 468 481 446 427 408 415 408 411 406 408 408 406 411 413 413 422 422 430 0 0 454 468 477 465 0 0 0 0 0 0 425 413 408 418 435 440 443 454 459 462 468 471 471 457 465 454 435 425 411 415 413 418 422 422 425 427 0 443 0 0 0 0 0 451 0 448 446 446 448 446 446 451 451 465 451 459 454 454 448 454 446 446 438 443 443 471 474 0 0 0 115 0 0 0 0 406 418 413 415 420 435 484 477 481 474 474 477 474 481 465 454 448 446 451 446 435 438 435 435 432 430 427 425 422 425 0 0 0 0 0
    0 0 0 0 0 0 0 0 0 0 0 0 0 0 0 0 0 0 0 0 0 0 0 0 0 0 0 0 0 0 0 0 0 0 0 0 0 0 0 0 0 0 0 0 0 0 0 0 0 0 0 0 0 0 0 0 0 0 0 0 0 0 0 0 0 0 0 0 0 413 415 420 418 418 418 425 425 427 425 425 422 427 427 427 422 418 411 415 408 0 0 0 0 0 0 406 406 411 411 411 413 408 411 406 408 406 408 408 408 408 413 415 425 427 0 0 0 440 435 425 425 425 420 418 413 413 411 411 413 411 408 408 411 0 408 408 411 408 406 404 406 404 404 402 399 397 402 404 399 404 408 420 415 427 427 427 432 446 448 435 435 438 430 432 430 420 425 411 408 404 0 0 404 402 406 406 408 404 411 408 413 408 413 413 420 422 432 427 427 427 432 427 430 411 402 406 404 408 404 406 406 406 411 413 413 422 420 425 420 427 0 0 0 0 381 387 387 389 391 397 404 406 404 413 425 432 438 446 451 457 465 468 465 448 454 438 427 418 408 413 413 415 418 418 420 422 422 435 427 0 0 0 0 0 430 446 440 443 443 443 440 446 446 457 443 446 443 438 435 0 0 432 427 427 432 432 451 0 0 397 0 0 395 397 404 404 408 408 408 411 422 484 477 481 474 477 477 474 481 462 446 443 440 443 440 430 435 432 432 430 430 425 422 420 425 0 0 0 0 0
    0 0 0 0 0 0 0 0 0 0 0 0 0 0 0 0 0 0 0 0 0 0 0 0 0 0 0 0 0 0 0 0 0 0 0 0 0 0 0 0 0 0 0 0 0 0 0 0 0 0 0 0 0 0 0 0 0 0 0 0 0 0 0 0 0 0 0 0 0 415 415 418 413 413 415 422 420 420 418 418 413 418 420 418 413 411 406 408 404 406 404 399 0 399 402 406 406 413 411 411 415 411 413 406 408 408 408 408 408 408 411 411 420 420 420 430 430 430 427 420 422 425 420 418 413 411 411 411 413 408 408 408 408 406 408 408 411 408 406 404 406 404 404 402 402 399 404 404 399 402 404 408 406 413 418 418 422 432 430 427 427 430 425 422 422 413 415 408 406 404 0 0 404 404 406 404 406 404 408 408 411 406 411 411 415 415 425 420 418 415 420 415 415 404 399 404 402 406 404 406 406 406 411 413 411 420 413 418 411 413 404 397 0 389 383 389 389 391 393 397 404 406 406 411 418 427 432 440 443 448 457 462 457 443 446 432 425 413 406 413 411 413 415 415 415 418 415 427 418 0 0 0 0 408 408 440 435 440 440 440 438 440 440 448 432 432 427 420 422 425 425 420 418 420 422 415 422 395 395 397 395 395 395 397 402 402 406 406 406 406 408 0 465 474 465 471 477 474 477 454 443 438 438 0 438 427 432 432 432 430 430 427 425 420 425 0 0 0 0 0
    0 0 0 0 0 0 0 0 0 0 0 0 0 0 0 0 0 0 0 0 0 0 0 0 0 0 0 0 0 0 0 0 0 0 0 0 0 0 0 0 0 0 0 0 0 0 0 0 0 0 0 0 0 0 0 0 0 0 0 0 0 0 0 0 0 0 0 0 0 418 415 418 413 413 415 420 418 418 415 418 411 415 415 413 408 406 404 406 402 402 399 397 397 399 402 406 404 411 411 411 415 411 413 406 408 408 408 408 408 408 411 408 418 413 415 422 420 418 422 413 418 420 418 415 411 411 411 408 411 408 408 408 411 406 411 411 411 408 408 406 406 406 406 404 404 402 404 404 399 402 404 404 402 404 408 408 411 422 418 418 418 420 415 413 413 408 408 406 404 402 402 0 404 0 0 404 406 404 406 406 406 404 406 406 408 411 418 415 413 408 413 408 408 404 399 404 402 404 404 406 406 406 408 411 411 415 411 415 406 408 399 395 393 387 385 387 389 391 393 397 402 404 406 411 413 422 425 432 435 440 443 451 446 435 0 427 420 413 406 413 411 413 413 413 413 413 413 422 411 408 0 406 406 404 406 0 432 438 438 435 435 435 435 435 425 418 408 406 406 406 413 411 413 413 415 411 406 399 399 399 399 397 397 397 402 402 404 404 404 406 406 422 438 0 440 457 477 462 477 446 438 432 0 0 432 427 432 432 432 430 430 427 425 420 425 0 0 0 0 0
    0 0 0 0 0 0 0 0 0 0 0 0 0 0 0 0 0 0 0 0 0 0 0 0 0 0 0 0 0 0 0 0 0 0 0 0 0 0 0 0 0 0 0 0 0 0 0 0 0 0 0 0 0 0 0 0 0 0 0 0 0 0 0 0 0 0 0 0 0 418 418 418 413 413 415 420 420 420 415 420 411 415 415 411 408 406 404 404 402 402 402 397 397 399 402 404 404 411 411 411 415 411 413 406 411 408 408 411 408 408 411 408 418 413 411 418 415 413 418 411 415 415 415 413 411 408 408 408 411 411 408 411 411 408 413 413 413 411 411 408 408 408 408 406 406 404 406 404 399 402 402 402 399 402 404 404 406 415 408 411 411 413 411 408 408 406 406 404 404 402 402 0 0 0 0 0 0 402 404 402 402 402 404 404 406 408 415 413 413 408 413 411 411 404 399 404 402 406 404 406 406 406 408 411 411 415 411 413 406 408 402 397 395 391 389 391 391 393 395 397 402 404 406 408 411 415 420 425 427 430 432 438 432 422 418 418 413 408 404 411 408 411 411 411 411 411 411 418 408 408 406 406 406 406 408 420 422 427 432 430 430 427 425 425 413 408 404 404 406 404 411 408 411 413 413 408 404 399 399 399 399 399 399 399 402 404 404 404 404 404 404 408 422 411 411 402 0 0 0 425 422 420 0 0 425 422 430 430 430 427 0 425 420 413 413 0 0 0 0 0
    0 0 0 0 0 0 0 0 0 0 0 0 0 0 0 0 0 0 0 0 0 0 0 0 0 0 0 0 0 0 0 0 0 0 0 0 0 0 0 0 0 0 0 0 0 0 0 0 0 0 0 0 0 0 0 0 0 0 0 0 0 0 0 0 0 0 0 0 0 420 420 420 418 415 420 422 425 422 420 422 415 415 418 413 411 406 404 406 404 404 404 399 399 399 404 406 406 411 411 413 415 411 415 406 411 411 411 411 408 408 411 408 418 411 408 415 411 411 418 411 413 413 413 413 408 408 408 408 411 411 411 411 413 411 413 413 413 413 411 408 411 408 411 406 406 404 406 406 399 402 402 404 402 402 404 404 404 413 406 406 408 408 406 406 404 404 402 404 402 399 402 0 0 0 0 0 0 0 402 402 399 399 402 402 406 408 415 413 413 411 413 411 411 404 399 404 402 406 404 406 406 406 408 413 411 415 411 415 408 408 404 399 399 393 395 395 395 395 397 399 402 404 406 408 413 415 420 418 418 415 420 425 411 406 406 408 408 406 402 408 408 408 408 408 411 408 411 418 408 408 408 408 411 408 411 415 415 418 422 422 420 418 413 411 406 404 402 402 404 402 406 406 411 411 411 408 404 402 402 402 402 399 399 397 402 402 404 404 404 404 404 404 411 402 399 397 397 397 395 395 397 402 0 0 411 408 411 418 413 411 0 406 402 399 397 0 0 0 0 0
    0 0 0 0 0 0 0 0 0 0 0 0 0 0 0 0 0 0 0 0 0 0 0 0 0 0 0 0 0 0 0 0 0 0 0 0 0 0 0 0 0 0 0 0 0 0 0 0 0 0 0 0 0 0 0 0 0 0 0 0 0 0 0 0 0 0 0 0 0 420 420 420 415 418 422 425 425 425 422 422 418 418 420 413 411 408 406 406 404 406 404 399 402 402 406 408 408 415 415 415 418 411 418 406 413 411 411 411 408 408 411 408 418 411 408 415 413 413 420 413 415 415 413 413 408 408 408 411 411 411 411 411 413 411 413 415 413 413 411 411 413 411 413 408 408 406 406 406 399 402 402 402 402 402 404 404 404 413 406 406 406 406 406 404 404 404 402 404 402 399 402 402 0 0 0 0 0 0 0 402 399 399 402 402 406 406 411 411 411 408 411 408 408 404 397 404 399 404 404 404 404 406 408 411 411 415 411 415 408 411 404 402 404 395 397 397 397 397 397 399 402 404 406 408 413 418 420 415 413 406 413 418 408 404 402 406 406 406 402 408 408 408 408 408 408 408 408 420 408 408 411 413 413 411 415 418 413 415 418 418 415 411 408 404 402 402 399 399 402 402 404 404 408 413 411 408 406 404 404 404 404 402 399 397 402 402 404 402 402 404 402 404 406 397 397 395 395 391 389 391 391 393 397 399 402 0 402 404 404 402 399 399 395 397 393 0 0 0 0 0
    0 0 0 0 0 0 0 0 0 0 0 0 0 0 0 0 0 0 0 0 0 0 0 0 0 0 0 0 0 0 0 0 0 0 0 0 0 0 0 0 0 0 0 0 0 0 0 0 0 0 0 0 0 0 0 0 0 0 0 0 0 0 0 0 0 0 0 0 0 420 420 418 413 415 420 422 425 425 422 425 418 420 420 413 411 408 406 406 404 406 406 402 404 404 406 408 408 415 415 415 418 413 418 406 413 413 411 411 411 408 411 408 418 413 411 420 415 418 420 418 418 418 415 415 408 411 411 411 411 411 411 411 411 411 413 413 413 413 411 411 413 413 413 411 408 406 408 406 399 402 402 402 402 402 402 402 404 413 406 406 406 406 406 404 404 404 404 404 404 402 402 404 404 404 0 0 0 0 402 402 402 402 402 402 404 406 408 411 408 406 411 406 408 404 397 402 399 404 402 404 404 406 408 411 408 415 411 415 408 408 404 402 404 397 399 399 397 397 399 399 402 404 408 408 415 420 422 415 411 404 404 411 406 404 402 404 406 406 402 408 406 406 406 406 406 406 408 418 408 408 413 413 415 413 418 418 411 413 413 413 411 406 404 402 399 399 399 399 399 399 402 404 408 413 413 411 408 406 406 406 406 404 402 399 402 402 404 402 402 404 402 404 406 399 399 395 395 393 389 391 391 391 395 397 0 0 399 402 402 402 399 397 395 395 391 0 0 0 0 0
    0 0 0 0 0 0 0 0 0 0 0 0 0 0 0 0 0 0 0 0 0 0 0 0 0 0 0 0 0 0 0 0 0 0 0 0 0 0 0 0 0 0 0 0 0 0 0 0 0 0 0 0 0 0 0 0 0 0 0 0 0 0 0 0 0 0 0 0 0 418 415 415 411 413 0 420 422 422 420 425 418 418 420 411 411 408 406 406 404 404 406 404 406 406 406 408 408 413 415 413 413 411 415 404 413 413 411 411 411 411 413 411 420 415 415 422 420 420 422 420 418 418 415 418 411 411 408 408 408 408 408 411 411 411 413 413 413 413 413 413 415 415 415 411 411 406 408 406 399 402 402 402 402 402 402 402 404 411 404 406 406 406 406 406 404 406 406 408 404 404 404 406 404 404 404 0 0 0 399 402 399 402 402 402 404 404 406 408 408 406 408 406 406 404 397 402 399 402 402 404 404 404 406 408 408 413 408 413 408 408 404 402 406 399 402 402 399 399 402 402 402 404 408 408 418 422 425 411 404 399 399 406 404 402 402 404 406 408 402 406 0 404 404 404 406 404 406 415 406 406 411 411 415 413 415 415 411 411 411 411 408 404 402 402 399 399 399 397 399 399 402 402 408 411 413 411 411 411 408 408 408 406 402 399 402 402 404 402 404 404 402 404 408 402 402 395 395 393 391 393 393 393 395 397 399 399 399 402 402 402 399 397 395 395 393 0 0 0 0 0
    0 0 0 0 0 0 0 0 0 0 0 0 0 0 0 0 0 0 0 0 0 0 0 0 0 0 0 0 0 0 0 0 0 0 0 0 0 0 0 0 0 0 0 0 0 0 0 0 0 0 0 0 0 0 0 0 0 0 0 0 0 0 0 0 0 0 0 0 0 418 413 411 408 0 0 0 0 0 0 420 413 413 415 408 408 406 404 404 404 404 406 404 408 406 408 408 413 413 413 413 411 408 413 404 413 413 411 413 411 411 413 413 422 418 418 422 420 420 422 420 418 418 415 418 411 411 408 408 406 408 408 411 408 411 413 413 415 413 415 413 418 415 415 413 411 408 408 404 399 402 402 402 402 402 402 402 402 408 404 406 406 406 406 406 406 408 406 408 406 406 404 406 404 404 402 399 0 0 397 399 397 399 399 399 402 404 404 406 406 406 408 406 406 404 399 402 399 402 402 404 404 404 406 408 408 413 408 413 408 408 404 404 408 402 404 404 404 402 404 402 402 402 406 404 408 415 411 402 393 395 395 402 404 402 404 406 408 411 404 408 406 404 404 404 404 404 404 413 406 404 408 408 411 408 411 413 408 408 408 406 404 399 399 399 397 397 397 397 399 399 404 404 408 411 413 413 411 411 408 408 408 406 402 399 402 402 402 402 404 404 404 406 411 404 404 397 397 393 391 393 393 395 395 397 399 399 399 402 399 399 397 397 395 395 393 0 0 0 0 0
    0 0 0 0 0 0 0 0 0 0 0 0 0 0 0 0 0 0 0 0 0 0 0 0 0 0 0 0 0 0 0 0 0 0 0 0 0 0 0 0 0 0 0 0 0 0 0 0 0 0 0 0 0 0 0 0 0 0 0 0 0 0 0 0 0 0 0 0 0 415 413 408 0 0 0 0 0 0 0 0 411 408 408 406 406 404 404 402 402 404 406 406 408 408 411 408 413 413 413 411 408 408 411 404 413 413 413 413 413 413 415 413 425 420 420 422 420 420 422 420 418 415 413 415 411 411 406 408 406 408 408 411 411 411 413 415 415 413 415 413 415 415 415 411 411 408 408 404 399 402 402 404 404 404 404 404 404 408 404 406 404 404 404 406 406 408 406 411 406 406 404 406 404 402 399 397 395 393 395 395 395 397 399 399 402 402 404 406 406 406 408 406 406 402 399 402 399 402 402 402 404 404 406 408 408 411 408 411 411 408 406 404 408 404 408 408 404 402 404 399 399 399 402 399 399 402 397 393 389 393 395 402 404 404 404 406 408 411 404 408 406 404 404 404 404 404 404 411 404 404 406 406 406 404 406 406 404 406 406 404 404 399 399 399 399 397 399 399 399 402 404 404 408 411 413 413 413 413 411 408 408 406 402 399 402 402 402 402 404 404 404 408 413 406 406 402 402 397 395 395 393 395 397 397 397 399 399 399 399 399 397 399 395 397 393 0 0 0 0 0
    0 0 0 0 0 0 0 0 0 0 0 0 0 0 0 0 0 0 0 0 0 0 0 0 0 0 0 0 0 0 0 0 0 0 0 0 0 0 0 0 0 0 0 0 0 0 0 0 0 0 0 0 0 0 0 0 0 0 0 0 0 0 0 0 0 0 0 0 0 415 413 413 0 0 0 0 0 0 0 0 408 408 408 406 406 406 406 404 404 404 406 406 408 411 411 411 415 413 413 411 408 408 411 406 411 413 413 413 413 413 415 415 425 422 420 422 422 422 422 420 415 415 413 413 408 408 406 408 406 408 411 413 411 411 413 415 415 413 415 413 415 413 415 411 411 408 408 404 402 404 404 406 404 404 404 406 406 411 404 406 404 404 404 404 404 406 406 408 406 406 404 404 402 399 397 395 393 393 393 395 395 397 399 399 402 402 404 404 406 406 408 404 406 402 399 402 402 402 402 402 404 404 406 406 408 411 408 411 411 411 408 408 411 406 411 413 406 404 404 399 397 397 397 395 395 397 391 389 385 393 397 402 404 404 404 408 408 413 404 406 406 404 404 404 404 402 404 411 404 402 404 404 402 402 404 0 402 402 404 402 404 399 402 399 402 399 402 399 402 402 404 404 408 411 413 413 411 413 411 408 408 404 402 399 399 399 399 399 402 404 406 408 413 408 408 404 404 0 395 393 393 395 395 397 397 399 402 402 402 402 399 402 395 397 395 0 0 0 0 0
    0 0 0 0 0 0 0 0 0 0 0 0 0 0 0 0 0 0 0 0 0 0 0 0 0 0 0 0 0 0 0 0 0 0 0 0 0 0 0 0 0 0 0 0 0 0 0 0 0 0 0 0 0 0 0 0 0 0 0 0 0 0 0 0 0 0 0 0 0 415 413 413 408 0 0 0 0 0 0 0 0 406 406 406 408 408 406 404 406 406 408 408 411 413 413 413 420 418 415 413 411 411 411 406 411 413 413 413 413 413 415 415 425 425 420 420 420 422 422 420 415 415 413 413 408 408 404 406 404 406 408 413 411 411 411 413 413 413 415 413 413 413 415 411 411 408 408 404 402 404 404 406 406 406 406 406 408 413 406 408 404 404 404 404 404 406 406 406 404 404 402 402 399 397 397 395 393 393 395 397 397 399 402 402 402 402 402 404 406 406 406 404 406 402 402 402 402 402 402 402 404 404 408 406 408 411 408 411 413 411 411 411 413 408 413 418 411 404 404 399 395 395 395 391 393 395 389 389 389 395 399 402 404 404 404 408 411 413 404 406 404 402 402 404 402 402 404 411 404 402 404 402 402 402 402 0 0 0 399 395 402 397 399 399 399 399 402 402 402 402 404 404 408 411 413 411 411 413 408 406 406 399 399 397 399 399 397 399 402 402 406 408 413 408 408 406 406 0 0 395 393 395 397 399 399 402 402 404 404 402 402 402 0 402 395 0 0 0 0 0
    0 0 0 0 0 0 0 0 0 0 0 0 0 0 0 0 0 0 0 0 0 0 0 0 0 0 0 0 0 0 0 0 0 0 0 0 0 0 0 0 0 0 0 0 0 0 0 0 0 0 0 0 0 0 0 0 0 0 0 0 0 0 0 0 0 0 0 0 0 413 411 411 408 0 0 0 0 0 0 0 0 406 406 406 406 408 408 406 406 406 408 411 413 415 413 415 418 418 415 413 411 408 411 406 411 413 411 413 413 415 415 415 425 425 420 420 420 420 420 420 415 413 413 411 408 408 404 406 404 406 406 408 408 411 408 411 411 411 413 411 411 411 413 413 411 406 406 402 402 404 404 406 406 406 406 408 413 415 408 411 406 404 404 406 404 406 406 406 404 404 402 402 0 0 395 395 395 395 395 399 399 402 404 404 404 404 404 404 404 406 406 404 404 402 402 402 402 402 402 402 404 404 408 406 408 411 408 411 413 413 413 411 415 413 415 420 413 406 404 397 393 391 389 389 389 393 389 393 393 399 402 404 406 406 406 408 411 413 404 406 404 402 402 402 402 399 402 408 402 0 0 0 0 0 397 0 397 395 399 395 399 395 397 397 397 397 397 397 399 399 402 402 406 408 415 411 411 411 406 406 404 0 399 395 397 399 397 399 402 404 406 411 413 411 411 408 411 0 0 397 395 399 399 399 402 402 404 404 404 404 402 0 0 402 397 0 0 0 0 0
    0 0 0 0 0 0 0 0 0 0 0 0 0 0 0 0 0 0 0 0 0 0 0 0 0 0 0 0 0 0 0 0 0 0 0 0 0 0 0 0 0 0 0 0 0 0 0 0 0 0 0 0 0 0 0 0 0 0 0 0 0 0 0 0 0 0 0 0 0 413 408 408 406 0 408 0 0 0 399 404 406 406 406 406 408 411 408 406 408 408 408 411 411 413 411 411 413 413 411 411 408 408 408 406 411 413 411 415 413 415 418 415 427 427 425 422 420 422 420 418 413 413 413 411 408 408 404 406 404 406 406 408 408 408 408 411 411 408 413 411 411 411 411 413 411 406 408 399 402 404 404 406 406 406 406 408 415 413 408 413 406 406 404 406 406 408 406 406 406 406 404 402 399 397 397 397 397 0 397 402 402 404 406 406 406 404 402 402 404 406 404 404 404 402 404 404 404 402 402 402 404 404 408 406 411 411 408 411 413 413 413 411 418 413 415 418 411 406 402 393 389 389 389 391 391 395 393 395 397 399 404 404 406 406 406 411 411 413 404 406 404 402 402 402 402 399 399 404 397 395 397 393 395 393 395 395 395 395 402 395 399 397 397 397 397 397 397 397 399 399 404 404 408 408 415 411 408 411 404 404 402 397 399 397 399 399 397 399 402 402 406 408 411 408 411 408 411 406 404 402 399 402 399 402 402 402 404 404 404 404 404 0 0 404 399 0 0 0 0 0
    0 0 0 0 0 0 0 0 0 0 0 0 0 0 0 0 0 0 0 0 0 0 0 0 0 0 0 0 0 0 0 0 0 0 0 0 0 0 0 0 0 0 0 0 0 0 0 0 0 0 0 0 0 0 0 0 0 0 0 0 0 0 0 0 0 0 0 0 0 411 408 406 404 0 0 0 0 0 399 402 406 406 408 408 411 413 411 408 408 408 408 411 408 411 408 408 411 411 408 408 406 406 408 406 411 411 413 415 415 418 418 418 427 430 427 420 418 420 415 413 408 411 408 408 408 408 404 406 404 406 408 408 411 411 408 411 411 408 413 411 411 408 411 413 411 408 408 402 404 406 406 408 408 406 406 408 420 413 411 415 406 406 406 406 406 408 406 406 406 406 404 404 402 0 399 399 0 402 399 402 404 406 408 408 406 404 402 402 404 406 404 406 406 402 406 404 404 404 404 404 404 404 411 406 411 411 408 411 413 413 415 413 418 411 413 418 408 404 399 391 389 389 391 393 393 395 395 395 397 402 404 404 406 406 406 411 411 413 406 406 406 404 404 402 402 399 399 402 397 393 395 391 393 393 395 393 395 397 402 397 402 397 399 397 399 397 397 397 399 399 404 406 406 406 413 408 406 411 404 404 399 395 397 397 399 399 397 399 402 402 404 406 411 406 408 408 411 406 404 404 399 404 399 402 402 402 404 404 404 404 404 0 0 402 399 0 0 0 0 0
    0 0 0 0 0 0 0 0 0 0 0 0 0 0 0 0 0 0 0 0 0 0 0 0 0 0 0 0 0 0 0 0 0 0 0 0 0 0 0 0 0 0 0 0 0 0 0 0 0 0 0 0 0 0 0 0 0 0 0 0 0 0 0 0 0 0 0 0 0 408 408 406 404 0 0 0 0 0 0 0 0 406 408 411 411 415 413 408 411 411 408 411 408 411 408 408 411 411 408 408 408 408 408 406 408 411 411 413 413 415 415 415 427 432 422 408 408 411 411 406 404 406 404 402 402 402 399 402 404 406 406 411 413 413 411 411 411 408 413 408 408 408 408 411 411 408 411 402 406 406 406 408 408 408 408 408 422 415 411 415 406 406 406 408 406 406 406 406 406 406 406 404 404 402 399 399 399 402 402 402 404 404 406 408 406 404 402 402 404 406 406 408 408 404 408 406 408 406 406 406 406 406 413 408 413 411 411 411 413 413 415 413 415 411 413 415 408 404 399 395 391 391 391 393 393 395 395 395 397 402 404 406 406 406 408 411 413 415 406 408 408 406 406 404 402 402 399 402 397 393 393 389 391 393 395 395 397 397 402 399 404 399 399 399 399 399 397 399 402 402 408 411 413 411 415 413 408 413 404 404 399 395 397 397 399 399 397 399 402 402 404 406 411 406 0 408 411 406 402 402 397 399 397 402 399 399 402 402 402 0 0 0 0 397 395 0 0 0 0 0
    0 0 0 0 0 0 0 0 0 0 0 0 0 0 0 0 0 0 0 0 0 0 0 0 0 0 0 0 0 0 0 0 0 0 0 0 0 0 0 0 0 0 0 0 0 0 0 0 0 0 0 0 0 0 0 0 0 0 0 0 0 0 0 0 0 0 0 0 0 408 406 406 0 0 0 0 0 0 0 0 0 406 408 411 411 415 413 411 411 411 408 411 408 411 408 408 411 411 406 411 408 408 408 404 408 408 411 413 413 413 413 413 425 427 408 0 0 0 406 406 404 406 404 402 402 402 399 0 0 0 406 413 415 415 413 413 411 408 413 408 408 406 408 413 411 408 413 404 406 408 408 411 411 411 408 408 425 420 413 418 406 406 406 408 406 406 406 406 406 406 406 404 402 402 399 399 399 402 402 402 402 404 404 406 404 402 402 399 402 406 406 408 411 404 411 408 411 408 408 406 406 406 415 408 413 411 411 411 413 413 415 413 415 411 413 413 408 406 402 399 395 393 393 395 395 397 395 397 397 402 406 408 408 408 408 413 413 415 408 408 408 408 408 404 404 402 402 402 397 393 393 389 391 391 395 395 397 397 399 397 404 402 402 402 399 399 397 399 406 404 411 418 418 418 422 420 411 413 0 0 397 391 397 397 399 399 399 399 402 404 404 408 408 404 404 406 408 402 399 397 395 395 395 397 395 397 399 399 402 0 0 0 0 395 393 0 0 0 0 0
    0 0 0 0 0 0 0 0 0 0 0 0 0 0 0 0 0 0 0 0 0 0 0 0 0 0 0 0 0 0 0 0 0 0 0 0 0 0 0 0 0 0 0 0 0 0 0 0 0 0 0 0 0 0 0 0 0 0 0 0 0 0 0 0 0 0 0 0 0 408 408 406 0 0 0 0 0 0 399 0 0 406 411 415 411 418 415 411 411 411 408 411 408 411 406 408 408 408 406 408 408 408 408 404 408 408 411 413 413 413 413 411 422 0 0 0 0 0 0 402 404 406 404 402 399 399 399 0 0 0 0 413 418 418 413 413 413 408 411 406 406 406 408 411 411 0 0 404 408 408 408 411 411 411 408 408 425 422 413 418 406 406 406 406 406 406 0 406 404 406 406 404 402 0 0 402 402 402 402 402 404 404 404 404 404 402 399 399 402 406 404 408 408 404 411 408 411 408 408 406 406 406 415 408 413 411 411 411 413 415 415 413 413 411 411 413 408 408 404 402 397 397 393 397 397 399 397 399 402 406 0 413 413 411 413 415 415 415 408 408 408 408 408 404 404 402 402 402 397 395 393 391 393 393 393 395 395 0 397 395 404 402 402 399 0 397 397 397 408 406 411 422 422 422 425 425 411 406 395 0 391 383 395 397 399 402 399 402 402 404 404 406 406 402 402 404 406 404 402 399 399 399 399 402 397 0 399 0 0 0 0 0 0 0 399 0 0 0 0 0
    0 0 0 0 0 0 0 0 0 0 0 0 0 0 0 0 0 0 0 0 0 0 0 0 0 0 0 0 0 0 0 0 0 0 0 0 0 0 0 0 0 0 0 0 0 0 0 0 0 0 0 0 0 0 0 0 0 0 0 0 0 0 0 0 0 0 0 0 0 0 0 0 0 0 0 0 0 0 399 399 0 408 0 420 415 422 420 415 415 413 411 411 408 411 406 408 408 408 406 408 408 411 408 404 408 408 408 411 0 411 411 411 0 0 0 0 0 0 0 0 0 402 402 399 397 397 0 78 0 0 0 413 418 418 413 413 413 408 411 406 0 404 0 413 0 0 0 0 0 408 408 411 411 411 408 408 425 422 413 415 406 406 404 406 404 404 0 404 404 406 406 404 404 0 0 404 404 404 0 404 404 406 406 406 404 402 399 397 399 406 404 408 408 404 413 408 411 408 408 406 406 406 415 408 413 411 411 411 413 415 415 413 413 411 411 413 411 411 406 406 399 399 395 399 399 402 399 399 0 0 0 0 415 411 413 415 415 415 408 408 408 408 408 404 404 402 402 402 397 395 395 391 393 393 397 397 395 0 0 393 0 0 0 399 0 0 395 0 0 408 418 430 430 427 430 430 411 399 387 0 383 377 393 397 399 402 402 402 402 402 402 404 402 399 399 402 404 0 399 404 399 404 404 406 402 399 0 402 0 0 0 0 0 0 399 0 0 0 0 0
    0 0 0 0 0 0 0 0 0 0 0 0 0 0 0 0 0 0 0 0 0 0 0 0 0 0 0 0 0 0 0 0 0 0 0 0 0 0 0 0 0 0 0 0 0 0 0 0 0 0 0 0 0 0 0 0 0 0 0 0 0 0 0 0 0 0 0 0 0 0 0 0 0 0 0 0 0 0 399 399 0 0 0 425 425 430 425 420 418 418 411 411 408 411 406 406 0 408 406 408 406 408 406 404 406 408 408 0 0 411 413 0 0 0 109 0 0 0 0 391 0 397 397 395 393 0 78 78 78 0 0 0 418 418 413 413 411 406 406 402 0 0 0 0 0 0 0 0 0 406 406 411 411 408 408 406 422 422 411 413 406 404 404 406 404 404 0 406 406 408 408 406 406 0 0 404 406 406 0 406 406 406 406 406 404 402 399 397 397 404 404 408 408 406 413 408 413 408 408 408 406 408 418 408 413 411 413 413 415 415 415 413 413 411 411 411 411 411 406 406 402 399 395 399 399 402 399 399 0 0 0 0 0 408 408 411 411 415 408 411 411 408 408 404 404 402 402 402 397 397 395 393 395 395 399 402 399 0 0 0 0 0 0 0 0 0 395 0 0 411 422 432 432 430 0 432 415 402 385 0 379 375 393 399 399 402 402 402 402 404 402 404 399 397 397 399 0 0 0 411 402 0 406 0 0 0 0 0 0 0 0 0 0 0 395 0 0 0 0 0
    0 0 0 0 0 0 0 0 0 0 0 0 0 0 0 0 0 0 0 0 0 0 0 0 0 0 0 0 0 0 0 0 0 0 0 0 0 0 0 0 0 0 0 0 0 0 0 0 0 0 0 0 0 0 0 0 0 0 0 0 0 0 0 0 0 0 0 0 0 0 0 0 0 163 0 0 0 0 402 399 404 411 432 430 430 432 427 425 422 422 411 411 406 408 406 406 0 406 404 408 406 408 406 404 406 408 408 0 413 411 0 0 0 0 0 0 0 0 0 0 0 0 393 391 389 0 78 78 0 0 0 0 0 422 415 413 408 402 399 397 0 0 402 413 411 0 0 406 406 406 406 411 408 408 408 406 425 422 411 413 404 0 404 0 404 404 0 406 406 408 411 0 0 0 408 406 406 406 0 404 404 406 404 404 404 402 399 397 397 402 402 408 408 406 413 408 413 411 411 408 408 408 418 408 413 411 413 413 415 415 415 413 411 411 408 411 411 411 406 408 402 399 395 399 397 399 399 0 0 0 0 0 0 406 408 411 411 415 408 411 411 408 408 404 404 402 402 402 397 397 395 393 393 395 399 402 402 0 0 0 0 0 0 0 0 0 393 0 0 413 0 432 432 430 0 0 420 408 383 0 375 0 389 399 402 402 402 402 404 404 402 404 399 397 397 0 0 0 0 0 0 0 0 0 0 343 0 0 0 0 0 0 0 0 383 0 0 0 0 0
    0 0 0 0 0 0 0 0 0 0 0 0 0 0 0 0 0 0 0 0 0 0 0 0 0 0 0 0 0 0 0 0 0 0 0 0 0 0 0 0 0 0 0 0 0 0 0 0 0 0 0 0 0 0 0 0 0 0 0 0 0 0 0 0 0 0 0 0 0 169 0 0 0 165 106 0 0 0 404 0 0 413 440 435 432 435 427 422 0 0 0 0 0 0 0 0 0 406 406 408 406 408 406 402 404 404 0 0 413 0 0 0 0 0 0 0 0 0 99 0 0 0 0 0 0 0 78 78 78 0 0 0 0 0 425 0 0 0 0 0 0 0 0 0 0 0 0 411 411 408 408 411 411 408 408 404 425 422 408 413 402 0 0 0 404 0 0 0 0 411 411 0 0 0 408 408 408 0 0 0 0 0 402 402 399 0 397 395 395 399 402 408 411 406 418 411 415 413 413 413 408 408 420 408 413 411 413 413 413 415 415 413 411 411 408 408 411 411 406 408 0 0 395 397 397 397 0 0 0 0 0 0 0 0 413 413 413 415 408 411 411 411 411 404 404 404 402 402 397 397 395 393 393 393 399 402 0 0 0 0 0 0 0 0 0 0 0 0 0 415 0 432 432 430 0 0 422 0 0 0 371 0 385 397 402 402 402 402 404 404 402 0 399 397 0 0 0 0 0 0 0 0 0 0 0 350 355 360 367 367 375 371 373 0 377 0 0 0 0 0
    0 0 0 0 0 0 0 0 0 0 0 0 0 0 0 0 0 0 0 0 0 0 0 0 0 0 0 0 0 0 0 0 0 0 0 0 0 0 0 0 0 0 0 0 0 0 0 0 0 0 0 0 0 0 0 0 0 0 0 0 0 0 0 0 0 0 0 0 0 169 0 0 0 166 0 0 0 0 0 0 0 0 0 438 432 432 418 0 0 0 0 0 0 0 0 0 0 0 0 411 406 408 404 0 0 0 0 0 0 0 0 0 0 110 110 0 0 100 0 0 0 0 0 0 0 0 78 78 78 78 0 0 0 0 0 0 0 0 0 0 0 0 0 0 0 0 0 0 0 408 406 406 406 404 402 399 406 415 404 411 0 0 0 0 0 0 0 0 0 0 0 0 0 0 0 0 0 0 0 0 0 0 0 0 0 0 77 0 0 0 0 0 432 420 425 415 418 415 415 415 406 406 422 406 411 411 411 413 413 415 415 413 411 411 408 408 411 0 406 406 0 0 391 0 0 0 0 0 0 0 557 574 0 0 0 0 411 418 408 411 411 408 408 404 404 402 402 402 397 397 395 393 393 395 397 0 0 0 0 0 0 272 0 0 0 0 0 2943 2725 0 0 0 0 0 0 0 0 0 0 357 0 362 0 397 402 0 404 404 404 406 0 0 0 0 0 0 0 0 0 0 0 0 0 0 0 343 343 352 360 362 369 367 369 0 375 0 0 0 0 0
    0 0 0 0 0 0 0 0 0 0 0 0 0 0 0 0 0 0 0 0 0 0 0 0 0 0 0 0 0 0 0 0 0 0 0 0 0 0 0 0 0 0 0 0 0 0 0 0 0 0 0 0 0 0 0 0 0 0 0 0 0 0 0 0 0 0 0 0 0 0 0 0 0 0 0 0 0 0 334 339 333 327 319 319 321 318 319 319 318 0 0 0 324 322 324 324 322 322 325 0 0 0 0 0 0 0 0 0 0 0 0 201 0 0 0 0 0 101 0 0 0 0 0 0 0 0 0 0 0 0 0 0 0 0 0 0 0 0 413 0 0 0 0 0 0 82 0 0 0 0 0 0 0 0 0 385 383 0 0 0 0 0 0 0 0 0 0 283 0 0 0 0 0 0 0 0 0 0 0 84 84 0 84 0 0 0 0 0 0 73 0 0 0 0 0 0 0 420 404 0 385 389 0 0 6133 7359 0 0 0 408 404 404 404 406 402 0 0 292 0 0 0 0 0 0 0 0 0 0 0 593 561 0 0 584 598 0 0 0 408 408 411 408 406 404 402 0 0 0 0 0 0 0 0 0 0 0 0 0 0 0 0 0 0 0 0 0 0 0 0 0 0 0 0 0 0 0 0 0 0 352 360 352 0 0 0 0 408 406 0 0 0 0 0 0 0 0 0 0 0 0 0 0 0 0 0 342 343 347 353 355 0 0 0 0 0 0 0 0 0 0
    0 0 0 0 0 0 0 0 0 0 0 0 0 0 0 0 0 0 0 0 0 0 0 0 0 0 0 0 0 0 0 0 0 0 0 0 0 0 0 0 0 0 0 0 0 0 0 0 0 0 0 0 0 0 0 0 0 0 0 0 0 0 0 0 0 0 0 0 0 330 325 328 328 0 333 333 333 0 333 0 331 328 324 325 325 325 325 321 319 319 318 319 322 322 324 324 324 325 327 330 334 330 324 319 327 0 0 0 0 0 0 0 0 0 0 0 0 0 0 0 0 0 0 0 0 0 0 0 0 0 0 0 0 0 0 0 0 0 0 0 322 321 0 0 0 0 0 0 322 324 0 330 331 331 334 336 359 0 0 0 0 0 0 0 0 0 0 0 0 0 0 0 0 0 0 0 0 85 0 85 0 0 0 0 0 0 0 73 0 0 0 0 0 318 317 321 324 325 0 0 347 340 0 352 0 0 0 8177 0 0 0 337 336 0 0 0 295 292 290 0 0 0 0 0 0 0 0 0 0 0 0 0 0 574 598 579 574 579 0 0 0 0 0 0 0 0 0 0 171 0 0 0 0 0 0 0 0 330 325 0 0 0 0 0 0 0 0 0 0 0 0 0 0 0 0 0 0 0 348 347 350 347 345 0 0 0 0 0 0 0 0 0 0 0 0 0 0 0 0 0 0 0 0 0 0 340 340 343 345 0 0 0 0 0 0 0 0 0 0 0
    0 0 0 0 0 0 0 0 0 0 0 0 0 0 0 0 0 0 0 0 0 0 0 0 0 0 0 0 0 0 0 0 0 0 0 0 0 0 0 0 0 0 0 0 0 0 0 0 0 0 0 0 0 0 0 0 0 0 0 0 0 0 0 0 0 0 0 0 0 328 325 328 328 331 333 331 331 334 333 339 333 331 330 331 331 333 331 325 321 0 319 321 322 324 324 324 325 327 328 331 333 333 328 322 330 331 330 330 331 0 0 334 334 0 0 0 0 0 0 0 0 0 0 0 0 0 0 0 0 0 0 0 0 0 0 327 325 0 324 0 0 322 324 0 0 325 321 318 324 325 328 327 327 328 331 333 342 340 340 339 0 0 0 0 0 0 0 0 327 322 325 324 327 327 322 0 0 0 0 0 0 0 0 0 0 0 0 0 0 0 0 0 0 0 0 322 322 322 0 0 330 328 327 333 315 0 0 331 328 330 331 331 328 334 331 318 319 310 0 0 371 0 0 0 0 0 0 307 307 0 0 0 0 0 0 0 0 0 0 325 0 319 318 328 321 0 0 0 0 0 0 0 0 0 0 0 324 318 317 307 301 309 314 314 318 317 0 319 0 0 0 0 0 0 0 0 0 0 0 340 0 0 0 0 0 0 0 0 0 0 0 0 7359 0 0 0 0 0 0 0 0 0 0 0 0 0 0 342 0 0 0 0 0 0 0 0 0 0 0 0
    0 0 0 0 0 0 0 0 0 0 0 0 0 0 0 0 0 0 0 0 0 0 0 0 0 0 0 0 0 0 0 0 0 0 0 0 0 0 0 0 0 0 0 0 0 0 0 0 0 0 0 0 0 0 0 0 0 0 0 0 0 0 0 0 0 0 0 0 0 330 327 328 328 333 333 331 331 334 334 337 334 333 333 334 334 336 333 328 322 322 319 321 322 325 325 325 325 327 327 331 331 333 328 325 331 333 331 331 333 333 333 334 333 328 327 0 0 0 0 0 0 0 0 0 0 0 0 0 0 0 0 0 0 0 334 331 327 327 324 0 0 321 324 322 324 325 322 318 324 327 330 327 327 328 330 330 337 336 334 333 337 333 333 331 330 328 328 325 327 322 324 324 325 325 322 319 321 317 314 315 317 317 0 0 0 0 0 0 0 0 0 0 0 0 319 324 324 322 321 319 322 322 322 324 315 321 328 324 325 327 325 327 325 331 325 322 325 318 319 0 0 0 0 375 0 0 305 309 307 307 0 313 0 315 317 321 321 324 325 325 319 321 0 325 322 0 0 0 0 0 319 321 321 321 321 318 319 318 317 311 309 310 315 315 318 318 319 319 322 324 327 325 0 0 330 0 0 0 0 0 0 0 0 0 0 0 0 0 0 0 6133 0 6690 3873 0 0 0 0 0 0 0 0 0 0 0 0 0 0 0 0 0 0 0 0 0 0 0 0 0 0
    0 0 0 0 0 0 0 0 0 0 0 0 0 0 0 0 0 0 0 0 0 0 0 0 0 0 0 0 0 0 0 0 0 0 0 0 0 0 0 0 0 0 0 0 0 0 0 0 0 0 0 0 0 0 0 0 0 0 0 0 0 0 0 0 0 0 0 0 0 328 325 328 328 333 333 331 333 334 334 339 336 334 333 334 333 334 331 325 322 322 321 322 324 325 325 325 325 327 327 331 333 334 330 327 333 333 331 333 331 333 331 333 330 327 325 325 0 0 0 0 0 0 0 0 0 0 0 0 0 0 0 0 0 333 334 330 327 325 324 0 321 319 322 321 322 324 321 318 324 327 330 327 328 328 328 328 336 333 331 330 334 331 331 331 330 328 330 325 327 324 325 324 325 324 324 319 321 317 315 317 318 318 318 318 319 321 321 321 0 0 0 0 322 322 321 324 325 322 322 321 322 324 322 324 317 319 324 321 322 324 322 324 322 328 324 322 325 319 321 0 0 0 0 0 0 0 0 313 311 310 311 315 0 317 318 321 321 324 325 324 321 321 321 325 322 0 0 0 0 0 319 321 321 321 321 319 319 318 318 313 313 313 315 315 318 318 318 318 321 322 322 322 322 321 322 324 322 321 321 325 322 322 0 0 0 0 0 0 0 0 0 0 0 0 0 0 0 0 0 0 0 0 0 0 0 0 337 334 333 324 321 0 314 0 0 0 0 0 0 0
    0 0 0 0 0 0 0 0 0 0 0 0 0 0 0 0 0 0 0 0 0 0 0 0 0 0 0 0 0 0 0 0 0 0 0 0 0 0 0 0 0 0 0 0 0 0 0 0 0 0 0 0 0 0 0 0 0 0 0 0 0 0 0 0 0 0 0 0 0 328 325 327 327 331 331 330 331 333 334 337 334 334 333 333 333 333 331 325 322 322 321 322 324 325 325 325 327 328 328 331 333 334 330 328 331 331 330 331 328 330 328 330 328 325 324 324 0 0 0 0 0 0 0 0 0 0 0 0 0 0 0 0 0 331 334 328 325 325 322 319 321 319 321 319 321 322 321 318 322 325 328 327 328 328 327 328 334 331 330 328 333 330 330 331 330 327 330 325 327 324 324 322 324 324 322 319 321 318 317 318 318 318 319 319 319 321 321 321 319 0 322 322 322 322 322 324 325 324 324 322 322 324 322 324 318 321 322 321 322 324 322 322 322 327 322 322 324 319 322 325 328 330 325 322 318 314 0 314 313 313 313 315 0 317 317 321 321 322 324 322 321 321 321 325 322 322 319 318 0 319 321 322 321 321 321 319 319 318 318 315 315 314 317 315 318 318 318 318 319 321 321 321 321 321 322 322 321 319 321 325 324 322 325 328 327 327 0 0 0 0 0 0 0 0 0 0 0 0 0 0 0 0 0 0 0 0 336 328 330 322 319 317 314 315 311 0 0 0 0 0
    0 0 0 0 0 0 0 0 0 0 0 0 0 0 0 0 0 0 0 0 0 0 0 0 0 0 0 0 0 0 0 0 0 0 0 0 0 0 0 0 0 0 0 0 0 0 0 0 0 0 0 0 0 0 0 0 0 0 0 0 0 0 0 0 0 0 0 0 0 328 325 327 325 328 328 327 328 331 333 334 333 333 331 331 331 331 330 324 321 322 321 322 324 325 325 325 327 328 328 331 333 333 330 328 331 330 330 331 328 331 327 330 327 324 324 324 0 0 0 0 0 0 0 0 0 0 0 0 0 0 0 0 334 333 333 330 325 324 321 319 319 318 321 318 319 321 319 318 321 325 327 325 327 328 327 327 333 331 328 328 331 330 330 330 328 325 330 324 325 322 324 322 324 324 322 319 321 318 318 318 319 319 319 319 319 319 321 321 319 0 322 322 322 322 322 324 325 324 324 322 322 324 324 324 318 321 322 321 321 322 322 322 322 327 322 322 324 321 322 322 322 322 319 319 315 314 315 314 314 313 313 315 315 317 317 321 319 321 322 322 321 322 321 325 322 322 321 319 0 321 321 321 321 321 321 319 319 318 318 317 317 315 317 315 318 318 318 318 319 321 321 321 322 322 322 324 322 319 321 325 324 324 327 328 327 325 322 324 324 321 0 0 0 0 0 0 0 0 0 0 0 0 0 0 0 336 333 324 322 319 318 317 315 314 311 0 0 0 0 0
    0 0 0 0 0 0 0 0 0 0 0 0 0 0 0 0 0 0 0 0 0 0 0 0 0 0 0 0 0 0 0 0 0 0 0 0 0 0 0 0 0 0 0 0 0 0 0 0 0 0 0 0 0 0 0 0 0 0 0 0 0 0 0 0 0 0 0 0 0 330 327 327 325 325 327 324 327 328 331 331 330 331 331 331 331 330 327 322 321 322 321 322 324 325 325 327 327 328 327 331 331 333 330 328 331 330 330 331 328 330 325 328 325 324 324 322 321 322 0 322 0 0 0 0 0 0 0 319 319 321 327 328 330 330 331 330 324 324 321 319 319 318 319 318 318 321 319 318 321 324 327 325 327 328 325 325 331 331 328 327 330 328 328 330 327 324 328 322 325 322 324 322 322 324 324 319 322 319 319 319 321 321 321 321 321 319 321 322 321 322 322 322 322 322 322 324 324 322 322 322 322 324 324 324 318 321 321 321 322 322 322 322 322 327 322 324 322 319 321 319 319 318 317 317 314 313 315 314 314 314 314 315 315 317 318 321 319 321 322 322 322 322 321 324 321 322 321 319 321 319 319 321 321 319 321 319 319 318 318 317 317 314 317 315 318 318 318 318 319 321 321 321 322 322 322 324 322 319 321 325 325 324 327 328 327 325 324 324 324 321 321 318 318 0 0 319 0 0 318 317 0 0 321 322 325 327 324 321 321 318 317 317 315 313 310 0 0 0 0 0
    0 0 0 0 0 0 0 0 0 0 0 0 0 0 0 0 0 0 0 0 0 0 0 0 0 0 0 0 0 0 0 0 0 0 0 0 0 0 0 0 0 0 0 0 0 0 0 0 0 0 0 0 0 0 0 0 0 0 0 0 0 0 0 0 0 0 0 0 0 330 325 324 324 322 324 322 324 325 331 330 330 331 331 331 331 331 328 322 321 322 321 322 324 325 325 327 327 328 328 331 331 333 331 330 331 328 330 331 328 330 324 327 324 322 324 321 321 322 321 322 322 322 319 319 321 321 319 319 321 321 327 330 330 328 328 328 324 322 321 319 319 318 319 319 319 321 321 318 319 324 325 325 325 327 324 324 330 330 325 324 327 325 327 327 325 324 327 322 324 322 322 322 322 324 322 319 322 319 321 321 321 322 321 322 321 321 322 322 322 322 322 322 322 322 322 322 322 322 322 322 321 324 324 324 319 321 322 321 322 322 322 322 322 327 322 324 322 319 321 318 318 317 317 317 315 314 315 314 315 314 314 315 315 317 317 319 319 319 321 321 322 322 321 322 321 322 321 319 321 319 319 321 321 321 321 319 319 318 318 317 315 314 317 315 318 318 318 318 319 321 322 322 322 322 322 324 322 321 321 324 325 325 327 327 325 325 324 324 322 321 321 318 318 318 319 321 319 319 319 318 322 324 322 321 321 322 322 322 321 318 317 315 315 313 310 0 0 0 0 0</data></depth>
</opencv_storage>
