<?xml version="1.0"?>
<opencv_storage>
<gps_time_stamp>17793</gps_time_stamp>
<gps_x>-1.9860362634062767e-002</gps_x>
<gps_y>6.5576545894145966e-002</gps_y>
<gps_z>-1.5886677429080009e-002</gps_z>
<image_time_stamp>5765</image_time_stamp>
<depth type_id="opencv-matrix">
  <rows>89</rows>
  <cols>320</cols>
  <dt>s</dt>
  <data>
    0 0 0 0 0 0 0 0 0 0 0 0 0 0 0 0 0 0 0 0 0 0 0 0 0 0 0 0 0 0 0 0 0 0 0 0 0 0 0 0 0 0 0 0 0 0 0 0 0 0 0 0 0 0 0 0 0 0 0 0 0 0 0 0 0 0 0 0 0 645 657 669 675 675 663 657 645 663 651 657 657 657 663 669 663 675 645 675 663 669 663 669 663 669 657 681 645 645 639 634 639 651 639 645 629 657 639 657 657 651 657 657 663 675 663 681 675 0 0 687 694 694 694 700 694 687 681 669 669 639 634 629 623 645 651 639 651 645 0 651 645 663 645 639 651 639 639 645 639 663 657 657 657 657 651 663 663 669 639 651 651 657 657 651 651 651 657 657 651 657 657 651 663 657 651 634 657 669 663 657 675 687 707 714 707 694 700 694 681 675 681 675 681 675 681 669 663 669 675 663 645 634 639 645 651 651 657 651 657 663 663 663 675 681 687 669 675 669 669 687 675 681 669 669 675 681 687 687 681 687 681 687 687 687 675 681 657 663 669 669 663 657 663 663 645 663 634 618 613 608 608 603 603 598 623 657 645 663 669 663 657 663 669 669 663 675 669 663 669 669 663 645 651 645 634 634 634 634 639 634 645 639 629 651 645 639 639 634 634 629 634 639 623 608 598 557 545 545 541 537 537 529 529 529 525 529 525 525 529 518 521 497 481 481 477 0 0 0 0 0
    0 0 0 0 0 0 0 0 0 0 0 0 0 0 0 0 0 0 0 0 0 0 0 0 0 0 0 0 0 0 0 0 0 0 0 0 0 0 0 0 0 0 0 0 0 0 0 0 0 0 0 0 0 0 0 0 0 0 0 0 0 0 0 0 0 0 0 0 0 639 651 669 675 675 669 657 645 669 651 657 657 663 663 663 663 675 645 675 663 669 663 663 663 669 663 681 645 645 639 634 645 651 639 645 629 663 645 657 657 657 663 663 663 675 657 681 675 681 687 681 694 687 694 700 687 687 681 675 675 645 634 634 623 651 657 645 651 651 651 657 645 663 645 639 651 639 639 645 639 663 663 663 657 657 657 663 663 669 639 651 651 657 657 657 651 657 657 657 657 657 657 651 657 651 645 634 651 651 651 651 663 675 687 694 694 681 694 687 675 669 669 669 675 675 675 663 657 663 675 657 645 634 639 645 651 651 657 645 651 651 663 663 669 675 675 657 669 663 663 675 669 675 663 663 675 675 675 675 669 675 663 675 675 675 663 669 645 657 663 663 663 657 663 657 639 651 623 608 603 598 598 593 593 598 618 651 645 663 669 669 663 669 669 669 663 675 663 663 663 669 657 645 657 645 639 634 634 634 634 634 639 629 623 645 639 639 634 629 629 623 634 639 618 603 593 553 545 545 541 537 537 529 529 529 529 533 529 529 533 521 521 493 481 481 477 0 0 0 0 0
    0 0 0 0 0 0 0 0 0 0 0 0 0 0 0 0 0 0 0 0 0 0 0 0 0 0 0 0 0 0 0 0 0 0 0 0 0 0 0 0 0 0 0 0 0 0 0 0 0 0 0 0 0 0 0 0 0 0 0 0 0 0 0 0 0 0 0 0 0 634 651 663 675 675 675 663 651 669 657 663 663 663 669 669 669 675 651 675 663 669 663 669 663 669 663 681 651 645 645 634 645 651 634 645 629 663 645 657 657 657 663 663 663 669 657 675 669 675 681 681 687 687 694 694 681 681 675 669 663 639 634 634 623 651 657 645 657 657 651 663 651 669 645 639 657 645 639 645 645 663 663 663 663 663 657 669 669 675 645 657 657 657 663 657 651 657 657 663 657 657 663 651 663 657 651 639 651 651 657 657 663 675 681 681 687 681 694 687 669 663 669 669 675 669 675 657 651 657 669 651 639 634 639 639 651 651 657 651 651 651 663 663 663 663 669 645 663 657 663 669 663 669 657 663 669 663 669 669 651 657 639 657 663 663 651 663 639 657 663 663 663 663 663 651 639 651 623 608 598 598 593 593 593 598 608 634 639 663 669 663 663 669 669 663 663 663 651 651 651 657 645 645 657 645 657 639 634 634 634 629 623 613 613 634 634 634 629 629 623 623 629 634 613 598 584 557 545 549 541 541 537 533 533 529 529 533 529 533 529 518 521 493 0 481 477 0 0 0 0 0
    0 0 0 0 0 0 0 0 0 0 0 0 0 0 0 0 0 0 0 0 0 0 0 0 0 0 0 0 0 0 0 0 0 0 0 0 0 0 0 0 0 0 0 0 0 0 0 0 0 0 0 0 0 0 0 0 0 0 0 0 0 0 0 0 0 0 0 0 0 634 645 657 663 669 675 657 651 669 657 663 663 669 669 669 675 675 651 675 663 663 663 663 663 663 663 681 645 645 645 639 645 645 634 645 629 663 651 663 663 657 663 663 663 669 657 675 669 675 681 681 687 681 694 694 681 681 669 657 645 634 629 629 623 657 663 645 657 663 657 669 657 675 651 645 663 645 639 645 645 663 663 663 663 663 663 669 669 675 651 657 657 657 663 651 651 657 657 657 657 663 663 657 669 669 663 657 663 657 663 663 669 675 681 681 687 681 694 694 663 657 669 669 669 669 669 651 645 657 663 645 634 629 639 639 645 651 657 645 651 651 669 663 663 657 663 645 663 657 657 669 663 675 663 663 669 663 663 669 645 651 634 645 651 651 651 657 634 651 663 663 663 663 663 651 639 651 623 608 598 598 593 593 598 598 603 618 634 657 657 663 663 669 669 657 657 645 639 645 645 645 634 634 639 639 651 634 634 634 629 629 623 613 608 623 623 623 623 618 618 613 623 623 608 584 579 557 549 549 545 545 541 537 537 533 529 533 529 533 529 514 518 493 0 0 481 0 0 0 0 0
    0 0 0 0 0 0 0 0 0 0 0 0 0 0 0 0 0 0 0 0 0 0 0 0 0 0 0 0 0 0 0 0 0 0 0 0 0 0 0 0 0 0 0 0 0 0 0 0 0 0 0 0 0 0 0 0 0 0 0 0 0 0 0 0 0 0 0 0 0 634 645 657 663 669 669 651 651 669 663 669 663 669 669 669 669 675 645 675 657 663 663 663 663 663 663 675 639 639 645 634 645 645 639 645 634 669 657 663 663 657 663 663 663 675 657 675 669 675 687 681 694 681 694 687 681 675 669 651 639 629 623 629 623 657 663 651 663 663 663 669 663 681 657 651 669 657 645 651 645 669 663 663 663 669 663 675 675 681 663 669 657 663 663 657 657 657 657 663 657 663 663 663 669 669 663 657 663 657 669 663 663 669 669 675 681 669 694 687 657 651 669 669 669 669 669 657 651 657 669 645 634 629 639 639 645 645 651 645 645 651 669 669 663 657 663 651 663 657 657 669 663 675 663 669 669 663 669 669 645 651 629 645 645 651 651 651 634 645 657 663 657 657 657 645 634 639 623 603 598 598 598 598 598 598 603 613 634 657 663 663 663 669 663 651 651 634 634 634 634 634 629 629 634 634 651 634 634 629 629 629 623 613 608 618 623 618 613 613 608 603 613 608 593 570 570 557 549 553 545 545 545 537 537 533 529 533 533 533 529 511 514 490 0 0 477 0 0 0 0 0
    0 0 0 0 0 0 0 0 0 0 0 0 0 0 0 0 0 0 0 0 0 0 0 0 0 0 0 0 0 0 0 0 0 0 0 0 0 0 0 0 0 0 0 0 0 0 0 0 0 0 0 0 0 0 0 0 0 0 0 0 0 0 0 0 0 0 0 0 0 623 0 645 0 663 663 645 645 669 663 669 663 663 663 663 669 669 645 669 651 657 663 663 663 663 657 669 629 634 634 629 645 645 639 651 634 669 663 663 663 657 663 663 663 675 663 675 675 675 687 681 694 681 694 681 681 675 675 657 639 629 634 634 623 663 669 651 663 669 663 669 663 681 657 651 0 669 657 657 657 675 669 675 675 675 675 681 681 687 675 675 663 669 669 657 657 657 657 663 663 663 663 657 663 663 657 657 663 657 669 663 663 669 669 669 675 669 687 681 651 645 663 663 669 669 663 651 645 663 669 651 639 629 639 639 645 651 651 645 645 651 669 669 669 657 657 651 663 657 657 669 663 669 663 669 669 663 669 669 645 639 623 645 639 651 651 651 634 639 657 663 657 657 657 639 629 634 618 603 593 593 593 598 598 598 603 608 639 663 669 669 657 663 657 639 639 623 623 629 623 629 623 623 629 629 657 634 639 639 634 645 645 623 613 613 618 613 608 603 598 593 603 603 593 566 570 561 553 557 545 549 545 541 541 533 529 533 533 533 529 507 511 490 484 481 477 0 0 0 0 0
    0 0 0 0 0 0 0 0 0 0 0 0 0 0 0 0 0 0 0 0 0 0 0 0 0 0 0 0 0 0 0 0 0 0 0 0 0 0 0 0 0 0 0 0 0 0 0 0 0 0 0 0 0 0 0 0 0 0 0 0 0 0 0 0 0 0 0 0 0 608 618 629 629 645 651 634 639 663 657 663 663 663 663 657 663 663 639 669 651 657 663 663 663 657 657 669 629 634 634 629 645 651 645 657 639 669 663 663 669 663 663 663 669 675 663 675 675 675 687 681 694 687 694 0 0 675 675 663 639 634 639 634 623 663 669 651 663 669 663 675 669 681 663 651 0 0 669 657 657 675 675 675 675 681 681 681 687 694 681 681 669 669 669 657 651 657 657 663 663 663 657 651 663 663 651 651 657 651 663 663 663 669 663 663 669 669 694 681 645 639 663 669 669 669 663 645 645 663 675 651 645 634 639 645 651 651 651 645 645 651 663 669 663 657 657 651 663 657 651 663 657 663 663 663 669 657 669 675 651 639 623 657 651 663 657 663 634 639 663 669 657 651 645 634 629 623 618 598 588 593 593 598 598 598 603 603 613 634 629 634 629 639 639 629 629 618 618 623 618 623 618 623 629 629 657 639 645 645 639 657 651 639 623 623 629 613 608 603 593 593 598 598 588 566 570 570 561 566 549 549 545 541 541 533 529 533 529 533 525 500 507 490 490 487 481 0 0 0 0 0
    0 0 0 0 0 0 0 0 0 0 0 0 0 0 0 0 0 0 0 0 0 0 0 0 0 0 0 0 0 0 0 0 0 0 0 0 0 0 0 0 0 0 0 0 0 0 0 0 0 0 0 0 0 0 0 0 0 0 0 0 0 0 0 0 0 0 0 0 0 588 593 603 623 634 634 623 634 657 657 663 663 663 663 657 669 657 645 669 651 657 663 663 663 663 663 669 634 639 639 634 657 663 657 663 639 675 669 669 669 663 669 663 669 681 669 675 681 675 681 0 694 681 687 675 0 0 669 657 639 634 639 634 623 669 675 657 663 669 669 675 669 687 669 663 0 0 694 669 663 681 675 681 681 681 681 687 694 694 687 687 669 669 669 657 651 657 657 663 663 669 657 651 657 669 651 657 657 645 657 663 663 663 657 663 669 669 694 681 645 639 663 669 669 669 663 645 645 669 675 657 651 634 639 651 651 657 651 645 645 645 663 663 663 663 651 645 657 651 651 657 651 657 651 657 663 645 669 675 645 639 623 657 663 669 663 669 639 639 663 663 651 645 645 634 629 629 623 603 598 598 598 598 598 603 598 598 603 608 603 603 603 603 608 608 613 608 613 618 613 618 613 618 623 618 645 629 629 629 629 645 639 639 634 639 634 618 613 608 598 593 598 598 588 570 570 566 557 557 545 545 545 537 537 533 529 533 533 533 529 507 514 493 487 487 481 0 0 0 0 0
    0 0 0 0 0 0 0 0 0 0 0 0 0 0 0 0 0 0 0 0 0 0 0 0 0 0 0 0 0 0 0 0 0 0 0 0 0 0 0 0 0 0 0 0 0 0 0 0 0 0 0 0 0 0 0 0 0 0 0 0 0 0 0 0 0 0 0 0 0 588 588 588 603 613 613 613 629 657 657 663 657 657 657 651 663 651 639 669 651 657 663 663 669 663 663 663 629 629 634 629 645 645 645 651 634 663 669 669 669 663 669 669 669 681 669 0 675 675 675 0 0 0 0 0 0 0 0 0 639 645 645 629 623 663 675 651 657 663 663 675 669 687 675 669 0 714 700 675 675 681 681 681 681 687 687 687 694 700 694 694 675 675 675 663 651 657 651 657 657 663 645 639 645 657 645 657 663 639 651 663 657 657 645 657 663 663 694 681 639 0 663 669 669 669 657 645 645 669 681 663 657 639 645 657 657 657 657 651 651 651 663 663 663 657 651 645 657 651 645 651 645 645 645 645 651 634 645 663 629 629 623 651 663 669 669 669 639 634 663 663 651 639 639 629 629 629 629 608 603 603 603 603 608 608 603 603 603 603 598 598 598 588 588 593 598 588 603 613 608 608 608 613 618 613 639 618 608 613 608 623 629 629 623 629 629 623 618 608 603 598 598 593 584 570 566 561 549 549 541 541 541 537 537 533 533 537 537 537 533 514 518 497 487 484 481 0 0 0 0 0
    0 0 0 0 0 0 0 0 0 0 0 0 0 0 0 0 0 0 0 0 0 0 0 0 0 0 0 0 0 0 0 0 0 0 0 0 0 0 0 0 0 0 0 0 0 0 0 0 0 0 0 0 0 0 0 0 0 0 0 0 0 0 0 0 0 0 0 0 0 588 579 584 588 579 593 579 608 639 645 657 651 645 645 645 663 645 639 663 645 651 663 663 657 651 645 645 618 618 613 613 618 623 618 629 618 645 657 657 663 663 663 657 663 681 657 0 0 0 0 0 0 0 0 0 0 0 0 0 0 0 0 603 608 639 657 634 639 645 651 669 669 687 675 681 0 0 700 675 687 687 687 687 687 694 0 0 0 714 707 707 681 681 669 657 645 645 639 639 639 645 629 623 623 629 629 645 651 645 657 669 657 663 645 657 663 675 0 0 0 93 0 0 0 669 657 639 645 669 675 663 657 639 639 651 657 657 651 651 651 651 663 663 663 651 645 645 651 645 645 651 645 645 645 645 645 629 634 651 623 623 623 657 669 675 669 681 651 634 663 663 651 639 639 629 629 629 629 608 608 608 608 608 613 613 603 603 603 598 593 593 593 579 574 579 579 574 0 613 603 608 608 608 613 608 623 608 598 603 598 603 608 613 613 608 618 623 618 613 608 598 593 588 574 561 557 553 549 549 541 541 541 537 537 537 537 541 541 541 537 521 521 500 493 484 481 0 0 0 0 0
    0 0 0 0 0 0 0 0 0 0 0 0 0 0 0 0 0 0 0 0 0 0 0 0 0 0 0 0 0 0 0 0 0 0 0 0 0 0 0 0 0 0 0 0 0 0 0 0 0 0 0 0 0 0 0 0 0 0 0 0 0 0 0 0 0 0 0 0 0 584 574 579 574 561 574 557 557 613 623 634 629 629 634 634 657 634 629 645 629 639 651 645 634 629 618 618 603 598 593 593 598 603 603 608 603 618 634 634 639 645 645 645 651 675 639 0 645 645 634 0 0 0 0 0 0 0 0 0 0 0 0 579 598 613 629 618 0 0 0 0 657 0 675 0 0 0 0 0 681 687 681 687 687 694 0 0 0 0 0 707 669 669 651 639 634 629 623 629 623 629 618 613 618 618 618 639 645 645 651 663 651 663 639 639 0 0 0 0 93 93 93 0 0 0 645 629 634 651 651 629 639 623 629 634 645 651 639 645 645 645 651 657 657 639 634 639 651 639 639 639 639 634 639 639 639 618 618 618 603 0 618 645 657 663 663 681 651 634 657 657 645 634 634 623 629 629 634 613 613 613 613 613 629 618 603 603 603 598 588 584 584 570 566 574 574 561 579 613 598 603 608 603 603 598 613 593 588 588 584 593 593 598 603 598 618 618 618 618 608 598 588 584 574 561 557 553 549 549 541 541 541 537 537 537 537 537 537 537 537 521 518 500 497 487 481 0 0 0 0 0
    0 0 0 0 0 0 0 0 0 0 0 0 0 0 0 0 0 0 0 0 0 0 0 0 0 0 0 0 0 0 0 0 0 0 0 0 0 0 0 0 0 0 0 0 0 0 0 0 0 0 0 0 0 0 0 0 0 0 0 0 0 0 0 0 0 0 0 0 0 584 579 584 574 557 566 553 545 579 566 608 608 603 0 0 634 0 0 0 0 623 634 623 613 598 593 593 588 570 574 579 579 588 588 593 588 598 613 613 618 623 629 623 629 651 629 613 629 0 0 0 0 0 0 0 0 0 0 0 0 0 0 566 588 588 608 603 603 0 0 0 0 0 0 0 0 0 618 0 623 634 634 0 0 0 0 0 0 0 0 0 0 651 634 618 618 613 613 613 608 613 603 603 608 603 603 0 608 613 608 613 608 613 608 608 603 0 0 0 93 93 0 0 0 629 623 608 608 618 613 603 618 608 613 618 634 634 629 634 634 634 634 634 634 623 618 623 629 623 623 623 618 613 613 618 613 598 593 588 561 579 588 618 623 634 634 645 629 623 639 634 629 618 618 618 618 618 623 608 608 608 613 613 623 608 598 598 598 593 584 579 579 570 570 574 570 561 574 603 593 593 593 593 593 588 598 574 579 574 574 584 584 593 593 588 608 608 618 613 603 598 588 584 574 566 561 553 549 549 541 537 537 533 537 533 533 537 537 533 537 521 525 507 500 490 484 0 0 0 0 0
    0 0 0 0 0 0 0 0 0 0 0 0 0 0 0 0 0 0 0 0 0 0 0 0 0 0 0 0 0 0 0 0 0 0 0 0 0 0 0 0 0 0 0 0 0 0 0 0 0 0 0 0 0 0 0 0 0 0 0 0 0 0 0 0 0 0 0 0 0 579 574 579 566 553 561 549 541 553 541 553 570 566 584 0 0 0 0 0 0 603 618 0 0 566 561 566 566 557 561 570 570 579 579 584 579 584 598 603 603 608 613 613 608 623 613 593 0 0 0 0 0 0 0 0 0 0 0 101 0 99 0 0 579 570 588 588 588 588 588 588 0 0 0 0 0 0 0 0 0 603 603 598 0 0 0 0 0 0 0 0 0 623 618 593 598 598 593 598 593 598 593 588 593 579 574 584 584 579 584 584 584 588 593 598 593 0 0 0 0 0 0 588 0 0 603 579 588 598 598 593 603 598 603 0 0 0 0 0 623 618 613 603 613 608 603 603 613 603 598 603 598 593 593 593 593 584 574 570 557 566 561 579 593 603 0 0 0 0 0 618 613 603 608 608 608 608 608 598 603 603 608 603 608 603 593 593 593 584 574 570 570 566 570 570 561 561 566 579 584 579 579 579 579 574 584 561 570 566 570 574 574 584 584 584 603 603 613 608 598 588 579 579 574 566 557 549 545 545 541 533 537 533 533 533 533 537 537 537 537 525 529 511 504 493 484 0 0 0 0 0
    0 0 0 0 0 0 0 0 0 0 0 0 0 0 0 0 0 0 0 0 0 0 0 0 0 0 0 0 0 0 0 0 0 0 0 0 0 0 0 0 0 0 0 0 0 0 0 0 0 0 0 0 0 0 0 0 0 0 0 0 0 0 0 0 0 0 0 0 0 579 574 579 570 557 557 553 541 545 537 541 549 549 561 561 0 0 0 0 0 593 0 0 0 553 553 553 557 553 557 566 561 574 570 574 574 574 588 588 588 593 598 598 588 593 0 570 557 570 566 0 0 0 0 0 0 0 0 0 0 0 0 553 574 566 574 574 570 570 570 570 584 0 0 0 0 0 0 0 566 584 584 584 584 588 0 0 0 0 0 593 574 0 574 557 579 579 574 579 579 588 584 584 588 566 561 574 574 570 574 579 574 584 588 593 588 584 0 0 0 0 570 557 0 0 574 553 566 579 579 579 593 593 593 584 0 0 0 0 603 593 584 584 593 588 588 584 588 588 584 588 579 579 579 584 579 574 566 561 553 561 557 557 566 574 0 0 0 0 0 0 598 584 593 593 593 598 603 593 593 593 598 598 598 593 584 588 584 574 570 566 566 566 570 566 557 561 557 549 570 570 561 566 566 566 574 557 566 561 566 570 570 579 574 574 593 593 603 598 588 584 574 579 574 574 553 545 537 537 537 529 533 529 533 533 533 537 537 537 537 529 533 518 507 493 484 0 0 0 0 0
    0 0 0 0 0 0 0 0 0 0 0 0 0 0 0 0 0 0 0 0 0 0 0 0 0 0 0 0 0 0 0 0 0 0 0 0 0 0 0 0 0 0 0 0 0 0 0 0 0 0 0 0 0 0 0 0 0 0 0 0 0 0 0 0 0 0 0 0 0 579 579 584 579 566 561 553 545 541 533 537 537 537 537 533 0 0 0 0 0 579 0 0 0 549 549 553 553 549 553 561 561 570 570 574 570 570 579 579 574 584 579 579 566 566 0 557 549 557 557 557 0 0 0 561 566 566 553 0 561 0 579 553 574 566 570 570 566 561 566 561 574 549 553 553 553 553 561 561 561 579 574 574 570 579 588 588 588 584 579 588 574 0 566 553 574 574 570 574 574 584 579 579 588 566 557 570 570 570 570 574 574 584 584 593 588 579 584 566 549 553 557 553 0 0 561 549 561 566 566 566 574 579 584 566 584 557 566 574 566 561 557 566 579 574 579 570 570 579 570 579 570 570 570 570 574 570 561 561 557 561 557 553 557 561 561 0 0 0 561 574 579 566 574 579 584 588 593 584 588 593 598 593 593 584 579 584 579 570 566 566 566 566 570 566 557 561 549 537 561 557 553 561 561 566 570 557 566 561 561 570 570 579 574 574 593 588 603 598 588 579 566 570 570 566 553 545 537 537 533 529 533 529 529 529 533 533 533 537 537 529 533 514 504 493 484 0 0 0 0 0
    0 0 0 0 0 0 0 0 0 0 0 0 0 0 0 0 0 0 0 0 0 0 0 0 0 0 0 0 0 0 0 0 0 0 0 0 0 0 0 0 0 0 0 0 0 0 0 0 0 0 0 0 0 0 0 0 0 0 0 0 0 0 0 0 0 0 0 0 0 584 584 588 584 574 566 557 545 541 533 533 537 537 533 529 0 0 0 0 0 0 0 0 541 549 549 549 553 549 553 561 561 566 566 570 566 566 579 579 570 579 570 570 561 566 0 553 0 557 557 557 0 0 0 561 566 570 553 553 561 566 579 553 574 566 566 570 566 561 566 561 574 549 553 557 557 553 561 561 561 574 566 570 566 574 584 584 584 579 574 588 570 588 566 553 574 574 566 570 574 579 579 579 588 561 557 570 570 570 570 574 574 584 584 593 588 579 574 557 545 553 557 553 0 0 557 549 557 561 557 557 566 566 570 557 570 553 557 566 557 557 553 566 570 570 574 566 561 574 561 574 561 561 561 566 570 570 561 561 557 561 557 553 561 561 561 557 570 557 557 561 566 561 570 570 570 579 584 579 579 588 593 584 584 574 574 579 570 570 566 566 566 566 574 566 561 566 553 541 561 566 561 566 566 570 570 557 566 561 561 566 566 570 566 570 584 570 584 579 570 566 561 561 561 557 553 545 537 533 533 529 533 529 533 529 533 537 537 537 537 529 529 511 500 487 484 0 0 0 0 0
    0 0 0 0 0 0 0 0 0 0 0 0 0 0 0 0 0 0 0 0 0 0 0 0 0 0 0 0 0 0 0 0 0 0 0 0 0 0 0 0 0 0 0 0 0 0 0 0 0 0 0 0 0 0 0 0 0 0 0 0 0 0 0 0 0 0 0 0 0 584 588 593 584 579 566 561 549 545 533 533 537 537 537 0 0 0 0 0 0 0 0 0 545 553 549 553 557 549 553 561 561 566 566 570 566 566 574 574 566 574 566 570 566 566 557 557 549 561 557 561 557 0 0 566 570 570 553 557 561 566 579 553 574 570 566 570 566 561 566 561 574 549 553 557 557 553 561 561 561 574 566 570 561 574 584 584 579 579 574 588 570 588 561 549 570 570 566 570 570 579 574 574 584 561 557 574 570 570 574 579 574 584 579 593 584 574 574 557 549 557 561 553 0 0 557 549 561 561 557 557 561 561 566 557 566 549 557 561 557 557 553 566 570 566 570 561 561 570 561 574 561 561 561 566 566 570 561 561 557 561 561 557 561 561 561 557 570 557 561 561 561 557 561 557 561 566 574 570 570 579 584 579 579 566 570 574 566 570 566 566 566 566 579 561 557 566 557 549 557 561 561 570 566 570 570 557 566 561 561 566 566 570 561 566 579 566 574 574 566 561 557 561 557 553 549 545 537 533 533 529 533 533 533 533 533 537 537 537 541 529 518 507 500 487 484 0 0 0 0 0
    0 0 0 0 0 0 0 0 0 0 0 0 0 0 0 0 0 0 0 0 0 0 0 0 0 0 0 0 0 0 0 0 0 0 0 0 0 0 0 0 0 0 0 0 0 0 0 0 0 0 0 0 0 0 0 0 0 0 0 0 0 0 0 0 0 0 0 0 0 584 584 593 584 584 561 566 553 549 537 541 541 541 0 0 588 618 618 0 0 574 0 557 549 553 553 553 557 549 553 561 557 566 561 566 561 561 574 570 561 570 566 566 566 566 553 557 549 561 557 561 561 557 561 570 570 574 557 561 561 561 570 553 574 566 566 566 566 561 566 561 574 549 553 557 557 549 561 561 561 570 566 570 566 574 584 579 579 579 570 584 570 584 561 549 570 570 561 566 570 574 570 574 584 561 553 574 574 570 574 579 574 584 579 588 584 574 574 557 549 561 561 553 553 549 557 549 561 561 553 557 557 557 561 557 566 549 557 561 557 557 553 566 566 566 570 566 561 570 561 574 561 561 561 566 566 570 561 561 557 561 561 553 561 557 557 557 570 557 557 557 561 553 557 553 557 561 570 566 566 574 579 574 574 561 570 566 561 566 561 561 561 561 588 557 561 566 557 553 557 561 561 566 561 566 570 553 566 561 561 566 566 566 557 561 574 557 570 566 557 553 549 553 553 549 545 541 541 533 537 537 537 533 533 533 533 533 537 537 537 525 504 500 500 484 484 0 0 0 0 0
    0 0 0 0 0 0 0 0 0 0 0 0 0 0 0 0 0 0 0 0 0 0 0 0 0 0 0 0 0 0 0 0 0 0 0 0 0 0 0 0 0 0 0 0 0 0 0 0 0 0 0 0 0 0 0 0 0 0 0 0 0 0 0 0 0 0 0 0 0 579 584 588 584 588 566 566 553 553 545 549 549 549 553 0 584 608 613 603 584 579 0 561 549 557 553 557 557 549 553 561 557 561 561 561 557 561 574 566 557 566 561 561 566 561 553 553 549 561 557 561 561 557 561 574 574 579 561 566 566 566 570 553 574 570 566 570 566 566 566 566 579 549 557 561 557 549 561 561 561 570 566 566 561 570 584 574 574 570 566 584 566 579 557 549 566 566 561 566 566 570 566 570 584 561 553 574 574 570 574 574 570 579 574 588 579 570 570 557 553 566 561 557 557 553 561 549 561 561 553 557 557 557 561 557 566 549 557 566 557 557 557 566 566 566 566 561 561 570 561 574 561 561 566 566 566 570 561 561 557 561 566 557 561 561 557 557 566 557 557 557 561 553 557 553 557 561 566 561 566 570 579 574 574 557 570 570 566 566 561 561 561 566 593 566 561 561 549 549 549 553 549 549 549 557 557 549 561 557 561 566 561 566 557 557 566 553 561 561 553 549 549 553 557 553 549 549 545 537 541 537 537 537 537 533 533 529 537 537 533 518 497 497 500 487 484 0 0 0 0 0
    0 0 0 0 0 0 0 0 0 0 0 0 0 0 0 0 0 0 0 0 0 0 0 0 0 0 0 0 0 0 0 0 0 0 0 0 0 0 0 0 0 0 0 0 0 0 0 0 0 0 0 0 0 0 0 0 0 0 0 0 0 0 0 0 0 0 0 0 0 574 579 588 584 593 566 574 553 553 549 553 553 557 557 584 584 608 613 603 584 584 566 566 553 557 553 557 557 549 553 561 557 561 561 561 557 561 574 561 557 561 557 561 561 561 549 553 549 557 557 561 561 561 566 579 579 584 557 566 570 570 570 553 574 570 566 570 570 566 566 566 574 553 561 566 561 549 561 561 566 566 561 561 561 566 579 570 566 566 566 579 566 574 557 553 566 566 561 566 566 566 566 570 579 557 553 570 570 566 574 574 570 579 574 584 579 566 570 557 553 566 561 557 557 553 557 549 561 561 553 557 557 557 561 557 566 553 557 566 561 557 557 566 566 566 566 566 557 570 561 574 561 561 561 566 566 570 561 566 557 566 566 557 561 561 561 557 570 561 557 557 561 553 557 553 557 557 561 561 561 566 570 566 570 553 570 566 566 566 566 561 561 566 598 566 557 553 541 541 541 545 545 545 545 549 553 549 561 557 557 561 561 561 553 553 557 549 557 557 553 549 545 549 553 549 545 549 549 541 541 541 541 537 537 533 533 529 537 533 529 507 493 490 490 484 481 0 0 0 0 0
    0 0 0 0 0 0 0 0 0 0 0 0 0 0 0 0 0 0 0 0 0 0 0 0 0 0 0 0 0 0 0 0 0 0 0 0 0 0 0 0 0 0 0 0 0 0 0 0 0 0 0 0 0 0 0 0 0 0 0 0 0 0 0 0 0 0 0 0 0 574 579 584 584 593 566 584 561 557 553 557 557 561 561 584 584 588 593 593 579 579 566 566 553 561 553 561 557 549 557 561 557 566 561 561 557 561 574 566 557 566 561 561 561 557 549 549 545 557 557 557 557 561 566 579 579 584 553 566 570 574 570 557 574 570 570 574 570 566 566 566 574 553 561 566 561 553 561 566 566 566 561 561 557 566 584 570 566 566 561 574 570 574 561 553 566 566 561 566 566 566 566 570 579 557 553 574 570 566 574 570 566 574 570 579 570 561 561 553 553 566 557 553 557 553 557 549 561 561 553 557 557 557 557 557 570 553 557 566 561 557 561 570 566 566 566 566 561 570 561 574 561 561 561 566 566 574 561 566 557 566 566 557 561 561 557 557 566 561 557 561 561 553 557 553 557 557 561 557 557 566 570 566 566 553 570 570 566 570 566 566 561 566 598 557 549 545 537 541 537 541 541 541 541 545 549 549 557 553 557 557 557 553 549 549 549 545 549 549 549 541 541 541 545 545 545 549 545 541 541 541 541 541 537 533 529 525 533 533 525 500 490 487 487 481 477 0 0 0 0 0
    0 0 0 0 0 0 0 0 0 0 0 0 0 0 0 0 0 0 0 0 0 0 0 0 0 0 0 0 0 0 0 0 0 0 0 0 0 0 0 0 0 0 0 0 0 0 0 0 0 0 0 0 0 0 0 0 0 0 0 0 0 0 0 0 0 0 0 0 0 574 579 584 584 593 570 584 570 557 557 557 561 566 566 579 579 579 579 584 574 570 561 561 553 557 553 561 557 549 557 561 557 566 561 566 557 561 579 566 557 561 557 557 557 553 0 549 545 553 553 553 0 0 0 0 579 579 553 566 570 574 566 557 574 570 570 574 570 566 566 566 570 553 561 566 557 553 561 566 566 566 566 561 561 566 584 570 566 566 561 574 570 570 561 553 570 566 561 566 566 566 566 570 579 561 557 579 570 566 574 570 566 574 570 574 566 561 561 553 553 566 557 553 557 553 561 553 561 561 553 557 557 557 557 557 570 553 557 566 561 557 561 570 566 570 566 566 561 570 561 570 561 561 561 566 566 574 561 566 557 566 566 557 561 561 557 557 566 561 557 561 561 553 553 553 557 557 561 557 557 566 570 566 570 553 570 570 570 574 570 566 561 561 598 549 545 537 533 533 529 533 537 537 537 541 545 545 553 549 553 545 549 541 541 541 541 541 545 545 545 537 537 537 541 541 541 549 545 537 541 541 541 541 537 533 529 525 533 525 511 493 487 484 484 481 477 0 0 0 0 0
    0 0 0 0 0 0 0 0 0 0 0 0 0 0 0 0 0 0 0 0 0 0 0 0 0 0 0 0 0 0 0 0 0 0 0 0 0 0 0 0 0 0 0 0 0 0 0 0 0 0 0 0 0 0 0 0 0 0 0 0 0 0 0 0 0 0 0 0 0 574 579 584 584 593 570 579 566 557 557 557 561 561 566 579 574 570 566 570 561 561 557 557 549 553 553 561 557 549 557 561 561 566 561 561 557 561 579 561 557 561 557 557 557 553 545 549 545 553 549 553 0 0 0 0 579 579 553 566 566 570 561 557 574 570 570 574 570 566 566 566 574 553 561 566 557 553 561 566 566 570 566 561 561 570 584 570 566 566 561 570 570 570 561 553 566 566 557 566 566 561 566 570 579 561 561 579 570 566 570 566 566 574 570 574 566 561 561 557 557 570 561 553 557 561 566 553 566 561 553 557 557 557 557 557 566 553 557 566 561 557 561 570 566 570 566 566 561 570 561 570 561 561 561 566 566 574 561 566 557 566 570 557 561 561 557 557 566 561 557 557 557 553 553 549 557 557 557 557 557 570 570 566 574 553 570 570 574 574 570 566 561 561 598 537 533 529 529 525 521 525 529 525 529 533 533 529 537 0 0 0 533 525 525 533 537 537 541 537 541 533 533 533 533 529 533 545 545 537 541 541 541 537 537 533 525 518 529 518 497 490 487 484 484 477 477 0 0 0 0 0
    0 0 0 0 0 0 0 0 0 0 0 0 0 0 0 0 0 0 0 0 0 0 0 0 0 0 0 0 0 0 0 0 0 0 0 0 0 0 0 0 0 0 0 0 0 0 0 0 0 0 0 0 0 0 0 0 0 0 0 0 0 0 0 0 0 0 0 0 0 570 570 579 574 588 561 0 557 557 557 557 566 566 570 574 570 566 557 561 557 557 553 553 549 553 553 561 557 549 557 561 557 561 561 561 553 561 574 561 557 557 557 557 557 557 545 549 545 549 549 549 553 0 0 0 0 579 553 566 566 570 561 557 574 570 570 579 574 574 570 570 579 553 561 561 553 549 561 566 566 566 566 561 561 570 584 566 561 566 557 566 570 566 561 553 566 561 557 566 566 561 561 566 579 561 561 579 570 561 570 566 566 570 570 570 566 561 566 561 561 574 561 557 561 566 574 553 566 566 557 561 561 557 557 557 570 553 557 566 561 557 566 570 566 570 561 570 561 570 566 570 561 561 561 570 566 570 561 566 557 566 570 557 561 561 557 557 566 561 553 557 561 553 553 549 557 557 557 557 557 566 570 566 574 549 570 570 574 574 570 566 557 557 593 537 529 525 525 525 521 525 525 521 525 525 525 521 525 529 0 529 529 518 514 525 537 537 537 533 533 529 529 529 533 525 525 537 541 533 545 541 541 537 537 533 529 518 529 511 497 490 487 484 484 477 477 0 0 0 0 0
    0 0 0 0 0 0 0 0 0 0 0 0 0 0 0 0 0 0 0 0 0 0 0 0 0 0 0 0 0 0 0 0 0 0 0 0 0 0 0 0 0 0 0 0 0 0 0 0 0 0 0 0 0 0 0 0 0 0 0 0 0 0 0 0 0 0 0 0 0 557 557 561 557 0 0 0 0 557 557 561 566 566 570 574 570 566 557 561 553 553 553 553 549 553 553 561 557 553 557 561 557 561 561 561 553 557 574 561 557 557 557 557 557 553 545 545 541 549 545 549 553 0 0 0 579 579 553 566 561 570 561 557 570 566 570 579 574 574 570 574 579 557 566 561 553 549 561 566 566 566 570 561 561 570 588 566 561 566 557 566 570 570 561 557 566 561 557 566 566 561 561 566 579 561 566 584 570 561 570 566 561 570 570 570 566 561 570 561 566 579 561 557 566 570 574 553 570 566 557 566 566 561 557 561 574 557 561 570 561 557 566 570 566 570 561 570 561 570 566 570 566 561 561 570 561 570 561 566 557 566 570 557 561 561 557 557 566 557 553 553 557 549 549 549 553 553 557 553 557 566 566 566 574 549 570 570 574 574 570 566 557 557 588 537 529 521 525 521 521 521 518 511 514 518 518 511 518 518 0 525 521 511 504 511 529 529 529 529 525 525 525 529 529 525 521 529 537 529 537 537 533 533 529 529 525 514 525 507 500 490 487 484 481 481 474 0 0 0 0 0
    0 0 0 0 0 0 0 0 0 0 0 0 0 0 0 0 0 0 0 0 0 0 0 0 0 0 0 0 0 0 0 0 0 0 0 0 0 0 0 0 0 0 0 0 0 0 0 0 0 0 0 0 0 0 0 0 0 0 0 0 0 0 0 0 0 0 0 0 0 549 545 549 545 0 0 0 0 0 0 561 570 570 570 574 570 566 557 561 553 553 553 553 549 549 553 557 553 553 557 561 557 561 561 561 553 561 574 561 553 557 553 553 553 549 0 545 537 545 545 545 549 549 0 0 574 574 0 561 561 570 561 557 570 566 574 579 574 574 570 574 579 557 570 566 553 553 561 566 561 566 570 561 561 574 584 561 557 570 561 566 574 570 566 557 566 561 557 566 566 561 566 566 579 566 570 584 574 561 566 561 561 570 570 566 566 561 570 566 566 574 561 557 561 570 574 553 570 570 561 566 570 566 561 561 579 557 561 570 561 557 566 570 566 570 561 570 561 570 566 570 566 561 561 566 561 574 561 566 557 566 570 561 561 561 557 557 566 557 553 549 553 549 545 545 553 553 553 553 553 561 566 566 574 549 570 574 574 570 566 561 553 553 579 537 525 518 518 518 518 518 511 504 504 507 511 511 514 507 0 525 521 507 504 500 518 521 518 518 507 518 521 525 529 525 525 529 533 533 541 537 533 533 529 525 525 514 514 500 493 490 487 484 481 481 474 0 0 0 0 0
    0 0 0 0 0 0 0 0 0 0 0 0 0 0 0 0 0 0 0 0 0 0 0 0 0 0 0 0 0 0 0 0 0 0 0 0 0 0 0 0 0 0 0 0 0 0 0 0 0 0 0 0 0 0 0 0 0 0 0 0 0 0 0 0 0 0 0 0 0 541 541 541 537 0 0 0 0 0 0 0 570 570 574 579 574 566 557 561 553 553 549 553 549 549 549 557 553 553 557 561 557 561 561 566 557 561 579 561 557 557 553 553 549 549 0 545 537 545 545 545 545 549 0 561 566 570 0 561 561 574 566 561 570 566 574 584 579 579 570 579 579 561 574 566 553 553 561 566 561 566 570 561 561 574 584 561 557 570 561 566 574 570 566 557 566 566 561 570 566 561 566 566 579 566 570 584 566 557 561 561 561 570 570 566 566 561 570 566 566 570 557 553 561 570 579 553 570 570 561 570 570 570 561 566 584 557 566 574 561 557 570 570 566 570 566 570 561 570 561 566 561 561 561 566 561 574 561 566 557 566 570 561 566 566 557 557 566 557 553 549 553 545 545 545 549 553 557 553 553 561 561 561 570 545 566 570 570 566 561 557 553 553 566 537 529 514 518 514 514 514 511 504 504 504 514 507 514 504 533 511 504 504 497 497 504 504 507 500 493 511 518 521 525 525 525 521 525 0 533 529 521 514 511 511 514 507 504 493 490 487 487 487 484 481 474 0 0 0 0 0
    0 0 0 0 0 0 0 0 0 0 0 0 0 0 0 0 0 0 0 0 0 0 0 0 0 0 0 0 0 0 0 0 0 0 0 0 0 0 0 0 0 0 0 0 0 0 0 0 0 0 0 0 0 0 0 0 0 0 0 0 0 0 0 0 0 0 0 0 0 541 537 537 529 525 0 0 0 0 0 0 574 574 579 579 574 561 553 561 553 549 549 549 549 549 549 557 553 553 557 561 557 566 566 566 557 566 574 566 557 557 553 553 549 549 0 545 537 545 545 0 0 0 0 0 0 561 0 557 557 574 561 561 570 561 574 584 579 579 574 579 0 0 579 566 553 553 566 566 561 566 570 561 566 579 588 566 561 579 566 570 584 574 570 561 570 566 561 570 566 561 566 566 579 566 574 584 561 553 561 561 566 570 570 566 566 561 570 566 566 566 557 549 561 574 579 553 574 574 566 574 574 570 566 566 584 557 566 574 557 557 570 570 570 570 566 570 561 570 566 566 561 561 557 566 557 570 561 566 557 566 570 566 566 566 561 561 566 557 553 549 553 545 541 541 549 553 557 553 553 561 561 561 570 545 566 566 570 566 561 557 553 549 566 537 529 518 521 518 518 518 514 507 507 511 521 518 529 521 584 0 0 0 518 504 500 500 500 500 493 514 518 518 521 518 518 518 518 521 518 511 504 497 500 500 507 500 500 493 490 487 487 487 484 484 477 0 0 0 0 0
    0 0 0 0 0 0 0 0 0 0 0 0 0 0 0 0 0 0 0 0 0 0 0 0 0 0 0 0 0 0 0 0 0 0 0 0 0 0 0 0 0 0 0 0 0 0 0 0 0 0 0 0 0 0 0 0 0 0 0 0 0 0 0 0 0 0 0 0 0 545 541 545 529 525 0 0 0 0 0 0 574 570 579 579 570 561 557 557 553 549 545 549 549 545 549 553 553 553 553 561 561 566 566 566 557 561 574 566 557 557 557 553 549 549 0 545 537 545 0 0 0 0 0 0 0 553 0 549 0 566 561 561 566 561 574 579 584 584 574 579 0 0 0 566 553 553 566 566 561 566 574 566 570 588 593 574 570 588 574 574 584 579 574 557 566 566 561 570 566 561 561 561 574 566 570 584 557 553 561 566 570 574 574 566 570 566 574 570 570 561 553 0 0 579 588 553 574 574 566 574 574 570 566 561 584 557 561 0 557 553 570 566 570 570 566 570 561 570 561 566 561 561 557 561 557 570 561 561 557 566 570 561 561 566 557 557 561 553 549 541 549 541 537 537 541 553 557 553 553 561 566 566 570 549 566 570 566 566 561 557 553 553 566 537 533 525 529 525 529 529 525 518 518 521 529 529 537 537 588 545 541 541 545 529 525 525 511 504 493 514 521 514 521 514 514 514 514 518 507 504 500 493 497 500 504 497 497 493 490 487 487 484 484 484 481 0 0 0 0 0
    0 0 0 0 0 0 0 0 0 0 0 0 0 0 0 0 0 0 0 0 0 0 0 0 0 0 0 0 0 0 0 0 0 0 0 0 0 0 0 0 0 0 0 0 0 0 0 0 0 0 0 0 0 0 0 0 0 0 0 0 0 0 0 0 0 0 0 0 0 0 545 545 533 525 0 0 0 0 0 0 0 574 579 574 566 557 549 553 549 0 545 545 545 545 545 549 549 553 549 561 557 561 566 561 553 557 566 561 553 553 553 553 553 553 545 549 541 545 541 0 0 0 0 0 0 0 0 549 0 0 561 557 566 561 574 579 584 588 584 0 0 0 0 566 549 553 566 561 557 566 579 570 0 0 593 579 0 593 574 574 584 579 579 557 566 561 557 566 566 557 557 557 574 561 570 584 561 553 561 570 579 579 579 570 574 566 579 574 574 561 553 0 0 588 593 557 574 574 570 579 574 570 566 561 584 557 561 0 0 0 0 566 566 570 566 570 561 570 561 566 561 557 557 561 553 570 561 561 557 561 566 561 561 561 557 557 561 549 545 537 541 533 525 518 518 545 553 553 549 561 566 570 574 549 566 570 566 566 561 557 553 553 570 541 537 529 529 529 533 529 529 525 525 525 537 537 545 545 557 541 521 504 493 490 487 490 490 490 487 514 521 518 521 514 514 518 518 518 507 504 504 497 497 497 500 497 497 493 487 484 484 484 484 484 481 0 0 0 0 0
    0 0 0 0 0 0 0 0 0 0 0 0 0 0 0 0 0 0 0 0 0 0 0 0 0 0 0 0 0 0 0 0 0 0 0 0 0 0 0 0 0 0 0 0 0 0 0 0 0 0 0 0 0 0 0 0 0 0 0 0 0 0 0 0 0 0 0 0 0 0 0 0 0 0 0 0 0 0 0 0 0 0 0 0 0 0 0 0 0 0 0 0 549 541 545 549 0 553 0 0 553 553 561 553 0 553 553 561 553 549 545 0 0 557 0 549 0 545 0 0 0 0 0 0 0 0 0 0 88 88 0 0 566 566 584 588 593 593 588 0 0 0 0 561 541 545 561 557 553 561 579 566 0 0 0 0 0 0 574 574 584 584 574 553 561 561 557 566 561 557 557 557 574 566 579 598 584 566 579 0 0 0 0 0 0 570 584 0 0 0 0 549 0 593 603 561 579 579 574 584 579 574 566 566 588 566 0 0 0 0 0 570 570 570 570 570 561 566 561 566 561 557 557 557 549 570 557 557 561 561 566 561 561 561 553 557 561 545 541 529 533 525 518 493 0 533 553 549 545 561 566 588 579 549 566 566 566 561 557 557 553 553 570 545 541 533 533 533 537 533 533 533 529 529 537 541 545 545 545 529 504 484 0 481 474 477 477 477 481 504 521 514 521 514 514 518 518 518 504 500 500 493 493 493 493 490 490 490 484 484 484 484 484 487 481 0 0 0 0 0
    0 0 0 0 0 0 0 0 0 0 0 0 0 0 0 0 0 0 0 0 0 0 0 0 0 0 0 0 0 0 0 0 0 0 0 0 0 0 0 0 0 0 0 0 0 0 0 0 0 0 0 0 0 0 0 0 0 0 0 0 0 0 0 0 0 0 0 0 0 0 0 0 0 0 0 0 0 0 0 0 0 0 0 0 0 0 0 0 521 0 0 0 545 0 0 0 0 0 186 0 0 0 0 0 0 0 0 0 0 0 0 0 0 0 0 0 0 0 0 0 0 0 0 0 0 0 0 0 0 0 89 0 0 0 0 0 0 0 0 0 0 0 0 561 533 0 0 0 537 533 549 549 118 0 0 0 0 0 0 0 0 579 566 545 553 553 553 557 557 553 557 557 570 566 588 0 0 0 0 0 0 0 0 0 0 0 0 0 0 0 0 0 0 0 0 0 0 0 584 588 584 574 574 579 598 0 0 0 0 0 0 0 574 574 570 570 561 566 561 557 561 553 549 553 545 570 557 557 561 561 570 566 561 566 557 561 561 0 0 0 0 0 0 0 0 0 584 566 553 570 570 613 588 549 561 566 557 557 553 553 553 553 570 553 545 537 537 537 545 541 537 537 537 537 553 553 553 545 537 514 497 481 477 477 477 474 474 474 477 497 525 514 518 511 511 507 511 514 497 497 497 490 490 490 490 487 484 484 481 477 481 484 484 487 484 0 0 0 0 0
    0 0 0 0 0 0 0 0 0 0 0 0 0 0 0 0 0 0 0 0 0 0 0 0 0 0 0 0 0 0 0 0 0 0 0 0 0 0 0 0 0 0 0 0 0 0 0 0 0 0 0 0 0 0 0 0 0 0 0 0 0 0 0 0 0 0 0 0 0 0 0 0 0 0 0 0 0 0 0 0 0 0 0 0 0 0 0 514 500 0 0 0 0 0 0 0 0 0 0 0 0 0 0 0 0 0 0 0 0 0 0 0 0 0 0 0 0 0 0 0 0 0 106 0 0 0 0 0 0 0 0 89 0 0 0 0 0 0 0 0 3873 2830 0 0 6690 0 0 0 92 91 91 0 0 0 0 0 1132 0 0 0 0 0 0 521 518 541 529 0 545 0 0 0 0 0 0 0 0 0 0 0 0 0 0 0 0 0 0 0 0 0 0 0 0 0 0 0 0 0 598 593 579 557 557 570 0 0 0 0 0 0 0 0 0 0 541 533 545 545 553 549 541 537 525 490 0 459 457 438 0 566 566 579 566 561 557 0 0 0 0 0 0 0 0 0 0 0 0 0 0 0 0 0 0 549 561 566 557 553 549 553 553 553 566 553 541 533 533 537 545 541 541 541 541 541 557 561 557 545 537 518 493 481 477 477 474 474 471 471 474 0 514 504 511 504 500 497 504 504 490 490 493 487 484 484 484 481 477 481 474 471 474 481 481 484 484 0 0 0 0 0
    0 0 0 0 0 0 0 0 0 0 0 0 0 0 0 0 0 0 0 0 0 0 0 0 0 0 0 0 0 0 0 0 0 0 0 0 0 0 0 0 0 0 0 0 0 0 0 0 0 0 0 0 0 0 0 0 0 0 0 0 0 0 0 0 0 0 0 0 0 0 0 0 0 0 0 0 0 0 0 0 0 0 0 0 0 0 0 497 487 0 465 454 454 465 471 465 462 465 468 465 471 252 0 0 0 490 0 529 106 105 0 0 0 0 0 0 0 0 0 0 0 0 0 0 0 0 0 0 0 0 0 0 0 0 0 0 0 0 0 0 0 0 1471 1268 0 0 0 0 0 91 91 0 0 0 0 0 1149 0 78 0 0 0 0 0 481 481 477 474 0 0 0 0 0 0 0 0 0 0 0 0 0 0 0 0 0 0 0 0 0 0 0 0 0 0 0 0 0 0 0 0 0 0 493 493 511 0 490 0 0 0 0 0 0 0 484 484 477 487 487 511 490 477 0 454 457 448 451 448 448 0 0 0 0 0 0 168 0 0 0 0 0 0 149 149 0 0 0 0 0 0 0 0 0 0 0 0 545 545 537 541 553 549 553 545 533 521 525 533 537 533 533 537 537 537 553 553 545 541 529 497 484 481 477 474 471 471 471 471 471 471 0 487 0 0 0 487 493 493 484 487 490 484 477 481 477 474 474 474 471 465 468 477 477 484 484 0 0 0 0 0
    0 0 0 0 0 0 0 0 0 0 0 0 0 0 0 0 0 0 0 0 0 0 0 0 0 0 0 0 0 0 0 0 0 0 0 0 0 0 0 0 0 0 0 0 0 0 0 0 0 0 0 0 0 0 0 0 0 0 0 0 0 0 0 0 0 0 0 0 0 448 0 0 459 0 0 484 484 471 471 0 0 0 0 0 0 0 0 474 468 0 0 0 2 468 471 468 468 468 474 474 477 0 477 471 477 484 0 0 106 0 0 0 0 0 0 0 0 0 0 0 0 0 0 0 0 474 0 0 471 459 0 459 454 459 459 457 457 0 471 471 471 106 0 0 468 459 457 462 0 91 0 0 0 0 0 0 256 257 0 260 0 0 0 0 481 477 477 474 477 481 0 0 0 0 0 104 0 0 0 0 0 0 0 0 0 0 0 0 0 0 0 0 0 0 0 0 0 0 0 0 0 484 484 481 493 484 487 487 481 481 465 468 471 465 471 474 471 474 471 484 477 0 0 451 454 448 454 454 457 459 462 459 465 462 465 465 471 468 471 471 0 465 477 0 474 465 462 459 462 457 465 454 454 459 459 459 459 446 0 0 0 0 574 561 557 537 533 0 541 533 533 537 537 537 545 537 533 525 497 484 481 477 474 474 471 474 471 471 471 468 471 0 0 0 0 0 487 490 481 487 490 481 474 477 474 474 474 474 471 465 465 477 477 484 484 0 0 0 0 0
    0 0 0 0 0 0 0 0 0 0 0 0 0 0 0 0 0 0 0 0 0 0 0 0 0 0 0 0 0 0 0 0 0 0 0 0 0 0 0 0 0 0 0 0 0 0 0 0 0 0 0 0 0 0 0 0 0 0 0 0 0 0 0 0 0 0 0 0 0 454 454 465 465 468 484 487 484 474 474 474 474 477 474 0 0 0 471 471 468 459 465 462 462 468 471 468 468 471 474 474 477 484 477 474 477 484 474 0 106 0 0 459 0 0 0 0 0 0 0 0 0 0 0 0 474 474 0 477 471 462 459 459 459 465 465 462 465 471 474 477 474 477 474 471 0 0 0 462 465 0 0 0 0 0 0 0 0 254 257 0 0 0 0 0 477 471 474 468 474 474 474 474 0 0 0 0 0 0 0 0 0 0 0 0 91 92 92 91 0 0 0 0 0 0 0 0 97 97 0 0 481 477 474 474 484 477 484 477 474 477 462 465 468 462 468 468 471 468 468 477 471 465 0 454 454 451 457 457 459 459 462 462 465 462 465 465 471 468 468 468 471 465 471 471 465 457 457 454 451 451 457 451 451 454 454 451 448 454 0 0 0 0 0 0 0 0 541 561 553 537 533 533 537 537 533 521 507 500 487 481 477 477 474 474 474 474 471 471 474 468 0 0 1168 1187 1115 0 484 487 0 0 487 477 471 471 471 471 471 474 468 465 462 474 474 487 487 0 0 0 0 0
    0 0 0 0 0 0 0 0 0 0 0 0 0 0 0 0 0 0 0 0 0 0 0 0 0 0 0 0 0 0 0 0 0 0 0 0 0 0 0 0 0 0 0 0 0 0 0 0 0 0 0 0 0 0 0 0 0 0 0 0 0 0 0 0 0 0 0 0 0 457 457 462 465 468 481 484 487 474 477 474 474 0 474 0 0 0 471 471 468 459 465 462 462 468 471 471 468 471 477 477 477 484 481 477 481 487 474 0 0 0 457 454 454 0 0 0 474 468 0 0 0 474 0 474 471 474 477 474 468 465 462 462 462 465 465 465 468 471 474 474 474 474 471 468 0 0 0 465 468 471 465 0 474 477 0 0 0 0 0 0 0 0 0 0 477 471 471 468 471 474 474 474 474 471 0 0 0 462 0 0 0 0 0 0 91 92 92 92 0 0 0 0 0 0 0 96 97 97 0 477 477 474 474 471 481 474 477 474 474 474 465 465 465 462 465 468 471 468 465 471 468 462 471 454 451 451 457 457 459 459 459 459 462 462 465 465 471 465 465 465 468 462 468 468 462 454 457 454 451 451 457 454 451 457 457 454 457 462 465 454 0 471 0 0 0 0 514 0 0 521 511 518 525 518 511 500 490 487 484 477 477 474 474 474 471 474 471 471 471 0 0 1149 1187 1206 1149 0 468 0 0 0 481 468 459 462 465 468 468 471 468 465 462 471 474 484 484 0 0 0 0 0
    0 0 0 0 0 0 0 0 0 0 0 0 0 0 0 0 0 0 0 0 0 0 0 0 0 0 0 0 0 0 0 0 0 0 0 0 0 0 0 0 0 0 0 0 0 0 0 0 0 0 0 0 0 0 0 0 0 0 0 0 0 0 0 0 0 0 0 0 0 457 457 462 465 468 481 481 484 471 471 471 471 471 471 465 0 468 471 471 465 459 465 465 465 468 471 471 471 474 477 477 477 487 481 481 481 484 471 484 0 0 457 451 451 448 0 0 474 468 462 0 0 474 474 471 468 468 471 468 465 465 462 462 465 465 465 465 468 468 471 471 471 468 468 465 0 0 465 468 471 471 474 477 477 477 481 484 0 0 0 474 477 481 481 481 477 468 471 468 471 474 474 474 474 471 477 468 474 465 454 462 462 465 0 468 91 92 92 0 0 0 0 0 0 0 0 0 0 0 0 477 474 471 471 471 481 474 474 471 471 471 465 465 465 462 465 468 468 465 462 468 462 462 468 454 451 451 457 457 459 459 459 459 459 462 462 459 468 459 462 462 465 459 465 465 459 454 457 454 454 451 457 454 454 462 462 459 465 465 471 465 468 471 0 0 481 481 490 481 490 487 487 490 493 490 490 490 481 481 481 474 474 471 471 471 468 474 468 468 471 0 0 0 0 1187 0 0 446 454 454 0 465 457 451 454 462 465 468 468 465 462 465 474 474 481 484 0 0 0 0 0
    0 0 0 0 0 0 0 0 0 0 0 0 0 0 0 0 0 0 0 0 0 0 0 0 0 0 0 0 0 0 0 0 0 0 0 0 0 0 0 0 0 0 0 0 0 0 0 0 0 0 0 0 0 0 0 0 0 0 0 0 0 0 0 0 0 0 0 0 0 462 459 465 468 471 477 474 477 468 468 468 465 465 468 462 462 465 468 471 462 459 465 465 465 468 471 471 471 474 477 477 481 487 481 481 481 484 471 477 474 481 462 459 459 454 459 477 474 468 0 0 0 471 471 471 468 465 468 462 465 465 462 462 465 465 465 465 468 468 471 471 471 465 468 462 465 468 465 468 471 474 477 477 481 481 481 484 484 0 474 474 474 477 477 477 474 468 471 468 471 474 474 474 474 471 477 468 474 468 457 462 462 462 465 468 0 0 0 0 0 0 0 0 0 0 0 0 0 471 471 474 474 468 471 468 481 474 471 471 471 471 465 465 465 462 465 468 471 468 465 471 468 465 471 459 454 451 457 457 459 459 459 459 459 462 462 459 468 459 459 459 459 457 462 465 459 454 459 457 457 454 459 459 457 465 465 468 471 471 477 471 477 474 0 477 477 0 0 477 481 481 481 481 481 481 481 484 471 474 474 468 471 471 471 471 471 477 471 471 474 465 457 0 0 0 0 0 438 440 446 446 448 448 448 448 459 462 465 465 462 462 465 471 471 474 477 0 0 0 0 0
    0 0 0 0 0 0 0 0 0 0 0 0 0 0 0 0 0 0 0 0 0 0 0 0 0 0 0 0 0 0 0 0 0 0 0 0 0 0 0 0 0 0 0 0 0 0 0 0 0 0 0 0 0 0 0 0 0 0 0 0 0 0 0 0 0 0 0 0 0 462 462 468 468 468 474 474 474 468 468 468 465 465 465 459 459 462 468 468 459 462 468 465 465 471 474 471 471 474 481 481 481 487 481 477 481 481 468 471 468 474 459 457 459 454 459 474 474 468 462 0 471 471 468 468 465 465 465 462 465 465 462 462 465 465 465 465 468 468 471 468 468 465 465 462 465 468 465 468 474 474 477 481 484 484 484 484 484 0 474 471 474 474 474 474 471 465 468 468 471 471 471 474 474 471 474 471 471 465 459 462 462 465 468 468 0 0 0 0 0 0 0 0 0 0 0 0 0 471 471 474 474 468 471 471 481 474 471 471 471 471 468 465 465 462 465 471 471 468 465 474 471 468 471 459 457 451 457 457 459 459 459 459 462 462 465 459 468 459 457 457 459 457 462 465 457 457 459 459 459 459 462 462 459 468 468 471 477 474 481 477 481 0 0 0 481 0 0 474 481 477 481 481 481 481 477 477 462 471 471 468 468 471 471 471 471 481 474 474 474 468 457 448 446 0 446 448 446 443 446 446 448 448 448 448 459 462 468 468 462 462 465 468 468 471 468 0 0 0 0 0
    0 0 0 0 0 0 0 0 0 0 0 0 0 0 0 0 0 0 0 0 0 0 0 0 0 0 0 0 0 0 0 0 0 0 0 0 0 0 0 0 0 0 0 0 0 0 0 0 0 0 0 0 0 0 0 0 0 0 0 0 0 0 0 0 0 0 0 0 0 465 462 465 468 468 471 468 471 468 465 465 462 462 465 459 459 462 465 468 459 462 468 465 468 471 474 474 474 477 484 484 484 490 484 481 477 477 465 462 454 459 451 451 454 451 457 465 471 465 459 468 468 468 468 468 468 462 465 459 465 465 462 462 465 465 465 465 468 468 471 468 471 465 465 462 462 465 465 465 471 474 477 481 484 484 484 484 481 474 468 468 468 471 471 468 468 465 468 465 468 471 471 471 471 471 474 468 471 465 459 465 462 465 468 471 0 0 0 490 487 484 0 0 0 0 481 454 471 471 471 474 471 468 471 471 481 474 474 471 471 474 468 465 465 462 465 471 471 468 465 474 471 471 474 459 457 451 459 457 459 459 459 459 462 462 465 462 471 459 459 459 459 457 462 465 457 459 462 462 462 462 465 465 462 471 471 471 477 474 481 477 484 477 0 481 481 481 481 477 481 477 477 481 477 477 474 474 457 465 465 465 465 468 468 471 471 481 481 477 477 474 462 457 454 454 454 451 451 448 448 451 459 457 454 454 462 465 468 468 465 465 465 468 471 471 468 0 0 0 0 0
    0 0 0 0 0 0 0 0 0 0 0 0 0 0 0 0 0 0 0 0 0 0 0 0 0 0 0 0 0 0 0 0 0 0 0 0 0 0 0 0 0 0 0 0 0 0 0 0 0 0 0 0 0 0 0 0 0 0 0 0 0 0 0 0 0 0 0 0 0 465 459 465 465 465 468 462 468 462 462 462 457 457 462 457 459 462 465 468 457 462 468 468 468 471 474 474 474 481 487 487 487 490 484 484 481 477 465 462 454 454 448 451 454 451 451 457 462 459 457 465 459 465 462 465 465 459 462 457 462 462 462 462 462 462 465 465 471 468 471 468 468 465 465 459 459 462 462 465 471 468 474 474 481 477 477 474 471 462 459 459 462 462 465 465 462 459 465 465 468 468 468 471 471 471 474 471 471 465 462 465 465 468 471 474 481 481 487 487 487 487 481 497 490 474 477 454 468 468 468 471 468 465 471 468 481 471 471 471 471 471 468 465 462 459 468 468 471 468 465 474 471 471 474 459 459 451 459 457 459 459 462 459 462 462 468 462 471 459 459 459 459 457 459 462 457 459 465 462 465 465 468 468 465 471 471 471 477 474 481 477 484 477 477 481 481 481 481 477 484 477 474 477 477 477 474 474 451 462 462 462 465 468 468 471 471 481 481 481 481 481 471 465 459 457 459 454 454 448 451 454 465 462 462 459 468 471 474 474 468 465 462 465 471 471 465 0 0 0 0 0
    0 0 0 0 0 0 0 0 0 0 0 0 0 0 0 0 0 0 0 0 0 0 0 0 0 0 0 0 0 0 0 0 0 0 0 0 0 0 0 0 0 0 0 0 0 0 0 0 0 0 0 0 0 0 0 0 0 0 0 0 0 0 0 0 0 0 0 0 0 468 465 468 468 468 471 462 468 462 462 462 459 459 462 457 459 465 465 465 457 462 468 465 468 468 471 471 474 481 487 487 484 490 487 484 481 481 468 465 454 454 448 451 454 454 451 0 0 462 459 468 462 465 462 465 462 457 459 454 462 462 462 462 465 462 465 468 471 468 471 468 468 462 465 459 459 465 465 462 471 468 474 471 477 474 471 465 462 454 454 454 457 457 462 459 459 459 462 465 468 468 468 471 471 471 474 471 471 468 465 468 465 468 471 474 481 481 484 487 487 487 481 493 487 474 477 454 468 468 468 468 468 465 468 468 477 465 468 468 468 471 465 465 465 462 468 468 471 468 465 474 471 474 474 462 459 454 462 459 459 462 462 462 462 462 468 459 468 459 459 457 457 457 459 462 457 459 465 465 465 468 468 471 468 474 477 474 481 477 481 477 484 477 481 481 484 484 481 481 487 481 477 481 481 477 474 477 448 465 465 462 465 468 468 471 471 484 484 484 487 484 474 471 468 459 465 457 459 454 457 462 465 465 462 459 468 471 474 471 468 465 459 462 468 471 465 0 0 0 0 0
    0 0 0 0 0 0 0 0 0 0 0 0 0 0 0 0 0 0 0 0 0 0 0 0 0 0 0 0 0 0 0 0 0 0 0 0 0 0 0 0 0 0 0 0 0 0 0 0 0 0 0 0 0 0 0 0 0 0 0 0 0 0 0 0 0 0 0 0 0 471 468 468 468 468 468 462 468 462 462 462 459 459 462 459 462 465 465 468 457 462 468 468 468 468 471 471 471 481 484 484 481 487 484 481 481 481 468 465 457 459 451 454 457 0 454 0 0 465 459 468 465 465 462 465 462 459 459 457 465 462 462 462 465 465 465 468 471 465 471 468 468 459 462 459 459 468 468 468 471 471 477 474 481 474 471 462 459 454 454 457 459 457 462 459 459 462 465 465 468 468 468 471 471 471 474 471 471 468 465 471 468 471 471 474 481 481 487 487 490 490 484 497 490 477 481 459 471 471 468 471 471 465 468 465 477 462 468 465 468 471 468 468 465 462 468 468 471 471 465 474 471 474 471 462 459 454 462 459 459 462 462 462 462 462 468 459 468 459 459 459 457 459 459 462 457 459 465 465 468 468 471 471 471 477 477 474 481 481 481 477 481 477 477 481 484 481 481 481 487 484 481 481 481 481 474 481 451 465 465 465 465 468 468 468 471 487 484 487 493 484 477 477 474 465 471 465 462 459 465 468 471 468 465 457 468 471 471 471 465 459 454 462 468 471 465 0 0 0 0 0
    0 0 0 0 0 0 0 0 0 0 0 0 0 0 0 0 0 0 0 0 0 0 0 0 0 0 0 0 0 0 0 0 0 0 0 0 0 0 0 0 0 0 0 0 0 0 0 0 0 0 0 0 0 0 0 0 0 0 0 0 0 0 0 0 0 0 0 0 0 468 465 468 465 465 462 457 462 459 462 462 459 459 462 459 465 468 468 468 454 465 468 468 468 468 471 471 471 481 484 484 481 487 484 481 481 481 471 468 462 465 457 457 459 459 457 0 459 462 457 465 459 462 457 462 462 459 459 457 465 462 462 462 465 465 465 465 471 465 471 465 468 454 459 457 459 468 468 465 471 471 474 471 477 471 468 459 459 454 454 457 462 457 462 459 462 465 465 468 468 468 468 471 471 471 471 471 471 471 468 471 468 471 471 477 481 487 490 490 490 493 487 500 490 0 484 0 471 471 471 471 471 465 468 465 477 462 465 468 468 468 468 468 465 462 471 471 474 471 468 474 471 471 471 459 459 454 462 459 459 462 462 462 462 462 468 459 468 459 459 459 459 459 462 462 459 462 468 465 468 471 471 471 471 477 477 477 484 481 477 477 481 477 481 481 484 481 477 481 487 484 477 481 477 477 474 481 446 462 462 462 465 465 465 468 471 487 487 487 493 487 481 481 474 471 471 459 459 454 457 462 468 465 459 454 468 471 474 471 465 457 451 462 468 471 468 0 0 0 0 0
    0 0 0 0 0 0 0 0 0 0 0 0 0 0 0 0 0 0 0 0 0 0 0 0 0 0 0 0 0 0 0 0 0 0 0 0 0 0 0 0 0 0 0 0 0 0 0 0 0 0 0 0 0 0 0 0 0 0 0 0 0 0 0 0 0 0 0 0 0 471 462 465 462 462 457 451 454 454 457 457 457 457 457 457 462 468 465 468 454 465 468 468 468 468 471 471 471 481 484 484 484 487 484 481 477 477 471 468 462 465 459 459 462 462 0 0 0 462 454 459 454 457 451 459 459 459 459 459 465 462 465 462 465 465 465 465 468 465 468 465 468 454 459 457 457 465 465 465 471 471 474 468 477 471 468 462 459 454 457 459 465 459 465 462 465 465 468 468 468 468 468 471 471 471 471 471 471 471 471 471 468 474 471 481 484 487 490 493 493 497 490 504 493 0 484 0 471 471 471 471 471 465 468 465 477 465 465 468 468 468 468 468 465 465 471 471 474 471 471 477 471 471 468 459 459 454 462 459 459 462 462 462 465 462 468 462 468 462 462 459 459 462 465 465 462 465 468 468 471 474 474 474 474 477 481 477 487 481 477 477 484 477 477 481 484 481 477 481 484 481 477 481 477 477 474 477 446 459 462 462 462 465 465 468 468 490 490 490 493 490 484 484 481 477 471 457 459 451 454 454 457 457 448 0 0 0 477 471 459 451 446 459 468 471 465 0 0 0 0 0
    0 0 0 0 0 0 0 0 0 0 0 0 0 0 0 0 0 0 0 0 0 0 0 0 0 0 0 0 0 0 0 0 0 0 0 0 0 0 0 0 0 0 0 0 0 0 0 0 0 0 0 0 0 0 0 0 0 0 0 0 0 0 0 0 0 0 0 0 0 471 457 465 459 462 454 451 454 451 454 454 454 454 451 451 0 465 462 465 454 465 468 468 468 468 468 471 468 481 481 481 484 487 484 474 477 477 468 468 462 465 462 462 465 462 459 0 0 457 451 451 451 454 451 459 457 462 459 459 465 462 465 462 465 465 465 468 468 468 471 465 471 459 462 457 457 468 465 462 468 468 471 465 474 468 468 462 459 457 459 462 468 462 468 465 468 468 468 468 468 468 468 471 471 471 471 474 471 471 471 471 468 474 474 481 484 490 490 490 493 497 490 497 0 0 481 0 471 468 471 471 471 465 468 465 477 465 465 468 468 468 468 468 468 465 471 474 474 474 474 481 474 474 471 462 459 454 462 459 459 462 462 462 465 462 468 462 468 468 468 465 462 465 465 465 465 468 471 468 471 474 474 474 474 477 481 477 487 481 474 474 481 474 474 481 481 477 474 477 484 481 477 481 477 477 474 477 446 459 462 462 462 462 462 468 468 487 490 490 490 487 484 487 484 477 468 457 454 448 454 457 454 451 0 0 0 0 481 471 459 446 0 454 468 471 468 0 0 0 0 0
    0 0 0 0 0 0 0 0 0 0 0 0 0 0 0 0 0 0 0 0 0 0 0 0 0 0 0 0 0 0 0 0 0 0 0 0 0 0 0 0 0 0 0 0 0 0 0 0 0 0 0 0 0 0 0 0 0 0 0 0 0 0 0 0 0 0 0 0 0 468 446 462 457 462 457 451 454 451 454 454 454 454 448 451 0 0 462 468 454 465 468 468 468 468 468 471 468 481 477 477 484 0 477 471 471 471 468 465 459 462 459 462 462 462 459 0 0 0 451 451 454 454 451 459 459 462 459 462 462 462 465 462 465 465 465 468 468 471 471 468 474 465 465 462 462 471 468 465 468 465 468 462 474 465 465 459 459 457 459 465 471 462 468 465 465 468 471 468 471 468 471 474 474 474 474 474 474 474 474 474 471 477 477 484 487 490 490 490 493 493 487 490 0 0 477 459 468 468 471 471 471 468 471 468 477 468 468 468 468 468 468 471 468 465 471 474 474 471 474 477 471 471 471 459 459 454 462 459 459 462 462 462 465 465 471 462 471 468 468 468 465 465 468 465 468 468 471 468 471 474 477 477 477 477 477 474 481 477 468 471 474 474 474 481 484 477 474 481 484 481 477 481 477 474 474 477 446 459 462 465 462 462 462 465 468 484 487 487 484 484 481 484 481 474 468 454 448 446 451 451 448 446 440 0 0 0 0 446 0 427 418 0 465 468 465 0 0 0 0 0
    0 0 0 0 0 0 0 0 0 0 0 0 0 0 0 0 0 0 0 0 0 0 0 0 0 0 0 0 0 0 0 0 0 0 0 0 0 0 0 0 0 0 0 0 0 0 0 0 0 0 0 0 0 0 0 0 0 0 0 0 0 0 0 0 0 0 0 0 0 459 438 459 451 465 459 448 454 448 451 457 454 454 448 451 0 0 465 468 454 465 468 468 468 468 468 471 468 481 477 477 484 0 0 0 468 468 465 462 459 462 459 462 462 462 0 0 0 0 0 451 457 457 454 462 459 465 459 462 462 462 465 462 465 465 465 465 465 471 468 468 474 465 465 459 462 471 468 465 468 465 468 465 474 465 462 459 459 457 459 465 471 462 468 465 468 0 471 468 471 471 471 474 474 474 474 477 477 477 477 477 471 477 477 484 484 490 490 490 490 490 484 487 0 0 474 459 468 468 471 471 471 468 468 468 477 468 468 468 468 468 468 471 471 468 474 474 474 471 474 474 468 468 468 459 457 454 462 459 459 462 465 465 465 465 468 465 471 468 471 471 468 468 471 468 471 471 474 471 474 474 477 477 477 477 477 474 481 477 462 468 474 471 474 481 481 474 471 474 481 477 471 474 471 471 471 477 446 459 462 465 462 462 462 462 465 481 484 481 477 481 481 484 481 477 468 448 443 438 443 443 440 435 432 0 0 0 0 430 422 415 408 432 462 462 465 0 0 0 0 0
    0 0 0 0 0 0 0 0 0 0 0 0 0 0 0 0 0 0 0 0 0 0 0 0 0 0 0 0 0 0 0 0 0 0 0 0 0 0 0 0 0 0 0 0 0 0 0 0 0 0 0 0 0 0 0 0 0 0 0 0 0 0 0 0 0 0 0 0 0 448 432 451 438 457 454 443 446 443 446 454 454 454 448 454 465 0 465 468 454 465 468 468 468 468 468 468 468 481 474 471 477 0 0 465 462 465 465 462 459 462 462 465 0 465 0 0 0 0 0 448 454 454 451 459 457 462 459 462 459 462 465 462 465 465 465 465 465 471 468 468 474 462 468 462 465 474 471 465 465 462 465 465 474 465 465 462 462 462 462 468 474 465 471 468 471 0 474 468 471 471 471 474 474 474 474 474 477 477 477 474 471 474 474 481 481 487 487 487 487 487 481 0 0 0 471 459 468 465 468 471 471 468 468 465 474 465 465 465 468 468 471 471 474 471 474 477 477 474 474 474 468 468 468 459 457 454 462 459 459 462 465 465 465 465 468 465 471 471 471 471 471 471 471 471 471 471 474 471 474 474 474 474 477 477 477 474 481 477 462 468 474 471 471 477 481 474 468 474 477 477 471 474 471 465 471 477 448 459 465 465 465 465 462 465 465 481 481 468 468 468 471 477 477 471 459 443 435 432 435 435 432 430 425 422 0 0 0 422 415 411 411 418 451 451 457 0 0 0 0 0
    0 0 0 0 0 0 0 0 0 0 0 0 0 0 0 0 0 0 0 0 0 0 0 0 0 0 0 0 0 0 0 0 0 0 0 0 0 0 0 0 0 0 0 0 0 0 0 0 0 0 0 0 0 0 0 0 0 0 0 0 0 0 0 0 0 0 0 0 0 0 432 448 0 0 459 446 451 448 451 459 457 457 451 454 462 468 465 468 454 468 471 468 468 468 468 471 468 481 474 459 471 0 0 0 0 0 0 462 462 465 468 471 0 471 0 0 0 0 0 446 451 448 446 457 457 465 462 468 462 468 468 465 468 468 465 468 465 471 468 468 474 468 468 465 468 474 468 465 459 457 459 465 471 465 465 465 465 471 468 477 477 471 477 474 477 477 477 471 471 471 471 474 474 474 474 474 477 477 477 477 474 474 474 481 481 487 487 487 487 487 484 484 481 0 471 457 465 465 468 468 471 468 468 465 474 468 465 465 471 468 471 474 474 474 477 477 477 474 474 474 468 468 471 459 454 457 462 459 459 462 462 462 465 465 468 465 471 471 474 471 471 471 474 471 474 471 474 471 474 474 474 474 477 477 481 477 487 481 468 468 474 471 471 474 477 474 468 474 474 474 468 468 465 462 471 474 448 462 465 468 468 468 465 465 465 477 477 451 451 448 454 462 465 459 448 438 432 430 430 430 427 422 418 415 422 425 0 415 408 404 411 411 440 446 457 0 0 0 0 0
    0 0 0 0 0 0 0 0 0 0 0 0 0 0 0 0 0 0 0 0 0 0 0 0 0 0 0 0 0 0 0 0 0 0 0 0 0 0 0 0 0 0 0 0 0 0 0 0 0 0 0 0 0 0 0 0 0 0 0 0 0 0 0 0 0 0 0 0 0 0 427 443 432 0 462 0 454 454 462 465 462 462 457 457 459 465 462 468 454 465 471 468 468 468 468 468 468 481 471 448 0 0 0 0 0 0 465 462 465 468 471 474 474 471 0 0 0 0 0 446 448 446 446 457 462 468 465 471 462 471 471 468 468 468 468 471 468 474 468 468 474 471 468 468 465 468 457 457 448 446 457 465 471 468 465 471 468 474 471 481 481 477 484 484 484 0 481 471 471 471 471 474 474 474 474 474 477 477 477 474 471 471 474 484 484 487 487 490 490 487 487 487 481 474 471 457 465 462 468 468 468 468 468 465 474 468 465 465 471 471 474 477 477 474 477 481 477 474 474 471 465 465 471 454 451 454 462 457 457 459 462 462 465 465 468 465 471 474 474 474 471 471 474 471 474 468 471 468 471 474 474 474 474 474 477 474 481 477 468 468 474 471 474 474 481 474 474 474 474 474 468 468 465 459 465 468 451 462 465 468 465 465 465 465 465 477 474 446 448 451 454 454 454 451 443 432 430 425 422 422 422 420 415 413 0 0 0 0 0 0 0 0 0 413 427 0 0 0 0 0
    0 0 0 0 0 0 0 0 0 0 0 0 0 0 0 0 0 0 0 0 0 0 0 0 0 0 0 0 0 0 0 0 0 0 0 0 0 0 0 0 0 0 0 0 0 0 0 0 0 0 0 0 0 0 0 0 0 0 0 0 0 0 0 0 0 0 0 0 0 438 427 0 432 457 462 446 454 454 0 468 465 465 462 462 465 468 465 465 451 465 468 465 465 465 462 465 462 477 462 443 0 0 0 0 462 0 465 462 465 468 471 474 471 471 0 0 0 0 0 0 446 443 443 459 465 468 465 474 462 474 471 468 471 468 471 471 468 474 468 465 474 471 468 465 459 462 446 446 443 438 451 465 468 471 465 474 471 481 474 487 487 484 487 487 0 0 481 468 471 471 471 474 474 474 474 474 477 477 477 474 471 471 474 484 484 490 487 490 490 0 0 487 0 0 471 457 462 462 468 468 468 468 468 462 474 468 462 462 471 471 474 477 477 477 477 481 481 474 474 471 465 465 471 457 451 457 462 457 457 459 459 462 465 465 468 465 474 474 474 474 471 468 474 468 471 465 471 468 471 471 474 474 474 474 477 471 481 474 465 465 471 471 471 474 481 477 477 477 477 474 471 471 468 462 465 465 451 462 465 465 465 465 465 465 465 474 474 448 451 457 459 457 457 451 440 430 425 422 418 418 415 413 411 411 0 645 639 0 0 0 645 645 634 0 0 0 0 0 0 0
    0 0 0 0 0 0 0 0 0 0 0 0 0 0 0 0 0 0 0 0 0 0 0 0 0 0 0 0 0 0 0 0 0 0 0 0 0 0 0 0 0 0 0 0 0 0 0 0 0 0 0 0 0 0 0 0 0 0 0 0 0 0 0 0 0 0 0 0 0 0 425 0 430 0 465 0 454 454 468 468 462 465 0 0 465 465 462 462 448 462 465 462 462 462 459 462 459 477 457 443 0 0 0 0 459 0 465 462 465 465 471 471 471 471 0 0 0 0 451 446 446 443 446 459 465 468 468 474 462 474 474 468 471 468 471 471 468 474 468 465 471 468 465 462 457 457 443 443 440 432 454 471 0 477 471 481 0 0 474 0 0 484 487 0 0 0 0 468 471 471 474 474 474 474 474 474 481 477 477 477 474 471 474 484 484 487 487 490 487 0 0 0 0 0 468 454 462 462 468 468 468 468 468 462 474 468 462 465 471 471 474 477 477 477 477 481 481 477 474 474 468 471 474 459 451 457 465 457 457 459 459 462 465 465 468 465 474 474 474 477 474 468 474 468 471 462 471 468 471 474 474 474 474 474 477 471 477 471 462 462 471 468 468 471 481 481 481 477 477 474 474 474 474 468 465 468 454 465 468 468 465 462 462 465 465 474 468 448 448 451 451 451 451 448 443 432 430 427 422 422 418 413 411 411 0 0 0 0 0 0 657 0 645 0 0 0 0 0 0 0
    0 0 0 0 0 0 0 0 0 0 0 0 0 0 0 0 0 0 0 0 0 0 0 0 0 0 0 0 0 0 0 0 0 0 0 0 0 0 0 0 0 0 0 0 0 0 0 0 0 0 0 0 0 0 0 0 0 0 0 0 0 0 0 0 0 0 0 0 0 0 425 0 0 0 0 0 0 0 0 0 465 0 0 0 465 468 465 462 448 459 465 462 459 459 457 459 457 474 451 0 0 0 0 0 0 0 465 462 465 465 471 471 471 471 0 0 0 0 457 448 448 446 448 465 468 468 465 474 459 474 474 468 468 468 471 471 468 474 465 465 471 471 465 462 454 459 446 443 0 0 0 0 0 0 0 0 0 0 0 0 0 0 0 0 0 0 0 465 471 471 474 474 477 477 474 474 481 481 481 481 477 474 0 487 484 0 0 0 487 0 0 0 0 0 468 454 459 459 0 468 468 465 465 462 471 468 462 465 474 474 477 481 481 0 481 0 481 477 474 474 471 474 481 468 451 459 468 454 457 459 457 462 465 465 468 465 474 474 477 0 474 468 474 468 471 459 471 468 471 471 474 471 474 474 477 468 477 468 462 462 468 468 468 471 484 481 481 477 477 474 474 474 474 471 468 468 459 468 471 471 468 468 468 468 468 471 465 446 448 448 448 446 448 446 443 438 432 430 427 430 427 422 420 420 425 0 0 0 0 675 663 657 651 0 0 0 0 0 0 0
    0 0 0 0 0 0 0 0 0 0 0 0 0 0 0 0 0 0 0 0 0 0 0 0 0 0 0 0 0 0 0 0 0 0 0 0 0 0 0 0 0 0 0 0 0 0 0 0 0 0 0 0 0 0 0 0 0 0 0 0 0 0 0 0 0 0 0 0 0 465 427 0 0 0 0 0 0 0 0 0 468 0 0 468 468 471 468 462 446 459 465 459 457 459 454 454 454 474 448 0 0 0 0 0 459 0 462 462 468 468 0 474 474 474 0 0 94 0 0 451 451 446 451 468 471 465 465 477 462 477 474 471 468 471 471 471 468 474 465 465 471 471 462 462 451 454 443 440 0 0 0 0 0 0 0 0 0 0 462 0 0 0 0 80 80 79 0 462 471 471 471 474 474 474 474 474 481 477 477 481 481 474 0 487 484 0 0 0 0 0 0 0 0 0 0 0 0 0 0 468 465 465 465 462 471 465 462 465 474 477 481 481 481 0 0 484 481 477 474 474 471 474 481 457 446 459 468 454 454 459 457 462 468 468 468 465 0 0 0 0 474 0 0 468 471 459 471 468 471 471 474 471 474 474 477 468 477 465 457 459 468 468 468 471 484 484 484 481 481 477 477 477 477 471 468 468 462 471 474 474 471 471 471 471 471 474 468 446 448 448 448 446 443 440 440 435 432 430 425 427 427 425 430 427 430 432 0 0 0 0 0 0 0 0 0 0 0 0 0 0
    0 0 0 0 0 0 0 0 0 0 0 0 0 0 0 0 0 0 0 0 0 0 0 0 0 0 0 0 0 0 0 0 0 0 0 0 0 0 0 0 0 0 0 0 0 0 0 0 0 0 0 0 0 0 0 0 0 0 0 0 0 0 0 0 0 0 0 0 0 462 430 0 425 0 0 0 0 0 0 0 0 0 0 0 468 471 471 462 443 457 462 457 0 457 451 0 451 0 0 0 0 0 0 0 459 0 465 465 471 0 0 0 484 481 0 0 94 93 93 0 0 443 451 474 474 468 471 0 0 0 0 0 0 474 474 474 468 471 465 465 468 468 457 457 446 448 440 438 0 0 0 0 0 0 0 0 0 0 0 0 0 0 0 80 79 79 0 465 468 471 468 468 471 471 471 468 477 477 471 0 0 0 0 0 0 0 0 0 0 0 0 0 0 0 0 0 0 0 0 0 465 462 462 457 468 462 459 465 474 481 481 481 0 0 484 487 481 477 474 477 474 481 481 448 440 465 468 454 454 457 454 462 468 468 468 465 0 0 0 84 474 0 0 468 471 457 468 465 468 471 471 471 474 474 477 468 477 462 454 457 462 465 468 471 481 481 0 477 481 477 481 481 481 474 471 471 468 471 474 474 471 474 474 477 477 0 477 448 454 454 451 448 443 438 435 432 432 430 425 427 425 422 432 430 0 0 0 0 415 0 408 406 406 406 408 0 0 0 0 0
    0 0 0 0 0 0 0 0 0 0 0 0 0 0 0 0 0 0 0 0 0 0 0 0 0 0 0 0 0 0 0 0 0 0 0 0 0 0 0 0 0 0 0 0 0 0 0 0 0 0 0 0 0 0 0 0 0 0 0 0 0 0 0 0 0 0 0 0 0 0 430 0 430 0 0 328 0 0 0 0 0 140 140 0 468 474 468 457 440 448 454 451 0 0 0 0 0 0 0 118 0 0 0 0 0 0 0 471 477 0 0 0 0 0 0 0 0 93 93 93 0 0 0 477 477 0 0 0 0 0 76 76 0 0 0 0 0 474 465 0 465 0 0 459 446 446 438 0 0 0 0 0 0 0 0 0 0 0 0 0 0 0 0 0 79 79 0 465 0 471 468 468 468 468 468 465 474 474 465 0 0 0 0 0 0 0 0 101 0 0 0 0 0 0 0 0 0 0 0 0 462 459 459 451 462 459 457 459 477 481 484 481 0 0 481 487 481 477 474 477 481 0 487 0 435 471 468 451 448 454 451 459 465 465 468 465 0 0 0 0 0 0 0 0 468 451 465 459 465 471 471 471 474 474 477 465 474 459 454 457 462 465 468 471 0 0 0 481 481 481 484 0 487 477 471 471 471 474 477 474 474 0 0 0 0 0 484 459 465 462 457 451 446 435 438 435 435 432 430 430 430 427 435 430 432 430 427 427 422 413 420 411 411 413 415 0 0 0 0 0
    0 0 0 0 0 0 0 0 0 0 0 0 0 0 0 0 0 0 0 0 0 0 0 0 0 0 0 0 0 0 0 0 0 0 0 0 0 0 0 0 0 0 0 0 0 0 0 0 0 0 0 0 0 0 0 0 0 0 0 0 0 0 0 0 0 0 0 0 0 0 430 0 0 0 0 0 0 0 0 0 0 0 0 0 0 0 468 448 435 0 0 0 0 0 0 0 0 0 118 117 0 0 0 0 0 0 0 0 497 514 0 0 0 0 0 0 0 0 0 0 0 0 0 0 0 0 0 0 0 0 0 0 0 0 301 0 0 0 0 206 0 0 0 0 446 446 0 0 0 0 0 0 0 0 0 0 0 0 0 0 0 0 79 0 79 79 0 0 0 474 468 468 471 471 468 465 0 471 0 0 0 0 0 0 0 0 0 0 0 0 0 0 0 0 0 0 0 0 0 0 0 457 454 448 459 459 457 459 477 484 484 0 0 0 484 0 0 0 0 0 0 0 0 0 0 0 484 459 446 448 446 454 468 0 471 0 0 0 0 0 0 143 143 0 0 0 0 451 457 0 474 471 477 474 477 465 471 457 448 451 454 462 468 471 0 0 0 0 0 0 0 0 0 0 0 471 474 477 477 0 0 0 0 0 0 566 514 0 481 474 465 459 448 438 438 435 438 435 432 435 435 432 443 438 440 432 427 430 425 422 425 418 0 0 0 0 0 0 0 0
    0 0 0 0 0 0 0 0 0 0 0 0 0 0 0 0 0 0 0 0 0 0 0 0 0 0 0 0 0 0 0 0 0 0 0 0 0 0 0 0 0 0 0 0 0 0 0 0 0 0 0 0 0 0 0 0 0 0 0 0 0 0 0 0 0 0 0 0 0 0 0 0 0 0 0 0 0 0 0 0 0 0 0 0 0 0 462 440 425 422 422 425 422 425 0 0 0 0 0 0 0 451 0 0 471 474 477 477 490 0 0 0 0 0 0 0 0 0 0 0 0 0 0 0 0 0 0 0 0 0 0 0 0 0 0 0 0 0 0 206 0 0 0 0 0 0 0 0 0 0 0 0 100 0 0 0 0 0 0 0 0 0 79 79 79 79 78 78 78 0 0 0 112 112 0 0 0 0 0 0 0 76 76 0 0 0 101 0 0 0 0 0 0 0 0 0 0 0 0 0 0 459 454 451 457 459 459 462 474 484 484 0 0 0 0 0 0 0 0 0 0 0 0 0 0 0 0 484 0 0 448 0 0 0 0 0 0 0 0 0 0 143 143 0 0 0 0 0 0 0 0 0 0 484 468 459 459 454 443 446 446 0 0 0 0 0 0 0 0 0 0 0 0 0 0 0 0 0 1338 1291 1268 1132 0 0 0 0 0 514 507 484 477 474 457 440 440 438 438 435 435 438 438 435 448 443 448 438 430 427 420 418 422 415 0 0 0 0 0 0 0 0
    0 0 0 0 0 0 0 0 0 0 0 0 0 0 0 0 0 0 0 0 0 0 0 0 0 0 0 0 0 0 0 0 0 0 0 0 0 0 0 0 0 0 0 0 0 0 0 0 0 0 0 0 0 0 0 0 0 0 0 0 0 0 0 0 0 0 0 0 0 0 0 0 0 0 0 0 0 0 0 0 0 0 0 0 0 0 0 0 0 0 0 0 0 0 0 0 0 0 0 0 0 0 0 0 0 0 0 0 0 0 0 0 0 0 0 0 0 0 0 0 0 0 0 0 0 0 0 0 0 0 0 0 0 0 0 0 0 0 0 0 0 0 0 0 0 0 0 0 0 0 0 0 0 0 0 0 101 0 0 0 0 0 0 0 0 0 0 0 0 0 0 0 0 0 0 0 0 0 0 0 0 0 0 0 0 0 0 0 0 0 0 0 0 0 0 0 0 0 0 0 0 0 0 0 0 0 0 0 0 0 0 0 0 0 0 0 0 0 0 0 0 0 0 0 0 0 0 0 0 0 0 0 0 0 0 0 0 0 0 0 0 0 0 0 0 0 0 0 0 0 0 0 511 493 481 468 462 454 440 0 0 0 0 0 0 0 0 0 0 0 0 0 0 0 1268 1268 1268 1187 0 1268 1226 0 0 0 0 574 0 525 511 487 477 477 462 446 446 440 440 438 438 440 443 440 454 448 451 443 438 435 435 430 427 425 422 0 0 0 0 0 0 0
    0 0 0 0 0 0 0 0 0 0 0 0 0 0 0 0 0 0 0 0 0 0 0 0 0 0 0 0 0 0 0 0 0 0 0 0 0 0 0 0 0 0 0 0 0 0 0 0 0 0 0 0 0 0 0 0 0 0 0 0 0 0 0 0 0 0 0 0 0 0 0 0 0 0 0 0 0 0 0 0 0 0 0 0 0 0 0 0 0 0 0 0 0 0 0 0 0 0 0 0 0 0 0 0 0 0 0 0 0 0 0 0 0 0 0 0 0 0 0 0 0 0 0 0 0 0 0 0 0 0 0 0 0 0 0 0 0 0 0 0 0 0 0 0 0 0 0 0 0 0 0 0 0 0 0 0 0 0 0 0 0 0 0 0 0 0 0 0 0 0 0 0 0 0 0 0 0 0 0 0 0 0 0 0 0 0 0 0 0 0 0 0 0 0 0 0 0 0 0 0 0 0 0 0 0 0 0 0 0 0 0 0 0 0 0 0 0 0 0 0 0 0 0 0 0 0 0 0 0 0 0 0 0 0 0 0 0 0 0 0 0 0 0 0 0 0 0 0 0 0 0 0 0 0 0 0 0 0 0 0 0 0 0 0 0 0 0 0 0 0 0 0 0 0 1187 1206 1187 1115 0 1187 1168 1036 855 0 0 0 0 0 529 490 477 477 462 443 446 440 440 440 440 440 443 440 454 451 454 446 443 440 440 435 435 427 422 418 418 0 0 0 0 0
    0 0 0 0 0 0 0 0 0 0 0 0 0 0 0 0 0 0 0 0 0 0 0 0 0 0 0 0 0 0 0 0 0 0 0 0 0 0 0 0 0 0 0 0 0 0 0 0 0 0 0 0 0 0 0 0 0 0 0 0 0 0 0 0 0 0 0 0 0 0 0 0 0 0 0 0 0 0 0 0 0 0 0 0 0 0 0 0 0 0 0 0 0 0 0 0 0 0 0 0 0 0 0 0 0 0 0 0 0 0 0 0 0 0 0 0 0 0 0 0 0 0 0 0 0 0 0 0 0 0 0 0 0 0 0 0 0 0 0 0 0 0 0 0 0 0 0 0 0 0 0 0 0 0 0 0 0 0 0 0 0 0 0 0 0 0 0 0 0 0 0 0 0 0 0 0 0 0 0 0 0 0 0 0 0 0 0 0 0 0 0 0 0 0 0 0 0 0 0 0 0 0 0 0 0 0 0 0 0 0 0 0 0 0 0 0 0 0 0 0 0 0 0 0 0 0 0 0 0 0 0 0 0 0 0 0 0 0 0 0 0 0 0 0 0 0 0 0 0 0 0 0 0 0 0 0 0 0 0 0 0 0 0 0 0 0 0 0 0 0 0 0 0 0 0 0 0 0 0 0 0 1187 0 0 0 0 0 0 549 514 0 481 459 440 443 438 440 438 440 440 443 440 457 448 451 446 443 440 440 438 438 432 425 415 408 0 0 0 0 0
    0 0 0 0 0 0 0 0 0 0 0 0 0 0 0 0 0 0 0 0 0 0 0 0 0 0 0 0 0 0 0 0 0 0 0 0 0 0 0 0 0 0 0 0 0 0 0 0 0 0 0 0 0 0 0 0 0 0 0 0 0 0 0 0 0 0 0 0 0 0 0 0 0 0 0 0 0 0 0 0 0 0 0 0 0 0 0 0 0 0 0 0 0 0 0 0 0 0 0 0 0 0 0 0 0 0 0 0 0 0 0 0 0 0 0 0 0 0 0 0 0 0 0 0 0 0 0 0 0 0 0 0 0 0 0 0 0 0 0 0 0 0 0 0 0 0 0 0 0 0 0 0 0 0 0 0 0 0 0 0 0 0 0 0 0 0 0 0 0 0 0 0 0 0 0 0 0 0 0 0 0 0 0 0 0 0 0 0 0 0 0 0 0 0 0 0 0 0 0 0 0 0 0 0 0 0 0 0 0 0 0 0 0 0 0 0 0 0 0 0 0 0 0 0 0 0 0 0 0 0 0 0 0 0 0 0 0 0 0 0 0 0 0 0 0 0 0 0 0 0 0 0 0 0 0 0 0 0 0 0 0 0 0 0 0 0 0 0 0 0 0 0 0 0 0 0 0 0 0 0 0 0 0 0 0 0 0 0 566 529 514 490 454 430 435 432 438 438 440 440 443 440 459 448 454 446 443 440 440 438 438 432 427 418 408 0 0 0 0 0
    0 0 0 0 0 0 0 0 0 0 0 0 0 0 0 0 0 0 0 0 0 0 0 0 0 0 0 0 0 0 0 0 0 0 0 0 0 0 0 0 0 0 0 0 0 0 0 0 0 0 0 0 0 0 0 0 0 0 0 0 0 0 0 0 0 0 0 0 0 0 0 0 0 0 0 0 0 0 0 0 0 0 0 0 0 0 0 0 0 0 0 0 0 0 0 0 0 0 0 0 0 0 0 0 0 0 0 0 0 0 0 0 0 0 0 0 0 0 0 0 0 0 0 0 0 0 0 0 0 0 0 0 0 0 0 0 0 0 0 0 0 0 0 0 0 0 0 0 0 0 0 0 0 0 0 0 0 0 0 0 0 0 0 0 0 0 0 0 0 0 0 0 0 0 0 0 0 0 0 0 0 0 0 0 0 0 0 0 0 0 0 0 0 0 0 0 0 0 0 0 0 0 0 0 0 0 0 0 0 0 0 0 0 0 0 0 0 0 0 0 0 0 0 0 0 0 0 0 0 0 0 0 0 0 0 0 0 0 0 0 0 0 0 0 0 0 0 0 0 0 0 0 0 0 0 0 0 0 0 0 0 0 0 0 0 0 0 0 0 0 0 0 0 0 0 0 0 0 0 0 0 0 0 0 0 0 0 0 545 521 493 484 457 435 438 435 440 440 443 443 448 446 457 451 454 446 443 440 440 438 438 432 430 418 404 0 0 0 0 0
    0 0 0 0 0 0 0 0 0 0 0 0 0 0 0 0 0 0 0 0 0 0 0 0 0 0 0 0 0 0 0 0 0 0 0 0 0 0 0 0 0 0 0 0 0 0 0 0 0 0 0 0 0 0 0 0 0 0 0 0 0 0 0 0 0 0 0 0 0 0 0 0 0 0 0 0 0 0 0 0 0 0 0 0 0 0 0 0 0 0 0 0 0 0 0 0 0 0 0 0 0 0 0 0 0 0 0 0 0 0 0 0 0 0 0 0 0 0 0 0 0 0 0 0 0 0 0 0 0 0 0 0 0 0 0 0 0 0 0 0 0 0 0 0 0 0 0 0 0 0 0 0 0 0 0 0 0 0 0 0 0 0 0 0 0 0 0 0 0 0 0 0 0 0 0 0 0 0 0 0 0 0 0 0 0 0 0 0 0 0 0 0 0 0 0 0 0 0 0 0 0 0 0 0 0 0 0 0 0 0 0 0 0 0 0 0 0 0 0 0 0 0 0 0 0 0 0 0 0 0 0 0 0 0 0 0 0 0 0 0 0 0 0 0 0 0 0 0 0 0 0 0 0 0 0 0 0 0 0 0 0 0 0 0 0 0 0 0 0 0 0 0 0 0 0 0 0 0 0 0 0 0 0 0 0 0 0 0 525 507 490 487 474 443 443 438 446 443 446 446 451 448 454 448 454 446 443 440 443 438 438 435 430 415 402 0 0 0 0 0
    0 0 0 0 0 0 0 0 0 0 0 0 0 0 0 0 0 0 0 0 0 0 0 0 0 0 0 0 0 0 0 0 0 0 0 0 0 0 0 0 0 0 0 0 0 0 0 0 0 0 0 0 0 0 0 0 0 0 0 0 0 0 0 0 0 0 0 0 0 0 0 0 0 0 0 0 0 0 0 0 0 0 0 0 0 0 0 0 0 0 0 0 0 0 0 0 0 0 0 0 0 0 0 0 0 0 0 0 0 0 0 0 0 0 0 0 0 0 0 0 0 0 0 0 0 0 0 0 0 0 0 0 0 0 0 0 0 0 0 0 0 0 0 0 0 0 0 0 0 0 0 0 0 0 0 0 0 0 0 0 0 0 0 0 0 0 0 0 0 0 0 0 0 0 0 0 0 0 0 0 0 0 0 0 0 0 0 0 0 0 0 0 0 0 0 0 0 0 0 0 0 0 0 0 0 0 0 0 0 0 0 0 0 0 0 0 0 0 0 0 0 0 0 0 0 0 0 0 0 0 0 0 0 0 0 0 0 0 0 0 0 0 0 0 0 0 0 0 0 0 0 0 0 0 0 0 0 0 0 0 0 0 0 0 0 0 0 0 0 0 0 0 0 0 0 0 0 0 0 0 0 0 0 0 0 0 0 0 493 487 474 468 448 438 432 430 440 435 440 440 448 448 454 454 459 451 448 446 446 443 438 435 427 413 402 0 0 0 0 0
    0 0 0 0 0 0 0 0 0 0 0 0 0 0 0 0 0 0 0 0 0 0 0 0 0 0 0 0 0 0 0 0 0 0 0 0 0 0 0 0 0 0 0 0 0 0 0 0 0 0 0 0 0 0 0 0 0 0 0 0 0 0 0 0 0 0 0 0 0 0 0 0 0 0 0 0 0 0 0 0 0 0 0 0 0 0 0 0 0 0 0 0 0 0 0 0 0 0 0 0 0 0 0 0 0 0 0 0 0 0 0 0 0 0 0 0 0 0 0 0 0 0 0 0 0 0 0 0 0 0 0 0 0 0 0 0 0 0 0 0 0 0 0 0 0 0 0 0 0 0 0 0 0 0 0 0 0 0 0 0 0 0 0 0 0 0 0 0 0 0 0 0 0 0 0 0 0 0 0 0 0 0 0 0 0 0 0 0 0 0 0 0 0 0 0 0 0 0 0 0 0 0 0 0 0 0 0 0 0 0 0 0 0 0 0 0 0 0 0 0 0 0 0 0 0 0 0 0 0 0 0 0 0 0 0 0 0 0 0 0 0 0 0 0 0 0 0 0 0 0 0 0 0 0 0 0 0 0 0 0 0 0 0 0 0 0 0 0 0 0 0 0 0 0 0 0 0 0 0 0 0 0 0 0 0 0 0 0 0 0 0 0 432 427 422 422 430 425 432 432 440 440 448 448 451 446 446 440 443 440 438 432 425 411 399 0 0 0 0 0
    0 0 0 0 0 0 0 0 0 0 0 0 0 0 0 0 0 0 0 0 0 0 0 0 0 0 0 0 0 0 0 0 0 0 0 0 0 0 0 0 0 0 0 0 0 0 0 0 0 0 0 0 0 0 0 0 0 0 0 0 0 0 0 0 0 0 0 0 0 0 0 0 0 0 0 0 0 0 0 0 0 0 0 0 0 0 0 0 0 0 0 0 0 0 0 0 0 0 0 0 0 0 0 0 0 0 0 0 0 0 0 0 0 0 0 0 0 0 0 371 0 360 0 0 360 0 0 360 359 0 0 0 0 0 0 0 0 0 0 0 0 0 0 0 0 0 0 0 0 0 0 0 0 0 0 0 0 0 0 0 0 0 0 0 0 0 0 0 0 0 0 0 0 0 0 369 367 367 366 364 362 364 366 366 0 0 0 0 0 0 0 0 0 0 0 0 0 0 0 0 0 0 0 0 0 0 0 0 0 0 0 0 0 0 0 0 0 0 0 0 0 0 0 0 0 0 0 0 0 0 0 0 0 0 0 0 0 0 0 0 0 0 0 0 0 0 0 0 0 0 0 0 0 0 110 0 0 0 0 0 0 0 0 0 0 0 0 0 0 0 0 0 0 0 0 0 389 0 0 0 0 0 0 0 0 0 0 0 0 0 422 0 411 406 408 408 415 415 418 420 427 432 440 440 446 440 443 443 446 440 435 427 420 406 395 0 0 0 0 0
    0 0 0 0 0 0 0 0 0 0 0 0 0 0 0 0 0 0 0 0 0 0 0 0 0 0 0 0 0 0 0 0 0 0 0 0 0 0 0 0 0 0 0 0 0 0 0 0 0 0 0 0 0 0 0 0 0 0 0 0 0 0 0 0 0 0 0 0 0 0 0 0 0 373 375 377 377 373 373 375 377 375 0 0 369 371 371 0 0 360 360 360 360 0 0 0 360 360 362 0 0 0 0 0 0 0 0 0 0 0 0 0 0 0 0 0 0 149 0 0 0 360 0 0 0 0 0 362 360 362 362 362 0 0 0 362 0 0 0 0 0 0 0 0 0 0 0 0 0 0 0 0 681 0 0 0 0 0 0 0 0 0 0 0 0 0 379 375 373 377 377 381 375 371 371 369 367 367 364 362 360 362 364 364 0 0 0 0 0 0 0 0 0 0 0 0 0 0 0 0 0 0 0 0 0 0 0 0 0 0 0 0 0 0 0 0 0 0 0 0 0 0 0 367 0 0 0 0 0 360 0 359 0 0 0 0 0 0 0 0 0 0 0 0 0 76 0 0 0 0 0 0 0 0 0 0 366 369 371 381 383 381 0 385 0 0 0 0 0 0 0 0 0 0 0 389 383 381 0 0 0 0 0 5256 4088 0 0 0 0 0 0 391 397 397 402 399 404 406 411 413 415 413 427 432 443 435 438 440 440 440 430 418 411 402 391 0 0 0 0 0
    0 0 0 0 0 0 0 0 0 0 0 0 0 0 0 0 0 0 0 0 0 0 0 0 0 0 0 0 0 0 0 0 0 0 0 0 0 0 0 0 0 0 0 0 0 0 0 0 0 0 0 0 0 0 0 0 0 0 0 0 0 0 0 0 0 0 0 0 0 0 185 0 373 371 373 375 375 371 371 373 375 371 0 0 367 367 369 369 364 360 360 359 359 0 360 360 359 360 360 0 0 0 0 0 0 0 0 0 0 0 0 0 0 0 0 0 0 0 0 371 0 362 360 362 360 359 362 362 360 362 364 364 0 0 0 0 0 0 0 0 0 0 0 0 0 0 0 0 0 0 373 0 0 0 0 0 0 0 413 427 0 0 0 0 0 362 367 366 369 371 373 373 371 369 369 0 364 366 364 362 362 364 364 364 0 0 0 0 0 0 0 0 0 0 0 0 93 0 94 0 0 0 0 0 0 0 0 0 0 0 0 0 0 397 0 0 391 0 0 0 0 0 371 369 0 0 0 0 364 362 0 0 114 0 0 0 0 0 137 138 0 0 0 0 0 76 0 0 0 0 0 0 0 0 369 369 367 369 371 379 381 381 0 0 0 0 0 0 0 0 0 0 0 0 0 385 381 379 381 0 0 0 0 0 0 0 0 0 0 385 393 389 395 393 397 395 397 402 404 0 406 404 406 402 0 420 420 430 432 432 411 404 404 399 389 0 0 0 0 0
    0 0 0 0 0 0 0 0 0 0 0 0 0 0 0 0 0 0 0 0 0 0 0 0 0 0 0 0 0 0 0 0 0 0 0 0 0 0 0 0 0 0 0 0 0 0 0 0 0 0 0 0 0 0 0 0 0 0 0 0 0 0 0 0 0 0 0 0 0 0 0 369 371 369 371 373 373 371 371 371 373 369 0 0 367 366 367 366 364 359 359 357 357 0 359 360 359 360 362 362 369 0 0 0 0 0 0 75 0 0 0 0 0 0 0 0 0 0 0 373 367 362 360 362 360 359 360 360 360 362 362 362 360 0 0 0 0 0 0 0 0 0 0 0 0 0 0 375 375 0 373 377 377 0 0 0 0 0 408 422 0 0 0 352 364 362 366 366 367 369 369 371 369 367 367 0 0 366 364 364 364 366 367 367 379 395 391 393 0 0 0 0 0 379 0 0 0 0 0 0 0 4906 0 0 0 0 0 0 0 0 0 0 0 393 0 391 387 0 0 385 381 0 371 369 367 367 0 367 366 364 364 0 114 170 0 0 0 0 0 138 0 0 0 0 0 0 0 0 0 0 0 0 0 367 369 367 367 369 371 375 379 379 381 383 385 385 381 381 0 0 0 0 0 0 379 385 379 377 381 387 0 0 0 0 0 0 0 0 385 377 387 385 387 385 387 387 391 393 0 0 0 0 397 395 408 402 395 402 397 415 402 395 397 397 387 0 0 0 0 0
    0 0 0 0 0 0 0 0 0 0 0 0 0 0 0 0 0 0 0 0 0 0 0 0 0 0 0 0 0 0 0 0 0 0 0 0 0 0 0 0 0 0 0 0 0 0 0 0 0 0 0 0 0 0 0 0 0 0 0 0 0 0 0 0 0 0 0 0 0 0 0 0 371 369 371 373 373 371 369 371 371 369 0 0 366 366 366 366 364 360 360 359 359 359 360 360 360 362 364 366 371 373 0 0 0 0 0 0 0 0 0 0 0 0 0 0 0 0 0 373 369 362 360 362 360 359 360 360 360 362 364 364 360 0 364 364 360 0 0 0 0 0 0 0 0 0 369 373 373 375 375 377 377 389 389 0 393 0 402 406 0 0 360 357 364 364 366 366 367 369 369 369 369 367 367 0 0 366 366 366 366 367 369 371 383 391 391 393 397 397 397 389 383 379 0 0 0 0 0 0 0 0 0 0 0 0 375 381 383 383 0 0 389 391 385 389 381 0 0 387 383 369 371 367 367 367 367 367 366 366 366 0 114 169 0 0 0 0 0 0 0 0 0 0 0 0 0 0 0 0 0 0 366 369 369 369 367 369 371 375 377 379 379 381 385 385 379 381 381 0 0 0 377 379 377 383 379 377 381 387 389 0 0 0 0 0 0 0 381 375 381 381 381 377 377 381 387 385 389 389 0 389 393 393 397 397 395 393 391 397 395 389 391 391 383 0 0 0 0 0
    0 0 0 0 0 0 0 0 0 0 0 0 0 0 0 0 0 0 0 0 0 0 0 0 0 0 0 0 0 0 0 0 0 0 0 0 0 0 0 0 0 0 0 0 0 0 0 0 0 0 0 0 0 0 0 0 0 0 0 0 0 0 0 0 0 0 0 0 0 0 0 367 369 369 371 373 373 371 369 371 369 369 369 369 367 367 367 367 364 362 362 360 360 359 360 362 360 362 364 0 371 0 0 0 0 387 391 0 375 0 369 0 0 0 0 373 373 373 375 373 371 364 364 364 360 362 362 362 362 362 364 364 362 364 364 364 360 0 0 0 359 360 0 0 0 0 0 373 373 375 375 377 375 387 0 0 389 393 397 402 383 0 364 362 366 364 366 366 367 369 369 369 369 367 366 0 0 366 366 366 367 369 371 375 385 391 391 393 397 399 397 391 383 377 0 0 0 0 0 0 0 0 0 0 1565 0 0 377 379 377 0 0 385 387 379 385 379 0 391 387 385 371 371 367 367 367 367 369 367 366 0 0 114 0 364 0 0 0 0 0 0 0 0 0 0 0 360 0 0 0 0 0 366 369 371 369 369 371 371 375 377 379 379 381 383 383 381 379 379 375 0 377 375 377 377 381 379 379 383 389 391 0 0 0 0 0 0 391 383 377 381 379 379 373 373 377 383 383 383 385 381 381 389 389 393 393 391 391 387 389 389 379 383 385 379 0 0 0 0 0
    0 0 0 0 0 0 0 0 0 0 0 0 0 0 0 0 0 0 0 0 0 0 0 0 0 0 0 0 0 0 0 0 0 0 0 0 0 0 0 0 0 0 0 0 0 0 0 0 0 0 0 0 0 0 0 0 0 0 0 0 0 0 0 0 0 0 0 0 0 0 369 369 371 369 371 373 373 371 369 369 369 369 369 369 367 367 367 367 366 364 362 362 360 360 360 362 360 362 364 0 369 0 0 0 371 377 383 373 371 367 367 0 0 0 373 373 373 373 375 375 373 366 366 366 362 364 362 364 364 364 366 366 364 366 364 366 362 0 0 0 360 360 0 0 0 0 0 373 373 375 375 377 375 385 0 395 389 391 391 0 379 371 366 364 364 364 366 366 367 367 367 367 367 367 366 0 0 367 366 367 367 369 371 375 383 387 387 389 395 399 393 389 381 377 0 0 0 0 0 0 0 0 0 0 0 0 0 375 377 375 377 379 381 383 377 381 377 379 387 385 385 371 371 367 367 367 367 367 367 366 0 0 0 0 0 0 0 0 0 0 0 0 0 0 0 359 362 0 0 0 0 0 0 369 371 369 369 371 371 375 377 379 377 379 383 381 379 379 379 373 371 375 373 375 375 379 379 379 383 387 389 395 395 393 395 395 393 385 379 373 375 373 375 371 369 373 377 375 375 379 377 375 383 385 387 387 385 387 381 383 383 373 375 377 375 0 0 0 0 0
    0 0 0 0 0 0 0 0 0 0 0 0 0 0 0 0 0 0 0 0 0 0 0 0 0 0 0 0 0 0 0 0 0 0 0 0 0 0 0 0 0 0 0 0 0 0 0 0 0 0 0 0 0 0 0 0 0 0 0 0 0 0 0 0 0 0 0 0 0 0 369 369 371 371 371 373 373 371 371 371 369 369 367 367 367 367 367 367 364 364 362 362 360 360 360 360 360 362 364 366 367 0 371 369 371 375 379 371 371 367 367 369 371 371 371 371 371 373 373 375 373 367 367 366 364 366 364 364 364 366 366 366 364 366 364 366 364 0 0 0 360 362 0 0 0 0 0 371 373 375 375 377 375 383 383 391 385 383 383 383 375 369 366 364 364 364 364 366 367 367 367 367 367 367 366 0 0 367 366 367 367 369 369 373 381 383 381 383 389 397 389 385 379 377 375 0 0 0 0 0 0 0 0 0 0 0 371 373 375 373 373 375 379 379 375 375 375 375 385 383 383 371 371 367 367 367 367 367 367 367 0 0 0 0 367 0 0 0 0 0 0 0 0 0 0 359 360 0 0 0 364 0 366 367 371 371 371 371 371 373 375 377 375 375 377 377 377 377 377 373 369 373 371 373 373 375 375 375 379 383 387 395 395 391 393 391 383 377 375 371 371 367 371 367 366 369 371 373 371 375 375 373 377 381 381 377 375 377 373 373 375 371 373 375 373 0 0 0 0 0
    0 0 0 0 0 0 0 0 0 0 0 0 0 0 0 0 0 0 0 0 0 0 0 0 0 0 0 0 0 0 0 0 0 0 0 0 0 0 0 0 0 0 0 0 0 0 0 0 0 0 0 0 0 0 0 0 0 0 0 0 0 0 0 0 0 0 0 0 0 0 0 369 369 371 371 371 371 369 369 369 369 367 366 367 366 366 366 366 362 362 360 362 360 359 360 360 360 362 366 367 369 369 371 369 371 373 377 371 371 369 369 369 373 371 373 373 371 373 375 375 373 369 369 367 366 367 366 366 366 366 366 366 364 366 364 366 364 0 0 0 362 0 0 0 0 0 0 371 371 373 373 375 373 379 381 385 379 379 379 379 375 369 366 364 364 364 364 366 367 367 367 369 369 367 367 0 367 367 367 367 367 369 369 373 379 381 381 379 389 397 387 383 379 377 375 377 0 373 371 0 0 0 0 0 0 0 371 371 373 371 0 0 373 373 369 369 369 0 379 381 375 367 369 367 367 367 367 367 367 367 367 0 0 0 371 371 0 0 0 0 0 0 367 0 360 357 360 362 364 362 362 366 366 369 371 373 373 373 371 373 373 375 373 373 375 375 377 377 379 371 369 371 371 371 371 373 373 375 379 383 389 402 402 395 393 391 377 373 373 371 371 369 375 369 367 369 373 373 373 375 373 371 375 379 377 375 371 371 371 369 371 371 373 373 371 0 0 0 0 0
    0 0 0 0 0 0 0 0 0 0 0 0 0 0 0 0 0 0 0 0 0 0 0 0 0 0 0 0 0 0 0 0 0 0 0 0 0 0 0 0 0 0 0 0 0 0 0 0 0 0 0 0 0 0 0 0 0 0 0 0 0 0 0 0 0 0 0 0 0 0 0 367 367 369 367 367 367 367 367 367 367 366 364 366 364 364 364 362 360 360 359 360 359 359 360 360 360 362 364 367 367 367 369 367 369 369 371 367 369 367 369 371 373 371 373 375 373 373 375 375 373 369 369 367 367 367 366 366 367 367 367 367 366 366 366 366 364 0 0 0 364 0 0 0 0 0 0 371 371 373 371 373 373 375 377 375 375 373 375 373 373 369 367 362 364 366 366 366 367 367 367 367 369 367 367 367 367 367 367 369 369 369 371 373 377 379 379 377 387 393 387 383 377 375 373 375 371 0 369 0 0 0 0 0 0 371 369 369 369 367 0 0 369 0 0 364 0 0 0 381 373 364 367 366 0 367 367 367 367 369 367 0 0 0 373 375 0 0 0 375 375 0 0 0 364 359 359 360 362 0 364 366 366 369 371 373 373 373 371 371 371 373 371 373 373 375 375 377 379 373 367 369 369 371 369 373 373 373 377 379 387 397 397 389 383 381 373 373 373 373 373 375 379 373 369 369 373 373 373 373 371 371 373 377 377 375 371 371 369 369 369 369 375 375 375 0 0 0 0 0
    0 0 0 0 0 0 0 0 0 0 0 0 0 0 0 0 0 0 0 0 0 0 0 0 0 0 0 0 0 0 0 0 0 0 0 0 0 0 0 0 0 0 0 0 0 0 0 0 0 0 0 0 0 0 0 0 0 0 0 0 0 0 0 0 0 0 0 0 0 0 0 367 366 367 366 366 366 366 367 366 366 366 364 364 364 364 364 360 360 362 359 362 360 359 360 360 362 362 0 0 366 367 367 366 366 366 367 366 367 367 369 371 375 373 375 375 373 375 375 377 373 371 371 369 367 369 367 367 369 369 369 367 367 367 366 366 364 0 0 0 364 366 0 0 0 367 369 371 371 373 371 373 371 373 375 373 373 371 373 371 373 367 367 362 364 366 366 366 367 367 367 367 367 367 366 367 367 367 367 369 371 371 371 375 377 375 375 375 385 389 383 377 375 371 371 371 369 0 0 0 0 0 0 367 366 369 369 369 369 367 366 366 367 366 364 0 0 0 0 375 369 364 366 364 366 367 367 367 367 369 369 369 371 379 375 377 377 377 375 377 377 0 0 0 0 360 360 360 362 0 366 367 367 369 371 371 371 373 369 0 369 371 369 0 373 375 375 377 379 375 369 371 369 369 369 373 373 373 377 379 389 397 395 389 383 381 375 375 375 373 375 377 383 373 369 0 371 371 373 373 371 371 375 379 379 375 371 371 369 369 367 369 377 379 377 0 0 0 0 0
    0 0 0 0 0 0 0 0 0 0 0 0 0 0 0 0 0 0 0 0 0 0 0 0 0 0 0 0 0 0 0 0 0 0 0 0 0 0 0 0 0 0 0 0 0 0 0 0 0 0 0 0 0 0 0 0 0 0 0 0 0 0 0 0 0 0 0 0 0 0 0 367 0 0 366 364 364 364 366 366 366 366 364 364 364 364 364 362 362 364 362 364 362 362 364 364 364 364 0 0 366 367 367 366 366 366 367 366 367 366 367 371 373 371 373 375 373 373 375 377 373 371 373 371 367 371 369 369 371 371 371 369 367 367 367 366 364 0 0 0 364 366 366 0 367 367 367 369 371 371 371 371 371 373 373 371 373 373 373 373 373 369 369 364 366 367 366 367 369 367 367 367 367 367 366 367 369 369 369 371 371 371 373 375 375 373 373 373 377 381 377 373 373 369 369 371 0 0 0 0 0 0 0 0 366 371 369 369 369 369 367 367 369 367 0 0 0 0 0 0 369 364 366 364 364 367 367 369 369 369 369 369 371 379 375 377 377 377 377 377 379 377 375 371 369 364 364 362 364 366 367 369 369 371 371 371 371 373 369 0 369 371 369 371 371 373 373 375 377 375 369 369 369 369 369 373 373 373 377 379 391 395 395 389 381 379 375 373 375 373 371 373 379 373 367 364 369 369 371 373 371 371 375 381 381 377 371 371 369 367 367 369 377 379 379 0 0 0 0 0
    0 0 0 0 0 0 0 0 0 0 0 0 0 0 0 0 0 0 0 0 0 0 0 0 0 0 0 0 0 0 0 0 0 0 0 0 0 0 0 0 0 0 0 0 0 0 0 0 0 0 0 0 0 0 0 0 0 0 0 0 0 0 0 0 0 0 0 0 0 0 0 369 0 0 366 366 366 364 366 366 366 366 364 364 364 366 366 364 362 364 364 367 367 367 366 366 367 367 367 0 0 367 367 366 367 366 367 366 367 367 369 371 373 371 373 373 373 373 375 377 373 373 375 375 371 373 371 371 373 373 373 371 369 369 369 366 366 0 0 0 364 366 366 366 366 367 0 369 369 371 371 371 371 371 373 373 373 375 375 373 375 371 371 367 367 367 366 367 369 369 367 367 367 367 367 369 369 369 369 371 371 371 373 375 375 371 371 371 373 377 375 371 371 367 369 0 0 0 0 0 0 0 0 0 0 367 367 367 367 367 366 366 367 366 0 0 0 0 0 0 371 366 369 366 366 369 369 369 369 369 369 371 371 381 377 379 379 379 381 379 381 381 377 373 371 366 364 364 364 366 367 369 369 371 371 373 371 371 367 0 369 0 0 371 371 373 373 375 377 375 373 371 369 369 371 373 375 373 377 377 389 391 391 385 379 377 375 373 373 371 371 371 379 373 367 362 367 369 369 373 371 371 375 381 381 377 371 0 367 367 366 369 377 379 379 0 0 0 0 0
    0 0 0 0 0 0 0 0 0 0 0 0 0 0 0 0 0 0 0 0 0 0 0 0 0 0 0 0 0 0 0 0 0 0 0 0 0 0 0 0 0 0 0 0 0 0 0 0 0 0 0 0 0 0 0 0 0 0 0 0 0 0 0 0 0 0 0 0 0 0 371 369 369 0 367 366 366 364 366 366 366 366 364 364 364 364 366 362 362 364 364 369 369 369 367 367 367 367 369 369 0 367 367 366 367 366 367 367 369 369 369 373 373 371 373 375 373 373 377 379 375 375 379 377 375 373 373 373 373 375 375 371 369 369 369 367 367 0 0 366 366 366 366 366 0 367 0 369 367 369 371 369 369 371 371 371 373 375 375 373 375 373 373 369 367 369 366 367 369 369 367 369 369 367 367 369 371 369 371 371 371 371 373 375 375 373 371 369 371 375 375 371 369 0 369 0 0 0 0 0 0 0 0 364 0 366 367 366 364 366 364 362 366 364 0 0 0 0 0 377 375 366 371 366 364 369 369 369 369 369 369 371 373 383 377 379 379 381 381 379 381 381 379 373 371 366 364 362 364 366 367 369 369 371 371 373 371 371 367 0 0 0 0 369 369 371 371 373 375 375 375 371 371 371 371 373 375 375 377 377 385 385 385 375 373 371 373 369 373 371 371 369 385 375 369 362 366 0 369 371 371 371 373 379 379 377 369 0 0 366 364 369 377 379 379 0 0 0 0 0
    0 0 0 0 0 0 0 0 0 0 0 0 0 0 0 0 0 0 0 0 0 0 0 0 0 0 0 0 0 0 0 0 0 0 0 0 0 0 0 0 0 0 0 0 0 0 0 0 0 0 0 0 0 0 0 0 0 0 0 0 0 0 0 0 0 0 0 0 0 0 371 371 369 369 367 366 366 364 366 366 366 366 362 364 364 364 364 362 360 362 362 367 369 369 367 367 367 367 367 369 0 367 367 366 367 367 0 0 371 371 369 373 373 371 373 373 375 375 379 381 377 377 379 377 377 373 373 373 371 373 375 371 371 371 371 369 367 0 0 367 366 367 367 367 0 367 367 367 367 369 369 367 369 369 371 369 373 373 373 373 375 373 371 369 367 369 366 367 369 369 369 369 369 369 367 369 371 371 371 373 371 371 373 375 373 371 371 369 371 375 373 371 369 367 367 367 0 364 364 364 362 364 367 366 0 366 367 366 364 366 364 362 0 366 0 0 369 369 375 377 375 367 371 367 364 369 369 369 369 369 369 371 373 381 377 379 379 379 381 379 379 379 377 373 0 366 364 362 366 367 367 369 369 371 0 371 371 369 366 0 0 0 367 369 369 371 371 373 375 377 379 371 373 371 371 373 375 373 375 375 381 375 377 369 366 366 367 366 367 367 366 364 375 373 369 362 364 367 371 373 373 373 375 381 381 379 369 0 0 364 362 369 377 379 379 0 0 0 0 0
    0 0 0 0 0 0 0 0 0 0 0 0 0 0 0 0 0 0 0 0 0 0 0 0 0 0 0 0 0 0 0 0 0 0 0 0 0 0 0 0 0 0 0 0 0 0 0 0 0 0 0 0 0 0 0 0 0 0 0 0 0 0 0 0 0 0 0 0 0 0 371 369 369 369 366 366 366 364 366 366 367 366 364 364 364 362 366 362 359 360 360 366 369 369 369 367 369 367 369 369 369 367 367 366 369 367 0 367 369 369 369 371 373 371 373 373 375 375 379 381 377 377 381 379 379 375 375 373 373 375 375 371 371 371 375 371 369 371 0 369 367 367 367 367 0 367 367 367 366 367 366 366 367 367 369 369 371 371 373 371 373 371 371 369 369 369 367 367 369 369 369 371 371 369 369 371 373 371 371 373 371 371 373 377 375 373 373 371 375 377 375 371 369 366 366 366 0 364 0 0 364 367 369 367 0 366 366 364 362 364 362 362 366 366 369 369 371 371 377 379 375 369 371 367 367 369 369 369 369 369 369 371 373 379 375 377 377 377 377 377 379 379 375 373 0 0 362 360 364 366 366 367 367 369 0 0 369 0 364 0 0 0 367 369 369 371 371 375 377 379 383 371 373 371 371 373 373 373 373 373 377 371 373 366 364 364 366 364 366 364 364 362 371 371 367 362 364 367 371 373 373 375 375 385 383 385 373 371 369 367 366 371 379 383 383 0 0 0 0 0
    0 0 0 0 0 0 0 0 0 0 0 0 0 0 0 0 0 0 0 0 0 0 0 0 0 0 0 0 0 0 0 0 0 0 0 0 0 0 0 0 0 0 0 0 0 0 0 0 0 0 0 0 0 0 0 0 0 0 0 0 0 0 0 0 0 0 0 0 0 0 371 369 369 367 366 366 366 364 366 366 367 366 366 366 366 364 366 364 360 362 364 367 371 369 369 367 369 367 369 369 369 367 367 366 369 366 0 369 369 369 369 371 373 371 373 375 375 377 381 383 379 379 381 381 379 375 375 375 373 375 377 373 371 373 377 373 371 373 369 369 369 369 369 367 367 367 367 0 366 366 366 364 366 367 367 367 369 371 371 371 373 371 373 369 369 369 367 367 369 369 369 369 371 371 369 371 373 373 373 373 371 373 375 377 375 375 373 373 375 377 373 369 0 0 0 0 0 0 0 0 364 371 371 369 369 366 364 364 360 362 360 362 366 367 369 371 371 371 375 377 373 371 371 367 367 369 369 369 369 369 369 371 373 379 373 375 375 375 377 375 0 377 373 371 0 0 362 360 364 364 364 367 366 369 0 369 367 0 366 0 0 0 367 371 371 373 373 375 377 377 381 371 373 371 371 371 371 371 371 371 375 369 371 364 364 364 364 360 360 362 360 359 369 369 367 362 364 367 371 373 375 375 375 385 383 385 375 371 371 369 367 371 379 383 385 0 0 0 0 0
    0 0 0 0 0 0 0 0 0 0 0 0 0 0 0 0 0 0 0 0 0 0 0 0 0 0 0 0 0 0 0 0 0 0 0 0 0 0 0 0 0 0 0 0 0 0 0 0 0 0 0 0 0 0 0 0 0 0 0 0 0 0 0 0 0 0 0 0 0 373 371 369 369 367 366 366 366 366 366 366 367 366 366 367 366 364 367 366 366 366 367 369 371 369 369 367 369 367 367 367 367 366 366 366 369 366 0 367 369 369 367 371 371 371 375 375 375 377 379 383 379 377 379 379 379 375 375 375 373 375 377 373 373 375 381 375 373 373 371 371 371 371 369 369 369 369 371 369 369 367 367 364 0 0 367 367 367 369 369 371 371 371 373 371 369 369 367 367 369 369 369 369 369 369 369 371 373 373 373 373 373 373 375 377 375 375 373 373 371 373 369 366 362 362 362 364 0 0 0 0 364 375 373 371 371 366 364 364 362 364 362 364 369 369 371 373 373 373 377 377 375 371 371 367 367 369 369 369 369 369 369 369 371 381 373 375 373 373 375 373 375 377 371 371 0 0 0 362 367 366 366 367 366 367 0 0 366 0 364 0 0 0 369 371 371 373 373 375 377 375 377 371 373 371 373 371 369 369 371 371 375 369 369 362 362 362 362 359 357 359 357 357 364 366 366 362 362 366 371 375 375 373 375 387 385 387 379 375 373 371 369 373 379 383 385 0 0 0 0 0
    0 0 0 0 0 0 0 0 0 0 0 0 0 0 0 0 0 0 0 0 0 0 0 0 0 0 0 0 0 0 0 0 0 0 0 0 0 0 0 0 0 0 0 0 0 0 0 0 0 0 0 0 0 0 0 0 0 0 0 0 0 0 0 0 0 0 0 0 0 373 371 371 369 369 366 367 367 366 366 366 367 367 367 369 366 366 367 367 367 367 367 369 371 369 369 367 369 367 369 367 367 367 367 367 373 367 0 0 375 371 367 371 371 373 375 373 375 375 379 381 379 377 377 377 377 373 375 373 371 373 375 373 373 375 383 375 373 375 373 373 373 371 371 369 371 373 373 373 373 373 371 369 369 0 369 367 367 369 369 371 371 371 371 371 369 369 367 366 369 369 367 369 369 371 369 369 373 371 373 373 371 373 373 377 377 375 371 371 371 373 367 364 362 362 360 364 0 0 0 0 364 375 373 371 371 366 366 366 364 366 364 364 369 371 375 375 375 375 377 377 375 373 371 369 367 369 369 369 369 371 369 371 373 381 373 375 373 373 371 371 373 373 367 369 0 0 0 0 369 367 366 367 364 0 0 0 362 0 362 0 367 369 369 371 371 373 373 375 377 375 377 371 373 371 375 371 371 371 373 373 379 369 371 362 362 362 362 355 353 355 355 355 362 364 364 362 360 364 369 373 375 373 375 383 385 387 385 381 377 373 371 373 381 383 385 0 0 0 0 0
    0 0 0 0 0 0 0 0 0 0 0 0 0 0 0 0 0 0 0 0 0 0 0 0 0 0 0 0 0 0 0 0 0 0 0 0 0 0 0 0 0 0 0 0 0 0 0 0 0 0 0 0 0 0 0 0 0 0 0 0 0 0 0 0 0 0 0 0 0 373 371 371 369 369 366 369 367 367 367 367 369 369 369 371 366 366 369 369 369 367 369 369 371 369 369 367 371 369 369 369 369 367 371 371 379 371 0 0 379 373 369 373 371 375 377 373 375 375 379 379 377 377 377 375 375 373 373 371 371 373 375 373 373 377 385 377 377 377 377 375 375 373 371 371 373 373 375 375 373 373 371 0 369 0 369 0 0 0 0 371 371 373 371 371 367 367 366 366 367 367 367 369 369 371 369 369 373 371 371 373 371 373 373 377 377 375 373 371 371 373 367 366 362 362 362 364 366 366 364 0 362 0 371 369 369 364 364 364 362 364 364 364 369 371 375 377 375 377 377 377 375 373 371 367 367 369 369 369 369 371 371 371 375 381 373 373 371 371 369 367 0 369 366 367 0 0 0 0 373 369 366 367 362 0 0 360 360 357 359 357 0 0 0 371 371 373 375 375 379 377 379 373 375 373 375 373 371 371 373 373 379 371 371 362 364 364 362 357 355 357 357 357 364 367 367 366 364 366 369 373 373 373 371 377 379 383 385 383 377 373 371 373 381 383 383 0 0 0 0 0
    0 0 0 0 0 0 0 0 0 0 0 0 0 0 0 0 0 0 0 0 0 0 0 0 0 0 0 0 0 0 0 0 0 0 0 0 0 0 0 0 0 0 0 0 0 0 0 0 0 0 0 0 0 0 0 0 0 0 0 0 0 0 0 0 0 0 0 0 0 371 371 369 369 369 367 369 369 369 369 369 369 369 369 371 366 366 369 367 367 366 369 369 371 369 369 0 371 369 371 369 369 367 371 371 375 0 0 0 371 371 367 373 371 375 379 375 377 377 379 379 377 377 377 375 375 373 373 371 369 371 375 371 371 377 385 379 377 377 377 373 375 375 373 371 373 375 375 373 373 371 369 0 0 0 0 0 0 0 0 369 369 371 369 369 367 367 366 366 367 367 367 367 369 369 369 369 371 371 371 371 371 373 373 377 379 377 375 375 373 375 369 367 364 364 364 366 367 366 0 0 364 369 369 367 367 362 364 364 360 362 362 362 367 371 375 375 375 377 377 375 373 371 369 367 367 369 369 369 369 371 371 371 373 379 373 371 369 369 367 366 0 0 362 364 0 0 0 0 371 367 0 0 0 0 0 0 0 0 0 0 0 0 0 371 371 373 375 377 381 377 379 373 375 373 375 373 371 373 375 373 0 371 373 364 366 366 364 360 359 360 360 360 367 373 373 371 369 369 371 375 373 371 369 373 375 381 385 385 381 377 373 375 381 383 383 0 0 0 0 0</data></depth>
</opencv_storage>
