<?xml version="1.0"?>
<opencv_storage>
<gps_time_stamp>20893</gps_time_stamp>
<gps_x>-1.9369570016860962e+000</gps_x>
<gps_y>2.0355355739593506e-001</gps_y>
<gps_z>-4.4571474194526672e-002</gps_z>
<image_time_stamp>8865</image_time_stamp>
<depth type_id="opencv-matrix">
  <rows>91</rows>
  <cols>320</cols>
  <dt>s</dt>
  <data>
    0 0 0 0 0 0 0 0 0 0 0 0 0 0 0 0 0 0 0 0 0 0 0 0 0 0 0 0 0 0 0 0 0 0 0 0 0 0 0 0 0 0 0 0 0 0 0 0 0 0 0 0 0 0 0 0 0 0 0 0 0 0 0 0 0 0 0 0 0 504 504 507 514 518 514 521 504 500 500 504 500 500 500 500 497 507 504 507 500 500 504 500 500 507 497 507 500 507 507 511 514 514 511 514 514 521 518 521 521 521 525 525 521 521 518 518 514 514 511 518 504 514 518 518 511 514 514 518 511 521 521 507 514 521 514 514 514 504 507 507 514 514 511 507 518 514 521 518 518 518 514 521 525 525 525 521 514 525 518 525 525 521 518 521 521 529 525 529 525 521 525 525 521 518 514 511 511 511 514 504 521 514 529 529 529 529 525 525 525 525 518 521 521 525 525 529 529 529 525 533 529 0 521 518 507 514 518 511 511 511 514 511 507 511 511 514 514 529 525 529 529 533 533 533 533 529 529 533 529 533 529 525 529 533 537 537 537 537 541 549 553 553 549 545 545 545 541 541 541 537 541 541 537 537 537 537 537 537 537 533 525 525 504 504 500 497 493 497 504 504 511 518 514 507 518 518 518 518 518 521 521 521 529 525 525 521 518 511 511 511 511 500 507 504 500 497 507 497 504 507 504 504 504 507 514 507 521 514 511 518 514 511 507 500 500 0 0 0 0 0
    0 0 0 0 0 0 0 0 0 0 0 0 0 0 0 0 0 0 0 0 0 0 0 0 0 0 0 0 0 0 0 0 0 0 0 0 0 0 0 0 0 0 0 0 0 0 0 0 0 0 0 0 0 0 0 0 0 0 0 0 0 0 0 0 0 0 0 0 0 507 507 511 518 518 518 525 511 500 500 507 500 500 500 500 497 507 504 507 500 500 504 500 504 507 497 504 500 507 507 507 514 514 507 514 514 521 518 521 518 521 525 525 521 521 518 518 514 511 507 514 500 511 518 518 511 518 514 518 514 525 521 511 514 525 514 514 514 504 504 504 511 514 511 504 518 511 518 518 518 518 514 521 525 525 525 521 514 525 518 521 525 521 518 521 521 529 521 525 525 521 525 525 521 521 518 514 514 514 518 507 521 518 529 529 529 529 525 525 529 525 518 521 525 525 529 529 529 529 525 533 529 0 521 518 511 511 514 507 507 507 514 511 511 511 514 514 518 529 521 525 525 529 533 529 529 529 525 533 529 529 525 525 525 529 533 533 533 533 533 537 537 545 541 541 537 537 537 537 537 533 537 537 533 533 533 537 533 533 537 533 525 525 504 504 504 497 497 497 500 504 507 514 511 504 514 514 514 518 518 518 514 518 525 511 514 511 500 497 497 497 497 493 504 500 500 497 504 497 504 504 504 504 504 507 514 511 521 514 511 518 514 514 511 500 500 0 0 0 0 0
    0 0 0 0 0 0 0 0 0 0 0 0 0 0 0 0 0 0 0 0 0 0 0 0 0 0 0 0 0 0 0 0 0 0 0 0 0 0 0 0 0 0 0 0 0 0 0 0 0 0 0 0 0 0 0 0 0 0 0 0 0 0 0 0 0 0 0 0 0 507 511 514 521 521 518 529 518 504 504 507 500 500 500 500 500 507 504 507 500 500 504 500 504 507 497 504 500 507 507 511 514 514 511 518 514 521 518 521 518 521 525 525 521 521 514 514 511 507 507 514 500 511 518 518 514 518 518 518 514 525 521 511 514 521 507 511 514 504 504 500 511 511 507 504 518 511 521 518 518 518 518 521 525 525 525 521 514 525 518 525 525 521 518 521 521 529 521 525 521 521 525 525 521 521 521 518 514 518 521 514 525 521 529 529 529 529 529 525 529 525 518 521 525 525 529 529 529 529 529 533 529 525 521 521 514 511 514 507 507 507 514 514 514 514 518 518 521 529 521 525 525 529 529 525 529 529 525 533 529 529 525 525 525 525 529 529 529 529 529 533 533 537 541 537 533 533 533 533 533 533 533 533 533 533 533 533 533 533 533 533 518 521 500 500 504 493 493 493 497 500 504 511 504 500 511 511 511 514 514 511 511 514 518 504 507 504 497 493 497 497 497 493 500 500 500 497 504 497 504 504 504 504 504 504 518 511 521 518 514 518 518 518 514 504 500 0 0 0 0 0
    0 0 0 0 0 0 0 0 0 0 0 0 0 0 0 0 0 0 0 0 0 0 0 0 0 0 0 0 0 0 0 0 0 0 0 0 0 0 0 0 0 0 0 0 0 0 0 0 0 0 0 0 0 0 0 0 0 0 0 0 0 0 0 0 0 0 0 0 0 511 514 521 525 529 525 537 525 504 504 507 500 497 500 497 500 504 504 504 500 504 504 500 504 507 497 507 500 507 507 511 514 514 511 518 514 521 514 518 518 518 521 521 521 518 507 507 504 497 0 511 497 511 518 518 518 521 518 518 518 529 525 514 514 521 504 504 511 500 500 497 507 507 507 507 521 511 521 518 518 518 518 521 525 525 525 521 518 525 521 525 525 521 518 525 521 529 521 529 521 521 525 525 518 518 518 518 514 518 521 514 525 521 529 529 533 533 533 525 533 525 518 521 525 525 529 529 529 529 529 533 529 529 521 521 514 511 511 504 504 507 514 514 518 518 521 521 525 529 521 529 525 529 529 525 525 529 525 533 529 529 525 525 525 529 529 529 529 529 533 533 533 537 541 537 537 537 533 533 537 533 533 533 533 533 533 533 533 533 533 533 514 518 504 500 504 497 497 493 497 497 497 504 500 497 507 504 504 507 511 504 504 511 514 497 504 497 493 490 497 497 493 493 500 500 504 497 507 500 504 507 507 504 500 504 518 511 518 514 511 518 514 514 507 493 493 0 0 0 0 0
    0 0 0 0 0 0 0 0 0 0 0 0 0 0 0 0 0 0 0 0 0 0 0 0 0 0 0 0 0 0 0 0 0 0 0 0 0 0 0 0 0 0 0 0 0 0 0 0 0 0 0 0 0 0 0 0 0 0 0 0 0 0 0 0 0 0 0 0 0 507 511 521 525 529 525 537 533 511 511 511 500 500 500 497 500 504 507 507 500 504 504 500 504 504 493 504 500 504 504 507 514 511 507 518 514 521 518 518 518 518 521 521 514 511 500 500 500 493 0 507 497 511 518 521 521 521 521 521 518 533 529 518 521 525 504 500 514 500 497 497 511 511 514 511 529 514 525 518 521 518 518 521 525 521 521 521 514 525 521 525 525 521 518 525 521 529 525 529 521 521 525 521 518 518 518 518 511 514 521 514 525 525 529 533 533 533 533 529 533 525 521 525 525 525 529 529 529 529 529 533 529 529 521 518 514 511 511 500 504 507 514 514 518 518 525 521 525 533 521 529 525 529 529 525 529 529 529 533 529 529 529 525 529 529 529 529 529 529 533 533 533 537 541 537 537 537 533 537 537 537 533 533 533 533 533 537 533 533 533 537 518 514 507 504 507 500 497 497 497 497 493 497 493 493 500 497 497 500 504 497 497 500 500 490 493 490 487 487 490 490 490 490 497 497 500 497 504 504 504 507 507 504 500 500 518 504 504 507 504 511 507 507 500 487 487 0 0 0 0 0
    0 0 0 0 0 0 0 0 0 0 0 0 0 0 0 0 0 0 0 0 0 0 0 0 0 0 0 0 0 0 0 0 0 0 0 0 0 0 0 0 0 0 0 0 0 0 0 0 0 0 0 0 0 0 0 0 0 0 0 0 0 0 0 0 0 0 0 0 0 507 507 518 518 521 521 533 529 507 507 511 504 504 500 500 504 507 507 507 504 500 504 500 504 504 493 500 497 504 504 511 514 511 507 518 514 525 518 518 514 514 518 518 511 507 497 497 497 490 0 504 493 507 518 518 518 521 521 521 521 533 533 525 525 529 518 504 518 504 500 500 511 511 518 514 529 518 525 521 521 518 518 521 525 521 521 518 514 521 521 525 525 521 521 525 521 529 525 529 525 521 525 521 518 518 518 518 511 514 518 514 525 521 529 529 529 529 533 529 533 525 521 521 521 525 525 525 529 529 529 529 525 525 518 518 514 511 507 500 504 504 511 514 518 518 525 521 525 533 521 529 525 529 533 525 529 529 529 533 529 529 529 525 529 529 529 529 529 529 533 533 533 537 541 537 537 537 533 537 537 537 529 533 533 533 533 533 529 529 529 533 511 511 504 504 507 500 497 497 493 493 493 493 493 490 493 493 493 497 497 493 493 493 490 484 487 484 481 484 484 487 487 490 493 493 497 493 507 507 511 514 514 511 504 500 525 500 497 500 497 504 500 500 493 481 481 0 0 0 0 0
    0 0 0 0 0 0 0 0 0 0 0 0 0 0 0 0 0 0 0 0 0 0 0 0 0 0 0 0 0 0 0 0 0 0 0 0 0 0 0 0 0 0 0 0 0 0 0 0 0 0 0 0 0 0 0 0 0 0 0 0 0 0 0 0 0 0 0 0 0 500 497 511 518 521 514 0 525 497 504 511 504 500 500 500 504 507 511 507 504 500 504 500 507 504 493 500 497 500 504 511 514 511 507 518 514 525 521 518 507 507 511 514 507 504 497 497 493 490 0 504 493 504 514 514 518 518 521 521 521 533 533 529 529 533 0 514 521 507 500 504 514 514 518 514 529 521 525 521 521 518 521 518 521 518 518 518 511 521 518 521 521 518 518 521 521 529 525 529 525 525 529 525 521 521 521 518 511 514 521 514 521 521 529 529 529 533 533 529 533 529 525 525 521 525 525 525 525 529 529 529 525 525 518 518 514 514 507 504 507 507 514 518 518 518 525 521 525 529 521 529 525 529 533 529 529 533 529 533 529 529 529 525 529 529 529 529 529 529 533 533 537 537 541 541 537 537 533 537 537 537 525 529 533 529 529 533 525 525 525 533 500 504 504 504 504 497 493 493 493 493 484 484 484 481 487 484 487 493 490 487 490 487 484 481 481 477 471 481 481 481 481 484 490 490 493 493 507 507 514 518 518 514 507 500 521 497 493 497 493 500 497 497 493 481 477 0 0 0 0 0
    0 0 0 0 0 0 0 0 0 0 0 0 0 0 0 0 0 0 0 0 0 0 0 0 0 0 0 0 0 0 0 0 0 0 0 0 0 0 0 0 0 0 0 0 0 0 0 0 0 0 0 0 0 0 0 0 0 0 0 0 0 0 0 0 0 0 0 0 0 0 0 0 0 0 0 0 0 0 0 0 497 493 493 493 500 500 507 504 504 500 507 504 507 504 497 500 497 500 504 507 511 507 504 514 0 0 518 514 504 507 507 511 507 507 504 500 500 493 0 511 500 511 518 518 518 521 521 521 521 533 533 533 533 0 0 0 0 0 0 0 518 518 521 514 529 521 525 518 521 518 521 518 521 518 518 514 511 521 518 518 521 518 518 521 521 529 521 529 525 525 525 525 521 521 521 518 511 514 521 514 521 521 529 533 533 533 533 533 537 533 529 529 525 529 525 529 529 529 529 529 525 525 518 521 518 514 511 511 514 514 518 521 521 521 525 525 529 529 521 529 525 533 533 529 529 533 529 533 533 533 529 529 533 533 529 533 533 529 533 533 537 541 541 541 537 541 537 541 541 537 525 529 533 529 529 533 525 525 525 529 500 504 504 504 500 497 493 490 490 487 481 477 477 474 474 468 465 474 462 471 474 471 474 471 474 468 459 471 477 474 471 477 481 481 487 490 500 500 511 521 518 514 504 493 500 487 487 490 487 493 490 487 487 474 471 0 0 0 0 0
    0 0 0 0 0 0 0 0 0 0 0 0 0 0 0 0 0 0 0 0 0 0 0 0 0 0 0 0 0 0 0 0 0 0 0 0 0 0 0 0 0 0 0 0 0 0 0 0 0 0 0 0 0 0 0 0 0 0 0 0 0 0 0 0 0 0 0 0 0 422 425 418 0 420 0 0 0 422 0 0 490 490 493 497 500 500 504 504 0 504 511 504 507 500 493 497 493 493 500 504 504 0 0 0 0 0 0 0 0 504 504 504 504 504 504 500 497 490 0 514 500 514 518 518 521 521 525 521 521 533 537 0 0 0 0 0 0 0 0 0 518 518 521 514 529 518 525 518 521 518 521 518 521 518 518 518 511 521 518 514 518 514 514 518 514 525 518 525 525 521 525 521 521 521 521 521 514 518 521 511 518 521 529 529 529 529 529 529 537 529 529 529 525 529 529 529 529 529 529 529 521 525 518 521 521 518 518 514 518 518 521 525 525 525 529 529 529 533 521 529 525 533 533 529 533 533 529 533 533 533 529 525 529 529 529 533 533 529 533 533 537 541 545 541 541 541 541 545 545 541 529 533 533 533 533 533 529 529 529 529 500 504 504 504 500 500 493 490 490 487 477 474 474 468 468 462 454 462 448 454 457 457 457 451 459 451 446 465 468 471 468 477 477 477 481 487 493 490 497 521 504 500 493 474 474 477 474 477 477 477 481 477 0 462 446 0 0 0 0 0
    0 0 0 0 0 0 0 0 0 0 0 0 0 0 0 0 0 0 0 0 0 0 0 0 0 0 0 0 0 0 0 0 0 0 0 0 0 0 0 0 0 0 0 0 0 0 0 0 0 0 0 0 0 0 0 0 0 0 0 0 0 0 0 0 0 0 0 0 0 413 415 411 413 411 413 413 413 411 399 0 0 0 0 493 500 500 0 0 0 0 0 0 504 0 484 490 484 0 0 0 0 0 0 0 0 0 0 0 0 0 0 0 497 497 500 497 493 490 0 0 500 514 521 518 525 525 525 521 525 533 537 0 0 0 0 0 0 0 0 0 514 511 514 511 0 0 0 0 521 0 0 0 0 0 518 518 511 518 514 511 514 511 511 514 511 518 511 521 518 518 521 521 518 518 521 521 514 514 518 507 518 521 529 529 525 525 525 525 533 525 521 525 518 525 525 525 525 529 533 529 518 525 518 525 521 518 511 511 514 518 521 525 525 529 533 529 533 537 525 529 525 533 533 529 533 533 529 533 533 533 529 525 529 529 529 533 529 529 533 533 537 541 545 541 541 541 541 545 549 541 533 533 537 533 537 537 529 529 529 525 500 507 511 507 504 504 497 493 487 484 477 471 468 468 465 457 451 457 446 448 448 448 443 440 446 446 443 457 459 462 459 474 477 477 481 484 490 487 490 514 493 484 481 465 454 468 457 459 465 465 468 457 0 446 435 0 0 0 0 0
    0 0 0 0 0 0 0 0 0 0 0 0 0 0 0 0 0 0 0 0 0 0 0 0 0 0 0 0 0 0 0 0 0 0 0 0 0 0 0 0 0 0 0 0 0 0 0 0 0 0 0 0 0 0 0 0 0 0 0 0 0 0 0 0 0 0 0 0 0 411 411 408 408 406 411 411 408 411 404 406 408 408 411 408 0 0 0 0 0 0 0 0 0 0 0 0 0 0 0 0 0 0 0 0 0 0 0 0 0 0 0 0 490 493 497 493 487 484 0 0 0 0 511 507 518 521 525 521 521 529 0 0 0 0 0 0 0 0 0 0 0 497 0 0 0 0 0 0 0 0 0 0 0 0 514 514 504 511 507 504 504 500 504 504 504 0 0 518 518 514 518 518 514 514 518 518 511 511 514 504 0 0 529 529 529 521 525 521 529 518 507 521 504 518 514 514 514 0 0 0 493 0 487 0 0 0 0 0 0 0 504 507 514 518 529 529 533 537 525 533 525 533 533 529 533 533 529 533 529 529 529 521 529 525 525 529 525 525 529 525 533 533 541 537 537 537 533 545 545 541 537 533 537 537 537 537 529 529 529 521 500 507 507 507 500 504 497 493 487 484 474 471 468 465 465 457 448 454 446 448 446 448 443 440 443 443 438 448 448 454 451 465 471 471 474 481 484 481 484 497 487 474 474 459 451 459 454 451 454 457 451 446 446 440 435 0 0 0 0 0
    0 0 0 0 0 0 0 0 0 0 0 0 0 0 0 0 0 0 0 0 0 0 0 0 0 0 0 0 0 0 0 0 0 0 0 0 0 0 0 0 0 0 0 0 0 0 0 0 0 0 0 0 0 0 0 0 0 0 0 0 0 0 0 0 0 0 0 0 0 413 413 408 408 408 413 413 408 413 408 411 413 411 413 411 413 0 0 0 0 0 0 0 0 0 0 0 0 0 0 0 0 0 0 0 0 0 0 212 206 0 0 0 0 477 493 487 0 0 0 0 0 0 0 0 0 0 0 511 507 0 0 0 0 0 0 0 0 0 0 0 0 0 0 0 0 0 0 0 0 0 0 158 0 0 500 497 490 497 493 493 490 0 0 0 0 110 0 0 0 511 0 514 511 507 511 507 500 500 504 493 0 0 0 0 0 511 525 521 533 514 504 521 493 0 500 0 0 0 0 0 0 0 465 0 0 0 0 468 484 484 0 0 0 0 514 525 525 533 518 529 521 533 533 529 533 533 529 529 529 529 525 518 525 518 518 525 518 518 518 507 525 518 541 521 518 525 521 541 541 533 533 529 533 533 537 537 529 525 525 518 497 504 507 507 500 504 493 493 484 481 474 471 468 465 462 451 446 446 443 443 443 440 438 438 438 440 435 443 443 446 446 457 459 462 468 474 477 474 477 477 468 462 457 451 448 454 448 448 451 451 446 443 443 438 432 0 0 0 0 0
    0 0 0 0 0 0 0 0 0 0 0 0 0 0 0 0 0 0 0 0 0 0 0 0 0 0 0 0 0 0 0 0 0 0 0 0 0 0 0 0 0 0 0 0 0 0 0 0 0 0 0 0 0 0 0 0 0 0 0 0 0 0 0 0 0 0 0 0 0 415 413 408 408 406 413 413 408 411 408 411 413 413 415 411 413 420 411 0 0 0 0 0 0 0 0 0 422 418 0 0 0 272 266 0 0 0 0 0 0 0 0 0 0 438 0 0 0 0 0 0 0 0 0 0 0 430 0 0 0 0 0 0 0 0 0 0 0 0 0 0 0 0 0 0 0 0 0 0 0 0 0 157 0 0 0 471 471 474 481 477 471 0 0 0 110 110 110 0 0 0 0 0 0 0 0 0 0 0 487 484 0 0 0 0 0 490 497 500 497 500 487 500 0 0 487 462 0 0 0 0 448 0 448 0 0 0 448 446 474 457 0 0 430 0 0 504 504 511 500 514 507 529 529 525 529 529 525 529 521 521 518 504 514 493 0 0 484 477 0 0 0 0 0 0 0 0 0 0 0 0 0 521 529 525 533 533 525 521 518 507 490 497 504 504 497 497 490 490 481 477 471 468 462 459 459 448 443 443 438 440 438 438 435 435 435 435 432 438 438 438 440 448 454 457 465 471 471 471 471 468 451 451 448 446 448 448 448 446 448 448 446 443 440 435 430 0 0 0 0 0
    0 0 0 0 0 0 0 0 0 0 0 0 0 0 0 0 0 0 0 0 0 0 0 0 0 0 0 0 0 0 0 0 0 0 0 0 0 0 0 0 0 0 0 0 0 0 0 0 0 0 0 0 0 0 0 0 0 0 0 0 0 0 0 0 0 0 0 0 0 415 413 408 408 406 413 413 408 411 408 411 413 413 418 413 413 420 413 0 0 0 0 0 0 0 0 411 420 418 0 0 0 0 0 0 0 0 0 0 0 0 0 0 0 435 0 0 0 430 418 0 415 413 0 418 422 420 420 422 427 0 0 0 0 0 0 0 0 0 0 0 0 0 0 0 427 0 427 0 0 0 0 154 0 0 0 446 443 443 443 438 440 0 0 0 0 0 0 425 425 422 425 427 418 0 0 0 0 432 0 440 443 446 0 0 474 474 474 481 477 484 471 471 462 446 462 446 440 0 0 0 0 440 440 0 111 0 0 0 451 435 430 432 430 432 0 490 487 477 0 493 490 511 511 497 514 0 0 0 0 0 490 484 487 468 474 468 471 462 465 451 0 0 0 0 0 432 435 435 432 446 0 497 504 500 514 518 511 504 504 497 484 487 493 493 490 490 484 484 474 474 465 465 457 457 454 446 440 440 438 438 438 438 435 435 435 435 430 438 435 435 435 446 451 454 462 468 468 465 465 459 446 446 443 443 446 446 446 443 446 446 440 440 435 432 427 0 0 0 0 0
    0 0 0 0 0 0 0 0 0 0 0 0 0 0 0 0 0 0 0 0 0 0 0 0 0 0 0 0 0 0 0 0 0 0 0 0 0 0 0 0 0 0 0 0 0 0 0 0 0 0 0 0 0 0 0 0 0 0 0 0 0 0 0 0 0 0 0 0 0 413 411 408 406 404 411 411 406 411 408 413 415 415 418 413 415 422 413 0 0 0 0 0 0 413 411 411 420 418 422 0 0 0 0 0 0 0 0 0 0 0 438 432 435 432 465 0 0 430 418 408 415 413 418 415 418 418 415 418 422 420 418 0 418 420 420 0 0 0 425 427 430 427 430 425 425 425 425 425 0 0 0 0 0 0 440 440 440 438 435 432 432 432 427 427 427 427 427 425 425 425 425 425 418 415 422 415 418 422 425 430 432 435 440 454 459 459 457 465 465 468 459 454 448 443 446 440 438 435 435 432 435 435 435 0 0 0 0 0 435 435 427 430 430 430 430 451 440 435 440 471 481 471 484 0 0 0 0 0 0 0 448 443 446 443 451 451 457 448 0 0 0 0 0 0 435 432 435 435 435 443 440 468 481 477 481 481 484 487 487 484 477 481 487 484 481 484 474 474 468 468 457 459 454 454 451 443 440 440 438 438 438 438 435 432 435 432 427 438 432 432 432 440 448 451 459 468 465 459 459 451 443 446 443 443 443 443 443 443 443 443 440 438 438 432 430 0 0 0 0 0
    0 0 0 0 0 0 0 0 0 0 0 0 0 0 0 0 0 0 0 0 0 0 0 0 0 0 0 0 0 0 0 0 0 0 0 0 0 0 0 0 0 0 0 0 0 0 0 0 0 0 0 0 0 0 0 0 0 0 0 0 0 0 0 0 0 0 0 0 0 411 411 406 406 404 411 411 406 413 411 413 415 415 420 413 415 422 413 0 0 0 408 411 418 415 415 415 422 420 425 430 432 427 430 0 0 0 430 430 427 430 432 430 430 430 0 0 0 430 418 411 418 415 415 415 418 418 415 418 422 418 418 418 418 418 420 422 425 425 422 425 427 427 427 422 425 422 422 425 425 425 427 425 0 430 432 435 432 432 430 430 430 432 427 427 427 427 427 427 427 427 425 427 422 420 422 420 420 422 425 427 430 435 435 443 446 448 446 451 451 451 448 446 440 438 440 438 435 432 432 432 435 435 435 435 0 0 432 435 435 432 427 430 430 432 430 435 435 435 435 446 451 443 451 0 0 438 435 435 438 435 440 440 443 440 446 446 448 443 443 440 0 0 0 435 435 435 435 435 435 440 440 446 465 462 465 465 471 471 474 471 471 468 474 471 471 481 465 465 459 457 451 457 451 451 448 443 440 440 438 438 438 438 435 435 438 435 430 438 430 427 430 438 443 443 454 462 462 459 457 448 443 446 443 440 443 443 443 443 443 443 440 440 440 435 432 0 0 0 0 0
    0 0 0 0 0 0 0 0 0 0 0 0 0 0 0 0 0 0 0 0 0 0 0 0 0 0 0 0 0 0 0 0 0 0 0 0 0 0 0 0 0 0 0 0 0 0 0 0 0 0 0 0 0 0 0 0 0 0 0 0 0 0 0 0 0 0 0 0 0 411 411 406 406 404 411 411 406 413 411 413 418 415 420 415 418 422 415 418 418 411 413 413 420 418 420 420 422 422 427 432 432 430 430 432 0 435 430 430 427 432 427 425 427 425 430 427 422 425 413 411 418 415 415 415 418 418 418 418 422 418 415 418 418 418 422 422 427 427 425 425 425 427 425 420 422 420 422 422 425 425 425 422 427 430 430 430 430 432 430 430 430 432 427 427 427 430 427 427 430 427 425 427 427 422 425 425 425 425 427 430 432 435 438 438 440 443 440 446 443 443 443 440 438 438 438 438 438 435 432 432 435 435 435 435 432 435 435 435 435 432 430 432 430 432 430 432 430 435 435 440 438 438 440 432 438 435 435 435 435 435 438 438 443 438 443 443 443 440 440 438 435 0 0 435 435 435 435 435 435 440 440 440 448 448 448 451 454 459 462 462 465 454 462 457 457 448 440 440 443 443 443 446 443 443 443 440 440 440 435 438 438 438 438 435 440 435 432 440 425 425 427 432 443 440 448 454 459 457 454 446 443 446 443 440 443 443 443 440 443 443 440 443 443 438 435 0 0 0 0 0
    0 0 0 0 0 0 0 0 0 0 0 0 0 0 0 0 0 0 0 0 0 0 0 0 0 0 0 0 0 0 0 0 0 0 0 0 0 0 0 0 0 0 0 0 0 0 0 0 0 0 0 0 0 0 0 0 0 0 0 0 0 0 0 0 0 0 0 0 0 413 413 408 408 404 411 411 408 413 411 413 418 418 422 418 418 422 418 420 420 413 413 413 418 418 422 420 425 425 427 430 432 430 430 430 435 435 430 432 430 432 425 420 422 418 422 420 413 418 411 411 418 418 415 415 420 420 418 420 422 420 418 420 418 418 420 422 425 425 425 425 425 425 425 420 422 420 422 422 425 422 425 425 427 430 430 430 432 430 432 430 430 432 427 425 427 427 427 427 430 430 427 430 427 425 427 427 425 425 427 430 430 435 435 435 438 440 438 440 440 440 440 440 438 438 438 438 438 435 432 432 432 435 435 432 432 435 435 435 435 432 430 432 430 432 427 430 430 435 435 440 438 438 440 432 438 435 435 435 435 435 438 438 443 438 443 440 440 438 438 438 432 435 0 435 432 435 435 435 435 438 438 438 443 443 443 443 446 448 451 448 454 446 446 443 443 438 435 435 438 440 438 443 438 440 440 435 438 438 435 438 438 440 438 435 443 438 435 443 427 427 430 435 440 438 448 454 454 451 446 443 443 446 443 440 440 440 443 440 443 443 440 443 443 438 438 0 0 0 0 0
    0 0 0 0 0 0 0 0 0 0 0 0 0 0 0 0 0 0 0 0 0 0 0 0 0 0 0 0 0 0 0 0 0 0 0 0 0 0 0 0 0 0 0 0 0 0 0 0 0 0 0 0 0 0 0 0 0 0 0 0 0 0 0 0 0 0 0 0 0 411 413 406 406 404 411 411 408 413 411 413 418 418 422 418 418 425 418 422 422 413 415 413 420 420 422 422 425 425 427 430 430 425 427 427 432 432 430 432 432 432 427 420 422 415 422 418 411 415 411 411 420 418 418 418 420 420 420 422 425 420 418 422 420 418 420 422 425 425 422 425 425 425 425 420 422 422 422 425 425 422 425 425 427 427 430 430 430 430 430 427 427 432 427 427 427 427 427 427 430 430 427 427 427 422 425 425 425 425 425 427 427 432 432 432 435 438 435 440 440 440 440 440 440 440 440 440 438 438 432 432 432 432 435 432 432 435 435 435 435 435 432 432 432 432 430 432 432 438 438 440 440 440 440 432 438 435 435 435 435 435 435 435 440 435 440 440 440 438 438 438 435 435 0 435 435 435 435 438 438 438 438 438 443 440 440 443 443 443 446 443 443 440 440 438 440 438 435 435 438 440 440 443 440 438 440 435 438 438 435 438 438 440 440 438 448 438 0 0 0 0 430 432 435 435 446 446 443 443 440 440 440 443 440 440 440 440 443 440 443 443 438 440 438 435 435 0 0 0 0 0
    0 0 0 0 0 0 0 0 0 0 0 0 0 0 0 0 0 0 0 0 0 0 0 0 0 0 0 0 0 0 0 0 0 0 0 0 0 0 0 0 0 0 0 0 0 0 0 0 0 0 0 0 0 0 0 0 0 0 0 0 0 0 0 0 0 0 0 0 0 408 411 406 404 404 411 411 406 413 411 413 418 418 422 418 420 425 418 422 422 413 415 413 420 420 422 422 425 425 430 427 427 422 422 425 427 425 425 430 430 430 427 420 420 413 418 415 408 415 411 411 418 418 418 418 420 420 420 420 425 420 418 420 420 418 420 420 422 422 422 422 422 425 425 420 422 422 422 425 425 422 425 425 425 427 427 427 427 427 430 427 427 430 425 425 427 430 427 427 430 430 427 427 425 422 425 425 425 425 425 425 427 430 430 432 435 438 435 440 440 443 443 443 443 440 440 440 440 438 432 432 430 432 432 432 432 432 432 435 432 435 432 435 432 432 430 432 435 440 440 443 440 440 440 432 438 435 435 435 435 435 435 435 440 435 440 438 440 438 435 435 432 435 0 432 432 432 435 435 435 438 438 438 440 440 440 440 440 443 446 443 446 440 440 438 440 438 435 438 438 440 440 443 440 438 440 435 438 438 435 438 438 440 438 438 451 438 0 0 0 0 0 0 0 432 443 432 430 430 422 425 422 432 435 432 438 438 440 438 440 440 438 438 435 432 430 0 0 0 0 0
    0 0 0 0 0 0 0 0 0 0 0 0 0 0 0 0 0 0 0 0 0 0 0 0 0 0 0 0 0 0 0 0 0 0 0 0 0 0 0 0 0 0 0 0 0 0 0 0 0 0 0 0 0 0 0 0 0 0 0 0 0 0 0 0 0 0 0 0 0 406 408 0 0 402 411 408 406 413 411 415 418 418 422 420 420 425 420 422 422 415 415 415 420 420 425 422 427 425 427 427 425 420 420 422 427 422 425 430 430 432 427 418 413 408 411 411 406 413 408 411 418 418 418 418 420 420 418 420 422 418 418 420 418 418 420 420 422 422 420 422 420 422 425 418 422 422 422 422 425 422 425 425 425 425 427 427 425 425 427 425 425 430 425 425 427 430 427 427 430 430 427 427 425 422 425 425 425 425 425 425 427 430 430 430 435 435 435 438 440 443 443 443 446 443 440 440 440 438 430 430 425 430 430 430 430 430 430 432 430 435 432 435 435 432 430 432 435 440 440 443 440 440 440 432 438 435 435 435 435 435 435 435 440 435 443 438 438 435 432 435 430 432 430 432 432 432 432 435 435 438 438 435 440 438 440 440 440 440 443 443 446 440 440 438 440 435 435 438 438 438 440 440 438 438 440 432 438 438 435 438 438 440 440 438 454 438 0 639 0 557 0 0 0 438 440 411 408 406 402 399 402 406 413 418 430 432 435 435 438 438 438 438 435 435 432 0 0 0 0 0
    0 0 0 0 0 0 0 0 0 0 0 0 0 0 0 0 0 0 0 0 0 0 0 0 0 0 0 0 0 0 0 0 0 0 0 0 0 0 0 0 0 0 0 0 0 0 0 0 0 0 0 0 0 0 0 0 0 0 0 0 0 0 0 0 0 0 0 0 0 406 408 0 0 402 411 411 406 413 413 415 418 420 425 420 422 425 420 425 422 418 418 415 420 420 425 420 425 422 425 422 420 413 413 420 425 420 427 432 432 438 430 420 411 406 406 408 406 413 411 411 418 418 418 420 420 420 420 420 425 420 418 422 418 418 420 420 422 420 418 420 420 422 422 415 422 420 422 422 425 422 425 425 425 425 427 427 425 425 427 425 425 430 425 425 427 430 427 427 430 430 427 427 427 425 425 425 427 425 425 427 427 430 430 430 435 435 435 435 438 440 440 443 443 440 438 440 440 435 430 430 422 427 427 427 427 430 430 432 430 435 435 435 435 432 430 432 435 440 440 443 440 438 440 432 438 435 435 435 435 435 435 435 443 435 443 435 432 430 430 432 427 430 430 430 430 432 432 435 432 438 438 435 438 438 438 438 438 438 440 440 446 440 443 440 440 438 435 438 438 438 440 440 438 438 438 432 438 438 435 435 438 438 440 438 459 443 0 0 0 529 511 0 0 408 0 397 397 399 395 395 395 397 402 406 420 422 425 432 435 435 435 435 435 438 432 0 0 0 0 0
    0 0 0 0 0 0 0 0 0 0 0 0 0 0 0 0 0 0 0 0 0 0 0 0 0 0 0 0 0 0 0 0 0 0 0 0 0 0 0 0 0 0 0 0 0 0 0 0 0 0 0 0 0 0 0 0 0 0 0 0 0 0 0 0 0 0 0 0 0 406 408 404 0 402 411 411 406 413 413 415 418 420 425 420 422 425 420 422 422 415 415 413 418 420 422 420 422 420 422 418 413 408 408 415 420 415 422 430 430 435 427 418 411 406 408 408 406 413 411 413 420 420 418 420 420 422 420 422 425 420 418 425 420 420 422 422 425 422 420 422 420 420 420 413 420 418 420 422 422 422 422 425 425 425 427 427 425 425 427 425 425 430 425 425 427 427 427 427 430 430 427 427 427 425 422 425 427 425 425 427 427 430 427 427 432 432 432 435 435 438 438 440 443 440 435 438 438 435 430 430 422 427 427 427 430 430 430 432 432 438 435 438 438 435 430 432 435 440 440 440 440 438 438 430 438 435 435 435 435 435 435 435 443 438 443 435 430 427 427 430 427 430 430 430 430 432 432 435 435 435 435 432 435 435 435 435 435 0 0 438 443 440 440 438 438 438 435 438 438 438 440 440 438 438 438 430 435 435 435 435 438 438 438 438 459 446 451 471 497 0 0 0 0 397 387 389 395 395 393 395 395 395 399 404 411 411 413 427 427 435 432 435 432 440 432 0 0 0 0 0
    0 0 0 0 0 0 0 0 0 0 0 0 0 0 0 0 0 0 0 0 0 0 0 0 0 0 0 0 0 0 0 0 0 0 0 0 0 0 0 0 0 0 0 0 0 0 0 0 0 0 0 0 0 0 0 0 0 0 0 0 0 0 0 0 0 0 0 0 0 406 411 404 406 402 411 411 408 415 413 418 420 420 425 420 422 425 420 425 422 415 418 413 418 420 422 420 422 418 420 418 413 408 406 411 413 413 415 427 425 432 425 420 415 408 411 411 406 415 413 413 420 420 418 420 420 422 420 422 425 422 420 425 422 422 425 425 427 425 425 425 422 422 420 415 420 418 420 420 422 422 425 425 425 427 427 427 427 425 427 425 425 430 425 422 427 427 425 425 427 430 427 427 425 425 422 425 427 427 425 427 427 430 427 427 432 430 432 432 432 435 438 438 440 438 435 435 438 435 430 430 422 427 427 427 432 430 432 432 432 438 438 438 438 432 432 435 435 440 440 440 440 438 438 430 438 435 435 435 435 435 435 435 443 438 443 432 427 425 427 430 427 430 430 430 430 432 432 435 432 435 435 432 432 432 432 432 435 0 0 438 443 443 443 440 438 438 438 438 438 438 438 438 438 435 438 430 432 435 432 435 435 435 438 438 459 448 451 468 477 465 459 451 422 402 393 393 395 395 393 393 395 393 395 397 402 402 399 404 404 415 420 420 418 430 0 0 0 0 0 0
    0 0 0 0 0 0 0 0 0 0 0 0 0 0 0 0 0 0 0 0 0 0 0 0 0 0 0 0 0 0 0 0 0 0 0 0 0 0 0 0 0 0 0 0 0 0 0 0 0 0 0 0 0 0 0 0 0 0 0 0 0 0 0 0 0 0 0 0 0 408 413 406 411 404 413 413 411 415 413 418 420 420 425 422 422 425 422 425 422 415 418 413 418 418 422 418 420 415 418 415 413 408 408 411 413 411 413 425 422 430 427 418 415 408 411 411 404 413 413 411 420 418 418 420 420 422 420 422 425 420 420 425 422 422 425 425 427 427 425 425 422 422 420 415 420 418 420 420 422 422 425 427 427 427 430 427 427 425 427 422 422 427 420 422 425 427 425 425 427 427 425 427 425 425 422 425 427 425 425 425 427 427 425 425 430 430 430 430 430 435 438 438 443 438 435 435 438 435 430 432 422 427 425 427 432 432 432 432 432 438 438 438 438 432 432 435 438 440 443 443 443 440 440 430 438 435 435 435 435 435 432 432 440 438 443 432 427 425 425 430 427 427 427 430 430 430 432 432 432 435 432 430 430 430 430 432 432 0 0 438 443 443 443 443 440 440 440 443 438 440 440 440 440 438 438 430 430 435 432 435 435 435 435 438 457 446 443 448 435 432 430 432 422 406 402 397 397 395 393 393 395 393 395 395 397 395 395 395 393 393 397 395 404 406 0 0 0 0 0 0
    0 0 0 0 0 0 0 0 0 0 0 0 0 0 0 0 0 0 0 0 0 0 0 0 0 0 0 0 0 0 0 0 0 0 0 0 0 0 0 0 0 0 0 0 0 0 0 0 0 0 0 0 0 0 0 0 0 0 0 0 0 0 0 0 0 0 0 0 0 408 413 406 413 404 413 413 411 415 415 418 420 420 425 422 422 427 422 425 422 415 415 411 413 413 418 415 415 413 415 413 413 411 411 413 415 413 415 422 420 427 425 420 415 408 408 408 402 411 411 411 420 418 418 420 420 422 420 422 427 422 420 427 422 425 427 427 430 430 427 427 425 420 420 415 420 418 420 420 422 422 425 425 427 427 430 427 427 425 427 422 422 427 420 422 425 425 425 422 425 427 425 425 422 422 420 422 425 425 422 425 425 427 422 425 430 430 430 430 432 435 438 440 446 440 435 435 438 435 432 432 422 425 425 425 432 432 430 430 430 438 438 438 438 432 432 435 438 440 443 443 443 443 440 432 438 435 432 432 432 432 432 432 438 435 438 432 430 427 425 430 427 430 427 430 430 430 432 432 432 435 435 432 430 430 430 432 432 435 435 438 443 443 443 443 443 440 443 446 443 443 443 446 446 440 443 432 430 435 432 432 435 435 435 435 446 440 435 438 432 432 430 430 422 411 402 395 397 395 393 391 393 393 393 393 395 393 393 393 389 389 393 391 397 397 399 0 0 0 0 0
    0 0 0 0 0 0 0 0 0 0 0 0 0 0 0 0 0 0 0 0 0 0 0 0 0 0 0 0 0 0 0 0 0 0 0 0 0 0 0 0 0 0 0 0 0 0 0 0 0 0 0 0 0 0 0 0 0 0 0 0 0 0 0 0 0 0 0 0 0 406 411 406 415 404 411 415 411 415 415 418 418 420 425 425 422 427 422 422 420 415 413 408 413 413 418 415 418 415 415 413 415 411 413 413 413 413 413 422 420 427 422 420 415 411 408 408 399 411 411 408 418 418 418 420 420 422 420 420 427 420 422 427 422 427 427 430 432 430 427 427 427 420 418 415 420 418 420 420 422 422 425 425 425 425 427 427 425 422 425 422 422 427 420 422 425 425 425 422 425 427 422 425 420 422 420 422 425 422 422 422 425 427 422 425 427 427 430 432 432 435 440 443 446 440 435 435 438 435 432 432 420 425 422 425 432 430 430 430 430 438 438 438 438 432 432 435 440 440 443 443 443 443 440 430 435 432 432 430 432 432 432 430 435 432 435 432 430 427 427 430 427 430 430 430 430 432 435 435 435 438 435 435 432 432 430 432 432 435 438 438 443 443 443 443 440 440 443 446 446 446 446 451 451 443 446 435 427 435 432 432 432 432 435 435 440 443 435 435 435 435 432 432 425 411 402 395 397 395 391 391 393 393 393 393 395 393 393 391 389 387 391 389 393 393 397 0 0 0 0 0
    0 0 0 0 0 0 0 0 0 0 0 0 0 0 0 0 0 0 0 0 0 0 0 0 0 0 0 0 0 0 0 0 0 0 0 0 0 0 0 0 0 0 0 0 0 0 0 0 0 0 0 0 0 0 0 0 0 0 0 0 0 0 0 0 0 0 0 0 0 406 408 404 0 406 413 418 411 415 415 418 420 420 427 425 422 425 420 418 415 413 413 408 413 411 418 415 418 415 413 413 415 411 413 413 413 413 413 420 418 427 422 422 415 413 411 408 402 413 413 408 420 420 418 420 420 422 420 422 427 420 422 427 422 427 430 430 432 432 432 430 430 422 418 415 422 418 420 422 422 422 425 425 425 422 427 425 425 422 425 422 422 430 418 425 425 425 425 422 425 425 422 427 420 422 420 422 425 422 422 422 425 427 422 422 427 427 430 430 430 432 435 440 446 440 435 435 435 435 432 432 415 422 422 422 432 430 430 430 430 438 438 438 438 432 435 438 440 443 443 443 443 443 440 427 432 430 432 430 430 432 430 430 432 432 435 435 432 430 427 430 430 432 430 432 432 435 438 438 438 440 440 438 438 435 435 438 438 438 440 440 443 443 443 440 438 438 440 446 446 446 446 451 451 443 446 435 425 432 432 432 432 432 435 435 438 440 435 432 432 432 430 430 425 411 402 395 395 393 391 389 391 391 393 393 393 391 393 391 383 383 385 385 387 383 389 0 0 0 0 0
    0 0 0 0 0 0 0 0 0 0 0 0 0 0 0 0 0 0 0 0 0 0 0 0 0 0 0 0 0 0 0 0 0 0 0 0 0 0 0 0 0 0 0 0 0 0 0 0 0 0 0 0 0 0 0 0 0 0 0 0 0 0 0 0 0 0 0 0 0 406 406 404 418 408 415 420 415 418 418 420 422 420 427 425 420 422 415 411 411 411 411 408 413 411 418 418 418 415 413 413 413 408 411 408 411 411 408 418 415 425 420 418 415 408 408 408 404 413 413 411 420 422 418 422 422 425 422 422 427 420 420 427 422 425 427 427 432 432 432 430 430 422 418 418 422 418 422 420 422 422 425 425 422 420 425 422 425 422 425 422 420 427 418 425 425 425 425 425 425 427 425 430 422 425 422 422 427 425 422 422 425 427 422 422 425 425 427 427 427 430 435 438 440 438 435 435 435 435 432 432 415 422 422 422 432 432 430 430 430 435 438 438 438 435 438 443 443 443 446 443 446 443 438 427 432 430 432 430 430 432 430 430 432 432 435 435 432 432 430 432 432 435 435 432 435 438 440 440 440 440 443 440 440 438 438 438 438 438 438 438 440 440 438 435 432 435 438 443 443 446 446 457 454 446 446 435 427 435 432 432 435 432 435 435 438 440 432 427 427 427 427 427 422 408 404 397 397 393 393 389 391 391 393 391 393 391 391 387 379 377 379 379 385 379 385 0 0 0 0 0
    0 0 0 0 0 0 0 0 0 0 0 0 0 0 0 0 0 0 0 0 0 0 0 0 0 0 0 0 0 0 0 0 0 0 0 0 0 0 0 0 0 0 0 0 0 0 0 0 0 0 0 0 0 0 0 0 0 0 0 0 0 0 0 0 0 0 0 0 0 406 404 404 420 408 418 420 418 418 420 420 422 420 425 425 415 415 408 406 406 406 408 406 411 411 415 418 418 415 413 411 413 408 411 406 406 411 408 415 413 422 415 418 418 411 411 411 404 413 413 408 420 422 418 422 422 425 422 422 427 420 420 427 420 422 425 425 432 430 432 430 430 420 418 420 422 418 422 420 420 422 425 425 422 418 422 420 425 422 425 420 420 427 418 425 427 427 427 427 427 430 427 432 425 425 422 422 425 425 420 420 422 425 420 422 422 422 425 427 430 430 435 438 440 440 438 438 438 438 438 435 418 425 425 422 435 435 430 430 430 435 435 438 438 438 440 446 443 446 448 446 446 443 438 427 432 430 432 430 430 430 430 430 432 432 435 435 435 432 432 435 435 438 438 435 440 440 440 440 440 443 443 440 440 438 438 438 438 438 438 435 440 440 435 435 432 435 438 440 443 446 448 457 457 446 448 438 432 435 435 432 432 435 435 435 438 435 430 430 432 432 430 427 420 408 404 402 402 395 393 391 391 393 395 391 391 389 393 385 377 375 375 375 383 377 383 0 0 0 0 0
    0 0 0 0 0 0 0 0 0 0 0 0 0 0 0 0 0 0 0 0 0 0 0 0 0 0 0 0 0 0 0 0 0 0 0 0 0 0 0 0 0 0 0 0 0 0 0 0 0 0 0 0 0 0 0 0 0 0 0 0 0 0 0 0 0 0 0 0 0 404 404 404 418 408 418 420 418 418 418 420 420 418 422 422 413 413 406 404 406 406 408 406 411 411 418 420 418 415 415 413 415 411 411 406 406 411 408 413 411 420 415 418 420 411 411 413 404 413 413 408 420 420 418 422 422 425 422 422 427 420 420 425 420 420 422 422 430 430 432 430 430 422 420 425 425 420 422 420 420 422 425 425 420 415 0 0 425 420 422 418 418 427 415 425 427 427 430 427 427 430 427 435 425 427 422 422 425 422 418 415 418 422 415 418 418 420 422 430 430 430 435 438 440 440 440 0 435 438 438 435 420 427 427 425 435 435 430 430 430 435 435 438 438 438 440 446 446 446 448 448 448 446 438 430 432 432 432 430 430 430 430 430 432 432 435 435 435 435 432 438 435 440 440 440 443 440 443 440 440 443 443 440 440 438 438 440 440 440 440 438 440 440 438 435 435 435 438 443 443 448 448 462 462 454 454 440 438 438 435 435 435 435 435 435 435 432 427 427 430 430 430 430 425 418 411 406 402 395 395 391 391 391 393 391 389 389 395 389 385 383 381 385 391 381 389 0 0 0 0 0
    0 0 0 0 0 0 0 0 0 0 0 0 0 0 0 0 0 0 0 0 0 0 0 0 0 0 0 0 0 0 0 0 0 0 0 0 0 0 0 0 0 0 0 0 0 0 0 0 0 0 0 0 0 0 0 0 0 0 0 0 0 0 0 0 0 0 0 0 0 404 402 404 422 413 418 422 418 418 420 420 420 418 420 420 408 408 404 404 404 406 408 406 413 411 418 422 420 418 415 415 415 411 411 406 406 408 408 415 411 420 415 418 420 411 413 411 404 411 411 406 418 420 418 422 422 425 422 422 425 418 418 422 415 415 418 418 427 425 430 430 427 425 425 0 430 425 427 425 422 425 425 425 420 413 0 0 422 418 420 415 415 425 413 425 425 427 427 427 427 430 427 435 425 427 422 422 425 420 415 413 418 422 415 418 415 418 422 430 430 430 438 440 440 443 0 0 438 440 440 438 422 427 427 422 435 435 430 430 430 432 435 435 438 438 440 446 446 448 451 451 448 448 440 430 432 430 430 427 427 430 430 427 432 430 435 435 435 435 435 440 440 443 443 440 443 443 443 440 440 443 443 440 440 438 440 443 446 446 443 440 443 443 440 438 435 435 438 443 446 448 454 468 471 465 462 443 440 440 440 438 435 435 435 435 432 432 427 427 427 430 430 430 425 422 415 408 404 399 397 393 395 395 397 393 393 393 395 391 393 391 391 393 395 393 393 0 0 0 0 0
    0 0 0 0 0 0 0 0 0 0 0 0 0 0 0 0 0 0 0 0 0 0 0 0 0 0 0 0 0 0 0 0 0 0 0 0 0 0 0 0 0 0 0 0 0 0 0 0 0 0 0 0 0 0 0 0 0 0 0 0 0 0 0 0 0 0 0 0 0 399 393 399 418 415 420 425 420 420 420 420 418 415 418 418 406 406 402 402 404 406 406 406 411 411 418 422 420 418 415 415 415 408 411 406 404 408 406 413 411 418 415 418 418 408 408 408 404 408 411 404 418 420 418 422 422 425 422 422 427 420 418 422 413 415 418 413 427 420 427 427 425 0 0 0 0 425 430 425 422 427 425 422 415 411 0 0 420 418 420 418 418 425 413 425 427 427 430 427 430 430 427 438 427 427 425 420 422 418 413 413 418 420 418 418 418 418 422 430 432 432 438 0 443 448 0 0 0 446 443 438 422 427 427 422 432 435 430 430 430 432 432 435 438 438 440 446 446 448 451 451 448 446 440 430 432 430 430 427 427 430 427 427 430 430 432 435 435 435 435 440 443 446 446 443 446 446 443 443 440 443 443 440 440 438 443 443 448 446 443 440 443 443 440 438 435 435 438 446 446 451 457 468 474 471 462 443 443 443 440 440 438 438 435 438 432 432 430 427 430 430 430 432 427 427 420 408 404 399 399 397 397 397 402 399 399 399 408 397 399 395 395 395 397 0 411 0 0 0 0 0
    0 0 0 0 0 0 0 0 0 0 0 0 0 0 0 0 0 0 0 0 0 0 0 0 0 0 0 0 0 0 0 0 0 0 0 0 0 0 0 0 0 0 0 0 0 0 0 0 0 0 0 0 0 0 0 0 0 0 0 0 0 0 0 0 0 0 0 0 0 393 389 395 399 411 418 425 420 420 422 420 420 418 418 418 406 404 402 399 399 404 0 406 411 411 418 425 422 420 415 413 413 406 406 404 404 406 406 411 411 418 415 418 415 406 408 408 404 406 408 402 415 420 420 425 422 425 425 422 427 420 418 422 415 420 418 411 425 415 0 0 0 0 0 0 0 0 0 0 0 0 422 418 411 406 0 0 422 418 420 420 422 427 418 427 427 0 0 430 432 432 430 443 432 427 425 0 0 413 411 411 415 420 418 420 418 420 425 432 435 432 438 440 0 446 0 0 0 446 446 440 425 430 430 422 432 432 427 430 430 432 432 435 438 438 443 448 448 451 454 451 448 446 438 427 430 427 430 427 427 430 427 427 430 430 432 435 435 438 435 443 446 448 451 448 451 446 446 443 440 443 440 440 440 438 443 443 448 448 443 440 443 443 443 438 435 435 438 446 446 451 459 471 477 474 465 446 446 446 443 440 438 438 438 438 432 432 430 430 432 432 432 432 430 430 425 411 404 399 399 397 397 397 406 408 413 425 0 440 427 0 0 404 397 395 406 0 0 0 0 0
    0 0 0 0 0 0 0 0 0 0 0 0 0 0 0 0 0 0 0 0 0 0 0 0 0 0 0 0 0 0 0 0 0 0 0 0 0 0 0 0 0 0 0 0 0 0 0 0 0 0 0 0 0 0 0 0 0 0 0 0 0 0 0 0 0 0 0 0 0 391 387 395 395 402 418 425 422 422 422 422 420 418 418 415 406 402 399 395 395 0 0 0 0 0 0 0 425 420 415 411 408 404 404 399 399 0 0 0 0 413 411 415 418 406 408 411 406 406 406 404 415 420 420 427 425 425 425 425 427 420 418 0 411 411 408 0 411 0 0 0 100 99 99 99 99 0 0 0 0 0 420 413 408 404 406 406 420 415 418 418 420 427 418 427 0 0 0 432 435 435 435 448 438 430 0 0 0 0 0 0 413 415 415 420 415 0 422 430 432 432 438 0 435 440 0 0 0 440 440 438 427 432 432 425 430 432 427 430 427 430 432 435 438 440 446 451 448 454 459 457 448 446 435 427 430 425 427 425 427 427 425 427 430 430 432 0 435 438 0 446 448 451 454 448 451 448 446 443 440 443 440 438 440 438 443 446 451 448 443 440 446 443 443 440 435 438 438 443 443 448 454 468 477 474 462 446 448 448 446 440 440 440 435 438 432 432 430 430 432 432 432 435 430 432 430 415 408 402 402 399 399 399 411 418 425 432 457 443 432 0 422 411 402 402 408 0 0 0 0 0
    0 0 0 0 0 0 0 0 0 0 0 0 0 0 0 0 0 0 0 0 0 0 0 0 0 0 0 0 0 0 0 0 0 0 0 0 0 0 0 0 0 0 0 0 0 0 0 0 0 0 0 0 0 0 0 0 0 0 0 0 0 0 0 0 0 0 0 0 0 391 387 393 395 397 422 427 427 427 425 425 422 420 418 413 404 402 399 0 0 0 0 0 0 0 0 0 0 0 0 0 0 397 397 391 0 0 0 0 0 0 0 0 415 404 408 411 408 0 406 404 415 422 0 0 432 430 430 427 427 0 415 0 408 404 404 395 0 0 99 99 100 99 99 99 99 99 0 0 96 0 0 0 402 0 402 0 411 408 415 411 411 422 415 427 0 0 0 0 438 438 440 459 465 0 0 0 0 0 0 0 0 406 408 0 0 0 0 0 432 432 0 0 0 0 0 155 0 435 435 432 0 438 438 425 430 432 427 430 427 430 430 435 438 443 448 454 454 457 465 465 454 451 440 430 430 427 427 425 427 427 425 425 0 432 0 0 438 440 440 448 454 454 454 448 451 446 446 443 440 443 440 0 0 435 440 443 451 446 440 438 443 440 440 440 438 438 438 443 443 443 448 0 0 477 465 448 451 454 448 443 440 440 435 438 432 430 430 430 432 430 430 435 430 435 435 422 411 404 406 404 404 402 420 422 430 438 465 446 435 0 430 422 411 420 425 0 0 0 0 0
    0 0 0 0 0 0 0 0 0 0 0 0 0 0 0 0 0 0 0 0 0 0 0 0 0 0 0 0 0 0 0 0 0 0 0 0 0 0 0 0 0 0 0 0 0 0 0 0 0 0 0 0 0 0 0 0 0 0 0 0 0 0 0 0 0 0 0 0 0 393 389 393 0 0 448 443 440 435 432 427 422 420 413 411 406 402 397 0 0 0 0 0 0 0 0 0 0 0 0 0 0 404 399 397 0 0 0 0 0 0 0 0 0 399 404 0 0 0 0 395 397 0 0 0 0 0 0 0 0 0 0 0 0 399 0 0 0 0 99 99 100 99 99 99 99 99 0 0 0 0 0 0 0 373 389 387 0 0 0 0 0 0 0 0 0 0 0 440 443 446 451 454 735 0 0 0 0 0 0 0 0 0 0 0 766 750 735 721 0 0 0 0 0 0 0 0 432 435 438 430 430 440 438 425 425 430 422 427 427 427 425 432 438 440 446 454 454 459 468 471 454 0 0 432 0 0 427 0 0 0 425 0 0 0 0 0 443 443 448 454 457 459 454 448 451 443 0 0 0 0 0 0 0 420 418 427 0 438 430 432 440 440 440 440 438 438 438 440 440 0 0 0 0 490 474 462 468 465 454 446 443 440 0 438 432 430 430 430 432 432 432 435 432 448 443 430 418 408 413 411 406 406 425 427 432 443 471 448 435 0 0 427 418 422 422 0 0 0 0 0
    0 0 0 0 0 0 0 0 0 0 0 0 0 0 0 0 0 0 0 0 0 0 0 0 0 0 0 0 0 0 0 0 0 0 0 0 0 0 0 0 0 0 0 0 0 0 0 0 0 0 0 0 0 0 0 0 0 0 0 0 0 0 0 0 0 0 0 0 0 0 0 0 0 0 0 0 451 0 422 411 404 406 411 420 425 415 0 0 0 0 0 0 0 0 0 0 0 0 0 0 0 427 425 0 0 97 97 97 0 0 0 0 5661 3679 0 0 0 0 0 0 0 0 0 0 0 0 0 0 0 0 0 0 0 0 0 0 0 0 0 0 0 0 100 0 0 0 0 0 0 0 0 0 0 0 0 0 0 0 0 0 0 0 0 0 0 0 0 0 0 0 0 0 0 0 0 0 0 0 0 0 0 0 0 0 0 0 0 0 0 0 0 0 0 0 0 0 0 438 443 432 430 440 432 427 425 425 418 422 420 418 413 427 432 0 0 0 0 0 0 0 0 0 0 0 0 0 0 0 0 0 0 89 89 90 0 0 0 0 0 462 454 462 457 0 459 0 0 0 0 0 0 418 413 404 397 402 395 411 420 432 435 0 0 0 0 0 0 0 0 0 0 639 566 0 0 0 487 477 468 454 448 0 1051 0 430 432 432 432 0 0 432 438 432 0 451 435 418 408 420 422 413 408 430 432 438 451 471 451 443 454 446 430 420 427 422 0 0 0 0 0
    0 0 0 0 0 0 0 0 0 0 0 0 0 0 0 0 0 0 0 0 0 0 0 0 0 0 0 0 0 0 0 0 0 0 0 0 0 0 0 0 0 0 0 0 0 0 0 0 0 0 0 0 0 0 0 0 0 0 0 0 0 0 0 0 0 0 0 0 0 0 0 0 0 324 319 0 0 0 0 0 0 0 0 0 0 0 0 0 0 1149 1187 1206 0 0 1132 1132 1226 1168 0 0 0 0 0 0 0 0 0 0 313 0 0 0 0 0 0 0 0 0 327 331 331 331 327 333 331 0 0 0 0 0 0 0 0 0 0 0 0 0 0 0 0 0 0 0 0 0 0 0 0 0 0 0 0 0 0 0 0 0 0 0 0 0 0 0 0 0 0 0 0 0 0 0 0 0 0 0 0 93 0 0 0 0 0 0 0 0 0 0 0 0 0 0 0 0 0 0 0 0 0 0 0 0 0 0 0 0 0 0 0 0 0 0 0 0 0 0 0 0 0 0 0 0 0 0 0 0 0 0 0 0 0 0 0 0 0 700 0 687 687 0 0 340 342 342 339 342 342 0 0 0 0 0 0 0 0 402 393 0 0 0 0 0 0 0 116 0 0 0 0 0 0 0 0 0 0 0 507 0 0 0 0 0 0 0 0 0 0 0 0 0 0 0 0 0 459 0 418 415 432 430 420 413 435 435 440 465 477 462 465 474 457 432 422 427 415 0 0 0 0 0
    0 0 0 0 0 0 0 0 0 0 0 0 0 0 0 0 0 0 0 0 0 0 0 0 0 0 0 0 0 0 0 0 0 0 0 0 0 0 0 0 0 0 0 0 0 0 0 0 0 0 0 0 0 0 0 0 0 0 0 0 0 0 0 0 0 0 0 0 0 0 318 318 319 319 318 317 317 318 0 0 0 0 0 0 0 0 0 0 319 0 0 0 0 0 0 0 0 0 0 0 0 0 0 0 0 0 0 0 0 0 0 0 0 0 0 321 319 322 324 328 328 328 327 331 330 333 0 427 0 0 0 0 0 0 0 0 0 0 0 0 0 0 0 0 0 0 0 0 0 0 0 0 0 0 0 0 0 0 0 0 0 0 0 0 0 0 0 0 0 0 0 0 0 334 333 327 328 330 0 0 0 0 73 0 0 0 0 0 0 0 0 0 0 0 0 0 0 0 0 0 324 322 0 0 0 0 0 0 0 0 0 0 0 0 0 0 0 0 0 0 0 0 0 0 0 0 0 0 0 0 0 0 0 0 348 0 0 0 0 0 0 0 0 340 339 342 340 0 0 0 0 0 0 0 0 0 0 0 0 0 0 0 0 337 0 345 347 347 353 355 357 353 0 0 0 0 0 0 0 0 0 0 0 0 0 0 0 0 1082 0 0 0 721 681 0 0 0 0 443 435 427 427 438 435 448 0 487 474 471 465 440 430 418 411 399 0 0 0 0 0
    0 0 0 0 0 0 0 0 0 0 0 0 0 0 0 0 0 0 0 0 0 0 0 0 0 0 0 0 0 0 0 0 0 0 0 0 0 0 0 0 0 0 0 0 0 0 0 0 0 0 0 0 0 0 0 0 0 0 0 0 0 0 0 0 0 0 0 0 0 0 0 317 318 318 317 317 317 317 0 0 314 0 0 0 318 0 319 319 319 0 315 0 0 0 0 0 0 0 0 0 0 0 0 0 0 0 0 319 319 322 321 321 0 324 0 321 319 321 325 327 327 327 325 330 328 333 0 0 0 327 0 0 0 0 0 0 0 0 0 0 0 259 0 333 330 330 330 331 0 0 331 328 0 0 331 0 325 328 327 0 0 0 0 0 0 0 0 0 0 0 0 337 333 334 333 331 333 331 331 334 333 334 0 0 0 0 0 0 0 0 343 0 0 334 331 334 330 333 330 325 330 327 327 331 325 322 319 319 318 317 321 0 0 0 352 348 347 0 0 0 0 0 0 0 0 0 0 337 339 337 0 340 342 343 343 339 0 0 0 0 0 0 0 339 339 340 339 339 339 340 340 339 337 0 330 333 0 0 0 0 0 0 339 339 339 343 345 347 350 350 353 350 0 0 0 342 342 340 342 343 345 345 343 0 0 0 0 0 0 1291 0 0 758 721 721 707 0 0 0 0 0 0 0 454 468 487 484 477 477 471 457 438 406 397 385 0 0 0 0 0
    0 0 0 0 0 0 0 0 0 0 0 0 0 0 0 0 0 0 0 0 0 0 0 0 0 0 0 0 0 0 0 0 0 0 0 0 0 0 0 0 0 0 0 0 0 0 0 0 0 0 0 0 0 0 0 0 0 0 0 0 0 0 0 0 0 0 0 0 0 0 318 318 318 318 318 317 317 318 0 317 315 317 318 318 319 319 319 319 319 318 317 0 0 0 0 0 0 0 0 0 0 0 0 0 0 318 321 322 322 324 322 322 0 327 325 322 322 322 325 327 325 327 325 328 327 330 331 325 328 328 328 330 328 0 0 342 340 339 342 336 336 0 334 331 330 330 328 330 330 331 330 327 328 330 331 330 327 328 327 333 330 0 0 0 0 0 0 0 0 0 337 337 331 333 333 331 333 333 331 334 333 334 331 334 337 336 0 0 0 339 342 339 337 336 333 334 333 334 333 330 334 333 333 336 331 327 322 321 321 325 328 331 331 0 345 343 342 348 345 345 0 0 0 337 337 0 339 339 339 339 340 340 342 343 345 340 342 343 342 339 0 336 336 337 339 339 339 339 339 339 339 339 337 337 334 337 0 342 340 342 0 0 340 340 340 343 345 345 347 347 348 348 0 348 347 340 342 342 343 347 347 347 345 345 348 348 343 0 0 0 0 0 0 0 0 0 0 0 0 360 362 360 357 355 0 0 0 0 0 0 0 432 0 377 367 0 0 0 0 0
    0 0 0 0 0 0 0 0 0 0 0 0 0 0 0 0 0 0 0 0 0 0 0 0 0 0 0 0 0 0 0 0 0 0 0 0 0 0 0 0 0 0 0 0 0 0 0 0 0 0 0 0 0 0 0 0 0 0 0 0 0 0 0 0 0 0 0 0 0 317 318 318 318 318 318 317 317 317 317 315 314 314 317 317 319 319 319 321 321 319 318 0 0 0 318 0 0 314 0 0 0 0 318 0 318 318 321 322 322 325 322 324 0 328 327 325 322 322 327 328 325 327 324 325 325 328 330 324 327 328 327 327 327 330 337 339 339 337 339 334 334 331 334 331 328 330 328 330 330 330 328 327 328 328 330 331 327 330 328 333 333 327 0 0 0 0 0 0 0 0 337 336 331 333 333 333 334 333 331 333 333 334 333 333 336 336 336 336 337 337 339 336 336 334 333 333 334 334 334 333 336 336 336 336 334 330 325 325 324 328 330 330 330 331 340 340 339 345 342 342 340 0 339 337 337 336 339 339 339 339 340 340 342 343 343 340 342 342 342 339 0 336 336 337 337 339 337 339 337 339 339 339 339 339 339 340 339 343 342 342 0 0 0 340 340 343 343 345 347 347 347 347 347 348 347 342 342 343 345 348 347 347 347 345 350 348 343 339 0 0 0 0 0 0 0 0 0 0 357 0 360 360 355 353 352 357 355 350 353 357 359 0 0 0 364 0 0 0 0 0
    0 0 0 0 0 0 0 0 0 0 0 0 0 0 0 0 0 0 0 0 0 0 0 0 0 0 0 0 0 0 0 0 0 0 0 0 0 0 0 0 0 0 0 0 0 0 0 0 0 0 0 0 0 0 0 0 0 0 0 0 0 0 0 0 0 0 0 0 0 318 319 318 318 318 318 317 317 317 317 315 313 314 317 318 319 319 319 321 322 319 318 318 318 0 318 318 318 314 314 0 0 0 318 317 318 318 321 322 322 325 324 324 327 330 328 325 324 322 327 328 325 327 325 325 325 328 330 324 325 328 327 325 328 327 333 337 336 336 336 333 333 331 334 331 330 330 328 330 330 330 328 325 328 328 330 331 328 331 330 334 334 331 0 0 0 0 333 330 333 336 336 336 331 333 333 333 334 333 331 333 331 334 333 333 336 334 336 336 337 337 339 334 336 334 334 334 334 334 334 334 337 337 337 337 336 333 330 330 327 330 330 330 330 331 337 339 339 343 340 340 339 339 339 339 337 336 339 339 339 339 339 339 340 340 342 0 0 0 0 339 337 336 336 337 337 339 337 339 337 339 339 339 339 339 339 340 339 343 340 342 0 0 0 340 340 343 343 345 347 347 347 347 347 348 347 342 343 343 345 348 348 347 347 347 350 348 342 339 337 342 340 343 345 348 352 0 352 352 353 357 359 359 355 353 350 355 353 350 348 347 345 348 348 353 348 0 0 0 0 0
    0 0 0 0 0 0 0 0 0 0 0 0 0 0 0 0 0 0 0 0 0 0 0 0 0 0 0 0 0 0 0 0 0 0 0 0 0 0 0 0 0 0 0 0 0 0 0 0 0 0 0 0 0 0 0 0 0 0 0 0 0 0 0 0 0 0 0 0 0 318 319 319 318 318 318 318 318 318 317 317 314 315 318 318 321 319 319 319 322 321 318 318 318 318 319 318 318 315 314 0 0 0 318 317 318 318 321 322 322 325 324 324 327 330 328 327 324 322 327 328 327 327 325 325 325 327 330 324 325 327 327 324 328 325 331 334 334 334 333 331 333 331 334 333 330 330 328 330 330 330 328 325 328 328 330 330 328 331 330 334 334 331 0 330 0 334 333 327 333 334 336 334 330 331 333 331 334 333 331 333 331 336 334 334 336 334 334 336 339 339 340 336 336 336 336 336 336 334 334 334 337 337 337 337 336 334 331 333 330 331 331 331 331 333 337 339 339 343 340 340 339 339 339 339 337 337 339 339 339 339 339 339 339 340 0 339 0 0 0 339 337 337 337 339 337 339 337 339 337 339 339 339 337 339 339 340 339 342 340 340 0 0 340 340 340 343 343 345 345 347 347 347 345 348 347 342 343 343 345 348 347 347 347 347 350 348 342 339 337 342 340 343 345 347 348 350 348 350 350 355 355 355 352 352 350 355 352 348 347 345 345 347 347 347 342 0 0 0 0 0
    0 0 0 0 0 0 0 0 0 0 0 0 0 0 0 0 0 0 0 0 0 0 0 0 0 0 0 0 0 0 0 0 0 0 0 0 0 0 0 0 0 0 0 0 0 0 0 0 0 0 0 0 0 0 0 0 0 0 0 0 0 0 0 0 0 0 0 0 0 319 321 321 318 318 318 318 318 318 317 317 315 318 319 319 321 319 319 319 321 321 318 318 318 318 319 318 319 315 315 0 0 318 318 318 318 319 322 322 322 325 324 324 327 330 328 327 324 322 328 330 327 325 325 325 325 327 328 324 324 327 327 324 327 324 330 333 333 333 333 331 333 331 334 333 330 331 328 330 328 330 328 325 328 328 330 330 328 331 330 334 334 331 0 330 333 334 331 325 331 334 334 333 328 331 333 331 334 333 331 333 331 336 334 333 334 334 334 334 337 337 339 334 336 336 336 336 336 334 334 334 337 337 336 337 336 334 331 333 330 333 331 333 331 333 337 339 339 342 339 340 339 339 339 339 337 336 337 339 339 339 337 339 339 339 0 0 0 340 339 339 337 337 337 339 337 339 337 339 337 339 339 339 337 339 339 340 339 342 340 0 0 0 0 342 340 343 345 347 345 347 347 347 345 348 347 342 342 343 345 348 347 347 345 345 350 348 343 340 339 342 342 343 345 347 347 348 347 347 348 352 352 352 348 348 348 353 350 347 345 345 345 345 347 347 342 0 0 0 0 0
    0 0 0 0 0 0 0 0 0 0 0 0 0 0 0 0 0 0 0 0 0 0 0 0 0 0 0 0 0 0 0 0 0 0 0 0 0 0 0 0 0 0 0 0 0 0 0 0 0 0 0 0 0 0 0 0 0 0 0 0 0 0 0 0 0 0 0 0 0 319 321 321 319 319 319 319 319 318 318 318 317 0 321 321 324 322 321 321 321 321 319 319 318 318 319 318 319 317 317 0 0 319 319 319 0 321 324 324 324 327 327 327 328 330 330 328 327 322 328 330 327 325 325 325 325 327 330 322 324 325 327 324 327 324 328 333 333 333 333 333 334 331 334 333 330 330 328 330 328 328 327 325 328 327 328 330 328 331 330 333 334 331 336 330 331 334 331 324 331 333 333 331 328 331 331 331 334 333 331 333 333 336 334 333 333 333 333 334 336 336 337 333 336 336 336 336 336 334 334 334 337 337 336 337 336 334 331 334 331 333 333 334 333 334 336 337 337 342 337 339 337 339 339 339 337 336 337 339 339 339 337 339 339 339 340 0 0 340 339 340 339 339 337 339 339 339 339 339 339 339 339 339 339 340 342 340 340 342 0 0 0 0 0 342 342 343 345 347 345 345 347 347 345 348 345 342 342 343 345 348 347 347 347 347 350 348 345 343 340 342 342 343 345 347 347 347 347 347 348 352 352 350 348 348 348 353 348 347 343 343 343 343 345 345 340 0 0 0 0 0
    0 0 0 0 0 0 0 0 0 0 0 0 0 0 0 0 0 0 0 0 0 0 0 0 0 0 0 0 0 0 0 0 0 0 0 0 0 0 0 0 0 0 0 0 0 0 0 0 0 0 0 0 0 0 0 0 0 0 0 0 0 0 0 0 0 0 0 0 0 318 321 321 318 319 319 319 321 319 319 319 318 321 324 322 325 322 322 321 321 321 319 319 319 318 319 319 319 318 318 322 318 321 321 322 322 322 325 325 325 328 328 328 330 331 331 331 330 322 330 330 327 325 325 324 325 325 328 322 324 325 325 322 325 324 327 331 331 331 331 331 334 331 334 333 330 330 327 328 327 328 325 325 327 327 328 330 328 330 330 334 334 333 337 331 333 334 331 324 330 331 331 330 327 330 331 331 334 333 333 333 333 337 336 334 334 334 336 336 337 337 337 331 336 336 336 334 0 333 0 0 337 337 336 337 336 336 333 337 333 334 334 334 334 334 336 337 337 339 336 337 337 337 337 339 337 336 337 339 339 339 339 339 0 0 0 0 0 340 339 340 339 339 337 339 339 339 339 339 339 340 340 340 340 342 343 342 342 342 340 342 0 0 0 342 342 343 345 347 345 345 345 347 345 348 345 340 342 343 345 347 347 347 347 347 350 350 348 345 342 342 343 345 345 347 347 347 347 348 348 352 352 350 350 348 348 353 350 348 343 343 343 343 343 343 340 0 0 0 0 0
    0 0 0 0 0 0 0 0 0 0 0 0 0 0 0 0 0 0 0 0 0 0 0 0 0 0 0 0 0 0 0 0 0 0 0 0 0 0 0 0 0 0 0 0 0 0 0 0 0 0 0 0 0 0 0 0 0 0 0 0 0 0 0 0 0 0 0 0 0 318 319 321 318 319 321 321 322 321 322 321 319 319 0 321 325 322 321 321 322 322 319 319 319 319 319 319 321 319 319 321 318 321 321 322 322 324 324 325 325 328 328 328 330 331 331 331 331 324 330 330 327 325 324 324 324 325 328 322 322 324 325 324 327 324 327 331 331 331 331 331 333 330 334 331 330 330 327 328 327 328 327 325 328 327 328 330 330 331 331 334 334 333 337 333 333 336 331 324 331 331 331 330 327 330 331 331 334 333 333 333 334 337 336 334 334 336 336 336 339 337 337 331 336 336 336 334 0 333 0 0 0 337 336 337 339 337 336 339 336 336 336 336 334 334 334 336 336 339 336 337 337 337 337 339 337 336 337 339 339 339 0 339 0 0 0 0 0 340 339 340 339 339 339 339 339 339 339 339 339 340 340 340 342 342 345 342 342 342 340 342 342 340 0 342 342 343 345 347 345 345 345 347 345 347 343 340 342 343 345 347 347 347 347 347 352 350 348 343 343 342 343 345 345 347 347 347 347 348 348 352 352 350 350 350 350 353 350 348 345 343 343 343 343 342 340 0 0 0 0 0
    0 0 0 0 0 0 0 0 0 0 0 0 0 0 0 0 0 0 0 0 0 0 0 0 0 0 0 0 0 0 0 0 0 0 0 0 0 0 0 0 0 0 0 0 0 0 0 0 0 0 0 0 0 0 0 0 0 0 0 0 0 0 0 0 0 0 0 0 0 318 319 321 319 321 322 322 324 322 325 324 321 0 0 321 324 321 319 319 321 321 319 319 319 319 319 319 321 318 318 319 318 319 319 321 322 322 324 325 325 330 328 330 330 331 333 331 331 322 330 330 327 325 324 324 324 324 328 321 322 324 325 322 327 324 327 330 333 333 331 331 334 330 334 333 330 330 327 328 327 328 327 325 328 327 330 331 331 331 331 334 334 333 337 333 333 334 331 325 331 331 331 328 325 330 331 331 333 333 333 333 333 337 337 334 334 336 336 336 339 339 339 334 336 337 336 334 0 333 334 334 337 336 336 337 0 339 337 340 336 337 336 336 334 334 334 337 337 340 337 337 337 337 339 339 337 337 337 339 339 339 0 339 0 0 0 0 0 340 339 340 339 339 339 339 339 337 339 339 339 340 340 340 342 342 345 342 342 342 340 342 342 340 0 342 342 343 343 347 345 345 345 347 345 347 343 340 342 343 345 347 347 347 347 347 352 350 348 343 345 342 343 343 345 345 347 347 347 348 350 353 353 352 352 350 350 355 348 348 343 343 343 342 342 342 339 0 0 0 0 0
    0 0 0 0 0 0 0 0 0 0 0 0 0 0 0 0 0 0 0 0 0 0 0 0 0 0 0 0 0 0 0 0 0 0 0 0 0 0 0 0 0 0 0 0 0 0 0 0 0 0 0 0 0 0 0 0 0 0 0 0 0 0 0 0 0 0 0 0 0 318 319 321 319 322 322 322 324 322 325 324 321 321 0 321 322 321 319 319 321 321 319 319 319 318 318 318 319 317 317 318 317 318 318 319 319 321 322 324 324 327 325 325 328 330 330 330 328 322 330 330 328 325 324 324 324 325 328 321 321 322 324 321 324 322 325 328 331 331 331 333 334 330 334 333 331 331 327 328 327 328 327 327 328 328 330 331 331 333 331 334 334 333 337 334 333 333 330 325 330 330 331 327 324 330 331 331 333 331 333 333 333 337 337 336 336 337 337 337 340 340 340 336 337 339 337 336 336 334 334 334 337 336 336 337 337 339 337 339 336 337 337 337 334 334 336 337 337 340 339 339 339 339 339 339 337 337 337 339 337 337 339 339 0 0 0 0 339 339 339 340 339 339 339 339 339 339 339 339 339 340 340 340 342 342 345 340 342 342 340 342 342 340 0 342 342 343 343 347 343 345 345 347 345 347 343 340 342 343 345 347 347 345 347 347 350 348 348 343 345 342 345 345 345 347 347 347 347 348 350 353 353 352 353 352 352 355 350 348 343 342 342 340 340 340 339 0 0 0 0 0
    0 0 0 0 0 0 0 0 0 0 0 0 0 0 0 0 0 0 0 0 0 0 0 0 0 0 0 0 0 0 0 0 0 0 0 0 0 0 0 0 0 0 0 0 0 0 0 0 0 0 0 0 0 0 0 0 0 0 0 0 0 0 0 0 0 0 0 0 0 319 321 322 321 322 324 324 325 324 325 325 321 321 321 321 321 321 0 319 321 321 319 319 319 319 319 319 319 318 318 318 317 318 318 319 321 321 322 324 324 325 325 324 325 328 327 325 324 321 328 330 328 324 324 324 325 325 328 321 321 322 324 322 324 322 325 328 333 333 333 334 334 331 334 334 333 331 328 328 328 328 328 327 328 328 330 331 331 331 333 334 334 333 337 336 331 333 330 325 330 330 330 327 324 328 330 331 331 331 331 333 333 337 337 336 337 339 339 339 340 342 342 339 339 340 339 337 337 336 334 336 337 336 336 337 339 339 337 339 337 337 337 337 336 336 336 339 339 340 339 339 339 339 339 339 337 337 337 339 337 339 339 339 0 339 339 339 339 339 339 339 339 339 339 339 337 337 339 339 339 340 340 340 340 340 343 340 342 342 340 342 342 340 340 342 342 343 343 345 343 343 345 345 343 347 342 339 342 343 345 345 347 345 347 347 350 350 348 345 347 343 347 345 347 347 348 347 347 348 350 355 353 352 353 352 353 357 350 347 343 342 342 340 340 340 337 0 0 0 0 0
    0 0 0 0 0 0 0 0 0 0 0 0 0 0 0 0 0 0 0 0 0 0 0 0 0 0 0 0 0 0 0 0 0 0 0 0 0 0 0 0 0 0 0 0 0 0 0 0 0 0 0 0 0 0 0 0 0 0 0 0 0 0 0 0 0 0 0 0 0 319 321 322 322 324 325 325 325 324 327 325 322 321 321 321 321 0 319 319 319 321 319 0 319 319 319 319 319 318 318 319 318 319 319 321 321 322 324 324 322 325 324 324 325 327 325 324 322 319 327 328 327 324 324 324 325 325 330 321 321 322 324 322 322 322 324 327 333 333 334 334 334 331 334 334 333 333 330 328 328 328 328 328 328 330 330 330 331 331 331 333 331 331 334 333 328 331 327 325 330 328 330 327 324 328 330 331 331 331 331 333 334 337 337 336 337 339 339 337 339 340 340 339 339 340 339 339 337 336 336 336 337 336 334 337 0 339 337 339 337 339 337 339 336 336 336 339 339 340 337 339 337 337 337 339 336 337 337 339 339 339 339 339 0 340 339 339 0 339 339 339 339 339 339 339 337 337 339 339 339 339 339 340 340 340 342 339 340 340 340 342 342 340 342 342 342 343 343 345 343 343 345 345 343 345 340 339 340 343 345 345 347 345 347 347 352 350 350 347 348 347 348 347 348 348 350 347 348 348 350 353 353 352 353 350 355 357 350 348 343 342 342 340 339 337 334 0 0 0 0 0
    0 0 0 0 0 0 0 0 0 0 0 0 0 0 0 0 0 0 0 0 0 0 0 0 0 0 0 0 0 0 0 0 0 0 0 0 0 0 0 0 0 0 0 0 0 0 0 0 0 0 0 0 0 0 0 0 0 0 0 0 0 0 0 0 0 0 0 0 0 319 321 322 322 324 325 325 325 324 325 324 321 319 319 319 321 319 319 319 321 321 321 0 319 319 319 319 319 319 319 319 318 319 319 321 321 322 324 324 322 325 324 324 325 327 325 324 322 319 327 327 327 324 324 325 325 327 331 321 321 322 324 322 321 321 322 325 331 333 334 334 334 331 334 334 333 333 330 328 328 328 330 328 328 330 330 331 330 330 331 333 330 330 331 331 327 331 328 327 330 328 330 327 324 330 330 331 331 331 331 333 334 337 336 336 337 339 339 337 337 339 340 339 339 340 339 339 339 337 336 336 336 336 334 339 339 337 337 339 337 339 337 339 336 334 336 337 337 339 336 337 337 337 337 339 336 337 337 339 339 339 340 339 0 340 339 339 0 0 0 339 339 339 339 337 337 337 339 339 339 339 339 340 340 340 342 339 340 340 340 340 342 340 340 342 342 343 345 345 343 343 345 345 343 345 339 339 340 343 347 345 347 347 347 348 353 352 352 347 350 347 350 348 350 348 350 348 348 348 352 353 353 352 353 352 355 357 350 348 345 342 340 339 337 334 331 0 0 0 0 0
    0 0 0 0 0 0 0 0 0 0 0 0 0 0 0 0 0 0 0 0 0 0 0 0 0 0 0 0 0 0 0 0 0 0 0 0 0 0 0 0 0 0 0 0 0 0 0 0 0 0 0 0 0 0 0 0 0 0 0 0 0 0 0 0 0 0 0 0 0 318 321 322 322 324 324 325 325 322 324 322 319 318 318 318 318 318 319 318 321 321 321 321 321 321 321 319 321 319 319 321 318 319 319 319 321 321 322 324 322 324 324 324 325 327 324 324 322 319 325 327 327 324 324 325 325 327 331 321 321 322 324 322 321 321 321 325 331 333 334 334 334 330 333 334 333 333 330 328 330 328 331 330 328 330 330 331 331 331 331 333 330 331 331 331 327 331 328 328 331 330 331 328 324 330 330 331 330 330 331 331 333 337 336 336 337 340 340 339 339 339 340 339 339 339 339 339 339 337 337 336 336 336 336 0 339 339 337 339 337 0 337 339 336 334 334 337 337 337 336 337 337 337 337 339 336 337 339 339 339 339 340 339 339 340 339 339 0 0 0 337 339 339 339 337 337 337 337 337 339 339 339 340 340 340 342 340 340 340 340 340 340 340 340 342 342 343 345 345 343 342 345 343 343 343 339 337 340 343 345 345 347 347 348 348 353 352 352 348 352 348 352 348 350 350 352 348 350 350 353 353 355 353 355 352 357 357 350 350 347 343 342 339 337 334 331 0 0 0 0 0
    0 0 0 0 0 0 0 0 0 0 0 0 0 0 0 0 0 0 0 0 0 0 0 0 0 0 0 0 0 0 0 0 0 0 0 0 0 0 0 0 0 0 0 0 0 0 0 0 0 0 0 0 0 0 0 0 0 0 0 0 0 0 0 0 0 0 0 0 0 319 321 322 322 322 322 324 324 322 322 321 318 317 315 315 317 0 318 318 319 321 321 321 321 321 321 319 321 319 319 321 318 318 319 318 321 321 322 324 322 324 324 324 325 327 324 322 322 319 325 327 325 324 324 325 325 327 333 321 322 322 325 324 322 322 322 325 331 333 336 334 333 330 333 334 334 333 330 328 330 330 331 331 330 331 331 331 331 331 333 333 330 331 330 328 325 330 328 328 330 328 331 328 325 330 330 330 330 330 331 331 333 336 336 336 337 342 340 339 339 339 340 339 339 339 339 339 340 337 337 336 336 336 337 0 339 339 339 339 339 340 339 339 336 336 336 337 337 339 337 339 337 337 339 339 337 339 340 340 339 340 340 340 340 340 340 339 0 0 0 339 340 340 339 337 337 336 337 337 339 339 339 339 340 340 342 340 340 340 340 340 340 340 340 342 342 343 345 343 343 342 345 343 343 343 339 337 340 343 345 345 347 347 348 348 353 353 352 348 352 348 352 348 350 348 352 348 350 352 353 355 355 353 355 352 357 357 350 352 348 345 343 340 340 336 334 0 0 0 0 0
    0 0 0 0 0 0 0 0 0 0 0 0 0 0 0 0 0 0 0 0 0 0 0 0 0 0 0 0 0 0 0 0 0 0 0 0 0 0 0 0 0 0 0 0 0 0 0 0 0 0 0 0 0 0 0 0 0 0 0 0 0 0 0 0 0 0 0 0 0 319 322 322 322 322 322 324 322 321 321 319 317 315 314 315 315 0 317 318 319 319 321 321 321 321 321 321 321 319 319 319 318 318 318 318 321 321 322 324 322 324 324 325 327 325 324 322 321 319 325 327 325 324 324 325 327 327 333 322 324 324 325 325 324 322 322 325 330 333 336 336 331 330 333 334 334 333 330 328 330 330 331 331 330 331 331 333 333 331 333 333 330 330 328 327 324 330 328 328 330 328 330 330 325 331 330 330 330 330 331 331 333 337 334 334 337 340 339 337 337 339 340 339 339 339 339 339 340 337 337 337 336 337 337 339 339 339 339 339 339 340 337 337 336 336 336 337 339 339 339 340 339 339 340 340 339 340 340 340 340 340 340 340 340 340 340 340 0 0 0 339 340 340 340 339 337 336 337 336 337 337 337 339 339 339 340 339 340 340 342 342 342 340 342 342 342 343 345 343 343 342 345 343 342 343 339 339 342 343 345 345 347 347 348 350 353 352 350 348 350 348 350 348 350 348 350 348 350 352 353 355 355 353 355 352 355 355 348 350 348 347 343 342 340 339 336 0 0 0 0 0
    0 0 0 0 0 0 0 0 0 0 0 0 0 0 0 0 0 0 0 0 0 0 0 0 0 0 0 0 0 0 0 0 0 0 0 0 0 0 0 0 0 0 0 0 0 0 0 0 0 0 0 0 0 0 0 0 0 0 0 0 0 0 0 0 0 0 0 0 0 319 324 322 322 322 322 322 321 319 319 318 317 315 314 315 314 0 318 318 319 319 319 321 321 321 322 321 321 319 321 321 319 318 319 319 322 322 324 324 322 324 324 325 327 324 322 322 321 321 327 327 325 325 325 327 327 328 333 324 325 324 325 325 324 324 324 325 330 331 334 336 331 330 333 334 334 333 331 328 328 330 331 330 330 331 331 331 331 331 333 333 328 328 327 327 325 331 328 330 330 330 330 330 325 331 330 330 330 330 331 331 333 337 334 336 337 340 339 337 337 339 340 340 340 339 339 340 342 339 337 337 336 337 337 339 339 337 339 339 339 0 337 337 334 334 334 337 337 337 337 340 339 340 340 340 339 340 340 340 340 340 340 340 340 340 340 340 0 0 0 339 340 340 340 339 339 337 337 336 337 337 337 337 337 337 339 339 340 340 342 342 342 342 342 343 343 343 345 343 343 343 345 343 342 343 339 339 342 343 345 345 345 347 348 350 353 353 352 350 352 352 352 348 350 350 352 348 350 352 355 355 355 352 353 350 353 353 347 348 347 347 345 342 342 340 337 0 0 0 0 0
    0 0 0 0 0 0 0 0 0 0 0 0 0 0 0 0 0 0 0 0 0 0 0 0 0 0 0 0 0 0 0 0 0 0 0 0 0 0 0 0 0 0 0 0 0 0 0 0 0 0 0 0 0 0 0 0 0 0 0 0 0 0 0 0 0 0 0 0 0 321 324 322 322 322 321 322 321 319 319 318 317 317 315 315 315 315 318 318 321 321 321 322 322 322 322 321 322 321 322 322 321 319 321 319 322 322 322 322 322 322 324 324 325 324 322 324 321 321 327 327 327 325 327 327 327 328 333 324 325 325 325 327 324 324 324 325 330 331 334 334 330 330 333 334 333 333 331 328 328 331 331 330 330 330 330 330 330 330 331 331 328 328 327 328 325 333 331 331 331 330 330 331 327 331 330 328 330 331 331 331 331 336 334 336 339 340 339 337 337 339 340 340 340 339 339 339 340 337 337 336 336 337 337 337 339 337 339 339 339 339 337 337 336 336 336 337 337 337 337 339 339 339 340 340 339 340 342 342 340 342 342 340 340 340 340 340 0 0 339 339 340 340 340 339 339 337 336 336 337 337 337 337 337 337 339 340 340 340 342 342 342 342 342 343 343 345 347 343 343 343 345 343 343 342 339 339 342 345 345 347 347 348 348 352 355 355 352 352 352 353 352 348 352 350 352 350 352 353 355 355 355 352 352 348 352 352 345 347 347 347 345 342 342 340 340 0 0 0 0 0
    0 0 0 0 0 0 0 0 0 0 0 0 0 0 0 0 0 0 0 0 0 0 0 0 0 0 0 0 0 0 0 0 0 0 0 0 0 0 0 0 0 0 0 0 0 0 0 0 0 0 0 0 0 0 0 0 0 0 0 0 0 0 0 0 0 0 0 0 0 321 324 322 322 322 321 322 321 319 319 319 317 317 315 315 315 315 318 319 322 321 321 322 324 324 324 324 324 322 324 327 324 322 322 321 324 324 324 324 322 324 325 327 328 325 324 327 322 322 328 325 325 325 327 327 327 328 333 324 327 325 327 327 325 325 325 327 328 331 333 333 328 330 333 333 333 333 331 328 330 331 331 330 330 331 328 330 330 330 331 331 327 328 327 328 327 333 331 331 331 331 331 333 327 331 330 328 330 331 331 333 331 336 334 334 339 340 337 336 337 337 339 339 339 339 339 339 340 337 337 337 336 337 337 337 337 337 339 339 339 339 336 337 336 336 336 337 337 336 336 337 339 339 340 340 339 342 342 342 342 342 343 342 342 342 340 339 0 339 337 339 340 340 340 340 339 337 336 336 339 337 337 337 337 337 339 340 340 340 342 342 342 342 342 343 343 345 347 343 343 343 347 343 343 343 339 340 343 345 347 347 347 348 348 352 353 355 350 352 352 353 353 350 352 352 352 350 352 353 353 352 353 350 352 348 352 352 345 348 347 347 347 343 343 342 340 0 0 0 0 0
    0 0 0 0 0 0 0 0 0 0 0 0 0 0 0 0 0 0 0 0 0 0 0 0 0 0 0 0 0 0 0 0 0 0 0 0 0 0 0 0 0 0 0 0 0 0 0 0 0 0 0 0 0 0 0 0 0 0 0 0 0 0 0 0 0 0 0 0 0 318 321 321 321 321 319 322 321 319 319 319 318 317 314 315 314 314 318 319 322 321 322 324 324 324 325 325 325 324 327 328 324 324 324 322 324 324 324 322 322 324 325 328 328 327 325 328 324 322 328 325 325 325 327 327 327 330 333 325 328 327 327 327 325 325 325 327 330 331 333 331 328 330 333 333 331 333 330 328 330 331 331 331 331 331 330 331 331 331 333 331 328 328 327 327 327 333 333 331 331 331 331 333 328 331 330 328 330 331 331 333 333 337 336 334 337 340 337 336 337 337 339 339 339 339 339 339 340 337 337 337 336 337 337 337 337 336 339 337 339 339 337 337 336 336 336 337 336 336 336 337 339 339 342 340 339 342 343 342 342 342 342 340 340 342 339 339 339 339 337 339 340 340 342 340 339 339 337 339 339 339 339 339 337 339 340 340 340 340 342 342 342 342 342 343 343 345 347 343 343 345 347 345 345 343 340 342 343 347 347 347 347 347 348 352 353 353 350 350 350 353 353 350 352 350 352 350 352 352 353 352 352 348 350 347 350 350 345 348 348 348 348 345 345 343 342 0 0 0 0 0
    0 0 0 0 0 0 0 0 0 0 0 0 0 0 0 0 0 0 0 0 0 0 0 0 0 0 0 0 0 0 0 0 0 0 0 0 0 0 0 0 0 0 0 0 0 0 0 0 0 0 0 0 0 0 0 0 0 0 0 0 0 0 0 0 0 0 0 0 0 318 319 319 321 321 319 321 321 319 319 319 318 317 315 0 0 0 317 319 322 321 322 324 324 324 325 325 325 322 328 330 325 327 325 324 325 325 324 322 324 325 325 327 328 325 325 327 324 322 327 325 325 325 327 327 327 330 333 325 330 328 328 328 327 325 327 328 330 331 333 331 328 331 333 333 331 331 328 328 330 331 330 330 331 331 330 331 333 333 333 333 330 328 328 328 328 334 334 334 333 333 331 333 330 333 331 330 330 331 331 333 333 336 334 334 337 340 337 336 337 337 339 339 340 339 339 339 340 337 336 336 336 337 337 337 337 336 337 337 339 339 337 337 337 337 337 337 337 337 336 339 339 340 343 342 340 342 343 342 342 342 342 340 340 342 339 339 0 339 337 339 340 340 342 340 340 340 340 340 340 340 339 339 339 340 340 342 342 340 342 342 342 342 343 343 343 345 345 343 343 345 347 345 347 345 340 343 345 347 347 347 345 347 348 352 352 352 348 348 348 352 353 350 353 352 352 352 353 355 353 352 352 348 348 347 348 348 343 348 348 348 348 347 347 347 343 0 0 0 0 0
    0 0 0 0 0 0 0 0 0 0 0 0 0 0 0 0 0 0 0 0 0 0 0 0 0 0 0 0 0 0 0 0 0 0 0 0 0 0 0 0 0 0 0 0 0 0 0 0 0 0 0 0 0 0 0 0 0 0 0 0 0 0 0 0 0 0 0 0 0 318 319 319 321 319 319 321 321 319 319 319 317 315 314 0 0 314 315 0 321 0 0 0 2 322 324 324 324 321 327 327 324 325 324 322 324 324 324 322 324 325 325 327 328 325 325 328 324 324 327 324 325 325 327 327 325 330 331 325 331 330 328 330 328 328 328 330 331 333 333 333 330 331 333 333 331 331 328 327 328 330 330 330 331 331 330 331 333 333 334 333 331 328 330 328 328 334 334 334 333 334 331 333 328 331 331 328 328 331 331 333 331 336 334 334 337 339 337 336 337 337 337 339 339 337 339 336 339 336 334 336 334 336 336 336 336 336 337 337 339 339 337 337 337 337 337 337 337 337 337 339 340 340 343 342 340 343 343 342 342 343 343 342 342 343 342 340 0 339 339 340 342 342 343 342 340 342 342 342 342 340 340 340 340 342 342 342 342 342 343 343 342 342 343 343 343 345 345 343 343 345 347 345 347 345 342 343 345 345 347 347 345 347 347 352 350 350 348 348 347 352 353 350 355 352 352 355 355 357 357 353 352 347 348 347 347 347 343 347 348 348 352 350 352 352 347 0 0 0 0 0
    0 0 0 0 0 0 0 0 0 0 0 0 0 0 0 0 0 0 0 0 0 0 0 0 0 0 0 0 0 0 0 0 0 0 0 0 0 0 0 0 0 0 0 0 0 0 0 0 0 0 0 0 0 0 0 0 0 0 0 0 0 0 0 0 0 0 0 0 0 317 318 318 319 319 319 321 319 319 319 319 317 0 0 0 0 314 0 0 321 319 321 322 324 322 324 324 325 321 328 328 325 327 325 324 325 325 325 324 325 325 325 327 328 325 327 328 325 325 328 325 327 327 328 327 327 330 331 327 333 330 328 330 330 328 330 330 330 331 333 333 328 331 331 331 331 331 328 327 328 330 330 330 331 331 331 331 333 334 334 333 331 328 330 330 331 336 336 336 333 334 331 333 328 331 330 328 328 331 331 333 331 337 334 334 339 339 337 336 336 336 336 337 337 334 336 333 337 333 333 334 334 334 336 334 336 334 337 337 337 339 337 337 337 337 339 339 337 337 339 339 340 340 345 342 340 343 343 342 342 343 343 342 342 343 342 342 340 339 339 340 342 340 342 340 0 342 342 342 342 342 342 340 340 342 342 342 342 342 343 343 342 342 343 343 343 345 345 343 343 347 347 347 347 347 342 343 345 345 345 347 345 347 348 352 350 350 348 348 345 348 348 347 355 355 353 359 357 359 359 355 353 347 347 345 345 345 342 345 345 347 353 353 353 355 348 0 0 0 0 0
    0 0 0 0 0 0 0 0 0 0 0 0 0 0 0 0 0 0 0 0 0 0 0 0 0 0 0 0 0 0 0 0 0 0 0 0 0 0 0 0 0 0 0 0 0 0 0 0 0 0 0 0 0 0 0 0 0 0 0 0 0 0 0 0 0 0 0 0 0 315 317 318 319 319 319 319 321 319 321 321 318 0 0 0 0 314 0 0 321 321 321 322 324 324 324 325 327 324 333 333 328 330 327 325 327 327 325 324 325 325 325 327 328 325 325 328 325 324 328 325 327 327 327 327 327 330 331 327 333 330 328 328 327 327 328 327 327 328 328 328 325 330 330 331 330 331 327 327 328 330 330 330 331 333 331 333 333 334 336 334 333 331 333 333 334 337 337 337 334 336 331 334 328 331 330 328 328 331 331 333 331 337 334 334 339 339 337 336 337 336 336 336 337 333 334 331 336 331 333 334 334 334 334 334 336 334 336 337 337 337 337 337 336 336 339 337 336 336 337 337 339 339 343 340 339 342 343 342 342 342 342 340 342 342 340 340 339 339 339 339 340 339 340 340 0 342 342 343 342 342 342 340 340 342 342 343 342 342 342 343 342 342 343 343 343 345 345 343 345 347 347 347 348 347 342 343 345 345 347 348 347 348 348 353 352 352 350 350 345 350 350 348 359 360 360 362 362 364 360 357 353 345 345 347 345 345 342 345 345 348 359 357 353 355 350 0 0 0 0 0
    0 0 0 0 0 0 0 0 0 0 0 0 0 0 0 0 0 0 0 0 0 0 0 0 0 0 0 0 0 0 0 0 0 0 0 0 0 0 0 0 0 0 0 0 0 0 0 0 0 0 0 0 0 0 0 0 0 0 0 0 0 0 0 0 0 0 0 0 0 315 317 318 319 319 319 319 321 321 322 322 319 319 318 315 317 314 0 0 321 319 321 322 325 325 325 327 328 325 333 334 331 331 327 327 327 328 325 322 325 325 325 325 327 325 0 328 324 324 327 324 325 325 327 327 325 330 331 327 334 330 327 327 325 325 327 325 325 325 325 325 325 330 328 330 328 331 327 327 330 330 330 330 331 333 331 333 334 334 336 334 333 331 333 334 336 339 337 339 336 337 333 334 328 331 330 328 328 331 330 333 331 337 334 334 339 339 339 337 337 336 336 336 336 333 334 330 334 331 333 334 334 334 334 334 334 333 334 336 336 337 337 337 337 336 339 339 333 333 331 334 337 337 342 339 339 342 342 342 342 342 342 340 342 342 340 339 339 337 337 337 339 339 339 339 0 340 342 343 343 343 343 342 342 342 342 343 340 340 339 340 340 340 342 342 342 343 343 343 343 347 348 348 350 347 342 345 345 347 347 348 347 348 348 355 352 353 0 352 0 0 0 0 0 0 366 367 366 366 362 357 350 343 345 350 348 0 0 347 348 357 364 360 355 353 352 0 0 0 0 0
    0 0 0 0 0 0 0 0 0 0 0 0 0 0 0 0 0 0 0 0 0 0 0 0 0 0 0 0 0 0 0 0 0 0 0 0 0 0 0 0 0 0 0 0 0 0 0 0 0 0 0 0 0 0 0 0 0 0 0 0 0 0 0 0 0 0 0 0 0 317 317 318 318 319 319 319 322 321 322 324 321 319 318 315 317 314 314 0 321 319 321 324 325 325 325 328 328 327 334 336 331 331 328 327 327 328 325 324 327 325 325 325 327 327 325 327 324 324 325 322 325 324 325 325 325 330 331 327 334 330 327 327 325 325 325 324 322 324 322 324 324 330 328 328 327 330 327 327 330 328 328 330 331 333 331 334 334 336 336 334 334 331 334 334 336 339 337 339 334 337 333 334 327 331 330 328 328 330 330 331 330 336 334 333 337 339 339 337 337 334 334 334 336 333 334 330 334 331 333 334 334 334 333 333 334 331 333 334 334 336 337 339 337 336 0 339 330 330 319 330 334 333 342 339 337 342 343 342 342 342 342 340 340 342 340 0 0 0 0 0 0 0 0 339 339 340 342 343 343 343 345 343 343 343 343 345 340 339 336 336 334 337 0 0 340 342 342 343 343 347 347 348 350 347 342 345 345 347 347 348 347 348 348 355 352 0 0 0 0 0 0 0 0 0 0 0 0 0 360 353 347 343 343 347 348 0 345 350 353 359 366 362 355 353 357 0 0 0 0 0
    0 0 0 0 0 0 0 0 0 0 0 0 0 0 0 0 0 0 0 0 0 0 0 0 0 0 0 0 0 0 0 0 0 0 0 0 0 0 0 0 0 0 0 0 0 0 0 0 0 0 0 0 0 0 0 0 0 0 0 0 0 0 0 0 0 0 0 0 0 317 317 318 318 318 319 319 321 321 322 322 319 319 318 311 314 311 309 317 319 0 321 322 327 327 327 330 330 328 336 336 333 331 327 325 327 328 327 324 327 325 325 327 327 327 325 325 324 322 325 322 324 324 325 325 325 330 330 327 334 331 328 327 325 324 324 322 319 321 319 321 324 328 327 328 325 330 325 327 330 328 328 330 333 334 333 334 336 336 337 334 336 331 336 334 334 339 337 339 334 337 331 333 327 330 330 328 327 330 330 331 330 336 333 333 337 337 337 336 336 333 333 331 336 331 333 330 333 331 333 334 334 0 333 331 333 331 331 334 334 337 337 339 0 0 0 336 322 321 314 321 327 327 342 339 337 342 343 342 342 340 340 339 339 339 337 0 0 0 0 0 0 0 0 0 0 342 342 345 343 345 345 343 345 345 345 345 340 0 0 0 0 0 0 337 337 340 340 342 342 345 345 348 350 347 343 345 345 345 347 348 347 347 348 353 350 0 0 0 0 0 0 0 0 0 0 0 0 0 0 0 353 343 345 0 348 0 348 357 359 360 367 362 357 353 362 0 0 0 0 0
    0 0 0 0 0 0 0 0 0 0 0 0 0 0 0 0 0 0 0 0 0 0 0 0 0 0 0 0 0 0 0 0 0 0 0 0 0 0 0 0 0 0 0 0 0 0 0 0 0 0 0 0 0 0 0 0 0 0 0 0 0 0 0 0 0 0 0 0 0 317 317 318 318 318 319 319 321 321 322 321 319 318 317 309 313 309 305 310 0 0 319 321 325 325 325 328 330 328 336 336 333 330 327 324 325 330 327 325 327 325 325 325 327 325 0 325 324 324 325 322 325 324 325 325 325 330 328 328 334 331 328 325 0 0 322 319 0 317 314 317 322 328 325 327 325 330 327 328 330 327 328 330 333 334 334 336 336 336 337 336 337 333 339 336 337 342 343 343 339 340 333 334 325 330 328 328 327 330 330 331 330 336 333 331 337 337 337 336 336 333 333 331 334 328 0 325 327 325 0 0 0 0 328 325 330 328 328 336 333 337 339 339 0 0 0 331 315 315 311 318 322 324 342 339 336 340 342 340 342 339 339 337 334 333 331 325 0 0 0 314 0 0 0 0 0 0 0 345 343 345 347 345 347 345 347 345 0 0 0 0 0 0 0 0 0 0 339 342 342 347 345 348 350 347 342 345 345 345 345 348 347 347 348 353 350 0 0 0 0 0 0 0 0 0 0 0 0 0 0 0 0 0 0 0 0 0 0 343 343 350 364 360 357 348 364 0 0 0 0 0
    0 0 0 0 0 0 0 0 0 0 0 0 0 0 0 0 0 0 0 0 0 0 0 0 0 0 0 0 0 0 0 0 0 0 0 0 0 0 0 0 0 0 0 0 0 0 0 0 0 0 0 0 0 0 0 0 0 0 0 0 0 0 0 0 0 0 0 0 0 317 317 318 318 318 319 319 321 321 322 321 318 318 317 309 311 307 304 307 0 0 0 0 322 322 324 325 328 325 0 334 333 328 325 322 324 328 327 325 328 325 325 324 327 325 324 325 324 324 327 324 327 325 327 325 324 328 327 327 0 330 0 0 0 0 0 0 300 305 305 309 0 318 319 319 321 328 325 327 328 325 328 328 333 334 0 336 336 336 337 334 339 336 343 340 345 364 369 364 367 347 0 336 322 330 328 327 327 328 328 330 327 336 331 330 336 334 336 336 334 330 331 328 333 325 0 0 0 0 0 0 0 0 0 0 0 0 0 0 0 0 0 0 0 0 313 313 313 311 307 317 319 321 0 337 336 0 340 340 342 337 337 336 333 328 324 322 318 315 313 310 0 0 0 0 0 0 0 0 337 342 348 348 348 348 348 0 0 0 0 0 0 0 0 0 0 0 0 0 0 348 343 348 350 347 342 343 342 342 343 345 345 348 348 355 0 0 0 0 0 0 931 855 0 0 0 0 0 0 0 0 0 0 0 0 0 0 0 0 340 345 360 357 0 343 366 0 0 0 0 0
    0 0 0 0 0 0 0 0 0 0 0 0 0 0 0 0 0 0 0 0 0 0 0 0 0 0 0 0 0 0 0 0 0 0 0 0 0 0 0 0 0 0 0 0 0 0 0 0 0 0 0 0 0 0 0 0 0 0 0 0 0 0 0 0 0 0 0 0 0 314 313 317 315 318 319 319 321 321 321 321 318 318 317 310 311 307 304 306 307 0 0 0 0 0 0 0 0 0 0 0 334 325 324 321 324 327 325 325 328 325 327 325 330 330 328 330 327 328 330 325 330 327 327 327 324 327 322 0 0 0 0 0 0 0 0 0 0 0 0 0 0 0 0 0 0 321 0 0 327 324 328 0 333 0 0 0 0 0 342 0 0 0 0 367 371 373 379 373 373 0 0 336 319 327 325 324 325 327 327 327 325 336 330 330 0 334 0 0 0 0 0 0 0 0 0 0 0 0 0 0 0 0 0 0 0 0 0 0 0 0 0 0 0 0 0 0 0 306 305 314 317 0 0 0 0 0 0 0 0 0 0 0 333 325 322 321 318 314 311 309 0 306 306 299 299 0 0 0 0 0 0 0 0 0 348 0 0 0 0 0 0 0 0 0 0 0 0 0 0 0 0 0 0 348 0 0 0 0 0 0 0 0 0 0 0 0 0 0 0 0 931 865 0 0 782 0 0 0 0 0 533 0 0 0 0 0 0 0 0 0 0 0 0 337 343 0 0 0 0 0
    0 0 0 0 0 0 0 0 0 0 0 0 0 0 0 0 0 0 0 0 0 0 0 0 0 0 0 0 0 0 0 0 0 0 0 0 0 0 0 0 0 0 0 0 0 0 0 0 0 0 0 0 0 0 0 0 0 0 0 0 0 0 0 0 0 0 0 0 0 311 302 304 304 0 318 318 321 321 321 322 319 319 318 314 314 309 302 306 301 0 0 143 0 120 120 0 0 0 340 343 339 331 327 0 0 330 327 327 328 327 327 325 333 0 0 0 0 0 0 0 0 0 0 0 0 0 0 0 0 0 0 0 0 0 0 0 0 305 0 0 0 0 0 0 0 0 0 0 0 0 0 0 0 0 0 0 166 0 0 0 0 0 0 387 383 387 391 383 375 0 1711 0 317 324 322 324 325 327 327 325 324 336 0 0 0 0 0 0 0 0 0 0 0 0 0 0 0 0 0 0 0 0 0 0 0 0 0 0 0 0 0 0 0 0 0 0 0 0 0 0 0 0 0 0 0 0 0 0 0 0 0 327 324 317 317 317 315 311 309 307 0 304 304 299 297 295 295 297 300 305 0 0 0 0 0 0 0 0 0 0 0 0 0 0 0 0 0 0 0 0 0 0 0 0 0 0 0 0 0 0 0 0 0 0 0 0 0 0 0 0 0 0 0 0 0 0 0 0 0 545 529 0 0 0 0 0 0 0 0 0 0 0 337 334 339 0 0 0 0 0
    0 0 0 0 0 0 0 0 0 0 0 0 0 0 0 0 0 0 0 0 0 0 0 0 0 0 0 0 0 0 0 0 0 0 0 0 0 0 0 0 0 0 0 0 0 0 0 0 0 0 0 0 0 0 0 0 0 0 0 0 0 0 0 0 0 0 0 0 0 306 295 294 0 0 0 0 321 321 321 322 322 322 319 0 0 304 294 293 292 284 276 0 124 122 121 0 0 345 353 0 0 0 0 0 0 0 0 0 0 330 331 0 0 0 0 0 87 0 0 150 150 149 149 0 0 0 0 0 0 0 0 0 0 0 0 0 0 0 0 0 0 0 0 0 0 0 0 0 0 0 0 0 0 0 0 0 0 0 0 0 73 73 73 0 0 0 0 0 0 0 1533 0 0 0 0 0 0 0 0 0 0 0 0 0 0 0 0 0 0 0 0 0 0 0 0 0 0 0 0 0 0 0 0 0 0 0 0 0 0 0 0 0 0 0 0 0 0 0 0 0 0 0 0 0 0 0 0 0 0 0 0 317 317 310 313 314 311 309 306 304 0 0 302 297 297 295 295 296 297 300 294 0 0 0 0 0 0 0 0 0 0 0 0 0 0 0 0 0 0 0 0 0 0 0 0 0 0 0 0 0 0 0 0 0 0 0 0 0 0 0 0 0 0 0 0 0 0 0 0 0 521 525 0 0 0 0 0 318 0 0 0 0 330 328 0 0 0 0 0 0
    0 0 0 0 0 0 0 0 0 0 0 0 0 0 0 0 0 0 0 0 0 0 0 0 0 0 0 0 0 0 0 0 0 0 0 0 0 0 0 0 0 0 0 0 0 0 0 0 0 0 0 0 0 0 0 0 0 0 0 0 0 0 0 0 0 0 0 0 0 0 0 292 0 0 0 0 0 6690 7359 0 328 324 319 0 0 0 0 0 277 277 272 0 123 122 0 0 0 0 0 0 0 0 0 0 0 0 0 0 0 0 0 0 0 0 0 0 0 0 0 0 0 0 0 0 0 0 0 0 0 0 0 0 0 0 0 0 0 0 0 0 0 0 0 0 0 0 0 0 0 0 0 0 0 0 0 0 0 0 0 0 0 0 0 0 0 0 0 0 0 0 0 0 0 0 0 0 0 0 0 0 0 0 0 0 0 0 0 0 0 0 0 0 0 0 0 0 0 0 0 0 0 0 0 0 0 0 0 0 0 0 0 0 0 0 0 0 0 0 0 0 0 0 0 0 0 0 0 0 0 0 0 0 313 305 311 311 310 307 305 304 0 0 302 297 297 295 295 296 297 299 294 0 0 0 0 0 0 0 0 0 0 0 0 0 0 0 0 0 0 0 0 0 0 0 0 0 0 0 0 0 0 0 0 0 0 0 0 0 0 0 0 0 0 0 0 0 0 0 0 0 0 525 0 0 0 319 315 315 0 0 0 0 321 321 0 0 0 0 0 0
    0 0 0 0 0 0 0 0 0 0 0 0 0 0 0 0 0 0 0 0 0 0 0 0 0 0 0 0 0 0 0 0 0 0 0 0 0 0 0 0 0 0 0 0 0 0 0 0 0 0 0 0 0 0 0 0 0 0 0 0 0 0 0 0 0 0 0 0 0 0 0 0 0 0 0 0 0 0 0 0 0 0 0 0 0 0 0 0 0 0 0 0 0 0 0 0 0 0 0 0 0 0 0 0 0 0 0 0 0 0 0 0 0 0 0 0 0 0 0 0 0 0 0 0 0 0 0 0 0 0 0 0 0 0 0 0 0 0 0 0 0 0 0 0 0 0 0 0 0 0 0 0 0 0 0 0 0 0 0 0 0 0 0 0 0 0 0 0 0 0 0 0 0 0 0 0 0 0 0 0 0 0 0 0 0 0 0 0 0 0 0 0 0 0 0 0 0 0 0 0 0 0 0 0 0 0 0 0 0 0 0 0 0 0 0 0 0 0 0 0 0 0 0 0 0 0 0 0 0 0 0 0 313 305 311 311 310 307 305 304 0 0 302 297 297 295 295 296 297 299 294 0 0 0 0 0 0 0 0 0 0 0 0 0 0 0 0 0 0 0 0 0 0 0 0 0 0 0 0 0 0 0 0 0 0 0 0 0 0 0 0 0 0 0 0 0 0 0 518 0 0 0 0 0 0 315 313 313 313 0 0 0 315 315 0 0 0 0 0 0
    0 0 0 0 0 0 0 0 0 0 0 0 0 0 0 0 0 0 0 0 0 0 0 0 0 0 0 0 0 0 0 0 0 0 0 0 0 0 0 0 0 0 0 0 0 0 0 0 0 0 0 0 0 0 0 0 0 0 0 0 0 0 0 0 0 0 0 0 0 0 0 0 0 0 0 0 0 0 0 0 0 0 0 0 0 0 0 0 0 0 0 0 0 0 0 0 0 0 0 0 0 0 0 0 0 0 0 0 0 0 0 0 0 0 0 0 0 0 0 0 0 0 0 0 0 0 0 0 0 0 0 0 0 0 0 0 0 0 0 0 0 0 0 0 0 0 0 0 0 0 0 0 0 0 0 0 0 0 0 0 0 0 0 0 0 0 0 0 0 0 0 0 0 0 0 0 0 0 0 0 0 0 0 0 0 0 0 0 0 0 0 0 0 0 0 0 0 0 0 0 0 0 0 0 0 0 0 0 0 0 0 0 0 0 0 0 0 0 0 0 0 0 0 0 0 0 0 0 0 0 0 0 317 309 313 313 310 307 305 304 300 301 302 297 296 295 295 296 297 299 294 0 0 0 0 0 0 0 0 0 0 0 0 0 0 0 0 0 0 0 0 0 0 0 0 0 0 0 0 0 0 0 0 0 0 0 0 0 0 0 0 0 0 0 0 0 0 529 518 0 0 0 0 0 0 314 310 313 0 0 0 0 0 314 0 0 0 0 0 0
    0 0 0 0 0 0 0 0 0 0 0 0 0 0 0 0 0 0 0 0 0 0 0 0 0 0 0 0 0 0 0 0 0 0 0 0 0 0 0 0 0 0 0 0 0 0 0 0 0 0 0 0 0 0 0 0 0 0 0 0 0 0 0 0 0 0 0 0 0 0 0 0 0 0 0 0 0 0 0 0 0 0 0 0 0 0 0 0 0 0 0 0 0 0 0 0 0 0 0 0 0 0 0 0 0 0 0 0 0 0 0 0 0 0 0 0 0 0 0 0 0 0 0 0 0 0 0 0 0 0 0 0 0 0 0 0 0 0 0 0 0 0 0 0 0 0 0 0 0 0 0 0 0 0 0 0 0 0 0 0 0 0 0 0 0 0 0 0 0 0 0 0 0 0 0 0 0 0 0 0 0 0 0 0 0 0 0 0 0 0 0 0 0 0 0 0 0 0 0 0 0 0 0 0 0 0 0 0 0 0 0 0 0 0 0 0 0 0 0 0 0 0 0 0 0 0 0 0 0 0 0 0 319 315 317 315 313 309 305 302 300 301 300 297 296 294 295 295 296 296 293 0 0 0 0 0 0 0 0 0 0 0 0 0 0 0 0 0 0 0 0 0 0 0 0 0 0 0 0 0 0 0 0 0 0 0 0 0 0 0 0 0 0 0 0 0 0 529 521 0 0 514 0 0 0 315 311 313 0 0 0 0 313 314 0 0 0 0 0 0
    0 0 0 0 0 0 0 0 0 0 0 0 0 0 0 0 0 0 0 0 0 0 0 0 0 0 0 0 0 0 0 0 0 0 0 0 0 0 0 0 0 0 0 0 0 0 0 0 0 0 0 0 0 0 0 0 0 0 0 0 0 0 0 0 0 0 0 0 0 0 0 0 0 0 0 0 0 0 0 0 0 0 0 0 0 0 0 0 0 0 0 0 0 0 0 0 0 0 0 0 0 0 0 0 0 0 0 0 0 0 0 0 0 0 0 0 0 0 0 0 0 0 0 0 0 0 0 0 0 0 0 0 0 0 0 0 0 0 0 0 0 0 0 0 0 0 0 0 0 0 0 0 0 0 0 0 0 0 0 0 0 0 0 0 0 0 0 0 0 0 0 0 0 0 0 0 0 0 0 0 0 0 0 0 0 0 0 0 0 0 0 0 0 0 0 0 0 0 0 0 0 0 0 0 0 0 0 0 0 0 0 0 0 0 0 0 0 0 0 0 0 0 0 0 0 0 0 0 0 0 0 0 0 337 319 318 315 0 307 304 300 302 300 297 296 294 295 294 295 294 290 0 0 0 0 0 0 0 0 0 0 0 0 0 0 0 0 0 0 0 0 0 0 0 0 0 0 0 0 0 0 0 0 0 0 0 0 0 0 0 0 0 0 0 0 537 533 533 529 0 0 0 0 0 0 315 310 310 0 0 0 0 310 311 0 0 0 0 0 0
    0 0 0 0 0 0 0 0 0 0 0 0 0 0 0 0 0 0 0 0 0 0 0 0 0 0 0 0 0 0 0 0 0 0 0 0 0 0 0 0 0 0 0 0 0 0 0 0 0 0 0 0 0 0 0 0 0 0 0 0 0 0 0 0 0 0 0 0 0 0 0 0 0 0 0 0 0 0 0 0 0 0 0 0 0 0 0 0 0 0 0 0 0 0 0 0 0 0 0 0 0 0 0 0 0 0 0 0 0 0 0 0 0 0 0 0 0 0 0 0 0 0 0 0 0 0 0 0 0 0 0 0 0 0 0 0 0 0 0 0 0 0 0 0 0 0 0 0 0 0 0 0 0 0 0 0 0 0 0 0 0 0 0 0 0 0 0 0 0 0 0 0 0 0 0 0 0 0 0 0 0 0 0 0 0 0 0 0 0 0 0 0 0 0 0 0 0 0 0 0 0 0 0 0 0 0 0 0 0 0 0 0 0 0 0 0 0 0 0 0 0 0 0 0 0 0 0 0 0 0 0 0 0 0 0 0 0 0 0 0 304 307 304 299 300 297 297 296 296 295 0 0 0 0 0 0 0 0 0 0 0 0 0 0 0 0 0 0 0 0 0 0 0 0 0 0 0 0 0 0 0 0 0 0 0 0 0 0 0 0 0 0 0 0 0 0 0 0 0 0 0 0 0 0 0 313 304 302 0 0 0 0 0 300 302 0 0 0 0 0
    0 0 0 0 0 0 0 0 0 0 0 0 0 0 0 0 0 0 0 0 0 0 0 0 0 0 0 0 0 0 0 0 0 0 0 0 0 0 0 0 0 0 0 0 0 0 0 0 0 0 0 0 0 0 0 0 0 0 0 0 0 0 0 0 0 0 0 0 0 0 0 0 0 0 0 0 0 0 0 0 0 0 0 0 0 0 0 0 0 0 0 0 0 0 0 0 0 0 0 0 0 0 0 0 0 0 0 0 0 0 0 0 0 0 0 0 0 0 0 0 0 0 0 0 0 0 0 0 0 0 0 0 0 0 0 0 0 0 0 0 0 0 0 0 0 0 0 0 0 0 0 0 0 0 0 0 0 0 0 0 0 0 0 0 0 0 0 0 0 0 0 0 0 0 0 0 0 0 0 0 0 0 0 0 0 0 0 0 0 0 0 0 0 0 0 0 0 0 0 0 0 0 0 0 0 0 0 0 0 0 0 0 0 0 0 0 0 0 0 0 0 0 0 0 0 0 0 0 0 0 0 0 0 0 0 0 0 0 0 0 0 0 0 302 302 301 301 302 0 0 0 0 0 0 0 0 0 0 0 0 0 0 0 0 0 0 0 0 0 0 0 0 0 0 0 0 0 0 0 0 0 0 0 0 0 0 0 0 0 0 0 0 0 0 0 0 0 0 0 0 0 855 0 0 0 307 0 0 0 0 0 0 295 295 0 0 0 0 0 0
    0 0 0 0 0 0 0 0 0 0 0 0 0 0 0 0 0 0 0 0 0 0 0 0 0 0 0 0 0 0 0 0 0 0 0 0 0 0 0 0 0 0 0 0 0 0 0 0 0 0 0 0 0 0 0 0 0 0 0 0 0 0 0 0 0 0 0 0 0 0 0 0 0 0 0 0 0 0 0 0 0 0 0 0 0 0 0 0 0 0 0 0 0 0 0 0 0 0 0 0 0 0 0 0 0 0 0 0 0 0 0 0 0 0 0 0 0 0 0 0 0 0 0 0 0 0 0 0 0 0 0 0 0 0 0 0 0 0 0 0 0 0 0 0 0 0 0 0 0 0 0 0 0 0 0 0 0 0 0 0 0 0 0 0 0 0 0 0 0 0 0 0 0 0 0 0 0 0 0 0 0 0 0 0 0 0 0 0 0 0 0 0 0 0 0 0 0 0 0 0 0 0 0 0 0 0 0 0 0 0 0 0 0 0 0 0 0 0 0 0 0 0 0 0 0 0 0 0 0 0 0 0 0 0 0 0 0 0 0 0 0 0 0 0 0 0 0 0 0 0 0 0 0 0 0 0 0 0 0 0 0 0 0 0 0 0 0 0 0 0 0 0 0 0 0 0 0 0 0 0 0 0 0 0 0 0 0 0 0 0 0 0 0 0 0 0 0 0 0 0 0 876 865 855 0 0 0 0 0 0 0 0 0 0 0 0 0 0 0 0
    0 0 0 0 0 0 0 0 0 0 0 0 0 0 0 0 0 0 0 0 0 0 0 0 0 0 0 0 0 0 0 0 0 0 0 0 0 0 0 0 0 0 0 0 0 0 0 0 0 0 0 0 0 0 0 0 0 0 0 0 0 0 0 0 0 0 0 0 0 0 0 0 0 0 0 0 0 0 0 0 0 0 0 0 0 0 0 0 0 0 0 0 0 0 0 0 0 0 0 0 0 0 0 0 0 0 0 0 0 0 0 0 0 0 0 0 0 0 0 0 0 0 0 0 0 0 0 0 0 0 0 0 0 0 0 0 0 0 0 0 0 0 0 0 0 0 0 0 0 0 0 0 0 0 0 0 0 0 0 0 0 0 0 0 0 0 0 0 0 0 0 0 0 0 0 0 0 0 0 0 0 0 0 0 0 0 0 0 0 0 0 0 0 0 0 0 0 0 0 0 0 0 0 0 0 0 0 0 0 0 0 0 0 0 0 0 0 0 0 0 0 0 0 0 0 0 0 0 0 0 0 0 0 0 0 0 0 0 0 0 0 0 0 0 0 0 0 0 0 0 0 0 0 0 0 0 0 0 0 0 0 0 0 0 0 0 0 0 0 0 0 0 0 0 0 0 0 0 0 0 0 0 0 0 0 0 0 0 0 0 0 0 0 0 0 0 0 0 0 0 0 855 0 865 0 0 0 0 0 0 0 0 0 0 0 0 0 0 0 0
    0 0 0 0 0 0 0 0 0 0 0 0 0 0 0 0 0 0 0 0 0 0 0 0 0 0 0 0 0 0 0 0 0 0 0 0 0 0 0 0 0 0 0 0 0 0 0 0 0 0 0 0 0 0 0 0 0 0 0 0 0 0 0 0 0 0 0 0 0 0 0 0 0 0 0 0 0 0 0 0 0 0 0 0 0 0 0 0 0 0 0 0 0 0 0 0 0 0 0 0 0 0 0 0 0 0 0 0 0 0 0 0 0 0 0 0 0 0 0 0 0 0 0 0 0 0 0 0 0 0 0 0 0 0 0 0 0 0 0 0 0 0 0 0 0 0 0 0 0 0 0 0 0 0 0 0 0 0 0 0 0 0 0 0 0 0 0 0 0 0 0 0 0 0 0 0 0 0 0 0 0 0 0 0 0 0 0 0 0 0 0 0 0 0 0 0 0 0 0 0 0 0 0 0 0 0 0 0 0 0 0 0 0 0 0 0 0 0 0 0 0 0 0 0 0 0 0 0 0 0 0 0 0 0 0 0 0 0 0 0 0 0 0 0 0 0 0 0 0 0 0 0 0 0 0 0 0 0 0 0 0 0 0 0 0 0 0 0 0 0 0 0 0 0 0 0 0 0 0 0 0 0 0 0 0 0 0 0 0 0 0 0 0 0 0 0 0 0 0 0 0 876 0 0 0 0 274 271 269 0 0 0 0 0 0 0 0 0 0 0
    0 0 0 0 0 0 0 0 0 0 0 0 0 0 0 0 0 0 0 0 0 0 0 0 0 0 0 0 0 0 0 0 0 0 0 0 0 0 0 0 0 0 0 0 0 0 0 0 0 0 0 0 0 0 0 0 0 0 0 0 0 0 0 0 0 0 0 0 0 0 0 0 0 0 0 0 0 0 0 0 0 0 0 0 0 0 0 0 0 0 0 0 0 0 0 0 0 0 0 0 0 0 0 0 0 0 0 0 0 0 0 0 0 0 0 0 0 0 0 0 0 0 0 0 0 0 0 0 0 0 0 0 0 0 0 0 0 0 0 0 0 0 0 0 0 0 0 0 0 0 0 0 0 0 0 0 0 0 0 0 0 0 0 0 0 0 0 0 0 0 0 0 0 0 0 0 0 0 0 0 0 0 0 0 0 0 0 0 0 0 0 0 0 0 0 0 0 0 0 0 0 0 0 0 0 0 0 0 0 0 0 0 0 0 0 0 0 0 0 0 0 0 0 0 0 0 0 0 0 0 0 0 0 0 0 0 0 0 0 0 0 0 0 0 0 0 0 0 0 0 0 0 0 0 0 0 0 0 0 0 0 0 0 0 0 0 0 0 0 0 0 0 0 0 0 0 0 0 0 0 0 0 0 0 0 0 0 0 0 0 0 0 0 0 0 0 0 0 0 0 0 0 566 0 272 270 272 270 267 268 271 0 0 0 0 0 0 0 0 0
    0 0 0 0 0 0 0 0 0 0 0 0 0 0 0 0 0 0 0 0 0 0 0 0 0 0 0 0 0 0 0 0 0 0 0 0 0 0 0 0 0 0 0 0 0 0 0 0 0 0 0 0 0 0 0 0 0 0 0 0 0 0 0 0 0 0 0 0 0 0 0 0 0 0 0 0 0 0 0 0 0 0 0 0 0 0 0 0 0 0 0 0 0 0 0 0 0 0 0 0 0 0 0 0 0 0 0 0 0 0 0 0 0 0 0 0 0 0 0 0 0 0 0 0 0 0 0 0 0 0 0 0 0 0 0 0 0 0 0 0 0 0 0 0 0 0 0 0 0 0 0 0 0 0 0 0 0 0 0 0 0 0 0 0 0 0 0 0 0 0 0 0 0 0 0 0 0 0 0 0 0 0 0 0 0 0 0 0 0 0 0 0 0 0 0 0 0 0 0 0 0 0 0 0 0 0 0 0 0 0 0 0 0 0 0 0 0 0 0 0 0 0 0 0 0 0 0 0 0 0 0 0 0 0 0 0 0 0 0 0 0 0 0 0 0 0 0 0 0 0 0 0 0 0 0 0 0 0 0 0 0 0 0 0 0 0 0 0 0 0 0 0 0 0 0 0 0 0 0 0 0 0 0 0 0 0 0 0 0 0 0 817 0 0 0 0 0 0 0 0 0 0 0 0 271 270 271 269 266 267 268 272 0 0 0 0 0 0 0 0
    0 0 0 0 0 0 0 0 0 0 0 0 0 0 0 0 0 0 0 0 0 0 0 0 0 0 0 0 0 0 0 0 0 0 0 0 0 0 0 0 0 0 0 0 0 0 0 0 0 0 0 0 0 0 0 0 0 0 0 0 0 0 0 0 0 0 0 0 0 0 0 0 0 0 0 0 0 0 0 0 0 0 0 0 0 0 0 0 0 0 0 0 0 0 0 0 0 0 0 0 0 0 0 0 0 0 0 0 0 0 0 0 0 0 0 0 0 0 0 0 0 0 0 0 0 0 0 0 0 0 0 0 0 0 0 0 0 0 0 0 0 0 0 0 0 0 0 0 0 0 0 0 0 0 0 0 0 0 0 0 0 0 0 0 0 0 0 0 0 0 0 0 0 0 0 0 0 0 0 0 0 0 0 0 0 0 0 0 0 0 0 0 0 0 0 0 0 0 0 0 0 0 0 0 0 0 0 0 0 0 0 0 0 0 0 0 0 0 0 0 0 0 0 0 0 0 0 0 0 0 0 0 0 0 0 0 0 0 0 0 0 0 0 0 0 0 0 0 0 0 0 0 0 0 0 0 0 0 0 0 0 0 0 0 0 0 0 0 0 0 0 0 0 0 0 0 0 0 0 0 0 0 0 0 0 0 0 0 0 0 0 766 782 0 0 0 0 0 0 0 0 0 0 0 269 269 270 267 265 266 265 268 0 0 0 0 0 0 0 0
    0 0 0 0 0 0 0 0 0 0 0 0 0 0 0 0 0 0 0 0 0 0 0 0 0 0 0 0 0 0 0 0 0 0 0 0 0 0 0 0 0 0 0 0 0 0 0 0 0 0 0 0 0 0 0 0 0 0 0 0 0 0 0 0 0 0 0 0 0 0 0 0 0 0 0 0 0 0 0 0 0 0 0 0 0 0 0 0 0 0 0 0 0 0 0 0 0 0 0 0 0 0 0 0 0 0 0 0 0 0 0 0 0 0 0 0 0 0 0 0 0 0 0 0 0 0 0 0 0 0 0 0 0 0 0 0 0 0 0 0 0 0 0 0 0 0 0 0 0 0 0 0 0 0 0 0 0 0 0 0 0 0 0 0 0 0 0 0 0 0 0 0 0 0 0 0 0 0 0 0 0 0 0 0 0 0 0 0 0 0 0 0 0 0 0 0 0 0 0 0 0 0 0 0 0 0 0 0 0 0 0 0 0 0 0 0 0 0 0 0 0 0 0 0 0 0 0 0 0 0 0 0 0 0 0 0 0 0 0 0 0 0 0 0 0 0 0 0 0 0 0 0 0 0 0 0 0 0 0 0 0 0 0 0 248 0 0 0 0 0 0 0 0 0 0 0 0 0 0 0 0 0 0 0 0 0 1752 1672 0 0 0 0 0 0 0 0 0 0 0 0 0 0 265 264 268 268 268 265 264 265 263 0 0 0 0 0 0 0 0 0
    0 0 0 0 0 0 0 0 0 0 0 0 0 0 0 0 0 0 0 0 0 0 0 0 0 0 0 0 0 0 0 0 0 0 0 0 0 0 0 0 0 0 0 0 0 0 0 0 0 0 0 0 0 0 0 0 0 0 0 0 0 0 0 0 0 0 0 0 0 0 0 0 0 0 0 0 0 0 0 0 0 0 0 0 0 0 0 0 0 0 0 0 0 0 0 0 0 0 0 0 0 0 0 0 0 0 0 0 0 0 0 0 0 0 0 0 0 0 0 0 0 0 0 0 0 0 0 0 0 0 0 0 0 0 0 0 0 0 0 0 0 0 0 0 0 0 0 0 0 0 0 0 0 0 0 0 0 0 0 0 0 0 0 0 0 0 0 0 0 0 0 0 0 0 0 0 0 0 0 0 0 0 0 0 0 0 0 0 0 0 0 0 0 0 0 0 0 0 0 0 0 0 0 0 0 0 0 0 0 0 0 0 0 0 0 0 0 0 0 0 0 0 0 0 0 0 0 0 0 0 0 0 0 0 0 0 0 0 0 0 0 0 0 0 0 0 0 0 0 0 0 0 0 0 0 0 105 103 101 0 0 0 0 248 246 0 0 0 0 0 0 0 0 0 0 0 0 0 0 0 0 0 0 0 0 0 0 0 0 0 735 714 735 728 0 0 0 0 0 0 0 0 0 261 264 266 266 263 261 262 259 257 253 0 0 0 0 0 0 0
    0 0 0 0 0 0 0 0 0 0 0 0 0 0 0 0 0 0 0 0 0 0 0 0 0 0 0 0 0 0 0 0 0 0 0 0 0 0 0 0 0 0 0 0 0 0 0 0 0 0 0 0 0 0 0 0 0 0 0 0 0 0 0 0 0 0 0 0 0 0 0 0 0 0 0 0 0 0 0 0 0 0 0 0 0 0 0 0 0 0 0 0 0 0 0 0 0 0 0 0 0 0 0 0 0 0 0 0 0 0 0 0 0 0 0 0 0 0 0 0 0 0 0 0 0 0 0 0 0 0 0 0 0 0 0 0 0 0 0 0 0 0 0 0 0 0 0 0 0 0 0 0 0 0 0 0 0 0 0 0 0 0 0 0 0 0 0 0 0 0 0 0 0 0 0 0 0 0 0 0 0 0 0 0 0 0 0 0 0 0 0 0 0 0 0 0 0 0 0 0 0 0 0 0 0 0 0 0 0 0 0 0 0 0 0 0 0 0 0 0 0 0 0 0 0 0 252 252 254 256 256 250 239 238 0 0 0 0 0 0 0 0 0 0 0 0 238 241 238 242 0 0 0 0 0 0 0 0 0 132 131 0 243 246 246 246 0 247 0 0 246 0 0 0 0 0 0 0 0 0 0 0 0 0 0 0 0 0 0 0 0 0 0 0 0 0 0 0 0 0 0 0 259 258 260 262 262 261 260 260 257 253 252 249 249 0 0 0 0 0
    0 0 0 0 0 0 0 0 0 0 0 0 0 0 0 0 0 0 0 0 0 0 0 0 0 0 0 0 0 0 0 0 0 0 0 0 0 0 0 0 0 0 0 0 0 0 0 0 0 0 0 0 0 0 0 0 0 0 0 0 0 0 0 0 0 0 0 0 0 0 0 0 0 0 0 0 0 0 0 0 0 0 0 0 0 0 0 0 0 0 0 0 0 0 0 0 0 0 0 0 0 0 0 0 0 0 0 0 0 0 0 0 0 0 0 0 0 0 0 0 0 0 0 0 0 0 0 0 0 0 0 0 0 0 0 0 0 0 0 0 0 0 0 0 0 0 0 0 0 0 0 0 0 0 0 0 0 0 0 0 0 0 0 0 0 0 0 0 0 0 0 0 0 0 0 0 0 228 0 0 0 0 0 0 0 96 96 0 0 235 74 75 75 75 75 0 0 0 0 0 0 106 0 0 0 104 0 0 0 242 242 0 0 0 0 0 0 0 0 0 0 0 0 0 251 251 0 0 0 253 252 249 238 237 236 0 0 0 0 0 0 0 0 0 0 0 238 238 238 239 0 0 0 0 0 0 0 0 0 0 0 243 242 245 244 245 246 246 246 246 246 245 244 0 0 0 0 0 0 0 0 0 0 0 0 0 0 0 0 0 0 0 0 0 0 0 0 0 0 0 0 0 254 253 254 259 260 259 259 258 253 251 250 249 249 0 0 0 0 0
    0 0 0 0 0 0 0 0 0 0 0 0 0 0 0 0 0 0 0 0 0 0 0 0 0 0 0 0 0 0 0 0 0 0 0 0 0 0 0 0 0 0 0 0 0 0 0 0 0 0 0 0 0 0 0 0 0 0 0 0 0 0 0 0 0 0 0 0 0 0 0 0 0 0 0 0 0 0 0 0 0 0 0 0 0 0 0 0 0 0 0 0 0 0 0 0 0 0 0 0 0 0 0 0 0 0 0 0 0 0 0 0 0 0 0 0 0 0 0 0 0 0 0 0 0 77 77 77 77 76 76 0 0 0 0 80 0 0 104 0 0 0 0 0 0 73 73 0 74 0 83 83 83 0 0 0 0 0 0 75 0 0 0 0 0 0 0 0 0 0 85 84 0 96 0 227 0 230 0 0 0 0 0 124 124 0 96 0 0 235 74 0 75 75 75 75 0 0 0 0 0 106 232 0 0 0 0 0 241 241 241 0 242 243 240 238 238 237 238 238 237 236 0 234 243 246 243 239 0 0 0 242 237 236 235 0 0 0 0 0 0 0 0 0 0 0 237 238 237 238 239 0 0 0 0 0 0 0 0 0 242 242 242 243 243 244 246 246 246 246 245 245 244 245 246 246 0 0 0 0 251 0 0 247 247 0 0 0 0 0 0 0 0 0 0 0 251 0 252 251 251 251 252 252 252 255 258 257 258 255 252 250 249 249 249 0 0 0 0 0</data></depth>
</opencv_storage>
