<?xml version="1.0"?>
<opencv_storage>
<gps_time_stamp>31592</gps_time_stamp>
<gps_x>-8.9756441116333008e+000</gps_x>
<gps_y>1.1499631404876709e+000</gps_y>
<gps_z>-2.4114511013031006e+000</gps_z>
<image_time_stamp>19564</image_time_stamp>
<depth type_id="opencv-matrix">
  <rows>86</rows>
  <cols>320</cols>
  <dt>s</dt>
  <data>
    0 0 0 0 0 0 0 0 0 0 0 0 0 0 0 0 0 0 0 0 0 0 0 0 0 0 0 0 0 0 0 0 0 0 0 0 0 0 0 0 0 0 0 0 0 0 0 0 0 0 0 0 0 0 0 0 0 0 0 0 0 0 0 0 0 0 0 0 0 0 0 0 0 0 0 0 0 0 0 0 0 0 0 0 0 0 0 0 0 0 0 0 0 0 0 0 0 0 7359 6133 8177 0 0 0 0 0 0 0 0 0 0 0 0 0 6690 8177 6690 7359 0 7359 7359 6690 6690 0 0 0 0 0 0 0 0 8177 0 8177 8177 8177 8177 0 8177 7359 6690 6133 5661 5661 6133 0 6690 0 0 0 0 6690 5661 5256 5661 4906 6133 6133 6690 6690 6690 7359 8177 8177 0 6690 7359 8177 5661 0 0 0 83 83 0 0 0 0 8177 8177 0 0 7359 8177 8177 8177 8177 0 0 6133 6133 7359 5661 3345 4599 4906 4906 4906 5661 6133 6690 6690 0 0 0 8177 4088 6133 5256 4599 4088 4088 4329 4599 4599 5256 4599 4599 4906 4906 5256 5256 4906 4906 5256 5256 4906 4599 4599 4599 4329 4088 4329 4329 4088 4329 4329 4599 4329 4599 5256 4088 3679 3873 4088 4329 4088 3679 3873 3873 3873 4088 4329 3504 3504 3504 3504 3066 2943 2830 2725 2628 2537 2537 2299 2164 2230 2102 2102 2102 2044 1989 1989 2044 1989 1989 1989 1989 1989 1936 1989 1936 1887 1936 1936 1887 1839 1839 1839 1795 1795 1795 1795 1752 1795 1795 1795 1839 1839 1839 1839 1839 1795 1752 1672 1635 1635 1635 1635 1635 1635 1635 1635 1635 1672 0 0 0 0 0
    0 0 0 0 0 0 0 0 0 0 0 0 0 0 0 0 0 0 0 0 0 0 0 0 0 0 0 0 0 0 0 0 0 0 0 0 0 0 0 0 0 0 0 0 0 0 0 0 0 0 0 0 0 0 0 0 0 0 0 0 0 0 0 0 0 0 0 0 0 0 0 0 0 0 0 0 0 0 0 0 0 0 0 0 0 0 0 0 0 0 0 0 0 0 0 0 0 0 7359 6690 8177 0 0 0 0 0 0 0 0 0 0 0 0 0 7359 8177 6690 7359 0 7359 6690 6133 6133 0 0 0 0 8177 0 0 0 0 0 0 0 0 0 0 0 0 8177 6690 6690 0 0 0 7359 0 0 0 0 6690 5661 5256 5256 5256 6133 6133 6690 6690 7359 7359 8177 8177 0 7359 8177 8177 5661 8177 8177 0 83 83 0 0 0 0 0 0 0 0 8177 0 0 8177 0 0 0 6690 6690 8177 5661 3345 4329 4906 4906 4906 5661 6690 6690 6690 0 0 0 0 4088 6133 5256 4599 4088 4329 4329 4599 4329 5256 4599 4599 4906 4906 4906 4906 4906 5256 5256 4906 4906 4599 4599 4599 4088 4088 4329 4329 4088 4329 4329 4599 4329 4906 5661 3873 3679 3873 4088 4088 3873 3679 3873 3873 3873 4329 4088 3504 3504 3504 3504 3199 3066 2830 2628 2628 2453 2453 2299 2102 2164 2102 2102 2102 2044 1989 1989 1989 1989 1936 1936 1936 1887 1887 1936 1887 1887 1887 1887 1839 1839 1795 1795 1795 1752 1752 1752 1752 1752 1752 1795 1795 1839 1839 1839 1839 1795 1752 1711 1672 1672 1635 1672 1635 1635 1635 1635 1635 1672 0 0 0 0 0
    0 0 0 0 0 0 0 0 0 0 0 0 0 0 0 0 0 0 0 0 0 0 0 0 0 0 0 0 0 0 0 0 0 0 0 0 0 0 0 0 0 0 0 0 0 0 0 0 0 0 0 0 0 0 0 0 0 0 0 0 0 0 0 0 0 0 0 0 0 0 0 0 0 0 0 0 0 0 0 0 0 0 0 0 0 0 0 0 0 0 0 0 0 0 0 0 0 0 8177 7359 0 0 0 0 0 0 0 0 0 0 0 0 0 0 7359 8177 6690 7359 7359 6690 6690 6133 5661 8177 8177 0 8177 7359 0 0 0 0 0 0 0 0 0 0 0 0 0 7359 7359 0 0 0 0 0 0 0 0 0 6133 5256 5256 5256 6690 6690 6690 7359 7359 8177 0 0 0 7359 8177 8177 5661 8177 8177 7359 0 83 0 0 0 0 0 0 0 0 0 0 0 0 0 0 0 7359 7359 8177 6133 3504 4329 4906 4906 4906 5661 6690 7359 7359 0 0 0 0 4088 6133 4906 4329 4329 4329 4329 4599 4329 5256 4906 4906 4906 4906 5256 5256 5256 5256 5256 4906 4599 4599 4599 4599 4088 3873 4329 4329 4329 4329 4599 4599 4329 4599 5661 3679 3504 3679 4088 3873 3679 3679 3873 3873 3873 4088 3873 3679 3504 3679 3504 3345 3199 2943 2725 2628 2453 2453 2299 2102 2164 2102 2102 2102 2044 1989 1936 1989 1989 1936 1936 1887 1839 1839 1887 1839 1795 1839 1839 1752 1752 1752 1752 1752 1711 1752 1752 1711 1752 1752 1795 1795 1839 1839 1839 1839 1795 1752 1752 1672 1672 1672 1672 1635 1672 1672 1672 1635 1672 0 0 0 0 0
    0 0 0 0 0 0 0 0 0 0 0 0 0 0 0 0 0 0 0 0 0 0 0 0 0 0 0 0 0 0 0 0 0 0 0 0 0 0 0 0 0 0 0 0 0 0 0 0 0 0 0 0 0 0 0 0 0 0 0 0 0 0 0 0 0 0 0 0 0 0 0 0 0 0 0 0 0 0 0 0 0 0 0 0 0 0 0 0 0 0 0 0 0 0 0 0 0 0 7359 7359 0 0 0 0 0 0 0 0 0 0 0 0 0 0 8177 8177 6690 6690 7359 6690 6133 5661 5661 7359 6690 0 8177 7359 0 0 0 0 0 0 0 0 0 0 0 0 0 7359 7359 0 0 0 8177 0 0 0 0 0 6690 6133 5661 6133 7359 7359 7359 8177 8177 8177 0 0 0 8177 0 0 5661 7359 7359 6690 7359 0 0 8177 0 0 0 0 0 0 0 0 0 0 0 0 0 7359 7359 8177 6690 3679 4599 4906 4906 4906 5661 6690 7359 7359 0 0 0 0 0 6133 5256 4599 4599 4329 4599 4599 4599 5661 4906 4906 4906 4906 4906 5256 5256 5256 5256 4599 4906 4599 4599 4599 4088 3873 4599 4599 4599 4599 4906 4906 4329 4599 6133 3679 3679 3679 3873 3873 3679 3679 3873 3873 3873 3873 3873 3504 3504 3679 3345 3199 3066 2830 2628 2628 2453 2453 2299 2102 2102 2102 2102 2044 2044 1989 1936 1989 1989 1936 1936 1887 1839 1795 1839 1795 1752 1795 1795 1711 1752 1752 1752 1711 1711 1752 1711 1711 1752 1752 1795 1795 1839 1839 1839 1795 1839 1795 1752 1752 1752 1711 1752 1711 1711 1711 1711 1672 1711 0 0 0 0 0
    0 0 0 0 0 0 0 0 0 0 0 0 0 0 0 0 0 0 0 0 0 0 0 0 0 0 0 0 0 0 0 0 0 0 0 0 0 0 0 0 0 0 0 0 0 0 0 0 0 0 0 0 0 0 0 0 0 0 0 0 0 0 0 0 0 0 0 0 0 0 0 0 0 0 0 0 0 0 0 0 0 0 0 0 0 0 0 0 0 0 0 0 0 8177 9199 8177 8177 0 7359 7359 0 0 0 0 0 0 0 0 0 0 0 0 0 0 8177 8177 6133 6690 6690 6133 5661 5256 5256 7359 6133 8177 7359 7359 0 0 0 0 0 0 0 0 0 0 0 0 0 8177 7359 0 0 0 7359 0 0 0 0 0 6690 7359 6690 7359 8177 8177 8177 8177 0 0 0 0 0 0 0 0 5256 6690 7359 6690 6690 0 8177 8177 8177 0 0 0 0 0 0 0 0 0 0 0 0 7359 7359 8177 6690 3679 4599 5256 5256 5256 5661 6690 7359 7359 0 0 0 0 0 6133 5256 4906 4599 4599 4599 4599 4599 5661 5256 4599 4906 4906 5256 5256 5256 5256 4906 4906 4906 4329 4906 4599 4329 4088 4599 4599 4599 4599 5256 4599 4329 4599 6133 3679 3504 3679 3873 3679 3679 3873 3873 3873 3873 3873 3679 3504 3345 3504 3199 2943 2943 2725 2628 2537 2374 2374 2299 2164 2164 2102 2164 2102 2044 1989 1989 1989 1989 1936 1989 1887 1887 1839 1887 1839 1795 1795 1795 1711 1752 1752 1752 1711 1711 1752 1752 1752 1795 1795 1795 1795 1839 1839 1839 1839 1839 1795 1795 1795 1795 1752 1839 1752 1795 1752 1752 1711 1752 0 0 0 0 0
    0 0 0 0 0 0 0 0 0 0 0 0 0 0 0 0 0 0 0 0 0 0 0 0 0 0 0 0 0 0 0 0 0 0 0 0 0 0 0 0 0 0 0 0 0 0 0 0 0 0 0 0 0 0 0 0 0 0 0 0 0 0 0 0 0 0 0 0 0 0 0 0 0 0 0 0 0 0 0 0 0 0 0 0 0 0 0 0 0 0 0 0 0 8177 0 0 8177 0 7359 8177 0 0 0 0 0 0 0 0 0 0 0 0 0 0 8177 8177 6133 6690 6690 6133 5661 5256 5256 6690 5661 7359 7359 6690 8177 0 0 0 0 0 0 0 0 0 0 0 0 8177 7359 0 0 0 0 0 0 0 0 0 7359 0 7359 8177 0 0 0 0 0 0 0 0 0 0 0 0 5256 6690 6690 6690 6690 8177 8177 8177 8177 0 0 0 0 0 0 0 0 8177 0 0 0 6690 7359 8177 6690 3679 4906 5256 5661 5661 5661 6690 7359 7359 0 0 0 0 0 6133 5661 5256 4906 4599 4599 4906 4599 5661 4906 4599 4906 4906 5256 5256 4906 4906 4906 4906 4906 4329 4906 4599 4329 4088 4599 4599 4599 4599 5256 4599 4329 4599 5661 3679 3504 3679 3679 3873 3679 3873 3873 3873 3679 3873 3679 3504 3345 3345 3066 2943 2830 2628 2537 2537 2374 2374 2374 2230 2164 2164 2164 2102 2044 1989 1989 1936 1936 1887 1936 1839 1839 1795 1839 1795 1752 1752 1795 1711 1752 1752 1752 1711 1752 1752 1752 1752 1795 1795 1795 1839 1887 1839 1839 1839 1887 1795 1795 1839 1839 1795 1839 1795 1795 1752 1711 1711 1752 0 0 0 0 0
    0 0 0 0 0 0 0 0 0 0 0 0 0 0 0 0 0 0 0 0 0 0 0 0 0 0 0 0 0 0 0 0 0 0 0 0 0 0 0 0 0 0 0 0 0 0 0 0 0 0 0 0 0 0 0 0 0 0 0 0 0 0 0 0 0 0 0 0 0 0 0 0 0 0 0 0 0 0 0 0 0 0 0 0 0 0 0 0 0 0 0 0 8177 8177 0 0 8177 0 7359 8177 0 0 0 0 0 0 0 0 0 0 0 0 0 0 8177 8177 6133 6690 6690 6133 5256 4906 4906 6690 5661 7359 6690 6690 7359 0 0 0 0 0 0 0 0 0 0 0 0 8177 7359 7359 0 0 7359 0 0 0 0 7359 7359 0 7359 8177 0 8177 0 0 0 0 0 0 0 0 0 0 4906 6690 6690 6133 6133 7359 7359 7359 8177 0 0 0 0 0 0 0 0 8177 8177 0 0 6690 7359 8177 6690 3679 4906 5661 5661 6133 6133 7359 7359 7359 0 0 0 0 4599 6133 5661 5256 4599 4599 4599 4906 4599 5661 4906 4599 4906 4906 5256 5256 4906 4906 4906 4906 4906 4329 4906 4599 4329 4088 4599 4599 4599 4599 5661 4599 4329 4906 5661 3873 3679 3873 3873 3873 3679 3873 3873 3873 3873 3873 3679 3679 3345 3504 3199 3066 2830 2725 2537 2453 2230 2299 2299 2230 2164 2164 2164 2102 2044 2044 1989 1936 1936 1887 1887 1839 1795 1795 1795 1752 1752 1752 1752 1711 1752 1752 1752 1752 1752 1795 1795 1795 1839 1839 1839 1839 1887 1839 1887 1887 1936 1795 1795 1839 1839 1795 1839 1795 1795 1752 1752 1752 1752 0 0 0 0 0
    0 0 0 0 0 0 0 0 0 0 0 0 0 0 0 0 0 0 0 0 0 0 0 0 0 0 0 0 0 0 0 0 0 0 0 0 0 0 0 0 0 0 0 0 0 0 0 0 0 0 0 0 0 0 0 0 0 0 0 0 0 0 0 0 0 0 0 0 0 0 0 0 0 0 0 0 0 0 0 0 0 0 0 0 0 0 0 0 0 0 0 0 8177 8177 0 8177 8177 0 7359 7359 0 0 0 0 0 0 0 0 0 0 0 0 0 0 7359 8177 6133 6133 6690 6133 5256 4906 4906 6133 5256 7359 6690 6133 7359 8177 0 0 0 0 0 0 0 0 0 0 0 7359 7359 7359 8177 0 7359 8177 0 0 8177 8177 7359 8177 7359 7359 8177 8177 8177 0 0 0 0 0 0 0 0 0 4906 6690 6690 6133 6133 7359 7359 7359 7359 0 0 0 0 0 0 0 0 8177 7359 0 8177 5661 6690 6690 6133 3873 4906 5661 6133 6133 6133 7359 7359 7359 0 0 0 0 4906 5661 5661 5256 4599 4599 4906 4906 4599 5661 4906 4329 4599 4906 4906 4906 4599 4906 4599 4906 4906 4329 4906 4599 4329 4088 4599 4599 4599 4906 5256 4599 4329 4599 5256 3873 3873 4088 3873 3873 3679 4088 3873 3873 3873 3873 3504 3504 3345 3504 3066 2943 2830 2725 2374 2299 2102 2164 2102 2164 1989 2044 2102 2044 2044 2044 1936 1936 1936 1839 1839 1795 1795 1752 1752 1752 1711 1711 1752 1711 1752 1752 1752 1752 1752 1795 1795 1752 1839 1839 1839 1839 1887 1887 1887 1887 1989 1795 1839 1839 1839 1795 1839 1795 1795 1795 1752 1795 1795 0 0 0 0 0
    0 0 0 0 0 0 0 0 0 0 0 0 0 0 0 0 0 0 0 0 0 0 0 0 0 0 0 0 0 0 0 0 0 0 0 0 0 0 0 0 0 0 0 0 0 0 0 0 0 0 0 0 0 0 0 0 0 0 0 0 0 0 0 0 0 0 0 0 0 0 8177 8177 0 0 0 0 0 0 0 0 0 0 0 0 0 0 0 0 0 0 0 0 8177 0 0 0 8177 0 7359 7359 0 0 0 0 0 0 0 0 0 0 0 0 0 0 7359 8177 6133 6690 6690 6133 5256 4906 4906 6133 5256 7359 6690 6133 7359 8177 0 0 0 0 0 0 0 0 0 0 0 8177 7359 8177 8177 0 8177 8177 8177 8177 8177 8177 8177 8177 8177 7359 8177 8177 8177 8177 8177 0 0 0 0 0 0 0 5256 6690 6690 6690 6690 7359 7359 7359 7359 0 0 0 0 0 8177 8177 8177 7359 6690 7359 6690 5256 6133 6133 5661 3679 4906 5661 6133 6133 6133 6690 7359 7359 0 0 0 0 5256 5661 5661 5256 4906 5256 5256 5256 4906 5661 5256 4906 4906 4906 4906 4599 4906 4906 4599 4599 4599 4329 4906 4599 4329 4088 4599 4599 4599 4599 5256 4329 4329 4599 5256 3873 3873 4329 3873 3873 3679 4088 4088 3873 3873 3679 3504 3504 3345 3345 3066 2943 2830 2830 2453 2164 1989 2044 1936 1936 0 0 0 0 0 0 0 1936 1887 1839 1795 1752 1752 1752 1711 1711 1711 1711 1752 1711 1752 1752 1752 1752 1752 1795 1795 1795 1839 1839 1839 1839 1887 1936 1887 1936 2044 1887 1839 1887 1887 1839 1887 1839 1839 1839 1795 1839 1839 0 0 0 0 0
    0 0 0 0 0 0 0 0 0 0 0 0 0 0 0 0 0 0 0 0 0 0 0 0 0 0 0 0 0 0 0 0 0 0 0 0 0 0 0 0 0 0 0 0 0 0 0 0 0 0 0 0 0 0 0 0 0 0 0 0 0 0 0 0 0 0 0 0 0 0 8177 9199 0 0 0 0 0 0 0 0 0 0 0 0 0 0 0 0 0 0 0 0 0 0 0 0 0 0 8177 0 0 0 0 0 0 0 0 0 0 0 0 0 0 0 8177 8177 6133 6690 6690 6133 5661 5256 5256 6690 5661 7359 6690 6690 8177 0 0 0 0 0 0 0 0 0 0 0 0 8177 7359 7359 0 0 8177 8177 0 0 0 0 8177 8177 8177 7359 8177 7359 7359 8177 8177 8177 8177 0 0 0 0 0 5256 6690 6690 6690 6690 7359 7359 7359 6690 0 0 0 0 0 8177 7359 7359 6690 6133 6690 6133 4906 5661 6133 5256 3679 4906 5661 6133 6690 6133 6690 7359 7359 0 0 0 0 6133 5256 5661 5256 5256 5661 5256 5256 4906 5661 5256 4906 5256 4906 4599 4906 4906 4906 4599 4906 4329 4088 4906 4599 4329 4088 4599 4599 4599 4599 5256 4329 4329 4599 5256 4088 4088 4329 4088 3873 3679 4088 4088 3873 3873 3679 3504 3504 3345 3504 3066 2943 2943 2943 2537 2102 1887 0 0 0 0 0 0 0 0 0 0 0 0 0 0 1711 1752 1711 1672 1672 1672 1711 1711 1711 1752 1752 1752 1795 1795 1795 1795 1795 1887 1887 1887 1887 1936 1936 1936 1989 2102 1936 1887 1936 1936 1887 1887 1839 1887 1839 1839 1887 1887 0 0 0 0 0
    0 0 0 0 0 0 0 0 0 0 0 0 0 0 0 0 0 0 0 0 0 0 0 0 0 0 0 0 0 0 0 0 0 0 0 0 0 0 0 0 0 0 0 0 0 0 0 0 0 0 0 0 0 0 0 0 0 0 0 0 0 0 0 0 0 0 0 0 0 0 0 0 0 0 0 0 0 0 0 0 0 0 0 0 0 0 0 0 0 0 0 0 0 0 0 0 0 0 8177 0 0 0 0 0 0 0 0 0 0 0 0 0 0 0 8177 0 6690 6690 7359 6690 5661 5661 5256 6690 5661 8177 7359 6690 8177 0 0 0 0 0 0 0 0 0 0 0 0 7359 6133 5661 8177 0 0 0 0 0 0 0 0 8177 8177 7359 7359 7359 7359 8177 8177 8177 8177 8177 0 0 0 0 5256 6690 6690 6690 6133 7359 7359 6690 6690 0 0 8177 0 0 7359 6690 6690 6690 6690 6133 6133 5256 6133 6133 5661 3873 5256 5661 6133 6690 6133 6690 7359 7359 0 0 0 0 6690 4906 5661 4906 5256 5256 5256 4906 4906 5256 5256 4906 5256 4906 4906 4906 4906 4906 4599 4906 4329 4088 4906 4906 4329 4088 4906 4599 4599 4599 4906 4329 4329 4599 4906 4088 4329 4329 4088 4088 3873 4088 4329 4088 3873 3679 3679 3679 3345 3345 2943 2830 2830 2830 2628 1989 1711 0 0 1036 0 0 0 0 0 0 0 0 651 634 634 0 0 1711 1599 1672 1635 1711 1711 1711 1752 1711 1711 1795 1795 1839 1795 1795 1887 1887 1887 1887 1936 1936 1936 1989 2044 1936 1887 1936 1936 1887 1887 1887 1887 1887 1887 1936 1989 0 0 0 0 0
    0 0 0 0 0 0 0 0 0 0 0 0 0 0 0 0 0 0 0 0 0 0 0 0 0 0 0 0 0 0 0 0 0 0 0 0 0 0 0 0 0 0 0 0 0 0 0 0 0 0 0 0 0 0 0 0 0 0 0 0 0 0 0 0 0 0 0 0 0 0 0 0 0 0 0 0 0 0 0 0 0 0 0 0 0 0 0 0 0 0 0 0 8177 0 0 0 0 0 7359 8177 0 0 9199 0 0 0 0 0 0 0 0 0 0 0 0 0 6690 7359 7359 6690 6133 6133 5661 6690 6133 8177 7359 6690 8177 8177 0 0 0 0 0 0 0 0 0 0 0 7359 6133 5256 8177 0 0 0 0 0 0 0 0 0 8177 7359 7359 7359 7359 8177 7359 8177 8177 8177 8177 0 0 0 5256 6690 6690 6690 6690 7359 7359 6690 6133 0 8177 8177 8177 0 7359 6690 6690 6690 6690 6133 6690 5661 6133 6133 6133 3873 5256 6133 6133 6690 6133 7359 7359 7359 0 0 0 0 7359 4599 6133 5256 5256 5256 5256 5256 4906 5256 4906 4906 4906 4906 4599 4599 4599 4906 4599 5256 4329 4088 4906 4906 4599 4329 4906 4599 4599 4599 4906 4329 4088 4329 4906 3873 4088 4088 3873 4088 3873 4088 4088 4088 3873 3679 3679 3679 3345 3345 2943 2830 2725 2830 2537 1936 1599 0 1226 1036 994 0 0 0 0 0 0 687 669 639 629 0 0 0 1501 1635 1599 1672 1711 1711 1752 1752 1752 1795 1795 1795 1795 1795 1839 1887 1887 1887 1936 1936 1936 1989 2044 1989 1887 1936 1936 1936 1936 1936 1936 1936 1989 2044 2044 0 0 0 0 0
    0 0 0 0 0 0 0 0 0 0 0 0 0 0 0 0 0 0 0 0 0 0 0 0 0 0 0 0 0 0 0 0 0 0 0 0 0 0 0 0 0 0 0 0 0 0 0 0 0 0 0 0 0 0 0 0 0 0 0 0 0 0 0 0 0 0 0 0 0 0 8177 8177 0 9199 8177 0 8177 0 0 0 0 0 0 0 0 0 0 0 0 0 0 0 8177 8177 0 8177 8177 0 7359 7359 9199 0 8177 0 0 0 0 0 0 0 0 0 0 0 0 0 7359 7359 0 7359 6690 6690 6133 7359 6133 0 8177 6690 8177 8177 8177 8177 0 0 0 0 0 0 0 0 0 8177 6690 5661 0 8177 0 0 0 0 0 0 0 0 8177 7359 7359 7359 7359 7359 7359 7359 7359 7359 8177 8177 0 0 5661 6690 6690 6690 6690 7359 7359 6690 6133 8177 8177 8177 8177 0 6690 6690 6690 6690 6690 6133 6690 5661 6133 6133 6133 3873 5256 6133 6690 7359 6690 7359 7359 7359 0 0 0 0 7359 4088 5661 4599 4906 5256 4906 4906 4599 4906 4906 4906 4906 4599 4599 4599 4599 4906 4599 5661 4329 4329 4906 4906 4599 4329 4906 4599 4329 4599 4599 4088 4088 4329 4599 3873 4088 4088 3873 4088 3873 4088 4088 3873 3873 3679 3679 3679 3345 3345 2943 2830 2830 2628 2299 1795 0 994 994 981 955 0 0 0 0 0 0 0 687 657 634 639 634 613 0 0 603 0 0 0 1752 1752 1752 1839 1795 1795 1752 1795 1887 1887 1887 1887 1936 1989 1936 1989 2044 1989 1887 1936 1936 1936 1887 1936 1936 1936 1989 2044 2102 0 0 0 0 0
    0 0 0 0 0 0 0 0 0 0 0 0 0 0 0 0 0 0 0 0 0 0 0 0 0 0 0 0 0 0 0 0 0 0 0 0 0 0 0 0 0 0 0 0 0 0 0 0 0 0 0 0 0 0 0 0 0 0 0 0 0 0 0 0 0 0 0 0 0 0 8177 8177 0 0 0 0 8177 0 0 0 0 0 0 0 0 0 0 0 0 0 0 0 8177 8177 0 8177 8177 0 7359 7359 8177 0 7359 0 0 0 0 0 0 0 0 0 0 0 0 0 7359 8177 0 8177 7359 7359 6690 7359 6133 0 8177 6133 7359 7359 8177 8177 0 0 0 0 0 0 0 0 0 0 7359 6133 0 0 0 0 0 0 0 0 0 7359 7359 6690 6690 6690 7359 7359 6690 7359 7359 7359 7359 6690 0 0 5661 6690 6690 6690 6690 7359 7359 6690 5661 8177 8177 7359 7359 8177 6690 6690 6133 6690 6690 6133 6133 5661 6133 6133 6133 4088 5256 6133 6690 7359 6690 7359 7359 7359 0 0 0 0 7359 3873 5256 4599 4599 4906 4906 4906 4599 4906 4599 4906 4906 4599 4599 4599 4599 4906 4599 5661 4088 4329 4906 5256 4329 4599 4906 4329 4329 4599 4329 4088 4088 4329 4599 3873 4088 4088 3679 4088 3873 4088 4088 3873 3873 3679 3679 3873 3345 3345 2943 2830 2830 2453 1989 1501 1187 981 955 931 886 0 0 0 0 0 0 735 707 675 657 669 657 629 623 623 613 613 608 579 537 0 1711 1795 1711 1795 1752 1711 1839 1887 1887 1887 1887 1936 1936 1989 2044 1936 1887 1887 1936 1936 1887 1936 1936 1936 1989 2044 2102 0 0 0 0 0
    0 0 0 0 0 0 0 0 0 0 0 0 0 0 0 0 0 0 0 0 0 0 0 0 0 0 0 0 0 0 0 0 0 0 0 0 0 0 0 0 0 0 0 0 0 0 0 0 0 0 0 0 0 0 0 0 0 0 0 0 0 0 0 0 0 0 0 0 0 0 8177 8177 0 0 0 0 8177 0 8177 0 0 0 0 0 0 0 0 0 0 0 0 0 0 8177 0 8177 8177 0 7359 6690 7359 8177 7359 0 0 0 0 0 0 0 0 0 0 0 0 0 8177 0 0 8177 8177 7359 7359 7359 6133 0 8177 6133 7359 7359 8177 8177 0 0 0 0 0 0 0 0 0 0 7359 6133 0 0 0 0 0 7359 8177 0 7359 6690 6690 6133 6133 6690 6690 6690 6690 6690 7359 6690 7359 6133 0 0 5661 6690 6690 6690 6690 7359 7359 6690 5661 8177 7359 7359 7359 8177 6690 6133 6133 6690 6690 6690 6690 6133 6690 6133 6133 4599 5661 6133 6690 7359 6690 7359 7359 7359 0 0 0 8177 8177 4088 5256 4599 4906 4906 4906 4906 4599 4906 4906 4906 4906 4599 4599 4599 4599 4906 4599 5661 4088 4599 5256 4906 4329 4599 4599 4599 4329 4599 4329 4088 4088 4329 4599 3873 4088 3873 3679 3873 3679 4088 3873 3679 3679 3504 3679 3679 3504 3504 3066 2943 2830 2299 1887 1388 0 968 931 886 855 826 826 826 836 826 799 758 750 694 681 728 700 663 651 645 623 623 618 608 584 618 634 634 0 1672 1501 1443 1839 1887 1887 1839 1839 1887 1887 1989 1989 1936 1887 1887 1887 1936 1887 1936 1887 1887 1936 1989 2044 0 0 0 0 0
    0 0 0 0 0 0 0 0 0 0 0 0 0 0 0 0 0 0 0 0 0 0 0 0 0 0 0 0 0 0 0 0 0 0 0 0 0 0 0 0 0 0 0 0 0 0 0 0 0 0 0 0 0 0 0 0 0 0 0 0 0 0 0 0 0 0 0 0 0 0 8177 8177 0 0 8177 8177 7359 0 8177 0 0 0 0 0 0 0 0 0 0 0 0 0 0 8177 8177 8177 8177 0 7359 6133 7359 7359 7359 8177 8177 8177 0 0 0 0 0 0 0 0 0 0 8177 0 0 8177 8177 8177 7359 7359 6133 0 8177 6690 7359 7359 8177 8177 0 0 0 0 0 0 0 0 0 8177 6690 6133 7359 8177 8177 0 8177 7359 7359 8177 6690 6690 6690 6133 6133 6133 6690 6133 6133 6690 6690 6690 6690 6133 0 0 6133 6690 6690 6690 0 7359 7359 6133 5661 8177 7359 7359 6690 7359 6133 6133 6133 6690 7359 6690 6690 6690 6690 6690 6690 4906 6133 6133 6690 8177 6133 6690 7359 6690 7359 8177 8177 8177 7359 4329 5256 4906 5256 5256 4906 4906 4599 4906 4906 4906 5256 4906 4906 4906 4599 4906 4599 5661 4088 4599 5256 4906 4599 4599 4906 4599 4599 4906 4088 4088 3873 4329 4329 3873 3873 3679 3504 3873 3679 4088 3873 3873 3873 3504 3873 3679 3504 3504 3199 2943 2943 2230 1795 0 1036 955 897 0 845 817 817 817 826 826 799 766 758 694 687 782 714 687 681 675 645 645 645 629 629 651 675 669 639 651 0 0 0 0 1839 1839 1839 1887 1887 1936 1989 1936 1839 1839 1887 1887 1887 1936 1887 1887 1887 1989 2102 0 0 0 0 0
    0 0 0 0 0 0 0 0 0 0 0 0 0 0 0 0 0 0 0 0 0 0 0 0 0 0 0 0 0 0 0 0 0 0 0 0 0 0 0 0 0 0 0 0 0 0 0 0 0 0 0 0 0 0 0 0 0 0 0 0 0 0 0 0 0 0 0 0 0 0 8177 8177 0 8177 7359 7359 6690 8177 7359 0 0 0 0 0 0 0 0 0 0 0 0 0 0 8177 8177 8177 8177 0 7359 6690 7359 7359 7359 8177 8177 8177 0 0 0 0 0 0 0 0 0 0 0 0 0 0 8177 8177 8177 6690 6133 8177 8177 6690 7359 7359 8177 8177 0 0 0 0 0 8177 8177 8177 0 8177 7359 6690 7359 7359 8177 8177 8177 6690 7359 8177 6690 6690 6690 6133 6133 6133 6690 6133 6133 6690 6690 6690 7359 6690 0 0 5661 6690 6690 6690 6690 7359 7359 6133 5661 7359 6690 6690 6690 6690 6133 5661 6133 6690 7359 7359 7359 7359 7359 7359 7359 5256 6690 6690 7359 0 6690 7359 7359 6133 6690 7359 7359 7359 7359 4599 5661 4906 6133 5661 5256 4906 4599 5256 4906 4906 5256 4906 4906 4906 4599 4906 4599 6133 4088 4599 4906 4906 4329 4599 4906 4599 4599 4599 4088 4088 3873 4329 4329 3873 4088 3504 3504 3873 3873 4088 3873 3873 3873 3679 4088 3873 3504 3504 3345 3066 2943 2102 1672 0 994 943 0 0 845 817 817 808 826 826 791 758 782 694 687 774 700 694 687 687 669 657 663 669 651 675 694 687 639 623 618 0 0 645 588 0 0 1839 1839 1936 1936 1936 1839 1839 1887 1887 1887 1887 1887 1887 1887 1989 2102 0 0 0 0 0
    0 0 0 0 0 0 0 0 0 0 0 0 0 0 0 0 0 0 0 0 0 0 0 0 0 0 0 0 0 0 0 0 0 0 0 0 0 0 0 0 0 0 0 0 0 0 0 0 0 0 0 0 0 0 0 0 0 0 0 0 0 0 0 0 0 0 0 0 0 0 8177 8177 0 8177 7359 7359 7359 8177 7359 0 0 0 0 0 0 0 0 0 0 0 0 0 0 0 8177 8177 8177 0 8177 6690 8177 6690 8177 8177 8177 8177 0 0 0 8177 0 0 0 0 0 0 0 0 0 0 0 8177 8177 6690 6133 8177 8177 7359 8177 7359 8177 8177 8177 8177 0 8177 8177 7359 8177 7359 0 8177 7359 6690 6690 7359 7359 7359 7359 6690 6690 7359 6133 6690 6690 6133 6690 6690 6690 6690 7359 7359 7359 8177 8177 7359 0 0 6133 6690 6690 6690 6690 7359 7359 6690 5661 7359 6690 6690 6690 6690 6133 5661 6133 6690 7359 7359 8177 0 9199 8177 8177 6690 7359 7359 8177 0 7359 7359 7359 6133 6690 7359 7359 7359 7359 4599 5661 4906 5661 5256 4906 4599 4599 4906 4906 4906 5256 4906 5256 4906 4599 4906 4329 6133 4329 4906 4906 4906 4329 4599 4906 4599 4599 4599 4088 4088 3873 4329 4329 3873 3873 3199 3504 3873 3679 3873 3679 3679 3873 3679 4088 3873 3504 3679 3679 3345 3066 2044 1599 0 943 931 0 0 0 799 0 0 0 0 774 743 808 700 0 0 0 0 0 694 669 657 694 707 694 694 694 681 651 618 618 629 657 623 588 549 0 553 529 521 533 525 514 518 518 511 0 0 0 0 0 1936 2044 0 0 0 0 0
    0 0 0 0 0 0 0 0 0 0 0 0 0 0 0 0 0 0 0 0 0 0 0 0 0 0 0 0 0 0 0 0 0 0 0 0 0 0 0 0 0 0 0 0 0 0 0 0 0 0 0 0 0 0 0 0 0 0 0 0 0 0 0 0 0 0 0 0 0 0 8177 8177 0 0 7359 7359 7359 8177 7359 0 0 0 0 0 0 0 0 0 0 0 0 0 0 0 8177 8177 8177 0 7359 6133 7359 6133 8177 8177 8177 8177 8177 0 0 8177 0 0 0 0 0 0 0 0 0 0 0 8177 8177 6690 6133 8177 8177 8177 8177 7359 8177 8177 8177 8177 0 8177 8177 8177 8177 8177 0 0 8177 7359 6690 7359 7359 7359 7359 6690 6133 7359 6133 7359 7359 7359 7359 7359 8177 8177 8177 8177 8177 9199 8177 8177 0 0 6133 6690 6690 6690 6690 7359 7359 6690 5661 7359 6133 6133 6133 6690 5661 5661 6133 6690 7359 7359 8177 0 0 0 0 8177 8177 0 0 0 7359 8177 8177 6133 6690 7359 7359 7359 7359 4599 5661 5256 5661 5256 4906 4329 4599 4906 4906 4906 4906 4906 4906 4599 4906 4906 4329 6133 4329 4599 4599 4599 4329 4599 4599 4599 4599 4599 4088 4088 3873 4329 4329 3679 3504 3066 3345 3504 3504 3679 3504 3679 3679 3679 4088 3873 3504 3679 3679 3345 3066 2044 1533 0 0 931 0 0 0 0 0 0 0 0 0 0 0 0 0 1839 1839 0 0 0 0 675 808 791 743 766 728 707 675 663 657 629 629 613 588 553 557 553 533 525 533 525 514 514 518 511 493 490 487 474 0 0 1936 0 0 0 0 0
    0 0 0 0 0 0 0 0 0 0 0 0 0 0 0 0 0 0 0 0 0 0 0 0 0 0 0 0 0 0 0 0 0 0 0 0 0 0 0 0 0 0 0 0 0 0 0 0 0 0 0 0 0 0 0 0 0 0 0 0 0 0 0 0 0 0 0 0 0 0 8177 8177 0 0 8177 8177 7359 0 0 0 0 0 0 0 0 0 0 0 0 0 0 0 0 0 8177 8177 8177 0 8177 6690 7359 6690 8177 8177 8177 8177 8177 8177 0 8177 0 0 0 0 0 0 0 0 0 0 0 0 8177 7359 6690 8177 0 8177 0 8177 8177 8177 8177 0 0 8177 8177 8177 8177 0 0 0 0 8177 7359 7359 8177 8177 7359 6690 6133 7359 6133 8177 7359 8177 8177 8177 8177 0 0 0 0 0 0 8177 0 0 6133 6690 6133 6690 6133 6690 7359 6133 5256 7359 5661 5661 6133 6133 5661 5661 6133 6690 6690 7359 8177 0 0 0 0 0 0 0 0 0 7359 8177 8177 6133 6690 7359 7359 7359 7359 4599 5661 5256 6133 5661 5256 4329 4599 4906 4906 4906 4906 4906 4906 4906 4906 4906 4599 6133 4329 4906 4906 4599 4329 4599 4599 4599 4329 4329 3873 3873 3873 4329 4329 3679 3345 3066 3345 3504 3345 3504 3504 3504 3504 3679 4088 3679 3504 3873 3679 3345 3066 2102 1501 0 0 919 826 0 0 0 0 0 0 0 0 0 0 0 1936 1936 1936 1936 1839 0 0 0 826 799 750 782 743 707 681 687 681 634 618 618 593 561 566 566 541 533 537 529 518 518 521 507 490 493 487 477 468 454 0 0 0 0 0 0
    0 0 0 0 0 0 0 0 0 0 0 0 0 0 0 0 0 0 0 0 0 0 0 0 0 0 0 0 0 0 0 0 0 0 0 0 0 0 0 0 0 0 0 0 0 0 0 0 0 0 0 0 0 0 0 0 0 0 0 0 0 0 0 0 0 0 0 0 0 0 8177 0 0 0 8177 8177 7359 8177 8177 0 0 0 0 0 0 0 0 0 0 0 0 0 0 0 0 0 0 0 0 7359 8177 6690 8177 8177 8177 8177 0 0 0 0 0 0 0 0 0 0 0 0 0 0 0 8177 8177 7359 6690 8177 8177 8177 0 0 0 0 8177 0 0 0 8177 8177 7359 8177 0 0 0 0 7359 7359 7359 7359 7359 6690 6133 6690 5661 7359 7359 7359 8177 8177 8177 0 0 0 0 0 0 0 0 0 6133 6690 6133 6133 6133 6690 6690 6133 5256 6690 5661 5661 6133 6133 5661 5661 6133 6690 6690 6690 8177 0 0 0 0 0 0 0 0 0 7359 8177 8177 6690 6690 6690 7359 7359 7359 4599 5256 5256 6133 5661 5256 4088 4906 4906 4906 4906 4906 4599 4906 4906 5256 4599 4599 6133 4329 4599 4906 4329 4088 4329 4329 4329 4329 4329 4088 3873 3873 4906 4599 3504 3199 3066 3345 3504 3345 3504 3504 3504 3504 3679 3873 3679 3504 3679 3873 3504 3199 2102 0 0 0 0 808 0 0 0 0 0 0 0 0 0 0 2102 2044 2044 1989 2044 1887 1936 1887 0 0 817 774 782 721 694 675 669 669 629 618 613 598 579 574 570 545 541 541 537 525 529 525 511 493 497 490 481 471 468 471 0 0 0 0 0
    0 0 0 0 0 0 0 0 0 0 0 0 0 0 0 0 0 0 0 0 0 0 0 0 0 0 0 0 0 0 0 0 0 0 0 0 0 0 0 0 0 0 0 0 0 0 0 0 0 0 0 0 0 0 0 0 0 0 0 0 0 0 0 0 0 0 0 0 0 0 0 0 0 0 0 8177 7359 8177 8177 0 0 0 0 0 0 0 0 0 0 0 0 0 0 0 0 0 0 0 0 8177 0 7359 8177 0 0 0 0 0 0 0 0 0 0 0 0 0 0 0 0 0 0 8177 8177 7359 6690 7359 7359 8177 8177 0 0 0 0 0 0 0 8177 7359 6690 8177 0 0 0 8177 7359 7359 8177 7359 6690 6690 6133 6690 5661 7359 7359 7359 8177 8177 0 0 0 0 0 0 0 0 0 0 6690 6690 6133 6133 6133 6690 6690 6133 5256 6690 5661 5661 6133 6133 5661 5661 6133 6690 6690 6690 8177 8177 8177 0 8177 0 0 0 0 0 7359 7359 7359 6690 6133 6690 7359 7359 7359 4599 5256 5256 6133 5661 5256 4088 4906 4906 4906 4906 4599 4599 4906 4906 5256 4599 4599 6133 4329 4599 5256 4329 3873 4329 4329 4329 4329 4329 4329 4088 4088 5661 4329 3345 3066 3066 3345 3345 3345 3345 3345 3504 3504 3679 3873 3504 3504 3679 3873 3679 3199 2102 0 0 0 0 782 0 0 0 0 0 0 0 0 0 0 2230 2102 2044 2044 2102 1989 2044 1989 1936 1839 0 0 0 743 700 675 657 681 651 629 639 613 598 593 598 579 566 566 553 545 549 541 533 525 529 518 490 484 484 481 0 0 0 0 0
    0 0 0 0 0 0 0 0 0 0 0 0 0 0 0 0 0 0 0 0 0 0 0 0 0 0 0 0 0 0 0 0 0 0 0 0 0 0 0 0 0 0 0 0 0 0 0 0 0 0 0 0 0 0 0 0 0 0 0 0 0 0 0 0 0 0 0 0 0 0 0 0 0 0 0 0 7359 8177 8177 0 0 0 0 0 0 0 0 0 0 0 0 0 0 0 0 0 0 0 0 0 0 7359 0 0 0 0 0 0 0 0 0 0 0 0 0 0 0 0 0 0 0 8177 8177 7359 6690 7359 7359 8177 8177 0 0 0 0 0 0 0 8177 7359 6690 7359 0 0 8177 8177 7359 8177 8177 8177 7359 6690 6133 6690 6690 8177 7359 8177 8177 0 0 0 0 0 0 0 0 0 0 0 8177 7359 6690 6690 6690 6690 6690 6690 5661 6690 5661 5661 6133 6133 5661 5661 6133 6690 7359 7359 8177 0 0 0 8177 0 0 8177 8177 8177 7359 7359 7359 6690 6690 6690 7359 7359 7359 4599 5256 5256 6133 5661 5256 4088 4599 4906 4906 4906 4599 4599 4906 4599 5256 4906 4599 6133 4599 4906 5256 4088 3873 4329 4088 4329 4088 4329 4329 4088 4599 5661 4088 3066 3066 3066 3345 3345 3345 3345 3345 3504 3504 3679 3873 3504 3504 3679 3873 3504 3199 2044 0 0 0 0 774 0 0 0 0 0 0 0 0 0 2453 2374 2230 2044 2044 2102 1989 2102 2102 2102 1989 1936 1989 1936 0 0 0 0 0 651 618 634 623 603 593 598 574 557 557 549 545 553 553 549 545 545 541 537 533 529 507 0 0 0 0 0
    0 0 0 0 0 0 0 0 0 0 0 0 0 0 0 0 0 0 0 0 0 0 0 0 0 0 0 0 0 0 0 0 0 0 0 0 0 0 0 0 0 0 0 0 0 0 0 0 0 0 0 0 0 0 0 0 0 0 0 0 0 0 0 0 0 0 0 0 0 0 0 0 0 0 0 0 6690 8177 8177 0 0 0 0 0 0 0 0 0 0 0 0 0 0 0 0 0 0 0 0 0 0 7359 0 0 0 0 0 0 0 0 0 0 0 0 0 0 0 0 0 0 0 8177 8177 7359 6690 7359 7359 8177 8177 0 0 0 0 0 0 0 8177 7359 7359 7359 8177 8177 8177 8177 6690 7359 8177 8177 7359 7359 6690 7359 7359 0 8177 0 0 0 0 0 0 0 0 0 0 0 0 0 0 0 8177 7359 7359 8177 8177 7359 6690 6690 5661 6133 6133 6133 5661 5661 6690 6690 7359 7359 8177 0 0 0 8177 8177 0 8177 8177 8177 7359 7359 7359 7359 6690 6690 7359 7359 7359 4599 5256 5256 6133 6133 5661 4088 4906 4906 5256 4906 4599 4599 4906 4599 5256 4599 4599 5661 4599 4906 4906 4088 3679 4088 4088 4088 4088 4088 4088 4088 4599 5661 3873 3066 3066 3199 3679 3504 3345 3345 3504 3679 3679 3873 4088 3679 3504 3679 3873 3504 3199 1989 0 0 0 0 758 0 0 0 0 0 0 0 0 0 2537 2453 2230 2102 2044 2164 2044 2102 2102 2102 1989 2044 2102 2044 1936 1936 0 0 0 714 707 687 639 608 593 579 557 0 0 0 0 549 566 553 549 557 574 561 553 545 529 0 0 0 0 0
    0 0 0 0 0 0 0 0 0 0 0 0 0 0 0 0 0 0 0 0 0 0 0 0 0 0 0 0 0 0 0 0 0 0 0 0 0 0 0 0 0 0 0 0 0 0 0 0 0 0 0 0 0 0 0 0 0 0 0 0 0 0 0 0 0 0 0 0 0 0 0 0 0 0 0 0 7359 8177 8177 0 0 0 0 0 0 0 0 0 0 0 0 0 0 0 0 0 0 0 0 0 0 8177 0 0 0 0 0 0 0 0 0 0 0 0 0 0 0 0 0 0 0 8177 8177 7359 6690 7359 8177 8177 8177 8177 0 0 0 0 0 0 0 8177 8177 7359 8177 8177 7359 7359 6690 7359 8177 8177 8177 8177 7359 8177 7359 0 0 0 0 0 0 0 0 0 0 0 0 0 0 0 0 0 0 0 0 0 0 0 8177 7359 6690 6690 6690 6133 6133 6133 6690 7359 7359 7359 8177 0 0 0 8177 0 0 0 8177 0 8177 8177 8177 7359 6690 6690 7359 7359 7359 4329 5256 5256 5661 6133 5256 3873 4599 4906 5256 4906 4599 4599 4599 4599 5256 4599 4599 5661 4329 4599 4329 3873 3679 4088 4088 4088 4088 4329 4329 4329 4906 6133 3873 3066 3066 3345 3504 3504 3345 3345 3504 3679 3679 3873 3679 3504 3504 3679 3679 3345 3199 2044 0 0 0 0 758 0 0 0 0 0 0 0 0 669 2628 2537 2299 2102 2102 2230 2044 2164 2102 2102 2044 2102 2102 2102 1989 2044 1936 1839 1839 1887 1839 0 0 0 1501 1415 0 0 432 0 425 0 0 549 545 545 574 574 557 545 533 0 0 0 0 0
    0 0 0 0 0 0 0 0 0 0 0 0 0 0 0 0 0 0 0 0 0 0 0 0 0 0 0 0 0 0 0 0 0 0 0 0 0 0 0 0 0 0 0 0 0 0 0 0 0 0 0 0 0 0 0 0 0 0 0 0 0 0 0 0 0 0 0 0 0 0 0 0 0 0 0 0 8177 0 0 0 0 0 0 0 0 0 0 0 0 0 0 0 0 0 0 0 0 0 0 0 0 0 0 0 0 0 0 0 0 0 0 0 0 0 0 0 0 0 0 0 0 0 0 7359 7359 8177 8177 0 8177 0 0 0 0 0 0 0 0 0 0 0 0 8177 7359 7359 6690 0 0 0 0 0 8177 8177 8177 0 8177 8177 8177 8177 8177 0 0 0 0 0 0 0 0 0 0 0 0 0 0 0 0 0 0 8177 0 8177 7359 6690 6133 6133 6690 7359 7359 7359 8177 0 0 0 8177 0 0 0 8177 8177 7359 8177 8177 7359 6690 6690 7359 7359 7359 4329 5256 5256 5661 5661 5256 3873 4599 4599 5256 4906 4599 4599 4599 4599 5256 4599 4329 5256 4329 4329 4599 4088 3679 4088 4088 4329 4329 4329 4329 4329 4599 6690 2943 2628 3066 3345 3504 3504 3345 3345 3504 3504 3504 3873 3504 3504 3504 3679 3679 3345 3199 2230 0 0 0 0 0 0 0 0 707 707 700 0 0 669 0 2628 2374 2102 2102 2230 2102 2164 2164 2164 2044 2102 2102 2164 2044 2044 1989 1887 1936 1989 1936 1887 1839 1839 1711 1565 1565 1533 0 0 0 0 0 0 537 537 549 561 549 541 533 0 0 0 0 0
    0 0 0 0 0 0 0 0 0 0 0 0 0 0 0 0 0 0 0 0 0 0 0 0 0 0 0 0 0 0 0 0 0 0 0 0 0 0 0 0 0 0 0 0 0 0 0 0 0 0 0 0 0 0 0 0 0 0 0 0 0 0 0 0 0 0 0 0 0 0 0 0 0 0 0 0 8177 0 0 0 0 0 0 0 0 0 0 0 8177 0 0 0 0 0 0 8177 8177 0 0 0 0 0 0 0 0 0 0 0 0 0 0 0 0 0 0 0 0 0 0 0 0 0 0 7359 7359 8177 7359 8177 8177 0 0 0 0 0 0 0 0 0 0 0 0 0 8177 8177 7359 0 0 0 0 0 0 0 0 0 8177 8177 7359 0 0 0 0 0 0 0 0 0 0 0 0 0 0 0 0 0 0 0 0 8177 0 8177 8177 8177 6690 6690 7359 8177 8177 8177 8177 8177 0 0 7359 0 0 8177 8177 8177 7359 8177 8177 7359 6133 6690 6690 7359 7359 4329 5256 5256 5256 5661 5256 4088 4599 4599 5256 4599 4329 4599 4599 4599 5256 4599 4329 5256 4329 4329 4599 4088 3679 4088 4088 4329 4329 4329 4599 4329 4599 6690 2943 2628 3066 3679 3679 3679 3345 3504 3679 3679 3679 3873 3345 3504 3345 3679 3504 3199 3199 2299 0 0 0 0 743 0 0 714 707 707 700 700 0 675 0 2628 2374 2164 2164 2299 2164 2230 2230 2164 2102 2102 2044 2102 1989 2044 1989 1887 1936 1989 1936 1989 1887 1887 1795 1711 1711 1672 1599 0 0 0 0 0 0 0 0 553 545 537 533 0 0 0 0 0
    0 0 0 0 0 0 0 0 0 0 0 0 0 0 0 0 0 0 0 0 0 0 0 0 0 0 0 0 0 0 0 0 0 0 0 0 0 0 0 0 0 0 0 0 0 0 0 0 0 0 0 0 0 0 0 0 0 0 0 0 0 0 0 0 0 0 0 0 0 0 0 0 0 0 0 0 8177 0 8177 0 0 0 0 0 0 0 0 0 0 0 0 0 0 0 0 8177 8177 0 0 0 0 0 0 0 0 0 0 0 0 0 0 0 0 0 0 0 0 0 0 0 0 0 0 7359 6690 7359 7359 7359 7359 8177 0 0 0 0 0 0 0 553 0 0 0 0 8177 7359 6690 0 0 0 0 0 0 0 0 584 0 0 570 574 574 574 579 0 0 0 0 0 0 0 0 0 0 0 0 0 0 0 0 8177 0 0 0 0 7359 7359 7359 8177 8177 8177 8177 8177 0 8177 6690 8177 8177 8177 7359 8177 7359 7359 7359 6690 5661 6133 6690 6690 6690 4329 5256 5256 5661 6133 5256 4329 4599 4599 5661 4906 4599 4599 4599 4599 5256 4329 4329 4906 4329 4088 4599 4088 3679 4329 4329 4329 4329 4329 4906 4329 4599 6690 2943 2830 3066 3873 3873 3873 3504 3504 3679 3679 3679 3873 3345 3345 3345 3504 3345 3199 3066 2299 0 0 0 0 743 0 700 714 707 707 700 700 0 675 0 2537 2374 2164 2230 2374 2299 2374 2299 2230 2164 2164 2102 2164 2044 2044 1989 1936 1989 1989 1936 1989 1887 1887 1839 1795 1839 1795 1711 1795 1795 0 0 0 0 0 0 557 545 529 525 0 0 0 0 0
    0 0 0 0 0 0 0 0 0 0 0 0 0 0 0 0 0 0 0 0 0 0 0 0 0 0 0 0 0 0 0 0 0 0 0 0 0 0 0 0 0 0 0 0 0 0 0 0 0 0 0 0 0 0 0 0 0 0 0 0 0 0 0 0 0 0 0 0 0 0 0 0 0 0 0 0 7359 0 8177 0 0 0 0 0 0 0 0 0 0 0 0 0 0 0 0 8177 0 0 0 0 0 0 0 0 0 0 0 0 0 0 0 0 0 0 0 0 0 0 0 0 0 0 0 7359 6690 7359 6690 7359 6690 7359 0 0 0 0 0 0 0 553 0 0 0 0 7359 7359 6690 0 0 0 0 0 561 561 561 579 570 570 570 570 570 570 579 0 0 0 0 0 0 0 0 0 0 0 0 0 0 0 0 8177 8177 0 0 0 0 8177 8177 0 0 0 7359 8177 8177 7359 6133 7359 8177 7359 7359 8177 7359 7359 7359 6690 5661 6133 6690 6690 6690 4329 5256 4906 5661 6133 5256 4329 4599 4906 5661 4906 4599 4906 4599 4599 5256 4599 4329 4906 4088 3873 4329 4088 3679 4329 4329 4329 4329 4599 4906 4599 4329 6690 2943 3066 3199 4088 4088 4088 3679 3679 3679 3679 3679 3873 3199 3345 3345 3504 3345 3199 3199 2374 0 0 0 0 743 0 700 714 714 707 707 700 0 687 0 0 2299 2164 2230 2374 2299 2299 2374 2299 2164 2164 2102 2164 2044 2044 1989 1936 1989 1989 1936 1989 1887 1887 1839 1795 1839 1795 1795 1839 1839 1839 1752 0 0 0 0 0 553 533 529 0 0 0 0 0
    0 0 0 0 0 0 0 0 0 0 0 0 0 0 0 0 0 0 0 0 0 0 0 0 0 0 0 0 0 0 0 0 0 0 0 0 0 0 0 0 0 0 0 0 0 0 0 0 0 0 0 0 0 0 0 0 0 0 0 0 0 0 0 0 0 0 0 0 0 0 0 0 0 0 0 0 7359 0 8177 0 0 0 0 0 0 0 0 0 0 0 0 0 0 0 0 0 0 0 0 0 0 0 0 0 0 0 0 0 0 0 0 0 0 0 0 0 0 0 0 0 0 0 0 6690 6133 7359 6690 7359 6690 7359 0 0 0 0 0 0 0 0 0 0 7359 7359 0 0 0 0 0 0 0 574 561 566 561 584 570 570 570 570 570 570 584 0 0 0 0 0 0 0 0 0 0 0 0 0 0 0 8177 8177 7359 8177 8177 0 8177 8177 8177 0 0 0 7359 8177 8177 7359 5661 7359 7359 7359 7359 8177 7359 7359 7359 6133 5256 6133 6133 6690 6133 4329 5256 4906 5661 6133 5256 4599 4906 4906 6133 4906 5256 5256 4906 4906 5256 4599 4329 4906 4088 4088 4088 4088 3679 4329 4329 4329 4329 4599 4906 4599 4329 7359 3199 3199 3199 4088 4088 4088 3679 3679 3873 3679 3679 4088 3345 3345 3345 3504 3345 3199 3199 2374 0 0 0 0 743 0 0 714 714 714 707 0 0 694 0 0 0 2044 2164 2299 2230 2230 2299 2299 2164 2164 2102 2102 2044 2044 2044 1989 1989 2044 1936 1936 1887 1839 1839 1795 1839 1795 1795 1839 1839 1839 1839 1936 1936 1839 0 1887 0 537 507 0 0 0 0 0
    0 0 0 0 0 0 0 0 0 0 0 0 0 0 0 0 0 0 0 0 0 0 0 0 0 0 0 0 0 0 0 0 0 0 0 0 0 0 0 0 0 0 0 0 0 0 0 0 0 0 0 0 0 0 0 0 0 0 0 0 0 0 0 0 0 0 0 0 0 0 0 0 8177 0 0 0 7359 0 8177 0 0 0 0 0 0 0 0 0 0 0 0 0 0 0 0 0 0 0 0 0 0 0 0 0 0 0 0 0 0 0 0 0 0 0 0 0 0 0 0 0 0 0 0 7359 6690 7359 6690 7359 6690 7359 0 0 0 0 0 0 0 0 0 0 7359 7359 0 0 0 0 0 0 0 574 561 566 561 584 570 574 570 570 570 574 584 0 0 0 0 0 0 0 0 0 0 0 0 0 0 8177 8177 8177 7359 0 0 0 0 0 0 0 0 0 7359 8177 8177 7359 5661 7359 7359 7359 7359 8177 8177 8177 8177 6133 5256 6133 6133 6133 6133 4329 5256 4906 5661 6133 5256 4599 4906 4906 6133 5256 5661 5661 4906 4906 5256 4906 4599 4906 3873 3873 4088 4329 3679 4329 4329 4329 4329 4906 4906 4599 4329 7359 3679 3504 3199 4329 4329 4329 3679 3873 4088 3873 3873 4329 3345 3504 3345 3679 3345 3345 3199 2537 0 0 0 0 743 0 700 714 714 714 714 0 0 0 0 0 0 2044 2164 2164 2164 2164 2230 2230 2102 2102 2044 2102 2044 2044 2044 1989 2044 2044 1989 2044 1989 1936 1887 1839 1887 1839 1839 1887 1887 1887 1887 1936 1989 1936 1936 2044 1839 1711 0 0 0 0 0 0
    0 0 0 0 0 0 0 0 0 0 0 0 0 0 0 0 0 0 0 0 0 0 0 0 0 0 0 0 0 0 0 0 0 0 0 0 0 0 0 0 0 0 0 0 0 0 0 0 0 0 0 0 0 0 0 0 0 0 0 0 0 0 0 0 0 0 0 0 0 0 0 0 8177 8177 0 0 7359 0 8177 0 0 0 0 0 0 0 0 0 0 0 0 0 0 0 0 0 0 0 0 0 0 0 0 0 0 0 0 0 0 0 0 0 0 0 0 0 0 0 0 0 0 0 0 7359 7359 7359 6690 7359 7359 7359 0 0 0 0 0 0 0 0 0 0 7359 7359 0 0 0 0 0 0 0 574 561 561 561 584 570 570 570 574 570 574 584 0 0 0 0 0 0 0 0 0 0 0 0 0 0 8177 8177 7359 7359 0 0 0 0 0 0 0 0 0 7359 8177 8177 6690 5661 8177 7359 7359 8177 8177 8177 8177 8177 6133 5256 6133 6133 6133 6133 4599 5256 4906 6133 6133 5256 4906 4906 4906 6133 5256 5661 5661 5256 5256 5256 5256 4599 4906 3679 3679 4088 4329 3504 4329 4329 4599 4599 4906 4906 4599 4329 7359 3679 3504 3199 4329 4329 4329 3679 4088 4088 3873 3873 4599 3504 3679 3504 3873 3504 3504 3345 3066 4329 0 0 0 735 0 694 0 707 707 0 0 1635 0 0 0 0 2044 2102 2164 2164 2164 2164 2230 2044 2044 2044 2044 2044 2044 2044 2044 2044 2102 2044 2044 1989 1936 1936 1887 1936 1887 1887 1936 1887 1887 1887 1936 1989 1936 1989 2044 1887 1795 0 0 0 0 0 0
    0 0 0 0 0 0 0 0 0 0 0 0 0 0 0 0 0 0 0 0 0 0 0 0 0 0 0 0 0 0 0 0 0 0 0 0 0 0 0 0 0 0 0 0 0 0 0 0 0 0 0 0 0 0 0 0 0 0 0 0 0 0 0 0 0 0 0 0 0 0 0 0 8177 8177 0 0 8177 0 9199 0 0 0 0 0 0 0 0 0 0 0 0 0 0 0 0 0 0 0 0 0 0 0 0 0 0 0 0 0 0 0 0 0 0 0 0 0 0 0 0 0 0 0 0 8177 8177 7359 6690 7359 6690 7359 8177 8177 0 0 0 0 0 0 0 7359 7359 0 7359 0 0 0 0 0 0 0 561 561 561 584 570 570 566 574 574 570 584 0 0 0 0 0 0 0 0 0 0 0 0 0 0 8177 8177 7359 7359 8177 8177 0 0 0 0 0 0 0 7359 8177 8177 6690 5661 8177 7359 7359 7359 8177 8177 8177 8177 6133 5256 6133 6133 6133 5661 4599 5256 4906 6133 6133 4906 4906 4599 4906 5661 5256 6133 5661 5661 5661 5661 5661 5256 5256 3679 3873 4329 4599 3679 4599 4599 4599 4599 4906 4906 4599 4329 7359 3504 3504 3199 4088 4088 4088 3679 4088 4088 3873 3873 4599 3504 3504 3504 4088 3679 3873 3679 3504 4906 0 0 0 735 0 687 700 700 700 0 0 0 0 0 0 0 2102 2102 2230 2102 2102 2102 2164 2044 2044 1989 2044 1989 2044 2044 2044 2044 2044 1989 2044 1989 1936 1936 1887 1936 1887 1936 1936 1936 1936 1936 1989 1989 1936 1989 2044 1887 0 0 0 0 0 0 0
    0 0 0 0 0 0 0 0 0 0 0 0 0 0 0 0 0 0 0 0 0 0 0 0 0 0 0 0 0 0 0 0 0 0 0 0 0 0 0 0 0 0 0 0 0 0 0 0 0 0 0 0 0 0 0 0 0 0 0 0 0 0 0 0 0 0 0 0 0 0 0 0 0 8177 0 0 8177 0 0 0 0 0 0 0 0 0 0 0 0 0 0 0 0 0 0 0 0 0 0 0 0 0 0 0 0 0 0 0 0 0 0 0 0 0 0 0 0 0 0 0 0 0 0 8177 8177 7359 6133 6690 6133 6690 7359 7359 7359 7359 8177 0 0 0 0 7359 8177 0 8177 7359 6133 7359 8177 8177 0 0 0 0 0 584 0 0 570 574 0 0 584 0 0 0 0 0 0 0 0 0 0 0 0 0 0 8177 8177 7359 6133 7359 7359 0 0 0 0 0 0 0 7359 8177 7359 6133 5256 7359 6690 6690 7359 8177 8177 8177 8177 6133 5256 6133 6133 6133 5661 4599 5256 4906 5661 6133 5256 4906 4599 4906 5661 5661 6133 6133 5661 6133 5661 6133 5661 6133 3873 4088 4906 4906 3679 4599 4599 4599 4599 4906 4906 4329 4088 7359 3504 3345 3199 4088 4088 4088 3873 4088 4088 3873 3873 4599 3504 3504 3504 4088 3873 4088 4329 0 4906 0 0 0 728 0 681 694 694 700 0 0 0 0 0 0 0 2102 2102 2230 2102 2102 2102 2102 1989 2044 1989 2044 1989 2044 1989 2044 1989 2044 1989 1989 1989 1936 1936 1936 1936 1936 1936 1989 1989 1989 1989 1989 1936 1887 1936 1989 1887 1795 0 0 0 0 0 0
    0 0 0 0 0 0 0 0 0 0 0 0 0 0 0 0 0 0 0 0 0 0 0 0 0 0 0 0 0 0 0 0 0 0 0 0 0 0 0 0 0 0 0 0 0 0 0 0 0 0 0 0 0 0 0 0 0 0 0 0 0 0 0 0 0 0 0 0 0 0 0 0 0 8177 8177 0 8177 0 0 0 0 0 0 0 0 0 0 0 0 0 0 0 0 0 0 0 0 0 0 0 0 0 0 0 0 0 0 0 0 0 0 0 0 0 0 0 0 0 0 0 0 0 0 0 0 7359 4906 5661 5661 5661 6690 6690 6690 6690 7359 0 0 0 0 8177 8177 0 8177 7359 6133 6690 6690 7359 7359 8177 6690 6690 6690 0 7359 6690 0 0 6690 6690 0 0 8177 0 0 0 0 0 0 0 0 0 0 0 0 8177 8177 6690 6133 7359 7359 0 0 8177 0 0 0 0 7359 7359 6690 6133 4906 6690 6690 6690 6690 8177 8177 8177 8177 6690 5661 6133 6133 6133 6133 4599 5256 4599 5661 6133 4906 4906 4599 5256 5256 5661 6133 6133 6133 6133 6133 6133 5661 6690 3679 4329 4906 4906 3679 4599 4599 4599 4599 5256 4599 4329 4088 7359 3504 3504 3199 4088 4088 4088 3873 4088 4088 3873 3873 4599 3504 3504 3504 4088 3679 4329 4906 0 0 0 0 0 721 0 675 687 687 694 694 0 0 0 0 0 0 2164 2102 2164 2102 2044 2044 2102 1989 1989 1989 1989 1989 1989 1989 2044 1989 1989 1936 1936 1936 1887 1936 1936 1936 1989 1989 1989 1989 1989 1989 1989 1936 1887 1936 1936 1839 1752 0 0 0 0 0 0
    0 0 0 0 0 0 0 0 0 0 0 0 0 0 0 0 0 0 0 0 0 0 0 0 0 0 0 0 0 0 0 0 0 0 0 0 0 0 0 0 0 0 0 0 0 0 0 0 0 0 0 0 0 0 0 0 0 0 0 0 0 0 0 0 0 0 0 0 0 0 0 0 0 8177 8177 8177 8177 0 0 0 0 0 0 0 0 0 0 0 0 0 0 0 0 0 0 0 0 0 0 0 0 0 0 0 0 0 0 0 0 0 0 0 0 0 0 0 0 0 0 0 0 0 0 0 0 7359 4599 5256 4906 4329 6133 6133 6133 6690 6690 8177 8177 0 0 8177 7359 8177 7359 6133 5256 6133 5661 6133 6133 6133 6133 6133 6690 8177 7359 7359 7359 8177 8177 8177 0 0 7359 8177 0 8177 0 0 0 0 0 0 0 0 0 8177 8177 6690 5661 7359 7359 8177 8177 8177 0 8177 0 0 7359 7359 6690 5661 4599 6690 6690 6690 6690 8177 0 0 0 7359 6133 6690 6690 6690 6133 4599 5256 4599 5661 6133 5256 4906 4599 5256 5256 5661 6133 5661 5661 6133 6133 6133 5661 7359 3679 4599 4906 4906 3679 4599 4906 4599 4599 5256 4599 4329 4329 7359 3679 3504 3345 4329 4329 4329 3873 4088 4088 3873 3873 4906 3504 3504 3504 4088 3873 4329 4906 0 0 0 0 0 714 681 675 681 687 694 694 0 0 0 0 0 0 2102 2102 2164 2102 2102 2044 2102 1989 1989 2044 1989 1989 1989 1989 2044 1989 1989 1936 1936 1936 1887 1936 1936 1936 1936 1989 1989 1989 1936 1936 1989 1887 1887 1936 1936 1887 1795 1752 0 0 0 0 0
    0 0 0 0 0 0 0 0 0 0 0 0 0 0 0 0 0 0 0 0 0 0 0 0 0 0 0 0 0 0 0 0 0 0 0 0 0 0 0 0 0 0 0 0 0 0 0 0 0 0 0 0 0 0 0 0 0 0 0 0 0 0 0 0 0 0 0 0 0 0 0 0 0 8177 8177 8177 8177 0 0 0 0 0 0 0 0 0 0 0 0 0 0 0 0 0 0 0 0 0 0 0 0 0 0 0 0 0 0 0 0 0 0 0 0 8177 0 0 0 0 0 0 0 0 0 0 0 8177 4906 5661 5256 4329 6690 6690 6690 7359 7359 8177 8177 0 0 7359 6690 7359 6133 4906 4329 5256 4906 6133 5256 6133 6133 6133 7359 0 8177 7359 8177 0 0 0 0 8177 6133 7359 0 8177 0 0 0 0 0 0 0 0 0 0 0 6690 6133 7359 6690 8177 8177 8177 8177 8177 0 0 7359 7359 6690 6133 4599 6133 6690 6690 6690 8177 0 0 0 8177 6133 6690 6690 6690 6133 4906 5256 4599 6133 5661 5256 4599 4599 5256 4906 5661 6133 5661 5661 5661 6133 6133 5661 7359 3504 4906 4906 4906 3679 4599 4906 4599 4599 5256 4329 4329 4329 7359 3873 3679 3345 4329 4329 4329 3873 4088 4088 3873 3873 4906 3504 3504 3679 4088 3873 4329 4599 0 0 0 0 0 707 675 669 675 681 687 694 0 0 0 0 0 0 2044 2102 2164 2044 2102 2044 2044 1989 2044 2044 2044 1989 1989 1989 2044 1989 1989 1936 1936 1989 1936 1936 1936 1936 1936 1936 1989 1989 1936 1936 1989 1887 1936 1936 1936 1887 1795 1795 0 0 0 0 0
    0 0 0 0 0 0 0 0 0 0 0 0 0 0 0 0 0 0 0 0 0 0 0 0 0 0 0 0 0 0 0 0 0 0 0 0 0 0 0 0 0 0 0 0 0 0 0 0 0 0 0 0 0 0 0 0 0 0 0 0 0 0 0 0 0 0 0 0 0 0 0 0 0 0 0 0 0 0 0 0 0 0 0 0 0 0 0 0 0 0 0 0 0 0 0 0 0 0 0 0 0 0 0 0 0 0 0 0 0 0 0 0 0 8177 0 8177 0 0 0 0 0 0 0 0 0 0 6690 6690 6690 5256 8177 8177 8177 8177 8177 0 0 0 0 8177 7359 7359 6133 4329 4088 5661 4906 0 4599 6690 6690 6133 0 0 0 8177 0 0 0 0 0 8177 6133 7359 0 8177 0 0 0 0 0 0 0 0 0 0 0 6690 5661 6690 6133 7359 7359 7359 8177 8177 0 0 7359 8177 7359 6690 4906 6690 6690 6690 7359 8177 0 0 0 0 7359 7359 7359 7359 6690 5661 6133 5661 6690 6690 6133 4906 5256 5661 4906 5661 5661 5661 5661 5661 6133 6133 5256 7359 3345 4906 4906 4906 3679 4599 4906 4599 4599 5256 4329 4329 4599 7359 4329 3873 3345 4599 4329 4329 3873 4088 4088 3873 3873 4906 3504 3504 3679 4088 3873 4329 5256 0 0 0 0 0 0 663 663 675 675 687 687 0 0 0 0 0 0 2044 2044 2164 2044 2044 1989 2044 1989 2044 2044 2044 1989 2044 1989 2044 2044 2044 1989 1989 1989 1936 1936 1989 1936 1936 1989 1989 1989 1936 1989 1989 1936 1936 1936 1936 1887 1795 1795 0 0 0 0 0
    0 0 0 0 0 0 0 0 0 0 0 0 0 0 0 0 0 0 0 0 0 0 0 0 0 0 0 0 0 0 0 0 0 0 0 0 0 0 0 0 0 0 0 0 0 0 0 0 0 0 0 0 0 0 0 0 0 0 0 0 0 0 0 0 0 0 0 0 0 0 0 0 0 0 0 0 0 0 0 0 0 0 0 0 0 0 0 0 0 0 0 0 0 0 0 0 0 0 0 0 0 0 0 0 0 0 0 0 0 0 0 0 0 7359 0 8177 0 0 0 0 8177 8177 0 0 0 0 8177 8177 7359 6133 0 0 0 0 0 0 0 0 0 8177 7359 7359 6690 4599 4088 5256 4329 0 0 6690 6690 6133 0 0 0 0 0 0 0 0 0 0 7359 8177 0 0 0 0 0 0 0 0 0 0 0 0 0 6690 6133 7359 6690 8177 8177 8177 8177 0 0 0 8177 9199 7359 7359 5256 7359 7359 7359 7359 0 0 0 0 0 0 8177 0 8177 8177 6133 6690 6133 7359 6690 5661 4906 4906 5256 4906 5661 5256 5256 5256 5661 6133 5661 5256 6690 3345 4906 4906 4906 3504 4599 4599 4599 4599 5256 4329 4329 4599 7359 4088 3873 3345 4599 4329 4329 4088 3873 4088 3873 3873 4906 3504 3504 3504 3873 3679 4599 0 0 0 0 0 0 700 663 663 675 675 681 687 0 0 0 0 0 0 2164 2102 2230 2102 2102 1989 2044 1989 2044 2044 2044 2044 2044 1989 2044 2044 2044 1989 1989 2044 1989 1989 1989 1989 1989 1989 2044 2044 1989 1989 1989 1936 1936 1936 1936 1887 1795 1795 0 0 0 0 0
    0 0 0 0 0 0 0 0 0 0 0 0 0 0 0 0 0 0 0 0 0 0 0 0 0 0 0 0 0 0 0 0 0 0 0 0 0 0 0 0 0 0 0 0 0 0 0 0 0 0 0 0 0 0 0 0 0 0 0 0 0 0 0 0 0 0 0 0 0 0 0 0 0 0 0 0 0 0 0 0 0 0 0 0 0 0 0 0 0 0 0 0 0 0 0 0 0 0 0 0 0 0 0 0 0 0 0 0 0 0 0 0 0 7359 8177 7359 0 0 0 0 8177 7359 0 0 0 0 0 8177 8177 6133 0 0 0 0 8177 0 0 0 0 8177 7359 7359 6690 5256 4906 6690 4906 0 0 8177 7359 6690 0 0 0 0 0 0 0 0 0 0 8177 0 0 0 0 0 0 0 0 0 83 83 0 0 0 6690 6133 8177 7359 8177 8177 0 0 0 0 0 0 0 8177 7359 5256 7359 7359 7359 7359 8177 0 0 0 0 0 0 0 0 0 5256 6133 6133 6690 5661 4906 4088 4329 4906 4329 5256 4906 4906 5256 5256 6133 5661 5256 6690 3345 4906 4906 4906 3679 4599 4906 4599 4599 5256 4329 4329 4599 7359 3873 3679 3504 4599 4599 4329 4088 4088 4088 3873 4088 4599 3345 3345 3504 3679 3345 0 0 0 0 0 0 0 707 663 663 675 681 687 0 0 0 0 0 0 0 2299 2164 2299 2102 2044 2044 2044 1989 2102 2102 2044 2044 2044 2044 2044 2044 2044 1936 1989 1989 1989 1989 1989 1989 1989 1989 2044 2044 1989 2044 1989 1936 1936 1936 1936 1887 1795 1795 0 0 0 0 0
    0 0 0 0 0 0 0 0 0 0 0 0 0 0 0 0 0 0 0 0 0 0 0 0 0 0 0 0 0 0 0 0 0 0 0 0 0 0 0 0 0 0 0 0 0 0 0 0 0 0 0 0 0 0 0 0 0 0 0 0 0 0 0 0 0 0 0 0 0 0 0 0 0 0 0 0 0 0 0 0 0 0 0 0 0 0 0 0 0 0 0 0 0 0 0 0 0 0 0 0 0 0 0 0 0 0 0 0 0 0 0 0 0 6690 7359 6690 8177 0 0 8177 7359 6690 0 0 0 0 0 8177 8177 6133 0 0 0 0 0 0 0 0 0 8177 7359 7359 6690 4599 4088 0 0 0 0 0 0 7359 0 0 0 0 0 0 0 0 0 0 0 0 0 0 0 9199 0 0 0 0 83 83 0 0 0 6690 6133 8177 7359 8177 8177 0 8177 0 0 0 8177 0 8177 8177 5256 6690 7359 7359 6690 7359 0 0 0 0 0 8177 0 0 0 4599 5661 5661 6133 5256 4906 3873 4329 4906 4599 5256 4906 4906 5256 5256 6133 5661 4906 7359 3345 4906 4906 4906 3679 4599 4906 4906 4906 5256 4329 4329 4599 7359 3873 3679 3504 4599 4599 4329 3873 3873 4088 3873 4088 4599 3199 3199 3345 3679 3199 0 0 0 0 0 0 0 707 669 669 675 681 687 0 0 0 0 0 0 0 2537 2230 2299 2044 1989 1989 1989 1989 2044 2044 2044 2044 2044 2044 2044 2044 2044 1936 1989 1989 1989 1989 2044 1989 2044 2044 2102 2044 2044 2044 1989 1936 1989 1936 1936 1887 1795 1795 0 0 0 0 0
    0 0 0 0 0 0 0 0 0 0 0 0 0 0 0 0 0 0 0 0 0 0 0 0 0 0 0 0 0 0 0 0 0 0 0 0 0 0 0 0 0 0 0 0 0 0 0 0 0 0 0 0 0 0 0 0 0 0 0 0 0 0 0 0 0 0 0 0 0 0 0 0 0 0 0 0 0 0 0 0 0 0 0 0 0 0 0 0 0 0 0 0 0 0 0 0 0 0 0 0 0 0 0 0 0 0 0 0 0 0 0 0 0 0 6690 6133 7359 0 7359 8177 6690 6690 0 0 0 0 0 8177 8177 6133 0 0 0 0 0 0 0 0 0 8177 6690 0 0 0 0 0 799 766 714 0 0 0 0 0 0 0 0 0 0 0 0 0 0 0 0 0 8177 7359 0 0 0 0 83 0 0 0 0 6690 6133 8177 7359 8177 8177 8177 8177 0 0 0 8177 0 8177 7359 4599 6133 6690 6690 6690 7359 0 0 0 0 8177 8177 8177 8177 8177 4329 5256 5256 5661 5256 4906 4088 4599 5256 4906 5256 5256 5256 5661 5661 6690 5661 4906 7359 3345 4906 4906 4906 3504 4599 4906 4599 4599 5256 4329 4329 4599 7359 3873 3679 3504 4599 4599 4329 3873 3873 4088 3873 4088 4599 3345 3345 3345 3679 3199 0 0 0 0 0 0 0 707 675 669 681 687 0 0 0 0 0 0 0 0 2725 2230 2299 2044 2044 2044 1989 1989 2102 2102 2102 2044 2102 2102 2044 2102 2102 1989 1989 1989 1989 2044 2044 2044 2044 2044 2102 2102 2102 2164 2044 1989 1989 1936 1936 1887 1752 1752 0 0 0 0 0
    0 0 0 0 0 0 0 0 0 0 0 0 0 0 0 0 0 0 0 0 0 0 0 0 0 0 0 0 0 0 0 0 0 0 0 0 0 0 0 0 0 0 0 0 0 0 0 0 0 0 0 0 0 0 0 0 0 0 0 0 0 0 0 0 0 0 0 0 0 0 0 8177 0 0 0 0 0 0 0 0 0 0 0 0 0 0 0 0 0 0 0 0 0 0 0 0 0 0 0 0 0 7359 6690 0 0 0 0 0 0 0 0 0 0 0 0 5661 0 0 0 0 6690 6690 0 0 0 0 0 0 8177 6690 0 0 0 0 0 0 0 0 0 0 0 0 0 0 0 0 791 758 714 707 0 0 0 0 0 0 0 0 0 0 0 0 0 0 0 8177 8177 6690 0 0 0 0 83 0 0 0 0 6690 6690 8177 7359 0 0 8177 0 0 0 0 8177 0 8177 7359 4329 5661 6133 6133 6133 7359 0 0 0 0 8177 8177 8177 8177 8177 4088 4906 5256 5661 5256 4599 4088 4906 5256 5256 5661 5661 5256 5661 6133 7359 5661 5256 6690 3199 4599 4599 4599 3504 4599 4599 4599 4599 5256 4599 4329 4599 7359 3873 3873 3504 4599 4599 4329 3873 3873 4088 4088 4088 4906 3345 3345 3345 4329 3066 0 0 0 0 0 0 714 714 681 669 0 0 0 0 0 0 0 0 0 0 2725 2164 2299 2044 2044 2044 2044 2044 2102 2102 2102 2102 2102 2102 2102 2102 2102 1989 2044 2044 1989 2044 2044 2102 2044 2102 2164 2164 2164 2230 2044 2044 1989 1989 1936 1839 1752 1711 0 0 0 0 0
    0 0 0 0 0 0 0 0 0 0 0 0 0 0 0 0 0 0 0 0 0 0 0 0 0 0 0 0 0 0 0 0 0 0 0 0 0 0 0 0 0 0 0 0 0 0 0 0 0 0 0 0 0 0 0 0 0 0 0 0 0 0 0 0 0 0 0 0 0 8177 7359 7359 0 0 0 0 0 0 0 0 0 0 0 0 0 0 0 0 0 0 0 0 0 0 0 0 0 0 0 0 0 6133 4906 0 0 0 0 0 0 0 0 0 0 0 0 5256 0 0 0 0 0 0 0 0 0 7359 8177 8177 0 0 0 0 0 0 0 0 268 265 0 260 0 0 0 0 0 0 774 743 714 707 0 0 202 203 203 202 202 0 0 0 0 0 0 0 0 6690 6690 5661 0 0 0 0 83 0 0 0 0 6690 6133 0 0 0 0 0 0 0 0 0 0 0 8177 6690 4088 5256 5661 5661 5661 6690 8177 8177 8177 0 8177 7359 7359 8177 7359 4329 4906 5256 5661 5256 4599 3873 4599 4906 5661 5661 5661 5256 5661 6133 7359 6133 5661 6690 3199 4329 4599 4329 3504 4599 4599 4599 4906 5256 4599 4329 4599 7359 4088 3873 3504 4599 4329 4329 3873 4088 4088 4088 4088 4906 3345 3345 3504 5661 0 0 0 0 0 0 0 735 721 0 681 0 0 0 0 0 0 0 0 0 0 2725 2230 2374 2044 2044 2102 2044 2044 2102 2102 2164 2102 2164 2164 2102 2102 2164 2044 2044 2044 2044 2102 2044 2102 2102 2102 2164 2164 2164 2230 2044 2102 1989 1989 1936 1839 1711 1672 0 0 0 0 0
    0 0 0 0 0 0 0 0 0 0 0 0 0 0 0 0 0 0 0 0 0 0 0 0 0 0 0 0 0 0 0 0 0 0 0 0 0 0 0 0 0 0 0 0 0 0 0 0 0 0 0 0 0 0 0 0 0 0 0 0 0 0 0 0 0 0 0 0 0 8177 7359 0 0 0 0 0 0 0 0 0 0 0 0 0 0 0 0 0 0 0 0 0 0 0 0 0 0 0 0 0 0 0 0 0 0 0 721 0 0 0 0 0 0 0 0 4906 0 0 0 0 6133 6133 0 0 0 6133 6690 0 123 124 0 0 9199 0 0 0 268 265 0 260 0 0 0 0 0 735 758 743 714 707 700 0 0 205 205 203 203 0 0 0 0 0 0 0 0 3873 5256 4599 0 0 0 0 0 0 0 0 0 6690 0 0 0 0 0 0 0 0 0 0 0 0 0 7359 4329 5256 5256 5256 5256 5661 7359 8177 8177 0 8177 8177 8177 0 8177 4599 5661 5661 5661 5256 4329 3873 4599 4906 5661 5661 5661 5256 6133 6690 7359 6133 5661 6133 3199 4329 4599 4088 3504 4599 4599 4599 4906 5661 4906 4599 4906 8177 4088 3679 3504 4599 4329 4088 3873 4088 4088 4088 4088 4599 3345 3345 3504 5661 0 0 0 0 0 0 0 750 728 0 0 0 0 0 0 0 0 0 0 0 3873 2830 2374 2537 2102 2102 2164 2102 2102 2164 2102 2164 2102 2164 2230 2164 2164 2164 2044 2102 2102 2044 2102 2044 2164 2102 2102 2230 2230 2230 2299 2102 2230 2044 2044 1936 1839 1711 1599 0 0 0 0 0
    0 0 0 0 0 0 0 0 0 0 0 0 0 0 0 0 0 0 0 0 0 0 0 0 0 0 0 0 0 0 0 0 0 0 0 0 0 0 0 0 0 0 0 0 0 0 0 0 0 0 0 0 0 0 0 0 0 0 0 0 0 0 0 0 0 0 0 0 0 0 0 0 0 0 0 0 0 0 0 0 0 0 8177 0 0 0 0 0 0 0 0 0 0 0 0 0 0 0 0 0 0 0 0 0 735 721 721 707 707 707 714 0 0 0 0 4599 0 0 0 0 5256 5256 7359 0 9199 4906 0 0 124 124 0 0 0 0 0 270 267 0 0 260 252 251 0 728 700 735 750 743 728 714 714 714 0 208 206 203 203 0 0 0 0 0 0 0 0 0 0 0 0 0 0 8177 0 0 0 0 0 6133 0 0 537 0 0 0 0 0 0 0 0 0 0 8177 4088 4906 4906 5256 5256 5661 6690 7359 8177 0 8177 8177 8177 0 0 5256 6133 6133 6133 5661 4329 3873 4329 4599 6133 5661 5256 5256 5661 6690 7359 5661 5256 6133 3345 4906 4906 4599 3679 4599 4906 4906 4906 5661 4906 4329 4599 7359 3504 3345 0 4088 4088 3873 3873 4329 4088 4088 4088 4906 3679 3679 3873 5661 0 0 0 0 0 766 728 758 735 0 0 0 0 0 0 0 0 0 0 0 5661 2943 2537 2628 2044 2044 2164 2102 2044 2164 2102 2164 2102 2164 2230 2164 2164 2164 2044 2102 2102 2044 2102 2102 2164 2164 2164 2230 2230 2230 2299 2164 2299 2044 2044 1936 1839 1672 1471 0 0 0 0 0
    0 0 0 0 0 0 0 0 0 0 0 0 0 0 0 0 0 0 0 0 0 0 0 0 0 0 0 0 0 0 0 0 0 0 0 0 0 0 0 0 0 0 0 0 0 0 0 0 0 0 0 0 0 0 0 0 0 0 0 0 0 0 0 0 0 0 0 0 0 743 758 758 766 758 774 774 774 758 721 0 728 714 0 0 0 0 0 0 0 0 0 0 0 0 0 0 0 0 0 0 0 0 0 735 728 721 721 714 707 714 721 714 0 0 0 0 0 0 5256 4599 4599 4599 0 0 0 0 0 125 124 0 728 721 0 0 0 0 0 0 0 0 0 0 758 728 707 735 743 743 728 721 714 721 721 0 207 205 203 203 0 0 0 0 0 108 107 106 106 106 0 8177 7359 7359 7359 0 0 0 0 0 0 0 541 0 0 0 0 694 0 0 0 0 0 6690 3504 4329 4599 4906 4906 5661 6690 8177 8177 0 8177 0 0 0 0 6133 6133 6133 6690 6133 4329 4088 4329 4599 6133 5661 5661 4906 5661 0 6690 5661 5256 5661 3679 5256 5661 5661 3873 5256 5256 5256 5256 5661 4906 4329 4329 6690 3345 0 91 0 3679 3679 3873 4329 4088 4329 4329 5256 4329 4329 4329 0 0 0 0 766 766 758 728 766 743 714 0 0 6133 3873 4088 0 0 0 0 0 6133 3066 2628 2628 2044 2102 2230 2164 2102 2164 2102 2164 2102 2230 2230 2102 2164 2164 2044 2102 2102 2102 2102 2102 2164 2164 2164 2230 2230 2230 2299 2164 2374 2044 2044 1936 1795 1565 1338 0 0 0 0 0
    0 0 0 0 0 0 0 0 0 0 0 0 0 0 0 0 0 0 0 0 0 0 0 0 0 0 0 0 0 0 0 0 0 0 0 0 0 0 0 0 0 0 0 0 0 0 0 0 0 0 0 0 0 0 0 0 0 0 0 0 0 0 0 0 0 0 0 0 0 743 758 750 758 750 758 758 750 750 728 721 728 714 714 714 714 0 721 721 0 0 0 0 0 0 0 0 0 0 735 735 735 743 728 735 728 728 721 714 714 714 728 721 721 203 0 0 0 0 4088 3679 3679 3679 0 0 0 0 0 0 0 728 728 721 728 728 0 0 0 0 0 0 0 774 743 728 714 735 735 743 728 721 714 721 721 728 0 205 204 203 0 0 0 0 0 107 107 106 106 0 0 0 0 6690 0 0 0 0 0 0 0 588 557 0 0 0 728 707 714 728 758 799 0 0 0 3873 4599 4329 4906 6133 6690 8177 8177 0 7359 0 0 0 0 0 6690 6690 7359 7359 5661 4599 4906 4906 7359 6690 6133 4906 5661 6133 6133 5256 4906 4906 0 5256 5661 6133 4329 5661 5661 5661 5661 5661 4906 4329 4329 6133 3199 0 91 0 0 0 3873 4599 4088 4329 4599 5256 0 0 0 0 0 743 743 750 758 743 735 758 743 714 0 0 6690 4088 4329 8177 0 0 0 0 6690 3199 2725 2725 2102 2102 2299 2230 2044 2164 2102 2164 2102 2230 2230 2102 2102 2230 2044 2164 2102 2102 2164 2102 2230 2164 2164 2230 2230 2230 2299 2230 2453 2102 2164 1936 1795 1471 1206 0 0 0 0 0
    0 0 0 0 0 0 0 0 0 0 0 0 0 0 0 0 0 0 0 0 0 0 0 0 0 0 0 0 0 0 0 0 0 0 0 0 0 0 0 0 0 0 0 0 0 0 0 0 0 0 0 0 0 0 0 0 0 0 0 0 0 0 0 0 0 0 0 0 0 735 750 743 750 743 750 750 743 750 735 728 728 721 728 721 721 721 735 728 735 728 735 721 728 721 728 714 0 0 735 735 735 735 728 728 728 721 728 721 721 721 728 728 728 0 0 0 0 0 0 0 0 0 0 0 0 0 0 735 728 728 735 728 728 735 735 743 728 728 728 714 728 743 735 721 714 728 735 735 728 721 721 721 721 728 707 694 707 714 721 721 721 0 0 0 0 0 0 0 743 743 750 0 743 735 0 0 0 714 694 645 634 0 0 728 728 721 721 735 758 799 774 0 0 0 4599 4329 5256 6133 6690 7359 8177 8177 7359 0 0 0 0 0 0 0 0 0 7359 6690 6690 6133 0 8177 7359 5661 5661 6133 5256 0 0 0 0 0 0 0 0 6133 6133 6133 0 0 4906 4329 4088 5661 2943 0 91 0 0 0 0 4906 4088 4599 4906 5661 0 0 0 0 0 743 735 743 750 743 735 750 735 714 0 0 6690 3873 4329 7359 0 116 114 113 0 3199 0 0 2230 2230 2453 2453 2102 2164 2102 2164 2102 2230 2230 2102 2102 2230 2102 2164 2164 2102 2164 2102 2230 2164 2164 2230 2230 2230 2374 2230 2453 2102 2230 1887 1672 1362 0 0 0 0 0 0
    0 0 0 0 0 0 0 0 0 0 0 0 0 0 0 0 0 0 0 0 0 0 0 0 0 0 0 0 0 0 0 0 0 0 0 0 0 0 0 0 0 0 0 0 0 0 0 0 0 0 0 0 0 0 0 0 0 0 0 0 0 0 0 0 0 0 0 0 0 735 743 735 743 743 743 743 743 750 743 721 728 721 728 721 721 721 728 721 728 721 721 714 721 721 721 714 714 714 728 728 728 735 721 728 728 721 728 721 728 728 728 728 728 728 735 721 714 714 0 0 0 694 700 700 700 714 714 728 721 728 735 728 728 735 735 743 728 728 735 714 728 735 728 721 714 728 728 735 728 721 721 721 721 728 707 700 714 721 721 728 728 728 728 735 750 735 735 735 735 743 743 743 750 743 721 714 721 714 707 694 687 714 714 728 728 721 728 735 750 791 766 774 774 791 808 0 0 0 0 0 0 0 0 0 743 766 743 743 728 735 743 0 0 0 7359 6133 0 8177 7359 5256 4599 0 0 0 155 154 155 156 156 0 0 0 6690 6690 0 0 4906 4088 3873 4329 2830 0 91 0 0 152 0 0 0 5256 0 0 0 0 721 721 721 743 743 743 750 743 743 743 728 707 707 0 0 0 0 7359 0 116 115 113 0 0 0 0 0 0 0 0 0 0 0 2299 2102 0 2230 2102 2102 2230 2164 2230 2230 2164 2230 2102 2230 2164 2164 2230 2230 2299 2374 2230 2537 2102 2230 1795 1501 0 0 0 0 0 0 0
    0 0 0 0 0 0 0 0 0 0 0 0 0 0 0 0 0 0 0 0 0 0 0 0 0 0 0 0 0 0 0 0 0 0 0 0 0 0 0 0 0 0 0 0 0 0 0 0 0 0 0 0 0 0 0 0 0 0 0 0 0 0 0 0 0 0 0 0 0 728 743 735 735 735 735 735 735 735 721 707 714 707 714 714 714 707 721 714 721 714 707 700 707 707 707 700 0 707 721 721 728 721 721 728 721 721 721 721 728 721 728 728 721 728 728 721 714 0 0 0 694 687 687 687 694 700 707 721 714 721 728 728 728 735 728 735 728 728 735 721 728 735 728 721 714 728 721 721 721 714 714 714 714 714 707 707 714 721 728 728 728 735 735 735 743 735 735 735 735 735 743 743 743 743 728 721 721 721 721 707 707 721 721 728 728 728 735 735 743 774 750 758 758 782 791 782 791 808 808 799 799 750 735 750 735 758 743 743 735 743 743 758 743 750 0 6690 0 0 0 3873 0 0 0 0 0 0 0 0 0 0 758 758 750 0 0 0 0 0 0 3679 0 0 0 0 0 0 0 721 0 0 0 0 0 707 721 721 728 743 735 735 743 735 750 735 721 707 700 700 0 728 0 0 0 116 115 114 0 0 117 0 0 0 0 714 694 681 669 657 669 651 645 669 0 0 2164 2299 2299 2230 2299 2164 2230 2230 2230 2299 2230 2299 2374 2299 2628 2044 2299 1795 1443 0 0 0 0 0 0 0
    0 0 0 0 0 0 0 0 0 0 0 0 0 0 0 0 0 0 0 0 0 0 0 0 0 0 0 0 0 0 0 0 0 0 0 0 0 0 0 0 0 0 0 0 0 0 0 0 0 0 0 0 0 0 0 0 0 0 0 0 0 0 0 0 0 0 0 0 0 714 728 721 728 721 721 714 714 707 694 687 694 694 700 700 700 700 707 700 700 694 687 681 687 687 687 687 694 694 707 714 721 714 714 721 721 721 721 714 721 714 721 721 721 721 714 0 0 0 0 0 687 681 675 675 681 694 707 721 714 721 735 728 728 728 728 735 728 728 735 714 714 721 714 714 707 714 714 714 714 707 707 707 707 714 707 707 721 721 728 735 735 735 735 743 743 735 735 735 735 735 735 743 735 743 721 714 721 721 721 714 714 721 721 728 735 735 743 735 750 774 750 766 758 766 782 774 782 791 782 774 774 743 735 743 728 750 743 743 735 743 743 758 743 766 721 728 728 728 714 714 0 714 714 721 721 721 735 728 743 750 750 750 750 758 766 750 0 0 0 0 0 0 0 721 721 728 735 714 694 700 700 700 707 707 721 721 728 735 735 735 735 728 750 721 714 700 694 694 714 714 0 0 0 116 115 114 0 0 0 0 694 687 700 714 694 687 675 663 675 669 675 681 675 687 687 0 0 0 2299 2230 2299 2230 2230 2299 2230 2299 2374 2374 2725 2164 2537 0 0 0 791 0 0 0 0 0
    0 0 0 0 0 0 0 0 0 0 0 0 0 0 0 0 0 0 0 0 0 0 0 0 0 0 0 0 0 0 0 0 0 0 0 0 0 0 0 0 0 0 0 0 0 0 0 0 0 0 0 0 0 0 0 0 0 0 0 0 0 0 0 0 0 0 0 0 0 700 714 714 714 707 707 700 700 694 687 675 687 681 687 681 687 681 687 681 675 681 675 663 675 675 681 675 681 687 694 700 707 707 707 714 714 714 714 707 707 707 714 707 707 707 0 0 687 669 681 681 675 675 675 675 681 687 700 714 714 721 735 728 728 728 728 728 721 728 728 707 714 714 707 707 700 707 707 707 707 707 700 707 700 714 707 707 721 728 728 735 735 735 735 735 743 735 735 735 728 735 735 735 728 721 700 700 700 700 707 700 707 721 728 735 735 735 743 743 750 782 766 774 758 766 791 782 791 782 766 743 743 728 721 728 721 735 735 735 735 743 743 758 743 774 728 728 728 721 714 721 714 721 714 721 721 721 735 721 735 735 735 743 743 750 758 750 774 750 735 743 728 714 714 714 714 721 735 707 694 700 694 700 707 700 714 714 721 728 728 728 728 721 743 707 700 694 687 687 700 700 694 0 0 117 116 0 0 0 0 694 694 687 700 707 694 694 675 669 681 669 669 675 669 681 681 687 700 700 0 721 0 0 0 0 0 0 0 0 0 0 0 0 0 791 750 0 0 0 0 0
    0 0 0 0 0 0 0 0 0 0 0 0 0 0 0 0 0 0 0 0 0 0 0 0 0 0 0 0 0 0 0 0 0 0 0 0 0 0 0 0 0 0 0 0 0 0 0 0 0 0 0 0 0 0 0 0 0 0 0 0 0 0 0 0 0 0 0 0 0 687 700 707 707 700 700 694 694 687 681 675 675 669 681 669 675 669 675 663 657 669 669 657 669 669 675 669 681 681 681 694 700 700 700 707 714 714 714 707 707 707 721 714 714 700 687 675 675 651 675 675 669 669 669 675 675 681 700 707 714 721 728 728 728 728 728 728 721 728 721 707 714 707 707 707 681 700 700 694 694 694 694 700 694 707 700 700 714 721 728 728 728 735 728 735 743 735 735 728 728 728 728 728 714 700 687 681 681 687 687 687 700 721 728 728 735 735 743 743 750 774 750 750 743 750 766 766 774 766 750 728 728 714 707 721 707 728 721 728 728 735 735 750 735 766 728 721 721 721 714 714 714 721 714 721 721 714 728 714 728 728 728 735 735 743 750 735 766 750 735 743 728 714 714 714 721 721 728 707 707 700 694 700 707 700 714 714 721 721 721 721 721 721 735 700 687 687 681 681 687 681 675 675 681 681 669 675 675 681 687 675 694 694 700 700 694 700 681 675 681 675 675 675 675 681 681 687 694 694 694 700 707 714 700 700 694 681 681 687 681 675 669 694 681 728 743 0 0 0 0 0
    0 0 0 0 0 0 0 0 0 0 0 0 0 0 0 0 0 0 0 0 0 0 0 0 0 0 0 0 0 0 0 0 0 0 0 0 0 0 0 0 0 0 0 0 0 0 0 0 0 0 0 0 0 0 0 0 0 0 0 0 0 0 0 0 0 0 0 0 0 675 687 694 694 687 687 681 675 681 669 663 657 657 669 651 669 657 663 657 651 669 663 657 669 663 669 663 675 675 669 681 694 687 687 700 700 707 714 707 714 707 721 714 714 700 0 681 675 645 669 669 669 669 669 669 669 675 694 700 707 714 721 721 721 721 721 721 721 721 721 707 707 700 700 694 663 687 687 681 681 681 681 687 687 700 694 694 714 714 721 728 728 735 728 728 735 728 728 728 721 721 721 721 700 687 675 675 669 669 675 675 687 707 721 721 728 728 735 728 735 743 721 721 728 721 735 743 743 743 735 721 707 707 694 707 700 714 714 714 721 728 728 750 735 758 721 721 721 714 707 714 707 714 714 714 721 714 728 714 721 721 721 728 728 735 735 721 743 735 728 735 728 714 707 714 721 721 721 700 707 700 694 694 700 694 714 707 714 714 714 721 721 714 728 694 681 681 681 675 687 675 663 663 669 669 657 663 663 669 681 675 694 694 700 700 700 700 687 681 687 675 675 681 669 681 681 681 687 687 681 687 687 700 687 687 681 675 675 687 681 675 675 687 687 700 735 0 0 0 0 0
    0 0 0 0 0 0 0 0 0 0 0 0 0 0 0 0 0 0 0 0 0 0 0 0 0 0 0 0 0 0 0 0 0 0 0 0 0 0 0 0 0 0 0 0 0 0 0 0 0 0 0 0 0 0 0 0 0 0 0 0 0 0 0 0 0 0 0 0 0 663 675 687 681 675 675 657 663 663 657 657 651 645 657 645 663 645 651 645 639 663 657 651 657 657 657 657 669 669 651 669 681 669 669 687 687 694 707 707 707 700 714 707 707 700 687 681 681 645 669 675 669 669 669 675 669 669 694 694 694 707 714 714 714 714 714 714 714 714 707 700 700 694 687 681 645 675 675 669 675 675 675 681 675 694 694 694 707 714 714 728 728 728 721 728 728 728 721 721 714 714 714 707 687 669 669 663 663 657 669 669 681 700 707 714 714 714 721 714 721 714 707 707 707 700 714 721 721 728 721 707 694 694 681 700 694 707 707 707 714 728 728 743 728 750 714 714 714 707 707 707 707 714 707 707 714 714 728 707 714 714 707 714 714 721 721 707 721 721 714 721 707 700 694 700 714 714 714 694 700 694 687 687 694 687 707 700 707 707 714 714 714 714 721 694 675 675 675 675 681 669 657 657 663 663 651 651 651 657 663 657 681 681 687 694 687 694 681 675 681 675 675 675 669 675 675 675 681 669 669 669 675 681 669 675 675 675 675 681 675 675 675 687 687 700 735 0 0 0 0 0
    0 0 0 0 0 0 0 0 0 0 0 0 0 0 0 0 0 0 0 0 0 0 0 0 0 0 0 0 0 0 0 0 0 0 0 0 0 0 0 0 0 0 0 0 0 0 0 0 0 0 0 0 0 0 0 0 0 0 0 0 0 0 0 0 0 0 0 0 0 657 669 681 675 663 663 645 657 657 645 651 645 645 651 639 663 639 639 634 639 651 651 645 651 651 651 651 663 669 639 651 669 651 657 675 675 675 694 694 694 687 707 687 687 681 681 681 675 645 669 675 675 669 669 675 669 669 694 687 687 694 707 707 700 707 707 700 700 700 700 687 687 675 675 669 639 669 669 657 663 669 669 675 669 694 687 687 707 707 714 721 721 728 721 728 728 728 721 714 707 707 700 700 675 663 663 663 663 657 669 669 681 694 700 700 707 700 707 707 707 700 694 694 700 694 700 714 714 714 714 700 681 687 675 694 687 700 700 700 707 721 721 735 721 735 707 700 700 694 694 700 700 707 700 700 707 707 714 700 700 700 694 700 700 700 700 694 694 700 687 694 681 681 669 681 694 694 700 681 687 687 681 681 681 681 694 694 700 700 700 707 707 707 714 687 669 675 675 675 681 663 651 645 657 657 645 645 645 651 657 645 663 663 669 681 675 687 669 663 675 669 669 669 663 669 663 663 663 645 645 639 645 657 639 657 663 669 675 681 675 669 669 681 681 694 728 0 0 0 0 0
    0 0 0 0 0 0 0 0 0 0 0 0 0 0 0 0 0 0 0 0 0 0 0 0 0 0 0 0 0 0 0 0 0 0 0 0 0 0 0 0 0 0 0 0 0 0 0 0 0 0 0 0 0 0 0 0 0 0 0 0 0 0 0 0 0 0 0 0 0 657 669 681 675 657 663 639 651 651 645 639 639 639 645 639 657 634 639 634 634 651 645 639 645 645 645 645 663 663 639 645 657 639 651 663 663 663 681 687 681 681 694 675 675 669 0 675 675 639 669 669 669 669 669 669 663 663 700 681 681 681 694 694 694 694 700 687 694 687 687 681 675 663 663 657 634 657 663 651 657 663 663 669 663 687 681 681 700 700 700 707 707 721 714 721 721 721 707 707 700 700 694 687 669 663 663 669 663 657 663 669 681 687 700 694 700 694 700 700 694 687 681 687 687 687 694 707 707 707 707 687 675 681 669 687 681 694 687 687 700 714 707 721 714 721 700 694 694 687 687 694 694 700 694 694 694 694 707 694 681 694 681 694 687 694 694 681 687 694 681 687 669 669 663 675 681 681 681 675 681 675 675 675 675 669 687 687 694 687 694 694 700 700 700 675 657 663 669 663 669 645 639 639 645 639 634 634 639 639 645 629 645 645 651 675 675 681 651 657 675 669 669 669 657 669 663 663 663 645 639 634 645 651 634 651 657 663 669 675 663 657 657 669 669 681 700 0 0 0 0 0
    0 0 0 0 0 0 0 0 0 0 0 0 0 0 0 0 0 0 0 0 0 0 0 0 0 0 0 0 0 0 0 0 0 0 0 0 0 0 0 0 0 0 0 0 0 0 0 0 0 0 0 0 0 0 0 0 0 0 0 0 0 0 0 0 0 0 0 0 0 657 669 681 669 651 657 639 651 651 639 639 634 639 639 639 657 634 639 634 634 651 645 639 645 639 645 645 657 657 634 639 651 639 645 651 651 645 663 675 669 669 687 669 675 663 0 675 669 639 669 669 669 663 669 669 663 657 700 669 675 675 681 681 681 687 694 675 687 675 681 675 663 645 651 651 629 651 651 645 651 657 663 663 657 687 675 675 694 694 694 700 700 707 700 707 707 707 700 700 694 694 681 681 663 657 663 663 663 657 663 669 675 687 700 687 694 681 687 687 681 663 663 669 675 681 687 700 700 707 707 681 669 675 663 675 675 681 681 681 687 700 700 714 700 707 694 687 687 681 681 687 687 694 687 687 687 681 694 687 663 681 675 681 675 681 681 675 675 687 669 675 657 657 651 663 669 669 669 663 675 663 663 669 669 663 675 675 681 669 681 681 681 681 687 663 639 645 657 651 663 629 634 634 639 634 634 634 634 634 639 623 629 623 629 645 645 639 623 645 669 663 669 669 657 669 663 663 669 651 645 634 645 651 634 639 645 651 651 663 651 645 651 657 657 669 669 0 0 0 0 0
    0 0 0 0 0 0 0 0 0 0 0 0 0 0 0 0 0 0 0 0 0 0 0 0 0 0 0 0 0 0 0 0 0 0 0 0 0 0 0 0 0 0 0 0 0 0 0 0 0 0 0 0 0 0 0 0 0 0 0 0 0 0 0 0 0 0 0 0 0 657 663 675 657 645 651 639 651 651 639 639 639 639 645 639 663 629 639 634 639 645 645 639 645 639 645 645 663 657 634 639 651 639 645 645 639 634 645 663 657 669 675 669 675 663 0 675 675 639 663 663 663 663 663 669 657 657 694 657 669 669 669 669 675 675 681 663 675 663 669 663 651 634 645 645 629 645 651 639 651 657 663 657 657 687 675 669 687 687 681 669 675 669 657 669 675 681 675 675 675 675 669 669 651 645 663 663 663 657 657 663 669 681 694 681 675 663 669 663 657 639 639 651 663 669 675 687 687 700 700 675 657 669 657 669 669 675 669 669 681 687 687 700 687 687 681 675 675 663 669 675 675 687 669 675 675 669 681 669 645 669 663 669 663 669 675 669 669 681 657 663 651 651 645 657 663 657 663 657 675 651 657 663 657 657 663 663 663 651 669 657 651 657 657 639 629 634 639 634 634 618 629 629 634 629 629 629 634 634 634 613 613 613 613 618 618 608 618 645 669 663 669 663 657 663 657 651 651 634 629 623 634 629 623 629 634 634 634 645 639 634 639 645 645 651 651 0 0 0 0 0
    0 0 0 0 0 0 0 0 0 0 0 0 0 0 0 0 0 0 0 0 0 0 0 0 0 0 0 0 0 0 0 0 0 0 0 0 0 0 0 0 0 0 0 0 0 0 0 0 0 0 0 0 0 0 0 0 0 0 0 0 0 0 0 0 0 0 0 0 0 657 669 669 657 645 651 639 651 651 639 639 639 645 645 634 657 623 639 629 639 645 645 639 645 639 645 639 663 657 634 634 645 639 645 639 629 623 629 639 651 663 669 663 675 669 0 681 681 639 663 663 663 663 663 663 651 651 694 651 663 663 669 663 669 669 675 657 675 657 663 657 651 629 645 645 629 645 651 645 651 657 663 657 657 687 669 663 681 675 669 645 657 639 639 645 651 651 645 651 657 663 657 663 645 639 663 663 663 657 657 663 663 675 687 657 645 639 645 639 639 629 634 645 651 657 663 681 675 687 694 669 651 669 657 663 663 663 663 657 669 681 669 681 669 669 663 651 651 639 645 651 651 663 651 663 663 651 663 657 634 663 657 663 651 663 663 657 663 681 651 657 645 657 645 651 657 657 663 651 663 639 657 657 651 651 651 651 645 639 663 634 623 629 623 618 613 618 613 608 608 608 618 618 623 629 629 629 634 629 629 613 608 608 608 608 613 603 618 639 669 663 657 657 645 645 645 634 629 618 618 618 623 623 618 618 623 629 623 634 634 629 629 634 639 639 639 0 0 0 0 0
    0 0 0 0 0 0 0 0 0 0 0 0 0 0 0 0 0 0 0 0 0 0 0 0 0 0 0 0 0 0 0 0 0 0 0 0 0 0 0 0 0 0 0 0 0 0 0 0 0 0 0 0 0 0 0 0 0 0 0 0 0 0 0 0 0 0 0 0 0 657 669 669 651 645 651 645 651 651 639 634 645 639 639 634 651 623 639 629 639 645 645 639 639 639 645 639 663 651 629 634 639 634 645 639 629 618 634 639 651 663 663 657 675 669 0 681 681 639 669 669 669 663 663 663 651 651 694 651 663 663 669 663 675 669 675 663 675 663 663 651 645 629 645 645 629 645 651 645 651 657 663 657 657 687 663 657 675 669 663 639 651 639 639 639 645 645 639 639 651 651 645 657 645 639 663 663 663 657 657 663 663 669 687 645 639 634 634 629 629 623 629 634 645 651 657 675 675 687 694 663 651 669 657 663 663 663 657 651 669 675 657 669 651 645 639 634 634 629 629 634 639 645 645 651 651 639 651 651 634 657 651 651 645 651 657 651 651 675 645 651 645 657 651 657 657 663 663 657 663 634 657 657 651 651 645 639 639 634 651 618 613 613 608 608 603 608 603 603 603 608 618 618 623 623 629 629 629 629 623 613 608 603 608 603 608 603 613 623 639 645 645 645 634 629 623 618 613 608 608 608 613 618 613 613 613 618 613 618 618 618 618 623 629 629 629 0 0 0 0 0
    0 0 0 0 0 0 0 0 0 0 0 0 0 0 0 0 0 0 0 0 0 0 0 0 0 0 0 0 0 0 0 0 0 0 0 0 0 0 0 0 0 0 0 0 0 0 0 0 0 0 0 0 0 0 0 0 0 0 0 0 0 0 0 0 0 0 0 0 0 657 675 669 657 651 651 645 651 651 639 634 639 639 634 634 639 618 634 623 639 645 645 639 639 639 645 639 663 645 629 629 634 634 645 634 629 623 639 645 657 663 663 657 669 669 663 681 681 639 663 663 663 663 663 663 645 645 694 645 663 663 675 669 681 675 681 663 675 663 663 651 645 623 645 645 623 651 651 645 651 657 663 657 657 694 669 657 675 669 663 645 651 639 639 634 639 639 634 634 645 645 639 651 645 634 657 663 663 657 657 663 663 669 687 645 634 629 629 623 623 618 623 629 634 645 651 669 669 687 694 657 651 663 657 663 663 657 657 645 669 675 657 663 651 639 639 634 634 629 629 629 634 645 639 645 645 639 651 651 634 657 651 651 639 651 651 645 651 669 634 639 634 651 645 645 651 651 657 657 663 634 657 657 651 651 645 639 634 634 645 613 603 603 603 598 598 603 598 593 593 608 613 613 618 618 623 623 623 623 618 608 603 603 603 603 603 603 608 613 623 629 629 629 629 618 613 598 598 598 598 598 603 608 608 603 603 608 598 603 608 608 608 613 613 618 613 0 0 0 0 0
    0 0 0 0 0 0 0 0 0 0 0 0 0 0 0 0 0 0 0 0 0 0 0 0 0 0 0 0 0 0 0 0 0 0 0 0 0 0 0 0 0 0 0 0 0 0 0 0 0 0 0 0 0 0 0 0 0 0 0 0 0 0 0 0 0 0 0 0 0 651 669 657 651 645 651 645 651 651 639 634 639 639 634 629 629 618 629 623 634 639 639 639 639 634 645 634 663 639 623 623 623 629 639 629 634 623 639 651 657 663 657 651 663 657 651 675 675 639 657 663 663 657 657 657 645 645 687 645 669 663 675 669 681 675 675 669 675 657 657 645 639 623 645 651 623 651 657 651 657 663 663 657 651 694 663 651 669 669 663 639 645 629 634 634 634 634 634 629 639 639 634 657 645 634 657 657 663 657 657 663 663 669 694 645 639 634 629 618 618 608 613 618 629 639 639 657 663 681 687 651 651 663 651 657 657 657 651 645 669 669 651 657 645 634 634 634 634 634 629 634 639 645 645 651 645 639 651 651 634 657 651 651 639 651 651 645 651 669 634 634 634 645 639 639 639 645 651 651 651 629 657 651 651 645 639 634 634 629 645 613 608 608 603 603 603 603 593 593 588 603 603 603 608 608 613 618 618 618 613 608 608 603 603 598 603 603 608 608 613 613 618 613 623 608 603 584 579 588 593 588 593 598 598 593 598 598 584 598 598 603 603 603 608 608 608 0 0 0 0 0
    0 0 0 0 0 0 0 0 0 0 0 0 0 0 0 0 0 0 0 0 0 0 0 0 0 0 0 0 0 0 0 0 0 0 0 0 0 0 0 0 0 0 0 0 0 0 0 0 0 0 0 0 0 0 0 0 0 0 0 0 0 0 0 0 0 0 0 0 0 639 657 639 634 639 639 634 645 645 634 629 629 629 623 618 618 608 623 618 634 639 634 634 634 634 639 629 651 629 618 613 618 618 623 613 629 618 639 645 657 657 645 645 639 634 629 657 651 629 651 651 651 651 651 651 639 645 687 634 669 669 681 675 681 675 675 669 675 651 651 639 634 618 651 651 623 651 657 651 657 657 663 651 651 687 651 639 651 651 645 623 629 618 623 623 623 629 629 623 629 629 629 651 639 629 657 657 657 657 657 663 657 663 694 639 634 629 618 608 608 598 603 608 618 623 623 639 657 675 687 645 645 657 645 651 651 651 645 645 663 669 651 651 639 634 629 629 629 629 629 634 639 651 651 657 651 639 651 651 634 657 651 651 639 645 651 645 651 663 634 634 634 645 639 639 639 639 645 657 645 629 657 651 651 645 639 634 629 629 639 608 603 603 603 603 598 598 588 588 588 593 593 593 593 598 603 608 608 608 608 603 603 598 603 598 603 603 608 603 608 603 608 603 613 593 593 570 566 579 584 574 579 593 588 584 593 593 579 593 598 598 598 603 603 603 603 0 0 0 0 0
    0 0 0 0 0 0 0 0 0 0 0 0 0 0 0 0 0 0 0 0 0 0 0 0 0 0 0 0 0 0 0 0 0 0 0 0 0 0 0 0 0 0 0 0 0 0 0 0 0 0 0 0 0 0 0 0 0 0 0 0 0 0 0 0 0 0 0 0 0 629 634 623 613 623 629 623 629 634 623 618 618 618 608 603 603 593 613 613 629 634 634 629 629 629 634 623 639 618 608 603 603 603 608 603 613 608 623 629 639 651 634 634 623 613 613 634 629 618 639 645 645 645 645 645 639 639 681 623 657 657 681 669 687 669 669 663 669 645 639 634 629 618 645 645 618 645 651 645 645 651 651 639 639 681 629 629 634 634 629 608 608 598 613 618 618 623 623 618 623 618 623 639 634 623 651 651 657 657 657 657 651 651 687 618 623 613 603 593 593 588 593 598 603 608 613 623 645 663 681 639 639 651 645 645 645 645 645 639 657 669 639 651 634 629 623 623 623 634 634 639 645 657 657 663 651 639 651 645 629 651 651 645 639 645 651 645 651 663 634 634 634 645 634 634 634 639 651 657 645 634 651 651 651 645 639 629 629 629 634 608 603 603 603 603 598 593 588 588 584 588 584 584 588 593 598 598 598 603 608 603 603 598 598 593 598 603 603 603 598 588 598 584 598 574 570 557 553 566 574 561 566 579 579 579 584 588 574 593 593 598 598 598 598 603 598 0 0 0 0 0
    0 0 0 0 0 0 0 0 0 0 0 0 0 0 0 0 0 0 0 0 0 0 0 0 0 0 0 0 0 0 0 0 0 0 0 0 0 0 0 0 0 0 0 0 0 0 0 0 0 0 0 0 0 0 0 0 0 0 0 0 0 0 0 0 0 0 0 0 0 623 0 613 608 618 618 618 618 618 613 608 603 603 593 588 588 584 593 598 618 623 623 623 623 623 629 618 623 608 593 593 584 588 598 593 603 603 608 608 618 629 618 618 598 588 588 608 613 608 629 629 634 639 639 639 634 634 657 618 639 639 663 651 675 651 645 645 651 629 623 623 618 608 634 639 613 639 639 639 634 634 639 634 634 675 618 618 629 629 629 603 603 593 603 613 613 608 618 608 0 608 613 618 618 618 639 639 645 639 639 639 634 634 675 608 603 598 598 588 588 579 584 588 598 598 598 603 623 623 657 629 629 639 634 639 645 645 645 639 651 657 629 634 618 613 608 608 608 618 623 634 639 651 651 657 645 634 639 634 629 645 645 639 634 645 645 645 645 657 629 623 629 634 623 618 623 629 645 657 639 634 651 651 651 645 634 629 629 629 629 608 598 603 603 603 598 593 584 588 584 588 584 584 584 593 593 598 593 603 598 598 603 598 598 593 598 598 603 598 598 574 588 570 588 561 557 553 549 557 561 553 553 566 566 570 574 584 570 588 593 593 593 593 593 598 593 0 0 0 0 0
    0 0 0 0 0 0 0 0 0 0 0 0 0 0 0 0 0 0 0 0 0 0 0 0 0 0 0 0 0 0 0 0 0 0 0 0 0 0 0 0 0 0 0 0 0 0 0 0 0 0 0 0 0 0 0 0 0 0 0 0 0 0 0 0 0 0 0 0 0 613 603 598 593 608 613 608 608 608 603 593 593 588 579 574 574 570 579 588 603 613 0 613 613 0 0 0 0 598 574 579 566 574 584 588 593 593 598 598 603 613 603 603 579 566 570 588 598 593 613 618 618 629 634 629 623 629 634 608 623 623 634 629 645 623 618 623 623 613 0 0 608 603 608 618 598 623 623 623 618 623 629 623 623 669 613 613 623 623 623 598 598 588 593 598 598 593 598 593 598 598 603 603 608 603 629 629 634 629 623 623 618 618 634 598 588 588 593 584 588 584 588 588 593 593 593 593 613 603 623 618 618 629 629 634 634 634 639 634 639 639 618 618 603 598 593 598 598 603 603 613 618 634 639 651 634 623 629 629 623 639 639 639 629 639 639 639 645 645 623 618 618 618 608 608 613 618 634 645 634 634 651 651 651 639 634 629 629 629 623 608 598 603 603 603 593 588 579 584 579 584 579 579 579 588 588 593 588 598 593 593 598 593 598 593 593 598 603 598 593 579 584 570 584 566 561 557 557 561 566 557 561 574 570 570 566 574 561 584 584 588 588 588 588 588 588 0 0 0 0 0
    0 0 0 0 0 0 0 0 0 0 0 0 0 0 0 0 0 0 0 0 0 0 0 0 0 0 0 0 0 0 0 0 0 0 0 0 0 0 0 0 0 0 0 0 0 0 0 0 0 0 0 0 0 0 0 0 0 0 0 0 0 0 0 0 0 0 0 0 0 593 588 588 579 593 603 593 598 598 593 584 584 584 579 574 574 570 574 579 593 603 0 608 0 603 0 598 0 584 561 566 561 566 570 574 588 588 0 588 593 608 598 593 574 561 570 584 588 584 603 603 608 613 623 623 618 613 618 598 603 608 608 608 0 603 598 608 608 603 598 603 598 598 593 608 584 608 613 613 608 608 613 613 613 651 608 603 613 613 613 588 588 574 570 584 588 579 588 588 588 593 598 598 603 598 618 618 623 613 613 608 603 603 608 588 574 579 588 570 584 574 579 579 588 588 588 584 603 584 603 603 608 618 618 629 629 629 634 629 629 623 608 603 593 588 588 593 588 593 593 598 598 613 618 623 618 618 623 623 618 634 634 634 629 634 634 634 639 634 613 613 603 608 598 598 603 613 623 629 629 634 651 651 645 639 634 629 629 629 623 608 598 603 603 598 588 588 574 584 574 579 579 574 579 588 588 593 584 593 593 593 598 593 598 593 598 603 603 598 593 579 584 566 574 561 553 553 557 561 561 557 557 574 574 566 557 561 557 579 574 584 579 579 579 584 584 0 0 0 0 0
    0 0 0 0 0 0 0 0 0 0 0 0 0 0 0 0 0 0 0 0 0 0 0 0 0 0 0 0 0 0 0 0 0 0 0 0 0 0 0 0 0 0 0 0 0 0 0 0 0 0 0 0 0 0 0 0 0 0 0 0 0 0 0 0 0 0 0 0 0 574 570 574 566 584 593 584 588 588 588 574 579 579 574 574 574 570 574 574 588 593 593 598 598 593 0 588 0 574 557 557 553 557 561 566 579 584 0 579 584 593 588 588 566 561 570 579 584 579 588 593 593 603 613 608 603 603 603 588 593 593 593 593 593 593 584 593 598 588 588 593 588 588 584 598 566 593 603 603 598 598 603 603 603 629 603 598 603 603 598 579 584 570 566 574 579 574 588 584 588 588 598 598 598 588 608 608 613 603 603 598 593 593 598 579 566 570 579 561 574 570 574 574 584 579 579 570 584 566 588 593 598 613 613 623 623 623 629 623 618 608 598 593 584 584 584 588 584 593 588 593 593 603 603 608 598 608 613 613 613 623 629 623 623 629 629 629 629 618 603 598 588 593 588 588 593 603 608 613 618 634 645 645 645 629 629 623 629 629 618 603 598 603 603 598 584 584 570 584 579 579 579 574 579 588 584 593 579 593 593 593 598 598 603 598 598 603 598 593 588 574 574 561 566 557 549 549 549 553 553 549 0 561 566 557 553 557 557 574 570 579 574 574 579 579 588 0 0 0 0 0
    0 0 0 0 0 0 0 0 0 0 0 0 0 0 0 0 0 0 0 0 0 0 0 0 0 0 0 0 0 0 0 0 0 0 0 0 0 0 0 0 0 0 0 0 0 0 0 0 0 0 0 0 0 0 0 0 0 0 0 0 0 0 0 0 0 0 0 0 0 557 557 566 561 574 579 574 584 574 574 570 574 574 574 574 574 570 570 574 579 584 584 593 584 574 574 570 557 561 553 553 549 553 557 557 566 570 561 561 570 584 579 579 561 557 570 574 579 570 579 579 579 588 598 593 588 588 588 579 584 588 588 584 584 584 579 588 588 584 579 584 584 579 574 588 561 584 593 593 588 593 593 593 593 608 598 588 598 593 588 574 579 570 566 574 579 574 584 579 584 588 593 593 588 579 598 598 603 588 593 588 584 584 588 570 566 566 579 561 570 566 570 570 584 574 570 566 570 557 574 584 588 603 608 613 618 613 623 618 603 598 588 584 579 579 579 579 579 588 579 584 584 588 579 588 566 588 598 603 603 613 613 613 613 623 618 618 613 608 588 588 574 588 584 584 588 593 598 598 603 629 639 639 634 623 623 618 623 629 613 603 598 598 603 598 579 579 570 579 574 579 579 579 579 593 588 593 579 588 588 584 588 593 593 588 593 598 593 588 579 561 561 553 557 553 549 549 545 0 557 0 0 574 574 566 561 561 561 574 570 579 574 574 579 579 584 0 0 0 0 0
    0 0 0 0 0 0 0 0 0 0 0 0 0 0 0 0 0 0 0 0 0 0 0 0 0 0 0 0 0 0 0 0 0 0 0 0 0 0 0 0 0 0 0 0 0 0 0 0 0 0 0 0 0 0 0 0 0 0 0 0 0 0 0 0 0 0 0 0 0 553 557 561 561 570 579 570 579 574 574 566 570 574 570 574 570 570 570 570 574 574 566 574 561 557 557 557 549 553 549 549 549 553 553 557 557 561 553 553 561 570 566 566 557 553 566 570 574 566 570 566 566 579 588 579 574 579 584 574 579 584 584 579 579 579 574 584 584 574 574 579 579 574 570 584 557 574 584 584 579 584 584 588 584 603 588 584 593 588 579 570 570 566 561 570 570 570 579 574 579 584 588 584 579 566 584 584 593 570 584 574 574 574 579 566 566 566 579 561 570 566 570 570 584 570 566 561 561 553 561 570 579 584 603 603 608 603 608 608 588 588 584 574 574 574 574 574 570 584 574 574 579 579 570 574 561 574 579 593 593 598 598 603 598 613 613 608 603 598 588 584 574 584 579 579 584 588 588 588 593 618 623 629 629 618 618 618 623 623 608 598 593 598 598 598 570 579 570 579 574 574 574 574 574 593 579 588 566 570 561 553 561 566 574 570 579 584 579 574 561 553 553 549 553 549 545 549 545 549 557 0 0 570 579 566 566 561 561 579 574 574 574 570 579 570 584 0 0 0 0 0
    0 0 0 0 0 0 0 0 0 0 0 0 0 0 0 0 0 0 0 0 0 0 0 0 0 0 0 0 0 0 0 0 0 0 0 0 0 0 0 0 0 0 0 0 0 0 0 0 0 0 0 0 0 0 0 0 0 0 0 0 0 0 0 0 0 0 0 0 0 553 557 566 566 574 579 574 579 574 574 566 570 574 570 570 570 566 566 566 566 566 561 566 553 553 553 553 545 549 545 545 545 549 549 553 553 557 553 553 557 566 566 566 557 553 566 570 570 566 566 566 561 574 584 574 566 574 579 574 579 584 584 574 574 574 570 579 579 570 570 574 574 570 566 579 553 570 579 574 574 579 579 579 574 598 579 579 588 579 570 561 561 561 557 561 561 561 566 566 570 574 579 574 570 561 570 570 574 557 570 566 566 570 570 561 566 566 579 561 570 566 570 566 579 566 561 557 561 553 561 566 570 570 588 584 593 588 598 598 566 574 574 570 570 574 570 570 566 579 570 566 574 570 561 570 557 570 566 584 584 588 588 588 588 598 598 598 593 588 584 579 570 579 579 574 584 584 584 584 588 608 613 618 618 608 613 613 618 618 603 593 588 588 593 588 566 574 570 574 570 574 574 574 570 593 570 574 553 553 545 541 545 553 553 557 566 574 574 570 561 553 549 549 549 549 545 545 541 545 545 0 0 549 553 553 553 553 553 570 570 570 566 566 570 561 574 0 0 0 0 0
    0 0 0 0 0 0 0 0 0 0 0 0 0 0 0 0 0 0 0 0 0 0 0 0 0 0 0 0 0 0 0 0 0 0 0 0 0 0 0 0 0 0 0 0 0 0 0 0 0 0 0 0 0 0 0 0 0 0 0 0 0 0 0 0 0 0 0 0 0 553 557 566 570 574 584 574 584 574 574 566 570 574 570 570 570 566 566 566 566 566 561 566 557 553 553 553 541 549 541 545 541 545 549 549 553 557 553 553 557 566 570 570 557 557 566 570 570 570 570 566 561 574 584 570 566 570 574 570 574 584 579 570 574 574 570 579 579 570 570 570 574 566 566 574 553 566 574 570 570 574 574 574 570 593 574 579 584 579 570 561 566 561 561 561 557 561 561 561 566 566 574 566 566 557 566 566 566 553 566 561 566 566 570 566 566 566 584 566 574 570 570 566 579 566 566 557 561 553 561 566 566 557 566 561 570 570 584 579 557 561 570 566 570 570 570 570 566 579 570 566 574 570 566 570 561 574 566 584 579 584 584 584 579 588 584 588 579 584 579 574 566 579 574 574 579 579 579 579 584 603 608 608 613 603 608 603 608 608 593 588 584 588 588 584 561 574 570 579 570 574 574 570 570 593 561 566 549 549 537 537 541 545 549 553 557 566 570 570 561 553 549 549 549 549 541 545 541 541 537 533 529 537 537 541 541 541 541 557 557 561 561 561 566 557 566 0 0 0 0 0
    0 0 0 0 0 0 0 0 0 0 0 0 0 0 0 0 0 0 0 0 0 0 0 0 0 0 0 0 0 0 0 0 0 0 0 0 0 0 0 0 0 0 0 0 0 0 0 0 0 0 0 0 0 0 0 0 0 0 0 0 0 0 0 0 0 0 0 0 0 553 557 566 570 574 584 574 588 574 579 570 574 574 570 570 570 566 566 566 566 566 557 566 557 557 553 553 541 545 541 545 545 545 549 549 553 557 557 557 557 566 574 570 557 557 570 574 574 574 574 570 566 579 588 574 566 570 570 566 570 579 574 566 574 574 570 574 574 566 566 570 570 566 566 570 553 566 570 570 570 574 570 570 570 593 574 579 584 574 570 566 566 561 561 561 557 561 561 561 566 561 570 561 561 561 561 566 566 553 566 561 566 566 570 566 566 566 584 566 574 570 570 566 579 566 566 561 561 553 566 570 566 553 561 553 561 561 570 561 553 557 566 561 566 570 570 570 566 579 570 566 574 570 566 570 561 570 561 579 574 574 574 574 570 579 574 574 570 574 570 570 561 574 570 570 574 574 574 574 579 593 593 598 608 593 598 593 598 593 584 584 574 579 584 574 553 574 566 574 566 574 574 570 570 588 557 561 549 545 537 537 537 541 545 549 549 557 570 570 561 553 549 549 549 549 541 545 537 537 529 525 521 529 529 533 533 533 533 553 553 561 561 561 566 557 566 0 0 0 0 0
    0 0 0 0 0 0 0 0 0 0 0 0 0 0 0 0 0 0 0 0 0 0 0 0 0 0 0 0 0 0 0 0 0 0 0 0 0 0 0 0 0 0 0 0 0 0 0 0 0 0 0 0 0 0 0 0 0 0 0 0 0 0 0 0 0 0 0 0 0 549 553 557 566 566 579 570 588 570 574 566 574 574 570 570 570 566 566 566 566 566 561 566 561 557 553 553 541 545 541 545 545 549 549 553 553 557 557 561 561 566 574 570 557 557 574 579 579 579 574 574 570 584 588 574 566 566 570 566 566 574 570 561 570 570 566 570 570 561 561 566 566 561 561 566 553 566 570 566 570 570 570 570 570 593 574 579 588 574 574 566 574 566 566 561 561 561 561 561 566 566 570 561 566 561 566 566 566 553 566 561 566 566 570 566 566 566 584 566 574 570 570 566 579 566 566 561 566 553 570 570 570 557 561 557 561 561 570 561 553 557 566 561 566 570 570 570 566 574 570 566 570 566 561 570 557 570 561 574 570 574 570 570 566 574 570 570 570 574 570 570 566 574 574 570 579 574 574 574 579 588 584 584 593 574 584 570 574 570 570 570 561 566 570 561 549 570 566 570 566 574 574 570 566 588 557 557 545 541 533 529 529 533 541 545 545 553 561 561 557 549 545 545 541 541 537 537 533 533 521 521 518 525 525 529 529 529 529 549 553 561 566 566 570 561 570 0 0 0 0 0
    0 0 0 0 0 0 0 0 0 0 0 0 0 0 0 0 0 0 0 0 0 0 0 0 0 0 0 0 0 0 0 0 0 0 0 0 0 0 0 0 0 0 0 0 0 0 0 0 0 0 0 0 0 0 0 0 0 0 0 0 0 0 0 0 0 0 0 0 0 549 549 553 561 561 574 566 588 566 574 566 570 574 570 570 566 566 566 566 570 570 566 570 570 566 561 553 0 0 541 545 549 549 553 553 557 561 561 561 561 570 579 574 561 566 579 584 584 584 584 579 574 588 593 579 566 566 570 566 566 570 566 557 566 566 561 566 566 561 561 561 566 557 561 561 553 566 570 566 570 570 570 570 574 593 579 584 588 579 584 574 579 566 566 561 561 561 561 557 566 561 570 561 561 561 561 566 566 549 561 561 566 566 566 566 566 566 584 566 574 570 570 566 574 561 561 557 557 553 566 566 566 553 553 553 557 557 566 561 553 557 566 561 566 570 566 566 566 574 570 566 570 566 561 570 561 570 561 574 570 570 570 566 561 570 570 566 566 570 570 570 566 574 574 570 579 574 579 579 579 588 574 574 584 561 570 557 557 557 557 561 557 561 561 557 545 566 566 570 566 574 574 574 566 588 549 549 541 537 529 525 525 525 537 537 537 541 553 553 549 541 537 537 537 537 537 533 529 529 518 518 518 521 525 525 525 525 525 541 549 557 557 557 561 553 561 0 0 0 0 0
    0 0 0 0 0 0 0 0 0 0 0 0 0 0 0 0 0 0 0 0 0 0 0 0 0 0 0 0 0 0 0 0 0 0 0 0 0 0 0 0 0 0 0 0 0 0 0 0 0 0 0 0 0 0 0 0 0 0 0 0 0 0 0 0 0 0 0 0 0 549 545 549 561 557 566 561 574 557 574 561 566 570 566 566 566 566 566 561 570 570 566 574 579 579 0 570 0 0 0 549 549 549 549 553 557 561 561 566 566 574 579 574 561 566 579 584 584 584 584 584 579 588 593 584 570 570 570 566 566 574 570 557 566 566 561 566 566 557 557 561 561 553 557 557 549 561 566 566 566 570 570 570 574 593 579 584 588 579 584 574 579 566 566 561 557 561 557 553 557 557 561 553 561 557 557 566 561 549 561 557 566 566 566 566 566 566 584 570 579 570 570 566 574 557 557 553 553 549 566 570 570 553 557 553 557 557 561 561 553 557 566 561 566 570 566 566 566 574 574 566 574 570 566 574 561 570 566 579 574 574 570 566 566 574 574 566 566 566 561 570 561 570 570 566 579 574 579 579 579 588 574 570 584 557 566 553 557 553 557 557 557 557 561 557 545 566 570 570 566 574 574 570 566 584 545 541 541 533 529 521 521 521 533 529 533 533 549 545 545 541 537 533 533 537 533 529 529 525 511 518 514 521 521 521 521 521 521 537 541 549 549 549 553 549 549 0 0 0 0 0
    0 0 0 0 0 0 0 0 0 0 0 0 0 0 0 0 0 0 0 0 0 0 0 0 0 0 0 0 0 0 0 0 0 0 0 0 0 0 0 0 0 0 0 0 0 0 0 0 0 0 0 0 0 0 0 0 0 0 0 0 0 0 0 0 0 0 0 0 0 545 541 0 0 545 553 545 537 545 566 553 561 566 566 566 561 566 566 561 574 574 570 584 588 588 0 0 0 0 0 549 549 549 549 553 557 561 561 570 570 579 584 579 561 566 579 579 584 584 579 579 579 588 598 588 574 570 574 570 570 579 570 557 570 566 566 566 566 561 561 561 566 557 561 557 549 561 566 566 566 570 574 570 574 593 579 584 584 579 579 574 579 566 561 557 557 557 553 553 553 553 557 553 561 557 561 566 561 549 561 561 566 566 566 566 566 570 588 574 584 574 574 570 574 557 557 553 549 553 579 584 579 570 566 561 561 561 561 561 553 553 561 561 566 570 570 570 566 574 574 566 574 570 566 574 566 570 570 579 574 570 570 566 566 574 574 561 561 561 557 566 561 570 570 566 574 574 574 579 574 584 574 570 584 557 566 553 557 557 557 557 553 557 561 557 545 566 570 570 566 574 574 574 566 584 541 541 541 533 529 521 518 521 533 529 533 529 541 537 537 533 529 529 525 529 525 521 521 521 504 514 511 518 518 521 521 521 518 537 537 545 545 545 549 541 537 0 0 0 0 0
    0 0 0 0 0 0 0 0 0 0 0 0 0 0 0 0 0 0 0 0 0 0 0 0 0 0 0 0 0 0 0 0 0 0 0 0 0 0 0 0 0 0 0 0 0 0 0 0 0 0 0 0 0 0 0 0 0 0 0 0 0 0 0 0 0 0 0 0 0 0 529 521 529 529 533 529 525 533 561 549 561 561 561 561 557 561 566 557 579 574 570 0 0 0 0 0 0 0 0 0 549 545 549 549 553 561 561 566 566 574 579 570 557 566 574 579 579 584 574 579 579 588 598 588 574 570 574 574 574 579 570 557 570 566 561 561 561 561 561 561 566 553 561 557 549 561 561 561 566 566 570 566 574 593 579 584 584 579 574 570 574 561 566 557 557 557 549 549 549 549 553 553 561 561 561 570 566 553 561 561 566 561 566 566 566 570 588 574 584 574 579 570 566 557 557 553 553 557 574 579 574 566 561 557 557 557 561 557 549 553 561 561 566 566 566 566 566 574 579 566 579 574 570 579 570 570 570 584 579 574 566 566 566 570 574 561 557 557 553 561 557 570 570 561 574 574 574 579 574 584 570 570 584 557 566 553 557 557 557 553 553 557 557 553 545 566 570 570 566 570 570 570 561 579 537 537 537 529 525 521 518 521 533 529 529 529 541 537 533 529 525 525 521 525 521 518 518 518 504 514 511 518 514 518 521 518 518 533 529 537 537 537 533 529 529 0 0 0 0 0
    0 0 0 0 0 0 0 0 0 0 0 0 0 0 0 0 0 0 0 0 0 0 0 0 0 0 0 0 0 0 0 0 0 0 0 0 0 0 0 0 0 0 0 0 0 0 0 0 0 0 0 0 0 0 0 0 0 0 0 0 0 0 0 0 0 0 0 0 0 0 511 504 511 511 514 514 507 497 0 529 0 553 553 553 549 557 557 549 570 566 566 0 0 0 0 0 0 0 0 0 545 545 545 549 549 557 553 0 0 561 566 557 549 561 566 574 579 579 574 574 579 588 593 588 570 566 570 570 570 574 566 557 566 561 561 561 561 561 561 561 566 553 561 553 545 557 557 557 557 557 566 561 574 593 574 584 584 584 579 574 579 566 566 557 557 553 549 545 545 545 549 549 557 557 557 570 566 549 561 557 566 557 561 561 561 561 579 561 570 557 557 0 0 0 0 541 537 545 566 570 570 561 557 553 553 553 553 553 545 549 557 557 561 561 561 561 561 570 579 561 579 579 579 588 584 570 579 584 584 574 566 566 561 566 570 557 553 553 553 561 557 566 566 561 570 570 570 579 570 584 570 566 584 557 566 553 557 557 557 553 553 553 557 553 545 566 570 570 566 570 570 570 561 574 537 537 533 529 529 525 525 525 533 529 529 529 537 529 521 518 514 514 511 518 511 507 514 514 500 511 511 514 514 518 518 514 514 529 525 533 518 529 511 500 504 0 0 0 0 0
    0 0 0 0 0 0 0 0 0 0 0 0 0 0 0 0 0 0 0 0 0 0 0 0 0 0 0 0 0 0 0 0 0 0 0 0 0 0 0 0 0 0 0 0 0 0 0 0 0 0 0 0 0 0 0 0 0 0 0 0 0 0 0 0 0 0 0 0 0 500 500 497 497 497 497 497 493 481 474 490 0 0 549 549 545 553 553 545 566 557 0 0 0 0 0 0 0 0 0 0 545 545 545 545 545 549 549 0 0 549 553 541 537 553 557 566 570 570 561 566 570 574 579 574 557 557 561 566 561 566 570 553 566 561 557 557 557 557 557 557 557 549 553 549 541 549 549 549 549 553 557 553 566 588 570 574 579 579 574 570 579 566 566 557 557 553 549 541 545 541 545 545 557 553 553 561 561 545 557 553 561 553 553 553 553 553 570 553 553 545 541 0 0 529 529 525 518 533 0 553 566 553 549 545 545 549 545 545 541 545 553 553 553 557 557 557 557 566 574 553 570 574 579 584 574 557 570 579 579 570 557 553 549 557 557 545 549 549 549 557 553 566 566 561 570 570 570 574 570 579 566 561 579 553 557 549 553 553 549 549 549 553 557 553 545 570 574 574 570 570 570 566 561 570 537 533 529 529 529 525 525 525 529 525 525 525 533 518 507 500 504 507 500 514 507 504 511 511 500 511 507 514 511 514 514 511 511 529 518 525 487 497 487 481 484 0 0 0 0 0
    0 0 0 0 0 0 0 0 0 0 0 0 0 0 0 0 0 0 0 0 0 0 0 0 0 0 0 0 0 0 0 0 0 0 0 0 0 0 0 0 0 0 0 0 0 0 0 0 0 0 0 0 0 0 0 0 0 0 0 0 0 0 0 0 0 0 0 0 0 493 493 490 490 490 490 0 490 481 474 481 0 0 0 0 0 0 553 545 561 553 0 0 0 0 0 0 0 0 0 541 541 541 541 541 541 0 529 0 0 511 529 507 493 0 545 553 557 553 549 0 557 557 549 0 553 553 557 561 557 570 579 553 557 549 545 545 549 549 549 549 549 541 549 545 533 541 541 541 541 545 549 0 0 579 561 557 566 566 561 561 570 557 561 549 0 549 541 0 537 0 533 537 0 545 545 553 553 537 553 549 553 549 545 545 545 545 557 541 541 533 529 529 529 514 514 507 493 511 481 507 0 518 0 0 525 537 525 537 533 541 549 549 549 553 553 553 553 561 566 537 549 549 545 553 545 541 549 557 570 557 549 549 541 549 549 533 537 537 541 553 549 561 561 557 566 566 566 570 566 574 557 557 566 545 549 545 545 0 541 541 537 545 549 541 541 570 574 574 570 570 570 566 561 566 537 529 525 525 525 525 521 521 529 521 521 518 518 504 493 490 497 500 493 504 500 500 504 507 500 511 504 511 511 511 511 507 507 525 511 514 481 490 484 481 481 0 0 0 0 0
    0 0 0 0 0 0 0 0 0 0 0 0 0 0 0 0 0 0 0 0 0 0 0 0 0 0 0 0 0 0 0 0 0 0 0 0 0 0 0 0 0 0 0 0 0 0 0 0 0 0 0 0 0 0 0 0 0 0 0 0 0 0 0 0 0 0 0 0 0 0 490 490 487 490 490 0 487 484 477 481 0 0 0 0 0 0 0 0 0 549 0 0 0 0 0 0 0 0 0 0 511 493 490 497 493 0 490 477 0 484 490 487 481 477 507 0 0 0 0 0 0 0 533 0 545 549 553 570 557 598 603 553 557 545 541 537 541 541 0 0 0 529 541 541 518 525 533 533 533 537 537 533 533 553 541 0 0 0 0 0 0 545 545 0 0 0 529 521 518 514 511 511 521 533 529 537 541 525 545 545 545 541 537 537 537 541 545 533 529 521 518 521 518 500 500 493 487 490 477 484 0 490 0 0 500 521 514 529 525 529 549 545 545 553 549 549 549 553 553 533 533 533 525 525 529 525 537 541 561 553 545 545 537 541 541 525 525 521 533 545 545 557 557 553 561 561 561 570 561 570 553 553 561 541 545 541 533 0 521 521 518 529 533 529 533 566 570 574 570 566 566 566 557 561 533 525 521 521 525 521 521 521 525 518 514 511 497 493 487 484 487 490 487 490 490 493 497 500 500 507 504 511 511 511 511 504 507 521 500 504 481 484 468 474 474 0 0 0 0 0
    0 0 0 0 0 0 0 0 0 0 0 0 0 0 0 0 0 0 0 0 0 0 0 0 0 0 0 0 0 0 0 0 0 0 0 0 0 0 0 0 0 0 0 0 0 0 0 0 0 0 0 0 0 0 0 0 0 0 0 0 0 0 0 0 0 0 0 0 0 0 0 0 0 0 487 0 0 487 477 477 0 0 0 0 0 0 0 0 0 533 0 0 0 0 0 0 0 0 0 490 487 481 477 477 477 474 481 468 474 477 481 481 474 474 484 0 0 0 0 0 0 514 514 518 529 537 533 541 537 0 0 0 0 529 529 514 511 0 500 0 0 511 521 525 500 504 521 521 525 525 525 518 514 533 529 504 493 500 497 500 504 514 507 500 0 525 507 511 500 497 493 490 493 507 497 493 514 500 537 537 537 537 529 533 533 533 537 525 521 518 511 518 507 497 493 487 484 484 477 481 474 484 487 490 493 504 504 518 514 521 541 541 537 545 545 541 541 545 541 525 518 525 507 500 507 504 511 521 537 533 533 529 529 533 533 518 518 514 525 537 541 553 553 549 557 557 557 561 553 561 549 549 553 533 537 521 490 0 487 493 497 500 514 511 514 561 566 570 570 566 566 561 553 553 533 518 518 518 521 521 521 518 525 514 504 504 490 487 484 481 484 484 481 487 484 484 490 493 497 504 500 507 507 507 507 504 504 518 490 490 474 471 457 468 471 0 0 0 0 0
    0 0 0 0 0 0 0 0 0 0 0 0 0 0 0 0 0 0 0 0 0 0 0 0 0 0 0 0 0 0 0 0 0 0 0 0 0 0 0 0 0 0 0 0 0 0 0 0 0 0 0 0 0 0 0 0 0 0 0 0 0 0 0 0 0 0 0 0 0 0 0 0 0 0 0 0 0 490 477 477 471 0 0 0 0 0 0 504 0 514 0 0 0 0 0 0 0 0 0 0 484 481 477 477 477 471 477 465 474 477 481 481 474 474 477 0 0 0 0 0 481 487 490 493 500 497 504 511 507 497 500 484 487 490 497 490 487 481 481 481 490 497 500 507 493 490 504 507 507 507 507 500 497 514 521 493 487 493 490 490 487 490 487 487 0 500 493 500 490 490 487 484 484 493 0 481 484 484 511 521 525 529 518 521 525 525 533 518 514 511 504 514 500 490 490 484 481 481 477 481 477 487 487 490 490 497 497 507 504 511 529 533 533 541 537 537 537 537 537 514 500 507 493 490 493 493 493 497 511 511 504 511 514 521 521 511 507 507 518 525 537 545 549 545 553 549 553 553 549 545 537 537 537 514 487 487 477 481 481 484 484 487 490 493 493 557 557 561 566 561 561 557 553 545 529 511 507 514 518 518 518 514 521 511 497 500 487 484 484 481 484 484 484 484 481 481 490 487 497 504 497 500 500 500 500 500 504 507 484 481 468 462 454 468 468 0 0 0 0 0</data></depth>
</opencv_storage>
