<?xml version="1.0"?>
<opencv_storage>
<gps_time_stamp>34791</gps_time_stamp>
<gps_x>-1.1832925796508789e+001</gps_x>
<gps_y>1.1379305124282837e+000</gps_y>
<gps_z>-3.0120511054992676e+000</gps_z>
<image_time_stamp>22767</image_time_stamp>
<depth type_id="opencv-matrix">
  <rows>84</rows>
  <cols>320</cols>
  <dt>s</dt>
  <data>
    0 0 0 0 0 0 0 0 0 0 0 0 0 0 0 0 0 0 0 0 0 0 0 0 0 0 0 0 0 0 0 0 0 0 0 0 0 0 0 0 0 0 0 0 0 0 0 0 0 0 0 0 0 0 0 0 0 0 0 0 0 0 0 0 0 0 0 0 0 0 0 0 0 0 0 0 0 0 0 0 0 0 0 0 4599 4599 4599 4599 4599 4599 4329 4906 0 0 0 0 0 0 0 0 0 0 0 0 0 0 0 0 0 0 0 8177 8177 0 0 0 8177 8177 0 0 0 0 7359 7359 8177 0 0 8177 8177 6690 6133 0 0 0 8177 6133 6690 7359 8177 0 0 0 0 0 0 0 0 0 8177 6690 6133 4906 4599 4088 4329 3679 0 5256 0 3679 3873 3873 8177 7359 0 8177 8177 0 0 0 0 0 0 0 5661 0 5661 4088 5256 5661 5661 5661 0 6690 7359 7359 0 0 0 8177 8177 6690 5661 6133 6690 6690 6690 7359 6690 8177 0 0 0 0 0 0 0 0 8177 0 0 0 8177 0 0 0 4599 3066 2830 2537 2299 2299 2299 2299 2299 2299 0 0 0 0 5661 5256 5256 5661 5661 5661 5661 5256 4599 4329 4329 3679 3679 3679 3345 3873 3873 3679 3873 3873 4088 4088 3873 4329 3679 3504 3679 3504 3345 3345 3504 3345 3345 3199 3199 3199 3199 3199 3199 2943 2943 3066 3199 3199 3066 2943 2943 2943 2830 2830 2725 2725 2628 2628 2374 1936 1936 1839 1711 1711 1752 1752 1752 1672 1795 1752 1711 1711 1711 1752 1752 1711 1752 1711 1711 1752 1711 1711 1672 1635 1672 1672 1672 1672 1672 0 0 0 0 0
    0 0 0 0 0 0 0 0 0 0 0 0 0 0 0 0 0 0 0 0 0 0 0 0 0 0 0 0 0 0 0 0 0 0 0 0 0 0 0 0 0 0 0 0 0 0 0 0 0 0 0 0 0 0 0 0 0 0 0 0 0 0 0 0 0 0 0 0 0 0 0 0 0 0 0 0 0 0 0 0 0 0 0 0 4599 4599 4599 4599 4599 4599 4599 5256 0 0 0 0 0 0 0 0 0 0 0 0 0 0 0 0 0 0 0 8177 8177 8177 8177 8177 8177 8177 0 0 0 0 7359 7359 7359 0 0 8177 7359 6690 6133 0 0 0 8177 6690 7359 7359 0 0 0 0 0 0 0 0 0 0 8177 6133 6133 4906 4599 3873 0 3679 3504 4329 0 3679 3873 3873 8177 7359 0 8177 8177 0 0 0 0 8177 0 0 0 0 5661 3873 5256 5661 5661 0 0 6690 7359 7359 0 0 0 8177 8177 7359 6690 6133 6690 6690 6690 7359 7359 8177 0 0 0 0 0 0 0 0 0 0 0 0 8177 0 0 0 4906 3199 2943 2628 2374 2374 2374 2374 2374 2374 0 0 0 4906 5256 4906 5256 5256 5256 5256 5256 4906 4329 4088 4329 3679 3679 3679 3345 3873 3873 3679 3873 3679 3873 3873 3873 4329 3504 3504 3679 3504 3504 3345 3504 3504 3345 3199 3199 3345 3345 3345 3199 3066 3066 3066 3345 3199 3066 2943 2943 2943 2943 2830 2725 2725 2725 2628 2453 2044 1989 1936 1795 1839 1795 1795 1795 1711 1795 1752 1711 1752 1711 1752 1752 1752 1752 1752 1752 1711 1711 1711 1672 1635 1635 1672 1672 1635 1672 0 0 0 0 0
    0 0 0 0 0 0 0 0 0 0 0 0 0 0 0 0 0 0 0 0 0 0 0 0 0 0 0 0 0 0 0 0 0 0 0 0 0 0 0 0 0 0 0 0 0 0 0 0 0 0 0 0 0 0 0 0 0 0 0 0 0 0 0 0 0 0 0 0 0 0 0 0 9199 0 0 8177 8177 7359 0 0 0 0 0 0 4599 4906 4906 4906 4906 4906 4599 5661 0 0 0 0 0 0 0 0 0 0 0 0 0 0 8177 0 0 0 0 8177 8177 8177 8177 8177 8177 8177 0 0 0 0 6690 7359 7359 8177 8177 8177 7359 6690 6133 0 0 0 8177 8177 8177 8177 0 0 0 0 0 0 0 0 0 0 7359 6133 6133 4599 4329 3679 0 3504 3504 4088 0 3679 3873 3873 8177 7359 0 0 0 0 0 0 0 8177 8177 7359 0 0 5661 3873 5256 5661 0 0 0 6690 8177 7359 0 0 0 8177 8177 7359 6690 6690 7359 7359 7359 8177 8177 0 0 0 0 0 0 0 0 0 0 0 0 0 8177 0 0 0 4906 3345 3066 2725 2537 2453 2453 2453 2453 2453 0 0 5661 6133 5256 5256 5256 5256 5256 5256 5256 4906 4088 4329 4329 3679 3679 3679 3504 3873 3873 3873 3873 3679 4088 3873 3873 4329 3679 3679 3679 3504 3504 3345 3679 3504 3504 3345 3345 3504 3504 3345 3345 3066 3066 3199 3345 3199 2943 2943 2943 2943 2943 2830 2830 2725 2725 2725 2537 2164 2102 2044 1839 1887 1839 1839 1839 1752 1795 1752 1752 1752 1752 1752 1752 1711 1752 1711 1752 1711 1711 1672 1672 1599 1635 1635 1635 1635 1672 0 0 0 0 0
    0 0 0 0 0 0 0 0 0 0 0 0 0 0 0 0 0 0 0 0 0 0 0 0 0 0 0 0 0 0 0 0 0 0 0 0 0 0 0 0 0 0 0 0 0 0 0 0 0 0 0 0 0 0 0 0 0 0 0 0 0 0 0 0 0 0 0 0 0 0 0 0 0 8177 0 8177 8177 7359 0 0 0 0 0 0 4599 4906 4906 4906 4906 4906 4906 6133 0 0 0 0 0 0 0 0 0 0 0 0 0 0 8177 0 8177 0 0 0 7359 7359 8177 8177 7359 8177 0 0 0 0 6690 7359 7359 8177 8177 7359 7359 6690 6133 0 0 0 8177 8177 8177 8177 0 8177 0 0 0 0 0 0 0 8177 8177 6133 6133 4599 4088 3679 0 3345 3345 3679 0 3504 3679 3679 7359 7359 0 0 0 0 0 0 0 8177 8177 7359 0 0 5661 3873 5256 5661 0 0 0 6690 8177 7359 0 0 0 8177 7359 7359 6690 6690 7359 6690 7359 8177 8177 0 0 0 0 0 0 0 0 0 0 0 0 0 8177 0 0 0 5256 3345 3345 2830 2628 2537 2537 2537 2537 2537 0 0 5661 5661 4906 4906 4906 5256 5256 5256 4906 4599 4088 4329 4329 3873 3873 3679 3504 3873 4088 3873 3873 3679 4088 3873 3873 4088 3504 3504 3679 3504 3504 3345 3679 3679 3679 3504 3504 3504 3504 3345 3504 3066 3066 3199 3345 3199 2943 2943 2943 2943 2943 2830 2830 2830 2725 2725 2537 2374 2164 2164 1839 1887 1839 1839 1839 1795 1839 1795 1752 1795 1752 1752 1795 1752 1752 1711 1752 1711 1711 1672 1672 1599 1635 1635 1635 1635 1635 0 0 0 0 0
    0 0 0 0 0 0 0 0 0 0 0 0 0 0 0 0 0 0 0 0 0 0 0 0 0 0 0 0 0 0 0 0 0 0 0 0 0 0 0 0 0 0 0 0 0 0 0 0 0 0 0 0 0 0 0 0 0 0 0 0 0 0 0 0 0 0 0 0 0 0 0 0 0 0 0 8177 8177 8177 7359 0 0 0 0 0 4906 5256 5256 5256 5256 5256 5256 6690 0 0 0 0 0 0 0 0 0 0 0 0 0 0 8177 8177 8177 0 0 0 7359 7359 8177 8177 7359 7359 0 0 0 0 6690 7359 7359 8177 8177 7359 7359 6690 6133 0 0 0 8177 8177 7359 7359 8177 8177 8177 8177 0 0 0 0 0 8177 8177 6690 0 4906 3873 3504 0 0 0 3504 0 3504 3679 3679 8177 7359 0 0 0 0 0 0 0 8177 8177 7359 4906 0 5661 3873 5256 5661 0 0 0 6690 8177 7359 0 0 0 8177 8177 7359 6690 6690 7359 6690 7359 8177 0 0 0 0 0 0 0 0 0 0 0 0 0 0 8177 8177 0 0 5256 3504 3873 3066 2830 2725 2725 2725 2725 2830 0 5256 5256 5256 4906 4906 4906 5256 5256 4906 4599 4599 4329 4599 4329 3873 4088 3873 3679 4088 4088 4088 3873 3873 4088 3679 3679 3873 3504 3504 3504 3679 3504 3345 3679 3873 3679 3504 3504 3679 3504 3504 3679 3199 3199 3199 3345 3199 3066 3066 3066 3066 2943 2943 2943 2830 2830 2725 2628 2453 2374 2299 1887 1887 1887 1795 1795 1752 1795 1795 1795 1795 1795 1795 1839 1795 1795 1752 1752 1752 1711 1635 1672 1599 1635 1635 1635 1635 1635 0 0 0 0 0
    0 0 0 0 0 0 0 0 0 0 0 0 0 0 0 0 0 0 0 0 0 0 0 0 0 0 0 0 0 0 0 0 0 0 0 0 0 0 0 0 0 0 0 0 0 0 0 0 0 0 0 0 0 0 0 0 0 0 0 0 0 0 0 0 0 0 0 0 0 0 0 0 0 0 0 8177 8177 8177 8177 8177 0 0 0 0 4906 5256 5256 5256 5256 5256 5256 6690 0 0 0 0 0 0 0 0 0 0 0 0 0 0 8177 8177 8177 0 0 0 7359 7359 8177 8177 8177 8177 0 0 0 0 6690 7359 7359 8177 8177 7359 7359 6690 6133 0 0 0 8177 7359 7359 6690 7359 7359 8177 8177 8177 0 0 0 0 8177 0 6690 0 0 4329 0 0 0 0 3504 3345 3679 3679 3679 8177 8177 0 0 0 0 0 0 0 8177 0 7359 5256 0 5661 3873 5256 5256 0 0 0 6690 7359 7359 0 0 0 8177 8177 7359 7359 6690 7359 7359 7359 8177 0 0 0 0 0 0 0 0 0 0 0 8177 0 0 8177 8177 8177 8177 5661 3679 4599 3345 2943 2943 2943 2943 3066 3199 6690 5256 4906 4906 4599 4906 4906 4906 4906 4599 4599 4599 4329 4599 4329 4088 4088 4088 3873 4088 4088 4088 3873 3873 4088 3679 3679 3873 3504 3504 3679 3679 3504 3345 3873 3873 3873 3504 3504 3504 3504 3504 3873 3199 3066 3199 3345 3066 2943 2943 2943 2943 2943 3066 2943 2943 2830 2830 2830 2628 2725 2537 1989 1989 1887 1752 1795 1752 1795 1795 1795 1795 1752 1752 1795 1711 1752 1711 1711 1711 1672 1635 1672 1565 1635 1635 1635 1635 1635 0 0 0 0 0
    0 0 0 0 0 0 0 0 0 0 0 0 0 0 0 0 0 0 0 0 0 0 0 0 0 0 0 0 0 0 0 0 0 0 0 0 0 0 0 0 0 0 0 0 0 0 0 0 0 0 0 0 0 0 0 0 0 0 0 0 0 0 0 0 0 0 0 0 0 0 0 0 0 0 0 0 0 0 0 0 0 0 0 0 5661 5661 5661 5661 5661 5661 5661 7359 0 0 0 0 0 0 0 0 0 0 0 0 0 0 8177 8177 0 0 0 0 8177 7359 0 0 8177 8177 0 0 0 0 6690 7359 7359 8177 8177 7359 7359 6690 6133 0 0 0 8177 8177 7359 7359 7359 7359 8177 7359 8177 8177 0 73 0 8177 0 6690 0 0 4906 0 0 0 0 3679 3504 3679 3679 3345 0 8177 0 0 0 0 0 0 0 8177 0 0 0 0 5661 3873 5256 5256 0 0 0 6690 7359 7359 0 0 0 8177 8177 7359 7359 6690 7359 7359 8177 8177 0 0 0 0 0 0 0 0 0 0 0 7359 8177 0 8177 7359 7359 7359 5661 3679 4906 3504 3199 3199 3199 3199 3345 3679 6690 5661 4906 4906 4599 4906 4906 4906 4906 4599 4599 4906 4329 4599 4329 4088 4088 4088 3873 4088 4088 4088 3679 3873 3873 3679 3679 3873 3679 3679 3679 3873 3504 3345 3873 3873 3873 3504 3504 3679 3679 3679 4088 3199 3199 3199 3345 3066 2943 2943 2943 2943 2943 3066 3066 2943 2830 2830 2830 2725 2725 2537 2102 2044 1887 1752 1839 1795 1795 1795 1795 1795 1795 1752 1795 1711 1711 1711 1711 1672 1672 1635 1635 1599 1635 1599 1599 1599 1599 0 0 0 0 0
    0 0 0 0 0 0 0 0 0 0 0 0 0 0 0 0 0 0 0 0 0 0 0 0 0 0 0 0 0 0 0 0 0 0 0 0 0 0 0 0 0 0 0 0 0 0 0 0 0 0 0 0 0 0 0 0 0 0 0 0 0 0 0 0 0 0 0 0 0 0 0 0 0 0 0 0 0 0 0 0 0 0 0 0 6133 6133 6133 6133 6133 6133 5661 7359 0 0 0 0 0 0 0 0 0 0 0 0 0 0 8177 8177 0 0 0 0 8177 7359 0 0 0 8177 0 0 0 0 7359 7359 7359 8177 8177 7359 7359 6690 6690 0 0 0 8177 8177 8177 8177 8177 7359 8177 8177 0 0 0 73 0 0 0 7359 0 0 4599 0 0 0 3873 3679 3679 3679 3679 3345 0 8177 0 8177 0 0 0 0 8177 8177 8177 0 0 0 5661 3873 5256 5256 5661 0 0 6690 7359 7359 0 0 0 0 0 7359 7359 6690 7359 7359 7359 8177 0 0 0 0 0 0 0 0 0 0 0 6690 8177 8177 7359 6690 6690 6690 5661 3679 5661 3873 3345 3345 3345 3504 3679 4088 6690 5661 4906 4906 4599 4906 4906 4599 4599 4329 4599 4599 4599 4599 4329 4329 4088 4088 3873 4088 4088 4088 3679 4088 3873 3873 3679 3873 3679 3679 3679 3873 3504 3345 3873 3873 3873 3504 3504 3679 3679 3679 4088 3345 3199 3199 3345 3199 3066 2943 3066 3066 3066 3066 3066 2943 2830 2725 2725 2537 2537 2374 2164 2044 1936 1752 1839 1795 1795 1795 1795 1795 1795 1795 1795 1711 1711 1711 1711 1672 1672 1635 1635 1599 1635 1565 1599 1565 1565 0 0 0 0 0
    0 0 0 0 0 0 0 0 0 0 0 0 0 0 0 0 0 0 0 0 0 0 0 0 0 0 0 0 0 0 0 0 0 0 0 0 0 0 0 0 0 0 0 0 0 0 0 0 0 0 0 0 0 0 0 0 0 0 0 0 0 0 0 0 0 0 0 0 0 0 0 0 0 0 0 0 0 0 0 0 0 0 0 0 6690 6690 6690 6690 6690 6690 6133 8177 0 0 0 0 0 0 0 0 0 0 0 0 0 0 8177 8177 8177 0 0 0 0 7359 0 0 0 0 0 0 0 0 7359 7359 7359 8177 8177 8177 7359 6690 6690 0 0 0 8177 8177 8177 8177 8177 8177 8177 8177 0 0 0 0 0 0 0 8177 0 0 4599 0 0 4599 4599 4329 4599 4906 5661 5661 0 0 0 0 0 0 0 0 8177 8177 8177 0 0 0 5661 3873 4906 5256 5256 5661 0 6690 7359 7359 0 0 0 0 0 7359 7359 7359 7359 7359 8177 8177 0 0 0 0 0 0 0 0 0 0 0 6690 8177 8177 7359 6690 6690 6690 6133 3873 5661 4329 3679 3679 3679 3873 4088 4329 6690 5661 4906 4906 4599 4906 4599 4329 4599 4329 4329 4599 4329 4329 4329 4329 4088 4329 3873 4088 4088 4329 3873 4088 3873 3873 3873 4088 3679 3679 3679 4088 3504 3345 3873 3873 3873 3504 3504 3679 3679 3679 4088 3345 3199 3199 3345 3199 2943 2943 3066 3066 3066 3199 3199 2943 2725 2628 2537 2453 2374 2164 2044 2044 1936 1839 1887 1839 1795 1795 1839 1795 1795 1795 1795 1711 1711 1711 1711 1672 1635 1599 1635 1599 1599 1565 1565 1533 1565 0 0 0 0 0
    0 0 0 0 0 0 0 0 0 0 0 0 0 0 0 0 0 0 0 0 0 0 0 0 0 0 0 0 0 0 0 0 0 0 0 0 0 0 0 0 0 0 0 0 0 0 0 0 0 0 0 0 0 0 0 0 0 0 0 0 0 0 0 0 0 0 0 0 0 0 0 0 0 0 0 0 0 8177 8177 0 0 0 0 4599 7359 7359 7359 7359 7359 7359 7359 0 0 0 0 0 0 0 0 0 0 0 0 0 0 0 8177 7359 8177 0 0 0 0 8177 0 0 0 0 0 0 0 0 8177 8177 7359 8177 0 8177 8177 7359 6690 0 0 0 0 0 0 8177 8177 8177 8177 0 0 0 0 0 0 0 0 0 8177 6690 6690 0 6690 5661 6133 5256 5661 7359 7359 8177 0 0 0 0 0 0 0 0 0 8177 0 0 0 0 5661 3873 4906 5256 5256 5661 0 6690 7359 7359 0 0 0 0 0 7359 7359 7359 7359 7359 8177 8177 0 0 0 0 0 0 0 0 0 0 0 7359 8177 0 7359 7359 7359 7359 6133 3873 6133 4599 3873 4088 4088 4329 4329 4329 6690 5256 4906 4906 4599 4599 4329 4329 4599 4329 4329 4329 4329 4329 4329 4329 3873 3873 3679 3873 3873 4088 3679 3873 3873 4088 3873 4088 3679 3679 3679 4329 3504 3345 3873 3873 3873 3504 3679 3679 3679 3679 3873 3345 3199 3199 3345 3199 2943 2943 3066 3066 3066 3199 3066 2943 2725 2628 2537 2374 2230 2102 1989 1936 1887 1795 1839 1795 1795 1795 1795 1795 1795 1795 1795 1711 1752 1711 1711 1672 1635 1635 1635 1599 1599 1565 1565 1533 1533 0 0 0 0 0
    0 0 0 0 0 0 0 0 0 0 0 0 0 0 0 0 0 0 0 0 0 0 0 0 0 0 0 0 0 0 0 0 0 0 0 0 0 0 0 0 0 0 0 0 0 0 0 0 0 0 0 0 0 0 0 0 0 0 0 0 0 0 0 0 0 0 0 0 0 0 0 0 0 0 0 0 0 0 0 0 0 0 0 5661 8177 8177 8177 8177 8177 8177 8177 0 0 0 0 0 0 0 0 0 0 0 0 0 0 0 8177 7359 0 0 0 0 0 8177 0 0 0 0 0 0 0 0 8177 8177 7359 0 0 8177 8177 7359 6690 0 0 0 0 0 0 0 8177 8177 8177 0 0 0 0 0 0 0 0 0 7359 6690 7359 7359 8177 7359 8177 6690 6690 9199 8177 0 0 0 0 0 0 0 0 0 0 0 0 0 0 0 5661 3873 4906 4906 4906 5256 5661 6133 7359 6690 0 0 0 0 8177 6690 6690 6690 7359 7359 8177 8177 0 0 0 0 0 0 0 0 0 0 0 9199 0 0 8177 7359 7359 7359 6690 4088 6133 4599 4088 4329 4329 4599 4599 4329 6133 4906 4906 4599 4599 4906 4329 4599 4599 4329 4329 4329 4329 4599 4329 4329 3873 4088 3679 4088 4088 4088 3679 4088 3873 4088 3873 4599 3873 3873 3873 4329 3504 3345 3873 3873 3873 3504 3504 3679 3679 3679 3873 3345 3199 3199 3345 3199 2943 3066 3066 3066 3066 3199 3199 2943 2725 2537 2453 2299 2102 2044 1989 1887 1887 1795 1839 1839 1795 1795 1795 1795 1795 1795 1752 1711 1711 1711 1672 1672 1635 1599 1635 1635 1635 1565 1565 1533 1533 0 0 0 0 0
    0 0 0 0 0 0 0 0 0 0 0 0 0 0 0 0 0 0 0 0 0 0 0 0 0 0 0 0 0 0 0 0 0 0 0 0 0 0 0 0 0 0 0 0 0 0 0 0 0 0 0 0 0 0 0 0 0 0 0 0 0 0 0 0 0 0 0 0 0 8177 8177 0 0 0 0 0 0 0 0 0 0 0 0 7359 0 0 0 0 0 0 0 0 0 0 0 0 0 0 0 0 0 0 0 0 0 0 8177 8177 0 0 0 0 0 0 0 0 0 0 0 0 0 0 0 8177 7359 0 0 8177 8177 7359 6690 0 0 0 0 0 0 0 8177 8177 8177 8177 0 0 0 0 0 0 0 0 7359 6690 7359 7359 8177 8177 0 7359 7359 0 0 0 0 0 0 0 0 0 0 0 0 0 0 0 0 0 5661 3873 4906 4906 4906 5256 5661 6133 7359 6133 0 0 0 0 8177 6690 6133 6690 7359 7359 8177 8177 0 0 0 0 0 0 0 0 0 0 0 0 0 0 8177 8177 8177 8177 7359 4088 6133 4599 4599 4599 4599 4599 4599 4599 6133 4599 4599 4599 4599 4329 4329 4599 4599 4329 4329 4599 4599 4599 4329 4088 3873 4088 3679 4088 4088 3873 3679 4088 4088 4088 4088 4906 3873 3873 3873 4599 3504 3345 3873 3873 3679 3345 3504 3679 3504 3504 3873 3345 3199 3199 3345 3199 3066 3199 3199 3199 3199 3345 3199 3066 2830 2537 2453 2230 2044 2102 1989 1936 1887 1795 1839 1839 1795 1795 1795 1752 1752 1752 1752 1672 1711 1672 1672 1635 1635 1599 1635 1672 1635 1533 1565 1533 1533 0 0 0 0 0
    0 0 0 0 0 0 0 0 0 0 0 0 0 0 0 0 0 0 0 0 0 0 0 0 0 0 0 0 0 0 0 0 0 0 0 0 0 0 0 0 0 0 0 0 0 0 0 0 0 0 0 0 0 0 0 0 0 0 0 0 0 0 0 0 0 0 0 0 0 8177 8177 8177 8177 8177 8177 8177 0 0 0 0 0 0 0 0 0 0 0 0 0 0 0 0 0 0 0 0 0 0 0 0 0 0 9199 0 0 0 8177 0 0 0 0 0 0 0 0 0 0 0 0 0 0 0 0 9199 8177 0 0 8177 8177 7359 6690 0 0 0 0 0 8177 8177 8177 8177 8177 8177 8177 8177 0 0 0 0 0 8177 6690 6133 6690 6690 8177 8177 0 7359 7359 0 0 0 0 0 0 0 0 0 0 0 0 0 0 0 0 0 6133 3873 5256 4906 4906 4906 5661 6133 7359 6133 0 0 0 0 0 6690 6133 6690 7359 7359 8177 8177 0 0 0 0 0 0 0 0 0 0 0 0 0 0 8177 0 8177 8177 7359 4088 5661 4599 4599 4599 4599 4599 4599 4599 6133 4599 4599 4329 4599 4599 4599 4599 4599 4329 4599 4599 4599 4329 4329 4088 3873 4088 3679 4088 3873 3873 3679 4088 4088 4088 3873 4906 3873 3873 3873 4599 3345 3345 3679 3504 3504 3345 3504 3504 3504 3504 3679 3199 3199 3199 3199 3066 2943 3066 3199 3199 3199 3345 3345 3066 2830 2537 2453 2164 2044 2102 1989 1936 1936 1795 1839 1839 1795 1795 1752 1711 1752 1711 1752 1711 1711 1711 1672 1635 1672 1635 1672 1672 1672 1565 1565 1565 1533 0 0 0 0 0
    0 0 0 0 0 0 0 0 0 0 0 0 0 0 0 0 0 0 0 0 0 0 0 0 0 0 0 0 0 0 0 0 0 0 0 0 0 0 0 0 0 0 0 0 0 0 0 0 0 0 0 0 0 0 0 0 0 0 0 0 0 0 0 0 0 0 0 0 0 8177 0 0 0 0 0 0 0 0 0 0 0 0 0 0 0 0 0 0 0 0 0 0 0 0 0 0 0 0 0 0 8177 8177 7359 8177 8177 0 8177 8177 0 0 0 0 0 0 0 0 0 0 0 0 0 0 0 0 8177 0 0 8177 8177 7359 6690 0 0 0 0 0 8177 8177 8177 8177 8177 8177 8177 8177 0 0 0 0 8177 8177 6690 5661 6133 6690 7359 7359 8177 6690 6133 8177 8177 0 0 0 0 0 0 0 0 0 0 0 0 0 0 0 6133 3873 5256 5256 4906 4906 5661 6133 6690 6133 8177 8177 8177 0 9199 6690 6133 6690 7359 8177 8177 8177 0 0 0 0 0 0 0 0 0 0 0 0 0 0 8177 0 8177 8177 7359 4088 5661 4329 4599 4599 4329 4599 4599 4599 5661 4329 4599 4329 4599 4599 4599 4599 4329 4329 4906 4599 4599 4088 4329 4088 3873 4088 3679 3873 3873 3873 3873 4088 3873 4088 3873 5256 3873 3873 3873 4088 3345 3345 3504 3504 3504 3345 3504 3504 3504 3504 3679 3345 3199 3199 3199 3066 2943 3066 3066 3066 3066 3066 3066 2943 2725 2453 2374 2164 2044 2164 2044 1989 1936 1839 1887 1887 1839 1795 1752 1711 1711 1672 1711 1672 1672 1672 1672 1635 1672 1635 1672 1711 1672 1565 1599 1599 1533 0 0 0 0 0
    0 0 0 0 0 0 0 0 0 0 0 0 0 0 0 0 0 0 0 0 0 0 0 0 0 0 0 0 0 0 0 0 0 0 0 0 0 0 0 0 0 0 0 0 0 0 0 0 0 0 0 0 0 0 0 0 0 0 0 0 0 0 0 0 0 0 0 0 0 8177 8177 8177 8177 0 8177 0 0 0 0 0 0 0 0 0 0 0 0 0 0 0 0 0 0 0 0 0 0 0 0 0 8177 7359 7359 8177 7359 0 7359 8177 0 0 0 0 0 0 0 0 0 0 0 0 0 0 0 0 7359 0 0 8177 8177 7359 7359 0 0 0 0 0 0 0 8177 0 8177 0 0 0 0 0 0 0 8177 8177 6133 5661 6133 6133 6133 6690 6133 5661 5256 7359 8177 0 0 0 0 0 0 0 0 0 0 0 0 0 0 0 6690 4088 5256 5256 4906 4906 5661 6133 6690 6133 8177 8177 8177 8177 8177 6133 6133 6133 7359 7359 8177 8177 8177 0 0 0 0 0 0 0 0 0 0 0 0 0 0 0 8177 8177 7359 4088 5661 4599 4906 4906 4599 4599 4906 4906 5661 4329 4599 4329 4906 4599 4599 4599 4329 4599 4906 4599 4599 4088 4329 4088 3873 4088 3679 4088 4088 4088 3873 4088 4088 4329 4088 5661 4088 3873 3679 3873 3345 3345 3345 3345 3345 3199 3345 3504 3345 3345 3504 3199 3199 3199 3345 3199 3066 3199 3066 3066 2943 2943 2943 2830 2628 2374 2299 2164 2044 2102 1989 1989 1936 1887 1887 1839 1839 1795 1752 1711 1711 1711 1711 1672 1672 1672 1672 1635 1635 1599 1635 1672 1672 1565 1565 1599 1533 0 0 0 0 0
    0 0 0 0 0 0 0 0 0 0 0 0 0 0 0 0 0 0 0 0 0 0 0 0 0 0 0 0 0 0 0 0 0 0 0 0 0 0 0 0 0 0 0 0 0 0 0 0 0 0 0 0 0 0 0 0 0 0 0 0 0 0 0 0 0 0 0 0 0 8177 8177 8177 0 0 0 0 0 0 0 0 0 0 0 0 0 0 0 0 0 0 0 0 0 0 0 0 0 0 0 0 8177 7359 6690 7359 7359 0 7359 7359 0 0 0 0 0 0 0 0 0 0 0 0 0 0 0 0 7359 0 0 8177 8177 7359 7359 0 0 0 0 0 0 0 0 0 8177 0 0 0 0 0 0 0 0 9199 6690 5661 6133 5661 6133 6690 5661 5661 4906 6690 7359 8177 0 0 0 0 0 0 0 0 0 0 0 0 0 0 6133 4088 5256 5256 4906 4906 5661 6133 6690 5661 8177 8177 8177 8177 8177 6690 6133 6133 7359 7359 8177 8177 8177 0 0 0 0 0 0 0 0 0 0 0 0 0 0 0 0 9199 7359 4599 5661 4599 4906 4906 4599 4599 4906 4906 5256 4329 4599 4329 4906 4329 4329 4329 4329 4599 4599 4329 4599 4088 4329 4088 3873 4088 3679 4088 4088 4088 4088 4088 4088 4329 3873 6133 3873 3504 3345 3345 3199 3199 3345 3345 3345 3199 3345 3345 3345 3345 3345 3199 3199 3199 3199 3066 2943 3066 3066 2943 2943 2943 2943 2830 2628 2299 2299 2102 2044 2102 1936 1936 1887 1887 1839 1795 1795 1752 1752 1711 1711 1672 1672 1672 1672 1635 1635 1635 1635 1599 1635 1672 1635 1533 1565 1599 1501 0 0 0 0 0
    0 0 0 0 0 0 0 0 0 0 0 0 0 0 0 0 0 0 0 0 0 0 0 0 0 0 0 0 0 0 0 0 0 0 0 0 0 0 0 0 0 0 0 0 0 0 0 0 0 0 0 0 0 0 0 0 0 0 0 0 0 0 0 0 0 0 0 0 0 8177 8177 8177 0 0 0 0 0 0 0 0 0 0 0 0 0 0 0 0 0 0 0 0 0 0 0 0 0 0 0 0 7359 6690 6690 7359 7359 0 8177 8177 0 0 0 0 0 0 0 0 0 0 0 0 0 0 0 0 7359 0 0 8177 8177 7359 7359 0 0 0 0 0 0 0 0 0 0 0 0 0 0 0 0 0 8177 7359 6133 5661 6133 5661 5661 6133 5256 5256 4599 5661 7359 8177 0 8177 0 0 0 0 0 0 0 0 0 0 0 0 6690 4088 5256 5256 4906 4906 5661 6133 6690 5661 8177 8177 7359 8177 8177 6690 6133 6690 8177 8177 8177 8177 8177 8177 0 0 0 0 8177 8177 0 0 0 0 0 0 0 0 0 0 6690 4599 5661 4599 4906 4906 4599 4599 4599 4906 5256 4329 4599 4599 4906 4329 4599 4599 4599 4906 4599 4329 4599 4088 4599 4088 4088 4088 3679 3873 4088 4088 4088 3873 4329 4329 4088 6133 4599 3504 3345 3345 3345 3199 3345 3345 3345 3199 3345 3345 3199 3345 3345 3199 3066 3199 3199 3066 2943 3066 2943 2943 2943 2830 2830 2830 2725 2374 2374 2102 2044 2044 1989 1936 1887 1887 1839 1795 1795 1795 1752 1711 1711 1672 1672 1672 1711 1635 1635 1635 1635 1599 1635 1635 1599 1533 1599 1599 1501 0 0 0 0 0
    0 0 0 0 0 0 0 0 0 0 0 0 0 0 0 0 0 0 0 0 0 0 0 0 0 0 0 0 0 0 0 0 0 0 0 0 0 0 0 0 0 0 0 0 0 0 0 0 0 0 0 0 0 0 0 0 0 0 0 0 0 0 0 0 0 0 0 0 0 8177 0 8177 0 0 0 0 0 0 0 0 0 0 0 0 0 0 0 0 0 0 0 0 0 0 0 0 0 0 0 0 7359 6690 6690 6690 6690 0 0 0 0 0 0 0 0 0 0 0 0 0 0 0 0 0 0 0 7359 0 0 8177 8177 7359 6690 0 0 0 0 0 0 0 0 0 0 0 0 0 0 0 8177 8177 6690 6690 5661 5661 5661 5661 5256 5661 4906 5256 4599 5256 6690 7359 0 8177 0 0 0 0 0 0 0 0 0 0 0 4906 6690 4329 5661 5256 5256 4906 5661 6133 6690 5661 8177 7359 7359 8177 8177 6133 5661 6133 8177 8177 8177 8177 8177 8177 0 0 0 8177 7359 8177 8177 9199 0 8177 8177 8177 0 0 0 8177 5661 4906 5661 4906 4906 4906 4906 4599 4906 4906 5256 4329 4906 4329 4906 4329 4599 4599 4906 4599 4599 4329 4599 4329 4599 4088 4088 4088 3679 3873 4088 4088 4088 3873 4599 4088 4088 5256 4906 3679 3504 3345 3345 3199 3504 3504 3504 3199 3345 3345 3199 3345 3345 3199 3066 3199 3199 2943 2943 2943 2943 2943 2830 2830 2830 2830 2830 2374 2453 2164 2102 2102 2044 2044 1936 1887 1936 1839 1839 1839 1795 1711 1711 1711 1711 1672 1672 1635 1635 1635 1635 1599 1635 1635 1635 1533 1599 1599 1501 0 0 0 0 0
    0 0 0 0 0 0 0 0 0 0 0 0 0 0 0 0 0 0 0 0 0 0 0 0 0 0 0 0 0 0 0 0 0 0 0 0 0 0 0 0 0 0 0 0 0 0 0 0 0 0 0 0 0 0 0 0 0 0 0 0 0 0 0 0 0 0 0 0 0 8177 0 0 0 0 0 0 0 0 0 0 0 0 0 0 0 0 0 0 0 0 0 0 0 0 0 0 0 0 0 0 7359 6690 6690 6690 6690 0 0 0 0 0 0 0 0 0 0 0 0 0 0 0 0 0 0 8177 7359 0 0 8177 8177 7359 6690 0 0 0 0 0 0 0 8177 0 8177 0 8177 8177 8177 8177 6690 7359 6133 6133 5256 5661 5661 5256 4906 5256 4906 5256 4906 4906 6690 6690 0 8177 0 0 0 0 0 0 0 0 0 0 0 4906 6690 4329 5661 5661 5256 5256 5661 6133 7359 5661 8177 7359 7359 8177 8177 6690 5661 6133 8177 8177 8177 8177 8177 8177 8177 8177 8177 7359 7359 7359 8177 8177 8177 7359 8177 8177 8177 0 8177 8177 5661 4906 6133 4906 5256 5256 4906 4906 4599 5256 5256 4599 4906 4329 4906 4329 4599 4906 4599 4599 4599 4329 4599 4088 4599 3873 4329 4329 3873 3873 4329 4329 4088 4088 4906 3873 3873 4599 4906 3504 3345 3345 3345 3199 3345 3345 3345 3199 3199 3345 3199 3345 3345 3199 3066 3066 3199 2943 2830 2943 2943 2943 2830 2830 2943 2943 2943 2453 2537 2374 2230 2164 2164 2164 1989 1936 1936 1839 1839 1839 1795 1752 1711 1672 1711 1672 1672 1635 1635 1635 1635 1599 1599 1635 1599 1533 1599 1599 1501 0 0 0 0 0
    0 0 0 0 0 0 0 0 0 0 0 0 0 0 0 0 0 0 0 0 0 0 0 0 0 0 0 0 0 0 0 0 0 0 0 0 0 0 0 0 0 0 0 0 0 0 0 0 0 0 0 0 0 0 0 0 0 0 0 0 0 0 0 0 0 0 0 0 0 0 0 0 0 0 0 0 0 0 0 0 0 0 0 0 0 0 0 0 0 0 0 0 0 0 0 0 0 0 0 0 7359 6690 6690 6133 6690 0 0 0 0 0 0 0 0 0 0 0 0 0 0 0 0 0 0 8177 7359 8177 0 8177 8177 7359 6690 0 0 0 0 0 7359 8177 8177 0 8177 8177 8177 8177 8177 7359 6690 6690 6133 5661 5256 5661 5256 4906 4599 4906 4906 5256 4906 4599 0 0 0 8177 8177 8177 0 0 0 0 0 0 0 0 0 4906 6690 4599 5661 5661 5256 5256 6133 6133 7359 6133 8177 7359 7359 8177 8177 6690 6133 6133 8177 8177 8177 8177 7359 7359 8177 8177 8177 6690 6690 6690 7359 7359 7359 6133 6690 6690 8177 7359 7359 7359 5256 4906 5661 4906 5256 5256 4906 4599 4906 5256 5256 4599 4599 4329 4906 4599 4906 4599 4599 4599 4599 4329 4599 4088 4329 3873 4329 4329 3873 3873 4088 4088 4088 4088 4329 3679 3679 4088 4599 3345 3345 3345 3345 3345 3345 3345 3345 3199 3199 3345 3199 3199 3199 3066 3066 3066 3066 2943 2830 2943 2830 2830 2830 2830 2943 2943 2943 2537 2537 2453 2374 2299 2230 2299 2044 1936 1936 1839 1839 1839 1795 1752 1672 1672 1711 1672 1672 1635 1635 1635 1635 1599 1599 1599 1599 1533 1599 1599 1501 0 0 0 0 0
    0 0 0 0 0 0 0 0 0 0 0 0 0 0 0 0 0 0 0 0 0 0 0 0 0 0 0 0 0 0 0 0 0 0 0 0 0 0 0 0 0 0 0 0 0 0 0 0 0 0 0 0 0 0 0 0 0 0 0 0 0 0 0 0 0 0 0 0 0 0 0 0 0 0 0 0 0 0 0 0 0 0 0 0 0 0 0 0 0 0 0 0 0 0 0 0 0 0 0 0 6690 6690 6690 6133 6133 8177 0 0 0 0 0 0 0 0 0 0 0 0 0 0 0 0 0 8177 7359 8177 0 8177 8177 7359 6690 0 0 0 8177 8177 8177 8177 8177 0 8177 8177 8177 8177 8177 7359 6690 6690 6133 5661 5256 5661 5256 4599 4329 4599 4599 4906 0 0 0 0 0 8177 8177 8177 0 0 0 0 0 0 0 0 0 4599 6133 4599 5661 5661 5256 5256 6133 6690 7359 6690 0 8177 7359 8177 8177 6690 6133 6690 8177 8177 8177 8177 7359 7359 8177 8177 8177 6133 6690 6133 7359 7359 7359 5661 6690 6690 7359 7359 7359 6690 4906 4906 5256 4906 4906 4906 4599 4599 4599 5256 4906 4906 4599 4329 4906 4599 4599 4599 4599 4329 4329 4329 4599 4088 4329 3873 4088 4329 4088 3679 4088 4088 4088 3873 4329 3873 3679 4088 4906 3345 3345 3345 3504 3345 3345 3345 3345 3199 3199 3199 3199 3199 3199 3066 3066 3199 3199 2943 2830 2830 2830 2830 2725 2725 2830 2830 2830 2537 2453 2453 2374 2230 2230 2230 2044 1936 1989 1887 1839 1839 1795 1752 1711 1711 1711 1672 1711 1635 1635 1635 1599 1599 1565 1565 1599 1565 1599 1599 1533 0 0 0 0 0
    0 0 0 0 0 0 0 0 0 0 0 0 0 0 0 0 0 0 0 0 0 0 0 0 0 0 0 0 0 0 0 0 0 0 0 0 0 0 0 0 0 0 0 0 0 0 0 0 0 0 0 0 0 0 0 0 0 0 0 0 0 0 0 0 0 0 0 0 0 0 0 0 0 0 0 0 0 0 0 0 0 0 0 0 0 0 0 0 0 0 0 0 0 0 0 0 8177 0 0 0 6690 6690 6690 6133 6133 8177 0 0 0 0 0 0 0 0 0 0 0 0 0 0 0 0 8177 8177 7359 8177 0 8177 8177 7359 7359 0 0 0 0 8177 8177 0 8177 0 8177 8177 8177 8177 8177 7359 6690 6690 6133 5661 5256 5256 4906 4329 4088 4329 4599 4906 4599 0 0 0 0 0 8177 0 0 0 0 0 0 0 0 0 7359 4599 5661 4599 5661 5661 5661 5256 6133 6690 8177 6690 0 8177 7359 8177 0 7359 6690 6690 8177 8177 8177 8177 8177 7359 8177 8177 8177 5661 6690 6133 6690 6690 6690 5256 6133 6133 7359 6690 6690 6690 4906 5256 5256 4906 4906 4906 4599 4599 4906 5256 4906 5256 4599 4329 4906 4906 4599 4599 4329 4599 4329 4329 4599 4088 4088 3873 4088 4329 3873 3679 4088 4088 4088 3873 4329 3873 3873 4088 4599 3345 3345 3345 3504 3345 3345 3345 3345 3199 3199 3345 3199 3199 3199 3066 3066 3199 3199 2943 2830 2830 2830 2830 2830 2725 2830 2830 2830 2537 2374 2453 2374 2230 2299 2164 2044 1989 1989 1887 1839 1839 1795 1752 1711 1711 1711 1672 1672 1599 1565 1599 1565 1599 1533 1565 1599 1565 1599 1599 1533 0 0 0 0 0
    0 0 0 0 0 0 0 0 0 0 0 0 0 0 0 0 0 0 0 0 0 0 0 0 0 0 0 0 0 0 0 0 0 0 0 0 0 0 0 0 0 0 0 0 0 0 0 0 0 0 0 0 0 0 0 0 0 0 0 0 0 0 0 0 0 0 0 0 0 0 8177 8177 8177 0 0 0 0 0 0 0 0 0 0 0 0 0 0 0 0 0 0 0 0 0 0 0 8177 8177 8177 8177 6690 6690 6690 6133 6133 8177 0 0 0 0 0 0 0 0 0 0 0 0 0 0 0 0 7359 8177 6690 0 0 8177 8177 7359 7359 0 0 0 0 0 0 0 0 0 0 0 8177 8177 8177 7359 6690 6690 6133 5661 5661 5256 4906 4329 4088 4599 4906 5256 5256 0 7359 0 0 0 8177 0 0 8177 0 0 0 8177 0 0 6690 4329 5661 4599 5661 5661 5661 5256 6133 6690 8177 7359 0 8177 8177 8177 0 7359 6690 7359 0 8177 0 8177 8177 7359 8177 8177 7359 5256 6690 6133 6690 6690 6133 5256 6133 6133 6690 6133 6690 6133 4906 5661 4906 4906 4906 4599 4599 4906 4906 4906 4599 5256 4599 4329 4906 4906 4329 4329 4599 4599 4329 4329 4599 4088 4088 4088 4088 4088 3873 3679 4088 4329 4088 4088 4599 3873 3873 3873 4599 3345 3345 3504 3504 3345 3345 3345 3345 3199 3199 3199 3199 3199 3066 2943 2943 3066 3066 2943 2830 2830 2830 2830 2830 2725 2830 2943 2943 2537 2374 2374 2374 2164 2230 2102 1989 1936 1936 1839 1795 1839 1795 1752 1752 1711 1711 1711 1672 1599 1599 1599 1599 1599 1565 1565 1599 1565 1599 1599 1565 0 0 0 0 0
    0 0 0 0 0 0 0 0 0 0 0 0 0 0 0 0 0 0 0 0 0 0 0 0 0 0 0 0 0 0 0 0 0 0 0 0 0 0 0 0 0 0 0 0 0 0 0 0 0 0 0 0 0 0 0 0 0 0 0 0 0 0 0 0 0 0 0 0 0 8177 8177 8177 8177 0 0 0 0 0 0 0 0 0 0 0 0 0 0 0 0 0 0 0 0 0 0 0 8177 8177 8177 8177 6690 6690 6690 6133 6133 8177 0 0 0 0 0 0 0 0 0 0 0 0 0 0 0 0 7359 7359 6690 0 0 8177 8177 7359 7359 0 0 0 0 0 0 0 0 0 0 8177 8177 8177 7359 7359 6690 6690 6133 5661 5661 5256 4906 4599 4088 4906 5661 6133 6133 0 8177 0 0 0 8177 8177 8177 8177 0 0 0 8177 0 0 6690 4329 5661 4599 5661 5661 5661 5256 6133 6690 8177 7359 0 8177 7359 8177 0 7359 7359 7359 0 8177 8177 8177 8177 7359 8177 8177 7359 5661 6690 6133 6690 6690 6133 5256 6133 6133 6690 6133 6133 6133 4906 5661 4599 4599 4906 4329 4599 4599 4599 4906 4599 5256 4599 4329 4906 4906 4329 4599 4599 4329 4329 4329 4599 4088 4088 3873 4088 4088 4088 3679 4329 4088 3873 4088 4599 3873 3873 3873 4599 3345 3504 3504 3504 3345 3345 3345 3345 3345 3345 3345 3199 3199 3066 3066 2943 3066 3066 2943 2830 2830 2830 2830 2830 2725 2830 2943 2943 2537 2374 2374 2453 2164 2299 2164 2044 1936 1936 1839 1795 1839 1795 1752 1752 1711 1752 1711 1711 1672 1599 1599 1599 1599 1565 1599 1599 1599 1635 1635 1599 0 0 0 0 0
    0 0 0 0 0 0 0 0 0 0 0 0 0 0 0 0 0 0 0 0 0 0 0 0 0 0 0 0 0 0 0 0 0 0 0 0 0 0 0 0 0 0 0 0 0 0 0 0 0 0 0 0 0 0 0 0 0 0 0 0 0 0 0 0 0 0 0 0 0 8177 8177 8177 8177 8177 0 8177 0 0 0 0 0 0 0 0 0 0 0 0 0 0 0 0 0 0 0 0 8177 8177 8177 8177 6133 6133 6133 6133 6133 8177 0 0 0 0 0 0 0 0 0 0 0 0 0 0 0 0 7359 7359 6690 0 0 8177 8177 8177 7359 0 0 0 0 0 0 0 0 0 8177 8177 8177 7359 7359 7359 6133 6690 5661 5256 5661 5256 4906 4599 4329 4906 5661 6133 6690 0 7359 0 0 0 8177 8177 8177 8177 0 8177 0 8177 0 0 6690 4329 5661 4599 5661 5661 5661 5256 6133 6690 8177 7359 0 8177 7359 8177 0 7359 6690 7359 8177 8177 9199 0 8177 8177 8177 8177 8177 6133 7359 6690 7359 6690 6133 5256 6133 6133 6690 6133 6133 6133 5256 6133 4088 4599 4906 4329 4599 4599 4599 4599 4599 5256 4599 4329 4906 4906 4599 4599 4599 4329 4599 4599 4906 4088 4088 3873 4088 4088 4088 3504 4088 4088 3873 3873 4329 3873 3873 3873 4599 3504 3504 3679 3679 3504 3504 3504 3504 3504 3345 3345 3199 3199 3066 3066 2943 3066 3066 2943 2830 2830 2830 2830 2830 2725 2725 2830 2830 2537 2374 2453 2453 2230 2453 2230 2044 1887 1936 1839 1795 1839 1795 1752 1752 1711 1752 1711 1752 1672 1599 1599 1599 1599 1599 1599 1599 1599 1635 1635 1635 0 0 0 0 0
    0 0 0 0 0 0 0 0 0 0 0 0 0 0 0 0 0 0 0 0 0 0 0 0 0 0 0 0 0 0 0 0 0 0 0 0 0 0 0 0 0 0 0 0 0 0 0 0 0 0 0 0 0 0 0 0 0 0 0 0 0 0 0 0 0 0 0 0 0 8177 8177 8177 7359 8177 8177 8177 0 0 0 0 0 0 0 0 0 0 0 0 0 0 0 0 0 0 0 0 8177 8177 8177 8177 6133 6133 6133 5661 5661 7359 7359 0 0 0 0 0 0 0 0 0 0 0 0 0 0 0 7359 7359 6690 8177 8177 8177 8177 8177 7359 0 0 0 0 0 0 0 8177 8177 8177 7359 7359 7359 6690 6690 6133 6133 5661 5256 5256 4906 4329 4329 4088 4906 5661 6133 6690 0 7359 0 0 0 8177 8177 8177 8177 0 0 0 0 8177 0 6690 4599 5661 4599 5661 5661 5661 5256 6133 6690 8177 7359 0 8177 8177 8177 0 7359 6690 7359 8177 8177 0 0 8177 8177 8177 8177 8177 6690 7359 6690 7359 6690 6690 5661 6133 6133 6690 6133 6690 6690 6133 6690 4088 4599 4906 4329 4599 4599 4599 4599 4599 5256 4599 4088 4906 4906 4329 4599 4599 4329 4599 4329 4906 4088 3873 3873 4088 4088 4088 3504 4088 3873 3679 3873 4088 3873 3679 3679 4329 3504 3504 3679 3679 3504 3504 3504 3679 3345 3345 3345 3199 3066 3066 2943 2943 2943 2943 2830 2830 2830 2830 2725 2830 2628 2725 2725 2725 2537 2299 2453 2453 2230 2453 2164 2044 1887 1887 1839 1795 1795 1795 1752 1752 1711 1752 1711 1752 1711 1599 1599 1599 1565 1565 1599 1599 1599 1599 1635 1635 0 0 0 0 0
    0 0 0 0 0 0 0 0 0 0 0 0 0 0 0 0 0 0 0 0 0 0 0 0 0 0 0 0 0 0 0 0 0 0 0 0 0 0 0 0 0 0 0 0 0 0 0 0 0 0 0 0 0 0 0 0 0 0 0 0 0 0 0 0 0 0 0 0 0 8177 7359 7359 7359 8177 8177 8177 0 0 0 0 0 0 0 0 0 0 0 0 0 0 0 0 0 0 0 0 8177 8177 8177 8177 6133 5661 5661 5661 5661 7359 6690 8177 0 0 0 0 0 0 0 0 0 0 0 0 0 0 6690 7359 6690 8177 8177 8177 8177 7359 7359 0 0 0 0 0 0 0 8177 8177 8177 7359 7359 7359 6690 7359 6133 6133 5661 5256 5661 4906 4088 4329 4088 4599 5661 6133 6690 0 7359 0 0 0 8177 8177 8177 8177 0 0 0 0 0 0 7359 4599 5661 4329 5256 5661 5661 5256 6133 6690 8177 7359 0 8177 8177 8177 0 7359 6690 7359 8177 8177 0 0 0 8177 8177 0 0 6690 7359 6690 7359 6690 6690 5661 6690 6690 7359 6690 6690 6690 6690 7359 3873 4599 4906 4329 4599 4599 4599 4599 4599 5256 4599 4329 4906 4906 4599 4599 4599 4599 4599 4599 5256 4088 3873 3873 3873 3873 3873 3345 4088 3873 3679 3873 4088 3873 3679 3873 4329 3504 3504 3679 3679 3679 3504 3504 3504 3345 3345 3199 3199 3066 2943 2943 2943 2943 2943 2830 2830 2830 2830 2725 2725 2628 2628 2628 2537 2299 2102 2299 2299 2230 2230 2044 1989 1839 1839 1795 1752 1752 1752 1752 1711 1711 1752 1711 1752 1711 1599 1565 1565 1565 1565 1599 1599 1599 1599 1635 1635 0 0 0 0 0
    0 0 0 0 0 0 0 0 0 0 0 0 0 0 0 0 0 0 0 0 0 0 0 0 0 0 0 0 0 0 0 0 0 0 0 0 0 0 0 0 0 0 0 0 0 0 0 0 0 0 0 0 0 0 0 0 0 0 0 0 0 0 0 0 0 0 0 0 0 8177 7359 7359 7359 8177 8177 8177 0 0 0 0 0 0 0 0 0 0 0 0 0 0 0 0 0 0 0 0 8177 8177 8177 8177 6133 5661 5661 5661 5661 7359 6690 8177 0 0 0 0 0 0 0 0 0 0 0 0 0 0 6690 7359 6690 8177 8177 7359 7359 7359 7359 0 0 0 0 0 0 0 8177 8177 7359 7359 7359 7359 6690 7359 6133 6133 5661 4906 5256 4329 3873 4088 3873 4599 5256 6133 6690 0 6690 0 0 0 8177 8177 8177 8177 0 0 0 0 0 0 7359 4599 5661 4329 5256 5661 5256 5256 6133 6690 7359 6690 0 8177 8177 0 0 7359 6133 6690 8177 8177 0 0 0 8177 8177 0 0 6690 7359 6690 6690 6690 6690 6133 6690 6690 7359 6690 7359 7359 7359 8177 3679 4599 4599 4329 4599 4599 4599 4599 4599 5256 4599 4329 4906 4906 4599 4599 4599 4599 4599 4599 5256 4088 3873 3873 3873 3679 3679 3199 3873 3679 3679 3873 3873 3873 3873 3873 4329 3504 3679 3679 3873 3873 3504 3504 3504 3345 3345 3199 3199 2943 2943 2830 2943 2943 2943 2943 2830 2830 2830 2725 2725 2537 2628 2453 2299 2102 2044 2164 2164 2102 2102 1936 1936 1887 1839 1795 1752 1752 1752 1752 1752 1711 1752 1711 1752 1672 1635 1533 1599 1533 1565 1599 1599 1599 1599 1599 1635 0 0 0 0 0
    0 0 0 0 0 0 0 0 0 0 0 0 0 0 0 0 0 0 0 0 0 0 0 0 0 0 0 0 0 0 0 0 0 0 0 0 0 0 0 0 0 0 0 0 0 0 0 0 0 0 0 0 0 0 0 0 0 0 0 0 0 0 0 0 0 0 0 0 0 7359 7359 7359 7359 8177 8177 8177 0 0 0 0 0 0 0 0 0 0 0 0 0 0 0 0 0 0 0 0 0 8177 8177 8177 6133 6133 5661 5661 5661 7359 6690 0 0 0 0 0 0 0 0 0 0 0 0 0 0 0 6690 7359 6690 7359 8177 7359 7359 7359 7359 0 0 0 0 0 0 0 8177 8177 7359 7359 7359 7359 6690 7359 6133 6133 5256 4599 5256 4088 3679 4088 4088 4906 5661 6690 6690 0 7359 0 0 0 0 0 0 0 0 0 0 0 0 0 8177 4599 5661 4329 5256 5661 5256 5256 6133 6690 7359 6690 0 8177 8177 0 0 8177 6690 7359 8177 0 0 0 0 9199 0 0 0 6690 7359 6690 6690 6690 6690 6133 6690 6690 7359 6690 7359 7359 7359 8177 3873 4329 4906 4329 4599 4906 4599 4599 4599 5256 4906 4088 4906 4906 4329 4599 4599 4599 4599 4599 5256 4088 3873 4088 3679 3679 3873 3345 4088 3873 3679 3873 4088 3873 3873 3873 4329 3504 3679 3873 3873 3873 3504 3504 3679 3504 3345 3199 3199 2943 2943 2943 2943 2830 2830 2830 2830 2830 2830 2725 2725 2537 2537 2453 2230 2044 2044 2102 2102 2044 1989 1887 1887 1887 1839 1752 1752 1711 1752 1752 1752 1752 1752 1711 1752 1711 1635 1565 1599 1533 1599 1599 1565 1599 1599 1599 1635 0 0 0 0 0
    0 0 0 0 0 0 0 0 0 0 0 0 0 0 0 0 0 0 0 0 0 0 0 0 0 0 0 0 0 0 0 0 0 0 0 0 0 0 0 0 0 0 0 0 0 0 0 0 0 0 0 0 0 0 0 0 0 0 0 0 0 0 0 0 0 0 0 0 0 7359 7359 7359 7359 8177 8177 8177 0 0 0 0 0 0 0 0 0 0 0 0 0 0 0 0 0 0 0 0 0 8177 8177 8177 6133 6133 5661 5661 5661 7359 6690 0 0 0 0 0 0 0 0 0 0 0 0 0 0 0 6690 7359 6690 7359 8177 7359 7359 7359 7359 0 0 0 0 0 0 0 8177 8177 8177 7359 8177 8177 7359 8177 6690 6690 5661 5256 5661 4329 3873 4599 4329 5256 6133 7359 7359 7359 8177 0 0 0 0 0 0 0 0 0 0 0 0 0 8177 4329 5661 4329 5256 5661 5256 5256 6133 6133 7359 6690 0 8177 7359 0 0 8177 7359 7359 8177 0 0 0 0 8177 8177 0 0 6690 7359 6690 6690 6690 6133 6133 6690 6690 7359 6690 6690 7359 7359 8177 4329 4599 5256 4599 4906 4906 4906 4599 4599 5256 4906 4088 4906 4906 4599 4599 4906 4599 4599 4329 5661 4088 3873 4088 3873 3873 3873 3345 4088 3873 3679 3873 4088 3873 4088 3873 4088 3679 3873 4088 3873 3873 3504 3679 3873 3679 3345 3345 3199 3066 3066 2943 2830 2725 2725 2725 2725 2725 2830 2725 2725 2628 2537 2453 2164 2044 2044 1989 1989 1989 1887 1839 1839 1839 1795 1711 1752 1711 1752 1752 1752 1752 1752 1752 1752 1752 1711 1635 1672 1565 1599 1599 1565 1599 1599 1599 1635 0 0 0 0 0
    0 0 0 0 0 0 0 0 0 0 0 0 0 0 0 0 0 0 0 0 0 0 0 0 0 0 0 0 0 0 0 0 0 0 0 0 0 0 0 0 0 0 0 0 0 0 0 0 0 0 0 0 0 0 0 0 0 0 0 0 0 0 0 0 0 0 0 0 0 8177 8177 8177 8177 0 0 0 0 0 0 0 0 0 0 0 0 0 0 0 0 0 0 0 0 0 0 0 0 0 0 0 6690 6133 6133 5661 5661 7359 6690 0 0 0 0 0 0 0 0 0 0 0 0 0 0 0 6690 7359 6690 7359 8177 7359 7359 7359 7359 0 0 0 0 0 8177 0 8177 8177 8177 7359 8177 8177 8177 0 7359 8177 6690 6690 6690 5661 4329 4906 4599 5661 6133 7359 8177 8177 0 0 0 0 0 0 0 0 0 0 0 0 0 0 8177 4088 5661 4329 5661 5661 5256 5256 5661 6133 7359 6690 0 7359 7359 0 0 0 7359 7359 0 0 0 0 8177 8177 8177 0 0 7359 7359 7359 6690 6690 6133 6133 6690 6690 6690 6133 6133 6690 6690 7359 4599 4906 5661 5256 5256 5256 4906 4906 4906 5256 5256 4088 4906 4906 4906 4906 4906 4599 4599 4329 5661 4088 3873 4088 3873 3679 4088 3504 4088 3873 3679 3873 4088 3873 4088 3873 4329 3873 3873 4088 4088 3873 3504 3679 3873 3504 3345 3199 3199 2943 2943 2943 2725 2628 2628 2725 2628 2628 2725 2725 2628 2628 2628 2453 2164 2044 2044 1989 1936 1989 1887 1839 1839 1839 1839 1752 1752 1752 1795 1752 1795 1795 1795 1795 1752 1752 1711 1672 1711 1565 1599 1635 1565 1599 1599 1599 1635 0 0 0 0 0
    0 0 0 0 0 0 0 0 0 0 0 0 0 0 0 0 0 0 0 0 0 0 0 0 0 0 0 0 0 0 0 0 0 0 0 0 0 0 0 0 0 0 0 0 0 0 0 0 0 0 0 0 0 0 0 0 0 0 0 0 0 0 0 0 0 0 0 0 0 0 0 0 0 0 0 0 0 0 0 0 0 0 0 0 0 0 0 0 8177 8177 8177 0 0 0 0 0 0 0 0 0 6690 6133 6133 5661 5661 6690 6690 0 0 0 0 0 0 0 0 0 0 0 0 0 0 0 6690 7359 6690 7359 8177 7359 7359 6690 6690 0 0 0 8177 6690 5661 6690 6690 7359 7359 7359 7359 8177 8177 8177 7359 8177 7359 7359 7359 6133 4599 5256 4599 5661 6133 7359 7359 8177 0 0 0 0 0 0 0 0 0 0 0 0 0 0 7359 4088 5661 4329 5661 5661 5661 5256 6133 6133 7359 6690 0 7359 7359 0 0 0 7359 7359 8177 0 9199 8177 8177 7359 7359 8177 0 7359 7359 7359 7359 7359 6690 6690 7359 7359 6690 6133 6133 6690 6690 6690 4906 5256 5661 5661 5661 5661 4906 5256 4906 5661 5256 4088 4906 4906 4906 4906 4906 4599 4599 4088 6133 4088 3873 3873 3873 3873 4088 3504 4088 3679 3679 3679 3873 3679 3873 3873 4088 3873 4088 4088 4088 3873 3504 3679 3679 3504 3199 3066 3066 2943 2943 2943 2725 2537 2537 2725 2628 2725 2830 2725 2628 2628 2628 2453 2230 2044 2044 2044 1989 2044 1936 1936 1887 1887 1887 1795 1839 1795 1839 1795 1795 1795 1795 1795 1795 1752 1711 1672 1672 1599 1635 1635 1565 1599 1599 1635 1635 0 0 0 0 0
    0 0 0 0 0 0 0 0 0 0 0 0 0 0 0 0 0 0 0 0 0 0 0 0 0 0 0 0 0 0 0 0 0 0 0 0 0 0 0 0 0 0 0 0 0 0 0 0 0 0 0 0 0 0 0 0 0 0 0 0 0 0 0 0 0 0 0 0 0 0 0 0 0 0 0 0 0 0 0 0 0 0 0 0 8177 0 8177 0 8177 8177 8177 0 0 0 0 0 0 0 0 0 6690 6133 6133 5661 5661 6690 6133 8177 0 0 8177 8177 8177 8177 0 0 0 8177 0 0 0 0 6690 7359 6690 7359 8177 7359 7359 6690 6690 0 0 0 7359 5661 4906 6133 6133 6690 6690 6690 7359 8177 8177 8177 8177 8177 8177 7359 7359 6690 5256 5661 5256 5661 6133 7359 7359 8177 8177 0 0 0 0 0 0 0 0 0 0 0 0 8177 6690 4088 5661 4329 5661 6133 5661 5661 6133 6690 8177 7359 0 8177 8177 0 0 0 8177 8177 0 0 0 8177 7359 7359 7359 8177 8177 6690 7359 7359 7359 7359 7359 7359 7359 7359 6690 6133 6133 6690 6690 6690 5256 5661 6133 6690 6133 6133 5661 5256 4906 6133 5256 4088 4906 4906 4906 4906 4599 4906 4329 4329 6133 4088 3873 3873 3873 3873 4088 3504 3873 3679 3679 3679 3679 3679 3873 4088 4088 3873 4088 3873 4329 3873 3504 3679 3679 3504 3199 3066 3066 2943 2943 2943 2725 2537 2537 2725 2628 2725 2830 2725 2628 2628 2537 2453 2230 2102 2044 2102 1989 2102 1989 1989 1936 1936 1936 1839 1887 1887 1887 1839 1839 1887 1839 1839 1795 1752 1752 1711 1711 1635 1635 1635 1599 1635 1599 1635 1635 0 0 0 0 0
    0 0 0 0 0 0 0 0 0 0 0 0 0 0 0 0 0 0 0 0 0 0 0 0 0 0 0 0 0 0 0 0 0 0 0 0 0 0 0 0 0 0 0 0 0 0 0 0 0 0 0 0 0 0 0 0 0 0 0 0 0 0 0 0 0 0 0 0 0 0 0 0 0 0 0 0 0 0 0 0 0 0 0 0 8177 8177 8177 8177 8177 8177 8177 0 0 0 0 0 0 0 0 0 6690 6133 6133 6133 6133 7359 6690 8177 0 0 8177 0 0 0 0 0 0 8177 0 0 0 0 6690 7359 6690 7359 8177 7359 7359 6690 6133 0 0 0 6690 5661 4906 5661 5661 6690 6690 6690 7359 7359 8177 8177 8177 8177 8177 8177 7359 7359 6690 7359 6690 6690 7359 8177 0 0 0 0 0 0 0 0 0 0 0 8177 8177 8177 8177 8177 6133 4088 5256 4329 5661 6133 5661 6133 6133 6690 8177 8177 0 8177 8177 0 0 0 8177 8177 0 0 0 0 8177 7359 7359 8177 8177 6690 7359 8177 7359 7359 7359 7359 8177 8177 6690 6133 6133 6690 6690 6690 5661 5661 6133 7359 6690 6690 6133 5661 4906 6133 5661 3873 4906 4906 4906 4906 4599 4906 4329 4329 5661 3873 3873 3873 3873 3873 3679 3504 3679 3679 3679 3679 3873 3679 3873 4329 3873 3873 3873 3873 4088 3504 3504 3679 3679 3504 3199 3199 3066 3066 2943 2943 2725 2537 2537 2725 2628 2725 2830 2725 2628 2537 2537 2453 2299 2102 2102 2102 2044 2102 2044 1989 1936 1936 1936 1887 1887 1887 1887 1887 1887 1887 1887 1887 1839 1795 1795 1795 1752 1672 1672 1672 1635 1635 1635 1672 1635 0 0 0 0 0
    0 0 0 0 0 0 0 0 0 0 0 0 0 0 0 0 0 0 0 0 0 0 0 0 0 0 0 0 0 0 0 0 0 0 0 0 0 0 0 0 0 0 0 0 0 0 0 0 0 0 0 0 0 0 0 0 0 0 0 0 0 0 0 0 0 0 0 0 0 0 0 0 0 0 0 0 0 0 0 0 0 0 0 0 8177 8177 7359 8177 8177 7359 7359 0 0 0 0 0 0 0 0 0 7359 6690 6690 6690 6690 7359 8177 0 0 0 0 0 0 0 0 0 0 8177 0 0 0 0 6690 7359 6690 7359 8177 7359 7359 6690 6133 8177 8177 8177 6690 5661 4906 5661 5661 6690 7359 6690 7359 7359 8177 8177 0 8177 8177 8177 7359 8177 7359 8177 7359 8177 0 0 0 0 0 0 0 0 0 0 0 0 0 8177 8177 8177 8177 7359 6133 4329 5661 4599 6133 6133 6133 6133 6133 6690 8177 8177 0 8177 8177 0 0 0 7359 8177 0 0 0 8177 0 8177 8177 0 0 7359 7359 8177 8177 8177 7359 7359 7359 7359 6690 6133 5661 6133 6133 6690 5661 6133 6690 7359 7359 7359 6133 6133 5256 6690 5661 3873 4906 4906 4906 4906 4599 4906 4329 4329 5661 3873 3873 3873 3873 3873 3679 3504 3679 3679 3679 3679 3873 3679 4329 5256 4329 4599 4329 4329 4088 3345 3345 3679 3679 3504 3199 3199 3199 3199 3066 3066 2830 2628 2628 2830 2725 2830 2830 2830 2628 2628 2537 2537 2374 2164 2102 2164 2102 2164 2102 2044 1989 1989 1989 1936 1936 1936 1887 1887 1887 1936 1887 1887 1839 1795 1795 1795 1795 1711 1711 1711 1635 1672 1672 1672 1672 0 0 0 0 0
    0 0 0 0 0 0 0 0 0 0 0 0 0 0 0 0 0 0 0 0 0 0 0 0 0 0 0 0 0 0 0 0 0 0 0 0 0 0 0 0 0 0 0 0 0 0 0 0 0 0 0 0 0 0 0 0 0 0 0 0 0 0 0 0 0 0 0 0 0 0 0 0 0 0 0 0 0 0 0 0 0 0 0 0 8177 8177 7359 8177 7359 7359 7359 0 0 0 0 0 0 0 0 0 7359 7359 7359 6690 6690 8177 8177 0 0 0 0 0 0 0 0 0 0 8177 0 0 0 0 6690 7359 6690 7359 8177 7359 7359 6690 6690 8177 8177 8177 6690 5661 5661 6133 6133 6690 7359 7359 8177 8177 8177 8177 8177 8177 7359 7359 7359 7359 7359 8177 8177 0 0 0 0 0 0 0 0 0 0 0 0 0 8177 8177 8177 7359 7359 6690 5661 4329 5256 4906 6133 6690 6133 6133 6690 7359 0 8177 0 8177 8177 0 0 0 8177 0 0 0 8177 8177 0 8177 8177 0 0 8177 8177 0 8177 8177 7359 6690 7359 7359 6133 5661 5661 6133 6133 6133 5661 6133 6690 8177 8177 7359 6690 6133 5256 6690 6133 3873 4599 4906 4599 4906 4599 4906 4329 4329 5661 4088 3873 4088 4088 3873 3504 3504 3679 3679 3504 3679 3679 3679 3873 5256 4088 3873 3679 3873 3679 3199 3504 3679 3679 3504 3199 3345 3199 3199 3199 3066 2830 2725 2725 2830 2830 2830 2943 2830 2725 2628 2537 2628 2537 2374 2164 2230 2164 2230 2164 2164 1989 2044 2044 1989 1989 1989 1936 1887 1887 1936 1936 1936 1887 1795 1795 1795 1795 1752 1711 1711 1672 1711 1711 1711 1672 0 0 0 0 0
    0 0 0 0 0 0 0 0 0 0 0 0 0 0 0 0 0 0 0 0 0 0 0 0 0 0 0 0 0 0 0 0 0 0 0 0 0 0 0 0 0 0 0 0 0 0 0 0 0 0 0 0 0 0 0 0 0 0 0 0 0 0 0 0 0 0 0 0 0 0 0 0 0 0 0 0 0 0 0 0 0 0 0 0 7359 7359 7359 8177 7359 7359 8177 0 0 0 0 0 0 0 0 0 7359 7359 7359 7359 6690 8177 8177 0 0 0 0 0 0 0 0 0 0 8177 0 0 0 0 6133 7359 6690 7359 8177 7359 7359 7359 6690 0 0 0 7359 6133 6133 7359 6690 7359 8177 7359 0 8177 8177 8177 8177 8177 7359 7359 6690 7359 7359 8177 8177 0 0 0 0 0 0 0 0 0 0 0 0 0 8177 8177 8177 6690 6690 6690 5256 4329 5256 4906 6133 6690 6690 6690 6690 7359 0 0 0 8177 8177 8177 0 0 8177 0 0 0 8177 8177 8177 8177 8177 0 0 0 0 0 0 0 8177 7359 7359 7359 6133 5661 5256 5661 5661 6133 5661 5661 6690 7359 7359 7359 6690 6133 5256 6133 6133 3873 4906 4599 4599 4906 4599 4906 4329 4088 5661 4088 4329 4329 4088 4088 3504 3679 3679 3679 3679 3679 3679 3504 3873 5256 3873 3679 3504 3504 3345 3066 3504 3873 3873 3679 3345 3345 3345 3345 3345 3199 2830 2830 2725 2943 2830 2830 2830 2830 2725 2628 2537 2628 2628 2453 2230 2299 2230 2299 2299 2299 2044 2044 2044 2044 2044 2044 1989 1936 1936 1989 1936 1936 1887 1839 1795 1839 1795 1752 1711 1711 1672 1711 1711 1752 1711 0 0 0 0 0
    0 0 0 0 0 0 0 0 0 0 0 0 0 0 0 0 0 0 0 0 0 0 0 0 0 0 0 0 0 0 0 0 0 0 0 0 0 0 0 0 0 0 0 0 0 0 0 0 0 0 0 0 0 0 0 0 0 0 0 0 0 0 0 0 0 0 0 0 0 0 0 0 0 0 0 0 8177 8177 0 0 0 0 8177 0 7359 7359 6690 8177 8177 7359 8177 0 0 0 0 0 0 0 0 0 7359 6690 7359 7359 6690 8177 8177 0 0 0 0 0 0 0 0 0 0 8177 0 8177 8177 8177 6133 7359 6690 7359 0 7359 7359 7359 7359 0 0 0 7359 6133 6133 7359 6690 7359 8177 7359 8177 8177 8177 7359 7359 7359 6690 6690 6690 6690 7359 8177 8177 0 0 0 0 0 0 0 0 0 0 0 0 8177 7359 7359 7359 6133 6133 6133 4906 4329 5256 4906 6133 6690 6690 6690 6690 7359 0 8177 0 8177 8177 8177 8177 0 7359 8177 0 8177 8177 8177 8177 8177 8177 0 0 0 0 0 0 0 8177 7359 7359 7359 6133 5256 5256 5661 5661 5661 5661 5256 6133 7359 7359 6690 6690 6133 4906 6133 6133 3873 4906 4599 4599 4599 4599 4906 4329 4329 5661 4088 4599 4599 4329 4088 3504 3679 3679 3679 3679 3679 3679 3679 3873 4906 3873 3679 3504 3504 3345 3066 3679 3873 3873 3679 3199 3345 3345 3345 3345 3199 2943 2830 2830 2943 2943 2943 2830 2830 2725 2628 2537 2628 2628 2453 2230 2299 2230 2299 2299 2299 2102 2102 2044 2044 2102 2044 1989 1989 1989 2044 1989 1989 1936 1887 1839 1839 1839 1795 1752 1752 1711 1752 1752 1795 1752 0 0 0 0 0
    0 0 0 0 0 0 0 0 0 0 0 0 0 0 0 0 0 0 0 0 0 0 0 0 0 0 0 0 0 0 0 0 0 0 0 0 0 0 0 0 0 0 0 0 0 0 0 0 0 0 0 0 0 0 0 0 0 0 0 0 0 0 0 0 0 0 0 0 0 0 0 0 0 0 0 0 8177 8177 8177 0 0 0 8177 8177 7359 7359 6690 7359 7359 7359 8177 0 0 0 0 0 0 0 0 0 6690 6690 7359 6690 6690 8177 7359 8177 0 0 0 0 0 0 0 0 0 8177 0 8177 8177 8177 6133 7359 6690 8177 0 7359 7359 7359 7359 0 8177 0 7359 6133 6133 6690 6133 6690 7359 6690 7359 7359 8177 7359 7359 7359 6690 6690 6133 6690 7359 8177 8177 8177 0 0 0 0 0 0 0 0 0 0 8177 7359 6690 6690 6690 6133 6133 6133 5256 4599 5256 4906 6133 6133 6690 6690 6690 7359 8177 8177 0 7359 8177 7359 8177 8177 7359 8177 8177 8177 8177 8177 8177 8177 8177 0 0 0 0 0 0 0 0 7359 7359 7359 6133 5256 4906 5256 5256 5661 5661 4599 6133 6690 6690 6690 6690 6133 4906 6133 6133 3873 4906 4599 4599 4599 4599 4906 4329 4329 5661 4329 4599 4599 4599 4329 3679 3873 3873 3873 3873 3873 3873 3873 4088 5661 4088 3504 3199 3199 3066 3066 3679 3873 3873 3504 3199 3345 3345 3345 3345 2943 2943 2830 2830 3199 2943 2943 2943 2943 2725 2628 2537 2628 2628 2453 2299 2299 2299 2374 2374 2374 2164 2164 2164 2102 2164 2102 2044 2044 1989 2044 2044 2044 1989 1887 1887 1887 1887 1887 1839 1795 1795 1839 1795 1795 1795 0 0 0 0 0
    0 0 0 0 0 0 0 0 0 0 0 0 0 0 0 0 0 0 0 0 0 0 0 0 0 0 0 0 0 0 0 0 0 0 0 0 0 0 0 0 0 0 0 0 0 0 0 0 0 0 0 0 0 0 0 0 0 0 0 0 0 0 0 0 0 0 0 0 0 0 0 0 0 0 0 0 8177 8177 8177 0 0 8177 8177 8177 7359 7359 6690 8177 8177 8177 0 0 0 0 0 0 8177 0 0 8177 6133 6133 6690 6690 6690 8177 7359 7359 0 0 0 0 0 0 0 0 0 8177 0 8177 8177 8177 6133 7359 6690 8177 8177 7359 7359 7359 6690 8177 8177 0 7359 6690 6690 7359 6690 7359 7359 6690 7359 6690 7359 6690 7359 7359 6690 6690 6690 7359 7359 8177 8177 8177 0 0 0 0 0 0 0 0 8177 7359 6690 6690 6690 6133 6690 6133 6690 6133 5256 4599 5661 4906 6133 6133 6690 6690 6690 7359 8177 7359 0 7359 8177 7359 7359 8177 6690 8177 8177 8177 8177 8177 8177 8177 8177 0 8177 0 0 0 0 0 0 7359 7359 7359 6690 4906 4906 5256 5256 5661 5661 4088 5661 6133 6690 6690 6690 6133 4906 6133 6690 3873 4906 4599 4599 4599 4599 4906 4329 4329 5256 4088 4599 4329 4088 4329 3679 3873 4088 4088 4088 4088 4088 4329 4329 6690 4906 2943 2830 2830 2943 3066 3873 3873 3873 3679 3199 3345 3345 3504 3504 2943 2943 2943 2943 3199 2943 2943 2830 2830 2725 2537 2453 2537 2628 2453 2374 2374 2374 2374 2453 2453 2164 2230 2230 2102 2230 2102 2044 2044 2044 2102 2102 2102 2102 1936 1936 1936 1936 1936 1839 1839 1839 1839 1839 1839 1839 0 0 0 0 0
    0 0 0 0 0 0 0 0 0 0 0 0 0 0 0 0 0 0 0 0 0 0 0 0 0 0 0 0 0 0 0 0 0 0 0 0 0 0 0 0 0 0 0 0 0 0 0 0 0 0 0 0 0 0 0 0 0 0 0 0 0 0 0 0 0 0 0 0 0 0 0 0 0 0 0 0 8177 8177 8177 0 0 8177 8177 8177 8177 8177 7359 0 0 0 0 0 0 0 0 0 8177 0 0 9199 6690 6690 6690 6690 6690 0 8177 8177 0 0 0 0 0 0 0 0 0 8177 0 8177 8177 8177 6133 7359 6690 7359 8177 7359 7359 7359 6690 0 0 0 0 8177 8177 8177 8177 8177 8177 7359 7359 6690 6690 6690 7359 7359 6690 7359 6690 7359 7359 8177 8177 8177 0 0 0 0 0 0 0 0 8177 8177 7359 6690 6690 6133 7359 6690 6690 6690 6133 5256 6133 5256 6133 6133 6690 6690 6133 6690 7359 6690 0 7359 7359 6690 7359 8177 6690 8177 8177 8177 8177 8177 0 8177 8177 0 8177 0 0 0 0 0 0 7359 8177 8177 6690 5256 4906 5256 5256 5256 6133 3679 5661 5661 6133 6133 6133 5661 4906 5661 6690 4088 4906 4599 4906 4599 4599 4906 4088 4088 5256 4088 4329 4329 4088 4329 3679 3873 4329 4329 4329 4329 4329 4599 4329 6133 5256 2943 2830 2830 2830 3066 4088 4088 4088 3873 3345 3504 3504 3504 3679 2943 2943 2943 2943 3066 2830 2830 2725 2725 2725 2537 2453 2537 2628 2453 2453 2374 2453 2453 2453 2453 2164 2299 2230 2102 2299 2164 2044 2102 2044 2164 2164 2164 2230 1989 2102 2044 1989 2044 1936 1887 1887 1887 1839 1839 1839 0 0 0 0 0
    0 0 0 0 0 0 0 0 0 0 0 0 0 0 0 0 0 0 0 0 0 0 0 0 0 0 0 0 0 0 0 0 0 0 0 0 0 0 0 0 0 0 0 0 0 0 0 0 0 0 0 0 0 0 0 0 0 0 0 0 0 0 0 0 0 0 0 0 0 0 0 0 0 0 0 0 0 8177 0 0 0 0 8177 8177 8177 8177 8177 0 0 0 0 0 0 0 0 0 0 0 0 0 6690 6690 6690 6690 7359 0 0 0 0 0 0 0 0 0 0 0 0 8177 0 8177 8177 8177 5661 6690 6690 8177 8177 7359 7359 7359 7359 0 0 0 0 0 0 0 0 0 8177 7359 7359 6690 6690 6690 6690 7359 6690 7359 6690 7359 7359 8177 0 0 0 0 0 0 0 0 0 0 0 0 0 8177 7359 7359 8177 7359 8177 7359 7359 6133 6133 5661 6690 6690 6690 6690 5661 6133 6690 6690 8177 6690 6133 5661 6690 7359 6690 8177 8177 8177 8177 8177 0 8177 8177 0 8177 0 0 0 0 0 0 8177 8177 8177 6133 5256 4599 4906 4906 5256 5661 3679 5256 5661 5256 5661 5661 5256 4906 5661 6690 4088 5256 4906 4906 4329 4599 4906 4088 4088 4906 4088 4329 4329 3873 4088 3873 3873 4329 4329 4329 4329 4329 4906 4599 5661 6133 2943 2830 2830 2830 3066 4088 4088 4088 3873 3345 3679 3504 3504 3504 2943 2830 2830 2830 2943 2725 2725 2725 2725 2725 2537 2453 2628 2628 2537 2537 2453 2453 2453 2453 2453 2230 2374 2299 2164 2374 2164 2102 2164 2102 2230 2164 2230 2299 2102 2230 2102 2102 2102 1936 1936 1936 1887 1887 1887 1887 0 0 0 0 0
    0 0 0 0 0 0 0 0 0 0 0 0 0 0 0 0 0 0 0 0 0 0 0 0 0 0 0 0 0 0 0 0 0 0 0 0 0 0 0 0 0 0 0 0 0 0 0 0 0 0 0 0 0 0 0 0 0 0 0 0 0 0 0 0 0 0 0 0 0 0 0 0 0 0 0 0 0 0 0 0 0 0 0 8177 0 8177 7359 0 0 0 0 0 0 0 0 0 0 0 0 0 7359 6690 6690 6690 7359 0 0 0 0 0 0 0 0 0 0 0 0 7359 0 7359 7359 8177 4906 6133 6133 7359 8177 7359 7359 8177 7359 0 0 0 0 0 0 0 0 0 7359 7359 7359 6690 6690 6690 6690 8177 7359 7359 7359 7359 7359 8177 0 0 0 0 0 0 0 0 0 0 0 0 0 0 0 0 0 7359 8177 8177 7359 6133 6690 5661 6690 6690 6690 6690 5661 6133 6690 6690 8177 6690 6133 6133 6690 8177 6690 8177 8177 7359 7359 8177 0 8177 8177 8177 8177 0 0 0 0 0 0 7359 8177 8177 5661 4906 4329 4906 4906 4906 5256 3679 4906 5256 4599 5256 5256 4906 4906 5256 6690 4329 4906 4906 4599 4599 4599 4599 4088 4088 4906 4088 4599 4329 3873 4088 3873 3873 4329 4329 4329 4329 4599 4906 4599 5256 6133 2943 2830 2943 2943 3066 4088 4088 4329 3873 3345 3504 3504 3504 3504 2830 2830 2725 2725 2830 2628 2628 2628 2628 2628 2537 2453 2725 2725 2628 2628 2453 2537 2453 2537 2453 2230 2374 2299 2230 2374 2230 2164 2230 2230 2299 2164 2299 2299 2102 2230 2102 2102 2044 1936 1936 1936 1936 1936 1887 1936 0 0 0 0 0
    0 0 0 0 0 0 0 0 0 0 0 0 0 0 0 0 0 0 0 0 0 0 0 0 0 0 0 0 0 0 0 0 0 0 0 0 0 0 0 0 0 0 0 0 0 0 0 0 0 0 0 0 0 0 0 0 0 0 0 0 0 0 0 0 0 0 0 0 0 0 0 0 0 0 0 0 0 0 0 0 0 0 0 0 8177 8177 7359 8177 9199 0 0 0 0 0 0 0 0 0 0 0 6690 6133 6690 6690 6690 0 0 0 0 0 0 0 0 0 0 0 0 7359 8177 7359 7359 7359 4599 6133 6133 7359 8177 7359 8177 8177 7359 0 0 0 0 0 0 0 0 0 7359 7359 7359 6690 6690 6690 6690 0 0 8177 7359 0 0 8177 0 0 0 0 0 0 0 0 0 0 0 0 288 288 288 0 0 8177 8177 8177 7359 5661 6133 5256 6690 6133 6133 6133 5661 6133 7359 6690 0 7359 6690 6690 6690 0 6690 7359 7359 7359 7359 7359 8177 7359 8177 8177 8177 0 0 0 0 0 0 7359 8177 8177 5661 4906 4329 4906 4906 4906 5256 3679 4599 5256 4599 5256 4906 4599 4599 4906 6690 4599 4906 4906 4906 4329 4599 4599 4088 4088 4906 4329 4906 3873 3873 4329 4088 3873 4599 4329 4329 4329 4599 5256 4599 4906 6690 3066 2830 3066 2943 3199 4088 4088 4088 3873 3345 3504 3345 3345 3345 2830 2725 2628 2537 2830 2537 2537 2537 2628 2628 2537 2537 2725 2725 2725 2628 2537 2628 2537 2537 2537 2299 2453 2299 2230 2374 2230 2230 2299 2299 2453 2299 2453 2453 2164 2230 2044 2044 1989 1936 1936 1936 1936 1936 1936 1936 0 0 0 0 0
    0 0 0 0 0 0 0 0 0 0 0 0 0 0 0 0 0 0 0 0 0 0 0 0 0 0 0 0 0 0 0 0 0 0 0 0 0 0 0 0 0 0 0 0 0 0 0 0 0 0 0 0 0 0 0 0 0 0 0 0 0 0 0 0 0 0 0 0 0 8177 8177 8177 8177 0 0 0 0 0 0 0 0 0 0 0 8177 7359 7359 8177 8177 8177 0 0 0 0 0 0 0 0 0 0 6690 6133 6690 6133 6690 0 0 0 0 0 0 0 0 0 0 0 8177 6690 7359 7359 7359 7359 4906 6133 6133 7359 8177 7359 8177 8177 7359 0 0 0 0 0 0 0 8177 0 7359 6690 6690 6690 6690 6690 6690 0 0 0 0 0 0 0 0 0 0 0 0 0 0 0 0 0 0 288 288 287 287 0 0 0 0 0 0 6133 6133 5256 6690 6133 6133 6133 5661 6690 7359 7359 0 7359 7359 7359 7359 0 7359 7359 7359 7359 7359 7359 8177 7359 7359 8177 8177 0 0 0 0 0 0 8177 8177 8177 5661 5256 4329 5256 4906 4906 5256 3679 4599 4906 4329 5256 4906 4599 4599 4906 6690 4329 4906 4906 4906 4329 4599 4599 4329 4088 4906 4329 4906 3679 3873 4329 4329 3873 4599 4329 4599 4599 4906 5256 4599 4599 6690 3066 3066 3199 3066 3199 4088 4329 4329 3873 3199 3504 3345 3345 3199 2725 2628 2537 2537 2725 2537 2537 2537 2628 2725 2537 2537 2725 2830 2725 2725 2628 2628 2628 2628 2628 2374 2453 2374 2299 2453 2230 2230 2299 2374 2453 2374 2537 2453 2164 2164 2044 1989 1989 1936 1936 1936 1936 1936 1887 1887 0 0 0 0 0
    0 0 0 0 0 0 0 0 0 0 0 0 0 0 0 0 0 0 0 0 0 0 0 0 0 0 0 0 0 0 0 0 0 0 0 0 0 0 0 0 0 0 0 0 0 0 0 0 0 0 0 0 0 0 0 0 0 0 0 0 0 0 0 0 0 0 0 0 0 8177 7359 8177 8177 8177 0 0 0 0 0 0 0 0 0 0 8177 7359 6690 7359 8177 8177 8177 0 0 0 0 0 0 0 0 0 6690 6133 6690 6133 6690 0 0 0 0 0 0 0 0 0 0 0 0 6690 8177 7359 8177 8177 5256 6133 6133 7359 8177 7359 8177 7359 7359 0 0 0 0 0 0 0 8177 0 7359 7359 7359 6690 6690 6690 0 0 0 0 0 0 0 557 574 0 0 0 0 0 0 0 0 0 0 0 0 287 287 0 0 0 0 0 0 6133 6690 5256 6690 6133 6133 6133 5661 6690 0 7359 0 7359 7359 7359 7359 0 8177 7359 7359 7359 7359 7359 8177 7359 7359 8177 7359 0 0 0 0 0 0 8177 8177 8177 5661 5661 4599 5256 5256 4906 5256 3873 4599 5256 4599 5661 4906 4599 4599 4906 6133 4329 4906 4906 4906 4329 4599 4599 4599 4329 5256 4329 4329 3504 3873 4329 4088 3679 4329 4329 4329 4599 4906 4906 4329 4599 6690 3199 3199 3345 3199 3199 4329 4329 4329 3873 3345 3504 3345 3345 3199 2725 2537 2453 2453 2725 2453 2537 2628 2628 2725 2537 2537 2725 2830 2830 2725 2628 2725 2628 2725 2628 2453 2537 2374 2299 2453 2299 2230 2374 2374 2374 2299 2453 2374 2102 2164 2044 2044 1989 1989 1989 1936 1936 1936 1936 1887 0 0 0 0 0
    0 0 0 0 0 0 0 0 0 0 0 0 0 0 0 0 0 0 0 0 0 0 0 0 0 0 0 0 0 0 0 0 0 0 0 0 0 0 0 0 0 0 0 0 0 0 0 0 0 0 0 0 0 0 0 0 0 0 0 0 0 0 0 0 0 0 0 0 0 8177 8177 0 0 0 0 0 0 0 0 0 0 0 0 0 7359 7359 6690 7359 7359 7359 7359 8177 0 0 0 0 0 0 0 0 6690 6690 6690 6690 7359 0 0 0 0 0 0 0 0 0 0 0 0 7359 8177 8177 8177 8177 5256 6133 6133 7359 7359 7359 7359 7359 6690 0 0 0 0 0 0 0 0 0 0 0 0 7359 7359 0 0 0 0 0 0 0 570 557 574 0 0 0 0 0 0 0 0 0 0 0 0 287 287 0 579 0 0 0 0 6133 6690 5256 6690 6133 6133 6133 5661 6133 0 0 0 7359 7359 7359 7359 0 7359 7359 6690 7359 6690 7359 8177 7359 7359 7359 7359 7359 0 0 8177 0 0 8177 8177 8177 5661 5661 4599 5661 5256 4906 5256 3873 4599 5256 4599 5661 4906 4599 4906 4599 6133 4329 4906 5256 4906 4329 4599 4599 4599 4329 5256 4329 4088 3504 3873 4329 4088 3679 4329 4329 4599 4599 4906 4906 4329 4599 6690 3199 3199 3345 3199 3199 4088 4329 4088 3873 3345 3504 3345 3345 3199 2725 2537 2537 2537 2725 2537 2537 2537 2725 2725 2537 2537 2725 2830 2830 2725 2725 2725 2725 2725 2725 2453 2537 2374 2299 2453 2299 2230 2374 2374 2299 2164 2374 2299 2044 2044 2044 1989 1989 1989 1989 1936 1936 1936 1936 1887 0 0 0 0 0
    0 0 0 0 0 0 0 0 0 0 0 0 0 0 0 0 0 0 0 0 0 0 0 0 0 0 0 0 0 0 0 0 0 0 0 0 0 0 0 0 0 0 0 0 0 0 0 0 0 0 0 0 0 0 0 0 0 0 0 0 0 0 0 0 0 0 0 0 0 8177 8177 0 0 0 0 0 0 0 0 0 0 0 0 0 7359 7359 6690 7359 7359 7359 7359 8177 8177 0 0 0 0 0 0 0 7359 6690 7359 7359 8177 0 0 0 0 0 0 0 0 0 0 0 0 7359 8177 8177 8177 0 5256 6690 6133 7359 8177 7359 8177 7359 6690 0 0 0 0 0 0 0 0 0 0 0 0 7359 7359 0 0 0 0 0 0 0 570 557 574 0 0 0 0 0 0 0 0 0 0 0 288 287 287 0 0 0 0 0 0 6133 6690 5256 6690 6133 6133 6133 5661 6133 0 0 0 7359 7359 6690 7359 0 7359 6690 6690 6690 6690 6690 8177 7359 8177 8177 7359 7359 0 0 8177 0 0 8177 8177 8177 6133 6133 4906 5661 5256 4906 5256 4088 4906 5256 4599 5661 4906 4599 4906 4599 6133 4329 4906 4906 4599 4329 4599 4599 4599 4088 5661 4088 3873 3504 3873 4329 4088 3504 4329 4329 4329 4329 4906 4906 4088 4329 6690 3199 3066 3199 3199 3199 3873 4329 4088 3873 3345 3504 3504 3504 3345 2830 2628 2537 2537 2725 2537 2537 2537 2628 2725 2537 2537 2725 2830 2830 2830 2725 2830 2725 2725 2725 2537 2537 2374 2299 2453 2299 2299 2374 2374 2299 2102 2374 2299 2044 2044 2044 1989 1989 2044 1989 1936 1936 1936 1936 1839 0 0 0 0 0
    0 0 0 0 0 0 0 0 0 0 0 0 0 0 0 0 0 0 0 0 0 0 0 0 0 0 0 0 0 0 0 0 0 0 0 0 0 0 0 0 0 0 0 0 0 0 0 0 0 0 0 0 0 0 0 0 0 0 0 0 0 0 0 0 0 0 0 0 0 8177 8177 8177 0 0 0 0 0 0 0 0 0 0 0 0 6690 6690 6133 6690 7359 7359 7359 8177 8177 0 0 0 0 0 0 0 8177 7359 8177 8177 8177 0 0 0 0 0 0 0 0 0 0 0 0 8177 0 8177 8177 8177 6133 6690 6690 7359 8177 8177 0 0 8177 0 0 0 0 0 0 0 0 0 0 8177 0 7359 7359 0 0 0 0 0 0 0 570 557 574 0 0 0 0 0 0 0 0 0 0 0 288 287 287 0 0 0 0 0 0 0 6690 5661 6690 6690 6690 6690 5661 0 0 0 0 7359 7359 7359 7359 8177 6690 6690 6133 6690 6133 6690 7359 8177 8177 8177 8177 8177 0 0 8177 0 0 8177 8177 8177 6133 6133 4906 6133 5661 5256 5256 4329 4906 5661 4906 6133 4906 4599 4599 4329 5661 4088 4906 4906 4599 4329 4599 4599 4906 4329 6133 4599 3873 3504 4088 4329 4088 3504 4329 4329 4329 4329 4906 4599 4088 4088 6690 3199 3066 3199 3199 3199 3873 4088 4088 3873 3345 3679 3504 3504 3504 2943 2725 2628 2628 2725 2537 2537 2537 2628 2628 2628 2628 2830 2943 2943 2943 2830 2830 2830 2830 2830 2537 2628 2453 2374 2453 2299 2299 2374 2374 2299 2102 2374 2230 2044 2044 2044 1989 2044 2044 1989 1887 1936 1887 1936 1839 0 0 0 0 0
    0 0 0 0 0 0 0 0 0 0 0 0 0 0 0 0 0 0 0 0 0 0 0 0 0 0 0 0 0 0 0 0 0 0 0 0 0 0 0 0 0 0 0 0 0 0 0 0 0 0 0 0 0 0 0 0 0 0 0 0 0 0 0 0 0 0 0 0 0 8177 8177 0 0 0 0 0 0 0 0 0 0 0 0 0 6690 6690 6133 6690 6690 7359 6690 7359 7359 0 0 0 0 0 0 0 8177 7359 8177 8177 8177 0 0 0 0 0 0 0 0 0 0 0 0 0 0 8177 0 0 6690 7359 7359 8177 0 0 0 0 0 0 0 0 0 0 0 0 0 0 8177 8177 8177 8177 8177 8177 8177 0 0 0 0 0 0 0 0 0 0 0 0 0 0 0 0 0 0 288 288 287 287 287 0 289 290 0 293 0 6690 5256 6690 0 0 0 0 0 82 0 0 7359 7359 7359 7359 8177 6690 6133 5661 6133 5661 6133 6690 7359 7359 8177 8177 7359 0 0 8177 0 8177 8177 8177 8177 6690 6133 5256 6133 5661 5661 5661 4329 5256 5661 4906 6133 5256 4599 4599 4088 5256 4088 4599 4906 4599 4599 4906 4599 5256 4329 6690 5256 3873 3504 4088 4329 4329 3504 4329 4329 4329 4599 4906 4329 4088 4088 6690 3199 3066 3199 3199 3199 3679 4088 4088 3873 3345 3679 3679 3679 3679 3066 2943 2830 2830 2830 2628 2628 2628 2725 2725 2628 2628 2830 2943 2943 2943 2830 2830 2943 2943 2830 2628 2628 2537 2453 2537 2374 2374 2453 2374 2299 2164 2374 2230 2044 1989 2044 1989 2044 1989 1989 1887 1887 1887 1887 1839 0 0 0 0 0
    0 0 0 0 0 0 0 0 0 0 0 0 0 0 0 0 0 0 0 0 0 0 0 0 0 0 0 0 0 0 0 0 0 0 0 0 0 0 0 0 0 0 0 0 0 0 0 0 0 0 0 0 0 0 0 0 0 0 0 0 0 0 0 0 0 0 0 0 0 7359 8177 8177 8177 0 0 0 0 0 0 0 0 0 0 0 6690 6690 5661 6133 6690 6690 7359 7359 7359 0 0 0 0 0 0 0 8177 7359 8177 8177 8177 0 0 0 0 0 0 0 0 0 0 0 0 0 0 0 0 0 7359 8177 8177 0 0 0 0 0 0 0 0 0 0 0 0 0 0 0 0 0 0 0 0 0 0 0 0 0 0 0 0 0 0 0 0 0 0 0 0 0 0 0 0 0 288 287 287 287 0 290 289 0 293 0 6133 4906 6690 0 0 0 0 0 82 0 0 7359 7359 7359 7359 8177 6690 6690 5661 6133 5661 6133 6690 6690 7359 7359 8177 6690 0 0 7359 8177 8177 8177 8177 8177 7359 6690 5661 6690 6133 6133 5661 4906 5256 5661 5256 6133 5256 4599 4599 4088 5256 3873 4599 4906 4599 4599 4906 4599 5661 4329 6690 5661 3873 3504 4329 4329 4329 3504 4599 4329 4329 4599 4906 4088 4088 4088 6690 3199 3066 3199 3199 3199 3679 4088 4088 3873 3504 3679 3679 3679 3873 3345 3066 2943 2943 2943 2725 2628 2725 2725 2725 2628 2725 2830 2830 2830 2830 2830 2830 2943 2943 2830 2628 2725 2628 2537 2628 2453 2453 2453 2453 2299 2164 2374 2164 2044 1989 2044 1989 2044 1989 1936 1839 1839 1839 1839 1795 0 0 0 0 0
    0 0 0 0 0 0 0 0 0 0 0 0 0 0 0 0 0 0 0 0 0 0 0 0 0 0 0 0 0 0 0 0 0 0 0 0 0 0 0 0 0 0 0 0 0 0 0 0 0 0 0 0 0 0 0 0 0 0 0 0 0 0 0 0 0 0 0 0 0 0 0 8177 8177 0 0 0 0 0 0 0 0 0 0 0 6690 6133 5661 6133 6690 6690 6690 7359 7359 0 0 0 0 0 0 0 8177 7359 7359 7359 8177 0 0 0 0 0 0 0 0 0 0 0 0 0 0 0 0 0 8177 8177 8177 0 0 0 0 0 0 0 0 0 0 0 0 0 0 0 0 0 0 0 0 0 0 0 0 0 0 0 0 9199 0 0 0 8177 0 0 0 7359 8177 7359 7359 8177 8177 0 0 0 0 0 0 0 0 5661 6133 4906 6690 6690 0 0 0 0 0 0 0 7359 7359 7359 7359 8177 6690 6690 5661 6133 6133 6133 6690 6690 7359 7359 7359 6690 0 0 8177 0 8177 8177 8177 8177 8177 6690 6133 6690 6690 6690 6133 5256 5661 5661 5661 6690 5661 4599 4599 4088 5256 3873 4906 4599 4599 4599 4599 4599 5256 4088 6690 3504 3199 3345 4599 4906 4906 3679 4599 4599 4599 4906 4906 4088 4088 4088 6133 3199 3066 3199 3199 3199 3679 4088 4088 3873 3504 3873 3873 3873 4088 3345 3066 2943 2943 2943 2830 2725 2725 2725 2725 2725 2725 2725 2830 2830 2830 2725 2830 2943 2830 2830 2725 2725 2628 2628 2628 2537 2453 2537 2453 2230 2164 2374 2164 2102 2044 2102 2044 2044 1989 1936 1839 1839 1795 1795 1752 0 0 0 0 0
    0 0 0 0 0 0 0 0 0 0 0 0 0 0 0 0 0 0 0 0 0 0 0 0 0 0 0 0 0 0 0 0 0 0 0 0 0 0 0 0 0 0 0 0 0 0 0 0 0 0 0 0 0 0 0 0 0 0 0 0 0 0 0 0 0 0 0 0 0 0 7359 8177 8177 8177 8177 0 0 0 0 0 0 0 0 0 6690 6133 6133 6133 6690 6690 6690 7359 8177 0 0 0 0 0 0 0 8177 7359 7359 7359 7359 0 0 0 0 0 0 0 0 0 0 0 0 0 0 0 0 0 0 0 0 0 0 0 0 0 0 0 0 0 0 0 0 0 0 0 0 0 0 0 0 0 0 0 0 0 0 0 0 0 0 0 0 8177 0 0 0 7359 8177 7359 7359 8177 9199 8177 0 8177 0 0 0 0 0 4906 6133 4599 6690 6690 0 0 0 0 0 0 0 7359 6690 6690 6690 7359 6690 6690 5661 6133 6133 6133 6690 6690 7359 7359 7359 6133 0 0 8177 0 8177 8177 8177 8177 0 6690 6133 7359 6690 7359 6690 6133 5661 5661 6133 6133 5661 4599 4088 4088 4906 3873 4906 4599 4329 4329 4329 4329 4599 3873 6133 3066 3199 3345 4329 4906 4906 3679 4906 4599 4599 4906 4906 4088 4088 4088 6133 3199 3066 3199 3199 3199 3679 4088 4088 4088 3679 4088 3873 3873 4329 3679 3199 3066 3066 3066 2830 2725 2725 2725 2725 2628 2628 2628 2725 2725 2725 2628 2725 2830 2725 2830 2725 2725 2628 2628 2725 2537 2453 2537 2374 2230 2164 2453 2230 2164 2164 2164 2102 2102 1989 1936 1795 1795 1795 1795 1752 0 0 0 0 0
    0 0 0 0 0 0 0 0 0 0 0 0 0 0 0 0 0 0 0 0 0 0 0 0 0 0 0 0 0 0 0 0 0 0 0 0 0 0 0 0 0 0 0 0 0 0 0 0 0 0 0 0 0 0 0 0 0 0 0 0 0 0 0 0 0 0 0 0 0 7359 7359 8177 8177 8177 8177 0 0 0 0 0 0 0 0 0 6690 6133 6133 6690 6690 7359 7359 8177 0 0 0 0 0 0 0 0 8177 7359 7359 7359 7359 0 0 0 0 0 0 0 0 0 0 0 0 0 0 0 0 0 0 0 0 0 0 0 0 0 0 0 0 0 0 0 0 0 0 0 0 0 0 0 0 0 0 0 0 0 0 0 0 0 0 0 0 0 0 0 0 7359 7359 7359 7359 7359 8177 8177 8177 8177 0 0 0 0 0 0 6133 4599 7359 7359 0 0 0 0 0 7359 0 6690 6133 6133 5661 6133 6133 6133 5661 5661 6133 6133 6690 6690 7359 7359 7359 5661 0 0 0 0 8177 8177 8177 8177 0 6690 6690 7359 7359 8177 7359 7359 6690 6690 7359 7359 5661 4906 4088 4088 4906 3873 4599 4599 4329 4329 4329 4329 4599 3873 6133 3066 3199 3504 4599 5256 5256 3679 4906 4906 4906 4906 4906 4088 4088 4088 6133 3199 3066 3199 3199 3345 3679 4088 4088 4088 3679 4088 4088 4088 4599 3873 3345 3199 3199 3199 2830 2628 2725 2628 2628 2628 2537 2628 2725 2628 2725 2537 2725 2830 2725 2830 2725 2725 2628 2725 2830 2628 2628 2725 2453 2230 2299 2453 2374 2299 2230 2299 2164 2164 2044 1936 1839 1795 1795 1795 1752 0 0 0 0 0
    0 0 0 0 0 0 0 0 0 0 0 0 0 0 0 0 0 0 0 0 0 0 0 0 0 0 0 0 0 0 0 0 0 0 0 0 0 0 0 0 0 0 0 0 0 0 0 0 0 0 0 0 0 0 0 0 0 0 0 0 0 0 0 0 0 0 0 0 0 7359 7359 8177 8177 8177 8177 0 0 0 0 0 0 0 0 0 9199 6690 7359 7359 7359 8177 8177 0 0 0 0 0 0 0 0 0 0 8177 7359 7359 7359 0 0 0 0 0 0 0 0 0 0 0 0 0 0 0 0 8177 0 0 0 0 0 0 0 0 0 0 0 0 0 0 0 0 0 0 0 0 0 0 0 0 0 0 0 0 0 0 0 0 0 0 0 0 0 0 0 7359 7359 7359 6690 7359 8177 7359 8177 8177 0 0 0 0 0 0 5661 4599 7359 7359 6690 0 0 7359 0 8177 0 6690 5661 6133 5661 6133 6133 6133 5661 5661 6133 6133 6690 7359 7359 7359 7359 6133 0 0 0 0 7359 8177 8177 8177 0 6690 6690 6690 7359 8177 7359 6690 6133 6133 7359 6690 5256 4599 3873 3873 4599 3679 4599 4599 4329 4599 4329 4599 4906 3873 6133 3345 3199 3504 4906 5256 5256 3679 4906 4906 4906 4906 4906 4329 4329 4088 6690 3345 3199 3345 3345 3345 3679 4088 4329 4088 3679 4329 4088 4088 4599 3873 3345 3199 3199 3199 2725 2537 2628 2537 2537 2537 2537 2537 2628 2628 2628 2537 2725 2830 2725 2943 2830 2830 2725 2830 2830 2725 2725 2830 2537 2453 2453 2537 2537 2374 2230 2230 2164 2164 2044 1887 1795 1795 1795 1795 1752 0 0 0 0 0
    0 0 0 0 0 0 0 0 0 0 0 0 0 0 0 0 0 0 0 0 0 0 0 0 0 0 0 0 0 0 0 0 0 0 0 0 0 0 0 0 0 0 0 0 0 0 0 0 0 0 0 0 0 0 0 0 0 0 0 0 0 0 0 0 0 0 0 0 0 7359 6690 7359 7359 8177 8177 0 0 0 0 0 0 0 0 0 0 8177 8177 8177 8177 8177 0 0 0 0 0 0 0 0 0 0 0 8177 7359 7359 7359 8177 8177 0 0 0 0 0 0 0 0 0 0 0 0 0 0 8177 0 0 0 0 0 0 0 0 0 0 0 0 0 0 0 0 0 0 0 0 0 0 0 0 0 0 0 0 0 0 0 0 0 0 0 0 0 0 0 7359 7359 7359 7359 7359 0 8177 8177 8177 0 0 0 0 0 4599 6133 4906 8177 8177 7359 0 0 7359 0 0 0 6690 6133 6690 5661 6690 6133 6133 6133 6133 6690 6690 7359 8177 8177 8177 8177 6133 0 0 0 0 7359 8177 8177 8177 0 6133 6690 6690 7359 0 8177 5661 6133 6133 7359 6690 5256 4329 3873 3873 4599 3679 4329 4599 4329 4599 4599 4599 4906 4088 6690 3504 3199 3504 4599 5256 5256 3679 5256 4906 4906 4906 5256 4329 4329 4088 6690 3504 3345 3504 3504 3504 3679 4088 4329 4329 3873 4329 4329 4329 4599 3873 3345 3199 3199 3199 2725 2374 2537 2453 2537 2537 2453 2537 2628 2537 2537 2537 2725 2830 2725 3066 2943 2943 2830 2943 2943 2830 2830 2830 2725 2628 2628 2628 2628 2537 2374 2299 2299 2230 0 1839 1795 1795 1795 1795 1752 0 0 0 0 0
    0 0 0 0 0 0 0 0 0 0 0 0 0 0 0 0 0 0 0 0 0 0 0 0 0 0 0 0 0 0 0 0 0 0 0 0 0 0 0 0 0 0 0 0 0 0 0 0 0 0 0 0 0 0 0 0 0 0 0 0 0 0 0 0 0 0 0 0 0 7359 6690 7359 8177 8177 8177 0 0 8177 0 0 0 0 0 0 0 8177 8177 8177 8177 8177 0 0 0 0 0 0 0 0 0 0 0 8177 6690 7359 6690 7359 6690 7359 8177 0 0 0 0 0 0 0 0 0 0 0 8177 8177 0 0 0 0 0 0 0 0 0 0 0 0 0 0 0 0 0 0 0 0 0 0 0 0 0 0 0 0 0 0 0 0 0 0 0 0 0 0 0 6690 7359 7359 7359 0 0 8177 8177 0 0 0 0 0 0 4599 6133 5256 8177 8177 7359 0 0 7359 0 0 0 6690 6133 6690 6133 6690 6690 6690 6133 6690 7359 7359 7359 8177 8177 8177 0 6133 0 0 0 0 6690 8177 8177 8177 0 6133 6133 6690 7359 0 7359 5256 6133 6690 7359 6690 5256 4599 4088 4088 4906 3679 4329 4599 4329 4906 4599 4906 5256 4088 6690 3679 3066 3345 4599 5256 5256 3679 5256 4906 4906 4906 5256 4329 4329 4329 6690 3679 3679 3679 3679 3504 3873 4329 4599 4329 3873 4599 4329 4599 4906 4088 3345 3199 3345 3504 2725 2374 2537 2453 2537 2628 2453 2537 2628 2537 2537 2537 2830 2830 2830 3066 2943 2943 2943 2943 2943 2830 2830 2943 2725 2628 2725 2725 2725 2537 2453 2374 2374 2230 1989 1887 1839 1795 1795 1795 1752 0 0 0 0 0
    0 0 0 0 0 0 0 0 0 0 0 0 0 0 0 0 0 0 0 0 0 0 0 0 0 0 0 0 0 0 0 0 0 0 0 0 0 0 0 0 0 0 0 0 0 0 0 0 0 0 0 0 0 0 0 0 0 0 0 0 0 0 0 0 0 0 0 0 0 7359 6690 8177 8177 8177 8177 0 8177 8177 0 0 0 0 0 0 0 0 0 0 0 0 0 0 0 0 0 0 0 0 0 0 0 8177 6690 7359 6690 6690 5661 7359 8177 0 0 0 0 0 0 0 0 0 0 0 8177 8177 0 0 0 0 0 0 0 0 0 0 0 0 0 0 0 0 0 0 0 0 0 0 0 0 0 0 0 0 0 0 0 0 0 0 0 0 0 0 0 6690 0 0 7359 0 0 0 0 0 0 0 0 0 0 0 5661 5256 0 8177 7359 0 0 7359 0 0 0 6690 6133 6690 6133 6690 6690 6690 6690 7359 8177 8177 0 0 0 0 0 6133 0 0 0 0 6690 8177 8177 8177 0 6690 6690 6690 7359 8177 7359 5661 6690 6690 7359 7359 6133 4906 4329 4599 5256 3873 4599 4906 4599 4906 4599 4906 4599 3873 6690 3504 2943 3199 4329 5256 5256 3679 4906 4906 4906 4906 5256 4329 4329 4329 7359 3873 3873 3873 3873 3679 4088 4599 4906 4599 3873 4599 4599 4599 4906 4329 3504 3345 3504 4599 2830 2537 2628 2537 2628 2628 2453 2453 2537 2537 2453 2537 2830 2830 2830 3066 3066 3066 2943 2943 2943 2830 2943 2943 2725 2628 2725 2725 2725 2537 2453 2374 2374 2230 0 1936 1839 1795 1839 1795 1752 0 0 0 0 0
    0 0 0 0 0 0 0 0 0 0 0 0 0 0 0 0 0 0 0 0 0 0 0 0 0 0 0 0 0 0 0 0 0 0 0 0 0 0 0 0 0 0 0 0 0 0 0 0 0 0 0 0 0 0 0 0 0 0 0 0 0 0 0 0 0 0 0 0 0 7359 6690 8177 7359 7359 7359 0 8177 8177 8177 0 0 0 0 0 0 0 0 0 0 0 0 0 0 0 0 0 0 0 0 0 0 8177 7359 8177 6690 6690 5256 6690 8177 0 0 0 0 0 0 0 0 0 0 0 8177 8177 0 0 0 0 0 0 0 0 0 0 0 0 0 0 0 0 0 0 0 0 0 0 0 0 0 0 0 0 0 0 0 0 0 0 0 0 0 0 0 6133 0 0 0 0 0 0 0 0 0 0 0 0 0 4599 5661 5256 0 0 8177 0 0 8177 0 0 0 6690 6133 6690 6133 7359 6690 6690 6690 7359 8177 8177 0 0 0 0 8177 6133 0 0 0 0 6690 8177 8177 8177 0 7359 6690 6690 6690 8177 6690 5661 7359 7359 7359 8177 6690 5661 4599 5256 6133 4088 4599 4906 4599 4906 4599 4906 4329 3873 6133 3345 2943 3066 4088 5256 4906 3679 4906 4906 4906 4906 5256 4329 4329 4329 6690 3873 4088 4088 3873 3873 4088 4599 4906 4599 3873 4906 4599 4906 5256 4599 3504 3345 3504 6133 2830 2537 2725 2537 2628 2628 2453 2453 2453 2453 2374 2628 2943 2943 2830 3199 3199 3066 2943 3066 2943 2943 2943 2943 2725 2628 2725 2725 2725 2628 2453 2374 2453 2299 0 1989 1887 1839 1839 1839 1752 0 0 0 0 0
    0 0 0 0 0 0 0 0 0 0 0 0 0 0 0 0 0 0 0 0 0 0 0 0 0 0 0 0 0 0 0 0 0 0 0 0 0 0 0 0 0 0 0 0 0 0 0 0 0 0 0 0 0 0 0 0 0 0 0 0 0 0 0 0 0 0 0 0 0 7359 6133 7359 7359 7359 7359 0 7359 7359 7359 0 0 0 0 0 0 0 0 0 0 0 0 0 0 0 0 0 0 0 0 0 0 8177 7359 8177 6690 6690 5256 6690 7359 0 0 0 0 0 0 0 0 0 0 0 0 8177 0 0 0 0 0 0 0 0 0 0 0 0 0 0 0 0 0 0 0 0 0 0 0 0 0 0 0 0 0 0 0 7359 0 0 0 8177 0 0 0 5256 7359 7359 7359 0 0 0 7359 8177 0 0 0 0 0 4599 5661 5256 0 0 0 0 0 8177 0 0 0 6690 6133 6690 6133 7359 6690 6690 6690 7359 8177 8177 0 0 0 0 0 7359 0 0 0 0 6690 8177 8177 8177 8177 7359 6133 6690 6690 7359 6690 4906 6690 7359 6690 7359 6133 0 4599 5256 6133 4088 4599 4906 4599 4906 4599 5256 3873 3873 6133 3199 2830 3066 3873 4906 4906 3679 4906 4906 4599 4906 5256 4329 4329 4329 6690 4088 4088 4088 3873 3873 4088 4906 4906 4906 3873 4599 4599 4906 5256 4906 3679 3504 3679 6690 2830 2537 2628 2537 2628 2725 2537 2537 2537 2537 2453 2725 2943 2943 2830 3199 3199 3066 3066 0 0 2943 2943 2943 2725 2628 2725 2725 2830 2628 2537 2453 2537 2374 0 2044 1989 1887 1887 1887 1795 0 0 0 0 0
    0 0 0 0 0 0 0 0 0 0 0 0 0 0 0 0 0 0 0 0 0 0 0 0 0 0 0 0 0 0 0 0 0 0 0 0 0 0 0 0 0 0 0 0 0 0 0 0 0 0 0 0 0 0 0 0 0 0 0 0 0 0 0 0 0 0 0 0 0 6690 6133 6690 6690 6690 6690 0 6690 6133 6690 0 8177 8177 0 0 0 0 0 0 0 0 0 0 0 0 0 0 0 0 0 0 0 0 7359 8177 7359 6690 5256 6133 7359 0 0 0 0 0 0 0 0 0 0 0 0 0 0 0 0 0 0 0 0 0 0 0 0 0 0 0 0 0 8177 0 0 0 0 0 0 0 0 0 0 0 0 0 0 6133 0 0 0 7359 0 0 0 4906 7359 6690 6690 0 0 7359 7359 7359 0 0 0 0 0 4599 5661 5256 0 0 0 0 0 8177 0 0 0 6690 6133 6690 6690 7359 6690 7359 6690 7359 8177 8177 0 0 0 0 0 0 0 0 0 0 7359 0 0 0 8177 8177 6133 6690 6690 7359 6690 4906 6133 6690 6133 0 0 77 0 4906 6133 3873 4329 4906 4906 5256 4906 5256 4329 4088 6690 3504 3066 3199 3873 4906 4599 3679 4906 4599 4599 4906 5256 4088 4329 4088 6690 3873 3873 3873 3873 3873 4088 4906 4906 4599 3873 4906 4599 4906 5256 4906 3873 3679 3873 6690 2943 2725 2725 2628 2725 2943 2725 2628 2628 2725 2537 2943 3066 3066 2943 3345 3345 3199 0 0 0 2943 2943 2943 2725 2628 2725 2830 2830 2628 2537 2453 2537 2453 2453 2230 2102 2044 1989 1989 1839 0 0 0 0 0
    0 0 0 0 0 0 0 0 0 0 0 0 0 0 0 0 0 0 0 0 0 0 0 0 0 0 0 0 0 0 0 0 0 0 0 0 0 0 0 0 0 0 0 0 0 0 0 0 0 0 0 0 0 0 0 0 0 0 0 0 0 0 0 0 0 0 0 0 0 6690 6133 7359 6690 6690 6690 0 7359 6690 7359 0 8177 8177 0 0 0 0 0 0 0 0 0 0 0 0 0 0 0 0 0 0 0 0 8177 0 7359 7359 5661 6690 7359 0 0 0 0 0 0 0 0 0 0 0 0 0 0 0 0 0 0 0 0 0 0 0 0 0 0 0 0 0 8177 0 0 0 0 0 0 0 0 0 0 0 0 0 0 5661 0 0 0 6690 0 0 0 4906 6690 6690 6690 0 0 6690 7359 7359 0 0 0 0 0 4906 5661 5256 0 0 8177 0 0 0 0 0 0 7359 6690 7359 7359 7359 7359 7359 7359 8177 8177 7359 8177 0 0 0 0 0 0 0 0 0 7359 0 0 0 0 8177 6690 6690 7359 7359 6690 4906 6133 6690 0 78 77 77 0 4599 6133 3504 4088 4906 5256 6133 5661 5661 4599 4329 7359 3873 3066 3199 3873 4599 4599 3679 4906 4599 4599 4599 4906 3873 3873 3873 6133 3199 3345 3345 3504 3504 3873 4599 4906 4599 3873 4906 4599 4906 4906 4906 3873 3679 4088 6690 2943 2830 2830 2725 2830 3345 2943 2830 2830 2830 2537 3199 3199 3199 3066 3345 3345 3199 0 0 3199 3066 3066 0 2830 2628 2725 2830 2830 2628 2537 2453 2537 2453 2453 2299 2164 2102 2044 2044 1887 0 0 0 0 0
    0 0 0 0 0 0 0 0 0 0 0 0 0 0 0 0 0 0 0 0 0 0 0 0 0 0 0 0 0 0 0 0 0 0 0 0 0 0 0 0 0 0 0 0 0 0 0 0 0 0 0 0 0 0 0 0 0 0 0 0 0 0 0 0 0 0 0 0 0 6133 6133 7359 6690 6690 6690 0 7359 6690 8177 0 7359 7359 8177 8177 0 0 0 0 0 0 0 0 0 0 0 0 0 0 0 0 0 0 0 0 7359 7359 5661 6690 8177 0 0 0 0 0 0 0 0 0 0 0 0 0 0 0 0 0 0 0 0 0 0 0 0 0 0 0 0 0 7359 0 0 0 0 0 0 0 0 0 0 0 0 0 0 5256 0 6133 5256 6690 8177 8177 7359 5256 6690 6690 6690 6690 6690 6690 6690 7359 0 0 0 0 0 5256 6133 5661 0 0 0 0 0 0 0 0 0 7359 7359 8177 7359 8177 7359 8177 7359 0 8177 8177 8177 0 0 0 0 0 0 0 0 0 7359 0 0 0 0 0 6690 7359 7359 8177 6690 4906 6133 6690 5256 0 0 0 0 4599 5661 3504 4329 5256 5661 6133 5256 5661 4599 4088 6690 3679 3066 3199 3873 4599 4599 3679 4599 4599 4329 4329 4329 3504 3504 3504 4906 2943 2943 2943 3199 3199 3873 4599 4906 4599 3679 4599 4599 4599 4906 4599 3679 3504 3873 6690 2943 2830 2830 0 0 3504 3345 2830 2830 2943 2537 3199 3199 3199 3066 3345 3345 3199 0 0 3066 2943 2943 0 2725 2628 2725 2725 2830 2628 2453 2453 2537 2453 2374 2230 2102 2044 1989 2044 1887 0 0 0 0 0
    0 0 0 0 0 0 0 0 0 0 0 0 0 0 0 0 0 0 0 0 0 0 0 0 0 0 0 0 0 0 0 0 0 0 0 0 0 0 0 0 0 0 0 0 0 0 0 0 0 0 0 0 0 0 0 0 0 0 0 0 0 0 0 0 0 0 0 0 0 5661 6133 6690 6690 6690 6690 8177 6690 6133 7359 7359 6133 6133 7359 7359 0 0 0 0 0 0 0 0 0 0 0 0 0 0 0 0 0 0 0 0 7359 6690 5661 6690 8177 0 0 0 0 0 0 0 0 0 0 0 0 0 0 0 0 0 0 0 0 0 0 0 0 0 0 0 0 0 7359 0 0 0 8177 0 0 8177 0 0 0 0 0 0 0 6133 0 6133 5256 6690 8177 8177 7359 5661 6690 6690 6690 6690 6690 6690 6690 7359 8177 0 0 0 0 5256 6133 5661 0 0 0 0 0 0 0 0 0 7359 7359 0 8177 8177 8177 8177 8177 0 8177 8177 8177 8177 0 0 0 0 0 0 0 8177 7359 0 0 0 0 0 6690 7359 7359 8177 6690 4906 6133 6133 4906 4906 3679 0 0 4329 5661 3504 4329 4906 5661 5661 4906 5256 3873 3873 6133 3199 2943 3066 3679 4329 4329 3679 4599 4599 4088 4088 3873 3199 3345 3345 3873 2830 2628 2628 2943 2830 3679 4599 4906 4329 3679 0 0 0 0 0 3345 3345 3679 6133 2943 2830 0 0 4599 3873 3504 2830 2943 2943 2537 3199 3199 3199 2943 3345 3345 0 0 0 2943 2830 2830 2830 2628 2453 2537 2537 2628 2374 2230 2453 2628 2537 2299 2164 2044 1989 1936 1989 1887 0 0 0 0 0
    0 0 0 0 0 0 0 0 0 0 0 0 0 0 0 0 0 0 0 0 0 0 0 0 0 0 0 0 0 0 0 0 0 0 0 0 0 0 0 0 0 0 0 0 0 0 0 0 0 0 0 0 0 0 0 0 0 0 0 0 0 0 0 0 0 0 0 0 0 0 0 0 6133 6133 6133 8177 6133 5661 6690 6690 5256 5661 6690 6690 0 0 0 0 0 0 0 0 0 0 0 0 0 0 0 0 0 0 8177 0 6690 6690 5256 6690 7359 0 0 0 0 0 0 0 0 0 0 0 0 0 0 0 0 0 0 0 0 0 0 0 0 0 0 0 0 0 6690 0 0 8177 8177 8177 8177 8177 8177 0 0 0 0 0 0 7359 0 7359 5661 6690 8177 7359 7359 5661 6690 6690 6690 6690 6690 6690 6690 7359 8177 0 7359 7359 7359 5256 5661 5661 0 0 0 0 0 0 0 0 0 8177 7359 0 0 8177 8177 8177 8177 0 8177 7359 8177 7359 8177 0 9199 9199 0 0 0 8177 7359 0 0 0 0 0 6690 7359 7359 8177 6690 4599 6133 5661 4599 4329 3504 3504 3504 4329 0 3504 4329 4906 5256 5661 4906 4906 3679 3679 5661 2943 2725 3066 3504 4088 4088 3504 4599 4599 4329 4088 4088 0 0 3199 3679 2830 2628 2537 2830 2725 3504 4599 4599 4088 0 0 0 0 0 0 3066 3066 3345 4599 2830 2830 0 0 5256 3873 3504 2830 2943 2725 2230 3066 3066 3066 2830 3199 3199 3066 3066 3199 2943 2725 2725 2725 2453 2164 2230 2299 2230 2102 2044 2374 2537 2537 2164 2102 2044 1989 1936 1989 1887 0 0 0 0 0
    0 0 0 0 0 0 0 0 0 0 0 0 0 0 0 0 0 0 0 0 0 0 0 0 0 0 0 0 0 0 0 0 0 0 0 0 0 0 0 0 0 0 0 0 0 0 0 0 0 0 0 0 0 0 0 0 0 0 0 0 0 0 0 0 0 0 0 0 0 0 0 0 6133 5661 0 0 6133 5256 6690 6133 4599 5256 5661 5661 0 0 0 0 0 0 0 0 0 0 0 0 0 0 0 0 0 0 8177 8177 6690 6690 5256 6133 7359 0 0 0 0 0 0 0 0 0 0 0 0 0 0 0 0 0 0 0 0 0 0 0 0 0 0 0 0 0 6690 8177 8177 8177 7359 7359 7359 7359 8177 0 0 0 0 0 0 0 0 0 8177 7359 8177 8177 7359 6133 6690 7359 6690 6690 6690 6690 6690 7359 7359 0 6690 6690 7359 5256 5661 5256 0 0 0 0 0 0 0 0 0 8177 8177 0 0 0 8177 8177 7359 8177 7359 7359 7359 6690 8177 8177 8177 8177 0 0 0 8177 7359 0 0 0 0 0 6690 7359 7359 8177 6690 4329 5661 5256 4088 3873 3345 3345 3345 3873 0 3345 4329 4599 5256 5256 4599 4906 3504 3504 5256 2943 2628 2830 3345 3679 3873 3504 4329 4329 4088 4088 3873 0 0 3199 3504 2830 2628 2537 2725 2628 3345 4329 4599 3873 0 0 0 0 3679 0 2943 2830 3066 3199 2628 2537 2725 0 3199 3504 3066 2628 2725 2374 1989 2725 2830 2830 2453 3066 3199 3066 3066 3066 2830 2628 2628 2537 2299 2044 2102 2044 1989 1936 1989 2164 2453 2453 2102 2102 1989 1989 1989 1989 1887 0 0 0 0 0
    0 0 0 0 0 0 0 0 0 0 0 0 0 0 0 0 0 0 0 0 0 0 0 0 0 0 0 0 0 0 0 0 0 0 0 0 0 0 0 0 0 0 0 0 0 0 0 0 0 0 0 0 0 0 0 0 0 0 0 0 0 0 0 0 0 0 0 0 0 4599 0 0 5661 5661 0 0 5661 5256 6690 5661 4599 4906 5256 5256 7359 8177 0 0 0 0 0 0 0 0 0 0 0 0 0 0 0 0 8177 8177 6133 6133 5256 5661 6690 8177 0 0 0 0 0 0 0 0 0 0 0 0 0 0 0 0 0 0 0 0 0 0 0 0 0 0 0 0 6690 8177 8177 8177 8177 8177 7359 7359 8177 0 0 0 0 0 0 0 0 0 0 0 0 0 8177 6690 7359 7359 7359 7359 7359 6690 6690 7359 7359 6690 6133 6690 6690 5661 6133 5661 0 0 0 0 0 0 0 0 0 8177 8177 0 0 0 8177 8177 0 7359 6690 6133 6690 6133 7359 7359 7359 7359 0 0 0 8177 7359 0 0 0 0 0 6690 7359 7359 7359 6133 3873 5256 4599 0 3504 0 3199 3199 3679 0 0 4088 4599 5256 5256 4329 4599 3504 3504 4906 2830 2453 2628 3066 3345 3679 3345 4088 4088 3873 3679 3679 3066 3066 3066 3199 2830 2628 2453 2628 2537 3199 4088 4088 3679 3345 3679 0 3679 0 0 2830 2628 2830 2830 2453 2164 2374 2164 2628 3066 2830 2299 2453 2044 1887 2299 2537 2537 2164 2628 2943 2830 2943 2943 2725 2453 2453 2374 2102 1989 1989 1989 1936 1887 1936 2044 2230 2230 2044 1989 1936 1936 1936 1936 1839 0 0 0 0 0
    0 0 0 0 0 0 0 0 0 0 0 0 0 0 0 0 0 0 0 0 0 0 0 0 0 0 0 0 0 0 0 0 0 0 0 0 0 0 0 0 0 0 0 0 0 0 0 0 0 0 0 0 0 0 0 0 0 0 0 0 0 0 0 0 0 0 0 0 0 4329 0 0 5256 5256 0 0 5256 4906 6133 5256 4329 4599 4906 4906 6690 6690 8177 0 0 0 0 0 0 0 0 0 0 0 0 0 0 0 8177 7359 6133 6133 4906 5256 6133 7359 8177 8177 0 0 0 0 0 0 0 0 0 0 0 0 0 0 0 0 0 0 0 0 0 0 0 0 0 8177 7359 8177 0 0 8177 8177 8177 8177 8177 0 0 0 0 0 0 0 0 0 0 0 0 0 8177 7359 8177 8177 7359 7359 7359 6690 6690 7359 7359 6690 6133 6690 7359 5661 6690 6133 0 0 0 0 0 0 0 0 0 8177 8177 0 0 0 8177 8177 0 7359 6690 6133 6133 5661 6690 7359 7359 6690 0 8177 8177 6690 6690 7359 8177 8177 7359 7359 6133 6690 6690 6690 6133 3679 4599 4088 0 0 0 3199 3199 3504 0 0 4088 4599 4906 5256 4329 4329 3504 3345 4329 2830 2374 2537 2943 3066 3504 3345 3873 3873 3679 3504 3504 2943 2943 2943 2943 2725 2537 2374 2453 2299 3066 3873 3679 3345 3199 3504 3345 3345 0 0 2628 2453 2628 2537 2299 2044 2102 1887 2299 2830 2628 2044 2164 1887 1839 2044 2230 2164 1989 2044 2628 2628 2725 2830 2537 2164 2164 2164 1989 1936 1936 1936 1887 1887 1887 1989 2044 2044 1936 1936 1887 1887 1887 1887 1839 0 0 0 0 0
    0 0 0 0 0 0 0 0 0 0 0 0 0 0 0 0 0 0 0 0 0 0 0 0 0 0 0 0 0 0 0 0 0 0 0 0 0 0 0 0 0 0 0 0 0 0 0 0 0 0 0 0 0 0 0 0 0 0 0 0 0 0 0 0 0 0 0 0 0 4088 5256 5256 5256 5256 5256 0 4906 4599 5661 4906 4088 4329 4599 4599 5661 6133 7359 8177 8177 0 0 0 0 0 0 0 0 0 0 0 0 0 8177 7359 6133 6133 4906 5256 6133 7359 7359 8177 8177 0 0 0 0 0 0 0 0 0 0 0 0 0 0 0 0 0 0 0 0 0 0 0 0 0 8177 0 0 0 0 0 8177 8177 0 0 0 0 0 0 0 0 0 0 0 0 0 0 8177 8177 8177 8177 8177 7359 7359 6690 6690 7359 7359 6690 6690 6690 7359 6133 7359 6690 0 0 0 0 0 0 0 0 0 8177 8177 0 0 0 0 0 8177 8177 6690 6133 6690 5661 6690 6690 6690 6133 7359 7359 7359 5661 6133 6133 7359 7359 7359 7359 6133 6690 6690 6690 6133 3504 4329 3679 109 0 109 0 3199 3504 0 0 4088 4329 4906 5256 4088 4329 3345 3345 0 2725 2374 2537 2830 2943 3199 3199 3679 3504 3345 3345 3199 2830 2725 2725 2830 2537 2374 2299 2299 2102 2628 3504 3504 3199 3066 3199 3199 3066 0 2725 2537 2230 2453 2230 2164 1989 2044 1887 2044 2102 2164 1887 1936 1839 1795 1887 1989 1936 1887 1887 2230 2299 2537 2628 2230 1936 1989 1989 1936 1887 1887 1839 1839 1839 1839 1887 1887 1936 1839 1839 1839 1839 1839 1839 1795 0 0 0 0 0
    0 0 0 0 0 0 0 0 0 0 0 0 0 0 0 0 0 0 0 0 0 0 0 0 0 0 0 0 0 0 0 0 0 0 0 0 0 0 0 0 0 0 0 0 0 0 0 0 0 0 0 0 0 0 0 0 0 0 0 0 0 0 0 0 0 0 0 0 0 4329 5256 5661 5256 5256 5256 6690 5256 4599 5661 4906 4088 4329 4599 4599 5661 5256 6690 7359 7359 0 0 0 0 0 0 0 0 0 0 0 0 0 8177 8177 6133 6133 4906 5256 6690 7359 7359 7359 8177 0 0 0 0 0 0 0 0 0 0 0 0 0 0 0 0 0 0 0 0 0 0 0 0 0 8177 0 0 0 0 0 8177 8177 0 0 0 0 0 0 0 0 0 0 0 0 0 0 0 0 0 0 0 8177 8177 7359 7359 7359 7359 6690 6690 7359 7359 6690 7359 7359 0 0 0 0 0 0 0 0 0 8177 8177 0 0 0 0 0 9199 8177 6690 6690 6690 5661 6690 6690 6690 5661 6690 6690 6690 4906 6133 5661 6690 6690 7359 7359 6133 6690 7359 7359 6133 3504 4088 0 109 0 0 0 3199 3504 3873 3345 4329 4329 4599 5256 4088 4088 3345 3199 0 2725 2374 2453 2537 2725 3066 3066 3345 3199 3199 3066 3066 2628 2628 2628 2628 2453 2374 2299 2230 2102 2374 0 3066 2830 2628 2725 2725 2725 2725 2537 2299 2102 2164 2044 2044 1936 1989 1887 1989 1936 1936 1839 1839 1795 1795 1839 1839 1839 1839 1795 1936 1989 2164 2164 1989 1887 1887 1887 0 0 1839 1839 1795 1795 1795 1839 1839 1887 1795 1795 1795 1795 1795 1795 1795 0 0 0 0 0
    0 0 0 0 0 0 0 0 0 0 0 0 0 0 0 0 0 0 0 0 0 0 0 0 0 0 0 0 0 0 0 0 0 0 0 0 0 0 0 0 0 0 0 0 0 0 0 0 0 0 0 0 0 0 0 0 0 0 0 0 0 0 0 0 0 0 0 0 0 4329 5256 5256 5256 5256 5256 6133 4906 4329 5256 4906 4088 4329 4599 4599 5256 4906 5661 6690 6690 7359 8177 8177 0 0 0 0 0 0 0 0 0 0 8177 7359 6133 6133 4906 5256 6133 7359 7359 7359 8177 0 0 0 0 0 0 0 0 0 0 0 0 0 0 0 0 0 0 0 0 0 0 0 0 0 8177 0 0 0 0 8177 8177 8177 0 0 0 0 0 0 0 0 0 0 0 0 0 0 0 0 0 0 0 8177 8177 7359 7359 8177 7359 6690 6690 7359 6690 6690 8177 8177 0 0 0 0 0 0 0 0 0 8177 8177 0 0 0 0 0 0 8177 7359 6690 7359 6133 6690 6690 6690 5661 6133 6690 6690 4599 5661 5256 6690 6690 7359 6690 6690 6690 7359 7359 6690 3345 3679 0 109 0 0 3199 3199 3504 4088 3345 4329 4329 4599 4906 4088 4088 3345 3199 3679 2725 2453 2453 2453 2537 2725 2628 3066 2725 2725 2628 2725 2453 2453 2537 2537 2299 2374 2230 2102 2044 2102 2230 2628 2374 2230 2299 2299 2453 2374 2230 2102 1989 2044 1936 1936 1936 1936 1887 1936 1887 1887 1795 1839 1795 1795 1795 1795 1795 1795 1752 1839 1887 1989 1936 1887 1839 1839 1839 0 0 1839 1839 1795 1795 1795 1795 1795 1839 1752 1795 1752 1795 1795 1752 1752 0 0 0 0 0
    0 0 0 0 0 0 0 0 0 0 0 0 0 0 0 0 0 0 0 0 0 0 0 0 0 0 0 0 0 0 0 0 0 0 0 0 0 0 0 0 0 0 0 0 0 0 0 0 0 0 0 0 0 0 0 0 0 0 0 0 0 0 0 0 0 0 0 0 0 4329 5256 5256 4906 4906 4906 6133 4599 4329 5256 4599 4088 4329 4329 4599 4906 4599 5256 6133 5661 6690 7359 6690 6133 0 0 0 0 0 0 0 0 0 8177 7359 6133 6133 4906 4906 6133 6690 6690 7359 7359 8177 0 0 0 0 0 0 0 0 0 0 0 0 0 0 0 0 0 0 0 0 0 0 0 0 8177 0 0 0 0 8177 8177 8177 0 0 0 0 0 0 0 0 0 0 0 0 0 0 0 0 0 0 0 8177 8177 7359 7359 7359 7359 6690 6690 7359 7359 6690 0 0 0 0 0 0 0 0 0 0 0 8177 7359 0 0 0 0 0 0 8177 6690 6690 6690 5661 6690 6690 6690 5661 6133 6690 6690 4599 5661 5256 6690 6690 7359 6690 6133 6133 7359 7359 6690 3345 3345 3199 0 0 0 3345 3345 3679 4088 3504 4599 4329 4329 4906 4088 3873 3199 3066 3199 2628 2374 2374 2230 2374 2453 2299 2453 2230 2299 2299 2374 2374 2299 2374 2299 2164 2374 2164 1936 1989 1936 1936 2164 2044 2044 2044 1989 2230 2102 2102 2044 1989 1989 1936 1936 1887 1936 1887 1936 1839 1839 1795 1839 1795 1795 1795 1752 1752 1795 0 1795 1795 1839 1839 1839 1839 1839 1839 0 0 1839 1839 1795 1795 1795 1795 1795 1839 1752 1752 1752 1795 1752 1752 1752 0 0 0 0 0
    0 0 0 0 0 0 0 0 0 0 0 0 0 0 0 0 0 0 0 0 0 0 0 0 0 0 0 0 0 0 0 0 0 0 0 0 0 0 0 0 0 0 0 0 0 0 0 0 0 0 0 0 0 0 0 0 0 0 0 0 0 0 0 0 0 0 0 0 0 4329 5256 5256 4906 4906 4906 6133 4599 4088 4906 4599 4088 4088 4329 4329 4906 4329 4906 5661 5256 6133 6690 5661 4329 7359 0 0 8177 0 0 0 0 0 8177 8177 8177 7359 5661 5256 6133 6690 6133 6690 6690 7359 0 0 0 0 0 0 0 0 0 0 0 0 0 0 0 0 0 0 0 0 0 0 0 0 8177 0 0 0 0 0 0 8177 0 0 0 0 0 0 0 0 0 0 0 0 0 0 0 0 0 0 0 8177 8177 7359 7359 8177 8177 6690 6690 8177 8177 7359 0 0 0 0 0 0 0 0 0 0 0 7359 6690 8177 0 0 0 0 0 8177 6690 6133 6133 5256 6690 6133 6690 5256 6133 6690 6690 4329 5661 5256 6690 6690 7359 6690 6133 6133 8177 8177 6690 3504 3504 3345 0 3345 0 3345 3345 3679 4329 3504 4599 4329 4329 4906 4088 3873 3199 3066 3066 2537 2299 2299 2164 2164 2164 2164 2230 2044 2102 2102 2102 2164 2102 2164 1989 1936 2299 2044 1752 1887 1795 1839 1936 1887 1936 1936 1936 2102 1989 2044 2044 1989 1989 1887 1936 1887 1887 1887 1887 1795 1795 1752 0 1795 1839 0 0 0 0 0 1839 1795 1795 1795 1795 1795 1839 1839 0 0 1887 1839 1795 1795 1795 1752 1795 1839 1752 1752 1752 1752 1752 1752 1752 0 0 0 0 0
    0 0 0 0 0 0 0 0 0 0 0 0 0 0 0 0 0 0 0 0 0 0 0 0 0 0 0 0 0 0 0 0 0 0 0 0 0 0 0 0 0 0 0 0 0 0 0 0 0 0 0 0 0 0 0 0 0 0 0 0 0 0 0 0 0 0 0 0 0 4599 5256 5661 5256 4906 5256 6133 4599 4088 4906 4599 4088 4088 4329 4329 4906 4329 4906 5661 5256 6133 6690 5256 3873 6133 8177 7359 5661 6133 6690 6690 8177 8177 6690 7359 7359 7359 6133 5661 6690 7359 6133 6690 6690 7359 8177 0 0 0 0 0 0 0 0 0 0 0 0 0 0 0 0 0 0 0 0 0 0 0 7359 0 0 0 0 0 0 8177 0 0 0 0 0 0 0 0 0 0 0 0 0 0 0 0 0 0 8177 8177 7359 7359 7359 8177 8177 6690 6690 0 0 7359 0 0 0 0 0 0 0 0 0 0 0 6690 4906 6690 7359 8177 0 0 0 8177 7359 6133 6690 5256 7359 6690 6690 5256 6690 7359 7359 4329 5661 5256 6690 6690 7359 6690 6133 6133 8177 7359 7359 3873 3504 3345 3504 3345 3345 3504 3345 3873 4329 3679 4906 4599 4329 4906 4088 3873 3066 2943 2943 2537 2299 2299 2102 2164 2164 2164 2164 2044 2044 2044 2044 2102 1989 2102 1936 1887 2044 1989 1711 1887 1795 1839 1887 1887 1887 1887 1887 2044 1936 2044 2044 1989 1989 1887 1936 1887 1887 1887 0 1795 0 0 0 0 0 0 0 0 454 0 1887 1795 1795 1795 1839 1795 1839 1839 1887 0 1887 0 1839 1752 1752 1752 1752 1795 1711 1711 1711 1752 1711 1752 1711 0 0 0 0 0
    0 0 0 0 0 0 0 0 0 0 0 0 0 0 0 0 0 0 0 0 0 0 0 0 0 0 0 0 0 0 0 0 0 0 0 0 0 0 0 0 0 0 0 0 0 0 0 0 0 0 0 0 0 0 0 0 0 0 0 0 0 0 0 0 0 0 0 0 0 4906 5256 5661 5256 5256 5256 6133 4599 3873 4906 4599 4088 4088 4329 4329 4906 4599 4906 5661 5661 6133 6690 5256 4088 5661 7359 6133 4088 3873 4599 4599 5256 6690 4599 5256 6690 6690 6133 5256 6690 7359 6133 6690 6133 6690 7359 8177 0 8177 0 0 0 0 0 0 0 0 0 0 0 0 0 0 0 0 0 7359 8177 8177 6690 0 0 0 8177 0 0 9199 0 0 0 0 0 0 0 0 0 0 0 0 0 0 0 0 0 0 8177 8177 7359 7359 7359 8177 8177 6690 6690 0 8177 6690 0 0 0 0 0 0 0 0 0 0 0 5256 3504 3873 3679 4599 4088 0 0 7359 8177 6690 7359 5661 7359 6690 6690 4906 6690 6690 6690 4329 5661 4906 6133 6690 6690 6133 6133 5661 7359 6690 6690 3873 3504 3504 3679 3504 3345 3504 3504 4088 4906 3873 5256 4599 4599 4906 4329 4088 0 0 2830 2453 2299 2299 2102 2164 2102 2164 2164 2044 2044 2044 2044 2102 1989 2044 1936 1839 1936 1989 1752 1887 1795 1839 1887 1887 1887 1887 1887 2044 1936 2044 1989 1936 1936 1887 1936 0 1887 0 0 0 0 0 462 459 0 465 465 465 457 0 1936 1839 1839 1795 1887 1839 1839 1839 1887 0 0 0 1839 1752 1752 1711 1711 1752 1672 1711 1711 1752 1711 1711 1711 0 0 0 0 0
    0 0 0 0 0 0 0 0 0 0 0 0 0 0 0 0 0 0 0 0 0 0 0 0 0 0 0 0 0 0 0 0 0 0 0 0 0 0 0 0 0 0 0 0 0 0 0 0 0 0 0 0 0 0 0 0 0 0 0 0 0 0 0 0 0 0 0 0 0 5256 5661 5661 5256 5256 5256 6133 4329 3873 4329 4599 4088 4088 4599 4599 5256 4599 5256 6133 5661 6133 6690 5256 4088 5661 6133 4906 3345 3199 3679 3873 3873 4906 3504 4088 6133 6690 6690 4906 6133 6690 5661 6690 5661 5661 5661 7359 7359 6690 0 0 0 0 0 0 0 0 0 0 0 0 0 0 0 8177 8177 4329 5661 7359 6133 0 0 0 8177 0 0 0 0 0 0 0 0 0 0 0 0 0 0 0 0 0 0 0 0 0 8177 7359 7359 0 0 0 0 6690 6690 0 8177 6133 0 0 0 0 0 0 0 0 0 0 0 4906 3066 3199 3066 3066 0 0 0 0 0 0 0 6133 7359 6690 6690 4599 6133 6690 6133 3873 5256 4599 5661 6133 6690 6133 5661 5661 7359 6133 6690 3873 3504 3345 3679 3679 3504 3679 0 4329 5256 4088 5256 4906 4329 0 0 0 0 0 2830 2453 2374 2299 2164 2230 2102 2164 2230 2044 2044 2044 2044 2102 1989 2102 1887 1839 1887 2044 1752 1887 1839 1887 1887 1887 1887 1887 1936 2044 1936 2044 1989 1936 1936 1887 1936 0 1839 0 0 1752 0 0 459 457 0 0 0 465 457 0 1989 1887 1839 1795 1936 1887 1839 1839 1887 0 0 1887 1839 1752 1752 1711 1672 1711 1635 1672 1672 1711 1672 1711 1711 0 0 0 0 0
    0 0 0 0 0 0 0 0 0 0 0 0 0 0 0 0 0 0 0 0 0 0 0 0 0 0 0 0 0 0 0 0 0 0 0 0 0 0 0 0 0 0 0 0 0 0 0 0 0 0 0 0 0 0 0 0 0 0 0 0 0 0 0 0 0 0 0 0 0 5661 5661 6133 5661 5256 5256 6690 4329 3679 4329 4329 3873 3873 4599 4599 4906 4599 5256 6133 5661 6133 6690 5256 4088 5661 5256 4088 3066 3066 3504 3504 3504 4329 3345 3679 5661 6690 6690 4329 6690 5661 4906 6133 5256 5256 4906 7359 7359 6133 0 0 8177 0 0 0 0 0 0 0 0 0 0 0 0 0 0 2830 0 0 0 0 8177 8177 7359 0 0 0 0 0 0 0 0 0 0 0 0 0 0 0 0 0 0 0 0 0 7359 7359 7359 0 0 0 0 0 6690 0 0 6133 0 0 0 0 0 0 0 0 0 0 0 4329 2943 3066 2943 2943 0 0 0 0 0 0 0 0 8177 6690 7359 4906 6133 6690 5661 3679 5256 4599 5661 6133 6690 6133 0 0 8177 6690 6690 4088 3679 0 0 3679 0 0 0 4599 5256 4329 5661 4906 4329 0 0 0 0 0 2725 2453 2374 2299 2164 2164 2102 2164 2230 2102 2044 2044 2102 2102 1989 2102 1936 1839 1887 1936 1752 1887 1839 1887 1936 1936 1936 1936 1936 2102 1936 2044 2044 1936 1936 1839 1887 1795 1839 0 0 0 0 0 0 0 0 0 0 0 0 0 1989 1887 1839 1795 1887 1887 1839 1839 1839 0 1839 1887 1839 1752 1711 1711 1672 1752 1635 1672 1672 1711 1672 1711 1711 0 0 0 0 0
    0 0 0 0 0 0 0 0 0 0 0 0 0 0 0 0 0 0 0 0 0 0 0 0 0 0 0 0 0 0 0 0 0 0 0 0 0 0 0 0 0 0 0 0 0 0 0 0 0 0 0 0 0 0 0 0 0 0 0 0 0 0 0 0 0 0 0 0 0 6133 6133 6690 6133 5661 5661 6690 4599 3873 4329 4599 3873 3873 4599 4599 5256 4906 0 6133 5661 6690 6690 4906 4088 5256 4329 3504 2943 2943 3345 3345 3345 3873 3199 3345 5661 6690 6690 3873 6690 0 0 6690 4906 5256 0 7359 8177 6690 0 7359 8177 0 0 0 0 0 0 0 0 0 0 0 0 0 2628 2164 1989 0 0 0 0 7359 0 0 0 0 0 0 0 0 0 0 0 0 0 0 0 0 0 0 0 0 0 0 7359 7359 0 0 114 0 0 0 0 0 0 6690 0 0 0 0 0 0 0 0 0 0 0 3679 2943 2943 2943 2943 0 0 4599 0 0 0 0 0 8177 6690 7359 5256 6690 6690 6133 3873 5256 4599 5661 6690 0 0 0 0 8177 6690 0 4329 0 0 0 0 0 0 0 5256 5661 4599 0 0 4329 0 0 0 0 0 2725 2453 2374 2230 2102 2164 2102 2164 2230 2102 2102 2102 2102 2164 2044 2164 1936 1839 1887 1936 1752 1936 1887 1936 1989 1989 1989 1989 1989 2164 1936 2044 0 1887 1887 0 0 0 0 0 0 0 0 0 0 0 0 0 0 0 0 0 2044 1887 1887 1839 1989 1887 1839 1839 0 0 0 0 1839 1752 1752 1795 1752 1795 1672 1711 1711 1752 1711 1752 1711 0 0 0 0 0
    0 0 0 0 0 0 0 0 0 0 0 0 0 0 0 0 0 0 0 0 0 0 0 0 0 0 0 0 0 0 0 0 0 0 0 0 0 0 0 0 0 0 0 0 0 0 0 0 0 0 0 0 0 0 0 0 0 0 0 0 0 0 0 0 0 0 0 0 0 6690 6690 7359 6690 5661 5661 6690 4599 3873 4088 0 0 0 0 0 0 4906 0 6690 6133 7359 8177 5661 4599 5256 4088 3199 2943 2830 3199 3199 3066 3504 3199 2943 5256 6133 6133 3345 3679 0 0 0 0 0 0 7359 8177 7359 7359 7359 7359 8177 0 0 0 0 0 0 0 0 0 0 0 0 2628 2044 1936 0 0 0 0 0 0 0 0 0 0 0 0 0 0 0 0 379 0 0 0 0 0 0 0 0 0 0 6690 6690 6690 0 0 0 0 0 0 0 0 0 0 0 0 0 0 0 0 0 0 0 0 3199 2830 2830 2830 2830 0 0 3679 0 0 0 0 0 0 6133 6133 4599 8177 6690 6133 4088 5256 4906 0 0 0 0 153 0 0 0 0 0 0 0 0 0 0 0 0 0 6133 0 0 0 0 0 0 0 0 0 2628 2299 2230 2164 2044 2102 2044 2164 2230 2102 2102 2102 2164 2164 2044 2164 1936 1887 1839 1887 1752 1887 1887 1936 2044 2044 2044 2102 2044 2299 1989 2164 2044 1936 1936 0 0 0 0 0 0 0 0 0 0 0 0 0 0 0 457 0 0 0 0 0 2044 1887 1839 1887 0 0 0 0 1887 0 0 0 0 0 1752 1795 1752 1752 1752 1752 1711 0 0 0 0 0
    0 0 0 0 0 0 0 0 0 0 0 0 0 0 0 0 0 0 0 0 0 0 0 0 0 0 0 0 0 0 0 0 0 0 0 0 0 0 0 0 0 0 0 0 0 0 0 0 0 0 0 0 0 0 0 0 0 0 0 0 0 0 0 0 0 0 0 0 0 0 7359 7359 6690 6133 0 0 0 0 0 0 0 0 0 107 0 0 0 0 0 7359 0 6133 5256 4906 3679 2943 2830 2830 3066 3066 2943 3345 3066 2943 4329 0 0 0 0 0 0 0 0 0 0 0 0 7359 7359 7359 6690 7359 0 0 0 0 0 0 0 0 0 0 0 0 0 1989 0 0 391 387 0 0 0 0 0 0 0 0 0 0 381 375 371 379 381 381 0 0 0 0 0 81 0 0 6133 0 0 0 375 377 0 0 0 0 0 0 0 0 0 0 0 0 0 0 0 0 0 0 2725 2725 2725 2725 2725 2830 2943 2725 0 0 0 0 0 4329 3066 3504 0 7359 6133 0 5661 0 0 0 0 0 153 0 0 0 0 75 0 0 0 0 0 0 362 362 0 369 411 402 0 0 0 0 0 0 2453 2164 2164 2102 2044 2102 2044 2164 2164 2102 2164 2164 2164 2164 2044 2164 1989 1887 1839 1795 1752 1887 0 1936 2044 2102 2299 2374 0 2725 2453 0 0 0 0 2044 0 2044 2044 0 0 0 0 0 261 261 0 260 260 0 0 0 0 0 0 0 1989 1887 0 0 0 0 0 0 0 366 0 0 0 0 0 0 0 1795 1795 1752 1711 0 0 0 0 0
    0 0 0 0 0 0 0 0 0 0 0 0 0 0 0 0 0 0 0 0 0 0 0 0 0 0 0 0 0 0 0 0 0 0 0 0 0 0 0 0 0 0 0 0 0 0 0 0 0 0 0 0 0 0 0 0 0 0 0 0 0 0 0 0 0 0 0 0 0 0 8177 8177 8177 0 377 375 373 379 375 0 0 0 0 0 0 0 0 0 0 0 0 6690 0 4088 3345 2628 2725 2725 2943 2943 2830 3066 2943 0 0 0 73 0 78 0 0 79 78 0 0 0 0 6690 0 6690 0 0 0 0 0 0 0 0 0 171 0 0 0 0 0 0 0 393 391 387 389 387 0 0 385 373 0 0 0 379 381 377 373 377 381 379 381 387 387 0 0 0 0 0 389 389 377 371 375 377 377 375 375 377 377 0 0 0 0 0 0 385 0 0 0 0 371 367 0 2830 2830 2725 0 2830 2943 2537 0 0 0 0 0 0 0 0 377 0 0 371 375 375 0 0 0 0 0 0 0 0 0 0 0 369 0 0 0 0 362 362 367 367 404 397 404 0 0 0 2537 2374 2374 2102 2102 2044 2102 2164 2044 2164 2164 2102 2230 2230 2230 2164 2102 2164 1989 1936 0 1839 1795 0 0 0 0 0 0 2830 0 0 0 364 362 364 364 0 0 0 0 0 375 373 0 0 0 0 0 260 259 0 0 0 0 0 0 0 0 0 0 0 0 0 0 373 371 369 362 0 0 362 360 360 360 0 0 0 0 0 0 0 0 0
    0 0 0 0 0 0 0 0 0 0 0 0 0 0 0 0 0 0 0 0 0 0 0 0 0 0 0 0 0 0 0 0 0 0 0 0 0 0 0 0 0 0 0 0 0 0 0 0 0 0 0 0 0 0 0 0 0 0 0 0 0 0 0 0 0 0 0 0 0 0 0 0 379 381 377 377 375 377 375 375 0 0 0 0 0 0 0 0 0 375 0 0 0 0 3679 0 0 2943 3066 3066 2830 2943 2830 0 0 0 0 0 78 0 78 0 0 0 114 0 114 0 0 0 0 0 0 0 0 0 364 364 0 0 0 0 381 383 389 391 393 391 389 385 387 385 383 387 383 373 375 377 375 377 377 375 371 375 377 377 375 379 379 375 0 0 0 385 383 385 375 371 375 375 375 373 373 375 375 377 383 0 377 383 379 379 377 373 0 0 369 367 366 0 0 0 367 0 0 0 0 0 0 0 0 0 387 377 377 373 373 371 377 375 373 369 373 371 373 371 373 371 371 369 373 371 369 369 0 0 366 364 367 367 379 383 379 0 0 0 2537 2453 2453 2164 2164 2102 2230 2230 2164 2230 2164 2164 2299 2374 2299 2230 2102 2102 0 0 0 0 0 0 0 0 0 0 0 0 0 364 366 366 364 366 364 364 367 366 367 366 369 369 371 369 367 367 366 0 0 366 369 369 0 377 371 377 373 375 379 369 366 369 369 369 369 367 364 359 364 362 360 362 362 359 359 360 360 0 0 0 0 0
    0 0 0 0 0 0 0 0 0 0 0 0 0 0 0 0 0 0 0 0 0 0 0 0 0 0 0 0 0 0 0 0 0 0 0 0 0 0 0 0 0 0 0 0 0 0 0 0 0 0 0 0 0 0 0 0 0 0 0 0 0 0 0 0 0 0 0 0 0 381 379 381 379 381 377 381 377 379 377 377 375 0 0 0 0 0 0 0 377 375 369 369 371 0 367 366 0 0 0 0 0 0 0 0 0 0 0 0 77 77 77 0 0 0 0 373 375 375 373 373 371 373 371 0 369 367 366 366 366 371 373 377 383 385 387 389 389 385 385 379 381 377 375 379 377 373 375 375 375 377 377 375 371 375 377 377 375 377 377 373 375 377 375 379 375 377 373 371 373 375 373 373 373 373 373 375 379 379 373 377 373 375 373 371 369 367 369 367 367 369 367 367 367 369 371 369 375 377 375 375 375 383 379 371 375 371 375 373 377 375 373 371 373 371 373 371 371 371 371 371 373 373 373 371 371 371 367 367 367 367 373 377 375 373 389 0 0 0 2628 2299 0 0 0 0 0 0 2164 2299 0 2537 2374 2230 2044 0 355 359 359 0 0 0 0 0 0 0 0 0 366 364 366 366 366 366 366 366 367 366 367 366 367 367 369 367 367 367 366 367 369 366 369 369 369 371 369 371 369 371 375 369 367 369 369 367 367 367 364 360 362 362 360 362 362 360 359 360 360 0 0 0 0 0
    0 0 0 0 0 0 0 0 0 0 0 0 0 0 0 0 0 0 0 0 0 0 0 0 0 0 0 0 0 0 0 0 0 0 0 0 0 0 0 0 0 0 0 0 0 0 0 0 0 0 0 0 0 0 0 0 0 0 0 0 0 0 0 0 0 0 0 0 0 377 377 379 377 379 379 383 377 379 379 379 375 379 379 379 377 379 381 375 373 377 371 373 373 371 371 371 371 373 371 375 373 375 381 381 385 389 0 0 77 0 0 0 0 377 375 373 375 375 373 373 371 373 371 371 371 369 367 367 369 375 375 379 383 385 387 385 385 379 381 377 377 373 371 373 373 373 373 375 375 375 375 375 371 375 375 377 375 375 377 373 375 375 375 377 373 375 371 371 373 373 373 373 371 373 371 373 377 375 371 373 369 373 371 369 369 367 369 369 369 371 369 369 371 373 373 371 375 375 371 371 371 373 369 366 371 369 373 375 377 375 375 373 375 371 375 371 369 371 371 371 373 371 373 373 371 373 369 369 371 369 373 375 375 375 383 389 377 377 373 373 375 373 375 375 377 381 383 383 379 0 0 367 366 364 364 364 366 366 371 371 367 367 364 367 367 362 366 366 366 367 366 367 366 366 369 366 367 366 367 367 369 369 369 369 367 369 369 367 371 369 371 369 369 369 369 371 373 369 369 369 369 367 369 367 364 362 362 360 360 362 362 360 360 360 362 0 0 0 0 0</data></depth>
</opencv_storage>
