<?xml version="1.0"?>
<opencv_storage>
<gps_time_stamp>27692</gps_time_stamp>
<gps_x>-6.2013950347900391e+000</gps_x>
<gps_y>9.5181179046630859e-001</gps_y>
<gps_z>-1.7226082086563110e+000</gps_z>
<image_time_stamp>15664</image_time_stamp>
<depth type_id="opencv-matrix">
  <rows>89</rows>
  <cols>320</cols>
  <dt>s</dt>
  <data>
    0 0 0 0 0 0 0 0 0 0 0 0 0 0 0 0 0 0 0 0 0 0 0 0 0 0 0 0 0 0 0 0 0 0 0 0 0 0 0 0 0 0 0 0 0 0 0 0 0 0 0 0 0 0 0 0 0 0 0 0 0 0 0 0 0 0 0 0 0 886 897 876 886 865 836 845 865 865 855 876 865 876 886 886 897 897 919 908 897 908 897 886 897 908 865 876 931 908 931 897 886 886 886 886 886 886 886 886 919 931 919 919 919 919 931 919 908 897 865 0 0 886 876 855 876 886 886 886 897 919 908 919 955 943 931 943 943 955 931 943 955 943 897 943 931 931 931 931 931 919 919 955 897 886 886 876 865 876 855 865 908 919 919 931 931 955 943 955 955 943 931 955 931 931 886 919 919 931 908 943 955 931 943 955 968 968 968 968 968 968 994 994 994 981 994 994 1008 1008 1008 1008 994 994 994 981 981 981 981 994 1008 981 994 994 968 981 943 955 943 919 931 919 919 919 897 919 897 886 919 886 876 897 919 931 908 908 919 908 919 919 908 876 897 943 855 826 836 817 845 836 836 836 826 826 826 826 836 826 826 826 826 865 855 876 908 897 897 886 886 876 865 855 865 865 865 876 876 876 876 865 886 897 886 0 886 0 0 0 0 0 669 663 651 645 629 613 598 598 598 593 588 584 584 584 588 598 593 593 865 876 931 919 919 897 908 943 1051 0 0 0 0 0
    0 0 0 0 0 0 0 0 0 0 0 0 0 0 0 0 0 0 0 0 0 0 0 0 0 0 0 0 0 0 0 0 0 0 0 0 0 0 0 0 0 0 0 0 0 0 0 0 0 0 0 0 0 0 0 0 0 0 0 0 0 0 0 0 0 0 0 0 0 876 876 865 876 855 836 845 865 865 855 876 876 876 886 886 897 897 908 908 886 908 886 886 886 897 865 865 919 897 919 886 876 886 886 876 876 876 886 876 897 919 897 897 886 886 876 876 876 865 845 0 0 865 865 855 876 886 876 886 886 919 908 919 955 943 931 943 943 955 931 943 955 943 897 943 919 931 919 919 919 908 908 943 886 886 886 876 855 876 855 855 897 908 908 919 919 943 931 943 943 919 908 931 908 908 865 897 886 897 876 919 931 908 931 943 943 943 943 955 955 943 968 955 955 955 981 981 1008 994 994 994 981 981 981 968 968 968 955 981 981 968 981 981 968 981 931 943 943 908 931 919 908 908 897 919 897 886 919 886 886 897 931 919 897 897 897 886 886 886 865 845 845 865 836 817 826 826 855 845 845 836 836 836 836 836 836 826 836 826 826 855 855 876 897 897 886 876 886 876 865 855 865 865 865 865 876 865 876 876 886 897 897 897 897 865 0 0 886 865 0 675 645 639 623 608 584 588 588 588 579 584 579 579 584 593 579 584 865 876 931 931 919 886 886 908 0 0 0 0 0 0
    0 0 0 0 0 0 0 0 0 0 0 0 0 0 0 0 0 0 0 0 0 0 0 0 0 0 0 0 0 0 0 0 0 0 0 0 0 0 0 0 0 0 0 0 0 0 0 0 0 0 0 0 0 0 0 0 0 0 0 0 0 0 0 0 0 0 0 0 0 865 865 855 855 845 836 845 855 865 855 876 876 886 886 886 897 886 908 919 876 897 886 886 886 886 865 865 908 876 919 876 865 876 876 876 876 876 886 865 886 908 886 886 876 876 865 865 865 865 0 0 845 855 865 855 876 876 876 876 876 908 908 919 943 931 931 943 943 955 931 931 955 943 897 931 919 919 908 908 908 897 897 931 876 876 865 865 855 865 845 855 897 908 908 908 919 943 919 931 943 908 897 908 897 897 855 886 865 876 855 876 897 876 908 919 919 919 931 931 931 931 955 943 943 955 968 981 1008 994 994 994 968 981 968 968 955 943 943 955 968 968 968 955 968 981 931 943 943 919 931 919 919 908 897 919 886 886 919 886 876 897 931 908 886 897 886 876 865 865 855 836 845 845 836 826 826 826 855 836 845 836 836 836 836 836 836 826 845 836 845 855 855 876 886 886 886 865 876 865 855 855 865 855 865 876 876 865 876 876 886 897 897 897 886 876 886 886 897 876 865 0 675 639 618 603 579 588 584 584 579 579 579 579 584 598 584 584 876 876 931 931 908 876 886 886 919 0 0 0 0 0
    0 0 0 0 0 0 0 0 0 0 0 0 0 0 0 0 0 0 0 0 0 0 0 0 0 0 0 0 0 0 0 0 0 0 0 0 0 0 0 0 0 0 0 0 0 0 0 0 0 0 0 0 0 0 0 0 0 0 0 0 0 0 0 0 0 0 0 0 0 855 855 845 845 845 836 845 855 865 855 876 876 876 886 886 886 886 897 919 876 897 876 876 876 876 865 855 897 865 908 865 865 876 876 876 876 865 876 855 876 897 865 876 865 855 855 865 876 886 0 0 855 865 865 865 876 876 865 876 876 897 897 908 931 908 919 931 931 955 943 931 955 943 886 931 908 919 908 908 897 886 886 919 865 865 855 855 845 855 845 845 886 897 908 897 908 931 908 931 931 908 886 897 886 886 855 886 855 845 836 865 876 876 897 908 897 908 908 919 919 919 943 919 931 955 955 968 994 968 981 968 943 968 955 943 943 919 931 931 943 955 943 943 943 968 919 943 943 908 919 908 908 897 897 919 886 886 908 876 876 886 908 886 876 886 865 865 845 845 845 836 845 836 836 836 836 836 845 836 845 836 836 836 836 836 836 826 845 836 845 845 845 876 876 876 865 855 855 855 845 855 845 855 865 865 876 865 876 876 886 897 897 886 886 876 886 897 897 876 865 855 0 0 618 598 574 588 588 584 579 579 579 579 584 598 588 0 876 876 919 919 919 876 886 897 908 0 0 0 0 0
    0 0 0 0 0 0 0 0 0 0 0 0 0 0 0 0 0 0 0 0 0 0 0 0 0 0 0 0 0 0 0 0 0 0 0 0 0 0 0 0 0 0 0 0 0 0 0 0 0 0 0 0 0 0 0 0 0 0 0 0 0 0 0 0 0 0 0 0 0 855 855 845 845 845 836 845 855 855 855 876 865 876 876 876 886 876 886 919 855 886 865 865 855 855 855 845 886 855 897 865 855 876 865 865 865 865 865 0 0 886 855 865 865 855 855 865 886 886 0 865 855 865 876 876 886 876 876 876 876 886 886 897 908 897 919 919 931 955 943 919 955 943 886 919 908 908 897 897 897 886 886 919 865 865 855 855 845 855 836 845 876 886 897 886 897 919 897 908 919 897 876 876 886 886 855 876 855 845 836 855 876 865 886 886 876 886 886 897 897 897 919 897 919 943 955 968 981 968 981 955 919 955 943 931 919 886 908 897 908 931 908 897 897 919 886 919 919 886 908 897 897 886 886 908 876 876 897 865 865 865 886 855 845 845 845 836 836 836 836 826 836 836 836 836 836 836 845 836 845 836 836 836 826 836 0 826 845 826 836 836 826 855 855 865 855 845 845 845 845 845 845 855 855 865 876 865 876 876 886 897 897 886 886 876 886 897 897 876 865 0 0 0 613 598 570 588 584 584 579 579 584 579 579 603 593 0 876 876 897 908 897 865 876 886 886 0 0 0 0 0
    0 0 0 0 0 0 0 0 0 0 0 0 0 0 0 0 0 0 0 0 0 0 0 0 0 0 0 0 0 0 0 0 0 0 0 0 0 0 0 0 0 0 0 0 0 0 0 0 0 0 0 0 0 0 0 0 0 0 0 0 0 0 0 0 0 0 0 0 0 855 845 836 836 836 826 845 845 855 845 865 865 865 876 876 886 876 886 919 855 876 845 855 845 836 845 836 855 845 886 855 855 865 865 865 865 865 865 0 0 865 845 855 855 845 845 865 886 886 0 865 855 865 876 876 886 876 876 876 865 886 876 886 876 876 897 886 908 931 919 886 931 908 865 897 886 897 886 886 886 876 886 919 865 865 855 865 855 855 845 845 865 876 886 876 886 897 886 897 908 886 876 876 886 886 855 876 855 845 836 845 855 865 876 876 865 865 876 886 886 886 897 876 897 931 955 968 968 955 955 908 886 908 897 897 886 855 876 865 886 908 876 876 876 876 876 908 908 876 897 897 886 876 886 908 865 865 886 845 845 845 855 826 826 826 826 826 817 817 826 826 826 826 836 836 836 836 836 826 836 836 836 836 826 836 836 836 845 836 845 826 826 845 845 855 845 836 845 845 836 845 845 855 855 865 876 865 876 876 886 897 897 886 886 886 897 897 886 876 855 0 0 0 0 603 566 588 584 584 579 579 584 579 574 603 588 584 876 865 886 897 886 855 865 876 865 0 0 0 0 0
    0 0 0 0 0 0 0 0 0 0 0 0 0 0 0 0 0 0 0 0 0 0 0 0 0 0 0 0 0 0 0 0 0 0 0 0 0 0 0 0 0 0 0 0 0 0 0 0 0 0 0 0 0 0 0 0 0 0 0 0 0 0 0 0 0 0 0 0 0 845 845 836 826 826 826 836 836 836 836 855 855 865 865 865 876 865 876 908 836 855 826 845 836 826 836 826 836 836 865 855 845 865 855 855 865 855 865 845 855 855 836 836 836 836 826 845 855 865 0 0 0 855 855 865 865 865 865 876 865 876 865 865 855 855 865 855 876 876 886 865 897 886 855 876 876 876 876 865 876 865 876 897 865 855 855 855 855 855 845 836 855 865 876 865 876 886 876 886 897 886 876 865 876 876 845 865 845 826 826 836 845 855 865 865 845 855 855 865 876 865 876 865 886 919 919 943 908 886 897 855 845 845 845 855 855 836 865 855 876 886 865 865 865 865 876 897 897 876 897 897 886 876 886 897 865 865 876 845 836 836 836 817 817 826 817 817 808 817 826 826 826 826 826 836 826 826 836 817 826 817 836 836 826 826 826 826 845 836 845 836 826 845 845 845 845 836 836 845 836 845 845 855 855 865 886 865 876 876 897 897 897 886 886 886 897 897 886 865 855 0 0 0 0 598 561 584 579 579 574 574 584 574 570 603 584 579 0 865 876 876 876 845 855 865 855 0 0 0 0 0
    0 0 0 0 0 0 0 0 0 0 0 0 0 0 0 0 0 0 0 0 0 0 0 0 0 0 0 0 0 0 0 0 0 0 0 0 0 0 0 0 0 0 0 0 0 0 0 0 0 0 0 0 0 0 0 0 0 0 0 0 0 0 0 0 0 0 0 0 0 845 836 826 826 826 826 826 826 836 826 855 855 855 865 855 876 865 865 886 826 845 817 836 826 817 826 799 817 826 855 845 845 855 845 855 855 855 855 836 845 836 826 817 817 808 808 817 817 0 0 0 0 0 845 855 855 855 855 876 865 876 865 855 836 836 836 826 845 836 855 845 865 865 845 865 855 855 855 855 855 855 855 886 855 855 845 855 845 845 836 826 836 845 855 845 855 865 865 876 876 865 855 855 865 865 836 845 836 826 826 836 845 845 845 845 826 845 845 855 855 855 855 855 865 908 897 897 855 836 845 826 826 817 817 817 845 826 855 845 865 876 865 855 855 855 865 886 886 865 886 886 876 876 876 886 855 855 865 836 836 826 826 817 817 826 817 817 817 817 826 817 826 817 826 826 826 826 826 817 817 817 826 826 817 826 826 826 836 836 845 826 826 845 836 845 836 826 836 836 826 836 845 855 855 865 897 865 876 876 876 886 886 876 876 876 886 886 876 865 855 0 0 0 0 598 557 584 579 574 574 574 579 574 570 603 579 574 0 855 865 865 865 845 855 855 845 0 0 0 0 0
    0 0 0 0 0 0 0 0 0 0 0 0 0 0 0 0 0 0 0 0 0 0 0 0 0 0 0 0 0 0 0 0 0 0 0 0 0 0 0 0 0 0 0 0 0 0 0 0 0 0 0 0 0 0 0 0 0 0 0 0 0 0 0 0 0 0 0 0 0 826 826 817 817 817 817 817 817 826 826 845 845 855 855 855 876 865 855 876 826 845 799 791 791 782 799 774 799 799 826 836 826 836 836 845 855 845 845 826 836 826 817 808 799 799 791 799 799 0 0 0 0 0 836 855 855 855 855 876 876 876 865 855 826 826 808 808 826 817 836 836 845 855 836 845 845 845 845 845 845 845 845 865 845 836 836 845 836 826 817 817 817 826 836 826 845 855 855 855 855 855 845 845 855 855 836 845 836 826 826 826 826 836 826 836 808 826 836 845 855 845 855 845 855 897 876 865 826 817 826 808 808 799 799 799 826 817 845 836 855 865 855 855 855 855 865 876 876 855 876 876 865 865 876 876 845 855 855 826 826 826 817 808 808 817 808 808 808 808 817 817 817 817 817 817 817 826 826 817 817 817 826 826 817 817 817 817 826 826 836 826 826 836 836 845 836 836 836 836 826 836 845 845 865 865 886 865 876 865 865 876 876 865 876 865 876 876 876 865 845 0 0 0 0 588 557 579 574 570 574 570 579 570 566 603 566 566 0 845 845 845 845 826 826 826 826 0 0 0 0 0
    0 0 0 0 0 0 0 0 0 0 0 0 0 0 0 0 0 0 0 0 0 0 0 0 0 0 0 0 0 0 0 0 0 0 0 0 0 0 0 0 0 0 0 0 0 0 0 0 0 0 0 0 0 0 0 0 0 0 0 0 0 0 0 0 0 0 0 0 0 817 817 808 808 808 808 817 817 826 817 826 836 845 855 855 865 855 836 845 817 808 766 750 758 750 774 750 782 782 799 817 817 826 826 826 845 845 845 826 826 817 808 799 791 782 782 791 791 0 0 0 0 0 836 845 845 845 845 876 876 876 855 845 826 817 799 791 808 791 817 826 836 845 826 836 836 826 826 826 826 826 826 826 826 817 826 826 817 817 808 808 808 817 817 817 836 836 836 845 845 845 836 836 836 836 826 826 826 817 826 817 817 817 817 817 799 826 836 845 845 845 845 845 855 876 855 836 817 808 817 799 799 791 791 782 817 808 836 836 855 855 855 855 855 855 865 865 865 855 865 865 865 865 876 865 845 845 845 826 817 817 808 791 791 808 799 791 799 799 808 808 808 808 817 817 808 817 826 817 817 808 826 817 808 817 808 808 817 826 826 826 826 836 836 836 836 836 836 826 826 826 836 845 855 855 865 855 865 845 855 855 865 855 865 865 865 865 865 855 845 0 0 0 0 584 561 579 579 570 574 574 584 570 574 603 570 0 817 817 817 817 817 799 791 799 799 0 0 0 0 0
    0 0 0 0 0 0 0 0 0 0 0 0 0 0 0 0 0 0 0 0 0 0 0 0 0 0 0 0 0 0 0 0 0 0 0 0 0 0 0 0 0 0 0 0 0 0 0 0 0 0 0 0 0 0 0 0 0 0 0 0 0 0 0 0 0 0 0 0 0 808 817 799 808 808 808 808 808 817 808 817 826 836 836 836 845 836 817 817 799 766 750 735 743 743 758 743 774 766 791 799 799 808 817 817 845 836 826 817 808 808 791 782 774 766 766 774 774 799 0 0 0 0 826 836 836 845 836 865 865 876 855 845 836 826 817 808 808 791 817 817 826 836 808 817 826 826 817 817 808 817 808 817 817 817 817 817 808 817 808 808 808 808 817 808 826 826 826 826 836 826 826 826 826 817 817 817 817 817 817 808 808 808 817 808 791 808 817 836 836 836 836 836 845 876 855 836 817 817 817 808 799 791 791 774 808 799 836 826 845 855 845 845 845 845 865 855 855 845 855 865 855 855 865 865 836 836 836 817 817 808 799 791 782 808 791 799 799 791 808 808 808 817 817 817 808 808 817 808 808 808 808 808 799 808 808 808 808 817 826 826 817 826 826 826 826 826 826 826 817 817 826 836 845 845 855 845 845 836 836 845 855 845 855 855 855 855 845 826 826 791 0 0 0 584 566 584 579 574 574 574 584 570 579 603 579 0 799 808 808 808 808 791 774 791 791 0 0 0 0 0
    0 0 0 0 0 0 0 0 0 0 0 0 0 0 0 0 0 0 0 0 0 0 0 0 0 0 0 0 0 0 0 0 0 0 0 0 0 0 0 0 0 0 0 0 0 0 0 0 0 0 0 0 0 0 0 0 0 0 0 0 0 0 0 0 0 0 0 0 0 799 808 799 799 808 799 799 799 808 799 808 808 808 808 808 817 808 782 799 774 743 743 728 735 735 750 735 766 766 774 782 791 799 808 808 826 826 817 799 799 799 774 774 758 758 758 774 758 791 766 0 791 0 808 817 826 836 826 855 865 865 855 845 836 836 817 808 808 791 808 817 817 826 791 808 817 817 808 808 808 808 799 817 817 808 817 817 808 808 808 817 808 808 808 799 817 817 817 817 817 817 817 817 817 808 808 808 817 808 808 808 791 799 799 782 774 799 799 817 817 826 826 826 845 865 855 836 826 826 826 817 808 799 791 782 808 799 826 817 836 836 836 836 836 826 845 836 836 826 836 845 845 855 865 855 836 836 826 817 817 808 799 791 782 799 791 791 799 791 799 799 791 808 808 808 808 799 808 808 808 808 808 808 799 799 808 808 799 808 817 817 817 817 817 817 817 826 826 826 817 817 817 826 836 0 0 817 817 817 817 826 826 836 826 826 826 836 817 799 782 750 0 0 598 579 570 579 579 574 574 574 584 570 584 603 574 808 791 799 791 791 782 774 758 774 774 0 0 0 0 0
    0 0 0 0 0 0 0 0 0 0 0 0 0 0 0 0 0 0 0 0 0 0 0 0 0 0 0 0 0 0 0 0 0 0 0 0 0 0 0 0 0 0 0 0 0 0 0 0 0 0 0 0 0 0 0 0 0 0 0 0 0 0 0 0 0 0 0 0 0 799 808 791 799 799 799 791 799 799 791 791 799 791 782 782 791 774 758 774 766 750 743 735 743 735 750 743 766 758 766 774 774 782 791 791 817 799 791 791 782 791 782 774 766 774 766 774 758 791 758 782 791 799 799 808 808 826 817 845 855 855 845 845 836 826 817 808 799 782 808 817 817 826 774 799 808 808 799 799 791 791 782 808 799 791 808 808 799 799 799 808 808 808 808 799 817 817 808 808 808 808 808 808 808 799 808 808 808 808 799 791 774 782 791 766 758 782 782 808 799 808 817 817 826 845 845 826 817 826 826 826 817 808 799 791 808 799 817 817 817 826 826 826 826 817 826 826 817 817 817 826 836 845 855 845 826 836 826 817 808 808 799 782 782 799 782 791 791 791 791 799 782 799 791 799 791 774 791 799 791 799 808 808 799 799 808 808 799 808 808 817 817 817 817 817 817 826 826 826 817 808 817 826 826 817 817 799 799 808 799 799 808 808 791 799 799 791 774 766 743 735 0 0 593 574 570 579 579 574 574 574 584 570 588 598 574 799 774 782 758 758 750 743 743 750 750 0 0 0 0 0
    0 0 0 0 0 0 0 0 0 0 0 0 0 0 0 0 0 0 0 0 0 0 0 0 0 0 0 0 0 0 0 0 0 0 0 0 0 0 0 0 0 0 0 0 0 0 0 0 0 0 0 0 0 0 0 0 0 0 0 0 0 0 0 0 0 0 0 0 0 799 808 791 799 799 799 791 791 791 791 791 799 782 766 774 774 766 750 758 750 743 743 735 743 735 750 743 766 766 766 766 766 774 782 782 799 766 766 774 774 782 782 766 766 766 766 774 750 782 758 774 791 791 791 799 799 817 808 836 845 845 845 845 836 826 817 808 799 791 808 817 817 826 766 791 799 799 791 791 782 782 774 791 782 774 782 791 782 791 791 808 808 799 799 799 808 799 799 799 799 799 799 808 799 791 799 799 799 799 782 782 758 766 774 750 750 766 766 791 782 791 799 799 817 826 826 817 817 826 826 826 817 808 799 799 799 799 808 808 817 817 817 817 817 817 817 817 808 808 817 826 836 845 855 845 826 836 826 817 808 799 791 782 782 799 782 782 791 791 791 791 766 791 774 782 782 758 782 799 791 817 817 817 808 808 826 817 817 826 817 826 817 817 817 817 817 817 826 817 808 808 817 817 817 808 808 791 799 799 791 791 791 791 774 774 782 774 758 758 735 728 0 579 593 570 574 579 579 574 574 574 579 570 588 593 566 808 774 782 758 758 743 743 735 743 743 0 0 0 0 0
    0 0 0 0 0 0 0 0 0 0 0 0 0 0 0 0 0 0 0 0 0 0 0 0 0 0 0 0 0 0 0 0 0 0 0 0 0 0 0 0 0 0 0 0 0 0 0 0 0 0 0 0 0 0 0 0 0 0 0 0 0 0 0 0 0 0 0 0 0 799 808 799 799 799 799 791 791 791 791 791 791 774 766 774 774 774 758 758 750 743 743 735 735 728 743 743 766 758 766 766 766 766 782 774 799 750 750 766 766 774 774 758 750 758 750 766 743 774 750 774 782 791 791 791 791 808 799 826 836 836 836 836 836 826 826 808 808 799 808 817 808 817 758 782 791 791 782 782 774 774 758 791 774 766 774 782 774 782 782 799 799 791 799 799 808 791 791 791 791 791 791 791 791 782 791 791 791 782 774 774 750 766 766 743 750 758 766 774 758 782 791 791 808 808 808 808 808 817 817 817 808 808 799 791 799 799 799 808 808 808 817 808 808 817 817 808 808 799 808 817 826 845 855 845 826 836 826 817 808 799 791 782 774 791 774 782 782 791 774 774 750 766 750 774 766 750 766 791 782 799 791 791 799 791 808 808 799 817 817 826 817 808 808 808 808 817 826 817 808 799 808 808 808 799 799 791 791 791 791 774 774 774 750 758 766 774 758 743 728 721 0 579 593 566 574 579 574 574 574 574 579 566 593 588 570 808 782 774 758 758 750 743 735 743 743 0 0 0 0 0
    0 0 0 0 0 0 0 0 0 0 0 0 0 0 0 0 0 0 0 0 0 0 0 0 0 0 0 0 0 0 0 0 0 0 0 0 0 0 0 0 0 0 0 0 0 0 0 0 0 0 0 0 0 0 0 0 0 0 0 0 0 0 0 0 0 0 0 0 0 791 808 799 799 799 799 791 791 791 791 782 791 774 774 774 782 782 766 758 758 735 735 735 728 721 735 735 758 758 766 766 766 766 782 782 799 750 750 758 758 766 766 750 750 758 750 766 743 774 750 774 782 791 782 791 791 808 799 826 826 826 826 836 826 826 826 808 808 799 817 817 808 817 750 774 782 782 774 766 766 766 750 782 766 766 774 782 774 782 782 799 799 791 799 799 799 782 782 782 782 782 782 782 774 766 791 782 791 782 774 774 750 758 766 750 758 766 774 774 750 774 791 791 799 791 799 791 799 817 817 808 808 799 808 799 799 799 799 799 799 799 808 808 799 808 808 799 799 799 808 808 826 845 855 845 826 836 826 817 799 799 791 782 774 791 774 774 782 782 766 766 743 750 743 750 743 743 743 766 774 791 782 774 782 782 799 808 799 799 799 817 817 799 799 799 799 808 817 799 799 791 799 799 799 799 791 782 799 791 791 758 750 750 735 750 758 758 750 735 721 0 603 584 593 566 579 579 574 574 574 574 579 566 593 584 579 799 766 750 743 743 743 735 735 743 743 0 0 0 0 0
    0 0 0 0 0 0 0 0 0 0 0 0 0 0 0 0 0 0 0 0 0 0 0 0 0 0 0 0 0 0 0 0 0 0 0 0 0 0 0 0 0 0 0 0 0 0 0 0 0 0 0 0 0 0 0 0 0 0 0 0 0 0 0 0 0 0 0 0 0 774 791 791 799 799 799 782 791 791 791 782 791 774 766 766 774 774 774 758 750 735 728 728 728 721 735 735 758 758 766 758 766 766 774 774 791 743 735 743 750 758 758 750 743 750 750 758 735 766 743 774 782 791 782 791 791 799 791 826 817 817 817 826 826 826 826 808 808 808 817 817 808 817 743 774 774 774 774 766 766 766 750 782 766 766 774 782 782 782 782 799 799 791 799 799 799 774 774 774 774 774 774 774 774 758 782 782 782 774 766 774 750 758 758 750 766 766 774 774 750 774 782 791 799 782 791 791 791 808 808 808 799 799 799 791 791 791 782 791 782 782 799 791 791 799 799 799 791 791 799 808 826 855 855 845 836 836 826 817 799 799 782 774 766 782 766 774 774 782 766 750 743 758 735 743 735 735 735 750 766 758 750 735 743 750 774 799 782 774 799 817 817 799 799 799 799 799 808 791 791 791 799 799 791 791 782 774 791 791 791 743 743 750 735 758 766 766 750 735 714 675 603 588 598 566 579 579 574 574 574 574 574 566 598 584 0 782 758 743 743 743 743 735 735 743 750 0 0 0 0 0
    0 0 0 0 0 0 0 0 0 0 0 0 0 0 0 0 0 0 0 0 0 0 0 0 0 0 0 0 0 0 0 0 0 0 0 0 0 0 0 0 0 0 0 0 0 0 0 0 0 0 0 0 0 0 0 0 0 0 0 0 0 0 0 0 0 0 0 0 0 743 758 774 782 782 782 766 774 782 782 782 782 766 758 758 766 766 766 743 743 728 728 728 721 721 735 735 750 750 766 758 758 766 774 774 782 735 735 743 750 758 750 750 743 743 743 750 735 758 735 766 782 782 782 782 782 799 782 817 791 766 782 799 799 808 808 799 808 808 817 817 808 808 735 766 766 766 766 766 758 758 750 782 766 774 774 782 782 782 782 791 799 791 799 799 799 766 766 774 774 774 766 774 766 758 782 782 782 766 766 774 750 758 758 750 758 758 774 758 743 766 782 791 791 782 791 791 799 808 808 808 799 791 799 791 782 782 766 774 758 766 791 774 782 791 791 791 791 791 799 799 826 845 855 845 836 836 826 826 782 791 782 774 758 774 758 766 766 774 758 743 735 758 743 743 743 743 743 750 766 758 743 728 735 735 743 758 758 750 766 808 826 799 799 791 791 791 808 782 782 782 791 791 782 782 782 766 782 774 766 735 728 743 735 758 766 774 758 743 714 675 608 598 598 566 584 584 579 579 574 579 574 570 603 593 0 774 758 743 743 743 750 735 735 750 750 0 0 0 0 0
    0 0 0 0 0 0 0 0 0 0 0 0 0 0 0 0 0 0 0 0 0 0 0 0 0 0 0 0 0 0 0 0 0 0 0 0 0 0 0 0 0 0 0 0 0 0 0 0 0 0 0 0 0 0 0 0 0 0 0 0 0 0 0 0 0 0 0 0 0 728 728 750 750 758 758 750 766 766 774 774 774 766 758 758 766 774 774 743 743 728 728 728 721 721 728 728 750 750 766 758 758 758 766 774 782 735 735 743 750 750 750 750 735 743 743 750 728 743 728 758 774 774 766 766 766 791 774 808 758 735 743 766 774 791 791 791 799 799 808 808 808 782 735 766 758 758 758 758 750 750 750 782 750 766 758 774 774 774 774 782 791 791 791 799 799 766 766 766 766 774 766 774 766 758 782 774 782 758 758 766 750 758 758 758 766 758 774 766 750 766 782 782 791 782 782 791 799 808 808 808 799 791 799 791 782 774 758 766 750 758 782 758 774 782 782 791 791 791 799 799 826 836 845 836 836 836 826 826 766 791 782 782 758 766 758 766 758 782 750 743 735 758 743 758 750 750 743 750 766 758 735 728 728 728 735 743 743 735 735 782 799 782 782 774 774 766 791 758 766 766 782 782 774 766 766 750 774 758 750 721 714 735 728 750 758 782 750 735 714 651 608 603 598 570 584 584 579 579 574 579 574 574 603 588 0 766 743 735 735 743 743 728 728 735 735 0 0 0 0 0
    0 0 0 0 0 0 0 0 0 0 0 0 0 0 0 0 0 0 0 0 0 0 0 0 0 0 0 0 0 0 0 0 0 0 0 0 0 0 0 0 0 0 0 0 0 0 0 0 0 0 0 0 0 0 0 0 0 0 0 0 0 0 0 0 0 0 0 0 0 714 707 721 721 728 728 728 735 750 758 758 758 758 750 750 758 766 774 735 743 728 721 728 721 721 728 728 743 743 758 758 750 758 758 766 766 728 728 735 743 743 750 750 735 743 743 743 721 728 721 743 750 758 750 750 750 782 758 791 728 721 728 728 735 750 750 758 774 791 791 799 799 766 735 758 750 750 750 750 743 743 743 774 735 750 743 758 758 758 766 766 782 782 782 791 799 758 758 766 766 774 766 766 766 750 774 774 782 750 758 766 750 758 758 758 766 758 774 766 758 766 774 782 782 774 782 782 791 808 808 808 799 791 799 782 774 774 758 758 750 750 782 750 782 782 791 791 791 791 799 799 817 817 826 826 826 826 817 817 743 782 782 782 758 766 758 758 750 774 743 743 735 750 750 750 750 758 743 750 758 758 735 728 728 728 735 743 735 735 728 766 774 750 750 735 735 735 750 728 743 750 766 774 758 750 758 743 758 750 735 721 714 728 735 743 758 782 743 721 694 629 608 603 593 570 584 584 574 579 574 574 570 574 598 579 0 758 743 735 728 735 735 721 721 721 714 0 0 0 0 0
    0 0 0 0 0 0 0 0 0 0 0 0 0 0 0 0 0 0 0 0 0 0 0 0 0 0 0 0 0 0 0 0 0 0 0 0 0 0 0 0 0 0 0 0 0 0 0 0 0 0 0 0 0 0 0 0 0 0 0 0 0 0 0 0 0 0 0 0 0 707 700 714 707 714 714 714 728 735 750 743 743 743 743 743 750 750 758 728 735 721 721 721 714 721 721 728 743 735 750 750 750 750 750 750 750 721 728 728 735 728 735 735 721 728 735 728 714 721 721 728 735 743 735 735 735 766 735 766 707 707 714 714 721 728 721 728 735 743 743 758 758 735 728 743 735 735 735 735 735 735 735 750 728 735 728 743 743 743 743 750 758 750 758 774 774 750 750 758 758 766 758 758 750 750 766 750 766 743 743 750 743 750 750 750 758 758 774 758 750 766 774 774 774 758 774 774 782 791 799 799 791 782 791 774 766 758 750 750 743 750 782 750 782 782 791 791 791 791 791 791 817 817 817 817 808 808 791 791 728 774 774 774 750 758 758 758 750 774 735 735 735 750 743 743 750 750 743 758 766 774 743 735 735 735 735 743 735 735 728 758 743 728 728 714 707 714 721 714 728 735 750 758 743 735 743 735 750 743 728 721 714 728 735 735 743 758 728 707 663 623 608 608 588 570 584 584 574 579 574 574 570 579 593 579 0 750 735 728 728 735 728 714 714 707 700 0 0 0 0 0
    0 0 0 0 0 0 0 0 0 0 0 0 0 0 0 0 0 0 0 0 0 0 0 0 0 0 0 0 0 0 0 0 0 0 0 0 0 0 0 0 0 0 0 0 0 0 0 0 0 0 0 0 0 0 0 0 0 0 0 0 0 0 0 0 0 0 0 0 0 700 700 707 700 700 707 707 714 728 735 728 735 735 735 735 735 743 735 721 728 721 721 721 714 721 721 721 735 728 750 750 743 743 743 735 735 721 721 721 721 714 714 721 714 714 721 721 707 714 714 721 721 728 721 721 721 743 721 743 700 700 700 707 707 714 707 714 714 714 721 728 728 721 721 735 728 728 728 728 728 721 728 735 721 728 721 735 735 735 743 735 743 743 743 758 766 743 750 750 743 750 750 750 743 743 750 735 743 735 735 743 735 743 743 743 750 750 766 750 750 758 766 774 766 743 758 758 766 774 782 782 774 766 791 758 750 743 743 743 735 735 774 743 774 774 782 791 782 782 791 791 817 817 808 808 799 791 774 774 728 774 774 782 743 758 750 750 750 766 735 735 735 750 735 743 750 750 735 750 750 766 735 728 728 728 728 728 721 721 707 721 714 700 700 694 694 707 714 707 721 735 743 750 735 728 728 728 743 728 721 714 707 714 721 721 714 721 707 700 657 629 618 618 588 574 588 584 579 579 579 574 570 579 593 579 0 743 728 728 721 728 721 707 707 700 700 0 0 0 0 0
    0 0 0 0 0 0 0 0 0 0 0 0 0 0 0 0 0 0 0 0 0 0 0 0 0 0 0 0 0 0 0 0 0 0 0 0 0 0 0 0 0 0 0 0 0 0 0 0 0 0 0 0 0 0 0 0 0 0 0 0 0 0 0 0 0 0 0 0 0 700 694 707 700 700 700 707 707 721 728 714 721 728 728 728 728 728 728 714 728 714 714 714 714 721 721 721 728 721 735 735 728 728 721 721 728 707 714 714 714 707 707 714 0 707 714 714 700 707 707 714 714 721 714 714 714 728 714 721 700 694 694 700 700 707 700 707 714 707 714 721 721 714 714 728 721 721 721 721 714 714 728 728 714 721 721 735 735 735 735 728 735 735 735 750 750 743 750 743 735 743 735 735 735 728 735 728 735 735 735 735 735 735 735 743 743 743 758 743 743 750 758 766 758 735 743 743 743 750 758 758 750 750 791 750 750 743 743 735 735 735 774 735 774 774 782 782 782 782 782 782 817 799 799 791 791 782 758 758 721 774 774 774 743 750 750 750 750 758 735 735 735 750 735 743 743 743 728 735 743 750 728 721 721 714 714 721 714 707 700 700 700 687 681 675 681 687 707 700 721 728 743 743 735 721 721 721 728 721 707 700 700 707 707 707 700 700 694 687 645 629 623 618 584 584 588 584 579 579 579 574 570 584 593 584 0 735 728 721 714 721 721 707 700 700 694 0 0 0 0 0
    0 0 0 0 0 0 0 0 0 0 0 0 0 0 0 0 0 0 0 0 0 0 0 0 0 0 0 0 0 0 0 0 0 0 0 0 0 0 0 0 0 0 0 0 0 0 0 0 0 0 0 0 0 0 0 0 0 0 0 0 0 0 0 0 0 0 0 0 0 700 700 707 700 700 700 700 707 707 714 700 707 714 721 721 721 714 721 714 728 714 714 714 714 721 721 714 721 714 714 714 714 714 707 707 714 707 707 721 714 707 707 714 700 707 707 707 700 700 700 707 707 714 707 707 707 721 707 700 694 694 694 700 700 700 700 707 707 707 707 721 721 714 714 721 721 721 721 714 714 707 721 721 714 714 707 728 728 728 728 728 728 728 728 735 735 735 743 735 728 735 728 728 728 721 721 714 728 728 728 728 728 728 728 728 735 735 743 735 735 743 743 758 743 721 728 735 728 735 735 743 735 728 782 750 743 743 735 735 728 735 766 728 774 766 774 782 782 774 782 774 808 774 766 735 735 721 714 721 714 758 766 758 735 743 750 743 743 750 728 728 728 743 735 728 735 735 728 735 735 750 721 721 721 714 0 714 707 700 694 694 694 681 675 675 675 687 700 694 707 721 735 735 721 714 714 714 721 714 707 700 700 707 700 700 694 700 687 681 639 623 623 618 579 584 588 584 579 579 579 574 570 588 588 588 0 735 721 714 714 721 714 700 700 700 700 0 0 0 0 0
    0 0 0 0 0 0 0 0 0 0 0 0 0 0 0 0 0 0 0 0 0 0 0 0 0 0 0 0 0 0 0 0 0 0 0 0 0 0 0 0 0 0 0 0 0 0 0 0 0 0 0 0 0 0 0 0 0 0 0 0 0 0 0 0 0 0 0 0 0 707 700 707 700 700 700 700 707 707 707 694 700 707 707 714 714 714 714 714 721 714 714 714 714 721 714 714 714 700 700 700 700 707 694 694 707 700 707 714 707 700 694 700 694 694 700 700 694 700 700 700 700 700 700 700 700 700 694 694 694 687 687 694 694 694 694 700 700 700 700 714 721 707 714 714 714 721 714 714 707 700 707 707 700 700 700 714 721 721 721 721 721 721 721 728 728 721 735 721 721 721 721 721 714 707 707 700 707 714 714 714 721 721 721 721 728 728 728 721 728 728 728 735 728 707 714 721 721 721 721 728 721 721 774 735 735 735 728 728 721 728 766 728 774 766 774 782 774 774 774 766 791 735 728 707 707 700 694 700 707 735 743 743 728 735 743 743 743 743 721 721 728 743 728 728 728 728 721 735 735 750 714 714 721 714 714 714 700 694 694 694 687 681 675 675 675 694 700 694 700 714 721 728 714 700 694 700 707 707 700 700 700 700 700 700 694 694 681 675 639 629 623 618 570 584 584 579 579 579 579 574 570 593 588 588 0 735 721 714 714 721 714 700 700 700 694 0 0 0 0 0
    0 0 0 0 0 0 0 0 0 0 0 0 0 0 0 0 0 0 0 0 0 0 0 0 0 0 0 0 0 0 0 0 0 0 0 0 0 0 0 0 0 0 0 0 0 0 0 0 0 0 0 0 0 0 0 0 0 0 0 0 0 0 0 0 0 0 0 0 0 707 700 714 700 707 700 700 707 700 707 700 700 700 707 707 707 707 714 707 721 714 714 714 714 714 714 707 714 700 700 694 694 700 694 694 700 700 700 707 700 694 687 694 687 694 700 700 694 700 700 694 694 700 700 694 694 700 687 687 694 694 694 694 694 694 694 694 694 694 694 707 714 707 707 714 714 714 714 707 700 700 700 700 694 694 694 707 714 714 714 714 714 714 714 721 714 714 728 714 714 714 714 714 700 700 694 694 694 700 700 700 707 714 714 714 721 721 721 721 721 721 721 728 721 700 707 707 707 714 714 721 714 714 766 728 728 735 721 721 721 728 758 728 766 758 774 774 766 774 758 743 766 721 714 700 694 694 694 694 700 728 735 728 721 735 735 735 735 735 721 721 721 735 721 721 721 721 714 721 721 728 707 714 721 714 707 707 700 694 694 694 687 681 681 681 681 694 700 694 700 714 714 721 700 687 681 694 694 707 700 694 694 694 694 694 687 687 681 669 645 629 629 618 566 584 584 579 579 579 584 574 574 598 588 588 608 721 700 700 694 707 707 687 687 694 687 0 0 0 0 0
    0 0 0 0 0 0 0 0 0 0 0 0 0 0 0 0 0 0 0 0 0 0 0 0 0 0 0 0 0 0 0 0 0 0 0 0 0 0 0 0 0 0 0 0 0 0 0 0 0 0 0 0 0 0 0 0 0 0 0 0 0 0 0 0 0 0 0 0 0 0 700 707 700 707 700 700 707 700 700 694 694 700 707 707 707 707 714 707 721 707 714 707 707 707 707 700 700 687 687 687 687 687 687 687 694 694 700 700 694 687 687 687 687 694 700 700 687 700 700 694 694 694 700 694 694 700 687 687 700 694 700 694 700 694 700 700 700 694 694 707 714 707 707 707 707 707 707 0 0 694 700 694 687 687 687 700 707 707 707 707 714 707 714 714 714 714 721 714 707 707 707 707 700 694 694 687 694 700 700 700 707 707 707 714 714 721 721 714 721 714 721 721 721 700 700 700 700 707 707 714 707 700 750 721 721 728 714 714 714 714 743 728 750 750 766 766 758 758 743 728 735 707 700 694 687 694 687 694 700 721 721 721 714 728 728 728 728 728 714 714 721 721 714 714 714 707 700 707 700 707 694 700 714 707 700 707 700 694 694 694 687 681 681 681 681 687 700 687 694 714 714 721 687 675 675 681 687 694 694 687 687 687 694 694 687 687 675 663 639 629 629 613 561 588 584 579 579 584 584 579 579 603 588 588 608 707 0 687 669 681 675 675 675 687 681 0 0 0 0 0
    0 0 0 0 0 0 0 0 0 0 0 0 0 0 0 0 0 0 0 0 0 0 0 0 0 0 0 0 0 0 0 0 0 0 0 0 0 0 0 0 0 0 0 0 0 0 0 0 0 0 0 0 0 0 0 0 0 0 0 0 0 0 0 0 0 0 0 0 0 0 0 707 700 707 700 700 707 694 700 694 687 694 694 700 700 700 707 707 714 707 707 707 707 707 707 700 694 675 675 681 669 681 681 681 694 694 700 700 694 687 681 681 681 681 694 694 687 700 700 694 694 700 700 694 694 700 687 687 700 694 700 694 694 694 700 694 700 694 694 700 714 707 707 707 707 707 707 0 0 694 700 694 694 687 687 700 707 707 707 707 714 707 707 714 707 714 714 707 707 707 707 707 700 694 694 687 694 700 700 694 700 700 707 707 714 714 714 707 714 714 721 721 714 694 700 700 700 700 707 707 700 700 743 714 721 721 714 707 707 707 728 714 735 735 743 750 743 743 728 714 714 700 694 687 687 687 687 694 700 714 714 707 714 721 721 721 728 721 707 707 714 714 707 700 700 694 687 700 687 687 681 681 700 687 687 694 687 687 687 687 687 681 675 681 675 681 694 681 687 700 707 714 687 681 681 681 681 694 687 681 687 687 687 687 687 687 675 663 639 629 629 613 561 588 584 579 579 584 584 579 584 603 588 593 618 700 0 0 675 675 663 675 675 687 687 0 0 0 0 0
    0 0 0 0 0 0 0 0 0 0 0 0 0 0 0 0 0 0 0 0 0 0 0 0 0 0 0 0 0 0 0 0 0 0 0 0 0 0 0 0 0 0 0 0 0 0 0 0 0 0 0 0 0 0 0 0 0 0 0 0 0 0 0 0 0 0 0 0 0 0 0 714 700 707 707 707 707 694 700 687 687 687 687 694 694 694 700 700 714 707 707 707 700 700 700 687 687 663 657 663 645 657 669 669 681 681 694 694 681 675 669 663 663 669 681 687 681 700 700 694 700 700 700 700 700 700 694 694 0 694 700 694 694 687 694 687 694 681 687 687 707 700 707 707 707 707 707 707 700 694 700 694 694 687 687 700 707 707 707 714 714 707 707 714 707 707 714 707 707 707 707 707 700 700 694 694 694 700 700 694 700 700 700 707 707 714 707 707 707 707 721 721 714 694 700 700 700 707 707 707 700 700 735 714 714 714 700 694 694 694 707 707 714 714 721 721 721 721 714 707 700 694 694 687 687 687 687 694 694 700 707 700 707 714 721 714 721 714 700 700 707 707 694 687 687 681 681 687 675 675 669 669 687 669 663 675 681 675 681 681 681 675 675 675 669 675 687 669 675 681 687 694 681 687 675 681 675 687 681 669 681 681 687 687 687 687 681 669 651 634 629 608 561 584 584 579 584 584 588 579 588 603 593 598 651 694 0 0 675 687 675 681 681 700 694 0 0 0 0 0
    0 0 0 0 0 0 0 0 0 0 0 0 0 0 0 0 0 0 0 0 0 0 0 0 0 0 0 0 0 0 0 0 0 0 0 0 0 0 0 0 0 0 0 0 0 0 0 0 0 0 0 0 0 0 0 0 0 0 0 0 0 0 0 0 0 0 0 0 0 0 0 707 700 707 707 707 700 694 694 687 681 681 675 681 681 687 694 694 707 687 700 700 700 694 694 675 675 651 645 645 629 634 657 657 681 681 687 687 681 669 663 651 657 657 663 681 675 694 694 694 700 700 700 700 700 700 694 0 0 0 0 694 687 687 694 694 694 681 681 681 707 700 707 707 707 707 707 707 700 694 700 694 694 687 687 700 707 707 707 707 707 707 707 707 700 707 707 707 707 707 707 707 700 700 700 694 700 700 700 694 700 700 700 707 707 707 707 707 707 707 721 721 714 694 700 707 700 707 707 707 700 700 728 707 700 707 700 687 681 681 687 694 694 700 700 707 707 707 700 700 694 694 687 687 694 687 687 694 694 694 700 694 700 707 707 707 714 707 694 694 700 700 694 681 687 681 681 687 669 669 663 663 675 645 639 657 663 663 675 675 675 675 675 675 663 675 681 663 663 663 669 675 675 681 669 669 669 675 663 651 675 669 675 687 687 687 675 669 651 629 623 593 566 584 584 574 584 584 588 584 593 603 598 603 651 669 663 0 669 681 675 687 681 707 707 0 0 0 0 0
    0 0 0 0 0 0 0 0 0 0 0 0 0 0 0 0 0 0 0 0 0 0 0 0 0 0 0 0 0 0 0 0 0 0 0 0 0 0 0 0 0 0 0 0 0 0 0 0 0 0 0 0 0 0 0 0 0 0 0 0 0 0 0 0 0 0 0 0 0 0 0 700 694 700 700 700 700 687 687 681 675 675 651 663 663 669 675 669 681 669 681 694 687 681 675 651 657 639 639 634 618 623 645 657 681 681 687 694 687 675 663 645 651 651 657 675 663 694 694 687 694 694 700 700 694 700 687 0 0 0 0 694 687 681 681 687 687 675 669 675 707 694 707 707 707 707 700 700 700 694 700 694 694 687 687 700 707 707 707 707 707 700 700 700 694 700 707 700 707 707 714 714 707 700 700 700 700 700 700 694 700 700 707 700 0 707 707 707 707 707 714 721 714 694 700 707 700 707 707 707 700 700 714 700 694 700 687 675 669 675 675 694 687 694 694 700 707 707 694 700 694 694 694 687 694 687 687 694 694 687 694 687 694 694 700 700 700 700 687 694 694 700 687 675 681 681 681 687 663 663 657 657 669 634 629 639 651 657 669 669 675 669 669 669 663 669 675 657 657 657 669 669 681 681 669 663 657 669 663 639 669 657 675 687 694 687 669 657 639 623 618 579 566 579 579 574 579 584 588 584 593 603 598 603 639 645 0 645 634 634 634 663 657 694 694 0 0 0 0 0
    0 0 0 0 0 0 0 0 0 0 0 0 0 0 0 0 0 0 0 0 0 0 0 0 0 0 0 0 0 0 0 0 0 0 0 0 0 0 0 0 0 0 0 0 0 0 0 0 0 0 0 0 0 0 0 0 0 0 0 0 0 0 0 0 0 0 0 0 0 0 687 694 681 694 694 687 687 675 681 675 663 663 639 651 645 645 657 645 651 645 651 681 675 663 651 629 639 629 629 623 613 623 634 645 669 675 681 681 675 657 645 634 639 639 645 669 651 687 687 681 687 687 694 694 694 700 681 0 0 0 0 687 675 663 651 645 639 629 629 634 669 663 694 700 700 700 694 700 694 687 694 687 687 687 687 700 700 700 707 707 700 700 700 700 687 687 700 700 707 707 714 714 714 714 707 707 707 700 707 694 700 700 707 707 707 707 707 707 707 707 714 714 707 694 700 700 700 700 700 700 694 700 700 687 681 687 681 663 651 657 651 687 687 694 694 700 707 707 694 700 694 694 694 687 694 687 687 694 694 687 687 687 687 694 694 694 694 687 681 694 694 694 687 681 687 687 687 687 663 663 663 669 669 634 629 639 657 669 675 669 675 669 669 669 663 669 669 657 657 657 669 669 681 675 669 663 663 669 651 618 663 645 675 687 694 681 657 639 634 618 613 570 570 579 574 574 579 584 584 584 598 603 603 608 639 639 634 634 0 623 623 634 629 634 663 0 0 0 0 0
    0 0 0 0 0 0 0 0 0 0 0 0 0 0 0 0 0 0 0 0 0 0 0 0 0 0 0 0 0 0 0 0 0 0 0 0 0 0 0 0 0 0 0 0 0 0 0 0 0 0 0 0 0 0 0 0 0 0 0 0 0 0 0 0 0 0 0 0 0 657 669 675 663 681 681 675 681 669 669 669 651 657 634 651 645 634 639 634 639 639 634 675 645 639 634 623 623 618 618 618 608 613 629 639 657 651 651 645 645 634 623 623 623 629 634 645 634 669 675 669 681 681 681 687 687 694 675 0 0 675 687 675 657 651 639 634 629 618 618 623 634 629 663 687 687 687 687 687 687 681 694 681 681 675 681 694 694 700 700 707 707 700 700 694 687 687 694 694 707 707 714 714 714 721 714 707 714 700 707 700 700 700 707 707 707 714 707 707 707 707 714 707 700 694 694 700 694 694 694 694 694 694 694 681 675 681 669 657 651 657 645 681 681 694 687 700 700 700 687 700 694 700 694 694 694 694 687 694 694 687 687 687 694 694 694 694 694 694 694 700 700 700 687 681 687 687 687 681 657 657 657 663 663 629 623 634 645 657 669 663 675 669 669 663 663 669 669 657 657 657 663 669 681 669 663 651 657 657 634 608 639 634 669 687 694 675 651 634 629 618 613 566 570 579 574 574 579 584 584 584 603 603 603 613 639 639 634 634 629 629 623 629 623 623 634 0 0 0 0 0
    0 0 0 0 0 0 0 0 0 0 0 0 0 0 0 0 0 0 0 0 0 0 0 0 0 0 0 0 0 0 0 0 0 0 0 0 0 0 0 0 0 0 0 0 0 0 0 0 0 0 0 0 0 0 0 0 0 0 0 0 0 0 0 0 0 0 0 0 0 645 651 663 651 669 675 669 675 663 669 663 651 657 634 645 639 634 634 629 634 629 629 657 629 623 618 618 618 618 618 618 613 613 623 634 639 634 629 623 623 618 613 613 613 618 618 629 629 651 663 657 669 675 675 681 681 687 663 663 681 663 675 675 651 645 634 634 623 618 618 618 623 623 639 675 675 675 675 675 669 675 687 675 669 669 669 687 694 694 700 707 700 694 687 687 675 675 687 687 694 700 700 714 714 714 714 707 714 700 707 700 707 700 707 707 707 707 707 707 707 707 707 700 700 694 694 700 694 694 694 694 687 694 694 675 669 675 669 657 657 657 645 675 675 687 681 687 700 700 687 700 700 700 700 700 700 694 694 700 694 694 694 694 694 700 700 700 700 694 700 700 700 700 687 681 687 681 687 675 651 651 657 663 657 623 618 623 634 645 651 645 663 657 657 651 657 657 657 645 645 651 663 663 675 663 657 651 663 651 629 603 634 639 675 687 694 669 639 629 623 613 613 566 579 584 579 579 584 584 584 584 603 603 603 618 645 639 639 645 634 634 634 634 629 623 629 0 0 0 0 0
    0 0 0 0 0 0 0 0 0 0 0 0 0 0 0 0 0 0 0 0 0 0 0 0 0 0 0 0 0 0 0 0 0 0 0 0 0 0 0 0 0 0 0 0 0 0 0 0 0 0 0 0 0 0 0 0 0 0 0 0 0 0 0 0 0 0 0 0 0 639 639 651 639 651 657 657 669 651 645 639 634 645 629 639 634 629 629 623 623 623 618 639 613 613 613 618 618 618 618 618 618 618 618 634 629 623 618 613 613 613 608 608 608 613 613 623 623 634 645 639 651 663 663 669 681 687 651 663 675 657 669 663 645 639 629 629 623 613 613 613 618 618 634 663 663 669 663 663 657 669 681 669 669 663 663 681 687 694 694 700 687 687 675 675 663 663 675 675 675 700 694 700 707 707 707 700 707 700 700 700 707 700 707 700 700 700 700 700 700 700 700 694 694 687 694 694 694 687 694 681 681 687 687 669 657 657 663 657 669 657 645 669 675 681 681 681 694 700 681 707 700 700 0 700 700 694 694 700 694 694 687 694 694 694 700 700 700 694 700 700 700 700 681 675 681 681 681 675 651 651 651 663 657 623 618 618 629 629 629 623 629 629 634 639 651 651 645 639 645 645 657 657 669 657 651 645 663 645 623 603 645 651 675 687 687 663 634 618 618 613 608 566 584 584 579 579 584 584 584 584 603 598 598 618 645 645 639 645 639 639 639 639 634 634 639 0 0 0 0 0
    0 0 0 0 0 0 0 0 0 0 0 0 0 0 0 0 0 0 0 0 0 0 0 0 0 0 0 0 0 0 0 0 0 0 0 0 0 0 0 0 0 0 0 0 0 0 0 0 0 0 0 0 0 0 0 0 0 0 0 0 0 0 0 0 0 0 0 0 0 629 634 639 639 639 645 645 651 639 0 0 0 639 623 634 629 623 623 623 623 623 618 634 608 603 603 613 613 613 613 613 613 618 618 629 623 618 608 608 613 613 603 608 603 608 613 623 623 629 634 634 645 651 657 663 681 687 651 663 669 645 657 657 639 634 623 623 618 613 613 613 618 618 629 651 657 657 651 651 651 663 675 663 663 657 663 675 675 681 681 687 663 669 651 663 651 645 657 657 645 687 681 694 700 700 700 694 694 687 681 694 694 687 700 694 700 700 694 694 694 694 694 687 687 681 687 694 687 687 687 675 675 681 675 657 645 645 657 651 669 663 645 669 675 687 681 681 694 700 687 707 700 700 700 700 700 694 694 700 687 687 675 681 687 687 694 694 694 687 707 707 707 707 687 675 687 681 681 669 651 651 651 663 657 629 618 618 618 613 613 603 608 613 613 629 645 645 645 639 639 645 651 651 663 645 645 634 651 639 623 603 634 651 645 669 675 639 623 613 613 603 598 570 588 588 584 584 588 588 588 588 608 603 608 629 651 645 639 651 639 639 639 639 634 634 639 0 0 0 0 0
    0 0 0 0 0 0 0 0 0 0 0 0 0 0 0 0 0 0 0 0 0 0 0 0 0 0 0 0 0 0 0 0 0 0 0 0 0 0 0 0 0 0 0 0 0 0 0 0 0 0 0 0 0 0 0 0 0 0 0 0 0 0 0 0 0 0 0 0 0 0 0 634 629 634 639 639 645 0 0 0 0 0 618 634 629 623 0 0 0 0 0 0 608 593 598 613 613 618 613 0 0 0 629 639 0 618 0 0 0 0 603 608 603 608 613 623 623 629 629 634 639 645 639 651 675 0 0 657 669 651 663 657 639 634 623 623 613 608 608 613 618 618 623 634 645 645 639 639 639 651 663 657 663 651 657 663 669 669 669 675 645 645 634 645 639 634 634 634 629 675 663 675 675 681 687 675 681 681 663 675 681 681 687 681 687 694 687 681 681 681 681 681 681 669 681 687 687 681 681 663 669 669 669 645 639 639 651 645 669 657 645 669 675 687 681 675 694 694 681 707 694 700 694 694 694 694 687 687 663 675 651 657 669 675 675 675 687 675 707 714 714 707 687 681 687 681 687 669 651 651 645 657 645 623 613 613 613 608 603 603 598 603 608 629 645 651 645 639 645 645 651 651 657 645 639 629 639 629 623 608 623 639 623 639 645 623 618 603 603 598 588 570 588 588 584 584 588 588 588 593 608 603 608 634 651 645 634 645 634 634 634 634 629 629 629 0 0 0 0 0
    0 0 0 0 0 0 0 0 0 0 0 0 0 0 0 0 0 0 0 0 0 0 0 0 0 0 0 0 0 0 0 0 0 0 0 0 0 0 0 0 0 0 0 0 0 0 0 0 0 0 0 0 0 0 0 0 0 0 0 0 0 0 0 0 0 0 0 0 0 0 0 629 629 629 634 634 0 0 0 0 393 0 618 634 629 623 0 0 0 0 0 0 0 574 584 613 613 618 618 0 0 0 0 645 0 0 0 0 0 0 0 122 0 0 0 623 623 623 623 629 629 634 629 629 0 0 0 0 669 651 663 657 645 634 623 623 613 603 603 608 618 613 613 623 634 634 634 634 629 639 651 651 657 651 657 651 657 663 663 663 639 639 629 634 634 629 629 629 623 651 639 645 639 651 663 657 657 657 634 645 663 657 675 663 669 681 669 669 669 669 669 669 669 657 669 675 675 675 675 645 657 663 657 639 634 634 639 634 663 645 639 663 669 675 669 669 687 687 675 700 687 0 694 694 687 687 687 675 634 657 629 634 645 651 645 645 669 657 700 714 714 714 694 687 694 687 687 663 651 645 645 651 634 623 613 613 608 608 603 603 598 608 603 634 651 657 651 645 651 651 651 651 657 639 639 629 634 629 623 618 623 634 618 629 634 618 618 593 603 598 584 574 588 588 584 584 588 588 588 593 603 603 608 629 639 634 629 634 629 629 629 623 623 623 623 0 0 0 0 0
    0 0 0 0 0 0 0 0 0 0 0 0 0 0 0 0 0 0 0 0 0 0 0 0 0 0 0 0 0 0 0 0 0 0 0 0 0 0 0 0 0 0 0 0 0 0 0 0 0 0 0 0 0 0 0 0 0 0 0 0 0 0 0 0 0 0 0 0 0 0 0 634 629 629 634 629 0 0 0 0 391 0 0 634 629 623 0 0 0 0 0 121 0 570 579 618 623 623 618 0 0 0 645 651 629 0 0 0 0 0 0 0 0 0 0 0 0 618 618 623 0 629 623 0 0 0 0 0 669 651 657 657 645 639 623 0 0 0 0 0 613 0 0 618 629 629 629 629 629 634 645 645 657 645 651 645 651 657 663 663 634 634 623 629 629 618 618 623 623 645 634 639 629 639 651 645 639 645 629 639 651 645 657 651 657 669 657 657 651 657 657 657 651 639 657 663 669 663 663 639 651 651 645 634 634 629 634 634 657 639 639 657 657 663 657 657 669 675 669 694 681 0 687 687 681 681 681 651 623 639 623 629 639 639 634 634 657 639 687 714 707 714 687 681 687 681 687 663 645 639 639 645 629 623 613 613 613 608 608 603 598 608 598 629 651 657 651 645 651 651 645 645 645 634 629 623 629 623 618 623 623 634 623 629 629 618 613 593 598 598 579 579 588 588 584 584 588 588 588 598 603 598 603 623 629 623 623 634 629 629 629 618 623 623 618 0 0 0 0 0
    0 0 0 0 0 0 0 0 0 0 0 0 0 0 0 0 0 0 0 0 0 0 0 0 0 0 0 0 0 0 0 0 0 0 0 0 0 0 0 0 0 0 0 0 0 0 0 0 0 0 0 0 0 0 0 0 0 0 0 0 0 0 0 0 0 0 0 0 0 0 0 634 623 0 0 0 0 0 0 389 389 0 623 634 634 623 0 0 0 0 0 0 0 561 566 623 623 623 618 0 0 0 645 651 0 0 0 0 0 121 0 122 122 0 0 0 0 618 618 623 0 0 0 0 0 0 0 0 669 651 0 0 0 639 0 0 0 0 0 0 0 0 0 0 0 0 0 0 0 0 639 639 651 639 0 0 0 645 663 663 639 634 623 629 629 618 618 623 623 639 629 634 623 634 645 639 629 634 623 634 645 639 645 634 639 651 634 639 634 639 639 645 645 639 651 657 663 663 657 634 645 645 639 634 634 629 634 634 657 634 639 651 645 645 645 645 645 651 639 681 669 687 681 681 675 681 669 639 623 634 623 629 634 639 629 629 645 634 663 700 700 707 669 675 681 675 675 651 645 634 639 639 629 623 613 613 613 608 608 603 598 608 598 629 645 651 651 634 639 639 629 634 629 623 623 618 623 623 618 629 623 629 618 623 618 613 603 584 593 593 566 574 584 584 579 584 588 588 588 598 603 598 603 618 623 623 618 634 629 634 634 629 634 629 629 0 0 0 0 0
    0 0 0 0 0 0 0 0 0 0 0 0 0 0 0 0 0 0 0 0 0 0 0 0 0 0 0 0 0 0 0 0 0 0 0 0 0 0 0 0 0 0 0 0 0 0 0 0 0 0 0 0 0 0 0 0 0 0 0 0 0 0 0 0 0 0 0 0 0 0 360 0 0 0 0 0 0 0 0 381 387 0 0 0 634 623 0 0 0 623 623 0 598 561 553 0 623 0 0 0 0 0 0 0 0 256 0 0 254 252 0 0 122 0 0 0 0 0 0 0 0 0 0 0 202 197 0 0 675 0 0 0 0 0 0 0 0 0 0 0 0 0 0 0 0 0 0 0 0 0 634 634 651 634 0 0 0 0 657 657 634 634 629 629 629 623 618 623 0 0 629 629 618 629 629 629 623 629 623 634 0 0 639 634 634 639 0 0 629 634 634 645 651 639 645 657 669 663 651 629 645 645 639 634 634 629 634 634 663 639 639 645 645 645 639 634 634 629 623 669 651 675 675 669 657 669 657 629 618 629 618 629 629 634 623 623 629 623 629 675 657 651 623 645 669 657 663 645 639 629 634 634 629 623 618 613 613 608 613 603 603 608 598 629 639 645 639 623 623 623 618 629 623 623 618 613 623 623 623 629 623 623 618 623 618 613 608 588 598 588 570 579 588 588 584 588 588 588 588 603 603 598 603 618 618 618 613 634 629 639 645 634 645 639 634 0 0 0 0 0
    0 0 0 0 0 0 0 0 0 0 0 0 0 0 0 0 0 0 0 0 0 0 0 0 0 0 0 0 0 0 0 0 0 0 0 0 0 0 0 0 0 0 0 0 0 0 0 0 0 0 0 0 0 0 0 0 0 0 0 0 0 0 0 0 0 0 0 0 0 362 355 343 0 330 0 0 0 0 0 0 309 0 0 0 0 0 0 0 0 0 0 0 0 0 0 0 0 281 280 279 0 273 261 261 259 255 256 0 257 257 0 277 0 0 0 0 0 0 0 0 253 0 0 0 0 0 0 0 0 0 0 0 0 0 0 0 0 260 251 0 0 0 0 0 0 0 0 0 0 0 639 639 0 639 0 0 0 0 0 651 634 634 629 629 629 623 618 623 0 0 629 629 623 634 634 634 634 634 629 0 0 0 634 634 0 0 0 0 0 634 634 0 645 645 639 663 669 663 645 623 645 639 634 634 629 629 634 634 663 639 639 0 0 0 639 634 629 623 613 639 629 645 645 634 629 645 639 618 613 618 613 623 623 623 618 613 618 618 623 651 629 623 618 634 651 645 651 634 634 629 634 634 629 629 618 618 618 613 623 608 603 608 593 623 623 634 629 618 618 618 613 618 618 623 618 618 623 629 629 645 634 629 623 623 618 613 608 593 593 593 579 588 588 588 584 588 593 593 593 603 603 598 603 613 618 618 608 623 623 629 645 629 651 634 623 0 0 0 0 0
    0 0 0 0 0 0 0 0 0 0 0 0 0 0 0 0 0 0 0 0 0 0 0 0 0 0 0 0 0 0 0 0 0 0 0 0 0 0 0 0 0 0 0 0 0 0 0 0 0 0 0 0 0 0 0 0 0 0 0 0 0 0 0 0 0 0 0 0 0 362 357 343 0 336 325 319 318 318 318 317 307 0 0 0 0 0 313 0 314 0 302 297 0 0 0 0 281 277 273 269 0 263 259 0 257 251 252 0 0 259 0 276 0 0 0 0 0 0 258 260 253 250 251 248 0 0 0 0 217 215 213 0 0 0 0 0 0 260 256 254 0 0 0 0 0 0 0 0 0 0 0 0 0 0 0 0 0 634 651 651 634 634 629 629 629 623 623 623 0 0 0 629 623 639 634 639 639 639 629 0 2628 0 0 634 0 0 5661 0 0 0 0 0 634 639 634 645 651 639 629 618 639 634 634 629 629 629 634 634 663 634 639 0 0 0 0 634 623 613 608 623 618 623 618 613 618 623 623 613 608 613 613 623 623 623 618 613 618 618 618 634 613 608 608 618 634 634 639 634 634 623 634 634 629 629 618 618 618 613 618 608 603 608 598 623 613 634 629 618 613 613 608 618 618 623 623 629 634 634 639 657 645 639 629 634 618 608 613 603 593 593 579 588 588 588 588 588 588 593 593 608 603 603 603 613 613 613 603 613 613 618 634 613 645 0 0 0 0 0 0 0
    0 0 0 0 0 0 0 0 0 0 0 0 0 0 0 0 0 0 0 0 0 0 0 0 0 0 0 0 0 0 0 0 0 0 0 0 0 0 0 0 0 0 0 0 0 0 0 0 0 0 0 0 0 0 0 0 0 0 0 0 0 0 0 0 0 0 0 0 0 389 379 0 0 0 0 0 325 328 322 0 0 0 0 0 0 0 309 311 315 314 306 297 0 0 0 0 0 270 264 0 0 256 0 0 0 246 0 0 0 0 0 0 0 0 0 0 0 0 0 0 257 254 256 255 0 0 0 0 219 214 212 212 0 0 0 0 0 0 253 252 0 0 0 0 0 0 0 0 0 0 0 0 0 0 0 0 0 0 651 657 639 634 629 629 629 623 623 618 0 0 0 634 629 651 645 651 645 639 629 0 2537 2453 0 0 0 2725 8177 0 0 0 0 0 0 629 634 639 651 639 629 618 639 634 634 629 629 623 629 634 657 634 634 0 0 2230 0 634 623 613 603 613 613 618 608 603 608 613 618 608 608 613 613 623 623 623 618 613 618 613 613 623 608 603 603 608 623 629 629 629 629 618 634 634 623 629 618 618 618 618 623 608 608 613 603 618 613 618 623 618 603 603 603 613 618 623 623 629 629 634 639 663 645 634 634 645 623 613 613 603 593 598 584 593 593 588 588 588 588 598 593 608 603 603 603 608 608 608 603 608 603 608 623 0 0 0 0 0 0 0 0 0
    0 0 0 0 0 0 0 0 0 0 0 0 0 0 0 0 0 0 0 0 0 0 0 0 0 0 0 0 0 0 0 0 0 0 0 0 0 0 0 0 0 0 0 0 0 0 0 0 0 0 0 0 0 0 0 0 0 0 0 0 0 0 0 0 0 0 0 0 0 399 395 391 387 381 383 373 0 385 0 404 0 0 0 0 0 275 283 0 0 0 0 207 0 0 0 0 0 264 0 0 0 0 0 0 0 0 0 0 0 0 0 0 0 0 0 0 0 0 0 0 257 0 264 263 260 0 0 8177 0 0 0 0 0 0 0 0 0 0 251 251 250 0 0 0 0 0 0 0 0 5661 0 0 0 0 0 0 0 0 0 687 663 651 0 0 634 629 629 0 0 0 0 645 634 663 663 0 663 645 0 2830 2537 2374 2102 0 2453 2537 0 0 0 0 0 0 0 651 645 645 657 651 629 623 639 634 629 629 623 623 623 629 645 629 0 0 0 2374 0 634 623 613 603 613 613 618 613 603 603 613 618 608 608 608 613 623 623 623 618 613 618 613 613 613 603 598 598 603 613 618 618 618 623 618 629 629 623 629 623 623 618 618 629 613 608 613 603 618 613 618 623 613 603 598 598 613 613 618 618 623 629 639 663 675 663 645 651 669 629 618 618 608 593 598 588 593 593 593 588 588 593 598 598 613 603 603 603 608 608 608 598 608 603 603 613 603 603 0 0 0 0 0 0 0
    0 0 0 0 0 0 0 0 0 0 0 0 0 0 0 0 0 0 0 0 0 0 0 0 0 0 0 0 0 0 0 0 0 0 0 0 0 0 0 0 0 0 0 0 0 0 0 0 0 0 0 0 0 0 0 0 0 0 0 0 0 0 0 0 0 0 0 0 0 402 399 397 395 0 389 383 387 391 393 399 397 399 399 399 0 0 0 391 377 0 0 0 0 0 0 0 0 0 397 393 397 399 402 0 0 0 0 0 0 0 0 0 0 0 0 0 0 262 260 260 0 0 0 0 0 0 0 0 0 0 0 0 0 0 0 0 0 0 0 0 0 0 249 0 0 0 0 0 0 0 8177 8177 0 0 0 0 0 0 0 0 0 0 0 0 0 0 0 0 0 0 0 0 0 0 6690 5256 0 0 2725 2830 2537 2374 2044 0 2537 2628 0 0 0 0 0 0 0 0 0 663 657 657 623 618 634 629 623 623 623 618 618 0 0 0 0 0 0 2453 2453 634 618 613 603 0 618 618 608 598 598 613 618 608 613 613 613 623 623 623 618 613 618 613 613 618 603 598 598 608 613 618 618 618 618 613 634 634 629 629 623 629 623 623 645 613 613 618 608 618 613 618 618 613 603 593 593 608 608 618 618 623 623 645 675 687 669 639 645 669 629 618 613 608 593 598 588 598 593 593 588 588 593 598 598 613 603 598 598 608 603 603 598 603 598 603 613 608 608 0 0 0 0 0 0 0
    0 0 0 0 0 0 0 0 0 0 0 0 0 0 0 0 0 0 0 0 0 0 0 0 0 0 0 0 0 0 0 0 0 0 0 0 0 0 0 0 0 0 0 0 0 0 0 0 0 0 0 0 0 0 0 0 0 0 0 0 0 0 0 0 0 0 0 0 0 404 402 399 399 0 393 391 391 393 395 399 397 399 399 399 399 0 0 399 395 0 0 206 206 0 399 0 0 402 399 397 399 402 404 404 0 0 0 0 0 0 0 0 0 0 0 0 0 0 261 261 261 260 0 0 260 0 0 0 0 0 0 0 0 0 0 0 0 0 0 0 0 0 0 0 0 0 0 0 0 0 0 0 0 0 0 0 0 0 0 0 0 0 0 0 0 0 0 0 0 0 0 0 6690 4906 5256 6133 4906 3504 2725 2628 2230 2102 1887 1599 2537 2628 0 0 0 0 0 0 2164 1501 0 0 0 651 608 613 639 629 623 618 613 0 0 1635 0 0 0 0 0 0 0 629 618 608 603 608 608 613 603 598 608 618 623 613 613 613 613 623 623 623 618 613 618 613 613 618 608 603 603 613 618 618 618 623 618 613 639 639 634 634 629 634 629 629 663 618 613 613 608 613 603 603 603 603 588 584 588 598 603 608 613 623 623 675 694 694 681 651 669 687 623 613 613 603 593 598 593 598 593 593 593 593 593 603 603 618 608 603 598 603 603 603 598 598 584 588 598 603 603 598 588 0 0 0 0 0
    0 0 0 0 0 0 0 0 0 0 0 0 0 0 0 0 0 0 0 0 0 0 0 0 0 0 0 0 0 0 0 0 0 0 0 0 0 0 0 0 0 0 0 0 0 0 0 0 0 0 0 0 0 0 0 0 0 0 0 0 0 0 0 0 0 0 0 0 0 404 402 399 399 395 395 393 393 395 395 399 399 399 402 399 402 402 402 399 399 0 0 0 0 402 402 402 404 404 402 399 404 404 404 406 0 397 0 0 0 0 393 0 0 0 0 0 0 0 261 262 262 260 260 261 261 258 0 2230 0 0 0 0 0 9199 0 0 0 0 0 0 0 0 0 0 0 0 0 0 0 0 0 0 0 0 0 0 0 0 0 0 0 0 0 0 202 202 202 200 198 0 0 0 0 3873 3504 0 6133 3504 0 1501 1247 1132 1187 1149 0 0 0 0 0 0 0 0 0 1415 1226 735 0 0 0 1247 1206 0 0 0 1415 1388 1471 1599 1471 0 0 0 0 629 623 618 613 603 598 598 603 598 0 588 613 608 613 598 603 608 613 623 623 623 618 618 623 618 618 623 608 603 603 613 613 618 613 623 618 613 639 645 634 639 634 634 629 629 669 623 613 613 613 613 608 603 608 603 593 584 588 598 598 608 613 618 623 687 700 707 707 687 0 707 623 613 613 608 593 593 593 598 598 598 598 593 593 629 687 645 623 613 603 608 603 608 593 579 549 0 0 584 584 0 0 0 0 0 0 0
    0 0 0 0 0 0 0 0 0 0 0 0 0 0 0 0 0 0 0 0 0 0 0 0 0 0 0 0 0 0 0 0 0 0 0 0 0 0 0 0 0 0 0 0 0 0 0 0 0 0 0 0 0 0 0 0 0 0 0 0 0 0 0 0 0 0 0 0 0 404 402 399 399 395 397 393 395 395 397 399 402 402 402 402 402 402 402 402 399 402 0 0 0 402 402 402 404 404 404 404 406 406 406 411 0 399 0 0 0 0 393 389 0 0 0 0 0 0 261 263 263 260 260 260 0 257 0 0 0 1206 0 0 0 6690 0 0 0 0 0 0 0 0 0 0 0 0 0 0 0 0 402 406 0 0 0 0 0 0 420 425 415 0 0 415 202 202 201 200 198 198 0 0 0 420 406 402 402 402 0 1226 1168 1082 1098 1098 0 0 404 0 0 0 0 0 0 1247 1098 0 0 0 0 0 1247 0 0 0 0 1388 1501 0 0 0 0 0 0 0 639 629 613 608 598 598 603 0 0 0 0 603 608 588 566 598 613 623 623 618 613 613 618 613 608 613 598 0 415 0 0 0 402 0 618 613 645 645 639 639 634 634 623 623 669 618 608 608 618 618 608 608 608 608 603 588 598 598 598 613 618 639 629 687 694 694 663 0 0 681 613 608 618 613 598 598 603 608 608 608 608 603 0 728 707 657 623 613 593 598 588 598 574 553 525 0 0 0 0 389 0 0 0 0 0 0
    0 0 0 0 0 0 0 0 0 0 0 0 0 0 0 0 0 0 0 0 0 0 0 0 0 0 0 0 0 0 0 0 0 0 0 0 0 0 0 0 0 0 0 0 0 0 0 0 0 0 0 0 0 0 0 0 0 0 0 0 0 0 0 0 0 0 0 0 0 404 402 399 397 395 0 395 397 397 399 402 402 404 404 402 404 404 399 399 397 399 0 0 0 402 399 402 404 406 404 404 406 406 406 411 408 402 0 0 0 0 395 391 0 0 0 0 0 0 261 263 263 261 0 0 0 0 0 0 0 0 0 0 0 0 0 0 411 0 0 408 399 0 0 0 0 0 0 0 395 402 399 404 404 0 0 0 0 0 418 422 413 411 0 411 0 203 202 201 201 199 0 0 399 408 402 399 399 399 399 0 1168 1098 0 1098 408 411 406 408 0 0 408 411 418 415 0 0 0 0 0 432 425 411 0 0 0 0 0 0 0 0 0 0 0 0 0 629 618 613 598 593 593 0 0 0 634 0 0 0 0 0 0 0 0 0 0 0 0 0 0 0 427 425 415 404 402 406 408 411 408 406 651 651 645 639 629 629 618 618 629 608 598 593 608 608 593 588 579 598 588 579 593 593 593 0 629 675 0 0 714 714 0 0 0 0 618 613 623 613 598 603 608 618 618 639 675 675 750 766 735 694 0 0 0 584 574 593 566 545 504 0 0 0 393 387 389 0 0 0 0 0
    0 0 0 0 0 0 0 0 0 0 0 0 0 0 0 0 0 0 0 0 0 0 0 0 0 0 0 0 0 0 0 0 0 0 0 0 0 0 0 0 0 0 0 0 0 0 0 0 0 0 0 0 0 0 0 0 0 0 0 0 0 0 0 0 0 0 0 0 0 404 402 399 399 397 397 395 397 399 399 402 404 404 404 402 404 404 399 402 397 399 402 0 402 402 402 402 404 404 404 404 406 406 406 408 406 399 395 397 397 0 395 391 0 0 0 0 0 0 260 264 263 261 0 0 0 0 0 402 399 0 0 0 0 0 404 404 406 406 406 406 399 402 402 399 399 395 397 397 397 402 397 402 402 404 406 411 413 411 415 420 411 411 411 411 406 0 0 0 0 0 411 406 402 406 402 399 399 399 399 399 0 0 0 0 406 411 406 408 408 406 408 408 415 411 413 422 418 420 422 420 415 406 404 397 408 420 425 413 415 427 435 430 432 430 422 418 0 0 0 0 0 0 0 714 651 0 0 430 415 408 402 406 408 0 0 0 0 408 408 415 420 413 411 406 404 406 408 411 408 404 404 0 0 623 613 613 603 603 603 603 593 588 593 593 579 579 553 561 553 553 574 579 579 593 613 645 623 623 687 700 681 663 651 0 623 613 634 613 603 608 613 634 651 687 707 721 758 782 750 714 0 0 0 0 566 593 566 549 497 0 0 0 393 389 393 0 0 0 0 0
    0 0 0 0 0 0 0 0 0 0 0 0 0 0 0 0 0 0 0 0 0 0 0 0 0 0 0 0 0 0 0 0 0 0 0 0 0 0 0 0 0 0 0 0 0 0 0 0 0 0 0 0 0 0 0 0 0 0 0 0 0 0 0 0 0 0 0 0 0 404 402 399 399 397 399 397 397 399 399 402 404 402 402 402 404 404 399 402 399 399 402 399 402 402 402 402 404 404 404 404 406 404 404 406 402 397 395 395 397 397 395 393 393 395 395 395 395 0 0 0 0 0 0 0 0 406 404 402 399 395 399 397 0 0 0 0 0 404 406 406 399 404 402 399 399 397 397 397 397 402 397 399 399 402 404 408 411 408 413 418 408 411 408 408 406 0 0 0 406 406 411 406 402 406 404 399 399 402 402 399 404 406 404 0 406 408 404 408 408 406 406 408 413 411 411 418 411 413 415 413 411 402 402 397 408 420 425 415 418 427 432 425 427 420 415 411 418 415 415 420 425 425 422 420 425 427 427 418 411 408 404 404 408 408 406 406 406 404 404 406 413 408 406 406 404 404 406 408 406 404 402 402 402 0 0 0 0 623 623 613 608 603 603 588 566 561 541 541 537 0 557 566 557 566 0 0 603 598 0 0 0 0 0 0 623 629 0 618 618 618 669 687 707 721 721 728 743 766 743 0 0 0 0 0 0 0 0 0 493 465 0 0 395 393 395 0 0 0 0 0
    0 0 0 0 0 0 0 0 0 0 0 0 0 0 0 0 0 0 0 0 0 0 0 0 0 0 0 0 0 0 0 0 0 0 0 0 0 0 0 0 0 0 0 0 0 0 0 0 0 0 0 0 0 0 0 0 0 0 0 0 0 0 0 0 0 0 0 0 0 404 402 399 399 399 402 397 0 402 399 402 402 402 402 402 402 402 399 404 399 399 399 399 402 402 402 402 404 404 406 406 406 404 404 404 402 397 395 395 397 395 397 395 395 397 397 397 397 399 402 404 406 404 404 406 408 406 404 402 397 397 397 397 395 397 402 402 404 406 406 406 402 404 404 402 402 397 397 397 397 399 395 397 397 399 404 406 408 406 411 415 408 408 408 408 406 406 408 406 406 408 408 404 402 406 402 399 399 402 402 399 404 404 404 0 406 408 404 406 406 406 406 406 413 408 408 418 408 408 411 408 406 399 399 395 404 420 425 415 415 427 432 422 425 413 411 408 413 413 413 418 422 422 420 413 422 425 418 411 408 408 404 404 408 406 406 406 406 404 404 406 411 406 406 406 404 404 406 408 404 404 404 402 402 404 404 404 395 399 391 0 0 0 0 0 0 0 0 0 0 0 0 0 0 0 0 0 0 0 0 0 0 0 0 0 598 0 0 0 593 588 0 721 743 750 743 743 750 766 743 0 0 0 477 0 500 481 468 443 440 435 418 406 397 395 397 0 0 0 0 0
    0 0 0 0 0 0 0 0 0 0 0 0 0 0 0 0 0 0 0 0 0 0 0 0 0 0 0 0 0 0 0 0 0 0 0 0 0 0 0 0 0 0 0 0 0 0 0 0 0 0 0 0 0 0 0 0 0 0 0 0 0 0 0 0 0 0 0 0 0 404 402 399 402 402 404 399 402 404 0 404 404 404 402 402 404 402 399 402 399 397 399 399 402 402 402 402 404 404 406 406 408 404 404 404 402 397 395 397 397 395 395 395 395 397 397 397 397 399 402 404 406 404 404 406 408 408 404 402 399 399 399 399 397 399 402 404 406 406 406 406 402 404 404 402 402 399 399 397 397 399 395 397 397 399 402 406 406 406 411 413 408 411 408 408 406 408 408 406 406 406 406 404 402 402 402 399 399 399 399 399 404 404 402 0 406 406 404 406 406 406 406 406 413 406 408 413 404 404 404 402 399 397 397 395 399 411 418 411 411 422 427 420 422 411 411 408 411 413 413 415 420 420 418 411 418 420 413 408 406 406 404 404 408 406 406 406 406 404 404 406 408 404 406 404 404 404 404 408 406 404 404 404 404 404 404 404 397 402 395 397 397 397 402 402 404 399 0 0 0 0 0 0 0 381 0 408 408 408 411 408 411 413 0 0 0 0 0 618 593 0 0 707 750 758 743 0 0 0 735 0 481 474 481 477 487 471 448 432 430 427 411 406 399 399 399 0 0 0 0 0
    0 0 0 0 0 0 0 0 0 0 0 0 0 0 0 0 0 0 0 0 0 0 0 0 0 0 0 0 0 0 0 0 0 0 0 0 0 0 0 0 0 0 0 0 0 0 0 0 0 0 0 0 0 0 0 0 0 0 0 0 0 0 0 0 0 0 0 0 0 402 402 399 402 402 404 399 402 406 0 406 408 406 404 404 404 404 399 402 397 395 399 399 402 404 402 404 406 406 406 406 408 404 404 404 404 397 397 397 397 397 397 395 395 397 397 397 397 399 402 404 406 404 402 406 408 408 404 402 399 399 402 404 399 402 404 404 406 406 406 404 402 404 404 404 402 399 399 399 402 402 397 399 399 402 404 406 406 406 408 411 408 408 408 408 406 408 408 406 406 406 406 404 402 404 402 399 399 399 399 399 402 402 402 0 406 406 402 406 406 406 406 406 411 404 406 411 404 402 399 397 397 395 397 395 397 406 411 408 408 420 427 418 420 411 411 408 411 413 413 413 418 415 413 406 413 411 408 406 406 406 404 404 408 406 406 406 406 404 404 406 408 404 406 406 404 404 406 408 406 406 406 404 404 404 404 404 399 402 399 399 397 399 399 399 402 397 397 399 0 0 0 395 395 391 402 406 408 408 411 408 408 413 420 418 404 0 0 651 0 0 0 687 735 743 728 0 0 0 721 0 487 477 487 477 484 446 438 420 413 411 404 404 399 399 399 0 0 0 0 0
    0 0 0 0 0 0 0 0 0 0 0 0 0 0 0 0 0 0 0 0 0 0 0 0 0 0 0 0 0 0 0 0 0 0 0 0 0 0 0 0 0 0 0 0 0 0 0 0 0 0 0 0 0 0 0 0 0 0 0 0 0 0 0 0 0 0 0 0 0 402 399 399 402 402 404 399 402 408 404 408 408 408 406 404 404 402 397 397 393 391 395 397 402 404 402 402 406 406 408 406 408 404 404 404 404 399 397 397 399 397 397 397 397 397 397 395 397 402 402 406 406 404 404 408 408 408 406 404 402 402 402 404 402 402 406 406 406 406 406 406 402 406 406 406 404 402 402 402 402 404 397 399 399 402 404 406 404 404 408 411 406 408 406 408 406 408 408 406 408 406 404 404 404 404 402 399 399 399 399 399 402 402 399 399 404 404 402 406 406 406 406 406 408 404 406 411 404 402 399 397 397 397 397 395 399 402 406 406 408 413 415 411 411 406 408 406 408 408 408 411 413 413 411 406 411 408 408 406 406 406 404 406 408 406 406 406 406 406 404 408 408 404 406 408 406 406 406 408 406 406 406 406 404 404 404 404 402 404 399 399 397 397 399 399 399 395 395 395 0 0 0 395 395 393 402 406 408 408 411 408 408 411 420 418 406 0 0 645 613 0 0 669 700 707 707 0 0 0 0 0 487 481 487 477 477 0 430 408 404 402 399 402 399 399 399 0 0 0 0 0
    0 0 0 0 0 0 0 0 0 0 0 0 0 0 0 0 0 0 0 0 0 0 0 0 0 0 0 0 0 0 0 0 0 0 0 0 0 0 0 0 0 0 0 0 0 0 0 0 0 0 0 0 0 0 0 0 0 0 0 0 0 0 0 0 0 0 0 0 0 402 399 399 402 402 404 399 402 408 404 408 408 408 404 404 404 402 397 397 393 389 393 393 399 402 402 402 404 404 406 406 406 404 402 404 406 399 399 399 399 399 399 397 399 399 399 397 399 402 402 406 406 406 404 411 411 411 406 406 402 404 404 406 404 404 406 406 408 406 406 408 404 406 408 408 406 404 404 404 404 406 397 399 397 399 402 404 402 404 406 408 406 408 406 408 406 408 408 406 408 406 406 404 404 406 404 399 402 402 402 399 402 402 402 402 406 404 402 406 406 406 406 406 411 406 406 411 406 402 402 397 397 397 399 397 399 397 402 404 406 406 406 404 404 404 406 404 406 406 406 408 408 411 408 404 408 408 408 406 406 408 404 406 408 406 406 406 406 406 404 408 406 404 406 408 406 406 406 408 406 406 406 406 404 404 404 404 402 402 399 397 397 397 397 399 399 395 393 395 395 397 0 399 399 397 402 404 408 408 411 408 408 408 418 415 408 0 0 634 608 0 0 663 675 681 669 0 0 0 0 0 0 0 427 432 432 425 420 404 399 399 399 404 399 399 399 0 0 0 0 0
    0 0 0 0 0 0 0 0 0 0 0 0 0 0 0 0 0 0 0 0 0 0 0 0 0 0 0 0 0 0 0 0 0 0 0 0 0 0 0 0 0 0 0 0 0 0 0 0 0 0 0 0 0 0 0 0 0 0 0 0 0 0 0 0 0 0 0 0 0 402 402 402 402 404 404 402 402 406 404 408 408 406 404 402 404 399 397 397 393 391 395 395 399 402 399 399 404 404 404 404 404 402 402 402 406 399 399 399 402 402 399 399 402 402 404 399 402 404 404 411 411 411 408 415 413 413 408 408 404 404 404 406 402 404 406 406 408 406 406 408 404 408 408 411 408 404 406 404 406 408 399 397 397 399 402 404 402 404 406 408 406 408 406 406 406 408 408 406 408 406 406 406 406 406 404 402 402 399 402 399 402 402 399 402 404 404 402 404 406 404 406 406 408 404 406 408 406 402 402 399 399 397 399 397 402 397 402 404 404 404 402 404 402 404 406 404 406 406 408 408 408 408 406 406 408 408 411 408 406 408 404 406 408 406 406 406 406 406 404 408 408 404 406 408 406 406 406 408 406 406 408 406 406 406 404 404 402 402 399 397 397 397 397 397 397 397 395 395 399 399 0 402 402 399 404 406 408 408 411 408 408 408 413 411 406 399 393 0 0 0 0 0 0 675 0 0 0 0 0 0 440 430 415 415 411 408 404 402 397 397 397 402 399 402 402 0 0 0 0 0
    0 0 0 0 0 0 0 0 0 0 0 0 0 0 0 0 0 0 0 0 0 0 0 0 0 0 0 0 0 0 0 0 0 0 0 0 0 0 0 0 0 0 0 0 0 0 0 0 0 0 0 0 0 0 0 0 0 0 0 0 0 0 0 0 0 0 0 0 0 404 404 404 406 406 406 402 404 408 406 408 408 406 402 402 402 397 397 395 393 391 395 395 399 402 402 399 404 404 404 404 404 402 402 402 406 399 399 399 402 402 402 399 404 404 406 404 404 408 408 415 413 413 408 415 413 411 406 406 404 404 404 408 402 404 404 406 408 408 408 408 404 408 411 413 408 406 406 406 406 408 402 397 397 397 402 402 399 404 404 406 406 408 406 406 406 411 408 406 411 406 406 406 408 406 404 402 404 402 402 399 402 402 399 399 404 402 399 402 404 404 404 406 406 404 406 408 404 402 402 399 399 399 399 399 402 399 404 404 404 404 402 402 402 402 406 404 406 406 408 408 408 408 406 406 408 406 408 408 408 408 404 406 408 406 406 406 406 406 404 408 406 404 406 411 406 406 406 408 406 406 406 406 404 404 402 402 402 402 399 397 397 397 397 399 399 397 397 397 402 402 404 404 404 402 406 406 408 408 411 408 408 411 415 411 408 404 395 391 397 399 399 399 399 402 0 415 0 408 0 0 0 425 411 411 408 406 402 402 397 397 397 402 399 399 402 0 0 0 0 0
    0 0 0 0 0 0 0 0 0 0 0 0 0 0 0 0 0 0 0 0 0 0 0 0 0 0 0 0 0 0 0 0 0 0 0 0 0 0 0 0 0 0 0 0 0 0 0 0 0 0 0 0 0 0 0 0 0 0 0 0 0 0 0 0 0 0 0 0 0 406 406 406 408 408 408 404 404 408 406 408 406 406 402 399 402 0 0 395 393 391 395 395 402 402 402 399 404 404 406 404 406 404 402 404 408 399 402 402 402 402 402 402 404 404 406 406 406 408 408 415 413 413 406 413 411 408 404 406 402 404 404 408 404 406 406 406 408 408 408 408 404 408 411 413 408 406 406 406 406 411 404 399 399 399 404 404 402 404 406 406 406 408 406 406 406 411 408 408 411 408 406 408 408 408 406 404 404 402 402 402 402 402 399 399 404 402 399 402 404 402 404 406 406 404 406 408 406 402 402 399 397 399 399 399 402 399 402 404 404 404 402 402 402 404 406 406 408 406 408 406 406 408 404 404 406 404 408 408 408 408 404 408 408 406 406 406 406 406 404 411 406 404 406 411 408 406 406 406 406 406 406 406 404 402 402 399 402 402 399 399 399 397 399 399 399 397 397 399 402 404 404 404 404 402 406 408 411 411 411 411 408 411 418 413 411 406 395 393 397 395 397 399 397 397 399 404 399 399 397 404 408 408 406 411 406 404 402 399 397 397 397 402 399 399 399 0 0 0 0 0
    0 0 0 0 0 0 0 0 0 0 0 0 0 0 0 0 0 0 0 0 0 0 0 0 0 0 0 0 0 0 0 0 0 0 0 0 0 0 0 0 0 0 0 0 0 0 0 0 0 0 0 0 0 0 0 0 0 0 0 0 0 0 0 0 0 0 0 0 0 408 406 408 408 408 411 404 404 406 406 406 406 404 402 399 0 0 0 397 395 393 397 397 402 404 402 402 404 404 406 404 406 404 402 406 411 402 404 404 404 406 406 404 406 406 408 406 406 408 411 418 413 413 404 411 408 406 402 404 402 406 406 411 404 408 406 408 411 408 408 411 404 408 411 413 411 406 408 408 408 413 406 404 404 406 408 408 404 406 406 408 408 411 408 408 408 413 408 408 411 408 406 408 408 408 404 404 404 402 404 402 402 402 399 399 404 402 399 399 404 402 404 406 406 404 408 408 408 402 402 399 399 399 399 399 402 399 402 404 402 402 402 402 402 404 406 406 408 406 408 406 406 406 404 404 406 404 408 408 408 408 404 408 408 406 406 406 406 406 406 413 406 406 408 411 408 406 408 408 408 408 408 408 406 404 404 402 404 402 402 399 399 399 399 399 402 397 399 399 402 404 406 406 404 402 406 406 411 411 411 411 411 413 420 413 418 411 395 393 395 393 395 397 395 397 399 404 402 399 399 404 404 408 406 408 404 402 402 399 397 397 397 402 399 399 399 0 0 0 0 0
    0 0 0 0 0 0 0 0 0 0 0 0 0 0 0 0 0 0 0 0 0 0 0 0 0 0 0 0 0 0 0 0 0 0 0 0 0 0 0 0 0 0 0 0 0 0 0 0 0 0 0 0 0 0 0 0 0 0 0 0 0 0 0 0 0 0 0 0 0 408 406 408 408 408 408 404 402 406 404 406 406 406 404 402 404 399 402 399 397 397 402 399 402 404 402 402 404 404 406 404 406 404 404 406 413 404 406 406 406 408 408 408 408 408 408 406 408 408 408 0 0 0 0 0 406 402 399 404 402 404 406 413 406 408 408 408 411 408 408 408 404 408 411 413 411 408 408 408 408 415 408 406 406 408 408 411 404 408 408 408 408 408 408 408 406 413 408 408 413 408 408 411 411 408 406 404 404 404 404 402 399 402 402 399 404 402 399 399 402 402 402 406 406 406 408 411 411 404 404 402 402 402 399 399 402 399 404 404 404 402 402 404 402 404 406 406 406 406 408 406 406 406 404 404 406 406 408 411 411 408 404 408 408 408 406 406 406 406 408 415 408 406 408 415 411 408 411 408 408 411 408 411 406 404 404 402 404 404 404 402 402 399 399 402 402 397 397 399 402 404 406 406 404 404 406 406 411 411 411 411 411 413 422 413 420 415 397 395 397 395 395 397 397 397 399 404 402 399 399 404 404 406 406 406 404 402 402 399 397 399 397 399 399 399 402 0 0 0 0 0
    0 0 0 0 0 0 0 0 0 0 0 0 0 0 0 0 0 0 0 0 0 0 0 0 0 0 0 0 0 0 0 0 0 0 0 0 0 0 0 0 0 0 0 0 0 0 0 0 0 0 0 0 0 0 0 0 0 0 0 0 0 0 0 0 0 0 0 0 0 408 406 408 408 408 408 402 402 404 402 404 404 404 402 402 402 402 402 404 399 399 402 399 402 404 402 399 404 404 404 404 406 404 404 408 413 404 406 408 408 408 411 411 411 408 411 406 408 408 406 0 0 0 0 0 402 397 397 402 402 404 406 411 406 408 408 411 408 408 408 408 404 411 411 413 411 408 411 411 411 418 411 408 408 408 408 411 404 408 406 406 406 406 406 406 404 413 408 408 413 408 408 413 411 408 406 406 406 404 404 402 399 402 402 402 404 402 399 399 402 402 402 406 406 406 411 411 411 406 406 404 404 404 402 402 404 402 404 406 404 402 402 404 402 402 404 404 406 406 408 406 406 406 404 406 406 406 411 413 411 408 406 411 411 408 408 406 406 406 408 415 408 408 408 418 413 411 413 411 411 411 411 411 406 406 406 402 406 404 404 402 402 402 399 399 402 397 397 399 402 404 406 406 406 404 408 408 411 411 413 411 411 415 420 413 422 420 399 399 402 399 399 399 399 402 399 404 402 399 399 404 404 406 406 406 402 399 399 399 395 397 397 399 399 399 399 0 0 0 0 0
    0 0 0 0 0 0 0 0 0 0 0 0 0 0 0 0 0 0 0 0 0 0 0 0 0 0 0 0 0 0 0 0 0 0 0 0 0 0 0 0 0 0 0 0 0 0 0 0 0 0 0 0 0 0 0 0 0 0 0 0 0 0 0 0 0 0 0 0 0 408 408 408 411 411 411 404 402 404 402 404 404 404 402 399 402 399 402 402 399 399 402 399 402 402 399 399 404 404 404 404 406 402 402 406 411 404 406 408 408 411 411 413 413 411 413 408 408 408 406 0 0 0 395 399 399 397 395 402 402 404 406 408 406 408 408 411 411 408 411 411 404 411 413 413 411 411 411 411 411 420 411 408 408 408 408 408 404 406 404 404 404 404 404 406 404 413 406 408 413 408 411 413 413 408 408 406 406 404 404 404 402 402 402 402 404 402 399 399 404 402 402 406 406 408 413 413 413 408 406 406 404 406 402 402 404 404 406 406 404 402 402 404 402 402 404 404 406 406 406 406 408 408 404 406 408 406 411 413 413 408 406 408 411 408 408 406 406 406 408 413 411 408 408 415 413 411 413 411 411 411 411 413 406 406 406 402 406 404 404 404 402 402 402 402 402 397 399 399 404 404 408 406 406 406 408 408 411 411 413 411 411 415 420 413 422 420 399 397 402 399 399 399 399 402 402 404 404 402 404 406 406 408 408 408 404 402 399 399 397 399 399 399 399 399 402 0 0 0 0 0
    0 0 0 0 0 0 0 0 0 0 0 0 0 0 0 0 0 0 0 0 0 0 0 0 0 0 0 0 0 0 0 0 0 0 0 0 0 0 0 0 0 0 0 0 0 0 0 0 0 0 0 0 0 0 0 0 0 0 0 0 0 0 0 0 0 0 0 0 0 411 408 408 411 413 413 404 402 402 399 402 402 402 399 399 399 402 402 404 402 402 402 399 402 402 399 399 402 402 402 402 404 402 402 406 411 404 406 408 411 411 411 413 413 411 415 411 411 408 408 411 404 399 389 393 395 393 393 397 397 402 406 406 406 408 411 415 413 411 413 413 404 413 413 413 411 411 413 411 411 422 411 411 411 411 408 408 404 406 404 404 402 404 402 404 404 411 408 411 411 411 411 415 413 408 408 408 406 406 406 404 402 406 406 402 404 402 402 402 404 404 402 406 406 411 415 413 413 408 408 408 406 0 402 402 406 404 406 404 404 402 402 402 399 402 402 402 404 404 406 406 408 408 404 406 408 408 411 415 413 408 406 408 411 408 408 408 406 406 411 413 411 408 408 413 411 411 413 411 411 411 408 411 406 408 406 402 406 404 406 404 404 404 404 402 404 402 402 402 406 404 408 406 406 406 408 408 411 411 413 411 411 415 418 413 425 420 399 395 399 399 399 399 397 399 402 404 404 402 404 406 408 408 411 408 406 404 402 399 399 399 399 399 402 402 402 0 0 0 0 0
    0 0 0 0 0 0 0 0 0 0 0 0 0 0 0 0 0 0 0 0 0 0 0 0 0 0 0 0 0 0 0 0 0 0 0 0 0 0 0 0 0 0 0 0 0 0 0 0 0 0 0 0 0 0 0 0 0 0 0 0 0 0 0 0 0 0 0 0 0 411 408 408 413 415 418 404 399 399 399 399 399 0 0 0 0 0 402 402 402 402 402 402 402 402 402 399 402 402 402 402 404 402 402 404 411 404 406 408 411 411 413 413 413 413 418 413 411 411 411 411 402 397 389 391 395 393 391 395 397 402 404 406 406 411 413 420 418 415 420 415 404 413 413 411 411 411 411 411 408 420 411 411 413 411 411 411 408 411 406 404 402 404 404 406 404 411 408 411 411 411 411 413 411 408 408 408 408 408 408 408 404 408 408 404 404 402 402 402 404 404 404 408 408 411 418 413 413 408 408 408 406 406 402 402 404 404 404 404 404 402 402 402 402 402 402 402 404 406 406 408 408 408 404 408 411 408 411 415 413 406 408 408 411 408 408 408 406 406 411 411 411 411 408 413 411 411 413 411 411 411 408 411 408 408 408 404 408 406 406 404 404 404 404 404 406 402 404 404 408 406 411 406 404 406 408 408 408 411 413 411 411 418 418 415 425 425 406 399 404 402 402 404 399 402 402 402 402 402 404 406 406 411 411 413 408 404 404 399 402 402 402 399 402 402 404 0 0 0 0 0
    0 0 0 0 0 0 0 0 0 0 0 0 0 0 0 0 0 0 0 0 0 0 0 0 0 0 0 0 0 0 0 0 0 0 0 0 0 0 0 0 0 0 0 0 0 0 0 0 0 0 0 0 0 0 0 0 0 0 0 0 0 0 0 0 0 0 0 0 0 411 408 408 411 415 418 404 397 395 397 0 0 0 0 0 0 0 399 402 399 402 402 399 402 402 402 399 402 402 402 402 404 402 402 404 408 404 406 406 0 0 0 0 0 413 415 411 408 408 408 406 0 0 0 391 395 0 391 395 395 399 404 404 408 413 418 422 418 418 422 415 404 413 411 408 408 408 411 408 408 420 408 413 415 415 413 413 408 413 408 406 404 404 404 411 408 413 413 415 413 411 413 415 411 408 411 411 408 408 411 408 406 411 411 406 406 402 404 404 406 404 404 408 408 411 418 413 413 411 408 411 408 408 404 402 404 404 406 406 406 404 404 404 404 404 402 404 406 406 408 408 411 411 406 408 411 408 411 413 411 406 408 408 411 408 408 408 406 406 413 411 413 411 408 413 411 411 415 411 411 411 408 413 408 411 408 404 408 408 408 406 408 408 406 406 408 404 404 406 408 404 411 406 404 406 408 408 408 411 413 411 413 420 418 418 427 427 420 408 418 411 411 411 406 404 404 402 404 402 404 406 408 411 413 415 408 406 404 399 402 402 402 399 402 404 406 0 0 0 0 0
    0 0 0 0 0 0 0 0 0 0 0 0 0 0 0 0 0 0 0 0 0 0 0 0 0 0 0 0 0 0 0 0 0 0 0 0 0 0 0 0 0 0 0 0 0 0 0 0 0 0 0 0 0 0 0 0 0 0 0 0 0 0 0 0 0 0 0 0 0 408 406 404 406 411 413 402 389 383 0 0 0 0 0 0 0 0 402 404 402 402 404 402 402 402 399 399 402 399 402 399 404 402 402 404 406 402 406 406 0 0 0 0 0 0 415 411 408 408 406 406 0 0 0 0 0 0 0 0 395 0 402 402 406 413 418 422 420 418 425 418 404 413 411 408 408 408 411 408 408 420 411 415 0 0 0 0 413 415 411 408 404 404 404 413 411 413 413 418 415 411 413 415 411 406 411 408 406 408 408 408 406 408 411 404 402 402 404 404 404 404 404 408 408 411 420 413 415 413 411 411 408 411 404 402 404 404 406 406 406 404 406 406 408 406 404 404 404 406 408 411 413 411 408 411 413 411 411 415 411 404 408 408 408 408 408 408 406 406 413 411 413 411 408 413 411 413 415 413 411 411 411 415 411 415 411 408 413 411 413 411 411 408 406 408 408 404 404 404 406 402 408 406 404 406 408 408 411 411 415 411 413 420 418 418 427 425 422 415 422 420 420 420 413 411 408 408 406 404 406 408 411 415 415 418 408 406 404 402 402 404 402 402 404 406 406 0 0 0 0 0
    0 0 0 0 0 0 0 0 0 0 0 0 0 0 0 0 0 0 0 0 0 0 0 0 0 0 0 0 0 0 0 0 0 0 0 0 0 0 0 0 0 0 0 0 0 0 0 0 0 0 0 0 0 0 0 0 0 0 0 0 0 0 0 0 0 0 0 0 0 404 404 399 399 406 406 397 381 0 0 0 0 0 0 246 246 0 0 406 404 404 404 402 399 399 397 399 399 399 399 399 402 402 402 404 406 402 406 406 0 0 0 0 0 0 0 408 0 408 406 406 0 0 0 0 0 0 0 0 395 399 402 404 0 415 415 422 420 420 425 418 404 413 411 411 408 408 411 411 408 420 411 0 0 0 0 0 0 0 411 408 404 404 404 413 413 413 413 415 413 411 411 413 408 404 408 408 406 408 408 406 404 406 408 402 399 399 402 402 404 406 404 406 408 411 418 411 413 413 411 411 408 408 402 0 0 0 0 402 404 404 404 406 406 404 399 397 402 406 406 411 413 411 411 415 418 415 413 418 411 404 411 408 411 408 408 411 408 408 413 408 411 411 408 413 408 411 415 413 413 413 413 418 415 420 415 413 418 418 418 415 413 411 408 408 408 404 404 404 404 402 408 406 404 408 408 408 411 411 415 411 413 420 415 415 422 418 415 413 420 420 422 422 415 413 411 411 408 404 408 408 411 418 415 420 406 406 402 402 402 404 402 402 404 406 406 0 0 0 0 0
    0 0 0 0 0 0 0 0 0 0 0 0 0 0 0 0 0 0 0 0 0 0 0 0 0 0 0 0 0 0 0 0 0 0 0 0 0 0 0 0 0 0 0 0 0 0 0 0 0 0 0 0 0 0 0 0 0 0 0 0 0 0 0 0 0 0 0 0 0 402 402 395 391 0 0 393 375 0 0 0 0 246 0 245 245 0 0 408 404 404 402 399 397 397 395 399 399 397 399 399 402 402 402 404 406 402 406 0 0 0 0 0 0 0 0 0 0 0 0 0 0 0 0 0 0 0 0 0 0 0 404 404 0 0 0 422 0 0 427 418 404 413 411 411 408 408 411 411 408 422 0 0 0 0 0 0 0 0 408 406 404 402 402 411 411 411 413 415 413 411 411 413 406 404 411 408 408 408 408 406 404 406 408 402 399 399 404 402 404 406 406 408 408 408 418 408 411 411 408 408 0 0 0 0 0 0 0 0 0 0 0 404 404 402 395 397 402 404 406 408 411 408 411 415 420 418 413 418 413 404 413 411 411 408 408 411 408 408 413 408 408 408 408 411 408 411 413 411 413 413 413 418 418 420 415 413 420 418 415 418 415 413 408 411 411 404 404 406 404 402 406 406 404 408 408 408 411 411 415 413 413 420 413 415 418 415 411 411 418 420 422 420 413 413 408 411 408 404 406 408 408 413 411 413 404 402 399 399 402 402 402 402 404 404 406 0 0 0 0 0
    0 0 0 0 0 0 0 0 0 0 0 0 0 0 0 0 0 0 0 0 0 0 0 0 0 0 0 0 0 0 0 0 0 0 0 0 0 0 0 0 0 0 0 0 0 0 0 0 0 0 0 0 0 0 0 0 0 0 0 0 0 0 0 0 0 0 0 0 0 397 0 393 0 0 0 0 0 0 0 302 246 245 243 245 244 246 243 0 395 399 393 391 389 387 389 0 0 395 397 399 404 402 402 404 404 402 406 0 0 0 0 0 0 0 0 0 0 0 0 0 0 0 0 0 0 176 0 0 0 0 0 0 0 0 0 0 0 0 0 420 404 413 411 411 406 408 408 408 408 422 0 0 0 0 0 0 0 0 0 408 404 402 402 413 413 411 413 415 411 411 411 413 406 404 411 408 408 408 408 408 406 406 408 402 399 397 404 402 404 406 406 408 408 408 418 408 411 411 408 408 0 876 876 0 0 0 0 629 0 0 0 404 404 402 395 399 402 402 404 408 408 408 408 415 422 422 418 420 415 404 415 413 411 408 408 411 408 406 413 406 408 408 406 408 408 411 413 411 411 413 413 415 415 415 411 411 418 415 413 415 418 413 411 413 413 408 408 408 406 402 408 406 406 411 411 411 411 413 415 413 413 420 411 411 413 411 411 411 420 422 422 420 415 418 411 408 408 406 406 408 411 415 411 413 404 402 399 399 402 402 402 402 402 404 404 0 0 0 0 0
    0 0 0 0 0 0 0 0 0 0 0 0 0 0 0 0 0 0 0 0 0 0 0 0 0 0 0 0 0 0 0 0 0 0 0 0 0 0 0 0 0 0 0 0 0 0 0 0 0 0 0 0 0 0 0 0 0 0 0 0 0 0 0 0 0 0 0 0 0 0 0 0 0 0 0 0 0 0 0 0 0 0 0 246 246 246 0 0 0 0 379 379 377 0 0 0 0 0 397 399 402 402 402 402 404 0 0 0 0 0 0 0 0 0 0 0 0 0 0 0 0 0 0 0 0 0 0 0 0 0 0 0 0 0 0 0 246 243 0 425 406 413 408 408 406 406 408 406 406 418 0 0 0 0 0 0 0 0 0 413 406 404 404 413 415 411 413 413 411 408 408 411 404 404 411 411 408 408 411 408 406 408 408 402 399 397 404 402 404 406 408 411 408 411 418 408 413 413 408 0 0 826 845 0 0 0 675 634 0 0 0 404 406 404 395 399 402 402 404 406 408 406 408 415 425 425 420 422 415 404 415 413 411 408 408 408 406 406 413 406 406 406 406 408 408 411 413 411 411 413 413 413 415 413 408 408 413 411 413 415 418 415 413 415 413 411 411 411 408 404 411 408 406 411 411 411 411 413 413 411 413 418 408 411 411 406 408 411 420 422 422 420 413 418 411 408 408 406 406 406 411 420 413 415 402 402 399 399 402 402 402 402 402 404 404 0 0 0 0 0
    0 0 0 0 0 0 0 0 0 0 0 0 0 0 0 0 0 0 0 0 0 0 0 0 0 0 0 0 0 0 0 0 0 0 0 0 0 0 0 0 0 0 0 0 0 0 0 0 0 0 0 0 0 0 0 0 0 0 0 0 0 0 0 0 0 0 0 0 0 0 0 197 0 0 0 0 0 0 0 0 0 0 0 0 255 253 0 264 262 0 0 0 0 0 0 0 0 0 387 393 402 402 399 0 0 0 0 109 0 0 0 0 0 0 0 0 0 0 0 0 0 0 0 0 0 0 0 0 0 0 0 0 0 0 0 0 246 245 243 0 0 411 406 406 404 404 404 406 404 0 0 0 0 0 0 0 0 0 0 422 411 406 406 415 415 411 413 413 411 408 408 411 404 404 411 411 408 408 411 411 408 408 0 402 399 397 402 402 404 406 408 411 408 408 418 408 411 411 0 774 808 799 836 0 0 0 657 623 0 0 0 404 406 406 397 402 404 404 406 406 408 406 411 418 427 430 427 425 418 404 418 415 411 408 408 408 406 406 413 404 406 406 406 408 408 411 413 411 411 413 413 413 413 413 408 408 413 411 411 415 420 418 413 415 411 411 411 408 408 408 413 408 406 413 411 411 411 411 411 408 411 415 406 408 411 408 415 425 427 425 422 418 411 413 406 404 404 402 404 404 408 418 411 413 402 399 399 399 402 402 402 399 399 402 402 0 0 0 0 0
    0 0 0 0 0 0 0 0 0 0 0 0 0 0 0 0 0 0 0 0 0 0 0 0 0 0 0 0 0 0 0 0 0 0 0 0 0 0 0 0 0 0 0 0 0 0 0 0 0 0 0 0 0 0 0 0 0 0 0 0 0 0 0 0 0 0 0 0 0 0 200 195 0 0 0 0 0 0 0 0 0 0 0 0 0 0 0 269 268 0 0 0 0 0 0 0 0 0 0 393 0 0 0 0 0 0 0 0 0 0 0 0 0 0 0 0 0 0 0 226 0 0 0 0 0 0 0 0 0 0 0 0 0 165 163 0 246 246 245 244 244 243 402 404 399 399 402 402 399 0 0 0 0 0 0 943 865 782 0 422 411 406 406 415 413 411 413 413 411 406 406 408 402 402 411 411 408 406 0 408 406 404 0 0 397 395 402 402 402 406 411 411 408 406 0 0 406 0 791 782 799 808 845 0 0 0 645 0 623 0 0 0 411 408 399 404 404 404 406 408 408 406 411 415 427 432 432 427 420 406 420 418 413 408 406 408 406 406 413 404 404 406 406 408 408 411 413 411 411 413 413 413 413 411 408 408 413 411 408 415 420 420 415 415 411 411 413 408 411 411 415 411 408 413 411 411 411 411 408 406 408 413 406 408 408 411 422 0 430 430 422 413 408 408 404 399 402 402 404 406 415 430 418 420 402 402 399 399 399 402 399 399 397 399 399 0 0 0 0 0
    0 0 0 0 0 0 0 0 0 0 0 0 0 0 0 0 0 0 0 0 0 0 0 0 0 0 0 0 0 0 0 0 0 0 0 0 0 0 0 0 0 0 0 0 0 0 0 0 0 0 0 0 0 0 0 0 0 0 0 0 0 0 0 0 0 0 0 0 0 0 202 199 0 0 314 314 314 0 0 0 0 0 0 0 0 0 0 0 0 0 0 198 0 0 0 0 0 0 0 0 0 0 0 0 0 0 0 0 0 0 0 0 0 0 232 232 231 231 231 226 0 0 0 0 0 3199 0 0 0 0 0 0 0 0 0 0 245 243 243 243 244 245 0 0 0 0 0 0 0 0 0 0 0 0 0 845 845 0 141 0 0 0 117 0 0 0 413 413 411 406 406 408 399 399 408 408 0 0 0 0 402 0 0 395 393 393 397 397 399 404 411 411 406 0 0 0 0 808 799 782 791 799 0 0 2943 0 0 0 618 0 0 0 411 413 399 408 406 404 406 408 406 404 406 411 0 0 0 430 422 406 422 420 413 408 406 406 406 408 411 404 404 404 406 406 408 411 411 411 411 413 413 411 413 411 408 408 411 408 408 415 422 420 418 415 413 415 415 411 0 413 418 411 408 415 411 411 411 408 406 406 406 408 404 404 0 0 0 0 0 0 422 408 0 0 399 391 393 395 397 395 399 411 411 413 402 402 399 399 399 399 397 397 397 397 397 0 0 0 0 0
    0 0 0 0 0 0 0 0 0 0 0 0 0 0 0 0 0 0 0 0 0 0 0 0 0 0 0 0 0 0 0 0 0 0 0 0 0 0 0 0 0 0 0 0 0 0 0 0 0 0 0 0 0 0 0 0 0 0 0 0 0 0 0 0 0 0 0 0 0 310 307 307 314 313 314 317 318 321 319 0 0 0 0 0 0 0 0 0 0 0 0 0 0 0 0 0 0 0 0 0 252 251 250 250 0 0 0 0 0 0 0 0 0 0 0 0 0 0 0 0 0 0 0 0 0 0 0 0 0 0 0 0 0 0 0 0 0 0 0 0 0 0 0 0 0 0 0 0 0 0 0 0 0 865 826 826 0 0 0 0 0 645 0 0 0 0 0 0 0 184 184 0 395 391 404 406 994 0 0 0 0 395 0 391 387 385 391 393 391 397 418 0 0 603 603 593 0 826 808 774 766 735 714 0 0 0 639 613 0 0 0 404 406 408 395 406 402 395 397 402 397 395 393 0 0 0 0 0 432 418 427 427 415 408 406 406 406 406 408 399 399 402 404 404 406 408 408 408 411 413 413 411 413 408 408 406 408 406 404 411 418 418 415 411 408 411 0 0 0 418 422 411 411 418 413 408 408 408 404 402 402 399 399 0 0 0 0 0 0 0 0 0 0 0 399 391 391 391 391 389 393 395 397 395 395 399 397 399 397 399 395 397 395 395 397 0 0 0 0 0
    0 0 0 0 0 0 0 0 0 0 0 0 0 0 0 0 0 0 0 0 0 0 0 0 0 0 0 0 0 0 0 0 0 0 0 0 0 0 0 0 0 0 0 0 0 0 0 0 0 0 0 0 0 0 0 0 0 0 0 0 0 0 0 0 0 0 0 0 0 314 313 313 317 317 318 321 321 324 321 321 319 0 318 0 313 313 311 311 313 313 313 307 0 0 0 0 0 0 0 0 0 248 247 0 333 325 319 0 0 0 0 232 0 0 0 0 0 0 0 0 0 0 0 0 0 0 0 4906 0 0 209 209 0 0 0 0 0 0 0 0 0 0 0 0 0 0 0 0 0 0 7359 0 0 0 0 0 0 0 0 0 0 0 0 0 0 0 0 0 0 0 0 0 0 381 389 955 908 865 855 0 0 0 0 0 0 379 381 381 0 593 608 598 593 593 593 0 0 865 836 799 799 735 766 694 0 675 639 618 618 618 0 0 0 0 389 399 402 395 397 399 397 395 391 0 561 574 549 507 0 435 435 435 422 408 406 406 404 406 404 397 397 399 404 404 406 408 411 411 411 413 413 411 411 406 406 404 406 404 399 406 413 415 418 406 404 0 0 0 0 0 430 415 413 420 413 408 406 406 402 399 397 395 397 0 0 0 0 0 0 0 0 0 0 0 0 0 0 391 391 389 391 393 395 391 393 393 395 397 395 397 393 393 389 391 391 0 0 0 0 0
    0 0 0 0 0 0 0 0 0 0 0 0 0 0 0 0 0 0 0 0 0 0 0 0 0 0 0 0 0 0 0 0 0 0 0 0 0 0 0 0 0 0 0 0 0 0 0 0 0 0 0 0 0 0 0 0 0 0 0 0 0 0 0 0 0 0 0 0 0 317 315 315 318 318 318 321 322 324 322 322 321 321 318 317 317 315 315 317 317 317 315 311 310 294 0 0 0 0 0 0 0 0 0 0 0 0 321 319 241 235 233 0 0 0 194 193 0 0 0 0 0 0 5661 2725 0 0 0 0 994 0 0 0 207 0 0 0 0 0 0 0 0 0 0 0 0 0 0 0 0 8177 0 6133 0 0 826 826 743 681 1022 1022 1022 1022 0 0 0 0 0 0 0 0 0 0 0 0 0 0 0 0 0 0 0 0 0 799 0 0 0 0 360 0 0 0 0 0 0 0 0 0 0 817 826 826 845 0 0 0 634 613 618 613 0 0 402 399 391 404 402 397 397 399 0 0 389 584 584 593 570 557 553 593 0 0 430 408 402 402 399 399 399 395 395 399 406 404 408 411 413 411 411 413 413 408 406 402 0 0 0 0 395 0 0 415 420 406 0 0 0 0 0 0 438 422 418 422 411 406 404 404 399 395 395 395 0 0 0 0 0 0 0 0 0 0 0 0 0 0 0 0 0 387 389 389 391 387 389 391 393 395 393 395 389 389 381 385 385 0 0 0 0 0
    0 0 0 0 0 0 0 0 0 0 0 0 0 0 0 0 0 0 0 0 0 0 0 0 0 0 0 0 0 0 0 0 0 0 0 0 0 0 0 0 0 0 0 0 0 0 0 0 0 0 0 0 0 0 0 0 0 0 0 0 0 0 0 0 0 0 0 0 0 318 317 317 318 318 318 321 322 324 322 321 321 321 318 318 317 317 315 317 315 317 315 314 311 297 309 0 0 0 0 0 0 0 325 327 331 327 321 321 0 234 0 0 0 195 195 0 0 0 0 0 0 0 4599 2453 1752 1338 0 0 0 0 0 0 0 0 223 228 227 0 0 0 0 0 1082 981 919 865 865 0 0 0 0 0 855 855 855 865 836 968 1051 1036 1066 1051 1051 1036 1051 0 0 0 0 0 0 0 0 0 0 0 0 0 0 0 0 0 0 0 459 422 471 0 0 651 639 639 0 0 0 0 0 0 0 0 0 0 0 0 0 735 0 0 0 0 0 0 0 0 0 0 0 0 0 0 0 0 0 0 553 553 549 553 574 608 0 0 0 0 0 395 393 395 397 395 397 399 406 408 413 420 422 418 418 415 415 406 0 0 0 593 0 0 0 0 0 420 420 408 0 0 0 0 0 484 451 0 0 0 408 399 399 397 393 389 389 0 0 0 0 0 0 0 0 0 0 0 721 707 0 0 0 0 0 0 0 383 383 381 383 385 389 391 383 387 379 379 373 375 377 0 0 0 0 0
    0 0 0 0 0 0 0 0 0 0 0 0 0 0 0 0 0 0 0 0 0 0 0 0 0 0 0 0 0 0 0 0 0 0 0 0 0 0 0 0 0 0 0 0 0 0 0 0 0 0 0 0 0 0 0 0 0 0 0 0 0 0 0 0 0 0 0 0 0 318 318 317 318 318 318 321 321 322 321 321 321 319 318 317 317 315 315 315 315 317 315 315 314 313 314 313 0 0 0 0 0 325 324 324 328 325 321 321 318 0 0 0 195 0 0 0 0 0 0 0 0 0 4906 2725 1752 0 0 1098 1051 0 0 315 0 0 0 227 227 224 0 175 0 0 0 0 0 0 931 897 876 0 0 0 0 908 0 0 0 1338 1226 1268 1291 1247 1206 1149 1066 1187 0 0 0 0 0 0 0 0 0 0 0 0 0 0 0 0 0 0 0 387 0 0 360 0 584 603 603 603 0 0 0 0 0 0 0 0 0 0 322 0 0 0 0 0 325 331 319 336 336 331 328 331 0 0 0 0 0 0 0 0 0 0 0 0 0 0 0 0 0 0 0 0 0 0 0 0 0 0 0 0 0 0 0 0 0 0 0 0 0 603 584 0 0 0 0 0 0 0 0 0 322 0 0 490 0 0 0 0 399 393 393 391 389 383 0 0 0 0 0 0 0 0 0 0 0 0 774 0 0 0 0 0 0 0 0 379 377 375 377 377 379 377 369 371 369 369 366 367 0 0 0 0 0 0
    0 0 0 0 0 0 0 0 0 0 0 0 0 0 0 0 0 0 0 0 0 0 0 0 0 0 0 0 0 0 0 0 0 0 0 0 0 0 0 0 0 0 0 0 0 0 0 0 0 0 0 0 0 0 0 0 0 0 0 0 0 0 0 0 0 0 0 0 0 318 317 317 318 318 318 319 321 321 321 319 319 318 317 317 315 315 315 315 315 315 315 315 314 315 315 315 0 0 0 0 0 325 322 324 327 324 321 321 318 319 317 0 0 0 0 0 168 0 0 0 0 0 5256 2943 0 0 0 0 0 0 0 0 318 0 0 229 229 226 0 0 0 0 0 322 321 0 0 0 0 0 0 0 0 0 0 1415 0 0 0 0 1314 1247 1149 1066 1051 1168 1051 0 0 0 0 0 0 0 333 330 0 0 328 322 0 360 0 0 371 375 371 367 360 357 0 0 180 0 0 0 0 0 0 0 331 328 325 328 324 324 0 0 0 318 325 331 322 328 334 331 328 331 336 330 0 0 0 500 0 0 0 0 0 314 310 311 315 321 318 0 0 0 0 0 0 0 0 0 0 0 0 0 0 0 0 199 0 0 0 0 0 334 0 343 336 331 325 322 324 319 319 0 0 0 0 0 0 0 0 0 0 0 379 0 0 0 0 0 0 8177 0 0 0 0 0 0 826 0 0 0 0 0 0 0 0 0 0 0 375 375 375 369 364 364 362 360 360 360 357 0 0 0 0 0
    0 0 0 0 0 0 0 0 0 0 0 0 0 0 0 0 0 0 0 0 0 0 0 0 0 0 0 0 0 0 0 0 0 0 0 0 0 0 0 0 0 0 0 0 0 0 0 0 0 0 0 0 0 0 0 0 0 0 0 0 0 0 0 0 0 0 0 0 0 318 317 315 318 317 317 319 319 319 318 318 318 317 315 315 315 315 315 315 315 315 317 317 314 315 315 315 0 0 0 0 324 324 322 325 325 324 322 322 319 321 319 321 0 0 0 0 0 0 0 0 0 0 0 0 0 0 0 0 0 330 324 321 319 0 0 0 0 0 0 0 321 0 322 322 321 321 321 322 321 0 322 327 324 328 0 0 0 0 334 336 0 1187 1066 0 0 0 0 0 0 0 0 0 327 330 328 327 327 324 328 325 336 348 0 357 364 366 366 366 359 355 350 0 187 184 181 0 0 0 330 330 330 328 325 328 324 325 324 0 319 318 325 328 322 322 327 325 324 325 333 324 324 322 0 0 0 353 0 0 0 315 314 317 318 321 319 319 325 324 337 334 334 330 322 321 0 0 0 0 0 0 0 0 0 0 0 0 0 0 333 337 331 327 327 322 321 317 0 0 0 0 348 350 343 337 0 0 0 0 328 0 0 0 0 0 0 6690 6690 0 0 0 0 0 836 766 0 0 0 0 0 0 0 0 0 0 373 373 371 366 359 357 353 353 353 353 348 0 0 0 0 0
    0 0 0 0 0 0 0 0 0 0 0 0 0 0 0 0 0 0 0 0 0 0 0 0 0 0 0 0 0 0 0 0 0 0 0 0 0 0 0 0 0 0 0 0 0 0 0 0 0 0 0 0 0 0 0 0 0 0 0 0 0 0 0 0 0 0 0 0 0 319 318 315 318 317 317 318 318 318 317 317 318 317 315 317 317 315 315 317 315 317 317 317 314 314 314 314 0 0 0 0 322 324 322 325 325 325 322 322 321 321 321 321 319 0 0 0 0 0 0 0 0 0 0 0 0 0 0 0 328 328 324 321 321 321 319 0 0 0 0 322 322 324 322 324 321 322 322 324 322 325 324 328 325 330 325 0 0 333 331 333 325 0 0 0 0 0 0 0 0 0 0 325 325 328 327 325 327 325 328 325 334 339 343 355 362 366 366 367 359 350 345 342 0 0 182 0 328 328 330 330 328 325 325 327 324 325 322 322 321 319 325 327 324 322 324 324 322 324 330 322 322 322 322 0 333 336 334 324 324 318 318 318 318 321 318 318 322 0 334 333 333 330 325 324 330 328 327 328 0 330 328 333 336 331 334 334 331 331 331 336 331 325 327 321 321 317 319 0 0 0 340 339 337 334 334 334 0 0 324 0 0 0 0 0 0 5661 5661 0 0 0 0 0 836 766 0 0 0 0 0 0 0 0 0 367 371 369 367 362 352 347 347 343 343 343 342 0 0 0 0 0
    0 0 0 0 0 0 0 0 0 0 0 0 0 0 0 0 0 0 0 0 0 0 0 0 0 0 0 0 0 0 0 0 0 0 0 0 0 0 0 0 0 0 0 0 0 0 0 0 0 0 0 0 0 0 0 0 0 0 0 0 0 0 0 0 0 0 0 0 0 321 319 317 318 318 317 318 318 318 317 317 318 317 317 318 317 317 317 317 315 317 317 317 314 314 315 315 314 318 318 319 322 322 322 325 325 325 322 322 322 322 324 322 321 0 0 0 0 0 0 0 0 324 325 0 324 331 325 327 328 328 324 321 321 321 321 324 0 0 321 324 324 325 324 325 322 322 324 324 324 325 324 328 325 330 325 330 331 331 330 331 327 0 0 327 321 0 0 318 0 321 325 324 324 325 325 325 325 324 327 324 331 336 337 347 359 366 367 367 357 345 340 339 337 0 0 337 325 327 328 328 327 324 324 325 324 325 322 322 321 321 325 327 324 322 324 325 324 324 330 325 325 325 325 324 330 330 331 325 324 319 319 321 319 321 321 319 322 324 333 331 331 328 324 322 327 325 324 325 325 327 327 331 334 331 333 334 331 333 333 336 333 328 328 324 321 318 319 321 319 333 336 334 336 331 333 333 0 0 327 324 0 0 0 8177 0 3873 0 0 0 0 0 0 0 0 0 0 0 0 0 0 0 0 367 366 367 366 362 357 347 343 343 342 342 340 340 0 0 0 0 0
    0 0 0 0 0 0 0 0 0 0 0 0 0 0 0 0 0 0 0 0 0 0 0 0 0 0 0 0 0 0 0 0 0 0 0 0 0 0 0 0 0 0 0 0 0 0 0 0 0 0 0 0 0 0 0 0 0 0 0 0 0 0 0 0 0 0 0 0 0 321 321 318 319 318 317 318 318 318 318 318 318 317 317 318 318 317 317 318 317 317 318 318 314 314 0 0 315 319 318 319 322 322 324 325 325 325 324 324 324 324 327 325 324 325 325 0 0 0 324 324 324 322 324 328 324 330 325 327 328 327 325 322 321 322 321 324 324 322 322 324 324 325 324 325 322 322 324 324 324 327 324 327 325 330 327 330 330 330 330 331 327 328 330 328 324 0 324 319 324 321 325 322 322 324 322 324 324 322 324 322 328 331 333 337 0 360 0 367 357 342 337 336 336 336 336 336 324 325 328 328 327 322 324 324 324 325 322 322 321 321 325 325 324 322 325 327 324 325 331 328 328 330 328 327 330 330 331 328 325 322 321 322 322 322 322 322 322 324 330 328 328 327 324 322 325 324 322 324 324 325 325 331 333 331 331 333 331 331 333 334 331 328 330 325 324 321 322 322 321 330 333 333 333 330 331 331 331 331 328 325 322 0 0 0 0 0 0 0 0 0 0 0 0 0 0 0 0 0 0 0 0 0 352 348 352 360 357 348 343 340 340 340 340 340 340 0 0 0 0 0
    0 0 0 0 0 0 0 0 0 0 0 0 0 0 0 0 0 0 0 0 0 0 0 0 0 0 0 0 0 0 0 0 0 0 0 0 0 0 0 0 0 0 0 0 0 0 0 0 0 0 0 0 0 0 0 0 0 0 0 0 0 0 0 0 0 0 0 0 0 321 321 318 319 318 317 318 317 318 318 318 318 317 317 319 318 317 317 318 317 317 318 318 314 0 0 0 0 318 318 319 321 322 322 325 324 325 324 325 324 325 328 327 324 325 324 0 324 327 324 324 325 324 325 328 325 328 327 327 328 327 325 322 322 324 322 324 324 322 324 325 324 325 324 325 322 324 324 324 324 327 324 327 325 330 327 330 328 328 328 330 328 328 330 330 328 330 327 322 324 321 324 322 322 322 321 322 322 321 322 322 325 328 331 336 0 0 0 367 355 340 337 336 334 334 334 334 322 325 327 328 325 322 324 324 324 325 322 322 321 321 325 325 324 322 325 327 325 327 331 328 330 330 330 328 330 328 331 330 327 324 322 324 322 324 322 322 322 325 328 327 327 327 324 324 325 324 322 322 325 325 327 330 331 330 331 331 331 331 331 334 331 330 330 327 327 324 325 324 322 330 331 331 333 330 331 331 331 331 330 327 324 0 0 0 0 0 0 0 0 2537 0 0 0 0 0 566 0 0 0 0 0 0 337 339 336 343 343 340 337 336 336 337 336 337 337 0 0 0 0 0
    0 0 0 0 0 0 0 0 0 0 0 0 0 0 0 0 0 0 0 0 0 0 0 0 0 0 0 0 0 0 0 0 0 0 0 0 0 0 0 0 0 0 0 0 0 0 0 0 0 0 0 0 0 0 0 0 0 0 0 0 0 0 0 0 0 0 0 0 0 322 321 319 319 319 317 318 317 317 317 317 317 317 315 318 318 317 317 317 317 317 318 318 315 0 0 109 0 319 318 319 321 321 322 325 324 324 324 324 324 325 328 327 324 325 324 0 324 327 325 324 325 324 324 327 325 328 327 327 328 325 327 324 324 325 324 325 325 324 325 325 324 325 324 325 322 324 324 324 324 327 324 327 325 330 328 328 327 327 328 330 328 330 330 330 330 331 330 324 325 322 324 322 322 322 321 322 322 321 322 322 325 328 330 336 336 339 0 367 348 337 336 334 334 334 334 331 321 325 327 327 324 322 324 324 324 327 322 324 322 322 325 325 324 322 325 327 325 327 331 328 328 330 330 328 330 328 330 328 327 324 324 325 324 324 324 324 324 325 327 327 327 327 324 324 324 324 322 322 325 325 325 330 330 330 331 331 330 330 331 333 330 330 330 327 328 325 327 327 324 330 331 331 333 330 331 333 331 331 330 327 324 322 324 0 0 0 0 0 0 0 0 0 845 0 0 0 0 0 0 333 339 336 331 333 325 334 336 336 334 333 334 334 334 336 337 0 0 0 0 0
    0 0 0 0 0 0 0 0 0 0 0 0 0 0 0 0 0 0 0 0 0 0 0 0 0 0 0 0 0 0 0 0 0 0 0 0 0 0 0 0 0 0 0 0 0 0 0 0 0 0 0 0 0 0 0 0 0 0 0 0 0 0 0 0 0 0 0 0 0 322 322 319 321 319 317 318 315 317 315 315 317 315 315 318 318 317 317 317 317 317 318 318 315 0 0 0 0 319 318 319 319 319 322 324 322 324 322 324 324 325 331 327 325 327 324 327 324 327 325 324 327 324 325 327 325 328 327 327 328 325 328 324 325 327 325 325 325 324 327 325 324 327 324 325 322 324 324 324 325 328 324 328 325 330 328 328 327 327 328 330 328 330 330 330 330 331 331 325 328 324 325 322 322 322 321 322 322 322 322 322 325 325 327 333 333 336 334 0 340 334 334 333 333 331 331 327 321 324 325 325 324 322 324 325 325 328 324 324 322 322 325 325 322 322 324 325 324 327 331 328 328 328 328 328 328 327 330 328 328 325 325 327 324 324 324 324 324 325 327 325 327 327 324 325 324 324 322 322 327 325 325 328 330 330 330 330 330 330 330 331 330 328 328 327 328 327 327 327 324 331 331 331 333 330 331 333 331 333 330 328 325 324 324 324 324 324 325 0 0 0 0 0 0 0 328 328 325 324 327 328 331 330 327 328 322 330 331 333 331 331 333 334 334 337 339 0 0 0 0 0
    0 0 0 0 0 0 0 0 0 0 0 0 0 0 0 0 0 0 0 0 0 0 0 0 0 0 0 0 0 0 0 0 0 0 0 0 0 0 0 0 0 0 0 0 0 0 0 0 0 0 0 0 0 0 0 0 0 0 0 0 0 0 0 0 0 0 0 0 0 324 322 319 321 321 317 318 315 317 315 315 317 317 317 319 318 318 318 318 318 318 318 319 315 0 0 0 317 319 319 319 319 319 321 324 322 322 322 324 324 325 333 328 327 328 325 328 325 327 325 324 327 322 324 327 325 328 327 327 328 325 328 324 325 327 325 325 325 325 327 325 324 327 324 325 324 324 324 324 325 328 325 328 327 331 330 330 327 327 328 330 328 328 330 330 331 331 331 325 328 324 324 322 322 322 322 322 324 322 322 324 325 325 327 333 331 333 331 336 336 330 331 330 328 327 328 324 319 324 325 325 322 322 324 325 327 330 325 325 322 324 325 325 322 321 322 325 324 327 330 328 328 328 328 328 328 327 330 328 328 327 327 328 325 325 325 325 325 325 327 325 325 325 325 325 324 324 322 322 327 325 325 328 330 330 330 330 330 330 330 331 330 328 328 327 328 327 327 327 325 330 331 331 333 330 331 333 331 333 330 330 327 325 327 327 325 325 325 324 0 0 327 325 322 327 327 327 325 324 327 327 330 328 327 327 324 328 330 330 330 328 331 331 333 337 337 0 0 0 0 0</data></depth>
</opencv_storage>
