<?xml version="1.0"?>
<opencv_storage>
<gps_time_stamp>36431</gps_time_stamp>
<gps_x>-1.2839720726013184e+001</gps_x>
<gps_y>1.3354796171188354e+000</gps_y>
<gps_z>-3.4771363735198975e+000</gps_z>
<image_time_stamp>24364</image_time_stamp>
<depth type_id="opencv-matrix">
  <rows>82</rows>
  <cols>320</cols>
  <dt>s</dt>
  <data>
    0 0 0 0 0 0 0 0 0 0 0 0 0 0 0 0 0 0 0 0 0 0 0 0 0 0 0 0 0 0 0 0 0 0 0 0 0 0 0 0 0 0 0 0 0 0 0 0 0 0 0 0 0 0 0 0 0 0 0 0 0 0 0 0 0 0 0 0 0 7359 7359 7359 6133 0 0 0 0 0 0 0 0 0 8177 8177 8177 8177 7359 6690 7359 0 0 0 0 0 0 0 0 0 0 0 8177 8177 0 6690 7359 8177 8177 6690 7359 8177 7359 7359 8177 7359 6690 0 0 8177 8177 8177 0 0 8177 8177 7359 8177 0 0 0 0 0 0 0 0 0 0 0 8177 8177 6690 6133 7359 6690 6690 6133 6690 6133 6690 6690 5661 5661 5256 5256 4599 5256 5256 5256 5661 7359 6690 7359 7359 0 0 0 0 8177 8177 8177 8177 7359 7359 7359 5256 5256 5256 4906 5256 4906 5256 4329 4599 4906 4329 4329 5661 5661 6133 6690 7359 0 0 8177 0 8177 8177 8177 8177 8177 6690 7359 7359 6133 6690 7359 7359 7359 7359 8177 7359 8177 0 0 6133 8177 8177 0 8177 8177 8177 6133 7359 7359 7359 6133 5661 6133 5661 5661 6690 4906 4088 5661 5661 5661 5661 5661 5661 4329 4329 5256 3873 3345 4088 3873 3873 3873 4329 4329 4088 4088 5256 3873 4329 3873 3679 3679 3679 3345 3504 3873 3873 4088 4088 4329 4329 4906 5256 5256 3504 3066 3199 3066 3066 3066 3066 2943 3199 3199 3199 2830 3199 3199 3199 3066 3199 2943 2943 2943 3199 2725 2230 2453 2537 2453 2299 2374 2453 2628 2537 2725 2453 2628 2628 2537 2537 2453 2453 2299 2230 2299 2164 2230 2299 2230 0 0 0 0 0
    0 0 0 0 0 0 0 0 0 0 0 0 0 0 0 0 0 0 0 0 0 0 0 0 0 0 0 0 0 0 0 0 0 0 0 0 0 0 0 0 0 0 0 0 0 0 0 0 0 0 0 0 0 0 0 0 0 0 0 0 0 0 0 0 0 0 0 0 0 6690 7359 7359 6133 0 0 0 0 0 0 0 0 0 8177 8177 8177 8177 7359 7359 7359 8177 8177 8177 8177 8177 0 0 0 0 0 0 8177 0 0 6690 8177 8177 8177 6690 8177 8177 7359 7359 8177 6690 6133 8177 0 7359 7359 8177 8177 8177 8177 8177 7359 7359 0 0 0 0 0 0 0 0 0 0 8177 8177 8177 6690 6690 7359 6690 6690 6690 6690 6133 7359 7359 6690 6133 6133 6133 5256 6133 6133 6133 6133 8177 8177 8177 8177 0 0 0 0 8177 8177 7359 7359 7359 6690 6690 5256 5256 4906 4599 5256 4906 5256 4599 4599 4906 4329 4329 5256 5256 7359 7359 8177 0 0 8177 0 0 0 8177 7359 7359 6133 7359 7359 6133 6690 7359 7359 7359 6690 7359 6690 7359 8177 8177 4906 7359 8177 0 8177 0 8177 6133 7359 8177 7359 5661 5661 5661 5256 5661 6133 4906 4088 5256 5661 5661 5256 5661 5256 4088 4329 5661 3873 3345 4088 3873 3873 3873 4088 4329 4088 4088 4906 3873 4088 3873 3873 3679 3679 3345 3504 3873 4088 4088 4088 4329 4599 4906 5661 6133 3345 3199 3345 3199 3199 3066 3066 3066 3199 3345 3199 2830 3066 3066 3066 2943 2943 2830 2830 2830 2943 2725 2299 2453 2537 2453 2299 2374 2374 2537 2453 2628 2453 2537 2628 2628 2537 2453 2537 2453 2374 2453 2374 2374 2374 2299 0 0 0 0 0
    0 0 0 0 0 0 0 0 0 0 0 0 0 0 0 0 0 0 0 0 0 0 0 0 0 0 0 0 0 0 0 0 0 0 0 0 0 0 0 0 0 0 0 0 0 0 0 0 0 0 0 0 0 0 0 0 0 0 0 0 0 0 0 0 0 0 0 0 0 6690 7359 7359 6690 0 0 0 0 0 0 0 0 0 8177 8177 8177 8177 8177 7359 6690 8177 7359 8177 8177 0 0 0 0 0 0 0 0 0 0 7359 9199 9199 0 7359 8177 8177 7359 7359 0 6690 6133 8177 0 7359 7359 7359 8177 8177 8177 8177 7359 7359 0 0 0 8177 0 0 0 0 0 0 8177 9199 7359 6690 6133 7359 6690 6690 6690 6690 6133 7359 7359 6690 6690 6690 6133 5661 6133 6690 6133 6690 7359 7359 8177 8177 0 0 0 0 8177 8177 8177 8177 6690 7359 6690 5661 5661 5661 5256 5256 5256 6133 4906 5256 5256 4906 4599 5661 5256 8177 8177 0 0 0 8177 0 0 0 7359 6690 6690 5661 6690 7359 6133 6690 7359 7359 7359 6690 7359 6133 6690 7359 6690 4599 6133 7359 8177 8177 0 8177 6133 6690 7359 6690 5661 5661 5661 5256 5661 6690 5256 4088 5256 5661 5661 5256 5661 5256 4329 4599 5661 3873 3504 4088 3873 3873 3873 4329 4329 4088 4088 4906 3873 4088 3873 3873 3504 3504 3504 3504 4088 4088 4329 4329 4329 5256 4906 5661 6690 3199 3066 3345 3066 3199 3066 3066 3199 3345 3345 3199 2830 3066 3066 3066 2943 2830 2725 2725 2725 2943 2725 2374 2453 2453 2453 2299 2299 2374 2453 2374 2628 2453 2537 2628 2537 2537 2453 2537 2537 2374 2453 2299 2374 2374 2374 0 0 0 0 0
    0 0 0 0 0 0 0 0 0 0 0 0 0 0 0 0 0 0 0 0 0 0 0 0 0 0 0 0 0 0 0 0 0 0 0 0 0 0 0 0 0 0 0 0 0 0 0 0 0 0 0 0 0 0 0 0 0 0 0 0 0 0 0 0 0 0 0 0 0 7359 7359 7359 6690 8177 0 8177 8177 0 0 0 0 0 0 8177 8177 8177 7359 7359 6690 7359 6690 8177 8177 0 0 0 0 0 0 0 0 0 0 8177 0 0 0 7359 8177 8177 7359 8177 0 7359 6133 8177 0 8177 8177 8177 8177 8177 8177 8177 7359 7359 0 0 0 0 0 0 0 0 0 8177 8177 0 7359 6690 6133 6690 6690 6690 6690 6690 6133 7359 6690 6690 6690 7359 6690 6133 6133 6690 6133 6690 7359 7359 7359 8177 0 0 0 8177 7359 7359 7359 7359 6133 7359 6690 6133 6133 6133 5661 6133 5256 6690 5256 5661 5661 5256 4599 5661 5256 7359 7359 8177 7359 8177 7359 0 0 0 7359 6133 6690 6133 6690 6690 5661 6690 7359 7359 7359 6690 6690 6133 6133 7359 6690 4329 6133 6690 8177 8177 8177 7359 5661 6690 7359 6133 5256 4906 5661 5256 5661 6133 5256 4088 5256 5661 5256 5256 5256 4906 4329 4599 6133 4088 3679 4329 4088 3873 3873 4329 4088 4088 3873 4599 3873 4088 3873 3679 3199 3504 3504 3504 4329 4329 4329 4329 4329 5256 4906 5256 6690 2943 2943 3199 2943 3066 2943 3066 3199 3345 3504 3345 2830 3066 3066 3066 2943 2830 2725 2725 2725 2943 2628 2374 2453 2453 2453 2299 2230 2299 2374 2299 2537 2374 2537 2537 2537 2453 2453 2537 2537 2299 2453 2299 2374 2374 2299 0 0 0 0 0
    0 0 0 0 0 0 0 0 0 0 0 0 0 0 0 0 0 0 0 0 0 0 0 0 0 0 0 0 0 0 0 0 0 0 0 0 0 0 0 0 0 0 0 0 0 0 0 0 0 0 0 0 0 0 0 0 0 0 0 0 0 0 0 0 0 0 0 0 0 6690 7359 7359 6690 8177 8177 8177 8177 8177 0 0 0 0 0 8177 8177 8177 7359 7359 6690 7359 7359 0 0 0 0 0 0 0 0 0 0 0 0 8177 0 0 0 7359 8177 8177 6690 8177 0 7359 6133 7359 0 7359 7359 8177 8177 8177 7359 8177 7359 8177 0 0 0 0 0 0 0 0 8177 8177 8177 8177 6690 6133 5661 6690 6133 6133 6690 6690 5661 7359 6690 7359 7359 8177 7359 6690 6133 7359 6133 6690 6690 6690 6690 7359 6133 0 7359 7359 6690 6690 6690 7359 5661 7359 6690 6690 6133 6133 5661 6133 5256 6690 5661 5661 5661 5661 4599 5661 5256 7359 7359 8177 7359 8177 0 0 0 0 7359 6133 6690 6133 6690 7359 5661 6690 7359 7359 7359 6690 6690 6133 6690 8177 7359 4599 6133 7359 7359 7359 8177 7359 5256 6690 7359 5661 5256 4906 5256 5256 5256 6133 5256 3873 5256 5256 5256 4906 5256 4906 4329 4599 6133 4329 3679 4599 4088 4088 3873 4329 4088 3873 3873 4599 3873 4088 3679 3504 3345 3504 3679 3504 4088 4329 4329 4329 4599 5256 4599 4906 6690 2943 2628 2943 2830 2943 2830 2943 3199 3504 3504 3345 2830 3066 3066 3066 2943 2830 2628 2628 2628 2830 2628 2374 2453 2453 2374 2374 2230 2299 2299 2299 2537 2374 2453 2537 2453 2453 2374 2453 2537 2230 2453 2299 2374 2374 2299 0 0 0 0 0
    0 0 0 0 0 0 0 0 0 0 0 0 0 0 0 0 0 0 0 0 0 0 0 0 0 0 0 0 0 0 0 0 0 0 0 0 0 0 0 0 0 0 0 0 0 0 0 0 0 0 0 0 0 0 0 0 0 0 0 0 0 0 0 0 0 0 0 0 0 6690 6690 7359 6690 8177 8177 8177 8177 8177 0 0 0 0 0 0 0 8177 7359 7359 6690 8177 7359 0 0 0 0 0 0 0 0 0 0 0 0 8177 0 0 0 7359 8177 7359 6690 7359 0 7359 6133 7359 0 7359 7359 8177 8177 7359 7359 8177 7359 8177 0 0 0 0 0 0 0 0 8177 8177 8177 8177 0 6133 5661 6690 6133 6133 6690 6690 5661 8177 7359 8177 7359 0 8177 7359 6133 7359 6133 6690 6690 6690 6133 6690 5661 7359 6690 6690 6690 6690 6690 6690 5256 7359 6690 6690 6133 6690 5661 6133 5256 6690 6133 6133 6133 6133 4906 5661 5661 7359 0 7359 7359 8177 0 0 0 0 7359 6133 6690 6690 6133 7359 5661 6690 7359 7359 7359 6690 6690 6690 7359 8177 7359 4906 6133 6690 8177 7359 7359 7359 5661 6133 6690 5256 5256 4599 5256 4906 5256 5661 4906 3873 5256 4906 4906 4599 4906 4599 4329 4329 6133 4599 3873 4599 4088 4088 4088 4088 4088 3873 3873 4599 3873 4088 3345 3504 3345 3679 3679 3504 4329 4329 4329 4329 4599 4906 4329 4329 6690 2830 2537 2830 2725 2943 2830 3066 3345 3679 3679 3345 2830 3066 3066 3066 2943 2830 2628 2628 2628 2943 2628 2374 2453 2453 2453 2374 2230 2299 2299 2230 2537 2299 2453 2453 2453 2453 2374 2453 2537 2230 2453 2299 2374 2374 2299 0 0 0 0 0
    0 0 0 0 0 0 0 0 0 0 0 0 0 0 0 0 0 0 0 0 0 0 0 0 0 0 0 0 0 0 0 0 0 0 0 0 0 0 0 0 0 0 0 0 0 0 0 0 0 0 0 0 0 0 0 0 0 0 0 0 0 0 0 0 0 0 0 0 0 7359 6690 7359 6690 7359 8177 7359 7359 8177 0 0 0 0 0 0 0 0 8177 8177 7359 8177 7359 0 0 0 0 0 0 0 0 0 0 0 0 0 0 0 0 7359 8177 7359 6690 7359 8177 6690 6133 7359 0 7359 7359 8177 8177 8177 8177 8177 7359 0 0 0 0 0 0 0 0 0 8177 8177 8177 8177 0 6133 5256 6690 6133 6690 6690 6690 6133 8177 7359 8177 8177 0 8177 8177 6133 7359 6690 6690 6690 6690 6133 7359 5661 8177 6690 6690 6690 6690 6690 0 5661 7359 6690 6690 6690 6690 6133 6133 5256 7359 6133 6690 6133 6133 4906 6133 5661 7359 7359 7359 7359 7359 6690 8177 8177 8177 7359 6133 6690 6690 6133 7359 6133 6690 7359 8177 8177 7359 6690 7359 7359 8177 8177 5256 6690 6690 8177 6690 7359 6690 5661 6133 6690 4906 5256 4329 5256 4906 5256 5661 4906 3873 5256 4906 4906 4599 4906 4599 4329 4329 6133 4599 4088 4599 4088 4088 4088 4088 4329 3873 3873 4599 3873 3873 3345 3504 3504 3873 3873 3679 4329 4329 4329 4329 4599 4906 4088 4088 6690 2830 2374 2725 2628 2943 2943 3066 3345 3679 3873 3504 2943 3066 3066 3066 3066 2830 2628 2628 2628 2943 2628 2374 2453 2453 2453 2453 2299 2299 2299 2230 2537 2230 2374 2374 2374 2374 2374 2537 2537 2299 2537 2299 2374 2374 2230 0 0 0 0 0
    0 0 0 0 0 0 0 0 0 0 0 0 0 0 0 0 0 0 0 0 0 0 0 0 0 0 0 0 0 0 0 0 0 0 0 0 0 0 0 0 0 0 0 0 0 0 0 0 0 0 0 0 0 0 0 0 0 0 0 0 0 0 0 0 0 0 0 0 0 8177 7359 7359 6133 7359 8177 7359 7359 8177 0 0 0 0 0 0 0 0 8177 8177 6690 8177 7359 0 0 0 0 0 0 0 0 0 0 0 0 0 0 0 0 8177 8177 7359 6690 7359 8177 6690 6133 7359 0 7359 7359 8177 8177 8177 8177 0 8177 0 0 0 0 0 0 0 0 0 8177 8177 8177 0 0 6690 5661 6690 6690 6690 6690 6690 6133 8177 7359 8177 8177 8177 7359 7359 6133 7359 6133 6690 6690 6690 6133 7359 5661 0 0 7359 6690 7359 0 0 0 0 6690 0 0 6690 6133 6133 5256 7359 6133 6690 6133 6133 4906 6133 5661 6690 7359 7359 6690 7359 6690 8177 8177 8177 7359 6133 6133 6133 5661 7359 5661 6133 7359 7359 7359 6690 6690 7359 8177 8177 8177 6133 6690 6690 8177 6133 6690 6690 5256 6133 6133 4906 5256 4329 5256 5256 5256 5661 5256 4088 5256 4906 5256 4599 4599 4329 4329 4329 5661 4329 4329 4599 4329 4088 4088 4329 4329 3873 3873 4329 3873 3679 3345 3504 3504 3873 4088 3679 4329 4329 4329 4329 4599 4599 4088 4088 6690 2830 2299 2725 2628 2943 2943 3066 3345 3679 3873 3504 2943 3199 3066 3066 3066 2830 2537 2628 2628 2830 2628 2374 2537 2537 2537 2537 2374 2299 2299 2230 2537 2230 2374 2374 2374 2374 2374 2537 2628 2299 2537 2374 2374 2374 2164 0 0 0 0 0
    0 0 0 0 0 0 0 0 0 0 0 0 0 0 0 0 0 0 0 0 0 0 0 0 0 0 0 0 0 0 0 0 0 0 0 0 0 0 0 0 0 0 0 0 0 0 0 0 0 0 0 0 0 0 0 0 0 0 0 0 0 0 0 0 0 0 0 0 0 8177 8177 8177 6690 8177 8177 8177 8177 8177 0 0 0 0 8177 8177 8177 8177 8177 7359 6690 7359 6690 0 0 0 0 0 0 0 0 0 0 0 0 0 0 0 0 8177 8177 8177 6690 7359 8177 7359 6690 8177 0 6690 7359 8177 8177 8177 8177 8177 7359 0 0 0 0 0 0 0 0 0 8177 8177 8177 0 0 6690 5661 6690 6690 6690 7359 7359 6690 8177 7359 8177 8177 0 7359 7359 6133 7359 6133 6690 6690 6690 6133 7359 5661 8177 0 7359 6690 6690 0 0 0 0 6690 0 0 6690 6133 6133 5256 7359 6133 6690 6133 6133 4906 6133 5661 6690 7359 6690 6690 7359 6133 8177 7359 7359 6690 5256 5661 5661 5256 6690 4906 5661 6690 7359 8177 7359 7359 8177 0 0 0 6690 7359 7359 8177 6690 7359 6690 5661 6133 6690 4906 5256 4329 5661 5256 5256 5256 5256 4088 5661 4906 5256 4599 4599 4329 4329 4088 5661 4329 4329 4599 4329 4088 4329 4329 4599 4088 4088 4599 4088 3504 3345 3504 3504 3873 3873 3504 4329 4329 4329 4329 4599 4599 4088 3873 6690 2830 2230 2628 2537 2830 2830 3066 3345 3679 3679 3504 2943 3199 3066 3066 3066 2830 2537 2628 2628 2830 2628 2453 2537 2537 2537 2537 2453 2374 2374 2230 2537 2299 2374 2374 2374 2374 2374 2453 2628 2299 2537 2299 2374 2374 2102 0 0 0 0 0
    0 0 0 0 0 0 0 0 0 0 0 0 0 0 0 0 0 0 0 0 0 0 0 0 0 0 0 0 0 0 0 0 0 0 0 0 0 0 0 0 0 0 0 0 0 0 0 0 0 0 0 0 0 0 0 0 0 0 0 0 0 0 0 0 0 0 0 0 0 0 8177 8177 6690 8177 8177 8177 8177 8177 0 0 8177 0 8177 7359 7359 7359 7359 7359 6690 6690 6690 0 0 0 0 0 0 0 0 0 0 0 0 0 0 0 0 8177 0 8177 7359 7359 8177 7359 7359 0 0 7359 7359 8177 8177 8177 8177 0 7359 8177 0 0 0 0 0 0 0 0 0 0 0 0 0 6690 5661 6690 6690 6690 7359 7359 6690 0 7359 8177 8177 8177 7359 7359 5661 6690 6133 6690 6133 6690 6133 7359 5661 0 0 6690 0 0 0 0 0 0 6133 7359 0 6690 6133 6133 5256 7359 6133 6690 6133 6133 5256 6133 5661 6690 6690 6690 6690 6690 6133 7359 7359 7359 6690 5256 5661 5661 5256 6690 4906 5256 6690 7359 8177 7359 8177 0 0 0 0 6690 7359 7359 8177 6690 7359 6690 6133 6690 6690 4906 5256 4329 5661 5256 5256 5256 5256 4329 5661 4906 5256 4599 4599 4088 4329 4088 5256 4088 4329 4599 4329 4329 4329 4329 4906 4088 4329 4599 4088 3345 3345 3345 3504 3873 4088 3504 4329 4329 4329 4329 4599 4329 3873 3873 7359 2830 2102 2537 2537 2830 2830 3066 3345 3679 3679 3504 3066 3199 3199 3199 3199 2943 2628 2628 2628 2830 2628 2537 2628 2537 2628 2628 2453 2374 2374 2230 2537 2299 2374 2374 2374 2374 2374 2453 2628 2299 2537 2374 2374 2374 2102 0 0 0 0 0
    0 0 0 0 0 0 0 0 0 0 0 0 0 0 0 0 0 0 0 0 0 0 0 0 0 0 0 0 0 0 0 0 0 0 0 0 0 0 0 0 0 0 0 0 0 0 0 0 0 0 0 0 0 0 0 0 0 0 0 0 0 0 0 0 0 0 0 0 0 0 0 0 7359 7359 8177 8177 7359 7359 8177 8177 8177 8177 7359 7359 6690 7359 7359 7359 6690 6690 6690 0 0 0 0 0 0 0 0 0 8177 0 0 0 0 0 0 0 0 8177 7359 7359 0 8177 8177 0 0 7359 7359 8177 8177 0 0 0 7359 8177 0 0 0 0 0 0 0 0 0 0 0 0 0 6690 6133 6690 6690 6690 7359 7359 6133 0 7359 8177 8177 8177 7359 6690 5661 6690 5661 6133 6133 6690 6133 7359 5661 8177 0 6690 6690 6690 0 0 5256 7359 6133 6690 6690 6690 5661 6133 4906 6690 5661 6133 6133 6133 5256 6133 5661 6133 6690 6690 6133 6690 6133 7359 7359 7359 6690 5256 5661 5661 5256 6690 4906 5256 6690 7359 8177 8177 0 0 0 0 0 7359 8177 8177 0 6690 7359 6690 6690 6690 6690 5256 5661 4599 5661 5256 5256 5256 5256 4329 5661 4906 5256 4599 4329 4088 4329 3873 5256 4088 4329 4329 4329 4329 4599 4329 4906 4088 4906 4906 4599 3345 3199 3345 3679 3873 4088 3345 4329 4329 4329 4329 4329 4088 3679 3679 6690 2725 2044 2453 2453 2830 2830 3066 3199 3679 3679 3504 3066 3199 3199 3199 3199 2943 2628 2628 2628 2830 2628 2537 2537 2537 2628 2537 2374 2453 2453 2230 2537 2299 2374 2374 2374 2453 2299 2453 2628 2299 2537 2374 2374 2453 2164 0 0 0 0 0
    0 0 0 0 0 0 0 0 0 0 0 0 0 0 0 0 0 0 0 0 0 0 0 0 0 0 0 0 0 0 0 0 0 0 0 0 0 0 0 0 0 0 0 0 0 0 0 0 0 0 0 0 0 0 0 0 0 0 0 0 0 0 0 0 0 0 0 0 0 0 0 0 7359 8177 8177 8177 7359 7359 7359 7359 7359 8177 7359 6690 6690 6690 6690 6690 6690 6690 6690 0 0 0 0 0 0 0 0 0 8177 0 0 0 0 0 0 8177 8177 8177 7359 7359 0 8177 8177 0 0 7359 7359 8177 8177 0 0 0 7359 8177 0 0 0 0 0 0 0 0 0 0 0 0 0 6690 6133 6690 6690 6690 7359 6690 6133 8177 7359 8177 8177 8177 7359 7359 5661 6690 5661 6133 6133 6690 6133 7359 5661 8177 6690 6690 6133 6690 6133 6133 4906 7359 6133 6690 6690 6690 5661 5661 4906 6690 5661 6133 6133 6133 4906 5661 5661 6133 6690 6690 6690 6690 6133 7359 7359 7359 6690 5256 5661 5256 5256 6133 5256 5256 6690 7359 8177 0 0 0 0 0 0 0 0 0 0 6690 7359 6690 6690 6690 7359 5661 5661 4599 5661 5256 5256 5256 4906 4329 5661 4906 5256 4599 4329 4088 4329 3873 4906 4088 4088 4329 4329 4329 4599 4329 5256 4088 4906 5661 4599 3199 3199 3345 3873 3873 4088 3345 4088 4329 4329 4329 4329 3873 3679 3679 6690 2725 2044 2453 2374 2943 2830 3066 3199 3504 3679 3345 3066 3199 3199 3199 3199 3066 2725 2628 2628 2830 2628 2537 2628 2628 2628 2628 2453 2453 2453 2299 2537 2299 2299 2299 2299 2453 2299 2453 2628 2299 2537 2453 2453 2628 2299 0 0 0 0 0
    0 0 0 0 0 0 0 0 0 0 0 0 0 0 0 0 0 0 0 0 0 0 0 0 0 0 0 0 0 0 0 0 0 0 0 0 0 0 0 0 0 0 0 0 0 0 0 0 0 0 0 0 0 0 0 0 0 0 0 0 0 0 0 0 0 0 0 0 0 0 0 0 8177 0 0 0 0 8177 8177 8177 8177 8177 7359 6690 6690 6690 6690 6690 7359 7359 6690 0 0 0 0 0 8177 0 8177 0 8177 8177 0 8177 8177 8177 8177 8177 8177 8177 7359 8177 0 8177 8177 0 0 8177 7359 8177 8177 8177 0 0 7359 8177 0 0 0 8177 0 0 0 0 0 0 0 0 0 7359 5661 6690 6690 6690 6690 6690 6690 8177 7359 8177 8177 8177 7359 7359 6133 6690 6133 6133 6133 6690 6690 7359 5661 8177 6690 6690 6690 6690 6133 6133 5256 7359 6133 6690 6133 6690 5661 5661 4906 6690 5661 6133 6133 6690 4906 5661 5661 6690 7359 6690 7359 7359 6690 8177 8177 8177 7359 5661 5661 5256 5256 6133 5256 5256 6690 7359 8177 0 0 0 0 0 0 0 0 0 0 7359 8177 6690 7359 7359 7359 6133 5661 4599 5661 5256 5256 5256 5256 4329 5256 4906 5256 4599 4329 4088 4329 3679 4906 4088 4088 4329 4329 4329 4599 4329 5256 4088 4906 6133 4906 3199 3199 3504 4088 4088 4329 3504 4329 4329 4599 4599 4329 3679 3679 3679 6690 2725 2102 2453 2453 2943 2943 3066 3199 3504 3504 3345 2943 3199 3199 3199 3199 3199 2725 2725 2725 2943 2725 2628 2725 2725 2725 2628 2453 2537 2537 2299 2537 2374 2299 2299 2299 2453 2299 2453 2537 2299 2453 2453 2453 2628 2374 0 0 0 0 0
    0 0 0 0 0 0 0 0 0 0 0 0 0 0 0 0 0 0 0 0 0 0 0 0 0 0 0 0 0 0 0 0 0 0 0 0 0 0 0 0 0 0 0 0 0 0 0 0 0 0 0 0 0 0 0 0 0 0 0 0 0 0 0 0 0 0 0 0 0 0 0 0 8177 0 0 0 0 8177 8177 8177 8177 8177 7359 6690 6690 7359 6690 7359 7359 7359 7359 0 0 8177 8177 8177 8177 8177 7359 8177 8177 8177 8177 7359 8177 8177 8177 8177 8177 8177 8177 8177 0 0 8177 0 0 8177 8177 8177 9199 0 0 0 8177 8177 0 8177 0 8177 0 0 0 0 0 0 0 0 0 7359 6133 7359 6690 6690 6690 6690 6690 7359 7359 7359 7359 7359 7359 6690 6133 6690 6133 6133 6690 7359 7359 8177 6690 0 7359 7359 7359 7359 6690 6690 5661 7359 6690 7359 7359 7359 6690 6133 6133 7359 6133 6690 6690 7359 4599 5661 5661 7359 7359 7359 8177 8177 7359 0 0 0 7359 5256 5661 4906 4906 5661 5256 5256 6133 6690 9199 0 0 0 0 0 0 0 0 0 0 7359 8177 6690 7359 7359 7359 6133 5661 4906 6133 5256 5661 5256 5256 4599 5256 4906 5256 4599 4599 4088 4329 3679 4599 4088 4088 4329 4329 4329 4599 4329 5661 4088 4906 6690 3679 3199 3199 3679 4088 4329 4329 3504 4329 4329 4599 4599 4088 3679 3679 3679 6133 2830 2230 2628 2453 2943 2943 3066 3199 3345 3345 3199 2943 3199 3066 3199 3199 3199 2830 2830 2830 3199 2943 0 0 2830 2725 2725 2537 2537 2537 2374 2537 2299 2230 2299 2230 2453 2230 2453 2537 2374 2537 2453 2537 2725 2453 0 0 0 0 0
    0 0 0 0 0 0 0 0 0 0 0 0 0 0 0 0 0 0 0 0 0 0 0 0 0 0 0 0 0 0 0 0 0 0 0 0 0 0 0 0 0 0 0 0 0 0 0 0 0 0 0 0 0 0 0 0 0 0 0 0 0 0 0 0 0 0 0 0 0 0 0 0 0 0 0 0 0 8177 8177 8177 8177 8177 6690 6133 6690 7359 6690 6690 7359 6690 6690 7359 7359 7359 6690 7359 6690 7359 6690 7359 7359 8177 8177 7359 7359 7359 7359 8177 0 8177 8177 8177 0 0 0 0 0 8177 8177 0 0 0 0 0 8177 8177 0 8177 0 8177 0 0 0 0 0 0 0 0 0 7359 6133 8177 7359 6690 7359 6690 6690 6690 6690 7359 7359 7359 7359 6690 6690 6690 6690 6690 8177 8177 0 0 0 0 0 0 8177 8177 7359 7359 6690 8177 8177 8177 8177 8177 7359 7359 7359 8177 6690 7359 7359 8177 4088 5256 5256 7359 8177 7359 8177 0 7359 0 0 0 7359 5661 6133 4906 5256 5661 5661 5661 6133 6690 0 0 0 0 0 0 0 0 0 0 0 7359 8177 6690 7359 7359 7359 6690 5256 5256 6133 5661 6133 5661 5661 4906 5256 5256 5661 4906 4599 4088 4088 3679 4599 4088 3873 4088 4329 4329 4329 4329 5256 3873 4329 5661 2943 2725 3066 3504 3873 4088 4329 3504 4329 4329 4599 4599 4088 3873 3679 3679 6133 2830 2374 2628 2537 2943 2830 3066 3066 3199 3199 3199 2943 3066 3066 3199 3199 3199 2830 2830 2830 3066 2943 0 0 2830 2830 2725 2537 2537 2537 2374 2453 2299 2299 2299 2230 2453 2230 2453 2537 2374 2453 2453 2453 2628 2453 0 0 0 0 0
    0 0 0 0 0 0 0 0 0 0 0 0 0 0 0 0 0 0 0 0 0 0 0 0 0 0 0 0 0 0 0 0 0 0 0 0 0 0 0 0 0 0 0 0 0 0 0 0 0 0 0 0 0 0 0 0 0 0 0 0 0 0 0 0 0 0 0 0 0 0 0 0 0 0 0 0 0 0 0 0 8177 8177 6690 5661 6133 6690 5661 6133 6690 6133 6690 6690 6133 6690 6690 7359 6690 6690 5661 6690 7359 8177 7359 7359 7359 7359 7359 8177 0 8177 8177 8177 0 0 0 0 0 8177 8177 0 0 0 0 0 8177 8177 0 0 0 8177 0 0 0 0 0 0 0 0 0 7359 6133 8177 8177 7359 8177 7359 6690 7359 7359 7359 8177 8177 8177 7359 7359 7359 7359 7359 0 8177 0 0 0 0 0 0 7359 7359 7359 6690 6133 7359 7359 7359 7359 0 7359 7359 8177 0 8177 8177 0 0 3679 4906 4906 7359 8177 7359 8177 8177 8177 0 0 0 8177 6133 6133 5256 5661 5661 6133 6133 6133 6690 0 0 0 0 0 8177 0 8177 0 0 0 8177 8177 6690 7359 7359 7359 6690 4906 5661 6133 5661 6133 5661 5661 4906 5256 5661 5256 4906 4906 4329 4088 3679 4599 4088 3873 4329 4329 4329 4329 4329 4906 3679 3679 4329 2725 2537 2725 3199 3504 3679 4088 3504 4329 4599 4599 4599 4088 3679 3679 3679 6133 2830 2453 2725 2537 2943 2830 3066 2943 3066 3066 3066 2830 3066 3066 3066 3199 3345 2943 2830 2830 3066 2943 3066 2943 2830 2725 2628 2453 2628 2537 2374 2453 2374 2299 2299 2230 2453 2230 2374 2453 2299 2374 2374 2374 2628 2374 0 0 0 0 0
    0 0 0 0 0 0 0 0 0 0 0 0 0 0 0 0 0 0 0 0 0 0 0 0 0 0 0 0 0 0 0 0 0 0 0 0 0 0 0 0 0 0 0 0 0 0 0 0 0 0 0 0 0 0 0 0 0 0 0 0 0 0 0 0 0 0 0 0 0 0 0 0 0 0 0 0 0 0 0 0 0 0 6690 5661 5661 7359 5661 6133 6690 6133 6690 6690 6133 6690 6690 6690 6690 6133 5661 6690 7359 8177 8177 6690 7359 7359 7359 8177 8177 8177 8177 8177 0 0 0 0 0 8177 8177 8177 8177 0 0 0 8177 0 0 0 0 8177 0 0 0 0 0 0 0 0 0 6690 5256 7359 7359 6133 8177 7359 6690 7359 8177 8177 0 0 0 8177 0 0 0 0 0 0 0 0 0 0 0 8177 6133 7359 7359 6133 6133 7359 7359 6690 0 0 7359 7359 0 0 0 0 0 0 0 5256 5256 8177 8177 8177 0 0 0 0 0 0 8177 6690 6690 5661 6133 6133 6690 6133 6690 7359 0 0 0 0 8177 7359 7359 7359 0 0 0 0 0 7359 7359 7359 7359 7359 4906 5661 6133 5661 6690 6133 6133 4906 5256 6133 5256 5256 5256 4329 4088 3679 4599 4088 3873 4329 4329 4329 4329 4088 4599 3504 3504 3504 2725 2453 2537 2943 3345 3504 3873 3504 4599 4599 4599 4599 4088 3679 3679 3679 6133 2830 2537 2725 2537 2943 2830 2943 2830 3066 3066 2943 2830 3066 3066 3066 3199 3504 3199 3066 3066 3345 2943 3345 3066 2943 2725 2725 2453 2628 2537 2453 2537 2453 2374 2374 2299 2537 2374 2453 2453 2374 2374 2374 2374 2628 2374 0 0 0 0 0
    0 0 0 0 0 0 0 0 0 0 0 0 0 0 0 0 0 0 0 0 0 0 0 0 0 0 0 0 0 0 0 0 0 0 0 0 0 0 0 0 0 0 0 0 0 0 0 0 0 0 0 0 0 0 0 0 0 0 0 0 0 0 0 0 0 0 0 0 0 0 0 0 0 0 0 0 0 0 0 0 0 0 6690 6133 6133 7359 6133 6133 6690 6690 6690 7359 6133 7359 7359 7359 7359 6690 6133 6690 8177 8177 8177 6690 7359 7359 7359 8177 8177 7359 7359 7359 0 0 0 0 0 8177 8177 8177 8177 8177 0 0 8177 0 0 0 0 0 0 0 0 0 0 0 0 0 0 6690 5256 7359 6690 5661 7359 7359 6133 8177 8177 8177 0 0 0 0 0 0 0 0 0 0 0 0 0 0 0 8177 6690 8177 8177 6690 6690 7359 0 0 0 191 0 7359 0 0 0 0 0 0 0 5256 5256 8177 8177 8177 0 8177 0 0 0 0 8177 7359 7359 6690 7359 6690 7359 6690 7359 8177 0 0 0 8177 8177 6690 7359 7359 0 0 0 0 0 7359 8177 8177 8177 7359 5256 6133 6133 5661 6690 6133 6133 4599 4906 5661 5256 4906 5256 4329 3873 3873 4906 4088 3873 4329 4329 4599 4599 4329 4599 3504 3345 3345 2628 2374 2453 2830 3199 3504 4088 3504 4599 4599 4599 4599 4329 3679 3679 3679 6133 2943 2628 2725 2628 3066 2830 3066 2830 2943 2943 2943 2943 3066 3066 3199 3345 3504 3345 3199 3345 4329 3066 3504 0 0 2725 2628 2453 2537 2537 2453 2537 2453 2374 2374 2299 2628 2453 2537 2453 2374 2374 2374 2374 2537 2299 0 0 0 0 0
    0 0 0 0 0 0 0 0 0 0 0 0 0 0 0 0 0 0 0 0 0 0 0 0 0 0 0 0 0 0 0 0 0 0 0 0 0 0 0 0 0 0 0 0 0 0 0 0 0 0 0 0 0 0 0 0 0 0 0 0 0 0 0 0 0 0 0 0 0 8177 0 0 0 0 0 0 0 0 0 0 0 0 6690 5661 5661 7359 6133 6133 6690 6690 6690 7359 6133 7359 7359 7359 7359 7359 6133 7359 8177 0 8177 6690 7359 7359 7359 7359 8177 7359 7359 7359 0 0 0 0 0 8177 8177 8177 8177 8177 8177 0 8177 0 0 0 0 0 0 0 0 0 0 0 0 0 0 6690 5256 7359 6690 6133 7359 7359 6133 7359 8177 8177 0 0 0 0 0 0 0 0 0 0 0 0 0 0 0 8177 6690 0 8177 6690 7359 0 0 191 191 191 0 0 0 0 0 0 0 0 0 5256 5256 8177 8177 8177 0 8177 0 0 0 0 8177 7359 7359 6690 7359 7359 7359 7359 7359 8177 0 0 0 0 8177 7359 7359 7359 0 0 0 0 0 7359 8177 8177 8177 7359 5256 6133 5661 5256 6690 5661 5661 4329 4906 5256 4906 4906 5256 4329 3873 3873 4906 4088 3873 4599 4599 4599 4599 4599 4906 3504 3345 3345 2628 2299 2374 2725 3199 3345 4088 3504 4599 4599 4906 4599 4329 3873 3873 3679 6133 2943 2830 2830 2725 3066 2943 3066 2830 2943 2943 2943 3066 3199 3199 3199 3345 3345 3345 3345 3345 4906 2943 3504 3199 2830 2830 2628 2453 2537 2537 2537 2537 2537 2453 2453 2374 2628 2537 2537 2453 2453 2374 2374 2374 2453 2230 0 0 0 0 0
    0 0 0 0 0 0 0 0 0 0 0 0 0 0 0 0 0 0 0 0 0 0 0 0 0 0 0 0 0 0 0 0 0 0 0 0 0 0 0 0 0 0 0 0 0 0 0 0 0 0 0 0 0 0 0 0 0 0 0 0 0 0 0 0 0 0 0 0 0 7359 0 0 0 0 0 0 0 0 0 0 0 0 6690 5661 5661 7359 6690 6690 7359 7359 6690 8177 6690 7359 8177 8177 7359 7359 6690 7359 8177 0 0 6690 7359 7359 7359 7359 8177 7359 7359 7359 0 0 0 0 0 7359 8177 8177 8177 7359 8177 0 8177 0 0 0 0 0 0 0 0 0 0 0 0 0 0 6690 5256 7359 6690 5661 6690 6690 5661 7359 8177 8177 0 0 0 0 0 0 0 0 0 0 0 0 0 0 0 8177 6690 0 0 7359 7359 0 0 191 191 191 190 190 0 0 0 0 0 0 0 5256 5256 8177 8177 8177 0 8177 0 0 0 0 8177 7359 8177 6690 7359 7359 7359 7359 7359 8177 0 0 0 0 0 8177 8177 0 0 0 0 0 0 7359 7359 7359 8177 6690 5256 5661 5661 5661 6690 5661 5661 4088 4906 5256 4906 4906 4906 4329 3679 3873 4906 4329 3873 4599 4599 4599 4329 4599 4329 3345 3199 3066 2537 2299 2374 2628 3199 3345 3873 3504 4599 4599 4906 4599 4599 3873 3873 3873 6133 3066 3066 2943 2830 3066 2830 3066 2725 2943 2830 2830 3066 3199 3199 3199 3345 3504 3345 3345 3679 4088 2943 3679 3345 2943 2830 2725 2537 2628 2537 2537 2537 2537 2453 2453 2453 2725 2628 2628 2537 2453 2453 2374 2374 2374 2164 0 0 0 0 0
    0 0 0 0 0 0 0 0 0 0 0 0 0 0 0 0 0 0 0 0 0 0 0 0 0 0 0 0 0 0 0 0 0 0 0 0 0 0 0 0 0 0 0 0 0 0 0 0 0 0 0 0 0 0 0 0 0 0 0 0 0 0 0 0 0 0 0 0 0 6690 0 0 0 0 0 0 0 0 0 0 0 0 6690 5661 5256 7359 6690 6690 6690 6690 6133 8177 7359 8177 8177 8177 8177 8177 8177 8177 0 0 0 7359 7359 7359 7359 8177 8177 7359 7359 6690 0 0 0 0 0 7359 8177 8177 8177 7359 8177 8177 8177 0 0 0 0 0 0 0 0 0 0 0 0 0 0 6133 5256 7359 6690 6133 6690 6690 5661 7359 0 0 0 0 0 0 0 0 0 0 0 0 0 0 0 0 0 8177 7359 0 0 7359 0 192 192 191 191 191 190 190 0 0 0 0 0 0 0 5256 5256 8177 8177 7359 8177 8177 0 0 0 0 8177 7359 8177 7359 8177 7359 7359 7359 7359 0 0 0 0 0 0 0 0 0 0 0 0 0 0 6690 7359 7359 7359 6133 5661 5661 5661 5661 6690 5661 5661 4088 5256 5256 5256 4906 4906 4329 3679 4088 5256 4088 3679 4599 4329 4329 4088 4329 3873 3199 3066 2943 2537 2299 2374 2628 3199 3345 3873 3504 4599 4599 4906 4599 4906 3873 3873 3873 5661 3066 3066 3066 2943 3066 2943 3066 2725 2943 2830 2830 3066 3199 3199 3199 3345 3504 3504 3504 3873 3873 3066 3504 3504 2830 2830 2725 2537 2628 2537 2628 2453 2537 2453 2453 2537 2725 2725 2725 2537 2537 2453 2453 2374 2299 2102 0 0 0 0 0
    0 0 0 0 0 0 0 0 0 0 0 0 0 0 0 0 0 0 0 0 0 0 0 0 0 0 0 0 0 0 0 0 0 0 0 0 0 0 0 0 0 0 0 0 0 0 0 0 0 0 0 0 0 0 0 0 0 0 0 0 0 0 0 0 0 0 0 0 0 6690 0 0 0 0 0 0 0 0 0 8177 8177 8177 6690 5256 4906 7359 6690 6690 6133 6690 6133 0 7359 0 0 0 0 0 0 0 0 0 0 8177 8177 8177 8177 8177 0 7359 7359 6690 0 8177 0 0 0 7359 0 0 0 8177 0 0 0 0 0 0 0 0 0 0 0 0 0 0 0 0 0 6133 5256 7359 7359 6690 7359 7359 5661 8177 0 0 0 0 0 0 0 0 0 0 0 0 0 0 0 8177 0 0 7359 0 0 7359 0 192 191 191 190 191 190 190 0 0 0 0 0 0 0 5256 4906 8177 8177 7359 8177 8177 0 0 0 0 8177 8177 0 8177 0 8177 8177 8177 8177 0 0 0 0 0 0 0 0 0 0 0 0 0 0 6133 7359 7359 7359 5661 5256 4906 5661 5256 6133 5256 5256 4088 5256 4906 5256 4599 4906 4329 3679 4088 5256 3873 3679 4599 4329 4329 4088 4599 0 3199 3066 2943 2537 2299 2374 2537 3199 3345 3873 3504 4599 4599 4906 4599 4906 3873 3873 3873 5661 3199 3199 3066 3066 3199 3066 3066 2830 2943 2943 2830 3199 3199 3199 3199 3345 3504 3504 3504 3873 3199 2830 3199 3199 2725 2830 2628 2537 2628 2453 2628 2537 2537 2537 2537 2628 2830 2830 2725 2537 2537 2537 2453 2374 2299 2102 0 0 0 0 0
    0 0 0 0 0 0 0 0 0 0 0 0 0 0 0 0 0 0 0 0 0 0 0 0 0 0 0 0 0 0 0 0 0 0 0 0 0 0 0 0 0 0 0 0 0 0 0 0 0 0 0 0 0 0 0 0 0 0 0 0 0 0 0 0 0 0 0 0 0 6690 0 0 0 0 0 0 0 8177 8177 8177 8177 8177 6133 4906 4906 7359 7359 6133 6690 6690 6133 0 8177 0 0 0 0 0 0 0 0 0 0 0 0 0 0 8177 0 7359 6690 6690 8177 8177 0 0 0 7359 0 0 0 8177 0 0 0 0 0 0 0 0 0 0 0 0 0 0 0 0 0 6690 5256 7359 7359 6133 7359 7359 5256 8177 0 0 0 0 0 0 0 0 0 0 0 0 0 0 0 6690 6690 8177 7359 0 0 7359 0 191 191 191 191 191 190 190 0 0 0 0 0 0 0 5256 4906 8177 8177 7359 8177 8177 0 0 0 0 8177 8177 0 8177 0 8177 8177 8177 0 0 0 0 0 0 0 0 0 0 0 0 0 0 0 6133 7359 7359 7359 5256 5256 4906 5256 5256 5661 5256 5256 3873 5256 4906 5256 4599 4906 4088 3504 4088 5256 3679 3679 4599 4329 4329 4088 0 0 3199 3066 2830 2537 2299 2374 2537 3199 3345 3873 3504 4599 4599 4906 4599 4906 3873 3873 3873 5661 3199 3345 3345 3345 3504 3345 3199 3066 3066 2943 2943 3199 3345 3345 3199 3345 3504 3504 3504 3679 2943 2725 2943 0 2725 2725 2628 2537 2628 2453 2628 2537 2628 2537 2537 2628 2830 2830 2725 2537 2537 2537 2453 2374 2230 2102 0 0 0 0 0
    0 0 0 0 0 0 0 0 0 0 0 0 0 0 0 0 0 0 0 0 0 0 0 0 0 0 0 0 0 0 0 0 0 0 0 0 0 0 0 0 0 0 0 0 0 0 0 0 0 0 0 0 0 0 0 0 0 0 0 0 0 0 0 0 0 0 0 0 0 6133 8177 0 8177 0 0 0 7359 8177 8177 7359 7359 8177 6133 5256 5256 7359 7359 6133 6690 6690 6133 0 0 0 0 0 0 0 0 0 0 0 0 0 0 0 0 8177 0 7359 6690 6133 8177 7359 8177 8177 0 7359 8177 0 8177 7359 0 8177 0 0 0 0 0 0 0 0 0 0 0 0 0 0 0 6690 5256 7359 6690 5661 6690 6690 5256 7359 7359 8177 0 0 0 0 0 0 0 0 0 0 7359 7359 6690 6133 6133 9199 8177 0 0 7359 7359 0 0 191 191 191 190 190 0 0 0 0 0 8177 4088 5256 4906 8177 8177 7359 8177 8177 0 0 0 0 8177 8177 0 8177 0 8177 7359 7359 0 0 0 0 0 0 0 0 0 0 0 0 0 0 0 6133 7359 7359 7359 5256 5256 4599 5256 5256 5661 4906 4906 3873 5256 4906 5256 4599 4329 4088 3504 4088 5256 3679 3873 4906 4329 4599 4329 5256 3679 3345 3199 2830 2537 2299 2453 2628 3345 3504 4088 3504 4599 4599 4906 4599 4906 4088 4088 4088 6133 3345 3504 3504 3504 3679 3504 3199 3199 3066 3066 2943 3345 3345 3345 3345 3504 3345 3504 3504 3873 2830 2628 2830 0 2628 2725 2628 2453 2537 2537 2628 2537 2628 2537 2537 2725 2830 2830 2725 2537 2537 2537 2537 2374 2230 2102 0 0 0 0 0
    0 0 0 0 0 0 0 0 0 0 0 0 0 0 0 0 0 0 0 0 0 0 0 0 0 0 0 0 0 0 0 0 0 0 0 0 0 0 0 0 0 0 0 0 0 0 0 0 0 0 0 0 0 0 0 0 0 0 0 0 0 0 0 0 0 0 0 0 0 5661 7359 0 6133 0 0 0 6690 7359 6690 6690 6690 7359 6133 4906 5661 7359 7359 6690 6690 7359 6690 0 0 0 0 0 0 0 0 0 0 0 0 0 0 0 0 0 0 7359 6690 6133 7359 6133 7359 7359 0 6690 8177 8177 8177 6690 8177 8177 8177 0 0 0 0 0 0 0 0 0 0 0 0 0 0 6690 5256 6690 6690 5256 6133 6133 5256 6690 7359 7359 8177 0 0 0 0 0 0 0 0 8177 7359 7359 6133 6133 6133 0 0 0 0 6690 7359 8177 8177 0 7359 0 0 0 0 0 0 8177 8177 8177 4329 5256 4906 0 0 8177 0 8177 0 0 0 0 8177 8177 0 8177 0 7359 7359 7359 8177 0 0 0 0 0 0 0 0 0 0 0 0 0 0 6133 7359 7359 7359 4906 5256 4329 4906 5256 5661 4906 4906 3873 5256 4906 5256 4599 4329 4088 3679 4088 5256 3679 4088 4906 4329 4599 4329 5256 3873 3504 3504 2830 2537 2299 2537 2725 3679 3679 4329 3504 4906 4599 4906 4599 5256 4088 4088 4088 6133 3504 3679 3504 3679 3679 3504 3199 3199 3199 3066 3066 3504 3504 3504 3504 3504 3504 3504 3504 3873 2830 2537 2725 2628 2628 2725 2628 2453 2537 2537 2628 2537 2628 2537 2537 2830 2943 2943 2725 2537 2537 2537 0 0 2230 2102 0 0 0 0 0
    0 0 0 0 0 0 0 0 0 0 0 0 0 0 0 0 0 0 0 0 0 0 0 0 0 0 0 0 0 0 0 0 0 0 0 0 0 0 0 0 0 0 0 0 0 0 0 0 0 0 0 0 0 0 0 0 0 0 0 0 0 0 0 0 0 0 0 0 0 5661 7359 0 5661 0 8177 7359 6133 6690 6133 6133 6133 6690 5661 4599 5661 7359 7359 6690 6690 7359 6690 0 0 0 0 0 0 0 0 0 0 0 0 0 0 0 0 0 0 7359 6690 6133 7359 5256 6690 6690 8177 6133 7359 8177 8177 6690 8177 8177 8177 0 0 0 0 0 0 0 0 0 0 0 0 0 0 6690 5256 7359 6690 5661 6133 6133 5256 6690 7359 7359 7359 8177 0 0 0 0 0 0 9199 7359 6690 6133 5661 5661 5256 0 0 0 0 6690 6690 7359 8177 8177 7359 7359 7359 8177 0 0 0 8177 8177 8177 4329 5256 4906 0 0 8177 0 0 0 0 0 0 8177 7359 0 8177 8177 7359 7359 6690 8177 0 0 0 0 0 0 0 0 0 0 0 0 0 0 6690 7359 7359 7359 4906 5256 4329 4906 4906 5256 4906 4906 3873 5256 4599 4906 4329 4088 4088 3679 4329 5256 3679 4329 4906 4329 4599 4329 5256 3873 3504 4088 2830 2537 2374 2628 2830 3873 4088 4599 3679 4906 4599 4906 4599 5256 4329 4329 4088 6133 3679 3679 3679 3679 3679 3504 3199 3199 3199 3066 3066 3504 3504 3504 3504 3504 3504 3504 3345 3679 2725 2453 2628 2537 2628 2628 2628 2453 2628 2537 2628 2537 2628 2453 2537 2830 2830 2830 2628 2537 2537 2537 0 0 2164 2102 0 0 0 0 0
    0 0 0 0 0 0 0 0 0 0 0 0 0 0 0 0 0 0 0 0 0 0 0 0 0 0 0 0 0 0 0 0 0 0 0 0 0 0 0 0 0 0 0 0 0 0 0 0 0 0 0 0 0 0 0 0 0 0 0 0 0 0 0 0 0 0 0 0 0 6690 8177 0 5256 7359 7359 6690 5661 6133 5661 5256 5661 6133 5256 4599 5661 6690 6690 6690 6690 6690 6690 0 0 0 0 0 0 0 0 0 0 0 0 0 0 0 0 0 0 7359 6690 6133 7359 4599 6133 6690 8177 6133 8177 8177 8177 6690 8177 8177 8177 0 0 0 0 0 0 0 0 0 0 0 0 0 0 6690 5256 7359 6690 6133 5661 6133 5661 6133 6690 7359 7359 8177 0 0 0 0 0 0 8177 7359 6690 6133 4906 5256 4906 0 0 0 0 7359 6690 7359 7359 8177 7359 7359 7359 8177 0 0 0 8177 8177 8177 4906 5661 4906 0 0 0 0 0 0 0 0 0 8177 7359 0 8177 0 7359 7359 6690 8177 0 0 0 0 0 0 0 0 0 0 0 0 0 0 6690 7359 7359 7359 4906 5256 4329 5256 5256 5661 4906 4906 3873 5256 4599 4906 4329 4088 4088 3679 4329 5256 3679 4088 4906 4329 4599 4088 5256 3873 3679 4329 2830 2537 2453 2725 3066 4088 4329 4599 3679 4906 4599 4906 4599 5256 4329 4088 4088 6133 3504 3504 3504 3504 3504 3345 3199 3199 3199 3066 3066 3504 3504 3504 3504 3504 3345 3345 3345 3504 2725 2453 2628 2453 2537 2628 2628 2537 2725 2628 2725 2628 2725 2453 2537 2725 2830 2725 2537 2453 2537 2453 0 0 2164 2102 0 0 0 0 0
    0 0 0 0 0 0 0 0 0 0 0 0 0 0 0 0 0 0 0 0 0 0 0 0 0 0 0 0 0 0 0 0 0 0 0 0 0 0 0 0 0 0 0 0 0 0 0 0 0 0 0 0 0 0 0 0 0 0 0 0 0 0 0 0 0 0 0 0 0 8177 0 0 4599 6690 6690 5661 5256 5661 5256 4906 4906 6133 5256 4599 5661 6690 6690 6690 6690 6690 6690 0 0 0 0 0 0 0 0 0 0 0 0 0 0 0 0 0 8177 6690 6133 5661 6690 4088 6133 6690 0 6690 8177 0 0 7359 0 0 0 0 0 0 0 0 0 0 0 0 0 0 0 0 0 6690 5256 7359 6690 6133 5661 6133 5661 6133 6690 7359 7359 8177 8177 0 0 0 0 0 8177 7359 6690 6133 4906 5256 4599 0 0 0 0 7359 6690 7359 7359 8177 7359 7359 7359 8177 8177 0 0 8177 8177 0 5256 5661 5256 0 0 0 0 0 0 0 0 0 8177 8177 0 8177 0 8177 7359 7359 0 0 0 0 0 0 0 0 0 0 0 0 0 8177 8177 6133 6690 6690 7359 4599 5256 4329 5256 5256 5256 4906 4906 3873 5256 4599 4599 4329 3873 4088 3873 4329 5256 3679 4088 4906 4329 4599 4088 4906 3679 3679 4088 2830 2537 2537 2830 3066 4088 4088 4599 3679 4906 4599 4906 4599 5256 4088 4088 3873 5256 3066 3066 3199 3199 3066 2943 3066 3066 2943 3066 2943 3345 3345 3345 3345 3345 3345 3199 3199 3345 2725 2537 2628 2453 2537 2628 2628 2537 2725 2628 2725 2628 2725 2453 2537 2725 2725 2628 2374 2374 2453 2453 2537 0 2102 2102 0 0 0 0 0
    0 0 0 0 0 0 0 0 0 0 0 0 0 0 0 0 0 0 0 0 0 0 0 0 0 0 0 0 0 0 0 0 0 0 0 0 0 0 0 0 0 0 0 0 0 0 0 0 0 0 0 0 0 0 0 0 0 0 0 0 0 0 0 0 0 0 0 0 0 9199 8177 0 4329 6133 6133 5256 4906 5256 4906 4599 4599 5661 4906 4599 5661 6133 6133 6133 6133 6133 6690 0 0 0 0 0 0 0 0 0 0 0 0 0 0 0 0 0 8177 6690 6133 5661 6690 4088 6133 7359 0 7359 0 0 0 8177 0 0 0 0 0 0 0 0 0 0 0 0 0 0 0 0 0 6690 5256 7359 6690 6133 6133 6133 5661 6133 6690 6690 6690 7359 8177 8177 8177 0 0 8177 7359 7359 6133 5661 4329 4329 4088 0 0 0 0 8177 7359 7359 8177 8177 7359 7359 7359 8177 8177 0 0 8177 8177 8177 5661 5661 5256 0 0 0 0 0 0 0 0 0 8177 7359 0 8177 0 8177 8177 8177 0 0 0 0 0 0 0 0 0 8177 0 0 8177 8177 8177 5661 6690 6690 7359 4329 5256 4088 4906 4906 5256 4906 4906 3873 5256 4599 4599 4329 3873 4088 3873 4329 5256 3679 4329 4906 4329 4906 4329 4906 3873 3679 4599 2943 2725 2725 3066 3199 4088 4088 4599 3679 4906 4599 4906 4599 5256 4088 3873 3679 4599 2943 2537 2830 2830 2830 2628 2453 2537 2830 2943 2943 3199 3199 3199 3345 3199 3199 3199 3199 3199 2725 2453 2453 2374 2453 2537 2537 2453 2725 2628 2725 2628 2628 2453 2537 2628 2725 2537 2299 2299 2374 2374 2453 2299 2102 2102 0 0 0 0 0
    0 0 0 0 0 0 0 0 0 0 0 0 0 0 0 0 0 0 0 0 0 0 0 0 0 0 0 0 0 0 0 0 0 0 0 0 0 0 0 0 0 0 0 0 0 0 0 0 0 0 0 0 0 0 0 0 0 0 0 0 0 0 0 0 0 0 0 0 0 8177 7359 8177 3873 5661 5661 4599 4599 4906 4599 4329 4329 5256 4329 4329 5661 5661 6133 6133 6133 6133 6133 8177 8177 0 0 0 0 0 0 0 0 0 0 0 0 0 0 0 8177 6690 6133 5661 6690 4329 6133 7359 0 8177 0 0 0 8177 0 0 0 0 0 0 0 0 0 0 0 0 0 0 0 0 0 6690 5661 7359 6690 6133 6133 6690 6133 6133 6690 7359 6690 8177 8177 8177 8177 0 0 7359 6690 7359 6133 5661 4599 5256 5256 0 0 0 0 0 8177 8177 8177 8177 8177 8177 8177 0 8177 0 0 7359 7359 8177 5661 6133 5661 0 0 0 0 0 0 0 0 0 8177 7359 0 8177 0 8177 8177 8177 0 0 0 0 0 0 0 0 0 6690 8177 8177 8177 7359 8177 5661 6690 6690 7359 4599 5256 4088 4906 4906 5256 4906 4906 3873 5256 4599 4329 4329 3873 4088 3873 4329 5256 3679 4329 4906 4599 5256 4599 5256 4088 3873 5256 2943 2943 3066 3345 3199 4088 4088 4599 3679 4906 4599 4906 4329 4906 3873 3873 3679 4329 2830 2102 2374 2299 2453 2102 2044 2102 2537 2830 2943 3199 3199 3199 3345 3199 3199 3066 3066 3066 2628 2230 2230 2164 2230 2299 2374 2374 2628 2537 2725 2628 2628 2453 2453 2537 2537 2299 2102 2164 2230 2299 2374 2230 2102 2102 0 0 0 0 0
    0 0 0 0 0 0 0 0 0 0 0 0 0 0 0 0 0 0 0 0 0 0 0 0 0 0 0 0 0 0 0 0 0 0 0 0 0 0 0 0 0 0 0 0 0 0 0 0 0 0 0 0 0 0 0 0 0 0 0 0 0 0 0 0 0 0 0 0 0 8177 7359 7359 3873 5661 4906 4329 4599 4599 4329 4088 4088 5256 4088 4088 5661 5256 5661 6133 6133 6133 6133 7359 8177 8177 8177 9199 0 0 0 0 0 0 0 0 0 0 0 0 8177 6690 6133 5661 7359 4599 6133 7359 0 8177 0 0 0 8177 0 0 0 0 0 0 0 0 0 0 0 0 0 0 0 0 0 7359 6690 8177 6690 6690 6690 6690 6690 6690 7359 7359 7359 8177 8177 0 0 0 0 8177 7359 7359 6690 6690 5661 6690 7359 0 0 0 0 0 0 8177 8177 0 8177 8177 8177 0 0 0 0 8177 7359 8177 6133 6690 6133 0 0 0 0 0 0 0 0 0 8177 7359 0 8177 0 7359 8177 7359 0 0 0 0 0 7359 0 8177 0 5661 7359 7359 7359 7359 8177 5661 6690 6690 7359 4906 5256 4329 4906 4906 5256 4599 4599 3873 5256 4599 4088 4329 3873 4088 3873 4329 5256 3679 4329 4906 4599 5256 4599 5256 4329 3873 5256 2943 2943 3066 3345 0 3873 4088 4329 3504 4599 4329 4599 4088 4599 0 0 3504 4088 2725 1989 2044 1989 2044 1887 1936 1936 2453 2725 2830 3199 3199 3199 3199 3199 3066 3066 2943 2943 2453 2102 2044 2044 2102 2164 2230 2230 2537 2453 2628 2628 2453 2374 2374 2374 2374 2102 1989 2044 2102 2164 2230 2102 2044 2102 0 0 0 0 0
    0 0 0 0 0 0 0 0 0 0 0 0 0 0 0 0 0 0 0 0 0 0 0 0 0 0 0 0 0 0 0 0 0 0 0 0 0 0 0 0 0 0 0 0 0 0 0 0 0 0 0 0 0 0 0 0 0 0 0 0 0 0 0 0 0 0 0 0 0 7359 6690 7359 3679 5256 4599 4088 4329 4329 4088 3873 3873 4906 3873 4088 5661 5256 5256 5661 5661 5661 6133 6133 7359 6690 7359 7359 7359 8177 8177 8177 8177 0 0 0 0 0 0 8177 8177 6690 6133 6133 7359 4906 6133 7359 0 7359 0 0 0 8177 0 0 0 0 0 0 0 0 0 0 0 0 0 0 0 0 0 8177 8177 8177 7359 7359 7359 8177 7359 7359 8177 8177 8177 0 0 0 0 0 0 0 0 0 8177 8177 7359 8177 0 0 0 0 0 0 0 0 8177 8177 8177 8177 8177 0 0 0 0 8177 7359 8177 6690 7359 7359 0 0 0 0 0 0 0 0 0 8177 7359 0 8177 0 7359 8177 7359 8177 7359 7359 8177 8177 6133 7359 6690 7359 4599 6133 6690 6133 6690 6690 4906 6133 6133 7359 4906 5256 4329 4906 5256 5256 4906 4599 3679 4906 4599 4088 4088 3873 4088 3873 4329 4906 3679 4329 4906 4329 5256 4599 5256 4088 3873 5256 2943 3066 3066 0 0 3679 3873 3873 3345 4329 4088 4088 3679 4088 0 0 0 3504 2537 1936 1989 1936 1936 1839 1887 1887 2230 2537 2725 3066 3066 3199 3199 3066 3066 2943 2830 2830 2453 2044 2044 1989 2044 2044 2164 2102 2374 2374 2537 2453 2299 2230 2230 2230 2164 1989 1936 1989 2044 2044 2102 2044 1989 2044 0 0 0 0 0
    0 0 0 0 0 0 0 0 0 0 0 0 0 0 0 0 0 0 0 0 0 0 0 0 0 0 0 0 0 0 0 0 0 0 0 0 0 0 0 0 0 0 0 0 0 0 0 0 0 0 0 0 0 0 0 0 0 0 0 0 0 0 0 0 0 0 0 0 0 7359 6690 6690 3679 5256 4599 4088 4329 4329 4088 3873 3873 4906 3873 3873 5661 4906 5256 5256 5661 5661 6133 5661 6133 5661 6690 6690 6690 6690 6690 6690 8177 0 0 0 0 0 0 8177 8177 6690 6133 6133 7359 5256 6690 7359 0 7359 0 8177 8177 8177 0 0 0 0 0 0 0 0 0 0 0 0 0 0 0 0 0 0 0 8177 8177 7359 8177 8177 8177 8177 0 0 0 0 0 0 0 0 0 0 0 0 0 0 0 0 0 0 0 0 0 0 0 0 8177 8177 8177 8177 8177 0 0 0 0 8177 8177 8177 7359 0 0 0 0 0 0 0 0 0 0 0 8177 7359 0 0 0 8177 8177 7359 7359 6690 6690 7359 6690 5256 6690 6133 6690 4088 5661 6133 5661 6133 5661 4599 5256 5661 6690 4906 4906 4599 4906 5256 5256 4906 4599 3679 4906 4599 3873 4088 3679 4088 3873 4088 4906 3679 4329 4906 4599 5256 4906 5256 4329 3873 5256 2943 3066 3066 0 0 3504 3679 3504 3199 3873 3679 3679 3345 3504 0 0 0 3066 2374 1936 1936 1989 1887 1839 1887 1839 2102 2374 2628 2943 3066 3066 3066 3066 2943 2830 2725 2725 2453 2044 1989 1989 1989 1989 2044 2044 2230 2164 2453 2299 2102 2102 2164 2102 2044 1887 1887 1887 1936 1936 1989 1936 1989 1989 0 0 0 0 0
    0 0 0 0 0 0 0 0 0 0 0 0 0 0 0 0 0 0 0 0 0 0 0 0 0 0 0 0 0 0 0 0 0 0 0 0 0 0 0 0 0 0 0 0 0 0 0 0 0 0 0 0 0 0 0 0 0 0 0 0 0 0 0 0 0 0 0 0 0 7359 6690 6690 3679 5256 4599 4329 4599 4329 4088 4088 4088 4906 3873 4088 5256 4906 4906 5256 5256 5256 5661 5256 5661 5256 5661 6133 6133 6133 6133 5661 8177 0 0 8177 0 0 0 8177 8177 7359 6690 6133 8177 6133 8177 0 0 8177 0 0 0 8177 0 0 0 0 0 0 0 0 0 0 0 0 0 0 0 0 0 0 0 0 0 8177 0 0 0 0 0 0 0 0 0 0 0 0 0 0 0 0 0 0 0 0 0 0 0 0 0 0 0 0 0 0 8177 0 0 0 0 0 0 0 8177 8177 7359 0 0 0 0 0 0 0 0 0 0 0 8177 8177 0 0 0 8177 8177 7359 7359 6690 6133 6690 6690 5256 6690 6133 6690 4088 5661 5661 5256 5661 4906 4599 4906 5256 6133 4906 4599 4599 4906 5256 5256 5256 4906 3679 4906 4599 3679 4088 3679 3873 3873 4088 4906 3679 4329 4906 4599 5256 4906 5256 4329 3873 4906 2943 2943 2943 0 2830 3199 3345 3199 3199 3504 3504 3504 3199 3199 0 2628 2628 2830 2230 1936 1936 1936 1887 1839 1887 1839 1989 2230 2453 2725 2943 2943 2943 2943 2830 2725 2628 2628 2299 1989 1936 1936 1936 1936 1936 1936 2044 1989 2164 2044 1936 1989 2044 1936 1936 1839 1839 1839 1887 1887 1887 1839 1936 1989 0 0 0 0 0
    0 0 0 0 0 0 0 0 0 0 0 0 0 0 0 0 0 0 0 0 0 0 0 0 0 0 0 0 0 0 0 0 0 0 0 0 0 0 0 0 0 0 0 0 0 0 0 0 0 0 0 0 0 0 0 0 0 0 0 0 0 0 0 0 0 0 0 0 0 7359 6690 6690 3679 5256 4599 4329 4329 4329 4088 3873 4088 4906 3873 3873 4906 4906 4906 4906 5256 4906 5661 4906 5256 4599 5256 5661 5661 5661 5661 4906 7359 0 0 8177 0 0 0 8177 8177 7359 6690 6690 8177 6690 0 0 0 8177 0 0 0 8177 0 0 0 0 0 0 0 0 0 0 0 0 0 0 0 0 0 0 0 0 0 8177 0 0 9199 0 0 0 0 0 0 0 0 0 0 0 0 0 0 0 0 0 0 0 0 0 0 0 0 0 0 0 0 0 0 0 0 0 0 0 8177 0 7359 0 0 0 0 0 0 0 0 0 0 0 8177 8177 0 0 0 0 0 8177 7359 6690 6133 6690 6133 5256 6690 6690 7359 4088 5661 5661 5256 5661 4599 4599 4329 5256 5661 4906 4599 4599 4599 5256 4906 5256 4599 3679 4599 4599 3679 3873 3504 3873 3679 4088 4599 3504 4088 4906 4329 5256 4599 5256 4088 3873 4088 2943 2830 2830 2830 2725 2943 3066 2943 2943 3199 3199 3199 2943 3066 2628 2374 2453 2628 2102 1887 1887 1887 1795 1795 1839 1795 1887 2044 2374 2537 2725 2725 2830 2830 2725 2628 2374 2453 2164 1936 1887 1887 1887 1839 1887 1839 1887 1887 1989 1887 1795 1887 1887 1839 1795 1752 1752 1752 1795 1839 1839 1795 1839 1887 0 0 0 0 0
    0 0 0 0 0 0 0 0 0 0 0 0 0 0 0 0 0 0 0 0 0 0 0 0 0 0 0 0 0 0 0 0 0 0 0 0 0 0 0 0 0 0 0 0 0 0 0 0 0 0 0 0 0 0 0 0 0 0 0 0 0 0 0 0 0 0 0 0 0 7359 6690 6690 3679 5256 4599 4088 4329 4329 4088 4088 4088 4906 3873 3873 5256 4906 4906 4906 5256 4906 5256 4906 5256 4599 4906 5661 5661 5256 5661 4906 7359 0 0 0 0 0 0 8177 0 7359 6690 6690 8177 7359 8177 0 0 7359 0 0 8177 8177 0 0 0 0 0 0 0 0 0 0 0 0 0 0 0 0 0 0 0 0 0 0 0 0 0 0 0 0 0 0 0 0 0 0 0 0 0 0 0 0 0 0 0 0 0 0 0 0 0 0 0 0 0 0 0 0 0 0 0 0 0 0 6690 0 0 0 0 0 0 0 0 0 0 0 0 0 0 0 0 0 0 0 8177 6690 6133 6690 6133 5256 6690 6690 7359 4088 5661 5256 5256 5256 4329 4329 4088 4906 5256 4599 4599 4329 4599 5256 4599 5256 4599 3679 4599 4329 3679 3873 3504 3679 3679 3873 4329 3504 4088 4599 4329 4906 4599 4906 3873 3679 3873 2943 2830 2830 2830 2725 2725 2830 2830 2830 2943 0 0 2830 2830 2453 2230 2299 2537 2044 1887 1887 1887 1839 1795 1839 1795 1887 1989 2230 2374 2537 2628 2628 2725 2537 2374 2102 2164 1989 1839 1795 1839 1839 1795 1839 1795 1795 1795 1887 1795 1752 1795 1795 1752 1752 1711 1711 1711 1711 1752 1752 1711 1795 1839 0 0 0 0 0
    0 0 0 0 0 0 0 0 0 0 0 0 0 0 0 0 0 0 0 0 0 0 0 0 0 0 0 0 0 0 0 0 0 0 0 0 0 0 0 0 0 0 0 0 0 0 0 0 0 0 0 0 0 0 0 0 0 0 0 0 0 0 0 0 0 0 0 0 0 7359 6690 6133 3679 5256 4599 4088 4329 4329 4329 4088 4088 5256 4088 3873 5256 4906 4906 4906 4906 4906 5256 4599 4906 4329 4906 5256 5661 5256 5661 4599 6690 8177 0 7359 8177 0 8177 7359 8177 6690 6133 6133 8177 6690 7359 8177 0 7359 8177 8177 8177 7359 0 0 0 0 0 0 0 0 0 0 0 0 0 0 0 0 0 0 0 0 0 0 0 0 0 0 0 0 0 0 0 0 0 0 0 0 0 0 0 0 0 0 0 0 0 0 0 0 0 0 0 0 0 0 0 0 0 0 0 0 0 0 6690 0 0 0 0 0 0 0 0 0 0 0 8177 8177 0 0 0 0 0 0 8177 6690 6133 6690 6133 4906 6133 6133 6690 3873 5661 5256 5256 5256 4088 4599 4088 4906 5256 4599 4329 4329 4329 4906 4599 5661 4599 3679 4599 4329 3504 3679 3504 3679 3504 3873 4329 3345 4088 4599 4329 4906 4599 4906 3873 3679 3873 2943 2725 2725 2725 2628 2537 2725 2537 2453 2628 0 2628 2537 2628 2299 2102 2164 2374 2044 1936 1936 1936 1887 1839 1839 1795 1839 1989 2044 2164 2453 2453 2537 2628 2374 2102 1887 1936 1887 1795 1752 1752 1795 1752 1795 1752 1752 1752 1795 1752 1711 1752 1752 1711 1711 1672 1672 1672 1672 1711 1672 1711 1752 1795 0 0 0 0 0
    0 0 0 0 0 0 0 0 0 0 0 0 0 0 0 0 0 0 0 0 0 0 0 0 0 0 0 0 0 0 0 0 0 0 0 0 0 0 0 0 0 0 0 0 0 0 0 0 0 0 0 0 0 0 0 0 0 0 0 0 0 0 0 0 0 0 0 0 0 7359 6690 6133 3504 4906 4599 4088 4599 4599 4329 4329 4329 5256 4088 4088 5256 5256 4906 4906 4906 4906 5256 4906 4906 4329 4906 5256 5661 5256 5256 4329 6133 7359 8177 6133 6690 109 0 6133 7359 6133 5661 6133 7359 6690 7359 7359 0 6690 7359 7359 7359 6690 0 8177 8177 8177 0 0 0 0 0 0 0 0 0 0 0 0 0 0 0 0 0 0 0 0 0 0 0 0 0 0 0 0 0 0 0 0 0 0 0 0 0 0 0 0 0 0 0 0 0 0 0 0 0 0 0 0 0 0 0 0 0 0 7359 0 0 0 0 0 0 0 0 0 0 0 8177 8177 0 0 0 0 0 0 7359 6690 6133 6133 5661 4599 5661 6133 6133 3873 5661 4906 5256 5256 4088 4599 4088 4906 5256 4599 4329 4329 4329 5256 4599 5661 4599 3679 4599 4599 3504 3873 3504 3679 3679 3873 4329 3504 4088 4599 4329 4599 4329 4599 3679 3679 3679 2830 2628 2628 2628 2453 2374 2537 2299 2164 2299 0 2299 2299 2374 2102 2044 2102 2230 1989 1989 1989 1936 1887 1887 1839 1839 1839 1936 1936 1989 2102 2230 2230 2374 2102 1936 1795 1839 1795 1752 1752 1752 1752 1752 1752 1752 1711 1672 1711 1711 1711 1711 1711 1711 1672 1672 1672 1672 1672 1672 1672 1672 1711 1752 0 0 0 0 0
    0 0 0 0 0 0 0 0 0 0 0 0 0 0 0 0 0 0 0 0 0 0 0 0 0 0 0 0 0 0 0 0 0 0 0 0 0 0 0 0 0 0 0 0 0 0 0 0 0 0 0 0 0 0 0 0 0 0 0 0 0 0 0 0 0 0 0 0 0 7359 6690 6133 3504 4906 4599 4088 4599 4599 4599 4329 4329 5661 4088 4088 5256 5256 5256 4906 4906 4906 5256 4906 4906 4329 4599 5256 5256 4906 4906 4088 5256 6133 7359 4906 5256 0 6133 5661 6690 5661 5661 5661 6690 6133 6133 6690 8177 6133 6690 6690 6690 6690 8177 8177 8177 7359 0 0 0 0 0 0 0 0 0 0 0 0 0 0 0 0 0 0 0 0 0 0 0 0 0 0 0 0 0 0 0 0 0 0 0 0 0 0 0 0 0 0 0 0 0 0 0 0 0 0 0 0 0 0 0 0 0 0 8177 0 0 0 0 0 0 0 0 0 0 0 7359 7359 0 0 0 8177 6690 8177 7359 7359 6690 6690 6133 4906 6133 6133 6690 4088 5661 4906 5256 5256 4088 4599 4088 4906 5256 4599 4329 4329 4329 5256 4329 5661 4599 3679 4599 4599 0 3679 3504 3679 3504 3873 4329 3345 4088 4599 4329 4329 4088 4329 3679 3504 3679 2830 2453 2453 2537 2374 2230 2374 2164 2102 2164 2164 2102 2164 2230 2044 1989 2044 2164 1989 2044 2044 1989 1887 1936 1839 1795 1795 1887 1839 1887 1936 1989 1989 1989 1936 1795 1752 1795 1795 1752 1752 1711 1752 1711 1752 1711 1672 1635 1672 1672 1635 1672 1672 1711 1672 1672 1672 1672 1672 1672 1672 1672 1672 1672 0 0 0 0 0
    0 0 0 0 0 0 0 0 0 0 0 0 0 0 0 0 0 0 0 0 0 0 0 0 0 0 0 0 0 0 0 0 0 0 0 0 0 0 0 0 0 0 0 0 0 0 0 0 0 0 0 0 0 0 0 0 0 0 0 0 0 0 0 0 0 0 0 0 0 7359 6690 6690 3504 4906 4599 4088 4599 4599 4599 4329 4329 5661 4088 4088 5256 5256 4906 4599 4906 4906 5256 4599 4906 4329 4599 4906 5256 4906 4599 3873 4906 5256 6133 3873 4329 4906 5256 5256 6690 5256 5256 5661 6133 5661 5256 5661 6690 5661 6133 6133 6133 6133 8177 8177 8177 7359 0 0 0 0 0 0 0 0 0 0 0 0 0 0 0 0 0 0 0 0 0 0 0 0 0 0 0 0 0 0 0 0 0 0 0 0 0 0 0 0 0 0 0 0 0 0 0 0 0 0 0 0 0 0 0 0 0 0 0 0 0 0 0 0 0 0 0 0 8177 8177 6690 6133 8177 8177 0 7359 5256 6690 7359 6690 6690 6690 6133 5256 6133 6690 7359 4599 6133 4906 5661 5661 3873 4906 4088 4906 5256 4906 4599 4599 4329 5256 4599 6133 4906 3679 4599 4599 0 3679 3504 3679 3504 3679 4329 3345 4088 4599 4329 4329 4088 4329 3504 3504 3504 2830 2374 2453 2453 2230 2164 2299 2102 2044 2102 2102 2044 2102 2102 1989 1989 2044 2102 1989 2044 2044 1989 1936 2044 1839 1795 1752 1887 1839 1839 1839 1887 1839 1887 1839 1795 1711 1752 1752 1711 1711 1711 1752 1672 1711 1672 1635 1599 1599 1599 1599 1635 1635 1672 1672 1672 1672 1672 1635 1672 1635 1672 1635 1635 0 0 0 0 0
    0 0 0 0 0 0 0 0 0 0 0 0 0 0 0 0 0 0 0 0 0 0 0 0 0 0 0 0 0 0 0 0 0 0 0 0 0 0 0 0 0 0 0 0 0 0 0 0 0 0 0 0 0 0 0 0 0 0 0 0 0 0 0 0 0 0 0 0 0 6690 6690 6133 3504 4906 4599 4088 4599 4599 4599 4599 4599 6133 4088 4329 5256 5661 5256 4599 4906 4906 5256 4599 4906 4329 4599 4906 5256 4906 4599 3679 4599 4599 4906 3504 3679 4088 4329 4906 6133 5256 5256 5661 6133 5661 5256 5661 6133 5256 6133 6133 6133 6133 8177 8177 8177 8177 0 0 0 0 0 0 0 0 0 0 0 0 0 0 0 0 0 0 0 0 0 0 0 0 0 0 0 0 0 0 0 0 0 0 0 0 0 0 0 0 0 0 0 0 0 0 0 0 0 0 0 0 0 0 0 0 0 0 0 0 0 0 0 0 0 0 0 0 8177 0 6133 5256 6690 5661 7359 5256 3679 4906 6690 6133 6133 6690 6133 5256 6133 6133 6690 4906 6133 4906 5661 5661 3873 4906 4088 4906 5256 4906 4599 4599 4329 5256 4329 6133 4906 3679 4599 4599 0 3679 3504 3679 3504 3873 4329 3345 4088 4599 4088 4088 4088 4088 3504 3345 3345 2725 2374 2453 2453 2164 2164 2230 2102 2044 2044 2044 1989 2044 2102 1989 1989 2044 2102 1989 2102 2102 1989 1936 2102 1795 1752 1672 1795 1752 1752 1795 1795 1795 1795 1752 1752 1672 1672 1711 1672 1672 1672 1711 1635 1711 1635 1635 1565 1565 1599 1599 1599 1599 1672 1635 1672 1672 1672 1635 1672 1635 1672 1635 1635 0 0 0 0 0
    0 0 0 0 0 0 0 0 0 0 0 0 0 0 0 0 0 0 0 0 0 0 0 0 0 0 0 0 0 0 0 0 0 0 0 0 0 0 0 0 0 0 0 0 0 0 0 0 0 0 0 0 0 0 0 0 0 0 0 0 0 0 0 0 0 0 0 0 0 6690 6690 6133 0 5256 4906 4329 4906 4906 4906 4599 4599 5661 4088 4329 5256 5256 4906 4599 4599 4599 5256 4906 5256 4599 4906 5256 5256 5256 4599 3679 4088 3873 3873 3066 3199 3504 3679 4088 6133 5256 5256 5661 6133 6133 5256 5661 6133 5256 6133 6133 6133 6690 8177 8177 8177 8177 0 0 0 0 0 0 0 0 0 0 0 0 0 0 0 0 0 0 0 0 0 0 0 0 0 0 0 0 0 0 0 0 0 0 0 0 0 0 0 0 0 0 0 0 0 0 0 0 0 0 0 0 0 0 0 0 0 0 0 0 0 0 0 0 0 0 0 0 8177 0 5661 4329 5661 3679 4906 3873 3345 3873 6133 5661 6133 6133 6133 5661 6133 6133 6133 4599 6133 4906 5661 5661 4088 4906 4088 4906 5256 4906 4599 4599 4329 5256 4329 6133 4906 3679 4599 4599 0 3873 3679 3873 3679 3873 4599 3504 4088 4906 4329 4088 3873 3873 3345 3199 0 2725 2299 2374 2453 2164 2164 2164 2102 2044 2044 2044 1989 2044 2044 0 1989 2044 2044 1989 2102 2102 1989 1936 2164 1752 1711 1599 1752 1711 1711 1752 1752 1752 1752 1711 1711 1635 1672 1672 1672 1672 1635 1711 1635 1711 1635 1635 1599 1599 1599 1599 1599 1599 1672 1635 1672 1672 1672 1635 1672 1635 1672 1635 1635 0 0 0 0 0
    0 0 0 0 0 0 0 0 0 0 0 0 0 0 0 0 0 0 0 0 0 0 0 0 0 0 0 0 0 0 0 0 0 0 0 0 0 0 0 0 0 0 0 0 0 0 0 0 0 0 0 0 0 0 0 0 0 0 0 0 0 0 0 0 0 0 0 0 0 7359 0 0 0 5256 4906 4329 4906 4599 4599 4599 4599 5661 4088 4088 4906 5256 4906 4599 4599 4599 4906 4906 5661 4906 5256 5256 5256 5256 4599 3679 3873 3504 3199 2830 2943 3066 3345 3345 4906 4329 4599 5256 5661 5661 5256 5256 5661 5256 6133 6133 6133 6690 8177 8177 8177 8177 0 0 0 0 0 0 0 0 0 0 0 0 0 0 0 0 0 0 0 0 0 0 0 0 0 0 0 0 0 0 0 0 0 0 0 0 0 0 0 0 0 0 0 0 0 0 0 0 0 0 0 0 0 0 0 0 0 0 0 0 0 0 0 0 0 8177 0 0 8177 0 4906 3679 0 0 0 3199 2943 3345 5661 4906 5661 5661 6133 5661 5661 5661 5661 4599 6133 4906 5661 5661 3873 4906 4329 4906 5256 5256 4599 4599 4329 5256 4329 5661 4906 3679 4329 4599 73 3873 3679 3873 3679 3873 4599 3504 4329 4906 4088 3873 3873 3873 3345 3199 0 2628 2230 2374 2453 2102 2102 2164 2044 2044 1989 1989 1936 1989 1989 0 1936 2044 1989 1989 2164 2164 1989 1989 2230 1752 1711 1599 1752 1711 1711 1711 1752 1711 1752 1711 1711 1635 1672 1711 1672 1672 1635 1711 1635 1711 1672 1635 1599 1599 1599 1599 1599 1599 1672 1635 1672 1672 1635 1635 1672 1635 1672 1635 1635 0 0 0 0 0
    0 0 0 0 0 0 0 0 0 0 0 0 0 0 0 0 0 0 0 0 0 0 0 0 0 0 0 0 0 0 0 0 0 0 0 0 0 0 0 0 0 0 0 0 0 0 0 0 0 0 0 0 0 0 0 0 0 0 0 0 0 0 0 0 0 0 0 0 0 8177 7359 7359 0 5256 5256 4329 4906 4906 4599 4599 4599 5661 4088 4088 4906 4906 4599 4599 4329 4599 4906 4906 5661 5256 5256 5256 5256 5256 4329 3504 3504 3066 2830 2725 2725 2830 2943 2943 3504 3504 3679 4329 5256 5256 4906 5256 5661 5256 6133 6133 6133 6690 8177 7359 8177 8177 0 8177 0 8177 0 0 0 0 0 0 0 0 0 0 0 0 0 0 0 0 0 0 0 0 0 0 0 0 0 0 0 0 0 0 0 0 0 0 0 0 0 0 0 0 0 0 0 192 0 0 0 0 0 0 0 0 0 0 0 0 0 0 0 0 0 8177 0 0 7359 0 4329 0 0 2830 2830 2943 2943 3066 4088 4329 5256 5661 5661 5661 5661 5661 5661 4906 6133 4906 5661 5661 4088 4906 4329 4906 5256 5256 4599 4599 4599 5661 4599 5661 5256 3873 4329 4599 3873 4088 3679 3873 3679 4088 4906 3679 4329 4906 4088 3873 3873 3679 3199 3066 0 2628 2164 2299 2374 2102 2102 2102 2044 2044 1989 1989 1887 1989 1989 0 1989 2102 2044 2044 2230 2230 2044 2044 2374 1752 1711 1599 1752 1672 1672 1711 1711 1711 1752 1672 1711 1672 1672 1711 1711 1711 1672 0 1635 1711 1672 1635 1635 1635 1635 1635 1635 1635 1672 1635 1672 1635 1635 1599 1672 1599 1635 1635 1635 0 0 0 0 0
    0 0 0 0 0 0 0 0 0 0 0 0 0 0 0 0 0 0 0 0 0 0 0 0 0 0 0 0 0 0 0 0 0 0 0 0 0 0 0 0 0 0 0 0 0 0 0 0 0 0 0 0 0 0 0 0 0 0 0 0 0 0 0 0 0 0 0 0 0 7359 7359 7359 4329 5661 5256 4599 5256 4906 4906 4906 4906 5661 4599 4088 4906 4329 4599 4329 4329 4599 4599 4906 5661 4906 5256 4906 4906 4599 3679 3345 3199 2830 2628 2537 2453 2725 2830 2830 3066 3066 3345 3873 4599 5256 4906 5256 5661 5256 6133 6133 6133 6690 8177 7359 8177 7359 8177 7359 8177 6690 0 0 0 0 0 0 0 0 0 0 0 0 0 0 0 0 0 0 0 0 0 0 0 0 0 0 0 0 0 0 0 0 0 0 0 0 0 0 0 0 0 0 0 192 0 0 0 0 0 0 0 0 0 0 0 0 0 0 0 0 0 0 0 8177 6690 0 3679 2943 2943 2628 2537 2830 2725 2830 3504 3873 5256 5256 5661 5661 5661 5661 5661 4906 6133 5256 5661 6133 4088 4906 4329 4906 5661 5256 4599 4599 4599 5661 4599 5661 5256 3873 4329 4906 3873 4088 3873 4088 3873 4329 4906 3679 4599 4906 4088 3873 3679 3679 3199 3066 0 2628 2164 2299 2374 2044 2102 2102 2044 0 1989 1989 1887 0 0 250 1989 2102 2044 2044 2230 2230 2102 2044 2374 1752 1752 1599 1711 1672 1672 1672 1711 1711 1752 1672 1752 1672 1711 1711 0 1711 1672 0 1635 1711 1672 1672 1635 1635 1672 1635 1635 1635 1672 1635 1635 1635 1599 1599 1635 1599 1635 1599 1635 0 0 0 0 0
    0 0 0 0 0 0 0 0 0 0 0 0 0 0 0 0 0 0 0 0 0 0 0 0 0 0 0 0 0 0 0 0 0 0 0 0 0 0 0 0 0 0 0 0 0 0 0 0 0 0 0 0 0 0 0 0 0 0 0 0 0 0 0 0 0 0 0 0 0 7359 7359 7359 4906 5661 5661 4906 5661 5256 4906 4906 4906 5256 4599 4088 4599 4088 4329 4329 4088 4329 4329 4599 5256 4329 4906 4329 4088 3873 3345 0 3066 2725 2537 2453 2299 2537 2628 2628 2830 2830 3066 3345 3873 4906 4599 4906 5256 5256 6133 6133 5661 6690 8177 6690 7359 6690 6690 5661 6690 5661 8177 8177 8177 8177 0 0 0 0 0 0 0 0 0 0 0 0 0 0 0 0 0 0 0 0 0 0 0 0 0 0 0 0 0 0 0 0 0 0 0 0 0 0 0 192 0 0 0 0 0 0 0 0 0 0 0 0 0 0 0 0 0 0 0 7359 5661 4088 3199 2830 2628 2374 2374 2628 2537 2628 3199 3504 4599 4906 5256 5661 5661 5661 5661 4906 6133 5256 6133 6133 4088 4906 4599 4906 5661 5661 4599 4599 4599 5256 4599 5256 5256 3873 4088 4906 4088 4088 4088 4088 3873 4329 4906 3873 4599 4906 4088 3873 3873 3679 3345 3066 0 2628 2164 2374 2374 2044 2102 2102 2044 0 2044 1989 1887 0 0 251 1989 0 2044 2044 2230 2230 2102 2044 2453 1752 1752 1599 1752 1672 1672 1672 1711 1672 1711 1672 1752 1672 1711 0 0 0 0 0 0 1711 1672 1672 1672 1672 1672 1672 1635 1672 1672 1635 1635 1635 1599 1599 1635 1599 1635 1599 1635 0 0 0 0 0
    0 0 0 0 0 0 0 0 0 0 0 0 0 0 0 0 0 0 0 0 0 0 0 0 0 0 0 0 0 0 0 0 0 0 0 0 0 0 0 0 0 0 0 0 0 0 0 0 0 0 0 0 0 0 0 0 0 0 0 0 0 0 0 0 0 0 0 0 0 7359 8177 7359 5256 5661 6133 5256 5661 4906 4599 4906 4906 4906 4599 4088 4329 3873 4329 4088 4088 4088 4088 4329 4906 4088 4599 3873 3679 0 3066 0 2830 2537 2453 2299 2164 2374 2628 2628 2830 2628 2830 2943 3345 4088 3873 4329 4329 4599 5256 4906 4906 5661 6690 4906 5256 5661 5256 4329 6133 5256 6690 6690 8177 8177 0 0 0 0 0 0 0 0 0 0 0 0 0 0 0 0 0 0 0 0 0 0 0 0 0 0 0 0 0 0 0 0 0 0 0 0 0 0 0 193 0 0 0 0 0 0 0 0 0 8177 0 0 0 0 0 0 0 7359 7359 6133 4906 3504 3066 2725 2537 2299 2299 2628 2453 2537 2943 3345 4329 4906 5256 5661 5661 5661 6133 5256 6133 5256 5661 5661 3873 4906 4599 4599 5256 5661 4599 4599 4599 5256 4329 4906 5256 3873 3873 4906 4088 4088 4088 4088 3873 4329 4906 3873 4599 4906 4088 4088 0 3873 3345 3199 0 2628 2164 2374 2374 2044 2102 2102 2044 0 2044 2044 1887 0 0 252 1989 0 1989 2044 2230 2230 2044 2044 2453 1752 1752 1599 1752 1672 1672 1672 1711 1672 1711 1672 1752 1711 1711 0 0 0 0 418 0 1711 1672 1672 1672 0 1672 0 0 0 1672 1635 1635 1635 1635 1635 1635 1599 1635 1599 1635 0 0 0 0 0
    0 0 0 0 0 0 0 0 0 0 0 0 0 0 0 0 0 0 0 0 0 0 0 0 0 0 0 0 0 0 0 0 0 0 0 0 0 0 0 0 0 0 0 0 0 0 0 0 0 0 0 0 0 0 0 0 0 0 0 0 0 0 0 0 0 0 0 0 0 7359 8177 7359 6133 6133 6133 5661 6133 5256 4906 4906 4906 4906 4599 4088 4088 3679 4088 4088 3873 4088 4088 4329 4599 3873 4329 3679 3345 0 0 2725 2725 2453 2453 2230 2102 2299 2453 2453 2628 2374 2453 2628 2943 3504 3504 3679 3679 3873 4599 3873 3679 3679 4088 3345 3345 3679 3679 3345 5256 4329 5661 5661 6690 6690 8177 8177 0 0 0 0 0 0 0 0 0 0 0 0 0 0 6690 7359 6690 8177 0 8177 8177 7359 6690 0 6133 0 2830 2725 2725 2725 0 0 0 0 0 0 0 0 0 0 0 0 0 8177 5661 0 0 5661 7359 8177 8177 0 0 8177 8177 6133 5661 4088 3679 3345 2943 2628 2537 2299 2299 2537 2299 2453 0 3345 4088 4599 5256 5256 5661 5661 6133 5256 5661 5256 5661 5661 3873 4906 4599 4599 5256 5661 4329 4599 4329 5256 4329 4599 5256 3873 3873 4906 4329 4329 4088 4088 3873 4329 4906 4088 4599 4906 4088 4329 4088 3873 3345 3199 0 2628 2164 2374 2374 2044 2102 2102 2044 0 1989 1989 1887 1936 0 0 1989 0 1989 1989 2164 2164 2044 2044 2374 1752 1795 1599 1752 1672 1672 1672 1711 1672 0 1672 1752 1711 1711 0 0 0 413 418 0 0 0 1711 1672 0 0 0 0 0 0 1635 1672 1635 1635 1599 1599 1565 1635 1565 1599 0 0 0 0 0
    0 0 0 0 0 0 0 0 0 0 0 0 0 0 0 0 0 0 0 0 0 0 0 0 0 0 0 0 0 0 0 0 0 0 0 0 0 0 0 0 0 0 0 0 0 0 0 0 0 0 0 0 0 0 0 0 0 0 0 0 0 0 0 0 0 0 0 0 0 7359 8177 7359 7359 6690 6690 6690 6690 5256 4906 4906 4906 4599 4906 4088 3873 3504 4088 4088 3873 3873 4088 4329 4329 3679 4088 3345 0 0 2725 2628 2628 2374 2453 2164 2164 2299 2453 2453 2453 2299 2374 2453 2628 3066 3199 3199 3199 3345 3679 3345 3066 2943 3066 2943 2943 3199 3199 3066 4599 3873 4599 4329 5661 5256 0 7359 0 0 0 0 0 0 0 0 0 0 0 0 5256 4906 3679 0 0 4088 5256 5256 4329 4329 3679 0 2943 2628 2725 2537 2628 2628 2725 2725 2725 2725 0 0 0 0 0 0 0 0 0 3679 2830 2943 4599 3504 5661 6690 6690 0 0 7359 7359 5256 4088 3199 3066 2943 2725 2453 2453 2230 2230 2453 2164 2164 0 3066 3873 4088 4906 5256 5661 5661 5661 4906 5661 5256 5661 5661 3873 4906 4599 4329 5256 5661 4329 4329 4329 4906 4088 4329 4906 3873 3679 4906 4329 4329 4329 4329 4088 4599 4906 4329 4599 4906 0 4329 4088 3679 3199 3066 0 2628 2164 2374 2374 2044 2164 2044 1989 2044 1989 1989 1887 1936 0 0 1936 0 0 1989 2102 2102 1989 1989 2299 1752 1795 1635 1711 1672 1672 1672 1672 1672 0 1635 1752 1672 1711 0 0 0 413 415 0 0 0 1711 1711 0 1711 0 0 0 1672 1635 1635 1635 1599 1599 1599 1533 1599 1533 1565 0 0 0 0 0
    0 0 0 0 0 0 0 0 0 0 0 0 0 0 0 0 0 0 0 0 0 0 0 0 0 0 0 0 0 0 0 0 0 0 0 0 0 0 0 0 0 0 0 0 0 0 0 0 0 0 0 0 0 0 0 0 0 0 0 0 0 0 0 0 0 0 0 0 0 8177 8177 8177 8177 7359 7359 6690 7359 5661 4906 4906 4906 4599 4906 4088 3873 3345 3873 3873 3873 3873 3873 4088 4088 3504 3504 2943 2943 2628 2537 2453 2453 2230 2374 2164 2164 2299 2453 2453 2374 2299 2374 2374 2537 2725 2830 2830 2830 2943 3066 2830 2830 2725 2830 2725 2830 2943 2943 3066 3873 3679 3873 3679 4599 4329 0 0 0 0 0 0 0 0 0 0 0 0 0 3679 0 0 0 0 2943 3066 3199 3679 3199 3345 2943 0 2725 2453 2628 2537 2537 2453 2628 2537 2628 2628 2830 5661 3679 0 0 0 4599 0 0 2725 2537 2537 2830 2830 4599 6133 5661 7359 7359 6690 6133 4329 3345 2943 2830 2830 2725 2374 2374 2164 2164 2374 2102 2044 1887 2725 3504 3873 4599 4599 5256 5256 5661 4906 5256 5256 5661 5661 4088 4906 4906 4329 4906 5661 4088 4329 4088 4599 3873 4088 4906 3679 3504 4906 4329 4329 4329 4329 4088 4599 4906 4329 0 0 0 4329 4088 3679 3199 3066 3066 2628 2164 2374 2299 2044 2164 2044 1989 1989 1936 1936 1839 1887 1936 1795 1887 0 0 1936 2044 1989 1936 1936 2230 1795 1795 1635 1752 1672 1672 1672 1672 1635 1711 1635 1711 1672 1711 0 0 0 0 0 0 0 1711 1711 1711 0 1711 1672 1672 1711 1672 1635 1635 1565 1565 1565 1565 1533 1565 1533 1565 0 0 0 0 0
    0 0 0 0 0 0 0 0 0 0 0 0 0 0 0 0 0 0 0 0 0 0 0 0 0 0 0 0 0 0 0 0 0 0 0 0 0 0 0 0 0 0 0 0 0 0 0 0 0 0 0 0 0 0 0 0 0 0 0 0 0 0 0 0 0 0 0 0 0 8177 8177 8177 8177 6690 7359 6690 6690 5256 4906 4599 4599 4329 4906 3873 3679 3199 3679 3679 3679 3679 3679 3679 3679 3199 3199 2830 2628 2453 2374 2374 2299 2164 2374 2164 2164 2299 2374 2374 2299 2299 2374 2374 2453 2628 2628 2628 2725 2725 2830 2725 2628 2628 2628 2628 2628 2830 2943 3066 3679 3679 3679 3345 3679 3873 0 0 0 0 0 0 0 0 0 0 0 6133 2453 2725 0 0 2830 2830 2725 2830 2830 2943 2830 2943 2725 2725 2628 2374 2453 2453 2453 2374 2537 2453 2537 2453 2725 2943 2830 2830 3066 2537 2830 2164 2537 2453 2374 2299 2628 2725 4329 5661 5256 5661 6133 5661 4906 3679 2943 2725 2725 2628 2628 2299 2230 2102 2102 2230 2044 1989 1795 2102 0 3504 4088 4329 4906 5256 5661 4906 5256 5256 5661 5661 4088 4906 4906 4329 4906 5661 4088 4088 4088 4599 3873 4088 4906 3873 3504 4906 4329 4088 4329 3873 3873 4329 4599 4329 0 0 0 4599 4329 3679 3345 3199 3199 2628 2164 2374 2299 2044 2164 2044 1989 1989 1936 1936 1839 1887 1887 1795 1839 0 0 1887 1989 1989 1936 1936 2230 1795 1795 1672 1752 1672 1672 1672 1711 1672 1711 1635 1711 1672 1711 0 0 0 0 0 0 0 1711 1711 1672 1711 1672 1635 1672 1711 1635 1635 1635 1533 1565 1565 1565 1533 1565 1533 1533 0 0 0 0 0
    0 0 0 0 0 0 0 0 0 0 0 0 0 0 0 0 0 0 0 0 0 0 0 0 0 0 0 0 0 0 0 0 0 0 0 0 0 0 0 0 0 0 0 0 0 0 0 0 0 0 0 0 0 0 0 0 0 0 0 0 0 0 0 0 0 0 0 0 0 7359 8177 8177 7359 6133 6690 6133 6690 4906 4599 4599 4088 3873 4599 3873 3345 3066 3504 3504 3504 3504 3345 3504 3345 0 2943 2628 2453 2299 2299 2299 2164 2102 2374 2164 2102 2230 2374 2299 2299 2299 2374 2374 2453 2628 2537 2628 2628 2628 2725 2537 2537 2537 2628 2628 2628 2830 2830 3066 3679 3504 3504 3199 3345 3504 0 0 0 0 0 0 0 0 0 0 0 3679 2453 2374 2374 2628 2628 2628 2537 2628 2628 2830 2725 2830 2725 2628 2537 2299 2374 2374 2299 2299 2453 2374 2453 2374 2537 2725 2628 2537 2830 2374 2453 1989 2299 2230 2164 2164 2453 2537 3679 4599 4906 4088 4906 4906 3873 3345 2725 2537 2453 2453 2537 2164 2164 2102 2102 2164 1989 1936 1795 1936 0 0 3873 4088 4599 4906 5661 4599 4599 5256 5661 5661 3873 4906 4599 4088 4599 5256 3873 3873 4088 4329 3873 4088 4906 3873 3504 4599 4088 4088 4088 3873 3873 4088 4329 4088 0 0 0 4599 4329 3679 3345 3199 3199 2725 2164 2374 2299 2044 2164 2044 1989 1989 1936 1936 1839 1839 1887 1752 1839 0 0 1887 1989 1936 1936 1887 2164 1795 1795 1672 1752 1672 1672 1672 1711 1672 1711 1599 1711 1672 1711 0 0 0 0 0 0 0 1711 1711 1672 1672 1672 1635 1672 1711 1635 1672 1635 1533 1599 1599 1565 1533 1565 1533 1501 0 0 0 0 0
    0 0 0 0 0 0 0 0 0 0 0 0 0 0 0 0 0 0 0 0 0 0 0 0 0 0 0 0 0 0 0 0 0 0 0 0 0 0 0 0 0 0 0 0 0 0 0 0 0 0 0 0 0 0 0 0 0 0 0 0 0 0 0 0 0 0 0 0 0 7359 8177 8177 6690 6133 6690 5661 6133 4906 4329 4329 3873 3873 4329 3679 3345 3066 3504 3504 3504 3345 3345 3345 3199 2725 2725 2537 2453 2299 2299 2230 2164 2102 2453 2299 2230 2230 2374 2374 2374 2374 2374 2374 2453 2537 2453 2537 2453 2453 2537 2374 2374 2374 2537 2537 2628 2830 2830 3066 3679 3679 3504 3199 0 3199 0 0 0 0 0 0 0 0 0 0 0 0 2299 2230 2164 2374 2453 2453 2374 2453 2453 2628 2628 2725 2628 2537 2374 2230 2299 2299 2230 2230 2374 2299 2374 2299 2537 2628 2453 2299 2537 2164 2164 1936 2102 2044 2044 2102 2299 2374 0 3873 4599 3679 4329 4599 3679 3199 2725 2537 2453 2374 2453 2164 2102 2044 2044 2102 1936 1936 1795 1936 0 0 0 3679 4329 4599 5256 4599 4329 4906 5256 5256 3873 4599 4599 3873 4329 5256 3679 3873 3873 4088 3679 3873 4329 3504 3345 4329 3873 3873 4088 3679 3679 4088 4088 4088 4329 4599 4329 4906 4329 3679 3345 3199 3345 2725 2230 2374 2299 2102 2164 2044 1989 1989 1936 1936 1839 1839 1887 1795 1839 0 0 1839 1936 1936 1887 1887 2044 1752 1752 1672 1752 1672 1672 1672 1711 1672 1711 1635 1711 1672 1711 1711 0 1711 0 0 0 0 0 1672 1635 1635 1635 1635 1672 1752 1635 1672 1672 1533 1635 1635 1599 1565 1565 1533 1501 0 0 0 0 0
    0 0 0 0 0 0 0 0 0 0 0 0 0 0 0 0 0 0 0 0 0 0 0 0 0 0 0 0 0 0 0 0 0 0 0 0 0 0 0 0 0 0 0 0 0 0 0 0 0 0 0 0 0 0 0 0 0 0 0 0 0 0 0 0 0 0 0 0 0 7359 8177 8177 7359 5661 6133 5256 5661 4599 4329 4088 3873 3679 4088 3679 3199 3066 3345 3345 3345 3199 3199 3066 3066 2537 2628 2453 2299 2230 2230 2230 2164 2164 2537 2299 2299 2299 2453 2537 2537 2537 2537 2453 2537 2537 2453 2374 2299 2299 2299 2164 2230 2299 2453 2453 2628 2830 2943 3199 3873 3679 3504 3066 0 0 0 0 0 0 0 0 0 0 0 0 0 0 2230 2102 2044 2230 2230 2299 2164 2230 2299 2453 2537 2628 2453 2374 2299 2164 2230 2299 2230 2230 2299 2299 2299 2299 2628 2537 2299 2102 2299 2044 2044 1887 1989 1989 1989 2044 2164 2299 0 4088 4329 3679 4329 4329 3679 3345 2725 2453 2453 2453 2537 2164 2102 2044 2044 2102 1936 1887 1839 1936 1936 0 0 3345 3679 4329 4906 4329 4088 4599 4906 4906 3679 4329 4329 3679 4088 4906 3679 3679 3679 3873 3504 3504 4088 3345 3199 4088 3873 3679 3873 3679 3679 3873 4088 3873 4088 4329 4329 4906 4329 3679 3199 3199 3345 2725 2164 2374 2230 2102 2230 2044 1989 1989 1936 1936 1839 1839 1887 1752 1839 0 1795 1795 1887 1887 1887 1839 1989 1752 1752 1672 1752 1672 1672 1672 1711 1672 1672 1635 1711 1672 1672 1711 1711 1711 0 0 0 0 0 1672 1599 1635 1635 1635 1635 1752 1599 1711 1672 1533 1635 1635 1599 1565 1599 1565 1533 0 0 0 0 0
    0 0 0 0 0 0 0 0 0 0 0 0 0 0 0 0 0 0 0 0 0 0 0 0 0 0 0 0 0 0 0 0 0 0 0 0 0 0 0 0 0 0 0 0 0 0 0 0 0 0 0 0 0 0 0 0 0 0 0 0 0 0 0 0 0 0 0 0 0 7359 8177 0 7359 5661 6133 5256 5661 4599 4329 4088 3679 3679 3873 3504 3066 2943 3199 3066 3199 3066 3066 3066 3066 2453 2628 2374 2299 2230 2299 2230 2164 2164 2537 2453 2453 2453 2628 2628 2628 2628 2628 2537 2628 2537 2537 2374 2299 2299 2299 2164 2164 2230 2453 2453 2537 2725 2830 3199 3873 3679 3345 2943 0 0 0 0 0 0 0 0 0 0 0 0 0 0 1936 1887 1887 1989 1989 1989 1936 1989 2044 2164 2164 2453 2230 2230 2164 2044 2102 2230 2102 2164 2230 2230 2230 2230 2628 2628 2374 2164 2374 1989 1989 1887 1936 1936 1989 1989 2044 0 0 3679 3873 3504 3873 3873 3504 3199 2725 2453 2374 2453 2537 2230 2164 2102 2044 2102 1989 1936 1887 1936 1989 2299 0 3066 3199 3873 4329 3873 3873 4329 4599 4599 3679 4329 4329 3679 4088 4599 3504 3504 3504 3679 3345 3504 3873 3199 3066 3873 3679 3679 3873 3504 3679 3873 3873 3873 4088 4329 4329 4906 4088 3345 3066 2943 2943 2537 2102 2164 2164 2102 2230 2102 1989 1989 1936 1936 1887 1839 1839 1752 1795 1795 1795 1795 1887 1839 1839 1795 1989 1752 1752 1672 1711 1672 1672 1672 1672 1672 1711 1635 1711 1672 1711 1711 1711 1711 0 0 0 0 0 1672 1599 1599 0 1635 1599 1752 1533 1672 1672 1501 1635 1599 1599 1599 1599 1565 1533 0 0 0 0 0
    0 0 0 0 0 0 0 0 0 0 0 0 0 0 0 0 0 0 0 0 0 0 0 0 0 0 0 0 0 0 0 0 0 0 0 0 0 0 0 0 0 0 0 0 0 0 0 0 0 0 0 0 0 0 0 0 0 0 0 0 0 0 0 0 0 0 0 0 0 4906 8177 0 6690 5661 5661 5256 5256 4599 4329 3873 3679 3504 3679 3345 2943 2830 3066 2943 3066 2943 2943 2830 2830 2299 2453 2299 2230 2164 2299 2230 2230 2230 2537 2537 2628 2537 2628 2537 2537 2628 2725 2628 2537 2537 2537 2453 2374 2299 2230 2164 2230 2299 2374 2374 2453 2628 2725 3199 3679 3504 3199 0 0 0 0 0 0 0 0 0 0 0 0 0 0 0 1795 1795 1795 1839 1887 1887 1839 1887 1936 2044 1989 2230 2044 2044 2044 2044 2102 2164 2102 2164 2230 2230 2230 2299 2725 2725 2453 2164 2453 2044 1989 1887 1936 1887 1936 1936 1936 1839 3504 3873 4088 3345 3679 3679 3345 0 2628 2299 2230 2299 2628 2164 2102 2102 2044 2044 1936 1936 1887 1936 1989 2102 2453 2830 2830 3504 3873 3679 3679 4088 4599 4329 3679 4329 4088 3679 3873 4329 3504 3345 3345 3504 3345 3345 3679 3199 3066 3679 3504 3504 3504 3345 3504 3679 3873 3679 4088 4088 4329 4599 4088 3345 3066 2943 2943 2453 2102 2102 2164 2102 2299 2102 2044 1936 1936 1887 1887 1887 1887 1752 1795 1795 1795 1795 1887 1887 1839 1795 1936 1752 1752 1672 1711 1635 1635 1635 1672 1672 1711 1672 1752 1711 1711 1752 1711 1711 1711 0 0 0 0 1672 1599 1599 0 1635 1565 1711 1471 1635 1599 1471 1599 1599 1599 1565 1565 1565 1533 0 0 0 0 0
    0 0 0 0 0 0 0 0 0 0 0 0 0 0 0 0 0 0 0 0 0 0 0 0 0 0 0 0 0 0 0 0 0 0 0 0 0 0 0 0 0 0 0 0 0 0 0 0 0 0 0 0 0 0 0 0 0 0 0 0 0 0 0 0 0 0 0 0 0 2725 0 0 6133 5256 4906 5256 4906 4329 4088 3679 3504 3345 3345 3066 2830 2628 2725 2725 2725 2628 2537 2453 2299 1989 2164 2102 2102 2102 2164 2230 2164 2164 2537 2537 2628 2537 2537 2537 2537 2725 2725 2628 2537 2453 2453 2374 2374 2299 2164 2164 2230 2299 2374 2374 2453 2628 2725 3066 3345 3199 2943 2725 0 2374 0 0 0 0 0 0 0 0 0 0 0 0 1635 1635 1599 1635 1752 1752 1672 1752 1839 1887 1795 1936 1887 1887 1936 1989 2044 2044 2044 2102 2230 2164 2230 2230 2725 2830 2537 2230 2453 2102 2044 1887 1936 1887 1887 1887 1887 1752 0 3679 3873 3345 3504 3504 0 0 2537 2164 2164 2230 2537 2102 2044 2044 2044 2044 1989 1989 1936 1989 1989 2164 2299 2537 2537 3199 3504 3345 3504 3873 4088 4088 3679 4088 3873 3504 3679 3873 3345 3199 3199 3345 3199 3199 3345 2943 2830 3345 3345 3199 3345 3066 3345 3504 3504 3504 3679 3873 4088 4088 3873 3345 3066 2943 2830 2453 2102 2102 2164 2102 2230 2230 2102 1989 1989 1936 1936 1887 1887 1795 1795 1795 1839 1795 1936 1936 1887 1839 1989 1752 1711 1635 1672 1635 1635 1635 1672 1635 1711 1672 1752 1711 1711 1752 1711 1711 1711 1711 0 0 1672 1672 1635 0 0 1635 1565 1711 1443 1599 1565 1471 1599 1599 1599 1599 1599 1599 1565 0 0 0 0 0
    0 0 0 0 0 0 0 0 0 0 0 0 0 0 0 0 0 0 0 0 0 0 0 0 0 0 0 0 0 0 0 0 0 0 0 0 0 0 0 0 0 0 0 0 0 0 0 0 0 0 0 0 0 0 0 0 0 0 0 0 0 0 0 0 0 0 0 0 0 2537 2628 3066 3504 3504 3679 4088 3873 3679 3504 3199 3066 2943 2943 2830 2628 2453 2453 2374 2453 2230 2102 2044 1936 1887 1936 1936 1989 1989 2044 2102 2044 2044 2299 2374 2453 2453 2453 2374 2537 2725 2725 2628 2537 2374 2374 2374 2374 2230 2164 2102 2164 2230 2299 2299 2374 2453 2628 2943 3199 3066 2628 2453 2299 2102 0 0 0 0 0 0 0 0 0 0 0 0 1565 1565 1501 1533 1599 1635 1565 1672 1672 1711 1599 1752 1672 1672 1839 1936 1936 1989 1989 2164 2164 2164 2299 2299 2725 2943 2628 2374 2537 2164 2044 1936 1936 1887 1887 1839 1839 0 0 0 3504 3199 3504 3504 0 3066 2453 2102 2102 2164 2374 2164 1989 2044 1989 2102 1989 2044 2044 2044 2044 2164 2230 2374 2374 2943 3066 3199 3199 3345 3679 3679 3345 3679 3504 3199 3345 3504 3066 3066 3066 3066 2943 2943 3066 2830 2628 2943 2943 2830 2830 2628 2725 3066 3066 3066 3345 3504 3679 3504 3504 3345 2943 2830 2725 2299 1989 1989 2102 2044 2102 2164 2102 2044 2044 1989 1936 1936 1936 1839 1839 1839 1887 1839 1936 1989 1936 1936 2102 1795 1711 1599 1672 1599 1599 1635 1635 1635 1711 1672 1752 1752 1752 1752 1711 1711 1711 1711 0 0 0 1672 1635 0 0 1672 1599 1711 1471 1635 1565 1471 1599 1599 1599 1635 1599 1635 1565 0 0 0 0 0
    0 0 0 0 0 0 0 0 0 0 0 0 0 0 0 0 0 0 0 0 0 0 0 0 0 0 0 0 0 0 0 0 0 0 0 0 0 0 0 0 0 0 0 0 0 0 0 0 0 0 0 0 0 0 0 0 0 0 0 0 0 0 0 0 0 0 0 0 0 2537 2725 2943 3066 2943 3066 3199 3199 3066 3066 2725 2725 2628 2537 2453 2374 2230 2164 2164 2164 1989 1936 1936 1887 1839 1887 1936 1936 1936 1989 2044 1989 2044 2164 2299 2299 2299 2299 2299 2453 2725 2628 2537 2537 2299 2374 2374 2299 2164 2102 2102 2102 2164 2164 2164 2164 2230 2299 2537 2830 2453 2102 2102 2102 1989 1672 1752 0 0 0 0 1672 1565 1388 0 1314 1388 1533 1533 1471 1501 1565 1635 1533 1599 1599 1565 1501 1599 1443 1471 1672 1887 1887 1936 1936 2102 2164 2164 2299 2299 2830 2943 2725 2453 2537 2230 2102 1936 1936 1887 1887 1839 1887 0 0 0 3199 3066 3345 3345 0 0 2374 2044 1989 2102 2164 2102 1989 2044 1936 2044 1936 2102 2044 2102 2044 2102 2102 2230 2230 2725 2628 2830 2725 2725 2943 2943 2943 2943 3066 2830 2830 2943 2830 2725 2725 2830 2725 2628 2628 2537 2299 2537 2164 2044 2044 2044 1795 2044 2299 2453 2628 3066 3066 2943 2943 2943 2725 2374 2299 2102 1936 1936 2044 2044 2044 2102 2102 2102 2164 2102 2044 2102 2044 1887 1989 1989 1989 1887 2044 2044 1989 2044 2374 1936 1711 1599 1672 1599 1635 1635 1635 1635 1711 1672 1752 1752 1752 1752 1711 1711 1711 1711 0 0 0 0 0 0 0 0 0 0 0 1635 1599 1501 1635 1635 1599 1635 1635 1635 1599 0 0 0 0 0
    0 0 0 0 0 0 0 0 0 0 0 0 0 0 0 0 0 0 0 0 0 0 0 0 0 0 0 0 0 0 0 0 0 0 0 0 0 0 0 0 0 0 0 0 0 0 0 0 0 0 0 0 0 0 0 0 0 0 0 0 0 0 0 0 0 0 0 0 0 2537 2830 2725 2943 3066 3066 3199 3066 2943 2943 2628 2628 2453 2374 2374 2374 2230 2164 2102 2102 1989 1936 1936 1839 1887 1887 1936 1936 1989 1989 2102 2044 2102 2164 2374 2299 2374 2299 2374 2453 2725 2628 2537 2453 2230 2374 2299 2164 2102 2102 2102 2044 2102 2102 2044 1989 2044 1989 2102 2102 1936 1887 1795 1839 1795 1533 1635 1635 0 1635 1599 1635 1533 1415 1533 1362 1388 1533 1501 1471 1443 1501 1565 1471 1565 1501 1471 1415 1471 1388 1415 1533 1839 1887 1887 1887 2102 2102 2102 2230 2230 2830 2943 2830 2453 2537 2230 2102 1936 1936 1887 1936 1887 1936 0 0 2453 3066 3066 3504 3345 0 0 2230 1936 1936 1989 2044 1989 1936 1989 1887 1989 1936 2044 2044 2102 2044 2102 2102 2230 2164 2628 2374 2537 2299 2102 2044 2374 2453 2374 2453 2374 2299 2453 2374 2453 2299 2299 2299 2230 2164 2164 2044 2044 1936 1936 1887 1936 1839 1887 1795 1887 1887 2164 1989 1887 1711 1752 1711 1711 1752 1839 1839 1839 1989 1989 2044 2102 2102 2102 2164 2230 2164 2230 2102 1936 1989 1989 1989 1936 1989 2044 1936 1989 2230 1989 1752 1635 1711 1599 1635 1672 1635 1635 1711 1672 1752 1752 1752 1752 1711 1711 1711 1711 0 0 0 0 0 0 0 0 0 0 0 1672 1565 1533 1635 1635 1599 1635 1635 1672 1599 0 0 0 0 0
    0 0 0 0 0 0 0 0 0 0 0 0 0 0 0 0 0 0 0 0 0 0 0 0 0 0 0 0 0 0 0 0 0 0 0 0 0 0 0 0 0 0 0 0 0 0 0 0 0 0 0 0 0 0 0 0 0 0 0 0 0 0 0 0 0 0 0 0 0 2628 2830 2725 2830 3066 3066 3199 3066 2943 2943 2628 2537 2374 2164 2230 2164 2044 2044 2044 1989 1936 1887 1936 1839 1887 1887 1989 1936 1989 2044 2164 2044 2164 2164 2453 2299 2374 2299 2374 2453 2628 2537 2453 2374 2164 2299 2230 2164 2102 2044 2044 1989 1989 1989 1887 1839 1839 1839 1839 1795 1752 1711 1672 1672 1565 1443 1533 1565 1533 1565 1533 1565 1471 1415 1471 1362 1388 1471 1443 1415 1388 1443 1471 1415 1471 1443 1415 1388 1415 1362 1362 1443 1839 1839 1887 1936 2102 2102 2102 2230 2299 2943 2943 2830 2374 2453 2230 2102 1989 1936 1887 1936 1936 1989 0 0 2299 2628 2725 3199 0 0 0 2164 1887 1936 1936 1989 1989 1887 1936 1839 1936 1887 1989 2044 2102 2044 2102 2102 2230 2164 2628 2299 2453 2299 2102 2044 2230 2374 2230 2299 2164 2102 2164 2164 2374 2164 2230 2164 2164 2164 2164 2044 2102 1936 1989 1887 1936 1839 1887 1839 1887 1839 2044 1936 1795 1672 1672 1672 1672 1711 1711 1711 1752 1887 1936 1989 2044 1989 2044 2102 2164 2164 2230 2164 1989 1936 1989 1989 1887 1989 1936 1887 1936 2044 2044 1752 1672 1711 1635 1635 1672 1635 1635 1711 1672 1752 1752 1752 1752 1711 1711 1752 1711 0 0 0 0 0 0 0 0 0 0 0 1672 1565 1565 1635 1635 1599 1635 1635 1672 1599 0 0 0 0 0
    0 0 0 0 0 0 0 0 0 0 0 0 0 0 0 0 0 0 0 0 0 0 0 0 0 0 0 0 0 0 0 0 0 0 0 0 0 0 0 0 0 0 0 0 0 0 0 0 0 0 0 0 0 0 0 0 0 0 0 0 0 0 0 0 0 0 0 0 0 2725 2628 2453 2537 2725 2830 2725 2628 2453 0 0 2374 2164 2044 2102 2102 1989 1989 1989 1936 1936 1887 1936 1839 1887 1887 1989 1936 1989 1989 2102 1989 2102 2102 2374 2299 2374 2299 2299 2299 2628 2537 2453 2374 2164 2299 2230 2230 2164 2102 2102 1989 1989 1936 1839 1795 1795 1795 1752 1752 1672 1635 1635 1635 1565 1443 1533 1533 1501 1533 1501 1565 1471 1415 1471 1388 1415 1443 1443 1415 1388 1443 1443 1415 1471 1443 1415 1388 1415 1362 1362 1415 1711 1839 1887 1936 2164 2164 2102 2230 2299 2830 2830 2628 2164 2230 2164 2102 1989 1936 1936 1936 1936 1989 1887 1989 2102 2230 2230 2725 0 0 0 1989 1839 1839 1839 1887 1936 1839 1887 1795 1887 1839 1936 1989 2044 1989 2044 2044 2164 2102 2537 2230 2299 2164 2044 1989 2164 2164 2164 2102 2044 1989 2044 2102 2230 2044 2164 2102 2164 2164 2164 2044 2044 1936 1989 1887 1936 1839 1887 1887 1936 1887 1989 1936 1839 1752 1711 1711 1672 1711 1711 1711 1711 1795 1839 1936 1989 1989 2044 2102 2230 2230 2299 2299 1989 1936 1936 1887 1839 1887 1887 1839 1839 1887 1936 1711 1635 1711 1635 1635 1635 1635 1635 1672 1672 1752 1752 1752 1752 1752 1752 1752 1711 0 0 0 0 0 0 0 0 0 0 1501 1635 1533 1565 1635 1635 1599 1635 1635 1672 1599 0 0 0 0 0
    0 0 0 0 0 0 0 0 0 0 0 0 0 0 0 0 0 0 0 0 0 0 0 0 0 0 0 0 0 0 0 0 0 0 0 0 0 0 0 0 0 0 0 0 0 0 0 0 0 0 0 0 0 0 0 0 0 0 0 0 0 0 0 0 0 0 0 0 0 2537 2453 0 0 0 0 0 0 0 0 0 179 0 0 0 2044 1936 1989 2044 1936 1936 1839 1936 1795 1887 1839 1989 1936 1989 1989 2102 1989 2044 2044 2299 2164 2299 2164 2102 2044 2374 2453 2374 2230 2102 2164 2164 2230 2164 2102 2102 1936 1936 1887 1795 1752 1752 1752 1711 1711 1672 1599 1635 1635 1565 1471 1533 1533 1501 1533 1501 1565 1471 1415 1471 1415 1443 1443 1443 1415 1415 1443 1471 1415 1471 1443 1415 1388 1415 1388 1362 1388 1635 1711 1795 1936 2230 2164 2102 2230 2230 2453 2453 2299 2102 2044 2044 2044 1989 1936 1887 1936 1887 1936 1887 1936 1989 2044 1989 2044 0 0 1887 1839 1752 1752 1752 1752 1887 1795 1839 1752 1839 1839 1936 1936 1989 1989 2044 2044 2230 2102 2453 2102 2164 2044 1936 1936 1989 1989 2044 1936 1887 1936 1989 1989 2102 2044 2102 2102 2102 2164 2102 1936 1936 1887 1887 1839 1839 1795 1839 1795 1839 1839 1839 1839 1795 1752 1711 1672 1711 1711 1711 1711 1672 1752 1795 1839 1936 1936 1989 2044 2164 2299 2374 2453 2044 1887 1887 1839 1839 1887 1839 1795 1752 1795 1839 1599 1599 1672 1599 1635 1635 1635 1635 1672 1672 1711 1711 1711 1711 1711 1711 1711 1711 1711 1672 1672 1711 1635 1672 1672 1711 1599 1711 1501 1635 1501 1565 1635 1635 1635 1635 1635 1672 1635 0 0 0 0 0
    0 0 0 0 0 0 0 0 0 0 0 0 0 0 0 0 0 0 0 0 0 0 0 0 0 0 0 0 0 0 0 0 0 0 0 0 0 0 0 0 0 0 0 0 0 0 0 0 0 0 0 0 0 0 0 0 0 0 0 0 0 0 0 0 0 0 0 0 0 0 0 0 0 0 0 0 0 0 0 0 0 179 178 0 2044 1887 1989 2044 1989 1936 1839 0 1795 1887 1887 1989 1936 1989 1989 2102 1989 2044 1936 0 0 0 0 1989 0 0 0 2374 2230 2044 2102 2102 2102 2044 2044 2044 1887 1839 1839 1752 1752 1752 1711 1711 1711 1672 1565 1599 1599 1565 1443 1501 1533 1501 1565 1533 1599 1533 1443 1471 1415 1443 1471 1443 1443 1443 1471 1501 1443 1471 1471 1443 1415 1443 1388 1362 1388 1635 1635 1711 1936 2230 2164 2164 2164 2164 2164 2299 2230 2044 1989 2044 2044 1989 1936 1887 1936 1887 1936 1936 1887 1936 1936 1936 1887 1795 1795 1752 1711 1711 1672 1672 1711 1839 1795 1839 1752 1839 1839 1936 1936 1989 1936 2044 2044 2230 2102 2453 2102 2102 1989 1936 1887 1936 1887 1989 1887 1839 1887 1936 1989 2102 2044 2102 2044 2044 2102 2044 1887 1936 1887 1839 1752 1752 1795 1795 1752 1795 1795 1795 1752 1752 1752 1711 1672 1711 1752 1711 1711 1711 1752 1752 1795 1887 1936 1936 1936 2044 2102 2230 2374 1989 1887 1887 1839 1795 1839 1795 1752 1711 1711 1752 1501 1565 1635 1565 1599 1599 1635 1599 1635 1635 1711 1711 1711 1711 1711 1672 1711 1672 1672 1672 1672 1672 1635 1635 1635 1672 1599 1711 1565 1635 1501 1599 1635 1672 1635 1672 1635 1711 1635 0 0 0 0 0
    0 0 0 0 0 0 0 0 0 0 0 0 0 0 0 0 0 0 0 0 0 0 0 0 0 0 0 0 0 0 0 0 0 0 0 0 0 0 0 0 0 0 0 0 0 0 0 0 0 0 0 0 0 0 0 0 0 0 0 0 0 0 0 0 0 0 0 0 0 0 0 0 0 0 0 0 0 0 0 0 0 178 177 0 0 0 1989 2044 1936 1936 1839 1989 1795 1887 1887 1989 1989 1989 1989 2102 1989 2044 1989 2102 0 0 0 2044 1989 0 0 2374 2299 2044 2102 2102 2102 2044 1989 1989 1795 1795 1752 1711 1711 1752 1711 1672 1711 1711 1599 1635 1635 1599 1471 1533 1533 1565 1599 1565 1635 1565 1471 1501 1471 1471 1471 1443 1443 1443 1471 1501 1471 1501 1471 1471 1443 1471 1415 1388 1415 1672 1599 1672 0 2102 2044 0 0 0 2044 2164 2102 1989 1989 1989 2044 1989 1936 1936 1936 1936 1989 1936 1887 1989 1989 1989 1989 1887 1887 1795 1752 1752 1711 1672 1711 1839 1752 1795 1711 1839 1839 1887 1887 1936 1936 2044 2044 2230 2102 2374 2044 2102 1989 1887 1887 1887 1887 1936 1887 1839 1887 1936 1936 2044 2044 2102 1989 1989 2044 2044 1936 1936 1887 1839 1752 1752 1795 1795 1752 1752 1711 1752 1711 1752 1752 1711 1672 1711 1711 1711 1711 1711 1711 1711 1711 1795 1887 1887 1887 1989 2102 2102 2230 1936 1839 1795 1795 1752 1795 1752 1711 1672 1711 1711 1501 1565 1599 1565 1599 1599 1635 1599 1635 1635 1672 1672 1672 1672 1672 1672 1711 1672 1672 1672 1672 1672 1635 1635 1599 1635 1599 1711 1565 1635 1501 1599 1635 1672 1635 1672 1672 1711 1635 0 0 0 0 0
    0 0 0 0 0 0 0 0 0 0 0 0 0 0 0 0 0 0 0 0 0 0 0 0 0 0 0 0 0 0 0 0 0 0 0 0 0 0 0 0 0 0 0 0 0 0 0 0 0 0 0 0 0 0 0 0 0 0 0 0 0 0 0 0 0 0 0 0 0 0 0 0 0 0 0 0 0 0 0 0 0 177 176 176 0 0 0 0 1936 1936 1839 1989 0 1936 1887 2044 1989 2044 1989 2102 1989 2044 1989 0 0 0 0 2102 0 0 2453 2453 2299 2044 2102 2164 2102 2044 1989 1989 1795 1795 1752 1672 1672 1672 1672 1635 1672 1672 1565 1635 1672 1635 1565 1565 1599 1599 1635 1599 1635 1599 1501 1501 1533 1501 1471 1471 1471 1471 1471 1501 1471 1501 1501 1471 1471 1501 1443 1415 1443 1672 1565 1599 0 2044 0 0 0 0 1989 2102 2102 1936 1936 1989 1989 1989 1936 1887 1936 1887 1989 1936 1887 1989 1989 1989 2044 1887 1887 1839 1795 1795 1752 1711 1711 1839 1711 1795 1711 1839 1795 1887 1887 1936 1936 1989 1989 2230 2044 2374 2044 2044 1936 1839 1887 1887 1887 1936 1839 1839 1839 1936 1936 2044 2044 2044 1989 1989 2044 2044 1936 1936 1887 1839 1752 1711 1795 1795 1752 1752 1672 1711 1672 1752 1752 1711 1711 1711 1752 1752 1711 1711 1711 1711 1672 1711 1795 1839 1795 1887 2102 2044 2164 1887 1752 1795 1752 1711 1752 1711 1711 1635 1672 1711 1501 1565 1635 1599 1635 1635 1635 1599 1635 1635 1672 1672 1672 1672 1672 1672 1672 1672 1672 1672 1635 1672 1599 1599 1599 1635 1599 1711 1565 1635 1501 1599 1635 1672 1635 1672 1672 1711 1635 0 0 0 0 0
    0 0 0 0 0 0 0 0 0 0 0 0 0 0 0 0 0 0 0 0 0 0 0 0 0 0 0 0 0 0 0 0 0 0 0 0 0 0 0 0 0 0 0 0 0 0 0 0 0 0 0 0 0 0 0 0 0 0 0 0 0 0 0 0 0 0 0 0 0 0 0 0 0 0 0 0 0 0 0 0 0 177 177 0 0 0 0 0 1936 1936 1839 1989 0 1936 1936 2044 2044 2044 2044 2102 1989 2102 2044 0 0 0 0 0 0 216 0 2537 2299 2044 2164 2230 2164 2044 1989 1989 1839 1795 1711 1599 1635 1635 1635 1599 1635 1599 1565 1635 1672 1635 1599 1565 1599 1635 1672 1599 1635 1599 1533 1533 1565 1501 1471 1471 1471 1471 1471 1471 1471 1471 1501 1471 1471 1501 1471 1443 1471 1635 1565 1565 0 0 0 0 0 0 1936 0 0 1936 1936 1989 1989 1989 1936 1887 1936 1887 1989 1936 1936 1989 1989 1989 2044 1936 1936 1887 1887 1887 1795 1752 1752 1839 1711 1752 1672 1795 1795 1887 1887 1936 1936 1989 1989 2230 2044 2299 1989 2044 1887 1839 1839 1839 1839 1887 1795 1795 1795 1887 1887 1936 1989 1989 1936 1989 1989 2044 1887 1936 1887 1839 1752 1711 1752 1752 1752 1711 1635 1672 1635 0 1752 1711 1711 1752 1752 1752 1711 1711 1672 1672 1635 1672 1711 1711 1635 1839 2044 2044 2164 1936 1635 1752 1711 1672 1711 1672 1635 1599 1635 1711 1501 1565 1635 1599 1635 1635 1635 1599 1635 1599 1672 1672 1672 1672 1672 1672 1711 1672 1711 1672 1672 1672 1599 1599 1599 1635 1599 1672 1565 1599 1471 1599 1635 1635 1635 1635 1635 1711 1635 0 0 0 0 0
    0 0 0 0 0 0 0 0 0 0 0 0 0 0 0 0 0 0 0 0 0 0 0 0 0 0 0 0 0 0 0 0 0 0 0 0 0 0 0 0 0 0 0 0 0 0 0 0 0 0 0 0 0 0 0 0 0 0 0 0 0 0 0 0 0 0 0 0 0 0 0 0 0 0 0 0 0 0 0 0 0 177 0 0 0 0 0 0 1936 1936 1839 0 0 0 1887 2044 1989 2044 0 0 0 2102 0 0 0 0 0 0 0 0 0 2628 2453 2164 2230 2299 2230 2102 1936 1936 1795 1752 1635 1533 1599 1635 1565 1565 1599 1599 1533 1635 1635 1599 1565 1533 1565 1599 1635 1565 1599 1599 1565 1533 1565 1533 1471 1471 1471 1443 1443 1443 1443 1443 1471 1443 1443 1501 1471 1443 1471 1635 1599 1599 0 0 0 90 0 0 0 0 0 0 0 1989 2044 2044 1936 1936 1936 1887 1936 1936 1887 1989 1989 1989 2044 1936 1989 1887 1887 1839 1752 1711 1711 1795 1635 1711 1635 1795 1795 1839 1839 1887 1936 1989 1989 2230 2044 2230 1936 1989 1936 1839 1839 1839 1795 0 1752 1752 1752 1839 1839 0 1989 1989 1936 1989 1989 2044 0 1936 1887 1887 1752 1711 1795 1795 1752 1752 1672 1711 1635 0 1795 1711 1672 1752 1752 1711 1711 1711 1672 1635 1635 1672 1711 1672 1471 0 0 1989 2102 1887 1471 1635 1635 1599 1635 1565 1565 1501 1533 1672 1471 1533 1599 1565 1599 1599 1635 1599 1599 1599 1672 1672 1672 1672 1672 1672 1711 1711 0 1672 1672 1672 1599 1599 1599 1599 1599 1672 1533 1565 1415 1533 1599 1635 1599 1599 1599 1711 1672 0 0 0 0 0
    0 0 0 0 0 0 0 0 0 0 0 0 0 0 0 0 0 0 0 0 0 0 0 0 0 0 0 0 0 0 0 0 0 0 0 0 0 0 0 0 0 0 0 0 0 0 0 0 0 0 0 0 0 0 0 0 0 0 0 0 0 0 0 0 0 0 0 0 0 0 0 0 0 0 0 0 0 0 0 0 0 0 0 0 0 0 0 0 0 0 0 0 0 0 0 0 0 0 0 0 0 0 0 0 0 81 81 81 0 0 0 0 2628 2374 2299 2374 2230 1989 1887 1839 1711 1635 1443 1443 1533 1599 1471 1471 1565 1635 1565 1672 1711 0 1635 1635 1599 1672 1672 1565 1599 1599 1533 1533 1565 1501 1471 1471 1443 1443 1443 1471 1471 1443 1501 1471 1471 1565 1501 1471 1471 1599 1635 1599 0 0 0 90 0 0 73 0 0 0 0 2044 2102 2102 1989 1887 1887 1839 1887 1887 1839 1936 1936 1936 1989 1989 2044 1936 1989 1936 1795 1752 1711 1795 1635 1711 1635 1752 1752 1839 1839 1887 1887 1989 1989 2230 2044 2230 1936 2044 1989 1887 1887 1839 1752 0 1672 1711 1711 1839 1839 0 2044 2044 1989 1989 1989 1989 0 1887 1839 1839 1711 1672 1711 1752 1711 1711 1599 1752 1599 0 0 1752 1711 1752 1752 1711 1711 1711 1711 1635 1635 1672 1711 1672 0 0 0 0 2044 1887 1471 1635 1599 1565 1599 1533 1533 1471 1533 1635 1443 1501 1533 1533 1599 1565 1599 1565 1565 1599 1635 1672 1672 1672 1711 1672 1711 0 0 0 1599 1672 1533 1501 1533 1565 1565 1635 1501 1501 1388 1471 0 0 0 1565 1599 1711 0 0 0 0 0 0
    0 0 0 0 0 0 0 0 0 0 0 0 0 0 0 0 0 0 0 0 0 0 0 0 0 0 0 0 0 0 0 0 0 0 0 0 0 0 0 0 0 0 0 0 0 0 0 0 0 0 0 0 0 0 0 0 0 0 0 0 0 0 0 0 0 0 0 0 0 0 0 0 0 0 0 0 0 0 0 0 0 0 0 0 0 0 0 0 0 0 0 0 0 0 0 0 0 0 0 0 0 0 0 0 0 0 0 0 0 0 0 0 0 0 0 0 0 0 1635 1599 1599 1443 1338 0 1362 1471 1362 1388 1711 0 0 1795 0 73 0 0 0 1752 1752 1635 1635 1635 1599 1565 1599 1533 1471 1471 1443 1471 1443 1471 1471 1443 1501 1471 1471 1599 1533 1471 1443 1565 1635 1635 0 0 0 0 0 73 73 73 73 0 0 0 0 2164 1989 0 1795 1752 1795 1795 1752 0 0 0 1936 1989 0 0 0 0 0 1635 1599 0 0 1672 1635 1795 1795 1839 1839 1887 1887 1989 1989 2230 2044 2102 0 0 0 1936 1887 1752 1599 0 0 0 1565 1752 1795 0 2164 2044 1989 1936 1989 1989 0 0 1795 1752 1635 1565 1635 1672 1599 1599 0 1711 1443 0 1887 1795 1711 1752 1711 1711 1711 1711 1711 1672 1635 1672 1672 0 0 0 0 0 0 0 1415 1533 1501 1471 1533 1471 1501 1443 1501 1565 1415 1471 1501 1501 1565 1533 1599 1501 1533 1533 1599 1635 1635 1635 1711 1672 1711 1711 1711 1635 1565 1599 1471 1415 1443 1471 1565 1635 1533 1501 0 0 0 0 0 0 0 0 0 0 0 0 0 0
    0 0 0 0 0 0 0 0 0 0 0 0 0 0 0 0 0 0 0 0 0 0 0 0 0 0 0 0 0 0 0 0 0 0 0 0 0 0 0 0 0 0 0 0 0 0 0 0 0 0 0 0 0 0 0 0 0 0 0 0 0 0 0 0 0 0 0 0 0 0 0 0 0 0 0 0 0 0 0 0 0 0 0 0 0 0 0 0 0 0 0 0 0 0 0 0 0 0 0 0 0 0 0 0 0 0 0 0 0 0 0 0 0 0 0 0 0 0 1415 1388 0 0 0 0 0 0 1247 0 0 0 0 0 74 73 73 0 0 0 1839 1752 1672 1711 1599 1533 1599 1533 1471 1471 1443 1471 1443 0 1471 1443 1501 1443 1471 1565 1501 1443 1443 1565 1565 1533 0 0 0 0 0 73 73 73 0 0 0 0 0 2299 0 0 0 0 0 0 0 0 0 0 0 0 0 0 0 0 0 0 0 0 0 0 0 0 0 0 0 0 0 0 0 0 0 0 0 0 0 0 0 1501 0 0 0 0 0 0 0 0 0 0 0 0 0 0 0 0 1672 1711 1565 1443 1443 1443 1338 1291 1226 1247 1268 0 0 1752 1672 1711 1711 1711 1672 1711 1711 1635 0 0 0 0 0 0 0 129 130 0 0 0 1338 1362 0 1362 1415 1388 1471 1501 0 0 1443 1471 1533 1501 1599 1471 1471 1501 1533 1599 1599 1599 1672 1599 1672 1635 1672 1565 1471 1565 1415 1362 1415 1415 1599 1635 0 0 0 0 0 0 0 0 0 0 0 0 0 0 0 0
    0 0 0 0 0 0 0 0 0 0 0 0 0 0 0 0 0 0 0 0 0 0 0 0 0 0 0 0 0 0 0 0 0 0 0 0 0 0 0 0 0 0 0 0 0 0 0 0 0 0 0 0 0 0 0 0 0 0 0 0 0 0 0 0 0 0 0 0 0 0 0 0 0 0 0 0 0 0 0 0 0 0 0 0 0 0 0 0 0 0 0 0 0 0 0 0 0 0 0 0 0 0 0 0 0 0 0 0 0 0 0 0 0 0 0 0 0 0 0 0 0 0 0 0 0 0 0 0 0 0 0 74 74 73 73 73 0 0 1936 1839 1711 1752 1635 1565 1599 0 1471 1471 1443 1471 1443 511 0 1471 0 1471 1471 1565 1533 0 0 0 0 0 0 0 0 0 0 0 0 0 0 0 0 0 0 0 0 0 0 0 0 0 0 0 0 0 0 0 0 0 0 0 0 0 0 0 0 0 0 0 0 0 0 0 0 0 0 0 0 0 0 0 0 0 0 0 0 0 0 0 0 0 0 93 0 0 0 0 0 0 0 1936 1711 1711 1565 1388 1338 1268 1247 1206 1149 1066 1132 0 0 1672 1635 1711 1672 1711 1672 0 0 0 0 0 0 0 0 0 0 0 0 0 0 0 0 0 1008 981 0 0 1415 0 0 0 0 1443 1501 1443 1565 1443 1443 1443 1501 1565 1533 1565 1635 1533 1672 1533 0 1388 0 0 1291 0 1388 1362 1635 0 0 0 0 521 0 0 0 0 0 608 608 0 0 0 0 0
    0 0 0 0 0 0 0 0 0 0 0 0 0 0 0 0 0 0 0 0 0 0 0 0 0 0 0 0 0 0 0 0 0 0 0 0 0 0 0 0 0 0 0 0 0 0 0 0 0 0 0 0 0 0 0 0 0 0 0 0 0 0 0 0 0 0 0 0 0 0 0 0 0 0 0 0 0 0 0 0 0 0 0 0 0 0 0 0 0 0 0 0 0 0 0 0 0 0 0 0 0 0 0 0 0 0 0 0 0 0 0 0 0 0 0 0 0 0 0 0 0 0 0 0 0 0 0 0 0 0 0 0 0 0 0 0 0 0 0 0 0 0 0 0 0 0 0 0 0 0 0 0 0 0 0 0 0 0 0 0 0 0 0 0 0 0 0 0 0 0 0 0 0 0 0 0 0 0 0 0 0 0 0 0 0 0 0 0 0 0 0 0 0 0 0 0 0 0 0 0 0 0 0 0 0 0 0 0 0 0 0 0 0 0 0 0 0 0 0 0 0 0 0 0 0 0 0 0 0 0 0 0 0 0 0 0 0 0 1443 0 0 0 0 0 0 0 0 0 0 0 0 0 0 0 0 0 0 0 0 0 0 0 0 0 0 0 0 0 0 0 0 0 0 0 0 0 0 0 0 0 1443 1388 1443 1362 1415 1362 1443 1533 1533 1565 1599 1415 0 0 0 0 0 0 1168 0 0 0 0 0 497 514 0 525 0 588 598 603 608 608 603 0 0 0 0 0
    0 0 0 0 0 0 0 0 0 0 0 0 0 0 0 0 0 0 0 0 0 0 0 0 0 0 0 0 0 0 0 0 0 0 0 0 0 0 0 0 0 0 0 0 0 0 0 0 0 0 0 0 0 0 0 0 0 0 0 0 0 0 0 0 0 0 0 0 0 0 0 0 0 0 0 0 0 0 0 0 0 0 0 0 0 0 0 0 0 0 0 0 0 0 0 0 0 0 0 0 0 0 0 0 0 0 0 0 0 0 0 0 0 0 0 0 0 0 0 0 0 0 0 0 0 0 0 0 0 0 0 0 0 0 0 0 0 0 0 0 0 0 0 0 0 0 0 0 0 0 0 0 0 0 0 0 0 0 0 0 0 0 0 0 0 0 0 0 0 0 0 0 0 0 0 0 0 0 0 0 0 0 0 0 0 0 0 0 0 0 0 0 0 0 0 0 0 0 0 0 0 0 0 0 0 0 0 0 0 0 0 0 0 0 0 0 0 0 0 0 0 0 0 0 0 0 0 0 0 0 0 0 0 0 0 0 0 0 0 0 0 0 0 0 0 0 0 0 0 0 0 0 0 0 0 0 0 0 0 0 0 0 0 0 0 0 0 0 0 0 0 0 0 0 0 0 0 0 0 0 0 897 0 0 0 1314 1388 1388 1471 0 1533 0 0 1149 0 0 0 0 0 0 0 0 0 0 490 484 521 529 0 570 0 598 603 603 598 0 0 0 0 0
    0 0 0 0 0 0 0 0 0 0 0 0 0 0 0 0 0 0 0 0 0 0 0 0 0 0 0 0 0 0 0 0 0 0 0 0 0 0 0 0 0 0 0 0 0 0 0 0 0 0 0 0 0 0 0 0 0 0 0 0 0 0 0 0 0 0 0 0 0 0 0 0 0 0 0 379 371 0 0 0 0 0 0 99 0 100 0 319 300 302 299 295 292 0 0 0 97 97 97 0 0 0 0 0 315 319 314 319 321 330 336 334 0 0 0 324 315 315 315 0 318 321 0 0 328 0 0 0 0 0 142 142 144 0 0 0 0 0 0 0 0 0 0 0 0 0 0 322 0 0 0 339 339 0 0 0 0 0 0 0 0 0 0 0 0 336 334 331 334 334 334 334 331 331 0 0 0 0 0 0 0 0 0 0 0 136 0 0 0 0 0 0 0 0 0 0 0 0 0 0 0 81 80 0 337 336 337 0 0 0 0 0 0 0 0 0 0 0 0 0 339 340 0 0 147 147 147 148 149 0 0 0 0 0 0 0 0 0 0 0 0 0 0 0 0 0 0 0 0 0 0 0 0 0 0 0 0 0 0 0 0 0 0 0 0 0 0 0 0 0 0 0 0 0 0 0 0 0 0 0 0 0 0 0 0 0 1388 1362 1415 0 0 0 0 0 0 931 0 0 0 0 481 0 0 0 0 0 0 0 0 570 549 584 593 593 603 0 0 0 0 0
    0 0 0 0 0 0 0 0 0 0 0 0 0 0 0 0 0 0 0 0 0 0 0 0 0 0 0 0 0 0 0 0 0 0 0 0 0 0 0 0 0 0 0 0 0 0 0 0 0 0 0 0 0 0 0 0 0 0 0 0 0 0 0 0 0 0 0 0 0 161 160 158 0 0 393 383 373 375 373 0 0 0 0 0 0 0 0 0 293 296 296 294 290 293 299 0 0 343 343 0 0 0 0 319 313 314 309 310 315 317 321 319 319 319 319 322 317 314 315 313 317 318 317 315 317 337 340 0 345 343 0 345 0 0 0 0 0 0 0 340 0 0 315 314 311 307 321 321 321 328 333 334 334 333 0 0 0 0 0 0 0 0 0 0 0 0 334 333 333 334 334 0 334 0 0 0 0 337 0 0 0 0 0 0 319 0 0 0 322 321 319 319 324 317 313 0 0 0 0 83 82 81 81 333 333 331 333 0 0 0 330 337 330 330 333 336 339 340 340 342 342 343 343 0 147 147 146 147 0 0 340 340 339 337 340 340 340 340 342 339 337 340 0 0 0 0 0 0 391 0 0 0 0 0 0 0 0 0 0 0 0 0 0 0 0 0 0 0 0 0 0 0 0 0 0 154 0 0 0 146 0 0 0 0 0 0 0 0 1388 0 0 0 0 1008 955 886 0 0 0 487 465 0 0 0 0 331 0 0 0 0 0 603 608 603 603 0 0 0 0 0
    0 0 0 0 0 0 0 0 0 0 0 0 0 0 0 0 0 0 0 0 0 0 0 0 0 0 0 0 0 0 0 0 0 0 0 0 0 0 0 0 0 0 0 0 0 0 0 0 0 0 0 0 0 0 0 0 0 0 0 0 0 0 0 0 0 0 0 0 0 162 161 0 0 0 0 379 371 373 371 0 0 362 350 0 0 0 296 293 292 294 295 294 290 292 297 0 0 340 342 0 0 0 315 315 311 311 309 310 313 315 315 315 315 319 319 321 314 307 313 311 315 317 315 313 314 317 327 333 337 334 331 339 336 0 0 0 0 0 0 334 321 0 0 315 0 0 321 321 321 325 328 331 330 331 337 327 0 0 0 0 0 0 140 0 0 0 334 333 333 334 334 337 334 331 0 0 0 0 0 0 0 0 0 0 322 325 324 324 324 321 319 321 325 315 313 306 302 0 0 83 82 82 81 321 322 321 321 319 319 318 317 317 322 324 327 336 339 343 343 342 343 343 343 343 343 342 342 343 339 331 328 331 325 322 324 333 330 324 334 325 319 322 324 322 315 317 319 318 0 0 317 322 317 318 0 337 339 0 352 366 0 0 0 0 0 0 0 0 0 0 156 0 156 155 154 0 0 150 148 146 0 343 337 0 0 0 0 0 0 1132 0 0 0 0 981 908 0 0 490 477 448 0 0 0 0 336 337 347 0 347 0 0 0 603 598 0 0 0 0 0
    0 0 0 0 0 0 0 0 0 0 0 0 0 0 0 0 0 0 0 0 0 0 0 0 0 0 0 0 0 0 0 0 0 0 0 0 0 0 0 0 0 0 0 0 0 0 0 0 0 0 0 0 0 0 0 0 0 0 0 0 0 0 0 0 0 0 0 0 0 0 0 0 0 0 0 377 371 373 371 0 0 360 348 334 0 0 296 293 292 295 295 294 290 293 299 0 0 340 340 0 0 0 315 315 311 311 309 310 313 315 315 315 317 319 319 321 313 306 313 311 317 317 315 314 314 317 325 331 336 331 328 337 334 0 0 0 0 0 0 333 0 0 0 0 0 0 321 322 322 328 331 333 333 333 0 333 0 0 0 321 0 0 0 0 0 0 334 331 331 333 334 337 333 328 0 0 0 0 0 0 0 88 0 0 321 322 321 321 321 319 318 318 321 315 313 307 0 0 0 0 82 82 0 0 317 317 315 315 315 314 313 314 319 321 0 0 340 343 342 340 342 342 342 339 337 336 337 340 334 319 315 318 315 315 315 322 321 315 319 318 317 318 321 319 314 315 318 318 0 315 315 0 313 311 306 313 314 322 333 0 0 0 337 322 0 0 0 290 0 0 0 0 156 155 154 155 0 0 150 0 342 343 342 337 0 348 345 0 0 0 0 1098 0 1008 981 908 0 0 0 0 0 0 0 343 342 336 336 0 0 0 0 0 0 0 0 0 0 0 0 0
    0 0 0 0 0 0 0 0 0 0 0 0 0 0 0 0 0 0 0 0 0 0 0 0 0 0 0 0 0 0 0 0 0 0 0 0 0 0 0 0 0 0 0 0 0 0 0 0 0 0 0 0 0 0 0 0 0 0 0 0 0 0 0 0 0 0 0 0 0 0 0 0 0 0 0 377 371 373 371 0 0 360 348 334 0 0 296 293 292 295 295 294 290 293 299 0 0 340 340 0 0 0 315 315 311 311 309 310 313 315 315 315 317 319 319 321 313 306 313 311 317 317 315 314 314 317 325 331 336 331 328 337 334 0 0 0 0 0 0 333 0 0 0 0 0 0 321 322 322 328 331 333 333 333 0 0 0 0 0 321 0 0 0 0 0 0 334 331 331 333 334 337 333 328 0 0 0 0 0 0 0 88 0 0 321 322 321 321 321 319 318 318 321 315 313 307 0 0 0 0 82 82 0 0 317 317 315 315 315 315 313 0 322 324 0 0 342 343 342 340 342 342 342 337 336 331 333 336 328 317 314 315 313 314 314 319 318 315 317 317 315 317 319 318 314 315 317 0 0 0 0 0 313 311 305 302 306 313 319 318 310 0 321 317 307 0 0 287 0 0 0 0 0 0 0 0 0 0 0 0 0 0 0 337 336 336 0 0 0 0 0 0 0 0 0 0 0 0 0 0 0 0 0 0 0 0 0 0 0 0 0 0 0 0 0 0 0 0 0 0
    0 0 0 0 0 0 0 0 0 0 0 0 0 0 0 0 0 0 0 0 0 0 0 0 0 0 0 0 0 0 0 0 0 0 0 0 0 0 0 0 0 0 0 0 0 0 0 0 0 0 0 0 0 0 0 0 0 0 0 0 0 0 0 0 0 0 0 0 0 0 161 0 0 0 0 379 371 373 371 0 359 360 348 334 0 0 296 293 292 295 295 294 290 293 299 0 0 340 340 0 0 0 315 315 311 311 309 310 313 315 315 315 317 319 319 321 313 306 313 311 317 317 315 314 314 317 325 331 336 331 328 337 334 0 0 0 0 0 0 333 0 0 0 0 0 0 321 322 322 328 331 333 333 333 0 0 0 0 0 321 0 0 0 0 0 0 334 331 331 333 334 337 333 328 0 0 0 0 0 0 0 88 0 0 321 322 321 321 321 319 318 318 321 315 313 307 0 0 0 0 82 82 0 0 317 317 315 315 315 315 313 0 322 324 0 0 342 343 342 340 342 342 342 337 336 331 333 336 328 317 314 315 313 314 314 319 318 315 317 317 315 317 319 318 314 315 317 0 0 0 0 0 0 311 305 301 306 313 319 317 309 0 318 315 306 0 0 285 0 0 0 0 0 0 0 0 0 0 0 0 0 0 0 0 0 0 0 0 0 0 0 0 0 0 0 0 0 0 0 0 0 0 345 0 0 0 0 0 0 0 0 0 0 0 0 0 0 0 0 0
    0 0 0 0 0 0 0 0 0 0 0 0 0 0 0 0 0 0 0 0 0 0 0 0 0 0 0 0 0 0 0 0 0 0 0 0 0 0 0 0 0 0 0 0 0 0 0 0 0 0 0 0 0 0 0 0 0 0 0 0 0 0 0 0 0 0 0 0 0 0 0 0 0 0 0 379 371 373 371 0 359 360 348 334 0 0 296 293 292 294 295 294 290 293 299 0 310 0 340 0 0 0 315 315 311 311 310 310 313 315 315 315 317 319 319 322 315 309 311 311 317 317 317 314 315 318 328 331 336 333 330 337 334 336 337 337 0 0 0 333 319 0 0 315 313 311 321 322 322 328 331 333 333 333 0 0 0 0 0 321 0 0 0 0 0 0 334 331 331 333 334 337 333 328 0 0 0 0 0 0 0 0 0 0 321 322 321 321 321 319 318 318 322 315 313 307 0 0 0 0 82 82 0 0 317 317 315 315 315 315 313 0 322 324 0 0 342 343 342 340 342 342 342 337 336 331 333 336 328 317 314 315 313 314 314 319 318 315 317 317 315 317 319 318 314 315 317 0 0 0 0 0 0 311 305 301 306 313 319 317 309 0 319 315 306 0 0 0 0 0 0 0 0 0 0 0 0 0 0 0 0 0 0 0 0 0 0 0 0 0 0 0 0 0 0 0 0 0 0 348 0 0 343 345 0 0 0 0 0 0 0 0 0 0 0 0 0 0 0 0
    0 0 0 0 0 0 0 0 0 0 0 0 0 0 0 0 0 0 0 0 0 0 0 0 0 0 0 0 0 0 0 0 0 0 0 0 0 0 0 0 0 0 0 0 0 0 0 0 0 0 0 0 0 0 0 0 0 0 0 0 0 0 0 0 0 0 0 0 0 0 0 0 0 0 391 381 373 375 373 0 357 357 345 0 0 0 0 293 292 293 293 293 290 292 295 0 302 0 0 0 0 0 0 315 311 311 310 0 0 0 317 318 319 324 325 337 324 317 319 318 319 319 318 317 318 0 0 327 330 328 327 333 333 334 340 0 342 0 0 334 319 318 317 315 311 310 321 324 324 328 331 334 333 333 0 0 0 0 0 0 0 0 0 0 0 0 0 334 333 334 336 0 336 333 0 0 0 0 0 0 0 0 0 0 321 322 321 321 322 319 318 318 322 315 313 310 307 0 0 0 0 0 0 314 317 315 315 315 315 314 313 314 321 0 0 0 342 345 342 340 342 342 342 337 336 331 333 336 328 317 314 315 313 314 314 319 318 315 317 317 315 317 319 318 314 315 317 0 0 0 0 0 0 309 302 300 305 311 319 0 305 0 321 315 304 293 0 0 0 0 0 0 0 0 0 0 0 0 0 0 0 0 0 0 0 0 0 0 0 0 0 0 0 0 0 0 0 0 0 0 0 324 331 0 337 324 0 0 0 0 0 0 0 0 0 0 0 0 0 0</data></depth>
</opencv_storage>
