<?xml version="1.0"?>
<opencv_storage>
<gps_time_stamp>29692</gps_time_stamp>
<gps_x>-7.5992870330810547e+000</gps_x>
<gps_y>1.0326622724533081e+000</gps_y>
<gps_z>-2.0167980194091797e+000</gps_z>
<image_time_stamp>17664</image_time_stamp>
<depth type_id="opencv-matrix">
  <rows>95</rows>
  <cols>320</cols>
  <dt>s</dt>
  <data>
    0 0 0 0 0 0 0 0 0 0 0 0 0 0 0 0 0 0 0 0 0 0 0 0 0 0 0 0 0 0 0 0 0 0 0 0 0 0 0 0 0 0 0 0 0 0 0 0 0 0 0 0 0 0 0 0 0 0 0 0 0 0 0 0 0 0 0 0 0 766 750 750 774 758 735 758 766 758 750 766 766 758 766 799 774 758 782 808 782 791 791 799 791 782 782 774 758 750 735 766 758 774 782 782 782 799 808 845 836 0 799 782 782 774 774 774 766 774 766 758 766 774 750 728 758 758 766 766 766 766 774 782 799 782 782 782 774 782 774 774 782 774 774 774 774 774 743 774 766 758 774 766 774 774 774 817 782 782 791 782 774 774 766 766 766 774 758 758 766 782 782 758 774 766 774 774 791 782 774 766 791 774 791 782 791 766 735 758 774 766 799 782 799 799 774 791 774 782 782 774 782 766 758 782 758 782 766 774 766 774 782 774 791 799 782 799 808 799 782 791 791 791 791 791 791 799 808 799 799 808 799 791 799 791 774 774 758 758 758 758 750 735 735 743 735 758 735 728 743 743 766 743 743 743 735 735 728 707 707 707 714 714 714 728 728 758 791 750 782 743 758 774 758 735 707 707 694 687 687 687 675 663 669 675 639 669 663 651 645 651 657 651 651 694 657 669 681 766 782 774 774 758 758 743 750 743 728 721 728 728 735 721 728 728 728 0 0 0 0 0
    0 0 0 0 0 0 0 0 0 0 0 0 0 0 0 0 0 0 0 0 0 0 0 0 0 0 0 0 0 0 0 0 0 0 0 0 0 0 0 0 0 0 0 0 0 0 0 0 0 0 0 0 0 0 0 0 0 0 0 0 0 0 0 0 0 0 0 0 0 743 735 750 766 766 735 758 766 758 750 766 766 758 766 799 774 766 774 799 774 791 766 774 735 721 721 714 721 714 721 743 743 766 782 774 782 791 808 836 826 808 791 766 758 766 766 766 758 758 750 743 750 766 743 728 758 750 758 758 758 758 766 774 791 766 766 766 774 782 774 766 774 774 774 774 774 774 743 766 758 750 766 758 766 766 766 808 774 774 782 758 758 766 766 758 766 774 758 758 774 782 774 750 774 766 766 774 782 774 766 766 791 766 782 774 782 750 721 735 743 750 774 758 782 791 750 782 766 766 766 766 774 758 758 782 750 782 758 766 758 766 774 766 774 782 774 791 799 791 774 782 782 782 782 791 791 791 799 799 799 808 799 799 808 791 782 774 750 750 758 750 743 728 735 735 728 750 728 721 735 735 743 728 728 735 728 728 721 700 707 700 707 714 714 728 728 743 774 743 782 743 750 758 743 721 700 700 681 681 687 681 669 663 675 675 645 669 663 651 645 657 657 651 651 694 645 663 681 758 782 774 774 750 750 735 735 728 728 714 714 721 721 707 721 714 721 0 0 0 0 0
    0 0 0 0 0 0 0 0 0 0 0 0 0 0 0 0 0 0 0 0 0 0 0 0 0 0 0 0 0 0 0 0 0 0 0 0 0 0 0 0 0 0 0 0 0 0 0 0 0 0 0 0 0 0 0 0 0 0 0 0 0 0 0 0 0 0 0 0 0 721 728 735 750 758 735 750 758 750 750 758 766 758 766 799 782 766 774 799 758 766 743 728 0 0 0 0 700 700 707 721 728 750 774 766 774 782 799 826 817 791 766 750 735 750 743 750 743 743 0 735 735 758 735 728 750 750 750 750 750 758 766 766 782 758 758 758 766 774 766 758 774 766 766 766 766 766 735 758 750 743 758 750 750 758 758 799 766 774 774 750 750 766 766 758 766 774 750 750 766 774 758 743 758 758 758 766 774 766 758 766 782 766 774 774 774 743 714 728 735 743 743 743 766 774 735 774 758 758 758 758 758 750 750 774 743 766 743 758 750 750 758 758 766 774 758 782 791 774 766 782 774 774 782 782 782 782 791 799 799 808 799 808 808 791 791 774 743 750 750 743 735 728 728 728 721 743 721 721 721 721 721 707 714 721 714 714 707 700 700 700 700 700 700 700 700 700 721 714 743 728 735 743 728 714 687 694 669 681 681 681 669 669 675 675 645 675 669 657 651 663 657 651 651 687 645 657 681 743 774 766 774 758 750 735 735 728 721 714 714 714 714 707 721 714 721 0 0 0 0 0
    0 0 0 0 0 0 0 0 0 0 0 0 0 0 0 0 0 0 0 0 0 0 0 0 0 0 0 0 0 0 0 0 0 0 0 0 0 0 0 0 0 0 0 0 0 0 0 0 0 0 0 0 0 0 0 0 0 0 0 0 0 0 0 0 0 0 0 0 0 714 714 728 735 750 728 743 750 743 735 750 750 743 758 791 766 758 758 782 735 728 707 694 0 675 0 0 687 694 694 707 714 735 758 758 774 774 791 817 808 782 750 743 728 735 735 735 735 0 0 721 721 743 728 721 743 735 743 750 750 758 766 766 782 758 758 758 758 774 758 758 766 758 758 758 758 758 728 750 743 735 743 743 743 750 750 799 758 766 758 743 735 750 750 750 750 758 743 743 750 758 750 735 758 750 743 758 766 758 750 758 774 743 750 766 766 743 714 735 735 743 728 735 743 750 728 758 743 750 743 750 750 743 743 774 735 758 735 743 743 743 743 743 743 750 743 766 782 766 750 774 766 774 774 782 782 782 782 799 791 799 791 791 799 782 782 758 728 735 735 735 728 721 721 721 714 728 714 714 714 707 700 694 694 700 707 707 700 700 700 694 700 700 694 687 681 687 694 687 700 707 714 714 707 694 681 681 657 675 675 675 663 669 675 675 651 675 669 657 657 663 663 651 651 687 639 651 681 721 735 766 774 766 750 743 735 721 721 714 714 714 714 707 714 714 721 0 0 0 0 0
    0 0 0 0 0 0 0 0 0 0 0 0 0 0 0 0 0 0 0 0 0 0 0 0 0 0 0 0 0 0 0 0 0 0 0 0 0 0 0 0 0 0 0 0 0 0 0 0 0 0 0 0 0 0 0 0 0 0 0 0 0 0 0 0 0 0 0 0 0 700 707 721 721 743 728 743 743 735 728 743 735 735 743 766 735 735 743 758 714 714 675 675 651 663 675 675 681 687 681 694 700 714 735 743 750 743 758 799 766 750 728 721 707 0 714 721 721 0 0 0 0 721 714 714 728 721 728 735 743 750 758 758 774 750 758 750 750 774 750 750 758 750 750 743 743 743 721 735 728 728 735 728 735 735 735 791 743 750 743 728 728 735 735 735 735 743 728 728 743 750 743 735 750 743 735 750 758 750 735 743 750 728 735 750 743 728 707 728 721 735 721 721 735 743 721 743 735 735 735 743 735 735 735 758 728 743 728 735 735 735 735 728 735 743 743 766 774 758 750 774 766 774 774 774 774 774 774 791 766 782 766 758 766 766 766 743 721 735 735 728 728 721 721 721 714 728 707 707 700 700 694 681 687 694 694 694 700 694 700 687 700 700 694 687 681 681 687 681 687 687 687 687 681 675 669 663 651 669 669 669 663 663 675 675 651 675 663 657 657 663 663 651 651 687 639 651 687 714 735 766 766 766 750 743 728 714 714 707 707 714 707 700 714 707 721 0 0 0 0 0
    0 0 0 0 0 0 0 0 0 0 0 0 0 0 0 0 0 0 0 0 0 0 0 0 0 0 0 0 0 0 0 0 0 0 0 0 0 0 0 0 0 0 0 0 0 0 0 0 0 0 0 0 0 0 0 0 0 0 0 0 0 0 0 0 0 0 0 0 0 694 700 714 714 743 728 735 743 735 728 735 728 728 728 743 721 721 728 0 0 0 663 663 645 657 675 675 681 681 681 687 694 700 721 721 721 714 714 728 700 700 700 694 687 0 0 714 0 0 0 0 694 707 700 700 707 707 714 721 721 735 735 743 766 743 750 743 743 774 750 750 750 743 735 728 735 735 714 721 714 714 721 714 721 728 721 758 728 728 721 721 714 721 721 721 728 735 728 728 735 743 735 728 743 735 728 743 750 735 728 735 735 721 721 735 714 700 694 700 707 714 707 714 728 728 714 735 728 728 728 735 728 728 728 743 721 728 728 728 728 735 735 728 735 750 743 758 774 766 750 774 766 774 774 774 766 766 758 766 735 750 728 728 735 735 735 721 714 728 728 721 721 721 721 721 714 728 707 707 700 700 694 675 681 687 681 687 694 687 687 681 700 700 694 681 681 681 681 675 681 681 675 675 669 669 663 657 651 669 669 669 657 663 669 669 651 675 663 651 657 663 657 651 651 681 639 651 687 700 721 758 758 758 750 743 728 714 721 714 714 721 714 707 714 714 721 0 0 0 0 0
    0 0 0 0 0 0 0 0 0 0 0 0 0 0 0 0 0 0 0 0 0 0 0 0 0 0 0 0 0 0 0 0 0 0 0 0 0 0 0 0 0 0 0 0 0 0 0 0 0 0 0 0 0 0 0 0 0 0 0 0 0 0 0 0 0 0 0 0 0 694 694 700 707 735 721 735 743 735 728 735 728 721 721 735 714 714 0 0 0 0 663 669 645 657 669 675 681 681 675 687 687 694 707 714 707 700 700 700 694 694 694 687 675 694 694 0 700 0 675 681 681 694 687 687 694 694 700 700 707 721 721 728 743 721 735 721 728 758 735 735 735 728 728 714 721 721 707 707 700 700 707 707 714 714 707 728 714 714 707 707 700 707 707 714 721 728 721 721 728 735 728 728 735 728 721 735 735 728 721 728 721 707 707 714 694 694 687 694 687 700 707 707 721 728 714 728 728 728 728 728 721 721 721 728 714 721 721 728 721 735 735 728 735 750 750 758 774 766 750 774 766 774 774 766 758 750 743 743 721 721 714 707 721 721 721 721 714 728 728 721 721 721 721 721 714 721 707 700 700 700 694 675 681 681 687 687 694 694 687 681 700 700 694 681 675 675 675 669 681 675 669 669 663 663 663 657 651 663 663 663 657 663 669 669 645 669 657 651 651 657 657 651 645 681 639 645 681 687 694 721 728 750 735 735 721 707 714 714 714 714 714 707 721 714 721 0 0 0 0 0
    0 0 0 0 0 0 0 0 0 0 0 0 0 0 0 0 0 0 0 0 0 0 0 0 0 0 0 0 0 0 0 0 0 0 0 0 0 0 0 0 0 0 0 0 0 0 0 0 0 0 0 0 0 0 0 0 0 0 0 0 0 0 0 0 0 0 0 0 0 687 687 694 694 0 707 721 735 735 721 728 721 721 714 721 700 0 0 0 0 0 645 657 645 651 669 669 675 675 675 687 681 694 707 714 700 694 694 694 694 687 687 681 675 681 681 687 694 681 675 675 675 687 681 681 687 681 687 694 694 700 700 700 714 700 714 700 707 743 721 728 721 714 714 700 707 707 700 694 694 694 694 694 700 700 694 694 700 694 694 694 681 687 700 700 714 714 707 714 721 728 721 721 735 728 714 728 728 721 721 714 707 700 694 700 675 669 675 675 669 687 700 707 714 721 707 728 721 728 721 721 714 714 707 714 700 707 707 714 707 735 735 728 743 758 750 750 766 766 743 766 758 766 766 750 750 743 728 728 714 714 707 707 714 721 714 721 714 728 728 721 721 721 721 714 714 714 700 694 700 694 687 675 675 681 681 681 694 687 687 675 694 694 687 675 675 675 675 663 675 669 663 663 663 663 663 651 657 663 663 657 651 657 663 663 639 663 651 645 651 657 651 639 645 681 639 645 675 675 681 694 700 728 721 721 700 694 694 694 687 694 694 687 707 707 714 0 0 0 0 0
    0 0 0 0 0 0 0 0 0 0 0 0 0 0 0 0 0 0 0 0 0 0 0 0 0 0 0 0 0 0 0 0 0 0 0 0 0 0 0 0 0 0 0 0 0 0 0 0 0 0 0 0 0 0 0 0 0 0 0 0 0 0 0 0 0 0 0 0 0 687 687 694 687 0 700 700 714 721 714 714 707 707 700 0 681 0 0 0 0 0 645 663 645 651 669 669 675 675 675 681 681 687 700 700 694 694 694 694 694 687 687 681 675 681 681 675 681 675 669 663 669 681 675 675 681 675 681 681 681 687 687 694 694 681 700 694 700 735 714 721 714 700 707 681 694 700 694 681 687 687 687 687 694 687 687 687 694 687 681 687 681 681 694 694 700 700 700 707 714 721 721 721 728 721 714 721 721 714 707 707 694 687 687 694 663 651 663 663 651 663 681 687 694 707 700 714 714 714 714 714 694 694 694 694 687 687 694 694 694 714 714 721 743 758 750 743 743 758 735 758 758 758 758 743 743 735 721 721 707 707 700 700 707 714 707 714 714 721 721 714 714 721 714 714 714 714 700 694 694 694 681 669 675 681 675 675 687 681 681 669 681 681 675 669 669 675 675 657 675 669 669 669 663 663 663 657 657 657 657 651 651 651 663 651 639 657 651 645 651 651 651 639 645 675 645 651 675 675 675 687 687 707 700 700 687 675 675 675 675 681 675 675 687 669 687 0 0 0 0 0
    0 0 0 0 0 0 0 0 0 0 0 0 0 0 0 0 0 0 0 0 0 0 0 0 0 0 0 0 0 0 0 0 0 0 0 0 0 0 0 0 0 0 0 0 0 0 0 0 0 0 0 0 0 0 0 0 0 0 0 0 0 0 0 0 0 0 0 0 0 687 687 694 687 0 694 687 700 707 0 694 0 0 687 675 639 651 0 0 0 0 645 669 651 657 669 669 675 675 675 681 675 687 694 694 694 687 687 687 694 687 687 681 675 681 675 663 669 657 657 651 663 669 669 669 675 669 675 675 675 681 675 681 687 675 694 687 694 728 707 714 700 681 700 651 681 687 681 663 681 681 681 681 687 681 675 681 694 681 681 681 675 675 687 687 687 687 681 694 700 707 714 714 721 714 700 714 714 707 700 694 687 681 681 694 663 651 663 663 645 657 675 675 681 694 694 700 707 700 700 700 675 681 675 675 675 675 681 687 681 700 700 714 728 743 735 728 721 743 728 743 750 743 743 735 728 728 714 707 700 700 694 694 700 707 700 707 707 714 714 707 714 714 714 714 714 707 700 687 694 687 681 669 669 675 669 669 687 669 669 651 669 663 663 663 663 669 669 657 675 669 669 663 663 669 663 651 663 657 657 645 645 651 657 645 639 651 645 639 645 645 645 639 645 675 645 645 675 669 675 681 687 694 687 694 687 675 675 669 675 681 675 675 675 634 651 0 0 0 0 0
    0 0 0 0 0 0 0 0 0 0 0 0 0 0 0 0 0 0 0 0 0 0 0 0 0 0 0 0 0 0 0 0 0 0 0 0 0 0 0 0 0 0 0 0 0 0 0 0 0 0 0 0 0 0 0 0 0 0 0 0 0 0 0 0 0 0 0 0 0 687 687 694 687 0 694 681 694 0 0 0 0 0 675 651 629 629 0 634 0 0 0 675 657 663 675 675 675 681 675 681 675 687 694 694 687 687 687 687 687 687 687 687 675 675 669 657 657 645 645 645 651 669 663 669 675 669 675 675 675 681 675 681 681 669 687 687 694 728 700 707 694 675 687 639 669 675 663 651 675 669 675 675 681 675 675 675 694 681 681 681 675 675 681 675 675 669 663 669 675 681 700 700 707 700 681 700 700 694 694 687 681 675 681 694 669 663 675 675 663 675 681 675 681 694 687 694 700 687 687 687 663 675 669 669 669 675 681 681 681 694 694 700 714 721 707 700 700 714 721 728 735 735 728 728 721 728 707 700 700 694 687 687 694 700 694 700 707 707 700 700 707 714 707 707 707 700 700 681 687 681 675 663 669 669 657 657 681 651 657 639 657 645 651 651 651 657 663 645 669 663 663 657 657 663 657 651 663 651 651 639 645 645 645 639 639 645 645 639 645 645 645 639 651 669 645 645 669 669 669 675 681 694 681 687 681 669 675 669 675 681 675 681 675 629 657 0 0 0 0 0
    0 0 0 0 0 0 0 0 0 0 0 0 0 0 0 0 0 0 0 0 0 0 0 0 0 0 0 0 0 0 0 0 0 0 0 0 0 0 0 0 0 0 0 0 0 0 0 0 0 0 0 0 0 0 0 0 0 0 0 0 0 0 0 0 0 0 0 0 0 687 687 694 681 0 694 681 694 0 0 0 0 0 0 657 629 623 0 639 0 0 0 669 651 663 675 675 681 681 675 681 675 687 687 687 681 681 681 681 687 687 687 687 675 675 669 651 657 645 645 639 651 669 663 669 675 669 675 675 681 681 675 681 675 669 687 687 687 721 700 700 687 681 681 651 675 675 669 651 675 669 669 669 675 669 669 669 687 675 681 681 681 675 681 675 675 663 657 657 657 657 681 681 687 681 663 687 694 687 687 681 675 675 681 694 675 675 681 681 675 681 687 681 681 687 687 687 694 681 681 687 657 675 663 669 675 675 681 681 681 694 694 700 707 707 694 687 687 700 714 721 721 728 721 728 721 721 700 694 694 687 681 681 681 687 681 694 700 694 694 694 700 700 700 700 700 694 694 669 681 681 675 663 669 663 657 657 681 645 645 639 657 639 645 645 645 651 657 639 669 657 657 651 657 663 651 645 663 645 645 634 639 639 639 634 634 639 639 634 645 639 645 639 651 669 645 645 669 663 669 675 675 687 669 675 675 657 663 657 669 681 669 687 681 0 657 0 0 0 0 0
    0 0 0 0 0 0 0 0 0 0 0 0 0 0 0 0 0 0 0 0 0 0 0 0 0 0 0 0 0 0 0 0 0 0 0 0 0 0 0 0 0 0 0 0 0 0 0 0 0 0 0 0 0 0 0 0 0 0 0 0 0 0 0 0 0 0 0 0 0 687 687 687 681 687 687 0 0 0 0 0 0 0 681 639 618 613 0 629 634 639 0 669 651 669 675 681 681 681 681 681 675 687 687 681 675 681 681 681 687 681 687 681 669 675 663 651 657 645 651 639 651 669 663 669 675 675 675 675 681 681 675 681 681 675 681 687 687 728 707 700 681 681 681 663 675 675 669 657 675 675 669 669 675 669 669 669 687 675 687 687 681 681 681 675 675 663 657 651 651 645 675 681 687 675 663 681 681 681 681 675 669 669 675 687 675 675 681 681 675 681 687 687 687 694 687 687 694 687 687 687 657 675 663 669 675 675 681 681 681 694 694 714 714 707 694 687 687 700 707 714 714 714 714 714 707 714 687 681 687 681 675 675 675 681 675 687 694 687 687 687 687 694 694 694 694 694 694 663 681 681 675 663 669 663 657 657 681 634 639 634 651 634 639 634 634 639 657 634 663 657 651 651 651 657 651 645 663 645 639 634 639 634 634 629 634 639 634 634 639 634 639 634 645 663 639 645 663 657 663 669 669 675 651 663 663 645 651 651 651 669 657 681 669 0 0 0 0 0 0 0
    0 0 0 0 0 0 0 0 0 0 0 0 0 0 0 0 0 0 0 0 0 0 0 0 0 0 0 0 0 0 0 0 0 0 0 0 0 0 0 0 0 0 0 0 0 0 0 0 0 0 0 0 0 0 0 0 0 0 0 0 0 0 0 0 0 0 0 0 0 687 687 687 681 687 687 0 0 0 0 0 0 0 675 629 0 0 0 623 623 629 0 663 651 669 681 681 681 681 681 681 675 681 687 675 675 675 681 675 681 681 681 681 663 663 651 634 639 629 634 629 645 657 651 663 669 669 669 675 675 675 675 681 681 681 687 694 694 728 700 694 675 675 675 663 669 675 663 657 675 675 669 669 675 669 669 675 687 675 687 687 681 681 681 681 675 663 657 657 651 645 681 681 687 681 663 681 681 681 681 675 663 669 675 687 675 675 681 681 681 687 687 687 694 694 694 694 694 687 687 687 663 675 663 669 675 675 681 681 681 694 687 707 707 707 694 687 687 694 700 707 707 707 700 707 700 707 675 681 681 675 669 675 675 675 675 681 687 675 681 681 681 681 681 687 687 687 687 657 675 675 675 663 669 663 657 657 675 634 639 634 639 629 634 629 623 634 657 629 663 651 651 645 651 651 639 639 657 634 634 629 629 629 634 629 629 634 634 629 639 634 634 634 645 657 639 639 657 651 657 663 669 669 639 651 651 639 639 639 639 645 639 663 634 598 0 0 0 0 0 0
    0 0 0 0 0 0 0 0 0 0 0 0 0 0 0 0 0 0 0 0 0 0 0 0 0 0 0 0 0 0 0 0 0 0 0 0 0 0 0 0 0 0 0 0 0 0 0 0 0 0 0 0 0 0 0 0 0 0 0 0 0 0 0 0 0 0 0 0 0 687 687 687 675 681 681 657 681 663 0 0 0 0 0 613 603 598 613 618 618 618 623 645 639 663 675 681 681 675 681 681 669 681 681 663 663 663 681 669 681 675 675 669 645 645 639 629 629 623 623 623 634 645 645 657 663 669 669 669 675 675 681 687 681 681 681 694 0 0 0 0 645 663 663 651 663 669 651 657 669 669 669 669 669 669 669 675 687 669 687 687 675 681 675 675 669 657 651 645 645 639 669 675 681 675 663 675 675 681 687 675 663 669 669 687 675 681 681 681 675 681 681 687 694 687 687 687 694 694 687 687 663 675 663 669 675 675 675 681 675 687 681 700 700 700 687 681 681 681 687 694 700 700 700 700 700 700 675 681 681 675 669 675 675 675 675 687 681 663 669 675 675 675 669 675 675 675 681 639 669 669 669 663 663 663 657 657 675 629 634 634 639 629 629 623 623 629 657 629 657 645 639 639 639 639 629 634 634 623 618 618 623 623 629 623 623 629 629 629 634 629 629 629 639 645 634 639 651 651 651 663 663 657 634 639 645 634 634 634 629 634 629 645 623 603 574 0 0 0 0 0
    0 0 0 0 0 0 0 0 0 0 0 0 0 0 0 0 0 0 0 0 0 0 0 0 0 0 0 0 0 0 0 0 0 0 0 0 0 0 0 0 0 0 0 0 0 0 0 0 0 0 0 0 0 0 0 0 0 0 0 0 0 0 0 0 0 0 0 0 0 681 681 681 675 675 669 645 657 634 623 0 623 603 603 613 603 603 613 618 618 613 618 634 634 657 675 675 675 669 675 675 663 675 669 639 645 639 663 651 663 663 657 657 639 634 634 623 618 618 618 613 623 634 634 645 657 669 669 669 675 675 681 687 675 675 675 687 0 0 0 0 0 651 651 645 657 663 645 657 669 669 663 669 669 663 663 675 681 663 681 681 669 669 669 663 645 634 634 629 629 618 623 639 634 639 639 651 657 663 669 663 657 663 663 675 669 669 675 675 675 669 663 675 681 681 675 675 681 681 675 681 651 669 657 663 669 669 669 675 669 687 675 694 694 687 675 675 675 675 687 694 694 694 694 700 700 694 669 681 681 675 669 669 675 675 675 687 681 663 669 675 669 669 663 669 669 669 681 634 663 663 663 657 657 657 651 645 663 623 629 629 634 629 623 618 613 623 639 618 629 623 623 629 629 629 623 629 629 618 618 618 623 623 629 623 623 623 623 623 629 623 618 623 639 639 634 639 657 657 657 663 663 651 629 634 639 634 629 629 629 629 629 639 629 608 588 0 0 0 0 0
    0 0 0 0 0 0 0 0 0 0 0 0 0 0 0 0 0 0 0 0 0 0 0 0 0 0 0 0 0 0 0 0 0 0 0 0 0 0 0 0 0 0 0 0 0 0 0 0 0 0 0 0 0 0 0 0 0 0 0 0 0 0 0 0 0 0 0 0 0 681 681 681 669 669 663 639 645 623 613 0 618 603 603 613 608 608 613 613 613 608 613 623 623 645 669 669 675 669 675 669 657 669 651 629 629 623 634 629 645 645 645 645 629 629 629 623 613 608 603 603 608 618 618 629 634 657 657 669 675 675 681 687 687 681 675 681 0 0 0 0 0 634 639 634 645 651 634 651 669 669 657 663 669 663 663 675 675 634 669 663 651 639 634 634 629 623 629 623 623 613 618 623 618 623 629 634 629 634 639 639 639 651 651 657 657 657 669 669 675 663 657 669 675 669 669 669 669 669 663 669 645 669 657 663 669 669 669 669 669 681 669 687 681 669 639 651 663 669 681 687 694 694 694 694 694 694 663 675 675 675 669 669 675 669 675 687 681 669 669 669 669 669 663 663 663 663 681 629 663 657 657 651 651 651 645 645 657 623 629 629 634 623 618 613 613 618 629 608 613 608 608 613 613 618 618 618 623 618 618 618 623 623 629 623 634 634 629 629 639 629 623 629 645 634 629 634 645 645 651 657 645 634 623 629 634 629 629 629 629 634 634 645 634 0 0 0 0 0 0 0
    0 0 0 0 0 0 0 0 0 0 0 0 0 0 0 0 0 0 0 0 0 0 0 0 0 0 0 0 0 0 0 0 0 0 0 0 0 0 0 0 0 0 0 0 0 0 0 0 0 0 0 0 0 0 0 0 0 0 0 0 0 0 0 0 0 0 0 0 0 675 675 675 663 669 651 634 634 623 613 613 613 603 603 613 608 603 608 608 608 603 603 613 608 623 657 651 663 657 669 669 651 663 639 618 623 613 618 618 623 629 629 639 623 623 623 618 598 603 598 598 598 608 608 613 618 645 645 657 669 669 681 694 694 687 675 681 634 0 0 0 0 623 629 629 629 634 629 639 657 657 645 651 651 651 651 663 651 618 639 629 623 623 618 618 618 0 618 618 618 613 613 618 613 618 623 623 618 623 623 623 629 634 634 639 639 639 651 663 669 663 657 669 675 669 669 669 663 663 651 657 645 663 651 657 663 669 663 669 663 675 651 669 657 634 623 634 645 657 675 681 681 687 687 694 694 681 657 675 669 669 669 669 675 669 675 687 681 669 663 663 663 663 651 657 657 663 675 623 663 657 657 645 651 651 645 645 657 623 629 629 634 623 618 613 613 613 623 603 603 603 603 598 598 603 608 608 613 613 613 613 618 623 623 623 629 629 623 623 629 618 618 623 629 623 623 618 623 623 629 634 629 623 618 623 629 623 623 623 623 629 634 634 623 0 0 0 0 0 0 0
    0 0 0 0 0 0 0 0 0 0 0 0 0 0 0 0 0 0 0 0 0 0 0 0 0 0 0 0 0 0 0 0 0 0 0 0 0 0 0 0 0 0 0 0 0 0 0 0 0 0 0 0 0 0 0 0 0 0 0 0 0 0 0 0 0 0 0 0 0 657 657 657 645 657 639 634 634 623 613 613 613 598 598 608 603 598 603 603 603 598 598 603 598 608 629 623 634 634 651 651 639 645 623 608 608 608 608 613 618 618 629 629 618 618 618 613 593 598 593 593 593 598 603 603 603 629 629 645 663 663 675 694 694 681 657 663 629 0 608 608 0 623 623 623 623 623 623 634 645 645 634 634 634 639 634 639 629 608 613 608 608 608 603 608 608 608 608 613 613 613 613 618 613 613 613 613 608 618 608 613 618 623 623 623 629 629 629 651 657 651 645 657 669 657 657 651 651 639 629 623 629 639 634 639 645 657 651 657 645 657 634 639 634 623 613 623 634 645 651 669 663 669 675 675 675 669 645 669 663 663 663 663 663 663 669 687 675 663 651 651 657 657 645 651 651 657 669 629 663 663 657 651 651 651 645 645 657 623 629 629 629 623 613 603 608 603 613 603 598 593 598 593 598 598 603 598 603 608 608 613 613 613 618 623 623 623 618 618 618 618 613 613 613 608 613 608 613 608 613 613 613 613 613 618 623 623 618 623 623 623 623 623 613 0 0 0 0 0 0 0
    0 0 0 0 0 0 0 0 0 0 0 0 0 0 0 0 0 0 0 0 0 0 0 0 0 0 0 0 0 0 0 0 0 0 0 0 0 0 0 0 0 0 0 0 0 0 0 0 0 0 0 0 0 0 0 0 0 0 0 0 0 0 0 0 0 0 0 0 0 623 623 618 629 639 629 629 623 618 608 608 603 598 593 603 598 593 598 603 598 598 593 598 593 598 608 608 608 618 623 629 623 629 613 608 608 608 608 613 618 613 623 623 618 613 613 613 588 593 588 593 593 598 598 598 598 613 618 629 639 645 663 675 681 663 634 629 618 603 598 598 598 613 613 613 613 613 618 623 629 629 623 623 623 623 623 629 623 608 608 603 598 603 598 598 598 598 603 608 603 608 608 613 608 608 608 603 603 613 603 608 608 618 613 613 623 618 618 639 639 634 634 645 651 645 639 639 629 623 613 608 618 618 618 618 623 634 629 634 623 623 608 608 608 608 603 608 613 634 629 645 639 639 645 651 651 639 629 657 651 651 657 651 657 651 657 681 645 645 634 634 639 645 639 645 645 663 669 629 663 663 657 645 645 651 645 639 651 623 623 623 629 618 608 603 603 603 608 603 598 598 598 593 598 593 598 593 598 603 603 608 608 608 613 618 613 608 608 603 608 608 603 603 603 598 603 598 603 598 603 603 608 608 613 613 623 618 613 618 623 618 618 613 608 603 598 0 0 0 0 0
    0 0 0 0 0 0 0 0 0 0 0 0 0 0 0 0 0 0 0 0 0 0 0 0 0 0 0 0 0 0 0 0 0 0 0 0 0 0 0 0 0 0 0 0 0 0 0 0 0 0 0 0 0 0 0 0 0 0 0 0 0 0 0 0 0 0 0 0 0 603 603 603 608 613 608 618 608 613 603 603 598 593 593 598 598 593 598 598 593 593 593 593 593 593 603 588 593 598 598 603 608 603 603 603 603 603 608 613 613 613 618 618 613 608 613 608 584 593 588 593 588 593 593 593 593 608 608 613 623 629 634 639 639 629 618 613 608 593 593 588 588 598 598 598 598 603 603 608 613 613 613 613 613 613 613 613 613 603 603 598 593 598 593 593 598 593 598 603 603 608 603 613 608 603 603 598 598 603 588 603 603 608 608 608 618 613 613 634 629 623 629 634 639 634 629 629 618 0 603 598 603 608 608 608 613 618 618 623 613 613 603 603 603 603 598 603 603 629 618 629 629 629 629 634 634 629 623 645 639 645 651 651 651 645 645 669 623 634 623 623 629 634 629 639 639 663 663 629 663 663 657 645 645 651 639 634 645 618 623 623 623 613 603 598 598 598 603 598 598 593 598 593 598 593 598 593 593 598 603 603 608 608 608 608 608 603 598 593 598 598 598 598 598 593 603 598 598 593 593 598 603 593 0 608 618 618 613 618 618 618 623 613 603 0 593 0 0 0 0 0
    0 0 0 0 0 0 0 0 0 0 0 0 0 0 0 0 0 0 0 0 0 0 0 0 0 0 0 0 0 0 0 0 0 0 0 0 0 0 0 0 0 0 0 0 0 0 0 0 0 0 0 0 0 0 0 0 0 0 0 0 0 0 0 0 0 0 0 0 0 598 598 598 598 598 598 603 598 598 593 598 584 588 588 593 593 588 598 598 593 593 593 593 588 588 593 570 574 574 579 584 588 588 593 593 603 603 608 608 613 608 613 613 613 603 608 608 584 593 588 593 588 593 593 588 588 603 598 603 608 618 618 618 618 613 608 603 603 593 588 588 584 593 593 593 588 593 593 588 603 603 603 603 598 603 603 603 608 593 593 588 588 593 588 588 593 593 598 598 598 603 603 608 603 598 593 588 593 598 574 598 598 603 603 603 608 608 603 623 618 618 618 618 629 623 618 618 608 0 588 588 588 598 593 598 608 613 613 618 603 608 603 598 598 598 593 598 598 608 608 608 613 613 613 618 623 618 618 634 634 639 639 639 639 639 634 651 608 618 613 0 0 623 623 629 629 651 645 623 657 651 651 639 639 645 634 634 634 618 618 618 618 608 603 593 593 593 598 598 593 593 598 593 598 598 603 593 593 593 598 603 603 598 608 598 598 598 593 584 593 593 593 593 598 593 598 598 598 593 588 588 593 579 0 603 608 613 608 613 618 618 623 613 598 598 593 0 0 0 0 0
    0 0 0 0 0 0 0 0 0 0 0 0 0 0 0 0 0 0 0 0 0 0 0 0 0 0 0 0 0 0 0 0 0 0 0 0 0 0 0 0 0 0 0 0 0 0 0 0 0 0 0 0 0 0 0 0 0 0 0 0 0 0 0 0 0 0 0 0 0 598 598 598 593 598 593 593 588 593 588 588 579 584 584 593 588 588 598 598 593 593 593 593 588 588 588 566 566 570 574 579 584 584 588 588 598 603 603 603 608 608 613 613 613 608 0 613 584 598 593 593 593 593 593 588 584 603 593 598 598 608 603 608 603 608 598 598 598 588 588 584 584 593 588 588 584 588 588 574 593 593 593 593 588 593 593 593 598 584 584 584 584 588 584 584 588 588 593 593 593 598 593 603 598 593 588 584 588 593 566 588 588 593 598 598 603 603 603 618 613 613 613 613 618 613 613 608 598 584 570 579 574 584 588 593 598 603 608 613 598 603 598 593 593 593 588 598 593 603 598 598 603 603 603 608 608 608 608 618 623 629 634 634 629 629 623 629 603 613 608 0 0 613 613 618 618 639 629 618 645 639 639 634 634 639 629 629 629 613 613 613 613 598 598 588 593 593 598 593 593 593 598 593 598 598 598 584 584 584 593 598 598 593 598 593 598 593 588 579 584 588 588 584 593 588 598 593 0 588 588 588 588 574 593 588 593 603 603 608 618 618 623 608 593 593 588 0 0 0 0 0
    0 0 0 0 0 0 0 0 0 0 0 0 0 0 0 0 0 0 0 0 0 0 0 0 0 0 0 0 0 0 0 0 0 0 0 0 0 0 0 0 0 0 0 0 0 0 0 0 0 0 0 0 0 0 0 0 0 0 0 0 0 0 0 0 0 0 0 0 0 598 598 598 593 598 593 593 588 588 584 588 574 584 584 588 588 588 598 593 593 593 593 588 588 588 588 561 566 566 570 574 579 584 584 588 598 603 603 603 608 608 613 613 613 603 0 613 584 598 593 598 593 593 593 588 584 598 588 588 593 603 598 598 598 603 598 598 598 593 588 588 588 0 588 588 584 584 588 566 588 588 584 584 584 588 588 584 598 579 584 579 584 584 579 584 584 588 588 593 588 598 593 598 598 593 588 584 588 593 561 588 588 593 593 598 598 598 598 618 608 608 608 608 613 613 603 603 588 579 566 570 570 579 579 584 588 593 598 603 588 593 593 593 588 588 588 593 588 603 593 593 598 598 598 603 603 603 603 608 613 618 623 623 618 613 613 618 598 603 603 0 0 608 608 613 613 629 618 613 634 634 629 623 629 629 623 618 623 608 608 608 608 588 593 588 588 593 593 593 593 593 603 593 598 598 598 574 574 579 588 593 593 588 593 584 593 588 584 574 579 579 579 574 584 579 588 588 593 588 588 593 588 574 588 574 566 574 588 593 618 618 623 608 584 588 584 0 0 0 0 0
    0 0 0 0 0 0 0 0 0 0 0 0 0 0 0 0 0 0 0 0 0 0 0 0 0 0 0 0 0 0 0 0 0 0 0 0 0 0 0 0 0 0 0 0 0 0 0 0 0 0 0 0 0 0 0 0 0 0 0 0 0 0 0 0 0 0 0 0 0 603 598 603 593 598 593 588 588 584 579 584 570 584 579 584 584 588 593 593 593 593 593 588 588 588 588 566 561 566 566 570 579 579 584 579 593 598 598 603 603 603 603 603 603 598 0 608 588 598 598 598 598 598 598 0 588 598 588 588 593 598 598 598 598 603 598 598 598 593 588 593 0 0 593 588 584 579 588 566 584 584 579 579 584 584 584 584 598 584 584 579 579 584 579 579 579 584 584 588 584 598 593 598 598 598 588 588 593 598 561 588 588 593 593 593 598 598 598 613 603 603 603 598 598 598 588 593 584 574 566 570 570 579 574 584 584 588 588 593 579 588 588 588 588 588 588 593 593 598 593 593 593 598 598 603 603 598 598 603 603 608 608 613 603 603 598 608 588 603 598 598 598 603 603 608 608 618 613 608 623 629 618 618 618 618 618 613 613 603 603 603 603 574 593 588 588 588 593 593 593 593 603 593 598 598 593 566 561 561 574 579 579 570 579 570 584 584 574 570 570 574 574 570 579 574 574 574 584 574 574 579 579 566 566 549 549 541 541 0 0 588 608 603 579 588 584 0 0 0 0 0
    0 0 0 0 0 0 0 0 0 0 0 0 0 0 0 0 0 0 0 0 0 0 0 0 0 0 0 0 0 0 0 0 0 0 0 0 0 0 0 0 0 0 0 0 0 0 0 0 0 0 0 0 0 0 0 0 0 0 0 0 0 0 0 0 0 0 0 0 0 603 603 603 598 598 593 588 584 584 579 584 570 579 574 579 574 584 593 588 588 588 588 588 588 593 588 566 561 566 566 566 574 574 579 579 593 598 598 603 598 598 598 598 598 588 608 603 588 598 598 603 598 598 598 0 0 598 588 588 593 598 593 598 598 603 598 598 598 588 588 588 0 0 588 588 584 579 588 561 584 584 579 579 579 584 584 579 598 584 584 579 574 584 574 574 574 579 579 584 579 593 593 598 598 598 588 588 593 598 561 588 588 593 593 593 598 593 593 608 603 603 598 593 588 584 570 584 574 570 566 570 574 579 579 584 584 588 588 593 574 588 588 588 588 588 588 588 588 598 593 593 593 598 598 603 603 598 598 598 598 598 598 598 593 584 588 598 579 598 593 593 593 598 603 603 603 608 603 603 608 618 608 603 608 608 603 598 603 598 593 593 593 566 588 584 584 588 593 593 593 593 603 588 593 593 584 557 553 553 557 561 566 561 570 561 574 574 570 566 566 566 570 566 574 566 557 561 566 561 557 553 557 553 545 537 545 533 533 0 0 549 574 598 570 588 584 0 0 0 0 0
    0 0 0 0 0 0 0 0 0 0 0 0 0 0 0 0 0 0 0 0 0 0 0 0 0 0 0 0 0 0 0 0 0 0 0 0 0 0 0 0 0 0 0 0 0 0 0 0 0 0 0 0 0 0 0 0 0 0 0 0 0 0 0 0 0 0 0 0 0 608 603 613 603 603 593 593 588 584 574 579 561 566 566 570 566 584 588 588 588 588 588 588 588 593 588 570 561 566 566 566 574 579 584 579 593 603 603 608 603 598 593 593 593 584 603 598 588 598 598 603 603 603 603 0 0 598 588 593 593 598 593 598 598 603 598 593 598 588 588 588 588 593 593 588 588 579 588 561 584 584 584 584 584 584 588 584 603 588 584 579 574 584 570 566 566 574 579 579 579 593 593 598 603 598 588 588 593 593 561 588 593 593 593 598 598 598 598 613 603 603 593 588 584 579 566 579 574 570 570 574 574 584 584 588 588 593 593 593 579 593 588 593 593 588 588 593 588 598 593 593 593 598 598 598 603 598 593 593 593 598 593 598 593 584 584 593 579 593 588 593 593 598 598 598 598 608 603 603 603 608 598 593 593 593 588 584 588 584 584 584 579 557 584 584 584 588 588 593 588 588 603 588 593 588 574 557 549 549 553 557 566 561 566 561 574 570 566 566 566 566 566 557 566 553 549 549 549 545 541 537 541 541 537 529 541 525 0 0 0 541 549 593 566 584 584 0 0 0 0 0
    0 0 0 0 0 0 0 0 0 0 0 0 0 0 0 0 0 0 0 0 0 0 0 0 0 0 0 0 0 0 0 0 0 0 0 0 0 0 0 0 0 0 0 0 0 0 0 0 0 0 0 0 0 0 0 0 0 0 0 0 0 0 0 0 0 0 0 0 0 608 603 608 603 598 588 588 588 588 574 570 557 557 566 566 561 584 584 588 588 588 588 588 588 593 584 570 561 566 561 566 570 574 584 584 598 603 603 608 603 598 593 588 588 574 598 593 588 603 598 603 603 603 603 598 598 603 588 593 598 598 593 593 593 598 598 593 593 588 588 593 588 593 593 588 588 579 588 561 584 584 579 584 584 584 588 584 603 588 588 579 574 579 570 561 561 574 574 574 584 593 588 593 598 598 593 593 593 593 561 588 593 593 598 598 598 598 598 613 608 603 598 593 588 579 561 579 574 574 574 579 579 588 593 593 593 598 598 598 579 593 588 588 588 588 588 588 588 598 598 598 593 598 598 598 603 598 598 598 598 603 598 598 598 588 588 598 579 593 584 588 593 593 598 598 598 603 598 603 603 603 593 593 588 584 579 579 584 584 588 588 579 553 584 584 584 588 588 593 588 593 603 588 593 593 574 561 553 553 553 557 561 557 561 561 561 566 561 566 561 561 561 553 561 549 545 545 545 537 533 533 537 537 533 529 537 525 0 0 533 533 529 574 553 574 574 0 0 0 0 0
    0 0 0 0 0 0 0 0 0 0 0 0 0 0 0 0 0 0 0 0 0 0 0 0 0 0 0 0 0 0 0 0 0 0 0 0 0 0 0 0 0 0 0 0 0 0 0 0 0 0 0 0 0 0 0 0 0 0 0 0 0 0 0 0 0 0 0 0 0 0 0 0 0 0 0 566 579 579 566 561 553 557 561 566 557 584 584 584 584 588 584 588 588 593 584 570 561 566 561 566 570 574 584 584 593 598 598 603 598 593 584 0 0 0 598 593 588 598 598 603 598 603 603 598 598 603 588 593 593 598 588 588 588 593 593 593 598 588 588 593 593 598 593 588 588 579 588 561 584 579 584 584 584 584 588 584 598 584 588 574 566 574 570 566 557 574 570 579 584 593 588 593 598 603 593 593 598 598 566 588 593 598 598 598 598 603 598 613 608 603 598 593 588 579 561 579 579 574 579 584 584 588 598 598 598 598 603 598 584 593 588 588 588 588 588 588 588 598 598 598 593 598 598 598 603 598 598 598 593 603 598 598 603 593 593 608 584 598 579 588 588 593 593 593 593 598 593 603 598 603 598 593 588 588 588 588 593 593 593 593 584 553 584 584 579 584 588 588 588 588 603 588 588 593 570 561 553 557 553 553 557 557 557 557 557 557 557 561 561 561 561 553 561 549 545 545 541 537 533 533 537 537 537 533 537 529 529 525 533 529 525 553 545 566 566 0 0 0 0 0
    0 0 0 0 0 0 0 0 0 0 0 0 0 0 0 0 0 0 0 0 0 0 0 0 0 0 0 0 0 0 0 0 0 0 0 0 0 0 0 0 0 0 0 0 0 0 0 0 0 0 0 0 0 0 0 0 0 0 0 0 0 0 0 0 0 0 0 0 0 0 0 0 0 0 0 0 553 557 549 545 541 541 549 557 553 584 579 584 584 584 584 584 588 593 579 574 561 566 566 570 579 584 593 584 593 598 0 598 593 579 0 0 0 0 0 584 0 598 598 598 598 603 603 598 598 598 588 593 593 593 588 584 588 588 593 593 593 593 593 0 0 0 0 0 0 579 588 566 584 584 584 584 584 584 588 584 598 584 588 574 566 574 574 570 557 566 570 579 584 593 588 598 598 608 603 603 603 603 574 593 593 598 598 598 598 603 598 613 608 603 598 588 584 574 566 579 584 579 584 588 593 593 598 603 598 603 608 598 584 593 588 588 588 588 584 584 588 598 593 593 593 593 593 593 598 593 593 593 588 603 598 598 603 598 598 608 584 598 570 584 584 588 588 593 588 593 593 603 598 603 598 593 593 593 593 593 598 593 598 593 584 553 584 584 579 584 584 588 588 588 603 588 584 588 566 561 553 553 553 553 553 553 557 557 557 553 553 561 561 561 561 553 557 549 545 541 537 537 533 533 537 537 537 537 533 529 525 525 529 529 521 537 533 557 557 0 0 0 0 0
    0 0 0 0 0 0 0 0 0 0 0 0 0 0 0 0 0 0 0 0 0 0 0 0 0 0 0 0 0 0 0 0 0 0 0 0 0 0 0 0 0 0 0 0 0 0 0 0 0 0 0 0 0 0 0 0 0 0 0 0 0 0 0 0 0 0 0 0 0 0 0 0 0 0 0 0 0 545 537 529 529 529 533 545 545 579 574 579 579 584 579 579 584 593 574 574 561 566 561 570 584 598 598 579 588 0 0 0 0 0 0 0 0 0 0 574 579 593 593 593 598 603 598 593 598 598 584 588 588 588 574 574 579 579 0 0 588 588 0 0 0 0 0 0 0 0 584 561 579 579 584 584 584 584 588 588 603 588 593 584 570 579 584 574 0 0 570 584 584 593 588 598 598 608 603 608 608 608 579 598 598 598 603 598 598 603 603 613 608 603 603 588 579 570 561 579 584 584 588 588 593 598 603 603 603 603 608 598 584 593 584 588 588 588 584 584 588 593 588 593 593 593 593 593 593 593 593 593 593 603 603 598 603 603 598 608 584 598 561 579 584 588 588 588 588 593 588 603 598 603 598 598 598 598 598 598 603 598 603 598 588 553 584 584 584 584 584 584 584 584 603 579 574 574 561 557 553 553 553 553 557 557 557 561 553 553 553 557 557 557 553 549 553 545 541 541 537 533 533 533 537 537 537 533 533 529 529 529 529 529 521 533 529 549 553 0 0 0 0 0
    0 0 0 0 0 0 0 0 0 0 0 0 0 0 0 0 0 0 0 0 0 0 0 0 0 0 0 0 0 0 0 0 0 0 0 0 0 0 0 0 0 0 0 0 0 0 0 0 0 0 0 0 0 0 0 0 0 0 0 0 0 0 0 0 0 0 0 0 0 0 0 0 0 0 0 0 525 529 525 518 518 518 518 529 533 566 566 574 574 579 579 579 579 588 570 570 557 561 557 553 0 0 598 557 0 0 334 330 319 304 0 0 0 0 0 557 561 584 584 584 593 598 598 588 598 598 579 584 593 588 574 566 574 574 574 584 584 579 0 0 0 0 0 0 0 0 574 557 574 574 579 584 584 584 588 588 603 593 598 588 579 584 584 570 0 0 566 584 588 593 0 598 0 0 608 608 608 608 584 598 598 603 603 603 598 603 603 608 608 603 603 588 579 570 566 584 0 0 0 0 0 0 608 608 603 603 603 598 579 593 579 584 584 584 579 579 584 593 588 593 588 593 593 588 598 593 593 593 598 608 0 603 0 608 608 613 593 598 561 584 584 588 588 588 588 593 588 603 593 603 598 598 593 593 593 593 598 593 598 593 584 553 584 584 584 579 579 584 584 584 598 574 566 566 557 561 553 549 549 553 557 561 561 566 557 557 557 561 557 553 553 549 549 545 541 537 533 533 529 529 533 533 537 533 525 0 0 525 529 525 518 525 525 0 0 0 0 0 0 0
    0 0 0 0 0 0 0 0 0 0 0 0 0 0 0 0 0 0 0 0 0 0 0 0 0 0 0 0 0 0 0 0 0 0 0 0 0 0 0 0 0 0 0 0 0 0 0 0 0 0 0 0 0 0 0 0 0 0 0 0 0 0 0 0 0 0 0 0 0 0 0 0 0 0 0 0 511 518 518 511 511 514 511 525 514 0 553 566 566 574 574 570 574 584 561 557 545 537 0 521 0 0 0 529 0 0 0 331 318 306 0 0 0 0 0 545 549 566 566 561 574 593 588 579 593 593 553 566 598 588 566 557 561 557 557 566 561 0 0 0 0 0 0 0 0 566 561 549 566 566 574 574 574 579 588 588 603 593 598 588 574 579 570 557 0 0 0 574 584 0 0 603 603 618 608 608 603 603 588 598 598 598 603 603 603 603 603 608 0 608 608 593 0 0 570 0 0 0 593 593 0 0 608 613 608 608 608 593 579 588 574 579 579 579 574 570 579 593 584 593 593 593 593 593 598 598 593 598 598 608 608 608 0 613 613 618 608 608 561 588 584 588 588 588 588 588 588 603 593 598 593 588 593 593 593 593 593 593 598 593 584 553 579 579 579 579 574 579 579 579 598 574 557 561 557 561 553 549 549 553 553 561 553 561 549 545 549 553 553 549 549 545 549 541 541 533 533 533 529 529 533 533 0 529 0 0 521 521 521 518 511 514 514 521 521 0 0 0 0 0
    0 0 0 0 0 0 0 0 0 0 0 0 0 0 0 0 0 0 0 0 0 0 0 0 0 0 0 0 0 0 0 0 0 0 0 0 0 0 0 0 0 0 0 0 0 0 0 0 0 0 0 0 0 0 0 0 0 0 0 0 0 0 0 0 0 0 0 0 0 0 0 0 0 0 0 500 507 514 514 511 511 514 507 525 511 529 541 553 553 557 557 557 557 570 549 0 521 497 500 497 0 0 0 511 0 0 0 0 0 0 0 0 0 0 525 529 537 549 549 545 545 570 566 553 566 566 537 0 0 584 557 541 541 545 541 0 0 0 0 0 0 0 0 0 561 561 553 545 553 553 561 561 561 561 570 584 598 584 0 570 566 579 561 553 0 0 0 557 566 574 574 593 593 618 603 598 598 598 584 593 593 598 598 598 598 603 603 0 0 608 0 593 579 0 570 0 0 593 593 588 603 608 613 618 613 608 613 588 570 579 566 566 570 566 566 561 570 588 579 588 593 593 588 584 593 598 593 593 598 608 608 0 0 0 608 613 608 608 561 588 584 588 588 584 584 588 588 603 593 598 588 579 593 588 588 584 579 579 588 584 574 549 574 574 574 574 574 579 579 579 593 579 561 566 557 566 557 553 549 553 553 561 553 566 549 541 545 549 549 545 545 541 541 537 537 533 533 529 529 529 533 529 0 525 0 0 507 511 511 511 504 500 500 511 504 0 0 0 0 0
    0 0 0 0 0 0 0 0 0 0 0 0 0 0 0 0 0 0 0 0 0 0 0 0 0 0 0 0 0 0 0 0 0 0 0 0 0 0 0 0 0 0 0 0 0 0 0 0 0 0 0 0 0 0 0 0 0 0 0 0 0 0 0 0 0 0 0 0 0 0 0 0 0 0 0 500 507 511 514 511 511 514 507 525 511 521 529 541 545 541 541 537 537 537 529 507 504 493 497 493 490 504 507 507 504 514 511 0 0 0 0 514 0 518 514 518 525 533 533 529 533 549 545 541 545 537 529 525 0 0 537 529 533 533 537 0 0 0 0 0 0 0 0 0 553 553 545 533 545 541 549 545 545 545 549 557 588 561 0 0 545 561 549 0 0 0 0 537 0 0 0 549 553 613 579 553 566 579 561 584 584 588 588 588 598 598 593 603 0 608 608 584 566 561 570 0 0 593 593 584 603 603 608 608 598 584 588 545 545 553 549 553 557 557 557 553 553 561 549 553 561 557 553 549 557 566 570 574 588 598 0 0 0 0 603 608 603 598 557 584 579 584 584 579 584 584 584 603 588 588 579 566 588 0 0 570 0 557 574 566 566 545 570 570 570 574 570 574 579 579 598 579 561 566 561 570 561 557 553 553 553 561 557 566 545 537 537 541 541 537 541 533 537 529 541 537 533 533 529 529 533 529 529 521 500 507 497 497 500 500 497 497 497 504 497 0 0 0 0 0
    0 0 0 0 0 0 0 0 0 0 0 0 0 0 0 0 0 0 0 0 0 0 0 0 0 0 0 0 0 0 0 0 0 0 0 0 0 0 0 0 0 0 0 0 0 0 0 0 0 0 0 0 0 0 0 0 0 0 0 0 0 0 0 0 0 0 0 0 0 0 0 0 0 0 493 504 511 511 514 511 511 514 511 521 511 511 518 518 529 518 521 518 518 514 504 497 497 493 497 493 493 500 500 504 500 511 507 504 511 0 514 507 507 514 511 511 514 518 518 514 521 533 529 525 529 525 518 518 521 529 529 518 525 525 529 525 525 521 0 0 0 0 0 0 533 537 533 518 529 529 533 533 529 533 533 533 557 537 0 0 0 0 0 0 0 0 521 521 518 514 521 0 533 533 545 533 537 545 545 561 561 566 566 561 579 579 570 584 557 579 574 549 549 549 566 584 0 588 588 574 598 598 584 553 537 533 533 529 533 537 537 541 549 549 549 541 541 541 525 525 533 529 529 525 529 533 537 557 553 584 0 0 0 603 598 603 598 593 553 574 570 579 574 570 574 579 574 598 584 579 561 553 579 0 0 561 549 549 561 553 549 545 566 566 570 570 566 570 579 584 598 584 561 566 561 570 566 557 549 549 545 549 541 541 529 521 525 525 525 525 529 525 533 529 541 537 533 529 529 529 529 525 525 518 493 497 493 497 497 497 493 493 493 497 493 0 0 0 0 0
    0 0 0 0 0 0 0 0 0 0 0 0 0 0 0 0 0 0 0 0 0 0 0 0 0 0 0 0 0 0 0 0 0 0 0 0 0 0 0 0 0 0 0 0 0 0 0 0 0 0 0 0 0 0 0 0 0 0 0 0 0 0 0 0 0 0 0 0 0 493 0 0 0 504 497 504 511 511 514 511 514 518 511 521 511 511 507 507 514 504 511 511 507 500 500 500 497 497 497 497 493 500 500 500 500 511 504 507 511 514 514 507 507 514 514 511 514 511 507 507 514 521 514 511 518 514 511 511 511 518 518 511 0 521 521 521 518 514 504 0 0 0 0 511 514 521 518 504 518 518 521 521 518 521 518 521 533 518 514 514 514 514 511 0 0 497 511 511 504 504 511 0 525 525 537 525 529 537 537 545 545 545 545 533 545 545 541 537 533 533 533 533 541 537 549 566 0 588 584 557 0 574 545 529 529 521 525 521 525 529 529 533 537 537 541 533 533 533 511 514 521 518 518 514 521 518 525 537 533 553 0 0 0 0 598 603 598 593 549 561 561 566 561 557 557 561 561 598 574 561 553 545 561 0 0 549 541 537 541 537 533 537 553 557 557 561 557 561 574 579 593 574 553 557 557 566 561 549 545 545 537 541 533 529 521 514 518 518 514 518 518 518 525 521 529 529 525 525 521 525 525 521 521 511 493 497 493 497 497 497 497 497 497 497 493 0 0 0 0 0
    0 0 0 0 0 0 0 0 0 0 0 0 0 0 0 0 0 0 0 0 0 0 0 0 0 0 0 0 0 0 0 0 0 0 0 0 0 0 0 0 0 0 0 0 0 0 0 0 0 0 0 0 0 0 0 0 0 0 0 0 0 0 0 0 0 0 0 0 0 500 504 500 493 511 500 511 514 514 514 511 514 518 507 521 511 507 507 504 507 500 507 511 507 500 497 497 497 500 500 500 493 500 500 504 500 507 504 507 511 518 514 507 511 518 514 511 511 507 500 500 511 514 504 500 507 507 507 507 511 514 507 507 514 518 518 518 504 500 0 500 0 500 500 497 504 518 511 500 511 511 514 511 511 511 511 514 525 504 507 507 507 511 504 497 493 493 504 504 497 500 504 504 518 518 529 514 518 529 533 533 537 533 537 518 533 533 529 525 521 518 525 521 529 525 529 533 0 0 0 533 0 537 525 518 521 514 518 518 521 525 521 525 529 529 533 521 525 525 504 511 514 511 514 511 514 514 518 533 529 537 541 0 0 0 0 584 574 566 537 537 545 549 545 541 541 545 545 566 553 541 537 533 0 0 0 537 529 529 529 525 521 525 545 549 549 549 545 549 561 570 579 553 541 549 549 557 553 541 537 537 533 533 529 518 514 511 514 511 511 518 511 511 521 518 521 521 518 514 511 518 518 514 514 500 493 490 493 497 497 497 497 497 500 497 500 0 0 0 0 0
    0 0 0 0 0 0 0 0 0 0 0 0 0 0 0 0 0 0 0 0 0 0 0 0 0 0 0 0 0 0 0 0 0 0 0 0 0 0 0 0 0 0 0 0 0 0 0 0 0 0 0 0 0 0 0 0 0 0 0 0 0 0 0 0 0 0 0 0 0 507 514 514 500 518 504 514 518 514 514 511 514 518 507 521 511 507 511 504 504 500 507 511 507 500 500 497 497 500 500 500 497 500 500 504 500 507 500 507 511 518 518 507 511 518 514 511 514 507 504 504 511 514 504 500 507 504 504 507 507 511 504 500 507 0 514 511 493 497 0 493 493 497 497 497 504 514 507 500 511 511 511 507 507 507 507 507 521 500 504 500 504 507 504 493 493 493 511 504 500 500 504 504 514 518 521 507 514 521 525 529 533 525 529 511 525 525 518 521 518 507 518 514 525 518 518 521 518 521 525 511 514 518 507 511 518 511 518 518 518 521 521 521 525 518 525 511 514 511 497 507 511 511 511 507 511 511 514 529 518 525 533 529 541 0 0 545 545 537 533 529 533 533 533 529 525 529 529 529 533 525 525 514 0 0 0 525 518 518 521 518 518 518 529 537 537 541 537 541 553 561 561 541 537 541 541 545 541 537 533 533 529 529 525 511 511 507 511 511 507 514 507 507 518 511 514 504 500 497 493 500 500 500 497 490 487 484 490 497 497 497 497 497 500 500 504 0 0 0 0 0
    0 0 0 0 0 0 0 0 0 0 0 0 0 0 0 0 0 0 0 0 0 0 0 0 0 0 0 0 0 0 0 0 0 0 0 0 0 0 0 0 0 0 0 0 0 0 0 0 0 0 0 0 0 0 0 0 0 0 0 0 0 0 0 0 0 0 0 0 0 518 518 521 507 525 511 518 518 514 518 514 514 518 507 521 514 511 514 507 504 504 507 514 511 504 500 500 500 507 504 504 497 504 500 504 504 511 504 507 511 518 514 500 507 514 514 511 511 507 504 504 514 511 500 500 507 500 500 504 504 511 500 504 507 514 514 514 497 500 493 497 490 497 497 497 500 514 507 497 507 507 511 507 507 507 504 504 518 497 500 500 504 507 504 497 497 500 514 507 500 504 507 507 514 514 518 504 511 521 521 521 529 521 525 504 521 521 514 518 514 504 514 511 521 514 518 518 514 518 525 511 514 511 500 507 518 511 514 518 518 518 518 518 521 514 521 507 504 504 497 507 511 507 507 507 511 507 514 525 514 514 521 518 529 0 533 533 533 533 529 525 525 525 525 521 518 518 514 514 0 0 511 500 507 500 504 514 511 511 511 514 511 511 518 525 525 529 529 533 541 553 549 537 529 537 537 541 537 533 529 529 521 525 521 507 507 507 511 511 507 518 511 511 521 514 514 0 0 0 0 0 490 490 487 484 487 484 487 497 493 493 493 497 500 497 504 0 0 0 0 0
    0 0 0 0 0 0 0 0 0 0 0 0 0 0 0 0 0 0 0 0 0 0 0 0 0 0 0 0 0 0 0 0 0 0 0 0 0 0 0 0 0 0 0 0 0 0 0 0 0 0 0 0 0 0 0 0 0 0 0 0 0 0 0 0 0 0 0 0 0 521 521 525 514 525 514 518 521 514 518 514 514 518 511 521 518 511 514 507 504 504 507 511 511 504 504 504 504 511 507 507 500 504 504 511 507 511 504 507 514 518 514 500 511 514 511 507 511 507 504 504 518 511 504 500 511 500 500 504 500 504 497 500 500 507 511 514 497 500 497 504 490 497 493 497 500 514 507 497 511 511 511 507 507 507 504 504 518 497 500 497 504 507 504 500 500 504 514 511 504 504 507 507 514 518 518 507 511 521 518 521 525 518 518 500 518 514 511 514 511 504 511 507 521 511 514 514 511 511 518 504 511 504 497 507 514 507 514 514 518 514 514 518 518 511 518 504 504 500 493 507 511 507 507 507 511 507 514 525 511 511 518 514 525 525 525 525 529 525 525 518 521 521 521 518 514 511 507 504 504 507 500 497 500 493 500 511 507 507 507 511 511 511 514 518 514 518 521 525 529 541 537 529 525 529 529 533 533 529 525 525 514 518 514 507 507 507 507 507 507 518 514 511 521 518 518 0 0 0 0 0 493 497 487 484 484 481 487 493 493 493 493 497 500 497 504 0 0 0 0 0
    0 0 0 0 0 0 0 0 0 0 0 0 0 0 0 0 0 0 0 0 0 0 0 0 0 0 0 0 0 0 0 0 0 0 0 0 0 0 0 0 0 0 0 0 0 0 0 0 0 0 0 0 0 0 0 0 0 0 0 0 0 0 0 0 0 0 0 0 0 525 529 529 518 529 514 518 521 518 518 514 518 521 511 521 518 511 514 507 504 507 507 514 514 504 504 504 507 514 511 511 504 507 504 514 507 514 504 511 514 518 518 500 511 514 514 511 511 507 507 504 521 511 507 504 514 507 504 511 507 507 493 500 497 507 504 511 490 493 490 500 484 500 493 493 500 514 507 497 511 511 511 507 507 507 504 504 518 497 500 500 500 507 504 500 500 504 514 514 504 504 507 507 514 518 518 504 507 518 514 518 521 514 514 497 518 511 507 514 511 504 511 507 521 507 511 511 507 504 511 497 507 500 497 507 511 507 511 514 514 514 514 518 518 511 518 507 504 497 493 507 511 507 507 504 507 507 511 521 511 511 518 514 521 518 521 518 525 518 518 511 511 511 514 511 507 500 500 493 493 500 493 493 497 490 497 507 504 504 507 507 507 507 514 514 507 511 514 514 514 529 529 521 521 525 521 525 525 525 518 514 504 507 511 504 504 507 507 507 507 518 514 511 521 518 511 507 507 497 493 490 490 493 490 484 484 481 490 497 493 493 493 497 500 497 504 0 0 0 0 0
    0 0 0 0 0 0 0 0 0 0 0 0 0 0 0 0 0 0 0 0 0 0 0 0 0 0 0 0 0 0 0 0 0 0 0 0 0 0 0 0 0 0 0 0 0 0 0 0 0 0 0 0 0 0 0 0 0 0 0 0 0 0 0 0 0 0 0 0 0 525 529 529 518 525 514 518 521 514 514 514 514 518 507 521 518 511 514 511 507 511 511 518 518 511 507 511 511 514 514 511 504 507 507 514 514 518 507 514 518 518 521 497 514 514 514 511 511 507 507 504 521 511 507 507 518 514 507 518 514 514 500 504 500 518 514 529 504 500 0 507 487 500 497 493 497 511 507 497 507 507 507 507 507 507 504 504 518 500 504 500 500 507 504 500 500 504 511 511 500 504 507 504 511 514 514 504 504 514 511 518 518 514 518 497 518 511 511 514 511 504 511 507 521 507 511 511 504 504 511 497 507 500 497 504 511 507 511 514 514 511 514 518 518 511 518 511 507 500 497 507 511 507 507 507 507 507 511 521 511 507 514 514 518 518 521 518 525 518 521 514 518 514 518 514 507 500 500 493 490 493 490 490 493 490 497 504 504 500 504 507 507 507 514 514 504 507 511 507 507 521 521 514 518 518 518 521 518 518 514 511 497 500 504 500 504 507 507 507 504 518 518 511 521 511 497 493 490 487 484 481 477 484 477 477 481 481 490 500 500 500 500 504 504 500 507 0 0 0 0 0
    0 0 0 0 0 0 0 0 0 0 0 0 0 0 0 0 0 0 0 0 0 0 0 0 0 0 0 0 0 0 0 0 0 0 0 0 0 0 0 0 0 0 0 0 0 0 0 0 0 0 0 0 0 0 0 0 0 0 0 0 0 0 0 0 0 0 0 0 0 525 529 529 518 525 514 518 521 514 514 511 514 518 507 518 514 504 507 507 504 507 511 518 518 511 511 511 514 518 514 514 507 507 507 514 514 518 507 514 521 518 525 497 514 514 514 507 511 507 507 507 518 507 504 507 514 511 504 514 511 514 500 504 500 525 521 537 537 525 0 518 493 500 497 493 497 507 500 497 507 507 507 507 507 507 504 507 518 500 507 500 500 507 504 500 500 500 507 507 500 500 504 504 511 514 514 504 504 514 514 518 518 518 518 493 514 511 507 514 507 504 511 507 521 507 511 511 504 504 507 497 507 500 500 504 507 507 511 514 514 511 511 518 514 514 518 511 511 504 497 511 511 507 507 507 507 504 511 521 507 507 511 511 514 514 518 514 521 518 521 518 521 518 518 518 511 500 497 490 487 490 487 490 490 487 493 504 500 500 504 504 504 504 514 511 504 504 507 507 504 514 511 507 514 514 511 514 507 507 507 507 493 497 504 500 504 507 504 504 504 518 514 507 518 500 490 487 487 481 474 474 471 477 477 477 481 481 493 504 504 504 500 504 507 500 504 0 0 0 0 0
    0 0 0 0 0 0 0 0 0 0 0 0 0 0 0 0 0 0 0 0 0 0 0 0 0 0 0 0 0 0 0 0 0 0 0 0 0 0 0 0 0 0 0 0 0 0 0 0 0 0 0 0 0 0 0 0 0 0 0 0 0 0 0 0 0 0 0 0 0 529 533 533 518 529 514 518 518 514 514 511 514 518 507 518 514 504 507 507 504 507 511 518 518 514 514 514 518 521 518 514 507 507 511 518 518 514 504 511 518 518 521 493 511 514 514 507 511 507 507 507 518 507 507 507 518 514 504 511 507 514 500 500 497 521 518 537 537 533 0 0 0 504 497 493 493 507 500 497 511 507 511 511 511 511 507 511 521 507 514 504 504 507 507 504 500 500 504 504 500 500 500 504 507 514 514 507 504 514 518 521 518 518 518 493 514 507 507 514 507 504 507 504 518 504 507 507 504 504 507 497 507 500 500 507 507 507 511 511 514 507 511 518 514 514 514 511 511 504 497 511 511 511 507 507 504 500 507 521 504 504 507 507 514 514 518 514 518 518 521 521 521 521 518 521 514 504 497 490 487 490 487 490 490 490 497 500 500 500 504 504 504 504 514 507 500 504 507 504 504 507 504 500 507 511 504 507 504 504 504 504 493 500 504 500 504 507 507 507 507 521 518 507 518 497 490 490 487 477 474 471 468 471 471 474 474 474 493 504 507 504 504 504 507 500 507 0 0 0 0 0
    0 0 0 0 0 0 0 0 0 0 0 0 0 0 0 0 0 0 0 0 0 0 0 0 0 0 0 0 0 0 0 0 0 0 0 0 0 0 0 0 0 0 0 0 0 0 0 0 0 0 0 0 0 0 0 0 0 0 0 0 0 0 0 0 0 0 0 0 0 529 533 533 521 529 511 518 518 514 514 511 514 518 507 521 511 507 507 507 504 511 514 521 521 518 518 518 518 521 518 514 511 511 511 518 514 514 507 511 518 511 518 493 511 514 514 507 511 511 511 507 521 511 507 511 518 518 504 514 511 518 504 504 500 518 514 529 533 529 518 0 0 0 497 0 493 507 500 497 511 507 511 511 511 514 507 514 521 511 514 504 504 511 511 504 500 500 500 504 500 497 500 500 504 511 511 507 504 511 514 518 514 518 518 493 514 507 507 511 507 504 507 504 518 500 507 504 504 500 511 500 511 500 500 511 507 507 511 511 514 507 514 518 514 518 514 518 514 500 500 511 511 511 504 504 504 500 507 521 504 504 507 507 514 514 521 514 518 518 521 525 525 521 521 521 514 504 493 490 487 490 490 490 490 487 497 500 500 500 504 504 504 504 514 507 500 504 507 504 500 504 504 500 507 507 504 507 500 504 500 504 493 500 504 504 504 507 507 507 507 521 518 504 511 493 487 487 487 477 474 471 468 468 468 468 468 465 484 500 504 500 500 504 507 500 504 0 0 0 0 0
    0 0 0 0 0 0 0 0 0 0 0 0 0 0 0 0 0 0 0 0 0 0 0 0 0 0 0 0 0 0 0 0 0 0 0 0 0 0 0 0 0 0 0 0 0 0 0 0 0 0 0 0 0 0 0 0 0 0 0 0 0 0 0 0 0 0 0 0 0 533 533 533 518 529 507 514 514 511 511 511 511 514 507 521 514 507 507 507 504 511 514 518 518 514 518 518 518 521 521 514 514 511 511 518 514 514 507 507 518 507 514 493 511 514 514 507 511 511 511 507 518 514 507 507 518 518 504 511 511 521 507 507 504 518 518 529 533 529 518 518 511 514 504 0 0 507 500 497 511 507 514 514 511 514 511 514 525 511 514 504 500 507 511 504 500 500 497 504 500 497 497 500 504 511 511 507 504 511 511 518 511 514 514 493 511 504 507 511 507 504 507 504 518 500 507 504 500 500 507 500 511 500 504 511 507 511 511 514 514 507 514 521 514 521 514 518 514 497 497 511 507 507 504 504 504 500 507 518 500 504 500 504 511 511 518 514 521 521 525 529 529 529 525 525 514 497 490 487 484 487 487 490 490 487 497 500 500 504 504 504 504 504 518 507 504 507 507 504 500 504 504 500 504 507 504 504 500 500 500 504 493 500 504 504 507 507 507 507 504 525 518 497 500 490 487 487 484 474 474 471 468 468 468 468 462 462 477 490 497 493 493 497 500 497 497 0 0 0 0 0
    0 0 0 0 0 0 0 0 0 0 0 0 0 0 0 0 0 0 0 0 0 0 0 0 0 0 0 0 0 0 0 0 0 0 0 0 0 0 0 0 0 0 0 0 0 0 0 0 0 0 0 0 0 0 0 0 0 0 0 0 0 0 0 0 0 0 0 0 0 533 529 529 507 521 500 511 511 507 504 507 507 511 504 521 514 507 507 507 504 511 511 518 518 0 0 518 518 521 521 0 518 511 514 514 514 514 507 511 518 504 514 493 511 514 514 507 511 511 511 507 518 514 507 507 514 514 500 511 511 521 511 507 507 521 521 533 537 537 529 0 0 0 0 0 0 504 497 493 511 507 511 514 511 514 511 514 525 514 518 507 504 511 511 504 500 500 497 504 500 497 497 500 504 511 511 511 507 511 511 518 507 511 511 490 511 504 504 507 504 504 504 504 518 500 507 504 500 500 504 500 511 500 500 511 504 511 507 511 514 507 514 521 514 521 514 521 514 493 497 511 507 507 504 504 504 500 507 514 497 497 493 493 497 500 514 507 518 518 525 525 529 529 525 521 507 493 490 487 484 487 487 490 490 490 497 500 504 504 504 507 504 507 518 511 507 507 511 507 500 504 504 497 504 507 500 500 497 497 497 500 493 500 504 507 507 507 507 507 504 529 521 497 493 490 487 487 484 471 471 468 468 468 468 468 462 459 474 477 0 477 477 477 481 484 477 0 0 0 0 0
    0 0 0 0 0 0 0 0 0 0 0 0 0 0 0 0 0 0 0 0 0 0 0 0 0 0 0 0 0 0 0 0 0 0 0 0 0 0 0 0 0 0 0 0 0 0 0 0 0 0 0 0 0 0 0 0 0 0 0 0 0 0 0 0 0 0 0 0 0 525 525 514 497 511 493 507 507 504 504 504 507 511 504 518 511 507 504 504 504 507 511 514 521 0 0 0 0 0 0 0 518 511 514 511 514 514 511 511 518 500 514 493 511 514 514 507 507 511 511 507 518 514 507 507 514 518 507 511 511 521 511 507 504 0 0 0 0 0 0 0 0 0 0 0 0 0 493 493 511 504 511 511 511 514 507 514 525 514 521 511 507 511 514 504 497 500 493 500 497 497 497 500 504 514 514 514 507 511 511 514 507 511 511 490 511 504 504 507 507 507 507 504 518 497 504 504 500 500 500 500 507 500 504 514 504 511 507 511 511 507 514 518 507 521 511 518 514 493 497 511 504 507 504 504 500 500 504 511 490 490 487 487 490 497 504 497 514 518 521 525 529 529 521 514 504 493 490 490 484 487 487 493 493 490 500 504 504 504 507 507 507 511 521 514 514 514 514 511 507 507 504 500 500 504 497 497 493 493 493 500 490 500 504 504 504 507 504 504 504 521 511 490 487 487 484 487 484 468 471 468 468 471 468 468 465 462 477 0 0 477 474 471 0 474 468 0 0 0 0 0
    0 0 0 0 0 0 0 0 0 0 0 0 0 0 0 0 0 0 0 0 0 0 0 0 0 0 0 0 0 0 0 0 0 0 0 0 0 0 0 0 0 0 0 0 0 0 0 0 0 0 0 0 0 0 0 0 0 0 0 0 0 0 0 0 0 0 0 0 0 521 521 504 490 507 490 504 504 504 500 504 504 511 504 518 507 504 504 507 504 507 511 514 0 0 0 0 0 97 0 0 521 511 514 511 518 514 507 514 518 497 511 493 507 514 511 507 507 511 511 511 518 514 511 511 518 521 0 514 511 518 511 0 0 0 0 0 0 0 221 216 0 0 0 0 0 0 493 493 507 500 507 511 511 511 507 514 525 514 521 514 511 511 511 500 497 497 493 497 493 493 0 500 507 514 518 514 511 511 514 514 504 511 511 490 507 500 504 507 507 511 507 504 521 500 507 504 504 500 504 500 507 500 504 514 507 511 511 511 514 507 514 518 504 521 511 518 514 497 497 511 507 511 504 504 504 500 504 511 487 487 484 487 490 497 504 500 511 514 521 525 525 525 518 511 500 493 490 490 484 487 484 490 490 490 500 500 504 504 507 507 507 511 521 511 514 514 511 507 504 504 504 500 500 504 497 497 493 493 490 500 490 500 504 504 504 504 504 504 504 521 500 490 487 484 484 484 477 462 465 465 465 468 465 468 465 465 477 477 481 477 474 471 471 471 462 0 0 0 0 0
    0 0 0 0 0 0 0 0 0 0 0 0 0 0 0 0 0 0 0 0 0 0 0 0 0 0 0 0 0 0 0 0 0 0 0 0 0 0 0 0 0 0 0 0 0 0 0 0 0 0 0 0 0 0 0 0 0 0 0 0 0 0 0 0 0 0 0 0 0 518 514 500 493 507 490 504 500 504 500 504 504 507 504 518 504 504 504 507 507 507 511 511 0 0 0 0 0 0 0 0 521 514 518 507 514 514 504 507 511 497 504 493 504 511 511 507 507 511 511 511 514 514 507 507 0 0 0 0 504 511 0 0 0 0 0 0 223 223 219 215 0 0 193 0 0 0 490 493 507 500 507 511 511 511 507 518 525 514 525 514 511 511 511 500 497 497 490 497 0 0 0 504 511 521 521 518 514 514 518 514 500 511 511 490 507 500 504 507 507 511 507 507 521 504 511 507 507 504 507 504 511 500 507 514 507 511 511 511 514 511 518 521 511 529 521 525 525 504 504 514 507 514 507 507 504 500 504 504 484 484 484 484 487 493 500 500 511 514 521 525 525 525 518 511 500 493 490 490 484 484 484 490 490 490 504 500 504 507 507 507 507 511 521 504 511 514 504 504 500 500 500 497 500 504 497 497 493 497 490 504 490 504 504 504 507 504 500 504 500 521 493 487 487 484 484 481 477 459 459 462 459 459 454 457 459 459 474 471 471 471 471 465 465 465 454 0 0 0 0 0
    0 0 0 0 0 0 0 0 0 0 0 0 0 0 0 0 0 0 0 0 0 0 0 0 0 0 0 0 0 0 0 0 0 0 0 0 0 0 0 0 0 0 0 0 0 0 0 0 0 0 0 0 0 0 0 0 0 0 0 0 0 0 0 0 0 0 0 0 0 511 507 497 493 507 490 500 497 500 500 500 500 504 500 518 500 504 497 500 500 0 507 0 0 0 0 0 0 0 0 0 0 514 518 504 504 0 497 0 504 493 497 493 500 511 511 507 507 511 511 511 514 518 511 507 0 0 0 0 0 0 0 0 0 0 0 0 222 221 218 215 0 195 193 194 193 0 490 493 504 500 507 511 511 511 507 518 525 518 0 518 518 514 514 504 0 0 0 500 0 0 0 0 518 0 525 525 518 518 518 511 497 507 507 490 504 497 504 504 507 511 511 507 521 504 514 511 511 507 511 507 514 504 507 518 511 514 514 511 514 511 521 521 507 537 529 529 529 504 504 514 507 514 507 507 500 497 500 497 481 481 481 481 487 493 500 500 514 514 521 525 525 525 514 511 500 493 490 490 487 487 487 497 493 493 504 504 504 507 507 507 507 511 521 500 514 511 500 500 497 497 497 493 497 497 493 493 490 493 490 500 490 507 507 507 507 504 500 504 500 521 490 487 487 484 487 487 481 468 462 462 459 457 451 454 454 457 474 477 474 468 468 459 457 459 451 0 0 0 0 0
    0 0 0 0 0 0 0 0 0 0 0 0 0 0 0 0 0 0 0 0 0 0 0 0 0 0 0 0 0 0 0 0 0 0 0 0 0 0 0 0 0 0 0 0 0 0 0 0 0 0 0 0 0 0 0 0 0 0 0 0 0 0 0 0 0 0 0 0 0 493 497 484 0 493 484 493 490 493 497 493 493 493 490 500 0 493 487 0 0 0 0 0 0 230 232 230 0 0 233 0 0 0 0 0 283 0 0 0 0 0 0 0 497 507 507 507 507 511 511 514 518 521 518 514 0 0 0 0 0 0 0 0 0 0 0 0 221 221 219 217 0 195 193 193 193 0 0 0 504 497 504 507 507 511 507 518 529 521 0 0 525 521 518 511 0 0 0 0 0 0 0 0 529 537 0 525 0 518 518 507 497 504 504 490 504 497 504 504 511 514 511 507 525 507 518 514 511 511 511 511 518 504 511 521 511 514 511 511 518 514 521 525 504 545 541 0 537 504 504 518 511 518 511 507 504 500 504 500 481 481 477 474 487 493 497 500 511 511 518 521 521 521 511 504 497 490 490 490 487 487 487 497 493 493 504 504 504 507 507 507 507 511 521 504 518 514 507 507 500 500 500 497 497 493 490 493 490 493 490 500 490 507 511 511 507 507 504 507 504 525 490 487 487 487 487 487 484 471 468 465 462 462 457 457 459 457 474 481 481 477 477 471 471 477 465 0 0 0 0 0
    0 0 0 0 0 0 0 0 0 0 0 0 0 0 0 0 0 0 0 0 0 0 0 0 0 0 0 0 0 0 0 0 0 0 0 0 0 0 0 0 0 0 0 0 0 0 0 0 0 0 0 0 0 0 0 0 0 0 0 0 0 0 0 0 0 0 0 0 0 474 487 468 0 474 468 0 474 0 0 474 477 0 0 0 0 0 0 0 0 0 0 228 227 228 231 229 0 0 232 231 0 0 0 0 284 0 0 0 283 278 275 0 0 0 507 507 511 511 511 518 518 525 521 0 0 0 0 0 0 0 0 135 134 0 0 0 0 0 219 0 0 0 191 191 191 0 0 0 493 490 497 500 500 504 507 514 529 0 0 0 0 529 521 0 0 0 0 0 0 0 0 0 0 0 0 0 521 514 511 500 493 500 504 490 504 497 504 507 514 518 514 511 525 514 521 514 511 507 507 507 518 504 514 521 514 518 514 514 521 518 529 525 504 0 0 0 541 500 507 518 511 518 514 514 507 504 504 500 481 481 474 465 484 490 493 497 511 511 518 521 518 518 504 500 490 490 487 490 487 487 487 497 493 493 507 504 507 507 507 511 507 511 518 504 521 0 0 0 500 504 507 500 500 493 493 500 493 497 487 500 490 511 514 511 507 507 504 507 504 521 490 487 487 487 487 484 484 474 468 471 468 468 465 465 471 468 477 484 481 481 477 471 0 0 0 0 0 0 0 0
    0 0 0 0 0 0 0 0 0 0 0 0 0 0 0 0 0 0 0 0 0 0 0 0 0 0 0 0 0 0 0 0 0 0 0 0 0 0 0 0 0 0 0 0 0 0 0 0 0 0 0 0 0 0 0 0 0 0 0 0 0 0 0 0 0 0 0 0 0 440 446 440 435 440 443 432 446 0 0 0 432 438 0 0 0 0 0 0 0 0 0 0 0 0 0 0 0 0 233 231 0 0 0 0 0 0 0 0 285 278 0 0 0 0 0 0 511 511 0 0 518 0 0 0 0 0 0 0 0 0 0 0 136 137 137 0 0 0 0 0 0 184 0 0 188 0 0 0 0 484 0 0 0 0 0 0 0 0 0 0 0 0 0 0 0 0 0 0 0 0 0 0 0 0 0 0 0 514 500 493 490 497 504 487 500 0 507 0 0 0 0 514 529 518 0 0 514 507 507 507 518 504 518 525 514 518 518 518 521 518 529 521 493 0 0 0 0 504 507 518 514 521 518 518 511 504 500 490 474 471 459 448 459 0 490 493 514 511 518 521 518 518 497 497 490 490 490 490 487 487 487 497 493 497 507 504 507 511 511 511 511 514 521 507 0 0 0 0 500 507 514 507 504 497 497 511 504 500 487 500 490 511 514 511 507 507 504 507 504 521 493 490 487 487 487 484 481 474 468 468 468 468 468 471 477 477 490 500 493 481 474 471 451 0 435 0 0 0 0 0
    0 0 0 0 0 0 0 0 0 0 0 0 0 0 0 0 0 0 0 0 0 0 0 0 0 0 0 0 0 0 0 0 0 0 0 0 0 0 0 0 0 0 0 0 0 0 0 0 0 0 0 0 0 0 0 0 0 0 0 0 0 0 0 0 0 0 0 0 0 435 435 432 430 435 435 427 432 435 0 0 422 425 422 0 0 0 0 0 0 0 0 0 0 0 0 0 0 0 0 0 0 0 0 0 0 0 0 0 0 0 0 215 215 0 0 0 0 0 0 0 0 0 155 0 0 0 134 0 0 136 0 137 137 137 137 0 0 0 0 0 0 184 0 0 0 0 430 418 422 443 0 0 0 0 0 0 0 0 0 0 0 0 0 0 0 0 0 0 0 0 0 0 0 0 0 0 0 533 504 487 484 0 0 0 0 0 0 0 0 0 0 0 0 0 0 0 0 0 0 500 504 497 525 525 514 511 511 507 518 504 525 487 474 0 0 0 0 0 511 514 514 525 518 521 511 497 493 481 471 462 448 440 448 0 0 0 500 0 0 0 511 511 497 493 487 490 490 490 487 487 484 493 490 497 507 504 507 507 507 511 507 514 518 507 0 0 0 0 0 514 525 521 507 500 500 521 518 504 487 504 490 511 514 511 507 507 504 511 507 525 497 493 490 490 490 487 484 474 468 468 465 468 471 474 481 481 504 525 504 487 477 477 440 0 432 0 0 0 0 0
    0 0 0 0 0 0 0 0 0 0 0 0 0 0 0 0 0 0 0 0 0 0 0 0 0 0 0 0 0 0 0 0 0 0 0 0 0 0 0 0 0 0 0 0 0 0 0 0 0 0 0 0 0 0 0 0 0 0 0 0 0 0 0 0 0 0 0 0 0 435 432 430 427 430 430 425 427 430 402 411 411 418 422 422 0 0 415 0 0 0 413 411 0 0 0 418 0 0 0 0 0 0 0 0 0 0 0 0 0 438 0 0 216 0 0 0 0 0 0 0 0 0 0 0 0 134 134 136 0 0 0 0 0 0 0 211 0 0 0 0 0 0 425 425 422 420 425 411 415 425 422 0 0 0 0 0 0 0 0 0 0 0 430 0 0 0 0 981 981 994 943 865 0 0 0 0 0 0 0 465 0 0 0 0 0 0 0 0 0 0 0 0 0 6690 0 0 0 0 0 0 0 0 518 521 511 0 0 0 0 462 0 457 0 0 0 0 0 0 0 0 518 533 521 525 497 0 481 468 459 446 0 0 0 425 0 0 0 257 254 0 0 0 497 497 487 487 487 487 487 484 477 487 487 493 504 500 504 500 500 504 500 504 514 0 6690 4906 0 0 0 0 0 0 500 0 0 0 521 493 484 500 487 507 514 511 507 507 504 511 507 525 504 497 497 500 493 493 490 481 471 471 468 468 471 474 484 487 518 529 511 487 477 468 435 432 430 0 0 0 0 0
    0 0 0 0 0 0 0 0 0 0 0 0 0 0 0 0 0 0 0 0 0 0 0 0 0 0 0 0 0 0 0 0 0 0 0 0 0 0 0 0 0 0 0 0 0 0 0 0 0 0 0 0 0 0 0 0 0 0 0 0 0 0 0 0 0 0 0 0 0 435 430 427 427 430 427 425 427 435 411 420 415 422 427 425 0 0 415 0 422 422 418 413 0 0 418 420 418 415 415 0 0 0 0 427 430 432 0 0 435 435 435 0 0 0 0 0 0 0 0 0 0 0 0 0 0 135 135 0 0 427 425 422 422 425 427 0 432 418 425 430 422 422 422 422 418 415 422 411 415 420 418 422 0 0 0 0 0 0 0 0 0 430 427 427 427 0 0 943 0 908 886 0 0 0 0 0 432 430 430 435 432 430 0 155 156 0 0 158 0 0 0 0 0 0 0 427 430 430 430 430 432 435 451 454 451 440 443 0 440 440 438 438 432 0 0 1268 0 0 0 0 0 0 0 0 0 427 0 440 435 430 413 408 406 0 427 427 0 0 0 0 0 0 0 493 0 484 481 477 474 471 468 474 477 484 497 493 504 500 497 497 490 0 0 7359 6690 5661 0 0 0 0 0 0 0 0 0 0 0 0 446 0 0 497 504 507 504 500 504 507 504 525 504 497 500 504 497 493 493 481 474 474 474 471 474 474 490 493 529 529 507 484 0 451 432 430 427 0 0 0 0 0
    0 0 0 0 0 0 0 0 0 0 0 0 0 0 0 0 0 0 0 0 0 0 0 0 0 0 0 0 0 0 0 0 0 0 0 0 0 0 0 0 0 0 0 0 0 0 0 0 0 0 0 0 0 0 0 0 0 0 0 0 0 0 0 0 0 0 0 0 0 435 427 427 425 430 430 427 432 438 427 430 425 430 430 425 415 425 415 0 425 425 420 418 0 0 420 422 422 420 418 422 0 425 425 430 430 432 435 435 435 435 435 432 432 0 0 0 0 0 0 0 0 0 0 0 0 0 0 427 430 427 425 422 422 427 430 438 432 422 427 430 425 425 425 422 420 415 422 411 415 420 415 420 420 422 422 422 0 430 427 430 425 430 427 430 427 425 422 0 0 435 427 427 427 425 430 420 427 427 425 427 430 427 427 0 0 0 0 0 0 0 0 420 425 425 425 425 427 427 427 427 430 430 438 438 438 435 435 435 438 438 438 438 435 435 432 0 0 0 0 0 0 0 0 432 430 422 430 435 432 430 418 418 413 415 427 425 425 422 425 0 0 0 0 0 0 0 0 468 465 0 0 0 0 0 497 490 504 497 487 487 0 0 0 0 0 6690 0 0 0 0 0 0 438 438 432 427 427 0 427 427 0 0 0 493 493 493 497 500 500 514 500 497 500 511 497 493 493 481 474 474 471 468 471 477 490 490 493 500 490 465 435 435 427 425 425 0 0 0 0 0
    0 0 0 0 0 0 0 0 0 0 0 0 0 0 0 0 0 0 0 0 0 0 0 0 0 0 0 0 0 0 0 0 0 0 0 0 0 0 0 0 0 0 0 0 0 0 0 0 0 0 0 0 0 0 0 0 0 0 0 0 0 0 0 0 0 0 0 0 0 432 425 425 425 430 430 430 432 438 430 430 427 0 427 420 415 422 413 425 425 422 422 420 420 0 422 425 425 422 422 425 0 427 427 432 430 432 432 435 432 432 432 432 430 432 430 425 0 0 0 0 0 0 0 0 0 0 0 425 427 427 425 422 422 427 427 438 432 422 427 430 427 427 425 422 420 415 422 411 418 420 415 420 420 422 422 422 432 432 427 430 425 430 427 430 427 425 422 427 430 430 427 422 425 420 425 418 425 427 425 425 427 425 427 425 0 0 0 0 0 425 425 420 425 425 425 425 427 427 427 427 430 430 432 432 432 430 435 435 440 440 438 438 435 435 435 435 0 0 0 0 0 0 430 425 422 415 427 435 435 435 425 425 422 420 427 427 425 422 422 427 427 430 448 465 462 457 468 459 454 0 0 0 0 0 0 0 0 0 462 0 0 0 0 0 0 0 7359 0 0 0 0 0 0 432 427 422 425 422 425 425 427 427 430 477 484 484 490 497 497 500 500 497 504 521 500 487 493 481 471 474 471 471 471 477 490 484 477 481 471 443 427 430 425 422 422 0 0 0 0 0
    0 0 0 0 0 0 0 0 0 0 0 0 0 0 0 0 0 0 0 0 0 0 0 0 0 0 0 0 0 0 0 0 0 0 0 0 0 0 0 0 0 0 0 0 0 0 0 0 0 0 0 0 0 0 0 0 0 0 0 0 0 0 0 0 0 0 0 0 0 430 422 422 425 427 430 430 432 438 430 430 427 427 427 422 418 422 413 422 422 422 422 420 420 425 420 425 425 425 425 422 0 425 427 432 432 430 432 432 432 430 432 430 427 430 430 422 0 0 0 0 0 0 0 0 0 0 0 425 427 427 425 422 422 427 427 435 432 425 427 430 427 427 425 425 422 418 422 411 418 420 415 420 418 422 422 422 432 432 430 430 427 430 427 427 427 425 425 425 430 427 425 422 422 420 425 418 425 427 425 425 427 425 427 425 0 0 0 0 0 425 425 420 425 425 425 422 427 425 425 425 430 427 430 430 430 427 432 432 435 435 432 435 432 435 435 432 432 430 0 0 0 427 425 420 415 408 422 430 435 435 430 430 427 422 430 427 427 422 422 425 425 427 443 443 443 0 0 443 443 0 0 0 0 0 0 0 0 0 0 0 0 0 233 0 0 0 0 0 0 0 432 435 430 430 422 420 422 420 425 425 0 427 0 0 0 0 0 0 0 0 507 507 0 537 500 0 484 477 468 0 0 477 468 474 487 484 468 446 438 435 420 427 422 420 420 0 0 0 0 0
    0 0 0 0 0 0 0 0 0 0 0 0 0 0 0 0 0 0 0 0 0 0 0 0 0 0 0 0 0 0 0 0 0 0 0 0 0 0 0 0 0 0 0 0 0 0 0 0 0 0 0 0 0 0 0 0 0 0 0 0 0 0 0 0 0 0 0 0 0 430 422 422 425 427 430 430 435 440 432 430 427 427 427 422 422 425 418 425 425 422 425 422 422 425 422 425 425 425 425 425 425 425 427 432 430 430 430 432 430 430 430 430 427 0 430 425 427 0 0 0 425 425 427 0 422 420 415 425 427 425 425 425 422 427 427 435 432 425 427 430 425 427 425 425 422 418 422 411 418 420 415 420 418 422 422 422 432 430 430 430 425 430 427 427 425 425 422 422 430 425 425 420 422 420 422 418 425 425 427 425 430 427 427 427 0 0 0 0 427 427 425 420 425 425 425 422 427 425 425 425 430 425 427 427 425 425 430 430 432 432 430 432 432 435 435 432 432 430 427 0 427 430 427 422 420 411 425 430 435 435 430 430 427 422 427 427 425 422 422 425 422 427 435 435 438 0 0 440 440 0 0 432 0 0 0 0 0 0 0 0 0 0 0 0 0 0 0 0 0 427 430 430 427 427 418 420 422 420 422 422 425 427 427 0 435 0 0 0 0 0 0 511 0 0 657 0 0 0 0 0 0 481 459 471 481 481 451 432 432 430 415 422 420 420 420 0 0 0 0 0
    0 0 0 0 0 0 0 0 0 0 0 0 0 0 0 0 0 0 0 0 0 0 0 0 0 0 0 0 0 0 0 0 0 0 0 0 0 0 0 0 0 0 0 0 0 0 0 0 0 0 0 0 0 0 0 0 0 0 0 0 0 0 0 0 0 0 0 0 0 430 422 422 425 427 430 432 432 438 432 430 427 430 425 422 420 425 420 425 425 425 425 425 425 427 425 427 427 427 427 427 427 427 430 432 432 430 432 432 430 430 432 430 427 430 430 425 430 0 432 427 427 427 427 427 420 420 413 425 427 425 425 425 425 427 427 435 432 430 430 430 427 427 427 425 425 420 422 411 418 420 415 420 418 420 422 422 432 427 427 427 425 427 425 427 425 425 422 422 427 422 425 420 422 420 420 418 425 427 427 425 430 427 427 430 0 0 430 0 427 427 427 422 425 425 425 422 427 425 425 425 427 425 425 425 425 425 427 427 430 430 430 432 432 435 435 432 435 432 427 432 427 430 430 425 422 413 425 430 435 432 430 430 425 422 427 427 425 422 422 425 422 427 435 432 435 432 435 438 438 0 0 432 0 0 0 0 0 0 0 0 0 0 0 233 0 0 0 425 427 425 430 430 425 425 418 420 422 420 422 422 425 425 427 432 432 438 0 0 446 0 0 500 0 0 669 0 0 0 0 425 427 432 435 435 451 459 443 427 432 430 413 422 418 420 420 0 0 0 0 0
    0 0 0 0 0 0 0 0 0 0 0 0 0 0 0 0 0 0 0 0 0 0 0 0 0 0 0 0 0 0 0 0 0 0 0 0 0 0 0 0 0 0 0 0 0 0 0 0 0 0 0 0 0 0 0 0 0 0 0 0 0 0 0 0 0 0 0 0 0 427 420 422 422 425 430 430 430 432 427 427 425 427 422 422 420 427 422 427 427 427 430 427 427 430 427 427 430 430 427 427 427 427 430 432 432 430 432 432 430 430 432 430 427 430 430 422 427 0 430 425 427 425 425 425 420 422 415 425 427 425 427 425 427 430 427 435 432 430 430 432 427 427 427 427 425 420 425 413 420 420 415 420 418 420 422 422 430 427 427 430 425 427 425 427 425 425 422 422 422 422 425 420 422 420 420 420 425 427 427 425 430 430 430 430 432 430 427 425 427 427 427 422 425 422 422 422 425 425 425 425 427 425 425 425 425 425 427 427 430 430 427 432 432 435 435 435 435 432 430 432 427 430 427 425 420 413 422 425 432 430 427 427 422 422 427 427 425 422 425 425 422 427 435 435 435 435 438 440 438 0 0 432 0 0 0 425 0 0 0 425 0 0 0 233 0 0 0 425 430 425 430 430 427 427 418 420 422 420 422 422 425 425 425 430 432 435 438 438 435 438 459 0 0 0 0 0 0 0 0 425 427 432 432 432 435 440 438 418 427 427 413 422 418 420 420 0 0 0 0 0
    0 0 0 0 0 0 0 0 0 0 0 0 0 0 0 0 0 0 0 0 0 0 0 0 0 0 0 0 0 0 0 0 0 0 0 0 0 0 0 0 0 0 0 0 0 0 0 0 0 0 0 0 0 0 0 0 0 0 0 0 0 0 0 0 0 0 0 0 0 427 420 420 422 425 427 430 430 432 427 425 422 425 422 420 418 425 422 427 427 430 430 430 427 430 427 430 430 430 427 427 427 427 430 432 430 427 430 432 430 427 430 427 425 0 427 418 422 0 427 420 425 425 425 425 422 425 415 425 427 425 427 427 427 430 430 435 432 432 432 432 430 430 430 430 427 425 425 415 420 420 415 420 418 420 422 422 430 427 427 430 427 427 427 425 425 425 422 420 418 420 422 418 420 420 420 420 425 430 427 427 430 430 430 430 432 430 427 425 430 427 427 422 425 425 425 425 425 422 425 425 427 427 425 425 427 427 427 427 430 430 427 432 430 432 432 432 435 432 430 432 430 430 427 425 420 413 420 422 430 427 427 430 422 420 425 425 425 422 422 425 422 427 435 435 435 435 438 438 438 438 438 432 432 435 435 425 418 0 425 425 0 0 0 233 0 0 430 425 430 422 430 430 427 427 418 420 425 420 422 425 425 425 425 430 432 432 435 435 435 435 443 454 443 0 0 430 425 422 427 422 425 430 430 430 435 438 435 411 422 422 411 422 420 420 420 0 0 0 0 0
    0 0 0 0 0 0 0 0 0 0 0 0 0 0 0 0 0 0 0 0 0 0 0 0 0 0 0 0 0 0 0 0 0 0 0 0 0 0 0 0 0 0 0 0 0 0 0 0 0 0 0 0 0 0 0 0 0 0 0 0 0 0 0 0 0 0 0 0 0 427 420 420 422 425 430 432 432 432 430 427 422 427 422 420 418 425 422 425 427 427 430 430 427 430 427 430 430 432 427 425 425 427 430 432 430 425 430 430 427 425 427 0 0 0 427 415 418 0 425 418 422 422 422 422 422 425 415 425 427 425 427 427 427 430 430 435 435 438 435 435 435 432 432 432 430 427 427 0 422 420 415 420 418 420 422 422 430 427 430 432 427 430 427 427 425 425 422 420 418 0 425 420 422 420 420 422 427 432 430 427 430 430 430 432 435 430 427 425 430 430 430 425 425 425 427 425 427 425 425 425 427 427 425 425 427 427 430 427 430 430 427 430 430 432 432 432 432 432 430 430 430 427 427 427 422 418 422 420 427 425 427 427 422 420 425 425 425 422 422 422 420 427 432 432 432 432 438 435 435 432 430 427 430 432 432 422 418 0 425 0 430 430 0 0 0 425 427 427 430 425 430 430 427 427 418 420 425 420 425 425 425 425 427 430 432 432 435 435 432 435 438 438 432 427 422 422 420 413 420 418 420 425 427 427 432 435 435 411 422 422 413 422 420 420 420 0 0 0 0 0
    0 0 0 0 0 0 0 0 0 0 0 0 0 0 0 0 0 0 0 0 0 0 0 0 0 0 0 0 0 0 0 0 0 0 0 0 0 0 0 0 0 0 0 0 0 0 0 0 0 0 0 0 0 0 0 0 0 0 0 0 0 0 0 0 0 0 0 0 0 425 418 420 422 425 432 432 432 0 427 425 422 425 420 418 415 425 422 425 427 427 430 430 430 432 427 432 432 432 430 427 427 427 430 432 430 425 430 0 427 0 0 0 0 0 0 413 415 0 425 415 420 420 422 422 422 422 415 425 425 422 427 425 427 430 427 435 435 438 435 435 0 435 435 432 0 0 0 0 422 420 413 418 418 420 422 422 430 427 430 432 427 427 427 425 422 0 0 0 0 0 0 420 422 422 422 425 430 432 430 427 432 432 432 435 435 430 427 427 432 430 430 427 427 427 427 427 427 425 427 425 427 427 425 425 427 427 430 427 430 430 427 430 430 430 430 430 430 430 430 430 430 427 427 427 422 420 425 420 425 425 427 430 425 422 425 425 425 422 422 422 420 425 430 430 430 430 432 432 430 430 427 427 427 430 432 427 427 425 425 427 430 427 425 422 422 425 425 425 427 422 427 430 425 425 413 420 425 422 425 425 425 425 427 432 432 430 432 432 432 432 435 432 430 422 420 418 418 411 413 415 415 420 420 422 430 432 432 408 422 422 413 422 420 420 422 0 0 0 0 0
    0 0 0 0 0 0 0 0 0 0 0 0 0 0 0 0 0 0 0 0 0 0 0 0 0 0 0 0 0 0 0 0 0 0 0 0 0 0 0 0 0 0 0 0 0 0 0 0 0 0 0 0 0 0 0 0 0 0 0 0 0 0 0 0 0 0 0 0 0 425 418 420 422 422 430 432 430 0 0 0 418 422 420 418 415 422 422 422 425 427 430 427 430 430 427 430 432 432 430 427 427 427 430 432 430 422 430 0 425 0 0 0 0 0 0 406 0 0 0 413 418 420 422 422 422 422 413 425 425 422 427 427 427 430 427 435 435 438 435 0 0 0 0 0 0 0 0 0 0 0 0 418 415 418 420 420 430 427 427 430 427 427 427 422 422 0 0 0 0 0 0 420 422 422 420 425 430 432 432 427 432 432 435 435 435 430 427 427 432 430 432 427 427 427 427 427 427 422 425 422 425 425 425 425 427 430 430 427 430 430 427 427 427 427 427 430 430 427 427 427 430 427 427 427 422 420 422 420 425 425 427 430 422 422 425 422 425 422 422 420 418 425 427 430 427 425 427 430 430 427 427 427 425 430 435 430 430 425 425 425 427 425 422 422 422 422 422 422 422 415 422 427 422 422 411 420 425 425 425 425 425 425 427 430 430 430 430 430 432 432 435 432 432 427 425 422 422 413 415 418 420 422 420 418 427 427 427 406 422 422 415 422 422 422 422 0 0 0 0 0
    0 0 0 0 0 0 0 0 0 0 0 0 0 0 0 0 0 0 0 0 0 0 0 0 0 0 0 0 0 0 0 0 0 0 0 0 0 0 0 0 0 0 0 0 0 0 0 0 0 0 0 0 0 0 0 0 0 0 0 0 0 0 0 0 0 0 0 0 0 422 415 418 415 418 427 430 427 0 0 0 413 422 420 420 418 425 425 425 427 427 430 430 430 432 427 430 432 432 427 427 0 427 427 430 427 0 0 0 0 0 0 0 0 0 0 0 0 0 0 413 420 422 422 422 425 425 415 425 427 425 427 427 430 430 430 435 435 440 0 0 0 0 0 0 0 0 0 0 0 0 0 418 413 418 418 420 427 425 427 0 0 427 425 422 422 0 0 0 0 0 0 0 422 422 420 425 430 435 432 430 435 435 438 438 438 430 427 427 432 430 432 427 425 427 427 427 425 422 425 422 425 425 422 425 427 430 430 427 430 427 427 427 427 427 427 430 427 427 427 427 427 427 427 427 420 420 422 418 422 422 427 430 422 422 422 422 425 422 422 420 418 422 425 427 425 422 425 427 427 425 425 425 425 427 435 432 430 427 425 425 425 422 420 420 418 418 418 418 420 413 420 425 420 420 411 420 425 425 425 425 425 425 427 430 430 430 427 430 432 432 435 432 435 432 427 427 422 415 413 418 420 420 415 415 425 425 425 406 422 425 415 422 422 425 425 0 0 0 0 0
    0 0 0 0 0 0 0 0 0 0 0 0 0 0 0 0 0 0 0 0 0 0 0 0 0 0 0 0 0 0 0 0 0 0 0 0 0 0 0 0 0 0 0 0 0 0 0 0 0 0 0 0 0 0 0 0 0 0 0 0 0 0 0 0 0 0 0 0 0 420 413 413 408 406 420 427 0 0 0 0 0 422 422 422 418 427 427 427 430 0 0 0 3 435 432 432 432 0 427 427 0 0 427 0 0 0 0 0 0 0 182 0 0 0 0 0 0 0 0 0 0 422 422 425 425 427 415 425 427 425 427 427 430 430 430 435 435 0 0 0 968 0 0 0 0 0 0 0 0 0 0 0 0 415 418 418 425 422 427 0 427 427 425 422 0 0 135 0 0 0 0 0 0 422 422 427 0 435 435 430 438 438 438 440 438 430 427 430 432 430 432 430 425 427 430 427 425 422 425 422 425 425 425 427 427 430 430 427 430 430 427 427 427 427 427 430 427 427 427 427 427 427 427 427 420 420 422 415 420 420 425 427 420 422 422 422 425 422 422 418 415 422 422 427 422 418 420 425 422 422 422 422 422 427 438 435 435 432 430 427 427 425 420 418 418 415 415 415 418 413 418 425 418 418 411 422 425 427 425 425 427 427 427 430 430 430 427 432 435 432 438 435 435 435 427 430 425 418 418 420 422 420 418 418 425 427 427 408 425 425 418 425 425 425 425 0 0 0 0 0
    0 0 0 0 0 0 0 0 0 0 0 0 0 0 0 0 0 0 0 0 0 0 0 0 0 0 0 0 0 0 0 0 0 0 0 0 0 0 0 0 0 0 0 0 0 0 0 0 0 0 0 0 0 0 0 0 0 0 0 0 0 0 0 0 0 0 0 0 0 408 406 406 404 399 404 402 0 651 0 0 0 0 0 425 418 430 430 430 430 0 0 430 432 435 432 0 0 111 0 0 0 0 0 0 0 0 0 0 0 0 0 184 0 0 82 82 81 0 0 0 0 420 422 422 425 427 415 425 427 422 427 427 430 430 430 435 0 0 943 955 968 931 0 0 0 0 0 0 0 0 0 0 0 0 0 0 0 0 425 0 0 0 0 0 0 136 135 0 0 0 0 0 0 0 425 0 0 443 435 432 438 438 440 440 438 430 427 430 432 432 432 430 425 427 430 427 425 425 427 422 422 427 427 430 432 432 0 430 432 432 430 427 427 425 425 427 427 427 427 425 427 425 427 425 418 420 420 415 418 418 425 427 420 425 420 422 425 422 422 418 415 422 422 430 420 413 415 420 420 418 418 418 422 425 438 438 438 435 432 430 430 425 420 418 418 415 418 415 418 413 418 425 418 415 411 422 425 427 425 427 427 427 427 430 430 430 427 432 0 0 440 438 438 435 427 430 425 418 415 418 422 415 415 415 422 422 418 406 422 422 420 425 427 425 427 0 0 0 0 0
    0 0 0 0 0 0 0 0 0 0 0 0 0 0 0 0 0 0 0 0 0 0 0 0 0 0 0 0 0 0 0 0 0 0 0 0 0 0 0 0 0 0 0 0 0 0 0 0 0 0 0 0 0 0 0 0 0 0 0 0 0 0 0 0 0 0 0 0 0 411 408 406 406 404 402 395 393 0 0 0 0 0 0 0 0 0 0 0 0 0 0 430 0 0 0 0 110 110 0 0 0 0 0 0 0 0 0 0 0 0 0 0 0 0 82 81 81 0 0 0 0 0 415 0 0 0 0 0 427 422 427 430 430 430 427 0 141 0 0 0 0 0 0 0 0 0 0 0 0 0 0 0 0 0 75 0 0 0 0 0 0 0 0 0 0 0 0 0 0 0 0 0 0 0 0 110 0 0 0 0 0 0 440 440 0 427 427 430 432 430 432 430 425 430 432 430 425 425 430 425 422 0 0 438 443 446 0 0 440 435 432 425 422 418 420 425 425 425 427 422 425 422 425 422 415 420 420 413 415 418 425 427 422 425 420 420 422 422 422 415 415 420 418 430 415 0 0 415 418 413 415 413 418 422 435 435 435 432 427 425 427 422 418 415 415 413 418 418 420 415 415 425 415 413 411 422 425 427 425 427 427 427 427 430 430 430 430 0 0 0 0 0 0 0 0 0 415 408 404 408 418 411 411 411 420 420 415 406 420 425 425 427 430 427 430 0 0 0 0 0
    0 0 0 0 0 0 0 0 0 0 0 0 0 0 0 0 0 0 0 0 0 0 0 0 0 0 0 0 0 0 0 0 0 0 0 0 0 0 0 0 0 0 0 0 0 0 0 0 0 0 0 0 0 0 0 0 0 0 0 0 0 0 0 0 0 0 0 0 0 0 0 0 0 0 0 0 0 0 0 0 0 0 0 0 0 0 0 0 0 0 0 0 0 0 0 0 0 0 0 0 0 0 0 0 0 0 0 0 0 0 0 0 0 0 0 0 0 0 0 0 0 0 0 221 219 0 0 0 0 0 207 206 0 0 0 0 0 0 0 0 0 1022 0 0 132 0 0 0 0 0 0 0 0 0 0 0 0 0 0 0 165 164 163 0 0 0 0 0 0 0 0 0 4906 0 0 0 0 111 110 0 0 0 0 0 174 0 0 430 435 432 432 430 0 0 0 435 427 0 0 0 0 121 0 0 0 0 0 0 454 440 435 420 420 413 415 422 422 422 425 420 425 420 425 425 413 420 420 413 415 418 427 430 422 427 420 420 422 422 420 413 411 415 411 422 408 0 0 411 413 413 413 413 418 0 435 435 435 430 427 422 425 420 415 415 413 413 415 418 420 415 411 420 411 411 0 0 0 427 425 427 427 427 430 430 430 430 430 0 1338 1362 0 0 0 0 0 0 0 402 397 0 411 408 408 408 415 415 413 404 418 422 427 427 430 427 430 0 0 0 0 0
    0 0 0 0 0 0 0 0 0 0 0 0 0 0 0 0 0 0 0 0 0 0 0 0 0 0 0 0 0 0 0 0 0 0 0 0 0 0 0 0 0 0 0 0 0 0 0 0 0 0 0 0 0 0 0 0 0 0 0 0 0 0 0 0 0 0 0 0 0 0 0 0 0 0 0 0 0 0 0 0 0 0 0 0 0 0 0 0 0 0 0 0 0 0 0 0 0 0 0 0 0 0 0 0 0 0 0 0 0 0 0 0 0 0 0 0 0 0 0 0 0 0 0 0 0 0 0 0 0 0 0 0 0 0 0 0 0 0 0 0 0 0 0 0 0 0 0 0 0 0 0 0 0 0 0 0 0 0 0 0 0 165 164 164 0 0 0 0 6690 4906 4088 4329 3504 0 0 0 0 0 109 0 0 0 0 0 0 0 0 0 0 0 0 0 0 0 0 0 0 0 0 0 0 645 669 681 675 634 0 0 468 440 435 418 422 415 418 425 420 422 425 420 425 422 427 425 413 420 422 413 415 420 427 0 0 0 422 420 425 425 420 411 408 411 406 418 408 0 0 0 413 413 0 0 0 0 0 440 438 432 430 422 425 420 415 413 413 411 415 418 420 415 411 0 406 0 0 0 0 0 425 427 427 427 430 430 430 430 0 1291 1314 1338 0 0 0 0 0 0 0 0 393 391 415 408 408 408 411 0 0 402 415 420 427 425 425 422 427 0 0 0 0 0
    0 0 0 0 0 0 0 0 0 0 0 0 0 0 0 0 0 0 0 0 0 0 0 0 0 0 0 0 0 0 0 0 0 0 0 0 0 0 0 0 0 0 0 0 0 0 0 0 0 0 0 0 0 0 0 0 0 0 0 0 0 0 0 0 0 0 0 0 0 0 0 0 0 0 0 0 0 0 0 0 0 0 0 0 0 0 0 0 0 0 0 0 0 0 0 0 0 0 0 0 0 0 0 0 0 0 0 0 0 0 0 0 0 0 0 0 0 0 0 0 0 0 0 0 0 0 0 0 0 0 0 0 0 0 0 0 0 0 0 0 0 0 0 0 0 0 0 0 0 0 0 0 0 0 0 0 0 0 0 0 0 0 0 0 0 0 0 0 0 0 0 0 0 0 0 0 0 0 0 0 0 0 0 0 0 0 0 0 0 0 0 0 0 0 0 0 0 0 0 0 0 669 675 675 675 645 618 0 0 443 432 415 420 413 415 422 420 422 425 422 427 425 430 430 418 425 425 415 418 0 0 0 0 0 0 0 0 430 422 415 413 415 408 425 411 0 0 0 411 411 0 0 0 0 0 477 468 440 435 415 415 411 411 411 408 408 411 411 415 411 0 0 0 0 0 0 0 0 0 425 427 0 0 0 0 0 0 0 0 0 0 0 0 0 0 0 0 0 379 0 0 404 404 0 0 0 0 399 406 415 435 427 422 420 427 0 0 0 0 0
    0 0 0 0 0 0 0 0 0 0 0 0 0 0 0 0 0 0 0 0 0 0 0 0 0 0 0 0 0 0 0 0 0 0 0 0 0 0 0 0 0 0 0 0 0 0 0 0 0 0 0 0 0 0 0 0 0 0 0 0 0 0 0 0 0 0 0 0 0 0 0 0 0 0 0 0 0 0 0 0 0 0 0 0 0 0 0 0 0 0 0 0 0 0 0 0 0 0 0 0 0 0 0 0 0 0 0 0 0 0 0 0 0 0 0 0 0 0 0 0 0 0 0 0 0 0 0 0 0 0 0 0 0 0 0 0 0 0 0 0 0 0 0 0 0 0 0 0 0 0 0 0 0 0 0 0 0 0 0 0 0 0 0 0 0 0 0 0 0 0 0 0 0 0 0 0 0 0 0 0 0 0 0 0 0 0 0 0 0 0 0 0 0 0 0 0 0 0 0 0 0 0 0 0 0 0 0 0 0 0 0 0 0 0 0 0 0 0 0 0 0 0 0 0 0 0 0 0 0 0 0 0 0 0 133 2453 0 425 418 413 411 411 404 0 0 0 322 306 296 292 0 1415 0 0 521 511 507 0 0 0 0 406 406 411 408 406 408 408 0 0 0 0 0 0 0 0 0 0 0 0 0 0 0 0 0 0 0 0 0 0 0 0 0 0 0 0 0 373 371 366 0 0 404 0 0 391 397 395 0 411 0 430 420 420 430 0 0 0 0 0
    0 0 0 0 0 0 0 0 0 0 0 0 0 0 0 0 0 0 0 0 0 0 0 0 0 0 0 0 0 0 0 0 0 0 0 0 0 0 0 0 0 0 0 0 0 0 0 0 0 0 0 0 0 0 0 0 0 0 0 0 0 0 0 0 0 0 0 0 0 0 0 0 0 0 0 0 0 0 0 0 0 0 0 0 0 0 0 0 0 0 0 0 0 0 0 0 0 0 0 0 0 0 0 0 0 0 0 0 0 0 0 0 0 0 0 0 0 0 0 0 0 0 0 0 0 0 0 0 0 0 0 0 0 0 0 0 0 0 0 0 0 0 0 0 0 0 0 0 0 0 0 0 0 0 0 0 0 0 0 0 0 0 0 0 0 0 0 0 0 0 0 0 0 0 0 0 0 0 0 0 0 0 0 0 0 0 0 0 0 0 0 0 0 0 0 0 0 0 0 0 0 0 0 0 0 0 0 0 0 0 0 0 0 0 0 0 0 0 0 0 0 0 0 0 0 0 0 0 0 0 0 0 0 0 0 0 0 0 0 0 0 0 0 0 0 0 0 0 0 0 0 0 0 0 0 0 0 525 0 0 0 402 404 408 408 406 404 0 0 0 0 0 0 0 0 0 0 0 0 0 0 0 0 0 1206 0 0 0 0 0 0 0 0 0 0 373 373 369 369 366 366 379 399 395 0 387 395 393 391 0 0 0 0 404 0 0 0 0 0 0
    0 0 0 0 0 0 0 0 0 0 0 0 0 0 0 0 0 0 0 0 0 0 0 0 0 0 0 0 0 0 0 0 0 0 0 0 0 0 0 0 0 0 0 0 0 0 0 0 0 0 0 0 0 0 0 0 0 0 0 0 0 0 0 0 0 0 0 0 0 0 0 0 0 0 0 0 0 0 0 0 0 0 0 0 0 0 0 0 0 0 0 0 0 0 0 0 0 0 0 0 0 0 0 0 0 0 0 0 0 0 0 0 0 0 0 0 0 0 0 0 0 0 0 0 0 0 0 0 0 0 0 0 0 0 0 0 0 0 0 0 0 0 0 0 0 0 0 0 0 0 0 0 0 0 0 0 0 0 0 0 0 0 0 0 0 0 0 0 0 0 0 0 0 0 0 0 0 0 0 0 0 0 0 0 0 0 0 0 0 0 0 0 0 0 0 0 0 0 0 0 0 0 0 0 0 0 0 0 0 0 0 0 0 0 0 0 0 0 0 0 0 0 0 0 0 0 0 0 0 0 0 0 0 0 0 0 0 0 0 0 0 0 0 0 0 0 0 0 0 0 0 0 0 0 0 0 0 0 0 0 0 0 0 0 0 0 0 0 0 0 0 0 0 0 0 0 0 0 0 0 0 0 0 0 1291 0 0 0 0 0 0 0 0 0 0 0 373 371 369 366 366 366 387 385 377 375 381 385 385 389 0 0 393 0 411 0 0 0 0 0
    0 0 0 0 0 0 0 0 0 0 0 0 0 0 0 0 0 0 0 0 0 0 0 0 0 0 0 0 0 0 0 0 0 0 0 0 0 0 0 0 0 0 0 0 0 0 0 0 0 0 0 0 0 0 0 0 0 0 0 0 0 0 0 0 0 0 0 0 0 0 0 0 0 0 0 0 0 0 0 0 0 0 0 0 0 0 0 0 0 0 0 0 0 0 0 0 0 0 0 0 0 0 0 0 0 0 0 0 0 0 0 0 0 0 0 0 0 0 0 0 0 0 0 0 0 0 0 0 0 0 0 0 0 0 0 0 0 0 0 0 0 0 0 0 0 0 0 0 0 0 0 0 0 0 0 0 0 0 0 0 0 0 0 0 0 0 0 0 0 0 0 0 0 0 0 0 0 0 0 0 0 0 0 0 0 0 0 0 0 0 0 0 0 0 0 0 0 0 0 0 0 0 0 0 0 0 0 0 0 0 0 0 0 0 0 0 0 0 0 0 0 0 0 0 0 0 0 0 0 0 0 0 0 0 0 0 0 0 0 0 0 0 0 0 0 0 0 0 0 0 0 0 0 0 0 0 0 0 0 0 0 0 0 0 0 0 0 0 0 0 0 0 0 0 0 0 0 0 0 0 0 0 0 1443 1338 1247 0 0 0 0 0 0 0 0 0 0 0 371 367 366 366 366 369 369 366 366 366 367 369 366 0 377 383 0 0 0 0 0 0 0
    0 0 0 0 0 0 0 0 0 0 0 0 0 0 0 0 0 0 0 0 0 0 0 0 0 0 0 0 0 0 0 0 0 0 0 0 0 0 0 0 0 0 0 0 0 0 0 0 0 0 0 0 0 0 0 0 0 0 0 0 0 0 0 0 0 0 0 0 0 0 0 0 0 0 0 0 0 0 0 0 0 0 0 0 0 0 0 0 0 0 0 0 0 0 0 0 0 0 0 0 0 0 0 0 0 0 0 0 0 0 0 0 0 0 0 0 0 0 0 0 0 0 0 0 0 0 0 0 0 0 0 0 0 0 0 0 0 0 0 0 0 0 0 0 0 0 0 0 0 0 0 0 0 0 0 0 0 0 0 0 0 0 0 0 0 0 0 0 0 0 0 0 0 0 0 0 0 0 0 0 0 0 0 0 0 0 0 0 0 0 0 0 0 0 0 0 0 0 0 0 0 0 0 0 0 0 0 0 0 0 0 0 0 0 0 0 0 0 0 0 0 0 0 0 0 0 0 0 0 0 0 0 0 0 0 0 0 0 0 0 0 0 0 0 0 0 0 0 0 0 0 0 0 0 0 0 0 0 0 0 0 0 334 0 0 0 0 0 0 0 0 0 0 0 0 0 0 0 0 0 0 0 0 1752 1501 0 0 0 0 0 0 0 0 0 0 0 0 0 0 366 367 366 366 364 360 360 360 362 362 360 0 0 0 0 425 0 0 0 0 0
    0 0 0 0 0 0 0 0 0 0 0 0 0 0 0 0 0 0 0 0 0 0 0 0 0 0 0 0 0 0 0 0 0 0 0 0 0 0 0 0 0 0 0 0 0 0 0 0 0 0 0 0 0 0 0 0 0 0 0 0 0 0 0 0 0 0 0 0 0 0 0 0 0 0 0 0 0 0 0 0 0 0 0 0 0 0 0 0 0 0 0 0 0 0 0 0 0 0 0 0 0 0 0 0 0 0 0 0 0 0 0 0 0 0 0 0 0 0 0 0 0 0 0 0 0 0 0 0 0 0 0 0 0 0 0 0 0 0 0 0 0 0 0 0 0 0 0 0 0 0 0 0 0 0 0 0 0 0 0 0 0 0 0 0 0 0 0 0 0 0 0 0 0 0 0 0 0 0 0 0 0 0 0 0 0 0 0 0 0 0 0 0 0 0 0 0 0 0 0 0 0 0 0 0 0 0 0 0 0 0 0 0 0 0 0 0 0 0 0 0 0 0 0 0 0 0 0 0 0 0 0 0 0 0 0 0 0 0 0 0 0 0 0 0 0 0 0 0 0 0 0 0 0 0 0 0 0 333 325 333 331 0 331 0 0 0 0 258 259 261 260 262 261 0 0 0 0 0 0 0 0 6133 2830 1989 0 0 0 0 0 0 0 0 0 0 0 0 0 0 0 367 367 364 364 360 357 357 355 357 357 355 355 364 367 0 0 0 0 0 0 0
    0 0 0 0 0 0 0 0 0 0 0 0 0 0 0 0 0 0 0 0 0 0 0 0 0 0 0 0 0 0 0 0 0 0 0 0 0 0 0 0 0 0 0 0 0 0 0 0 0 0 0 0 0 0 0 0 0 0 0 0 0 0 0 0 0 0 0 0 0 0 0 0 0 0 0 0 0 0 0 0 0 0 0 0 0 0 0 0 0 0 0 0 0 0 0 0 0 0 0 0 0 0 0 0 0 0 0 0 0 0 0 0 0 0 0 0 0 0 0 0 0 0 0 0 0 0 0 0 0 0 0 0 0 0 0 0 0 0 0 0 0 0 0 0 0 0 0 0 0 0 0 0 0 0 0 0 0 0 0 0 0 0 0 0 0 0 0 0 0 0 0 0 0 0 0 0 0 0 0 0 0 0 0 0 0 0 0 0 0 0 0 0 0 0 0 0 0 0 0 0 0 0 0 0 0 0 0 0 0 0 0 0 0 0 0 0 0 0 0 0 0 0 0 0 0 0 0 0 0 0 0 0 0 0 0 0 0 0 0 0 0 0 0 0 0 0 0 0 0 0 0 0 0 0 0 0 327 0 0 0 0 0 0 0 330 333 0 0 0 0 0 263 263 263 257 0 0 0 7359 4088 7359 5661 2943 2102 0 0 0 0 0 0 0 0 0 0 0 0 0 0 0 0 367 364 364 360 359 357 355 355 359 355 355 362 366 0 387 0 0 0 0 0
    0 0 0 0 0 0 0 0 0 0 0 0 0 0 0 0 0 0 0 0 0 0 0 0 0 0 0 0 0 0 0 0 0 0 0 0 0 0 0 0 0 0 0 0 0 0 0 0 0 0 0 0 0 0 0 0 0 0 0 0 0 0 0 0 0 0 0 0 0 0 0 0 0 0 0 0 0 0 0 0 0 0 0 0 0 0 0 0 0 0 0 0 0 0 0 0 0 0 0 0 0 0 0 0 0 0 0 0 0 0 0 0 0 0 0 0 0 0 0 0 0 0 0 0 0 0 0 0 0 0 0 0 0 0 0 0 0 0 0 0 0 0 0 0 0 0 0 0 0 0 0 0 0 0 0 0 0 0 0 0 0 0 0 0 0 0 0 0 0 0 0 0 0 0 0 0 0 0 0 0 0 0 0 0 0 0 0 0 0 0 0 0 0 0 0 0 0 0 0 0 0 0 0 0 0 0 0 0 0 0 0 0 0 0 0 0 0 0 0 0 0 0 0 0 0 0 0 0 0 0 0 0 0 0 0 0 0 0 0 0 0 0 0 0 0 0 0 0 0 0 0 0 0 0 0 0 327 0 0 0 0 0 0 0 328 331 0 0 0 0 0 264 264 263 257 0 0 0 5661 3345 5256 4329 2830 1989 0 0 0 0 0 0 0 0 0 0 0 0 0 0 0 0 369 366 364 362 360 359 357 355 359 357 355 364 364 0 0 0 0 0 0 0
    0 0 0 0 0 0 0 0 0 0 0 0 0 0 0 0 0 0 0 0 0 0 0 0 0 0 0 0 0 0 0 0 0 0 0 0 0 0 0 0 0 0 0 0 0 0 0 0 0 0 0 0 0 0 0 0 0 0 0 0 0 0 0 0 0 0 0 0 0 0 0 0 0 0 0 0 0 0 0 0 0 0 0 0 0 0 0 0 0 0 0 0 0 0 0 0 0 0 0 0 0 0 0 0 0 0 0 0 0 0 0 0 0 0 0 0 0 0 0 0 0 0 0 0 0 0 0 0 0 0 0 0 0 0 0 0 0 0 0 0 0 0 0 0 0 0 0 0 0 0 0 0 0 0 0 0 0 0 0 0 0 0 0 0 0 0 0 0 0 0 0 0 0 0 0 0 0 0 0 0 0 0 0 0 0 0 0 0 0 0 0 0 0 0 0 0 0 0 0 0 0 0 0 0 0 0 0 0 0 0 0 0 0 0 0 0 0 0 0 0 0 0 0 0 0 0 0 0 0 0 0 0 0 0 0 0 0 0 0 0 0 0 0 0 0 0 0 0 0 0 0 0 0 0 0 0 327 0 0 0 0 0 0 0 328 0 0 0 0 0 0 264 264 263 257 0 0 0 6133 3504 4088 4599 2943 2299 0 0 0 0 0 0 0 0 0 0 0 0 0 0 0 0 0 367 364 362 359 359 355 355 357 353 353 362 362 0 0 0 0 0 0 0
    0 0 0 0 0 0 0 0 0 0 0 0 0 0 0 0 0 0 0 0 0 0 0 0 0 0 0 0 0 0 0 0 0 0 0 0 0 0 0 0 0 0 0 0 0 0 0 0 0 0 0 0 0 0 0 0 0 0 0 0 0 0 0 0 0 0 0 0 0 0 0 0 0 0 0 0 0 0 0 0 0 0 0 0 0 0 0 0 0 0 0 0 0 0 0 0 0 0 0 0 0 0 0 0 0 0 0 0 0 0 0 0 0 0 0 0 0 0 0 0 0 0 0 0 0 0 0 0 0 0 0 0 0 0 0 0 0 0 0 0 0 0 0 0 0 0 0 0 0 0 0 0 0 0 0 0 0 0 0 0 0 0 0 0 0 0 0 0 0 0 0 0 0 0 0 0 0 0 0 0 0 0 0 0 0 0 0 0 0 0 0 0 0 0 0 0 0 0 0 0 0 0 0 0 0 0 0 0 0 0 0 0 0 0 0 0 0 0 0 0 0 0 0 0 0 0 0 0 0 0 0 0 0 0 0 0 0 0 0 0 0 0 0 0 0 0 0 0 0 0 0 0 0 0 0 0 327 0 0 0 0 0 0 0 328 0 0 0 0 0 0 264 264 263 257 251 0 0 0 0 0 0 0 0 0 0 0 0 0 0 0 0 0 0 0 0 0 0 7359 5661 0 0 360 357 353 352 348 350 353 348 348 0 362 0 0 0 0 0 0 0
    0 0 0 0 0 0 0 0 0 0 0 0 0 0 0 0 0 0 0 0 0 0 0 0 0 0 0 0 0 0 0 0 0 0 0 0 0 0 0 0 0 0 0 0 0 0 0 0 0 0 0 0 0 0 0 0 0 0 0 0 0 0 0 0 0 0 0 0 0 0 0 0 0 0 0 0 0 0 0 0 0 0 0 0 0 0 0 0 0 0 0 0 0 0 0 0 0 0 0 0 0 0 0 0 0 0 0 0 0 0 0 0 0 0 0 0 0 0 0 0 0 0 0 0 0 0 0 0 0 0 0 0 0 0 0 0 0 0 0 0 0 0 0 0 0 0 0 0 0 0 0 0 0 0 0 0 0 0 0 0 0 0 0 0 0 0 0 0 0 0 0 0 0 0 0 0 0 0 0 0 0 0 0 0 0 0 0 0 0 0 0 0 0 0 0 0 0 0 0 0 0 0 0 0 0 0 0 0 0 0 0 0 0 0 0 0 0 0 0 0 0 0 0 0 0 0 0 0 0 0 0 0 0 0 0 0 0 0 0 0 0 0 0 0 0 0 0 0 0 0 0 0 0 0 0 0 327 0 0 0 0 0 0 0 328 0 0 0 0 0 0 264 264 263 257 0 0 0 0 0 0 0 0 0 0 0 0 0 0 0 0 0 0 0 0 0 0 0 8177 5661 0 0 0 347 345 343 340 339 345 343 340 0 0 0 427 0 0 0 0 0
    0 0 0 0 0 0 0 0 0 0 0 0 0 0 0 0 0 0 0 0 0 0 0 0 0 0 0 0 0 0 0 0 0 0 0 0 0 0 0 0 0 0 0 0 0 0 0 0 0 0 0 0 0 0 0 0 0 0 0 0 0 0 0 0 0 0 0 0 0 0 0 0 0 0 0 0 0 0 0 0 0 0 0 0 0 0 0 0 0 0 0 0 0 0 0 0 0 0 0 0 0 0 0 0 0 0 0 0 0 0 0 0 0 0 0 0 0 0 0 0 0 0 0 0 0 0 0 0 0 0 0 0 0 0 0 0 0 0 0 0 0 0 0 0 0 0 0 0 0 0 0 0 0 0 0 0 0 0 0 0 0 0 0 0 0 0 0 0 0 0 0 0 0 0 0 0 0 0 0 0 0 0 0 0 0 0 0 0 0 0 0 0 0 0 0 0 0 0 0 0 0 0 0 0 0 0 0 0 0 0 0 0 0 0 0 0 0 0 0 0 0 0 0 0 0 0 0 0 0 0 0 0 0 0 0 0 0 0 0 0 0 0 0 0 0 0 0 0 0 0 0 0 0 0 0 0 327 0 0 0 0 0 0 0 328 0 0 0 0 0 0 264 264 263 257 0 0 0 0 0 0 0 0 0 0 0 0 0 0 0 0 0 0 0 0 0 0 0 0 0 0 0 0 0 339 337 334 333 337 339 337 336 0 0 422 0 0 0 0 0
    0 0 0 0 0 0 0 0 0 0 0 0 0 0 0 0 0 0 0 0 0 0 0 0 0 0 0 0 0 0 0 0 0 0 0 0 0 0 0 0 0 0 0 0 0 0 0 0 0 0 0 0 0 0 0 0 0 0 0 0 0 0 0 0 0 0 0 0 0 0 0 0 0 0 0 0 0 0 0 0 0 0 0 0 0 0 0 0 0 0 0 0 0 0 0 0 0 0 0 0 0 0 0 0 0 0 0 0 0 0 0 0 0 0 0 0 0 0 0 0 0 0 0 0 0 0 0 0 0 0 0 0 0 0 0 0 0 0 0 0 0 0 0 0 0 0 0 0 0 0 0 0 0 0 0 0 0 0 0 0 0 0 0 0 0 0 0 0 0 0 0 0 0 0 0 0 0 0 0 0 0 0 0 0 0 0 0 0 0 0 0 0 0 0 0 0 0 0 0 0 0 0 0 0 0 0 0 0 0 0 0 0 0 0 0 0 0 0 0 0 0 0 0 0 0 0 0 0 0 0 0 0 0 0 0 0 0 0 0 0 0 0 0 0 0 0 0 0 0 0 0 0 0 0 0 0 324 0 0 0 0 0 0 0 328 0 0 0 0 0 0 264 264 263 257 0 0 0 0 0 0 0 0 0 0 0 0 0 0 0 0 0 0 0 0 0 0 0 0 0 0 0 0 0 339 337 334 331 337 337 336 333 334 0 0 0 0 0 0 0
    0 0 0 0 0 0 0 0 0 0 0 0 0 0 0 0 0 0 0 0 0 0 0 0 0 0 0 0 0 0 0 0 0 0 0 0 0 0 0 0 0 0 0 0 0 0 0 0 0 0 0 0 0 0 0 0 0 0 0 0 0 0 0 0 0 0 0 0 0 0 0 0 0 0 0 0 0 0 0 0 0 0 0 0 0 0 0 0 0 0 0 0 0 0 0 0 0 0 0 0 0 0 0 0 0 0 0 0 0 0 0 0 0 0 0 0 0 0 0 0 0 0 0 0 0 0 0 0 0 0 0 0 0 0 0 0 0 0 0 0 0 0 0 0 0 0 0 0 0 0 0 0 0 0 0 0 0 0 0 0 0 0 0 0 0 0 0 0 0 0 0 0 0 0 0 0 0 0 0 0 0 0 0 0 0 0 0 0 0 0 0 0 0 0 0 0 0 0 0 0 0 0 0 0 0 0 0 0 0 0 0 0 0 0 0 0 0 0 0 0 0 0 0 0 0 0 0 0 0 0 0 0 0 0 0 0 0 0 0 0 0 0 0 0 0 0 0 0 0 0 0 0 0 0 0 0 0 500 500 507 0 0 0 0 0 0 328 0 0 0 0 266 266 0 0 0 0 0 0 0 0 0 0 0 0 0 0 0 0 0 0 0 0 0 0 0 0 0 0 0 0 0 0 0 336 334 334 333 339 337 337 336 325 0 0 0 0 0 0 0
    0 0 0 0 0 0 0 0 0 0 0 0 0 0 0 0 0 0 0 0 0 0 0 0 0 0 0 0 0 0 0 0 0 0 0 0 0 0 0 0 0 0 0 0 0 0 0 0 0 0 0 0 0 0 0 0 0 0 0 0 0 0 0 0 0 0 0 0 0 0 0 0 0 0 0 0 0 0 0 0 0 0 0 0 0 0 0 0 0 0 0 0 0 0 0 0 0 0 0 0 0 0 0 0 0 0 0 0 0 0 0 0 0 0 0 0 0 0 0 0 0 0 0 0 0 0 0 0 0 0 0 0 0 0 0 0 0 0 0 0 0 0 0 0 0 0 0 0 0 0 0 0 0 0 0 0 0 0 0 0 0 0 0 0 0 0 0 0 0 0 0 0 0 0 0 0 0 0 0 0 0 0 0 0 0 0 0 0 0 0 0 0 0 0 0 0 0 0 0 0 0 0 0 0 0 0 0 0 0 0 0 0 0 0 0 0 0 0 0 0 0 0 0 0 0 0 0 0 0 0 0 0 0 0 0 0 0 0 0 0 0 0 0 0 0 0 0 0 0 0 0 0 0 0 0 0 0 0 0 511 0 0 0 0 321 0 321 0 0 0 0 0 0 0 0 0 0 0 0 0 0 0 0 0 0 0 0 0 0 0 0 0 0 0 0 0 566 566 570 566 545 529 521 0 318 0 0 0 0 331 0 0 0 0 0 0 0 0 0 0
    0 0 0 0 0 0 0 0 0 0 0 0 0 0 0 0 0 0 0 0 0 0 0 0 0 0 0 0 0 0 0 0 0 0 0 0 0 0 0 0 0 0 0 0 0 0 0 0 0 0 0 0 0 0 0 0 0 0 0 0 0 0 0 0 0 0 0 0 0 0 0 0 0 0 0 0 0 0 0 0 0 0 0 0 0 0 0 0 0 0 0 0 0 0 0 0 0 0 0 0 0 0 0 0 0 0 0 0 0 0 0 0 0 0 0 0 0 0 0 0 0 0 0 0 0 0 0 0 0 0 0 0 0 0 0 0 0 0 0 0 0 0 0 0 0 0 0 0 0 0 0 0 0 0 0 0 0 0 0 0 0 0 0 0 0 0 0 0 0 0 0 0 0 0 0 0 0 0 0 0 0 0 0 0 0 0 0 0 0 0 0 0 0 0 0 0 0 0 0 0 0 0 0 0 0 0 0 0 0 0 0 0 0 0 0 0 0 0 0 0 0 0 0 0 0 0 0 0 0 0 0 0 0 0 0 0 0 0 0 0 0 0 0 0 0 0 0 0 0 0 0 0 0 0 0 0 0 0 0 0 0 0 0 0 0 0 0 0 0 0 0 0 0 0 0 0 0 0 0 0 0 0 0 0 0 0 0 0 0 0 0 0 0 0 0 0 0 0 0 0 525 507 490 0 311 309 0 0 0 317 311 0 301 294 294 0 0 0 0 0
    0 0 0 0 0 0 0 0 0 0 0 0 0 0 0 0 0 0 0 0 0 0 0 0 0 0 0 0 0 0 0 0 0 0 0 0 0 0 0 0 0 0 0 0 0 0 0 0 0 0 0 0 0 0 0 0 0 0 0 0 0 0 0 0 0 0 0 0 0 0 0 0 0 0 0 0 0 0 0 0 0 0 0 0 0 0 0 0 0 0 0 0 0 0 0 0 0 0 0 0 0 0 0 0 0 0 0 0 0 0 0 0 0 0 0 0 0 0 0 0 0 0 0 0 0 0 0 0 0 0 0 0 0 0 0 0 0 0 0 0 0 0 0 0 0 0 0 0 0 0 0 0 0 0 0 0 0 0 0 0 0 0 0 0 0 0 0 0 0 0 0 0 0 0 0 0 0 0 0 0 0 0 0 0 0 0 0 0 0 0 0 0 0 0 0 0 0 0 0 0 0 0 0 0 0 0 0 0 0 0 0 0 0 0 0 0 0 0 0 0 0 0 0 0 0 0 0 0 0 0 0 0 0 0 0 0 0 0 0 0 0 0 0 0 0 0 0 0 0 0 0 0 0 0 0 0 0 0 0 0 0 0 0 0 0 0 0 0 0 0 0 0 0 0 0 0 0 0 0 0 0 0 0 0 0 0 0 0 0 0 0 0 0 0 0 0 0 0 0 0 0 493 0 310 307 305 311 0 0 315 311 0 304 294 294 0 0 0 0 0
    0 0 0 0 0 0 0 0 0 0 0 0 0 0 0 0 0 0 0 0 0 0 0 0 0 0 0 0 0 0 0 0 0 0 0 0 0 0 0 0 0 0 0 0 0 0 0 0 0 0 0 0 0 0 0 0 0 0 0 0 0 0 0 0 0 0 0 0 0 0 0 0 0 0 0 0 0 0 0 0 0 0 0 0 0 0 0 0 0 0 0 0 0 0 0 0 0 0 0 0 0 0 0 0 0 0 0 0 0 0 0 0 0 0 0 0 0 0 0 0 0 0 0 0 0 0 0 0 0 0 0 0 0 0 0 0 0 0 0 0 0 0 0 0 0 0 0 0 0 0 0 0 0 0 0 0 0 0 0 0 0 0 0 0 0 0 0 0 0 0 0 0 0 0 0 0 0 0 0 0 0 0 0 0 0 0 0 0 0 0 0 0 0 0 0 0 0 0 0 0 0 0 0 0 0 0 0 0 0 0 0 0 0 0 0 0 0 0 0 0 0 0 0 0 0 0 0 0 0 0 0 0 0 0 0 0 0 0 0 0 0 0 0 0 0 0 0 0 0 0 0 0 0 0 0 0 0 0 0 0 0 0 0 0 0 0 0 0 0 0 0 0 0 0 0 0 0 0 0 0 0 0 0 0 0 0 0 0 0 0 0 0 0 0 0 0 0 0 0 0 0 0 0 302 301 299 313 317 318 318 313 0 306 0 0 0 0 0 0 0
    0 0 0 0 0 0 0 0 0 0 0 0 0 0 0 0 0 0 0 0 0 0 0 0 0 0 0 0 0 0 0 0 0 0 0 0 0 0 0 0 0 0 0 0 0 0 0 0 0 0 0 0 0 0 0 0 0 0 0 0 0 0 0 0 0 0 0 0 0 0 0 0 0 0 0 0 0 0 0 0 0 0 0 0 0 0 0 0 0 0 0 0 0 0 0 0 0 0 0 0 0 0 0 0 0 0 0 0 0 0 0 0 0 0 0 0 0 0 0 0 0 0 0 0 0 0 0 0 0 0 0 0 0 0 0 0 0 0 0 0 0 0 0 0 0 0 0 0 0 0 0 0 0 0 0 0 0 0 0 0 0 0 0 0 0 0 0 0 0 0 0 0 0 0 0 0 0 0 0 0 0 0 0 0 0 0 0 0 0 0 0 0 0 0 0 0 0 0 0 0 0 0 0 0 0 0 0 0 0 0 0 0 0 0 0 0 0 0 0 0 0 0 0 0 0 0 0 0 0 0 0 0 0 0 0 0 0 0 0 0 0 0 0 0 0 0 0 0 0 0 0 0 0 0 0 0 0 0 0 0 0 0 0 0 0 0 0 0 0 0 0 0 0 0 0 0 0 0 0 0 0 0 0 0 0 0 0 0 0 0 0 0 0 0 0 0 553 0 541 537 518 0 0 302 299 0 0 0 0 318 0 0 305 0 0 0 0 0 0 0
    0 0 0 0 0 0 0 0 0 0 0 0 0 0 0 0 0 0 0 0 0 0 0 0 0 0 0 0 0 0 0 0 0 0 0 0 0 0 0 0 0 0 0 0 0 0 0 0 0 0 0 0 0 0 0 0 0 0 0 0 0 0 0 0 0 0 0 0 0 0 0 0 0 0 0 0 0 0 0 0 0 0 0 0 0 0 0 0 0 0 0 0 0 0 0 0 0 0 0 0 0 0 0 0 0 0 0 0 0 0 0 0 0 0 0 0 0 0 0 0 0 0 0 0 0 0 0 0 0 0 0 0 0 0 0 0 0 0 0 0 0 0 0 0 0 0 0 0 0 0 0 0 0 0 0 0 0 0 0 0 0 0 0 0 0 0 0 0 0 0 0 0 0 0 0 0 0 0 0 0 0 0 0 0 0 0 0 0 0 0 0 0 0 0 0 0 0 0 0 0 0 0 0 0 0 0 0 0 0 0 0 0 0 0 0 0 0 0 0 0 0 0 0 0 0 0 0 0 0 0 0 0 0 0 0 0 0 0 0 0 0 0 0 0 0 0 0 0 0 0 0 0 0 0 0 0 0 0 0 0 0 0 0 0 0 0 0 0 0 0 0 0 0 0 0 0 0 0 0 0 0 0 0 0 0 0 0 0 0 0 0 0 0 0 0 0 549 549 0 533 0 0 0 0 0 287 0 0 0 0 0 0 0 0 0 0 0 0 0 0</data></depth>
</opencv_storage>
