<?xml version="1.0"?>
<opencv_storage>
<gps_time_stamp>16323</gps_time_stamp>
<gps_x>8.0331889912486076e-003</gps_x>
<gps_y>1.8691899254918098e-002</gps_y>
<gps_z>-2.2677371744066477e-003</gps_z>
<image_time_stamp>4264</image_time_stamp>
<disparity type_id="opencv-matrix">
  <rows>92</rows>
  <cols>320</cols>
  <dt>s</dt>
  <data>
    0 0 0 0 0 0 0 0 0 0 0 0 0 0 0 0 0 0 0 0 0 0 0 0 0 0 0 0 0 0 0 0 0 0 0 0 0 0 0 0 0 0 0 0 0 0 0 0 0 0 0 0 0 0 0 0 0 0 0 0 0 0 0 0 0 0 0 0 0 17 18 15 19 18 19 18 17 17 15 15 14 13 12 11 10 9 0 0 0 0 0 10 0 0 9 9 9 9 9 0 0 0 0 0 0 0 0 0 0 0 0 0 0 10 9 9 0 0 0 0 9 9 0 0 0 9 0 0 0 0 0 0 0 0 0 9 9 0 0 9 9 9 9 9 10 10 11 10 11 10 14 14 18 21 20 20 25 -209 14 13 11 9 9 0 0 0 0 0 0 0 0 0 0 0 0 0 0 0 0 0 0 0 0 9 9 0 0 0 0 0 9 0 9 9 10 9 14 13 14 15 15 14 13 12 12 9 10 9 18 13 13 16 17 16 16 17 17 12 14 15 14 14 15 14 14 13 13 13 13 15 17 18 21 24 25 25 26 26 25 26 26 26 26 26 27 27 27 27 28 29 30 30 34 34 34 36 37 39 39 40 40 39 39 39 37 37 35 33 33 32 32 32 32 33 33 34 37 37 41 42 43 45 44 44 44 47 51 54 54 56 56 56 56 56 57 57 56 57 55 55 54 53 53 53 53 53 52 52 53 56 57 57 57 56 55 0 0 0 0 0
    0 0 0 0 0 0 0 0 0 0 0 0 0 0 0 0 0 0 0 0 0 0 0 0 0 0 0 0 0 0 0 0 0 0 0 0 0 0 0 0 0 0 0 0 0 0 0 0 0 0 0 0 0 0 0 0 0 0 0 0 0 0 0 0 0 0 0 0 0 17 18 16 18 17 18 18 17 17 15 15 14 13 12 11 10 9 0 0 0 0 0 10 0 0 0 8 9 0 9 0 0 0 0 0 0 0 0 0 0 0 0 0 0 9 0 0 0 0 0 0 9 9 0 0 0 9 0 0 0 0 0 0 0 0 0 9 10 0 0 9 9 9 9 9 10 10 11 10 11 10 14 14 16 19 17 17 -209 -209 -193 12 11 10 9 0 0 0 0 0 0 0 -193 0 0 0 0 0 0 0 0 0 0 0 0 9 9 0 0 0 0 0 0 0 0 9 9 0 14 14 14 15 15 14 13 13 13 9 10 10 18 13 13 15 16 15 15 16 16 12 15 15 14 14 15 15 13 13 13 13 13 14 17 19 21 24 25 26 26 26 26 26 25 26 26 26 26 26 27 27 28 29 30 30 33 33 34 36 37 39 39 40 40 39 39 39 37 37 34 33 33 32 32 32 32 32 32 34 37 38 41 43 43 45 45 45 45 48 51 54 54 55 55 55 55 56 56 57 55 56 55 56 54 54 53 53 53 53 52 53 53 56 57 57 57 56 -193 0 0 0 0 0
    0 0 0 0 0 0 0 0 0 0 0 0 0 0 0 0 0 0 0 0 0 0 0 0 0 0 0 0 0 0 0 0 0 0 0 0 0 0 0 0 0 0 0 0 0 0 0 0 0 0 0 0 0 0 0 0 0 0 0 0 0 0 0 0 0 0 0 0 0 16 18 15 18 17 18 18 17 17 15 15 14 12 11 10 9 0 0 0 0 0 0 0 0 0 0 0 0 0 9 0 0 0 0 0 0 0 0 0 0 0 0 0 0 0 0 0 0 0 0 0 9 9 0 0 0 9 0 0 0 0 0 0 0 0 0 9 10 0 0 9 9 9 9 10 10 10 11 10 11 11 14 15 15 17 15 14 -209 -209 -209 11 -193 9 9 9 0 9 0 0 0 0 -193 0 0 0 0 0 0 0 0 0 0 0 0 9 9 0 0 0 0 0 0 0 0 9 9 0 14 14 15 15 15 13 13 13 13 9 10 9 18 13 13 15 16 16 15 17 16 13 15 15 15 14 15 15 13 13 13 13 13 14 16 18 20 24 26 26 26 26 26 26 26 26 27 26 26 26 27 27 28 29 30 29 32 32 34 35 36 38 38 40 40 39 39 39 38 37 34 33 33 32 32 32 32 32 33 34 37 39 42 43 44 46 46 47 48 50 52 54 54 55 55 55 55 56 56 57 56 57 56 56 55 54 54 53 53 53 53 53 53 56 57 57 57 -193 -193 0 0 0 0 0
    0 0 0 0 0 0 0 0 0 0 0 0 0 0 0 0 0 0 0 0 0 0 0 0 0 0 0 0 0 0 0 0 0 0 0 0 0 0 0 0 0 0 0 0 0 0 0 0 0 0 0 0 0 0 0 0 0 0 0 0 0 0 0 0 0 0 0 0 0 16 17 15 18 16 18 17 16 16 15 15 14 13 12 10 9 0 0 0 0 0 0 0 0 0 0 0 0 0 0 0 0 0 0 0 0 0 0 0 0 0 0 0 0 0 0 0 0 0 0 0 0 0 0 0 0 9 0 0 0 0 0 0 0 0 0 9 11 0 0 9 9 9 10 10 10 10 11 11 12 11 13 14 11 13 12 11 -193 -193 -193 10 -193 9 9 9 0 9 9 9 0 0 -193 0 0 0 0 0 0 0 0 0 0 0 0 9 9 0 0 0 0 0 0 0 0 9 9 0 14 14 15 15 16 13 13 13 13 9 9 9 18 13 13 15 15 14 13 15 15 12 14 14 15 15 15 16 13 13 13 13 13 13 15 18 19 24 26 27 26 26 26 26 26 26 28 27 26 27 27 28 28 28 29 28 30 30 33 35 35 38 38 40 40 39 39 39 38 37 35 34 33 32 32 33 33 32 33 35 38 40 42 46 46 48 48 50 51 52 52 54 54 55 55 55 55 55 56 56 55 56 55 56 55 54 54 54 54 54 53 53 53 56 57 57 -193 -193 -193 0 0 0 0 0
    0 0 0 0 0 0 0 0 0 0 0 0 0 0 0 0 0 0 0 0 0 0 0 0 0 0 0 0 0 0 0 0 0 0 0 0 0 0 0 0 0 0 0 0 0 0 0 0 0 0 0 0 0 0 0 0 0 0 0 0 0 0 0 0 0 0 0 0 0 16 16 15 17 16 18 16 15 16 14 14 13 12 11 10 9 9 0 0 0 0 0 9 0 0 0 0 0 0 0 0 0 0 0 0 0 0 0 0 0 0 0 0 0 0 0 0 0 0 0 0 0 0 0 0 0 0 0 0 0 0 0 0 0 0 0 9 11 0 0 10 10 10 10 12 11 11 11 11 12 11 12 13 9 11 10 9 0 -193 -193 10 -193 10 10 9 9 10 10 10 9 0 -193 0 0 0 0 0 0 0 0 0 0 0 0 9 9 0 0 0 0 0 0 0 0 9 10 9 14 15 16 16 16 13 13 13 13 9 9 9 18 13 13 15 15 14 14 16 15 12 14 15 15 15 16 15 13 13 13 13 12 12 14 17 19 23 24 25 25 25 25 25 25 26 27 26 26 27 27 28 27 28 28 28 29 29 32 33 34 37 38 39 39 38 38 38 37 37 35 34 34 33 33 34 33 33 33 35 38 40 43 48 47 49 50 51 51 52 52 54 53 55 54 54 54 55 55 56 54 56 55 56 55 55 -177 54 54 54 53 54 54 57 -193 -193 228 227 228 0 0 0 0 0
    0 0 0 0 0 0 0 0 0 0 0 0 0 0 0 0 0 0 0 0 0 0 0 0 0 0 0 0 0 0 0 0 0 0 0 0 0 0 0 0 0 0 0 0 0 0 0 0 0 0 0 0 0 0 0 0 0 0 0 0 0 0 0 0 0 0 0 0 0 16 17 15 17 16 18 16 15 15 14 14 13 12 11 10 0 0 0 0 0 0 0 0 0 0 0 0 0 0 0 0 0 0 0 0 0 0 0 0 0 0 0 0 0 0 0 0 0 0 0 0 0 0 0 0 0 0 0 0 0 0 0 0 0 0 0 9 11 0 0 9 10 10 10 12 12 11 12 12 13 11 11 14 0 9 0 0 0 -193 -193 9 -193 10 10 10 10 10 10 10 9 9 -193 -193 0 0 0 0 0 0 0 0 0 0 0 9 9 0 0 0 0 0 0 0 0 9 10 9 14 15 16 16 16 13 13 13 13 9 9 10 17 13 12 16 15 14 14 15 15 13 14 15 14 15 15 14 12 12 13 12 12 11 13 17 18 22 23 24 24 24 24 24 24 25 26 26 26 26 27 27 27 27 28 27 29 29 31 33 34 37 37 38 39 38 38 37 37 37 35 35 34 33 34 34 33 33 33 35 39 42 45 50 49 51 51 52 52 52 53 54 53 55 54 54 54 54 55 55 53 56 55 56 55 55 -177 54 54 54 53 54 54 -193 -193 -193 228 228 228 0 0 0 0 0
    0 0 0 0 0 0 0 0 0 0 0 0 0 0 0 0 0 0 0 0 0 0 0 0 0 0 0 0 0 0 0 0 0 0 0 0 0 0 0 0 0 0 0 0 0 0 0 0 0 0 0 0 0 0 0 0 0 0 0 0 0 0 0 0 0 0 0 0 0 17 17 15 17 16 18 17 15 15 14 14 13 12 11 9 0 0 0 0 0 0 0 0 0 0 0 0 0 0 0 0 0 0 0 0 0 0 0 0 0 0 0 0 0 0 0 0 0 0 0 0 0 0 0 0 0 0 0 0 0 0 0 0 0 0 0 9 11 0 0 9 10 10 10 11 11 10 11 11 12 11 9 12 0 0 0 0 0 0 0 0 -193 9 10 9 10 10 10 10 9 9 -193 -193 0 0 0 0 0 0 0 0 0 0 0 9 9 0 0 0 0 0 0 0 8 9 10 9 14 15 16 15 15 12 12 12 12 9 9 12 17 13 13 16 15 15 14 15 14 13 14 14 14 15 15 14 12 12 13 12 12 11 14 18 18 22 23 23 24 24 25 25 25 26 27 26 27 26 27 27 27 27 28 27 28 28 31 32 33 36 36 38 38 38 38 37 37 37 35 35 34 33 34 34 33 34 35 39 42 45 48 51 50 52 51 51 52 52 53 53 52 54 53 54 53 54 55 55 53 55 54 57 55 55 -177 54 54 55 54 54 54 57 -193 -193 229 228 228 0 0 0 0 0
    0 0 0 0 0 0 0 0 0 0 0 0 0 0 0 0 0 0 0 0 0 0 0 0 0 0 0 0 0 0 0 0 0 0 0 0 0 0 0 0 0 0 0 0 0 0 0 0 0 0 0 0 0 0 0 0 0 0 0 0 0 0 0 0 0 0 0 0 0 17 17 16 17 16 19 17 15 15 14 14 12 12 11 -193 0 0 0 0 0 0 0 0 0 0 0 0 0 0 0 0 0 0 0 0 0 0 0 0 0 0 0 0 0 0 0 0 0 0 0 0 0 0 0 0 0 0 0 0 0 0 0 0 0 0 0 9 11 0 9 9 10 10 10 11 11 10 10 10 11 10 0 0 0 0 0 0 0 0 0 0 0 0 9 9 9 9 9 10 9 9 9 0 0 0 0 0 0 0 0 0 0 0 0 10 10 0 0 0 0 0 0 0 8 9 9 10 15 15 15 14 14 11 12 12 11 0 -177 17 20 15 15 17 15 15 14 15 14 13 15 15 16 15 15 15 13 13 13 12 13 11 14 18 17 22 23 24 24 24 25 25 25 26 27 26 26 26 27 27 27 27 28 27 28 28 31 31 33 35 36 37 38 38 37 37 38 37 36 36 34 33 34 34 34 36 38 41 45 47 50 52 51 52 51 51 52 51 52 52 51 53 52 52 52 53 54 53 53 55 54 58 56 55 -177 55 55 55 55 55 54 58 -193 -193 229 229 229 0 0 0 0 0
    0 0 0 0 0 0 0 0 0 0 0 0 0 0 0 0 0 0 0 0 0 0 0 0 0 0 0 0 0 0 0 0 0 0 0 0 0 0 0 0 0 0 0 0 0 0 0 0 0 0 0 0 0 0 0 0 0 0 0 0 0 0 0 0 0 0 0 0 0 17 17 16 17 16 19 17 15 15 14 13 12 12 11 9 0 0 0 0 0 0 0 0 0 0 0 0 0 0 0 0 0 0 0 0 0 0 0 0 0 0 0 0 0 0 0 0 0 0 0 0 0 0 0 0 0 0 0 0 0 0 0 0 0 0 0 9 10 0 9 9 9 10 10 11 10 9 9 9 9 8 0 0 0 0 0 0 0 0 0 0 0 0 9 9 9 9 9 9 9 9 0 0 0 0 0 0 0 0 0 0 0 0 0 10 10 9 0 0 0 0 0 0 0 9 9 9 14 14 14 13 13 10 12 13 12 9 12 24 -193 19 19 20 16 15 13 14 13 12 14 14 15 14 14 15 13 13 13 12 13 11 14 18 15 21 22 23 24 24 25 25 25 26 26 26 26 26 26 27 26 26 27 27 27 27 29 29 32 33 36 37 38 38 37 38 38 37 38 37 35 34 35 36 37 39 41 44 48 50 51 52 51 52 51 52 52 51 52 52 51 53 51 52 51 52 53 52 53 54 55 59 57 57 -177 57 56 57 56 56 55 58 -193 -209 230 230 230 0 0 0 0 0
    0 0 0 0 0 0 0 0 0 0 0 0 0 0 0 0 0 0 0 0 0 0 0 0 0 0 0 0 0 0 0 0 0 0 0 0 0 0 0 0 0 0 0 0 0 0 0 0 0 0 0 0 0 0 0 0 0 0 0 0 0 0 0 0 0 0 0 0 0 17 17 17 17 16 19 16 15 15 13 13 12 11 11 10 9 9 0 0 0 0 0 0 0 0 0 0 0 0 0 0 0 0 0 0 0 0 0 0 0 0 0 0 0 0 0 0 0 0 0 0 0 0 0 0 0 0 0 0 0 0 0 0 0 0 0 9 10 0 0 0 9 9 9 10 9 0 0 9 0 0 0 0 0 0 0 0 0 0 0 0 0 0 0 0 9 9 9 9 9 9 9 -209 0 0 0 0 0 0 0 0 0 0 0 10 10 9 0 0 0 0 0 0 0 0 0 0 13 14 13 13 12 10 13 15 16 16 25 31 39 -209 23 23 18 16 13 14 12 12 14 14 15 14 14 16 13 13 13 12 14 11 14 18 14 20 22 22 23 23 24 25 24 26 26 26 26 26 26 27 26 26 27 27 27 27 29 28 32 31 34 36 37 37 37 37 38 37 38 37 35 35 36 37 39 41 43 46 50 51 51 52 51 52 51 52 52 51 52 52 51 53 50 51 50 52 52 52 52 54 55 60 59 59 58 58 58 59 57 57 56 59 -193 -193 -193 -193 -193 0 0 0 0 0
    0 0 0 0 0 0 0 0 0 0 0 0 0 0 0 0 0 0 0 0 0 0 0 0 0 0 0 0 0 0 0 0 0 0 0 0 0 0 0 0 0 0 0 0 0 0 0 0 0 0 0 0 0 0 0 0 0 0 0 0 0 0 0 0 0 0 0 0 0 16 17 16 18 15 19 15 15 14 14 13 12 11 11 10 9 9 0 0 0 0 0 0 0 0 0 0 0 0 0 0 0 0 0 0 0 0 0 0 0 0 0 0 0 0 0 0 0 0 0 0 0 0 0 0 0 0 0 0 0 0 0 0 0 0 0 9 10 0 0 0 9 9 9 10 9 0 0 8 0 0 0 0 0 0 0 0 0 0 0 -193 -193 0 0 0 0 0 9 9 0 9 10 -209 -193 0 0 0 0 0 0 0 0 0 0 10 11 10 0 0 0 0 0 0 0 0 0 0 12 13 12 12 11 10 14 18 19 23 28 36 40 39 28 27 20 16 12 13 11 12 13 13 15 13 14 16 13 13 13 13 14 12 14 18 14 20 21 22 23 23 24 25 24 26 26 25 26 26 26 26 25 26 26 26 27 26 29 28 32 31 34 35 36 36 36 36 38 36 39 38 36 38 39 40 42 44 46 47 51 50 51 51 51 52 51 52 52 51 52 52 51 53 50 51 49 51 51 50 51 53 54 60 59 60 59 59 59 60 58 58 56 59 -193 -193 -209 -193 -193 0 0 0 0 0
    0 0 0 0 0 0 0 0 0 0 0 0 0 0 0 0 0 0 0 0 0 0 0 0 0 0 0 0 0 0 0 0 0 0 0 0 0 0 0 0 0 0 0 0 0 0 0 0 0 0 0 0 0 0 0 0 0 0 0 0 0 0 0 0 0 0 0 0 0 16 17 17 18 15 18 15 14 13 13 12 12 11 11 11 10 10 10 10 9 9 9 9 0 0 0 0 0 0 0 0 0 0 0 0 0 0 0 0 0 0 0 0 0 0 0 0 0 0 0 0 0 0 0 0 0 0 0 0 0 0 0 0 0 0 0 9 10 0 0 0 9 9 10 10 9 9 0 9 0 0 0 0 0 0 0 0 0 0 0 -193 369 -193 9 9 9 9 10 9 -193 10 13 -209 -193 -209 -193 0 0 0 0 0 0 0 0 10 11 10 0 0 0 0 0 0 0 0 0 0 12 12 11 12 11 10 15 20 21 26 33 39 42 42 -209 36 15 -209 10 11 10 11 12 13 14 13 14 16 13 14 14 13 14 13 15 17 14 19 21 21 23 23 25 25 24 26 26 25 26 25 26 25 25 25 26 26 26 26 28 27 32 30 34 35 35 36 35 36 38 36 40 40 38 40 42 43 46 47 48 49 52 51 51 51 51 52 51 52 52 51 52 52 51 54 49 51 49 52 51 49 50 52 54 -177 60 60 59 59 59 60 58 58 56 58 235 235 -193 -193 -177 0 0 0 0 0
    0 0 0 0 0 0 0 0 0 0 0 0 0 0 0 0 0 0 0 0 0 0 0 0 0 0 0 0 0 0 0 0 0 0 0 0 0 0 0 0 0 0 0 0 0 0 0 0 0 0 0 0 0 0 0 0 0 0 0 0 0 0 0 0 0 0 0 0 0 17 17 17 18 15 17 15 14 13 12 11 11 10 10 11 10 10 10 10 10 9 9 9 0 0 0 0 0 0 0 0 0 0 0 0 0 0 0 0 0 0 0 0 0 0 0 0 0 0 0 0 0 0 0 0 0 0 0 0 0 0 0 0 0 0 0 9 10 0 9 9 10 10 10 11 10 9 9 9 0 0 0 0 0 0 0 0 0 0 -209 -209 -193 -193 -209 -209 11 10 11 -209 -209 11 -193 -209 -193 229 -193 -193 0 0 0 0 0 0 0 10 11 10 0 0 0 0 0 0 0 0 0 0 11 11 11 11 11 11 17 23 23 28 38 41 43 44 44 -193 -209 -209 10 12 10 11 13 14 14 14 14 16 14 14 15 14 14 14 15 18 15 19 21 21 23 24 25 26 25 26 25 25 26 25 25 24 24 25 25 26 26 26 28 27 31 30 33 34 35 36 35 37 38 37 42 42 42 43 46 46 49 49 49 49 52 51 51 51 51 52 51 52 52 51 53 52 52 54 49 51 49 53 53 50 51 52 54 -177 -177 61 59 59 59 60 58 58 55 57 236 236 236 -193 -177 0 0 0 0 0
    0 0 0 0 0 0 0 0 0 0 0 0 0 0 0 0 0 0 0 0 0 0 0 0 0 0 0 0 0 0 0 0 0 0 0 0 0 0 0 0 0 0 0 0 0 0 0 0 0 0 0 0 0 0 0 0 0 0 0 0 0 0 0 0 0 0 0 0 0 17 17 17 19 15 17 16 15 13 12 11 11 10 9 11 10 10 10 10 9 9 9 9 0 0 0 0 0 0 0 0 0 0 0 0 0 0 0 0 0 0 0 0 0 0 0 0 0 0 0 0 0 0 0 0 0 0 0 0 0 0 0 0 0 0 0 9 10 9 9 9 10 10 10 11 10 10 9 9 0 0 0 0 0 0 0 0 0 -209 -209 -209 -209 -209 -209 -209 -209 11 12 -209 -209 11 -209 -177 -209 -193 -193 -193 0 -193 0 0 0 0 0 10 10 11 0 0 0 0 0 0 0 0 0 0 9 9 10 11 11 11 18 23 24 29 -193 40 42 43 -193 -209 -209 -209 11 12 10 11 13 14 14 14 13 16 14 15 15 14 15 14 16 18 15 19 21 22 24 25 26 27 25 26 26 25 25 25 25 24 24 24 25 26 25 26 27 27 30 29 33 34 34 36 36 38 39 39 42 44 44 45 48 48 50 50 50 50 52 51 51 51 51 52 51 52 52 50 53 52 52 54 49 51 50 53 54 51 52 53 54 -177 -177 61 59 59 59 60 58 58 55 57 237 237 237 -193 -177 0 0 0 0 0
    0 0 0 0 0 0 0 0 0 0 0 0 0 0 0 0 0 0 0 0 0 0 0 0 0 0 0 0 0 0 0 0 0 0 0 0 0 0 0 0 0 0 0 0 0 0 0 0 0 0 0 0 0 0 0 0 0 0 0 0 0 0 0 0 0 0 0 0 0 17 17 17 19 15 16 15 15 13 12 12 11 10 11 13 11 11 11 11 10 10 9 9 0 0 0 0 0 0 0 0 0 0 0 0 0 0 0 0 0 0 0 0 0 0 0 0 0 0 0 0 0 0 0 0 0 0 0 0 0 0 0 0 0 0 0 9 10 9 9 10 10 10 10 11 10 9 0 0 0 0 0 0 0 0 0 0 -209 -209 -209 40 51 44 43 47 -209 -209 -193 -209 -209 15 -209 -193 -193 -193 -193 -193 0 -193 0 0 0 0 0 10 10 11 0 0 0 0 0 0 0 0 0 0 9 9 10 11 11 12 19 25 27 31 -193 39 -193 -193 -193 -193 -177 -177 11 12 11 11 13 13 14 13 12 17 15 15 15 14 15 14 16 18 14 19 20 22 25 26 26 27 26 26 26 26 25 25 25 24 24 24 25 25 25 26 26 26 29 28 32 32 33 36 36 39 40 40 44 45 46 47 50 49 51 51 50 50 52 51 51 51 51 51 51 52 52 50 53 52 52 54 50 52 51 54 54 51 52 53 54 -177 60 60 59 59 59 59 58 58 55 56 236 236 -193 -193 -177 0 0 0 0 0
    0 0 0 0 0 0 0 0 0 0 0 0 0 0 0 0 0 0 0 0 0 0 0 0 0 0 0 0 0 0 0 0 0 0 0 0 0 0 0 0 0 0 0 0 0 0 0 0 0 0 0 0 0 0 0 0 0 0 0 0 0 0 0 0 0 0 0 0 0 17 16 17 19 14 15 15 15 14 13 13 13 11 12 15 11 12 11 11 10 9 9 9 0 0 0 0 0 0 0 0 0 0 0 0 0 0 0 0 0 0 0 0 0 0 0 0 0 0 0 0 0 0 0 0 0 0 0 0 0 0 0 0 0 0 0 9 9 0 9 9 9 9 10 10 9 9 0 0 0 0 0 0 0 0 0 -193 -209 -209 -209 40 47 43 43 45 -193 -193 -209 -177 -193 -209 -193 -209 -193 -193 -193 -193 -209 -209 -209 0 0 0 0 10 10 11 9 0 0 0 0 0 0 0 0 0 0 0 11 12 11 14 22 27 28 32 -193 39 -193 -193 -177 -177 -177 -177 -193 13 11 11 13 13 14 13 12 17 15 15 15 14 15 14 15 17 14 18 20 22 24 26 26 27 26 26 26 25 25 24 24 24 23 24 25 25 25 26 26 26 28 28 31 31 33 35 36 39 40 40 44 45 46 48 51 49 51 51 50 50 52 51 51 50 51 51 51 53 52 50 53 52 52 54 50 52 51 53 52 50 52 53 54 59 60 59 58 59 59 59 58 57 55 57 -193 -193 -193 -193 -177 0 0 0 0 0
    0 0 0 0 0 0 0 0 0 0 0 0 0 0 0 0 0 0 0 0 0 0 0 0 0 0 0 0 0 0 0 0 0 0 0 0 0 0 0 0 0 0 0 0 0 0 0 0 0 0 0 0 0 0 0 0 0 0 0 0 0 0 0 0 0 0 0 0 0 16 16 16 19 14 15 16 16 15 14 14 15 12 15 19 12 13 12 12 11 10 10 10 0 0 0 0 0 0 0 0 0 0 0 0 0 0 0 0 0 0 0 0 0 0 0 0 0 0 0 0 0 0 0 0 0 0 0 0 0 0 0 0 0 0 0 0 0 0 0 0 0 0 9 9 9 0 0 0 0 0 0 0 0 0 0 -209 -209 -209 40 39 43 42 43 43 41 42 -209 -177 -177 33 -193 -193 -193 -193 -193 -177 -193 -209 -209 0 0 0 0 9 10 11 9 0 0 0 0 0 0 0 0 0 0 0 11 12 12 17 23 27 29 31 36 37 39 -193 -193 -193 -177 -177 -193 14 12 12 14 13 13 13 11 17 14 14 14 14 14 14 15 16 14 17 20 22 24 26 26 26 25 25 25 25 24 24 24 24 23 24 25 25 25 25 26 25 27 28 31 31 33 36 38 41 41 41 45 46 47 48 51 50 51 51 50 50 52 51 51 49 50 50 51 52 51 50 53 52 52 55 51 52 51 52 51 48 52 52 54 59 59 59 58 58 59 59 58 58 56 57 -193 -193 -193 -193 -177 0 0 0 0 0
    0 0 0 0 0 0 0 0 0 0 0 0 0 0 0 0 0 0 0 0 0 0 0 0 0 0 0 0 0 0 0 0 0 0 0 0 0 0 0 0 0 0 0 0 0 0 0 0 0 0 0 0 0 0 0 0 0 0 0 0 0 0 0 0 0 0 0 0 0 16 16 16 20 14 16 18 18 17 16 16 17 13 15 17 11 13 12 12 11 10 11 10 9 9 0 0 0 0 0 0 0 0 0 0 0 0 0 0 0 0 0 0 0 0 0 0 0 0 0 0 0 0 0 0 0 0 0 0 0 0 0 0 0 0 0 0 0 0 0 0 0 0 0 9 9 0 0 0 0 0 0 0 0 9 -209 -209 -209 -209 38 39 40 41 41 41 40 41 40 -193 -209 36 37 37 35 -193 -193 -177 -177 -193 -209 -209 0 0 0 9 9 10 9 0 0 0 0 0 0 0 0 0 9 10 13 14 14 19 25 28 30 32 36 37 39 -193 -193 -209 -177 -177 -193 16 13 13 14 14 14 14 11 17 14 15 14 14 14 14 15 17 14 19 22 23 25 26 26 26 26 26 26 25 25 24 24 25 24 24 25 25 25 26 26 26 28 29 33 32 33 36 39 41 42 42 45 45 47 48 51 49 50 51 51 50 52 51 51 49 50 50 51 52 51 50 53 52 52 54 50 52 51 52 51 47 52 52 53 58 59 58 57 58 58 58 58 57 56 57 -193 -193 -193 -193 -177 0 0 0 0 0
    0 0 0 0 0 0 0 0 0 0 0 0 0 0 0 0 0 0 0 0 0 0 0 0 0 0 0 0 0 0 0 0 0 0 0 0 0 0 0 0 0 0 0 0 0 0 0 0 0 0 0 0 0 0 0 0 0 0 0 0 0 0 0 0 0 0 0 0 0 17 16 16 20 16 18 21 21 20 20 19 20 12 13 14 9 12 11 11 10 10 10 10 9 9 0 0 0 0 0 0 0 0 0 0 0 0 0 0 0 0 0 0 0 0 0 0 0 0 0 0 0 0 0 0 0 0 0 0 0 0 0 0 0 0 0 0 0 0 0 0 0 0 9 9 9 9 0 0 0 0 0 0 9 13 -193 -193 40 38 37 38 39 40 40 41 41 41 41 41 41 39 39 -193 -193 -193 222 -177 -177 -177 -209 -193 -193 0 0 9 0 10 0 0 0 0 0 9 0 0 0 0 12 16 20 21 18 22 26 28 30 31 36 37 38 -193 39 -193 -209 -209 16 15 13 13 14 13 13 14 11 17 15 15 14 14 14 15 15 17 15 20 22 23 25 26 26 26 26 25 26 25 25 25 24 25 24 23 25 25 25 25 26 26 27 28 34 32 33 37 40 43 43 43 45 45 47 48 51 49 50 51 51 50 52 51 52 49 51 51 51 52 51 50 53 52 52 54 51 52 51 52 51 47 52 51 53 57 58 58 57 57 57 57 57 56 55 56 -193 -209 -209 -193 -193 0 0 0 0 0
    0 0 0 0 0 0 0 0 0 0 0 0 0 0 0 0 0 0 0 0 0 0 0 0 0 0 0 0 0 0 0 0 0 0 0 0 0 0 0 0 0 0 0 0 0 0 0 0 0 0 0 0 0 0 0 0 0 0 0 0 0 0 0 0 0 0 0 0 0 19 19 21 23 18 21 23 24 23 21 21 21 12 11 10 0 10 10 10 9 9 10 10 9 9 0 0 0 0 0 0 0 0 0 0 0 0 0 0 0 0 0 0 0 0 0 0 0 0 0 0 0 0 0 0 0 0 0 0 0 0 0 0 0 0 0 0 0 0 0 0 0 0 9 9 9 9 0 0 0 0 9 10 12 16 -193 -193 40 38 36 38 39 -177 -177 -177 41 41 41 41 42 40 40 -193 223 224 222 223 225 -177 -193 -193 -193 0 0 9 0 9 0 0 0 0 0 10 0 10 10 12 22 24 25 26 24 24 27 28 30 31 35 35 37 39 38 35 -193 -193 18 18 16 14 15 14 14 15 12 17 15 15 14 14 14 15 16 16 15 19 22 22 24 25 25 25 26 25 25 25 25 25 23 25 23 23 25 25 24 25 25 27 27 28 33 32 32 38 42 46 44 44 46 45 47 47 51 49 50 51 51 50 53 51 52 50 51 51 51 53 52 50 53 52 53 54 51 52 51 53 52 48 53 52 53 57 58 57 57 57 57 57 57 56 55 56 -193 -209 -209 -209 -209 0 0 0 0 0
    0 0 0 0 0 0 0 0 0 0 0 0 0 0 0 0 0 0 0 0 0 0 0 0 0 0 0 0 0 0 0 0 0 0 0 0 0 0 0 0 0 0 0 0 0 0 0 0 0 0 0 0 0 0 0 0 0 0 0 0 0 0 0 0 0 0 0 0 0 21 21 24 26 22 25 28 37 36 29 36 -209 -193 22 -209 0 11 10 10 9 0 9 9 9 9 0 0 0 0 0 0 0 0 0 0 0 0 0 0 0 0 0 0 0 0 0 0 0 0 0 0 0 0 0 0 0 0 0 0 0 0 0 0 0 0 0 0 0 0 0 0 0 0 0 9 9 9 0 0 0 0 9 10 13 -193 -193 23 -193 38 37 38 39 -177 -177 -177 42 41 41 42 42 40 40 -193 223 224 223 224 226 -177 -193 -209 -193 10 0 10 0 9 0 0 0 0 0 10 10 13 18 21 26 28 29 29 26 26 28 27 29 29 33 32 34 37 36 32 -193 -193 21 19 18 15 15 14 14 16 12 16 14 14 14 13 14 15 16 15 16 19 22 22 23 24 24 24 25 25 25 25 25 25 24 25 24 23 25 25 25 26 26 28 27 30 34 34 32 38 43 46 44 44 46 45 46 47 50 48 50 51 51 51 53 52 52 50 52 51 52 53 52 51 53 52 53 54 51 52 52 53 52 49 53 53 54 57 58 57 57 57 57 57 57 56 56 56 -193 -193 -193 -193 -209 0 0 0 0 0
    0 0 0 0 0 0 0 0 0 0 0 0 0 0 0 0 0 0 0 0 0 0 0 0 0 0 0 0 0 0 0 0 0 0 0 0 0 0 0 0 0 0 0 0 0 0 0 0 0 0 0 0 0 0 0 0 0 0 0 0 0 0 0 0 0 0 0 0 0 23 24 27 32 29 31 36 40 40 -193 44 -209 -177 -209 -209 -193 -193 -193 10 9 0 9 9 9 9 0 0 0 0 0 0 0 0 0 0 0 0 0 0 0 0 0 0 0 0 0 0 0 0 0 0 0 0 0 0 0 0 0 0 0 0 0 0 0 0 0 0 0 0 0 0 0 0 0 9 0 0 0 0 0 0 10 10 16 -209 -193 -209 39 38 37 38 38 39 40 -177 41 41 41 41 42 41 40 40 -193 -193 224 226 227 -177 -193 -209 23 13 10 10 0 9 0 0 0 0 9 10 11 16 22 24 28 33 34 34 29 28 31 28 29 28 31 30 31 34 34 30 29 27 -193 20 19 15 15 13 14 16 12 14 13 13 12 12 13 14 14 14 16 20 21 22 22 23 22 24 25 24 24 25 25 25 24 25 24 24 26 26 27 28 28 31 32 36 38 38 36 39 43 46 43 43 45 44 45 46 50 47 49 51 51 51 53 52 52 51 52 51 52 53 52 51 53 53 53 54 51 52 52 53 51 48 53 53 54 57 58 57 57 57 57 57 58 57 57 57 -193 -193 -193 -193 -193 0 0 0 0 0
    0 0 0 0 0 0 0 0 0 0 0 0 0 0 0 0 0 0 0 0 0 0 0 0 0 0 0 0 0 0 0 0 0 0 0 0 0 0 0 0 0 0 0 0 0 0 0 0 0 0 0 0 0 0 0 0 0 0 0 0 0 0 0 0 0 0 0 0 0 27 27 32 38 38 36 39 41 42 40 47 -209 -177 -209 -193 -193 -193 -193 -193 9 0 9 9 9 9 0 0 0 0 0 0 0 0 0 0 0 0 0 0 0 0 0 0 0 0 0 0 0 0 0 0 0 0 0 0 0 0 0 0 0 0 0 0 0 0 0 0 0 0 0 0 0 0 0 0 0 0 0 0 0 0 11 11 20 -209 -209 29 38 37 36 38 37 38 39 40 41 40 41 41 42 41 41 40 -193 39 -193 -193 -193 -193 -193 31 27 23 14 12 0 9 0 0 0 0 9 10 11 18 -193 25 29 35 37 36 33 30 33 30 30 29 32 30 32 34 35 -193 30 29 -209 20 19 16 14 13 15 16 13 14 13 13 12 12 13 15 13 14 16 20 20 21 21 22 22 23 24 24 24 25 25 25 24 25 24 24 27 27 29 31 31 35 37 39 40 41 39 40 43 44 43 43 45 44 45 46 50 47 49 51 51 51 52 52 52 51 52 52 52 53 52 52 53 53 53 54 51 52 52 53 51 48 53 52 54 57 57 57 57 57 57 57 58 57 57 57 -193 -193 -193 -193 -193 0 0 0 0 0
    0 0 0 0 0 0 0 0 0 0 0 0 0 0 0 0 0 0 0 0 0 0 0 0 0 0 0 0 0 0 0 0 0 0 0 0 0 0 0 0 0 0 0 0 0 0 0 0 0 0 0 0 0 0 0 0 0 0 0 0 0 0 0 0 0 0 0 0 0 30 31 35 39 39 37 39 -193 -193 -209 -209 -209 -209 -209 -209 -209 -193 -193 10 10 0 9 9 9 9 0 0 0 0 0 0 0 0 0 0 0 0 0 0 0 0 0 0 0 0 0 0 0 0 0 0 0 0 0 0 0 0 0 0 0 0 0 0 0 0 0 0 0 0 0 0 0 0 0 0 0 0 0 0 9 9 12 12 19 -209 -209 27 38 36 35 37 37 38 39 40 40 40 41 41 41 41 41 41 40 39 39 40 41 40 40 37 31 26 21 14 9 9 0 0 9 9 10 11 12 19 -209 26 30 36 38 37 35 31 33 31 30 30 33 31 32 35 37 -193 -193 32 -209 21 19 16 13 13 15 16 13 14 13 12 11 12 13 15 13 14 16 20 19 20 20 22 21 23 24 24 23 25 25 26 24 25 24 24 28 29 32 35 34 38 40 41 42 42 40 40 42 43 42 43 44 43 44 46 49 46 49 51 51 51 52 52 52 51 52 52 52 53 51 52 53 53 52 54 51 52 52 53 51 49 54 53 54 57 57 57 57 57 57 57 58 57 57 58 -193 -193 -193 228 229 0 0 0 0 0
    0 0 0 0 0 0 0 0 0 0 0 0 0 0 0 0 0 0 0 0 0 0 0 0 0 0 0 0 0 0 0 0 0 0 0 0 0 0 0 0 0 0 0 0 0 0 0 0 0 0 0 0 0 0 0 0 0 0 0 0 0 0 0 0 0 0 0 0 0 33 34 36 39 40 37 39 -209 -209 -209 -209 -209 -209 -209 0 8 13 10 9 9 0 9 0 9 9 0 0 0 0 0 0 0 0 0 0 0 0 0 0 0 0 0 0 0 0 0 0 0 0 0 0 0 0 0 0 0 0 0 0 0 0 0 0 0 0 0 0 0 0 0 0 0 0 0 0 9 9 9 9 0 9 11 12 -193 -177 -209 25 36 34 35 37 36 38 39 40 41 40 41 41 41 41 41 41 40 40 40 40 41 40 41 38 33 30 24 22 10 10 0 0 9 9 10 12 12 19 -209 27 30 37 39 38 37 32 35 33 32 33 35 31 32 36 -193 -209 -193 33 -209 21 19 15 13 13 15 17 14 14 13 13 12 13 13 15 13 14 16 19 18 19 19 21 20 22 23 23 23 25 25 26 24 25 25 24 28 30 35 37 36 39 41 42 43 43 40 40 42 42 42 42 44 43 43 45 48 45 49 50 50 50 52 51 51 50 52 52 52 53 51 52 54 54 53 55 52 53 53 54 53 52 55 54 55 56 56 56 56 57 57 56 58 57 57 57 -193 -193 -193 -193 -193 0 0 0 0 0
    0 0 0 0 0 0 0 0 0 0 0 0 0 0 0 0 0 0 0 0 0 0 0 0 0 0 0 0 0 0 0 0 0 0 0 0 0 0 0 0 0 0 0 0 0 0 0 0 0 0 0 0 0 0 0 0 0 0 0 0 0 0 0 0 0 0 0 0 0 37 36 37 40 40 35 -209 -209 0 -209 -209 -193 -209 -193 0 0 10 9 0 0 0 0 0 0 0 0 0 0 0 0 0 0 0 0 0 0 0 0 0 0 0 0 0 0 0 0 0 0 0 0 0 0 0 0 0 0 0 0 0 0 0 0 0 9 0 0 0 0 0 0 0 0 0 0 9 9 9 9 9 -193 -193 -193 -193 -193 -177 -193 -193 32 32 32 37 36 38 39 40 41 40 41 41 41 41 41 41 40 39 39 40 41 40 41 38 31 29 24 22 11 10 0 0 9 9 11 13 12 19 -193 28 31 37 39 39 38 34 36 35 33 36 37 31 32 35 38 -193 32 32 -193 21 19 15 12 13 16 17 15 14 13 13 13 14 14 15 14 13 15 18 17 18 18 20 18 21 22 23 22 25 25 26 25 25 25 24 29 33 36 39 37 40 42 42 43 43 40 40 42 43 42 43 44 43 43 45 47 45 48 49 48 49 51 51 51 50 51 52 52 53 51 53 54 54 54 55 52 54 55 55 54 55 56 54 55 56 56 56 56 56 56 55 57 56 57 57 -193 -193 -193 -193 -193 0 0 0 0 0
    0 0 0 0 0 0 0 0 0 0 0 0 0 0 0 0 0 0 0 0 0 0 0 0 0 0 0 0 0 0 0 0 0 0 0 0 0 0 0 0 0 0 0 0 0 0 0 0 0 0 0 0 0 0 0 0 0 0 0 0 0 0 0 0 0 0 0 0 0 39 38 38 40 -209 -209 215 -193 -193 -209 -209 -193 -209 -209 -209 0 11 9 0 0 0 0 0 0 0 0 0 0 0 0 0 0 0 0 0 0 0 0 0 0 0 0 0 0 0 0 0 0 0 0 0 0 0 0 0 0 0 0 0 0 0 0 9 10 9 0 0 0 0 0 0 0 0 0 0 9 9 -193 -209 -193 -193 -193 -193 -193 -193 -193 -209 30 32 32 36 36 38 39 41 41 40 41 40 40 41 41 40 38 38 38 39 41 40 40 36 29 29 25 22 13 11 0 0 10 10 12 12 11 18 -193 28 -193 36 -209 39 38 35 37 36 -193 -193 39 31 31 34 37 35 32 33 29 22 20 16 13 14 18 18 16 14 13 14 14 14 15 16 14 13 15 18 16 17 17 18 16 20 21 21 20 25 25 26 26 26 26 26 31 36 37 39 37 39 41 42 42 43 40 41 42 43 43 44 44 44 44 45 47 44 47 47 47 49 50 50 50 50 51 52 53 53 51 54 54 54 54 55 53 55 55 56 55 56 56 55 55 55 56 55 56 55 55 54 57 55 57 57 -193 -193 -193 -193 -193 0 0 0 0 0
    0 0 0 0 0 0 0 0 0 0 0 0 0 0 0 0 0 0 0 0 0 0 0 0 0 0 0 0 0 0 0 0 0 0 0 0 0 0 0 0 0 0 0 0 0 0 0 0 0 0 0 0 0 0 0 0 0 0 0 0 0 0 0 0 0 0 0 0 0 39 39 38 40 -193 -193 -193 -209 -193 -209 -193 -193 -209 -209 -209 10 18 11 0 9 0 0 0 0 0 0 0 0 0 0 0 0 0 0 0 0 0 0 0 0 0 0 0 0 0 0 0 0 0 0 0 0 0 0 0 0 9 0 0 0 9 9 9 10 9 0 9 8 0 0 0 0 0 0 -193 -193 9 -193 -193 -193 -209 -193 -193 -193 -193 -193 -209 -193 -193 32 36 36 38 39 40 40 39 39 39 38 40 39 39 37 36 38 39 41 41 41 37 28 28 25 20 12 11 0 0 10 11 13 13 11 16 -193 -209 -193 -193 -177 -209 -209 35 39 -193 -193 -193 41 36 35 36 38 37 34 35 -193 -193 20 17 13 15 19 19 17 14 13 14 14 14 14 16 14 12 15 18 15 17 17 18 15 19 20 20 18 24 24 26 26 26 27 27 32 37 38 39 38 39 41 42 42 42 40 41 42 43 43 44 45 44 44 45 47 44 46 47 46 48 49 49 50 50 51 52 53 53 52 54 54 54 54 55 53 55 56 57 56 57 58 56 55 55 55 55 55 55 55 54 57 55 58 58 -193 -193 -193 -193 -193 0 0 0 0 0
    0 0 0 0 0 0 0 0 0 0 0 0 0 0 0 0 0 0 0 0 0 0 0 0 0 0 0 0 0 0 0 0 0 0 0 0 0 0 0 0 0 0 0 0 0 0 0 0 0 0 0 0 0 0 0 0 0 0 0 0 0 0 0 0 0 0 0 0 0 40 39 38 39 -209 212 214 214 -193 -209 -209 -209 11 20 17 13 21 14 0 11 0 0 0 0 0 0 0 0 0 0 0 0 0 0 0 0 0 0 0 0 0 0 0 9 0 0 0 0 0 0 0 0 0 0 0 0 9 0 0 0 9 9 9 10 9 0 9 9 0 0 -177 -177 0 -193 -193 -193 -193 117 116 -193 -193 114 114 116 -193 -193 -209 -193 -193 32 36 36 37 38 39 39 39 38 38 36 40 38 38 36 35 37 39 41 41 41 36 27 26 24 19 13 12 0 9 11 12 15 16 12 15 20 -193 -209 -177 -177 -177 -193 35 -193 -193 -177 -193 42 39 37 37 40 -193 39 -193 -193 474 -193 -209 13 17 21 19 18 15 14 15 15 15 14 17 14 12 15 19 16 17 18 19 16 21 22 22 20 25 27 31 32 29 29 29 34 38 38 39 38 39 41 41 42 42 40 41 42 43 44 44 45 45 45 46 47 45 46 46 46 48 48 49 49 49 50 52 53 53 51 54 53 54 54 55 52 55 56 57 56 58 58 56 55 55 54 54 55 54 54 53 56 54 58 59 -193 -193 58 58 58 0 0 0 0 0
    0 0 0 0 0 0 0 0 0 0 0 0 0 0 0 0 0 0 0 0 0 0 0 0 0 0 0 0 0 0 0 0 0 0 0 0 0 0 0 0 0 0 0 0 0 0 0 0 0 0 0 0 0 0 0 0 0 0 0 0 0 0 0 0 0 0 0 0 0 40 39 38 -209 -209 -209 215 -193 0 -193 0 -193 10 17 16 13 22 16 9 12 9 9 9 0 0 9 9 0 0 0 0 0 0 0 0 0 0 0 0 0 0 0 0 11 0 0 0 0 0 0 0 0 0 0 0 0 10 0 0 0 9 9 9 10 10 0 9 10 9 0 9 -177 -193 -193 -193 -193 -193 117 116 113 114 114 114 116 -193 -193 -209 -209 -193 32 36 35 37 37 38 38 37 37 37 34 39 37 36 33 32 35 38 41 41 41 34 25 24 24 18 12 12 0 0 11 11 17 19 11 13 18 23 -193 -177 -177 -177 -177 -193 -193 -209 -209 41 43 41 40 39 41 -193 41 42 -193 -193 -193 53 50 46 43 21 21 17 16 16 16 16 15 17 14 12 14 19 17 17 18 20 18 23 -193 -193 23 27 34 -193 -193 32 33 32 36 -193 37 -193 38 39 41 41 42 42 41 42 42 43 44 44 45 45 45 46 46 45 46 46 45 47 47 48 48 48 49 52 52 53 50 53 52 53 53 55 52 55 55 57 56 58 58 56 55 54 54 54 54 54 54 53 56 53 57 59 57 56 58 58 58 0 0 0 0 0
    0 0 0 0 0 0 0 0 0 0 0 0 0 0 0 0 0 0 0 0 0 0 0 0 0 0 0 0 0 0 0 0 0 0 0 0 0 0 0 0 0 0 0 0 0 0 0 0 0 0 0 0 0 0 0 0 0 0 0 0 0 0 0 0 0 0 0 0 0 40 40 39 -209 262 -209 -209 -193 0 9 0 0 12 20 19 14 23 19 9 13 10 10 10 0 0 10 9 0 0 0 0 0 0 0 0 0 0 0 0 0 0 11 -193 19 22 11 0 0 0 0 0 0 0 0 0 0 11 0 0 9 9 9 10 11 10 -193 10 11 9 9 9 -193 -193 -193 115 -193 -193 117 116 113 114 114 114 116 -193 -193 -209 -209 -193 32 36 35 37 36 38 38 37 36 36 33 36 35 36 32 32 34 38 40 40 40 31 25 24 24 19 13 13 0 10 14 14 20 23 13 14 18 23 -193 -193 -177 -177 420 -193 -193 -209 -209 42 44 43 41 41 41 -193 42 43 -193 -193 50 55 54 53 49 -209 24 19 18 17 17 18 16 17 14 12 14 19 17 18 19 20 19 -193 -193 -177 -209 -193 -209 59 69 -209 35 34 36 -193 37 -193 37 38 41 41 41 42 41 42 42 43 44 44 45 45 45 46 46 44 45 45 45 47 47 48 48 47 49 52 52 52 50 52 51 52 53 54 52 54 56 57 57 58 58 56 55 54 53 53 54 54 54 53 55 52 56 58 57 56 58 58 58 0 0 0 0 0
    0 0 0 0 0 0 0 0 0 0 0 0 0 0 0 0 0 0 0 0 0 0 0 0 0 0 0 0 0 0 0 0 0 0 0 0 0 0 0 0 0 0 0 0 0 0 0 0 0 0 0 0 0 0 0 0 0 0 0 0 0 0 0 0 0 0 0 0 0 40 40 -193 -193 262 260 -193 -193 0 10 0 0 12 21 21 15 24 23 11 16 14 14 14 10 9 11 9 0 0 0 0 0 0 0 0 0 0 0 0 9 -193 26 28 26 27 25 -209 -209 0 0 0 0 0 0 0 0 14 10 10 10 11 11 11 13 11 -193 -193 -193 -193 -209 -193 -209 -193 -193 -193 -193 -193 -193 -193 -193 113 113 114 116 -193 -209 -193 -209 -209 33 37 36 37 37 38 38 37 36 36 33 34 35 36 32 32 35 38 40 40 39 31 25 24 24 20 15 14 11 17 22 21 23 27 18 17 20 23 21 -193 -177 -177 -177 422 -193 -193 -193 42 45 43 41 42 42 43 43 44 47 48 52 55 54 54 52 -193 -193 20 19 18 17 18 16 17 14 12 15 19 18 18 19 20 18 -193 -193 -193 323 323 -209 60 70 74 -193 -193 -193 -193 -193 -193 -193 39 41 42 41 42 41 42 43 43 43 44 45 44 45 46 46 44 45 45 44 47 47 48 47 47 49 51 51 52 49 51 51 51 53 54 52 54 56 58 57 58 58 56 54 53 53 53 53 54 53 53 54 52 56 58 57 57 58 59 59 0 0 0 0 0
    0 0 0 0 0 0 0 0 0 0 0 0 0 0 0 0 0 0 0 0 0 0 0 0 0 0 0 0 0 0 0 0 0 0 0 0 0 0 0 0 0 0 0 0 0 0 0 0 0 0 0 0 0 0 0 0 0 0 0 0 0 0 0 0 0 0 0 0 0 39 -193 -193 265 264 263 266 -209 9 13 0 9 15 24 25 20 26 27 25 22 23 22 23 21 21 24 21 13 10 10 10 10 9 0 0 0 0 0 0 -193 -193 27 30 29 30 29 -193 -209 -193 -193 -193 0 0 11 -193 10 22 15 14 14 15 14 13 16 13 -193 -193 -193 -193 -193 -193 -209 -193 -193 -193 -209 -193 -193 -209 -193 -193 -193 -193 -193 -193 -209 -193 -209 -209 35 37 36 38 37 38 38 38 36 37 35 36 37 37 33 33 35 38 40 40 40 34 26 27 26 22 18 18 16 24 26 26 26 29 23 21 22 25 22 -193 -177 -177 -177 -193 -193 41 -209 42 45 44 42 42 42 43 43 46 50 50 54 55 55 55 54 -193 -177 -193 20 20 19 19 16 18 15 12 16 20 19 19 20 21 19 -193 -177 -193 -193 324 -193 67 73 75 -209 -209 -193 -193 -193 -177 -193 -193 42 43 -193 -193 41 42 43 43 43 44 45 45 45 45 45 45 45 45 44 47 47 47 47 48 49 52 52 52 49 51 50 51 53 54 52 54 56 58 57 58 58 56 54 53 53 54 54 54 54 54 54 53 57 58 58 58 59 59 59 0 0 0 0 0
    0 0 0 0 0 0 0 0 0 0 0 0 0 0 0 0 0 0 0 0 0 0 0 0 0 0 0 0 0 0 0 0 0 0 0 0 0 0 0 0 0 0 0 0 0 0 0 0 0 0 0 0 0 0 0 0 0 0 0 0 0 0 0 0 0 0 0 0 0 39 38 -193 -209 265 -193 267 -209 14 20 22 17 21 26 28 25 27 29 28 25 26 26 27 27 27 30 29 27 27 26 26 26 22 -193 0 0 0 -177 19 26 26 29 33 32 34 34 -193 -193 334 -177 335 -193 -209 -193 28 25 27 23 22 -177 20 19 18 20 18 16 -193 -193 -193 -209 -193 -209 -193 -209 -209 -209 -209 -209 341 341 339 -177 -193 -193 -193 -193 -209 -193 39 36 38 37 38 37 38 38 38 36 37 35 37 37 36 33 33 35 37 39 40 40 35 32 35 35 -193 21 22 24 27 30 30 28 31 28 24 24 27 23 -193 -193 -177 -177 -209 41 41 -193 42 45 44 41 41 42 43 44 48 52 52 55 56 55 56 56 -193 -177 -177 -209 22 21 21 19 19 16 12 17 20 20 20 20 22 21 -193 -177 -209 -209 -209 -193 71 74 76 77 -209 -209 -209 -193 -177 -177 -177 -193 -193 -209 -193 -193 43 43 43 43 44 44 44 45 45 45 45 45 44 44 47 47 48 47 48 49 52 52 51 49 51 50 51 53 53 51 54 56 57 56 58 58 57 55 54 54 54 54 55 55 55 55 54 57 59 59 59 60 60 60 0 0 0 0 0
    0 0 0 0 0 0 0 0 0 0 0 0 0 0 0 0 0 0 0 0 0 0 0 0 0 0 0 0 0 0 0 0 0 0 0 0 0 0 0 0 0 0 0 0 0 0 0 0 0 0 0 0 0 0 0 0 0 0 0 0 0 0 0 0 0 0 0 0 0 38 38 -193 -193 268 -193 -193 -193 -193 25 27 26 25 29 31 30 30 34 34 29 29 30 31 31 30 34 33 30 32 30 31 30 29 30 -193 19 -193 27 26 29 29 31 35 35 37 36 -193 -193 -193 -193 -193 -193 -209 32 35 31 32 30 28 27 26 25 24 24 24 23 27 28 28 29 27 31 27 29 30 -193 -193 -193 -177 -177 -193 -193 -209 -209 -209 -193 -209 39 41 38 39 38 39 38 39 39 38 36 38 36 38 39 37 35 35 36 37 39 40 40 36 37 38 38 35 30 27 30 31 34 34 31 33 32 26 26 28 24 -193 -193 -177 -177 -209 41 41 -193 41 45 44 41 42 42 44 45 49 53 53 56 56 56 57 57 58 -209 -193 -209 23 23 23 22 21 16 13 19 21 21 21 21 23 22 -209 -193 -193 717 -209 -209 73 75 77 77 -209 -209 -209 -193 -177 -177 -177 -193 -193 -193 576 -193 44 44 44 44 44 45 45 45 46 46 46 45 45 44 47 48 48 47 48 49 52 52 51 49 51 50 51 52 53 51 53 55 57 55 57 57 57 55 54 54 55 55 55 56 55 55 54 57 59 60 61 61 62 61 0 0 0 0 0
    0 0 0 0 0 0 0 0 0 0 0 0 0 0 0 0 0 0 0 0 0 0 0 0 0 0 0 0 0 0 0 0 0 0 0 0 0 0 0 0 0 0 0 0 0 0 0 0 0 0 0 0 0 0 0 0 0 0 0 0 0 0 0 0 0 0 0 0 0 37 37 38 -193 -193 -193 -193 -193 -193 32 33 32 30 33 35 37 34 36 37 34 33 34 35 35 33 36 35 34 35 33 34 34 34 33 32 28 29 32 32 33 33 34 36 36 38 38 39 -209 -193 -193 -209 -209 -193 37 38 36 36 36 36 34 34 31 30 30 30 29 32 33 34 34 32 36 33 35 36 33 -193 -193 -193 36 31 35 34 34 -193 -177 -193 40 42 40 41 39 40 39 39 39 39 37 38 37 39 40 38 37 37 37 37 39 40 40 36 37 38 38 37 38 35 35 35 35 36 33 34 33 28 28 31 26 25 32 -177 -193 -193 42 42 42 42 45 44 42 42 43 45 46 50 54 54 57 56 57 57 58 59 -193 -193 -209 -209 28 28 26 24 18 14 20 22 23 22 23 24 -209 -177 -177 -177 715 -193 -209 74 75 77 77 72 73 -209 -209 -177 292 -209 -209 -193 576 579 -193 46 46 -193 46 -193 -193 46 46 48 48 47 46 45 45 48 48 48 47 48 49 51 52 51 49 50 50 50 52 52 51 52 54 56 54 56 56 56 55 55 55 55 55 56 56 55 55 54 57 60 61 62 63 63 62 0 0 0 0 0
    0 0 0 0 0 0 0 0 0 0 0 0 0 0 0 0 0 0 0 0 0 0 0 0 0 0 0 0 0 0 0 0 0 0 0 0 0 0 0 0 0 0 0 0 0 0 0 0 0 0 0 0 0 0 0 0 0 0 0 0 0 0 0 0 0 0 0 0 0 -193 38 -193 -193 -193 37 37 33 37 39 38 36 36 36 37 38 37 38 38 37 36 37 36 36 35 37 36 35 36 35 35 35 36 36 35 34 34 35 36 36 36 35 37 37 38 38 39 39 -209 -193 -209 40 41 39 40 38 38 38 39 37 37 36 36 36 36 35 36 35 36 36 35 37 36 37 38 36 38 37 37 39 36 37 37 37 39 -193 40 40 43 41 42 41 41 40 40 40 40 38 39 38 39 41 39 39 38 38 38 39 40 40 36 38 38 38 38 38 37 37 36 36 36 34 35 34 30 29 32 29 28 35 -193 41 42 42 42 42 42 45 45 42 43 44 46 47 51 55 55 57 57 57 57 58 60 59 57 58 -177 -193 49 -193 36 21 16 22 23 25 24 24 -209 -193 -177 -177 -177 -177 -193 75 75 76 77 77 73 74 74 -209 -193 -209 -209 -193 578 580 582 -209 -193 51 -209 -209 -209 -209 -209 -193 50 49 49 46 46 47 48 49 48 47 48 49 51 51 50 48 50 49 50 52 51 51 50 53 55 53 55 55 56 55 55 55 55 55 56 57 56 56 54 57 61 62 63 63 63 62 0 0 0 0 0
    0 0 0 0 0 0 0 0 0 0 0 0 0 0 0 0 0 0 0 0 0 0 0 0 0 0 0 0 0 0 0 0 0 0 0 0 0 0 0 0 0 0 0 0 0 0 0 0 0 0 0 0 0 0 0 0 0 0 0 0 0 0 0 0 0 0 0 0 0 -193 39 -209 -193 -193 39 38 35 39 41 41 39 40 40 39 40 38 38 39 38 37 37 37 37 36 37 36 35 36 35 36 36 37 37 37 36 36 37 38 37 37 36 38 37 39 39 39 39 40 40 42 41 42 40 40 39 39 39 39 38 38 37 37 37 37 36 37 36 37 36 35 38 37 38 38 37 38 38 38 39 37 38 38 38 39 40 40 40 42 41 42 41 41 41 40 41 40 38 39 38 38 41 40 39 39 39 39 39 40 39 36 38 39 38 39 39 38 38 37 37 37 35 35 34 32 31 34 32 31 36 -193 41 43 42 43 43 43 46 46 43 45 45 47 48 51 55 55 57 57 57 58 59 60 60 58 60 58 59 59 59 58 57 -193 24 25 36 30 29 -209 -177 -177 -177 -209 -193 -193 77 78 77 78 78 73 75 75 -193 -193 78 85 -209 -193 -209 -209 81 92 95 100 103 102 100 -193 -193 -193 49 49 46 46 47 48 49 49 47 48 49 50 51 50 48 49 49 50 52 50 51 49 52 54 52 55 55 55 56 55 55 55 56 56 57 57 56 55 58 61 63 64 63 64 63 0 0 0 0 0
    0 0 0 0 0 0 0 0 0 0 0 0 0 0 0 0 0 0 0 0 0 0 0 0 0 0 0 0 0 0 0 0 0 0 0 0 0 0 0 0 0 0 0 0 0 0 0 0 0 0 0 0 0 0 0 0 0 0 0 0 0 0 0 0 0 0 0 0 0 39 39 40 40 40 39 38 36 39 40 40 38 40 39 39 40 39 39 39 39 38 38 38 37 36 37 37 35 37 36 36 37 37 37 37 37 38 38 38 38 38 38 39 39 40 40 40 40 41 41 42 42 43 41 41 40 40 40 40 38 38 37 37 37 36 36 37 36 37 36 36 38 37 38 38 38 38 38 39 40 38 39 38 38 39 40 40 40 41 41 42 42 42 41 41 41 41 38 39 37 38 41 40 39 39 39 39 39 40 40 36 38 39 39 39 39 39 38 38 37 37 36 36 35 33 33 35 34 34 37 41 41 42 42 42 43 43 46 46 43 46 46 48 50 52 -193 -193 -193 57 57 58 59 60 60 58 61 60 61 61 62 61 60 60 -209 -209 40 42 38 -209 -177 -177 -177 -193 -193 -193 79 79 78 78 78 72 73 73 -193 77 81 84 81 80 85 84 85 91 94 95 97 98 96 -193 -193 654 -193 -193 45 45 47 47 49 48 47 48 50 51 51 49 48 49 49 50 52 50 51 49 53 54 52 54 54 55 55 55 55 55 56 56 57 57 57 55 58 61 64 64 64 64 63 0 0 0 0 0
    0 0 0 0 0 0 0 0 0 0 0 0 0 0 0 0 0 0 0 0 0 0 0 0 0 0 0 0 0 0 0 0 0 0 0 0 0 0 0 0 0 0 0 0 0 0 0 0 0 0 0 0 0 0 0 0 0 0 0 0 0 0 0 0 0 0 0 0 0 40 40 41 40 40 39 39 36 39 40 39 39 40 40 40 40 39 39 40 40 39 38 38 38 37 38 37 36 37 37 37 37 37 37 37 38 38 38 39 39 39 39 39 39 40 40 40 40 41 41 43 42 44 42 42 41 40 40 40 39 39 37 37 37 37 37 37 37 37 36 37 38 38 39 39 39 39 39 39 40 38 39 38 38 39 40 39 40 41 41 42 42 42 42 41 42 42 39 39 38 38 42 41 40 40 40 39 40 41 40 37 39 39 39 39 40 39 39 38 38 37 36 36 35 35 35 36 36 36 38 42 41 42 42 42 43 43 46 47 44 47 48 50 51 53 -193 -193 -193 56 -193 -193 58 60 60 58 60 61 62 64 64 63 62 62 60 58 54 53 -193 -209 -177 -177 -209 82 83 82 80 80 78 78 77 71 71 71 74 77 79 83 84 85 88 88 89 94 97 96 98 98 94 -193 -193 -177 -193 -209 45 45 47 47 49 49 48 49 51 51 52 50 49 50 50 51 52 50 51 49 52 53 51 53 53 55 55 55 55 56 56 57 57 57 57 55 59 61 65 65 64 64 64 0 0 0 0 0
    0 0 0 0 0 0 0 0 0 0 0 0 0 0 0 0 0 0 0 0 0 0 0 0 0 0 0 0 0 0 0 0 0 0 0 0 0 0 0 0 0 0 0 0 0 0 0 0 0 0 0 0 0 0 0 0 0 0 0 0 0 0 0 0 0 0 0 0 0 40 40 41 40 41 40 40 37 40 41 40 40 41 40 40 41 40 39 40 40 39 38 38 38 37 38 37 35 37 36 36 37 37 37 37 38 38 38 39 39 40 40 40 40 40 40 41 40 41 40 42 42 44 42 42 42 41 41 41 39 40 38 38 38 38 38 38 38 38 37 38 39 39 39 40 39 39 39 40 40 39 39 38 38 39 40 39 40 41 41 42 43 43 42 41 42 42 39 39 38 38 42 41 41 41 41 40 40 41 41 37 39 39 39 39 40 39 39 38 38 38 37 37 36 36 36 37 37 37 39 42 41 42 42 42 43 43 46 47 44 49 50 51 52 53 -177 -193 170 -209 -177 -193 58 60 60 57 59 61 61 63 65 63 63 62 62 61 57 57 61 -177 -193 89 89 83 84 82 81 82 79 78 78 -193 71 65 -193 -193 78 83 86 87 90 90 90 93 95 95 96 98 94 94 -193 -177 -177 -209 -209 46 48 48 50 50 -193 -193 51 52 53 51 50 51 51 52 53 50 52 49 51 53 51 53 53 55 55 56 56 56 56 57 57 58 57 56 60 61 66 65 64 65 64 0 0 0 0 0
    0 0 0 0 0 0 0 0 0 0 0 0 0 0 0 0 0 0 0 0 0 0 0 0 0 0 0 0 0 0 0 0 0 0 0 0 0 0 0 0 0 0 0 0 0 0 0 0 0 0 0 0 0 0 0 0 0 0 0 0 0 0 0 0 0 0 0 0 0 41 41 41 41 41 41 41 39 41 41 41 40 42 41 40 41 40 40 40 40 40 39 39 39 38 39 38 37 37 37 37 38 37 37 37 38 38 39 40 40 40 40 40 40 41 40 40 40 41 40 43 42 44 43 43 42 42 41 41 40 40 39 39 39 39 38 39 39 39 38 39 40 39 40 40 40 40 40 40 41 40 40 39 39 39 40 39 40 41 41 42 43 42 42 41 41 41 39 39 37 38 41 40 41 41 41 40 40 41 41 37 39 39 38 39 39 39 39 38 38 38 37 38 37 37 37 37 37 38 39 42 41 42 42 42 43 43 46 48 45 50 51 51 52 54 -177 -193 -209 -209 -193 -193 58 59 59 57 58 62 61 63 65 63 63 62 63 62 57 58 63 65 82 89 90 83 84 83 81 82 79 78 78 -209 -209 55 54 55 -193 -193 -209 79 88 88 90 92 97 96 96 98 94 94 -193 -177 -177 -209 -209 47 50 49 51 51 -193 -193 52 52 53 51 51 52 52 53 53 50 52 48 51 53 51 53 53 55 56 56 56 56 56 57 57 58 57 56 60 61 66 65 65 65 64 0 0 0 0 0
    0 0 0 0 0 0 0 0 0 0 0 0 0 0 0 0 0 0 0 0 0 0 0 0 0 0 0 0 0 0 0 0 0 0 0 0 0 0 0 0 0 0 0 0 0 0 0 0 0 0 0 0 0 0 0 0 0 0 0 0 0 0 0 0 0 0 0 0 0 42 42 42 41 42 41 42 40 42 42 41 41 42 41 41 41 41 40 41 41 41 40 39 40 39 39 39 38 38 38 38 39 38 38 38 39 39 39 40 40 41 41 41 41 41 41 41 40 41 41 43 43 45 43 43 43 43 42 42 41 41 40 40 39 39 39 39 39 39 39 40 41 40 41 41 41 41 40 41 41 41 41 40 39 40 40 40 40 41 41 42 43 42 42 41 41 41 39 39 37 37 41 40 41 41 41 41 41 41 41 37 38 39 38 39 39 39 39 38 39 39 38 39 38 38 37 37 38 38 39 42 41 42 42 42 43 43 47 49 46 51 52 52 52 54 -193 -209 -193 -193 -193 56 57 58 58 57 58 62 61 63 65 64 64 63 63 62 57 58 64 -177 77 88 89 82 83 82 81 82 79 78 -193 -193 -209 51 51 50 51 53 55 58 -209 85 89 91 97 98 -193 -193 95 -193 -193 -193 -177 -209 -209 49 52 50 53 -193 126 -193 -193 53 54 52 52 52 52 53 54 50 53 49 51 52 51 53 52 54 55 56 56 56 56 57 57 58 57 56 61 61 67 64 65 65 64 0 0 0 0 0
    0 0 0 0 0 0 0 0 0 0 0 0 0 0 0 0 0 0 0 0 0 0 0 0 0 0 0 0 0 0 0 0 0 0 0 0 0 0 0 0 0 0 0 0 0 0 0 0 0 0 0 0 0 0 0 0 0 0 0 0 0 0 0 0 0 0 0 0 0 43 43 43 42 43 43 43 40 43 42 41 41 43 42 41 42 41 40 41 41 41 40 40 41 40 40 39 39 39 39 39 39 38 38 38 39 39 40 40 40 41 41 42 41 42 41 42 41 42 41 44 43 45 44 44 44 44 42 43 42 42 41 41 40 40 39 40 40 40 40 41 41 41 42 42 42 41 41 41 41 42 42 41 40 40 41 40 40 41 40 41 42 42 41 40 40 40 39 38 37 37 41 41 41 41 41 41 42 42 42 38 39 39 38 39 39 39 39 39 39 39 38 39 38 39 39 38 38 39 39 42 41 42 42 42 44 43 47 50 47 52 52 53 53 54 -193 56 -193 -193 54 55 55 56 57 55 56 62 61 63 65 64 64 63 64 62 57 58 63 59 75 83 88 81 82 82 81 81 -193 -193 -193 -209 -209 47 47 46 47 50 51 54 -209 79 89 92 99 100 -193 -193 97 -193 -193 -193 -209 -209 -209 -193 -177 51 -209 -193 121 123 -209 55 56 54 54 53 53 54 54 50 52 48 49 51 51 54 53 55 56 56 56 56 57 57 57 58 57 56 62 61 67 64 64 64 64 0 0 0 0 0
    0 0 0 0 0 0 0 0 0 0 0 0 0 0 0 0 0 0 0 0 0 0 0 0 0 0 0 0 0 0 0 0 0 0 0 0 0 0 0 0 0 0 0 0 0 0 0 0 0 0 0 0 0 0 0 0 0 0 0 0 0 0 0 0 0 0 0 0 0 44 45 44 43 43 44 44 41 43 42 42 41 43 42 41 42 41 41 41 42 42 40 40 41 41 41 40 40 40 40 40 40 39 39 39 39 39 40 40 41 42 42 42 42 42 42 42 42 42 41 43 44 45 44 44 44 44 43 43 43 43 42 42 41 40 41 41 41 41 41 42 42 42 43 43 43 43 43 42 43 44 43 42 41 41 41 40 40 41 39 41 41 41 41 40 40 40 39 39 37 38 40 41 41 41 42 42 42 43 43 40 41 40 39 39 40 40 40 39 40 40 39 40 39 39 40 38 39 39 40 42 41 42 42 41 43 43 47 49 47 52 52 53 53 54 55 55 -193 -193 -193 54 54 55 55 55 56 62 61 63 65 63 63 63 64 63 57 58 62 -177 74 76 86 80 81 81 80 81 -193 -193 -193 -209 -209 45 45 45 46 47 50 53 -209 -209 91 91 100 101 -193 -209 98 -193 96 95 -209 94 96 99 -193 107 108 111 114 117 115 117 -209 -209 -193 -193 54 55 55 51 53 48 50 52 52 54 53 55 56 56 56 56 57 57 57 58 57 56 63 61 67 63 64 64 64 0 0 0 0 0
    0 0 0 0 0 0 0 0 0 0 0 0 0 0 0 0 0 0 0 0 0 0 0 0 0 0 0 0 0 0 0 0 0 0 0 0 0 0 0 0 0 0 0 0 0 0 0 0 0 0 0 0 0 0 0 0 0 0 0 0 0 0 0 0 0 0 0 0 0 45 46 46 44 44 44 44 42 44 43 42 42 44 43 42 42 42 41 42 42 42 40 41 41 42 42 41 41 41 42 42 41 40 40 40 40 40 41 41 42 43 43 43 43 44 43 44 43 44 42 44 44 45 44 44 44 44 43 44 43 43 43 42 42 41 41 41 41 41 42 42 43 43 44 43 43 43 44 42 43 44 43 43 42 42 42 41 41 41 39 41 41 41 40 40 40 40 39 39 37 38 40 40 41 41 42 42 42 43 43 41 42 41 40 40 41 40 41 40 41 41 40 41 41 40 41 39 39 41 40 42 42 42 42 41 44 44 47 48 47 51 51 53 53 54 55 54 -193 -193 -193 54 53 54 53 55 55 62 61 63 65 63 63 62 63 63 57 58 61 56 -193 74 85 79 -193 80 80 81 -193 -193 -193 73 -193 45 44 44 44 45 47 53 -209 -209 -209 -193 -193 -193 -193 442 99 98 97 97 101 96 97 99 97 104 105 106 108 108 108 110 -193 117 122 -209 -193 57 57 55 54 50 52 53 52 55 54 55 56 56 56 56 56 57 57 57 56 56 65 61 67 63 64 64 63 0 0 0 0 0
    0 0 0 0 0 0 0 0 0 0 0 0 0 0 0 0 0 0 0 0 0 0 0 0 0 0 0 0 0 0 0 0 0 0 0 0 0 0 0 0 0 0 0 0 0 0 0 0 0 0 0 0 0 0 0 0 0 0 0 0 0 0 0 0 0 0 0 0 0 47 48 48 45 45 46 44 43 45 43 43 43 45 44 44 44 44 43 43 43 42 41 42 42 43 43 43 43 43 43 43 43 42 41 41 42 42 42 43 43 45 45 45 44 45 44 46 45 45 44 46 45 46 45 45 45 45 44 46 45 44 44 43 43 42 42 42 42 42 44 44 44 44 44 44 44 44 44 43 44 45 44 44 43 43 43 42 43 42 41 42 41 42 41 40 40 40 39 39 37 39 40 40 42 41 42 42 43 44 44 42 43 42 41 40 41 41 41 40 41 41 40 41 41 41 41 40 41 42 42 44 43 44 43 43 46 45 48 48 47 51 51 52 53 54 54 53 55 -193 -193 54 52 53 52 55 56 62 61 63 65 63 63 62 63 63 57 57 60 56 67 73 84 78 -193 -193 -193 81 -193 81 80 73 -193 46 46 44 44 45 47 53 -209 -209 -209 -193 -193 -177 443 444 -193 -193 98 99 103 100 100 101 100 104 105 106 106 105 106 107 -209 108 119 125 -209 62 62 59 57 54 54 55 54 55 55 56 56 56 56 56 56 57 57 57 57 56 66 61 67 63 64 63 63 0 0 0 0 0
    0 0 0 0 0 0 0 0 0 0 0 0 0 0 0 0 0 0 0 0 0 0 0 0 0 0 0 0 0 0 0 0 0 0 0 0 0 0 0 0 0 0 0 0 0 0 0 0 0 0 0 0 0 0 0 0 0 0 0 0 0 0 0 0 0 0 0 0 0 48 49 48 47 46 47 45 44 46 45 44 45 46 45 45 45 45 44 45 44 42 42 43 42 45 45 44 44 44 45 44 44 43 42 43 43 44 44 45 45 47 46 46 45 47 45 47 45 46 44 46 46 47 46 47 46 47 46 48 47 46 46 45 44 43 44 44 44 44 46 45 45 45 45 44 45 45 45 44 46 47 46 45 45 45 44 44 44 44 42 43 43 43 42 41 41 41 40 40 38 40 40 41 43 43 43 44 44 45 45 43 44 42 41 40 41 41 41 41 41 41 41 42 42 42 42 41 42 43 44 46 45 46 46 45 49 46 50 49 48 51 51 52 52 54 54 53 55 54 53 54 52 53 52 55 56 62 61 63 64 63 63 61 62 62 57 57 59 55 60 72 83 77 -193 79 79 80 -193 -193 80 73 -193 46 47 45 45 45 46 53 -193 -209 -209 -193 -193 -177 443 444 -177 -193 99 100 -193 102 101 103 101 104 105 106 106 104 106 107 -193 108 116 118 114 -209 -193 -193 -209 -209 58 58 55 57 56 56 57 57 57 56 56 57 57 57 57 57 67 61 67 63 64 63 63 0 0 0 0 0
    0 0 0 0 0 0 0 0 0 0 0 0 0 0 0 0 0 0 0 0 0 0 0 0 0 0 0 0 0 0 0 0 0 0 0 0 0 0 0 0 0 0 0 0 0 0 0 0 0 0 0 0 0 0 0 0 0 0 0 0 0 0 0 0 0 0 0 0 0 49 50 50 48 47 48 46 45 47 46 44 47 47 47 47 47 47 45 46 47 43 44 44 43 47 46 45 46 45 46 45 45 45 43 44 45 46 47 49 49 50 50 49 48 50 48 50 47 47 45 47 48 49 48 49 49 51 50 51 50 47 48 46 46 44 45 46 47 46 50 46 46 46 47 45 45 45 45 44 47 48 47 46 46 46 45 46 45 46 44 45 44 44 43 43 43 43 41 42 40 41 42 42 44 43 44 44 45 45 46 44 45 42 42 41 41 41 42 42 42 42 43 44 43 43 43 42 43 45 45 47 47 48 49 48 51 47 51 50 49 50 51 52 53 54 54 53 55 54 53 54 52 53 51 55 56 62 61 63 64 63 63 61 63 62 57 57 59 58 65 72 81 76 -193 78 79 79 -193 -193 79 73 -193 47 48 46 46 46 48 53 61 -209 -209 92 -193 -193 -193 443 -193 -193 99 100 104 102 102 103 102 105 105 106 106 103 105 106 103 105 107 105 105 106 107 108 107 107 106 -193 -209 -193 -209 -193 -193 58 58 57 57 57 57 57 57 58 68 62 67 63 64 63 63 0 0 0 0 0
    0 0 0 0 0 0 0 0 0 0 0 0 0 0 0 0 0 0 0 0 0 0 0 0 0 0 0 0 0 0 0 0 0 0 0 0 0 0 0 0 0 0 0 0 0 0 0 0 0 0 0 0 0 0 0 0 0 0 0 0 0 0 0 0 0 0 0 0 0 50 51 51 49 48 49 46 46 48 46 45 48 48 49 49 49 49 47 49 50 44 45 45 44 49 48 47 48 47 48 47 46 46 44 45 47 48 48 52 50 52 52 51 50 52 50 51 48 49 48 49 51 50 50 51 51 52 51 52 51 48 49 48 47 46 47 48 50 49 52 48 48 48 49 46 47 46 46 46 48 49 49 47 48 47 47 48 47 48 45 46 47 46 46 45 45 45 43 44 42 43 43 43 45 44 45 45 46 46 47 46 47 44 45 42 43 43 43 43 44 44 44 45 45 45 44 44 44 46 46 48 50 51 52 51 53 50 52 51 50 50 51 52 52 54 53 52 55 54 53 54 52 53 51 56 56 62 61 63 63 63 62 61 63 62 57 58 60 61 69 73 80 76 -193 78 78 79 -193 -193 -193 73 -193 47 49 46 46 48 51 54 63 -209 -209 92 101 101 100 -193 100 100 98 100 103 -193 103 103 102 104 105 106 106 100 102 103 98 103 103 102 103 104 105 105 106 107 107 109 111 109 110 111 116 -193 -193 58 58 58 57 57 58 59 68 63 67 63 64 63 63 0 0 0 0 0
    0 0 0 0 0 0 0 0 0 0 0 0 0 0 0 0 0 0 0 0 0 0 0 0 0 0 0 0 0 0 0 0 0 0 0 0 0 0 0 0 0 0 0 0 0 0 0 0 0 0 0 0 0 0 0 0 0 0 0 0 0 0 0 0 0 0 0 0 0 51 52 51 50 48 49 47 47 49 47 46 49 49 50 50 50 50 49 50 51 46 48 49 46 51 49 48 49 49 49 48 47 48 46 48 50 51 51 53 52 53 53 53 52 53 51 52 49 51 48 49 52 51 51 52 51 52 52 53 52 48 51 49 48 48 50 50 52 51 54 50 50 51 51 48 49 48 48 48 50 50 50 48 49 49 48 49 48 50 47 48 49 49 48 47 47 47 45 46 45 46 46 44 47 45 46 46 47 48 48 47 49 46 48 44 45 45 45 46 46 46 46 46 46 46 46 45 45 49 48 50 52 53 53 53 54 52 53 52 51 51 51 52 53 54 53 52 54 54 53 54 52 53 51 56 56 64 61 64 64 63 63 61 63 63 58 60 61 67 71 73 79 76 -193 -193 -193 -193 -193 -193 -193 73 -193 50 51 47 46 48 53 56 69 -209 94 91 101 99 99 100 99 100 98 100 103 -193 -193 -193 -193 105 105 -193 106 100 102 102 95 101 101 101 103 104 105 105 105 106 108 110 114 114 114 114 117 119 123 122 -209 -193 58 58 59 60 69 63 66 63 64 63 63 0 0 0 0 0
    0 0 0 0 0 0 0 0 0 0 0 0 0 0 0 0 0 0 0 0 0 0 0 0 0 0 0 0 0 0 0 0 0 0 0 0 0 0 0 0 0 0 0 0 0 0 0 0 0 0 0 0 0 0 0 0 0 0 0 0 0 0 0 0 0 0 0 0 0 52 53 52 51 50 51 49 50 51 50 49 52 52 51 51 51 52 51 52 53 50 51 52 50 53 51 50 50 50 50 49 48 50 47 51 52 53 53 54 54 54 54 54 53 54 52 53 50 51 50 50 52 52 52 53 52 53 53 54 52 50 52 51 50 51 52 53 53 53 54 51 52 53 53 50 51 50 51 52 52 51 51 50 50 50 49 51 48 50 49 49 50 51 50 50 49 49 48 49 47 48 48 45 48 46 48 47 49 49 49 48 50 47 49 46 46 46 46 48 48 48 49 49 48 48 47 47 46 51 48 51 53 53 54 54 55 53 53 54 52 51 51 52 53 54 53 52 55 54 54 54 53 54 53 57 57 65 61 64 64 63 63 62 63 63 58 60 61 69 72 74 78 -193 -193 -193 -193 -193 -193 77 -193 71 -193 52 53 55 54 -193 57 63 72 89 91 90 100 97 97 99 98 99 98 100 103 562 563 -193 -193 -193 -193 -177 106 99 101 101 91 98 100 101 103 104 105 105 106 107 108 110 113 112 113 115 118 119 123 123 123 126 -209 -209 61 62 69 64 67 63 64 63 63 0 0 0 0 0
    0 0 0 0 0 0 0 0 0 0 0 0 0 0 0 0 0 0 0 0 0 0 0 0 0 0 0 0 0 0 0 0 0 0 0 0 0 0 0 0 0 0 0 0 0 0 0 0 0 0 0 0 0 0 0 0 0 0 0 0 0 0 0 0 0 0 0 0 0 53 53 52 52 51 52 52 53 53 53 52 54 53 53 53 52 53 52 52 54 52 52 53 52 54 52 51 51 52 51 50 49 51 48 53 53 54 53 55 55 55 56 55 55 55 53 54 52 52 51 51 54 53 54 54 53 54 54 55 54 52 54 52 52 53 54 54 55 55 55 53 54 54 54 52 53 52 52 54 53 53 53 52 52 52 52 53 51 52 51 51 53 53 53 52 51 52 51 52 51 52 51 48 51 48 50 50 51 52 52 50 52 50 52 48 49 48 48 50 51 50 51 51 51 50 50 49 49 52 50 52 54 54 55 55 55 54 54 55 54 52 52 52 52 53 53 52 55 54 54 55 54 55 55 57 57 65 61 64 63 63 62 61 63 63 58 61 61 70 -193 75 78 75 -193 78 -193 -193 -193 76 75 72 -193 55 55 58 58 59 60 68 74 90 90 90 101 96 96 99 97 99 97 100 103 -193 -193 -177 -177 -177 -193 -177 -193 96 100 99 89 93 97 99 101 102 105 105 105 106 107 108 110 111 112 114 117 118 122 123 124 127 125 129 133 -193 -209 66 67 64 65 63 62 0 0 0 0 0
    0 0 0 0 0 0 0 0 0 0 0 0 0 0 0 0 0 0 0 0 0 0 0 0 0 0 0 0 0 0 0 0 0 0 0 0 0 0 0 0 0 0 0 0 0 0 0 0 0 0 0 0 0 0 0 0 0 0 0 0 0 0 0 0 0 0 0 0 0 53 54 53 53 53 54 55 55 55 55 54 55 54 54 54 52 53 52 53 54 54 53 54 53 54 53 53 53 53 51 51 51 53 50 54 54 54 54 55 55 56 56 56 55 55 54 54 52 53 53 53 55 55 55 56 55 56 55 55 55 53 55 54 54 55 55 55 56 56 56 55 55 55 55 53 54 53 53 55 54 54 54 53 53 53 53 54 52 54 53 53 54 54 54 54 53 53 53 53 54 54 54 53 54 53 54 54 55 55 55 54 54 54 55 53 53 52 51 53 54 53 54 54 53 53 53 53 53 54 52 53 55 55 56 56 56 55 55 56 56 53 52 53 53 54 54 53 55 55 55 56 55 55 56 58 58 65 61 64 63 63 63 61 63 63 58 61 61 -193 -193 77 78 76 78 78 78 78 76 76 74 -193 -193 57 57 59 59 60 61 68 75 91 90 90 100 95 95 98 97 98 97 100 103 -193 -193 -177 -177 -177 -193 -193 108 96 99 -209 85 89 94 97 100 101 104 104 105 106 107 109 110 111 113 115 118 119 122 123 125 129 129 131 134 134 136 -193 68 66 66 64 63 0 0 0 0 0
    0 0 0 0 0 0 0 0 0 0 0 0 0 0 0 0 0 0 0 0 0 0 0 0 0 0 0 0 0 0 0 0 0 0 0 0 0 0 0 0 0 0 0 0 0 0 0 0 0 0 0 0 0 0 0 0 0 0 0 0 0 0 0 0 0 0 0 0 0 54 56 55 55 54 55 57 57 57 56 55 56 56 56 56 54 54 54 54 55 55 53 54 53 55 54 54 54 55 53 53 53 55 52 55 55 55 55 56 56 56 56 56 55 55 54 54 52 54 54 54 57 57 57 57 56 57 57 56 56 54 55 54 54 55 56 56 56 56 56 56 56 57 57 56 56 55 55 57 55 55 55 54 54 55 55 55 53 55 55 54 56 56 56 55 55 55 54 55 55 55 55 56 56 56 57 57 59 57 57 56 56 56 56 55 55 54 54 55 56 55 55 56 55 55 54 55 54 54 52 53 55 56 57 57 57 56 56 57 57 54 53 53 53 55 55 55 57 56 57 58 57 57 59 58 58 66 62 64 63 63 63 61 63 63 58 61 62 73 74 79 78 76 79 79 78 78 76 76 73 -193 -209 57 57 59 59 60 60 68 76 91 90 90 100 95 95 98 97 98 96 100 103 -209 105 -177 -177 -177 -193 -193 108 98 99 -209 -209 86 90 94 97 100 104 104 105 106 107 109 110 111 114 115 118 120 123 124 125 130 130 132 133 133 134 134 135 -193 68 66 63 0 0 0 0 0
    0 0 0 0 0 0 0 0 0 0 0 0 0 0 0 0 0 0 0 0 0 0 0 0 0 0 0 0 0 0 0 0 0 0 0 0 0 0 0 0 0 0 0 0 0 0 0 0 0 0 0 0 0 0 0 0 0 0 0 0 0 0 0 0 0 0 0 0 0 57 58 59 58 58 59 63 60 59 58 57 57 58 57 57 56 56 -193 57 56 58 55 56 55 56 56 55 56 -193 54 55 55 56 54 56 56 55 55 56 56 56 56 56 55 55 54 54 52 54 55 55 58 58 58 58 57 58 57 57 57 55 56 55 55 56 56 56 56 56 56 56 57 58 58 57 57 57 57 59 56 56 56 55 56 56 56 56 55 56 56 56 57 58 57 56 56 56 56 55 56 56 56 57 58 58 60 59 61 59 59 58 58 58 58 57 57 56 56 56 57 56 57 57 56 56 55 56 56 55 53 54 56 57 58 58 58 57 57 59 59 57 55 55 54 56 57 57 58 58 60 60 60 61 63 60 61 68 63 65 64 63 63 62 64 63 59 63 64 75 75 81 78 77 79 79 78 78 76 77 73 -193 -209 59 59 61 60 61 61 69 76 91 90 90 100 94 95 98 97 98 96 100 103 -193 106 -177 -177 -177 -193 108 109 100 100 -209 -209 -209 -193 -193 93 95 101 102 104 105 107 109 110 113 115 116 119 120 123 123 124 127 127 131 131 132 134 134 135 136 137 -193 -193 0 0 0 0 0
    0 0 0 0 0 0 0 0 0 0 0 0 0 0 0 0 0 0 0 0 0 0 0 0 0 0 0 0 0 0 0 0 0 0 0 0 0 0 0 0 0 0 0 0 0 0 0 0 0 0 0 0 0 0 0 0 0 0 0 0 0 0 0 0 0 0 0 0 0 60 62 68 68 72 67 70 65 63 61 59 60 61 60 61 59 61 64 70 73 73 57 59 57 58 -193 57 58 58 -193 58 58 60 57 57 57 56 56 57 56 56 57 57 57 56 56 55 53 56 57 56 59 58 59 59 58 59 59 58 59 56 59 57 57 58 57 57 57 57 56 57 57 58 58 58 59 59 58 61 57 57 57 56 57 56 57 57 56 57 57 57 58 58 57 57 57 57 57 56 56 56 56 58 60 60 61 60 62 61 61 59 60 59 59 58 58 57 58 58 59 58 58 58 57 57 57 58 57 57 54 55 57 59 58 59 59 58 58 59 60 58 57 57 54 57 58 58 59 61 62 63 64 66 68 63 65 69 64 66 64 64 64 62 65 65 60 67 68 76 76 82 78 77 79 79 79 78 77 77 73 74 75 65 65 68 65 66 66 71 78 89 89 90 99 94 95 98 97 98 96 100 103 -193 106 -193 -177 -193 -193 108 108 97 97 65 68 -193 83 -193 87 83 88 93 98 102 105 107 109 113 115 117 118 119 122 122 123 125 125 128 129 131 133 132 134 134 135 135 133 0 0 0 0 0
    0 0 0 0 0 0 0 0 0 0 0 0 0 0 0 0 0 0 0 0 0 0 0 0 0 0 0 0 0 0 0 0 0 0 0 0 0 0 0 0 0 0 0 0 0 0 0 0 0 0 0 0 0 0 0 0 0 0 0 0 0 0 0 0 0 0 0 0 0 65 67 73 73 74 72 73 69 67 64 62 63 65 66 68 68 72 74 76 77 78 74 68 -193 -193 -193 60 60 61 59 61 62 66 61 59 59 58 57 59 58 57 59 59 59 59 58 59 56 58 61 58 61 59 60 61 60 61 61 61 62 60 65 61 61 64 60 57 57 57 57 57 58 59 59 59 62 64 63 66 62 60 60 58 58 57 58 58 57 58 59 58 60 61 60 58 58 59 59 57 58 57 58 59 63 62 63 62 64 62 62 61 61 60 60 60 60 59 59 60 61 60 60 59 58 59 58 59 59 58 56 56 58 60 59 61 60 59 59 60 60 59 57 57 55 57 59 59 61 63 66 67 68 69 70 66 67 70 66 67 64 64 64 63 66 66 61 69 70 78 78 83 79 78 79 80 80 78 77 78 74 75 75 69 69 70 69 70 70 72 81 88 88 89 98 93 94 98 97 98 96 100 103 103 106 -193 -177 -193 -193 108 108 96 95 63 67 71 71 71 74 75 76 83 88 95 101 103 107 112 114 117 118 119 121 122 122 124 124 127 128 130 132 132 134 135 136 136 135 0 0 0 0 0
    0 0 0 0 0 0 0 0 0 0 0 0 0 0 0 0 0 0 0 0 0 0 0 0 0 0 0 0 0 0 0 0 0 0 0 0 0 0 0 0 0 0 0 0 0 0 0 0 0 0 0 0 0 0 0 0 0 0 0 0 0 0 0 0 0 0 0 0 0 70 71 74 75 76 73 73 71 69 67 66 67 69 69 72 73 74 76 78 79 80 76 75 -193 67 -193 -193 64 64 61 66 68 70 68 63 62 60 58 61 62 61 64 65 65 65 70 69 64 64 67 60 63 62 63 64 62 65 68 67 71 72 73 72 70 71 68 60 59 58 57 58 59 60 61 62 67 71 70 71 70 68 68 -193 63 60 61 60 59 60 62 61 63 66 64 61 62 63 62 61 62 61 62 62 68 65 66 66 67 64 65 63 65 63 64 65 62 62 63 64 66 64 63 62 60 61 59 61 60 59 57 57 59 62 61 63 61 61 61 62 62 60 58 59 56 59 62 61 63 66 69 70 70 71 72 69 71 71 67 68 65 65 65 63 67 68 63 71 72 78 78 82 79 78 79 80 80 79 78 78 74 76 76 72 71 72 72 73 74 75 82 88 88 89 97 93 94 98 97 98 96 101 103 103 106 -193 -177 107 107 108 108 98 96 71 72 74 75 75 78 77 76 79 80 87 89 89 99 105 108 113 116 118 120 122 122 124 124 127 128 130 132 132 134 135 135 136 135 0 0 0 0 0
    0 0 0 0 0 0 0 0 0 0 0 0 0 0 0 0 0 0 0 0 0 0 0 0 0 0 0 0 0 0 0 0 0 0 0 0 0 0 0 0 0 0 0 0 0 0 0 0 0 0 0 0 0 0 0 0 0 0 0 0 0 0 0 0 0 0 0 0 0 73 73 75 76 77 74 74 73 71 70 69 70 71 71 74 74 75 77 78 79 80 77 77 75 73 -193 -193 69 69 64 69 71 72 70 65 63 60 60 64 67 68 70 72 71 72 74 74 74 72 70 63 65 65 65 67 66 69 72 72 74 76 75 75 74 74 73 65 63 60 59 61 62 64 66 -193 71 76 74 75 74 -193 73 -193 69 -193 66 65 63 65 68 67 68 70 69 66 67 69 68 66 68 68 67 67 70 68 68 68 69 67 68 66 68 67 68 69 67 66 68 68 70 69 68 68 63 65 62 64 61 60 59 58 60 64 63 65 64 63 64 64 65 63 60 64 59 65 66 64 66 69 71 72 72 73 73 72 73 74 70 69 67 67 66 64 68 68 65 72 74 78 78 82 79 79 80 80 80 79 79 79 75 79 79 76 75 76 76 76 76 77 83 87 88 89 97 93 95 98 97 98 96 101 103 103 106 -193 -193 107 107 108 108 98 97 83 78 78 78 77 79 78 76 79 78 83 87 87 89 96 104 108 111 116 120 122 123 125 125 128 129 131 132 132 133 134 136 136 136 0 0 0 0 0
    0 0 0 0 0 0 0 0 0 0 0 0 0 0 0 0 0 0 0 0 0 0 0 0 0 0 0 0 0 0 0 0 0 0 0 0 0 0 0 0 0 0 0 0 0 0 0 0 0 0 0 0 0 0 0 0 0 0 0 0 0 0 0 0 0 0 0 0 0 74 75 76 76 78 76 76 75 74 73 72 72 73 73 75 76 76 77 79 79 80 78 78 76 76 76 74 72 73 68 71 72 73 72 66 66 64 64 68 71 73 72 74 74 74 76 76 76 75 -193 -193 67 66 66 69 70 72 76 75 76 77 77 77 76 76 75 70 69 66 62 66 67 68 71 -209 73 79 76 77 76 75 75 74 -193 -193 70 69 67 69 71 69 70 72 71 69 70 72 -193 70 71 72 70 70 72 70 70 70 71 69 69 69 70 69 70 71 70 69 71 71 73 72 71 71 68 69 67 68 65 62 62 61 62 67 66 67 67 66 67 67 67 67 64 70 66 72 70 68 68 71 73 73 73 74 75 74 75 76 73 71 69 69 68 66 69 70 68 74 76 80 80 83 80 80 80 81 81 80 80 81 77 81 81 80 78 80 79 79 78 78 84 87 87 89 97 93 95 98 97 98 96 101 104 103 106 -193 -193 106 106 107 107 98 97 86 81 79 78 78 79 79 76 78 77 82 85 87 88 92 97 104 107 111 117 121 123 125 125 129 130 132 133 133 135 135 137 138 138 0 0 0 0 0
    0 0 0 0 0 0 0 0 0 0 0 0 0 0 0 0 0 0 0 0 0 0 0 0 0 0 0 0 0 0 0 0 0 0 0 0 0 0 0 0 0 0 0 0 0 0 0 0 0 0 0 0 0 0 0 0 0 0 0 0 0 0 0 0 0 0 0 0 0 75 76 77 77 78 78 77 76 75 74 74 74 75 74 76 76 77 77 78 79 79 78 79 77 77 78 75 75 74 71 72 72 73 72 70 73 71 73 73 74 74 74 76 76 76 77 77 77 77 -193 -193 -193 69 68 70 73 75 80 77 78 79 78 78 77 76 76 72 72 70 67 70 -209 -209 -193 -193 75 81 78 78 78 76 77 76 74 75 72 -193 70 71 73 71 72 74 73 72 72 74 -193 73 73 74 72 72 73 72 71 72 72 70 71 71 72 -193 72 72 72 71 -193 73 74 73 73 73 71 70 70 69 67 63 64 64 64 69 68 69 69 69 69 69 69 69 67 72 -193 73 72 69 70 72 75 74 74 76 76 76 77 78 75 73 72 71 70 68 71 73 72 75 79 81 81 83 81 81 81 82 81 80 80 81 77 82 82 82 80 81 81 80 79 79 84 87 87 89 97 93 95 97 97 98 96 101 104 103 107 -193 -193 106 106 107 107 98 96 87 83 81 80 80 81 80 78 79 78 81 85 87 88 91 91 99 105 106 112 118 121 124 124 128 130 133 134 135 135 136 138 139 139 0 0 0 0 0
    0 0 0 0 0 0 0 0 0 0 0 0 0 0 0 0 0 0 0 0 0 0 0 0 0 0 0 0 0 0 0 0 0 0 0 0 0 0 0 0 0 0 0 0 0 0 0 0 0 0 0 0 0 0 0 0 0 0 0 0 0 0 0 0 0 0 0 0 0 76 77 77 78 79 79 79 78 77 76 76 76 77 76 77 77 77 78 79 79 80 78 79 78 78 80 77 76 76 73 74 74 75 75 74 77 78 78 77 77 77 77 78 78 78 79 78 79 79 79 -193 -193 75 73 74 79 80 83 79 79 79 78 78 78 77 76 73 74 73 72 74 -193 -193 78 -193 77 83 79 80 79 77 78 77 76 76 73 75 72 73 75 74 74 76 74 74 74 76 74 74 75 75 74 74 75 74 72 74 74 72 72 72 73 -193 73 74 73 73 -193 74 75 75 74 75 73 73 73 72 69 64 67 68 66 71 70 71 71 71 72 72 72 72 72 74 -193 74 72 70 71 72 76 75 75 77 77 77 79 80 77 75 75 74 72 71 73 75 74 77 81 82 82 83 81 81 81 82 81 80 80 82 78 83 83 84 81 82 82 81 80 80 84 86 87 89 96 93 95 97 97 98 96 101 104 104 107 -193 -193 106 105 106 106 98 96 89 84 83 81 81 82 80 79 80 79 81 83 85 85 88 88 91 101 103 108 113 119 120 120 125 129 133 134 136 136 137 139 140 140 0 0 0 0 0
    0 0 0 0 0 0 0 0 0 0 0 0 0 0 0 0 0 0 0 0 0 0 0 0 0 0 0 0 0 0 0 0 0 0 0 0 0 0 0 0 0 0 0 0 0 0 0 0 0 0 0 0 0 0 0 0 0 0 0 0 0 0 0 0 0 0 0 0 0 76 77 78 78 79 79 80 79 79 78 77 79 79 77 79 79 78 78 80 80 80 79 80 79 78 80 77 77 77 74 76 76 77 77 78 81 83 83 81 82 81 80 81 80 80 80 79 80 80 80 81 80 83 79 83 83 83 84 80 81 80 78 79 78 77 77 74 76 74 75 78 81 79 81 80 79 84 80 81 80 79 79 78 77 78 75 77 74 75 76 75 76 77 76 75 76 77 76 75 76 77 76 76 77 76 74 78 76 74 74 75 75 75 75 76 75 74 76 75 76 76 76 76 75 74 74 73 73 68 71 70 71 72 72 74 73 74 74 74 74 74 74 75 74 76 73 72 72 74 78 77 76 79 78 79 80 81 80 77 79 78 75 75 77 78 77 80 83 83 83 83 82 82 82 82 82 80 80 82 79 82 83 84 82 83 83 82 81 81 84 86 87 89 96 93 95 96 97 98 96 101 104 -193 107 -193 -193 106 105 106 106 98 97 90 86 84 83 83 83 82 80 82 80 82 84 85 85 88 88 91 97 100 103 -193 112 116 118 120 129 135 136 138 138 139 140 143 141 0 0 0 0 0
    0 0 0 0 0 0 0 0 0 0 0 0 0 0 0 0 0 0 0 0 0 0 0 0 0 0 0 0 0 0 0 0 0 0 0 0 0 0 0 0 0 0 0 0 0 0 0 0 0 0 0 0 0 0 0 0 0 0 0 0 0 0 0 0 0 0 0 0 0 77 78 78 78 80 80 81 80 80 79 79 80 80 78 79 80 79 79 80 80 80 79 80 79 78 79 77 77 77 74 76 77 78 78 81 84 85 85 84 84 83 83 82 81 81 80 80 80 79 80 81 82 84 82 85 84 84 85 81 82 80 80 80 78 78 78 76 78 76 78 80 81 80 82 80 80 84 80 82 80 79 80 79 79 79 76 79 75 77 78 77 77 79 77 77 77 79 77 76 78 78 77 78 78 77 76 81 79 77 76 78 78 77 76 77 77 76 77 76 77 76 77 77 76 75 76 74 75 72 73 73 74 75 76 77 76 76 76 76 76 76 76 76 76 77 76 75 74 76 81 78 78 80 79 79 81 82 81 79 83 82 78 81 83 82 81 84 84 84 83 83 83 83 83 83 83 82 82 83 81 83 84 85 83 83 83 82 82 82 84 86 87 89 96 93 95 96 97 99 96 101 104 -193 107 -193 -193 106 105 106 106 99 97 90 87 85 85 85 84 84 82 84 83 84 86 87 86 88 88 89 91 93 96 96 99 101 -209 -193 133 137 136 138 139 139 141 144 142 0 0 0 0 0
    0 0 0 0 0 0 0 0 0 0 0 0 0 0 0 0 0 0 0 0 0 0 0 0 0 0 0 0 0 0 0 0 0 0 0 0 0 0 0 0 0 0 0 0 0 0 0 0 0 0 0 0 0 0 0 0 0 0 0 0 0 0 0 0 0 0 0 0 0 78 79 79 79 81 82 82 82 82 81 80 82 81 79 80 81 80 80 81 81 81 79 81 80 78 80 77 78 78 75 77 78 79 80 82 85 85 86 84 84 84 83 83 82 82 81 81 81 80 81 82 83 83 82 85 84 84 85 82 82 81 80 81 79 79 79 77 79 77 79 80 81 80 81 79 80 83 80 82 80 80 80 80 80 79 77 80 76 78 79 77 78 79 78 77 78 79 78 77 79 79 77 79 80 79 78 83 81 79 78 80 80 78 77 78 78 77 79 78 78 78 78 79 77 76 78 76 77 75 75 76 79 79 82 81 79 79 79 79 79 78 79 78 79 80 79 79 78 79 83 79 79 82 80 80 81 82 82 80 85 84 82 85 86 85 85 86 85 85 84 84 84 84 84 84 84 83 83 85 84 85 84 85 83 84 83 83 82 82 84 86 87 89 97 93 96 96 97 99 97 101 104 -193 106 -177 -177 -193 105 106 106 99 97 90 87 85 85 85 85 84 83 84 85 86 87 88 88 89 89 90 91 92 92 92 92 96 -193 -209 135 139 137 139 141 141 143 146 143 0 0 0 0 0
    0 0 0 0 0 0 0 0 0 0 0 0 0 0 0 0 0 0 0 0 0 0 0 0 0 0 0 0 0 0 0 0 0 0 0 0 0 0 0 0 0 0 0 0 0 0 0 0 0 0 0 0 0 0 0 0 0 0 0 0 0 0 0 0 0 0 0 0 0 78 80 79 79 81 83 83 83 83 83 81 83 83 80 80 81 81 81 81 82 81 79 82 80 79 80 78 78 78 75 78 78 81 81 83 85 85 86 85 84 84 83 83 82 81 82 82 83 81 81 83 84 84 83 87 83 83 84 82 82 81 81 81 80 80 80 78 80 78 79 80 81 80 82 80 81 83 81 82 81 80 81 80 81 80 77 80 76 78 79 77 78 79 78 77 78 79 78 77 79 79 78 79 81 80 81 84 83 80 80 82 81 79 78 79 79 79 81 80 80 80 81 81 79 77 80 78 78 76 76 78 84 83 85 84 81 82 81 82 82 81 82 81 82 83 82 84 83 83 85 80 80 83 82 81 82 82 83 81 85 85 83 86 87 86 86 87 86 86 85 85 85 86 86 85 85 84 84 86 86 86 84 85 83 83 83 82 82 82 84 87 88 90 98 94 97 97 98 100 98 102 -193 -193 -193 -177 -177 -193 105 106 106 99 97 90 88 86 86 86 85 85 84 85 86 87 88 89 89 90 90 91 92 92 91 91 90 92 94 101 -177 -177 136 138 142 141 143 147 143 0 0 0 0 0
    0 0 0 0 0 0 0 0 0 0 0 0 0 0 0 0 0 0 0 0 0 0 0 0 0 0 0 0 0 0 0 0 0 0 0 0 0 0 0 0 0 0 0 0 0 0 0 0 0 0 0 0 0 0 0 0 0 0 0 0 0 0 0 0 0 0 0 0 0 79 81 80 80 82 84 84 84 84 84 83 84 84 81 81 82 82 82 82 82 82 80 82 81 80 80 78 79 78 76 79 79 82 82 84 85 85 86 85 84 85 83 83 82 82 83 83 84 83 82 84 85 85 85 88 82 83 84 82 83 81 82 82 80 82 81 79 81 79 80 81 82 82 84 81 83 84 83 83 82 81 82 80 81 79 77 79 75 77 79 77 77 79 78 77 78 79 79 78 80 80 79 81 82 82 83 84 83 81 82 83 81 79 78 79 81 81 83 83 82 83 83 83 81 79 82 79 79 79 77 83 86 84 85 84 82 83 82 83 83 83 84 83 84 85 85 86 86 86 86 81 81 84 82 82 82 83 83 82 86 86 84 87 88 88 88 89 89 88 87 87 86 87 86 86 85 85 85 86 86 87 85 86 84 84 83 82 82 81 85 88 89 92 100 96 99 98 98 101 99 102 -193 -193 -193 -177 -177 -177 -193 105 105 100 98 91 90 88 88 88 87 86 86 87 88 89 89 90 90 91 91 92 92 92 91 91 90 91 92 94 -193 -209 134 138 145 142 144 148 144 0 0 0 0 0
    0 0 0 0 0 0 0 0 0 0 0 0 0 0 0 0 0 0 0 0 0 0 0 0 0 0 0 0 0 0 0 0 0 0 0 0 0 0 0 0 0 0 0 0 0 0 0 0 0 0 0 0 0 0 0 0 0 0 0 0 0 0 0 0 0 0 0 0 0 81 81 80 80 82 84 85 85 85 85 84 84 85 83 82 83 83 83 83 83 83 81 83 83 81 81 79 80 79 78 80 81 84 84 85 85 85 86 86 85 86 84 85 84 83 84 84 85 84 83 84 84 84 85 87 82 83 84 83 83 82 83 83 81 82 82 81 82 80 82 81 83 83 85 83 85 84 84 84 83 82 83 81 82 79 77 79 75 77 79 77 78 79 78 78 79 80 81 79 82 81 80 82 83 83 84 84 84 81 82 83 82 79 79 79 82 82 85 85 84 85 85 84 83 82 84 82 80 83 77 85 88 85 86 84 82 83 84 84 84 84 85 84 85 87 86 86 87 86 86 82 82 84 82 82 83 84 83 83 86 86 86 89 89 89 89 90 91 91 89 89 87 88 87 86 86 86 86 87 88 89 88 89 88 88 86 85 85 83 86 92 90 94 101 98 100 99 99 101 100 103 -193 -193 -177 -177 -177 227 -193 105 105 101 99 92 92 91 91 92 89 89 87 88 90 90 89 90 89 91 92 92 92 91 91 91 90 91 91 92 98 -209 -209 138 147 144 144 149 145 0 0 0 0 0
    0 0 0 0 0 0 0 0 0 0 0 0 0 0 0 0 0 0 0 0 0 0 0 0 0 0 0 0 0 0 0 0 0 0 0 0 0 0 0 0 0 0 0 0 0 0 0 0 0 0 0 0 0 0 0 0 0 0 0 0 0 0 0 0 0 0 0 0 0 82 82 81 80 82 85 86 86 86 87 85 85 86 84 83 84 84 84 84 84 84 82 84 84 83 82 80 80 80 79 80 81 84 84 85 85 85 87 86 86 86 84 85 84 84 84 -193 -193 84 84 84 83 84 85 87 83 84 84 83 84 83 84 83 82 83 82 82 83 81 83 81 84 84 86 84 85 85 85 85 84 83 83 82 83 80 79 79 76 78 80 79 79 80 80 80 81 81 83 81 83 83 82 84 84 84 85 84 85 83 84 84 82 79 79 79 83 84 86 86 85 86 86 85 85 84 85 84 82 87 81 -193 89 87 87 85 84 84 85 85 85 85 86 85 85 87 87 86 87 86 86 82 83 84 83 82 83 84 83 83 86 86 86 89 89 90 90 91 92 92 91 89 88 88 87 86 86 86 86 88 89 90 90 91 92 93 90 88 88 85 87 96 91 96 101 99 101 99 99 101 100 103 103 -193 -177 -177 -177 227 104 104 103 101 99 93 93 93 93 94 91 91 88 89 91 91 89 90 89 91 92 92 92 91 91 91 91 91 90 92 98 -209 -209 -209 149 146 146 150 145 0 0 0 0 0
    0 0 0 0 0 0 0 0 0 0 0 0 0 0 0 0 0 0 0 0 0 0 0 0 0 0 0 0 0 0 0 0 0 0 0 0 0 0 0 0 0 0 0 0 0 0 0 0 0 0 0 0 0 0 0 0 0 0 0 0 0 0 0 0 0 0 0 0 0 83 81 81 79 83 86 87 88 88 88 86 86 87 86 84 85 85 85 85 86 85 83 85 85 84 83 82 81 80 80 81 81 84 84 85 85 85 87 87 86 87 84 86 84 84 84 85 85 85 84 85 84 85 85 86 82 84 83 83 84 83 84 84 83 84 83 83 84 82 83 81 84 84 86 84 86 85 86 86 85 84 84 83 84 80 81 78 76 78 82 81 80 82 82 82 84 83 85 83 85 84 84 85 86 86 86 85 86 85 85 85 84 81 80 81 85 86 87 88 87 87 87 86 86 85 87 -193 84 89 -209 90 91 90 89 87 85 85 86 86 86 86 86 85 86 87 87 86 87 86 86 83 83 85 83 83 83 84 84 84 86 87 87 89 89 90 90 91 93 93 92 91 89 90 88 87 87 87 87 88 89 91 91 92 93 95 93 92 91 87 88 98 92 98 102 100 101 99 100 101 100 103 103 101 -193 -177 -177 227 103 104 102 101 99 93 93 93 94 96 92 93 89 91 93 93 92 92 91 93 93 93 92 91 91 91 91 91 91 92 98 -193 -209 -193 -193 146 146 150 145 0 0 0 0 0
    0 0 0 0 0 0 0 0 0 0 0 0 0 0 0 0 0 0 0 0 0 0 0 0 0 0 0 0 0 0 0 0 0 0 0 0 0 0 0 0 0 0 0 0 0 0 0 0 0 0 0 0 0 0 0 0 0 0 0 0 0 0 0 0 0 0 0 0 0 82 81 82 79 84 87 89 90 90 89 86 86 87 85 84 85 85 85 85 86 85 83 85 85 85 84 83 82 81 81 82 82 85 84 85 85 85 86 86 86 86 84 87 -193 85 85 85 -193 -193 85 86 84 85 85 86 82 83 83 83 84 83 85 84 83 85 84 84 84 83 83 82 84 85 87 85 87 85 86 86 85 85 85 83 85 80 84 79 77 81 85 85 83 84 84 84 85 85 87 84 85 85 85 86 86 87 87 85 87 86 86 87 85 83 82 84 87 87 88 89 87 88 87 -193 -193 -193 -193 -209 -193 89 -209 91 92 92 91 89 87 87 88 87 87 -193 87 86 87 87 87 87 87 86 86 84 84 85 84 84 84 85 84 84 86 87 87 88 89 89 90 91 93 93 93 92 92 92 89 87 87 87 87 89 90 91 92 93 95 96 94 94 92 90 91 98 93 99 101 100 101 100 100 101 100 103 102 101 -193 -177 -177 227 102 103 100 101 100 92 92 93 94 95 90 92 88 92 95 94 93 93 92 94 94 94 93 92 92 92 92 92 91 94 101 -209 -209 -209 -209 145 145 150 145 0 0 0 0 0
    0 0 0 0 0 0 0 0 0 0 0 0 0 0 0 0 0 0 0 0 0 0 0 0 0 0 0 0 0 0 0 0 0 0 0 0 0 0 0 0 0 0 0 0 0 0 0 0 0 0 0 0 0 0 0 0 0 0 0 0 0 0 0 0 0 0 0 0 0 83 83 85 -193 87 93 93 94 93 92 88 87 87 85 84 84 85 85 85 86 85 84 85 85 85 84 84 83 83 82 82 83 85 84 85 85 84 86 86 85 86 83 86 -209 84 85 85 -193 -209 86 87 85 85 86 86 82 84 83 84 84 84 85 84 84 85 84 85 85 83 84 83 85 85 87 86 87 86 87 87 86 85 85 84 86 81 85 80 81 85 88 87 86 86 85 85 86 86 88 85 86 86 86 87 87 -193 87 85 87 87 87 87 86 84 83 86 88 88 88 90 88 88 -193 -193 -193 -193 -193 -193 -193 90 -209 91 92 93 92 90 88 88 89 88 -193 -193 -193 87 88 88 88 87 87 86 86 85 86 86 85 85 85 86 84 85 87 87 87 88 88 89 90 91 94 94 94 93 95 96 91 89 89 88 88 91 92 93 93 95 97 99 96 97 94 95 95 99 94 100 101 100 102 100 100 101 100 103 101 101 -193 -177 -177 -177 102 103 99 102 100 92 91 92 93 92 89 90 88 91 93 93 92 93 92 94 95 94 93 92 92 92 92 93 92 95 103 -209 -209 -193 -209 143 144 149 144 0 0 0 0 0
    0 0 0 0 0 0 0 0 0 0 0 0 0 0 0 0 0 0 0 0 0 0 0 0 0 0 0 0 0 0 0 0 0 0 0 0 0 0 0 0 0 0 0 0 0 0 0 0 0 0 0 0 0 0 0 0 0 0 0 0 0 0 0 0 0 0 0 0 0 83 83 86 -193 88 102 98 98 97 96 88 87 88 86 85 85 85 85 85 86 86 85 85 86 85 85 86 85 85 85 84 85 87 86 86 85 85 86 85 85 85 83 86 -209 84 85 86 -193 -209 87 88 87 87 88 87 84 85 84 85 85 84 86 84 84 85 84 85 85 84 84 83 86 87 88 87 88 87 88 87 87 -177 -177 85 86 83 86 81 82 85 88 87 87 87 86 86 87 86 89 86 87 86 86 88 88 -193 87 85 87 -193 88 88 87 86 85 87 88 89 89 90 88 88 -193 765 765 765 -177 -193 -193 90 -193 91 92 93 93 91 90 90 91 89 90 -193 -193 88 88 89 88 87 87 86 86 85 86 86 86 86 86 87 85 86 86 87 87 88 88 89 89 91 94 94 94 94 96 97 93 91 91 89 89 93 94 95 96 98 99 100 98 99 97 99 99 100 96 101 101 101 102 100 100 101 101 103 101 101 103 -193 -177 -193 102 102 99 103 101 93 93 94 96 94 89 91 90 92 94 93 93 93 93 95 96 94 94 93 93 93 93 94 93 98 105 -209 119 133 -209 143 143 149 144 0 0 0 0 0
    0 0 0 0 0 0 0 0 0 0 0 0 0 0 0 0 0 0 0 0 0 0 0 0 0 0 0 0 0 0 0 0 0 0 0 0 0 0 0 0 0 0 0 0 0 0 0 0 0 0 0 0 0 0 0 0 0 0 0 0 0 0 0 0 0 0 0 0 0 83 83 87 88 93 -193 101 99 98 97 88 87 88 87 86 86 86 85 86 87 86 86 86 86 86 86 87 87 87 87 87 87 89 88 88 87 86 87 87 86 86 83 86 -193 85 86 86 -209 -209 88 89 89 89 90 89 86 87 86 86 86 85 86 85 85 86 85 86 86 84 85 85 88 88 90 89 90 89 89 89 88 -177 -177 -177 87 85 87 84 85 86 88 87 87 88 87 87 87 87 89 87 87 87 87 88 88 88 88 86 88 88 -193 88 87 86 86 88 89 89 89 90 87 88 -193 766 765 764 764 -193 -209 91 -193 92 92 93 93 91 91 91 92 90 91 -193 -209 88 88 89 88 87 87 86 86 86 87 87 86 86 86 88 85 85 85 87 87 87 87 89 89 91 94 93 94 93 95 97 94 92 93 91 91 94 95 97 97 98 99 100 99 100 98 100 100 101 98 101 101 101 102 100 100 101 101 103 101 101 103 -193 -193 -193 102 103 99 104 103 95 96 98 100 97 90 92 91 93 96 94 93 94 94 95 96 94 94 93 93 94 94 96 95 100 107 -209 -193 -209 -209 144 144 149 144 0 0 0 0 0
    0 0 0 0 0 0 0 0 0 0 0 0 0 0 0 0 0 0 0 0 0 0 0 0 0 0 0 0 0 0 0 0 0 0 0 0 0 0 0 0 0 0 0 0 0 0 0 0 0 0 0 0 0 0 0 0 0 0 0 0 0 0 0 0 0 0 0 0 0 86 87 91 96 102 105 103 100 101 100 89 88 88 88 87 87 87 86 87 87 87 87 86 86 86 87 89 89 89 89 90 90 91 90 90 89 88 89 88 88 89 86 -193 -209 87 88 -209 -193 -209 89 91 91 91 91 91 88 89 88 88 88 87 87 86 87 87 86 87 87 86 87 87 89 90 92 91 92 90 90 90 89 89 89 88 88 86 88 86 87 88 89 88 89 89 88 87 87 87 89 87 87 87 88 89 89 90 89 87 89 89 89 89 88 87 86 88 90 89 89 90 88 88 88 -193 -193 -209 -193 -193 -193 91 92 93 93 94 94 92 92 91 93 90 92 90 89 88 88 88 87 86 87 86 86 86 87 87 87 87 87 88 84 84 84 86 87 87 87 88 89 92 94 94 94 94 97 98 96 95 96 95 93 97 97 98 98 98 99 100 99 100 99 101 101 101 100 102 101 101 102 101 101 101 102 104 101 102 -193 102 -193 -193 103 103 100 104 103 97 99 100 101 97 91 92 91 93 96 94 93 93 94 95 96 95 95 93 93 95 95 97 98 102 -193 -209 -209 -209 -209 144 145 149 145 0 0 0 0 0
    0 0 0 0 0 0 0 0 0 0 0 0 0 0 0 0 0 0 0 0 0 0 0 0 0 0 0 0 0 0 0 0 0 0 0 0 0 0 0 0 0 0 0 0 0 0 0 0 0 0 0 0 0 0 0 0 0 0 0 0 0 0 0 0 0 0 0 0 0 89 91 96 100 103 104 103 102 104 103 97 90 90 91 89 88 88 87 88 88 87 87 85 87 87 88 90 90 91 91 92 92 93 92 92 90 90 91 90 90 91 -193 90 -209 90 91 91 91 91 90 93 92 92 92 92 90 90 89 90 89 89 88 87 88 88 88 88 88 87 88 89 90 92 93 93 94 92 91 91 90 90 90 90 89 87 89 88 89 90 90 91 90 91 90 89 88 88 90 88 88 89 89 90 91 91 91 89 91 91 91 90 89 87 86 88 89 88 88 89 87 88 88 -193 89 89 90 90 90 93 93 94 93 95 95 93 93 93 94 91 93 91 89 88 88 88 87 87 87 86 87 87 88 88 88 89 89 90 84 85 84 86 87 87 87 88 89 92 95 95 95 95 98 99 98 97 98 98 94 100 99 99 99 98 99 100 99 100 99 101 101 101 100 102 100 101 101 101 101 101 102 104 102 103 -193 103 104 104 104 103 100 104 103 98 100 100 100 95 92 91 92 94 95 94 93 93 94 95 96 96 95 93 94 96 97 99 101 -193 -193 -209 -209 -209 -193 145 146 149 145 0 0 0 0 0
    0 0 0 0 0 0 0 0 0 0 0 0 0 0 0 0 0 0 0 0 0 0 0 0 0 0 0 0 0 0 0 0 0 0 0 0 0 0 0 0 0 0 0 0 0 0 0 0 0 0 0 0 0 0 0 0 0 0 0 0 0 0 0 0 0 0 0 0 0 92 94 98 100 102 102 102 102 104 102 101 95 95 94 91 90 89 88 89 88 88 88 86 87 89 90 93 92 93 94 94 94 95 94 93 92 92 92 92 93 93 91 91 -193 91 92 92 92 92 92 94 93 94 93 93 91 92 91 91 90 90 90 89 89 90 89 89 89 88 89 90 91 93 93 95 95 93 93 92 91 91 91 91 90 88 90 89 90 92 91 92 91 92 92 91 89 89 91 89 89 90 90 91 92 93 92 91 92 93 92 92 91 89 87 89 89 88 88 88 87 88 88 89 90 90 91 92 92 94 95 96 94 95 96 94 94 94 94 92 94 92 90 89 89 89 88 87 87 88 88 89 89 90 90 90 91 92 85 85 85 87 87 87 87 88 89 93 95 95 95 95 98 99 99 99 99 101 99 102 100 100 99 98 99 100 99 100 99 101 101 100 100 102 99 100 101 100 101 101 102 104 102 103 104 104 104 104 104 103 100 103 103 99 101 101 100 94 93 91 92 94 95 95 94 94 95 96 98 98 97 95 96 99 99 101 103 -209 -177 -209 -209 -209 -209 145 147 149 146 0 0 0 0 0
    0 0 0 0 0 0 0 0 0 0 0 0 0 0 0 0 0 0 0 0 0 0 0 0 0 0 0 0 0 0 0 0 0 0 0 0 0 0 0 0 0 0 0 0 0 0 0 0 0 0 0 0 0 0 0 0 0 0 0 0 0 0 0 0 0 0 0 0 0 94 95 98 100 101 102 102 101 103 101 101 97 97 96 93 91 90 89 90 90 88 89 87 88 91 92 97 94 95 96 96 95 97 95 95 93 94 94 93 94 94 93 93 94 93 94 94 93 93 93 96 94 94 94 93 92 93 93 93 91 92 91 92 91 91 91 90 90 90 90 91 92 94 93 96 97 94 94 93 93 93 92 93 91 89 91 90 91 92 93 94 93 94 94 93 91 91 92 91 90 91 91 92 93 93 93 92 93 94 93 93 92 90 90 91 90 89 88 89 88 89 88 90 91 91 92 93 94 95 96 96 95 96 97 95 95 95 95 92 95 94 91 91 91 91 89 88 90 90 90 91 91 91 92 92 93 94 87 87 87 88 88 87 88 89 90 93 95 95 95 96 98 99 100 99 99 102 101 103 102 101 99 98 99 100 99 100 99 101 101 101 101 102 99 100 101 100 101 101 103 104 103 104 105 104 105 105 105 104 101 104 104 101 103 102 103 96 97 93 96 97 96 96 96 95 96 97 99 100 100 97 99 100 100 102 103 -193 -177 -193 -209 -209 -193 145 147 149 146 0 0 0 0 0
    0 0 0 0 0 0 0 0 0 0 0 0 0 0 0 0 0 0 0 0 0 0 0 0 0 0 0 0 0 0 0 0 0 0 0 0 0 0 0 0 0 0 0 0 0 0 0 0 0 0 0 0 0 0 0 0 0 0 0 0 0 0 0 0 0 0 0 0 0 94 95 98 99 101 101 101 100 102 100 101 99 99 97 95 94 92 92 92 92 92 91 90 90 94 95 100 97 97 98 97 97 98 97 96 93 95 96 94 97 96 95 95 97 96 96 96 95 94 95 98 95 95 95 94 94 94 94 95 93 94 94 95 93 93 93 92 92 91 92 93 93 96 94 98 98 95 96 95 94 94 94 94 92 90 92 91 92 93 93 94 94 95 95 94 92 91 94 92 91 93 93 93 94 94 94 93 94 95 94 94 94 92 92 92 91 89 89 89 88 89 89 91 92 93 94 94 95 96 97 97 95 95 97 95 96 95 96 93 95 95 93 92 92 93 91 91 94 93 93 94 94 94 94 94 95 96 90 89 89 90 89 89 90 90 91 94 95 95 95 96 99 99 100 100 99 103 103 104 103 103 100 99 100 100 99 100 100 101 101 101 102 102 99 101 101 101 101 102 104 105 104 105 106 105 106 106 106 105 103 105 105 102 104 103 104 99 102 99 100 99 97 97 97 95 95 97 99 101 101 101 101 102 102 104 104 -193 -177 -193 -209 -209 150 146 147 149 146 0 0 0 0 0
    0 0 0 0 0 0 0 0 0 0 0 0 0 0 0 0 0 0 0 0 0 0 0 0 0 0 0 0 0 0 0 0 0 0 0 0 0 0 0 0 0 0 0 0 0 0 0 0 0 0 0 0 0 0 0 0 0 0 0 0 0 0 0 0 0 0 0 0 0 95 96 98 99 100 100 101 99 101 99 101 100 101 99 98 98 96 96 97 95 95 95 94 94 98 98 101 99 99 99 98 98 99 97 97 94 96 97 95 98 97 96 97 98 98 97 98 96 94 95 98 96 96 95 95 95 95 96 96 94 96 96 96 95 95 95 93 93 93 92 93 93 96 94 98 99 96 97 96 96 96 95 97 93 92 93 92 94 93 94 94 94 95 95 95 93 92 94 94 93 95 94 95 96 96 96 95 96 95 94 95 95 92 94 92 92 90 90 90 89 90 90 92 94 94 95 96 97 98 98 98 96 95 98 96 98 97 98 94 97 97 96 95 95 96 94 95 98 96 96 97 96 96 96 96 97 97 93 91 91 93 91 90 92 91 92 95 96 96 95 96 99 99 100 100 98 103 104 104 104 103 101 99 101 101 100 100 100 102 101 102 103 103 101 103 103 102 102 103 105 106 105 106 107 106 107 107 107 105 104 105 105 103 104 104 104 99 103 102 102 101 99 100 100 99 98 98 101 102 103 103 103 104 103 105 105 -193 -177 -193 -209 -193 150 147 148 149 147 0 0 0 0 0
    0 0 0 0 0 0 0 0 0 0 0 0 0 0 0 0 0 0 0 0 0 0 0 0 0 0 0 0 0 0 0 0 0 0 0 0 0 0 0 0 0 0 0 0 0 0 0 0 0 0 0 0 0 0 0 0 0 0 0 0 0 0 0 0 0 0 0 0 0 98 97 99 100 101 100 100 97 100 97 100 100 101 100 -193 -193 -193 -193 -193 97 97 96 97 97 100 99 102 99 99 99 98 97 98 97 97 93 96 97 95 98 98 96 97 98 98 97 97 95 94 95 98 95 96 95 95 95 96 96 96 94 96 96 96 96 96 96 93 93 94 93 94 93 96 93 98 99 97 98 97 97 97 97 98 94 93 96 93 95 94 94 94 95 95 95 95 94 94 95 96 95 97 96 96 97 96 97 96 97 96 95 96 96 94 95 93 93 92 92 91 91 91 92 95 97 97 97 98 98 99 99 99 96 96 99 98 99 99 100 97 99 100 99 98 98 99 98 98 100 99 98 99 98 98 98 98 98 97 96 93 94 95 94 92 94 93 93 97 96 96 96 96 98 98 99 99 97 102 103 104 104 102 101 100 101 101 100 101 101 102 102 103 104 104 103 104 104 103 104 105 106 107 106 106 107 107 107 107 107 105 104 105 105 104 105 104 104 101 104 105 104 104 102 104 104 103 102 101 102 104 105 106 105 105 105 106 -193 -193 314 -177 -209 -209 151 148 149 149 148 0 0 0 0 0
    0 0 0 0 0 0 0 0 0 0 0 0 0 0 0 0 0 0 0 0 0 0 0 0 0 0 0 0 0 0 0 0 0 0 0 0 0 0 0 0 0 0 0 0 0 0 0 0 0 0 0 0 0 0 0 0 0 0 0 0 0 0 0 0 0 0 0 0 0 101 99 100 101 101 100 100 97 99 96 99 99 100 99 -193 -193 -193 -193 99 98 98 98 98 99 101 99 102 99 99 99 98 97 98 97 97 93 96 97 96 98 98 97 97 98 97 97 97 95 93 94 97 95 95 95 94 94 95 96 96 94 96 96 96 96 96 97 94 94 93 92 93 93 95 92 98 98 96 98 97 97 97 97 99 95 94 97 94 97 95 96 95 95 95 95 96 94 94 95 97 97 98 97 98 98 98 98 98 98 97 96 97 96 94 97 94 95 93 93 93 93 94 94 97 99 98 98 99 99 99 100 99 97 96 100 100 101 101 102 100 100 101 101 100 101 100 100 100 101 100 99 100 99 99 99 98 98 97 98 96 96 97 96 94 97 95 95 99 97 97 96 96 99 98 100 99 96 102 102 103 103 102 102 100 101 101 100 101 101 102 102 103 105 104 105 106 105 105 105 105 106 107 106 106 107 107 107 107 108 106 104 105 105 104 105 104 104 102 105 106 106 106 105 106 106 106 106 103 103 106 106 108 106 106 106 107 106 -193 -177 314 -209 -209 151 149 150 149 148 0 0 0 0 0
    0 0 0 0 0 0 0 0 0 0 0 0 0 0 0 0 0 0 0 0 0 0 0 0 0 0 0 0 0 0 0 0 0 0 0 0 0 0 0 0 0 0 0 0 0 0 0 0 0 0 0 0 0 0 0 0 0 0 0 0 0 0 0 0 0 0 0 0 0 101 100 100 101 101 101 101 99 100 97 100 99 99 97 95 97 97 98 99 99 100 -193 -193 -193 102 100 102 100 100 99 98 98 99 98 98 94 97 97 96 99 98 97 98 98 97 97 97 95 94 93 96 94 95 95 94 94 95 96 97 95 97 97 97 97 97 97 93 93 92 91 92 92 94 91 97 97 95 98 97 97 97 97 98 95 95 98 94 98 96 97 95 95 95 95 96 95 95 97 98 99 100 99 99 99 98 99 98 98 97 96 97 96 95 98 95 95 94 94 94 94 95 95 98 99 99 98 99 99 99 100 100 96 97 100 101 102 102 103 100 101 102 101 101 102 101 100 101 101 100 99 100 99 99 99 99 98 98 100 99 99 99 98 97 99 97 97 100 97 98 97 97 99 98 100 99 95 102 102 103 103 102 104 102 103 102 101 102 102 103 103 104 105 105 106 107 107 106 106 106 107 108 107 107 108 107 107 107 108 105 104 104 104 104 104 104 104 103 105 106 106 106 105 107 107 107 107 106 105 108 107 109 106 107 107 107 107 113 -209 -209 -209 -209 -193 148 150 149 148 0 0 0 0 0
    0 0 0 0 0 0 0 0 0 0 0 0 0 0 0 0 0 0 0 0 0 0 0 0 0 0 0 0 0 0 0 0 0 0 0 0 0 0 0 0 0 0 0 0 0 0 0 0 0 0 0 0 0 0 0 0 0 0 0 0 0 0 0 0 0 0 0 0 0 101 100 101 101 102 101 101 100 101 98 101 100 100 96 97 100 -209 -209 -209 564 -193 -209 -209 -209 -209 100 102 100 100 99 98 98 99 98 99 95 98 98 97 100 99 99 100 100 99 99 99 96 94 95 96 94 95 96 94 94 95 95 97 95 97 97 96 97 97 97 93 91 91 90 91 91 92 90 96 97 95 97 96 96 96 96 98 96 96 98 95 99 97 98 96 95 95 95 97 96 95 97 99 100 100 99 99 99 99 99 99 99 97 96 98 96 95 98 95 96 94 94 94 94 95 96 99 99 98 98 99 99 99 100 100 96 96 99 99 101 101 102 100 101 102 101 101 102 101 100 100 101 99 99 99 99 99 99 99 99 98 100 100 100 99 99 99 100 98 98 101 97 97 97 97 99 98 99 99 95 103 103 104 105 104 106 107 107 105 104 103 104 104 103 105 105 105 106 107 107 106 106 106 107 107 108 107 108 107 107 107 108 105 104 104 105 104 105 104 105 104 106 106 106 106 105 107 107 107 107 107 109 110 109 111 108 109 109 109 108 114 -193 -177 -209 -193 -193 147 150 148 147 0 0 0 0 0
    0 0 0 0 0 0 0 0 0 0 0 0 0 0 0 0 0 0 0 0 0 0 0 0 0 0 0 0 0 0 0 0 0 0 0 0 0 0 0 0 0 0 0 0 0 0 0 0 0 0 0 0 0 0 0 0 0 0 0 0 0 0 0 0 0 0 0 0 0 102 100 101 102 102 102 102 100 100 98 101 101 100 95 103 -209 -209 -209 -209 -193 -193 -193 -193 -193 -193 102 103 101 100 100 99 99 100 99 100 96 98 99 98 101 100 100 102 -209 -193 -193 -193 98 -193 -193 97 94 96 97 94 94 95 95 97 95 96 96 95 97 96 96 91 90 90 89 90 90 91 90 95 97 95 97 96 96 96 97 98 96 96 99 96 99 97 99 96 96 96 96 99 98 97 99 100 101 101 100 101 101 100 101 100 100 99 97 99 96 96 98 96 96 94 95 95 95 96 98 100 100 99 99 100 100 100 100 100 96 96 99 99 100 100 101 99 100 101 100 100 101 100 99 99 100 99 99 99 99 99 99 99 99 98 100 100 100 99 98 99 100 98 98 101 98 98 98 98 101 99 100 100 97 104 104 105 106 105 107 110 110 108 107 106 106 104 104 106 105 105 107 108 108 107 106 106 108 107 107 106 106 105 106 106 107 104 105 105 106 106 107 106 108 106 108 107 107 108 107 109 109 108 109 109 112 112 111 112 110 112 112 111 110 115 -193 -177 -177 -177 -193 146 149 147 147 0 0 0 0 0
    0 0 0 0 0 0 0 0 0 0 0 0 0 0 0 0 0 0 0 0 0 0 0 0 0 0 0 0 0 0 0 0 0 0 0 0 0 0 0 0 0 0 0 0 0 0 0 0 0 0 0 0 0 0 0 0 0 0 0 0 0 0 0 0 0 0 0 0 0 104 101 103 103 104 103 103 102 102 101 104 104 105 102 107 -193 -193 118 116 -193 -193 115 -193 -193 -193 108 105 103 -193 101 101 101 102 102 102 100 100 100 101 102 101 102 -193 -209 -193 -209 -193 102 -209 -209 -193 97 99 100 97 96 96 95 97 95 97 95 95 97 96 97 92 91 92 90 91 91 93 91 97 98 96 98 98 98 97 98 98 97 98 100 98 101 99 101 97 -193 98 -193 -193 99 99 101 101 103 102 102 102 102 102 103 102 102 100 99 100 97 97 99 96 98 96 96 97 97 98 100 101 101 100 100 101 102 101 101 101 98 99 101 101 101 101 101 100 100 100 99 100 101 100 99 99 100 98 98 99 99 98 99 98 98 99 101 101 101 100 99 100 101 99 100 102 98 98 98 99 101 100 100 100 98 103 104 104 106 105 107 112 112 109 109 108 108 106 106 107 107 106 108 108 108 107 106 107 109 107 109 107 108 106 107 107 108 104 105 106 107 108 108 108 111 108 109 108 108 110 108 110 110 109 111 112 114 114 112 114 111 114 113 113 110 115 -193 -177 -177 -193 -209 145 150 146 146 0 0 0 0 0
    0 0 0 0 0 0 0 0 0 0 0 0 0 0 0 0 0 0 0 0 0 0 0 0 0 0 0 0 0 0 0 0 0 0 0 0 0 0 0 0 0 0 0 0 0 0 0 0 0 0 0 0 0 0 0 0 0 0 0 0 0 0 0 0 0 0 0 0 0 106 103 105 105 106 105 105 105 104 105 106 107 107 105 106 114 113 118 115 115 114 114 -193 112 110 111 107 107 -193 -193 -193 -193 -193 -193 104 -193 102 102 103 104 104 105 108 -193 -193 -193 -193 106 107 -193 -193 103 104 105 101 100 98 97 99 98 99 97 96 99 99 100 94 92 94 92 93 93 97 97 100 101 99 101 100 101 100 100 100 100 102 103 102 104 102 -193 -193 -193 -193 -193 -193 101 101 103 103 105 104 104 104 104 104 106 105 104 103 102 102 99 99 100 97 99 98 97 98 98 100 102 103 102 101 102 104 104 103 103 103 101 102 103 103 103 102 103 102 101 101 101 101 102 100 100 100 100 99 99 99 99 98 98 98 99 100 103 102 102 101 101 102 103 101 101 103 100 100 100 101 102 101 101 101 99 104 104 105 106 105 109 114 114 111 111 111 110 107 107 109 107 106 109 109 109 109 108 109 110 108 110 109 109 108 107 107 107 105 105 106 107 108 109 109 112 108 109 108 109 110 109 111 111 110 113 115 117 117 115 116 113 115 114 114 111 115 117 -193 -193 -209 -209 145 150 146 146 0 0 0 0 0
    0 0 0 0 0 0 0 0 0 0 0 0 0 0 0 0 0 0 0 0 0 0 0 0 0 0 0 0 0 0 0 0 0 0 0 0 0 0 0 0 0 0 0 0 0 0 0 0 0 0 0 0 0 0 0 0 0 0 0 0 0 0 0 0 0 0 0 0 0 107 105 105 106 108 107 107 107 105 107 108 109 109 107 107 113 112 117 115 115 115 115 114 113 111 113 108 111 109 -209 -193 -193 -193 -193 -193 -193 104 104 106 106 107 109 112 -193 -193 -193 108 109 109 109 -193 106 107 108 105 106 102 100 102 100 101 99 99 101 101 -193 98 94 96 94 95 96 101 102 103 103 102 103 102 103 103 103 102 103 105 105 -193 106 105 -193 -209 -209 -209 -209 -193 -209 103 105 105 108 107 108 107 108 108 110 109 109 106 107 105 102 102 102 100 101 100 99 99 100 102 103 103 103 102 103 105 106 105 105 104 103 105 105 104 104 103 104 102 102 102 102 102 103 102 102 101 101 100 100 100 100 98 99 98 100 102 104 104 104 104 104 104 106 104 104 104 101 101 101 102 103 101 101 101 100 104 104 105 107 106 110 115 114 113 112 113 111 109 108 109 108 106 109 109 108 110 109 111 110 110 113 112 111 110 107 107 106 105 105 106 108 109 109 111 113 109 109 108 109 111 109 112 112 112 116 117 118 118 116 117 115 116 115 115 113 115 117 119 -209 -209 -209 144 150 145 146 0 0 0 0 0
    0 0 0 0 0 0 0 0 0 0 0 0 0 0 0 0 0 0 0 0 0 0 0 0 0 0 0 0 0 0 0 0 0 0 0 0 0 0 0 0 0 0 0 0 0 0 0 0 0 0 0 0 0 0 0 0 0 0 0 0 0 0 0 0 0 0 0 0 0 107 106 106 106 108 107 108 108 107 108 109 110 111 107 108 113 113 117 115 115 115 115 114 114 112 114 109 112 110 108 -193 -193 -193 -193 -193 -193 105 105 107 108 109 113 115 -193 -193 -193 109 112 111 111 109 108 108 109 107 109 -193 103 104 102 103 102 102 104 -193 -209 -209 98 99 96 99 100 102 105 105 105 104 105 105 106 105 106 104 106 106 107 106 108 107 108 -193 -193 -209 -209 107 108 106 106 106 110 109 111 110 111 112 114 114 113 110 112 109 106 105 105 103 103 103 101 101 101 103 103 103 103 102 104 105 106 106 106 106 105 106 106 105 105 104 105 104 104 104 104 105 107 105 105 104 103 102 103 101 102 100 100 100 102 105 106 107 107 107 107 107 109 108 106 106 103 103 103 103 104 102 103 103 102 105 106 107 108 108 112 115 115 114 113 114 111 110 110 109 107 106 108 109 108 110 109 113 112 112 115 115 115 114 110 110 107 105 104 107 108 111 110 112 114 110 110 109 110 112 110 114 113 113 117 117 118 117 116 116 114 115 115 114 113 115 118 120 -209 -209 141 142 149 144 145 0 0 0 0 0
    0 0 0 0 0 0 0 0 0 0 0 0 0 0 0 0 0 0 0 0 0 0 0 0 0 0 0 0 0 0 0 0 0 0 0 0 0 0 0 0 0 0 0 0 0 0 0 0 0 0 0 0 0 0 0 0 0 0 0 0 0 0 0 0 0 0 0 0 0 106 106 106 105 108 108 108 108 108 109 109 110 110 107 108 111 111 117 115 115 114 114 114 114 113 114 110 113 111 109 -193 109 -193 -193 107 108 105 106 108 108 110 113 115 -193 -193 -193 109 112 112 111 110 109 109 110 109 111 -193 -193 106 106 107 106 105 107 -193 -193 -193 -209 100 99 101 103 104 109 107 108 107 107 107 108 107 108 105 107 107 107 107 108 108 109 -193 -193 -193 -193 109 110 108 108 108 112 111 113 111 113 114 115 115 115 113 115 112 110 107 107 106 107 106 104 103 103 104 104 104 104 103 105 106 107 107 108 107 106 107 107 106 106 105 106 105 106 107 108 109 110 109 108 107 106 105 105 103 103 101 102 103 104 107 108 109 109 108 109 108 110 110 108 108 104 104 105 105 106 104 104 104 105 107 108 110 110 110 113 116 115 114 114 114 111 111 112 110 108 106 109 110 108 111 111 114 114 114 116 118 117 117 114 114 110 108 108 109 109 112 111 113 114 111 110 109 110 112 110 114 114 113 117 117 118 117 115 115 113 114 115 114 114 116 118 121 -209 -209 140 141 148 144 144 0 0 0 0 0
    0 0 0 0 0 0 0 0 0 0 0 0 0 0 0 0 0 0 0 0 0 0 0 0 0 0 0 0 0 0 0 0 0 0 0 0 0 0 0 0 0 0 0 0 0 0 0 0 0 0 0 0 0 0 0 0 0 0 0 0 0 0 0 0 0 0 0 0 0 106 106 105 105 108 110 109 109 107 109 108 109 109 -209 107 110 110 116 115 114 114 114 114 113 113 114 111 114 112 110 110 110 110 109 107 108 105 106 108 108 110 112 114 116 113 114 110 113 112 112 111 110 110 111 110 112 108 108 108 108 109 108 107 109 110 -193 -209 -209 102 101 103 -209 106 111 108 109 110 109 110 111 110 110 107 109 109 108 108 109 109 110 108 109 109 109 111 112 110 109 110 113 112 114 113 115 115 115 116 115 114 116 114 114 110 110 110 110 110 107 105 105 105 106 105 105 105 106 107 108 108 110 109 108 108 108 107 107 107 108 106 108 108 111 111 112 111 110 109 109 108 108 106 106 104 105 106 106 109 109 110 110 109 110 109 111 111 109 109 106 106 107 106 107 106 106 106 106 109 110 112 112 111 114 116 115 115 114 115 113 114 117 116 116 113 115 117 112 113 112 115 115 114 116 118 117 117 116 116 114 112 113 112 110 113 113 112 114 111 110 108 109 111 110 114 114 112 116 116 116 116 114 115 112 113 114 114 114 117 120 124 134 -209 139 141 147 143 144 0 0 0 0 0</data></disparity>
</opencv_storage>
