<?xml version="1.0"?>
<opencv_storage>
<gps_time_stamp>19835</gps_time_stamp>
<gps_x>-9.8899030685424805e-001</gps_x>
<gps_y>7.4212349951267242e-002</gps_y>
<gps_z>6.3468012958765030e-003</gps_z>
<image_time_stamp>7764</image_time_stamp>
<disparity type_id="opencv-matrix">
  <rows>89</rows>
  <cols>320</cols>
  <dt>s</dt>
  <data>
    0 0 0 0 0 0 0 0 0 0 0 0 0 0 0 0 0 0 0 0 0 0 0 0 0 0 0 0 0 0 0 0 0 0 0 0 0 0 0 0 0 0 0 0 0 0 0 0 0 0 0 0 0 0 0 0 0 0 0 0 0 0 0 0 0 0 0 0 0 0 0 0 0 0 0 0 0 0 0 0 0 0 0 0 0 0 0 0 0 0 0 0 0 0 0 0 10 9 9 9 9 0 9 10 10 0 0 0 0 0 0 0 0 0 9 9 9 9 10 11 10 11 10 0 0 0 -193 -193 -193 -193 10 13 11 10 9 9 9 9 9 0 0 0 0 -177 0 0 0 0 0 -193 0 0 0 0 0 10 11 11 9 9 0 0 9 0 0 0 0 0 0 0 0 0 0 0 0 0 0 0 0 11 10 10 11 13 12 12 12 11 11 13 14 15 15 14 18 15 15 15 14 14 13 14 15 11 17 17 19 22 21 21 22 23 24 24 26 25 25 27 27 27 26 25 25 24 25 25 24 25 26 27 33 -177 40 41 40 41 41 41 41 40 35 35 32 37 38 39 41 43 45 49 49 51 48 49 50 50 49 51 48 50 48 51 50 49 49 52 51 56 57 58 58 58 60 60 62 -177 -177 -177 -177 -177 -177 -177 -177 57 57 226 227 226 225 225 225 223 223 223 -193 -193 -177 -177 -177 -177 -177 -177 -177 -193 -193 -193 -209 60 59 59 59 59 59 59 58 0 0 0 0 0
    0 0 0 0 0 0 0 0 0 0 0 0 0 0 0 0 0 0 0 0 0 0 0 0 0 0 0 0 0 0 0 0 0 0 0 0 0 0 0 0 0 0 0 0 0 0 0 0 0 0 0 0 0 0 0 0 0 0 0 0 0 0 0 0 0 0 0 0 0 0 0 0 0 0 0 0 0 0 0 0 0 0 0 0 0 0 0 0 0 0 0 0 0 0 0 0 9 0 0 9 9 0 0 9 9 0 0 0 0 0 0 0 0 0 9 9 9 10 10 11 10 11 11 0 0 0 0 0 0 -193 10 12 11 10 10 9 9 9 9 0 0 9 9 -193 0 0 0 0 0 0 0 0 0 0 0 10 11 11 9 9 0 0 9 0 0 0 0 0 0 0 0 0 0 0 0 0 0 0 9 11 10 9 11 12 12 12 12 10 11 14 14 16 16 14 18 14 15 15 12 13 12 14 14 11 17 17 19 21 21 21 22 23 24 24 26 25 25 27 26 27 26 25 25 24 24 24 24 25 26 26 32 -177 40 41 40 41 42 41 41 41 37 37 34 39 40 42 43 46 46 50 49 51 49 49 49 50 49 51 48 50 48 51 51 49 49 52 51 56 56 57 57 57 59 59 61 -177 -177 -177 -177 -177 -177 -177 -177 57 57 226 227 225 225 225 224 223 223 223 -193 -193 -193 -177 -177 -177 -177 -177 -177 -193 -193 -193 -209 60 59 59 59 59 59 59 58 0 0 0 0 0
    0 0 0 0 0 0 0 0 0 0 0 0 0 0 0 0 0 0 0 0 0 0 0 0 0 0 0 0 0 0 0 0 0 0 0 0 0 0 0 0 0 0 0 0 0 0 0 0 0 0 0 0 0 0 0 0 0 0 0 0 0 0 0 0 0 0 0 0 0 0 0 0 0 0 0 0 0 0 0 0 0 0 0 0 0 0 0 0 0 0 0 0 0 0 0 0 0 0 0 0 0 0 0 9 9 0 0 0 0 0 0 0 9 9 10 10 10 10 10 12 10 11 10 0 0 0 0 0 0 9 9 -193 11 10 10 10 10 10 9 9 9 9 10 -193 0 0 0 0 0 -193 -193 -209 0 0 0 11 12 11 9 0 0 0 0 0 0 0 0 0 0 0 0 0 0 0 0 0 0 0 10 10 11 10 11 13 13 12 13 11 12 14 16 18 17 16 19 15 15 15 12 13 12 13 14 11 16 17 18 21 20 21 22 23 24 23 26 25 25 26 25 26 26 25 25 24 24 24 24 25 26 26 -193 -177 39 40 40 41 42 42 42 42 38 38 36 41 42 44 45 46 47 49 48 51 48 49 48 50 48 51 48 50 48 51 51 50 50 52 52 57 57 58 58 58 59 59 61 -177 -177 -177 -177 -177 -177 -177 -177 57 56 226 227 225 225 225 224 223 223 223 -193 -193 -193 -193 -193 -177 -193 -193 -193 -193 -193 -193 -209 60 -193 59 59 59 59 58 -193 0 0 0 0 0
    0 0 0 0 0 0 0 0 0 0 0 0 0 0 0 0 0 0 0 0 0 0 0 0 0 0 0 0 0 0 0 0 0 0 0 0 0 0 0 0 0 0 0 0 0 0 0 0 0 0 0 0 0 0 0 0 0 0 0 0 0 0 0 0 0 0 0 0 0 0 0 0 0 0 0 0 0 0 0 0 0 0 0 0 0 0 0 0 0 0 0 0 0 0 0 0 0 0 0 0 0 0 0 0 0 0 0 0 0 0 0 0 9 10 11 10 11 11 10 11 9 10 10 0 0 0 0 0 0 9 9 -193 11 10 11 10 11 10 10 10 9 10 11 12 -193 -209 0 0 -193 -193 -177 -193 -193 -193 0 12 12 10 0 0 0 0 0 0 0 0 0 0 0 0 0 0 0 0 0 0 0 0 11 10 11 11 12 13 13 13 13 11 13 14 15 18 16 15 19 15 14 14 12 13 11 14 13 11 16 17 18 21 20 22 23 23 24 23 25 25 25 25 25 26 26 25 25 24 24 24 24 25 25 25 -193 -193 38 40 40 41 42 42 43 43 40 40 38 42 44 45 46 46 47 48 47 50 48 48 48 49 48 51 48 51 48 52 52 52 51 53 54 57 57 58 58 58 59 60 61 -177 -177 -177 -177 -177 -177 -177 -177 56 56 226 227 225 225 224 224 224 223 224 -193 -193 -193 -193 -193 -193 -193 -193 -193 -193 52 -193 -209 60 -193 59 -193 -193 -193 -193 -209 0 0 0 0 0
    0 0 0 0 0 0 0 0 0 0 0 0 0 0 0 0 0 0 0 0 0 0 0 0 0 0 0 0 0 0 0 0 0 0 0 0 0 0 0 0 0 0 0 0 0 0 0 0 0 0 0 0 0 0 0 0 0 0 0 0 0 0 0 0 0 0 0 0 0 0 0 0 0 0 0 0 0 0 0 0 0 0 0 0 0 0 0 0 0 0 0 0 0 0 0 0 0 0 0 0 0 0 0 0 0 0 0 0 0 0 0 0 9 9 10 10 11 11 10 12 9 0 9 0 0 0 0 0 0 -193 9 -193 11 11 11 11 11 11 10 10 10 10 11 12 -209 -209 -209 -209 -177 -193 -193 -193 -177 -177 -193 13 12 10 0 0 0 0 0 0 0 0 0 0 0 0 0 0 0 0 0 0 0 0 11 9 11 12 13 14 14 14 13 12 14 15 16 18 16 15 18 16 14 14 11 12 11 13 13 12 16 17 18 21 21 22 23 24 25 23 26 25 25 25 25 26 25 24 24 24 23 24 23 24 24 25 28 -193 37 40 39 41 42 43 44 44 41 42 40 43 44 47 46 47 47 48 47 50 48 48 47 49 47 50 48 50 48 51 52 52 51 53 54 57 57 58 58 58 59 61 62 -177 -177 -177 -177 -177 -177 -177 -177 55 55 226 227 225 225 224 224 224 223 224 -193 -193 -193 -193 -193 -193 -193 -193 -193 53 51 -193 56 59 -209 59 -193 -193 -193 -209 -209 0 0 0 0 0
    0 0 0 0 0 0 0 0 0 0 0 0 0 0 0 0 0 0 0 0 0 0 0 0 0 0 0 0 0 0 0 0 0 0 0 0 0 0 0 0 0 0 0 0 0 0 0 0 0 0 0 0 0 0 0 0 0 0 0 0 0 0 0 0 0 0 0 0 0 0 0 0 0 0 0 0 0 0 0 0 0 0 0 0 0 0 0 0 0 0 0 0 0 0 0 0 0 0 0 0 0 0 0 0 0 0 0 0 0 0 0 0 9 9 9 10 10 10 9 11 0 0 9 0 0 0 0 0 0 -193 -193 -193 11 11 12 12 12 11 11 -193 -193 12 13 -193 -209 -193 -193 -193 -177 -193 -193 -209 -177 -177 -193 16 14 10 0 0 0 0 0 0 0 0 0 0 0 0 0 0 0 0 0 0 0 0 11 9 11 12 13 14 14 14 14 12 14 17 18 20 -193 -193 -209 -209 14 -193 -193 -177 10 13 13 12 15 17 18 21 21 23 23 24 25 24 26 25 25 25 25 25 25 23 24 22 22 22 23 23 22 23 27 -193 36 40 40 42 43 44 45 45 42 43 40 43 44 47 46 46 47 47 47 49 48 48 47 48 46 50 48 50 47 51 52 51 51 53 53 57 57 58 58 58 60 62 63 -177 -177 -177 -177 -177 -177 -177 -177 55 55 226 226 225 224 224 224 224 223 224 -193 -193 -193 -209 -193 -193 -193 -193 -193 -193 50 -193 -193 -193 -209 -193 -193 -193 -193 -209 -209 0 0 0 0 0
    0 0 0 0 0 0 0 0 0 0 0 0 0 0 0 0 0 0 0 0 0 0 0 0 0 0 0 0 0 0 0 0 0 0 0 0 0 0 0 0 0 0 0 0 0 0 0 0 0 0 0 0 0 0 0 0 0 0 0 0 0 0 0 0 0 0 0 0 0 0 0 0 0 0 0 0 0 0 0 0 0 0 0 0 0 0 0 0 0 0 0 0 0 0 0 0 0 0 0 0 0 0 0 0 0 0 0 0 0 0 0 0 9 9 9 10 10 10 9 11 0 0 10 0 0 0 0 0 0 -193 -193 -193 11 11 13 13 13 13 13 14 -193 15 17 -209 -209 -193 -209 -193 -177 -209 -193 -209 -177 -177 -193 21 -193 10 0 0 0 0 0 0 0 0 0 0 0 0 0 0 0 0 0 0 0 0 12 9 10 11 13 13 13 14 13 11 14 17 18 22 -209 -177 -177 -209 -209 -209 -177 -177 10 12 13 13 15 16 18 21 21 23 24 24 25 23 25 25 24 24 24 24 23 22 23 22 22 22 22 22 22 23 26 28 33 40 40 42 44 45 47 45 43 44 41 43 44 46 46 46 47 47 47 49 48 48 46 47 46 50 48 50 48 51 52 51 51 53 53 57 57 57 58 58 60 63 63 -177 -177 -177 -177 -177 -177 -177 57 55 55 225 226 224 224 223 224 223 223 -193 -193 -193 -193 -209 -193 -209 -193 -193 -193 -193 50 -193 56 -193 -209 58 -193 -193 -209 -209 -209 0 0 0 0 0
    0 0 0 0 0 0 0 0 0 0 0 0 0 0 0 0 0 0 0 0 0 0 0 0 0 0 0 0 0 0 0 0 0 0 0 0 0 0 0 0 0 0 0 0 0 0 0 0 0 0 0 0 0 0 0 0 0 0 0 0 0 0 0 0 0 0 0 0 0 0 0 0 0 0 0 0 0 0 0 0 0 0 0 0 0 0 0 0 0 0 0 0 0 0 0 0 0 0 0 0 0 0 0 0 0 0 0 0 0 0 0 0 9 9 9 9 10 10 9 11 0 9 10 0 0 0 0 9 0 -193 -193 -193 12 12 16 17 17 16 17 19 -193 19 20 -209 -209 -209 -209 -193 -193 -209 -193 -209 -177 -177 -209 24 32 11 0 0 0 0 0 0 0 0 0 0 0 0 0 0 0 0 0 0 0 0 13 9 10 12 13 14 14 14 13 11 15 19 20 -209 -209 -209 -193 -193 -209 -209 -209 -193 10 12 13 13 16 17 18 21 22 23 24 24 25 23 24 24 24 23 23 23 23 22 23 23 23 23 23 23 23 24 27 28 31 39 39 42 43 44 47 45 43 44 41 43 43 46 46 45 46 47 46 49 48 48 46 47 46 49 47 50 48 51 51 51 50 52 53 56 56 57 57 58 60 63 62 59 59 58 58 -177 -177 57 57 55 55 -193 -193 -193 -193 223 223 222 -193 -193 54 -193 -193 -209 -209 -209 -193 -193 -193 -193 -193 -193 57 58 -193 -193 -209 -209 -209 -209 -193 0 0 0 0 0
    0 0 0 0 0 0 0 0 0 0 0 0 0 0 0 0 0 0 0 0 0 0 0 0 0 0 0 0 0 0 0 0 0 0 0 0 0 0 0 0 0 0 0 0 0 0 0 0 0 0 0 0 0 0 0 0 0 0 0 0 0 0 0 0 0 0 0 0 0 0 0 0 0 0 0 0 0 0 0 0 0 0 0 0 0 0 0 0 0 0 0 0 0 0 0 0 0 0 0 0 0 0 0 0 0 0 0 0 0 0 0 0 0 9 9 9 10 10 9 11 0 9 9 0 0 0 0 9 0 -193 -193 -193 -193 15 20 -209 -209 -209 -209 -209 -209 -209 -209 -209 -209 -209 -209 -209 -209 -209 -193 -209 -193 -193 41 38 40 -209 0 0 0 0 0 0 0 0 0 9 11 11 12 13 11 11 11 11 10 0 16 10 11 13 14 15 16 15 14 12 16 20 -193 -209 44 -209 700 700 698 -209 10 13 11 13 14 14 17 18 19 22 22 24 24 24 24 23 23 23 22 22 22 21 22 21 23 23 23 23 23 23 23 24 27 26 28 37 38 40 42 42 47 44 43 44 41 43 43 45 45 45 46 46 46 48 48 48 46 47 46 48 47 49 47 49 51 51 50 52 53 56 56 57 57 57 59 62 61 58 58 57 57 57 57 57 56 54 54 -193 -193 -193 -193 -193 -193 -193 -193 -193 55 57 57 -193 -209 -193 -193 -193 -193 -193 -193 -193 -193 -209 -193 -193 -209 -209 -193 -209 -193 0 0 0 0 0
    0 0 0 0 0 0 0 0 0 0 0 0 0 0 0 0 0 0 0 0 0 0 0 0 0 0 0 0 0 0 0 0 0 0 0 0 0 0 0 0 0 0 0 0 0 0 0 0 0 0 0 0 0 0 0 0 0 0 0 0 0 0 0 0 0 0 0 0 0 0 0 0 0 0 0 0 0 0 0 0 0 0 0 0 0 0 0 0 0 0 0 0 0 0 0 0 0 0 0 0 0 0 0 0 0 0 0 0 0 0 0 0 0 0 9 9 9 10 9 11 9 9 10 9 10 11 10 11 10 10 -193 -193 -193 19 -209 -209 -209 -209 -209 -209 -209 -209 -193 -209 -209 -209 -209 -209 42 45 44 43 43 43 43 42 43 43 0 0 0 0 0 0 0 9 10 10 12 13 16 17 16 14 15 14 -193 11 19 11 12 12 15 16 17 16 15 14 19 22 -209 41 44 -193 -177 -193 -177 -209 12 14 12 15 16 16 17 18 20 22 22 23 24 23 23 22 22 22 21 22 21 21 21 21 23 23 22 22 23 24 24 25 27 27 27 32 34 35 37 40 46 42 43 44 41 42 42 44 44 44 45 46 45 48 48 48 46 47 46 48 47 48 46 49 51 50 50 52 54 56 56 57 58 57 59 62 61 57 57 57 57 57 57 56 55 54 54 -193 -193 -193 -193 -193 -193 -193 -193 -193 -193 58 58 -193 -193 58 -193 -193 -193 -193 -193 397 -193 -209 -193 -193 -209 -209 -193 -209 -193 0 0 0 0 0
    0 0 0 0 0 0 0 0 0 0 0 0 0 0 0 0 0 0 0 0 0 0 0 0 0 0 0 0 0 0 0 0 0 0 0 0 0 0 0 0 0 0 0 0 0 0 0 0 0 0 0 0 0 0 0 0 0 0 0 0 0 0 0 0 0 0 0 0 0 0 0 0 0 0 0 0 0 0 0 0 0 0 0 0 0 0 0 0 0 0 0 0 0 0 0 0 0 0 0 0 0 0 0 0 0 0 0 0 0 0 0 0 0 0 0 0 9 9 9 10 9 10 11 11 12 12 12 12 12 12 12 16 -193 -193 -209 -209 -209 43 42 43 44 44 44 44 44 -193 43 42 43 46 44 45 45 44 44 45 46 46 -209 0 9 0 0 0 0 9 10 10 11 13 20 22 21 19 -193 -193 -193 16 21 11 11 13 15 16 16 16 15 14 20 23 -193 42 45 -193 -177 -193 -193 -193 15 -193 13 17 19 19 18 18 20 22 22 23 23 23 23 22 22 22 21 21 21 21 21 21 23 23 22 23 23 25 25 26 31 30 30 37 38 38 39 40 45 42 42 43 40 41 41 43 44 43 45 45 45 48 47 47 46 47 46 48 47 48 46 48 51 50 50 52 54 56 57 57 58 57 60 63 61 57 57 57 57 56 56 56 55 54 54 -193 -193 -193 -193 -193 221 -193 -193 -193 -193 59 59 -193 59 58 58 -193 -193 -193 -193 397 -193 -193 -209 -193 -209 -209 -209 -193 -193 0 0 0 0 0
    0 0 0 0 0 0 0 0 0 0 0 0 0 0 0 0 0 0 0 0 0 0 0 0 0 0 0 0 0 0 0 0 0 0 0 0 0 0 0 0 0 0 0 0 0 0 0 0 0 0 0 0 0 0 0 0 0 0 0 0 0 0 0 0 0 0 0 0 0 0 0 0 0 0 0 0 0 0 0 0 0 0 0 0 0 0 0 0 0 0 0 0 0 0 0 0 0 0 0 0 0 0 0 0 0 0 0 0 0 0 0 0 0 0 0 0 0 0 0 9 9 10 11 11 12 12 12 13 12 12 12 15 -193 -209 -193 38 42 44 43 44 45 45 46 46 46 45 44 44 44 47 45 46 45 45 45 45 46 47 41 -193 12 12 10 9 9 10 11 10 12 18 23 25 26 -193 -193 -193 -193 24 24 13 10 12 14 16 15 15 14 -209 -193 -209 43 44 46 46 -193 43 -193 -209 19 20 15 19 21 20 19 18 20 22 22 22 23 22 23 22 22 22 22 22 22 22 21 21 23 23 23 24 24 26 27 29 35 34 34 39 39 40 41 40 43 41 42 42 40 41 41 43 44 43 45 46 45 48 47 47 46 46 46 48 47 47 46 48 51 50 50 52 54 56 56 57 58 57 59 63 60 57 57 57 57 56 56 55 55 54 55 -193 -193 -193 -193 -193 220 -193 -193 -193 -193 -193 59 59 59 59 59 59 59 -193 -193 397 -193 -193 -209 -209 -209 -209 -193 58 -193 0 0 0 0 0
    0 0 0 0 0 0 0 0 0 0 0 0 0 0 0 0 0 0 0 0 0 0 0 0 0 0 0 0 0 0 0 0 0 0 0 0 0 0 0 0 0 0 0 0 0 0 0 0 0 0 0 0 0 0 0 0 0 0 0 0 0 0 0 0 0 0 0 0 0 0 0 0 0 0 0 0 0 0 0 0 0 0 0 0 0 9 0 0 0 0 0 0 0 0 0 0 0 0 0 0 0 0 0 0 0 0 0 0 0 0 0 0 0 0 0 0 0 0 0 9 9 11 12 11 12 12 12 13 12 12 11 13 -209 -193 -193 41 44 47 46 46 47 48 48 49 49 49 46 45 45 48 45 46 46 45 45 45 47 47 42 -193 15 14 11 10 10 10 11 11 13 21 25 27 28 -193 27 29 30 28 26 -193 -193 11 13 14 13 -193 -193 -209 -193 -209 44 44 46 47 45 45 43 -193 24 23 20 21 24 22 20 19 20 21 21 21 22 21 22 21 21 22 21 22 23 22 21 21 23 23 23 25 25 27 28 31 36 36 36 39 39 41 41 40 42 41 42 42 40 41 41 43 43 44 46 46 46 48 48 48 46 46 47 48 47 47 45 48 50 50 50 52 53 55 56 57 57 57 60 62 60 57 57 57 57 57 57 56 55 55 -177 -193 -193 -193 -193 -193 -193 -193 -193 -193 -193 -193 60 -193 60 59 59 59 59 -193 -193 397 406 404 -193 -193 -209 -209 -193 58 -193 0 0 0 0 0
    0 0 0 0 0 0 0 0 0 0 0 0 0 0 0 0 0 0 0 0 0 0 0 0 0 0 0 0 0 0 0 0 0 0 0 0 0 0 0 0 0 0 0 0 0 0 0 0 0 0 0 0 0 0 0 0 0 0 0 0 0 0 0 0 0 0 0 0 0 0 0 0 0 0 0 0 0 0 0 0 0 0 0 0 0 9 0 0 0 0 0 0 0 0 0 0 0 0 0 0 0 0 0 0 0 0 0 0 0 0 0 0 0 0 0 0 0 0 0 0 9 11 12 11 13 12 13 13 13 13 12 -193 -209 -209 38 43 46 48 48 48 48 49 49 50 50 50 47 46 46 48 45 46 46 46 45 46 47 47 42 44 15 13 11 10 10 10 11 11 15 24 26 28 30 29 29 31 33 31 27 -193 -193 11 12 13 -193 -209 -193 -177 -177 -193 44 45 46 48 46 46 42 35 26 25 22 24 25 21 21 19 19 20 21 20 21 21 22 21 21 22 22 23 24 22 22 22 23 24 24 27 26 30 34 36 39 38 38 40 40 41 42 41 40 40 41 41 40 41 41 42 43 44 46 46 46 48 48 48 46 46 47 48 47 47 45 48 49 50 50 52 53 56 56 57 58 57 60 62 60 58 58 58 58 57 57 57 56 57 56 -193 -193 -193 -193 -193 -193 -193 -193 -193 -193 -193 60 -193 60 -193 60 60 60 -193 -193 397 -193 -193 57 57 57 -209 -193 58 -193 0 0 0 0 0
    0 0 0 0 0 0 0 0 0 0 0 0 0 0 0 0 0 0 0 0 0 0 0 0 0 0 0 0 0 0 0 0 0 0 0 0 0 0 0 0 0 0 0 0 0 0 0 0 0 0 0 0 0 0 0 0 0 0 0 0 0 0 0 0 0 0 0 0 0 0 0 0 0 0 0 0 0 0 0 0 0 0 0 0 0 0 0 0 0 0 0 0 0 0 0 0 0 0 0 0 0 0 0 0 0 0 0 0 0 0 0 0 0 0 0 0 0 0 0 0 -193 11 12 11 13 12 13 14 14 14 13 -177 -193 54 42 45 48 49 49 50 50 50 51 51 51 51 49 48 47 48 45 46 46 46 45 46 47 47 43 45 14 12 10 10 10 10 11 11 16 25 28 30 32 33 32 35 37 35 27 -193 -193 9 11 10 -177 -193 -177 -177 -177 -177 45 46 47 48 46 46 42 29 25 24 23 24 24 19 20 19 18 19 20 20 21 21 22 22 21 22 23 24 25 23 24 24 24 26 27 32 30 35 38 39 40 39 39 41 40 41 41 41 40 40 41 42 41 42 41 43 43 44 46 46 45 48 47 48 46 46 47 48 47 48 45 48 48 50 50 52 54 56 56 57 58 57 59 61 59 57 58 58 58 58 58 57 57 57 57 -193 -193 221 -193 -193 -193 -193 -193 -193 -193 -193 60 59 60 59 60 60 60 -193 -193 -193 -193 -193 57 57 57 -193 -193 57 -193 0 0 0 0 0
    0 0 0 0 0 0 0 0 0 0 0 0 0 0 0 0 0 0 0 0 0 0 0 0 0 0 0 0 0 0 0 0 0 0 0 0 0 0 0 0 0 0 0 0 0 0 0 0 0 0 0 0 0 0 0 0 0 0 0 0 0 0 0 0 0 0 0 0 0 0 0 0 0 0 0 0 0 0 0 0 0 0 0 0 0 0 0 0 0 0 0 0 0 0 0 0 0 0 0 0 0 0 0 0 0 0 0 0 0 0 0 0 0 0 0 0 0 0 0 0 -209 -193 12 11 12 12 13 14 14 15 -193 -177 -209 53 46 47 49 51 50 50 50 50 51 50 50 51 49 49 48 48 47 47 47 47 46 46 48 47 44 45 12 12 10 9 10 10 11 11 17 27 29 32 33 35 34 37 38 38 29 -209 -193 9 9 9 -193 -177 -177 -177 -177 -177 46 -193 48 49 47 47 42 26 24 24 24 25 23 17 18 18 17 18 19 19 20 20 22 21 21 22 23 25 26 24 26 26 27 30 32 37 35 37 40 40 41 40 40 41 41 43 43 43 41 41 42 43 42 43 42 44 43 44 46 46 45 49 47 48 46 46 46 47 46 47 44 47 47 49 50 52 54 55 56 57 58 57 59 60 59 56 57 58 58 57 57 57 57 57 57 -193 -193 -193 -193 -193 -193 -193 55 55 56 58 60 59 60 59 60 60 60 59 59 -193 -193 -193 57 57 57 56 -193 -193 -193 0 0 0 0 0
    0 0 0 0 0 0 0 0 0 0 0 0 0 0 0 0 0 0 0 0 0 0 0 0 0 0 0 0 0 0 0 0 0 0 0 0 0 0 0 0 0 0 0 0 0 0 0 0 0 0 0 0 0 0 0 0 0 0 0 0 0 0 0 0 0 0 0 0 0 0 0 0 0 0 0 0 0 0 0 0 0 0 0 0 0 0 0 0 0 0 0 0 0 0 0 0 0 0 0 0 0 0 0 0 0 0 0 0 0 0 0 0 0 0 0 0 0 0 0 0 -193 -193 11 -193 11 11 11 12 13 14 -193 -177 -193 54 49 49 50 52 50 50 51 50 51 50 50 51 49 50 50 49 48 48 49 49 47 47 48 48 44 46 12 11 9 9 10 10 11 11 17 27 29 32 33 36 35 38 39 40 -193 -209 -209 -193 9 0 -193 -177 -177 -177 -177 -193 -193 -193 48 50 48 50 42 33 26 26 25 25 23 14 16 16 15 17 18 18 19 20 22 21 21 22 23 26 29 28 35 38 38 -193 -193 -193 -193 39 42 43 42 41 42 43 43 44 45 44 43 42 43 44 43 43 42 43 43 44 46 46 45 48 47 48 46 46 46 47 47 47 44 47 47 49 50 52 53 55 56 57 58 58 60 60 59 56 57 57 57 57 57 57 57 57 57 57 -193 -193 56 56 57 57 56 56 57 59 61 60 60 59 60 60 60 60 59 57 59 57 56 57 57 56 56 56 -193 0 0 0 0 0
    0 0 0 0 0 0 0 0 0 0 0 0 0 0 0 0 0 0 0 0 0 0 0 0 0 0 0 0 0 0 0 0 0 0 0 0 0 0 0 0 0 0 0 0 0 0 0 0 0 0 0 0 0 0 0 0 0 0 0 0 0 0 0 0 0 0 0 0 0 0 0 0 0 0 0 0 0 0 0 0 0 0 0 0 0 0 0 0 0 0 0 0 0 0 0 0 0 0 0 0 0 0 0 0 0 0 0 0 0 0 0 0 0 0 9 0 0 0 0 0 -193 -209 -193 -209 10 -193 -193 11 12 13 -209 -209 -209 54 50 47 50 52 50 50 51 50 51 51 52 52 51 51 51 50 49 49 50 50 48 48 49 48 45 49 11 11 9 9 10 10 10 9 15 27 30 33 33 37 37 39 39 40 -193 -209 -177 -193 0 0 -209 -177 -193 -193 -209 -193 -193 -193 -193 50 49 51 -177 -177 27 26 26 26 24 13 13 14 14 15 16 17 17 19 21 21 21 22 24 27 32 -193 -193 -209 -209 -177 510 516 516 513 -193 44 41 40 42 44 44 46 49 47 -193 43 45 46 44 43 42 43 44 45 47 47 46 49 47 49 47 46 46 48 47 48 45 48 48 50 51 53 53 55 55 58 59 58 60 60 59 56 57 57 57 57 57 57 57 57 58 56 56 55 56 56 57 56 56 56 57 60 61 60 60 60 61 59 60 59 59 57 58 57 56 57 57 56 56 56 -193 0 0 0 0 0
    0 0 0 0 0 0 0 0 0 0 0 0 0 0 0 0 0 0 0 0 0 0 0 0 0 0 0 0 0 0 0 0 0 0 0 0 0 0 0 0 0 0 0 0 0 0 0 0 0 0 0 0 0 0 0 0 0 0 0 0 0 0 0 0 0 0 0 0 0 0 0 0 0 0 0 0 0 0 0 0 0 0 0 0 0 0 0 0 0 0 0 0 0 0 0 0 0 0 0 0 0 0 0 0 0 0 0 0 0 0 0 0 0 0 9 0 0 0 0 0 -193 -209 -193 -193 9 -209 -209 -193 11 -209 -193 -177 -209 53 48 46 49 52 50 50 52 51 52 52 53 53 51 52 52 51 49 49 50 50 48 48 49 49 45 49 11 10 9 9 10 9 10 9 16 29 32 36 35 38 39 40 40 40 38 -209 -177 -209 -209 10 -209 -209 -209 -193 -209 -193 -209 -193 48 50 49 51 -177 -177 28 27 27 27 24 12 13 14 13 14 15 16 16 18 22 21 21 23 25 28 -193 -193 -177 -209 -193 509 513 517 517 515 -193 -193 43 -193 45 48 48 50 52 51 -193 47 47 -193 -193 45 43 45 45 45 47 48 46 50 48 50 47 46 47 49 48 49 46 49 48 51 52 53 53 55 55 58 59 58 60 59 59 56 57 57 57 57 57 56 57 57 57 56 56 55 55 55 56 56 56 56 57 60 62 61 61 60 61 60 60 60 59 57 58 57 57 57 57 56 56 56 57 0 0 0 0 0
    0 0 0 0 0 0 0 0 0 0 0 0 0 0 0 0 0 0 0 0 0 0 0 0 0 0 0 0 0 0 0 0 0 0 0 0 0 0 0 0 0 0 0 0 0 0 0 0 0 0 0 0 0 0 0 0 0 0 0 0 0 0 0 0 0 0 0 0 0 0 0 0 0 0 0 0 0 0 0 0 0 0 0 0 0 0 0 0 0 0 0 0 0 0 0 0 0 0 0 0 0 0 0 0 0 0 9 9 9 9 9 9 9 0 9 0 0 0 -193 -193 -193 -177 -193 -193 -209 -209 -193 -209 -209 -193 -177 -193 -209 -209 -193 45 49 51 50 50 52 52 52 53 53 53 52 53 52 51 49 49 50 50 47 48 48 48 45 49 10 10 9 9 10 9 9 9 17 28 32 37 35 38 40 41 41 40 38 -209 -177 -209 -209 -193 -209 -193 118 117 -193 -193 -209 -193 48 51 50 52 -177 -177 36 28 28 30 24 -177 12 14 13 13 14 15 15 17 21 21 20 23 25 29 -193 269 277 279 -177 509 512 517 517 514 520 -193 -193 42 46 51 51 52 55 -209 -209 -209 -193 -193 50 48 45 47 47 47 48 49 47 51 49 50 47 46 47 50 48 50 46 49 48 51 52 53 54 55 55 58 59 59 60 60 59 56 57 57 57 57 57 57 57 57 57 56 56 55 56 56 57 57 57 57 58 61 62 61 61 61 62 61 61 60 60 58 60 58 57 57 57 56 56 56 57 0 0 0 0 0
    0 0 0 0 0 0 0 0 0 0 0 0 0 0 0 0 0 0 0 0 0 0 0 0 0 0 0 0 0 0 0 0 0 0 0 0 0 0 0 0 0 0 0 0 0 0 0 0 0 0 0 0 0 0 0 0 0 0 0 0 0 0 0 0 0 0 0 0 0 0 0 0 0 0 0 0 0 0 0 0 0 0 0 0 0 0 0 0 0 0 0 0 0 0 0 0 0 0 0 0 0 0 0 0 0 0 9 10 9 10 9 10 9 9 10 -193 0 0 -209 -209 -193 -193 -209 -193 -209 -209 -193 -193 -193 -193 -193 -209 -209 -193 -193 46 49 51 50 50 53 52 52 53 53 53 52 53 52 51 48 47 49 49 47 48 47 48 45 51 9 9 0 9 10 9 9 9 17 28 35 38 36 38 39 41 41 40 38 -209 -193 -193 -209 -209 -209 -193 -193 -209 -193 -177 -193 -193 49 52 50 52 50 46 42 43 38 40 26 -193 -177 14 12 12 13 14 14 16 21 21 20 22 24 30 -193 -193 274 277 280 -177 510 516 517 -177 -193 -209 -193 -193 49 53 53 53 -209 -209 -209 -209 -209 54 54 52 48 50 49 49 50 50 49 52 51 52 50 48 48 51 50 51 47 49 48 50 52 53 54 55 55 58 60 60 60 60 60 57 58 57 58 57 57 57 58 57 57 56 56 56 57 58 59 58 59 59 60 61 62 61 60 61 62 60 62 61 60 59 60 59 58 58 57 56 56 56 57 0 0 0 0 0
    0 0 0 0 0 0 0 0 0 0 0 0 0 0 0 0 0 0 0 0 0 0 0 0 0 0 0 0 0 0 0 0 0 0 0 0 0 0 0 0 0 0 0 0 0 0 0 0 0 0 0 0 0 0 0 0 0 0 0 0 0 0 0 0 0 0 0 0 0 0 0 0 0 0 0 0 0 0 0 0 0 0 0 0 0 0 0 0 0 0 0 0 0 0 0 0 0 0 0 0 0 0 0 0 0 0 10 11 10 10 10 11 10 9 10 -193 -209 -209 -193 -209 -209 -209 -209 -193 -209 -193 -193 -193 -193 -193 -193 -209 -209 50 47 46 49 51 49 50 52 52 52 53 53 52 52 53 52 51 49 47 49 49 47 47 47 46 44 47 10 10 11 11 14 12 10 9 20 30 36 39 36 37 39 -193 41 40 38 38 -193 32 -193 -209 -209 -209 -209 -193 -209 -177 45 47 49 53 51 53 51 48 44 48 44 43 30 -193 -193 -193 -193 -193 13 14 13 15 20 20 19 21 24 31 38 -209 -193 275 279 -193 508 514 517 -193 -177 -177 -209 -193 52 54 54 54 64 -209 -209 -209 -209 -209 -209 -209 -193 52 53 53 52 -209 -193 53 -193 -193 -193 -193 -193 52 52 53 49 50 50 51 52 53 54 54 55 58 59 59 60 60 60 57 58 57 57 57 57 -193 57 57 57 55 56 57 58 60 60 60 60 60 61 62 62 61 60 60 61 60 61 60 60 60 62 61 59 60 59 58 57 57 56 0 0 0 0 0
    0 0 0 0 0 0 0 0 0 0 0 0 0 0 0 0 0 0 0 0 0 0 0 0 0 0 0 0 0 0 0 0 0 0 0 0 0 0 0 0 0 0 0 0 0 0 0 0 0 0 0 0 0 0 0 0 0 0 0 0 0 0 0 0 0 0 0 0 0 0 0 0 0 0 0 0 0 0 0 9 -193 -193 -193 -193 -193 0 0 0 0 0 0 0 0 0 0 0 0 0 0 0 0 0 0 0 0 -193 11 12 11 11 10 12 11 -193 11 -193 -209 -209 -209 -209 -209 -209 -209 -193 -209 -193 -193 -193 -193 -193 -193 -209 -193 49 46 46 49 50 48 49 52 51 51 53 52 52 52 54 52 51 49 47 48 49 48 46 46 46 43 42 16 20 21 23 25 22 20 22 24 32 38 40 37 -193 -193 -209 41 41 -193 -193 -193 37 37 -209 -209 -209 -209 -209 -209 -193 46 48 50 54 53 54 53 51 47 55 53 49 45 -209 -209 -193 20 15 13 13 12 13 18 18 18 19 23 30 38 -193 -193 -209 -193 -193 -193 -193 -209 -209 -209 -177 -209 40 53 55 55 55 68 74 83 88 83 -193 -193 92 98 102 98 101 -193 -193 121 -209 121 123 121 121 129 53 53 54 51 51 51 51 52 53 54 54 55 57 59 59 60 60 60 56 57 57 57 56 56 -193 57 56 57 55 56 58 59 61 61 60 61 61 61 62 62 61 60 60 61 60 61 60 60 60 62 62 60 61 60 59 58 58 57 0 0 0 0 0
    0 0 0 0 0 0 0 0 0 0 0 0 0 0 0 0 0 0 0 0 0 0 0 0 0 0 0 0 0 0 0 0 0 0 0 0 0 0 0 0 0 0 0 0 0 0 0 0 0 0 0 0 0 0 0 0 0 0 0 0 0 0 0 0 0 0 0 0 0 0 0 0 0 0 0 0 0 -209 -209 26 28 28 -193 29 -193 -193 0 0 0 -193 0 0 0 0 0 0 0 0 0 0 0 0 0 0 -209 -193 12 14 13 -193 -193 -193 -193 -209 -193 -193 -193 -209 -209 -209 -209 -209 -209 -209 -209 -209 -209 -193 -193 -193 -193 -209 -193 48 46 46 48 50 48 49 52 51 51 53 52 52 52 53 52 51 49 46 47 48 48 47 46 46 42 40 23 26 27 28 29 28 27 28 27 34 38 40 38 -193 -193 -209 40 40 39 39 37 38 38 -193 -193 -209 -209 42 42 -193 47 49 51 55 54 55 55 54 52 57 57 53 53 56 -209 -209 -209 19 15 15 12 12 16 17 18 19 23 31 -193 41 -209 -209 -193 816 -177 812 -209 -209 -209 -193 -209 39 53 54 54 53 63 75 84 89 88 91 93 93 99 101 97 102 103 104 117 108 119 122 118 119 124 -193 53 55 54 53 53 53 53 54 54 55 56 58 60 59 61 60 60 56 57 56 56 55 56 55 57 54 56 54 57 58 59 61 61 61 61 62 62 62 63 62 60 61 61 60 62 61 61 61 63 62 60 61 60 59 60 59 58 0 0 0 0 0
    0 0 0 0 0 0 0 0 0 0 0 0 0 0 0 0 0 0 0 0 0 0 0 0 0 0 0 0 0 0 0 0 0 0 0 0 0 0 0 0 0 0 0 0 0 0 0 0 0 0 0 0 0 0 0 0 0 0 0 0 0 0 0 0 0 0 0 0 0 0 0 0 0 9 0 -193 -209 27 -193 30 31 32 32 32 32 -193 -209 -209 -209 -193 -193 -193 -209 -209 -209 -209 -193 0 -177 -177 -177 -177 -177 -193 -209 -193 13 -193 -193 -193 -193 -193 -193 242 -193 236 236 235 -193 -193 -177 351 349 -177 348 346 -193 343 -193 -193 -193 -209 43 47 46 46 48 50 48 50 51 51 51 53 52 51 51 53 51 51 48 46 46 47 47 47 46 46 42 40 34 31 31 31 33 31 30 31 29 35 38 40 38 -193 -193 -193 41 40 39 39 37 38 39 -209 37 -193 41 43 44 49 48 50 52 55 55 56 56 55 54 58 58 55 56 57 59 -193 58 -209 19 18 -209 12 16 18 18 19 23 32 -177 44 54 -193 -193 818 -177 813 810 -209 -209 -193 -177 38 52 53 53 50 56 -193 82 88 90 93 95 94 98 99 95 100 101 103 105 105 107 115 112 116 120 -209 54 56 56 55 55 54 54 55 55 56 57 59 61 60 61 60 61 56 58 57 57 56 56 56 57 54 56 54 58 59 60 62 62 62 62 62 63 62 63 62 60 61 61 61 62 61 61 61 63 63 60 61 60 60 61 60 59 0 0 0 0 0
    0 0 0 0 0 0 0 0 0 0 0 0 0 0 0 0 0 0 0 0 0 0 0 0 0 0 0 0 0 0 0 0 0 0 0 0 0 0 0 0 0 0 0 0 0 0 0 0 0 0 0 0 0 0 0 0 0 0 0 0 0 0 0 0 0 0 0 0 0 0 0 0 -193 10 -177 -209 26 31 -193 33 34 35 36 35 36 37 -193 -193 -209 -209 -209 -193 42 42 -209 -209 -209 -193 -177 -177 -177 -177 -209 -209 -193 -209 17 -193 -193 -193 -193 20 -193 241 -193 -177 -177 -193 -193 -193 355 353 351 349 348 347 346 344 345 -209 -193 -209 43 47 46 46 49 50 48 50 51 52 51 52 52 51 51 52 49 51 47 45 44 46 47 47 46 46 43 40 38 36 35 34 35 33 33 34 32 35 38 40 39 38 40 41 41 40 39 39 38 39 39 -209 39 41 43 45 47 51 49 51 54 56 56 57 57 -193 56 59 59 56 57 58 61 59 61 62 -209 -209 -209 -209 18 19 19 19 23 32 -193 -193 61 71 -193 819 -177 -193 -193 -177 -209 -177 -177 -209 -193 52 51 46 54 59 -193 85 88 92 94 93 96 95 93 95 99 102 104 105 105 109 109 112 116 -209 -209 59 59 -193 57 55 55 56 56 56 57 59 63 60 61 61 61 57 58 57 57 56 57 57 57 55 56 54 59 60 62 63 62 62 62 63 63 62 63 62 60 61 61 60 62 61 60 60 63 62 60 62 62 60 62 62 61 0 0 0 0 0
    0 0 0 0 0 0 0 0 0 0 0 0 0 0 0 0 0 0 0 0 0 0 0 0 0 0 0 0 0 0 0 0 0 0 0 0 0 0 0 0 0 0 0 0 0 0 0 0 0 0 0 0 0 0 0 0 0 0 0 0 0 0 0 0 0 0 0 0 0 -209 0 -193 -193 -209 -209 -209 31 37 36 37 37 38 38 37 37 39 -193 -193 -193 -209 -193 42 42 42 41 39 35 34 -209 -193 -177 -209 -209 -209 -193 -209 22 -193 -193 27 24 25 -193 -177 -209 -193 -193 -209 -209 -209 358 356 354 352 351 349 348 346 347 -209 -193 42 43 46 47 46 49 50 49 51 51 52 51 52 52 50 50 51 46 50 47 45 44 46 48 47 47 46 43 39 38 37 36 35 35 34 34 35 34 36 38 40 39 39 40 42 41 41 40 39 39 40 40 42 41 42 45 48 50 52 50 53 -193 57 -193 -193 -193 -193 -193 59 60 56 57 58 62 61 63 64 66 -209 -209 -209 -209 12 20 19 23 38 -177 61 71 72 83 819 -177 -193 -193 -177 -193 -193 -177 -177 -193 51 50 44 48 54 -193 -209 86 91 94 94 97 94 92 94 98 102 104 105 106 107 108 110 113 -193 -209 -209 -209 -209 59 56 57 57 58 58 -209 63 68 65 64 62 62 59 59 58 58 57 57 57 57 57 55 54 63 61 63 64 63 63 63 63 63 62 63 61 59 59 59 60 61 60 60 60 63 62 60 62 62 61 63 62 61 0 0 0 0 0
    0 0 0 0 0 0 0 0 0 0 0 0 0 0 0 0 0 0 0 0 0 0 0 0 0 0 0 0 0 0 0 0 0 0 0 0 0 0 0 0 0 0 0 0 0 0 0 0 0 0 0 0 0 0 0 0 0 0 0 0 0 0 0 0 0 0 0 0 0 39 41 42 39 34 -209 -209 38 40 39 39 39 40 40 39 39 40 40 41 -193 -193 41 42 42 42 41 40 39 39 36 34 -193 -209 -209 -193 -193 -193 27 31 31 33 31 31 36 -193 -209 -193 -193 -193 -193 -193 -209 -193 -193 -193 -193 -193 -193 -193 -193 -193 -209 43 44 46 48 47 50 50 50 51 51 52 51 51 52 49 49 49 45 48 47 45 44 46 49 48 47 46 43 39 38 37 37 36 36 36 36 36 36 37 39 40 40 40 40 43 42 42 41 40 40 41 42 45 43 45 48 50 52 53 51 54 -209 57 -193 -193 -193 -193 -193 60 61 57 58 59 64 64 65 65 67 64 61 -209 -209 -209 -193 20 23 38 -177 63 74 74 84 -177 -193 -193 -177 -193 -193 -193 -177 -193 -193 49 47 42 43 49 50 54 -209 -209 92 91 95 91 89 90 97 104 105 107 106 107 107 109 111 109 108 -209 -209 -209 -209 -209 59 62 -209 -209 111 -209 -209 -209 68 70 67 62 61 58 58 57 58 58 58 57 55 55 66 62 64 65 64 63 63 64 63 61 63 60 58 58 58 58 59 59 59 59 62 61 59 61 61 60 62 62 60 0 0 0 0 0
    0 0 0 0 0 0 0 0 0 0 0 0 0 0 0 0 0 0 0 0 0 0 0 0 0 0 0 0 0 0 0 0 0 0 0 0 0 0 0 0 0 0 0 0 0 0 0 0 0 0 0 0 0 0 0 0 0 0 0 0 0 0 0 0 0 0 0 0 0 39 40 41 39 39 40 41 41 42 41 41 40 41 41 40 40 40 40 41 41 41 41 42 42 42 41 41 41 41 40 40 36 38 -193 37 37 36 36 37 37 38 38 38 40 40 41 -193 41 41 41 41 41 41 39 38 39 38 39 39 39 41 42 43 45 46 49 48 51 51 50 52 51 52 52 51 52 48 48 48 44 48 47 45 45 46 49 48 47 46 43 39 38 38 37 37 37 37 37 37 37 38 39 40 40 40 41 44 43 43 42 41 41 42 42 46 44 47 50 51 52 53 52 54 -193 57 -193 -193 -193 -193 -193 61 61 57 58 58 63 66 65 66 67 66 64 62 64 60 -209 21 23 39 -193 63 75 75 85 -193 -193 -193 -177 -193 -193 -193 -177 -177 -209 46 45 42 42 44 46 50 53 54 -209 -193 92 -193 75 87 95 105 106 108 107 108 108 109 110 108 107 -193 -193 -193 -193 -209 -209 -209 114 118 114 108 104 -193 -209 -209 -209 -209 64 59 59 58 58 58 58 57 55 55 67 63 65 65 64 63 63 64 63 61 62 60 58 57 57 57 57 57 57 58 60 58 59 60 60 59 61 61 59 0 0 0 0 0
    0 0 0 0 0 0 0 0 0 0 0 0 0 0 0 0 0 0 0 0 0 0 0 0 0 0 0 0 0 0 0 0 0 0 0 0 0 0 0 0 0 0 0 0 0 0 0 0 0 0 0 0 0 0 0 0 0 0 0 0 0 0 0 0 0 0 0 0 0 39 40 40 40 39 40 41 41 41 41 41 41 41 41 41 40 41 41 41 41 42 42 43 43 43 42 42 41 42 41 41 39 40 40 40 40 39 39 39 39 39 40 40 41 41 42 42 42 42 42 41 42 42 40 40 40 39 40 40 40 41 42 43 44 46 49 48 51 51 50 52 50 51 51 50 50 47 47 47 44 48 47 45 45 46 50 49 47 46 42 39 38 38 38 37 38 37 38 38 38 39 40 40 41 41 41 44 43 43 42 42 42 43 43 46 45 49 51 52 52 53 53 55 58 -193 -193 319 -193 -193 -193 60 60 56 57 57 61 66 66 67 68 67 67 66 67 64 58 59 -209 46 57 67 78 76 85 -193 -193 -193 -193 -193 -193 -193 557 -177 550 46 44 42 40 42 43 45 48 51 55 54 -209 70 74 87 95 104 105 108 107 108 107 108 109 108 107 -193 610 607 605 -209 -209 -209 117 118 114 110 107 108 108 112 117 120 -193 -209 -209 -193 59 60 59 -193 55 55 68 63 65 64 63 63 63 63 63 61 62 60 58 57 57 57 57 57 56 57 58 56 58 59 59 59 60 61 60 0 0 0 0 0
    0 0 0 0 0 0 0 0 0 0 0 0 0 0 0 0 0 0 0 0 0 0 0 0 0 0 0 0 0 0 0 0 0 0 0 0 0 0 0 0 0 0 0 0 0 0 0 0 0 0 0 0 0 0 0 0 0 0 0 0 0 0 0 0 0 0 0 0 0 39 39 40 39 39 40 40 40 41 41 41 41 41 42 41 41 41 41 42 42 42 42 43 42 42 42 42 41 42 41 41 39 40 40 40 40 40 40 40 40 40 40 40 42 42 43 42 42 42 42 42 42 42 41 41 41 40 40 40 41 42 42 43 45 45 49 49 50 51 50 52 50 50 51 50 50 47 47 47 44 48 48 45 45 46 50 49 48 46 42 40 38 38 38 38 38 37 38 38 38 40 41 41 42 41 42 45 43 43 43 42 43 43 44 47 46 50 52 52 52 53 53 55 58 57 -193 -193 -193 -193 -193 61 60 55 57 56 59 66 64 65 67 66 67 66 67 64 59 62 60 51 56 -209 80 78 86 -193 92 -193 -193 558 -193 -193 -193 -193 -193 40 41 40 39 41 41 42 43 46 52 52 58 68 73 86 97 105 105 108 107 108 107 108 108 108 106 -193 -193 610 608 -193 -209 113 118 118 115 112 109 110 108 113 119 121 122 126 127 131 -193 -209 -209 -209 57 55 70 64 66 64 63 63 63 64 64 60 62 60 58 57 57 57 57 57 57 55 56 54 56 57 58 58 59 59 59 0 0 0 0 0
    0 0 0 0 0 0 0 0 0 0 0 0 0 0 0 0 0 0 0 0 0 0 0 0 0 0 0 0 0 0 0 0 0 0 0 0 0 0 0 0 0 0 0 0 0 0 0 0 0 0 0 0 0 0 0 0 0 0 0 0 0 0 0 0 0 0 0 0 0 40 40 40 40 40 40 40 41 41 42 42 43 43 43 43 42 42 42 42 42 42 42 43 42 42 41 41 41 41 41 41 40 40 41 41 41 41 41 41 41 41 41 41 42 43 43 42 42 42 42 42 42 42 42 41 42 41 41 41 41 42 42 43 46 45 49 50 50 51 50 52 50 50 51 50 50 48 47 47 44 49 48 46 46 46 50 49 48 46 43 41 39 39 39 38 38 38 38 38 39 40 41 41 42 42 42 46 44 44 43 43 43 44 44 47 47 50 52 52 52 52 52 55 -193 -193 58 -193 -193 -193 61 60 60 53 54 54 57 66 63 64 67 66 67 66 66 64 59 61 61 54 60 74 80 78 86 97 92 92 -193 558 557 -177 -193 -193 -209 40 39 40 39 40 40 41 42 45 51 52 57 64 72 86 97 -193 105 109 107 108 107 108 108 108 106 108 -193 -193 -193 -193 117 116 119 119 116 116 111 111 108 113 118 121 121 124 124 128 134 135 130 129 136 133 -209 67 68 65 63 63 63 64 64 60 62 59 58 57 57 57 56 57 57 54 56 54 55 56 57 57 58 58 59 0 0 0 0 0
    0 0 0 0 0 0 0 0 0 0 0 0 0 0 0 0 0 0 0 0 0 0 0 0 0 0 0 0 0 0 0 0 0 0 0 0 0 0 0 0 0 0 0 0 0 0 0 0 0 0 0 0 0 0 0 0 0 0 0 0 0 0 0 0 0 0 0 0 0 40 40 40 40 40 41 41 41 42 43 43 44 43 43 44 42 43 43 42 42 42 42 43 42 42 41 41 41 41 41 41 41 42 42 42 42 42 42 42 42 42 42 42 43 44 44 43 43 43 43 43 43 43 42 42 42 42 42 42 42 42 42 43 47 46 50 50 50 51 50 52 50 50 51 50 50 48 47 48 44 50 48 47 47 47 50 48 48 46 43 41 40 40 39 39 39 38 39 39 40 41 41 41 42 42 43 46 44 44 44 43 44 44 44 47 48 50 52 52 52 52 52 54 58 -193 58 58 58 60 60 59 59 50 52 53 56 66 62 63 66 66 67 66 66 64 59 62 62 54 63 82 81 79 86 97 92 92 -193 557 -193 -177 -193 -193 -209 40 39 40 39 39 39 40 41 43 50 52 56 57 63 -177 -177 -209 -209 -193 108 108 108 108 109 108 106 108 -193 -193 -193 -193 119 118 120 121 119 119 115 116 108 112 118 121 120 123 123 125 128 129 126 126 133 132 131 135 -193 -193 64 63 63 64 63 60 62 59 58 57 56 56 55 56 56 53 55 54 55 55 56 56 57 57 57 0 0 0 0 0
    0 0 0 0 0 0 0 0 0 0 0 0 0 0 0 0 0 0 0 0 0 0 0 0 0 0 0 0 0 0 0 0 0 0 0 0 0 0 0 0 0 0 0 0 0 0 0 0 0 0 0 0 0 0 0 0 0 0 0 0 0 0 0 0 0 0 0 0 0 40 40 41 40 41 41 41 42 42 43 43 45 44 44 44 43 43 43 43 43 42 43 43 42 42 42 42 41 42 41 42 42 43 44 44 44 43 43 43 43 42 43 44 44 45 45 44 44 44 44 44 44 43 43 42 43 42 42 42 42 42 42 43 48 46 50 51 50 52 51 52 50 50 51 50 50 49 47 48 45 50 50 47 48 47 50 49 48 46 44 41 41 40 40 39 39 39 40 40 40 41 41 41 42 43 43 46 44 44 44 43 44 45 45 47 49 50 51 51 51 52 51 54 57 -193 58 58 58 59 59 59 59 49 52 52 55 66 62 63 66 65 66 66 -193 65 58 61 61 52 61 85 81 79 87 98 92 92 -193 -193 -193 -193 -193 -193 77 40 40 41 40 41 40 41 41 42 47 50 55 56 58 -177 -177 -209 -209 -193 108 109 108 108 109 108 107 109 -193 615 -193 -209 121 120 122 122 121 121 118 -193 105 109 117 120 119 121 121 123 125 127 126 125 132 132 133 136 137 133 -193 -193 64 65 65 60 61 59 58 56 56 55 55 56 56 54 55 54 56 56 -193 56 56 56 57 0 0 0 0 0
    0 0 0 0 0 0 0 0 0 0 0 0 0 0 0 0 0 0 0 0 0 0 0 0 0 0 0 0 0 0 0 0 0 0 0 0 0 0 0 0 0 0 0 0 0 0 0 0 0 0 0 0 0 0 0 0 0 0 0 0 0 0 0 0 0 0 0 0 0 41 41 41 41 41 42 42 43 43 43 43 45 44 44 45 44 44 44 45 44 43 43 43 41 42 41 42 41 42 41 43 43 45 45 45 45 45 44 45 43 43 45 45 45 46 46 45 45 45 45 45 45 44 45 43 43 43 42 42 42 42 43 43 48 46 49 51 50 51 51 52 50 50 52 51 50 50 47 49 46 50 50 48 48 47 50 48 48 45 44 42 42 41 41 40 40 40 40 40 41 41 42 42 42 43 43 46 44 44 44 43 44 46 45 47 50 49 51 51 51 52 51 54 57 -193 58 58 58 59 59 59 58 50 52 52 54 64 61 61 65 64 65 65 63 63 57 59 59 51 57 83 78 78 86 97 92 92 -193 -193 -193 -193 -193 -193 78 -193 42 43 42 42 42 42 42 42 45 50 56 59 -193 87 99 107 106 111 108 109 108 108 108 108 107 109 107 -209 -193 -209 121 121 122 123 122 122 119 -193 103 107 116 120 119 121 121 123 125 127 127 128 132 132 132 135 135 133 134 138 -193 -193 -193 61 62 -193 58 56 56 -193 56 -193 -209 -193 -209 -209 -193 -209 -193 -193 56 56 57 0 0 0 0 0
    0 0 0 0 0 0 0 0 0 0 0 0 0 0 0 0 0 0 0 0 0 0 0 0 0 0 0 0 0 0 0 0 0 0 0 0 0 0 0 0 0 0 0 0 0 0 0 0 0 0 0 0 0 0 0 0 0 0 0 0 0 0 0 0 0 0 0 0 0 41 41 41 41 41 42 42 43 43 44 44 45 44 45 45 44 44 44 44 43 43 42 42 41 42 41 42 41 42 42 44 44 45 45 46 46 46 45 45 44 44 47 47 46 47 47 46 46 46 46 45 45 44 46 43 44 43 43 43 43 43 44 42 49 46 48 52 49 51 50 52 50 49 51 51 50 50 48 49 47 51 50 49 49 47 50 48 48 45 44 44 43 42 42 41 41 41 41 41 41 42 42 42 42 43 43 45 44 45 45 44 44 47 46 48 51 50 51 52 52 52 52 54 57 -193 58 59 58 59 59 59 59 50 52 53 55 64 61 61 64 64 65 64 63 63 57 57 57 50 56 83 78 77 86 96 92 92 -193 -193 -193 -193 92 92 78 -193 43 45 43 44 43 43 43 43 44 50 56 70 81 89 101 107 106 111 109 109 108 108 108 108 107 110 108 -193 -209 -209 -193 122 123 124 122 123 121 -193 102 105 110 119 119 122 121 122 124 127 128 129 133 133 132 135 134 132 133 136 135 130 135 136 -193 138 142 142 -209 131 137 134 136 136 -193 139 141 138 139 -209 -209 56 58 0 0 0 0 0
    0 0 0 0 0 0 0 0 0 0 0 0 0 0 0 0 0 0 0 0 0 0 0 0 0 0 0 0 0 0 0 0 0 0 0 0 0 0 0 0 0 0 0 0 0 0 0 0 0 0 0 0 0 0 0 0 0 0 0 0 0 0 0 0 0 0 0 0 0 41 41 42 41 42 42 42 43 43 45 44 46 45 45 46 45 45 44 44 43 43 42 42 41 42 41 42 41 43 43 45 46 46 46 47 46 46 45 46 45 45 48 48 47 47 47 47 46 47 47 45 45 44 47 44 45 44 44 44 44 44 45 43 50 46 47 52 49 50 50 51 49 49 50 51 49 50 48 50 47 51 49 49 48 47 49 48 48 45 44 45 43 43 42 41 41 41 42 41 41 42 42 42 42 44 44 45 45 46 46 45 46 48 47 49 52 51 52 52 52 53 52 54 57 -193 58 59 58 59 59 59 58 51 53 54 55 64 61 62 64 64 65 65 63 63 57 57 57 50 55 -177 79 77 86 96 92 92 -193 -193 -193 -193 91 92 80 -193 44 46 45 45 45 45 45 45 45 51 56 70 -209 92 103 107 106 112 109 110 108 108 109 108 108 111 110 618 -209 -177 -193 -193 123 124 122 122 119 -193 102 105 107 117 119 122 122 123 126 129 130 131 134 134 132 134 131 127 131 133 131 127 131 133 134 138 141 141 -193 136 140 139 140 140 141 141 142 139 139 140 -193 -193 59 0 0 0 0 0
    0 0 0 0 0 0 0 0 0 0 0 0 0 0 0 0 0 0 0 0 0 0 0 0 0 0 0 0 0 0 0 0 0 0 0 0 0 0 0 0 0 0 0 0 0 0 0 0 0 0 0 0 0 0 0 0 0 0 0 0 0 0 0 0 0 0 0 0 0 42 42 42 42 42 42 43 44 44 46 45 46 46 46 47 46 46 45 46 45 45 44 43 42 43 42 43 42 44 44 47 47 47 47 48 47 47 46 46 46 45 49 48 47 48 47 47 46 46 46 45 44 45 47 45 46 46 45 45 45 46 46 44 51 47 47 52 48 50 49 50 48 48 49 50 48 50 48 50 48 51 49 49 49 48 49 48 48 45 45 45 44 43 43 42 42 41 42 42 42 43 43 42 43 45 45 46 47 46 47 47 48 50 48 49 53 51 52 52 52 53 53 55 57 56 58 59 58 59 58 59 58 52 54 55 56 64 61 62 64 64 65 64 62 63 57 57 58 50 56 -193 78 76 86 96 92 91 -193 -193 -193 -193 92 92 82 -193 44 47 46 46 46 46 47 48 47 52 56 69 -209 -177 106 109 107 114 110 111 109 109 109 108 109 112 111 -193 -193 -177 -193 -193 -193 124 -193 123 121 -193 100 103 104 112 117 121 121 123 128 132 132 134 135 134 131 133 127 123 127 131 128 126 130 132 134 138 140 140 136 136 140 139 146 147 148 147 147 144 141 149 150 -209 -193 0 0 0 0 0
    0 0 0 0 0 0 0 0 0 0 0 0 0 0 0 0 0 0 0 0 0 0 0 0 0 0 0 0 0 0 0 0 0 0 0 0 0 0 0 0 0 0 0 0 0 0 0 0 0 0 0 0 0 0 0 0 0 0 0 0 0 0 0 0 0 0 0 0 0 43 43 43 43 44 44 46 47 46 48 46 48 47 48 49 47 48 47 48 47 47 45 44 44 44 44 45 43 46 45 49 49 48 48 49 49 49 48 48 47 47 51 50 48 49 48 47 46 46 47 45 45 46 49 46 47 47 47 47 46 48 48 46 53 49 48 52 49 50 49 51 49 48 50 50 48 51 49 50 49 51 49 49 49 48 48 48 48 46 45 45 45 44 45 43 43 43 44 44 44 44 44 44 44 45 47 47 48 47 49 50 50 51 50 50 53 51 52 52 52 53 53 55 57 57 58 59 59 59 59 59 58 53 54 56 56 65 61 62 64 64 64 64 62 62 57 57 57 49 55 67 77 76 86 97 92 91 90 -193 -193 -193 92 92 82 83 45 47 47 48 46 47 49 50 49 53 56 65 -209 -209 -209 111 109 116 111 112 110 109 110 108 110 113 112 -193 -193 -177 123 123 124 124 -193 124 122 123 96 -209 -209 117 116 114 117 -193 130 135 135 137 136 136 133 133 125 122 125 129 127 127 131 133 135 138 140 140 135 136 139 138 142 145 148 149 151 151 148 154 154 156 155 0 0 0 0 0
    0 0 0 0 0 0 0 0 0 0 0 0 0 0 0 0 0 0 0 0 0 0 0 0 0 0 0 0 0 0 0 0 0 0 0 0 0 0 0 0 0 0 0 0 0 0 0 0 0 0 0 0 0 0 0 0 0 0 0 0 0 0 0 0 0 0 0 0 0 45 44 45 45 47 48 52 52 51 51 50 52 51 52 52 49 50 49 51 51 51 -193 47 49 49 50 51 48 51 50 52 51 49 49 50 50 50 51 51 50 51 53 52 50 50 50 48 48 47 48 46 47 50 52 49 50 50 50 49 49 50 51 49 54 51 50 53 50 51 50 51 50 49 51 51 49 52 50 51 50 51 50 50 50 48 49 49 48 46 47 46 47 47 48 46 46 46 47 47 47 47 46 46 46 48 50 50 51 51 53 53 53 54 53 52 54 52 53 52 53 54 54 55 58 57 59 60 59 59 59 60 59 54 55 57 57 66 62 62 64 64 64 64 62 63 57 58 58 52 56 68 76 75 86 97 92 91 90 90 -193 -193 -193 -193 79 80 48 50 49 50 49 49 51 51 51 54 56 60 -209 -209 -209 -209 -193 -193 112 113 110 109 110 108 110 113 112 -193 -209 -209 124 124 125 125 -193 125 122 -193 93 68 70 -209 -209 -209 -209 -209 -209 -209 137 138 137 137 133 132 123 121 123 125 124 125 130 132 134 137 139 139 136 138 138 137 141 143 146 149 151 152 150 156 157 157 156 0 0 0 0 0
    0 0 0 0 0 0 0 0 0 0 0 0 0 0 0 0 0 0 0 0 0 0 0 0 0 0 0 0 0 0 0 0 0 0 0 0 0 0 0 0 0 0 0 0 0 0 0 0 0 0 0 0 0 0 0 0 0 0 0 0 0 0 0 0 0 0 0 0 0 48 47 48 48 52 52 56 55 55 54 54 55 55 55 56 53 53 53 55 -193 55 -193 54 56 55 55 56 53 54 53 53 52 50 50 51 51 52 53 53 53 54 55 54 52 52 51 50 49 48 50 48 50 53 54 52 53 53 53 52 52 53 53 53 55 53 52 54 52 52 52 52 51 51 52 53 51 53 52 52 51 51 51 50 50 49 49 50 49 47 49 47 49 49 52 50 50 49 51 50 49 49 49 48 49 50 52 52 53 54 56 55 55 55 55 54 55 54 54 53 54 55 55 56 58 57 59 60 59 59 59 59 59 55 55 59 58 67 63 63 64 64 64 64 62 63 57 58 59 54 58 67 72 74 85 96 91 91 89 -193 -193 -193 -193 -193 76 77 52 53 52 52 52 51 52 52 52 55 55 59 -209 273 -209 -193 -193 -193 113 113 111 109 110 108 110 112 112 -209 -209 -209 124 124 125 125 -193 125 122 -193 -193 64 65 62 62 62 58 -209 -209 -209 -193 -209 -209 137 136 132 120 119 121 122 123 127 130 132 134 138 139 140 137 140 141 139 144 146 148 149 152 153 151 155 156 156 157 0 0 0 0 0
    0 0 0 0 0 0 0 0 0 0 0 0 0 0 0 0 0 0 0 0 0 0 0 0 0 0 0 0 0 0 0 0 0 0 0 0 0 0 0 0 0 0 0 0 0 0 0 0 0 0 0 0 0 0 0 0 0 0 0 0 0 0 0 0 0 0 0 0 0 51 50 52 52 54 54 58 57 57 56 56 57 57 58 58 57 56 56 57 57 57 59 57 58 57 57 57 55 55 55 54 53 52 51 52 52 53 55 55 55 56 56 55 54 54 53 51 50 49 51 50 53 56 56 55 55 55 55 54 54 54 54 54 56 54 54 55 53 54 53 53 52 52 53 54 53 54 52 52 52 52 52 51 51 49 50 51 51 48 51 49 50 51 53 53 52 52 53 52 51 51 51 50 51 52 54 55 55 56 58 57 57 57 57 57 57 56 57 55 55 56 56 57 58 58 59 59 59 59 59 60 59 56 57 61 59 68 63 63 65 64 64 64 62 62 57 58 59 55 58 67 72 73 84 93 -193 -193 -193 -193 -193 -193 -193 -193 75 75 55 54 54 53 53 53 54 53 53 55 56 61 69 -209 -209 -193 -193 118 112 112 110 109 109 108 110 112 111 -209 -193 -193 124 124 124 -193 -193 -193 -193 -193 -193 62 62 60 60 59 57 59 -209 -193 -193 -209 -209 -193 -209 -209 108 111 117 118 120 126 132 135 137 138 139 140 138 141 141 139 143 146 147 148 150 151 150 153 154 155 155 0 0 0 0 0
    0 0 0 0 0 0 0 0 0 0 0 0 0 0 0 0 0 0 0 0 0 0 0 0 0 0 0 0 0 0 0 0 0 0 0 0 0 0 0 0 0 0 0 0 0 0 0 0 0 0 0 0 0 0 0 0 0 0 0 0 0 0 0 0 0 0 0 0 0 54 54 54 54 55 56 60 59 59 58 58 59 59 59 59 58 58 58 58 58 58 61 58 59 59 58 58 57 57 57 55 54 53 53 53 53 54 56 56 57 57 57 56 55 55 54 53 52 51 53 52 55 58 57 57 57 56 56 56 56 56 56 56 57 56 55 56 54 55 55 54 53 54 54 55 54 55 53 53 53 52 52 52 52 50 51 52 52 50 52 52 52 53 54 -193 -193 53 54 54 53 53 53 53 54 55 56 57 57 57 60 58 59 59 59 58 58 58 59 56 57 58 57 58 59 58 59 60 60 60 59 60 59 57 59 62 60 68 64 64 65 65 64 64 62 63 57 60 60 57 60 68 73 73 83 -193 -193 -177 -177 -193 -193 -193 -193 -193 73 73 57 56 55 54 54 54 55 55 54 57 57 63 70 -209 -209 -193 -193 118 112 112 111 109 110 108 110 111 110 -209 -177 -193 -193 -193 -193 -193 -193 -193 -193 -193 65 62 61 61 60 59 58 59 60 60 -209 -209 -209 -209 -209 92 104 106 109 110 117 120 122 128 136 137 139 139 140 142 141 139 145 147 148 149 150 151 149 152 152 153 154 0 0 0 0 0
    0 0 0 0 0 0 0 0 0 0 0 0 0 0 0 0 0 0 0 0 0 0 0 0 0 0 0 0 0 0 0 0 0 0 0 0 0 0 0 0 0 0 0 0 0 0 0 0 0 0 0 0 0 0 0 0 0 0 0 0 0 0 0 0 0 0 0 0 0 57 57 58 56 57 56 61 60 60 60 59 60 60 61 61 59 59 59 59 59 59 62 60 60 60 59 59 59 58 58 56 55 55 55 55 56 56 59 58 59 58 58 57 57 56 55 54 54 53 55 55 58 61 59 59 59 58 58 58 57 58 57 58 59 58 57 58 56 57 57 56 55 55 55 56 55 56 54 54 54 55 55 54 55 54 55 55 55 54 55 55 57 56 56 -193 -193 56 56 56 55 55 56 56 57 57 58 59 58 58 61 60 60 60 60 60 60 60 61 58 59 59 59 59 59 58 59 59 60 59 59 60 59 58 62 66 62 69 65 65 66 65 65 64 62 64 58 62 62 58 61 68 75 74 83 91 -193 -177 -177 -193 -193 -193 -193 -193 73 74 63 59 59 58 57 56 57 57 56 58 59 63 69 -209 -209 -209 -193 117 112 112 112 110 110 109 111 111 110 -193 -193 -193 -177 -177 -177 -193 -193 -193 -193 -193 65 63 62 61 61 60 59 60 60 60 62 67 -209 -209 -209 86 -209 96 -193 107 116 117 117 120 130 133 135 137 138 142 140 141 146 148 148 148 149 150 148 151 151 152 152 0 0 0 0 0
    0 0 0 0 0 0 0 0 0 0 0 0 0 0 0 0 0 0 0 0 0 0 0 0 0 0 0 0 0 0 0 0 0 0 0 0 0 0 0 0 0 0 0 0 0 0 0 0 0 0 0 0 0 0 0 0 0 0 0 0 0 0 0 0 0 0 0 0 0 58 60 61 59 59 57 62 61 61 61 61 61 62 62 63 61 61 62 61 61 61 64 61 62 62 60 60 60 59 58 57 56 57 57 57 58 59 63 60 61 59 59 58 58 57 57 56 56 55 58 59 60 65 61 60 61 60 60 60 59 60 59 60 61 60 60 60 59 60 59 58 58 58 58 58 58 58 57 57 57 58 59 58 59 58 58 58 58 58 57 58 59 58 58 58 58 58 58 58 58 57 58 58 58 58 59 61 59 59 62 61 61 61 61 61 61 62 62 59 60 61 60 60 59 59 59 59 60 59 59 60 61 64 68 71 67 71 67 67 67 66 65 64 63 64 59 64 63 61 65 70 78 76 84 91 -193 -193 -193 -193 -193 -193 -193 -193 75 76 71 65 66 64 65 63 65 64 60 62 63 66 70 -209 -209 -193 -193 117 111 111 113 110 110 109 112 111 110 119 -193 -177 -177 -177 -177 -177 -193 -193 -193 -193 64 63 62 61 61 61 60 61 62 61 62 66 69 71 72 77 83 -209 -209 -209 -193 -209 116 119 126 -193 -209 123 128 -209 137 138 144 147 148 149 149 150 149 152 153 153 154 0 0 0 0 0
    0 0 0 0 0 0 0 0 0 0 0 0 0 0 0 0 0 0 0 0 0 0 0 0 0 0 0 0 0 0 0 0 0 0 0 0 0 0 0 0 0 0 0 0 0 0 0 0 0 0 0 0 0 0 0 0 0 0 0 0 0 0 0 0 0 0 0 0 0 59 62 62 60 60 59 62 62 62 62 61 62 63 63 64 62 63 64 63 64 63 65 63 64 63 61 61 60 59 59 57 57 57 57 58 60 61 65 62 62 61 61 60 61 60 60 58 60 60 64 65 64 67 63 63 63 62 62 62 61 62 61 63 63 62 62 62 61 62 61 60 61 61 60 60 60 60 59 60 60 61 62 60 61 61 60 60 59 59 58 58 60 59 59 59 59 59 59 59 59 58 59 59 59 59 60 62 61 60 64 62 62 62 63 62 61 63 63 61 61 62 62 60 61 61 60 60 61 60 61 63 66 70 72 76 72 72 68 69 68 67 66 65 63 65 59 66 65 63 69 72 81 78 85 89 88 88 -193 -193 88 -193 -193 -193 76 77 73 69 70 70 71 -193 71 71 67 69 68 69 72 -209 -193 108 107 116 111 111 113 111 110 109 112 111 109 118 -193 -177 -177 -177 -177 -177 -193 -177 -193 -193 63 64 63 62 63 61 61 63 63 63 64 66 68 70 71 74 73 74 78 -209 -209 -209 -209 -193 -209 -209 -209 -209 -209 -209 125 135 143 147 149 150 150 152 152 152 153 154 154 0 0 0 0 0
    0 0 0 0 0 0 0 0 0 0 0 0 0 0 0 0 0 0 0 0 0 0 0 0 0 0 0 0 0 0 0 0 0 0 0 0 0 0 0 0 0 0 0 0 0 0 0 0 0 0 0 0 0 0 0 0 0 0 0 0 0 0 0 0 0 0 0 0 0 59 62 63 60 61 59 63 62 62 62 62 62 63 64 64 63 63 65 64 65 64 66 64 65 64 63 62 61 59 59 57 57 57 57 58 60 61 66 63 63 62 62 62 63 61 62 61 63 64 67 68 67 68 64 64 65 64 63 62 62 64 62 64 64 63 63 63 64 64 62 62 63 64 63 63 63 62 61 63 62 63 63 61 63 62 62 61 61 60 60 60 61 60 60 59 59 59 60 60 59 59 60 60 61 61 61 63 62 62 66 64 63 63 64 64 62 64 64 62 63 64 64 62 63 63 62 62 64 62 65 68 71 76 80 86 78 76 70 70 69 68 67 65 64 66 59 69 69 69 75 77 84 81 85 88 87 87 88 88 87 87 -193 -193 76 78 73 71 72 73 -193 -193 -193 75 73 74 72 72 78 -209 -209 105 105 115 110 110 113 111 110 109 112 111 109 118 115 -193 -177 -177 -177 -177 -177 -193 -193 -209 64 67 66 64 65 63 63 65 65 65 63 66 66 67 71 73 72 74 75 78 77 80 -209 -209 -209 -209 -209 -209 -209 -209 -209 -209 138 142 145 147 147 150 150 151 153 154 155 0 0 0 0 0
    0 0 0 0 0 0 0 0 0 0 0 0 0 0 0 0 0 0 0 0 0 0 0 0 0 0 0 0 0 0 0 0 0 0 0 0 0 0 0 0 0 0 0 0 0 0 0 0 0 0 0 0 0 0 0 0 0 0 0 0 0 0 0 0 0 0 0 0 0 60 62 63 61 61 60 63 63 62 63 62 62 64 64 65 63 63 65 65 65 64 66 64 65 65 64 63 62 60 60 57 58 -193 58 58 61 62 67 63 64 63 63 63 63 62 63 62 64 65 69 69 68 69 66 66 66 65 64 63 62 64 62 65 64 63 64 64 65 66 63 63 65 66 65 65 65 64 63 65 65 64 64 63 65 64 64 63 63 62 61 61 63 61 61 61 61 60 62 61 60 60 61 61 62 62 63 65 64 64 67 65 65 64 65 65 64 66 66 63 65 66 66 63 66 66 64 64 67 64 67 71 75 84 86 88 84 82 72 72 71 69 68 67 66 67 60 71 73 74 83 83 86 84 86 88 87 87 88 87 87 87 88 87 77 81 74 75 78 -209 -193 -193 -193 82 80 80 77 75 82 -193 106 100 104 114 109 109 112 110 110 110 112 111 109 117 115 115 -177 -177 -177 -177 -177 -193 -193 -209 65 70 69 67 67 65 66 68 68 67 65 68 66 66 72 74 72 74 74 76 75 76 75 76 78 84 86 -209 -177 -177 -193 -209 -209 149 149 145 141 144 145 148 151 153 154 0 0 0 0 0
    0 0 0 0 0 0 0 0 0 0 0 0 0 0 0 0 0 0 0 0 0 0 0 0 0 0 0 0 0 0 0 0 0 0 0 0 0 0 0 0 0 0 0 0 0 0 0 0 0 0 0 0 0 0 0 0 0 0 0 0 0 0 0 0 0 0 0 0 0 60 62 64 61 62 61 64 64 64 65 64 64 67 67 67 65 66 67 66 66 65 67 65 66 67 65 64 64 62 63 59 61 -209 61 63 65 64 69 65 66 64 64 63 64 63 64 64 67 68 71 71 71 71 69 69 69 68 66 64 64 66 64 67 66 65 66 66 67 68 66 66 68 69 68 68 68 68 68 71 69 67 66 65 67 67 66 66 66 65 65 65 67 64 66 -193 67 65 67 64 63 63 64 62 64 63 65 66 65 65 68 66 65 64 66 66 65 67 67 66 68 69 69 67 69 70 69 68 70 68 70 73 81 87 88 89 87 85 79 75 73 70 69 69 68 69 60 73 86 81 88 87 88 86 87 88 87 87 88 87 87 87 88 88 82 86 80 83 86 -193 -193 -193 -193 86 85 85 84 80 84 88 101 96 103 112 108 108 111 110 110 110 113 112 110 117 115 114 -177 -177 -177 -177 -177 -177 -193 -209 69 83 71 70 69 69 69 70 70 69 67 70 69 69 73 75 73 74 75 78 76 78 77 80 80 85 -193 -209 -209 -177 -209 -209 -209 151 152 149 145 147 142 143 149 -193 154 0 0 0 0 0
    0 0 0 0 0 0 0 0 0 0 0 0 0 0 0 0 0 0 0 0 0 0 0 0 0 0 0 0 0 0 0 0 0 0 0 0 0 0 0 0 0 0 0 0 0 0 0 0 0 0 0 0 0 0 0 0 0 0 0 0 0 0 0 0 0 0 0 0 0 61 63 65 62 63 63 66 66 67 67 67 68 71 72 71 69 72 71 68 68 67 68 67 67 68 66 67 67 66 69 64 -193 -193 -193 72 70 67 70 68 69 67 67 65 67 66 68 68 70 70 75 75 76 76 -209 73 72 71 69 66 66 68 66 69 69 69 69 69 71 70 68 69 70 -193 71 71 71 71 72 75 73 71 69 68 70 70 69 69 69 69 69 69 -193 69 -193 -193 -193 -193 -209 -209 -193 68 -209 66 68 66 67 67 67 67 69 67 66 65 68 67 67 69 69 69 70 71 72 71 73 73 73 72 73 72 72 76 84 88 89 89 89 88 87 82 80 72 71 71 70 70 62 75 89 88 89 89 89 87 88 88 88 87 88 88 87 87 88 88 85 88 86 87 88 89 -193 89 89 87 87 87 87 84 86 88 99 95 102 110 107 108 110 109 109 109 113 112 110 117 115 114 -193 -177 -177 -177 -177 -177 108 -193 76 90 82 76 72 72 72 73 72 72 70 72 71 72 75 77 76 77 78 84 82 85 86 86 84 87 87 88 -193 92 -209 -209 -209 -193 153 -209 146 -209 -209 -209 -209 -209 -209 0 0 0 0 0
    0 0 0 0 0 0 0 0 0 0 0 0 0 0 0 0 0 0 0 0 0 0 0 0 0 0 0 0 0 0 0 0 0 0 0 0 0 0 0 0 0 0 0 0 0 0 0 0 0 0 0 0 0 0 0 0 0 0 0 0 0 0 0 0 0 0 0 0 0 61 66 66 63 65 68 69 68 70 71 70 73 76 79 77 76 78 76 71 70 68 69 68 68 69 68 69 -209 -193 -193 75 76 -193 -193 77 77 71 72 -193 72 70 69 68 70 69 70 72 -193 72 82 84 85 85 83 78 77 75 -193 70 70 -193 -193 72 71 -209 -209 72 74 -209 71 72 -193 76 74 74 76 74 77 81 79 82 71 71 71 72 71 70 70 71 71 71 -209 -193 -193 -193 557 560 -209 -193 -209 -209 -209 -209 71 69 69 68 69 70 70 69 68 67 69 69 69 70 70 71 72 73 74 74 75 75 76 74 76 74 75 80 86 89 89 90 89 90 89 87 86 79 74 73 72 72 69 79 89 88 89 89 89 88 88 89 88 88 88 88 88 88 88 88 87 89 87 87 88 89 89 89 89 88 87 87 88 86 87 88 98 95 102 109 107 107 110 109 109 109 113 112 110 117 115 114 -193 -193 -193 -193 -177 -177 108 -193 82 90 87 88 85 85 84 84 83 83 74 79 76 76 79 83 83 82 83 87 86 90 91 94 87 88 88 90 88 88 90 -209 -209 -209 -209 -209 156 -193 -209 -209 -209 -209 -209 0 0 0 0 0
    0 0 0 0 0 0 0 0 0 0 0 0 0 0 0 0 0 0 0 0 0 0 0 0 0 0 0 0 0 0 0 0 0 0 0 0 0 0 0 0 0 0 0 0 0 0 0 0 0 0 0 0 0 0 0 0 0 0 0 0 0 0 0 0 0 0 0 0 0 63 70 69 66 68 71 72 71 74 -193 -209 78 83 86 84 85 84 -193 72 70 68 69 69 69 70 69 -209 -177 -193 83 84 86 87 85 85 84 76 76 76 74 73 72 71 73 -193 73 77 77 78 85 87 88 88 87 85 84 83 82 -193 74 -193 -209 73 74 -209 -193 76 81 -193 -209 76 76 82 77 78 80 79 83 85 84 87 73 72 72 -193 -193 71 71 72 -209 -209 -209 -193 -193 -193 -193 560 -209 559 -209 -209 -193 -209 -209 -209 -193 -193 72 73 73 71 70 69 70 70 70 71 71 72 73 75 76 76 76 77 78 75 77 76 77 83 87 90 89 90 90 91 90 89 89 88 83 83 81 82 77 85 90 89 89 89 89 89 89 89 89 89 89 89 89 88 89 88 88 89 88 88 89 89 89 89 89 88 88 88 88 87 88 90 99 97 102 108 107 107 110 109 109 110 113 113 110 117 114 114 118 -193 -193 -193 -177 -177 108 -193 85 91 89 90 89 90 90 90 91 91 90 90 87 86 86 88 88 87 87 90 90 93 95 100 96 94 92 93 92 90 90 93 93 95 99 -193 -193 -209 -209 -209 -209 -209 -209 0 0 0 0 0
    0 0 0 0 0 0 0 0 0 0 0 0 0 0 0 0 0 0 0 0 0 0 0 0 0 0 0 0 0 0 0 0 0 0 0 0 0 0 0 0 0 0 0 0 0 0 0 0 0 0 0 0 0 0 0 0 0 0 0 0 0 0 0 0 0 0 0 0 0 -193 81 -193 70 71 73 75 74 78 84 84 83 86 88 87 -193 -193 -209 -209 -193 69 -193 -193 70 -209 71 -209 -193 -193 85 87 88 88 87 87 87 82 84 83 78 76 75 73 76 -193 74 83 81 83 87 89 89 90 89 87 87 87 86 -193 79 77 -193 75 77 -193 -193 83 86 -193 -193 81 82 86 81 82 84 84 86 87 86 88 75 79 75 -193 -193 73 74 -193 -193 -193 -193 -193 80 -193 -193 560 -193 -193 -209 -193 -193 -193 86 -193 -193 -193 75 78 77 76 72 72 72 72 74 74 74 75 76 77 78 78 79 78 79 76 79 78 80 85 87 91 90 90 91 92 91 91 91 91 89 90 90 91 90 90 93 91 90 91 90 89 90 89 89 89 90 90 90 89 89 88 89 90 89 89 90 90 90 90 90 89 89 90 90 88 90 93 100 98 103 108 107 108 110 109 109 110 113 113 111 117 114 114 118 -193 -193 -193 -177 -177 -193 -193 88 92 90 92 91 92 93 93 93 93 93 92 90 91 89 90 90 88 89 92 92 95 96 99 99 98 95 95 93 92 92 93 92 94 98 101 97 100 -209 -209 -209 -209 -209 0 0 0 0 0
    0 0 0 0 0 0 0 0 0 0 0 0 0 0 0 0 0 0 0 0 0 0 0 0 0 0 0 0 0 0 0 0 0 0 0 0 0 0 0 0 0 0 0 0 0 0 0 0 0 0 0 0 0 0 0 0 0 0 0 0 0 0 0 0 0 0 0 0 0 91 87 -193 -193 75 78 81 80 84 87 88 87 88 89 89 90 -193 -209 -209 -209 -209 -209 -209 -209 -209 -193 87 -193 86 87 88 89 89 89 88 88 85 87 87 82 80 78 76 80 -193 78 86 85 87 88 91 90 91 90 -193 89 88 88 87 84 83 81 78 84 86 87 87 87 -193 -193 85 86 88 85 85 86 86 88 88 87 89 80 87 84 -193 -193 78 80 79 80 -193 -193 -193 83 87 -193 -209 90 -193 89 -193 -193 -193 -193 89 82 82 78 82 80 80 76 76 75 76 80 78 80 79 80 81 81 81 81 79 81 78 81 81 83 86 88 92 91 91 92 95 93 93 93 93 91 93 93 94 92 93 96 93 92 92 91 91 91 90 90 90 91 91 91 91 90 90 92 94 91 91 92 91 91 91 91 90 91 91 91 89 91 94 99 99 103 108 107 108 110 110 110 110 113 113 110 117 114 114 117 117 -193 -193 -177 -193 107 117 88 92 91 92 91 92 93 93 93 94 93 92 91 92 91 91 91 90 91 94 94 95 96 98 99 98 95 94 92 92 92 94 94 95 99 101 99 101 -209 -209 -209 -209 -209 0 0 0 0 0
    0 0 0 0 0 0 0 0 0 0 0 0 0 0 0 0 0 0 0 0 0 0 0 0 0 0 0 0 0 0 0 0 0 0 0 0 0 0 0 0 0 0 0 0 0 0 0 0 0 0 0 0 0 0 0 0 0 0 0 0 0 0 0 0 0 0 0 0 0 92 89 91 88 86 86 86 87 87 89 90 89 89 89 89 90 91 92 -193 91 92 -209 -209 -209 91 93 90 93 88 89 89 90 89 89 89 89 85 88 88 84 83 82 82 85 86 86 89 -193 88 89 93 91 92 91 89 89 89 89 89 87 86 85 83 87 88 89 88 89 -193 -193 87 87 89 87 87 88 88 89 89 89 90 85 88 87 88 -193 83 84 83 84 85 86 86 85 88 87 -193 90 90 90 -193 -193 90 89 90 87 86 83 85 83 83 82 83 81 83 87 85 85 85 -193 84 83 84 83 80 83 80 83 83 85 88 88 93 91 92 92 96 93 94 94 94 92 95 95 95 92 95 97 95 94 93 92 92 93 91 92 92 93 94 95 95 93 94 99 98 96 94 95 92 91 92 92 91 91 91 91 90 92 94 100 98 102 108 107 107 110 110 109 110 113 113 110 116 114 113 117 117 -193 -193 -177 -193 107 118 88 92 92 93 91 92 93 93 94 94 94 93 92 93 92 93 93 92 93 95 95 95 97 98 99 98 96 96 94 95 96 97 98 98 100 101 99 101 105 -209 -209 -209 -209 0 0 0 0 0
    0 0 0 0 0 0 0 0 0 0 0 0 0 0 0 0 0 0 0 0 0 0 0 0 0 0 0 0 0 0 0 0 0 0 0 0 0 0 0 0 0 0 0 0 0 0 0 0 0 0 0 0 0 0 0 0 0 0 0 0 0 0 0 0 0 0 0 0 0 93 91 93 90 90 89 89 89 89 90 91 90 90 90 90 91 91 92 91 92 93 98 95 101 97 97 92 96 90 90 89 90 90 89 89 89 -193 89 89 87 86 86 86 88 90 89 91 -193 89 89 95 91 93 91 90 90 90 90 90 88 88 86 86 88 90 90 89 90 89 89 89 89 91 88 89 89 89 90 90 90 90 87 89 89 89 87 85 86 85 86 86 87 87 86 88 88 -193 90 90 90 -193 90 90 90 91 89 89 86 86 85 85 85 86 86 87 90 88 -193 87 -193 -193 -193 86 86 83 85 83 85 85 87 89 89 94 91 91 92 96 93 93 94 94 92 96 96 96 93 96 97 96 95 95 93 94 94 92 94 95 95 96 98 98 96 98 101 99 97 95 95 92 91 93 92 91 92 91 92 91 94 96 101 99 102 108 107 107 110 110 109 110 113 113 111 116 114 113 117 -193 -193 -193 -177 -193 108 121 -193 90 92 94 92 93 93 93 94 95 95 94 94 94 94 94 95 93 94 96 95 94 97 97 100 99 99 99 98 98 100 100 100 99 102 101 99 101 105 -209 -209 -209 -209 0 0 0 0 0
    0 0 0 0 0 0 0 0 0 0 0 0 0 0 0 0 0 0 0 0 0 0 0 0 0 0 0 0 0 0 0 0 0 0 0 0 0 0 0 0 0 0 0 0 0 0 0 0 0 0 0 0 0 0 0 0 0 0 0 0 0 0 0 0 0 0 0 0 0 95 93 95 92 92 90 90 90 90 91 91 91 91 90 90 91 91 92 91 93 93 99 98 102 100 99 95 97 91 91 90 91 90 90 89 90 -193 90 91 89 89 88 88 89 91 90 91 91 90 91 96 92 94 92 92 91 91 91 91 89 89 87 87 89 90 90 90 90 89 89 89 89 91 88 89 90 90 91 91 91 91 89 91 91 92 90 87 88 87 87 88 88 87 86 89 88 -193 90 91 90 90 91 91 90 92 90 91 89 88 87 87 87 88 87 88 91 89 89 88 -193 -193 87 87 88 85 87 85 87 88 89 90 89 94 91 92 92 97 94 93 94 95 93 96 97 97 93 97 98 97 97 97 94 95 96 94 96 98 98 99 100 99 98 99 101 99 97 96 95 92 91 93 93 92 93 92 93 93 95 98 102 101 103 108 107 108 110 110 110 110 112 113 111 116 114 113 117 -193 -193 -193 -177 -193 109 121 -209 89 93 95 94 94 95 94 95 97 96 96 95 95 96 95 96 95 95 97 94 93 95 96 99 99 100 99 99 99 101 100 101 100 102 100 99 101 105 -209 -209 -209 -209 0 0 0 0 0
    0 0 0 0 0 0 0 0 0 0 0 0 0 0 0 0 0 0 0 0 0 0 0 0 0 0 0 0 0 0 0 0 0 0 0 0 0 0 0 0 0 0 0 0 0 0 0 0 0 0 0 0 0 0 0 0 0 0 0 0 0 0 0 0 0 0 0 0 0 96 95 96 93 93 92 91 91 91 92 92 92 92 91 91 91 92 93 92 93 93 99 97 102 100 100 96 98 93 92 92 92 91 91 91 91 90 92 93 91 91 90 89 91 92 91 93 92 91 93 98 94 96 94 93 93 92 93 92 90 90 88 88 90 91 91 90 90 89 89 89 89 91 88 89 90 91 93 92 92 93 91 94 94 94 92 89 91 90 89 89 88 88 86 90 -193 -193 90 92 91 92 93 93 91 94 93 94 92 92 92 90 89 91 90 89 92 90 90 89 89 88 88 88 90 88 89 88 90 91 90 92 91 94 92 92 93 97 94 94 95 95 94 97 97 97 94 98 99 99 99 99 97 100 99 97 99 100 100 100 101 100 99 99 102 100 98 98 96 92 91 94 94 93 95 93 94 94 97 99 102 102 104 109 108 108 111 110 110 110 112 113 111 116 114 113 116 -193 -193 -193 -177 -193 109 121 -209 90 93 96 95 95 95 94 95 97 96 96 97 96 97 96 97 97 97 99 96 93 97 97 101 100 101 100 100 100 102 101 101 100 102 101 100 100 105 -209 -209 -177 -209 0 0 0 0 0
    0 0 0 0 0 0 0 0 0 0 0 0 0 0 0 0 0 0 0 0 0 0 0 0 0 0 0 0 0 0 0 0 0 0 0 0 0 0 0 0 0 0 0 0 0 0 0 0 0 0 0 0 0 0 0 0 0 0 0 0 0 0 0 0 0 0 0 0 0 97 96 97 94 94 93 92 92 91 92 93 93 93 93 93 93 95 95 94 95 95 100 100 104 102 101 98 99 95 94 94 93 93 93 92 93 92 94 96 94 95 93 92 93 95 93 96 95 93 96 99 96 98 95 95 94 93 94 93 91 91 88 88 90 91 91 90 90 89 89 89 89 92 89 90 92 92 94 94 94 95 93 97 96 96 94 91 93 92 90 91 89 88 86 90 -193 -193 91 93 93 93 94 94 93 95 94 96 95 94 94 92 92 94 92 90 92 90 90 89 90 90 89 90 92 90 91 90 92 92 92 93 93 95 93 93 94 97 94 94 94 95 94 98 98 98 95 99 99 99 100 99 101 102 102 100 102 102 101 102 101 101 100 100 102 101 100 100 99 96 96 99 100 98 100 97 97 97 99 101 103 103 104 110 108 109 111 111 110 111 112 113 111 116 114 113 116 -193 -193 -193 -177 117 108 121 -209 91 94 97 95 96 96 95 96 97 97 97 98 97 99 98 99 100 101 102 99 95 100 100 103 102 102 101 102 102 103 103 103 102 104 102 101 101 106 -209 -209 -209 -209 0 0 0 0 0
    0 0 0 0 0 0 0 0 0 0 0 0 0 0 0 0 0 0 0 0 0 0 0 0 0 0 0 0 0 0 0 0 0 0 0 0 0 0 0 0 0 0 0 0 0 0 0 0 0 0 0 0 0 0 0 0 0 0 0 0 0 0 0 0 0 0 0 0 0 98 97 98 97 96 95 94 94 93 95 97 97 97 97 98 97 100 99 97 97 98 -209 112 109 104 102 100 101 96 95 96 95 94 94 94 95 94 97 98 96 99 96 94 96 98 96 99 98 96 99 99 97 99 96 96 95 94 95 93 91 91 88 88 90 91 91 90 90 89 89 89 89 93 90 92 94 93 96 95 95 96 94 99 97 97 95 92 94 93 91 92 89 88 86 91 -193 -193 93 95 94 95 97 96 94 96 96 97 96 95 95 93 93 95 93 91 93 91 91 90 90 91 90 91 94 92 92 92 93 94 93 95 94 95 93 94 95 98 95 94 95 95 95 98 98 98 95 99 100 99 100 99 102 103 103 102 103 103 103 103 103 101 101 101 102 102 101 102 101 100 101 103 103 102 103 100 100 100 101 103 104 104 104 111 108 109 112 111 110 111 112 113 111 116 114 113 116 -193 -193 -193 -177 117 108 121 -209 92 95 98 96 97 96 96 97 99 97 98 100 99 101 101 102 101 102 104 101 97 103 102 104 103 104 102 103 104 105 104 104 104 105 103 103 102 107 -193 -209 -209 -209 0 0 0 0 0
    0 0 0 0 0 0 0 0 0 0 0 0 0 0 0 0 0 0 0 0 0 0 0 0 0 0 0 0 0 0 0 0 0 0 0 0 0 0 0 0 0 0 0 0 0 0 0 0 0 0 0 0 0 0 0 0 0 0 0 0 0 0 0 0 0 0 0 0 0 98 98 99 99 99 98 98 98 97 98 101 100 100 99 100 98 100 99 96 96 98 -209 -209 110 -193 102 100 101 97 97 97 96 96 96 96 97 97 99 100 99 100 97 96 98 99 97 100 99 97 101 100 99 100 98 98 97 96 97 94 92 92 88 88 90 91 91 90 90 90 90 90 91 94 91 94 96 96 98 97 96 98 96 100 97 98 97 93 95 95 93 94 89 89 86 -193 -193 -193 94 97 96 96 98 98 96 97 96 98 97 96 97 94 95 96 94 92 94 92 92 90 91 91 91 92 97 93 94 93 95 95 95 97 95 96 94 94 96 98 95 95 95 96 96 98 98 98 95 99 100 100 100 99 104 105 105 104 105 104 104 104 104 102 102 103 103 103 103 104 104 103 105 105 104 104 104 102 101 102 102 104 104 104 105 112 109 109 112 111 110 111 112 113 111 116 114 113 117 -177 -193 -193 -193 117 108 121 -209 93 94 98 96 97 97 97 98 100 99 100 101 102 103 103 103 103 103 104 103 100 103 103 105 104 105 104 104 104 105 104 104 104 105 103 104 102 107 -193 148 -209 -209 0 0 0 0 0
    0 0 0 0 0 0 0 0 0 0 0 0 0 0 0 0 0 0 0 0 0 0 0 0 0 0 0 0 0 0 0 0 0 0 0 0 0 0 0 0 0 0 0 0 0 0 0 0 0 0 0 0 0 0 0 0 0 0 0 0 0 0 0 0 0 0 0 0 0 99 99 99 100 100 99 99 100 99 100 102 102 101 100 101 98 100 96 94 95 95 -209 -209 104 -193 102 101 101 99 99 99 98 98 98 98 99 99 100 101 100 101 98 98 99 100 98 100 100 98 101 100 99 100 99 99 98 98 99 95 96 96 -193 90 91 91 91 90 91 91 92 92 92 96 93 97 99 98 100 98 98 99 98 101 98 98 98 95 97 97 95 96 90 90 86 96 -209 100 96 100 99 98 100 99 98 98 98 99 97 97 98 94 96 96 95 93 95 93 93 92 92 93 92 94 99 95 96 95 96 96 96 98 96 96 95 95 96 98 96 95 95 95 97 97 98 98 96 99 101 100 101 100 105 106 106 106 107 105 106 106 105 102 103 103 104 104 104 105 104 104 106 106 105 105 105 105 103 104 104 105 105 105 105 112 108 109 111 110 110 110 112 112 110 116 114 113 -193 -193 -193 -193 -193 117 109 121 -209 97 94 99 96 97 96 97 99 100 99 101 102 103 104 105 104 103 104 105 104 101 104 105 105 105 105 105 104 104 105 104 104 104 105 103 104 103 108 -193 149 -209 -209 0 0 0 0 0
    0 0 0 0 0 0 0 0 0 0 0 0 0 0 0 0 0 0 0 0 0 0 0 0 0 0 0 0 0 0 0 0 0 0 0 0 0 0 0 0 0 0 0 0 0 0 0 0 0 0 0 0 0 0 0 0 0 0 0 0 0 0 0 0 0 0 0 0 0 100 99 100 100 100 100 100 101 100 102 104 104 102 101 102 99 99 95 94 96 94 -193 98 103 103 101 102 102 100 100 101 100 100 100 100 101 101 102 102 101 102 98 98 100 101 98 101 100 99 102 100 100 101 100 100 99 99 100 96 101 104 90 97 92 91 93 92 92 93 93 93 94 98 96 99 100 99 101 99 99 100 99 101 99 99 99 96 98 99 96 97 91 92 86 105 120 -193 99 101 100 99 101 100 99 99 98 99 98 97 98 94 96 96 96 94 95 94 95 94 94 95 94 95 100 97 97 96 97 97 97 98 97 96 95 95 96 97 95 94 94 95 98 97 98 97 96 99 101 101 101 100 106 106 107 107 107 107 107 107 107 104 104 105 105 105 104 106 105 106 107 107 107 107 107 107 106 106 106 107 107 106 106 111 108 109 111 110 110 110 113 112 111 116 114 114 117 -193 -193 -193 -193 117 110 120 119 105 97 101 99 99 98 99 100 101 100 103 104 105 106 106 106 104 105 106 105 102 104 105 105 106 106 105 105 105 105 105 103 104 104 103 104 103 109 123 -193 -209 -193 0 0 0 0 0
    0 0 0 0 0 0 0 0 0 0 0 0 0 0 0 0 0 0 0 0 0 0 0 0 0 0 0 0 0 0 0 0 0 0 0 0 0 0 0 0 0 0 0 0 0 0 0 0 0 0 0 0 0 0 0 0 0 0 0 0 0 0 0 0 0 0 0 0 0 99 100 100 100 100 100 101 103 101 103 105 105 104 104 104 103 102 98 96 99 97 -193 100 103 103 102 102 102 101 102 102 101 102 101 102 102 103 103 103 102 102 98 99 100 101 98 101 101 99 102 100 100 101 100 101 100 100 101 98 104 105 92 -193 96 95 98 96 94 95 96 96 96 99 97 100 101 100 101 100 100 100 100 102 99 99 99 97 98 99 97 98 91 94 -177 105 119 -193 100 102 101 100 101 100 99 99 98 99 98 97 98 94 97 96 96 95 96 94 95 94 96 96 95 97 100 98 98 97 98 98 98 99 98 96 96 95 97 97 95 94 94 94 99 97 98 97 96 100 101 101 101 100 106 107 107 107 108 107 108 108 108 105 106 107 107 107 106 108 108 108 109 109 109 109 108 109 108 108 108 108 108 107 108 111 109 109 111 110 110 110 113 112 111 117 114 114 117 117 117 116 118 118 112 120 120 106 100 103 101 100 99 100 101 102 101 103 104 107 107 108 108 107 107 109 108 106 107 108 107 109 107 107 107 106 107 106 104 105 -193 -193 106 105 112 121 -209 -177 -177 0 0 0 0 0
    0 0 0 0 0 0 0 0 0 0 0 0 0 0 0 0 0 0 0 0 0 0 0 0 0 0 0 0 0 0 0 0 0 0 0 0 0 0 0 0 0 0 0 0 0 0 0 0 0 0 0 0 0 0 0 0 0 0 0 0 0 0 0 0 0 0 0 0 0 99 99 100 100 100 100 101 103 -193 105 106 106 105 106 106 -193 104 -193 99 101 99 -209 -193 -193 -209 102 103 103 102 102 103 102 102 102 103 103 103 103 103 102 102 98 98 99 100 98 101 101 99 102 100 100 101 101 101 100 101 102 98 104 105 92 -209 -209 -209 101 99 96 98 98 98 98 100 98 101 102 100 101 100 100 101 100 102 99 99 99 97 98 99 97 98 92 94 88 -193 117 -209 101 103 101 100 101 100 100 99 99 100 98 98 99 95 98 97 97 96 96 95 96 95 97 97 95 97 100 99 99 98 98 98 98 100 99 96 97 96 98 98 97 95 95 95 101 97 98 97 97 100 101 101 101 100 106 107 107 107 108 107 108 109 109 106 108 109 109 108 108 110 110 110 110 111 110 110 110 111 109 109 109 109 109 109 109 112 109 110 112 111 111 111 113 111 111 117 114 114 117 117 117 115 118 117 112 119 118 108 105 106 102 101 101 101 101 102 101 103 -193 108 109 110 111 110 111 112 113 110 110 111 110 111 108 108 108 108 108 107 105 107 -193 110 109 109 114 -209 -209 -209 -209 0 0 0 0 0
    0 0 0 0 0 0 0 0 0 0 0 0 0 0 0 0 0 0 0 0 0 0 0 0 0 0 0 0 0 0 0 0 0 0 0 0 0 0 0 0 0 0 0 0 0 0 0 0 0 0 0 0 0 0 0 0 0 0 0 0 0 0 0 0 0 0 0 0 0 99 99 99 100 100 100 101 104 103 105 106 106 105 105 105 -209 103 101 100 101 -193 -193 -209 -209 -193 102 103 103 102 102 103 102 103 102 103 103 103 103 103 102 102 97 98 99 100 97 100 100 99 102 99 100 101 100 101 100 100 101 97 104 105 93 -209 -209 -209 102 100 97 98 98 97 98 99 97 101 102 100 101 100 100 101 100 102 99 99 99 97 98 99 97 98 92 95 91 -193 113 -193 101 102 101 100 102 100 99 99 99 100 98 98 99 95 98 97 97 96 97 96 97 97 99 98 96 98 100 99 99 98 98 98 99 100 99 97 97 97 99 99 97 95 95 95 101 97 98 97 97 101 102 102 102 100 106 107 107 107 108 107 109 109 109 107 109 110 110 109 109 111 112 112 111 111 111 111 111 112 110 110 109 110 109 109 110 111 109 110 112 111 111 111 113 111 111 117 114 114 117 117 117 115 117 117 111 117 116 109 108 109 105 104 103 102 103 102 100 -193 -209 110 110 112 113 113 113 113 114 111 111 112 110 111 108 109 109 109 109 108 107 108 108 113 111 112 115 -193 -177 -209 -209 0 0 0 0 0
    0 0 0 0 0 0 0 0 0 0 0 0 0 0 0 0 0 0 0 0 0 0 0 0 0 0 0 0 0 0 0 0 0 0 0 0 0 0 0 0 0 0 0 0 0 0 0 0 0 0 0 0 0 0 0 0 0 0 0 0 0 0 0 0 0 0 0 0 0 99 99 99 100 100 100 102 104 -193 105 107 106 106 105 104 -209 104 102 101 102 -193 -209 -209 -209 -193 102 103 103 102 102 -193 102 103 102 103 103 104 104 103 103 102 97 99 99 100 97 100 100 99 102 100 100 101 100 101 100 100 101 97 103 104 100 105 106 105 104 100 99 99 98 97 98 99 97 100 101 100 101 100 100 101 100 102 99 99 99 97 99 99 97 99 93 97 94 105 111 104 102 103 102 101 102 100 100 99 99 100 99 98 100 95 98 97 98 97 98 97 98 97 99 98 97 99 100 99 99 99 99 99 99 100 99 98 98 98 100 100 98 96 97 98 102 98 98 97 98 101 102 101 101 100 106 106 106 107 108 107 109 110 110 109 111 111 110 111 111 112 113 112 110 111 111 111 111 113 111 110 110 110 110 109 111 111 109 109 112 111 111 111 114 111 112 118 116 116 118 117 117 116 118 117 112 116 115 110 110 111 108 108 108 105 108 106 104 106 -209 113 114 114 114 114 114 112 113 111 110 111 109 110 108 109 109 110 109 108 108 110 110 114 112 113 115 -193 -177 -209 -209 0 0 0 0 0
    0 0 0 0 0 0 0 0 0 0 0 0 0 0 0 0 0 0 0 0 0 0 0 0 0 0 0 0 0 0 0 0 0 0 0 0 0 0 0 0 0 0 0 0 0 0 0 0 0 0 0 0 0 0 0 0 0 0 0 0 0 0 0 0 0 0 0 0 0 99 99 99 100 100 101 102 105 -193 105 107 106 106 105 104 104 104 102 102 102 -193 -209 -209 -209 -193 102 103 -193 102 103 -193 102 103 103 104 104 105 105 104 103 103 98 100 101 101 98 101 101 100 103 101 101 101 101 101 100 100 101 97 103 -193 101 105 106 105 105 101 99 100 98 97 98 99 97 100 101 100 101 100 101 101 100 102 100 100 100 99 100 100 99 100 95 100 99 105 110 106 103 104 102 101 102 101 101 100 101 101 101 100 102 98 101 100 100 98 99 97 99 98 100 99 97 100 101 100 100 99 100 99 100 101 100 99 99 101 102 103 101 101 103 104 104 100 99 99 99 102 102 102 101 100 106 106 106 107 108 107 110 110 110 109 112 112 111 113 113 113 115 114 111 112 111 110 111 113 111 111 111 111 110 110 112 110 109 110 112 111 111 111 114 111 113 118 116 116 118 117 117 116 117 116 112 116 114 110 110 111 109 108 109 106 109 107 105 108 -209 113 115 115 115 115 114 113 114 110 110 111 109 111 109 110 110 111 110 109 109 113 112 115 112 113 116 119 -209 -209 -209 0 0 0 0 0
    0 0 0 0 0 0 0 0 0 0 0 0 0 0 0 0 0 0 0 0 0 0 0 0 0 0 0 0 0 0 0 0 0 0 0 0 0 0 0 0 0 0 0 0 0 0 0 0 0 0 0 0 0 0 0 0 0 0 0 0 0 0 0 0 0 0 0 0 0 99 100 100 100 100 100 102 105 105 106 108 107 106 105 104 104 104 102 102 102 101 -193 -193 -209 -193 102 103 -193 -193 -193 -193 103 104 103 104 104 105 105 105 104 103 99 102 103 101 99 102 -193 102 104 102 102 102 102 102 101 101 101 97 103 -193 103 106 108 107 107 103 101 102 100 99 100 100 98 101 102 101 102 101 102 102 102 104 102 102 102 101 102 101 100 101 97 100 101 104 107 104 103 105 103 102 103 102 102 101 103 -193 103 -209 -209 -209 -209 103 104 100 100 99 100 100 101 100 99 101 102 101 101 101 101 101 102 102 101 101 102 104 106 106 105 105 106 108 106 102 101 100 100 102 103 102 102 101 106 107 107 109 109 108 111 111 111 110 112 113 112 114 114 115 117 116 113 114 112 111 112 113 112 111 111 111 111 111 113 110 109 110 112 111 113 112 114 111 115 118 116 117 118 117 118 117 118 117 113 116 115 112 112 113 112 111 112 110 115 111 111 111 -193 -209 112 112 113 111 112 111 115 111 111 112 110 113 111 114 112 111 110 109 109 114 113 115 113 114 116 120 -209 -209 -209 0 0 0 0 0
    0 0 0 0 0 0 0 0 0 0 0 0 0 0 0 0 0 0 0 0 0 0 0 0 0 0 0 0 0 0 0 0 0 0 0 0 0 0 0 0 0 0 0 0 0 0 0 0 0 0 0 0 0 0 0 0 0 0 0 0 0 0 0 0 0 0 0 0 0 99 100 100 100 101 101 102 105 105 107 110 108 108 107 106 106 106 105 105 105 104 105 106 105 106 104 105 -193 -193 -193 -193 -193 104 104 105 105 105 106 105 105 -193 -193 105 106 -193 -193 -193 -193 -193 107 103 103 103 103 103 102 102 102 98 103 -193 104 108 109 110 109 106 105 -193 103 102 101 101 98 101 102 101 103 102 103 104 104 105 104 104 104 103 103 102 101 102 98 102 103 105 107 105 105 107 104 -193 104 103 103 103 105 106 105 106 107 -193 108 106 106 101 101 100 102 102 102 102 101 102 103 103 103 102 103 103 104 104 104 104 105 107 109 108 107 108 110 111 109 105 102 102 102 103 103 103 102 102 107 107 107 109 109 109 111 111 111 110 112 113 112 115 116 116 119 118 116 116 114 112 114 114 112 111 111 111 111 112 114 111 110 112 113 113 115 114 115 113 117 119 118 118 119 118 118 118 119 117 114 116 116 113 113 115 114 114 115 114 118 115 117 117 -193 -209 120 114 112 108 111 111 115 112 114 115 113 116 115 117 114 113 110 108 110 114 114 116 113 115 117 120 -209 555 -193 0 0 0 0 0
    0 0 0 0 0 0 0 0 0 0 0 0 0 0 0 0 0 0 0 0 0 0 0 0 0 0 0 0 0 0 0 0 0 0 0 0 0 0 0 0 0 0 0 0 0 0 0 0 0 0 0 0 0 0 0 0 0 0 0 0 0 0 0 0 0 0 0 0 0 100 101 101 101 101 102 103 106 107 109 112 111 110 109 109 108 108 107 106 109 106 108 109 108 108 106 107 -193 -193 -193 -193 -193 105 105 106 106 106 106 105 106 -193 -177 -193 110 -193 -193 -209 -193 -193 109 105 105 104 104 104 103 103 102 100 104 103 105 110 109 110 110 108 108 107 106 104 104 103 99 102 103 102 104 104 105 106 106 108 106 106 107 105 105 103 103 103 100 103 105 106 107 107 107 109 106 -193 105 104 105 104 107 108 107 108 109 108 110 109 108 103 103 102 103 104 104 104 103 104 105 105 105 104 105 105 106 107 107 107 109 110 112 111 110 111 113 114 112 107 104 104 104 104 104 103 103 103 107 107 107 110 109 109 111 111 111 110 113 114 112 116 117 118 120 119 118 118 116 114 115 115 114 112 112 112 111 112 114 112 112 114 115 115 117 116 117 115 118 120 118 119 119 118 118 118 119 117 115 116 116 114 114 115 115 116 117 117 120 119 121 121 122 124 123 -209 -209 106 114 111 115 113 115 117 116 117 116 118 116 115 112 110 111 115 115 117 114 115 117 120 -209 556 -193 0 0 0 0 0
    0 0 0 0 0 0 0 0 0 0 0 0 0 0 0 0 0 0 0 0 0 0 0 0 0 0 0 0 0 0 0 0 0 0 0 0 0 0 0 0 0 0 0 0 0 0 0 0 0 0 0 0 0 0 0 0 0 0 0 0 0 0 0 0 0 0 0 0 0 103 103 104 103 104 104 105 109 109 112 114 112 112 111 111 111 110 110 109 114 110 113 112 111 111 110 109 110 -193 108 108 107 107 107 107 108 107 108 106 107 -193 -193 108 112 113 -193 117 112 112 112 108 107 107 106 105 105 105 103 102 105 103 106 111 109 110 111 109 110 110 108 108 107 107 103 103 105 103 106 106 108 108 108 110 108 107 109 106 107 105 104 105 103 105 106 107 108 109 109 111 108 106 107 105 106 106 109 110 109 110 111 110 112 111 110 105 104 103 105 106 106 106 105 106 106 106 107 106 106 107 108 109 109 109 112 113 114 113 113 113 114 115 113 110 106 106 106 106 105 104 104 104 108 108 107 111 110 110 111 111 111 110 113 114 113 116 118 119 121 120 119 119 116 115 116 115 114 113 113 113 112 114 115 114 114 116 117 117 118 117 117 116 119 120 119 119 120 119 119 119 120 117 116 116 116 115 115 116 115 117 118 119 121 121 122 123 124 125 125 126 -209 -209 -209 106 115 113 116 117 116 117 117 119 117 116 115 114 114 117 116 117 114 116 117 120 -209 -193 -193 0 0 0 0 0
    0 0 0 0 0 0 0 0 0 0 0 0 0 0 0 0 0 0 0 0 0 0 0 0 0 0 0 0 0 0 0 0 0 0 0 0 0 0 0 0 0 0 0 0 0 0 0 0 0 0 0 0 0 0 0 0 0 0 0 0 0 0 0 0 0 0 0 0 0 107 107 108 106 107 108 108 113 112 115 115 114 114 114 114 113 112 113 112 116 114 116 114 114 114 114 113 113 109 112 111 110 109 111 109 110 109 109 108 108 -193 -193 109 113 114 115 118 114 115 114 110 110 109 108 108 107 107 105 104 106 105 108 112 110 111 112 110 112 113 112 112 111 113 109 108 109 105 109 108 111 111 110 112 110 110 111 108 110 107 106 107 105 107 108 109 110 111 111 113 111 110 109 108 108 109 113 114 112 112 113 113 114 113 112 107 107 106 107 108 108 108 107 108 109 109 110 107 108 109 110 112 112 112 115 115 115 115 115 115 115 115 114 111 108 109 108 108 107 106 106 106 109 109 108 112 110 110 111 111 112 111 114 114 112 115 118 119 120 120 119 119 116 115 117 116 114 114 115 115 115 116 117 116 116 118 118 118 118 117 118 118 120 121 120 120 120 120 120 120 120 117 116 117 117 116 116 116 116 118 119 120 122 121 123 123 124 125 125 128 -209 -193 -209 -193 116 114 115 117 115 116 116 118 117 116 114 115 113 116 116 117 115 116 117 121 -209 -193 -193 0 0 0 0 0
    0 0 0 0 0 0 0 0 0 0 0 0 0 0 0 0 0 0 0 0 0 0 0 0 0 0 0 0 0 0 0 0 0 0 0 0 0 0 0 0 0 0 0 0 0 0 0 0 0 0 0 0 0 0 0 0 0 0 0 0 0 0 0 0 0 0 0 0 0 111 110 111 110 110 112 111 115 115 117 116 115 116 117 116 115 114 115 114 117 115 116 115 115 116 116 115 116 113 115 115 115 114 115 112 113 111 111 111 109 -193 -193 110 114 114 116 118 115 116 116 113 113 112 110 110 109 110 107 106 108 107 109 113 111 113 113 112 115 116 115 116 115 116 114 114 113 107 112 110 113 113 112 114 112 112 114 110 112 109 109 109 107 109 110 110 111 111 112 114 113 113 112 111 112 114 117 117 115 115 115 115 116 115 114 109 108 108 110 111 112 112 110 112 114 113 115 112 112 112 113 115 114 114 116 115 115 115 115 115 116 116 114 112 110 112 111 111 110 108 107 108 111 110 109 114 111 111 112 111 112 111 114 115 113 116 118 119 120 120 119 120 118 118 119 117 116 117 117 118 117 118 117 117 117 118 118 118 118 118 118 118 120 121 121 121 121 121 121 122 121 118 118 117 118 117 117 117 116 119 120 120 122 121 122 122 123 123 123 123 -209 -193 111 105 -193 117 117 119 118 118 118 119 118 116 115 116 114 117 117 117 115 116 117 122 -177 -193 -177 0 0 0 0 0
    0 0 0 0 0 0 0 0 0 0 0 0 0 0 0 0 0 0 0 0 0 0 0 0 0 0 0 0 0 0 0 0 0 0 0 0 0 0 0 0 0 0 0 0 0 0 0 0 0 0 0 0 0 0 0 0 0 0 0 0 0 0 0 0 0 0 0 0 0 114 113 114 114 113 115 114 116 116 117 117 116 116 118 117 116 116 116 115 118 116 117 115 115 116 117 116 117 115 117 117 117 117 117 114 115 113 112 112 111 -193 -193 111 114 115 -193 118 115 117 117 115 115 115 113 113 111 113 109 108 110 109 111 113 111 113 113 113 116 117 116 117 116 117 116 117 116 109 114 111 115 114 114 115 114 113 115 112 114 111 111 111 109 111 111 112 112 113 113 115 115 115 114 114 114 116 118 118 116 116 115 116 116 115 114 109 109 108 111 112 114 114 113 115 116 117 117 116 115 115 116 116 115 115 116 116 115 116 115 115 116 116 115 113 112 114 113 113 112 110 110 110 113 111 110 114 113 111 112 112 112 111 115 116 114 117 120 121 121 121 121 122 121 122 123 120 118 120 120 121 119 120 119 119 119 120 120 119 119 118 118 119 121 121 121 121 121 121 122 122 122 118 120 119 119 118 118 118 118 120 121 121 122 122 123 123 123 123 123 123 121 109 117 115 122 120 120 122 120 120 120 121 119 117 116 117 114 116 117 117 115 116 118 124 -177 -177 -177 0 0 0 0 0
    0 0 0 0 0 0 0 0 0 0 0 0 0 0 0 0 0 0 0 0 0 0 0 0 0 0 0 0 0 0 0 0 0 0 0 0 0 0 0 0 0 0 0 0 0 0 0 0 0 0 0 0 0 0 0 0 0 0 0 0 0 0 0 0 0 0 0 0 0 115 114 116 116 115 116 116 116 116 117 117 116 117 118 117 117 116 117 116 118 116 117 115 115 116 117 116 117 116 118 117 117 117 118 114 116 113 113 114 113 111 114 112 115 -193 -193 118 115 117 117 116 117 116 115 115 114 115 111 111 113 110 111 113 111 112 112 112 115 116 115 117 115 116 115 117 117 111 116 113 116 115 115 116 114 114 115 112 114 111 111 112 110 112 112 113 113 114 113 116 115 116 115 115 114 116 118 117 116 115 114 115 115 114 114 109 109 108 110 112 113 112 113 115 117 118 118 117 116 117 117 116 116 115 116 115 115 115 115 115 115 115 115 112 113 115 114 115 114 113 114 114 116 114 112 115 114 112 113 112 113 112 116 117 116 117 121 121 121 122 122 122 122 126 129 125 123 125 126 126 123 123 122 122 122 122 122 120 120 119 119 119 121 120 120 120 121 121 122 123 122 118 122 122 122 122 121 122 121 123 123 122 123 123 124 124 124 124 124 125 125 123 123 124 125 125 124 124 123 122 122 122 121 119 119 119 116 118 119 119 117 118 119 128 -177 -177 -177 0 0 0 0 0
    0 0 0 0 0 0 0 0 0 0 0 0 0 0 0 0 0 0 0 0 0 0 0 0 0 0 0 0 0 0 0 0 0 0 0 0 0 0 0 0 0 0 0 0 0 0 0 0 0 0 0 0 0 0 0 0 0 0 0 0 0 0 0 0 0 0 0 0 0 115 114 117 117 116 117 117 117 116 117 117 116 116 118 117 117 117 117 116 118 116 117 115 115 116 117 116 117 116 118 117 117 117 118 115 116 114 114 115 114 112 114 112 115 -193 -193 118 115 118 117 116 117 117 116 116 115 116 112 112 114 111 112 113 111 112 112 112 115 116 114 116 114 115 114 116 117 113 117 114 116 115 115 116 115 114 115 112 114 111 111 112 110 112 113 113 113 114 114 116 116 116 116 116 115 116 118 117 116 115 114 114 114 114 114 109 109 108 110 112 113 113 114 115 117 118 118 117 117 117 117 117 116 115 116 115 115 115 115 114 115 115 114 111 113 115 114 115 114 113 114 115 116 114 112 116 115 113 113 113 113 113 117 117 117 118 121 122 121 122 122 123 123 130 131 129 128 130 130 131 127 128 124 126 125 124 124 123 121 120 120 120 122 122 122 122 123 124 125 126 126 123 126 126 125 125 124 124 124 126 124 124 125 125 125 126 125 126 126 127 127 126 126 126 126 127 126 125 126 124 123 123 123 121 -193 -193 118 119 120 121 119 121 120 130 246 -177 -177 0 0 0 0 0
    0 0 0 0 0 0 0 0 0 0 0 0 0 0 0 0 0 0 0 0 0 0 0 0 0 0 0 0 0 0 0 0 0 0 0 0 0 0 0 0 0 0 0 0 0 0 0 0 0 0 0 0 0 0 0 0 0 0 0 0 0 0 0 0 0 0 0 0 0 115 114 117 117 117 117 117 117 116 117 117 116 116 118 117 117 117 117 117 118 117 117 116 116 116 117 117 118 116 118 117 117 117 118 115 117 114 115 115 115 112 115 113 -193 -193 -193 118 115 118 118 116 117 117 116 116 115 116 112 112 114 111 111 113 111 112 112 112 114 115 113 115 113 114 114 116 116 114 116 115 116 115 115 116 115 114 115 112 114 112 112 113 111 113 113 113 113 114 114 117 116 117 117 116 115 117 118 117 115 114 114 114 114 114 114 110 109 109 111 112 114 114 115 116 117 118 118 117 117 117 118 117 116 116 116 115 115 115 115 114 115 114 114 110 113 115 114 114 114 113 114 115 116 114 112 116 116 113 114 113 114 114 117 118 117 118 121 122 121 122 122 123 124 132 131 131 131 132 132 132 129 130 125 129 127 125 125 124 122 122 121 121 122 122 122 123 124 126 127 127 127 124 127 128 125 126 125 126 127 129 126 125 126 127 127 128 126 127 126 128 129 127 127 128 128 129 128 127 128 125 125 125 124 122 123 122 121 121 122 122 121 122 123 131 -177 -177 -177 0 0 0 0 0
    0 0 0 0 0 0 0 0 0 0 0 0 0 0 0 0 0 0 0 0 0 0 0 0 0 0 0 0 0 0 0 0 0 0 0 0 0 0 0 0 0 0 0 0 0 0 0 0 0 0 0 0 0 0 0 0 0 0 0 0 0 0 0 0 0 0 0 0 0 115 115 117 117 117 117 117 116 116 117 116 115 116 118 117 117 118 118 118 119 117 118 117 117 117 118 117 118 117 118 117 117 117 118 115 117 115 115 116 116 114 115 114 116 -193 -193 118 115 118 118 117 117 117 116 116 115 116 112 111 114 111 110 111 111 112 112 112 114 115 113 115 113 114 114 115 116 114 116 116 116 115 115 116 115 114 115 113 114 112 112 113 111 112 112 113 113 114 113 116 116 117 117 116 115 117 118 117 115 114 114 113 114 114 114 110 110 110 112 112 115 114 116 116 116 118 118 118 118 118 118 117 116 116 117 115 115 115 115 114 114 114 113 109 112 114 114 115 114 114 115 115 116 115 113 116 116 113 114 114 114 115 118 118 118 118 122 122 122 122 123 123 124 133 131 131 132 132 133 132 131 131 127 132 128 126 126 124 123 122 122 122 122 122 124 126 127 132 133 131 131 128 130 129 126 127 127 127 128 130 127 126 127 127 127 128 126 127 126 128 129 128 128 129 129 131 130 129 130 127 127 127 126 124 124 123 122 122 123 123 123 123 125 131 -193 -177 -177 0 0 0 0 0
    0 0 0 0 0 0 0 0 0 0 0 0 0 0 0 0 0 0 0 0 0 0 0 0 0 0 0 0 0 0 0 0 0 0 0 0 0 0 0 0 0 0 0 0 0 0 0 0 0 0 0 0 0 0 0 0 0 0 0 0 0 0 0 0 0 0 0 0 0 116 115 117 117 117 116 115 115 114 115 114 112 113 117 117 117 118 119 118 119 118 118 117 117 117 118 117 118 117 118 117 118 118 119 116 118 116 116 116 117 114 115 114 116 -193 -193 118 116 118 118 117 117 117 116 116 115 116 112 110 113 112 109 110 110 111 113 112 113 114 112 115 113 114 -193 -193 116 -193 116 116 116 115 115 116 115 115 116 114 114 112 113 113 112 112 113 113 113 114 113 116 115 116 116 115 114 117 118 117 115 114 114 114 114 113 114 110 111 112 114 113 115 115 117 117 117 119 118 118 118 118 118 117 117 116 117 115 115 115 115 114 115 114 113 110 114 115 115 116 116 116 117 117 118 117 115 117 117 114 114 114 115 116 118 119 118 118 122 123 122 122 123 123 125 134 132 131 132 132 132 132 131 131 127 131 128 126 126 125 123 122 122 122 123 124 127 130 130 133 135 134 134 131 132 131 129 129 129 129 130 130 128 126 127 126 127 127 126 127 126 128 130 129 130 131 131 132 131 130 131 129 129 128 127 125 126 124 124 123 124 124 124 124 126 130 -193 -177 -177 0 0 0 0 0
    0 0 0 0 0 0 0 0 0 0 0 0 0 0 0 0 0 0 0 0 0 0 0 0 0 0 0 0 0 0 0 0 0 0 0 0 0 0 0 0 0 0 0 0 0 0 0 0 0 0 0 0 0 0 0 0 0 0 0 0 0 0 0 0 0 0 0 0 0 115 113 115 115 115 115 113 112 111 112 111 110 111 116 116 117 119 119 119 120 118 118 118 118 118 118 117 118 117 119 118 118 119 119 117 119 117 117 116 117 112 114 -193 -193 -193 -193 -193 116 118 118 117 117 118 116 116 115 116 113 109 113 113 109 109 109 111 112 112 113 113 -193 -193 -193 -209 -193 -209 -193 701 -193 -209 -193 116 115 116 115 115 116 114 114 113 112 113 112 113 114 113 113 114 114 -193 115 116 116 115 114 117 119 117 116 115 115 115 116 115 115 111 113 116 118 117 118 117 119 120 119 120 119 119 119 119 119 117 117 117 117 115 116 116 115 115 115 114 114 111 115 116 116 117 118 119 119 119 119 119 118 119 118 115 115 115 116 117 119 119 119 119 122 123 123 123 123 124 127 132 131 131 131 131 131 131 130 129 127 129 128 127 127 126 125 124 124 125 126 127 132 133 133 134 136 135 136 134 134 133 132 132 132 131 132 131 129 126 126 126 126 127 126 126 126 127 130 130 130 132 131 132 132 131 132 130 130 129 128 126 126 125 124 123 125 125 125 125 127 131 -193 -177 -177 0 0 0 0 0
    0 0 0 0 0 0 0 0 0 0 0 0 0 0 0 0 0 0 0 0 0 0 0 0 0 0 0 0 0 0 0 0 0 0 0 0 0 0 0 0 0 0 0 0 0 0 0 0 0 0 0 0 0 0 0 0 0 0 0 0 0 0 0 0 0 0 0 0 0 114 112 115 114 114 114 113 111 111 110 109 108 109 115 -209 117 119 119 119 120 119 119 118 118 118 119 118 118 117 119 118 118 119 119 117 119 116 116 114 116 -209 -193 -193 -193 -193 -209 -193 117 118 119 117 118 118 117 116 115 116 113 108 112 113 108 107 108 110 111 111 111 -193 -209 -177 -193 -209 -193 -193 -193 701 709 -193 -177 -193 115 115 115 115 116 114 114 113 112 112 113 114 115 114 114 115 -209 -209 116 116 117 114 114 117 119 117 117 116 117 117 118 117 118 114 117 119 123 120 120 120 121 122 121 122 120 120 120 120 -193 118 118 118 118 116 117 117 116 116 116 115 115 112 117 118 118 119 120 121 122 122 122 122 121 121 120 117 117 117 118 119 120 121 121 121 124 125 125 125 125 125 129 132 131 131 131 131 131 131 130 128 127 129 129 128 129 129 128 127 127 129 131 132 135 135 135 136 136 136 136 135 135 134 133 132 132 131 133 131 129 126 128 128 127 129 127 127 128 128 130 130 130 132 132 132 132 132 132 131 131 130 129 127 128 125 124 124 126 126 127 127 129 132 -177 -177 -177 0 0 0 0 0
    0 0 0 0 0 0 0 0 0 0 0 0 0 0 0 0 0 0 0 0 0 0 0 0 0 0 0 0 0 0 0 0 0 0 0 0 0 0 0 0 0 0 0 0 0 0 0 0 0 0 0 0 0 0 0 0 0 0 0 0 0 0 0 0 0 0 0 0 0 115 115 117 116 115 115 -193 -209 -209 -209 -209 108 110 -209 -209 -209 118 119 120 121 121 120 -209 119 119 120 118 119 118 119 118 118 119 119 117 120 -177 -177 -177 -209 -209 -209 -209 -209 -209 -193 -209 118 118 119 117 118 118 117 117 115 115 112 108 110 113 107 107 108 110 111 110 -193 -193 656 660 662 664 670 -209 -209 -193 -193 -209 -209 -209 -193 -193 116 116 117 116 115 114 114 114 114 115 117 116 116 117 -209 -209 -193 118 118 113 114 118 120 118 118 118 118 119 120 119 120 118 120 122 126 125 124 122 124 124 123 125 122 122 122 122 -193 -193 120 120 120 118 118 119 118 117 119 117 117 116 120 121 121 122 122 124 125 126 125 126 126 126 123 120 119 120 121 122 123 123 123 124 127 128 128 128 127 127 130 131 130 131 131 131 131 131 131 128 128 130 130 129 130 131 130 129 130 132 133 134 136 137 136 136 137 136 136 135 136 134 132 128 128 127 129 127 124 123 126 127 127 130 129 130 130 131 132 132 132 133 132 133 133 132 133 132 132 131 131 130 131 127 127 125 127 126 128 127 130 132 -193 -177 -177 0 0 0 0 0
    0 0 0 0 0 0 0 0 0 0 0 0 0 0 0 0 0 0 0 0 0 0 0 0 0 0 0 0 0 0 0 0 0 0 0 0 0 0 0 0 0 0 0 0 0 0 0 0 0 0 0 0 0 0 0 0 0 0 0 0 0 0 0 0 0 0 0 0 0 117 119 -193 -209 120 118 -209 -209 -177 -177 -209 -209 -209 -177 -177 -209 -209 -209 124 125 125 -209 -209 -209 -209 -209 -209 -209 -209 -193 118 119 120 120 119 121 -209 -177 -209 -209 -209 -209 -209 -209 -209 -209 -209 -209 -193 120 119 119 119 118 118 117 116 114 109 112 -193 -193 -193 -209 -209 -209 -209 -209 -177 658 660 661 663 668 -193 -209 -209 -209 -209 -209 -209 -209 -193 118 118 118 118 117 116 -193 -193 116 117 119 -209 117 118 -209 -209 -209 120 120 114 116 120 123 119 119 119 120 122 123 122 123 122 123 127 131 131 128 125 127 127 125 128 126 125 125 126 129 -193 125 124 124 122 121 122 122 120 123 120 120 121 125 125 124 125 125 126 128 128 128 128 130 130 126 123 122 122 123 124 126 125 125 127 129 130 130 130 129 128 131 131 130 131 131 131 131 131 131 128 128 131 131 130 131 133 132 131 132 134 135 136 136 137 136 136 137 136 135 135 135 135 134 131 131 131 133 132 129 127 129 128 129 132 131 132 132 132 132 133 133 134 132 132 133 132 133 133 133 132 132 132 133 132 132 130 131 130 130 130 132 133 135 -209 -209 0 0 0 0 0
    0 0 0 0 0 0 0 0 0 0 0 0 0 0 0 0 0 0 0 0 0 0 0 0 0 0 0 0 0 0 0 0 0 0 0 0 0 0 0 0 0 0 0 0 0 0 0 0 0 0 0 0 0 0 0 0 0 0 0 0 0 0 0 0 0 0 0 0 0 120 123 -209 -209 124 120 -209 -209 -177 -177 -209 -209 -209 -193 -209 -209 -209 -209 -193 -193 -193 127 -209 -209 -193 -193 -209 -209 -209 -209 -209 -193 122 121 121 123 -209 -209 -209 -209 -209 -193 -209 -209 -209 -193 129 133 130 126 121 122 122 120 120 119 117 117 113 118 -209 -209 -209 -209 -209 -209 -209 -209 -209 -209 661 662 663 668 -209 -209 -209 -209 -193 -209 -209 -209 -209 -209 -209 120 -209 -193 -193 -193 -193 -193 119 122 -193 -209 -193 -209 -209 -209 124 132 -209 120 126 133 124 122 121 124 127 129 126 127 127 126 131 133 133 130 128 129 129 126 130 128 127 127 130 132 128 130 129 127 126 126 126 127 124 128 125 127 128 132 130 129 129 129 130 131 130 130 130 131 131 128 126 124 124 125 127 128 126 126 130 131 131 131 131 130 129 132 131 130 131 131 131 130 131 131 127 129 132 133 134 133 135 135 134 136 137 139 139 138 138 137 137 137 135 135 134 134 133 134 132 132 132 134 135 133 133 132 130 132 134 133 133 133 133 133 134 135 135 133 132 133 132 133 134 133 133 133 134 135 135 135 134 134 133 134 133 134 135 137 -209 -209 0 0 0 0 0
    0 0 0 0 0 0 0 0 0 0 0 0 0 0 0 0 0 0 0 0 0 0 0 0 0 0 0 0 0 0 0 0 0 0 0 0 0 0 0 0 0 0 0 0 0 0 0 0 0 0 0 0 0 0 0 0 0 0 0 0 0 0 0 0 0 0 0 0 0 -193 132 136 134 134 -209 135 -209 -209 -209 -209 -209 -209 -177 -193 -177 718 -209 -193 -193 -193 132 -209 -209 -193 -193 -193 -209 -209 -209 -209 -209 128 127 127 127 -193 -209 -209 -209 -193 278 -177 -209 -209 130 134 136 135 133 129 127 129 125 124 123 120 -193 -209 -209 -193 -177 -193 -193 -209 -209 -209 -209 -209 -209 -209 -209 -193 -209 -209 -209 -209 -209 -209 -209 -209 -209 -209 126 127 126 128 -193 -193 -209 -209 -209 -209 132 134 -209 131 137 139 139 137 140 140 -193 137 137 138 127 125 130 131 132 131 131 132 129 133 134 134 132 130 131 131 128 131 128 128 129 130 133 131 132 131 130 130 131 131 131 129 132 131 133 133 134 133 132 132 131 132 132 131 131 131 131 132 128 128 125 125 127 130 129 127 128 132 131 132 132 132 131 130 133 131 130 131 130 131 130 131 131 125 131 133 136 136 135 137 138 138 139 141 142 140 139 139 137 137 137 135 134 133 133 132 134 132 132 132 134 135 135 135 134 133 135 135 134 134 134 134 134 136 136 135 133 132 133 132 133 134 133 133 134 135 136 136 136 136 135 135 136 135 136 136 141 -209 -209 0 0 0 0 0
    0 0 0 0 0 0 0 0 0 0 0 0 0 0 0 0 0 0 0 0 0 0 0 0 0 0 0 0 0 0 0 0 0 0 0 0 0 0 0 0 0 0 0 0 0 0 0 0 0 0 0 0 0 0 0 0 0 0 0 0 0 0 0 0 0 0 0 0 0 -209 136 138 138 138 -209 -193 -209 -209 -209 -209 -209 -193 -177 -193 -177 -177 -193 -193 -193 -209 -193 -209 -209 -209 -209 -209 -209 -209 -209 -209 -209 135 135 134 133 -209 -209 -209 -209 -209 278 -177 -193 -209 133 135 138 136 135 134 133 134 134 132 -193 127 -209 -209 -209 -209 -209 -209 -209 -209 -209 -209 -209 -209 -209 -209 -209 -209 -209 -209 -209 -209 -209 -209 -209 -209 -209 -209 130 131 131 131 130 128 130 -193 -193 -193 136 137 139 137 139 141 141 140 141 142 139 138 138 138 134 130 133 133 134 132 133 134 132 134 135 135 134 132 133 133 131 133 130 130 131 132 134 133 133 133 132 133 133 133 133 132 133 132 133 134 134 133 132 133 132 132 132 132 131 131 131 132 129 129 127 127 129 131 130 129 130 133 132 133 132 132 131 131 134 131 130 131 130 131 130 131 132 124 132 134 139 140 136 141 140 141 142 143 143 140 139 139 137 137 137 135 134 132 133 132 135 133 133 134 137 138 138 139 138 138 139 138 137 136 136 137 136 139 138 137 134 133 133 133 132 134 133 133 133 135 137 136 137 138 138 138 139 138 137 139 145 153 -209 0 0 0 0 0
    0 0 0 0 0 0 0 0 0 0 0 0 0 0 0 0 0 0 0 0 0 0 0 0 0 0 0 0 0 0 0 0 0 0 0 0 0 0 0 0 0 0 0 0 0 0 0 0 0 0 0 0 0 0 0 0 0 0 0 0 0 0 0 0 0 0 0 0 0 -193 137 138 139 139 139 -193 -209 -209 -209 -209 -209 -209 -177 -193 -193 -177 -193 -193 137 -193 137 -209 -209 -193 138 139 -209 -209 -193 -193 141 138 139 -209 -209 -209 -209 -209 -209 -209 -177 282 -193 -209 134 135 139 136 135 135 135 136 136 136 -193 -193 -209 -209 -209 -209 -209 -209 -209 -209 -193 -193 -209 -193 -209 -209 -209 -193 -193 -209 -193 924 -193 -209 -209 -209 -209 -209 133 133 133 133 133 131 132 131 133 135 136 137 138 138 139 140 140 139 141 141 139 138 137 138 136 134 136 135 136 135 135 135 134 135 136 135 135 134 135 134 133 134 131 131 132 132 134 134 134 134 133 133 133 133 133 132 133 132 133 133 134 133 132 133 132 131 132 131 131 131 131 132 130 131 130 129 130 132 131 132 132 134 133 134 133 133 132 131 134 131 130 131 131 131 130 131 131 124 132 135 142 145 142 146 144 145 145 145 144 141 139 139 137 136 136 135 133 131 133 132 135 134 135 136 139 141 141 142 143 144 145 143 141 139 138 141 140 142 140 139 136 135 135 133 133 134 133 133 133 135 136 136 138 140 140 140 142 143 141 142 147 152 -193 0 0 0 0 0
    0 0 0 0 0 0 0 0 0 0 0 0 0 0 0 0 0 0 0 0 0 0 0 0 0 0 0 0 0 0 0 0 0 0 0 0 0 0 0 0 0 0 0 0 0 0 0 0 0 0 0 0 0 0 0 0 0 0 0 0 0 0 0 0 0 0 0 0 0 137 138 139 140 140 139 137 -193 -193 -193 -209 -209 -209 -193 -193 -193 -177 -193 138 138 138 138 139 -193 139 139 141 142 -209 144 142 142 139 139 -193 -193 -209 -209 -209 -209 -209 -209 -193 -209 -209 134 135 138 136 135 136 136 137 136 137 137 137 138 -193 -209 -209 -209 -193 -193 -209 135 135 133 133 134 133 133 132 133 -193 -193 925 -209 -209 -209 136 137 -209 134 134 134 134 134 132 133 132 133 135 135 136 137 138 139 140 140 139 141 140 139 138 138 138 137 136 137 136 137 136 136 136 135 136 136 136 135 134 135 135 133 133 131 131 132 132 134 134 134 134 133 133 133 133 133 132 132 131 132 132 133 133 132 132 131 131 131 131 130 130 130 132 129 131 130 130 131 133 131 133 133 135 134 134 133 133 132 132 134 131 130 131 131 131 130 131 131 124 133 138 144 146 144 147 145 146 146 146 145 142 141 141 138 137 137 135 133 132 133 134 136 136 136 138 141 143 144 145 146 147 147 147 144 140 140 142 139 141 140 138 136 135 135 135 134 135 134 134 134 136 138 138 139 142 141 142 144 145 143 144 148 151 158 0 0 0 0 0</data></disparity>
</opencv_storage>
