<?xml version="1.0"?>
<opencv_storage>
<gps_time_stamp>28330</gps_time_stamp>
<gps_x>-6.4375824928283691e+000</gps_x>
<gps_y>1.0236816406250000e+000</gps_y>
<gps_z>-1.9700990915298462e+000</gps_z>
<image_time_stamp>16267</image_time_stamp>
<disparity type_id="opencv-matrix">
  <rows>85</rows>
  <cols>320</cols>
  <dt>s</dt>
  <data>
    0 0 0 0 0 0 0 0 0 0 0 0 0 0 0 0 0 0 0 0 0 0 0 0 0 0 0 0 0 0 0 0 0 0 0 0 0 0 0 0 0 0 0 0 0 0 0 0 0 0 0 0 0 0 0 0 0 0 0 0 0 0 0 0 0 0 0 0 0 75 76 75 76 78 75 80 86 83 84 86 83 83 83 82 80 78 78 76 74 74 76 74 74 75 76 76 79 78 78 79 81 79 80 79 77 78 78 78 77 76 77 77 78 82 81 80 84 83 84 83 85 84 84 82 80 79 80 80 81 77 77 77 79 82 83 82 81 78 78 78 83 77 78 78 78 78 79 80 81 76 84 82 82 80 82 82 81 79 80 78 77 77 77 77 77 77 77 77 77 79 78 81 83 85 86 83 85 85 82 81 82 81 79 78 78 78 78 79 78 77 77 77 77 78 76 78 76 76 77 76 78 78 78 78 78 78 79 77 78 80 77 77 80 78 78 80 80 80 79 83 83 80 85 85 83 85 85 83 80 81 82 80 80 81 82 84 85 86 88 87 88 89 88 88 87 88 85 87 92 90 91 91 90 93 92 93 95 92 94 93 93 95 90 92 91 81 82 85 83 84 86 88 88 89 88 88 87 87 88 87 85 85 83 82 81 84 85 85 85 88 88 91 98 102 105 106 111 119 122 121 124 124 125 127 129 129 129 129 131 131 131 130 126 124 122 0 0 0 0 0
    0 0 0 0 0 0 0 0 0 0 0 0 0 0 0 0 0 0 0 0 0 0 0 0 0 0 0 0 0 0 0 0 0 0 0 0 0 0 0 0 0 0 0 0 0 0 0 0 0 0 0 0 0 0 0 0 0 0 0 0 0 0 0 0 0 0 0 0 0 76 77 76 77 80 76 84 86 83 84 86 82 82 83 83 81 79 80 77 74 75 76 74 74 75 74 76 79 78 79 80 82 80 81 81 79 79 80 79 79 77 79 79 80 83 82 81 85 85 84 84 86 85 85 84 82 81 81 82 82 79 79 79 81 83 84 83 82 79 79 79 84 78 79 78 79 79 80 81 82 77 85 84 84 82 84 83 82 81 81 79 78 79 79 78 78 78 78 77 78 80 77 82 83 85 86 84 86 86 84 83 83 82 81 80 79 79 78 79 79 77 77 77 77 78 77 78 77 78 78 76 78 79 79 79 79 79 80 78 79 79 77 77 80 78 77 80 80 80 80 83 83 82 85 85 83 86 86 84 81 81 83 80 81 81 83 85 86 86 88 87 88 89 89 89 88 89 87 88 92 91 91 90 90 93 91 93 94 92 93 93 93 95 90 93 93 83 83 86 85 85 86 87 87 88 88 88 87 87 88 87 86 86 85 84 83 85 85 86 86 87 87 88 88 89 91 93 101 107 118 118 123 124 124 128 129 130 131 130 132 133 132 132 130 130 123 0 0 0 0 0
    0 0 0 0 0 0 0 0 0 0 0 0 0 0 0 0 0 0 0 0 0 0 0 0 0 0 0 0 0 0 0 0 0 0 0 0 0 0 0 0 0 0 0 0 0 0 0 0 0 0 0 0 0 0 0 0 0 0 0 0 0 0 0 0 0 0 0 0 0 78 80 77 79 82 80 85 86 83 85 86 83 83 83 83 82 80 81 78 75 76 78 74 74 74 73 77 81 79 81 81 83 81 82 82 81 81 81 80 80 79 81 81 83 84 84 83 85 85 85 85 87 86 85 84 83 82 82 83 83 81 80 81 83 84 84 83 83 80 80 81 84 79 80 79 80 80 81 82 83 77 86 84 85 82 84 83 82 82 82 80 80 81 80 79 79 79 78 78 79 80 77 82 82 84 85 84 86 87 85 84 84 83 82 81 80 80 79 79 79 77 77 77 77 78 77 79 78 79 78 77 79 81 80 81 80 80 80 79 81 80 77 77 79 78 77 80 80 79 80 84 83 82 85 85 84 87 87 86 84 85 85 83 83 82 85 86 86 86 87 87 87 89 89 89 89 89 88 89 93 91 92 90 90 92 91 92 93 92 93 92 93 95 90 93 93 85 84 86 86 84 86 85 85 86 87 87 87 87 89 88 87 87 86 86 85 86 86 86 85 87 87 87 87 88 87 88 91 98 102 109 120 123 124 128 130 131 132 132 134 134 134 134 134 135 131 0 0 0 0 0
    0 0 0 0 0 0 0 0 0 0 0 0 0 0 0 0 0 0 0 0 0 0 0 0 0 0 0 0 0 0 0 0 0 0 0 0 0 0 0 0 0 0 0 0 0 0 0 0 0 0 0 0 0 0 0 0 0 0 0 0 0 0 0 0 0 0 0 0 0 81 84 81 85 86 85 87 88 85 86 87 84 83 84 84 83 81 82 80 76 80 82 -193 76 75 -193 80 84 83 84 84 84 83 84 83 82 83 82 82 82 80 83 83 84 84 84 84 86 86 85 86 87 86 85 85 84 83 83 84 84 81 81 83 84 84 85 84 84 81 81 82 84 80 81 80 81 81 82 83 83 78 86 84 85 82 84 83 82 83 83 80 81 82 81 81 81 81 79 79 81 82 78 84 84 86 86 86 88 88 87 85 85 84 83 82 82 82 81 80 81 79 78 79 78 79 77 79 78 80 78 78 81 82 81 82 81 82 81 81 82 80 78 77 79 78 77 81 79 79 81 84 83 83 86 86 85 87 87 87 86 87 87 85 85 84 86 86 86 86 87 87 87 89 89 89 89 90 89 90 93 91 92 90 89 92 91 92 93 92 92 91 94 96 91 94 94 87 86 87 88 85 86 85 84 84 86 87 86 87 89 88 88 88 87 87 86 86 86 85 85 86 86 87 87 87 87 87 88 90 98 106 116 121 125 131 132 133 135 135 135 136 136 136 135 137 137 0 0 0 0 0
    0 0 0 0 0 0 0 0 0 0 0 0 0 0 0 0 0 0 0 0 0 0 0 0 0 0 0 0 0 0 0 0 0 0 0 0 0 0 0 0 0 0 0 0 0 0 0 0 0 0 0 0 0 0 0 0 0 0 0 0 0 0 0 0 0 0 0 0 0 84 87 86 87 88 87 88 88 86 86 87 84 84 84 84 83 82 83 82 78 84 85 79 81 79 79 84 86 85 85 85 86 85 85 85 84 84 84 83 83 81 84 83 84 83 83 83 85 85 85 86 88 87 86 86 86 85 84 85 85 83 82 84 84 85 85 84 84 82 82 83 85 81 82 82 82 82 84 84 84 79 87 85 86 83 84 83 83 84 83 81 82 83 82 82 82 82 81 81 84 84 80 86 86 87 88 87 89 89 89 87 87 85 84 84 83 83 83 82 82 80 80 82 80 80 78 80 78 81 79 79 81 83 82 83 82 83 82 83 84 82 80 80 81 79 78 83 79 79 81 84 83 83 86 86 85 88 88 88 87 88 88 87 87 86 87 87 87 86 87 88 88 89 89 90 90 90 89 91 92 91 93 90 89 92 91 92 93 92 93 91 94 96 91 95 94 89 89 89 89 86 86 85 84 85 86 87 87 87 89 89 88 88 88 87 86 86 86 85 85 86 86 87 87 88 87 88 89 91 93 99 105 118 127 133 133 134 137 136 137 138 137 137 137 138 138 0 0 0 0 0
    0 0 0 0 0 0 0 0 0 0 0 0 0 0 0 0 0 0 0 0 0 0 0 0 0 0 0 0 0 0 0 0 0 0 0 0 0 0 0 0 0 0 0 0 0 0 0 0 0 0 0 0 0 0 0 0 0 0 0 0 0 0 0 0 0 0 0 0 0 88 88 88 87 88 87 89 88 87 87 87 85 84 84 84 83 82 83 82 79 85 86 82 84 83 83 85 87 86 87 86 87 86 86 86 85 83 84 82 83 81 84 83 85 84 84 84 86 87 87 88 88 88 87 87 87 86 85 86 86 84 83 85 85 85 85 84 84 82 82 83 85 82 83 83 83 84 85 85 86 82 88 86 87 85 86 84 83 84 84 82 82 83 83 82 83 84 83 83 85 85 83 88 88 88 89 87 89 90 91 88 88 86 85 84 84 84 84 83 84 82 82 84 83 82 78 80 79 82 80 81 82 84 83 84 83 84 84 85 85 84 83 84 84 82 81 85 80 80 82 84 84 84 86 86 85 87 88 88 87 89 89 88 88 87 88 88 87 87 87 88 88 89 89 90 90 91 90 91 92 92 93 90 90 93 92 92 93 92 93 92 95 96 92 95 95 90 90 90 90 87 87 85 84 85 86 87 87 88 90 89 89 89 89 88 87 87 87 86 86 86 87 88 87 88 87 88 89 90 92 95 101 111 -177 134 135 135 139 138 138 139 138 138 138 139 139 0 0 0 0 0
    0 0 0 0 0 0 0 0 0 0 0 0 0 0 0 0 0 0 0 0 0 0 0 0 0 0 0 0 0 0 0 0 0 0 0 0 0 0 0 0 0 0 0 0 0 0 0 0 0 0 0 0 0 0 0 0 0 0 0 0 0 0 0 0 0 0 0 0 0 90 90 89 88 89 88 89 89 88 88 87 86 84 84 84 83 82 83 83 81 86 87 84 84 85 84 86 -193 87 88 87 88 87 86 87 86 84 84 82 83 82 85 85 86 85 86 86 87 88 88 89 89 88 87 88 87 86 86 86 86 84 84 85 85 85 85 83 83 81 82 83 85 83 84 84 84 85 86 87 87 85 88 87 88 87 87 86 84 85 84 83 83 84 83 83 84 85 84 84 86 86 86 89 89 88 90 88 89 89 91 88 88 86 85 85 85 85 85 84 85 84 84 86 85 85 80 81 80 83 80 82 83 85 84 84 84 85 85 86 86 86 86 86 86 86 85 87 81 81 84 85 84 85 86 86 85 88 88 88 88 90 90 90 90 90 91 91 89 88 88 89 88 89 90 90 91 91 90 92 92 92 93 90 90 93 92 92 93 93 93 92 95 95 92 95 95 91 91 90 91 87 87 85 84 85 86 87 88 89 91 91 90 91 91 90 89 88 88 87 87 87 87 88 88 89 88 88 89 91 93 96 101 -209 -193 135 137 137 141 139 139 140 140 140 139 140 140 0 0 0 0 0
    0 0 0 0 0 0 0 0 0 0 0 0 0 0 0 0 0 0 0 0 0 0 0 0 0 0 0 0 0 0 0 0 0 0 0 0 0 0 0 0 0 0 0 0 0 0 0 0 0 0 0 0 0 0 0 0 0 0 0 0 0 0 0 0 0 0 0 0 0 90 90 89 88 90 89 90 90 89 89 88 87 85 85 85 83 83 84 83 82 87 87 85 85 86 85 87 -209 -193 -193 -193 89 88 88 88 88 85 87 85 86 85 87 88 89 87 88 87 88 89 89 90 90 89 88 88 88 87 86 86 86 84 84 85 84 84 84 83 83 82 83 84 86 85 85 85 86 86 87 88 88 87 89 88 89 88 88 86 85 85 85 83 83 83 84 84 85 86 86 86 88 88 88 90 90 89 90 88 89 89 90 87 88 86 86 85 86 86 86 86 86 85 86 87 86 86 83 83 81 84 82 84 84 86 85 85 85 85 86 87 87 87 87 87 87 87 87 87 82 82 84 85 85 85 86 87 86 88 88 89 90 91 91 92 91 92 93 92 90 89 89 90 89 89 90 91 91 91 91 92 91 92 93 91 91 93 92 93 93 93 93 93 95 95 93 95 94 91 92 91 92 88 87 85 84 85 86 87 88 89 92 93 93 94 94 92 92 91 90 88 88 88 88 88 88 89 88 88 90 91 94 97 -193 -209 -209 -209 136 136 142 139 139 140 140 140 139 141 141 0 0 0 0 0
    0 0 0 0 0 0 0 0 0 0 0 0 0 0 0 0 0 0 0 0 0 0 0 0 0 0 0 0 0 0 0 0 0 0 0 0 0 0 0 0 0 0 0 0 0 0 0 0 0 0 0 0 0 0 0 0 0 0 0 0 0 0 0 0 0 0 0 0 0 89 90 89 88 90 89 90 90 90 89 88 88 86 85 85 83 83 84 84 84 87 87 86 85 86 85 87 -209 -193 -209 -209 89 89 89 89 89 86 89 87 88 87 89 90 90 88 90 88 89 89 89 90 90 89 88 88 88 87 87 86 86 84 84 85 84 84 84 83 83 83 83 84 86 86 86 86 87 87 88 89 89 89 89 90 90 89 88 87 86 86 85 84 84 83 84 85 86 87 87 88 89 89 90 91 90 90 91 89 89 89 89 87 88 87 86 86 87 87 87 87 87 87 87 88 88 87 86 85 84 86 85 86 86 87 86 86 85 86 87 88 88 87 87 88 89 88 88 88 84 84 85 85 86 86 87 88 87 89 89 90 90 92 91 92 91 92 93 93 90 90 89 90 89 89 90 91 91 92 91 93 91 92 93 91 92 93 92 93 93 93 94 93 96 94 93 95 95 92 93 92 93 89 89 87 86 86 88 88 89 90 92 94 95 97 98 95 96 94 94 90 89 89 88 89 88 90 89 88 91 92 95 99 102 -209 -209 -209 137 138 145 140 140 142 141 141 141 143 142 0 0 0 0 0
    0 0 0 0 0 0 0 0 0 0 0 0 0 0 0 0 0 0 0 0 0 0 0 0 0 0 0 0 0 0 0 0 0 0 0 0 0 0 0 0 0 0 0 0 0 0 0 0 0 0 0 0 0 0 0 0 0 0 0 0 0 0 0 0 0 0 0 0 0 89 89 89 88 91 89 90 90 90 90 89 89 88 86 87 84 84 84 85 85 87 88 86 85 86 86 87 91 89 90 90 90 91 90 90 90 87 90 89 89 89 90 90 90 89 90 88 88 88 89 89 90 89 89 89 89 88 88 87 86 84 84 85 84 84 84 83 84 83 84 85 87 87 87 88 88 88 89 89 90 90 89 90 90 90 89 88 87 86 85 84 84 83 84 86 87 87 88 89 89 90 90 91 91 90 91 90 90 89 89 88 89 87 87 86 87 88 89 89 88 88 88 88 89 88 86 86 86 87 87 88 87 88 87 86 86 86 88 88 88 88 88 89 90 89 89 89 85 85 86 86 86 86 87 88 87 89 89 90 91 92 91 92 91 92 93 92 90 90 90 91 89 90 90 91 92 92 92 94 92 92 93 91 92 93 93 93 94 94 94 93 96 94 93 95 95 93 94 94 94 91 91 90 89 90 91 90 90 91 93 95 96 97 99 97 98 96 96 90 90 89 89 89 89 91 90 89 92 93 97 99 102 -209 -209 -209 137 138 146 141 141 142 142 142 141 144 144 0 0 0 0 0
    0 0 0 0 0 0 0 0 0 0 0 0 0 0 0 0 0 0 0 0 0 0 0 0 0 0 0 0 0 0 0 0 0 0 0 0 0 0 0 0 0 0 0 0 0 0 0 0 0 0 0 0 0 0 0 0 0 0 0 0 0 0 0 0 0 0 0 0 0 89 89 89 89 91 89 90 91 91 91 90 90 89 88 89 86 85 85 86 87 87 88 86 85 87 87 88 93 90 91 91 91 91 90 91 91 87 90 89 89 89 90 91 90 89 90 88 88 88 89 90 90 90 89 89 89 89 89 88 87 84 84 85 84 84 84 84 85 85 85 87 88 89 88 89 89 90 90 90 91 91 90 91 91 90 89 88 87 87 85 85 84 83 84 86 88 88 89 90 90 91 92 92 91 91 93 91 91 90 90 89 90 87 88 87 88 91 90 91 90 90 90 89 90 89 87 87 87 88 88 89 89 89 87 87 87 87 88 89 89 89 89 90 90 90 90 89 87 87 87 87 87 87 88 90 88 89 89 91 91 92 92 93 91 92 93 93 91 91 91 91 90 90 91 92 93 93 92 94 93 93 94 92 94 94 94 94 94 94 94 94 96 95 94 96 95 94 95 95 95 93 93 92 92 92 93 92 92 93 94 96 96 97 99 97 98 96 96 91 93 91 92 92 93 95 92 91 93 95 99 100 102 -209 -177 -177 -209 137 146 141 141 142 142 142 141 144 143 0 0 0 0 0
    0 0 0 0 0 0 0 0 0 0 0 0 0 0 0 0 0 0 0 0 0 0 0 0 0 0 0 0 0 0 0 0 0 0 0 0 0 0 0 0 0 0 0 0 0 0 0 0 0 0 0 0 0 0 0 0 0 0 0 0 0 0 0 0 0 0 0 0 0 89 90 90 89 92 90 91 91 91 91 90 90 -193 89 -193 88 86 87 89 89 88 89 87 86 88 88 88 93 90 91 91 91 92 91 -193 -193 88 91 89 90 90 91 91 91 90 91 90 90 90 90 91 91 91 91 91 91 90 90 90 89 87 86 85 84 84 85 85 87 87 88 89 89 92 90 91 91 91 91 91 92 91 90 91 91 91 90 89 89 87 86 85 85 83 85 87 89 89 90 90 91 91 92 93 92 92 93 93 92 91 91 90 91 88 89 89 90 95 92 93 91 91 90 90 90 90 88 87 88 89 89 90 90 90 88 89 89 89 90 90 89 90 90 90 91 90 90 90 88 89 89 88 88 88 88 91 88 89 89 91 91 91 92 93 91 93 94 94 92 94 93 93 93 92 92 94 95 94 93 94 93 93 94 93 95 94 94 94 95 95 94 95 97 95 95 97 97 96 98 97 96 95 94 94 94 93 94 93 92 94 94 96 97 97 99 98 98 96 97 94 97 94 95 97 97 98 95 93 95 96 100 101 103 -193 -209 -177 -193 136 144 140 140 141 141 141 141 143 143 0 0 0 0 0
    0 0 0 0 0 0 0 0 0 0 0 0 0 0 0 0 0 0 0 0 0 0 0 0 0 0 0 0 0 0 0 0 0 0 0 0 0 0 0 0 0 0 0 0 0 0 0 0 0 0 0 0 0 0 0 0 0 0 0 0 0 0 0 0 0 0 0 0 0 89 90 91 90 92 90 91 91 91 91 -193 90 -193 89 92 -209 89 90 92 92 89 91 -193 87 88 -193 88 93 90 91 91 91 92 91 -193 -193 88 91 91 91 92 92 93 93 93 93 93 93 93 93 92 92 92 91 92 91 91 90 90 90 89 87 85 84 85 86 87 88 88 89 90 91 95 91 92 91 92 92 92 92 92 90 92 91 91 90 90 90 89 88 87 86 84 86 89 90 89 90 90 91 92 93 93 92 92 94 93 93 92 93 91 92 90 91 91 91 97 92 93 91 91 91 90 91 90 89 89 90 90 90 91 90 90 89 89 89 89 90 90 90 90 90 91 91 91 90 90 89 90 90 89 90 89 90 93 89 89 89 91 91 91 93 93 91 94 95 95 93 95 95 94 94 94 94 95 96 95 94 95 94 94 94 93 96 94 94 95 96 95 95 96 98 95 97 98 98 97 99 99 97 96 96 96 95 95 94 94 93 95 95 96 97 98 99 98 99 97 98 97 99 96 97 98 98 98 96 94 95 96 100 101 103 114 -209 -209 -193 135 141 139 139 140 140 140 140 142 142 0 0 0 0 0
    0 0 0 0 0 0 0 0 0 0 0 0 0 0 0 0 0 0 0 0 0 0 0 0 0 0 0 0 0 0 0 0 0 0 0 0 0 0 0 0 0 0 0 0 0 0 0 0 0 0 0 0 0 0 0 0 0 0 0 0 0 0 0 0 0 0 0 0 0 89 91 91 90 93 90 91 91 91 91 90 90 90 89 93 91 92 94 94 95 92 95 92 89 91 90 89 96 91 92 92 91 92 91 91 92 89 92 91 91 92 93 94 93 94 93 93 95 94 94 93 93 92 92 92 91 90 90 90 89 89 86 84 84 86 87 -193 88 88 89 90 91 96 91 92 92 92 92 92 92 92 90 92 91 92 91 92 91 91 90 91 89 88 88 91 91 90 91 91 92 92 93 94 93 93 94 94 95 93 95 94 95 93 94 93 94 98 92 93 91 91 91 91 91 91 90 90 91 92 92 92 91 91 89 89 89 89 90 90 89 90 90 90 91 91 90 90 90 92 91 91 91 91 91 95 90 89 89 91 91 92 93 93 91 94 95 95 94 96 95 95 95 95 95 97 97 95 95 96 96 96 95 94 97 94 95 95 96 95 95 97 99 95 98 98 98 98 99 99 98 97 97 97 96 96 96 95 94 96 96 97 97 99 99 99 99 99 100 99 101 98 98 98 99 98 96 94 95 96 101 102 104 114 -209 -209 -193 135 140 138 138 139 140 139 139 142 141 0 0 0 0 0
    0 0 0 0 0 0 0 0 0 0 0 0 0 0 0 0 0 0 0 0 0 0 0 0 0 0 0 0 0 0 0 0 0 0 0 0 0 0 0 0 0 0 0 0 0 0 0 0 0 0 0 0 0 0 0 0 0 0 0 0 0 0 0 0 0 0 0 0 0 90 92 93 92 94 91 91 91 91 92 91 91 91 90 95 93 97 99 98 97 95 99 98 94 97 94 92 99 92 93 92 92 93 91 92 93 89 92 92 92 93 94 96 94 94 94 94 97 95 95 94 93 93 92 92 91 90 89 89 89 87 85 83 85 86 88 -193 90 89 90 91 92 96 92 93 92 93 92 93 93 93 91 93 93 93 93 94 93 94 93 94 93 91 91 93 92 91 92 92 92 93 94 94 93 94 96 95 97 95 97 97 97 96 97 98 99 100 93 94 91 91 92 91 92 91 90 92 92 93 94 93 92 91 90 89 89 88 90 89 89 90 90 91 91 91 91 91 91 93 92 92 93 92 92 97 90 90 90 92 91 92 93 93 92 95 96 96 95 97 96 96 96 97 96 97 99 95 96 98 97 97 95 94 98 94 95 96 97 96 96 98 99 95 99 99 99 99 100 100 98 98 98 99 98 98 97 96 95 98 98 98 98 99 99 99 99 99 100 98 101 97 98 98 99 99 96 94 96 97 102 104 106 116 -209 -209 -193 134 138 138 138 139 139 139 139 140 140 0 0 0 0 0
    0 0 0 0 0 0 0 0 0 0 0 0 0 0 0 0 0 0 0 0 0 0 0 0 0 0 0 0 0 0 0 0 0 0 0 0 0 0 0 0 0 0 0 0 0 0 0 0 0 0 0 0 0 0 0 0 0 0 0 0 0 0 0 0 0 0 0 0 0 90 93 94 93 95 91 92 92 91 92 91 91 91 90 96 95 100 101 101 101 99 102 102 101 103 100 98 101 94 95 94 92 93 92 93 94 90 93 93 94 95 96 98 95 97 96 96 100 97 98 95 95 94 93 93 93 90 89 90 90 89 86 84 86 87 89 92 93 90 91 92 93 97 93 94 93 93 93 94 94 94 92 95 94 95 95 97 95 97 95 97 95 93 91 94 92 91 93 92 93 94 94 95 94 95 97 96 99 97 99 99 100 99 99 100 102 101 96 96 92 92 94 93 93 92 91 94 94 96 96 94 93 92 91 90 89 89 90 89 89 90 90 91 92 92 92 92 93 95 94 94 94 93 94 98 91 91 90 93 92 92 93 93 92 95 97 96 96 98 97 97 98 98 98 99 100 96 98 99 99 98 97 95 98 95 96 97 97 96 97 98 100 97 100 100 100 100 101 100 99 99 99 99 98 99 98 98 97 99 99 99 99 100 98 99 99 99 100 98 101 97 97 97 99 98 96 95 97 98 103 105 107 116 -209 -209 125 134 137 137 137 138 138 137 138 139 138 0 0 0 0 0
    0 0 0 0 0 0 0 0 0 0 0 0 0 0 0 0 0 0 0 0 0 0 0 0 0 0 0 0 0 0 0 0 0 0 0 0 0 0 0 0 0 0 0 0 0 0 0 0 0 0 0 0 0 0 0 0 0 0 0 0 0 0 0 0 0 0 0 0 0 91 95 96 94 95 92 92 92 92 92 91 91 92 91 95 96 101 103 104 104 102 103 104 103 104 102 100 101 97 97 96 93 94 93 93 94 91 94 93 94 96 96 99 96 98 96 97 101 98 99 97 96 96 95 95 94 91 91 91 92 91 90 88 90 90 92 99 99 96 96 94 95 100 95 96 94 95 94 95 95 96 93 96 95 97 96 98 96 98 96 97 95 94 92 94 93 92 94 93 94 95 95 96 95 97 98 96 100 99 100 101 101 101 101 102 104 102 100 99 95 95 97 96 95 94 93 96 97 97 98 96 94 94 93 91 91 90 92 90 90 92 91 92 94 93 93 94 95 97 95 96 95 95 96 99 92 91 91 93 92 93 94 93 93 96 97 97 96 99 98 97 99 99 99 100 100 97 101 101 101 99 99 97 99 97 99 99 100 99 100 99 102 101 102 102 102 101 102 101 99 99 98 99 98 99 98 98 97 99 99 99 99 100 97 99 99 99 100 99 102 97 97 98 99 97 97 96 98 98 103 105 106 116 -209 -193 124 134 136 136 136 137 137 136 137 137 -193 0 0 0 0 0
    0 0 0 0 0 0 0 0 0 0 0 0 0 0 0 0 0 0 0 0 0 0 0 0 0 0 0 0 0 0 0 0 0 0 0 0 0 0 0 0 0 0 0 0 0 0 0 0 0 0 0 0 0 0 0 0 0 0 0 0 0 0 0 0 0 0 0 0 0 93 96 98 96 96 92 93 92 92 93 92 92 93 92 97 97 102 104 105 105 104 103 104 103 103 101 100 101 98 98 98 94 95 93 95 96 92 94 94 94 96 97 99 97 99 97 98 102 99 99 98 98 98 96 97 96 92 93 93 94 93 92 92 93 93 94 100 100 99 100 98 97 101 98 98 96 96 96 96 96 98 94 98 97 98 97 99 97 99 97 97 95 95 93 95 93 93 95 94 95 95 96 97 96 98 99 96 100 99 100 102 101 102 101 102 104 103 102 101 99 99 100 100 98 97 95 98 99 98 98 96 95 95 94 93 92 92 93 91 91 93 92 94 95 95 94 96 97 98 97 98 96 96 97 99 92 92 92 93 92 93 94 93 94 97 97 97 97 99 98 98 99 99 99 100 101 99 102 103 103 101 102 100 101 101 103 103 103 103 104 103 105 105 104 104 103 102 102 101 98 99 97 99 97 99 99 98 98 100 100 101 101 101 98 100 100 101 102 101 102 98 98 99 100 98 98 96 98 99 103 105 106 116 -193 -193 123 134 135 135 135 136 136 134 137 136 119 0 0 0 0 0
    0 0 0 0 0 0 0 0 0 0 0 0 0 0 0 0 0 0 0 0 0 0 0 0 0 0 0 0 0 0 0 0 0 0 0 0 0 0 0 0 0 0 0 0 0 0 0 0 0 0 0 0 0 0 0 0 0 0 0 0 0 0 0 0 0 0 0 0 0 96 98 99 98 98 93 94 93 93 94 93 93 94 93 98 99 103 104 106 106 106 104 105 103 103 101 101 101 100 99 99 94 97 96 97 98 94 96 96 96 98 99 100 99 101 98 100 103 100 100 100 99 99 98 99 98 93 95 96 96 95 95 95 95 95 95 100 100 99 100 100 98 102 99 99 98 98 97 97 97 99 95 99 98 99 98 99 98 100 98 97 96 96 94 95 94 94 97 94 95 96 96 97 97 99 99 96 100 99 100 101 101 101 100 101 103 103 102 101 100 100 102 101 100 98 97 100 99 99 99 97 96 96 96 95 93 93 94 92 92 94 93 95 97 96 96 98 98 99 98 98 96 96 97 99 92 92 92 94 92 94 95 94 95 98 99 99 99 100 99 99 100 100 100 101 101 100 103 104 104 103 104 102 103 103 104 104 105 105 106 105 106 107 105 106 104 102 102 101 98 99 98 99 98 100 100 100 100 101 101 102 102 103 100 102 102 103 104 103 104 99 99 100 100 99 100 98 100 100 104 106 107 117 -193 124 127 135 135 135 135 136 136 134 135 135 119 0 0 0 0 0
    0 0 0 0 0 0 0 0 0 0 0 0 0 0 0 0 0 0 0 0 0 0 0 0 0 0 0 0 0 0 0 0 0 0 0 0 0 0 0 0 0 0 0 0 0 0 0 0 0 0 0 0 0 0 0 0 0 0 0 0 0 0 0 0 0 0 0 0 0 98 99 100 99 98 94 96 94 94 95 94 94 95 95 99 100 103 104 106 106 106 104 105 103 103 102 102 102 101 101 101 95 100 99 100 100 99 99 98 99 100 100 101 99 101 99 100 -193 -193 100 100 100 100 99 100 99 94 97 98 97 97 97 96 96 97 97 100 100 101 101 102 99 102 100 100 99 99 98 98 98 100 97 100 99 100 99 100 99 100 99 98 98 98 96 96 95 95 99 95 96 97 97 97 97 99 99 95 100 99 100 101 100 100 99 100 102 102 101 100 99 100 102 102 100 99 98 100 100 100 99 97 97 98 98 97 95 95 96 94 94 96 95 97 99 98 98 100 99 99 98 98 96 97 98 98 92 92 92 94 93 95 95 94 97 100 100 100 100 101 100 100 101 100 100 101 101 100 105 106 106 105 105 103 103 104 104 104 105 106 107 106 108 109 107 107 106 105 103 102 99 99 99 101 100 102 101 101 101 102 102 103 103 104 102 105 105 106 106 106 106 103 101 101 100 101 101 100 101 101 104 107 109 118 -193 130 133 136 135 135 136 136 136 134 135 135 119 0 0 0 0 0
    0 0 0 0 0 0 0 0 0 0 0 0 0 0 0 0 0 0 0 0 0 0 0 0 0 0 0 0 0 0 0 0 0 0 0 0 0 0 0 0 0 0 0 0 0 0 0 0 0 0 0 0 0 0 0 0 0 0 0 0 0 0 0 0 0 0 0 0 0 99 100 100 99 98 94 98 95 96 97 96 96 97 98 100 101 103 104 105 105 105 104 105 103 103 102 102 102 102 102 102 98 102 102 102 102 102 101 100 100 101 101 101 100 101 100 100 103 100 100 100 100 100 100 100 100 94 99 100 99 99 99 99 98 99 98 101 101 102 103 103 100 103 101 101 100 100 99 99 99 101 98 101 100 101 101 101 100 101 100 100 99 100 98 98 97 97 100 97 98 98 97 98 98 100 100 95 101 99 100 101 100 100 100 100 102 101 101 100 100 101 102 102 101 100 100 101 101 100 100 98 99 99 99 98 97 97 98 97 98 98 98 99 100 99 99 101 100 100 99 99 97 98 98 98 92 92 93 94 94 95 95 95 98 100 101 101 101 101 101 101 101 100 101 101 102 102 106 106 107 106 107 104 105 105 105 105 106 107 107 107 108 109 107 108 107 106 104 102 98 98 99 101 100 103 103 103 102 103 103 103 103 104 103 105 105 106 107 107 107 106 105 103 101 102 101 101 101 101 103 106 109 119 -177 134 135 138 136 136 137 136 136 134 135 135 120 0 0 0 0 0
    0 0 0 0 0 0 0 0 0 0 0 0 0 0 0 0 0 0 0 0 0 0 0 0 0 0 0 0 0 0 0 0 0 0 0 0 0 0 0 0 0 0 0 0 0 0 0 0 0 0 0 0 0 0 0 0 0 0 0 0 0 0 0 0 0 0 0 0 0 99 99 99 99 98 94 99 97 98 99 99 98 99 100 101 102 103 103 105 105 105 103 104 103 102 102 102 102 102 102 103 100 104 103 103 102 103 101 100 100 101 100 101 99 100 99 99 103 100 100 101 100 101 100 101 100 93 100 100 100 100 100 99 99 99 99 101 101 102 103 104 101 103 102 102 102 101 100 100 100 101 99 101 101 101 101 101 101 102 101 101 100 101 99 99 98 98 101 98 99 100 98 100 99 101 100 95 101 99 100 101 100 101 100 101 102 102 102 101 100 102 103 102 101 101 100 101 101 101 100 98 100 100 100 99 98 98 99 98 99 99 99 100 101 100 101 102 101 100 99 99 98 98 99 98 93 93 93 94 94 96 94 95 100 101 102 101 102 102 102 102 102 101 102 102 102 103 106 106 107 107 108 106 106 107 107 106 107 109 108 108 109 109 108 108 108 107 105 103 99 98 99 101 101 104 103 103 102 102 103 103 103 104 103 105 105 106 106 107 107 106 105 104 101 102 101 101 101 102 103 106 110 -209 140 135 136 140 137 137 137 137 137 135 136 135 121 0 0 0 0 0
    0 0 0 0 0 0 0 0 0 0 0 0 0 0 0 0 0 0 0 0 0 0 0 0 0 0 0 0 0 0 0 0 0 0 0 0 0 0 0 0 0 0 0 0 0 0 0 0 0 0 0 0 0 0 0 0 0 0 0 0 0 0 0 0 0 0 0 0 0 98 99 99 98 98 95 100 99 100 100 100 99 100 101 102 102 103 103 105 106 105 103 104 102 102 102 102 101 102 102 102 100 103 103 102 101 102 99 98 98 99 98 99 97 100 99 100 103 100 100 101 101 101 101 101 101 94 100 100 100 100 99 99 98 98 99 101 101 102 103 105 101 103 102 103 102 102 101 101 100 102 99 101 100 101 101 101 101 102 102 102 102 102 100 100 99 98 101 98 99 100 99 100 100 101 101 94 101 99 100 101 99 101 100 101 102 102 102 101 100 101 102 102 101 100 100 101 101 100 100 99 100 101 101 100 99 98 100 100 100 100 100 101 102 101 101 102 101 100 99 99 98 99 99 97 93 94 95 95 96 97 95 95 102 103 103 103 103 103 103 103 103 102 103 103 103 104 106 106 107 107 108 106 107 108 108 107 108 111 109 109 109 109 108 108 109 108 105 105 100 98 99 101 101 104 -193 103 102 102 103 103 104 105 105 105 106 107 107 107 107 107 105 104 101 102 101 101 103 103 103 105 -193 -209 137 133 135 141 137 137 137 137 137 136 137 136 122 0 0 0 0 0
    0 0 0 0 0 0 0 0 0 0 0 0 0 0 0 0 0 0 0 0 0 0 0 0 0 0 0 0 0 0 0 0 0 0 0 0 0 0 0 0 0 0 0 0 0 0 0 0 0 0 0 0 0 0 0 0 0 0 0 0 0 0 0 0 0 0 0 0 0 98 98 98 97 98 94 100 99 101 100 100 100 100 101 101 102 103 103 105 106 105 103 103 102 102 101 101 101 101 101 101 99 102 102 102 100 101 98 97 98 98 97 98 96 99 99 100 104 101 101 102 101 102 101 101 101 94 100 101 100 100 100 99 98 98 99 101 101 102 104 105 102 103 103 103 103 102 101 101 101 102 99 101 100 102 101 102 101 102 102 103 102 103 101 101 100 99 101 99 100 100 99 100 100 101 101 94 102 99 99 101 99 100 100 101 101 101 101 100 100 101 102 101 101 100 100 101 101 100 100 99 100 101 101 100 99 99 101 101 101 101 100 101 102 101 101 102 100 100 99 99 98 99 99 97 94 95 97 97 98 98 96 96 103 104 104 104 104 104 104 104 104 104 105 104 105 106 107 107 108 109 109 108 109 109 109 108 109 112 109 109 109 109 108 108 109 109 106 106 102 100 101 101 102 104 103 103 103 103 103 104 105 106 105 106 107 108 108 108 107 107 106 107 104 105 104 104 105 104 104 108 -193 -209 135 130 135 141 137 137 138 137 137 136 137 137 124 0 0 0 0 0
    0 0 0 0 0 0 0 0 0 0 0 0 0 0 0 0 0 0 0 0 0 0 0 0 0 0 0 0 0 0 0 0 0 0 0 0 0 0 0 0 0 0 0 0 0 0 0 0 0 0 0 0 0 0 0 0 0 0 0 0 0 0 0 0 0 0 0 0 0 98 97 97 96 98 94 99 99 100 100 100 100 101 101 101 102 104 104 105 105 105 103 103 102 101 100 101 100 101 100 100 98 101 101 101 100 101 98 96 97 98 97 98 97 99 99 100 104 101 101 102 102 102 102 102 102 94 101 101 101 101 100 100 99 99 100 101 101 102 104 105 102 104 103 103 103 102 102 101 101 102 99 102 101 102 102 102 102 103 102 103 103 103 101 101 100 99 102 99 100 100 99 100 99 100 100 93 101 97 99 101 99 100 100 101 101 101 101 101 100 102 102 102 101 101 101 101 101 100 100 98 100 100 100 100 99 99 101 102 101 101 100 101 102 100 102 102 100 100 99 99 98 98 99 97 94 96 97 98 98 99 97 98 103 108 105 105 105 105 105 105 105 105 105 105 105 106 107 107 109 109 110 109 110 110 111 110 111 114 109 110 109 109 108 108 109 109 106 108 105 -193 104 102 103 105 103 103 102 103 103 106 107 107 107 108 108 109 109 109 108 108 108 109 107 109 107 108 108 108 108 111 115 120 132 129 134 141 137 137 137 137 137 137 138 138 128 0 0 0 0 0
    0 0 0 0 0 0 0 0 0 0 0 0 0 0 0 0 0 0 0 0 0 0 0 0 0 0 0 0 0 0 0 0 0 0 0 0 0 0 0 0 0 0 0 0 0 0 0 0 0 0 0 0 0 0 0 0 0 0 0 0 0 0 0 0 0 0 0 0 0 98 96 97 95 98 94 98 98 100 100 100 100 101 101 101 103 104 103 106 105 105 103 103 101 101 100 100 100 101 100 99 99 101 101 101 100 101 99 98 99 99 99 99 98 100 100 101 104 102 101 102 103 103 103 103 103 95 102 103 103 103 102 101 100 101 101 101 100 101 102 104 102 104 102 103 103 102 102 102 102 103 100 103 102 104 104 104 103 104 104 104 104 105 102 102 101 100 102 99 100 100 99 100 99 100 100 93 101 98 99 101 100 101 101 102 102 102 102 101 101 102 102 102 101 101 101 102 101 101 100 98 100 100 100 100 99 99 101 102 101 101 101 101 102 100 102 101 100 99 99 99 99 99 99 97 95 97 98 99 99 99 98 100 103 111 106 106 107 107 106 106 106 106 105 105 106 106 106 107 109 109 111 110 110 111 112 111 112 114 109 109 109 109 108 109 109 111 108 111 109 114 112 110 108 107 104 103 104 103 105 107 109 109 109 109 109 110 109 109 109 108 109 110 109 110 109 109 110 110 110 112 116 120 -193 130 135 142 137 137 138 138 137 137 138 138 130 0 0 0 0 0
    0 0 0 0 0 0 0 0 0 0 0 0 0 0 0 0 0 0 0 0 0 0 0 0 0 0 0 0 0 0 0 0 0 0 0 0 0 0 0 0 0 0 0 0 0 0 0 0 0 0 0 0 0 0 0 0 0 0 0 0 0 0 0 0 0 0 0 0 0 99 98 97 95 98 94 98 99 100 100 100 100 101 101 103 104 105 105 108 106 106 104 103 102 101 101 101 100 101 101 99 99 101 100 101 100 101 99 98 99 100 99 99 98 100 100 101 104 102 102 103 104 104 104 104 104 98 105 106 105 105 104 103 103 103 103 102 101 101 101 103 102 104 103 103 103 103 103 103 103 104 100 103 102 104 105 105 105 106 106 107 107 107 104 104 103 102 103 101 101 101 100 101 100 100 100 93 102 99 100 102 100 102 101 102 102 102 102 102 101 103 103 103 102 102 102 103 103 102 101 101 102 102 102 102 101 100 101 102 102 102 101 102 103 100 102 101 100 100 99 99 99 99 100 97 96 99 100 100 100 100 98 100 104 112 106 106 107 108 106 106 106 106 105 106 106 106 106 107 110 109 111 110 111 112 112 110 112 114 109 109 109 109 109 109 110 111 108 112 111 114 112 112 110 108 105 105 106 105 106 108 110 112 110 110 108 109 108 109 109 109 109 110 109 111 109 110 111 110 111 113 118 -209 -193 128 135 142 137 137 138 138 137 137 138 138 131 0 0 0 0 0
    0 0 0 0 0 0 0 0 0 0 0 0 0 0 0 0 0 0 0 0 0 0 0 0 0 0 0 0 0 0 0 0 0 0 0 0 0 0 0 0 0 0 0 0 0 0 0 0 0 0 0 0 0 0 0 0 0 0 0 0 0 0 0 0 0 0 0 0 0 102 100 99 96 99 96 100 101 102 101 101 102 102 103 105 106 107 107 109 108 107 105 104 103 102 101 101 100 101 101 99 100 101 100 101 100 101 99 99 -193 -193 101 101 100 102 102 103 105 103 103 104 105 105 105 105 105 100 106 108 107 106 106 105 105 106 105 104 102 103 103 104 103 106 104 105 105 105 105 104 104 105 101 104 103 106 105 107 106 108 107 108 109 108 106 106 106 105 104 103 103 103 103 103 102 102 102 98 105 102 102 103 102 102 102 103 103 103 103 103 103 105 104 104 104 104 103 104 105 104 103 104 104 105 105 105 104 102 103 104 104 105 102 103 104 102 103 102 100 100 99 99 100 100 100 99 98 101 103 103 102 103 102 104 106 113 107 106 107 108 107 106 106 106 105 106 107 107 107 108 111 110 111 111 111 111 112 110 111 113 109 109 108 109 109 109 111 112 109 112 111 114 113 113 112 109 106 -193 106 104 105 106 108 111 109 110 108 110 108 109 109 109 110 112 110 112 110 111 112 111 112 114 118 -209 -193 126 134 141 137 138 138 138 138 138 139 139 132 0 0 0 0 0
    0 0 0 0 0 0 0 0 0 0 0 0 0 0 0 0 0 0 0 0 0 0 0 0 0 0 0 0 0 0 0 0 0 0 0 0 0 0 0 0 0 0 0 0 0 0 0 0 0 0 0 0 0 0 0 0 0 0 0 0 0 0 0 0 0 0 0 0 0 105 103 102 99 100 99 103 104 104 103 103 104 106 106 110 109 110 110 111 110 109 107 105 104 103 102 101 101 102 101 100 102 101 100 101 100 102 99 100 -193 -193 103 103 103 104 104 105 107 105 105 105 106 106 107 106 106 103 107 109 108 107 108 107 107 108 108 106 105 105 105 105 104 109 106 106 106 106 106 106 106 106 102 104 104 107 106 107 107 108 108 109 109 108 107 108 107 106 106 104 105 104 105 105 105 103 104 103 106 105 104 104 103 103 103 104 104 105 105 106 105 107 106 106 106 105 105 106 106 107 105 106 106 108 108 108 107 105 104 105 105 106 103 104 105 104 105 103 101 101 100 100 100 101 101 100 101 103 105 106 106 107 106 109 110 113 108 107 108 109 107 107 107 106 106 107 108 108 107 108 111 110 112 111 111 110 112 110 111 113 109 109 108 109 109 108 111 112 109 112 112 114 113 113 113 110 108 -193 109 107 107 107 108 110 108 110 107 110 108 109 109 109 111 113 111 113 111 112 113 112 114 115 118 121 124 125 134 140 137 137 138 138 138 138 139 139 133 0 0 0 0 0
    0 0 0 0 0 0 0 0 0 0 0 0 0 0 0 0 0 0 0 0 0 0 0 0 0 0 0 0 0 0 0 0 0 0 0 0 0 0 0 0 0 0 0 0 0 0 0 0 0 0 0 0 0 0 0 0 0 0 0 0 0 0 0 0 0 0 0 0 0 107 106 105 104 104 104 107 107 106 104 105 106 108 108 112 111 113 112 113 112 111 109 107 106 105 103 103 102 103 103 101 104 103 103 103 102 103 100 101 -193 -193 104 104 104 105 106 106 108 106 106 106 108 108 108 107 108 106 108 111 110 109 110 109 109 109 109 108 107 107 107 106 106 111 108 107 107 108 107 107 107 108 104 106 106 108 107 109 108 109 109 109 109 109 107 109 108 108 107 106 106 106 107 107 106 105 106 106 108 108 107 107 106 105 105 105 106 107 107 108 107 110 109 109 109 107 106 107 108 110 107 108 108 110 110 110 110 106 104 105 106 107 104 105 106 106 107 104 102 102 101 101 101 101 102 101 103 105 107 108 108 110 108 111 112 113 109 109 109 111 109 108 108 107 107 108 109 108 107 108 111 111 112 111 111 109 112 111 111 113 109 109 108 109 109 109 113 112 110 113 113 115 114 114 115 112 111 -193 113 111 110 110 111 111 109 110 108 111 108 108 109 109 112 113 112 113 111 113 114 113 115 115 118 120 124 124 133 138 136 137 137 138 138 138 139 139 134 0 0 0 0 0
    0 0 0 0 0 0 0 0 0 0 0 0 0 0 0 0 0 0 0 0 0 0 0 0 0 0 0 0 0 0 0 0 0 0 0 0 0 0 0 0 0 0 0 0 0 0 0 0 0 0 0 0 0 0 0 0 0 0 0 0 0 0 0 0 0 0 0 0 0 108 108 107 108 108 108 110 110 108 107 107 108 109 110 113 112 115 113 114 113 112 111 108 107 106 104 104 104 104 104 104 105 105 105 106 103 104 103 103 -193 104 105 105 105 106 107 107 109 108 108 108 110 110 109 108 109 108 110 112 111 110 112 110 110 110 110 109 108 109 109 107 106 112 109 108 108 108 108 108 108 109 105 107 108 109 108 111 109 110 110 109 110 109 108 109 109 108 108 107 107 107 109 109 108 107 109 109 111 112 110 109 108 108 108 106 109 109 109 110 109 111 110 110 110 108 108 108 110 113 110 110 110 112 111 110 111 108 105 106 107 108 106 107 108 108 109 105 103 103 102 103 103 103 103 102 106 107 108 109 110 111 110 112 112 112 109 109 110 111 109 108 108 108 107 108 110 109 108 109 111 110 112 111 112 110 113 113 114 115 111 112 111 112 111 111 115 113 112 114 114 115 114 115 115 114 114 117 116 114 113 112 114 112 110 111 110 112 109 110 111 110 114 114 113 114 112 114 114 112 115 116 118 121 126 126 133 136 136 137 137 138 137 137 138 138 134 0 0 0 0 0
    0 0 0 0 0 0 0 0 0 0 0 0 0 0 0 0 0 0 0 0 0 0 0 0 0 0 0 0 0 0 0 0 0 0 0 0 0 0 0 0 0 0 0 0 0 0 0 0 0 0 0 0 0 0 0 0 0 0 0 0 0 0 0 0 0 0 0 0 0 109 110 110 112 111 113 114 112 110 110 110 110 111 113 114 113 116 114 114 113 112 111 109 108 107 105 106 105 105 106 105 107 107 107 107 105 105 105 104 105 105 106 106 106 108 109 108 110 109 109 109 111 111 110 109 110 109 110 113 112 110 113 112 111 111 110 108 108 109 110 107 106 113 109 109 109 109 109 108 109 110 106 108 109 110 110 113 110 111 112 110 111 110 109 110 109 109 109 107 107 109 111 111 110 109 112 110 113 113 111 111 110 110 110 108 112 111 110 111 110 112 111 111 112 109 109 109 111 115 111 112 112 113 112 111 112 109 106 107 108 108 107 108 108 107 109 106 104 103 103 104 104 104 104 104 108 109 109 110 111 111 110 112 113 111 110 110 110 111 110 108 108 108 108 108 110 109 108 109 112 111 112 112 113 111 114 116 116 117 115 116 116 116 115 114 117 114 113 114 114 115 114 115 115 114 115 118 117 116 116 116 116 114 112 111 110 112 108 110 112 110 114 114 113 114 113 115 115 113 116 118 120 123 129 128 134 136 136 137 137 138 137 137 138 138 134 0 0 0 0 0
    0 0 0 0 0 0 0 0 0 0 0 0 0 0 0 0 0 0 0 0 0 0 0 0 0 0 0 0 0 0 0 0 0 0 0 0 0 0 0 0 0 0 0 0 0 0 0 0 0 0 0 0 0 0 0 0 0 0 0 0 0 0 0 0 0 0 0 0 0 110 111 111 113 114 115 115 113 112 111 112 112 113 115 114 114 116 114 114 113 112 112 111 110 109 107 109 107 107 108 107 108 109 109 108 107 107 107 106 107 107 108 107 107 109 110 109 110 110 109 109 112 111 110 109 111 110 110 113 112 111 114 113 112 111 110 108 108 109 109 107 106 113 109 110 110 110 110 109 110 111 107 109 111 111 111 114 111 112 113 111 111 110 110 110 109 111 110 109 109 112 114 113 113 112 114 112 114 115 113 112 112 112 113 111 114 113 112 113 112 113 112 112 113 111 111 111 113 116 113 113 113 114 113 112 112 109 106 107 108 108 107 108 108 108 111 108 106 105 105 105 105 106 106 106 110 110 110 112 112 112 111 113 113 110 111 111 110 111 110 109 109 108 108 108 110 110 108 109 112 111 113 113 114 112 113 116 117 118 117 118 119 120 120 119 119 116 114 115 115 115 114 114 116 115 116 119 118 118 117 117 117 114 111 111 109 111 108 110 112 110 114 113 113 114 113 115 114 113 116 118 120 124 131 131 135 137 137 137 137 138 137 137 137 137 133 0 0 0 0 0
    0 0 0 0 0 0 0 0 0 0 0 0 0 0 0 0 0 0 0 0 0 0 0 0 0 0 0 0 0 0 0 0 0 0 0 0 0 0 0 0 0 0 0 0 0 0 0 0 0 0 0 0 0 0 0 0 0 0 0 0 0 0 0 0 0 0 0 0 0 111 111 111 113 115 115 115 113 112 112 113 113 113 115 114 113 116 114 114 113 113 113 112 111 111 109 113 110 110 111 110 110 111 112 110 108 108 108 107 108 108 109 107 107 110 111 109 110 110 110 109 112 112 110 109 112 111 111 113 112 111 113 112 111 109 108 107 107 108 108 107 106 114 110 110 111 112 111 110 111 112 108 110 112 111 112 115 112 113 113 112 112 111 111 110 109 112 111 110 110 114 115 114 114 114 115 114 115 115 114 112 114 114 115 112 115 114 113 113 113 113 113 113 114 111 112 112 114 116 113 114 114 114 113 112 113 109 106 108 108 108 107 108 108 109 112 110 108 107 107 107 108 109 108 108 113 111 112 113 113 113 112 113 113 110 111 111 111 112 110 109 109 109 109 109 112 111 109 110 113 112 114 113 114 111 111 115 117 118 117 118 120 121 121 121 121 117 115 114 115 114 113 114 115 115 117 119 118 118 118 117 117 114 110 109 108 109 107 108 111 110 114 114 114 115 114 115 114 113 116 118 121 126 131 132 136 137 137 137 138 138 137 137 137 137 133 0 0 0 0 0
    0 0 0 0 0 0 0 0 0 0 0 0 0 0 0 0 0 0 0 0 0 0 0 0 0 0 0 0 0 0 0 0 0 0 0 0 0 0 0 0 0 0 0 0 0 0 0 0 0 0 0 0 0 0 0 0 0 0 0 0 0 0 0 0 0 0 0 0 0 111 112 111 113 115 116 115 114 112 112 113 113 114 114 113 112 116 114 114 113 113 113 113 113 113 111 116 114 114 114 113 113 113 114 112 108 108 109 107 108 107 108 107 107 110 111 110 110 111 110 110 112 112 110 109 112 112 110 113 113 111 113 111 111 109 107 107 107 108 108 107 107 114 111 111 112 113 112 111 111 113 108 111 112 111 112 115 112 112 113 112 112 111 111 110 110 112 112 110 111 115 116 115 115 114 115 115 116 116 114 112 114 113 115 112 115 114 113 113 112 113 113 112 113 110 111 110 113 116 112 113 114 113 113 111 112 109 106 107 107 107 106 108 109 110 112 111 111 109 110 109 110 111 111 110 115 112 113 114 114 113 113 113 113 110 113 112 111 112 111 111 111 110 110 110 114 113 110 111 113 112 114 113 113 111 111 115 117 118 118 118 120 122 122 122 121 117 115 115 115 114 114 114 116 117 118 119 119 118 118 119 118 115 111 110 108 109 107 108 111 110 115 114 115 117 115 116 115 114 117 120 123 126 131 132 135 136 136 137 137 138 137 137 137 136 134 0 0 0 0 0
    0 0 0 0 0 0 0 0 0 0 0 0 0 0 0 0 0 0 0 0 0 0 0 0 0 0 0 0 0 0 0 0 0 0 0 0 0 0 0 0 0 0 0 0 0 0 0 0 0 0 0 0 0 0 0 0 0 0 0 0 0 0 0 0 0 0 0 0 0 111 112 111 113 116 116 115 113 112 112 113 113 113 114 112 110 115 113 113 113 113 113 113 114 114 112 117 115 114 115 114 114 114 114 112 109 109 110 107 108 107 109 108 108 112 112 110 110 111 110 110 111 111 110 109 112 112 109 111 111 109 112 110 110 109 107 108 108 110 111 109 108 115 112 112 112 113 112 111 111 113 108 110 111 110 111 114 112 112 113 112 112 111 111 110 110 112 112 110 110 115 115 115 115 114 115 114 115 116 114 112 114 113 115 112 115 113 113 112 112 112 113 112 112 109 110 109 112 114 111 111 112 112 111 110 111 108 106 107 107 106 105 107 109 111 114 112 113 111 112 112 113 113 112 112 116 112 113 114 114 113 113 114 113 110 114 114 113 113 113 113 112 112 113 111 116 114 111 111 112 112 114 114 114 111 112 116 118 118 118 118 120 122 122 122 121 117 116 115 115 115 115 116 118 119 120 121 120 119 120 120 119 117 114 112 109 110 109 109 111 110 114 114 116 118 116 118 116 115 118 121 125 128 131 133 135 136 136 137 137 137 137 137 137 136 134 0 0 0 0 0
    0 0 0 0 0 0 0 0 0 0 0 0 0 0 0 0 0 0 0 0 0 0 0 0 0 0 0 0 0 0 0 0 0 0 0 0 0 0 0 0 0 0 0 0 0 0 0 0 0 0 0 0 0 0 0 0 0 0 0 0 0 0 0 0 0 0 0 0 0 111 112 111 113 117 117 115 113 112 112 114 114 113 113 112 110 115 113 113 112 113 113 113 114 115 112 117 116 115 116 115 114 114 113 111 109 108 109 106 106 106 108 108 109 112 113 110 110 112 110 109 111 110 109 108 111 111 108 110 111 109 112 111 112 110 107 108 110 112 113 111 109 115 112 112 112 112 112 111 111 113 108 110 111 110 112 114 112 111 113 112 112 111 111 110 109 111 111 110 109 114 115 114 114 114 115 114 115 115 114 112 114 114 115 112 115 113 113 112 112 112 113 111 112 109 109 108 111 113 111 110 112 111 111 110 110 107 105 106 106 106 105 107 108 110 112 112 112 111 112 112 114 113 113 113 116 113 113 113 114 113 113 113 113 110 114 114 114 114 115 114 114 113 114 112 116 114 111 111 112 113 114 114 114 112 112 117 118 119 119 119 120 122 123 123 122 118 117 118 118 117 117 118 120 122 122 122 121 121 121 121 120 118 116 113 110 112 112 112 113 110 114 114 117 119 118 119 116 116 119 123 127 130 132 133 135 135 136 136 137 137 137 137 137 135 134 0 0 0 0 0
    0 0 0 0 0 0 0 0 0 0 0 0 0 0 0 0 0 0 0 0 0 0 0 0 0 0 0 0 0 0 0 0 0 0 0 0 0 0 0 0 0 0 0 0 0 0 0 0 0 0 0 0 0 0 0 0 0 0 0 0 0 0 0 0 0 0 0 0 0 111 112 111 113 118 117 115 113 112 112 114 114 113 114 112 110 115 112 113 112 112 112 113 113 115 113 118 117 116 117 117 116 116 115 112 109 108 109 106 106 106 106 107 108 112 113 109 110 112 110 110 110 110 109 108 111 112 108 111 112 110 115 115 117 115 -209 109 111 114 113 111 108 115 112 112 112 112 111 111 111 113 108 110 111 110 113 114 112 111 113 113 112 111 111 109 109 110 111 109 108 114 114 113 114 114 114 114 115 115 113 112 114 114 115 113 115 113 113 113 113 112 113 112 112 109 110 108 111 113 110 110 111 111 111 109 110 107 105 105 104 105 105 106 107 108 110 111 112 111 112 112 114 113 113 114 116 113 113 113 113 112 112 113 112 110 114 114 113 114 116 115 115 114 115 113 116 115 112 111 112 113 115 115 115 113 114 118 119 120 120 119 121 122 123 124 123 121 121 122 121 121 120 121 122 123 122 122 121 120 121 121 120 118 116 115 112 115 116 115 116 111 115 114 118 121 119 120 117 117 119 125 130 131 133 134 136 135 136 136 137 137 137 137 137 135 135 0 0 0 0 0
    0 0 0 0 0 0 0 0 0 0 0 0 0 0 0 0 0 0 0 0 0 0 0 0 0 0 0 0 0 0 0 0 0 0 0 0 0 0 0 0 0 0 0 0 0 0 0 0 0 0 0 0 0 0 0 0 0 0 0 0 0 0 0 0 0 0 0 0 0 111 112 111 113 119 118 116 112 111 111 114 114 114 114 112 110 115 112 113 111 111 111 112 113 115 114 119 118 117 118 118 117 117 115 112 109 108 109 105 104 104 104 105 106 112 114 109 110 113 111 110 110 110 109 108 110 111 107 109 110 109 113 118 -209 -209 -209 112 -193 -209 113 110 108 115 112 112 111 111 111 111 111 112 108 109 110 109 113 113 112 111 113 113 112 111 111 109 108 110 110 109 108 114 114 113 114 114 114 114 114 115 113 112 114 114 115 113 115 113 113 113 113 113 114 112 113 109 111 108 111 112 110 109 111 110 110 109 109 107 104 104 103 103 104 105 106 107 107 109 110 110 111 112 114 114 113 115 116 113 113 114 113 112 112 113 112 109 113 112 112 113 115 115 114 114 114 112 117 115 112 111 112 113 115 116 115 114 116 120 121 121 121 121 122 124 126 126 125 123 123 124 124 124 123 122 122 123 122 121 121 120 121 121 120 119 118 119 117 119 121 121 120 117 118 116 119 121 120 121 118 118 119 126 131 131 132 134 135 135 136 137 137 137 137 137 137 135 135 0 0 0 0 0
    0 0 0 0 0 0 0 0 0 0 0 0 0 0 0 0 0 0 0 0 0 0 0 0 0 0 0 0 0 0 0 0 0 0 0 0 0 0 0 0 0 0 0 0 0 0 0 0 0 0 0 0 0 0 0 0 0 0 0 0 0 0 0 0 0 0 0 0 0 112 112 112 113 121 119 117 113 112 111 115 115 114 114 113 110 115 112 113 111 110 110 112 112 116 114 119 118 118 118 118 117 117 115 112 109 108 109 -193 104 103 103 105 106 112 114 109 110 113 111 110 110 110 109 107 110 110 107 109 109 107 111 -209 -209 -209 -209 -209 -209 -193 112 110 107 115 112 112 111 111 111 111 111 112 108 109 109 109 113 113 112 111 113 113 112 112 111 109 109 110 111 109 108 114 114 113 114 113 113 113 114 115 113 111 113 113 114 113 115 113 113 113 114 114 114 113 113 110 112 108 111 111 109 109 110 109 109 108 108 106 104 104 102 103 104 105 106 106 105 107 108 108 109 112 114 113 112 115 116 113 113 113 113 112 112 113 111 109 113 112 112 113 116 116 115 114 115 114 117 115 112 111 113 114 116 116 116 114 117 120 122 122 122 121 122 124 128 127 127 123 123 124 125 125 124 123 122 122 122 122 121 121 121 121 121 120 119 121 119 121 122 122 121 121 121 120 121 123 122 122 119 120 120 125 131 131 132 134 135 136 136 136 137 136 137 137 137 135 134 0 0 0 0 0
    0 0 0 0 0 0 0 0 0 0 0 0 0 0 0 0 0 0 0 0 0 0 0 0 0 0 0 0 0 0 0 0 0 0 0 0 0 0 0 0 0 0 0 0 0 0 0 0 0 0 0 0 0 0 0 0 0 0 0 0 0 0 0 0 0 0 0 0 0 112 112 112 113 122 122 118 113 113 112 116 116 115 114 114 110 115 112 113 111 110 109 111 112 116 115 119 118 118 119 118 118 117 116 113 109 108 109 -193 105 105 103 105 106 112 115 109 110 113 110 110 110 110 109 107 109 110 106 108 109 107 111 -209 -209 -209 -209 -209 -209 -193 -209 113 108 115 112 112 111 111 111 112 112 113 108 109 110 109 113 113 111 110 112 113 111 111 111 109 109 111 111 109 108 114 114 113 113 113 112 113 114 115 112 111 113 112 113 113 114 112 113 113 114 114 115 113 114 110 113 108 111 110 108 108 109 108 108 107 107 105 103 104 103 104 105 106 107 108 107 108 108 108 109 113 115 113 112 115 115 113 113 113 113 112 112 113 111 110 113 113 113 115 117 117 116 -193 116 115 118 115 112 112 113 115 116 116 115 114 117 120 121 121 121 121 122 125 130 127 128 124 124 125 125 125 125 123 123 122 122 121 121 121 121 121 120 119 119 121 121 122 123 123 123 123 124 123 123 125 124 123 121 122 121 125 132 132 132 134 136 136 136 136 136 136 136 136 136 134 133 0 0 0 0 0
    0 0 0 0 0 0 0 0 0 0 0 0 0 0 0 0 0 0 0 0 0 0 0 0 0 0 0 0 0 0 0 0 0 0 0 0 0 0 0 0 0 0 0 0 0 0 0 0 0 0 0 0 0 0 0 0 0 0 0 0 0 0 0 0 0 0 0 0 0 113 114 115 116 123 124 120 116 118 116 118 118 116 116 116 112 115 112 113 111 109 109 111 112 116 115 120 119 119 120 119 119 118 117 115 -193 107 -193 -193 106 106 102 104 104 111 117 110 110 113 110 111 111 110 109 107 110 110 107 109 113 -209 -209 132 133 135 -193 134 136 135 134 121 110 117 113 113 112 112 112 112 113 114 108 110 110 110 114 113 112 110 112 113 111 111 111 108 109 110 110 109 108 113 114 112 113 113 113 113 114 115 112 111 114 114 114 114 114 112 113 114 114 114 114 113 113 110 113 108 111 110 108 108 109 108 108 107 108 106 104 -193 104 105 107 107 110 112 111 113 114 113 114 117 117 115 113 116 115 113 113 113 113 112 113 113 111 110 114 115 117 118 119 119 119 -193 119 119 119 116 112 113 113 115 116 116 115 114 117 120 121 122 122 121 122 126 130 127 129 125 125 125 126 126 126 124 124 123 122 121 122 121 121 121 120 120 120 122 122 123 123 124 123 123 124 123 124 125 125 126 123 123 122 127 133 132 132 134 135 135 136 136 136 135 136 136 136 134 134 0 0 0 0 0
    0 0 0 0 0 0 0 0 0 0 0 0 0 0 0 0 0 0 0 0 0 0 0 0 0 0 0 0 0 0 0 0 0 0 0 0 0 0 0 0 0 0 0 0 0 0 0 0 0 0 0 0 0 0 0 0 0 0 0 0 0 0 0 0 0 0 0 0 0 116 117 118 121 125 126 123 120 125 122 123 122 120 120 122 116 116 112 114 111 109 109 111 112 117 -193 121 120 119 121 120 -193 119 118 -193 -209 107 -193 -193 108 -209 -209 -209 -209 -193 -193 111 112 114 110 111 111 110 109 107 111 112 -193 114 119 124 126 131 133 133 134 133 136 135 135 132 119 120 116 115 114 114 115 115 115 116 108 114 115 116 117 114 113 111 113 113 111 110 110 108 110 111 111 110 109 115 115 113 114 114 114 115 115 116 114 113 117 117 117 115 115 113 114 115 114 114 115 114 114 112 116 109 113 111 109 109 110 109 108 107 109 108 109 -193 118 113 114 113 116 118 117 117 119 118 119 119 120 118 113 116 115 112 113 112 112 112 113 114 112 112 117 -193 123 124 125 125 123 -193 123 123 122 117 113 113 114 116 116 117 116 115 118 121 122 123 122 122 123 126 132 128 130 127 128 128 128 128 127 125 126 123 123 122 122 122 122 121 121 121 121 123 123 123 124 124 123 123 124 123 124 123 125 125 123 124 123 128 134 132 132 134 135 135 135 135 136 135 136 136 136 135 135 0 0 0 0 0
    0 0 0 0 0 0 0 0 0 0 0 0 0 0 0 0 0 0 0 0 0 0 0 0 0 0 0 0 0 0 0 0 0 0 0 0 0 0 0 0 0 0 0 0 0 0 0 0 0 0 0 0 0 0 0 0 0 0 0 0 0 0 0 0 0 0 0 0 0 121 123 124 124 127 128 128 125 129 125 125 126 125 124 126 121 120 114 116 113 110 110 111 113 118 -209 121 122 121 123 -193 -193 -193 120 -193 -209 -193 -193 110 -193 -209 -193 -209 -209 -209 125 115 115 116 110 112 112 110 109 107 113 115 -193 -193 121 125 125 129 130 130 132 131 134 134 132 131 123 123 119 117 116 116 117 118 119 120 114 120 -193 122 120 117 115 113 115 115 112 111 113 110 114 116 116 -193 114 118 117 115 116 115 116 117 117 118 116 117 120 120 120 118 117 115 116 117 116 116 116 116 116 116 120 117 119 116 113 113 114 112 112 111 115 116 120 122 122 121 119 118 119 121 119 120 121 121 121 122 122 120 115 117 115 112 112 112 113 113 114 116 115 117 121 123 127 126 128 128 125 125 125 126 124 119 116 115 115 116 117 117 117 116 119 122 123 124 124 123 125 128 132 129 131 128 129 128 129 127 128 125 126 124 124 123 124 123 123 122 122 122 122 124 124 125 125 125 125 124 124 123 125 124 124 124 123 124 124 130 134 132 132 134 135 135 135 135 135 135 136 136 136 134 135 0 0 0 0 0
    0 0 0 0 0 0 0 0 0 0 0 0 0 0 0 0 0 0 0 0 0 0 0 0 0 0 0 0 0 0 0 0 0 0 0 0 0 0 0 0 0 0 0 0 0 0 0 0 0 0 0 0 0 0 0 0 0 0 0 0 0 0 0 0 0 0 0 0 0 127 127 127 126 128 129 130 128 131 128 127 129 129 128 129 126 126 118 119 116 112 113 112 114 119 -209 123 125 124 126 125 126 126 125 125 -193 -209 -209 -209 -209 -209 -193 -209 -193 -209 129 -209 -209 121 116 116 115 113 111 108 116 118 -193 121 123 125 125 128 129 128 131 130 134 133 132 132 126 126 123 120 119 119 120 122 122 123 121 122 124 123 122 120 118 117 119 118 116 115 118 118 119 122 122 -193 120 121 120 118 118 117 118 119 119 119 119 119 121 121 122 119 119 117 118 119 119 118 118 118 120 120 122 122 122 119 116 117 118 117 119 119 119 122 123 124 125 124 122 121 121 123 121 122 123 123 123 124 125 123 -193 121 116 -193 -193 -193 -193 115 116 118 -193 120 122 123 130 127 128 130 126 127 127 128 126 121 118 117 116 117 117 118 117 117 120 123 124 125 125 124 127 128 132 129 131 129 129 129 129 127 128 125 126 123 124 123 124 123 123 122 123 123 124 126 126 126 127 127 126 125 126 124 126 125 126 124 123 124 124 131 134 132 132 134 135 135 135 135 135 134 135 135 135 133 134 0 0 0 0 0
    0 0 0 0 0 0 0 0 0 0 0 0 0 0 0 0 0 0 0 0 0 0 0 0 0 0 0 0 0 0 0 0 0 0 0 0 0 0 0 0 0 0 0 0 0 0 0 0 0 0 0 0 0 0 0 0 0 0 0 0 0 0 0 0 0 0 0 0 0 129 128 128 127 128 129 130 129 131 128 128 130 130 129 130 128 129 121 123 123 116 118 119 117 121 -209 123 125 125 127 126 128 128 127 127 129 -193 -209 -193 -193 -193 -193 -193 -193 -193 130 131 126 126 125 121 120 119 117 115 120 122 127 124 125 127 127 129 130 128 131 128 133 133 131 131 127 128 127 123 123 123 123 125 125 125 124 124 126 125 125 125 122 121 125 124 122 121 127 128 125 127 127 126 126 126 125 122 121 120 121 121 121 121 120 121 122 122 123 120 120 119 120 122 122 122 122 123 125 124 126 127 125 126 121 121 122 121 123 124 123 127 125 126 126 126 125 124 124 125 123 124 126 125 125 126 127 126 128 125 -209 -193 -193 -193 -209 -209 120 -193 -193 122 123 124 131 127 128 130 127 128 129 129 128 123 121 119 117 118 118 118 118 118 121 123 125 125 126 125 128 128 131 130 130 129 129 128 128 127 128 125 125 123 124 122 124 123 124 123 125 126 127 127 127 127 128 127 126 125 126 124 127 126 128 125 125 125 128 132 134 133 133 135 136 136 136 136 136 135 136 136 135 133 133 0 0 0 0 0
    0 0 0 0 0 0 0 0 0 0 0 0 0 0 0 0 0 0 0 0 0 0 0 0 0 0 0 0 0 0 0 0 0 0 0 0 0 0 0 0 0 0 0 0 0 0 0 0 0 0 0 0 0 0 0 0 0 0 0 0 0 0 0 0 0 0 0 0 0 130 129 128 127 129 129 130 128 131 128 128 130 129 129 129 127 128 123 126 126 120 122 123 121 123 123 124 126 126 127 126 128 127 127 127 129 -193 -193 -193 130 130 133 131 130 131 131 132 129 129 130 125 124 125 122 121 124 125 130 125 126 128 127 129 129 127 130 127 132 131 130 131 128 130 129 125 126 126 126 128 128 128 126 126 129 127 128 129 126 127 131 128 129 126 130 131 128 130 129 129 129 128 128 126 123 123 124 124 123 123 123 123 124 124 124 123 123 123 123 126 126 126 127 130 131 130 131 131 129 131 126 125 125 124 125 127 125 130 127 127 127 127 126 126 126 127 124 126 128 126 126 127 128 127 130 129 133 -193 -209 -209 -193 126 125 125 124 124 125 126 132 127 129 131 128 129 130 130 130 125 125 122 119 120 118 119 119 119 121 124 125 126 126 126 129 127 131 129 130 129 129 128 128 126 127 125 125 123 124 123 126 126 128 132 132 131 129 127 128 126 127 126 125 124 125 123 126 126 127 125 125 126 129 133 134 133 133 136 137 136 137 136 136 135 136 136 135 133 133 0 0 0 0 0
    0 0 0 0 0 0 0 0 0 0 0 0 0 0 0 0 0 0 0 0 0 0 0 0 0 0 0 0 0 0 0 0 0 0 0 0 0 0 0 0 0 0 0 0 0 0 0 0 0 0 0 0 0 0 0 0 0 0 0 0 0 0 0 0 0 0 0 0 0 131 129 129 128 129 129 130 129 132 129 128 129 129 128 128 127 128 123 125 127 122 123 124 123 125 124 125 127 127 128 127 127 126 126 127 127 126 125 127 128 130 133 132 131 132 131 132 131 131 132 127 127 128 125 124 126 126 131 125 127 127 127 128 128 126 129 126 131 129 129 131 130 131 131 128 130 129 129 131 130 130 128 128 130 128 130 131 128 130 131 128 128 126 129 129 127 129 129 129 129 129 128 128 125 126 127 126 125 125 125 125 125 126 125 124 125 125 126 128 128 128 129 131 132 131 131 130 129 131 128 130 127 127 127 130 128 132 128 128 128 128 127 127 127 128 125 128 129 128 128 129 130 129 132 132 135 134 138 134 134 131 131 129 128 127 126 127 132 128 130 131 129 130 130 131 131 127 131 127 122 124 120 121 120 120 121 123 124 126 125 125 130 126 129 128 130 128 129 128 128 126 127 125 125 123 125 123 127 126 128 132 132 131 128 126 128 126 126 125 124 122 123 123 125 124 125 124 124 126 129 134 134 132 133 135 136 135 135 135 136 135 136 136 135 134 134 0 0 0 0 0
    0 0 0 0 0 0 0 0 0 0 0 0 0 0 0 0 0 0 0 0 0 0 0 0 0 0 0 0 0 0 0 0 0 0 0 0 0 0 0 0 0 0 0 0 0 0 0 0 0 0 0 0 0 0 0 0 0 0 0 0 0 0 0 0 0 0 0 0 0 131 129 129 128 129 130 131 129 132 129 128 129 130 129 129 127 128 124 126 128 124 124 124 123 126 125 126 128 128 128 127 126 126 125 126 126 126 124 126 127 129 133 132 131 132 132 133 132 133 133 128 128 129 125 123 125 125 130 125 126 127 126 127 127 126 128 125 129 128 127 130 130 132 131 129 131 130 130 131 130 130 128 129 130 128 129 131 128 130 131 128 128 126 128 129 127 129 128 128 129 129 129 129 127 128 129 128 127 127 127 126 125 126 126 125 125 126 127 128 129 129 130 131 132 132 130 130 128 130 128 130 128 129 128 131 129 133 130 129 129 130 128 129 128 129 125 129 130 129 130 130 132 131 133 133 135 135 137 135 135 132 132 131 130 128 126 128 132 128 130 131 129 130 130 131 131 128 132 131 125 130 125 128 126 124 123 123 123 125 124 125 131 126 128 128 129 128 129 129 128 125 128 126 126 125 126 124 127 126 129 133 132 129 126 125 127 125 125 123 122 121 122 121 124 122 123 123 123 124 129 134 134 131 133 134 135 135 135 135 135 135 136 136 136 134 135 0 0 0 0 0
    0 0 0 0 0 0 0 0 0 0 0 0 0 0 0 0 0 0 0 0 0 0 0 0 0 0 0 0 0 0 0 0 0 0 0 0 0 0 0 0 0 0 0 0 0 0 0 0 0 0 0 0 0 0 0 0 0 0 0 0 0 0 0 0 0 0 0 0 0 131 130 130 129 130 131 131 130 132 129 128 130 130 129 129 128 129 125 127 129 126 125 126 123 127 126 126 126 127 128 126 126 125 125 126 126 126 124 126 127 128 132 131 131 133 132 133 133 133 134 130 130 130 126 124 125 125 130 125 126 126 126 126 126 125 127 124 128 127 127 130 131 132 131 129 131 130 130 131 130 129 128 128 129 127 128 131 127 130 130 127 127 126 128 129 127 128 127 129 130 130 130 130 128 129 130 130 129 128 128 127 126 127 126 125 125 126 127 127 128 129 129 131 130 131 129 129 128 129 128 129 127 129 128 131 130 133 130 130 130 130 129 129 128 128 126 128 130 130 130 131 133 132 133 133 134 135 135 134 134 132 132 131 130 129 126 127 132 129 130 131 130 130 130 131 131 129 132 132 128 133 130 132 132 131 127 126 126 126 124 125 131 125 128 128 129 129 129 129 129 126 129 126 125 124 124 123 125 123 125 130 133 130 127 125 126 124 124 123 122 121 121 120 122 120 122 121 120 122 126 133 133 130 133 134 135 134 135 135 135 135 137 136 136 135 136 0 0 0 0 0
    0 0 0 0 0 0 0 0 0 0 0 0 0 0 0 0 0 0 0 0 0 0 0 0 0 0 0 0 0 0 0 0 0 0 0 0 0 0 0 0 0 0 0 0 0 0 0 0 0 0 0 0 0 0 0 0 0 0 0 0 0 0 0 0 0 0 0 0 0 132 131 130 130 130 131 132 130 132 129 128 130 130 129 129 128 129 126 128 129 126 125 127 123 128 126 126 126 128 128 126 126 125 124 125 125 126 124 126 127 127 131 131 131 132 132 132 132 133 133 130 130 130 126 125 126 125 130 125 125 126 125 125 125 124 126 124 126 126 126 129 130 132 131 129 131 130 130 131 129 129 127 128 129 126 127 130 127 130 130 127 127 126 128 129 127 128 127 129 130 130 130 130 128 129 130 130 129 128 128 126 126 127 126 125 126 126 127 127 128 129 129 131 130 130 129 129 128 130 128 129 127 129 128 130 130 132 130 129 130 130 129 129 128 129 126 129 130 130 131 131 133 132 134 133 134 134 135 134 134 131 131 131 130 129 127 127 132 129 129 131 129 129 130 131 130 128 131 131 127 132 129 132 132 132 129 126 127 126 124 126 132 126 128 129 129 129 129 129 129 126 129 126 125 124 -193 -209 -193 -209 -193 -209 -209 -209 123 123 125 124 124 123 121 120 120 119 119 119 -193 -209 -209 120 124 131 132 128 132 133 134 134 134 135 135 135 137 136 136 135 135 0 0 0 0 0
    0 0 0 0 0 0 0 0 0 0 0 0 0 0 0 0 0 0 0 0 0 0 0 0 0 0 0 0 0 0 0 0 0 0 0 0 0 0 0 0 0 0 0 0 0 0 0 0 0 0 0 0 0 0 0 0 0 0 0 0 0 0 0 0 0 0 0 0 0 132 130 130 129 130 131 132 130 132 130 128 130 131 129 129 128 130 126 128 130 127 126 128 124 129 126 125 125 129 128 126 126 125 124 125 125 126 124 126 126 126 130 130 129 132 131 131 131 132 133 129 129 129 125 125 125 124 129 124 125 125 124 124 124 124 125 123 125 124 125 128 129 132 131 129 131 130 130 131 129 128 126 127 128 125 127 129 126 129 129 126 126 126 128 129 127 128 127 129 130 130 130 130 127 129 130 130 129 128 127 126 125 127 126 125 126 126 127 127 128 129 130 131 130 130 129 129 129 130 128 129 127 129 127 130 129 132 130 130 130 130 129 130 129 129 127 129 131 131 131 132 134 133 134 134 134 135 135 133 133 130 130 130 129 128 126 127 132 128 129 131 129 129 129 130 130 127 131 131 127 132 129 131 131 131 128 126 127 127 125 127 132 125 126 128 128 127 128 128 128 124 127 125 124 123 -209 -193 88 101 -193 -209 91 92 -193 -193 -193 -193 122 121 120 119 120 118 119 119 121 -209 -209 -193 125 131 132 129 132 133 134 134 134 135 135 135 137 136 136 135 135 0 0 0 0 0
    0 0 0 0 0 0 0 0 0 0 0 0 0 0 0 0 0 0 0 0 0 0 0 0 0 0 0 0 0 0 0 0 0 0 0 0 0 0 0 0 0 0 0 0 0 0 0 0 0 0 0 0 0 0 0 0 0 0 0 0 0 0 0 0 0 0 0 0 0 131 130 129 129 130 131 132 130 132 130 129 130 131 130 129 129 130 127 128 130 127 126 129 124 128 125 124 123 127 127 126 125 124 124 125 125 126 124 126 126 126 130 130 129 132 -193 132 131 132 133 130 129 129 126 124 124 124 128 124 125 125 124 124 124 124 125 122 124 124 124 128 130 133 131 130 131 130 130 130 128 128 125 127 128 124 127 130 128 131 130 127 126 126 128 129 127 128 127 128 130 130 131 130 128 129 130 130 129 128 127 126 125 126 126 126 126 127 128 128 128 130 130 132 130 131 128 129 129 130 128 129 127 130 127 130 130 132 130 130 131 131 130 130 130 130 128 131 131 132 133 133 134 133 134 134 134 134 134 133 132 129 129 129 129 128 125 127 132 129 129 131 129 129 129 130 130 128 130 131 127 132 130 132 131 131 128 126 127 127 125 127 131 125 125 127 127 127 127 127 127 124 127 124 122 122 -209 86 87 95 101 94 90 93 -193 121 123 122 122 122 121 121 122 122 -193 119 122 -209 112 120 125 131 131 128 132 133 134 133 134 135 135 135 137 137 137 136 136 0 0 0 0 0
    0 0 0 0 0 0 0 0 0 0 0 0 0 0 0 0 0 0 0 0 0 0 0 0 0 0 0 0 0 0 0 0 0 0 0 0 0 0 0 0 0 0 0 0 0 0 0 0 0 0 0 0 0 0 0 0 0 0 0 0 0 0 0 0 0 0 0 0 0 130 130 129 129 131 132 132 131 133 131 129 130 131 130 130 129 130 127 129 130 128 126 130 124 126 125 122 121 125 126 125 124 124 124 125 125 126 124 126 125 126 130 130 130 -193 -193 -193 -193 133 134 131 129 130 126 125 125 -193 129 124 125 126 125 124 124 124 125 122 124 123 123 127 130 133 131 130 132 130 130 130 128 127 124 127 127 -193 127 130 128 132 130 127 127 127 128 128 127 127 127 128 130 130 131 131 128 129 129 131 129 128 127 125 124 126 126 127 126 127 129 128 129 130 131 132 130 131 128 128 129 130 128 128 126 129 127 130 130 132 131 130 131 131 130 130 130 130 129 131 132 132 133 134 135 134 134 133 133 134 133 132 132 128 127 -193 129 128 125 127 132 129 128 130 129 128 128 130 129 128 130 131 128 133 131 132 132 132 130 127 128 127 124 127 131 124 125 127 127 127 126 127 127 123 124 123 121 122 -209 92 88 99 102 93 88 91 102 110 119 116 117 119 119 119 120 121 118 118 119 115 112 118 124 130 129 127 132 132 133 133 133 134 135 136 137 138 138 139 140 0 0 0 0 0
    0 0 0 0 0 0 0 0 0 0 0 0 0 0 0 0 0 0 0 0 0 0 0 0 0 0 0 0 0 0 0 0 0 0 0 0 0 0 0 0 0 0 0 0 0 0 0 0 0 0 0 0 0 0 0 0 0 0 0 0 0 0 0 0 0 0 0 0 0 130 131 129 130 133 133 134 132 134 131 129 130 131 130 130 129 130 128 129 131 130 128 132 124 129 -209 -209 -193 123 125 125 123 123 123 125 124 126 124 125 125 126 131 -193 -193 -193 -193 -209 -193 -193 -193 132 131 -193 127 124 124 -193 -193 123 125 125 124 124 123 124 124 122 123 123 123 126 129 133 130 129 131 129 129 129 127 126 124 126 126 -193 126 128 127 131 128 126 126 126 127 127 127 127 126 129 130 131 132 131 129 129 130 132 130 129 128 125 124 126 127 127 126 127 130 129 129 131 131 132 129 131 127 127 128 128 127 127 125 129 126 130 129 131 131 131 131 131 130 130 130 130 129 132 132 -193 135 135 136 135 134 134 133 133 131 131 131 126 124 -193 -193 128 125 126 132 129 129 130 129 128 128 129 129 127 129 131 128 132 131 132 132 132 131 128 129 129 125 129 133 124 125 126 127 127 127 127 127 123 124 121 122 122 -209 -209 96 104 104 99 90 92 102 107 107 106 104 112 117 118 120 120 117 118 119 116 112 117 122 125 126 125 130 129 130 131 132 133 134 134 137 138 139 143 146 0 0 0 0 0
    0 0 0 0 0 0 0 0 0 0 0 0 0 0 0 0 0 0 0 0 0 0 0 0 0 0 0 0 0 0 0 0 0 0 0 0 0 0 0 0 0 0 0 0 0 0 0 0 0 0 0 0 0 0 0 0 0 0 0 0 0 0 0 0 0 0 0 0 0 -225 -225 -225 -225 -225 135 -225 134 134 132 130 131 132 131 131 130 130 129 130 132 132 129 -209 -225 -225 -225 -225 -193 -209 -209 -193 -193 122 123 124 -193 126 -193 -193 -193 -193 -193 -193 -193 -193 -193 -193 -193 -209 -209 -209 133 -193 127 122 -193 621 -193 -193 -193 124 122 122 122 123 124 121 122 122 122 126 130 -193 -193 129 130 129 128 128 126 125 123 124 124 -193 124 127 126 130 127 125 125 125 126 126 126 -193 -193 -193 -193 132 133 132 131 131 132 133 132 132 130 126 125 126 127 127 126 127 -193 -193 129 131 132 132 127 128 126 126 127 128 127 127 126 130 127 130 130 131 132 132 133 132 130 130 130 130 131 134 -193 -177 -193 136 137 135 134 134 133 133 131 131 131 125 -193 102 110 -209 123 123 132 130 129 131 129 128 127 129 129 127 128 130 128 132 130 132 131 132 131 128 129 131 126 132 134 125 125 127 129 129 128 128 128 125 130 124 124 -193 100 96 95 103 103 102 97 98 104 112 117 112 107 117 118 118 120 121 116 116 118 113 110 117 123 128 130 127 131 128 129 130 131 132 132 131 134 135 140 143 147 0 0 0 0 0
    0 0 0 0 0 0 0 0 0 0 0 0 0 0 0 0 0 0 0 0 0 0 0 0 0 0 0 0 0 0 0 0 0 0 0 0 0 0 0 0 0 0 0 0 0 0 0 0 0 0 0 0 0 0 0 0 0 0 0 0 0 0 0 0 0 0 0 0 0 -225 -225 -225 -225 -225 -225 -225 -225 135 134 131 132 134 132 132 131 132 131 131 134 134 132 -225 -225 -225 -225 -225 -225 -209 -209 516 -209 -193 -193 124 -193 -193 211 210 209 210 -193 303 -177 -177 -193 -193 -193 -193 -209 -209 -209 -209 132 123 -209 -193 -193 -193 -193 123 -193 -209 -193 -193 123 119 -193 -193 -209 -193 -209 429 437 -193 128 130 126 125 122 122 120 -193 -225 -225 -225 -225 -225 -225 -225 -225 124 127 127 127 -193 -193 -193 827 -193 134 134 133 -193 -193 135 136 -193 136 134 129 127 126 -209 -193 60 59 58 68 -209 -177 -177 -177 -193 127 126 126 128 129 128 127 126 130 127 130 131 130 133 133 134 133 131 131 131 128 -193 -209 -209 348 -193 -193 136 135 134 134 132 133 131 131 131 -225 -225 -225 -225 -225 -193 -193 -193 -193 129 131 130 128 -193 130 -193 -193 127 130 127 130 129 130 130 132 -225 -225 -225 -225 -225 -193 -225 -209 124 128 131 132 129 128 129 127 -193 124 124 125 91 88 91 101 103 101 99 100 104 115 118 118 117 120 119 120 121 121 116 116 117 110 108 115 122 124 129 128 130 129 130 132 133 133 134 131 133 135 138 142 148 0 0 0 0 0
    0 0 0 0 0 0 0 0 0 0 0 0 0 0 0 0 0 0 0 0 0 0 0 0 0 0 0 0 0 0 0 0 0 0 0 0 0 0 0 0 0 0 0 0 0 0 0 0 0 0 0 0 0 0 0 0 0 0 0 0 0 0 0 0 0 0 0 0 0 -225 -225 -225 -225 -225 -225 -225 -225 -225 -225 -225 -225 -225 -225 132 133 133 133 134 -225 -225 -225 -225 -225 -225 -225 -225 -225 -225 -225 -225 -225 -225 -225 -225 -225 -225 -225 -225 -225 212 -193 -225 -193 -193 -193 -193 -209 -209 -193 -193 776 -193 -209 -209 -193 -209 911 -193 -193 -209 -193 -209 -177 -193 -193 -209 -209 -209 -209 -209 -209 -225 -225 -225 -225 -225 -225 -225 -225 -225 -225 -225 -225 -225 -225 -225 -225 -225 -225 -225 -225 -225 -225 -225 -225 -225 -225 -225 -225 -225 -225 -225 -225 -225 -225 -193 -209 -193 -225 -225 70 70 68 61 64 58 57 65 -193 -177 -177 -225 -225 126 -225 -225 -225 -225 127 126 125 -225 -225 -225 -225 -225 -225 -225 -225 -225 -225 -225 -225 -225 132 -225 -225 -225 -225 -225 -225 -225 -225 -225 -225 -225 -225 -225 -225 -225 -225 -225 -225 -225 -225 -225 -225 -225 -225 131 130 -193 867 -193 867 -177 -193 -193 -225 -225 -225 -225 -225 -225 -225 -225 -225 -225 -225 -225 -225 -225 -225 133 137 138 132 129 131 131 -193 124 124 125 91 88 91 101 103 101 99 101 107 119 121 121 121 122 122 122 122 121 118 119 119 116 111 117 122 125 128 131 130 130 132 134 135 135 137 134 134 136 139 146 153 0 0 0 0 0
    0 0 0 0 0 0 0 0 0 0 0 0 0 0 0 0 0 0 0 0 0 0 0 0 0 0 0 0 0 0 0 0 0 0 0 0 0 0 0 0 0 0 0 0 0 0 0 0 0 0 0 0 0 0 0 0 0 0 0 0 0 0 0 0 0 0 0 0 0 -225 -225 -225 -225 -225 -225 -225 -225 -225 -225 -225 -225 -225 -225 -225 -225 -225 -225 -225 -225 -225 -225 -225 -225 -225 -225 -225 -225 -225 -225 -225 -225 -225 -225 -225 -225 -225 -225 -225 -225 -225 -225 -225 -225 -225 -225 -225 -225 -225 -225 -225 -225 -225 -225 -225 -225 -225 -225 -225 -225 -225 -225 -225 -225 -225 -225 -225 -225 -225 -225 -225 -225 -225 -225 -225 -225 -225 -225 -225 -225 -225 -225 -225 -225 -225 -225 -225 -225 -225 -225 -225 -225 -225 -225 -225 -225 -225 -225 -225 -225 -225 -225 -225 -225 -225 -225 -225 -225 -225 -225 -225 -225 -225 -225 -225 -225 -225 -225 -225 -225 -225 -225 -225 -225 -225 -225 -225 -225 -225 -225 -225 -225 -225 -225 -225 -225 -225 -225 -225 -225 -225 -225 -225 -225 -225 -225 -225 -225 -225 -225 -225 -225 -225 -225 -225 -225 -225 -225 -225 -225 -225 -225 -225 -225 -225 -225 -225 -225 -225 -225 -225 -225 -225 -225 -225 -225 -225 -225 -225 -225 -225 -225 -225 -225 -225 -225 -225 -225 -225 -225 -225 -225 -225 -225 -225 126 126 127 128 126 124 126 133 134 137 -209 -193 102 -193 103 101 99 100 106 117 121 121 122 123 123 122 122 122 119 119 119 117 114 119 123 127 130 131 131 131 132 133 135 135 137 134 135 138 147 150 155 0 0 0 0 0
    0 0 0 0 0 0 0 0 0 0 0 0 0 0 0 0 0 0 0 0 0 0 0 0 0 0 0 0 0 0 0 0 0 0 0 0 0 0 0 0 0 0 0 0 0 0 0 0 0 0 0 0 0 0 0 0 0 0 0 0 0 0 0 0 0 0 0 0 0 -225 -225 -225 -225 -225 -225 -225 -225 -225 -225 -225 -225 -225 -225 -225 -225 -225 -225 -225 -225 -225 -225 -225 -225 -225 -225 -225 -225 -225 -225 -225 -225 -225 -225 -225 -225 -225 -225 -225 -225 -225 -225 -225 -225 -225 -225 -225 -225 -225 -225 -225 -225 -225 -225 -225 -225 -225 -225 -225 -225 -225 -225 -225 -225 -225 -225 -225 -225 -225 -225 -225 -225 -225 -225 -225 -225 -225 -225 -225 -225 -225 -225 -225 -225 -225 -225 -225 -225 -225 -225 -225 -225 -225 -225 -225 -225 -225 -225 -225 -225 -225 -225 -225 -225 -225 -225 -225 -225 -225 -225 -225 -225 -225 -225 -225 -225 -225 -225 -225 -225 -225 -225 -225 -225 -225 -225 -225 -225 -225 -225 -225 -225 -225 -225 -225 -225 -225 -225 -225 -225 -225 -225 -225 -225 -225 -225 -225 -225 -225 -225 -225 -225 -225 -225 -225 -225 -225 -225 -225 -225 -225 -225 -225 -225 -225 -225 -225 -225 -225 -225 -225 -225 -225 -225 -225 -225 -225 -225 -225 -225 -225 -225 -225 -225 -225 -225 -225 -225 -225 -225 -225 -225 -225 -225 -225 -225 -225 -225 -225 124 123 128 132 133 134 134 134 135 137 138 124 -209 109 116 122 122 122 121 123 123 122 123 123 120 120 119 119 118 120 124 128 129 130 130 133 133 134 135 135 137 135 135 140 149 151 155 0 0 0 0 0
    0 0 0 0 0 0 0 0 0 0 0 0 0 0 0 0 0 0 0 0 0 0 0 0 0 0 0 0 0 0 0 0 0 0 0 0 0 0 0 0 0 0 0 0 0 0 0 0 0 0 0 0 0 0 0 0 0 0 0 0 0 0 0 0 0 0 0 0 0 -225 -225 -225 -225 -225 -225 -225 -225 -225 -225 -225 -225 -225 -225 -225 -225 -225 -225 -225 -225 -225 -225 -225 -225 -225 -225 -225 -225 -225 -225 -225 -225 -225 -225 -225 -225 -225 -225 -225 -225 -225 -225 -225 -225 -225 -225 -225 -225 -225 -225 -225 -225 -225 -225 -225 -225 -225 -225 -225 -225 -225 -225 -225 -225 -225 -225 -225 -225 -225 -225 -225 -225 -225 -225 -225 -225 -225 -225 -225 -225 -225 -225 -225 -225 -225 -225 -225 -225 -225 -225 -225 -225 -225 -225 -225 -225 -225 -225 -225 -225 -225 -225 -225 -225 -225 -225 -225 -225 -225 -225 -225 -225 -225 -225 -225 -225 -225 -225 -225 -225 -225 -225 -225 -225 -225 -225 -225 -225 -225 -225 -225 -225 -225 -225 -225 -225 -225 -225 -225 -225 -225 -225 -225 -225 -225 -225 -225 -225 -225 -225 -225 -225 -225 -225 -225 -225 -225 -225 -225 -225 -225 -225 -225 -225 -225 -225 -225 -225 -225 -225 -225 -225 -225 -225 -225 -225 -225 -225 -225 -225 -225 -225 -225 -225 -225 -225 -225 -225 -225 -225 -225 -225 -225 -225 -225 -225 -225 -225 -225 -225 -225 -225 -225 -225 -225 137 137 137 137 138 138 136 139 139 139 133 129 130 130 129 125 123 123 120 119 120 119 117 120 124 129 129 129 131 135 134 135 137 136 138 136 -193 144 152 152 156 0 0 0 0 0
    0 0 0 0 0 0 0 0 0 0 0 0 0 0 0 0 0 0 0 0 0 0 0 0 0 0 0 0 0 0 0 0 0 0 0 0 0 0 0 0 0 0 0 0 0 0 0 0 0 0 0 0 0 0 0 0 0 0 0 0 0 0 0 0 0 0 0 0 0 -225 -225 -225 -225 -225 -225 -225 -225 -225 -225 -225 -225 -225 -225 -225 -225 -225 -225 -225 -225 -225 -225 -225 -225 -225 -225 -225 -225 -225 -225 -225 -225 -225 -225 -225 -225 -225 -225 -225 -225 -225 -225 -225 -225 -225 -225 -225 -225 -225 -225 -225 -225 -225 -225 -225 -225 -225 -225 -225 -225 -225 -225 -225 -225 -225 -225 -225 -225 -225 -225 -225 -225 -225 -225 -225 -225 -225 -225 -225 -225 -225 -225 -225 -225 -225 -225 -225 -225 -225 -225 -225 -225 -225 -225 -225 -225 -225 -225 -225 -225 -225 -225 -225 -225 -225 -225 -225 -225 -225 -225 -225 -225 -225 -225 -225 -225 -225 -225 -225 -225 -225 -225 -225 -225 -225 -225 -225 -225 -225 -225 -225 -225 -225 -225 -225 -225 -225 -225 -225 -225 -225 -225 -225 -225 -225 -225 -225 -225 -225 -225 -225 -225 -225 -225 -225 -225 -225 -225 -225 -225 -225 -225 -225 -225 -225 -225 -225 -225 -225 -225 -225 -225 -225 -225 -225 -225 -225 -225 -225 -225 -225 -225 -225 -225 -225 -225 -225 -225 -225 -225 -225 -225 -225 -225 -225 -225 -225 -225 -225 -225 -225 -225 -225 -225 -225 -225 -225 -225 -225 140 139 139 139 139 139 137 136 -209 -209 -209 121 120 119 118 118 119 120 117 -193 124 132 133 132 137 140 140 139 141 139 139 -209 -193 149 155 155 158 0 0 0 0 0
    0 0 0 0 0 0 0 0 0 0 0 0 0 0 0 0 0 0 0 0 0 0 0 0 0 0 0 0 0 0 0 0 0 0 0 0 0 0 0 0 0 0 0 0 0 0 0 0 0 0 0 0 0 0 0 0 0 0 0 0 0 0 0 0 0 0 0 0 0 -225 -225 -225 -225 -225 -225 -225 -225 -225 -225 -225 -225 -225 -225 -225 -225 -225 -225 -225 -225 -225 -225 -225 -225 -225 -225 -225 -225 -225 -225 -225 -225 -225 -225 -225 -225 -225 -225 -225 -225 -225 -225 -225 -225 -225 -225 -225 -225 -225 -225 -225 -225 -225 -225 -225 -225 -225 -225 -225 -225 -225 -225 -225 -225 -225 -225 -225 -225 -225 -225 -225 -225 -225 -225 -225 -225 -225 -225 -225 -225 -225 -225 -225 -225 -225 -225 -225 -225 -225 -225 -225 -225 -225 -225 -225 -225 -225 -225 -225 -225 -225 -225 -225 -225 -225 -225 -225 -225 -225 -225 -225 -225 -225 -225 -225 -225 -225 -225 -225 -225 -225 -225 -225 -225 -225 -225 -225 -225 -225 -225 -225 -225 -225 -225 -225 -225 -225 -225 -225 -225 -225 -225 -225 -225 -225 -225 -225 -225 -225 -225 -225 -225 -225 -225 -225 -225 -225 -225 -225 -225 -225 -225 -225 -225 -225 -225 -225 -225 -225 -225 -225 -225 -225 -225 -225 -225 -225 -225 -225 -225 -225 -225 -225 -225 -225 -225 -225 -225 -225 -225 -225 -225 -225 -225 -225 -225 -225 -225 -225 -225 -225 -225 -225 -225 -225 -225 -225 -225 -225 -225 -225 -225 142 142 141 139 136 -209 -209 -209 -209 -209 -209 -209 -209 -209 -209 116 -193 127 134 135 135 138 142 145 144 147 142 -209 -209 -209 -209 164 161 165 0 0 0 0 0
    0 0 0 0 0 0 0 0 0 0 0 0 0 0 0 0 0 0 0 0 0 0 0 0 0 0 0 0 0 0 0 0 0 0 0 0 0 0 0 0 0 0 0 0 0 0 0 0 0 0 0 0 0 0 0 0 0 0 0 0 0 0 0 0 0 0 0 0 0 -225 -225 -225 -225 -225 -225 -225 -225 -225 -225 -225 -225 -225 -225 -225 -225 -225 -225 -225 -225 -225 -225 -225 -225 -225 -225 -225 -225 -225 -225 -225 -225 -225 -225 -225 -225 -225 -225 -225 -225 -225 -225 -225 -225 -225 -225 -225 -225 -225 -225 -225 -225 -225 -225 -225 -225 -225 -225 -225 -225 -225 -225 -225 -225 -225 -225 -225 -225 -225 -225 -225 -225 -225 -225 -225 -225 -225 -225 -225 -225 -225 -225 -225 -225 -225 -225 -225 -225 -225 -225 -225 -225 -225 -225 -225 -225 -225 -225 -225 -225 -225 -225 -225 -225 -225 -225 -225 -225 -225 -225 -225 -225 -225 -225 -225 -225 -225 -225 -225 -225 -225 -225 -225 -225 -225 -225 -225 -225 -225 -225 -225 -225 -225 -225 -225 -225 -225 -225 -225 -225 -225 -225 -225 -225 -225 -225 -225 -225 -225 -225 -225 -225 -225 -225 -225 -225 -225 -225 -225 -225 -225 -225 -225 -225 -225 -225 -225 -225 -225 -225 -225 -225 -225 -225 -225 -225 -225 -225 -225 -225 -225 -225 -225 -225 -225 -225 -225 -225 -225 -225 -225 -225 -225 -225 -225 -225 -225 -225 -225 -225 -225 -225 -225 -225 -225 -225 -225 -225 -225 -225 -225 -225 -225 -225 -225 -209 -209 -209 -209 -209 -209 -209 -209 -209 -209 65 -209 -209 -209 -209 140 142 141 146 150 151 148 150 146 144 -193 -209 -209 -209 -209 -209 0 0 0 0 0
    0 0 0 0 0 0 0 0 0 0 0 0 0 0 0 0 0 0 0 0 0 0 0 0 0 0 0 0 0 0 0 0 0 0 0 0 0 0 0 0 0 0 0 0 0 0 0 0 0 0 0 0 0 0 0 0 0 0 0 0 0 0 0 0 0 0 0 0 0 -225 -225 -225 -225 -225 -225 -225 -225 -225 -225 -225 -225 -225 -225 -225 -225 -225 -225 -225 -225 -225 -225 -225 -225 -225 -225 -225 -225 -225 -225 -225 -225 -225 -225 -225 -225 -225 -225 -225 -225 -225 -225 -225 -225 -225 -225 -225 -225 -225 -225 -225 -225 -225 -225 -225 -225 -225 -225 -225 -225 -225 -225 -225 -225 -225 -225 -225 -225 -225 -225 -225 -225 -225 -225 -225 -225 -225 -225 -225 -225 -225 -225 -225 -225 -225 -225 -225 -225 -225 -225 -225 -225 -225 -225 -225 -225 -225 -225 -225 -225 -225 -225 -225 -225 -225 -225 -225 -225 -225 -225 -225 -225 -225 -225 -225 -225 -225 -225 -225 -225 -225 -225 -225 -225 -225 -225 -225 -225 -225 -225 -225 -225 -225 -225 -225 -225 -225 -225 -225 -225 -225 -225 -225 -225 -225 -225 -225 -225 -225 -225 -225 -225 -225 -225 -225 -225 -225 -225 -225 -225 -225 -225 -225 -225 -225 -225 -225 -225 -225 -225 -225 -225 -225 -225 -225 -225 -225 -225 -225 -225 -225 -225 -225 -225 -225 -225 -225 -225 -225 -225 -225 -225 -225 -225 -225 -225 -225 -225 -225 -225 -225 -225 -225 -225 -225 -225 -225 -225 -225 -225 -225 -225 -225 -225 -209 -209 -209 -209 -209 -209 -209 -209 -209 -209 -209 -209 -209 -209 -209 62 -209 -209 -209 149 154 155 150 -193 -209 -209 -209 -209 -209 -209 -209 -209 0 0 0 0 0
    0 0 0 0 0 0 0 0 0 0 0 0 0 0 0 0 0 0 0 0 0 0 0 0 0 0 0 0 0 0 0 0 0 0 0 0 0 0 0 0 0 0 0 0 0 0 0 0 0 0 0 0 0 0 0 0 0 0 0 0 0 0 0 0 0 0 0 0 0 -225 -225 -225 -225 -225 -225 -225 -225 -225 -225 -225 -225 -225 -225 -225 -225 -225 -225 -225 -225 -225 -225 -225 -225 -225 -225 -225 -225 -225 -225 -225 -225 -225 -225 -225 -225 -225 -225 -225 -225 -225 -225 -225 -225 -225 -225 -225 -225 -225 -225 -225 -225 -225 -225 -225 -225 -225 -225 -225 -225 -225 -225 -225 -225 -225 -225 -225 -225 -225 -225 -225 -225 -225 -225 -225 -225 -225 -225 -225 -225 -225 -225 -225 -225 -225 -225 -225 -225 -225 -225 -225 -225 -225 -225 -225 -225 -225 -225 -225 -225 -225 -225 -225 -225 -225 -225 -225 -225 -225 -225 -225 -225 -225 -225 -225 -225 -225 -225 -225 -225 -225 -225 -225 -225 -225 -225 -225 -225 -225 -225 -225 -225 -225 -225 -225 -225 -225 -225 -225 -225 -225 -225 -225 -225 -225 -225 -225 -225 -225 -225 -225 -225 -225 -225 -225 -225 -225 -225 -225 -225 -225 -225 -225 -225 -225 -225 -225 -225 -225 -225 -225 -225 -225 -225 -225 -225 -225 -225 -225 -225 -225 -225 -225 -225 -225 -225 -225 -225 -225 -225 -225 -225 -225 -225 -225 -225 -225 -225 -225 -225 -225 -225 -225 -225 -225 -225 -225 -225 -225 -225 -225 -225 -225 -209 -209 46 50 53 -209 -209 -209 -209 -209 -209 -209 -209 -209 -209 -209 -209 -209 -209 -209 -209 154 155 151 158 -209 -209 -209 -209 -209 186 187 183 0 0 0 0 0
    0 0 0 0 0 0 0 0 0 0 0 0 0 0 0 0 0 0 0 0 0 0 0 0 0 0 0 0 0 0 0 0 0 0 0 0 0 0 0 0 0 0 0 0 0 0 0 0 0 0 0 0 0 0 0 0 0 0 0 0 0 0 0 0 0 0 0 0 0 -225 -225 -225 -225 -225 -225 -225 -225 -225 -225 -225 -225 -225 -225 -225 -225 -225 -225 -225 -225 -225 -225 -225 -225 -225 -225 -225 -225 -225 -225 -225 -225 -225 -225 -225 -225 -225 -225 -225 -225 -225 -225 -225 -225 -225 -225 -225 -225 -225 -225 -225 -225 -225 -225 -225 -225 -225 -225 -225 -225 -225 -225 -225 -225 -225 -225 -225 -225 -225 -225 -225 -225 -225 -225 -225 -225 -225 -225 -225 -225 -225 -225 -225 -225 -225 -225 -225 -225 -225 -225 -225 -225 -225 -225 -225 -225 -225 -225 -225 -225 -225 -225 -225 -225 -225 -225 -225 -225 -225 -225 -225 -225 -225 -225 -225 -225 -225 -225 -225 -225 -225 -225 -225 -225 -225 -225 -225 -225 -225 -225 -225 -225 -225 -225 -209 -193 -193 -209 -209 -193 -193 215 213 218 213 208 209 207 208 208 -193 -193 205 204 207 206 205 205 -193 205 -225 -225 -225 -225 -225 -225 -225 -225 -225 334 -209 -209 -193 -193 -225 -225 -225 -209 508 -225 -209 -193 -209 -209 -193 -193 983 -193 -209 -193 -225 -209 -209 -225 -209 -193 -209 -209 -209 -177 -177 901 902 -193 -225 -225 783 785 788 -209 -209 -225 -209 -193 -193 -193 -193 -193 -209 -209 -209 -209 -209 -209 -209 -209 -209 -209 -209 -209 -209 -209 -209 -209 -209 -209 150 157 -209 -209 -209 -193 -209 185 190 187 0 0 0 0 0
    0 0 0 0 0 0 0 0 0 0 0 0 0 0 0 0 0 0 0 0 0 0 0 0 0 0 0 0 0 0 0 0 0 0 0 0 0 0 0 0 0 0 0 0 0 0 0 0 0 0 0 0 0 0 0 0 0 0 0 0 0 0 0 0 0 0 0 0 0 -225 -225 -225 -225 -225 -225 -225 -225 -225 -225 -225 -225 -225 -225 -225 -225 -225 -225 -225 -225 -225 -225 -225 -225 -209 -209 -209 -209 -209 -193 218 216 217 -225 -225 -225 -225 -225 -225 -225 -225 -225 -225 -225 -193 -193 908 910 -225 -225 -225 -225 -225 -225 -225 -225 -225 -225 -225 -225 -225 -225 -225 -225 -225 -225 -225 -225 -225 -225 -225 -225 -225 -225 -225 -225 -225 -225 -225 -225 -225 -225 -225 -225 -225 -225 -225 -225 -225 -225 -225 -225 -225 -225 -225 -225 -225 -225 -225 -225 -225 -225 -225 -225 -225 -225 -225 -225 -225 -225 -225 -225 -225 -225 -225 -225 -225 -193 211 214 214 211 211 212 211 211 210 -193 -177 -209 -209 -193 -193 213 211 212 212 -193 215 213 213 214 212 217 214 209 210 209 210 209 208 205 207 205 209 207 206 206 207 206 211 -225 -225 -225 -225 -225 -209 -193 -209 -193 -193 -209 -193 -209 -209 -193 -193 -209 -193 -193 -209 -193 210 -193 -193 -193 207 -193 204 205 204 205 -209 -193 -193 -193 209 -193 -193 -209 -193 -193 -193 209 207 -193 784 785 785 -193 -193 -193 -193 -193 -193 -209 -193 -193 -209 -209 -209 -209 -209 -209 -209 -209 -209 -209 -209 -209 -209 -209 204 203 -209 -209 -209 -209 -209 199 -209 -209 -209 -193 -193 -193 0 0 0 0 0
    0 0 0 0 0 0 0 0 0 0 0 0 0 0 0 0 0 0 0 0 0 0 0 0 0 0 0 0 0 0 0 0 0 0 0 0 0 0 0 0 0 0 0 0 0 0 0 0 0 0 0 0 0 0 0 0 0 0 0 0 0 0 0 0 0 0 0 0 0 209 211 210 208 213 -225 213 213 -225 -225 -225 -225 -225 -209 -193 -193 -209 -209 -193 216 216 216 -193 -209 216 -193 -193 -193 -193 216 217 215 218 219 222 -225 -225 -225 -225 212 212 -193 -193 211 212 212 209 208 -193 -209 -209 -193 -209 -225 -177 1008 -193 -225 -225 -225 -225 -225 -225 -225 -225 -225 -225 -225 -225 -225 -225 -225 -225 -225 -225 809 -209 -209 -209 -209 -209 589 598 597 589 -209 -209 -225 631 -193 -209 -209 693 -193 -209 -209 -209 -193 992 -193 -209 206 207 207 207 206 206 209 214 215 216 216 217 217 216 216 214 211 209 212 212 210 211 210 211 211 210 -193 -193 -193 -193 211 211 212 211 212 212 210 213 212 212 214 213 217 214 211 212 211 211 210 209 206 208 206 209 206 206 205 206 206 210 205 211 216 211 212 213 212 214 213 212 212 209 211 210 209 -193 207 206 212 211 210 210 209 208 207 207 208 204 204 204 203 202 -193 -193 208 208 209 209 211 209 210 209 209 208 207 -193 -193 -193 -193 210 209 210 -193 -193 206 -193 -193 -209 -209 -209 -209 -209 -209 -209 -209 -209 196 -193 -209 203 203 206 206 206 207 210 -209 -209 204 -209 -209 -209 -193 -193 -193 0 0 0 0 0
    0 0 0 0 0 0 0 0 0 0 0 0 0 0 0 0 0 0 0 0 0 0 0 0 0 0 0 0 0 0 0 0 0 0 0 0 0 0 0 0 0 0 0 0 0 0 0 0 0 0 0 0 0 0 0 0 0 0 0 0 0 0 0 0 0 0 0 0 0 212 213 212 211 213 213 213 213 214 216 217 219 222 -209 -193 -209 -193 216 215 216 216 216 217 215 215 216 -193 217 216 216 216 215 218 218 220 217 214 214 214 212 212 211 212 210 211 212 210 209 211 -193 -193 -193 -193 -193 -193 -193 214 213 213 213 211 211 213 213 -225 -225 -225 -225 -225 -225 -225 -225 -225 -225 -209 -209 -209 -209 210 -193 -209 -209 -193 -177 -209 206 -193 -177 -177 -177 -209 -193 211 210 212 -193 -193 -193 -193 205 208 207 209 209 207 208 208 209 214 214 216 215 216 216 216 215 213 210 207 212 211 208 209 209 210 210 209 211 -193 208 211 211 210 211 210 211 211 209 212 210 210 213 212 216 214 211 213 212 212 210 209 206 208 206 208 206 207 206 206 206 209 204 207 210 207 210 210 210 212 212 211 212 209 212 210 209 210 206 205 211 210 209 209 209 208 207 208 208 205 204 204 204 203 205 206 207 208 210 209 211 209 210 209 209 208 208 207 212 207 210 209 208 209 208 208 207 205 207 207 207 209 205 -209 -209 -209 -209 -209 201 204 205 204 205 207 207 206 208 209 -193 213 208 210 -209 -209 -209 -193 -209 0 0 0 0 0
    0 0 0 0 0 0 0 0 0 0 0 0 0 0 0 0 0 0 0 0 0 0 0 0 0 0 0 0 0 0 0 0 0 0 0 0 0 0 0 0 0 0 0 0 0 0 0 0 0 0 0 0 0 0 0 0 0 0 0 0 0 0 0 0 0 0 0 0 0 213 214 213 212 214 214 214 214 214 216 216 218 220 -209 216 -193 215 215 215 215 215 215 216 215 215 216 216 217 216 216 216 214 218 217 219 216 214 214 214 213 213 213 213 211 212 212 210 209 211 -193 -193 -193 -193 214 214 214 214 213 213 213 212 212 213 213 214 213 214 213 -193 -209 -177 -177 -209 -193 -209 -193 -209 211 211 210 211 -193 -193 -193 206 207 214 -193 -193 -193 -209 -193 212 211 213 211 210 208 -193 207 210 208 210 210 208 208 208 209 214 214 215 215 216 216 216 216 214 211 207 211 210 207 209 208 208 210 208 210 211 208 211 211 210 211 210 211 211 208 211 209 209 212 210 213 213 211 213 212 212 210 209 207 208 206 209 207 208 207 208 207 210 206 208 209 206 208 208 208 210 211 211 211 209 211 209 209 210 206 205 210 209 208 209 208 208 207 208 208 205 204 204 204 203 207 207 208 209 210 209 211 209 210 209 210 208 208 207 212 207 209 208 207 208 207 208 207 205 207 208 207 210 207 205 -209 203 207 203 204 207 206 206 207 208 207 208 209 210 211 -193 214 214 213 -209 -209 -193 -209 0 0 0 0 0
    0 0 0 0 0 0 0 0 0 0 0 0 0 0 0 0 0 0 0 0 0 0 0 0 0 0 0 0 0 0 0 0 0 0 0 0 0 0 0 0 0 0 0 0 0 0 0 0 0 0 0 0 0 0 0 0 0 0 0 0 0 0 0 0 0 0 0 0 0 213 214 213 213 214 214 214 214 214 215 215 217 219 216 216 -193 215 215 214 215 215 215 215 215 214 215 215 216 216 216 215 213 218 217 218 216 213 214 214 213 214 214 214 212 213 213 211 210 212 -193 -193 -193 214 213 214 214 214 213 213 214 213 213 214 214 215 214 215 214 -193 -209 -193 -177 -209 -193 -193 215 213 211 211 211 212 211 211 211 206 209 213 214 -193 -209 -193 -193 212 211 213 212 211 210 -193 208 211 209 210 210 209 209 208 209 213 212 214 214 214 215 215 215 213 211 208 211 210 208 209 209 208 210 208 210 211 208 211 210 210 211 210 210 211 208 211 209 209 210 209 211 212 210 213 211 211 210 209 207 209 207 210 208 209 209 210 209 211 207 208 207 206 208 207 207 209 210 211 211 209 211 209 209 210 206 206 210 209 209 209 208 208 207 208 208 204 204 204 203 202 207 207 209 209 211 210 212 210 211 209 210 209 208 207 212 207 208 208 207 208 206 208 207 205 207 208 207 210 208 207 205 206 209 204 206 208 207 206 207 208 208 208 209 209 209 215 212 214 -209 -209 -209 203 -209 0 0 0 0 0
    0 0 0 0 0 0 0 0 0 0 0 0 0 0 0 0 0 0 0 0 0 0 0 0 0 0 0 0 0 0 0 0 0 0 0 0 0 0 0 0 0 0 0 0 0 0 0 0 0 0 0 0 0 0 0 0 0 0 0 0 0 0 0 0 0 0 0 0 0 213 214 213 213 214 214 214 214 214 215 215 216 218 216 215 -193 214 215 214 214 214 215 215 214 214 215 214 216 216 215 215 212 216 215 216 214 211 213 213 212 213 213 214 212 213 213 211 210 212 213 212 -193 213 213 214 214 213 213 212 214 214 214 215 215 215 215 216 215 217 -193 -209 -209 -209 213 214 215 213 211 211 210 212 211 211 211 207 210 213 213 213 -193 -193 212 212 211 212 211 211 210 210 209 211 210 211 211 210 209 209 209 213 212 213 213 213 213 214 214 213 212 209 211 211 209 210 210 209 211 208 210 211 208 211 210 210 211 210 210 211 208 210 208 208 210 209 210 211 209 212 211 211 210 209 208 209 208 210 209 210 210 211 210 211 207 208 207 206 207 207 207 210 209 211 210 210 211 210 209 210 207 207 211 209 209 209 209 208 206 207 208 204 204 204 203 203 207 208 210 210 211 210 211 209 210 209 210 209 207 206 211 208 208 208 206 207 206 208 207 206 207 208 208 211 209 208 205 206 209 205 207 209 207 207 208 209 208 208 209 208 207 210 208 213 -209 -209 -209 -193 -193 0 0 0 0 0
    0 0 0 0 0 0 0 0 0 0 0 0 0 0 0 0 0 0 0 0 0 0 0 0 0 0 0 0 0 0 0 0 0 0 0 0 0 0 0 0 0 0 0 0 0 0 0 0 0 0 0 0 0 0 0 0 0 0 0 0 0 0 0 0 0 0 0 0 0 213 214 214 213 214 215 215 214 214 215 215 216 218 215 215 216 214 215 214 214 214 214 215 214 213 214 213 215 215 215 213 211 215 212 214 212 210 211 212 212 212 212 213 211 212 213 211 210 212 214 212 211 213 212 213 214 213 213 212 214 213 214 215 215 215 215 -193 215 217 216 -193 -193 215 213 214 215 212 211 210 210 212 211 211 211 207 210 213 213 213 -193 212 212 211 211 212 211 211 211 211 210 212 211 212 212 211 210 209 210 213 212 213 213 211 212 213 213 213 212 210 212 211 210 211 211 210 211 208 210 211 209 211 211 210 211 210 210 211 208 210 209 209 210 209 210 211 210 213 211 211 210 209 209 210 209 211 210 211 211 212 210 211 207 208 206 206 207 208 208 210 209 211 211 210 211 210 209 210 207 207 210 209 209 209 208 208 206 207 208 204 204 203 203 203 207 207 209 209 210 209 211 209 210 209 210 209 208 206 212 209 209 208 206 207 206 208 207 206 206 207 207 210 208 206 205 206 208 206 209 210 207 208 208 209 208 208 208 207 206 209 207 212 -193 -209 -209 -193 226 0 0 0 0 0
    0 0 0 0 0 0 0 0 0 0 0 0 0 0 0 0 0 0 0 0 0 0 0 0 0 0 0 0 0 0 0 0 0 0 0 0 0 0 0 0 0 0 0 0 0 0 0 0 0 0 0 0 0 0 0 0 0 0 0 0 0 0 0 0 0 0 0 0 0 214 214 214 214 215 215 215 215 215 216 216 217 218 215 215 215 214 215 214 213 213 214 214 213 213 214 213 214 215 214 212 209 214 212 213 212 210 211 212 211 212 212 213 211 212 213 211 211 213 214 212 211 213 212 213 214 214 214 213 214 214 214 215 215 214 214 214 215 216 216 216 215 215 214 214 215 212 211 210 210 211 210 211 211 208 211 213 213 213 212 213 212 212 212 212 212 212 212 212 211 212 212 212 212 211 211 210 209 213 211 212 212 211 211 212 213 213 212 210 212 211 211 211 211 210 211 209 210 212 209 211 211 210 210 210 210 211 208 210 209 209 210 209 209 211 210 214 212 212 211 211 211 212 211 212 211 212 213 213 211 211 208 207 206 206 207 208 208 210 209 211 211 210 211 210 209 210 207 207 210 208 208 208 208 207 207 207 208 204 204 204 203 202 206 205 207 208 209 208 210 209 210 209 210 210 207 206 212 210 209 208 206 207 206 208 208 206 206 207 207 210 208 206 205 206 208 206 210 210 207 207 208 208 207 207 207 206 205 207 206 211 213 -209 -209 -193 226 0 0 0 0 0
    0 0 0 0 0 0 0 0 0 0 0 0 0 0 0 0 0 0 0 0 0 0 0 0 0 0 0 0 0 0 0 0 0 0 0 0 0 0 0 0 0 0 0 0 0 0 0 0 0 0 0 0 0 0 0 0 0 0 0 0 0 0 0 0 0 0 0 0 0 214 215 214 214 215 216 216 215 216 216 217 217 218 -193 214 215 214 214 213 213 213 213 214 213 212 213 212 213 214 213 211 208 214 212 213 212 211 211 212 211 212 212 213 211 212 213 212 212 213 214 212 211 212 212 213 214 213 214 212 214 213 214 215 214 214 214 214 214 215 215 215 215 215 214 213 214 211 210 210 210 211 210 211 212 208 212 214 214 213 212 213 212 212 212 213 212 212 213 213 212 212 212 212 213 211 211 210 209 212 211 211 212 210 211 212 213 213 212 210 212 211 211 211 212 211 211 209 210 212 209 211 210 210 210 210 211 211 207 210 209 209 210 209 208 211 210 213 212 212 210 211 212 213 212 212 211 212 213 213 212 210 208 207 206 206 207 208 208 209 209 211 211 210 211 210 209 209 207 207 210 208 208 208 208 208 207 207 208 204 204 204 203 202 205 205 206 208 209 208 210 209 210 209 210 209 207 205 210 208 207 207 206 207 206 208 208 206 206 207 207 210 209 207 206 207 208 207 210 210 207 207 206 206 206 206 206 206 204 206 206 209 211 -193 -193 -193 -193 0 0 0 0 0
    0 0 0 0 0 0 0 0 0 0 0 0 0 0 0 0 0 0 0 0 0 0 0 0 0 0 0 0 0 0 0 0 0 0 0 0 0 0 0 0 0 0 0 0 0 0 0 0 0 0 0 0 0 0 0 0 0 0 0 0 0 0 0 0 0 0 0 0 0 215 215 215 215 215 216 216 215 216 216 217 217 218 -193 214 214 213 214 213 212 212 212 213 212 212 213 212 212 214 213 212 208 214 213 213 213 212 212 212 212 213 213 214 212 213 214 213 214 213 214 212 211 212 212 212 212 211 212 210 212 212 213 213 213 213 213 214 214 214 215 215 214 214 214 213 214 211 210 209 210 211 210 211 212 209 212 214 214 213 212 213 213 212 212 213 212 212 213 213 212 212 212 212 213 212 212 211 210 212 211 211 211 209 210 210 212 212 211 210 211 211 211 211 211 210 211 208 210 211 209 210 210 209 210 210 211 211 207 210 209 210 211 210 208 210 209 212 211 210 209 210 210 211 211 211 210 210 212 212 211 209 209 207 207 207 208 208 208 208 208 209 210 209 210 209 208 208 207 208 210 208 208 208 208 208 207 207 207 203 204 204 204 203 206 205 207 209 210 208 210 209 209 209 209 209 207 205 209 207 206 207 206 207 206 207 208 207 206 207 207 209 208 207 206 207 208 207 211 210 206 206 206 205 205 205 205 205 203 205 205 208 210 -193 -193 -193 -193 0 0 0 0 0
    0 0 0 0 0 0 0 0 0 0 0 0 0 0 0 0 0 0 0 0 0 0 0 0 0 0 0 0 0 0 0 0 0 0 0 0 0 0 0 0 0 0 0 0 0 0 0 0 0 0 0 0 0 0 0 0 0 0 0 0 0 0 0 0 0 0 0 0 0 215 215 215 215 215 216 216 215 216 215 216 216 217 -193 214 214 214 214 213 212 212 212 213 212 212 212 211 211 214 214 212 209 213 212 213 212 212 212 212 212 214 213 215 213 214 215 214 215 214 214 212 212 213 212 213 212 211 212 211 212 212 212 212 212 213 213 214 214 214 214 214 214 214 213 214 214 212 210 209 210 211 210 211 211 209 212 214 214 212 212 213 213 212 212 213 212 212 214 213 212 213 213 213 213 212 212 211 210 213 212 211 211 209 210 210 212 212 211 210 211 212 211 211 212 210 211 209 209 211 209 210 210 209 210 210 211 211 208 210 210 211 211 210 208 209 208 210 209 208 207 209 209 210 210 210 210 210 212 212 212 210 210 208 207 207 208 208 208 207 207 208 209 208 209 208 207 207 207 208 210 208 208 208 208 208 207 208 208 204 205 205 205 204 208 207 208 210 210 208 209 208 209 208 209 209 206 205 208 208 206 207 206 207 205 207 207 206 206 207 206 208 208 207 205 206 206 205 210 209 206 205 205 205 204 205 205 204 203 205 204 207 210 -193 -193 -193 214 0 0 0 0 0
    0 0 0 0 0 0 0 0 0 0 0 0 0 0 0 0 0 0 0 0 0 0 0 0 0 0 0 0 0 0 0 0 0 0 0 0 0 0 0 0 0 0 0 0 0 0 0 0 0 0 0 0 0 0 0 0 0 0 0 0 0 0 0 0 0 0 0 0 0 214 215 215 216 216 217 217 216 216 216 216 215 217 -193 214 214 214 214 214 212 212 212 213 212 212 212 211 211 213 214 212 209 212 211 212 211 212 211 212 213 215 215 217 216 217 217 217 217 215 214 212 212 213 212 213 212 211 213 212 213 213 212 213 212 213 213 214 214 214 214 213 213 213 212 213 213 211 210 208 209 211 210 211 211 209 212 213 213 212 211 212 212 212 212 212 211 212 214 213 212 212 213 213 213 213 212 211 210 212 212 211 211 208 209 209 212 212 211 210 211 212 212 212 212 210 211 209 209 212 209 210 210 210 210 210 212 212 208 210 211 211 211 209 208 208 206 208 207 206 206 207 207 208 209 210 210 209 211 212 212 211 211 208 207 208 208 208 208 207 207 207 208 208 208 208 207 207 207 208 210 208 208 208 208 208 207 207 207 204 206 206 206 205 210 210 209 210 209 208 208 208 208 207 207 208 205 205 207 208 206 207 206 207 205 207 207 206 205 205 205 207 207 206 205 205 205 205 209 209 205 205 204 204 204 205 204 204 203 205 204 207 209 -193 -193 212 211 0 0 0 0 0
    0 0 0 0 0 0 0 0 0 0 0 0 0 0 0 0 0 0 0 0 0 0 0 0 0 0 0 0 0 0 0 0 0 0 0 0 0 0 0 0 0 0 0 0 0 0 0 0 0 0 0 0 0 0 0 0 0 0 0 0 0 0 0 0 0 0 0 0 0 215 215 216 -193 216 217 217 216 217 216 217 215 217 -193 213 213 214 214 214 212 212 212 213 212 212 212 211 211 213 214 213 210 212 211 212 211 211 211 212 212 215 214 216 216 217 218 218 218 215 214 213 212 213 212 213 212 211 213 212 214 213 212 213 212 213 213 213 213 213 213 212 212 212 211 211 212 210 209 208 209 211 210 211 211 209 211 213 213 212 210 212 212 212 211 211 210 211 213 213 212 212 213 213 213 213 212 211 211 212 212 210 210 207 208 208 211 211 211 210 211 212 212 212 212 211 211 209 210 212 210 210 210 210 211 211 212 212 208 211 211 211 211 209 208 207 206 207 207 206 206 206 206 206 208 209 210 208 210 212 211 210 211 208 207 208 208 208 208 208 207 207 209 208 208 209 207 207 208 209 211 208 208 208 208 208 207 207 207 204 206 207 207 206 209 210 209 211 209 208 208 207 208 207 207 208 205 205 207 208 207 207 206 206 205 206 207 205 204 204 204 205 206 205 204 204 204 204 208 208 205 205 204 204 204 204 204 204 203 204 204 206 208 -193 209 211 211 0 0 0 0 0
    0 0 0 0 0 0 0 0 0 0 0 0 0 0 0 0 0 0 0 0 0 0 0 0 0 0 0 0 0 0 0 0 0 0 0 0 0 0 0 0 0 0 0 0 0 0 0 0 0 0 0 0 0 0 0 0 0 0 0 0 0 0 0 0 0 0 0 0 0 214 214 -193 -193 216 217 217 216 217 215 217 215 -193 -193 -193 -193 -193 214 214 213 0 -256 -1 10712 212 212 212 211 213 214 213 211 213 212 212 212 212 211 211 212 213 212 214 213 215 215 215 215 213 213 212 212 213 212 213 212 211 213 212 214 213 212 213 212 212 212 212 213 212 212 211 211 211 210 211 211 210 208 207 208 210 209 210 211 209 211 213 213 212 210 212 212 211 210 211 209 211 212 212 211 212 213 213 213 214 213 211 211 212 212 211 210 207 208 209 211 211 210 210 211 212 212 212 211 211 211 210 210 212 210 210 210 210 210 211 212 212 209 211 212 212 211 209 208 207 206 207 206 206 205 205 206 205 207 207 208 207 209 211 210 209 211 208 208 208 208 208 208 207 207 207 208 208 208 209 207 207 208 210 211 208 208 208 208 208 208 208 207 204 207 207 207 206 207 209 207 210 208 208 207 207 207 207 206 208 205 205 206 208 207 207 206 206 205 206 207 205 203 203 203 203 204 204 203 202 202 203 207 208 204 204 204 204 203 204 204 204 203 204 204 206 208 210 209 211 211 0 0 0 0 0
    0 0 0 0 0 0 0 0 0 0 0 0 0 0 0 0 0 0 0 0 0 0 0 0 0 0 0 0 0 0 0 0 0 0 0 0 0 0 0 0 0 0 0 0 0 0 0 0 0 0 0 0 0 0 0 0 0 0 0 0 0 0 0 0 0 0 0 0 0 213 213 215 -193 215 217 217 216 216 215 217 215 -193 -193 -193 -193 -193 214 214 213 212 211 214 213 213 212 212 211 213 214 214 211 213 212 213 212 212 212 212 212 214 213 215 213 215 215 215 215 213 213 212 212 213 212 213 212 211 213 212 213 213 211 212 211 212 212 212 212 212 212 211 211 210 210 211 211 210 208 207 208 210 210 210 211 209 211 213 213 212 210 212 212 212 210 212 209 211 212 212 211 212 212 213 213 213 213 211 211 212 212 211 210 207 208 209 211 211 210 210 210 211 211 211 210 211 210 209 210 212 210 210 210 210 210 211 213 212 209 212 212 212 212 209 208 206 206 206 206 205 205 205 205 205 206 205 207 206 207 209 210 208 211 207 208 207 207 207 207 206 206 206 208 207 208 208 207 207 208 210 211 208 208 208 208 209 208 208 207 205 207 207 207 206 206 208 206 209 208 208 207 207 207 207 206 208 205 205 206 207 206 206 206 206 205 205 206 204 202 202 202 203 203 204 202 202 203 204 209 209 205 205 204 204 204 204 204 203 202 204 204 206 207 209 208 210 210 0 0 0 0 0
    0 0 0 0 0 0 0 0 0 0 0 0 0 0 0 0 0 0 0 0 0 0 0 0 0 0 0 0 0 0 0 0 0 0 0 0 0 0 0 0 0 0 0 0 0 0 0 0 0 0 0 0 0 0 0 0 0 0 0 0 0 0 0 0 0 0 0 0 0 213 213 214 215 215 216 216 215 216 214 216 214 -193 -193 -193 -193 -193 -193 214 213 212 212 214 213 213 212 212 212 213 214 214 211 213 213 213 212 212 212 212 213 214 214 216 215 216 216 217 216 213 213 212 212 213 211 213 211 210 212 211 213 213 210 212 210 211 211 212 212 212 212 211 210 210 210 210 211 210 208 207 208 210 210 210 210 209 210 213 213 212 210 211 212 212 209 212 209 211 212 212 211 211 212 213 212 213 212 211 211 211 211 211 210 208 209 210 211 210 210 209 209 211 211 210 209 210 210 209 209 211 209 210 210 210 210 211 213 212 210 212 212 212 212 209 208 206 206 206 206 205 205 205 205 203 204 204 205 204 206 208 210 209 212 208 209 207 207 206 207 205 206 205 207 205 207 208 207 207 208 210 211 208 209 208 208 209 208 208 207 205 207 208 207 206 206 209 206 209 208 208 207 207 207 206 206 207 205 204 205 206 205 206 205 206 205 205 206 204 202 202 202 202 203 203 202 202 203 205 210 209 205 205 204 204 204 204 204 203 202 204 204 205 206 207 207 209 208 0 0 0 0 0
    0 0 0 0 0 0 0 0 0 0 0 0 0 0 0 0 0 0 0 0 0 0 0 0 0 0 0 0 0 0 0 0 0 0 0 0 0 0 0 0 0 0 0 0 0 0 0 0 0 0 0 0 0 0 0 0 0 0 0 0 0 0 0 0 0 0 0 0 0 212 213 214 215 214 215 215 215 215 214 215 214 215 -193 -193 -193 -193 215 215 213 212 212 214 213 213 212 213 212 213 214 214 211 213 213 213 212 213 212 213 213 214 215 216 215 217 216 217 216 213 213 212 212 213 211 213 211 210 211 211 212 212 210 211 208 212 211 212 212 212 212 211 211 211 210 211 211 211 208 207 208 210 210 210 210 209 208 213 212 211 209 209 211 211 207 211 208 211 212 212 211 211 211 213 212 213 212 211 211 211 212 211 210 208 210 211 211 210 210 210 209 211 211 210 208 210 210 208 209 211 209 210 209 210 210 211 212 211 209 211 211 212 211 208 208 206 206 206 207 206 205 205 204 203 204 203 204 203 205 208 210 210 212 208 210 208 208 206 207 205 205 205 207 205 206 208 207 206 208 210 211 208 209 208 208 209 208 208 207 205 207 208 207 206 207 209 207 209 207 208 207 207 207 206 206 207 205 204 205 205 205 205 205 205 205 205 206 204 202 202 203 203 203 203 202 203 203 205 210 209 205 205 205 204 204 205 204 203 202 203 203 204 205 207 207 208 208 0 0 0 0 0
    0 0 0 0 0 0 0 0 0 0 0 0 0 0 0 0 0 0 0 0 0 0 0 0 0 0 0 0 0 0 0 0 0 0 0 0 0 0 0 0 0 0 0 0 0 0 0 0 0 0 0 0 0 0 0 0 0 0 0 0 0 0 0 0 0 0 0 0 0 212 213 214 214 213 215 214 214 214 213 214 214 215 214 214 215 216 216 216 214 213 213 215 213 213 213 213 212 213 214 214 210 213 212 213 212 212 212 213 213 214 214 215 213 216 215 216 215 213 213 211 211 213 211 213 210 210 211 211 212 212 210 212 209 212 212 213 212 212 213 212 212 211 211 211 211 212 209 208 209 210 210 210 210 210 207 212 211 210 209 209 210 210 207 210 207 210 211 212 211 211 211 213 212 213 212 211 211 211 212 212 210 208 210 211 211 210 211 210 209 211 211 210 207 209 210 208 209 210 209 209 209 210 210 210 212 210 208 210 210 211 210 208 208 206 206 206 207 206 205 205 205 203 204 203 204 204 206 208 210 210 212 208 210 207 207 206 206 205 205 205 207 205 206 208 208 207 208 211 211 208 209 208 208 209 208 208 207 205 207 207 207 206 207 209 208 209 208 208 207 207 207 206 206 207 204 204 205 205 205 205 205 205 204 205 206 204 202 203 204 203 203 203 202 204 203 204 208 208 205 205 205 204 204 204 204 203 202 203 203 203 204 206 207 208 208 0 0 0 0 0</data></disparity>
</opencv_storage>
