<?xml version="1.0"?>
<opencv_storage>
<gps_time_stamp>36940</gps_time_stamp>
<gps_x>-1.3036287307739258e+001</gps_x>
<gps_y>1.4325609207153320e+000</gps_y>
<gps_z>-3.6534068584442139e+000</gps_z>
<image_time_stamp>24865</image_time_stamp>
<disparity type_id="opencv-matrix">
  <rows>93</rows>
  <cols>320</cols>
  <dt>s</dt>
  <data>
    0 0 0 0 0 0 0 0 0 0 0 0 0 0 0 0 0 0 0 0 0 0 0 0 0 0 0 0 0 0 0 0 0 0 0 0 0 0 0 0 0 0 0 0 0 0 0 0 0 0 0 0 0 0 0 0 0 0 0 0 0 0 0 0 0 0 0 0 0 0 0 0 0 0 0 0 0 0 0 0 0 0 0 0 0 0 0 0 0 0 0 0 0 0 0 0 0 0 0 0 0 0 0 0 0 0 0 0 -193 -193 0 0 0 0 0 -177 -177 0 0 0 -177 10 12 0 0 0 0 0 0 0 0 0 0 0 0 0 0 0 0 12 -225 -225 -225 -225 -225 -225 -225 -225 0 0 0 0 0 0 0 0 0 0 0 0 0 0 0 0 0 0 0 0 0 0 15 12 12 -193 946 948 10 11 12 0 0 0 10 10 10 9 9 10 10 10 11 9 10 12 12 13 16 12 10 11 11 11 9 12 10 -193 11 13 12 12 11 12 0 9 0 0 9 10 11 11 11 13 18 17 19 17 16 17 16 16 17 17 17 16 17 18 18 19 19 19 19 21 19 18 17 18 18 18 19 19 15 19 21 22 20 20 18 21 25 25 25 26 28 27 27 27 27 26 27 27 27 25 26 26 26 27 28 27 27 28 29 30 31 31 31 32 37 38 39 40 41 42 43 42 42 41 42 43 43 43 44 44 44 44 45 46 45 46 47 46 46 47 47 47 46 0 0 0 0 0
    0 0 0 0 0 0 0 0 0 0 0 0 0 0 0 0 0 0 0 0 0 0 0 0 0 0 0 0 0 0 0 0 0 0 0 0 0 0 0 0 0 0 0 0 0 0 0 0 0 0 0 0 0 0 0 0 0 0 0 0 0 0 0 0 0 0 0 0 0 0 0 0 0 0 0 0 0 0 0 0 0 0 0 0 0 0 0 0 0 0 0 0 0 0 0 0 0 0 0 0 0 0 0 0 0 0 0 0 -193 -193 0 0 0 0 0 -177 -177 0 0 0 -177 10 12 0 0 0 0 0 0 0 0 0 0 0 0 0 0 0 9 12 -225 -225 -225 -225 -225 -225 -225 -225 0 0 0 0 0 0 0 0 0 0 0 0 0 0 0 0 0 0 0 0 0 0 15 11 11 -193 946 948 -193 11 12 0 0 0 10 10 10 9 9 10 10 11 11 9 10 -193 12 13 16 11 10 10 10 10 9 11 10 -193 11 13 12 12 11 14 10 10 10 9 10 11 12 12 11 13 18 17 19 17 16 18 17 17 18 16 18 16 17 19 18 19 19 19 19 21 19 18 17 18 18 18 18 18 14 18 21 22 20 21 19 22 25 25 25 25 27 27 27 27 27 26 27 27 27 25 25 25 25 27 28 28 28 28 30 30 31 31 31 33 35 37 38 38 39 40 41 41 41 41 42 43 43 44 45 44 45 45 46 47 46 47 47 46 46 47 47 47 46 0 0 0 0 0
    0 0 0 0 0 0 0 0 0 0 0 0 0 0 0 0 0 0 0 0 0 0 0 0 0 0 0 0 0 0 0 0 0 0 0 0 0 0 0 0 0 0 0 0 0 0 0 0 0 0 0 0 0 0 0 0 0 0 0 0 0 0 0 0 0 0 0 0 0 0 0 0 0 0 0 0 0 0 0 0 0 0 0 0 0 0 0 0 0 0 0 0 0 0 0 0 0 0 0 0 0 0 0 0 0 0 0 0 -193 -193 0 0 0 0 0 -177 -177 0 0 0 -177 10 12 0 0 0 0 0 0 0 0 0 0 0 0 0 0 0 0 -225 -225 -225 -225 -225 -225 -225 -225 -225 0 0 0 0 0 0 0 0 0 0 0 0 0 0 0 0 0 0 0 0 0 0 14 11 11 -193 946 947 -193 11 11 0 0 0 10 10 10 9 9 10 11 11 11 9 10 -193 12 13 14 10 10 10 10 10 8 11 9 0 11 13 12 12 12 16 11 12 11 11 11 12 13 13 11 13 18 16 18 17 16 17 17 17 18 16 18 17 18 18 18 19 19 19 20 21 19 18 17 18 18 17 17 17 13 17 21 21 20 21 20 22 25 25 25 25 27 26 26 27 27 26 27 27 26 25 25 25 25 27 29 29 28 29 32 31 32 31 32 33 34 36 37 36 38 39 40 39 40 41 41 42 43 44 46 45 46 46 47 48 46 48 47 46 46 47 46 46 46 0 0 0 0 0
    0 0 0 0 0 0 0 0 0 0 0 0 0 0 0 0 0 0 0 0 0 0 0 0 0 0 0 0 0 0 0 0 0 0 0 0 0 0 0 0 0 0 0 0 0 0 0 0 0 0 0 0 0 0 0 0 0 0 0 0 0 0 0 0 0 0 0 0 0 0 0 0 0 0 0 0 0 0 0 0 0 0 0 0 0 0 0 0 0 0 0 0 0 0 0 0 0 0 0 0 0 0 0 0 0 0 0 0 -193 -177 0 0 0 0 0 -177 -177 0 0 0 -177 11 13 0 0 0 0 0 0 0 0 0 0 0 0 0 0 -225 -225 -225 -225 -225 -225 -225 -225 -225 -225 0 -193 0 0 0 0 0 0 0 0 0 0 0 0 0 0 0 0 0 0 0 0 0 14 11 11 -193 946 947 -193 11 11 0 0 0 9 9 10 9 9 11 11 11 11 9 10 -193 11 12 13 10 9 9 9 9 0 10 9 0 11 13 12 11 11 14 10 11 11 10 11 12 12 12 11 14 17 15 17 16 16 18 17 17 17 16 18 17 18 19 18 19 20 20 20 21 19 18 17 17 17 16 17 17 12 15 21 21 21 22 21 22 24 24 25 25 26 26 26 27 26 26 26 26 26 25 25 25 26 27 29 29 28 29 32 31 31 31 32 31 34 35 37 36 37 38 39 39 40 41 42 42 44 45 46 46 46 47 47 48 47 48 46 46 46 47 46 46 47 0 0 0 0 0
    0 0 0 0 0 0 0 0 0 0 0 0 0 0 0 0 0 0 0 0 0 0 0 0 0 0 0 0 0 0 0 0 0 0 0 0 0 0 0 0 0 0 0 0 0 0 0 0 0 0 0 0 0 0 0 0 0 0 0 0 0 0 0 0 0 0 0 0 0 0 0 0 0 0 0 0 0 0 0 0 0 0 0 0 0 0 0 0 0 0 0 0 0 0 0 0 0 0 0 0 0 0 0 0 0 0 0 0 -193 -177 0 0 0 0 0 -177 -177 0 0 0 -177 11 14 9 9 0 0 0 0 0 0 0 0 0 0 0 0 -225 -225 -225 -225 -225 -225 -225 -225 -225 -209 -193 -193 -193 -193 0 0 0 0 0 0 0 0 0 0 0 0 0 0 0 0 0 0 0 14 11 11 -193 946 947 -193 11 11 0 0 0 9 9 10 9 9 11 12 11 11 9 10 -193 11 11 12 9 9 9 9 9 0 10 9 0 11 12 11 11 12 14 10 11 11 10 11 12 12 12 11 14 16 15 17 16 17 18 17 17 17 17 19 18 18 19 18 19 21 19 19 21 18 17 17 17 17 15 17 17 11 15 21 22 22 22 22 22 24 24 24 24 25 25 26 26 26 25 26 26 25 25 25 25 26 27 29 29 28 30 31 31 31 31 32 31 32 35 36 36 37 38 39 39 41 41 42 42 44 46 46 46 47 47 48 48 48 48 46 47 46 47 46 46 47 0 0 0 0 0
    0 0 0 0 0 0 0 0 0 0 0 0 0 0 0 0 0 0 0 0 0 0 0 0 0 0 0 0 0 0 0 0 0 0 0 0 0 0 0 0 0 0 0 0 0 0 0 0 0 0 0 0 0 0 0 0 0 0 0 0 0 0 0 0 0 0 0 0 0 0 0 0 0 0 0 0 0 0 0 0 0 0 0 0 0 0 0 0 0 0 0 0 0 0 0 0 0 0 0 0 0 0 0 0 0 0 0 0 -193 -193 0 0 0 0 0 -177 -177 0 0 0 -177 11 14 -193 0 0 0 0 0 0 0 0 0 0 0 0 9 -225 -225 -225 -225 -225 -225 -225 10 -225 -209 -193 -193 -193 -193 0 0 0 0 0 0 0 0 0 0 0 0 9 0 0 9 0 0 0 15 11 12 -193 946 947 -193 11 11 0 0 0 9 10 9 9 9 10 11 11 11 0 9 -193 10 10 11 0 0 0 0 0 0 9 9 0 12 13 12 11 14 14 11 12 12 11 12 13 13 12 12 14 16 15 17 16 17 18 17 16 17 17 19 17 18 18 18 19 20 19 19 20 18 17 17 17 16 15 17 17 12 16 21 22 21 22 22 22 23 23 24 24 24 25 25 26 26 25 25 26 25 26 25 26 26 27 29 29 28 30 30 30 31 31 31 30 30 34 35 35 35 37 38 38 40 41 42 42 44 46 46 47 47 48 48 49 49 49 47 47 46 47 46 46 47 0 0 0 0 0
    0 0 0 0 0 0 0 0 0 0 0 0 0 0 0 0 0 0 0 0 0 0 0 0 0 0 0 0 0 0 0 0 0 0 0 0 0 0 0 0 0 0 0 0 0 0 0 0 0 0 0 0 0 0 0 0 0 0 0 0 0 0 0 0 0 0 0 0 0 0 0 0 0 0 0 0 0 0 0 0 0 0 0 0 0 0 0 0 0 0 0 0 0 0 0 9 0 0 0 0 0 0 0 0 0 0 0 0 -193 -193 0 0 0 0 0 -177 -177 0 0 0 -177 11 14 9 9 9 0 0 0 0 0 0 0 0 0 0 10 10 11 12 -225 -225 13 -225 9 10 -209 0 -193 -193 -209 0 0 0 0 0 0 0 0 0 0 0 0 9 -193 9 10 9 0 0 16 12 12 11 946 947 -193 11 11 0 0 0 10 10 9 9 0 10 11 10 10 0 0 0 9 9 10 0 0 0 0 0 0 9 9 0 12 13 12 11 14 14 11 12 13 11 12 13 13 13 12 15 16 15 17 17 17 17 16 16 17 17 18 17 18 18 18 20 20 19 19 21 19 18 18 18 17 16 17 17 13 16 21 21 21 21 22 22 23 23 23 23 23 24 24 25 25 25 25 26 26 26 26 26 26 28 30 30 29 30 30 30 30 31 31 29 29 32 34 32 33 35 36 36 39 40 41 41 44 46 47 47 48 48 48 49 48 49 47 47 47 47 46 47 47 0 0 0 0 0
    0 0 0 0 0 0 0 0 0 0 0 0 0 0 0 0 0 0 0 0 0 0 0 0 0 0 0 0 0 0 0 0 0 0 0 0 0 0 0 0 0 0 0 0 0 0 0 0 0 0 0 0 0 0 0 0 0 0 0 0 0 0 0 0 0 0 0 0 0 0 0 0 0 0 0 0 0 0 0 0 0 0 0 0 0 0 0 0 0 0 0 0 0 0 0 0 0 0 0 0 0 0 0 0 0 0 0 0 -193 -193 0 0 0 0 0 0 0 0 0 0 -177 11 14 10 10 10 9 0 0 0 0 0 0 0 0 0 10 11 11 12 13 12 13 -225 10 10 9 9 -193 -209 -193 9 9 -193 0 0 0 0 0 0 0 0 0 9 0 9 10 10 0 0 -177 12 12 11 -193 -193 -193 11 11 0 0 0 10 10 9 9 9 10 11 10 10 0 0 0 9 0 9 0 0 0 0 0 0 0 0 0 12 13 12 11 14 14 12 13 13 12 12 13 14 13 13 14 16 14 17 16 16 17 16 17 17 17 19 17 18 18 18 20 20 19 18 21 19 18 18 18 17 16 18 18 13 16 20 21 20 21 22 22 23 22 23 23 23 23 24 24 24 24 25 25 25 27 27 26 26 28 29 29 28 31 30 29 30 31 31 29 28 30 33 31 32 33 34 34 38 39 40 41 44 47 48 47 48 48 48 48 47 48 47 47 47 47 47 48 48 0 0 0 0 0
    0 0 0 0 0 0 0 0 0 0 0 0 0 0 0 0 0 0 0 0 0 0 0 0 0 0 0 0 0 0 0 0 0 0 0 0 0 0 0 0 0 0 0 0 0 0 0 0 0 0 0 0 0 0 0 0 0 0 0 0 0 0 0 0 0 0 0 0 0 0 0 0 0 0 0 0 0 0 0 0 0 0 0 0 0 0 0 0 0 0 0 0 0 0 0 0 0 0 0 0 0 0 0 0 0 0 0 0 -193 -193 0 0 0 0 0 0 0 0 0 0 -177 11 14 10 10 10 9 0 0 0 0 0 0 0 0 0 9 10 11 11 12 12 13 12 11 11 10 10 -193 -193 -193 10 10 10 0 0 0 0 0 0 0 0 0 9 9 9 10 10 -209 -177 17 12 13 12 11 -193 11 11 11 0 0 0 10 10 9 9 9 10 11 10 10 0 0 0 9 0 10 0 0 0 0 0 0 9 8 0 11 13 12 11 14 14 12 14 13 12 13 14 14 13 13 15 15 14 16 16 16 16 17 17 17 17 18 17 18 18 18 19 19 18 18 21 19 18 18 18 17 16 18 18 13 17 20 21 20 20 22 22 22 22 22 22 22 22 23 24 24 23 24 25 25 26 26 26 25 27 29 29 28 31 30 29 29 31 31 29 28 30 32 31 31 32 32 33 37 38 40 41 44 48 48 48 49 48 48 48 47 48 47 47 47 47 48 49 49 0 0 0 0 0
    0 0 0 0 0 0 0 0 0 0 0 0 0 0 0 0 0 0 0 0 0 0 0 0 0 0 0 0 0 0 0 0 0 0 0 0 0 0 0 0 0 0 0 0 0 0 0 0 0 0 0 0 0 0 0 0 0 0 0 0 0 0 0 0 0 0 0 0 0 0 0 0 0 0 0 0 0 0 0 0 0 0 0 0 0 0 0 0 0 0 0 0 0 0 0 0 0 0 0 0 0 0 0 0 0 0 0 0 -193 0 0 0 0 0 0 0 0 0 0 0 -177 11 14 10 10 10 9 0 0 0 0 0 0 0 0 0 9 10 10 11 11 12 13 12 11 11 10 10 -193 -193 -193 -193 10 11 0 9 0 0 0 0 0 0 0 10 9 10 11 11 -209 9 18 13 13 12 12 12 11 11 11 0 0 0 9 9 9 9 9 10 10 10 10 0 0 0 0 0 10 0 0 0 0 0 0 9 9 0 12 13 12 11 14 13 12 14 13 12 13 14 14 13 13 14 14 14 16 16 16 17 17 17 17 18 18 17 18 18 18 19 19 18 18 21 19 18 17 18 17 16 18 18 13 18 20 21 20 20 22 22 23 22 22 23 22 23 23 24 24 23 24 25 25 26 26 26 24 25 27 27 27 30 29 28 29 31 31 29 28 30 32 30 31 32 31 31 36 38 39 39 43 48 48 47 48 47 47 47 46 48 46 47 48 47 48 49 49 0 0 0 0 0
    0 0 0 0 0 0 0 0 0 0 0 0 0 0 0 0 0 0 0 0 0 0 0 0 0 0 0 0 0 0 0 0 0 0 0 0 0 0 0 0 0 0 0 0 0 0 0 0 0 0 0 0 0 0 0 0 0 0 0 0 0 0 0 0 0 0 0 0 0 0 0 0 0 0 0 0 0 0 0 0 0 0 0 0 0 0 0 0 0 0 0 0 0 0 0 0 0 0 0 0 0 0 0 0 0 0 0 0 -193 0 0 0 0 0 0 0 0 0 0 0 -177 11 14 10 10 10 9 0 9 9 10 9 0 0 8 0 9 10 10 11 11 12 13 12 12 11 10 9 -193 -209 -209 -193 9 10 0 0 0 0 9 9 9 0 9 10 9 10 12 12 -209 9 18 13 13 12 12 11 11 11 11 0 0 0 9 9 9 10 9 10 10 10 10 0 0 0 0 0 9 0 0 0 0 9 9 10 9 9 12 13 13 12 14 12 12 14 13 12 13 13 13 12 14 14 14 14 16 15 15 17 17 17 16 17 18 17 18 18 17 19 18 18 18 20 18 17 18 18 17 17 18 18 14 18 20 20 19 20 22 22 22 22 22 23 22 23 24 24 24 23 24 25 25 26 26 26 25 25 27 27 26 31 28 28 28 33 32 29 28 30 32 31 31 31 30 31 36 37 38 38 43 46 46 46 47 46 46 46 46 48 47 47 48 48 49 49 49 0 0 0 0 0
    0 0 0 0 0 0 0 0 0 0 0 0 0 0 0 0 0 0 0 0 0 0 0 0 0 0 0 0 0 0 0 0 0 0 0 0 0 0 0 0 0 0 0 0 0 0 0 0 0 0 0 0 0 0 0 0 0 0 0 0 0 0 0 0 0 0 0 0 0 0 0 0 0 0 0 0 0 0 0 0 0 0 0 0 0 0 0 0 0 0 0 0 0 0 0 0 0 0 0 0 0 0 0 0 0 0 0 0 0 0 0 0 0 0 0 0 0 0 0 0 -177 11 13 10 10 10 10 0 10 10 10 10 10 9 9 9 10 10 11 11 11 11 12 13 12 12 11 -209 -209 -209 -209 -209 9 9 0 0 9 9 9 9 9 9 9 10 10 10 12 12 -209 9 18 13 13 12 12 11 11 11 11 0 0 0 9 9 10 10 9 10 10 10 10 0 0 0 0 0 10 0 0 0 0 9 9 10 9 9 11 13 13 12 14 11 11 14 13 12 14 13 13 13 14 14 14 15 17 15 15 17 17 17 17 17 18 16 18 18 17 19 18 18 18 20 18 18 18 19 17 17 18 18 14 18 19 20 18 20 21 22 22 21 22 22 22 23 24 24 24 23 24 25 25 27 26 26 25 25 26 26 26 30 27 27 28 32 30 28 28 30 31 30 31 31 30 32 36 37 38 39 43 45 46 46 46 45 46 46 45 48 47 47 48 48 50 49 49 0 0 0 0 0
    0 0 0 0 0 0 0 0 0 0 0 0 0 0 0 0 0 0 0 0 0 0 0 0 0 0 0 0 0 0 0 0 0 0 0 0 0 0 0 0 0 0 0 0 0 0 0 0 0 0 0 0 0 0 0 0 0 0 0 0 0 0 0 0 0 0 0 0 0 0 0 0 0 0 0 0 0 0 0 0 0 0 0 0 0 0 0 0 0 0 0 0 0 0 0 0 0 0 0 0 0 0 0 0 0 0 0 0 0 0 0 0 0 0 0 0 0 0 0 0 -177 11 12 9 9 9 9 0 9 9 10 10 9 9 9 9 9 10 10 11 11 -225 12 -225 13 13 12 9 -209 -209 157 -209 -193 -209 0 0 9 9 9 9 9 9 9 10 10 10 12 11 -209 9 17 12 13 12 11 11 10 11 11 0 0 0 9 9 10 11 10 10 10 10 10 0 0 0 0 0 10 0 0 0 9 9 9 10 10 9 11 12 12 12 13 12 13 16 14 13 14 14 14 13 14 14 14 14 17 14 15 16 16 16 17 17 18 15 18 18 17 19 18 17 17 20 18 17 18 19 17 18 19 19 15 19 20 20 18 20 21 22 22 21 22 23 22 23 24 25 24 24 25 26 25 27 26 26 25 25 25 26 26 30 27 27 29 32 30 28 28 30 31 31 32 31 31 34 37 37 38 39 42 43 45 46 46 45 46 46 45 48 47 47 48 48 50 49 50 0 0 0 0 0
    0 0 0 0 0 0 0 0 0 0 0 0 0 0 0 0 0 0 0 0 0 0 0 0 0 0 0 0 0 0 0 0 0 0 0 0 0 0 0 0 0 0 0 0 0 0 0 0 0 0 0 0 0 0 0 0 0 0 0 0 0 0 0 0 0 0 0 0 0 0 0 0 0 0 0 0 0 0 0 0 0 0 0 0 0 0 0 0 0 0 0 0 0 0 0 0 0 0 0 0 0 0 0 0 0 0 0 0 0 0 0 0 0 0 0 0 0 0 0 0 -177 10 12 0 0 0 9 0 8 9 9 10 9 9 9 0 9 10 10 11 -225 -225 12 -225 13 13 11 -193 -209 -209 155 -209 -209 -209 0 9 10 10 10 10 10 9 9 10 10 9 11 11 -209 0 16 12 12 11 11 10 10 10 10 0 0 0 9 9 10 11 10 11 11 10 10 0 0 0 0 0 10 0 0 0 9 9 9 11 10 9 11 12 13 13 13 12 13 17 13 13 15 14 14 14 14 14 14 15 17 15 15 16 16 17 17 17 18 15 18 18 17 19 17 16 16 20 17 17 18 19 17 18 19 19 15 20 20 19 19 20 22 22 23 22 23 23 23 24 25 25 25 24 25 26 26 27 26 26 25 25 25 26 27 31 28 28 30 32 31 29 29 30 31 31 32 31 31 34 37 37 38 39 42 44 45 46 46 45 46 46 45 47 46 47 47 48 50 50 50 0 0 0 0 0
    0 0 0 0 0 0 0 0 0 0 0 0 0 0 0 0 0 0 0 0 0 0 0 0 0 0 0 0 0 0 0 0 0 0 0 0 0 0 0 0 0 0 0 0 0 0 0 0 0 0 0 0 0 0 0 0 0 0 0 0 0 0 0 0 0 0 0 0 0 0 0 0 0 0 0 0 0 0 0 0 0 0 0 0 0 0 0 0 0 0 0 0 0 0 0 0 0 0 0 0 0 0 0 0 0 0 0 0 0 0 0 0 0 0 0 0 0 0 0 0 -193 10 12 0 0 0 9 0 0 0 9 9 9 9 0 0 8 9 10 10 10 -225 12 13 12 12 -209 -209 -209 -209 -209 -209 -209 -209 -209 10 11 10 10 10 10 10 9 10 9 0 10 10 -193 0 15 11 12 11 11 -193 9 10 10 0 0 0 9 9 10 12 11 12 12 11 11 9 9 0 0 0 10 0 0 0 9 9 10 11 10 9 11 12 13 13 12 11 13 18 13 13 15 14 14 14 14 14 14 15 17 14 15 16 16 17 16 16 18 15 18 18 17 19 16 16 16 20 17 17 18 19 17 19 19 19 16 20 20 19 19 20 22 22 23 22 23 24 24 24 25 26 25 25 26 26 26 26 26 27 26 25 25 27 28 32 28 29 30 32 31 29 29 30 31 31 32 31 32 34 37 37 38 40 42 44 45 47 46 45 46 46 45 47 46 47 47 48 50 49 50 0 0 0 0 0
    0 0 0 0 0 0 0 0 0 0 0 0 0 0 0 0 0 0 0 0 0 0 0 0 0 0 0 0 0 0 0 0 0 0 0 0 0 0 0 0 0 0 0 0 0 0 0 0 0 0 0 0 0 0 0 0 0 0 0 0 0 0 0 0 0 0 0 0 0 0 0 9 9 0 0 0 0 0 0 0 0 0 0 0 0 0 0 0 0 0 0 0 0 0 0 0 0 0 0 0 0 0 0 0 0 0 0 0 0 0 0 0 0 0 0 0 0 0 0 0 -193 10 12 0 0 0 9 0 8 0 9 9 0 0 0 0 0 0 9 9 -225 -225 11 -225 13 12 -209 -193 -209 -209 -209 -209 -209 -209 -209 10 11 10 10 10 10 10 10 10 9 0 8 10 0 0 14 11 11 11 11 -193 9 10 10 0 0 0 9 9 10 12 12 12 13 12 12 9 10 0 0 0 10 0 9 9 9 9 10 11 10 9 11 12 12 13 12 11 14 19 13 14 15 14 14 14 14 14 14 15 17 14 15 16 17 16 16 16 17 14 19 18 17 19 16 15 15 20 16 16 18 18 17 19 19 19 16 20 20 20 19 19 21 21 23 22 23 24 24 25 26 27 26 26 27 27 26 26 26 27 26 25 26 27 28 32 29 29 31 32 31 30 30 31 31 32 33 33 33 36 38 38 39 41 43 44 45 47 46 46 46 46 45 47 46 47 46 47 50 49 50 0 0 0 0 0
    0 0 0 0 0 0 0 0 0 0 0 0 0 0 0 0 0 0 0 0 0 0 0 0 0 0 0 0 0 0 0 0 0 0 0 0 0 0 0 0 0 0 0 0 0 0 0 0 0 0 0 0 0 0 0 0 0 0 0 0 0 0 0 0 0 0 0 0 0 0 0 0 9 0 0 0 0 0 0 0 0 0 0 0 0 0 0 0 0 0 0 0 0 0 0 0 0 0 0 0 0 0 0 0 0 0 0 0 0 0 0 0 0 0 0 0 0 0 0 0 -193 10 12 0 0 0 9 0 9 9 9 9 9 9 9 0 0 -225 0 -225 -225 -225 -225 -225 -225 13 -209 161 -193 -193 -193 -209 -209 -209 -209 10 11 10 11 11 10 10 10 10 9 0 0 10 0 0 13 10 11 10 10 -193 -193 10 10 0 0 0 9 9 11 13 12 12 13 11 12 9 11 0 0 0 10 9 9 9 10 9 11 11 10 9 11 11 12 13 11 11 14 18 13 14 15 14 13 14 14 14 14 15 17 14 15 17 16 16 16 16 17 13 18 18 17 18 15 14 15 20 16 16 18 18 17 19 19 19 16 21 20 20 19 20 21 22 23 22 23 25 26 26 27 27 27 27 27 28 26 26 26 26 26 25 26 27 28 31 29 30 31 32 31 30 30 32 32 34 35 35 35 37 39 39 39 41 43 44 44 47 46 45 46 46 46 47 46 47 45 48 49 48 49 0 0 0 0 0
    0 0 0 0 0 0 0 0 0 0 0 0 0 0 0 0 0 0 0 0 0 0 0 0 0 0 0 0 0 0 0 0 0 0 0 0 0 0 0 0 0 0 0 0 0 0 0 0 0 0 0 0 0 0 0 0 0 0 0 0 0 0 0 0 0 0 0 0 0 0 0 0 0 0 0 0 0 0 0 0 0 0 0 0 0 0 0 0 0 0 0 0 0 0 0 0 0 0 0 0 0 0 0 0 0 0 0 0 0 0 0 0 0 0 0 0 0 0 0 0 -193 10 12 0 0 0 10 0 10 10 10 10 10 10 10 0 9 0 0 0 -225 -225 -225 -225 -225 13 -209 -193 -209 -193 -209 -209 -209 -209 -193 11 12 11 11 12 11 11 11 10 0 0 0 0 0 0 12 10 11 10 -193 -193 -193 11 11 0 0 0 9 9 11 13 12 12 12 11 11 0 10 0 0 0 10 9 9 9 10 9 11 12 10 9 11 11 12 13 11 11 14 17 13 13 15 13 13 14 14 14 14 14 18 14 15 16 16 16 16 16 17 13 19 19 17 18 16 15 16 20 17 17 18 19 18 20 20 20 17 21 21 20 20 21 22 22 24 22 23 25 26 26 26 27 27 26 27 28 27 26 26 27 26 26 26 28 28 31 29 30 31 32 31 32 31 34 33 35 37 36 37 38 39 39 40 41 42 43 44 46 45 45 46 45 46 47 46 47 44 48 48 48 48 0 0 0 0 0
    0 0 0 0 0 0 0 0 0 0 0 0 0 0 0 0 0 0 0 0 0 0 0 0 0 0 0 0 0 0 0 0 0 0 0 0 0 0 0 0 0 0 0 0 0 0 0 0 0 0 0 0 0 0 0 0 0 0 0 0 0 0 0 0 0 0 0 0 0 0 0 0 0 0 0 0 0 0 0 0 0 0 0 0 0 0 0 0 0 0 0 0 0 0 0 0 0 0 0 0 0 0 0 0 0 0 0 0 0 0 0 0 0 0 0 0 -177 0 0 0 -193 10 12 0 0 0 10 0 10 10 10 10 10 10 10 9 10 9 9 9 -225 -225 -225 -225 11 14 -209 -209 -209 -209 -209 -209 -209 -209 -209 11 12 11 11 12 11 10 10 9 0 0 0 0 0 0 11 10 11 10 -193 946 -193 11 11 0 0 0 10 10 11 12 12 12 12 11 11 0 9 0 0 0 9 9 9 9 9 9 11 12 10 9 11 11 13 13 12 12 13 17 13 13 14 13 13 14 15 14 14 15 18 15 15 16 15 15 16 16 17 13 19 18 17 18 16 15 16 20 17 17 18 19 18 20 20 20 18 22 21 21 21 21 22 22 25 23 24 26 26 26 27 27 27 26 28 28 27 27 27 27 27 26 26 29 29 31 29 31 32 32 31 33 33 36 35 37 38 38 39 40 40 40 40 42 43 44 44 46 45 45 46 45 46 46 45 46 44 48 48 47 48 0 0 0 0 0
    0 0 0 0 0 0 0 0 0 0 0 0 0 0 0 0 0 0 0 0 0 0 0 0 0 0 0 0 0 0 0 0 0 0 0 0 0 0 0 0 0 0 0 0 0 0 0 0 0 0 0 0 0 0 0 0 0 0 0 0 0 0 0 0 0 0 0 0 0 0 0 0 0 0 0 0 0 0 0 0 0 0 0 0 0 0 0 0 0 0 0 0 0 0 0 0 0 0 0 0 0 0 0 0 0 0 0 0 0 0 0 0 0 0 0 0 -177 0 0 0 -193 10 12 0 0 0 0 0 9 9 9 10 9 10 10 9 10 9 10 9 0 -225 -225 -225 -225 14 -209 -209 -209 -209 -209 -209 -193 -193 -209 -193 11 10 10 11 9 9 9 0 0 0 0 0 0 0 11 10 11 10 -193 946 -193 11 12 9 9 0 10 10 11 12 12 12 12 11 11 9 10 0 0 0 9 9 9 9 9 9 12 12 10 0 12 11 13 13 12 12 14 17 14 13 14 13 13 15 14 15 14 15 18 15 15 16 15 15 15 16 17 12 18 18 18 18 17 15 16 19 17 17 19 19 19 20 20 20 19 22 22 22 22 22 24 23 25 23 23 25 25 25 26 26 26 25 27 28 27 27 27 28 27 26 26 29 28 30 29 31 32 31 31 34 34 38 36 38 39 39 40 41 41 41 41 43 43 44 44 46 45 45 45 46 45 46 45 46 44 48 49 47 49 0 0 0 0 0
    0 0 0 0 0 0 0 0 0 0 0 0 0 0 0 0 0 0 0 0 0 0 0 0 0 0 0 0 0 0 0 0 0 0 0 0 0 0 0 0 0 0 0 0 0 0 0 0 0 0 0 0 0 0 0 0 0 0 0 0 0 0 0 0 0 0 0 0 0 0 0 0 0 0 0 0 0 0 0 0 0 0 0 0 0 0 0 0 0 0 0 0 0 0 0 0 0 0 0 0 0 0 0 0 0 0 0 0 0 0 0 0 0 0 0 0 0 0 0 0 -193 10 12 0 0 0 0 0 0 0 9 9 9 10 10 9 11 10 10 10 0 9 10 12 13 13 -209 -193 9 -209 -209 -209 -193 -209 -193 10 10 9 10 10 0 0 0 0 0 0 0 0 0 0 11 10 11 11 -193 -193 -193 11 12 9 10 0 11 11 11 12 12 12 12 11 11 9 10 0 0 0 10 9 9 9 9 9 12 11 10 0 13 12 13 13 12 12 14 16 14 12 13 13 13 14 14 15 14 15 18 16 15 15 15 15 15 17 17 12 18 18 18 18 17 15 16 19 18 18 19 19 19 21 21 21 20 23 23 23 25 23 25 24 26 23 23 24 25 25 25 25 25 25 27 28 27 27 26 27 27 27 27 29 28 29 29 30 31 31 32 34 35 38 37 38 40 40 41 41 42 42 41 43 43 44 44 46 45 45 45 45 45 45 44 46 43 46 47 46 49 0 0 0 0 0
    0 0 0 0 0 0 0 0 0 0 0 0 0 0 0 0 0 0 0 0 0 0 0 0 0 0 0 0 0 0 0 0 0 0 0 0 0 0 0 0 0 0 0 0 0 0 0 0 0 0 0 0 0 0 0 0 0 0 0 0 0 0 0 0 0 0 0 0 0 0 0 0 0 0 0 0 0 0 0 0 0 0 0 0 0 0 0 0 0 0 0 0 0 0 0 0 0 0 0 0 0 0 0 0 0 0 0 0 0 0 0 0 0 0 0 0 0 0 0 0 -193 11 12 9 0 0 9 0 9 9 9 9 9 9 10 9 11 11 11 12 11 11 15 15 17 15 15 12 11 -193 -193 -193 9 9 9 10 9 9 9 9 0 0 0 0 0 0 0 0 0 0 12 10 11 11 11 -193 10 12 12 9 11 9 12 11 11 13 12 12 12 11 11 9 11 0 0 0 11 9 9 10 9 9 11 11 10 0 13 12 14 13 12 12 14 16 14 12 13 13 14 15 15 16 13 15 19 16 15 16 16 16 15 17 17 12 18 18 18 19 17 15 17 19 18 18 19 18 19 20 21 20 20 22 23 23 24 23 25 25 25 23 23 24 24 24 25 24 24 25 26 27 27 26 26 27 27 27 27 29 28 29 29 30 30 31 32 35 35 38 37 38 40 40 41 41 41 41 41 42 42 43 44 46 45 44 45 44 45 45 44 45 43 44 46 45 47 0 0 0 0 0
    0 0 0 0 0 0 0 0 0 0 0 0 0 0 0 0 0 0 0 0 0 0 0 0 0 0 0 0 0 0 0 0 0 0 0 0 0 0 0 0 0 0 0 0 0 0 0 0 0 0 0 0 0 0 0 0 0 0 0 0 0 0 0 0 0 0 0 0 0 0 0 0 0 0 0 0 0 0 0 0 0 0 0 0 0 0 0 0 0 0 0 0 0 0 0 0 0 0 0 0 0 0 0 0 0 0 0 0 0 0 0 0 0 0 0 0 0 0 0 9 9 11 13 9 8 0 10 0 10 9 9 9 9 9 9 9 10 11 11 12 12 13 18 16 18 15 16 -193 -193 -193 -193 -193 10 9 9 9 9 8 9 0 0 0 0 0 0 0 0 0 0 0 12 10 11 11 11 -193 11 12 13 10 12 10 13 11 11 12 12 11 11 10 11 9 11 0 0 0 11 10 10 10 9 9 11 11 10 0 14 12 13 13 12 12 14 17 14 12 13 13 14 15 15 16 13 15 19 16 15 16 15 16 15 17 17 12 18 18 18 18 16 15 18 18 19 18 18 18 18 20 20 20 21 23 23 23 25 23 25 25 25 23 23 24 24 24 24 24 24 25 26 27 26 26 27 27 27 27 28 29 28 28 28 30 29 31 31 35 37 39 39 39 41 41 41 41 41 41 41 41 42 42 43 44 44 43 44 43 44 44 44 44 42 43 45 44 46 0 0 0 0 0
    0 0 0 0 0 0 0 0 0 0 0 0 0 0 0 0 0 0 0 0 0 0 0 0 0 0 0 0 0 0 0 0 0 0 0 0 0 0 0 0 0 0 0 0 0 0 0 0 0 0 0 0 0 0 0 0 0 0 0 0 0 0 0 0 0 0 0 0 0 0 0 0 0 0 0 0 0 0 0 0 0 0 0 0 0 0 0 0 0 0 0 0 0 0 0 0 0 0 0 0 0 0 0 0 0 0 0 0 0 0 0 0 0 0 0 0 0 0 9 9 9 11 13 9 9 9 10 9 10 9 9 9 9 0 9 9 10 11 11 11 12 12 17 15 16 -193 15 -193 -193 -193 -193 -193 11 9 10 9 9 0 0 0 0 0 0 0 0 0 0 0 0 0 12 10 11 11 11 12 11 12 13 10 13 10 14 12 11 12 11 11 11 9 10 9 11 0 0 0 12 10 10 10 10 9 11 12 11 0 14 12 14 13 12 12 13 16 14 12 12 12 13 15 15 15 13 14 19 16 15 15 15 15 15 17 17 12 17 18 18 18 17 16 19 18 19 18 18 17 17 19 19 18 21 22 24 25 26 25 26 26 25 23 23 25 24 24 24 24 24 25 26 27 26 26 26 26 26 27 27 28 26 27 27 29 29 31 31 35 36 39 38 40 42 41 41 41 41 41 41 42 42 42 43 43 44 43 43 43 43 43 43 43 42 43 44 44 45 0 0 0 0 0
    0 0 0 0 0 0 0 0 0 0 0 0 0 0 0 0 0 0 0 0 0 0 0 0 0 0 0 0 0 0 0 0 0 0 0 0 0 0 0 0 0 0 0 0 0 0 0 0 0 0 0 0 0 0 0 0 0 0 0 0 0 0 0 0 0 0 0 0 0 0 0 0 0 0 0 0 0 0 0 0 0 0 0 0 0 0 0 0 0 0 0 0 0 0 0 0 0 0 0 0 0 0 0 0 0 0 0 0 0 0 0 0 0 0 0 9 9 0 9 9 10 11 12 10 9 9 10 9 10 0 0 0 0 0 9 9 9 11 11 11 12 11 17 14 16 14 15 13 -193 12 -193 10 11 10 10 9 9 0 0 0 0 0 0 0 0 0 0 0 0 0 11 10 11 11 11 12 12 13 14 10 13 11 14 12 11 11 11 11 11 9 10 9 11 0 0 0 13 10 10 11 10 10 12 13 11 9 14 12 14 12 12 12 13 16 13 11 12 12 13 15 15 16 12 15 19 16 15 16 15 16 15 17 17 13 18 18 18 18 18 17 20 19 19 19 18 17 17 18 18 17 22 23 25 27 29 27 28 27 26 24 23 25 24 24 24 24 23 24 26 27 25 26 25 25 24 26 25 26 25 26 26 28 28 29 29 35 35 38 38 39 41 41 41 41 41 41 40 41 42 41 43 43 43 42 43 42 42 43 43 43 43 43 44 44 45 0 0 0 0 0
    0 0 0 0 0 0 0 0 0 0 0 0 0 0 0 0 0 0 0 0 0 0 0 0 0 0 0 0 0 0 0 0 0 0 0 0 0 0 0 0 0 0 0 0 0 0 0 0 0 0 0 0 0 0 0 0 0 0 0 0 0 0 0 0 0 0 0 0 0 0 0 0 0 0 0 0 0 0 0 0 0 0 0 0 0 0 0 0 0 0 0 0 0 0 0 0 0 0 0 0 0 0 0 0 0 0 0 0 0 0 0 0 0 0 0 9 9 0 9 9 10 11 12 10 10 9 10 0 9 0 0 0 0 0 0 9 9 10 11 11 12 11 16 14 15 14 15 13 14 12 13 10 11 10 9 9 0 0 0 0 0 0 0 0 0 0 0 0 0 0 11 10 11 11 11 12 12 12 14 11 13 11 14 12 11 11 11 10 10 9 10 9 11 0 8 0 14 11 11 11 11 10 12 13 12 9 15 13 14 12 12 12 13 17 13 12 13 13 14 15 15 16 12 14 19 15 15 15 15 15 15 17 17 13 18 18 17 19 19 18 20 18 19 18 18 17 16 17 17 15 21 23 26 27 29 27 28 27 25 24 23 25 24 24 24 24 23 25 26 27 26 26 27 26 24 -193 25 27 26 27 26 27 28 29 29 33 34 37 36 38 41 40 40 40 41 40 40 41 42 41 43 43 43 42 42 42 42 42 42 42 42 42 44 44 44 0 0 0 0 0
    0 0 0 0 0 0 0 0 0 0 0 0 0 0 0 0 0 0 0 0 0 0 0 0 0 0 0 0 0 0 0 0 0 0 0 0 0 0 0 0 0 0 0 0 0 0 0 0 0 0 0 0 0 0 0 0 0 0 0 0 0 0 0 0 0 0 0 0 0 9 0 0 0 0 0 0 0 0 0 0 0 0 0 0 0 0 0 0 0 0 0 0 0 0 0 0 0 0 0 0 0 0 0 0 0 0 0 0 0 0 0 0 0 0 0 9 9 9 10 10 10 11 12 10 10 9 10 0 9 0 0 0 0 0 0 0 0 10 11 12 13 11 15 13 15 14 14 13 14 12 13 10 11 9 9 0 0 0 0 0 0 0 0 0 0 0 0 0 0 0 12 11 11 11 11 12 12 12 13 11 13 11 15 12 11 11 11 10 10 9 10 9 11 0 9 0 15 11 11 12 11 11 12 14 12 9 15 13 14 13 12 12 13 18 14 12 13 14 14 15 16 17 12 14 19 15 15 16 15 15 15 17 17 13 17 16 17 18 18 18 20 18 18 18 18 17 15 16 16 14 19 22 25 25 27 26 27 27 25 24 24 25 25 25 25 25 24 26 27 27 26 27 29 -209 26 -193 26 28 26 27 26 27 28 28 28 31 31 35 34 37 40 39 39 40 40 40 39 40 41 40 42 42 43 42 42 42 42 42 42 42 42 42 44 43 44 0 0 0 0 0
    0 0 0 0 0 0 0 0 0 0 0 0 0 0 0 0 0 0 0 0 0 0 0 0 0 0 0 0 0 0 0 0 0 0 0 0 0 0 0 0 0 0 0 0 0 0 0 0 0 0 0 0 0 0 0 0 0 0 0 0 0 0 0 0 0 0 0 0 0 9 0 0 0 0 0 0 0 0 0 0 0 0 0 0 0 0 0 0 0 0 0 0 0 0 0 0 0 0 0 0 0 0 0 0 0 0 0 0 0 0 0 0 0 0 10 10 10 10 11 11 12 11 11 10 10 9 10 0 0 0 0 0 0 0 0 0 0 9 -193 12 13 -193 -193 13 15 14 14 12 13 12 13 10 10 9 8 0 0 0 0 0 0 0 0 0 0 0 0 0 0 0 11 10 11 10 10 11 11 11 12 11 14 11 15 12 11 11 11 11 10 9 10 9 12 9 10 9 17 12 12 12 12 11 13 14 12 9 14 13 14 13 12 12 12 18 14 12 13 14 14 15 16 17 11 13 19 15 15 16 15 15 15 17 17 13 17 16 16 18 18 19 20 18 18 18 18 17 16 16 15 14 19 22 24 23 25 25 25 26 23 23 23 25 24 24 25 25 24 26 27 27 25 27 30 29 27 27 27 29 27 28 27 28 28 28 28 29 29 32 31 35 38 37 37 38 38 38 38 39 40 39 42 42 43 41 42 42 42 41 42 41 41 42 43 43 44 0 0 0 0 0
    0 0 0 0 0 0 0 0 0 0 0 0 0 0 0 0 0 0 0 0 0 0 0 0 0 0 0 0 0 0 0 0 0 0 0 0 0 0 0 0 0 0 0 0 0 0 0 0 0 0 0 0 0 0 0 0 0 0 0 0 0 0 0 0 0 0 0 0 0 0 0 0 0 0 0 0 0 0 0 0 0 0 0 0 0 0 0 0 0 0 0 0 0 0 0 0 0 0 9 0 0 0 0 0 0 0 0 0 0 0 0 0 11 10 12 11 11 11 13 13 14 12 12 10 11 10 10 0 0 0 0 0 0 0 0 0 0 0 0 11 -193 -193 13 12 14 13 12 12 12 11 12 10 9 9 0 0 0 0 0 0 0 0 0 0 0 9 10 11 10 9 10 9 9 9 9 9 9 9 10 10 13 11 15 12 12 11 11 11 10 9 10 9 12 9 10 9 17 13 13 13 12 11 13 14 12 9 13 13 13 13 12 12 12 18 14 13 13 13 14 14 16 16 11 13 19 15 15 15 16 15 15 17 17 13 18 16 17 18 19 19 21 18 18 17 18 16 15 14 14 12 17 21 22 22 23 24 24 26 24 24 24 26 25 25 25 25 25 27 27 28 25 28 30 30 29 29 28 29 28 29 27 28 28 28 28 28 28 29 29 32 36 34 35 35 36 37 37 38 39 38 41 42 42 41 41 42 41 41 41 41 41 41 43 43 43 0 0 0 0 0
    0 0 0 0 0 0 0 0 0 0 0 0 0 0 0 0 0 0 0 0 0 0 0 0 0 0 0 0 0 0 0 0 0 0 0 0 0 0 0 0 0 0 0 0 0 0 0 0 0 0 0 0 0 0 0 0 0 0 0 0 0 0 0 0 0 0 0 0 0 0 0 0 0 0 0 0 0 0 0 0 0 0 0 0 0 0 0 0 0 0 0 0 0 0 0 0 0 0 9 0 0 0 0 0 0 0 0 0 9 0 0 0 11 10 12 12 12 12 13 14 14 12 13 11 11 11 10 9 9 0 0 0 0 0 0 0 0 0 0 -209 -209 10 12 12 13 12 11 11 11 11 11 10 9 9 0 0 0 0 0 0 0 0 0 0 0 10 11 13 -193 -193 -193 0 0 0 0 0 0 9 9 10 13 11 14 11 11 11 11 11 10 9 10 9 12 10 10 9 17 13 13 13 13 12 13 15 12 9 14 13 13 13 12 12 11 19 14 13 14 14 14 15 16 16 10 12 19 14 15 16 16 16 15 18 18 14 19 17 18 20 21 20 21 18 17 17 16 15 14 13 13 10 13 19 20 20 21 22 23 24 24 24 24 27 25 25 26 26 26 28 27 28 25 28 29 29 29 29 29 30 29 29 28 29 28 28 28 28 28 29 29 31 34 33 33 32 35 35 35 37 39 37 41 41 41 40 41 41 41 41 40 40 40 41 43 42 43 0 0 0 0 0
    0 0 0 0 0 0 0 0 0 0 0 0 0 0 0 0 0 0 0 0 0 0 0 0 0 0 0 0 0 0 0 0 0 0 0 0 0 0 0 0 0 0 0 0 0 0 0 0 0 0 0 0 0 0 0 0 0 0 0 0 0 0 0 0 0 0 0 0 0 0 0 0 0 9 0 0 0 0 0 0 0 0 0 0 0 0 0 0 0 0 0 0 0 0 0 0 0 0 9 0 0 0 0 0 0 0 0 0 0 0 0 0 11 10 12 12 12 12 13 14 14 12 13 11 11 10 9 9 0 0 0 0 0 0 0 0 0 -193 -193 -193 -193 -193 11 11 12 12 11 11 11 11 11 10 10 10 9 9 9 0 0 0 0 9 0 0 0 10 11 13 -193 -193 -193 -193 9 0 0 -209 0 10 10 10 12 10 12 10 10 10 10 10 10 9 10 9 13 10 10 9 18 13 13 13 13 12 14 15 13 9 14 13 13 13 12 12 12 19 14 13 14 14 14 15 16 16 10 13 18 14 15 16 16 16 16 18 18 15 19 18 18 21 23 22 22 19 17 17 17 17 15 13 13 10 13 21 22 21 21 23 24 24 24 24 24 27 26 26 26 26 26 29 28 29 26 29 29 29 30 30 29 29 29 29 28 29 28 28 28 28 28 29 28 30 32 31 32 31 34 35 35 37 38 37 40 40 40 39 39 40 40 39 39 40 40 41 42 42 42 0 0 0 0 0
    0 0 0 0 0 0 0 0 0 0 0 0 0 0 0 0 0 0 0 0 0 0 0 0 0 0 0 0 0 0 0 0 0 0 0 0 0 0 0 0 0 0 0 0 0 0 0 0 0 0 0 0 0 0 0 0 0 0 0 0 0 0 0 0 0 0 0 0 0 0 0 0 0 9 0 0 0 0 0 0 0 0 0 0 0 0 0 0 0 0 0 0 0 0 0 0 0 0 9 0 0 0 0 0 0 0 0 0 0 0 0 0 10 10 12 12 12 13 13 14 14 13 14 11 11 11 10 9 9 0 -177 -177 9 9 0 9 -193 -193 -193 142 142 -193 -193 11 11 12 11 11 10 10 11 11 10 12 10 10 -193 -193 -193 -193 -193 -209 -193 -193 -193 -193 -193 13 527 -193 -193 -193 9 -193 -209 -193 -193 10 11 10 12 10 11 10 9 9 10 10 9 9 10 10 13 9 10 10 18 13 13 13 13 12 14 15 13 9 15 12 14 12 12 12 12 18 14 13 14 14 14 15 16 15 11 13 17 14 15 16 16 16 16 18 18 15 19 17 18 22 23 22 22 19 17 17 16 17 14 12 13 10 12 21 22 21 21 22 23 23 23 23 24 27 26 26 26 27 27 29 29 29 26 29 29 30 30 30 29 30 29 30 27 28 28 28 28 28 28 29 27 29 30 29 30 29 32 33 33 36 37 36 39 38 38 37 38 39 38 38 38 39 40 41 42 42 42 0 0 0 0 0
    0 0 0 0 0 0 0 0 0 0 0 0 0 0 0 0 0 0 0 0 0 0 0 0 0 0 0 0 0 0 0 0 0 0 0 0 0 0 0 0 0 0 0 0 0 0 0 0 0 0 0 0 0 0 0 0 0 0 0 0 0 0 0 0 0 0 0 0 0 0 0 0 0 9 0 0 0 0 0 0 0 0 0 0 0 0 0 0 0 0 0 0 0 0 0 0 9 0 10 0 0 0 0 0 0 0 0 0 0 0 0 0 9 9 12 12 12 12 12 14 14 13 14 11 11 11 10 10 9 9 9 -177 9 9 -193 -193 -193 -193 -193 142 142 -193 -193 -193 11 12 10 11 10 10 10 11 10 12 10 10 -193 -193 -193 527 -193 529 -193 -193 -193 -193 11 13 -209 -193 -209 -209 9 -209 -209 669 -209 10 11 10 12 10 11 11 9 9 10 10 9 9 10 10 13 9 9 9 17 13 13 13 14 12 14 15 13 9 14 12 13 12 12 12 12 18 14 13 15 14 15 16 16 16 11 13 17 14 15 16 16 16 16 18 19 16 19 18 19 23 23 21 21 19 16 16 16 16 13 12 13 10 12 21 21 20 19 21 23 23 23 23 24 28 26 26 27 27 27 29 29 29 26 28 28 29 30 30 29 30 29 29 27 28 27 27 28 28 28 29 28 29 30 30 30 29 32 32 32 34 35 34 37 35 36 35 36 37 37 37 38 38 40 40 41 41 42 0 0 0 0 0
    0 0 0 0 0 0 0 0 0 0 0 0 0 0 0 0 0 0 0 0 0 0 0 0 0 0 0 0 0 0 0 0 0 0 0 0 0 0 0 0 0 0 0 0 0 0 0 0 0 0 0 0 0 0 0 0 0 0 0 0 0 0 0 0 0 0 0 0 0 0 0 9 0 9 0 0 0 0 0 0 0 0 0 0 0 0 0 0 0 0 0 0 0 0 0 9 10 8 10 0 0 0 0 0 0 0 0 0 0 0 0 0 9 9 12 12 12 12 12 14 14 13 14 11 11 11 -177 11 9 9 9 -177 9 9 -193 -193 -193 -177 -193 142 142 -193 -193 -193 -193 11 10 10 9 10 10 11 11 12 -193 11 -193 -193 525 527 -193 529 -193 -193 -193 -193 -193 -193 -209 -209 -209 -209 9 -209 -209 -209 -209 10 11 10 12 10 11 11 9 10 10 10 9 0 10 10 13 9 9 9 17 13 14 13 14 12 13 14 12 9 14 12 13 11 12 11 12 17 14 13 15 14 15 16 16 16 11 14 17 14 16 16 16 16 17 19 18 16 19 17 21 23 22 20 21 19 16 16 16 16 13 13 13 10 11 20 20 19 17 21 23 23 23 23 24 29 27 27 27 27 27 29 28 28 25 28 27 28 29 30 29 30 29 30 28 28 27 27 28 28 28 29 28 29 31 30 30 30 31 31 31 31 33 31 34 32 32 32 33 34 35 36 37 38 40 40 41 41 41 0 0 0 0 0
    0 0 0 0 0 0 0 0 0 0 0 0 0 0 0 0 0 0 0 0 0 0 0 0 0 0 0 0 0 0 0 0 0 0 0 0 0 0 0 0 0 0 0 0 0 0 0 0 0 0 0 0 0 0 0 0 0 0 0 0 0 0 0 0 0 0 0 0 0 0 0 9 0 9 0 0 0 0 0 0 0 0 0 0 0 0 0 0 0 0 0 0 0 0 9 10 10 0 9 0 0 0 0 0 0 0 0 0 0 0 0 0 10 9 12 12 12 13 12 14 14 13 14 11 11 11 -177 10 9 -177 -177 9 9 9 -193 -193 -193 141 139 142 -193 -193 -193 -193 -193 -193 10 10 10 10 10 11 11 12 -193 11 -193 -193 525 527 -193 -193 -193 -193 -209 -209 -209 -193 -209 -209 -209 -209 9 -209 -209 -209 -209 10 11 10 11 9 10 10 0 9 9 9 0 0 9 10 13 9 9 9 17 12 13 13 13 11 13 13 12 9 14 12 13 11 12 11 12 17 14 13 14 14 15 16 16 16 12 15 16 14 16 16 16 16 16 18 18 15 19 17 22 23 22 21 21 19 17 17 16 16 14 13 14 10 11 20 19 18 16 21 23 23 23 23 24 29 27 27 27 27 27 30 29 29 25 27 27 27 29 30 29 30 29 30 28 29 28 28 29 28 28 29 28 29 30 30 30 29 31 30 30 29 31 29 32 29 28 29 30 31 34 35 37 38 40 40 41 41 41 0 0 0 0 0
    0 0 0 0 0 0 0 0 0 0 0 0 0 0 0 0 0 0 0 0 0 0 0 0 0 0 0 0 0 0 0 0 0 0 0 0 0 0 0 0 0 0 0 0 0 0 0 0 0 0 0 0 0 0 0 0 0 0 0 0 0 0 0 0 0 0 0 0 0 0 0 10 9 10 0 0 0 0 0 0 0 0 0 0 0 0 0 0 0 0 0 0 0 0 0 9 9 0 0 0 0 0 0 0 0 0 0 0 0 0 0 0 10 9 12 12 12 13 12 14 14 13 14 11 11 11 -177 10 9 -177 -177 -193 9 9 -193 -193 -193 141 139 142 -193 -193 -193 -193 -193 -193 -193 11 10 10 10 11 11 13 10 11 -193 -193 525 527 -193 529 -193 -193 -209 -209 -209 -209 -193 -209 -209 -209 -193 -209 -209 -193 -209 11 11 10 12 10 11 10 0 9 0 0 0 0 9 10 14 9 9 9 16 12 13 13 13 11 13 12 11 9 14 12 13 11 12 11 12 16 14 12 14 14 15 16 16 16 12 15 16 15 16 16 16 16 16 18 18 16 20 20 22 22 22 20 21 19 17 16 16 16 14 13 14 11 11 20 19 19 17 22 23 23 23 23 24 30 27 27 27 27 27 29 29 28 25 27 26 26 27 29 29 29 29 30 28 29 28 28 29 28 28 29 28 30 30 30 30 29 30 31 31 29 -193 29 30 29 28 29 28 29 33 36 37 38 41 41 41 41 42 0 0 0 0 0
    0 0 0 0 0 0 0 0 0 0 0 0 0 0 0 0 0 0 0 0 0 0 0 0 0 0 0 0 0 0 0 0 0 0 0 0 0 0 0 0 0 0 0 0 0 0 0 0 0 0 0 0 0 0 0 0 0 0 0 0 0 0 0 0 0 0 0 0 0 0 0 10 9 10 9 0 0 0 9 0 0 0 0 0 0 0 0 0 0 0 0 0 0 0 0 0 0 0 0 0 0 0 0 0 0 0 0 0 0 0 0 0 9 9 12 12 12 12 12 13 14 13 14 11 11 11 -177 -177 -177 -177 -177 9 9 9 -193 -193 -193 -193 139 142 -193 -193 -193 -193 -193 -193 -193 -193 -193 10 10 11 12 13 10 11 -193 -193 526 528 526 529 -193 -193 -193 -209 -209 -193 -193 -209 -209 -209 -209 -209 -209 -209 -209 11 11 10 12 10 10 10 0 0 0 0 0 0 0 9 13 9 9 9 16 12 13 12 12 11 12 12 11 0 14 12 13 11 12 12 12 16 14 12 14 14 16 16 16 16 12 16 16 15 15 16 16 16 16 18 18 16 21 22 23 22 21 20 21 19 16 16 16 15 14 13 14 11 11 19 18 18 15 21 23 23 23 23 24 29 27 28 28 28 28 30 29 29 24 26 25 26 27 29 29 29 29 30 28 30 28 29 30 29 29 29 28 30 30 30 30 29 30 31 31 29 -193 -193 -193 29 28 29 27 28 33 36 37 39 41 42 42 42 42 0 0 0 0 0
    0 0 0 0 0 0 0 0 0 0 0 0 0 0 0 0 0 0 0 0 0 0 0 0 0 0 0 0 0 0 0 0 0 0 0 0 0 0 0 0 0 0 0 0 0 0 0 0 0 0 0 0 0 0 0 0 0 0 0 0 0 0 0 0 0 0 0 0 0 0 0 12 10 11 9 0 0 0 9 0 0 0 0 0 0 0 0 0 0 0 0 0 0 0 0 0 0 0 0 0 0 0 0 0 0 0 0 0 0 0 0 0 9 9 11 11 11 12 11 12 13 12 13 11 11 11 -177 -177 -177 -177 9 9 9 9 9 -193 -193 -193 139 -193 -193 -193 -193 -193 -193 -193 -193 -193 -193 10 11 12 12 13 11 11 -193 -193 527 529 527 530 -193 -193 -193 -209 -209 -193 -193 -209 -209 -209 10 -209 -193 -209 -193 11 11 10 12 10 10 10 0 0 0 0 0 0 0 9 13 9 9 9 17 12 13 12 12 10 12 12 11 0 14 12 13 11 12 11 12 16 14 12 15 14 16 16 16 17 13 17 16 15 15 16 15 16 15 18 16 16 20 22 22 22 21 19 21 19 16 16 16 15 14 14 14 11 11 18 18 17 14 20 22 23 23 23 24 29 27 28 28 28 28 30 29 29 24 26 25 26 26 28 28 29 29 31 28 30 29 29 30 29 29 30 29 30 30 31 30 29 30 31 31 29 -193 29 30 29 28 29 28 29 35 37 38 40 42 42 42 42 42 0 0 0 0 0
    0 0 0 0 0 0 0 0 0 0 0 0 0 0 0 0 0 0 0 0 0 0 0 0 0 0 0 0 0 0 0 0 0 0 0 0 0 0 0 0 0 0 0 0 0 0 0 0 0 0 0 0 0 0 0 0 0 0 0 0 0 0 0 0 0 0 0 0 0 0 0 13 11 12 10 9 0 0 9 0 0 0 0 0 0 0 0 0 0 0 0 0 0 0 0 0 0 0 0 0 0 0 0 0 0 0 0 0 0 0 0 0 0 8 11 11 11 11 11 12 12 12 13 11 10 11 -177 -177 -177 -177 9 9 9 10 10 9 -193 -193 -193 -193 -193 -193 -193 -193 -193 -193 -193 -193 -193 10 11 12 12 14 11 12 -193 -193 527 529 528 530 524 -193 -193 -193 -209 -193 -177 -209 -209 9 10 10 -193 -193 10 11 12 11 12 10 10 10 0 0 0 0 0 0 0 0 12 0 9 9 17 12 12 12 12 11 12 12 11 9 14 12 12 11 12 11 12 15 13 12 15 14 16 16 16 17 13 17 16 15 15 16 15 16 14 17 14 15 18 20 21 21 19 19 21 19 16 16 16 16 14 14 15 11 11 18 18 17 14 20 22 23 23 23 24 29 27 28 28 28 28 30 29 28 23 24 23 25 25 27 28 28 28 30 28 30 29 30 30 30 29 30 29 30 30 31 30 29 29 31 31 29 -193 -193 30 29 28 30 28 30 36 38 38 40 42 42 42 42 42 0 0 0 0 0
    0 0 0 0 0 0 0 0 0 0 0 0 0 0 0 0 0 0 0 0 0 0 0 0 0 0 0 0 0 0 0 0 0 0 0 0 0 0 0 0 0 0 0 0 0 0 0 0 0 0 0 0 0 0 0 0 0 0 0 0 0 0 0 0 0 0 0 0 0 9 9 13 11 12 10 9 0 0 9 0 0 0 0 0 0 0 0 0 0 0 0 0 0 0 0 0 0 0 0 0 0 0 0 0 0 0 0 0 0 0 0 0 0 0 10 10 11 10 10 11 12 11 13 10 -193 11 -177 11 9 9 9 9 9 9 10 10 9 -193 -193 11 11 11 -193 -209 -209 -193 10 11 -193 11 11 12 13 14 11 12 11 -193 528 530 -193 530 -209 -209 11 -193 -209 -193 -193 0 -209 8 9 9 -193 -193 10 11 11 11 12 10 10 10 9 0 0 0 0 0 0 0 11 0 0 9 17 12 12 12 12 11 12 12 11 9 14 11 12 11 12 11 12 14 13 12 15 14 16 16 16 18 14 18 16 14 15 15 15 15 13 15 12 12 15 18 21 19 17 17 20 18 16 16 16 15 14 15 15 11 12 18 18 17 15 19 22 23 23 23 24 28 27 27 27 28 27 29 28 27 22 24 23 25 25 27 28 28 28 30 28 30 29 29 30 30 29 30 29 30 30 31 30 30 29 32 31 28 -193 -193 30 29 28 31 30 31 37 38 39 41 42 42 42 42 42 0 0 0 0 0
    0 0 0 0 0 0 0 0 0 0 0 0 0 0 0 0 0 0 0 0 0 0 0 0 0 0 0 0 0 0 0 0 0 0 0 0 0 0 0 0 0 0 0 0 0 0 0 0 0 0 0 0 0 0 0 0 0 0 0 0 0 0 0 0 0 0 0 0 0 10 10 12 11 12 10 0 0 0 0 0 0 0 0 0 0 0 0 0 0 0 0 0 0 0 0 0 0 0 0 0 0 0 0 0 0 0 0 0 0 0 0 0 0 0 10 10 10 10 10 10 11 10 12 9 9 10 10 9 0 0 0 0 0 0 0 0 9 9 9 9 10 11 -193 -193 9 10 9 10 11 12 12 12 12 13 10 11 10 11 -193 -193 0 -193 -193 -193 -193 -209 -209 -193 -193 0 -193 0 9 9 -193 -193 9 10 11 11 12 10 10 10 9 9 0 0 0 0 0 0 10 0 0 9 18 12 13 12 12 11 12 12 11 9 13 11 12 11 12 11 11 14 13 12 15 14 16 17 17 19 15 18 17 15 15 15 15 15 13 15 12 11 15 18 21 19 17 17 20 18 16 16 16 15 15 16 16 11 13 18 18 17 15 19 21 22 23 23 24 28 27 27 27 28 27 28 28 27 22 24 24 25 26 28 29 28 29 31 28 30 29 29 29 29 29 30 28 30 30 30 30 30 29 32 31 29 30 30 30 30 29 33 31 32 37 39 39 41 42 42 42 42 42 0 0 0 0 0
    0 0 0 0 0 0 0 0 0 0 0 0 0 0 0 0 0 0 0 0 0 0 0 0 0 0 0 0 0 0 0 0 0 0 0 0 0 0 0 0 0 0 0 0 0 0 0 0 0 0 0 0 0 0 0 0 0 0 0 0 0 0 0 0 0 0 0 0 0 11 11 12 11 12 10 0 0 0 0 0 0 0 0 0 0 0 0 0 0 0 0 0 0 0 0 0 0 0 0 0 0 0 0 0 0 0 0 0 0 0 0 0 0 0 10 10 10 10 10 10 11 10 12 0 0 9 0 0 0 0 0 0 0 0 0 0 0 0 9 9 10 -193 -193 10 -193 10 10 11 13 17 15 13 14 13 10 10 10 10 9 0 0 0 0 9 9 0 0 0 0 0 0 0 0 0 -193 -193 9 10 10 10 12 10 10 10 9 9 0 0 0 0 0 0 9 0 0 9 18 12 13 12 12 11 12 11 11 0 13 11 11 11 12 11 12 13 13 13 14 14 16 16 17 19 15 17 16 15 15 15 15 15 12 15 12 10 15 17 21 17 17 17 21 18 17 16 16 15 16 16 16 11 13 17 17 17 15 19 22 22 23 23 23 27 27 27 27 27 27 28 28 27 22 25 24 26 26 28 29 29 29 31 28 30 29 29 29 29 29 29 28 29 29 29 30 29 29 31 31 29 30 31 30 30 30 33 32 32 37 39 39 41 41 42 42 42 42 0 0 0 0 0
    0 0 0 0 0 0 0 0 0 0 0 0 0 0 0 0 0 0 0 0 0 0 0 0 0 0 0 0 0 0 0 0 0 0 0 0 0 0 0 0 0 0 0 0 0 0 0 0 0 0 0 0 0 0 0 0 0 0 0 0 0 0 0 0 0 0 0 0 0 10 11 11 12 10 9 0 0 0 0 0 0 0 0 0 0 0 0 0 0 0 0 0 0 0 0 0 0 0 0 0 0 0 0 0 0 0 0 0 0 0 0 0 0 0 9 9 9 9 9 10 10 10 12 0 0 9 0 0 0 0 0 0 0 0 0 0 0 0 0 9 9 -193 12 -209 -209 -193 12 13 17 20 16 13 14 13 10 10 10 10 0 0 0 0 0 0 0 0 0 0 0 0 0 0 0 0 0 -193 -193 10 10 10 12 10 10 10 9 9 0 0 0 0 0 0 0 0 0 9 18 13 12 12 11 11 12 11 11 0 12 11 12 11 12 12 13 14 14 13 14 14 16 16 17 19 15 17 17 15 15 15 15 15 13 15 13 10 15 17 20 17 16 17 21 18 17 17 17 16 17 17 17 12 13 17 17 17 15 19 22 22 22 22 23 27 26 27 26 27 27 28 28 27 23 26 25 26 26 28 29 29 29 31 29 30 29 30 29 29 29 29 28 29 28 29 29 29 28 31 31 29 30 32 30 30 30 34 32 32 37 38 38 40 41 41 41 42 42 0 0 0 0 0
    0 0 0 0 0 0 0 0 0 0 0 0 0 0 0 0 0 0 0 0 0 0 0 0 0 0 0 0 0 0 0 0 0 0 0 0 0 0 0 0 0 0 0 0 0 0 0 0 0 0 0 0 0 0 0 0 0 0 0 0 0 0 0 0 0 0 0 0 0 10 10 10 10 0 0 0 0 0 0 0 0 0 0 0 0 0 0 0 0 0 0 0 0 0 0 0 0 0 0 0 0 0 0 0 0 0 0 0 0 0 0 0 0 0 9 9 9 9 9 10 10 10 12 0 0 0 0 0 0 0 0 0 0 0 0 0 0 0 0 9 0 9 11 21 -209 -209 9 10 -209 21 14 12 14 13 10 10 10 10 0 0 0 0 0 0 0 0 0 0 0 0 0 0 0 0 0 -193 0 10 10 10 12 9 10 10 9 9 0 0 0 0 0 0 0 0 0 9 18 13 12 12 11 11 12 11 11 0 11 10 11 11 12 12 13 14 14 13 15 14 15 15 18 19 15 17 18 15 15 15 15 15 13 16 14 11 23 22 22 19 18 18 21 18 17 17 17 17 18 17 18 12 14 17 17 16 15 18 22 21 22 22 23 -193 26 26 26 27 27 28 27 27 23 26 25 27 26 28 29 29 29 31 29 30 30 30 30 29 30 30 28 30 29 29 29 28 28 30 30 29 30 33 30 31 31 35 33 33 37 37 37 39 40 40 40 41 41 0 0 0 0 0
    0 0 0 0 0 0 0 0 0 0 0 0 0 0 0 0 0 0 0 0 0 0 0 0 0 0 0 0 0 0 0 0 0 0 0 0 0 0 0 0 0 0 0 0 0 0 0 0 0 0 0 0 0 0 0 0 0 0 0 0 0 0 0 0 0 0 0 0 0 10 11 10 10 0 0 0 0 0 0 0 0 0 0 0 0 0 0 0 0 0 0 0 0 0 0 0 0 0 0 0 0 0 0 0 0 0 0 0 0 0 0 0 0 0 10 9 9 9 9 10 10 10 12 0 0 0 0 0 0 0 0 0 0 0 0 0 0 0 0 0 0 0 10 16 -193 0 -193 0 -209 21 12 11 13 11 -193 -193 -193 10 -193 0 0 0 0 9 9 0 0 0 0 0 0 0 0 0 0 -193 0 10 10 10 11 9 10 10 9 9 0 0 0 0 0 0 0 0 0 9 18 13 13 12 12 12 13 11 11 0 11 10 10 11 12 11 13 15 15 13 15 15 16 15 18 19 15 17 18 15 15 15 15 15 14 18 17 14 26 27 24 22 22 21 23 19 18 18 18 17 18 18 18 12 15 17 18 16 15 18 21 21 22 22 23 -193 25 26 25 26 27 28 27 27 23 27 26 27 27 28 30 29 29 31 29 30 29 30 30 29 30 29 28 30 29 29 29 28 28 29 30 30 30 33 31 32 32 36 34 34 37 36 35 38 38 39 39 40 40 0 0 0 0 0
    0 0 0 0 0 0 0 0 0 0 0 0 0 0 0 0 0 0 0 0 0 0 0 0 0 0 0 0 0 0 0 0 0 0 0 0 0 0 0 0 0 0 0 0 0 0 0 0 0 0 0 0 0 0 0 0 0 0 0 0 0 0 0 0 0 0 0 0 0 9 10 10 10 0 9 0 0 0 0 0 0 0 0 0 0 0 0 0 0 0 0 0 0 0 0 0 0 0 9 0 0 0 0 0 0 0 0 0 0 0 0 0 0 0 10 10 10 10 9 10 10 11 13 0 0 0 0 0 0 0 0 0 0 0 0 0 0 0 0 0 0 0 -225 16 -193 9 -193 -193 12 21 12 11 12 11 -193 -193 -193 -193 -193 -193 -193 -193 0 9 9 0 0 -193 0 0 0 0 0 0 -193 -193 0 9 10 10 11 9 10 10 9 9 9 0 0 0 0 0 0 9 0 9 18 14 13 13 13 13 13 11 11 0 11 10 10 10 11 11 13 17 15 14 15 16 16 15 19 18 15 17 18 15 15 15 15 15 15 19 20 19 27 29 27 25 25 24 24 19 19 19 18 18 18 18 18 12 16 17 18 17 15 18 21 20 21 21 22 24 24 24 24 25 26 27 26 26 23 28 27 28 28 29 30 29 30 31 29 30 29 30 30 29 30 29 28 29 29 29 28 28 28 29 30 30 31 34 31 32 32 36 34 34 37 35 34 38 37 38 38 39 40 0 0 0 0 0
    0 0 0 0 0 0 0 0 0 0 0 0 0 0 0 0 0 0 0 0 0 0 0 0 0 0 0 0 0 0 0 0 0 0 0 0 0 0 0 0 0 0 0 0 0 0 0 0 0 0 0 0 0 0 0 0 0 0 0 0 0 0 0 0 0 0 0 0 0 0 9 10 9 0 0 0 0 0 0 0 0 0 0 0 0 0 0 0 0 0 0 0 0 0 0 0 0 0 9 0 0 0 0 0 0 0 0 0 0 0 0 0 0 0 10 10 10 10 10 10 11 11 14 0 0 0 0 0 0 0 0 0 0 0 0 0 0 0 0 0 0 0 -225 21 22 17 15 18 -209 22 13 11 13 11 -193 -193 -193 -193 -193 -193 -193 -193 0 9 9 0 0 -209 0 0 0 0 0 0 0 -193 0 9 10 10 11 9 10 10 9 9 9 0 0 0 0 0 0 0 0 -177 18 13 13 13 13 13 13 11 11 0 11 10 10 10 11 12 14 18 15 14 15 15 15 15 19 18 14 16 18 15 15 15 15 15 16 20 22 21 27 30 28 27 26 25 25 20 20 19 19 19 18 18 19 12 17 19 19 18 16 18 22 20 21 20 22 23 23 24 24 24 26 26 26 26 25 29 29 30 29 30 31 30 30 31 29 29 29 30 29 28 29 28 27 29 28 29 28 28 28 29 30 30 31 34 30 31 31 36 33 33 36 -193 32 37 36 36 37 38 39 0 0 0 0 0
    0 0 0 0 0 0 0 0 0 0 0 0 0 0 0 0 0 0 0 0 0 0 0 0 0 0 0 0 0 0 0 0 0 0 0 0 0 0 0 0 0 0 0 0 0 0 0 0 0 0 0 0 0 0 0 0 0 0 0 0 0 0 0 0 0 0 0 0 0 0 0 10 9 9 0 0 0 0 0 0 0 0 0 0 0 0 0 0 0 0 0 0 0 0 0 0 0 0 9 0 0 0 0 0 0 0 0 0 0 0 0 0 0 0 10 10 9 10 10 11 11 11 14 0 0 0 0 0 0 0 0 0 0 0 0 0 0 0 0 0 0 9 -225 19 21 18 18 20 17 22 13 11 13 11 -193 -193 -193 10 -193 -193 -193 -193 0 9 9 0 0 -209 0 0 0 0 -193 0 0 -193 0 9 9 10 10 9 10 10 10 10 9 0 0 0 0 0 0 0 0 -177 18 13 13 13 13 13 13 11 11 0 11 11 10 10 11 12 14 18 15 14 14 15 15 15 19 17 13 15 18 15 15 15 15 14 17 20 22 22 28 31 29 28 27 26 26 21 20 20 19 19 18 18 19 13 18 20 20 19 17 20 23 20 21 20 22 23 23 23 23 23 25 26 26 26 25 30 31 31 30 31 33 30 31 31 29 29 29 30 29 28 28 27 27 28 28 28 28 28 29 29 31 31 31 34 30 31 31 35 33 31 34 31 30 35 35 35 35 37 38 0 0 0 0 0
    0 0 0 0 0 0 0 0 0 0 0 0 0 0 0 0 0 0 0 0 0 0 0 0 0 0 0 0 0 0 0 0 0 0 0 0 0 0 0 0 0 0 0 0 0 0 0 0 0 0 0 0 0 0 0 0 0 0 0 0 0 0 0 0 0 0 0 0 0 0 0 10 9 0 0 0 0 0 0 0 0 0 0 0 0 0 0 0 0 0 0 0 0 0 0 0 0 0 10 9 0 0 0 0 0 0 0 0 0 0 0 0 0 0 10 10 9 10 10 11 11 12 14 0 0 0 0 0 0 0 0 0 0 0 0 0 0 0 0 9 0 9 10 16 16 18 16 19 15 20 12 11 12 11 -193 -193 -193 -193 -193 -193 -193 -193 0 10 10 0 0 -193 0 0 0 0 -193 0 0 -193 0 9 9 10 10 8 10 10 9 10 9 0 0 0 0 0 0 0 0 -177 18 13 14 13 13 13 13 11 11 0 10 11 10 10 11 11 13 18 15 13 14 15 15 15 19 16 13 15 18 14 14 15 15 14 19 22 24 25 28 32 30 29 27 27 27 22 21 20 20 20 19 19 19 13 18 21 21 20 18 20 23 20 20 20 22 22 22 23 23 22 25 26 26 26 25 31 32 31 30 32 33 31 31 31 29 29 29 29 28 27 28 27 26 27 27 28 28 29 30 29 31 32 32 34 30 31 31 33 31 30 32 30 29 35 34 35 34 37 38 0 0 0 0 0
    0 0 0 0 0 0 0 0 0 0 0 0 0 0 0 0 0 0 0 0 0 0 0 0 0 0 0 0 0 0 0 0 0 0 0 0 0 0 0 0 0 0 0 0 0 0 0 0 0 0 0 0 0 0 0 0 0 0 0 0 0 0 0 0 0 0 0 0 0 0 0 9 0 0 0 0 0 0 0 0 0 0 0 0 0 0 0 0 0 0 0 0 0 0 0 0 0 0 11 11 0 0 0 0 0 0 0 0 0 0 0 0 0 0 10 10 -193 10 11 11 11 12 14 0 0 0 0 0 0 0 0 0 0 0 -177 0 0 0 0 9 9 9 10 12 10 15 13 16 12 16 10 10 12 11 -193 -193 -193 -193 389 -193 -193 -193 0 10 10 0 0 -193 0 0 0 0 -193 0 0 0 0 9 9 9 10 0 9 9 9 10 10 0 0 0 0 0 0 0 0 -177 18 14 14 13 14 13 13 11 11 9 10 10 10 10 10 11 12 17 14 13 13 15 15 15 19 15 12 14 17 13 14 15 15 15 -193 23 25 25 29 32 30 31 28 28 28 22 21 21 21 21 19 19 20 14 19 21 21 21 19 21 23 19 20 19 21 22 22 22 22 21 25 25 26 25 25 30 31 30 29 31 32 30 31 30 29 29 29 29 28 27 28 26 26 27 27 28 28 29 30 29 31 32 32 34 30 30 31 33 31 30 31 29 28 34 33 34 34 37 38 0 0 0 0 0
    0 0 0 0 0 0 0 0 0 0 0 0 0 0 0 0 0 0 0 0 0 0 0 0 0 0 0 0 0 0 0 0 0 0 0 0 0 0 0 0 0 0 0 0 0 0 0 0 0 0 0 0 0 0 0 0 0 0 0 0 0 0 0 0 0 0 0 0 0 0 0 9 0 0 0 0 0 0 0 0 0 0 0 0 0 0 0 0 0 0 0 0 0 0 0 0 0 0 13 14 9 9 9 0 0 0 0 0 0 0 0 0 0 0 11 10 -193 11 11 12 12 11 14 0 0 0 0 0 0 0 0 0 0 0 -177 0 0 0 0 9 10 10 10 10 10 15 13 16 12 14 10 10 12 11 -193 -193 -193 -193 388 -193 -193 -193 0 10 9 0 0 -193 0 0 0 0 -193 0 0 0 0 0 9 9 9 0 9 9 9 9 9 0 0 0 0 0 0 0 0 -177 17 14 14 13 14 13 13 11 11 9 9 10 9 9 10 11 11 17 13 13 13 15 16 16 19 15 12 15 17 13 14 15 15 -193 -193 -193 26 26 29 32 30 31 28 28 28 22 22 21 21 -193 19 19 20 14 20 22 22 21 19 20 23 18 19 18 21 21 21 21 21 20 24 24 25 24 25 28 30 30 29 31 31 30 31 30 29 29 29 29 28 27 28 26 26 27 27 28 28 28 29 29 30 32 32 33 31 30 31 33 31 30 31 30 28 34 33 34 34 37 38 0 0 0 0 0
    0 0 0 0 0 0 0 0 0 0 0 0 0 0 0 0 0 0 0 0 0 0 0 0 0 0 0 0 0 0 0 0 0 0 0 0 0 0 0 0 0 0 0 0 0 0 0 0 0 0 0 0 0 0 0 0 0 0 0 0 0 0 0 0 0 0 0 0 0 0 0 9 0 0 0 0 0 0 0 0 0 0 0 0 0 0 0 0 0 0 0 0 0 0 0 0 0 0 14 17 11 10 10 0 0 0 0 0 0 0 0 0 0 0 11 10 10 11 11 12 12 11 13 0 0 0 0 0 0 0 0 0 0 0 0 0 0 0 0 9 10 10 10 -225 10 14 13 16 12 14 10 10 12 11 9 9 -193 10 -193 -193 -193 0 0 9 9 0 0 -193 0 0 0 0 0 0 0 0 0 0 8 9 9 0 9 0 0 0 0 0 0 0 0 0 0 0 0 -177 17 14 14 13 14 13 12 11 11 9 0 10 9 9 9 10 11 16 13 13 13 16 17 16 19 15 12 16 16 13 13 15 15 -193 -193 -193 26 26 30 32 30 32 29 29 29 22 22 21 21 -193 19 19 20 14 21 22 22 21 19 19 23 18 18 17 21 20 20 20 21 19 23 24 24 22 24 28 30 30 29 31 32 30 31 30 29 29 28 28 27 26 27 25 25 26 27 27 28 28 29 29 30 32 32 33 31 30 31 33 31 30 31 30 28 35 34 35 35 37 38 0 0 0 0 0
    0 0 0 0 0 0 0 0 0 0 0 0 0 0 0 0 0 0 0 0 0 0 0 0 0 0 0 0 0 0 0 0 0 0 0 0 0 0 0 0 0 0 0 0 0 0 0 0 0 0 0 0 0 0 0 0 0 0 0 0 0 0 0 0 0 0 0 0 0 0 0 9 0 0 0 0 0 0 0 0 0 0 0 0 0 0 0 0 0 0 0 0 0 0 0 0 9 0 14 19 11 10 10 0 0 0 0 0 0 0 0 0 0 9 11 10 10 11 12 12 12 11 12 0 0 0 0 0 0 0 0 0 0 0 0 0 0 0 0 9 10 11 10 0 9 12 12 15 12 13 10 11 12 10 9 9 -193 9 -193 -193 -193 0 0 0 9 0 0 -193 0 0 0 0 0 0 0 0 0 0 0 9 9 0 9 0 0 0 0 0 0 0 0 0 0 0 0 0 16 13 14 13 14 13 12 11 11 9 0 10 9 9 9 10 10 16 13 13 13 16 18 17 19 16 12 18 16 13 13 14 15 -193 -193 23 25 26 29 32 30 32 29 29 29 22 21 21 21 22 19 19 19 13 20 22 22 21 19 19 23 17 18 17 20 19 19 19 20 18 22 23 23 19 23 27 30 30 30 31 32 30 31 30 29 28 27 27 26 25 26 24 24 25 -193 27 28 28 29 29 30 32 32 33 31 30 31 32 30 30 31 31 28 35 34 35 35 37 38 0 0 0 0 0
    0 0 0 0 0 0 0 0 0 0 0 0 0 0 0 0 0 0 0 0 0 0 0 0 0 0 0 0 0 0 0 0 0 0 0 0 0 0 0 0 0 0 0 0 0 0 0 0 0 0 0 0 0 0 0 0 0 0 0 0 0 0 0 0 0 0 0 0 0 0 0 0 0 0 0 0 0 0 0 0 0 0 0 0 0 0 0 0 0 0 0 0 0 0 0 0 9 0 14 16 10 9 9 0 0 0 0 0 0 0 0 0 0 9 11 10 10 11 12 12 12 10 12 0 0 0 0 0 0 0 0 0 0 0 0 0 0 0 0 9 10 11 9 0 10 12 12 15 12 13 10 11 11 10 9 9 -193 9 0 0 0 0 0 0 9 0 0 10 0 0 0 0 0 0 0 0 0 0 0 9 9 0 9 0 0 9 9 0 0 0 0 0 0 0 0 0 15 13 13 13 13 12 12 11 11 9 0 10 9 9 9 10 10 15 12 13 13 17 18 18 19 16 12 19 16 13 13 14 14 -193 21 22 23 26 29 31 28 32 28 29 29 22 21 21 22 23 19 19 19 13 20 22 22 21 19 19 23 17 18 17 20 19 19 19 19 16 21 22 22 16 23 26 29 30 30 31 32 30 31 29 29 28 27 26 25 24 25 24 24 25 -193 -193 28 29 30 29 30 33 32 32 31 29 31 31 30 30 30 31 29 35 35 36 34 37 38 0 0 0 0 0
    0 0 0 0 0 0 0 0 0 0 0 0 0 0 0 0 0 0 0 0 0 0 0 0 0 0 0 0 0 0 0 0 0 0 0 0 0 0 0 0 0 0 0 0 0 0 0 0 0 0 0 0 0 0 0 0 0 0 0 0 0 0 0 0 0 0 0 0 0 0 0 0 0 0 0 0 0 0 0 0 0 0 0 0 0 0 0 0 0 0 0 0 0 0 0 0 9 0 13 13 10 9 9 0 0 0 0 0 0 0 0 0 0 9 11 10 10 11 12 13 13 10 11 0 0 0 0 0 0 0 0 0 0 0 0 0 0 0 0 9 10 11 9 0 10 12 12 14 12 12 10 11 10 10 9 9 -193 9 0 0 0 0 0 0 9 0 0 9 0 0 0 0 0 0 0 0 0 0 0 9 9 0 9 0 9 9 9 0 0 0 0 0 0 0 0 0 15 12 12 12 13 12 11 10 10 9 0 10 9 9 9 10 10 15 12 13 13 17 18 18 19 17 13 19 16 13 13 15 15 14 20 21 19 25 28 29 27 31 28 29 29 22 22 21 -193 23 19 19 19 13 20 22 22 21 20 20 23 17 18 17 21 18 19 18 19 16 20 21 21 15 23 25 26 29 29 31 31 29 30 29 29 28 26 25 24 23 25 24 24 24 -177 -193 28 29 30 29 30 33 32 32 31 29 31 31 30 30 30 31 29 35 35 36 33 37 38 0 0 0 0 0
    0 0 0 0 0 0 0 0 0 0 0 0 0 0 0 0 0 0 0 0 0 0 0 0 0 0 0 0 0 0 0 0 0 0 0 0 0 0 0 0 0 0 0 0 0 0 0 0 0 0 0 0 0 0 0 0 0 0 0 0 0 0 0 0 0 0 0 0 0 0 0 9 0 0 0 0 0 0 0 0 0 0 0 0 0 0 0 0 0 0 0 0 0 0 0 0 0 0 12 11 9 0 0 0 0 0 0 0 0 0 0 0 0 9 10 10 10 11 12 13 13 10 12 0 0 0 0 0 0 0 0 0 0 0 0 0 0 0 0 0 10 10 9 0 10 12 11 14 11 13 10 12 10 9 9 9 -193 9 0 0 0 0 0 0 0 0 0 0 0 0 0 0 0 0 0 0 0 0 0 10 10 0 10 0 9 9 9 0 0 0 0 0 9 0 0 0 14 12 12 12 12 11 10 10 10 9 0 10 9 9 9 10 10 15 12 13 14 17 18 18 19 17 13 20 16 14 14 15 15 14 19 20 15 25 27 27 25 30 27 28 29 22 22 22 -193 -193 19 19 19 13 21 21 22 21 20 20 23 18 18 18 21 19 19 18 19 15 20 21 21 15 22 24 24 28 28 30 30 29 29 28 28 29 26 25 24 24 25 24 24 25 -177 -193 29 29 30 29 30 33 32 32 30 29 31 31 30 30 30 32 30 35 35 36 33 37 37 0 0 0 0 0
    0 0 0 0 0 0 0 0 0 0 0 0 0 0 0 0 0 0 0 0 0 0 0 0 0 0 0 0 0 0 0 0 0 0 0 0 0 0 0 0 0 0 0 0 0 0 0 0 0 0 0 0 0 0 0 0 0 0 0 0 0 0 0 0 0 0 0 0 0 9 0 10 0 0 0 0 0 0 0 0 0 0 0 0 9 0 0 0 0 0 0 0 0 0 0 0 0 0 11 9 0 0 0 0 0 0 0 0 0 0 0 0 0 9 10 10 10 11 12 13 13 10 12 0 0 0 0 0 0 0 0 0 0 0 0 0 0 0 0 0 9 9 9 0 9 11 11 12 11 12 9 11 9 0 0 0 -193 0 0 0 0 0 0 0 9 0 0 0 0 0 0 0 0 0 0 0 0 0 0 10 10 0 9 0 0 9 9 0 0 0 0 0 11 9 0 9 14 12 12 12 12 11 10 10 10 9 0 10 10 9 10 10 10 15 12 13 15 17 19 18 19 17 14 20 17 14 14 15 15 14 19 19 14 24 26 26 23 29 27 28 28 22 22 -193 -177 -193 20 19 20 14 22 22 24 23 22 23 24 20 20 20 21 19 19 18 19 15 20 21 21 16 22 24 23 27 28 29 30 28 29 28 28 28 26 25 25 24 25 25 25 25 -193 27 29 29 30 29 30 33 31 31 30 28 30 31 30 30 30 32 31 36 36 36 33 37 38 0 0 0 0 0
    0 0 0 0 0 0 0 0 0 0 0 0 0 0 0 0 0 0 0 0 0 0 0 0 0 0 0 0 0 0 0 0 0 0 0 0 0 0 0 0 0 0 0 0 0 0 0 0 0 0 0 0 0 0 0 0 0 0 0 0 0 0 0 0 0 0 0 0 0 10 9 11 0 0 0 0 0 0 0 0 0 0 0 0 9 0 0 0 0 0 0 0 0 0 0 0 0 0 10 0 0 0 0 0 0 0 0 0 0 0 0 0 0 9 11 11 10 11 12 13 13 10 11 0 0 9 0 0 0 0 0 0 0 0 0 0 0 0 0 0 0 0 0 0 9 10 10 11 10 12 9 10 0 0 0 0 0 0 0 0 0 0 0 0 9 0 0 8 0 0 0 0 0 0 0 0 0 0 0 10 10 0 9 0 0 9 9 0 0 0 0 9 11 9 0 0 12 11 11 11 11 10 10 9 9 9 0 10 10 10 10 10 11 16 13 13 16 17 19 18 19 17 14 20 17 15 15 16 16 15 18 19 14 23 24 23 21 29 26 27 28 22 22 -193 -177 -177 20 20 20 14 23 24 27 25 24 25 27 21 22 21 22 19 19 19 19 15 20 21 21 16 21 23 23 26 27 28 29 28 28 27 28 28 26 25 25 25 26 25 26 26 26 27 29 29 30 29 30 32 31 30 29 27 29 31 30 30 30 32 31 35 35 35 33 37 38 0 0 0 0 0
    0 0 0 0 0 0 0 0 0 0 0 0 0 0 0 0 0 0 0 0 0 0 0 0 0 0 0 0 0 0 0 0 0 0 0 0 0 0 0 0 0 0 0 0 0 0 0 0 0 0 0 0 0 0 0 0 0 0 0 0 0 0 0 0 0 0 0 0 0 12 11 12 9 9 0 0 0 0 0 0 0 0 0 0 9 0 0 0 0 0 0 0 0 0 0 0 0 0 9 0 0 0 0 0 0 0 0 0 0 0 0 0 -193 9 10 10 10 10 12 12 12 10 11 0 0 9 0 0 0 0 0 0 0 0 0 0 0 0 0 0 0 0 0 0 0 10 10 10 9 12 8 10 0 0 0 0 -193 0 0 0 0 0 0 0 9 0 0 9 0 0 0 0 0 0 0 0 0 0 0 9 10 0 9 0 0 0 0 0 0 0 0 0 9 9 0 0 11 10 10 10 10 10 9 9 9 9 0 11 11 11 11 11 11 16 13 13 16 17 18 18 19 17 14 20 18 15 15 16 15 14 17 17 12 20 21 19 20 27 26 27 28 22 22 -193 -177 -177 20 20 20 14 24 27 36 30 27 30 32 23 23 23 23 20 20 20 20 16 21 21 22 18 22 24 23 26 27 28 28 27 28 27 27 28 26 25 25 25 27 26 26 26 26 27 30 29 30 28 30 32 31 30 29 27 29 31 30 30 30 32 30 34 34 34 30 35 37 0 0 0 0 0
    0 0 0 0 0 0 0 0 0 0 0 0 0 0 0 0 0 0 0 0 0 0 0 0 0 0 0 0 0 0 0 0 0 0 0 0 0 0 0 0 0 0 0 0 0 0 0 0 0 0 0 0 0 0 0 0 0 0 0 0 0 0 0 0 0 0 0 0 0 12 12 12 11 10 10 0 0 0 0 0 0 0 0 0 9 -193 9 9 0 0 0 0 0 0 0 0 0 0 0 0 0 0 0 0 0 0 0 0 0 0 0 0 -193 9 10 11 10 10 11 12 12 10 11 0 0 9 0 0 0 0 0 0 0 0 0 0 0 0 0 0 0 0 0 0 0 9 9 9 9 11 0 10 0 0 0 0 -193 -193 0 0 0 0 0 0 9 0 0 9 0 0 0 0 0 0 8 0 0 0 0 9 9 0 9 0 0 0 0 0 0 0 0 0 0 9 0 0 10 9 10 10 10 11 11 10 10 9 11 12 12 12 11 11 12 17 14 13 17 17 19 18 19 18 15 21 18 16 16 15 15 14 17 17 12 19 20 17 20 -193 26 27 28 22 22 -193 -177 -177 20 20 21 16 25 32 38 36 34 37 37 26 25 24 -193 21 21 20 20 17 22 22 23 19 25 28 28 29 30 29 30 28 29 27 27 28 26 25 26 26 29 27 27 27 27 28 31 30 31 29 30 33 31 31 29 27 30 32 30 31 30 31 30 34 34 32 29 34 36 0 0 0 0 0
    0 0 0 0 0 0 0 0 0 0 0 0 0 0 0 0 0 0 0 0 0 0 0 0 0 0 0 0 0 0 0 0 0 0 0 0 0 0 0 0 0 0 0 0 0 0 0 0 0 0 0 0 0 0 0 0 0 0 0 0 0 0 0 0 0 0 0 0 0 13 12 12 12 11 11 0 0 0 0 0 9 0 0 0 9 -193 9 9 0 0 0 0 0 0 0 0 0 0 0 8 0 0 0 0 0 0 0 0 0 0 0 0 -193 0 10 11 10 10 11 12 12 10 12 0 0 9 0 0 0 0 0 0 0 0 0 0 0 0 0 0 0 0 0 0 0 9 9 9 0 10 0 10 0 0 -193 -193 -193 -193 0 0 0 0 0 0 0 0 0 0 0 0 0 0 0 0 9 0 0 9 8 9 9 0 9 0 0 0 0 0 0 0 0 0 0 9 0 9 9 9 10 10 10 12 12 11 11 11 14 13 14 13 12 12 12 18 14 13 17 16 18 18 19 18 15 21 18 16 16 16 16 14 17 16 12 18 19 17 20 -193 26 26 28 22 22 21 -177 -177 20 20 21 17 26 34 38 36 35 38 37 29 26 25 -193 21 21 20 20 17 23 23 24 22 27 33 35 33 33 32 32 29 31 27 27 29 27 26 27 27 31 28 29 29 28 30 33 30 32 29 31 35 32 32 29 28 30 32 30 31 29 31 30 33 32 31 29 33 36 0 0 0 0 0
    0 0 0 0 0 0 0 0 0 0 0 0 0 0 0 0 0 0 0 0 0 0 0 0 0 0 0 0 0 0 0 0 0 0 0 0 0 0 0 0 0 0 0 0 0 0 0 0 0 0 0 0 0 0 0 0 0 0 0 0 0 0 0 0 0 0 0 0 0 13 13 13 13 12 13 10 9 9 9 10 10 0 0 0 9 -193 9 9 0 0 0 0 0 0 0 0 0 0 0 9 0 0 0 0 0 0 0 0 0 0 0 0 -193 0 11 11 10 10 11 12 12 10 12 0 0 9 9 0 0 0 0 0 0 0 0 0 0 0 0 0 0 0 0 0 0 9 10 9 9 10 9 9 -193 -193 -193 -193 -193 -193 0 0 0 0 0 0 0 0 0 0 0 0 0 0 0 0 9 0 0 9 9 9 9 0 9 0 0 0 0 0 0 0 0 9 0 9 0 0 0 0 9 9 9 13 12 12 12 12 15 14 15 14 12 13 13 19 14 13 17 16 18 18 19 18 15 21 18 15 17 16 16 14 17 17 12 19 20 18 20 -193 26 26 28 22 22 22 -177 -177 -193 22 23 -193 27 36 39 37 37 39 39 34 27 25 -193 21 21 20 20 17 23 24 25 24 29 36 37 35 35 35 34 31 34 29 28 31 29 28 31 30 34 30 32 32 30 33 35 31 33 30 33 36 33 34 30 29 32 33 31 32 31 32 31 34 33 31 30 36 38 0 0 0 0 0
    0 0 0 0 0 0 0 0 0 0 0 0 0 0 0 0 0 0 0 0 0 0 0 0 0 0 0 0 0 0 0 0 0 0 0 0 0 0 0 0 0 0 0 0 0 0 0 0 0 0 0 0 0 0 0 0 0 0 0 0 0 0 0 0 0 0 0 0 0 14 14 14 13 12 14 11 9 9 9 10 11 0 0 0 0 -193 -193 9 0 0 0 0 0 0 0 0 0 0 9 10 0 0 0 0 0 0 0 0 0 0 0 0 -193 0 11 11 10 10 11 12 12 10 12 0 0 10 9 0 0 0 0 0 0 0 0 0 0 0 0 0 0 0 0 0 0 9 10 9 9 10 9 9 9 -193 -193 -193 -193 -193 0 0 0 0 0 0 0 0 0 0 0 0 0 0 0 0 9 0 0 9 9 9 9 9 0 0 0 0 0 0 0 0 0 9 0 0 0 0 0 0 9 9 9 14 13 13 12 13 16 15 16 15 13 14 13 19 15 13 17 15 18 17 19 17 14 20 18 15 17 16 16 14 17 17 13 21 21 20 22 26 26 27 28 24 24 -193 -177 -177 -193 23 25 -209 28 36 39 37 38 40 39 38 29 27 24 22 21 21 21 19 24 26 27 26 30 37 38 37 36 37 36 34 36 31 30 33 31 32 35 33 36 33 34 35 32 35 36 32 35 31 34 36 34 36 31 29 33 34 32 34 33 34 32 36 35 34 35 39 40 0 0 0 0 0
    0 0 0 0 0 0 0 0 0 0 0 0 0 0 0 0 0 0 0 0 0 0 0 0 0 0 0 0 0 0 0 0 0 0 0 0 0 0 0 0 0 0 0 0 0 0 0 0 0 0 0 0 0 0 0 0 0 0 0 0 0 0 0 0 0 0 0 0 0 15 15 14 14 13 14 11 9 9 9 10 10 0 0 0 0 -193 -193 0 0 0 0 0 0 0 0 0 0 0 9 10 0 0 0 0 0 0 0 0 0 0 0 0 -193 9 11 11 -193 10 11 11 12 10 11 0 0 9 9 8 9 0 0 0 0 0 0 0 0 0 0 0 0 0 0 0 0 0 10 9 9 10 9 9 9 -193 -193 -193 -193 0 0 0 0 0 0 0 0 0 0 0 0 0 0 0 0 0 9 0 0 0 0 0 0 0 0 0 0 0 0 0 0 0 0 0 0 0 0 0 0 0 9 9 9 15 13 15 13 13 16 15 16 15 13 14 12 19 15 13 17 15 17 17 19 17 14 20 18 15 17 17 17 15 18 18 14 22 22 22 23 27 27 27 28 26 25 -193 -193 -193 -193 24 27 27 29 36 38 37 38 39 39 37 31 30 26 23 23 22 22 21 25 29 28 27 32 38 40 39 38 39 38 38 38 35 34 36 34 36 38 36 37 35 36 36 35 37 37 34 36 33 36 37 36 39 35 32 35 36 34 37 36 37 35 37 37 36 38 41 42 0 0 0 0 0
    0 0 0 0 0 0 0 0 0 0 0 0 0 0 0 0 0 0 0 0 0 0 0 0 0 0 0 0 0 0 0 0 0 0 0 0 0 0 0 0 0 0 0 0 0 0 0 0 0 0 0 0 0 0 0 0 0 0 0 0 0 0 0 0 0 0 0 0 0 16 15 14 14 13 14 11 9 10 10 10 11 0 0 0 0 -193 -193 9 0 0 0 0 0 0 0 0 0 0 0 10 0 0 0 0 0 0 0 0 0 0 0 0 -193 9 11 10 -193 10 11 11 11 9 10 0 0 9 0 0 9 0 0 0 0 0 0 0 0 0 0 0 0 0 0 0 0 8 10 0 0 9 0 0 0 -193 -193 -193 -193 0 0 0 0 0 0 0 0 0 0 0 0 0 0 0 0 0 9 0 0 0 0 0 0 0 0 0 0 0 0 0 0 0 0 0 0 0 0 0 0 0 9 9 9 15 14 16 14 14 17 15 16 15 13 14 12 19 14 13 17 14 17 17 18 17 14 20 18 15 17 17 17 15 18 18 15 23 24 24 25 29 28 28 29 28 27 27 27 27 25 26 29 29 30 37 38 38 38 40 40 38 35 34 31 24 24 23 23 22 26 33 30 29 36 41 41 41 40 41 41 41 40 38 38 38 37 39 40 38 38 36 37 38 37 38 38 36 37 37 39 39 40 42 40 38 39 39 37 39 39 39 36 38 38 38 40 42 42 0 0 0 0 0
    0 0 0 0 0 0 0 0 0 0 0 0 0 0 0 0 0 0 0 0 0 0 0 0 0 0 0 0 0 0 0 0 0 0 0 0 0 0 0 0 0 0 0 0 0 0 0 0 0 0 0 0 0 0 0 0 0 0 0 0 0 0 0 0 0 0 0 0 0 16 15 14 14 13 14 11 10 10 10 10 11 9 0 0 9 -193 9 9 0 0 0 0 0 0 0 0 0 0 0 9 0 0 0 0 0 0 0 0 0 0 0 0 9 9 11 10 -193 -193 -193 11 11 9 9 0 0 0 0 0 0 0 0 0 0 0 0 0 0 0 0 0 0 0 0 0 0 9 10 0 0 9 0 0 9 -193 0 -193 -193 0 0 0 0 0 0 0 0 0 0 0 0 0 0 0 0 0 0 0 0 0 0 0 0 0 0 0 0 0 0 0 0 0 0 0 0 0 0 0 0 0 9 9 9 16 14 16 14 14 16 16 16 16 13 14 11 18 14 13 16 14 16 17 18 17 14 20 18 15 17 17 17 16 19 19 15 23 24 26 26 29 29 29 30 30 28 29 27 28 26 28 31 30 31 37 38 38 39 41 41 40 37 38 37 26 25 24 25 24 28 38 36 38 40 42 42 42 42 42 42 42 42 41 40 40 40 41 42 40 40 38 39 39 39 40 40 38 39 39 41 43 43 45 44 42 42 41 41 42 41 41 38 39 39 39 42 42 43 0 0 0 0 0
    0 0 0 0 0 0 0 0 0 0 0 0 0 0 0 0 0 0 0 0 0 0 0 0 0 0 0 0 0 0 0 0 0 0 0 0 0 0 0 0 0 0 0 0 0 0 0 0 0 0 0 0 0 0 0 0 0 0 0 0 0 0 0 0 0 0 0 0 0 16 15 14 14 12 14 11 9 10 10 11 11 10 0 9 10 12 10 9 9 0 0 0 0 0 0 0 0 0 0 8 0 0 0 0 0 0 0 0 0 0 0 0 10 9 11 10 -193 -193 -193 10 11 0 0 0 0 0 0 0 0 0 0 0 -177 0 0 0 0 0 0 0 0 0 0 0 0 9 10 0 0 0 0 0 9 -193 -193 -193 383 0 0 0 0 0 0 0 0 0 0 0 0 0 0 0 0 0 0 0 0 0 0 0 0 0 0 0 0 0 0 0 0 0 0 0 0 0 0 9 0 0 9 9 9 16 14 17 14 14 16 16 16 16 13 14 11 18 14 12 16 14 16 16 17 16 14 20 17 14 17 17 17 16 19 19 15 23 24 27 27 30 30 30 31 32 29 30 29 29 27 30 34 32 31 37 38 38 39 41 41 39 39 39 40 31 29 28 29 28 32 41 39 41 41 43 43 42 43 43 42 43 42 41 41 41 41 42 42 41 41 39 40 40 41 41 41 40 41 41 43 44 45 46 45 43 44 43 43 43 43 42 40 41 40 41 43 43 44 0 0 0 0 0
    0 0 0 0 0 0 0 0 0 0 0 0 0 0 0 0 0 0 0 0 0 0 0 0 0 0 0 0 0 0 0 0 0 0 0 0 0 0 0 0 0 0 0 0 0 0 0 0 0 0 0 0 0 0 0 0 0 0 0 0 0 0 0 0 0 0 0 0 0 16 15 14 14 11 13 10 9 10 10 11 12 11 10 11 14 19 12 11 9 0 0 0 0 0 0 0 0 0 0 0 0 0 0 0 0 0 0 0 0 0 0 0 10 9 11 10 -193 -193 -193 10 10 0 0 0 0 0 0 0 0 0 0 0 0 0 0 0 0 0 0 0 0 0 0 0 0 0 9 0 0 0 0 0 10 -193 -193 -177 -177 0 0 0 0 0 0 0 0 0 0 0 0 0 0 0 0 0 0 0 0 0 0 9 -193 9 0 0 0 0 0 0 0 9 9 10 0 0 0 10 9 0 10 9 10 17 14 17 14 15 16 16 16 16 13 14 11 18 14 13 16 14 17 16 17 17 14 20 17 14 17 16 16 16 18 18 15 23 24 27 27 31 31 31 32 34 31 33 30 32 29 33 36 34 32 37 37 37 38 40 40 38 38 39 40 36 36 34 34 35 36 42 41 41 41 43 43 43 43 43 42 43 43 43 42 42 43 43 43 42 42 -193 42 42 42 42 43 41 42 42 43 45 46 47 46 45 46 44 44 45 45 43 41 42 41 41 44 44 44 0 0 0 0 0
    0 0 0 0 0 0 0 0 0 0 0 0 0 0 0 0 0 0 0 0 0 0 0 0 0 0 0 0 0 0 0 0 0 0 0 0 0 0 0 0 0 0 0 0 0 0 0 0 0 0 0 0 0 0 0 0 0 0 0 0 0 0 0 0 0 0 0 0 0 16 15 14 14 11 13 10 10 10 10 12 13 13 13 13 19 23 20 15 10 0 0 0 0 0 0 0 0 0 0 0 0 0 0 0 0 0 0 9 9 0 0 0 10 9 10 10 -193 -193 -193 10 10 0 0 0 0 0 0 0 0 0 0 0 0 0 0 0 0 0 0 0 0 0 0 0 0 0 0 0 0 0 0 0 9 -193 -193 -177 -177 0 0 0 0 0 0 0 0 0 0 0 0 0 0 0 0 0 0 0 0 0 -193 9 -193 11 12 0 9 9 0 0 10 12 11 12 10 10 10 11 10 9 11 9 10 17 14 18 15 15 16 16 16 16 13 15 10 18 13 13 16 14 16 16 17 16 13 20 17 14 17 16 16 15 18 18 15 23 24 27 28 32 32 32 34 35 33 35 32 34 31 36 37 36 34 37 37 37 38 40 39 37 38 40 40 39 40 39 39 39 39 42 41 41 41 42 42 42 42 43 42 43 43 43 42 42 43 43 43 43 -193 -193 -193 42 43 -193 44 42 43 43 44 45 46 47 46 45 46 45 46 46 46 45 43 43 42 42 45 45 45 0 0 0 0 0
    0 0 0 0 0 0 0 0 0 0 0 0 0 0 0 0 0 0 0 0 0 0 0 0 0 0 0 0 0 0 0 0 0 0 0 0 0 0 0 0 0 0 0 0 0 0 0 0 0 0 0 0 0 0 0 0 0 0 0 0 0 0 0 0 0 0 0 0 0 17 15 14 14 11 12 10 10 10 10 12 13 15 17 17 22 25 25 21 16 9 0 9 0 0 0 0 0 0 0 0 0 0 0 0 0 0 0 9 9 9 0 0 9 9 10 9 -193 -193 -193 9 9 0 0 0 0 0 0 0 0 0 0 0 0 0 0 0 0 0 0 9 0 0 0 0 0 0 0 0 0 0 0 0 9 -193 -193 -177 -177 0 0 0 0 0 0 0 0 0 0 0 0 0 0 0 0 0 0 0 0 0 -209 10 -193 13 21 15 15 17 15 9 13 13 13 12 11 10 10 12 11 9 11 10 10 17 14 18 14 15 16 16 16 16 13 15 11 18 14 12 15 14 16 15 16 15 13 19 16 13 17 15 15 15 18 18 15 24 25 28 29 33 33 34 35 36 35 36 34 36 33 37 38 37 35 38 38 38 39 41 40 38 40 42 41 41 42 42 41 41 41 43 41 42 41 41 41 41 42 43 42 43 42 -193 -193 43 43 43 -193 -193 -193 -193 -193 -193 -193 -193 -193 43 44 44 44 45 45 47 46 45 46 46 47 48 48 47 45 45 44 44 46 45 46 0 0 0 0 0
    0 0 0 0 0 0 0 0 0 0 0 0 0 0 0 0 0 0 0 0 0 0 0 0 0 0 0 0 0 0 0 0 0 0 0 0 0 0 0 0 0 0 0 0 0 0 0 0 0 0 0 0 0 0 0 0 0 0 0 0 0 0 0 0 0 0 0 0 0 17 15 14 13 11 11 9 9 9 10 12 13 16 20 20 24 26 26 25 25 10 0 9 0 0 0 0 0 0 0 0 0 0 0 0 0 0 0 0 9 9 0 0 9 9 9 9 0 0 0 9 9 0 0 0 0 0 0 0 0 0 0 0 -177 0 0 0 0 0 0 9 9 9 0 0 0 0 0 0 0 0 0 0 0 -193 -193 -177 385 -193 0 0 0 0 0 0 0 0 0 0 0 0 0 0 0 0 0 0 0 0 -209 -193 435 -193 25 25 23 24 22 12 15 14 13 13 12 11 11 12 11 10 11 10 10 17 14 18 14 15 16 16 16 16 13 15 11 17 14 12 15 13 16 16 15 15 13 18 16 13 17 15 15 15 18 18 15 24 25 28 29 34 34 34 35 36 35 37 35 36 34 38 38 37 36 38 38 39 39 41 40 38 40 44 42 42 43 43 42 42 42 44 41 42 41 41 41 41 42 43 42 43 -193 -193 -193 -193 -193 -193 -193 -193 -193 -193 -193 -193 -193 -193 45 44 45 45 45 46 46 47 46 45 47 46 48 48 49 47 45 46 45 44 47 45 46 0 0 0 0 0
    0 0 0 0 0 0 0 0 0 0 0 0 0 0 0 0 0 0 0 0 0 0 0 0 0 0 0 0 0 0 0 0 0 0 0 0 0 0 0 0 0 0 0 0 0 0 0 0 0 0 0 0 0 0 0 0 0 0 0 0 0 0 0 0 0 0 0 0 0 17 15 14 12 10 10 9 9 9 9 12 13 17 23 23 25 26 26 24 25 10 0 9 0 0 0 0 0 0 0 0 0 0 0 0 0 0 0 0 0 0 0 0 9 9 9 9 0 0 0 9 10 0 0 0 0 0 0 0 0 0 0 -177 -177 -177 0 0 0 0 0 9 9 9 0 0 0 0 0 0 0 0 0 0 0 -193 -177 386 386 384 0 0 0 0 0 0 0 0 0 0 0 0 0 0 0 0 0 -193 0 0 -209 -193 435 -193 26 26 24 24 23 16 16 14 14 13 12 11 11 12 11 10 11 10 10 16 14 18 14 15 16 16 16 16 13 15 11 16 14 12 14 13 16 16 15 15 13 18 16 13 17 14 14 15 17 18 14 23 25 28 29 34 34 34 35 36 35 37 35 36 35 38 39 38 37 38 38 39 40 41 40 39 40 45 42 42 43 43 43 43 42 44 41 42 41 41 40 40 42 43 42 43 -193 -193 -193 -193 -193 -193 -193 -193 -193 -193 -193 -193 -193 45 45 44 45 45 45 46 46 47 46 46 47 47 48 49 49 47 46 47 45 45 47 46 46 0 0 0 0 0
    0 0 0 0 0 0 0 0 0 0 0 0 0 0 0 0 0 0 0 0 0 0 0 0 0 0 0 0 0 0 0 0 0 0 0 0 0 0 0 0 0 0 0 0 0 0 0 0 0 0 0 0 0 0 0 0 0 0 0 0 0 0 0 0 0 0 0 0 0 17 15 15 13 11 10 9 10 10 10 14 -193 20 25 25 27 27 28 26 26 20 16 13 10 0 0 0 0 0 0 0 0 0 0 0 0 0 0 0 0 0 0 0 9 9 9 9 0 0 0 10 10 0 0 0 0 0 0 0 0 0 0 -177 -177 -177 0 0 0 0 0 9 9 0 0 0 0 0 0 0 0 0 0 0 0 -193 -177 386 387 385 -193 0 0 0 0 0 0 0 0 0 0 0 0 0 0 0 0 -193 -193 0 -193 15 -193 -193 26 27 25 24 23 19 17 14 14 13 12 11 11 11 11 10 12 10 10 16 14 18 14 15 15 17 16 16 13 15 11 16 15 13 14 14 16 16 15 14 13 17 16 14 17 14 13 14 16 18 14 22 25 28 29 35 35 35 36 37 36 37 35 37 -193 38 39 38 38 39 39 40 41 41 41 40 40 46 43 42 43 43 43 43 42 44 39 41 40 40 39 40 41 43 42 43 -193 -193 -193 -193 -193 -193 -193 -193 -193 -193 -193 46 46 46 45 45 45 45 45 46 46 48 46 46 47 47 48 48 49 48 46 47 46 46 48 46 46 0 0 0 0 0
    0 0 0 0 0 0 0 0 0 0 0 0 0 0 0 0 0 0 0 0 0 0 0 0 0 0 0 0 0 0 0 0 0 0 0 0 0 0 0 0 0 0 0 0 0 0 0 0 0 0 0 0 0 0 0 0 0 0 0 0 0 0 0 0 0 0 0 0 0 16 15 15 13 11 11 10 11 11 12 16 -209 22 26 27 29 30 29 28 27 25 25 21 18 10 0 9 8 0 9 0 0 0 0 0 0 0 0 0 9 9 0 0 10 9 9 10 0 0 0 10 10 0 0 0 0 0 0 0 0 0 0 -177 -177 -177 0 0 0 0 0 10 10 9 0 0 0 0 0 0 0 0 0 0 -193 -193 -177 387 387 386 385 -193 -193 0 0 0 0 0 0 0 0 0 0 0 0 0 0 -193 -193 0 11 19 24 25 28 28 26 26 25 22 20 15 15 13 12 11 11 11 11 11 12 10 10 16 14 18 14 15 15 17 16 16 13 15 12 16 16 14 14 14 16 16 15 14 13 17 15 14 17 13 13 14 15 17 13 19 25 28 29 35 35 35 36 37 36 37 35 37 -193 38 -193 38 38 39 39 40 41 41 41 41 41 47 43 42 43 43 43 43 41 43 38 40 39 39 38 39 -193 43 -193 44 -193 -193 -193 -193 -193 -193 -193 -193 -209 -193 -193 46 46 46 46 45 45 45 46 46 46 48 46 46 47 47 47 48 49 48 47 49 48 48 50 48 48 0 0 0 0 0
    0 0 0 0 0 0 0 0 0 0 0 0 0 0 0 0 0 0 0 0 0 0 0 0 0 0 0 0 0 0 0 0 0 0 0 0 0 0 0 0 0 0 0 0 0 0 0 0 0 0 0 0 0 0 0 0 0 0 0 0 0 0 0 0 0 0 0 0 0 16 15 16 14 13 12 11 12 14 15 20 -209 24 27 28 30 32 30 29 28 26 26 25 25 22 9 10 11 9 11 9 0 0 0 0 0 0 9 10 10 11 0 0 10 10 10 9 0 0 0 9 9 0 0 0 0 0 0 0 0 0 0 -177 -177 -177 -177 -177 0 0 9 10 11 11 0 0 0 0 0 0 0 0 0 -209 -193 -193 -177 387 388 387 386 386 -209 -209 9 10 11 9 0 0 0 0 0 0 0 0 -193 -193 -193 9 14 22 26 27 29 30 28 28 27 25 22 17 16 14 12 11 11 11 11 11 11 10 10 16 14 17 14 14 14 17 16 16 13 15 12 16 17 15 14 15 17 17 15 15 14 17 15 14 17 13 12 13 15 16 12 17 25 28 30 36 35 35 36 37 36 37 36 37 -193 38 -193 38 38 39 39 41 41 42 42 41 42 47 43 42 43 43 42 42 41 43 38 40 38 38 38 -193 -193 43 -193 -193 -193 -193 -193 -193 -193 -193 -193 -193 -209 -193 45 46 46 47 46 45 45 45 46 46 46 47 45 45 46 47 47 48 49 49 48 51 50 50 51 51 50 0 0 0 0 0
    0 0 0 0 0 0 0 0 0 0 0 0 0 0 0 0 0 0 0 0 0 0 0 0 0 0 0 0 0 0 0 0 0 0 0 0 0 0 0 0 0 0 0 0 0 0 0 0 0 0 0 0 0 0 0 0 0 0 0 0 0 0 0 0 0 0 0 0 0 16 15 16 15 15 13 13 15 18 20 23 -209 26 28 29 31 32 31 30 29 27 28 27 27 26 25 17 19 13 17 13 11 12 11 13 12 12 15 13 13 13 0 0 11 10 10 9 0 0 0 9 0 0 0 0 0 0 0 0 0 0 0 -177 -177 -177 -177 10 9 9 10 11 12 13 0 11 -209 -193 -193 -193 -193 -209 -209 -209 -209 -193 -177 386 387 386 386 -193 -193 -209 11 18 -193 14 0 0 0 0 0 0 0 0 -193 -209 -193 12 18 24 27 28 31 32 29 29 28 26 24 18 17 14 13 11 11 11 11 11 12 11 10 16 14 17 14 14 14 17 16 16 13 15 12 15 18 15 14 16 17 17 16 15 14 17 15 14 17 13 -193 13 14 16 11 17 25 28 30 36 35 35 37 37 36 37 36 37 -193 38 -193 38 38 39 39 41 41 42 42 41 42 47 43 42 42 42 42 42 41 42 37 40 38 39 38 -193 -209 44 -193 44 43 44 44 45 -193 -193 -193 -193 -193 -193 45 46 46 46 45 45 45 44 45 45 45 46 45 45 46 47 47 48 49 49 48 52 50 50 51 51 50 0 0 0 0 0
    0 0 0 0 0 0 0 0 0 0 0 0 0 0 0 0 0 0 0 0 0 0 0 0 0 0 0 0 0 0 0 0 0 0 0 0 0 0 0 0 0 0 0 0 0 0 0 0 0 0 0 0 0 0 0 0 0 0 0 0 0 0 0 0 0 0 0 0 0 16 16 16 16 17 15 17 19 21 24 25 27 28 28 30 32 32 31 30 30 28 30 29 28 28 27 25 25 21 22 22 20 25 25 23 20 20 22 19 18 17 9 10 12 12 11 11 9 0 0 9 0 0 0 0 0 0 0 0 9 0 0 0 0 12 -177 13 12 12 12 14 15 18 10 23 27 27 29 28 27 25 -209 -209 -209 -193 -193 -193 -193 385 385 -193 17 -193 16 25 -193 -193 -209 -193 0 0 0 0 0 0 0 10 15 19 22 26 29 29 32 33 30 30 29 28 25 19 18 15 13 11 11 10 10 11 12 10 10 16 14 17 14 14 13 17 15 15 13 15 12 15 18 16 14 16 17 18 16 15 15 17 15 15 16 -193 -177 13 15 17 12 21 26 29 30 36 35 35 37 36 36 37 36 37 -193 38 39 38 39 39 39 -193 41 42 41 42 43 47 43 42 42 42 42 42 41 42 38 40 38 39 39 -193 -193 44 -193 45 44 45 45 46 -193 -193 -193 -193 -193 -193 44 44 45 45 44 45 44 44 45 45 45 45 44 45 45 47 46 48 49 49 48 52 49 51 51 51 50 0 0 0 0 0
    0 0 0 0 0 0 0 0 0 0 0 0 0 0 0 0 0 0 0 0 0 0 0 0 0 0 0 0 0 0 0 0 0 0 0 0 0 0 0 0 0 0 0 0 0 0 0 0 0 0 0 0 0 0 0 0 0 0 0 0 0 0 0 0 0 0 0 0 0 16 16 17 18 19 17 21 -193 24 27 27 29 29 29 31 32 33 32 31 30 30 32 30 29 28 28 26 26 24 25 25 24 27 27 26 24 23 25 23 21 19 10 11 14 14 14 13 12 10 9 10 -193 0 0 0 0 0 0 0 10 11 11 13 12 18 16 18 16 15 16 18 19 21 18 25 28 29 30 29 29 27 26 26 26 21 -193 11 -193 -193 -193 15 22 -209 23 27 28 -193 -193 -193 -193 0 0 0 0 0 9 12 21 24 25 26 30 31 33 35 32 31 30 29 26 19 19 15 13 11 11 9 10 11 11 10 10 -177 14 16 14 13 13 17 15 15 13 15 13 15 19 16 14 17 18 18 16 16 16 371 -193 -193 16 -177 -177 -193 17 18 13 24 27 -193 31 35 35 34 37 36 36 37 35 37 36 39 39 38 39 39 -193 -193 42 42 41 42 43 47 43 42 42 42 42 42 41 43 38 41 39 40 39 -193 42 45 43 45 44 45 45 46 44 -193 -193 -193 -193 -193 44 45 46 46 45 45 45 45 45 45 45 45 44 45 45 46 46 47 48 48 48 51 48 50 50 51 50 0 0 0 0 0
    0 0 0 0 0 0 0 0 0 0 0 0 0 0 0 0 0 0 0 0 0 0 0 0 0 0 0 0 0 0 0 0 0 0 0 0 0 0 0 0 0 0 0 0 0 0 0 0 0 0 0 0 0 0 0 0 0 0 0 0 0 0 0 0 0 0 0 0 0 16 16 17 19 21 19 24 25 26 29 29 30 30 30 33 34 35 33 32 32 33 33 31 30 29 28 27 27 25 25 25 26 28 28 27 26 25 26 25 23 22 13 13 17 17 18 17 15 13 10 11 -209 0 0 0 0 0 0 0 13 21 18 22 21 22 21 22 21 20 20 21 21 23 -193 26 30 30 31 30 30 28 27 27 28 25 16 15 16 20 24 22 25 -209 26 28 29 27 -193 -193 -193 0 0 -209 9 9 10 15 23 26 27 27 31 32 33 35 32 32 31 30 28 21 20 16 13 11 11 9 9 11 11 10 9 -177 13 -177 14 13 12 18 15 15 13 15 13 15 19 17 15 18 19 19 18 17 18 371 -193 369 -193 -177 -177 -193 17 18 13 24 -193 -193 31 35 34 34 36 36 36 37 35 36 35 38 39 38 39 39 -209 -193 42 42 41 42 43 47 43 42 42 42 41 42 41 43 39 41 40 40 40 42 42 45 43 45 44 44 45 45 43 -193 -193 -193 -193 45 45 45 46 46 45 46 45 45 45 45 45 45 45 46 45 46 46 47 47 47 47 49 48 49 48 51 50 0 0 0 0 0
    0 0 0 0 0 0 0 0 0 0 0 0 0 0 0 0 0 0 0 0 0 0 0 0 0 0 0 0 0 0 0 0 0 0 0 0 0 0 0 0 0 0 0 0 0 0 0 0 0 0 0 0 0 0 0 0 0 0 0 0 0 0 0 0 0 0 0 0 0 16 17 18 20 23 22 26 28 29 31 31 31 33 31 35 35 35 35 33 33 35 33 31 31 30 29 28 29 27 26 27 27 30 29 28 28 27 28 27 25 24 17 16 19 20 21 20 20 -193 -193 -193 -209 0 0 0 0 0 0 -177 17 25 24 25 25 25 24 24 24 23 23 24 23 25 26 28 32 31 32 31 31 30 29 28 29 26 24 21 24 24 26 25 27 28 28 29 30 28 27 -193 -209 9 11 11 12 12 12 19 25 28 28 28 32 33 34 36 33 33 32 31 29 22 21 17 13 12 12 9 9 11 11 10 10 16 13 -177 -177 13 13 18 15 16 14 16 13 15 19 18 15 19 19 20 18 18 18 -193 -193 369 370 368 -177 -193 -193 18 13 25 26 29 31 35 34 33 36 36 36 37 36 37 36 39 39 38 39 39 40 -193 41 42 41 42 43 46 43 41 41 41 41 42 41 43 40 42 41 41 41 43 43 45 42 44 43 44 44 45 43 44 -193 -193 44 45 45 44 45 46 45 45 45 45 44 46 46 45 45 47 45 47 46 47 47 47 47 48 48 49 48 50 50 0 0 0 0 0
    0 0 0 0 0 0 0 0 0 0 0 0 0 0 0 0 0 0 0 0 0 0 0 0 0 0 0 0 0 0 0 0 0 0 0 0 0 0 0 0 0 0 0 0 0 0 0 0 0 0 0 0 0 0 0 0 0 0 0 0 0 0 0 0 0 0 0 0 0 16 18 19 21 24 24 27 29 29 32 31 32 33 32 35 35 36 36 35 35 36 35 33 32 32 30 29 30 28 28 28 29 31 30 30 29 28 29 27 26 25 19 18 20 21 23 23 23 -209 -209 -209 -209 -209 0 0 0 0 0 -177 20 26 26 28 27 26 25 26 26 25 25 25 25 26 28 29 34 32 33 31 32 30 30 29 30 27 26 24 26 26 27 26 28 30 29 30 30 29 27 -209 -209 10 14 13 13 13 14 22 27 30 31 29 34 35 35 36 34 33 33 32 32 24 23 19 14 12 12 9 10 11 11 10 10 17 14 -177 -177 13 13 18 15 16 14 16 13 15 20 18 16 20 20 20 19 19 19 -193 16 369 369 368 -177 -193 -193 19 14 25 27 29 30 34 34 33 36 36 36 37 36 37 36 39 39 38 39 39 40 41 41 41 40 42 42 45 42 41 41 41 41 41 41 43 40 42 41 41 41 43 43 44 42 44 43 43 44 45 42 43 -193 43 43 46 44 44 44 45 44 45 45 46 44 47 47 46 46 47 46 47 47 47 47 47 47 48 48 49 48 50 50 0 0 0 0 0
    0 0 0 0 0 0 0 0 0 0 0 0 0 0 0 0 0 0 0 0 0 0 0 0 0 0 0 0 0 0 0 0 0 0 0 0 0 0 0 0 0 0 0 0 0 0 0 0 0 0 0 0 0 0 0 0 0 0 0 0 0 0 0 0 0 0 0 0 0 16 18 20 22 26 25 29 30 30 32 32 32 34 32 36 34 36 36 35 35 35 33 31 31 31 30 30 31 29 29 29 30 33 32 31 30 29 30 28 27 26 21 20 21 23 -193 26 26 -209 -209 -209 -209 -209 -193 0 0 0 0 -177 21 28 29 31 29 29 28 27 28 27 27 27 27 28 30 30 35 33 33 32 32 31 30 30 31 28 28 27 29 28 28 28 29 31 30 31 31 29 -193 -193 -193 11 17 14 14 15 16 23 29 31 33 30 34 36 36 36 35 34 35 34 34 29 26 22 15 13 12 9 10 11 11 10 10 18 14 -177 -177 13 13 18 16 16 14 16 13 15 20 19 16 20 20 20 20 19 19 -193 16 369 368 367 -177 -193 -193 20 15 25 27 30 30 34 33 32 36 36 36 37 36 37 36 39 39 38 38 39 40 40 40 41 39 41 41 43 41 41 41 40 40 41 41 43 41 42 41 41 42 43 43 44 42 43 42 43 44 45 42 43 -193 42 42 45 44 43 44 45 44 45 45 46 44 47 47 46 46 47 46 47 47 47 47 47 47 47 48 49 48 49 50 0 0 0 0 0
    0 0 0 0 0 0 0 0 0 0 0 0 0 0 0 0 0 0 0 0 0 0 0 0 0 0 0 0 0 0 0 0 0 0 0 0 0 0 0 0 0 0 0 0 0 0 0 0 0 0 0 0 0 0 0 0 0 0 0 0 0 0 0 0 0 0 0 0 0 18 19 21 23 27 27 29 31 31 33 32 33 34 32 35 34 35 35 34 34 34 32 31 31 31 31 31 32 31 32 32 33 34 33 32 31 30 30 28 28 26 22 21 21 -193 -193 29 29 -209 -209 -209 -209 -209 0 0 0 0 0 -193 23 31 32 34 32 31 30 30 30 29 29 29 28 30 32 31 35 33 32 32 32 31 31 30 31 29 29 30 32 31 32 32 32 34 32 32 32 30 -209 -193 -193 11 17 15 15 16 17 24 30 32 33 31 34 36 36 36 35 35 35 35 35 31 28 24 16 15 13 9 10 11 11 10 10 18 14 17 -177 14 13 19 16 16 14 16 14 16 20 19 16 20 21 21 20 20 20 -193 17 368 368 367 -177 -193 -193 21 18 26 27 30 31 33 33 31 35 35 36 36 36 37 37 39 38 38 38 39 39 39 39 40 37 41 41 42 41 41 41 40 40 40 41 42 40 42 41 41 41 43 42 44 42 43 42 43 44 44 41 42 -193 41 41 45 43 43 43 44 44 45 45 46 44 47 46 45 46 47 45 46 46 46 46 47 47 47 48 49 48 49 49 0 0 0 0 0
    0 0 0 0 0 0 0 0 0 0 0 0 0 0 0 0 0 0 0 0 0 0 0 0 0 0 0 0 0 0 0 0 0 0 0 0 0 0 0 0 0 0 0 0 0 0 0 0 0 0 0 0 0 0 0 0 0 0 0 0 0 0 0 0 0 0 0 0 0 19 20 22 23 28 27 30 31 32 34 34 33 35 33 35 34 35 35 34 34 34 32 30 30 31 32 32 33 34 34 34 35 35 34 33 31 31 30 29 28 27 24 22 23 -209 -193 30 31 -193 -209 -209 -209 -209 -193 0 0 0 0 -209 -193 34 35 35 33 32 32 31 32 31 31 31 30 32 34 33 35 34 32 32 33 31 31 30 31 29 29 30 32 30 32 33 33 35 33 33 33 31 -209 -193 -209 12 18 16 16 18 17 24 29 31 31 30 34 35 36 36 35 35 36 34 34 31 29 26 19 19 15 10 10 11 11 10 10 19 14 17 -177 14 14 19 17 17 15 17 14 16 20 19 17 21 21 21 21 21 21 20 17 368 367 367 -177 -193 -193 23 -209 27 28 31 31 32 32 30 35 35 36 36 35 37 37 39 38 37 37 38 39 39 39 39 37 41 41 41 41 41 41 41 41 41 41 42 41 42 40 40 41 42 42 43 41 42 41 42 43 44 40 41 -193 40 40 45 43 42 43 43 43 44 45 46 43 47 46 45 46 47 45 46 46 46 46 46 47 46 47 48 47 48 48 0 0 0 0 0
    0 0 0 0 0 0 0 0 0 0 0 0 0 0 0 0 0 0 0 0 0 0 0 0 0 0 0 0 0 0 0 0 0 0 0 0 0 0 0 0 0 0 0 0 0 0 0 0 0 0 0 0 0 0 0 0 0 0 0 0 0 0 0 0 0 0 0 0 0 20 22 -209 24 30 28 31 32 33 34 34 33 35 34 35 33 34 34 34 33 34 31 30 30 32 32 33 34 35 35 35 35 35 34 33 31 31 30 30 29 29 27 26 27 29 31 32 33 -193 -209 -177 -193 -193 -193 0 0 0 -193 -209 -193 37 37 36 36 35 36 36 36 35 35 36 34 36 37 35 36 35 32 31 33 32 31 31 32 30 29 31 33 30 32 35 34 36 34 34 33 32 -209 -209 -193 12 17 15 16 18 16 24 28 31 32 31 34 36 36 36 35 35 36 35 35 33 30 27 22 22 18 11 12 11 11 9 10 19 14 16 -177 14 15 20 18 18 15 17 15 16 20 19 17 21 21 22 21 21 21 21 18 -193 367 366 -177 20 -193 23 -209 27 28 31 31 32 32 30 33 34 35 35 35 36 36 38 38 37 37 38 38 38 38 39 37 41 41 41 41 42 42 42 41 41 41 42 41 41 40 40 40 42 41 -193 -193 41 41 41 42 42 40 40 -193 39 40 45 43 42 43 43 43 44 45 46 43 47 46 45 46 47 44 46 46 46 46 46 46 46 47 48 47 48 48 0 0 0 0 0
    0 0 0 0 0 0 0 0 0 0 0 0 0 0 0 0 0 0 0 0 0 0 0 0 0 0 0 0 0 0 0 0 0 0 0 0 0 0 0 0 0 0 0 0 0 0 0 0 0 0 0 0 0 0 0 0 0 0 0 0 0 0 0 0 0 0 0 0 0 23 24 -193 27 34 31 33 33 34 34 35 33 36 34 35 34 35 34 34 33 35 30 29 31 31 33 34 35 35 35 35 35 35 34 33 31 31 30 31 30 31 30 31 31 34 35 36 36 40 -209 -193 -193 -193 -209 -193 -209 -193 -209 -209 -209 40 40 39 39 38 38 39 38 38 38 39 38 38 39 37 36 35 33 32 35 34 33 33 34 32 31 34 35 31 32 36 34 36 34 34 34 34 -209 -193 -193 13 16 15 16 18 16 24 27 31 33 32 35 37 37 37 36 36 36 36 36 36 33 29 25 27 23 13 19 13 11 9 11 20 14 17 17 15 17 21 19 19 16 18 16 17 21 20 19 22 23 23 23 22 22 22 19 -193 -177 -177 -193 19 -193 23 -209 27 28 30 30 31 32 29 32 33 34 34 35 36 36 37 37 37 36 38 38 37 37 39 37 41 41 41 41 42 42 42 41 41 42 42 41 41 40 40 40 41 -193 173 -193 40 39 40 -193 41 39 39 -193 39 40 45 43 43 42 43 43 44 45 45 42 46 45 45 46 46 44 46 46 46 46 46 46 45 47 48 47 48 49 0 0 0 0 0
    0 0 0 0 0 0 0 0 0 0 0 0 0 0 0 0 0 0 0 0 0 0 0 0 0 0 0 0 0 0 0 0 0 0 0 0 0 0 0 0 0 0 0 0 0 0 0 0 0 0 0 0 0 0 0 0 0 0 0 0 0 0 0 0 0 0 0 0 0 37 36 38 33 37 34 35 34 35 35 36 34 36 35 36 35 35 35 35 32 34 29 29 31 32 33 36 35 36 35 36 36 35 34 34 32 33 31 32 31 32 32 34 34 36 37 38 39 44 -209 -193 -209 -209 -209 -209 -209 -209 -209 49 44 42 42 41 42 40 41 42 41 40 40 42 41 41 40 38 36 36 33 33 35 35 34 34 35 33 33 35 35 30 32 35 34 35 35 35 35 36 -209 -209 -193 15 16 14 15 17 15 24 26 31 33 33 35 36 37 36 36 36 37 36 36 36 35 33 31 35 31 21 25 20 14 9 19 24 16 19 20 19 20 22 21 21 19 20 18 19 22 21 21 24 25 25 25 24 25 24 21 -193 -193 -193 -193 18 21 22 -193 26 28 29 30 31 31 30 30 32 32 32 34 34 35 36 35 36 35 37 36 36 36 37 35 40 40 40 40 42 42 42 42 41 42 42 41 41 39 39 40 -193 -193 173 -193 40 39 -193 -209 41 40 -193 -209 39 40 45 43 42 42 42 42 43 44 44 41 45 45 45 46 46 43 46 46 46 46 46 46 45 47 49 48 48 49 0 0 0 0 0
    0 0 0 0 0 0 0 0 0 0 0 0 0 0 0 0 0 0 0 0 0 0 0 0 0 0 0 0 0 0 0 0 0 0 0 0 0 0 0 0 0 0 0 0 0 0 0 0 0 0 0 0 0 0 0 0 0 0 0 0 0 0 0 0 0 0 0 0 0 40 39 40 37 38 37 37 36 37 37 37 35 37 35 36 34 35 34 34 32 33 29 29 32 32 34 36 36 36 37 37 36 35 35 35 32 34 32 33 33 34 34 36 36 38 38 40 44 47 48 50 53 51 48 48 52 -209 45 49 45 43 43 44 44 42 42 45 42 42 43 43 43 42 42 40 36 36 33 34 35 35 34 35 36 34 33 36 35 30 32 35 34 35 34 35 35 37 -209 -209 -209 20 17 14 15 18 16 24 27 30 34 34 36 36 37 37 37 37 38 36 37 37 38 36 37 38 37 27 29 31 -209 -193 29 35 24 24 24 23 24 24 24 25 23 25 24 24 25 26 28 30 32 35 34 32 33 33 29 -209 -193 -209 17 20 21 23 27 27 28 30 30 31 30 30 29 31 31 31 32 34 34 36 35 35 34 37 36 35 35 36 33 39 40 39 39 42 42 42 42 41 42 41 41 40 39 38 39 -193 -193 172 -193 -209 -209 -193 -209 -193 -209 -209 -209 40 40 45 42 42 42 42 42 42 43 44 41 45 44 45 46 46 43 46 46 46 46 47 47 46 48 49 48 49 49 0 0 0 0 0
    0 0 0 0 0 0 0 0 0 0 0 0 0 0 0 0 0 0 0 0 0 0 0 0 0 0 0 0 0 0 0 0 0 0 0 0 0 0 0 0 0 0 0 0 0 0 0 0 0 0 0 0 0 0 0 0 0 0 0 0 0 0 0 0 0 0 0 0 0 42 40 40 37 39 38 37 36 37 37 38 36 37 36 35 34 35 34 34 31 32 29 30 32 33 34 37 36 37 37 37 37 36 36 36 34 35 33 34 34 35 36 37 38 39 40 42 49 50 50 51 53 52 48 49 52 48 45 50 46 44 45 46 45 43 44 47 43 44 44 45 44 44 43 42 37 37 34 35 36 35 35 35 36 34 33 37 35 31 33 36 34 36 35 36 36 38 -209 -193 -193 -193 18 14 16 -193 17 25 28 30 33 34 36 36 37 37 37 37 38 37 38 38 39 38 39 39 38 30 33 36 37 35 37 39 39 40 37 37 34 33 32 33 29 30 30 30 31 35 38 41 40 45 45 43 43 45 45 44 39 40 36 35 32 32 32 29 30 31 30 30 29 29 28 30 29 29 30 31 32 36 35 35 34 37 36 36 36 37 35 38 40 39 39 42 42 42 42 41 41 40 40 39 38 38 38 -193 -193 -193 -209 -209 -193 42 -193 -193 -209 -209 -209 41 41 45 42 42 42 42 42 42 43 43 41 44 43 44 45 45 42 45 46 46 46 47 47 46 48 50 48 49 49 0 0 0 0 0
    0 0 0 0 0 0 0 0 0 0 0 0 0 0 0 0 0 0 0 0 0 0 0 0 0 0 0 0 0 0 0 0 0 0 0 0 0 0 0 0 0 0 0 0 0 0 0 0 0 0 0 0 0 0 0 0 0 0 0 0 0 0 0 0 0 0 0 0 0 42 41 40 38 39 38 38 37 38 37 38 36 37 36 35 34 35 33 33 29 31 28 30 34 33 34 37 36 37 37 38 37 36 37 36 34 37 33 36 35 36 37 37 38 40 41 44 51 51 52 52 54 52 50 51 53 49 46 50 47 45 45 47 46 45 45 49 45 45 45 46 45 45 44 43 37 37 35 35 36 36 35 35 36 35 34 38 36 33 35 37 36 36 36 36 36 38 -209 -193 -193 -193 -193 15 16 -193 19 26 29 32 34 36 37 37 37 38 38 38 39 38 38 39 40 39 39 38 38 31 34 36 35 35 36 37 38 40 37 38 36 36 33 35 31 32 31 31 29 35 38 42 39 43 44 42 42 42 43 43 39 40 37 36 35 36 34 29 31 34 31 31 30 30 29 32 30 29 30 30 32 35 35 35 34 37 36 36 36 37 36 37 40 39 40 42 43 42 42 41 42 -193 40 38 37 37 38 -193 -193 -193 -209 -209 -193 42 -193 -193 -193 -209 -193 41 41 44 42 42 42 42 42 42 43 42 41 42 42 43 43 43 41 44 45 46 46 47 46 46 48 49 48 49 49 0 0 0 0 0
    0 0 0 0 0 0 0 0 0 0 0 0 0 0 0 0 0 0 0 0 0 0 0 0 0 0 0 0 0 0 0 0 0 0 0 0 0 0 0 0 0 0 0 0 0 0 0 0 0 0 0 0 0 0 0 0 0 0 0 0 0 0 0 0 0 0 0 0 0 40 40 40 39 38 38 37 36 38 37 38 35 36 35 34 34 35 33 34 30 33 30 33 36 34 34 37 36 38 37 37 36 35 36 36 34 37 33 36 35 36 37 37 39 40 41 44 51 52 53 53 54 53 51 52 53 50 47 50 49 46 46 49 48 46 46 50 46 46 46 48 46 46 46 44 38 38 36 36 36 36 36 37 37 36 36 40 37 36 37 38 37 38 37 37 37 39 -209 31 -193 -193 -193 17 18 -193 -193 28 32 34 35 36 37 37 37 38 38 38 39 39 39 39 40 40 39 38 38 34 36 36 36 35 34 35 35 38 36 37 36 35 34 36 33 34 32 35 34 37 39 43 38 41 42 41 40 42 43 43 40 42 39 37 36 38 36 31 30 35 32 33 31 31 28 31 29 29 29 30 31 35 36 36 35 38 36 37 37 38 38 37 40 39 40 42 43 43 42 42 42 40 40 38 37 37 37 -193 -193 172 -193 -209 -193 -193 -193 -193 -193 -193 -193 41 42 43 42 42 42 42 42 41 43 41 40 41 41 42 43 42 41 44 45 45 46 47 46 46 49 49 48 49 49 0 0 0 0 0
    0 0 0 0 0 0 0 0 0 0 0 0 0 0 0 0 0 0 0 0 0 0 0 0 0 0 0 0 0 0 0 0 0 0 0 0 0 0 0 0 0 0 0 0 0 0 0 0 0 0 0 0 0 0 0 0 0 0 0 0 0 0 0 0 0 0 0 0 0 41 41 41 39 38 39 38 37 38 37 38 36 37 36 35 35 36 34 35 31 34 31 33 35 34 33 36 35 37 35 36 35 33 35 35 34 37 35 37 36 37 38 39 40 41 43 45 51 52 54 53 54 53 52 52 54 51 48 50 49 47 47 49 48 47 47 51 47 47 48 49 47 47 47 45 39 39 37 37 37 37 37 38 39 38 39 42 38 37 39 39 38 38 38 37 37 38 35 33 31 -193 -193 -193 19 -193 -193 30 33 36 37 37 38 38 38 38 39 39 39 38 38 38 39 39 39 38 37 35 37 37 38 36 34 35 36 39 35 37 36 35 34 37 35 36 35 38 39 39 42 44 37 40 40 39 39 40 43 43 40 43 40 37 -209 -193 35 25 28 30 30 30 29 29 27 28 27 28 29 29 30 35 37 37 37 39 37 38 38 39 39 38 41 40 40 42 43 43 42 42 42 40 40 38 37 37 37 -193 -193 173 -193 -209 -193 -193 -193 -193 -193 -193 -193 42 42 43 42 42 42 42 41 41 42 41 40 41 41 42 43 42 41 45 45 46 46 47 46 46 49 49 48 49 49 0 0 0 0 0
    0 0 0 0 0 0 0 0 0 0 0 0 0 0 0 0 0 0 0 0 0 0 0 0 0 0 0 0 0 0 0 0 0 0 0 0 0 0 0 0 0 0 0 0 0 0 0 0 0 0 0 0 0 0 0 0 0 0 0 0 0 0 0 0 0 0 0 0 0 42 43 -193 40 38 39 38 36 38 36 36 35 35 35 34 34 35 33 35 33 35 33 33 36 34 33 36 34 35 34 34 33 32 34 34 34 38 37 39 38 39 40 40 41 44 45 48 52 53 54 54 54 53 52 52 53 51 48 50 49 47 47 49 49 47 48 51 47 47 48 50 47 46 46 45 38 39 38 38 38 38 39 40 41 41 42 43 39 38 39 39 38 37 37 36 36 38 35 35 34 33 -193 -193 23 -209 31 36 36 39 38 38 39 38 38 39 39 39 39 39 39 38 39 39 39 37 37 35 36 36 35 35 33 35 36 39 38 40 38 38 36 39 37 37 36 39 40 40 43 47 38 40 41 38 39 39 44 44 40 43 -209 -209 -209 -209 -209 22 -193 -209 28 -209 -193 28 25 27 27 28 30 30 30 35 38 38 38 39 38 38 39 40 41 38 41 40 40 42 42 42 42 41 42 39 40 38 37 37 37 -193 -193 -193 -193 -209 -193 -193 -193 -193 -209 -193 -193 42 42 42 42 42 42 42 41 41 42 41 41 42 42 43 44 43 42 46 45 46 46 47 47 46 50 49 48 49 49 0 0 0 0 0</data></disparity>
</opencv_storage>
