<?xml version="1.0"?>
<opencv_storage>
<gps_time_stamp>31542</gps_time_stamp>
<gps_x>-8.9442176818847656e+000</gps_x>
<gps_y>1.1369309425354004e+000</gps_y>
<gps_z>-2.3957021236419678e+000</gps_z>
<image_time_stamp>19464</image_time_stamp>
<disparity type_id="opencv-matrix">
  <rows>90</rows>
  <cols>320</cols>
  <dt>s</dt>
  <data>
    0 0 0 0 0 0 0 0 0 0 0 0 0 0 0 0 0 0 0 0 0 0 0 0 0 0 0 0 0 0 0 0 0 0 0 0 0 0 0 0 0 0 0 0 0 0 0 0 0 0 0 0 0 0 0 0 0 0 0 0 0 0 0 0 0 0 0 0 0 0 0 0 0 0 0 0 0 0 0 0 0 0 0 0 0 0 0 0 0 0 0 0 0 0 0 0 0 0 0 0 0 10 12 10 0 0 0 0 0 0 0 0 0 0 0 0 0 0 0 9 0 0 9 9 10 10 0 0 0 0 9 9 10 9 9 9 9 0 0 0 0 0 0 0 0 0 0 -193 -193 -209 -209 -193 -209 10 10 11 10 10 0 0 0 0 0 0 0 0 0 9 12 0 0 13 10 12 10 10 9 9 11 12 0 0 0 0 0 9 9 10 9 10 11 9 9 0 0 0 0 0 0 0 0 0 0 0 0 0 0 0 0 0 0 0 0 0 0 0 0 0 10 14 15 15 14 14 14 15 16 16 16 15 17 17 18 19 17 17 18 18 19 18 19 19 18 19 19 20 21 21 21 22 22 22 22 23 23 21 22 22 21 22 25 27 28 32 32 36 35 35 35 35 34 35 35 35 35 35 36 36 36 37 37 37 38 38 38 38 39 39 39 40 40 40 40 40 40 40 40 40 39 40 39 39 40 40 42 42 43 42 43 44 44 44 45 44 45 0 0 0 0 0
    0 0 0 0 0 0 0 0 0 0 0 0 0 0 0 0 0 0 0 0 0 0 0 0 0 0 0 0 0 0 0 0 0 0 0 0 0 0 0 0 0 0 0 0 0 0 0 0 0 0 0 0 0 0 0 0 0 0 0 0 0 0 0 0 0 0 0 0 0 0 0 0 0 0 0 0 0 0 0 0 0 0 0 0 0 0 0 0 0 0 0 0 0 0 0 0 0 0 0 0 0 10 12 10 0 0 0 0 0 0 0 0 0 0 0 0 0 0 0 9 0 0 9 9 10 11 0 0 0 9 9 9 9 9 9 9 9 0 0 0 0 0 0 0 0 0 0 -193 -193 -209 -193 -209 -209 10 10 10 9 9 0 0 0 0 0 0 0 0 0 9 13 0 0 13 10 11 10 10 9 9 11 12 0 0 0 0 9 10 10 10 10 11 12 10 9 0 0 0 0 0 0 0 0 0 0 0 0 0 9 8 0 0 0 0 0 0 0 0 0 0 11 14 15 15 14 14 16 16 16 16 17 16 18 17 17 18 17 17 17 18 18 18 19 18 18 19 19 20 21 22 21 23 22 22 22 23 23 20 21 21 20 22 24 26 27 30 30 34 35 35 34 35 34 35 34 35 36 35 36 36 37 36 36 37 37 37 38 37 38 38 38 39 39 39 39 39 40 39 39 39 38 39 39 40 40 40 41 42 43 43 43 44 44 43 45 44 45 0 0 0 0 0
    0 0 0 0 0 0 0 0 0 0 0 0 0 0 0 0 0 0 0 0 0 0 0 0 0 0 0 0 0 0 0 0 0 0 0 0 0 0 0 0 0 0 0 0 0 0 0 0 0 0 0 0 0 0 0 0 0 0 0 0 0 0 0 0 0 0 0 0 0 0 0 0 0 0 0 0 0 0 0 0 0 0 0 0 0 0 0 0 0 0 0 0 0 0 0 0 0 0 0 0 0 10 12 10 0 0 0 0 0 0 0 0 0 0 0 0 0 0 0 9 0 0 9 9 10 11 0 0 0 9 9 0 9 9 0 9 9 0 0 0 0 0 0 0 0 0 0 -193 -193 -209 -193 -193 -193 11 11 10 9 9 0 0 0 0 0 0 0 0 0 9 12 0 0 12 10 11 10 -193 -193 9 11 11 0 0 0 9 10 11 11 11 11 12 13 10 9 0 0 0 0 0 0 0 0 0 0 0 0 0 9 9 9 0 0 0 0 0 0 0 0 0 11 15 15 15 14 15 16 16 16 15 16 17 17 17 17 18 17 17 18 18 18 18 18 18 18 19 19 20 21 21 22 23 22 22 22 22 22 20 20 20 19 21 23 25 26 28 29 34 34 34 34 35 35 35 34 35 36 35 37 36 37 36 36 37 37 37 38 37 38 37 38 39 38 38 37 38 38 38 38 38 38 39 39 40 41 40 42 42 43 43 43 44 44 44 45 44 45 0 0 0 0 0
    0 0 0 0 0 0 0 0 0 0 0 0 0 0 0 0 0 0 0 0 0 0 0 0 0 0 0 0 0 0 0 0 0 0 0 0 0 0 0 0 0 0 0 0 0 0 0 0 0 0 0 0 0 0 0 0 0 0 0 0 0 0 0 0 0 0 0 0 0 0 0 0 0 0 0 0 0 0 0 0 0 0 0 0 0 0 0 0 0 0 0 0 0 0 0 0 0 0 0 0 0 10 12 10 0 0 0 0 0 0 0 0 0 0 0 0 0 0 0 9 0 0 9 9 10 11 9 9 0 9 9 0 0 0 0 0 9 0 0 0 0 0 0 0 0 0 0 -193 -193 -209 -193 -209 -209 11 10 9 0 0 0 0 0 0 0 0 0 0 0 0 12 0 0 11 9 10 9 -193 -193 0 10 11 0 0 0 9 10 11 12 12 12 12 13 10 0 0 0 0 0 0 0 0 0 0 0 0 0 0 9 9 9 0 0 0 0 0 0 0 0 0 11 14 14 14 15 16 15 15 15 15 17 16 16 17 16 18 17 16 18 17 18 19 18 18 17 19 20 20 22 21 22 23 23 22 22 22 22 20 20 20 20 20 22 23 24 25 28 32 33 35 34 36 36 36 35 36 36 36 37 36 37 36 36 37 37 37 38 37 38 37 38 39 38 37 37 38 37 37 38 37 38 39 39 40 40 40 41 42 43 44 43 44 44 44 45 44 45 0 0 0 0 0
    0 0 0 0 0 0 0 0 0 0 0 0 0 0 0 0 0 0 0 0 0 0 0 0 0 0 0 0 0 0 0 0 0 0 0 0 0 0 0 0 0 0 0 0 0 0 0 0 0 0 0 0 0 0 0 0 0 0 0 0 0 0 0 0 0 0 0 0 0 0 0 0 0 0 0 0 0 0 0 0 0 0 0 0 0 0 0 0 0 0 0 0 0 0 0 0 0 0 0 0 0 10 11 9 0 0 0 0 0 0 0 0 0 0 0 0 0 0 0 0 0 0 9 9 10 10 9 9 0 9 9 0 0 9 0 9 9 9 0 0 0 0 0 0 0 0 0 -193 -193 -193 -193 -209 -209 10 10 0 0 0 0 0 0 0 0 0 0 0 0 0 12 0 0 9 9 9 0 -193 -193 0 10 10 0 0 0 9 11 12 12 12 12 12 13 10 0 0 0 0 0 0 0 0 0 0 0 0 0 9 9 9 9 0 0 0 0 0 0 0 0 0 11 14 14 15 16 16 15 15 16 16 17 16 16 17 17 19 17 16 17 17 19 18 18 18 17 19 20 21 22 21 22 23 23 22 22 22 22 21 21 21 21 21 24 24 24 24 26 29 33 36 34 36 37 36 36 36 37 36 37 37 37 36 36 37 37 37 38 37 38 37 39 39 39 38 38 38 38 38 39 38 39 39 40 39 39 39 41 41 42 43 43 43 44 44 44 44 45 0 0 0 0 0
    0 0 0 0 0 0 0 0 0 0 0 0 0 0 0 0 0 0 0 0 0 0 0 0 0 0 0 0 0 0 0 0 0 0 0 0 0 0 0 0 0 0 0 0 0 0 0 0 0 0 0 0 0 0 0 0 0 0 0 0 0 0 0 0 0 0 0 0 0 0 0 0 0 0 0 0 0 0 0 0 0 0 0 0 0 0 0 0 0 0 0 0 0 0 0 0 0 0 0 0 0 9 10 0 0 0 0 0 0 0 0 0 0 0 0 0 0 0 0 0 0 0 9 9 10 10 9 9 0 10 10 0 0 9 0 9 9 9 0 0 0 0 0 0 0 0 0 -193 -193 -177 -193 -209 -209 -193 9 0 0 0 0 0 0 0 0 0 0 0 0 10 14 0 0 0 0 9 0 -193 -193 0 9 10 0 0 9 10 11 13 12 12 12 12 13 10 0 0 0 0 0 0 0 0 0 0 0 0 0 9 9 9 10 0 0 0 0 0 0 0 0 0 12 14 14 14 16 15 14 15 16 15 16 15 17 16 17 19 16 16 17 18 19 18 18 18 16 20 20 21 21 21 21 23 23 22 22 22 22 22 22 22 22 22 24 25 25 25 25 28 31 35 32 35 36 36 36 36 37 36 37 37 37 36 36 37 37 36 38 37 38 37 39 40 39 39 40 40 39 40 40 40 39 39 40 39 39 39 40 41 42 43 43 43 44 44 44 44 44 0 0 0 0 0
    0 0 0 0 0 0 0 0 0 0 0 0 0 0 0 0 0 0 0 0 0 0 0 0 0 0 0 0 0 0 0 0 0 0 0 0 0 0 0 0 0 0 0 0 0 0 0 0 0 0 0 0 0 0 0 0 0 0 0 0 0 0 0 0 0 0 0 0 0 0 0 0 0 0 0 0 0 0 0 0 0 0 0 0 0 0 0 0 0 0 0 0 0 0 0 0 0 0 0 0 0 9 9 0 0 0 0 0 0 0 0 0 0 0 0 0 0 0 0 0 0 0 0 0 9 -193 9 9 0 9 10 0 0 10 9 9 9 9 0 0 0 0 0 0 0 0 0 -193 -193 -193 -209 -193 -193 -193 0 0 0 0 0 0 0 0 0 0 0 0 0 10 12 0 0 0 0 0 0 -193 0 0 9 9 0 0 9 10 11 12 12 11 11 12 12 9 0 0 0 0 0 0 0 0 0 0 0 0 0 9 9 9 11 0 0 0 0 0 0 9 9 10 12 15 14 15 15 14 14 15 15 15 15 16 17 17 17 19 16 16 18 18 18 18 18 18 15 20 20 21 20 20 21 22 22 22 22 22 21 22 22 22 22 24 25 26 26 26 26 28 31 35 32 35 36 36 36 36 37 36 36 37 37 36 36 37 36 36 38 37 38 38 39 40 40 40 41 40 40 40 40 39 39 39 39 39 39 39 40 40 42 43 43 43 43 44 43 43 44 0 0 0 0 0
    0 0 0 0 0 0 0 0 0 0 0 0 0 0 0 0 0 0 0 0 0 0 0 0 0 0 0 0 0 0 0 0 0 0 0 0 0 0 0 0 0 0 0 0 0 0 0 0 0 0 0 0 0 0 0 0 0 0 0 0 0 0 0 0 0 0 0 0 0 0 0 0 0 0 0 0 0 0 0 0 0 0 0 0 0 0 0 0 0 0 0 0 0 0 0 0 0 0 0 0 0 9 9 0 0 0 0 0 0 0 0 0 0 0 0 0 0 0 0 0 0 0 0 0 0 -193 9 9 0 9 11 9 9 11 10 10 10 9 9 9 9 9 0 8 0 0 0 -193 -193 -193 -209 -193 -193 -193 0 0 0 0 0 0 0 0 0 0 0 0 0 10 10 0 0 0 0 0 0 -193 0 0 9 9 9 9 9 10 11 12 12 10 11 11 11 9 0 0 0 0 0 0 0 0 0 0 0 0 0 0 9 9 11 0 0 0 0 9 11 11 11 11 14 17 15 16 15 15 16 16 15 15 15 17 16 17 17 19 16 16 18 18 17 17 17 18 14 20 20 21 19 20 20 21 21 21 21 21 20 22 22 22 22 24 25 27 27 27 28 29 32 35 32 35 35 35 35 36 37 35 36 36 36 35 36 36 36 36 38 38 38 38 40 41 41 41 41 41 41 40 40 40 39 39 39 39 39 39 40 40 42 43 43 43 43 43 44 43 44 0 0 0 0 0
    0 0 0 0 0 0 0 0 0 0 0 0 0 0 0 0 0 0 0 0 0 0 0 0 0 0 0 0 0 0 0 0 0 0 0 0 0 0 0 0 0 0 0 0 0 0 0 0 0 0 0 0 0 0 0 0 0 0 0 0 0 0 0 0 0 0 0 0 0 0 0 0 0 0 0 0 0 0 0 0 0 0 0 0 0 0 0 0 0 0 0 0 0 0 0 0 0 0 0 0 0 9 9 0 0 0 0 0 0 0 0 0 0 0 0 0 0 0 0 0 0 0 0 0 0 -193 9 9 0 9 10 0 9 11 10 10 10 10 10 10 10 10 9 9 0 9 0 -193 -209 -209 -209 -193 -193 -193 0 0 0 0 0 0 0 0 0 0 0 0 0 9 10 0 0 0 0 0 0 -193 0 0 9 9 9 10 10 10 11 12 11 10 11 11 11 9 0 0 0 9 0 0 0 0 0 0 0 0 0 0 0 0 13 0 0 0 10 11 12 11 12 12 14 17 15 15 15 15 16 16 14 15 15 17 16 17 16 19 16 16 18 17 17 17 17 18 13 20 21 21 19 18 19 21 21 21 21 20 19 22 22 22 22 24 25 27 27 28 29 29 32 34 32 34 35 35 36 36 37 35 36 37 37 36 36 37 36 37 38 38 39 39 41 42 41 42 42 41 41 41 41 41 40 40 39 39 39 39 40 40 41 42 42 43 43 43 43 43 43 0 0 0 0 0
    0 0 0 0 0 0 0 0 0 0 0 0 0 0 0 0 0 0 0 0 0 0 0 0 0 0 0 0 0 0 0 0 0 0 0 0 0 0 0 0 0 0 0 0 0 0 0 0 0 0 0 0 0 0 0 0 0 0 0 0 0 0 0 0 0 0 0 0 0 0 0 0 0 0 0 0 0 0 0 0 0 0 0 0 0 0 0 0 0 0 0 0 0 0 0 0 0 0 0 0 0 0 9 0 0 0 0 0 0 0 0 0 0 0 0 0 0 0 0 0 0 0 0 0 0 -193 9 9 0 9 10 0 9 11 10 10 11 11 11 10 11 12 11 11 10 -193 -193 -193 -209 -209 -209 -193 -209 -193 0 0 0 0 0 0 0 0 0 0 0 0 0 9 -193 0 0 0 0 0 0 -193 0 0 9 9 10 11 10 11 11 12 11 10 11 11 10 10 9 0 0 10 0 0 0 0 0 0 0 0 0 0 0 9 14 10 9 11 12 12 12 12 13 12 14 16 14 15 15 15 16 15 14 16 15 17 16 16 16 19 16 16 17 17 17 17 17 18 12 20 21 21 18 17 18 20 20 20 20 20 19 23 23 23 23 24 25 27 28 28 30 30 32 34 33 34 34 34 35 36 37 36 36 37 37 37 37 37 37 37 38 38 38 40 41 42 42 42 42 42 42 42 42 42 41 41 41 40 40 40 40 40 40 41 41 42 42 42 42 42 43 0 0 0 0 0
    0 0 0 0 0 0 0 0 0 0 0 0 0 0 0 0 0 0 0 0 0 0 0 0 0 0 0 0 0 0 0 0 0 0 0 0 0 0 0 0 0 0 0 0 0 0 0 0 0 0 0 0 0 0 0 0 0 0 0 0 0 0 0 0 0 0 0 0 0 0 0 0 0 0 0 0 0 0 0 0 0 0 0 0 0 0 0 0 0 0 0 0 0 0 0 0 0 0 0 0 0 0 9 0 0 0 0 0 0 0 0 0 0 0 0 0 0 0 0 0 0 0 0 0 0 0 0 8 0 0 9 0 0 11 11 11 11 11 11 11 12 13 12 13 12 -193 -193 -193 -193 -193 -193 11 11 -193 9 -193 0 0 0 0 0 0 0 0 0 0 0 9 -193 0 0 0 0 0 0 -193 0 0 9 -193 10 11 10 10 11 11 11 9 10 10 10 10 9 0 9 11 0 0 0 0 0 0 0 0 0 0 9 9 16 11 11 12 13 13 13 13 14 13 14 15 14 15 15 15 15 15 15 16 15 17 16 16 16 20 16 16 17 17 17 16 16 17 11 21 22 21 18 17 19 20 20 20 20 20 20 23 23 23 23 25 26 27 29 29 30 30 32 35 34 34 34 34 36 36 37 36 37 38 37 37 38 38 38 38 40 39 40 41 42 42 42 43 43 42 42 42 42 42 41 41 41 41 40 40 40 40 40 41 41 41 41 41 41 41 42 0 0 0 0 0
    0 0 0 0 0 0 0 0 0 0 0 0 0 0 0 0 0 0 0 0 0 0 0 0 0 0 0 0 0 0 0 0 0 0 0 0 0 0 0 0 0 0 0 0 0 0 0 0 0 0 0 0 0 0 0 0 0 0 0 0 0 0 0 0 0 0 0 0 0 0 0 0 0 0 0 0 0 0 0 0 0 0 0 0 0 0 0 0 0 0 0 0 0 0 0 0 0 0 0 0 0 0 9 8 0 0 0 0 0 0 0 0 0 0 0 0 0 0 0 0 0 0 0 0 0 0 0 0 0 0 0 0 0 10 10 10 10 10 10 10 11 12 12 12 11 12 11 13 12 -193 -193 10 11 -193 9 -193 0 0 0 0 0 0 0 0 0 0 0 9 -193 0 0 0 0 0 0 0 0 0 9 -193 10 11 9 10 10 10 10 9 10 10 9 10 9 9 9 12 0 0 0 0 0 0 0 0 0 9 9 9 16 11 10 12 12 13 12 13 14 12 14 15 15 16 15 15 15 15 15 16 16 16 16 16 16 19 16 16 16 16 16 15 17 18 11 23 23 22 19 19 20 20 20 20 20 20 20 23 23 22 23 24 26 27 29 29 30 30 32 35 34 34 34 35 36 36 37 37 37 38 38 38 39 39 38 39 41 41 41 42 42 43 43 43 43 42 42 42 42 42 41 41 41 40 40 40 39 39 39 40 39 39 39 40 40 40 41 0 0 0 0 0
    0 0 0 0 0 0 0 0 0 0 0 0 0 0 0 0 0 0 0 0 0 0 0 0 0 0 0 0 0 0 0 0 0 0 0 0 0 0 0 0 0 0 0 0 0 0 0 0 0 0 0 0 0 0 0 0 0 0 0 0 0 0 0 0 0 0 0 0 0 0 0 0 0 0 9 0 0 0 9 0 0 0 0 0 0 0 0 0 0 0 0 0 0 0 0 0 9 0 0 0 0 0 9 9 0 0 0 0 0 -193 0 0 0 0 0 0 0 0 0 0 0 0 0 0 0 0 0 0 0 0 0 0 0 10 10 10 10 10 10 9 10 11 11 11 10 12 11 13 12 -193 -193 10 12 11 9 -193 0 0 0 0 0 0 0 0 0 0 0 9 9 0 0 0 0 0 0 0 0 0 -193 -193 10 11 9 10 9 9 9 0 9 9 9 11 10 9 10 13 9 0 0 0 0 9 9 9 0 9 9 10 17 12 11 13 13 13 14 14 14 13 14 16 15 16 15 15 16 16 16 17 16 17 17 16 17 19 16 16 16 16 16 14 17 18 11 23 22 22 19 20 20 20 20 20 20 20 21 23 23 22 23 25 26 28 29 29 31 31 32 34 33 34 33 35 36 36 37 37 37 38 37 38 39 39 39 39 41 41 41 42 42 43 43 43 43 42 42 42 42 42 41 41 41 41 40 40 39 39 39 39 38 38 37 39 39 39 40 0 0 0 0 0
    0 0 0 0 0 0 0 0 0 0 0 0 0 0 0 0 0 0 0 0 0 0 0 0 0 0 0 0 0 0 0 0 0 0 0 0 0 0 0 0 0 0 0 0 0 0 0 0 0 0 0 0 0 0 0 0 0 0 0 0 0 0 0 0 0 0 0 0 0 0 0 0 0 0 0 0 0 0 9 0 0 0 0 0 0 0 0 0 0 0 0 0 0 0 0 0 9 9 0 0 0 9 9 9 0 9 0 0 0 -193 0 0 0 0 0 0 0 0 0 0 0 0 0 0 0 0 0 0 0 0 0 0 9 11 10 10 10 10 10 10 11 11 11 11 10 12 10 12 12 12 10 11 12 11 10 12 0 0 0 0 0 0 0 0 0 0 0 9 9 0 0 0 0 0 0 0 0 0 -193 -193 10 11 9 9 9 9 9 0 9 9 9 11 10 9 10 13 10 9 0 0 0 9 9 9 0 9 9 10 17 13 12 13 14 14 14 14 14 13 13 16 15 16 14 15 16 16 16 16 16 17 17 17 17 19 16 16 16 16 15 16 18 18 12 21 22 22 20 20 21 20 20 21 21 20 21 23 22 22 23 25 26 27 29 29 31 31 32 32 33 34 33 34 35 35 37 36 37 38 38 39 39 39 40 40 41 41 41 43 43 43 43 43 43 42 42 42 41 41 41 41 40 40 40 40 39 40 40 39 38 38 38 39 39 39 40 0 0 0 0 0
    0 0 0 0 0 0 0 0 0 0 0 0 0 0 0 0 0 0 0 0 0 0 0 0 0 0 0 0 0 0 0 0 0 0 0 0 0 0 0 0 0 0 0 0 0 0 0 0 0 0 0 0 0 0 0 0 0 0 0 0 0 0 0 0 0 0 0 0 0 9 0 0 0 0 0 0 0 0 0 0 0 0 0 0 0 0 0 0 0 0 0 0 0 0 0 0 9 9 9 9 0 9 9 9 0 9 0 0 0 -193 0 0 0 0 0 0 0 0 0 0 0 0 0 0 0 0 0 0 0 0 0 0 10 11 11 11 11 10 11 10 11 11 11 11 10 11 11 13 12 12 10 11 13 12 10 13 9 9 0 0 0 0 0 0 0 0 0 9 9 0 0 0 0 0 0 0 0 0 -193 -193 10 11 9 9 10 9 9 0 9 0 0 11 10 9 11 13 11 9 9 0 0 9 9 9 0 9 9 10 17 15 12 14 15 16 15 14 14 13 13 16 15 16 15 15 16 17 16 17 16 18 16 17 17 19 16 16 16 17 15 17 18 18 12 22 22 22 20 21 21 21 21 21 21 21 21 22 22 22 23 24 25 27 29 29 31 32 32 32 33 33 33 34 34 35 36 36 37 38 38 39 39 40 40 40 41 41 41 43 42 43 43 43 42 42 41 41 41 41 40 40 40 40 40 40 39 41 41 40 39 39 38 39 39 39 40 0 0 0 0 0
    0 0 0 0 0 0 0 0 0 0 0 0 0 0 0 0 0 0 0 0 0 0 0 0 0 0 0 0 0 0 0 0 0 0 0 0 0 0 0 0 0 0 0 0 0 0 0 0 0 0 0 0 0 0 0 0 0 0 0 0 0 0 0 0 0 0 0 0 0 9 0 0 0 0 0 0 0 0 0 0 0 0 0 0 0 0 0 0 0 0 0 0 0 0 0 9 9 9 9 9 0 0 0 0 0 9 0 0 -193 -193 0 0 0 0 0 0 0 0 0 0 0 0 0 0 0 0 0 0 0 0 9 9 10 11 11 11 11 10 10 10 10 11 10 11 9 11 10 12 13 11 10 11 13 12 11 13 9 9 0 9 0 0 0 0 0 0 0 9 10 0 0 0 0 0 0 0 0 0 -193 -193 10 11 10 9 10 9 10 0 0 0 0 11 11 10 11 14 12 10 10 9 0 9 9 9 0 9 9 10 16 15 13 14 16 16 15 14 15 13 13 15 15 15 15 16 17 16 16 16 16 18 16 16 16 19 16 16 16 17 16 17 18 19 13 21 21 21 20 21 21 21 21 21 21 21 21 22 22 22 23 23 24 25 29 30 32 31 31 30 34 33 32 33 33 34 36 36 37 38 39 40 40 41 41 41 42 42 42 43 43 42 43 42 42 41 41 41 40 40 40 40 40 40 40 40 38 41 41 40 39 39 38 39 39 39 40 0 0 0 0 0
    0 0 0 0 0 0 0 0 0 0 0 0 0 0 0 0 0 0 0 0 0 0 0 0 0 0 0 0 0 0 0 0 0 0 0 0 0 0 0 0 0 0 0 0 0 0 0 0 0 0 0 0 0 0 0 0 0 0 0 0 0 0 0 0 0 0 0 0 0 9 0 0 0 0 0 0 0 0 0 0 0 0 0 0 0 0 0 0 0 0 0 0 0 0 0 0 9 10 10 9 0 0 0 0 0 9 0 0 -193 -193 0 0 0 0 0 0 0 0 0 0 0 0 0 0 0 0 0 0 0 0 10 9 10 11 10 10 10 10 9 9 10 10 10 10 9 10 10 12 13 11 10 12 13 12 11 13 9 10 9 9 0 0 0 0 0 9 0 9 10 0 0 0 0 0 0 0 0 0 -193 -193 10 11 9 9 10 9 10 8 0 0 0 12 11 10 12 15 13 11 10 10 0 10 9 9 0 9 9 10 15 17 13 15 17 16 14 15 15 14 13 14 14 13 15 16 15 15 15 15 16 17 17 16 15 19 16 16 17 17 16 17 18 19 14 21 21 21 21 22 22 21 21 21 21 21 21 22 22 21 23 22 23 24 29 30 33 31 33 31 -193 -177 -193 -209 -193 -193 37 37 38 39 40 41 40 41 42 42 43 42 42 43 42 42 43 42 42 41 41 41 40 40 40 40 40 39 40 39 37 40 40 40 39 38 38 38 38 38 39 0 0 0 0 0
    0 0 0 0 0 0 0 0 0 0 0 0 0 0 0 0 0 0 0 0 0 0 0 0 0 0 0 0 0 0 0 0 0 0 0 0 0 0 0 0 0 0 0 0 0 0 0 0 0 0 0 0 0 0 0 0 0 0 0 0 0 0 0 0 0 0 0 0 0 9 0 0 0 0 0 0 0 0 0 0 0 0 0 0 0 0 0 0 0 0 0 0 0 0 0 0 9 10 10 10 0 0 0 0 0 9 -193 -193 -193 -193 0 0 9 0 0 0 0 0 0 0 0 0 0 0 0 0 0 0 0 0 10 9 9 10 10 10 10 9 9 0 9 0 0 0 0 9 9 12 14 12 11 13 14 13 12 13 10 10 10 10 9 9 9 0 0 9 0 9 10 0 0 0 0 0 0 0 0 0 -193 -193 10 10 9 0 9 0 9 0 0 0 0 11 11 10 11 16 13 12 11 11 9 10 10 10 0 9 9 10 13 18 13 15 16 15 14 14 15 14 13 14 14 13 15 15 15 15 15 15 16 17 17 15 16 19 16 16 17 17 16 17 18 19 14 21 21 20 21 22 22 21 21 21 21 21 22 21 22 21 23 22 23 24 28 32 36 35 -209 -177 -177 -177 -177 -209 -209 -193 -209 -193 39 -193 40 41 41 41 43 42 43 42 42 42 42 42 42 41 42 41 41 41 40 40 40 40 40 39 40 39 38 40 40 39 38 38 37 37 38 38 39 0 0 0 0 0
    0 0 0 0 0 0 0 0 0 0 0 0 0 0 0 0 0 0 0 0 0 0 0 0 0 0 0 0 0 0 0 0 0 0 0 0 0 0 0 0 0 0 0 0 0 0 0 0 0 0 0 0 0 0 0 0 0 0 0 0 0 0 0 0 0 0 0 0 0 9 0 0 0 0 0 0 0 0 0 0 0 0 0 0 0 0 0 0 0 0 0 0 0 0 0 0 9 10 10 11 0 0 0 0 0 10 9 -193 9 -193 0 0 10 0 0 0 0 0 0 0 0 0 0 0 0 0 0 0 0 0 10 10 9 10 9 10 9 0 0 0 0 0 0 0 0 0 9 10 13 12 11 14 14 13 12 14 10 11 10 10 9 9 9 9 0 9 0 0 10 0 0 0 0 0 0 0 0 0 0 0 9 9 0 0 0 0 0 0 0 0 0 10 10 9 10 15 14 12 11 11 10 11 10 10 9 9 9 10 12 19 13 15 15 15 14 14 14 14 13 15 14 14 14 15 15 15 15 15 15 17 17 15 15 19 16 16 17 17 16 17 18 19 15 20 20 20 21 21 22 21 21 21 21 21 21 20 21 20 21 21 22 23 27 35 44 -209 74 80 85 -209 -177 -209 -209 -209 -209 -193 112 112 -193 -193 -193 41 44 43 44 43 43 43 42 42 42 41 42 40 41 41 39 40 40 40 40 39 40 39 38 40 40 39 39 37 38 37 38 37 38 0 0 0 0 0
    0 0 0 0 0 0 0 0 0 0 0 0 0 0 0 0 0 0 0 0 0 0 0 0 0 0 0 0 0 0 0 0 0 0 0 0 0 0 0 0 0 0 0 0 0 0 0 0 0 0 0 0 0 0 0 0 0 0 0 0 0 0 0 0 0 0 0 0 0 9 9 0 0 0 0 0 0 0 0 0 0 0 0 0 0 0 0 0 0 0 0 0 0 0 0 0 9 10 11 11 0 0 0 0 0 10 9 0 9 0 0 0 10 0 0 0 0 0 0 0 0 0 0 0 0 0 0 0 0 9 11 10 9 10 9 9 9 0 0 0 0 0 0 0 0 0 0 9 13 12 11 14 14 13 13 14 11 11 11 10 9 9 9 9 0 9 0 9 10 0 0 0 0 0 0 0 0 0 0 0 9 9 0 0 0 0 0 0 0 0 0 10 10 9 10 16 14 13 12 12 10 11 11 11 9 9 8 9 10 19 13 15 16 15 14 14 15 15 13 15 14 13 14 15 15 15 15 15 15 17 17 15 15 19 16 17 17 17 16 18 18 19 15 20 19 20 20 21 21 20 20 20 21 21 20 20 20 20 21 21 22 24 27 37 50 -193 76 82 86 -209 -193 -209 -209 -209 106 107 111 112 113 -193 -193 -193 46 44 45 43 43 42 42 42 42 41 42 41 41 41 40 41 41 41 40 39 40 39 39 40 39 39 38 37 38 38 37 37 37 0 0 0 0 0
    0 0 0 0 0 0 0 0 0 0 0 0 0 0 0 0 0 0 0 0 0 0 0 0 0 0 0 0 0 0 0 0 0 0 0 0 0 0 0 0 0 0 0 0 0 0 0 0 0 0 0 0 0 0 0 0 0 0 0 0 0 0 0 0 0 0 0 0 0 9 9 0 0 0 0 0 0 0 0 0 0 0 0 0 0 0 0 0 0 0 0 0 0 0 0 9 9 10 11 11 0 0 0 0 0 9 9 0 9 0 0 0 11 9 0 0 0 0 0 0 0 0 0 0 0 0 0 0 0 10 12 10 9 10 9 9 9 0 0 0 0 0 0 0 0 0 9 9 14 13 12 14 14 12 13 13 11 11 11 10 10 10 10 9 -193 9 0 9 10 0 0 0 0 0 0 0 0 0 0 0 9 9 0 0 0 0 0 0 0 0 0 9 10 9 10 15 13 12 12 12 11 11 10 10 0 9 0 9 9 20 14 17 17 16 15 15 15 15 13 15 13 13 14 14 15 15 15 15 14 18 16 15 15 19 15 16 17 17 17 18 19 19 16 20 19 19 20 20 20 19 19 20 20 21 20 20 21 21 22 22 23 26 30 39 -177 -177 78 83 87 -209 -209 -193 -193 -209 -193 107 110 112 112 112 115 -193 -193 -193 -193 -193 -193 43 42 42 42 41 42 41 42 42 40 41 41 41 40 39 39 39 38 39 39 39 38 37 38 37 37 37 37 0 0 0 0 0
    0 0 0 0 0 0 0 0 0 0 0 0 0 0 0 0 0 0 0 0 0 0 0 0 0 0 0 0 0 0 0 0 0 0 0 0 0 0 0 0 0 0 0 0 0 0 0 0 0 0 0 0 0 0 0 0 0 0 0 0 0 0 0 0 0 0 0 0 0 0 0 0 0 0 0 0 0 0 0 0 0 0 0 0 0 0 0 0 0 0 0 0 0 0 0 9 9 10 11 11 0 0 0 0 0 9 9 0 0 0 0 0 11 9 0 0 0 0 0 0 0 0 0 0 0 0 0 0 0 10 12 11 10 10 9 9 9 0 0 0 0 0 0 0 0 0 11 10 15 13 13 15 14 13 13 13 11 11 11 10 10 10 10 10 9 9 0 0 10 0 0 0 0 0 0 0 0 0 0 0 9 9 0 0 0 0 0 0 0 0 0 9 10 9 10 15 13 12 12 12 11 10 10 10 0 9 0 0 -177 19 14 16 17 15 14 15 15 15 13 14 13 12 13 14 14 14 14 14 14 17 15 14 14 19 15 16 17 17 17 19 19 19 16 19 19 19 20 19 19 19 19 20 20 20 20 19 21 21 22 22 23 27 36 44 -177 78 81 85 88 -193 -193 94 -209 -209 100 105 108 111 110 108 111 112 115 116 118 118 120 120 125 43 43 42 43 41 42 43 40 40 41 41 41 39 39 39 38 39 39 39 38 37 39 37 38 37 37 0 0 0 0 0
    0 0 0 0 0 0 0 0 0 0 0 0 0 0 0 0 0 0 0 0 0 0 0 0 0 0 0 0 0 0 0 0 0 0 0 0 0 0 0 0 0 0 0 0 0 0 0 0 0 0 0 0 0 0 0 0 0 0 0 0 0 0 0 0 0 0 0 0 0 0 0 0 0 0 0 0 0 0 0 0 0 0 0 0 0 0 0 0 0 0 0 9 9 9 0 9 9 10 10 10 0 0 0 0 0 0 0 0 0 0 0 0 10 9 0 0 0 0 0 0 0 0 0 0 0 0 0 0 0 10 11 10 9 10 9 9 9 0 0 0 0 0 0 0 0 0 13 11 15 13 13 15 13 12 13 13 11 11 11 10 9 10 10 10 9 9 0 0 10 9 9 0 0 0 0 0 0 0 0 0 9 9 0 0 0 0 0 0 0 0 0 9 9 9 10 15 12 12 11 12 11 10 10 10 0 10 9 9 9 17 14 16 16 15 14 15 15 15 13 14 13 12 13 13 13 13 13 14 13 17 15 14 14 19 15 17 17 17 17 19 19 19 16 19 18 18 20 18 19 18 18 19 19 20 20 18 21 20 21 22 24 29 42 55 63 -193 -193 88 90 95 95 95 96 94 96 100 106 108 -193 97 -193 106 110 112 116 116 118 119 118 115 117 115 -193 43 46 45 40 41 41 41 41 39 39 39 38 39 39 39 38 37 38 38 38 38 38 0 0 0 0 0
    0 0 0 0 0 0 0 0 0 0 0 0 0 0 0 0 0 0 0 0 0 0 0 0 0 0 0 0 0 0 0 0 0 0 0 0 0 0 0 0 0 0 0 0 0 0 0 0 0 0 0 0 0 0 0 0 0 0 0 0 0 0 0 0 0 0 0 0 0 0 0 0 0 0 0 0 0 0 0 0 0 0 0 0 0 0 0 0 0 0 0 9 9 9 0 9 9 10 10 10 0 0 0 0 0 9 9 0 0 0 0 0 9 9 0 0 9 0 0 0 0 0 0 0 0 0 0 0 0 9 10 10 9 9 0 0 9 0 0 0 0 0 0 0 8 9 13 11 14 12 12 14 12 11 12 12 10 11 10 10 9 10 10 9 9 9 0 0 10 9 10 0 0 0 0 0 0 0 0 0 9 9 0 0 0 0 0 0 0 0 0 9 9 9 9 14 11 11 11 11 12 10 10 10 0 10 9 9 9 15 14 15 15 15 14 15 15 15 12 15 13 12 13 13 13 13 13 14 13 16 14 14 14 19 15 17 17 17 18 19 19 19 16 19 18 18 20 19 19 18 18 20 20 21 20 18 21 21 21 23 23 29 -209 62 -209 -193 -193 89 92 97 97 97 97 93 94 95 106 107 83 92 96 103 106 108 113 111 115 116 114 110 112 111 112 111 -209 -209 -209 46 43 42 42 40 40 39 39 39 39 39 39 37 39 38 38 38 38 0 0 0 0 0
    0 0 0 0 0 0 0 0 0 0 0 0 0 0 0 0 0 0 0 0 0 0 0 0 0 0 0 0 0 0 0 0 0 0 0 0 0 0 0 0 0 0 0 0 0 0 0 0 0 0 0 0 0 0 0 0 0 0 0 0 0 0 0 0 0 0 0 0 0 0 0 0 0 0 0 0 0 0 0 0 0 0 0 0 0 0 0 0 0 0 0 9 9 9 9 9 9 10 10 10 0 0 0 0 0 9 9 0 0 0 0 0 9 9 0 0 9 0 0 0 0 0 0 0 0 0 0 0 0 0 9 9 0 0 0 0 0 0 0 0 0 0 0 0 9 9 11 11 12 12 12 13 12 11 12 12 10 10 9 9 0 9 9 0 0 0 0 0 -193 9 10 0 0 0 0 0 0 0 0 0 0 0 0 0 0 0 0 0 0 0 0 0 9 0 9 14 11 11 11 12 13 10 10 10 0 10 9 9 0 14 13 14 14 14 14 15 15 15 12 15 13 13 13 13 13 13 13 14 12 16 15 14 15 19 15 17 17 17 18 19 20 19 16 19 18 19 21 19 19 18 18 20 20 21 20 19 21 21 21 23 25 36 -193 -177 -193 87 -193 91 93 97 97 97 97 92 94 93 105 106 -193 92 104 103 106 107 111 109 111 112 109 107 109 109 111 115 119 -209 99 108 -209 48 46 41 40 39 39 39 39 40 -193 -193 39 39 39 39 39 0 0 0 0 0
    0 0 0 0 0 0 0 0 0 0 0 0 0 0 0 0 0 0 0 0 0 0 0 0 0 0 0 0 0 0 0 0 0 0 0 0 0 0 0 0 0 0 0 0 0 0 0 0 0 0 0 0 0 0 0 0 0 0 0 0 0 0 0 0 0 0 0 0 0 0 0 0 0 0 0 0 0 0 0 0 0 0 0 0 0 0 0 0 0 0 0 9 9 9 9 10 10 10 11 11 0 0 0 0 0 9 9 0 0 0 0 0 9 9 0 0 10 0 0 0 0 0 0 0 0 0 0 0 0 0 9 9 0 0 0 0 0 0 0 0 0 0 0 9 10 10 12 11 12 12 12 12 12 10 12 11 10 9 0 0 0 0 0 0 0 0 0 0 9 9 11 0 0 0 0 0 0 0 0 0 0 0 0 0 0 0 0 0 0 0 0 0 9 0 9 14 11 11 11 12 14 11 10 11 0 9 0 0 0 13 13 14 13 14 13 14 16 14 12 16 13 13 13 13 14 13 14 15 12 15 15 15 15 18 16 18 17 18 19 20 20 19 16 19 17 19 20 18 18 18 18 20 20 21 20 20 22 22 22 24 28 40 58 74 90 87 -193 92 93 96 96 96 96 92 95 92 -209 -209 -209 -209 -209 -209 -193 107 109 107 104 105 105 103 107 108 110 117 120 116 104 112 122 -193 -209 -209 -193 -209 138 140 143 142 143 144 -193 -193 -193 39 39 0 0 0 0 0
    0 0 0 0 0 0 0 0 0 0 0 0 0 0 0 0 0 0 0 0 0 0 0 0 0 0 0 0 0 0 0 0 0 0 0 0 0 0 0 0 0 0 0 0 0 0 0 0 0 0 0 0 0 0 0 0 0 0 0 0 0 0 0 0 0 0 0 0 0 0 0 0 0 0 0 0 0 0 0 0 0 0 0 0 0 0 0 0 0 0 0 10 10 9 10 11 10 11 11 10 0 0 0 0 0 9 9 0 0 0 0 0 9 0 0 0 10 0 0 0 0 0 0 0 0 0 0 0 9 9 9 9 0 0 0 0 0 0 0 0 0 0 9 9 11 10 12 11 12 12 11 10 10 0 10 9 9 0 0 0 0 0 0 0 0 0 0 0 9 9 11 0 0 0 0 0 0 0 0 0 0 9 0 0 0 0 0 0 9 9 0 9 9 0 9 16 12 12 12 12 14 12 11 11 0 10 9 0 0 13 13 14 13 14 13 15 16 14 12 16 13 13 13 14 14 13 15 15 12 16 15 15 16 18 16 18 17 18 19 20 20 19 16 19 17 21 20 18 18 19 19 20 21 21 20 21 23 23 24 25 30 42 -177 75 93 88 94 93 94 97 97 97 98 94 99 -193 -209 -209 40 42 -177 -209 -193 -209 108 105 97 98 98 97 103 103 107 111 118 115 107 119 122 125 125 132 136 138 138 140 142 141 142 143 147 -193 -209 -209 -193 0 0 0 0 0
    0 0 0 0 0 0 0 0 0 0 0 0 0 0 0 0 0 0 0 0 0 0 0 0 0 0 0 0 0 0 0 0 0 0 0 0 0 0 0 0 0 0 0 0 0 0 0 0 0 0 0 0 0 0 0 0 0 0 0 0 0 0 0 0 0 0 0 0 0 0 0 0 0 9 9 0 0 9 9 9 0 0 0 0 0 0 0 0 0 0 0 10 10 9 11 12 10 11 11 10 0 0 0 0 9 9 9 0 0 0 0 0 0 0 0 0 10 0 9 0 0 0 0 0 0 0 0 0 9 0 9 0 0 0 0 0 0 0 0 0 0 0 9 9 12 10 12 11 11 11 11 9 9 0 0 0 0 0 0 0 0 0 0 0 0 0 0 0 10 10 11 0 0 0 0 0 0 0 0 0 0 9 0 0 0 0 0 9 9 9 0 9 9 0 9 17 12 12 12 12 15 12 11 12 0 10 9 9 0 13 13 14 14 14 14 16 16 14 12 16 13 13 13 13 13 12 14 14 12 16 15 15 17 17 16 18 18 18 19 20 20 19 17 19 19 22 21 19 19 19 20 21 22 22 21 22 25 25 25 27 33 42 -177 78 -193 90 -193 94 96 99 99 100 100 -209 -209 -177 -209 38 38 39 39 39 42 -177 -209 -209 94 95 97 97 103 104 106 109 115 114 112 120 123 125 124 131 135 137 137 139 140 140 141 143 147 147 149 153 -193 0 0 0 0 0
    0 0 0 0 0 0 0 0 0 0 0 0 0 0 0 0 0 0 0 0 0 0 0 0 0 0 0 0 0 0 0 0 0 0 0 0 0 0 0 0 0 0 0 0 0 0 0 0 0 0 0 0 0 0 0 0 0 0 0 0 0 0 0 0 0 0 0 0 0 0 0 0 0 9 9 0 9 11 10 10 0 9 0 0 0 0 0 0 0 0 0 10 9 9 11 12 11 11 11 10 0 0 0 0 9 10 10 9 8 9 0 0 0 0 0 0 9 0 0 0 0 0 0 0 0 0 0 0 9 0 9 0 8 0 0 0 0 0 9 0 0 9 10 9 12 11 11 11 11 11 10 9 9 0 0 0 0 0 0 0 0 0 0 0 0 0 0 9 10 11 12 0 9 0 0 0 0 0 0 0 0 9 0 9 9 0 0 0 9 9 0 0 8 0 9 18 12 12 12 12 15 12 11 12 0 10 9 9 0 13 13 13 13 14 13 16 16 14 11 14 12 12 12 12 12 12 13 13 12 16 15 15 17 17 16 17 17 18 19 19 20 17 16 19 20 22 22 19 20 20 21 22 22 22 22 23 25 25 26 27 33 41 -177 -193 -193 93 99 96 98 100 100 101 -193 -177 -177 -177 -209 37 37 38 38 37 39 40 -177 -193 -209 93 98 100 104 105 107 110 114 113 114 121 124 124 125 132 136 135 136 138 138 138 139 142 144 143 146 153 153 0 0 0 0 0
    0 0 0 0 0 0 0 0 0 0 0 0 0 0 0 0 0 0 0 0 0 0 0 0 0 0 0 0 0 0 0 0 0 0 0 0 0 0 0 0 0 0 0 0 0 0 0 0 0 0 0 0 0 0 0 0 0 0 0 0 0 0 0 0 0 0 0 0 0 0 0 0 0 9 9 0 9 11 10 12 10 11 0 0 9 0 0 0 0 0 0 9 9 9 10 11 10 11 11 10 0 0 0 0 10 10 10 9 9 9 0 0 0 0 0 0 9 0 0 0 0 0 0 0 0 0 0 0 9 0 0 0 0 0 0 0 0 0 9 10 10 10 11 10 12 11 11 11 11 11 10 9 9 0 0 0 0 0 0 0 0 0 0 0 0 0 0 9 10 11 13 9 10 9 9 9 9 9 9 0 9 9 9 9 9 0 0 0 9 9 0 0 0 0 9 18 12 12 12 12 14 12 11 12 9 10 9 9 9 14 13 13 13 14 13 16 16 14 11 13 11 12 12 12 12 11 13 13 12 16 14 16 18 17 17 18 17 17 19 19 19 15 15 18 21 23 22 20 21 21 22 22 23 22 22 24 25 26 26 27 32 42 -177 -209 -193 98 101 98 100 101 101 101 102 -193 -193 -209 38 37 37 37 37 35 38 38 38 38 40 -209 -177 -177 103 104 108 112 113 111 113 120 121 122 122 126 131 129 130 133 133 132 135 137 137 135 137 140 147 0 0 0 0 0
    0 0 0 0 0 0 0 0 0 0 0 0 0 0 0 0 0 0 0 0 0 0 0 0 0 0 0 0 0 0 0 0 0 0 0 0 0 0 0 0 0 0 0 0 0 0 0 0 0 0 0 0 0 0 0 0 0 0 0 0 0 0 0 0 0 0 0 0 0 0 0 9 0 9 9 0 9 10 11 13 10 11 0 0 9 0 0 0 0 0 0 9 9 0 10 11 10 11 11 11 0 0 9 0 10 10 10 9 0 9 0 0 0 0 0 0 9 0 0 0 0 0 0 0 9 0 0 0 0 0 0 0 0 0 0 0 0 9 10 10 10 10 12 11 12 11 11 11 11 11 10 9 9 0 0 0 0 0 0 0 0 0 0 0 0 0 0 9 10 11 14 11 11 10 10 10 9 10 10 0 0 9 9 9 9 0 0 0 0 9 0 0 0 0 0 -177 11 12 12 12 14 12 11 12 9 10 10 9 9 14 13 13 13 14 13 16 16 14 11 14 12 13 12 13 12 12 13 13 12 15 15 17 19 17 18 18 18 18 19 18 18 14 15 18 22 24 22 21 21 22 22 23 23 23 23 25 26 26 26 27 33 44 -177 -193 -209 100 102 99 100 101 101 102 103 -193 -193 -209 36 35 36 36 37 35 37 36 36 36 38 38 -177 -177 -209 103 108 114 119 108 115 117 119 121 121 124 128 127 127 131 131 125 129 130 127 126 129 131 132 0 0 0 0 0
    0 0 0 0 0 0 0 0 0 0 0 0 0 0 0 0 0 0 0 0 0 0 0 0 0 0 0 0 0 0 0 0 0 0 0 0 0 0 0 0 0 0 0 0 0 0 0 0 0 0 0 0 0 0 0 0 0 0 0 0 0 0 0 0 0 0 0 0 0 0 0 9 0 9 9 0 9 10 10 13 11 11 0 0 9 0 0 0 0 0 0 0 0 0 10 10 9 10 11 10 0 9 0 0 10 10 9 9 0 9 0 0 0 0 0 0 9 0 0 0 0 0 0 0 9 0 0 0 0 0 0 0 0 0 0 0 0 9 9 10 10 9 11 9 10 10 10 11 10 10 9 9 9 0 0 0 0 0 0 0 0 0 0 0 0 0 0 9 0 10 15 12 12 11 10 10 10 10 11 0 0 0 0 9 0 0 0 0 0 0 0 0 0 0 0 15 11 11 12 12 14 12 12 12 9 10 9 9 9 14 13 13 13 15 14 17 17 14 11 15 13 13 13 13 13 13 14 14 13 15 14 17 18 17 17 17 18 18 18 18 17 14 17 20 23 24 23 22 23 23 23 23 24 24 24 26 26 27 26 28 34 43 -177 -209 -209 -209 -193 100 100 101 101 102 103 102 -193 -193 36 34 35 36 37 35 37 36 36 36 37 37 37 36 39 37 -209 -209 -209 102 104 106 116 120 123 -209 -209 -209 -209 -209 -209 125 124 124 123 123 123 123 123 0 0 0 0 0
    0 0 0 0 0 0 0 0 0 0 0 0 0 0 0 0 0 0 0 0 0 0 0 0 0 0 0 0 0 0 0 0 0 0 0 0 0 0 0 0 0 0 0 0 0 0 0 0 0 0 0 0 0 0 0 0 0 0 0 0 0 0 0 0 0 0 0 0 0 0 0 9 0 9 9 0 9 9 9 12 10 10 0 0 0 0 0 0 0 0 0 9 9 0 10 10 9 10 10 10 0 0 0 0 9 9 9 0 0 0 0 0 0 0 0 0 9 0 0 0 0 0 0 0 9 0 0 0 0 0 0 0 0 0 9 9 9 9 9 10 9 9 9 0 9 9 10 -193 -193 10 10 9 9 0 9 0 0 0 0 0 0 0 0 0 0 0 0 10 0 10 16 12 13 11 11 11 10 11 12 0 0 0 0 0 0 0 0 0 0 0 0 0 0 0 0 14 11 11 12 11 14 12 12 12 9 10 9 9 9 14 13 13 13 14 14 17 16 14 11 14 13 13 13 13 13 13 14 14 13 14 15 16 18 16 16 16 17 16 18 17 16 12 17 21 24 25 22 22 22 23 23 23 23 23 23 26 26 27 26 27 35 44 -177 -209 -177 -177 -209 101 101 101 101 102 103 102 102 -193 35 33 34 36 37 34 37 36 36 36 37 37 36 35 37 35 37 40 40 39 -193 -209 -209 -209 -209 -209 -209 -209 171 172 173 -209 -209 125 124 126 123 122 124 0 0 0 0 0
    0 0 0 0 0 0 0 0 0 0 0 0 0 0 0 0 0 0 0 0 0 0 0 0 0 0 0 0 0 0 0 0 0 0 0 0 0 0 0 0 0 0 0 0 0 0 0 0 0 0 0 0 0 0 0 0 0 0 0 0 0 0 0 0 0 0 0 0 0 0 0 9 0 9 9 0 0 0 0 11 9 10 0 0 0 0 0 0 0 0 0 9 9 9 9 9 9 10 10 10 0 0 0 0 9 0 0 0 0 0 0 0 0 0 0 0 10 0 0 0 0 0 0 9 10 0 0 0 0 0 0 0 9 0 10 10 10 10 9 10 -193 -209 -193 -193 -193 -193 -193 -193 -193 -193 10 9 9 0 9 0 0 0 0 0 0 0 -193 0 0 0 0 10 0 10 15 12 13 12 12 11 11 12 12 9 0 0 0 0 0 0 0 0 0 0 0 0 0 0 0 15 11 11 11 11 13 12 12 12 10 11 10 10 10 15 13 13 12 14 13 16 15 14 10 13 12 13 13 13 12 13 14 13 13 14 16 16 18 16 16 16 16 16 17 15 16 10 15 20 23 24 22 22 23 24 23 23 24 24 24 26 26 27 26 27 35 43 -209 -193 -177 -177 -193 -193 101 101 101 102 103 102 102 -193 -193 32 33 36 37 34 36 36 35 35 36 36 36 35 37 35 36 38 37 36 38 39 40 40 46 53 -193 -193 -209 -193 -193 -209 -209 130 126 130 128 124 126 0 0 0 0 0
    0 0 0 0 0 0 0 0 0 0 0 0 0 0 0 0 0 0 0 0 0 0 0 0 0 0 0 0 0 0 0 0 0 0 0 0 0 0 0 0 0 0 0 0 0 0 0 0 0 0 0 0 0 0 0 0 0 0 0 0 0 0 0 0 0 0 0 0 0 9 9 9 0 0 0 0 0 0 0 11 9 10 0 0 0 0 0 0 0 0 0 9 9 0 9 0 0 0 9 9 0 0 0 0 0 0 0 0 0 0 0 0 0 0 0 0 10 0 9 0 0 0 0 9 10 0 0 0 0 0 0 0 9 0 10 10 10 10 9 10 132 -193 -177 -193 -193 -193 -177 131 127 -193 -193 9 9 0 9 -193 0 0 0 0 -193 -193 129 -193 -193 -193 0 9 0 -193 13 11 12 11 -193 -193 11 12 13 9 0 0 9 9 9 0 0 9 9 9 9 0 0 0 0 13 10 10 11 11 12 11 11 12 10 12 11 11 11 15 14 14 13 14 13 15 14 13 10 11 11 12 13 13 12 13 14 13 13 15 16 16 19 16 16 16 17 17 17 15 15 10 19 20 23 24 23 23 23 24 23 24 25 25 25 26 26 27 25 27 34 40 -209 -209 -177 -177 -193 -209 101 102 102 103 103 103 101 101 -193 31 33 35 36 33 36 35 35 35 36 36 36 35 37 36 37 38 37 36 38 37 38 39 42 47 47 48 51 -193 -193 -193 -177 -209 125 132 131 124 126 0 0 0 0 0
    0 0 0 0 0 0 0 0 0 0 0 0 0 0 0 0 0 0 0 0 0 0 0 0 0 0 0 0 0 0 0 0 0 0 0 0 0 0 0 0 0 0 0 0 0 0 0 0 0 0 0 0 0 0 0 0 0 0 0 0 0 0 0 0 0 0 0 0 0 9 0 0 0 0 0 0 0 0 0 11 9 10 0 0 0 0 9 0 0 0 0 0 0 0 0 0 0 0 0 0 0 0 0 0 0 0 0 0 0 0 0 0 0 0 0 0 10 9 9 0 0 9 0 9 10 0 0 0 0 0 0 0 -177 -177 -177 10 10 9 -193 -193 131 131 132 132 -193 131 129 130 126 -193 -193 -193 -193 -193 -193 127 -177 -193 128 127 127 129 130 125 127 126 -193 -193 0 0 12 11 11 -193 -193 -193 11 12 13 9 9 9 10 10 10 9 9 9 10 9 9 0 0 0 0 11 9 9 10 10 11 11 10 12 11 12 11 11 11 15 13 13 13 13 12 15 14 13 10 12 12 13 13 13 12 13 14 14 14 16 16 16 20 16 16 16 17 17 16 15 15 10 21 20 23 23 23 23 23 24 24 24 25 25 25 26 26 27 25 27 33 40 -177 -209 -177 -177 -193 -209 -193 102 102 103 103 103 101 100 -209 -193 32 34 36 33 35 34 33 34 35 35 36 35 36 36 36 37 37 36 37 37 38 39 40 42 43 44 46 44 42 -193 -209 -209 -177 -193 -209 123 127 0 0 0 0 0
    0 0 0 0 0 0 0 0 0 0 0 0 0 0 0 0 0 0 0 0 0 0 0 0 0 0 0 0 0 0 0 0 0 0 0 0 0 0 0 0 0 0 0 0 0 0 0 0 0 0 0 0 0 0 0 0 0 0 0 0 0 0 0 0 0 0 0 0 0 0 0 0 0 0 0 0 0 0 0 11 9 10 0 0 0 0 9 9 0 0 0 0 0 0 0 0 0 0 0 0 0 0 0 0 0 0 0 0 0 0 0 0 0 0 0 0 11 9 10 9 0 9 9 10 11 0 0 0 0 0 0 0 9 -177 -177 10 10 10 -193 -193 131 131 132 132 -177 130 128 130 125 -193 -193 -193 -193 -193 -193 127 -193 -193 129 127 128 130 130 125 128 127 125 -193 -193 0 12 10 11 10 11 -193 11 12 13 9 9 9 10 10 10 10 10 10 11 10 10 0 0 0 9 10 9 9 10 9 10 10 10 12 11 12 11 11 11 15 13 13 11 12 12 14 13 13 9 12 13 13 13 14 12 14 14 14 13 17 16 16 20 16 16 16 17 17 15 15 16 10 21 20 23 22 22 22 23 24 24 24 25 25 25 25 25 26 24 26 31 43 -177 -209 -209 -177 -193 -193 101 101 102 102 102 101 100 -193 -193 -177 32 34 35 32 34 33 33 34 34 35 35 34 36 35 36 37 37 36 37 37 38 39 40 42 42 43 43 42 40 42 42 41 -209 -177 -209 -209 127 0 0 0 0 0
    0 0 0 0 0 0 0 0 0 0 0 0 0 0 0 0 0 0 0 0 0 0 0 0 0 0 0 0 0 0 0 0 0 0 0 0 0 0 0 0 0 0 0 0 0 0 0 0 0 0 0 0 0 0 0 0 0 0 0 0 0 0 0 0 0 0 0 0 0 9 9 0 0 0 0 0 0 0 0 10 0 10 0 0 0 0 0 0 0 0 0 0 0 0 0 0 0 0 0 0 0 0 0 0 0 0 0 0 0 0 0 0 0 0 0 0 11 9 10 9 0 10 9 10 11 0 0 0 0 0 0 0 9 -177 -177 10 10 -177 -193 -193 131 131 132 132 132 129 128 130 125 127 -193 -193 -193 -193 -193 127 -193 -193 129 128 128 130 130 125 128 127 125 124 -193 -193 12 10 11 10 11 12 11 12 13 9 11 10 11 11 10 11 11 11 11 10 10 9 0 0 9 9 0 0 10 9 10 10 10 13 12 12 11 11 12 15 12 12 11 11 11 13 12 12 10 13 13 13 14 15 13 15 15 15 14 17 17 16 20 17 16 17 17 16 15 15 16 10 20 19 23 22 22 22 23 25 24 25 25 25 25 25 25 26 23 25 32 -177 -177 -209 -177 -177 -209 102 100 100 101 101 101 100 99 -193 -177 -177 32 33 35 32 34 34 33 34 34 35 35 35 36 35 36 37 36 36 37 37 38 39 40 41 42 42 43 41 40 41 40 40 39 40 41 -209 -209 0 0 0 0 0
    0 0 0 0 0 0 0 0 0 0 0 0 0 0 0 0 0 0 0 0 0 0 0 0 0 0 0 0 0 0 0 0 0 0 0 0 0 0 0 0 0 0 0 0 0 0 0 0 0 0 0 0 0 0 0 0 0 0 0 0 0 0 0 0 0 0 0 0 0 10 9 9 0 0 0 0 0 0 0 10 0 9 0 0 0 0 0 0 0 0 0 0 0 0 0 0 0 0 0 0 0 0 0 0 0 0 0 0 0 0 0 0 0 0 0 0 11 10 11 10 9 11 10 11 12 0 0 0 0 0 0 0 9 -177 -177 10 10 -177 -193 -193 130 131 132 -193 131 129 127 129 125 127 126 -193 -193 -193 -193 127 -193 -193 128 128 128 129 130 125 127 127 125 124 -193 -193 12 10 11 10 11 12 11 12 13 9 11 10 12 11 10 11 11 11 11 10 10 0 0 0 9 0 0 0 10 9 10 10 10 13 12 12 12 11 12 15 12 12 11 11 11 13 13 12 10 14 14 14 15 15 14 15 16 15 15 17 17 16 20 16 16 16 17 16 15 16 16 11 19 19 23 22 22 22 23 25 24 25 25 25 25 25 25 25 23 24 32 47 -193 -193 -177 -177 -193 101 98 99 100 100 100 98 98 -193 -177 -193 31 34 34 33 34 35 33 35 34 36 36 36 36 36 36 36 36 35 36 36 37 37 38 40 40 40 41 40 39 40 40 40 38 38 39 37 41 0 0 0 0 0
    0 0 0 0 0 0 0 0 0 0 0 0 0 0 0 0 0 0 0 0 0 0 0 0 0 0 0 0 0 0 0 0 0 0 0 0 0 0 0 0 0 0 0 0 0 0 0 0 0 0 0 0 0 0 0 0 0 0 0 0 0 0 0 0 0 0 0 0 0 10 10 10 0 0 0 0 0 0 0 0 0 0 0 0 0 0 0 0 0 0 0 0 0 0 0 0 0 0 0 0 0 0 0 0 0 0 0 0 0 0 0 0 0 0 0 0 10 10 11 10 9 11 10 11 12 0 0 0 0 0 0 0 9 0 10 11 10 9 -193 -193 130 -193 132 -193 -193 128 127 129 125 127 126 -193 -209 -193 -193 127 -193 -193 -193 127 127 129 130 125 127 127 125 124 -193 -193 -193 10 11 10 11 12 11 12 13 10 11 11 12 12 10 11 10 11 11 10 11 9 0 9 10 0 0 0 11 9 10 9 9 13 12 12 12 11 12 14 12 12 10 11 11 13 13 12 11 14 14 14 15 15 15 15 17 14 17 18 17 16 20 16 16 16 16 15 15 16 16 11 18 19 23 21 21 21 22 25 24 25 25 25 25 26 26 26 23 24 31 -209 -193 -177 -177 -177 -193 101 98 98 99 99 98 96 96 -193 -177 -193 33 34 34 34 34 35 34 35 34 36 36 36 37 36 35 36 36 35 35 35 35 36 37 38 38 38 39 38 37 38 39 38 38 38 39 37 -193 0 0 0 0 0
    0 0 0 0 0 0 0 0 0 0 0 0 0 0 0 0 0 0 0 0 0 0 0 0 0 0 0 0 0 0 0 0 0 0 0 0 0 0 0 0 0 0 0 0 0 0 0 0 0 0 0 0 0 0 0 0 0 0 0 0 0 0 0 0 0 0 0 0 0 11 10 10 0 9 0 0 0 0 0 0 0 0 0 0 0 0 0 0 0 0 0 0 0 0 0 0 0 0 0 0 0 0 0 0 0 0 0 0 0 0 0 0 0 0 0 0 10 10 11 10 9 11 10 11 12 0 0 0 0 9 0 0 9 0 11 11 10 9 -193 -193 -193 -193 132 -193 -193 -193 126 129 125 -193 -193 -209 -209 -193 -193 -209 -177 -177 -193 -193 -193 128 129 124 127 126 124 -193 -193 -193 -193 10 11 10 11 12 11 12 13 10 11 11 12 12 11 11 10 11 11 9 11 9 0 9 10 0 9 0 11 0 9 9 9 13 11 12 11 10 11 14 12 12 10 11 11 13 14 13 12 14 14 14 15 15 15 15 17 13 18 19 17 16 20 16 16 16 16 15 15 16 17 11 18 18 23 21 21 21 22 24 24 25 25 25 25 26 27 26 23 24 28 -209 -193 -177 -177 -177 -193 100 98 98 99 98 97 95 95 -193 -193 -193 34 34 35 33 34 35 34 36 34 37 37 36 37 36 36 36 36 35 35 35 35 36 37 37 37 38 38 37 37 38 38 37 37 38 38 37 -209 0 0 0 0 0
    0 0 0 0 0 0 0 0 0 0 0 0 0 0 0 0 0 0 0 0 0 0 0 0 0 0 0 0 0 0 0 0 0 0 0 0 0 0 0 0 0 0 0 0 0 0 0 0 0 0 0 0 0 0 0 0 0 0 0 0 0 0 0 0 0 0 0 0 0 11 10 11 0 9 0 0 0 0 0 0 0 0 0 0 0 9 0 0 0 0 0 0 0 0 0 0 0 0 0 0 0 0 0 0 0 0 0 0 0 0 0 0 0 0 0 0 10 10 11 10 9 10 10 11 12 0 0 0 9 10 0 9 10 9 10 11 10 9 0 9 0 0 0 0 -193 0 -193 -193 -193 9 10 9 0 0 10 -209 0 -177 0 -193 -193 -193 129 -193 -193 127 -193 -193 -193 0 12 10 11 10 10 11 11 12 13 10 12 11 12 12 11 11 10 10 10 9 11 9 9 9 10 0 9 9 11 8 0 0 0 12 11 12 11 10 11 14 12 12 11 11 12 13 14 13 14 15 15 14 15 15 16 14 17 13 19 19 17 16 21 17 17 17 17 15 15 16 17 11 18 19 23 20 20 20 22 24 24 25 25 25 26 28 28 26 24 24 -193 -209 -193 -177 -177 -209 101 100 98 98 98 97 97 94 95 -193 -193 -193 34 34 35 33 34 35 34 36 35 37 37 36 37 37 36 36 36 36 35 36 36 37 37 37 37 37 38 37 36 37 38 38 38 39 38 38 -193 0 0 0 0 0
    0 0 0 0 0 0 0 0 0 0 0 0 0 0 0 0 0 0 0 0 0 0 0 0 0 0 0 0 0 0 0 0 0 0 0 0 0 0 0 0 0 0 0 0 0 0 0 0 0 0 0 0 0 0 0 0 0 0 0 0 0 0 0 0 0 0 0 0 0 11 11 11 0 9 9 0 0 0 0 0 0 0 0 0 0 9 0 0 0 0 0 0 0 0 0 0 0 0 0 0 0 0 0 0 0 0 0 0 0 0 0 0 0 0 0 0 10 10 11 10 9 10 10 11 11 0 0 0 0 9 0 0 10 9 10 10 10 0 0 9 0 0 0 0 0 0 0 0 0 9 9 0 0 0 10 0 0 0 0 0 0 0 0 0 9 0 -193 0 0 0 12 10 11 10 10 11 11 12 13 10 11 10 12 12 11 10 10 10 10 0 11 9 9 9 10 0 9 9 12 0 0 0 0 11 11 11 11 10 11 14 12 12 11 11 12 13 16 13 15 15 15 14 15 15 16 14 17 12 20 19 16 16 21 16 16 16 16 15 15 17 17 11 19 19 23 20 20 20 21 24 24 25 25 25 26 29 29 27 25 25 -209 -177 -193 -177 -209 97 101 100 98 98 98 97 96 94 95 -193 -193 -193 34 33 34 33 34 35 35 36 35 37 37 37 37 37 37 36 36 36 36 37 36 37 37 37 37 37 37 37 37 37 38 38 38 39 39 38 41 0 0 0 0 0
    0 0 0 0 0 0 0 0 0 0 0 0 0 0 0 0 0 0 0 0 0 0 0 0 0 0 0 0 0 0 0 0 0 0 0 0 0 0 0 0 0 0 0 0 0 0 0 0 0 0 0 0 0 0 0 0 0 0 0 0 0 0 0 0 0 0 0 0 0 11 11 12 9 9 9 0 0 0 0 0 0 0 0 0 0 0 0 0 0 0 0 0 0 0 0 0 0 0 0 0 0 0 0 0 0 0 0 0 0 0 0 0 0 0 0 0 10 10 11 10 9 9 9 10 11 0 0 0 0 9 0 0 9 9 9 10 10 0 0 9 0 0 9 9 0 0 0 0 0 9 9 0 0 0 10 9 9 9 -193 0 0 0 0 0 0 0 -193 0 0 0 14 11 11 10 10 11 11 12 13 9 11 10 12 12 11 10 10 10 9 0 11 9 9 9 10 0 9 9 12 0 0 0 0 10 10 10 10 9 10 13 11 12 11 11 12 13 17 14 17 16 15 15 15 15 16 13 16 11 20 17 15 15 20 16 16 16 16 14 15 18 17 11 19 20 23 20 20 20 21 24 24 25 24 24 26 30 29 27 25 25 -209 -193 -193 -177 -209 96 101 100 97 98 98 96 96 94 95 -177 -193 -193 34 33 34 33 34 35 34 36 35 37 36 37 37 37 37 37 37 36 36 37 36 37 37 37 36 37 37 37 37 38 38 38 39 40 39 38 41 0 0 0 0 0
    0 0 0 0 0 0 0 0 0 0 0 0 0 0 0 0 0 0 0 0 0 0 0 0 0 0 0 0 0 0 0 0 0 0 0 0 0 0 0 0 0 0 0 0 0 0 0 0 0 0 0 0 0 0 0 0 0 0 0 0 0 0 0 0 0 0 0 0 0 12 12 12 9 10 9 0 9 9 0 0 0 0 0 0 0 0 0 0 0 0 0 0 0 0 0 0 0 0 0 0 0 9 0 0 0 0 0 0 0 0 0 0 0 0 0 0 9 9 11 9 0 9 9 10 10 0 0 0 0 0 0 0 9 0 9 10 10 0 9 9 9 0 10 10 0 0 0 0 9 10 10 9 9 9 12 10 9 9 -193 -193 0 0 0 0 0 0 0 0 0 0 15 11 11 10 10 11 10 12 12 9 10 9 12 11 10 10 10 10 9 0 10 9 9 9 9 0 0 0 11 0 0 0 0 9 10 9 10 9 10 11 10 12 10 10 12 12 16 13 16 15 14 14 15 14 14 13 15 10 20 16 15 15 20 16 16 16 16 14 16 18 17 11 19 20 23 19 19 19 21 23 23 24 23 23 26 29 29 27 24 25 -193 -209 -193 -177 -177 -193 101 100 97 98 97 96 96 93 -193 -177 -193 -209 34 33 34 34 34 35 35 36 35 37 36 37 37 37 37 37 37 36 37 37 37 37 37 37 36 37 37 37 37 38 38 38 39 39 38 39 41 0 0 0 0 0
    0 0 0 0 0 0 0 0 0 0 0 0 0 0 0 0 0 0 0 0 0 0 0 0 0 0 0 0 0 0 0 0 0 0 0 0 0 0 0 0 0 0 0 0 0 0 0 0 0 0 0 0 0 0 0 0 0 0 0 0 0 0 0 0 0 0 0 0 0 12 12 13 9 10 9 0 9 9 0 0 0 0 0 0 0 0 0 0 0 0 0 0 0 0 0 0 0 0 0 0 0 0 0 0 0 0 0 0 0 0 0 0 0 0 0 0 9 9 10 9 0 0 0 10 10 0 0 0 0 0 0 0 0 0 0 9 9 0 0 9 9 0 10 10 0 0 9 10 11 11 13 12 11 11 13 10 -193 9 -193 -193 0 0 0 0 0 0 0 0 0 0 -193 11 11 -193 -193 -193 10 11 12 9 9 0 10 10 9 9 0 0 0 0 9 0 0 0 0 0 0 0 10 0 0 0 0 0 0 0 9 0 9 10 10 11 11 11 12 13 17 13 17 14 14 14 14 13 13 12 14 -177 20 15 15 15 20 16 16 16 16 14 17 18 17 11 19 20 23 19 19 19 20 23 23 23 22 21 26 28 28 27 24 25 -193 -209 -209 -177 -177 -193 -193 100 98 98 98 97 97 93 -193 -177 -193 -209 33 32 34 33 33 35 35 36 36 37 36 37 37 37 37 37 37 36 37 37 37 37 38 37 37 37 37 38 37 38 38 38 39 39 38 39 41 0 0 0 0 0
    0 0 0 0 0 0 0 0 0 0 0 0 0 0 0 0 0 0 0 0 0 0 0 0 0 0 0 0 0 0 0 0 0 0 0 0 0 0 0 0 0 0 0 0 0 0 0 0 0 0 0 0 0 0 0 0 0 0 0 0 0 0 0 0 0 0 0 0 0 12 12 12 9 10 10 0 0 9 0 0 0 0 0 0 0 0 0 0 0 0 0 0 0 0 0 0 0 0 0 0 0 0 0 0 0 0 0 0 0 0 0 0 0 0 0 0 0 9 10 9 0 0 0 9 9 0 0 0 0 0 0 0 0 0 0 9 9 0 0 0 0 0 9 9 0 0 10 12 13 13 17 15 11 11 14 -193 -193 -193 -193 0 0 0 0 0 0 0 0 9 0 0 -193 11 11 -209 -193 -193 -193 11 12 0 0 0 10 10 9 9 0 0 0 0 9 9 0 9 0 0 0 0 9 0 0 0 0 0 0 0 0 0 0 10 10 11 11 12 14 15 19 14 17 14 14 14 14 13 13 11 13 -177 20 15 15 15 20 16 15 15 16 14 17 18 17 11 20 20 23 19 19 19 20 23 22 22 22 20 25 27 27 26 24 25 -209 -209 -209 -177 -177 -193 -193 100 98 99 98 97 97 -193 -193 -177 -193 -209 32 31 33 33 33 35 36 36 37 36 36 37 37 37 36 36 36 35 36 37 36 37 37 37 37 38 37 38 37 38 38 37 39 39 38 39 41 0 0 0 0 0
    0 0 0 0 0 0 0 0 0 0 0 0 0 0 0 0 0 0 0 0 0 0 0 0 0 0 0 0 0 0 0 0 0 0 0 0 0 0 0 0 0 0 0 0 0 0 0 0 0 0 0 0 0 0 0 0 0 0 0 0 0 0 0 0 0 0 0 0 0 11 11 12 9 10 9 0 0 9 0 0 0 0 0 0 0 0 0 0 0 0 0 0 0 0 0 0 0 0 0 0 0 0 0 0 0 0 0 0 0 0 0 0 0 0 0 0 -193 0 10 9 -177 0 0 10 10 0 0 0 0 0 0 0 0 0 0 9 0 0 0 0 0 0 10 10 0 0 10 18 15 14 23 15 10 10 13 -193 -193 -193 -193 0 0 0 0 0 0 0 0 10 0 0 -193 11 11 -209 876 877 -193 11 12 0 0 0 10 10 10 10 9 8 0 0 9 9 9 9 9 0 9 0 0 0 0 0 0 0 0 0 0 0 0 11 11 12 12 13 16 18 20 15 18 15 14 14 14 12 12 11 13 -177 18 14 14 14 20 15 15 15 16 14 17 18 17 11 20 20 23 18 18 18 19 22 21 22 21 19 25 27 27 26 24 25 -193 -193 -193 -177 -209 -193 -193 101 99 99 98 98 97 -193 -177 -177 -193 -209 31 30 31 32 33 36 36 36 37 36 36 36 36 36 36 36 36 35 37 37 37 37 38 38 38 38 38 38 37 38 37 37 39 39 38 40 42 0 0 0 0 0
    0 0 0 0 0 0 0 0 0 0 0 0 0 0 0 0 0 0 0 0 0 0 0 0 0 0 0 0 0 0 0 0 0 0 0 0 0 0 0 0 0 0 0 0 0 0 0 0 0 0 0 0 0 0 0 0 0 0 0 0 0 0 0 0 0 0 0 0 0 -193 -193 -193 0 0 0 0 9 9 0 -193 9 0 0 9 0 9 0 0 0 0 0 0 0 0 0 0 0 0 0 0 0 0 0 0 0 0 0 0 0 0 0 0 0 -193 0 0 -193 0 10 9 -177 9 9 10 10 9 9 0 0 0 0 0 0 0 0 0 0 0 0 0 0 0 11 -193 0 -209 -193 27 30 -209 -193 -209 -193 -193 -193 -193 -193 0 0 0 0 0 0 0 0 0 0 10 0 0 -209 11 -193 -193 877 878 -193 11 12 0 0 0 10 10 10 10 10 9 0 9 10 9 9 10 9 9 9 8 0 0 0 0 0 0 0 0 0 0 0 12 12 12 12 14 16 19 21 15 17 15 13 13 12 11 10 10 11 -177 17 14 14 14 20 15 15 15 16 14 17 18 17 11 20 20 23 18 17 18 19 22 21 21 20 17 24 25 25 25 21 23 -193 -193 -193 -209 -209 -193 -193 101 99 99 98 98 98 -209 -177 -177 -193 -193 29 28 30 32 32 36 36 36 37 35 35 36 35 36 35 36 36 35 37 37 37 38 38 38 38 38 38 38 38 38 37 37 39 39 39 40 42 0 0 0 0 0
    0 0 0 0 0 0 0 0 0 0 0 0 0 0 0 0 0 0 0 0 0 0 0 0 0 0 0 0 0 0 0 0 0 0 0 0 0 0 0 0 0 0 0 0 0 0 0 0 0 0 0 0 0 0 0 0 0 0 0 0 0 0 0 0 0 0 0 0 0 -193 -193 -193 0 0 0 0 9 -209 -193 -209 -209 -209 9 9 0 8 0 0 0 0 0 0 0 0 0 0 0 0 0 0 0 0 0 0 0 0 0 0 0 0 0 -193 -193 -193 -193 0 -193 0 11 9 -177 9 9 10 10 9 10 0 0 0 0 0 0 0 0 9 0 0 0 0 9 9 -193 -193 -209 -209 -177 -193 36 91 94 94 -193 -193 -177 -193 -193 -193 0 0 0 0 0 0 0 0 0 10 0 0 -209 -193 -193 -193 878 879 -193 11 12 0 9 0 10 10 10 11 10 9 9 9 10 9 9 10 9 9 9 0 0 0 0 0 0 0 0 0 0 0 0 13 13 12 12 13 15 18 19 14 15 13 12 12 11 10 9 9 10 0 16 14 14 14 20 15 15 15 16 13 17 17 17 11 19 19 22 17 17 17 19 21 21 21 20 17 24 24 24 23 18 21 19 -209 -193 -209 -177 -193 -193 101 100 -193 99 -193 -193 -209 -209 -193 -193 -193 28 28 29 32 33 35 35 35 37 35 35 36 35 35 35 36 36 35 36 37 37 38 38 37 37 37 37 37 37 37 37 37 39 38 39 41 43 0 0 0 0 0
    0 0 0 0 0 0 0 0 0 0 0 0 0 0 0 0 0 0 0 0 0 0 0 0 0 0 0 0 0 0 0 0 0 0 0 0 0 0 0 0 0 0 0 0 0 0 0 0 0 0 0 0 0 0 0 0 0 0 0 0 0 0 0 0 0 0 0 0 0 -193 -193 10 0 0 9 -193 -193 -209 -193 1000 -209 -209 9 9 0 0 0 0 0 0 0 0 0 0 0 0 0 0 0 0 0 10 9 0 9 -177 -209 -209 -193 -193 -193 -193 111 110 -209 -193 -177 -193 11 10 -193 -193 9 9 9 10 11 0 -193 0 0 0 0 0 0 -177 0 0 0 -193 -193 -193 -193 289 -193 -209 -193 -193 -193 93 96 97 99 -177 -177 -177 -177 362 362 -193 0 0 0 0 0 0 0 11 0 0 -209 -193 -193 -193 879 881 -193 11 12 0 0 -209 10 10 10 11 10 -193 9 10 10 9 9 10 10 9 9 0 0 0 0 0 0 0 0 0 0 0 0 14 13 13 12 13 15 18 18 14 13 12 11 11 10 9 0 9 9 0 15 14 14 14 20 15 15 15 16 13 16 17 16 11 19 19 22 17 17 17 19 21 21 20 20 16 23 23 23 21 14 18 15 12 14 -193 -177 -193 -177 102 -193 -193 -209 -193 -209 -209 30 -193 32 31 28 28 29 31 32 35 34 35 36 34 34 35 34 35 34 35 35 34 36 37 36 37 37 37 37 36 37 37 36 36 36 36 38 38 39 41 44 0 0 0 0 0
    0 0 0 0 0 0 0 0 0 0 0 0 0 0 0 0 0 0 0 0 0 0 0 0 0 0 0 0 0 0 0 0 0 0 0 0 0 0 0 0 0 0 0 0 0 0 0 0 0 0 0 0 0 0 0 0 0 0 0 0 0 0 0 0 0 0 0 0 0 -193 -193 10 0 9 -193 -209 -209 989 996 -177 -177 -193 -209 -193 0 0 0 0 0 0 0 0 0 0 0 0 0 0 0 0 0 14 -193 -209 10 -193 -209 -209 -193 105 107 110 109 108 -193 -193 -177 -209 10 -193 -193 -193 0 9 9 11 14 0 -193 -193 0 0 -209 0 0 -177 0 0 -193 -193 -193 -193 -177 -177 283 -193 -209 -209 94 95 98 98 100 -193 -193 360 -177 360 360 -193 -193 -193 0 0 0 0 0 -193 -193 -193 276 -193 -193 -193 880 882 -193 10 12 9 -209 -177 -209 -209 -209 -193 -209 -209 -209 -209 9 0 0 10 10 10 10 0 0 0 0 0 0 0 0 0 0 0 0 13 13 12 11 13 15 18 17 14 12 10 10 10 9 0 0 0 0 0 15 14 14 14 20 15 15 15 16 13 16 17 16 11 18 17 22 17 17 18 19 21 20 20 20 15 22 22 22 18 13 17 13 11 13 -193 -193 -193 -177 -193 -193 -177 -193 -209 -209 -209 30 34 32 32 28 28 28 29 31 34 33 34 35 34 33 34 33 34 33 34 35 34 35 36 36 37 37 37 36 36 36 36 35 36 35 36 38 38 39 42 46 0 0 0 0 0
    0 0 0 0 0 0 0 0 0 0 0 0 0 0 0 0 0 0 0 0 0 0 0 0 0 0 0 0 0 0 0 0 0 0 0 0 0 0 0 0 0 0 0 0 0 0 0 0 0 0 0 0 0 0 0 0 0 0 0 0 0 0 0 0 0 0 0 0 0 -193 -193 -209 0 -193 -209 -209 -209 -193 998 -177 -177 -209 -209 -209 -209 0 9 0 0 0 0 0 0 0 0 0 0 0 0 0 10 -209 -209 -209 -209 -209 -209 -193 104 104 106 107 107 106 107 -193 -177 -209 -209 -209 -209 9 9 9 10 12 18 -209 -193 -209 -209 -209 -193 -193 0 -177 -193 -193 -209 -193 -193 -193 -193 -177 288 -193 99 97 95 97 99 99 100 99 99 -193 356 358 359 359 -193 -209 -193 0 -193 -193 -209 -209 -209 -209 -193 11 12 11 -193 883 -193 10 13 9 -209 756 -209 -209 -193 -177 -209 -209 -209 -209 -209 0 0 10 10 11 11 0 0 0 0 0 0 0 0 0 0 0 0 11 11 10 10 12 14 18 15 13 11 0 9 9 0 0 0 0 0 0 14 14 13 14 20 15 14 15 15 12 15 16 15 10 16 17 22 17 18 18 19 21 20 20 20 15 22 21 21 18 14 18 -193 13 14 -193 -209 100 -193 -193 -193 -193 -193 -209 -209 -193 30 35 32 32 27 27 27 28 30 33 32 33 35 34 34 34 33 34 33 34 34 34 35 36 36 36 36 37 36 36 36 36 35 36 35 36 37 37 39 42 46 0 0 0 0 0
    0 0 0 0 0 0 0 0 0 0 0 0 0 0 0 0 0 0 0 0 0 0 0 0 0 0 0 0 0 0 0 0 0 0 0 0 0 0 0 0 0 0 0 0 0 0 0 0 0 0 0 0 0 0 0 0 0 0 0 0 0 0 0 0 0 0 0 0 0 -193 -209 -209 -209 -209 -209 -209 -209 -209 -209 -209 -209 -209 -209 -193 100 -209 -193 -209 9 0 0 0 0 0 -177 0 -209 -209 -193 0 -209 -209 -209 -209 -209 -209 100 101 102 103 105 105 105 104 105 -193 -209 -209 -209 102 -209 10 10 10 11 15 -193 -209 -209 -193 580 -209 97 98 -193 -209 -193 -193 -209 -209 -209 -209 -193 -209 -209 95 100 99 97 98 99 100 100 99 99 98 -193 356 359 358 -209 -209 -209 -209 -193 -193 -209 -209 -193 -209 -209 12 12 12 -193 -193 -193 -193 -193 -209 -209 -209 132 -209 -209 -193 -209 105 110 -209 -193 0 9 12 11 13 13 10 10 10 0 0 0 0 0 0 0 0 0 10 10 9 9 11 14 18 16 14 11 9 9 10 -193 -193 0 0 0 0 13 13 12 12 18 14 14 14 15 12 14 16 16 10 17 18 22 18 18 18 19 20 20 20 20 15 20 20 21 16 13 16 13 12 14 -193 -193 100 14 -193 16 -193 -193 -209 27 26 29 33 31 30 26 26 26 26 29 31 30 31 35 33 33 33 33 33 32 33 34 33 34 35 35 36 36 36 36 35 36 36 35 35 35 36 37 37 39 42 47 0 0 0 0 0
    0 0 0 0 0 0 0 0 0 0 0 0 0 0 0 0 0 0 0 0 0 0 0 0 0 0 0 0 0 0 0 0 0 0 0 0 0 0 0 0 0 0 0 0 0 0 0 0 0 0 0 0 0 0 0 0 0 0 0 0 0 0 0 0 0 0 0 0 0 102 103 101 100 98 97 97 97 98 94 92 96 95 100 101 101 102 101 102 -193 -193 -193 -193 0 -193 -209 -209 -209 -209 -193 -209 -209 -209 -209 99 100 -193 100 100 101 102 103 103 103 103 103 104 104 103 103 101 102 -193 11 11 -193 -193 95 92 -209 -193 -193 -193 99 98 100 100 -193 -209 -209 -209 -209 -209 -209 -209 96 97 101 100 98 99 100 100 101 100 100 98 102 354 358 358 -209 -209 -193 -209 -209 656 -209 678 680 -177 -209 11 13 13 -193 -193 -209 -193 -193 -209 -209 -193 124 -193 499 -193 101 104 105 101 97 -193 -193 15 15 15 14 12 12 12 9 0 0 0 0 0 0 0 0 -193 9 9 0 10 13 17 15 13 10 9 10 11 -193 -193 0 10 9 0 13 12 11 11 17 13 13 13 14 12 13 16 16 10 18 19 22 19 19 19 19 20 20 20 19 14 18 18 19 16 13 -177 13 -193 -193 -193 103 100 15 -193 17 -193 -193 -193 26 25 29 32 31 30 26 26 26 26 29 31 29 31 34 33 33 33 33 33 31 33 34 32 33 35 34 35 35 36 35 35 35 35 35 35 34 36 36 37 39 43 48 0 0 0 0 0
    0 0 0 0 0 0 0 0 0 0 0 0 0 0 0 0 0 0 0 0 0 0 0 0 0 0 0 0 0 0 0 0 0 0 0 0 0 0 0 0 0 0 0 0 0 0 0 0 0 0 0 0 0 0 0 0 0 0 0 0 0 0 0 0 0 0 0 0 0 100 102 100 99 97 96 97 97 98 96 95 97 95 100 101 101 101 101 101 101 101 101 100 98 97 97 95 96 95 95 -209 -177 -209 100 99 100 100 101 100 101 102 102 101 102 101 101 101 102 101 101 100 100 99 -193 -209 97 97 96 94 -193 -209 -193 99 99 98 100 99 99 98 97 98 97 97 101 98 98 99 102 100 99 100 100 100 101 100 100 98 101 103 -193 -193 99 98 -193 -209 -209 -209 676 -193 -193 -209 -209 -209 -193 -193 -209 100 -209 -177 -209 -209 108 116 118 -193 -193 -193 100 102 103 100 96 93 96 -209 -209 15 14 12 12 13 11 0 0 0 0 0 0 0 0 -177 -193 -193 -193 9 11 14 13 13 11 10 11 13 11 9 0 11 11 -193 12 12 10 10 15 12 12 12 13 11 13 17 18 10 21 21 -209 -193 21 20 19 20 19 19 19 13 16 17 -177 -177 -177 -209 101 101 101 102 103 101 -193 103 17 -193 -193 26 27 26 29 33 30 30 26 26 26 25 28 30 28 31 33 33 33 33 33 32 31 33 34 32 32 34 33 35 35 35 35 34 35 35 35 35 34 35 35 37 40 43 49 0 0 0 0 0
    0 0 0 0 0 0 0 0 0 0 0 0 0 0 0 0 0 0 0 0 0 0 0 0 0 0 0 0 0 0 0 0 0 0 0 0 0 0 0 0 0 0 0 0 0 0 0 0 0 0 0 0 0 0 0 0 0 0 0 0 0 0 0 0 0 0 0 0 0 100 101 99 98 96 94 96 96 97 96 95 97 96 100 101 101 100 100 100 100 100 100 100 99 98 99 97 96 95 96 -193 -209 -193 100 99 99 100 100 100 101 101 100 99 100 100 100 100 100 99 99 99 100 98 100 98 98 98 98 98 98 101 101 101 100 98 100 99 99 98 97 98 97 97 101 99 99 100 102 101 100 100 100 100 101 101 101 98 101 103 101 99 98 98 100 100 101 101 -193 -193 -193 -193 -193 -193 -193 99 98 99 101 -193 103 103 104 108 108 102 101 99 99 101 101 100 96 93 97 97 -193 -209 14 12 13 15 14 -209 0 9 -177 0 -193 -193 -193 98 99 98 -193 -193 -193 -209 -193 10 9 0 9 11 11 10 -193 -193 -193 -177 -193 -193 -193 -193 14 11 10 11 12 11 13 18 19 11 22 -193 -209 -209 -193 -193 -193 19 18 18 18 -193 -193 -193 -209 -209 -209 -193 101 102 102 103 104 102 104 104 -193 -193 23 26 27 27 30 33 30 29 25 25 -209 -209 26 26 -193 29 31 -193 32 32 32 31 31 33 33 32 31 33 32 34 34 35 35 34 35 35 34 35 34 35 35 37 40 44 52 0 0 0 0 0
    0 0 0 0 0 0 0 0 0 0 0 0 0 0 0 0 0 0 0 0 0 0 0 0 0 0 0 0 0 0 0 0 0 0 0 0 0 0 0 0 0 0 0 0 0 0 0 0 0 0 0 0 0 0 0 0 0 0 0 0 0 0 0 0 0 0 0 0 0 102 103 101 99 96 94 96 95 98 97 96 97 96 100 101 101 100 100 100 100 100 100 100 99 99 100 98 97 96 96 -193 -193 -193 99 98 99 99 100 100 100 100 99 99 100 99 100 99 100 99 99 99 100 99 101 100 100 100 100 101 101 102 102 102 101 99 100 99 98 99 97 98 97 97 101 99 99 100 102 100 100 101 101 100 101 101 101 98 100 102 99 98 97 96 99 99 100 101 -193 -193 102 102 101 -193 100 99 98 98 100 101 101 102 102 104 104 101 100 99 99 100 100 100 97 94 98 98 97 96 94 -193 -193 -193 -193 97 97 -193 -177 -193 101 98 98 99 100 99 98 97 97 -193 -193 9 9 9 10 13 13 12 13 -209 -209 476 473 471 -177 -177 -193 -193 -209 10 11 10 12 18 19 11 22 -209 -209 -209 -209 -177 -209 -209 -209 -193 17 -209 -209 -209 -193 -193 -193 102 102 103 103 104 104 103 105 106 -193 -193 24 28 28 28 31 34 30 29 25 -209 -209 -209 -209 -193 -209 -193 -193 -193 -193 30 32 -193 -193 31 32 32 30 32 31 33 33 35 34 34 34 35 34 35 33 35 34 37 40 45 54 0 0 0 0 0
    0 0 0 0 0 0 0 0 0 0 0 0 0 0 0 0 0 0 0 0 0 0 0 0 0 0 0 0 0 0 0 0 0 0 0 0 0 0 0 0 0 0 0 0 0 0 0 0 0 0 0 0 0 0 0 0 0 0 0 0 0 0 0 0 0 0 0 0 0 105 105 105 102 99 96 97 97 99 99 99 99 98 102 102 102 101 101 100 100 101 101 101 101 101 103 102 101 100 100 100 -209 100 99 97 98 99 100 100 100 99 100 99 100 99 100 99 100 100 100 101 102 101 103 103 103 103 103 104 103 104 103 102 101 98 99 99 98 99 98 98 97 97 101 99 99 100 102 101 100 101 101 101 102 101 101 98 100 101 98 97 96 95 98 98 100 100 100 101 102 102 101 101 100 99 98 97 98 99 100 101 100 102 102 100 100 99 99 100 99 100 98 95 99 100 98 98 96 98 99 101 100 99 98 102 102 101 102 99 99 99 100 99 99 98 98 95 -193 -193 -193 -193 -209 15 16 -193 -209 -209 -193 -193 -193 -193 -193 -193 98 99 100 100 -193 -209 -209 -193 -177 12 -209 -209 99 101 -209 -209 -209 102 101 -193 -209 -209 -193 -209 -193 102 102 102 102 103 103 104 104 103 105 106 105 -209 -209 31 31 30 34 37 31 29 -193 -209 -209 -209 -193 -193 98 99 104 106 109 108 109 111 111 111 110 -193 -193 31 30 32 32 34 34 34 34 35 34 36 33 36 34 37 40 46 55 0 0 0 0 0
    0 0 0 0 0 0 0 0 0 0 0 0 0 0 0 0 0 0 0 0 0 0 0 0 0 0 0 0 0 0 0 0 0 0 0 0 0 0 0 0 0 0 0 0 0 0 0 0 0 0 0 0 0 0 0 0 0 0 0 0 0 0 0 0 0 0 0 0 0 106 107 107 105 101 99 99 99 101 101 103 103 102 105 104 104 102 102 101 101 102 102 103 103 103 105 105 105 104 104 104 -193 102 101 99 99 100 100 100 101 99 100 99 100 99 100 99 100 100 101 102 104 103 104 104 105 105 105 106 106 104 103 103 101 99 100 100 99 99 98 99 98 98 102 101 101 102 103 102 101 102 102 102 103 102 102 100 101 101 98 97 96 95 97 97 99 100 100 101 102 102 102 101 101 100 100 100 101 102 101 102 101 103 103 100 99 99 99 100 99 100 98 95 100 101 99 99 96 98 99 101 102 101 100 102 102 102 103 101 100 100 101 100 99 98 99 95 100 100 99 100 101 101 101 100 99 98 100 100 98 101 98 98 100 99 99 99 99 99 98 101 102 -193 102 103 100 102 102 97 100 102 101 102 103 102 102 -193 103 102 102 103 103 103 103 103 104 104 105 106 106 105 105 -193 -209 -209 -209 -209 -209 -209 -209 -193 -193 99 101 102 100 101 104 106 109 108 109 110 109 109 109 106 106 104 -193 -193 -193 -193 33 34 34 35 34 36 33 37 35 39 40 46 -209 0 0 0 0 0
    0 0 0 0 0 0 0 0 0 0 0 0 0 0 0 0 0 0 0 0 0 0 0 0 0 0 0 0 0 0 0 0 0 0 0 0 0 0 0 0 0 0 0 0 0 0 0 0 0 0 0 0 0 0 0 0 0 0 0 0 0 0 0 0 0 0 0 0 0 108 108 108 106 104 103 100 101 103 104 106 107 106 108 108 107 -193 104 103 102 103 103 105 105 105 107 107 107 107 107 107 105 104 -193 101 100 100 100 100 101 99 99 99 99 99 99 99 100 101 103 103 107 106 107 107 107 107 107 107 107 105 104 103 102 100 101 100 100 100 99 99 99 100 103 103 104 104 104 103 103 104 103 104 104 104 104 102 103 103 99 98 97 95 97 96 99 100 100 101 102 102 102 102 102 101 103 104 104 105 104 105 104 104 103 100 99 99 99 99 99 100 99 96 100 102 101 101 98 99 100 103 103 102 102 103 104 103 104 102 101 101 101 100 100 98 99 95 99 100 99 100 101 100 100 99 99 98 100 100 99 101 99 100 100 100 100 99 100 99 97 101 101 99 101 102 100 101 103 99 101 102 101 103 103 103 103 103 103 103 102 103 103 103 104 104 104 105 106 106 107 106 105 108 110 110 -209 -209 -209 -209 -209 -193 102 102 102 103 103 103 105 106 108 107 108 109 108 109 109 108 107 105 105 104 102 102 97 100 -193 -209 -209 -193 32 37 36 39 -193 -193 -177 0 0 0 0 0
    0 0 0 0 0 0 0 0 0 0 0 0 0 0 0 0 0 0 0 0 0 0 0 0 0 0 0 0 0 0 0 0 0 0 0 0 0 0 0 0 0 0 0 0 0 0 0 0 0 0 0 0 0 0 0 0 0 0 0 0 0 0 0 0 0 0 0 0 0 109 109 109 107 107 106 102 102 105 106 109 110 109 110 111 110 109 106 105 103 103 103 108 106 106 108 108 108 108 108 109 106 106 106 103 102 102 102 101 101 99 100 100 100 100 101 100 102 103 105 106 111 108 109 108 109 109 108 109 109 105 104 104 103 101 102 102 101 101 100 101 100 102 104 104 105 105 106 105 104 105 105 105 105 105 105 103 104 104 100 98 97 96 97 96 99 100 100 102 102 103 102 102 103 103 105 106 106 107 107 108 107 106 104 101 99 99 100 100 100 101 100 99 104 105 105 105 104 102 103 106 106 105 105 105 106 104 105 103 103 102 102 101 100 99 100 96 100 101 99 100 101 100 100 100 99 99 100 100 99 102 100 101 101 101 101 100 100 100 97 100 100 98 100 101 101 101 102 99 101 103 101 103 104 103 103 103 104 104 103 104 103 103 104 104 104 106 106 107 107 106 106 107 108 109 111 117 117 110 107 105 105 104 104 104 103 104 105 106 108 107 108 109 108 109 108 107 107 105 105 104 104 104 102 105 107 108 111 111 109 110 110 110 109 113 111 0 0 0 0 0
    0 0 0 0 0 0 0 0 0 0 0 0 0 0 0 0 0 0 0 0 0 0 0 0 0 0 0 0 0 0 0 0 0 0 0 0 0 0 0 0 0 0 0 0 0 0 0 0 0 0 0 0 0 0 0 0 0 0 0 0 0 0 0 0 0 0 0 0 0 110 110 110 108 108 109 105 105 108 109 114 114 113 113 114 112 112 108 108 -209 -209 104 111 108 108 109 109 109 109 109 110 106 108 109 106 105 105 104 103 103 101 101 101 101 101 102 101 103 105 106 108 113 109 110 109 110 109 109 110 110 105 106 105 104 103 103 103 102 102 102 102 103 104 105 105 106 106 108 106 105 106 106 106 106 106 106 104 105 104 101 100 99 98 98 96 100 100 101 102 103 103 103 103 104 105 106 108 108 109 109 110 108 108 106 102 100 101 101 102 102 103 102 102 105 106 106 107 107 105 105 107 107 108 108 107 107 106 106 104 104 104 103 102 102 100 101 97 102 102 100 101 101 100 101 100 100 100 101 101 100 103 101 102 103 102 102 101 102 102 98 101 101 100 101 102 102 102 103 99 101 103 102 103 104 104 104 104 104 104 104 105 104 104 105 105 105 107 106 107 107 106 106 109 111 111 113 117 118 114 112 108 107 106 105 105 105 105 106 106 109 107 108 108 108 109 108 107 107 105 106 105 106 106 105 108 109 111 112 113 110 112 113 114 112 116 113 0 0 0 0 0
    0 0 0 0 0 0 0 0 0 0 0 0 0 0 0 0 0 0 0 0 0 0 0 0 0 0 0 0 0 0 0 0 0 0 0 0 0 0 0 0 0 0 0 0 0 0 0 0 0 0 0 0 0 0 0 0 0 0 0 0 0 0 0 0 0 0 0 0 0 110 110 109 108 110 111 107 108 113 114 118 117 117 116 117 115 116 113 113 -209 -193 107 116 110 109 110 111 110 110 109 110 106 109 110 107 107 106 105 105 104 103 102 103 103 102 104 103 106 108 108 110 115 110 110 110 110 110 109 111 110 105 106 106 105 103 104 104 103 103 103 103 104 105 106 106 107 107 110 108 107 107 107 107 107 107 107 105 105 104 102 101 100 99 99 98 101 100 102 103 104 105 104 105 105 106 108 111 110 110 110 111 110 109 107 104 102 102 103 103 104 104 104 105 106 107 107 107 107 105 107 108 108 110 109 108 109 107 108 105 105 105 104 103 103 102 102 100 103 103 102 103 103 102 102 101 101 101 102 102 101 104 103 103 104 104 104 103 103 104 101 103 103 102 104 104 104 104 104 101 102 103 103 104 105 104 104 105 105 105 105 105 105 104 105 105 105 108 107 107 108 107 108 113 114 114 114 116 117 115 114 110 109 108 107 106 106 106 107 107 110 108 109 109 109 110 109 108 109 108 110 110 111 111 110 112 114 115 115 116 112 113 113 115 114 116 114 0 0 0 0 0
    0 0 0 0 0 0 0 0 0 0 0 0 0 0 0 0 0 0 0 0 0 0 0 0 0 0 0 0 0 0 0 0 0 0 0 0 0 0 0 0 0 0 0 0 0 0 0 0 0 0 0 0 0 0 0 0 0 0 0 0 0 0 0 0 0 0 0 0 0 110 110 109 108 110 112 -193 111 115 115 118 117 117 116 117 116 116 115 115 -193 -193 110 117 111 110 111 111 110 110 110 111 106 109 110 108 108 107 106 106 106 105 104 105 106 104 107 105 109 110 109 110 115 111 111 110 111 110 110 111 111 105 107 107 106 104 105 104 104 104 105 104 105 106 107 107 108 108 112 109 108 108 108 108 108 107 108 105 105 105 103 101 100 100 100 99 101 100 102 103 104 105 105 106 106 108 109 113 111 111 112 112 111 109 108 106 104 104 104 105 106 106 106 107 108 108 108 109 109 106 108 109 109 113 110 109 110 108 109 106 106 107 105 104 104 103 104 102 105 105 104 105 105 105 104 102 102 102 102 102 102 104 104 105 106 105 105 105 105 106 104 105 105 105 107 107 107 107 106 103 103 104 104 105 106 106 105 106 106 106 106 106 106 105 106 106 106 110 109 108 109 108 109 117 116 114 114 115 117 115 115 111 110 110 110 109 109 108 109 109 113 110 111 110 111 112 110 110 111 109 113 114 114 114 113 115 116 116 117 117 115 116 116 117 118 119 116 0 0 0 0 0
    0 0 0 0 0 0 0 0 0 0 0 0 0 0 0 0 0 0 0 0 0 0 0 0 0 0 0 0 0 0 0 0 0 0 0 0 0 0 0 0 0 0 0 0 0 0 0 0 0 0 0 0 0 0 0 0 0 0 0 0 0 0 0 0 0 0 0 0 0 110 110 109 107 110 112 -193 112 115 113 117 116 116 116 116 115 116 115 116 115 116 112 117 111 111 111 111 111 111 110 111 107 110 111 109 110 109 107 109 109 108 107 108 109 107 110 109 113 113 111 111 116 111 111 111 111 110 110 111 111 105 108 108 108 106 106 105 105 105 107 106 -193 107 108 108 110 109 114 110 109 109 109 109 109 108 109 106 106 106 104 102 101 101 101 99 101 101 103 103 105 106 106 107 108 110 111 115 112 112 112 113 112 110 109 107 105 105 106 107 107 107 108 109 109 110 110 110 110 108 111 111 110 114 112 111 112 109 110 108 108 108 106 106 106 105 106 105 107 108 107 107 107 106 105 103 103 103 103 103 103 105 105 106 107 107 107 106 107 108 106 107 108 108 113 113 115 113 111 106 105 105 106 107 107 107 107 107 107 107 107 107 107 107 107 108 109 114 112 110 111 110 113 119 117 115 116 116 117 116 115 112 112 112 113 111 113 110 113 113 115 112 113 111 111 112 111 110 111 109 113 113 115 115 114 116 117 117 118 119 118 119 118 118 119 119 116 0 0 0 0 0
    0 0 0 0 0 0 0 0 0 0 0 0 0 0 0 0 0 0 0 0 0 0 0 0 0 0 0 0 0 0 0 0 0 0 0 0 0 0 0 0 0 0 0 0 0 0 0 0 0 0 0 0 0 0 0 0 0 0 0 0 0 0 0 0 0 0 0 0 0 110 110 110 107 110 112 107 110 114 110 115 114 114 115 115 115 115 116 116 116 116 112 117 112 111 112 112 111 111 110 111 107 111 112 110 111 110 108 111 111 111 110 110 111 109 112 111 115 114 111 111 116 111 111 110 111 110 109 111 111 105 109 109 109 108 109 107 107 107 109 -193 -193 109 109 110 112 110 115 111 109 110 110 110 109 108 109 106 106 107 106 104 102 103 103 102 103 103 105 106 107 107 107 108 109 111 111 115 112 112 112 113 112 111 109 108 105 106 106 108 108 108 109 110 111 111 111 112 112 110 114 114 112 116 113 112 113 110 111 109 109 109 107 107 107 106 108 107 109 110 109 110 108 108 106 104 104 104 104 104 104 107 107 107 108 108 108 108 108 109 108 108 112 112 116 116 117 116 115 109 106 107 109 109 109 108 108 108 108 109 109 109 108 108 109 110 112 117 116 114 114 115 118 120 119 117 117 117 118 116 116 113 113 114 115 114 115 113 115 115 116 112 112 110 110 111 110 110 112 111 115 115 117 118 117 119 119 119 119 120 120 121 119 119 119 118 116 0 0 0 0 0
    0 0 0 0 0 0 0 0 0 0 0 0 0 0 0 0 0 0 0 0 0 0 0 0 0 0 0 0 0 0 0 0 0 0 0 0 0 0 0 0 0 0 0 0 0 0 0 0 0 0 0 0 0 0 0 0 0 0 0 0 0 0 0 0 0 0 0 0 0 110 110 110 107 110 110 106 108 110 108 113 112 113 114 115 114 115 116 116 -193 -193 112 117 111 111 112 112 111 111 110 112 107 113 114 112 112 111 109 113 113 113 111 111 112 110 112 111 113 114 110 110 116 110 111 110 110 109 109 110 110 105 109 109 109 109 111 109 109 109 112 -193 -193 112 111 110 113 111 115 111 109 110 110 110 109 109 109 107 107 108 107 105 104 105 104 104 105 106 107 108 109 109 109 109 110 111 111 115 111 111 111 112 112 110 110 109 105 107 106 108 108 108 109 111 111 111 111 113 113 112 115 115 113 117 114 113 114 111 112 110 110 110 107 108 108 107 110 109 111 112 111 113 110 109 107 105 106 106 106 106 105 109 109 109 109 109 110 109 110 111 109 110 114 114 117 117 118 116 116 110 107 107 112 111 111 110 110 110 110 112 112 110 109 111 112 113 116 118 118 118 119 120 121 121 121 120 119 119 118 117 117 114 115 115 116 116 116 115 116 115 116 111 111 108 108 110 110 110 113 114 116 116 117 119 118 119 120 120 120 122 122 122 120 120 121 120 118 0 0 0 0 0
    0 0 0 0 0 0 0 0 0 0 0 0 0 0 0 0 0 0 0 0 0 0 0 0 0 0 0 0 0 0 0 0 0 0 0 0 0 0 0 0 0 0 0 0 0 0 0 0 0 0 0 0 0 0 0 0 0 0 0 0 0 0 0 0 0 0 0 0 0 110 110 110 107 110 108 105 107 108 107 110 110 110 112 113 112 114 115 115 -193 -193 111 117 111 111 112 111 111 111 111 112 107 113 114 112 113 112 110 114 115 113 111 111 111 110 111 111 112 113 110 110 116 110 111 110 110 109 109 110 110 105 109 108 109 110 111 109 108 109 -193 -193 -193 112 112 110 114 112 115 112 110 110 110 110 109 109 110 106 106 107 107 105 104 105 104 104 105 106 107 109 110 110 110 109 110 110 111 115 111 110 110 111 111 110 110 109 106 108 107 108 108 108 110 111 111 112 111 113 114 112 115 114 112 117 114 113 113 111 112 111 111 111 108 108 110 108 112 112 114 114 114 117 112 112 109 106 107 107 108 107 107 111 111 110 110 111 111 110 111 112 110 110 114 115 116 117 119 117 116 112 110 109 115 114 112 112 112 111 113 114 114 111 111 116 115 116 118 119 119 121 121 122 122 122 122 122 121 120 119 118 118 115 116 116 117 117 117 117 118 116 119 -193 117 110 112 113 114 114 118 116 117 117 118 119 118 119 120 121 121 123 123 123 122 122 122 121 120 0 0 0 0 0
    0 0 0 0 0 0 0 0 0 0 0 0 0 0 0 0 0 0 0 0 0 0 0 0 0 0 0 0 0 0 0 0 0 0 0 0 0 0 0 0 0 0 0 0 0 0 0 0 0 0 0 0 0 0 0 0 0 0 0 0 0 0 0 0 0 0 0 0 0 111 111 110 107 110 107 104 106 107 106 109 108 109 111 112 111 112 -193 -209 -209 -209 112 117 112 112 112 112 112 111 111 111 106 112 113 110 113 111 110 114 115 114 112 112 -193 110 111 111 112 114 110 110 116 110 111 110 110 109 108 110 110 105 108 107 108 110 111 109 109 109 111 111 112 112 112 110 114 112 115 113 110 110 110 110 110 109 110 107 106 107 107 105 103 104 103 103 104 106 107 108 109 109 109 109 110 110 110 115 110 110 110 111 111 110 110 109 106 108 107 108 108 108 110 111 111 112 112 113 114 112 114 113 112 117 114 113 113 111 112 111 111 112 108 109 111 109 113 113 115 115 115 118 115 112 109 106 107 107 108 107 107 112 112 110 111 111 112 111 111 112 110 110 114 115 116 117 119 118 117 113 111 110 116 113 112 112 111 111 114 115 115 111 114 118 118 119 120 121 121 123 123 124 123 123 123 123 121 121 120 118 118 116 118 117 118 118 119 119 119 119 121 -193 122 122 121 120 119 119 120 119 118 118 118 119 119 120 121 122 122 124 124 124 123 123 123 122 121 0 0 0 0 0
    0 0 0 0 0 0 0 0 0 0 0 0 0 0 0 0 0 0 0 0 0 0 0 0 0 0 0 0 0 0 0 0 0 0 0 0 0 0 0 0 0 0 0 0 0 0 0 0 0 0 0 0 0 0 0 0 0 0 0 0 0 0 0 0 0 0 0 0 0 111 111 110 107 111 107 105 107 106 105 108 108 108 110 112 -193 -193 -193 -209 -209 -209 115 117 113 112 113 112 112 111 111 112 106 113 114 111 115 113 111 115 116 115 -193 112 -193 110 110 111 -193 -193 110 111 116 111 111 111 110 110 108 109 109 104 107 106 107 109 111 108 108 109 111 111 112 112 113 111 115 113 116 114 110 110 110 110 110 109 110 107 106 108 108 106 104 105 103 103 104 106 106 107 108 108 109 109 110 110 110 115 110 110 110 111 110 110 110 109 105 107 107 108 108 108 109 110 111 112 112 113 114 112 114 113 112 117 113 112 113 111 112 111 112 112 107 109 111 109 113 113 114 115 115 117 114 111 108 105 106 106 108 107 107 111 112 110 111 112 112 111 112 112 110 111 114 115 115 116 119 119 118 115 113 111 117 113 112 112 111 112 114 115 115 111 116 119 119 119 120 121 122 124 124 125 124 124 124 124 123 123 121 120 119 117 119 119 119 120 120 121 -193 -193 123 -193 -193 -193 124 122 122 120 120 119 118 118 118 119 119 120 121 122 123 125 124 124 123 123 122 122 120 0 0 0 0 0
    0 0 0 0 0 0 0 0 0 0 0 0 0 0 0 0 0 0 0 0 0 0 0 0 0 0 0 0 0 0 0 0 0 0 0 0 0 0 0 0 0 0 0 0 0 0 0 0 0 0 0 0 0 0 0 0 0 0 0 0 0 0 0 0 0 0 0 0 0 111 111 110 108 115 108 105 110 108 105 109 107 107 111 113 113 114 117 118 -193 117 116 118 113 113 114 113 113 112 112 113 106 116 117 118 119 119 117 119 119 117 -193 114 112 110 109 113 -193 -193 -193 113 118 113 112 112 110 110 109 109 109 104 106 105 106 109 110 -193 109 110 111 113 113 114 114 112 116 113 116 115 110 110 111 110 110 110 111 108 107 110 110 107 106 106 104 104 105 108 106 106 107 108 109 110 110 109 109 116 110 110 110 110 110 110 110 109 105 107 106 107 107 107 109 110 111 112 112 113 114 112 114 113 112 117 113 112 113 111 112 111 111 112 107 109 111 109 112 113 114 115 115 117 113 110 108 105 105 105 107 107 106 111 111 110 111 112 112 111 112 113 111 111 115 115 115 116 118 119 118 116 114 112 118 114 113 113 112 112 114 115 115 111 116 119 118 119 120 121 122 124 124 125 125 125 126 126 125 124 123 122 121 119 121 120 121 121 121 122 122 -193 -193 -193 -193 -193 -193 122 122 121 120 119 118 118 118 120 120 120 122 123 123 125 123 123 122 122 122 121 121 0 0 0 0 0
    0 0 0 0 0 0 0 0 0 0 0 0 0 0 0 0 0 0 0 0 0 0 0 0 0 0 0 0 0 0 0 0 0 0 0 0 0 0 0 0 0 0 0 0 0 0 0 0 0 0 0 0 0 0 0 0 0 0 0 0 0 0 0 0 0 0 0 0 0 113 112 113 110 121 117 119 122 -193 108 111 107 107 113 116 -193 117 120 120 -193 -209 118 119 114 114 114 113 114 113 113 114 108 119 120 122 121 121 120 121 120 119 118 116 114 115 111 117 -209 -193 -209 118 120 115 114 114 111 111 109 110 109 105 109 108 109 112 114 110 111 114 114 116 115 -193 -193 113 116 114 116 116 111 111 112 112 112 112 113 110 108 114 115 112 110 111 107 106 109 113 109 109 109 110 111 113 113 108 108 116 110 110 110 110 110 110 110 110 105 108 107 107 108 108 110 111 112 114 112 114 115 113 115 114 112 117 113 112 113 111 112 111 111 112 108 109 112 109 113 114 115 117 117 118 116 111 109 107 107 106 108 107 107 111 111 110 110 112 112 111 112 113 111 112 115 115 114 116 -209 -193 -193 117 114 113 117 114 113 113 112 112 114 115 115 112 117 119 119 119 120 121 123 125 125 126 126 127 128 129 127 127 126 127 125 121 123 122 123 122 123 122 122 122 124 -193 -193 125 125 122 122 121 120 121 119 119 119 122 122 123 124 124 124 125 123 123 122 122 122 122 121 0 0 0 0 0
    0 0 0 0 0 0 0 0 0 0 0 0 0 0 0 0 0 0 0 0 0 0 0 0 0 0 0 0 0 0 0 0 0 0 0 0 0 0 0 0 0 0 0 0 0 0 0 0 0 0 0 0 0 0 0 0 0 0 0 0 0 0 0 0 0 0 0 0 0 115 114 115 115 122 121 122 124 123 121 119 112 109 117 119 -193 122 125 125 125 -193 121 -193 116 115 116 115 115 115 115 117 113 121 121 123 122 122 121 121 121 119 119 117 115 117 -193 -193 125 124 121 122 122 118 117 116 113 112 111 112 111 107 114 112 115 117 118 116 117 -193 119 120 119 -193 -193 118 119 116 118 119 114 114 115 115 115 115 116 113 110 119 119 119 119 121 120 121 122 121 118 116 113 115 116 118 117 110 108 117 110 110 111 111 111 111 112 112 106 111 111 109 108 108 111 112 113 115 113 114 116 114 116 116 114 118 114 113 114 112 112 112 111 113 109 111 116 112 116 117 118 119 118 118 118 112 111 109 109 107 109 108 108 112 111 110 111 113 113 112 112 113 111 113 116 116 -193 -193 -193 -193 -193 117 114 113 117 114 113 112 113 113 114 115 115 113 117 119 119 119 120 121 123 125 125 126 126 127 129 129 129 129 128 130 128 123 125 123 123 123 123 123 122 123 125 125 127 127 129 125 129 127 126 125 122 123 123 126 126 126 127 127 125 127 124 124 123 123 122 122 122 0 0 0 0 0
    0 0 0 0 0 0 0 0 0 0 0 0 0 0 0 0 0 0 0 0 0 0 0 0 0 0 0 0 0 0 0 0 0 0 0 0 0 0 0 0 0 0 0 0 0 0 0 0 0 0 0 0 0 0 0 0 0 0 0 0 0 0 0 0 0 0 0 0 0 116 116 117 120 123 123 124 126 124 123 123 120 117 121 125 125 126 127 128 127 126 123 122 118 117 117 117 117 118 117 119 118 122 123 124 123 123 121 122 121 119 119 118 115 117 -193 120 125 124 122 123 123 120 119 118 116 114 113 116 115 111 120 119 -193 119 121 120 121 122 122 122 122 123 122 122 122 120 120 122 117 117 118 118 118 118 118 116 113 121 121 121 121 122 122 123 125 124 122 121 120 121 121 122 121 114 108 119 112 112 113 114 113 114 116 115 108 117 118 117 111 109 112 112 115 116 114 115 117 115 116 117 115 118 114 113 114 112 113 113 112 115 111 116 120 118 121 121 122 122 122 120 121 116 116 112 111 109 112 110 109 113 112 110 111 113 113 112 112 113 111 113 116 117 115 -209 -209 -209 -209 119 116 115 117 113 113 112 113 113 115 115 115 113 117 119 119 119 119 121 123 126 125 127 127 128 130 130 129 129 127 130 128 125 126 124 124 123 124 124 123 124 126 127 130 130 132 129 132 132 130 127 125 125 125 128 127 127 127 128 126 128 124 124 123 123 123 123 123 0 0 0 0 0
    0 0 0 0 0 0 0 0 0 0 0 0 0 0 0 0 0 0 0 0 0 0 0 0 0 0 0 0 0 0 0 0 0 0 0 0 0 0 0 0 0 0 0 0 0 0 0 0 0 0 0 0 0 0 0 0 0 0 0 0 0 0 0 0 0 0 0 0 0 119 119 121 123 126 125 126 127 126 125 126 123 122 124 128 126 128 127 128 128 127 125 124 -193 119 -193 118 119 -193 119 -193 -193 123 124 125 124 124 122 122 122 120 120 119 117 119 -193 121 126 125 123 124 124 122 121 120 120 117 116 118 118 118 122 122 122 121 122 122 122 124 123 123 123 124 124 123 123 122 121 125 120 120 120 120 120 120 120 119 116 122 123 123 123 124 125 126 127 127 125 124 123 123 123 124 122 119 113 120 114 114 115 116 116 117 118 118 113 120 121 121 119 115 115 114 116 117 116 116 117 115 117 117 116 117 114 113 114 113 114 114 113 116 115 118 121 121 122 122 123 123 123 122 123 121 121 119 118 115 116 114 111 115 114 111 112 114 113 112 112 113 111 113 116 118 117 121 123 124 122 122 119 119 118 113 112 112 113 113 115 115 114 113 117 119 119 119 120 122 123 127 126 128 128 129 130 130 128 129 127 130 129 127 129 126 126 125 125 126 125 126 127 128 130 130 132 129 131 132 129 126 124 126 125 127 127 126 126 128 126 129 124 125 124 125 125 125 125 0 0 0 0 0
    0 0 0 0 0 0 0 0 0 0 0 0 0 0 0 0 0 0 0 0 0 0 0 0 0 0 0 0 0 0 0 0 0 0 0 0 0 0 0 0 0 0 0 0 0 0 0 0 0 0 0 0 0 0 0 0 0 0 0 0 0 0 0 0 0 0 0 0 0 123 123 125 127 129 128 128 129 128 126 127 125 124 126 130 127 128 127 128 128 128 126 125 122 122 121 -209 -193 122 121 122 122 124 125 125 125 125 123 124 124 122 122 122 120 121 122 123 128 125 125 125 126 123 123 122 122 119 119 121 121 121 124 124 124 123 123 123 123 125 124 124 125 125 125 125 125 124 123 126 122 122 122 122 122 122 122 121 119 123 125 124 124 126 127 128 128 128 127 126 124 124 124 124 123 121 120 122 118 118 117 119 119 120 121 120 119 122 123 123 122 121 119 117 118 119 117 118 118 116 118 119 118 118 115 114 115 113 115 115 114 117 117 120 122 123 124 124 124 125 124 122 124 123 123 123 122 120 121 117 113 116 115 113 113 115 113 113 113 114 113 116 118 120 121 124 125 125 124 124 122 122 119 114 113 113 114 114 115 115 115 114 118 120 120 119 120 123 124 128 128 128 129 129 130 130 128 130 127 130 129 127 130 128 127 126 127 127 126 128 129 129 130 130 131 130 131 133 129 127 126 128 127 129 129 128 127 130 127 130 124 126 126 126 127 127 127 0 0 0 0 0
    0 0 0 0 0 0 0 0 0 0 0 0 0 0 0 0 0 0 0 0 0 0 0 0 0 0 0 0 0 0 0 0 0 0 0 0 0 0 0 0 0 0 0 0 0 0 0 0 0 0 0 0 0 0 0 0 0 0 0 0 0 0 0 0 0 0 0 0 0 127 126 128 130 130 129 129 130 129 127 128 127 126 128 131 128 129 128 128 128 128 127 126 124 123 123 122 123 124 122 123 124 125 125 126 125 125 125 125 125 125 125 124 122 123 124 124 129 126 126 126 127 125 125 125 125 122 123 124 124 123 125 125 125 124 124 124 124 126 125 125 126 126 126 126 126 125 124 128 124 123 123 124 123 123 124 123 121 124 125 125 125 128 128 129 129 130 129 127 125 125 125 125 124 123 122 124 120 120 119 121 121 121 122 122 121 123 125 125 123 123 122 120 121 121 120 120 119 117 119 120 120 119 116 115 116 114 116 116 114 118 120 122 123 124 125 125 125 126 125 123 125 125 124 125 125 124 125 120 118 118 117 116 116 116 115 115 116 116 115 118 119 122 122 125 125 125 125 124 123 123 120 114 113 113 115 115 115 115 115 115 119 120 121 120 121 125 126 129 128 129 129 130 130 130 127 130 128 130 131 128 132 132 131 129 131 130 128 131 132 131 131 132 132 131 132 133 130 130 130 131 130 131 132 131 130 132 130 -193 -193 128 127 127 128 127 127 0 0 0 0 0
    0 0 0 0 0 0 0 0 0 0 0 0 0 0 0 0 0 0 0 0 0 0 0 0 0 0 0 0 0 0 0 0 0 0 0 0 0 0 0 0 0 0 0 0 0 0 0 0 0 0 0 0 0 0 0 0 0 0 0 0 0 0 0 0 0 0 0 0 0 128 127 129 131 130 129 129 130 130 128 129 128 128 130 132 129 129 129 129 129 129 128 126 125 125 124 124 125 126 124 125 126 127 126 128 126 126 125 126 126 126 126 125 123 124 124 125 129 126 126 126 128 127 127 126 127 124 126 128 127 125 127 127 126 126 126 126 125 127 126 126 127 127 127 127 127 126 125 129 125 125 125 125 124 125 125 124 122 125 125 125 126 129 129 129 130 129 129 128 127 127 126 126 125 125 124 125 123 122 120 123 122 123 123 123 123 125 126 126 124 124 124 123 123 124 122 122 121 119 120 122 122 121 117 116 117 116 117 118 117 119 123 123 125 126 127 127 126 127 126 123 126 125 124 126 125 125 125 124 122 121 120 120 119 119 118 118 118 119 118 120 120 124 123 125 125 125 125 125 124 124 121 116 115 115 117 117 116 116 116 116 120 121 122 121 122 127 127 129 129 129 130 130 130 130 128 131 130 132 134 -193 136 137 137 135 136 135 134 135 134 134 133 133 133 131 133 134 131 133 133 135 -193 135 136 133 134 134 132 -193 -193 130 130 128 130 129 129 0 0 0 0 0
    0 0 0 0 0 0 0 0 0 0 0 0 0 0 0 0 0 0 0 0 0 0 0 0 0 0 0 0 0 0 0 0 0 0 0 0 0 0 0 0 0 0 0 0 0 0 0 0 0 0 0 0 0 0 0 0 0 0 0 0 0 0 0 0 0 0 0 0 0 131 130 130 131 130 130 130 131 130 128 129 128 128 130 131 129 129 129 129 129 129 128 127 125 126 125 125 127 126 124 126 126 127 126 127 126 126 125 127 127 126 127 126 124 125 125 126 129 126 125 126 127 127 127 127 127 125 127 129 127 125 127 127 126 126 126 126 126 126 126 126 127 127 126 126 127 126 126 130 126 126 127 127 126 126 127 126 123 127 126 126 127 129 129 130 130 130 129 129 128 128 127 127 126 127 126 127 125 124 122 127 124 125 125 125 124 125 126 126 124 125 125 124 124 125 123 124 123 121 122 124 123 123 119 118 118 118 120 121 119 121 128 125 126 128 127 127 127 127 126 124 126 126 124 127 126 127 126 127 125 123 124 123 122 122 120 120 120 121 120 122 121 125 124 125 125 125 125 125 125 125 122 118 117 117 119 118 118 117 117 118 121 122 123 122 123 129 127 129 129 129 130 130 131 131 128 133 132 134 136 137 138 139 139 139 139 138 137 137 136 135 134 133 133 132 133 134 132 135 136 138 140 138 139 137 137 138 136 137 134 134 135 132 134 133 134 0 0 0 0 0
    0 0 0 0 0 0 0 0 0 0 0 0 0 0 0 0 0 0 0 0 0 0 0 0 0 0 0 0 0 0 0 0 0 0 0 0 0 0 0 0 0 0 0 0 0 0 0 0 0 0 0 0 0 0 0 0 0 0 0 0 0 0 0 0 0 0 0 0 0 134 131 131 131 130 129 130 130 129 127 128 127 128 130 131 129 129 129 129 129 130 129 127 126 127 125 126 127 126 124 125 126 127 125 126 125 125 125 126 126 126 126 126 125 125 125 126 128 125 125 126 127 126 127 127 126 125 128 130 128 125 126 126 125 125 125 125 125 126 126 126 127 126 126 126 126 125 126 129 126 126 127 128 127 128 128 126 124 128 127 127 128 130 130 131 130 131 130 130 129 129 128 127 126 128 127 128 126 126 124 131 127 127 126 126 125 126 126 126 124 125 125 126 125 127 125 126 125 123 123 125 124 124 121 121 121 122 124 127 123 125 131 126 127 128 127 127 126 127 126 124 126 126 124 127 126 127 127 129 127 125 127 125 125 126 124 123 123 123 123 123 122 126 124 125 126 125 125 125 125 125 122 121 119 119 121 120 120 119 120 121 122 124 124 123 124 131 127 129 129 130 130 130 130 131 127 133 132 134 137 137 139 140 139 140 140 139 138 137 136 135 133 133 133 132 134 135 134 137 138 141 141 140 140 139 139 140 140 141 139 139 139 137 138 137 -193 0 0 0 0 0
    0 0 0 0 0 0 0 0 0 0 0 0 0 0 0 0 0 0 0 0 0 0 0 0 0 0 0 0 0 0 0 0 0 0 0 0 0 0 0 0 0 0 0 0 0 0 0 0 0 0 0 0 0 0 0 0 0 0 0 0 0 0 0 0 0 0 0 0 0 134 131 130 130 129 129 129 129 128 125 127 127 128 130 131 129 130 129 130 130 130 129 128 126 127 126 126 127 127 124 125 127 128 126 127 126 125 125 126 126 126 125 126 125 125 125 126 128 125 125 125 126 126 127 127 126 125 128 129 128 125 126 126 125 125 125 125 125 126 125 126 127 126 126 126 127 125 127 129 127 126 128 128 127 128 128 126 124 128 127 127 128 130 130 131 130 131 130 130 129 129 128 127 127 129 128 128 127 127 126 132 128 129 127 127 126 127 127 127 124 126 125 127 126 128 127 128 126 124 124 125 123 -193 120 122 123 125 128 129 126 128 132 127 127 128 127 127 126 127 126 124 127 126 125 127 126 128 128 131 129 127 130 128 128 130 127 125 126 125 125 124 124 127 125 126 126 125 126 125 125 126 123 122 121 121 123 122 123 122 122 123 123 125 125 124 125 132 127 128 128 130 129 129 129 130 126 133 132 134 137 138 139 140 140 140 141 140 138 137 137 136 134 135 135 134 135 136 135 138 139 142 141 141 140 140 140 141 141 143 140 142 141 138 139 138 138 0 0 0 0 0
    0 0 0 0 0 0 0 0 0 0 0 0 0 0 0 0 0 0 0 0 0 0 0 0 0 0 0 0 0 0 0 0 0 0 0 0 0 0 0 0 0 0 0 0 0 0 0 0 0 0 0 0 0 0 0 0 0 0 0 0 0 0 0 0 0 0 0 0 0 133 131 130 130 129 129 128 128 127 125 126 127 129 130 132 130 130 129 130 130 130 129 128 126 127 126 128 129 128 125 127 129 129 127 127 126 125 126 126 127 126 126 126 126 125 126 127 128 125 125 125 126 126 126 127 126 124 127 128 127 125 125 125 125 125 124 124 124 125 125 125 126 125 125 126 126 125 127 129 127 127 128 129 128 128 128 126 124 129 127 127 128 130 130 131 130 131 130 129 129 129 128 127 127 130 128 129 127 127 126 132 128 129 127 127 127 127 127 127 124 126 125 126 125 128 127 128 126 124 124 124 123 -193 120 121 122 125 127 129 127 127 132 128 127 129 127 127 126 127 127 124 127 127 125 127 126 128 128 131 130 127 130 128 129 130 129 126 128 125 126 125 124 128 125 126 126 125 126 125 125 126 123 123 123 123 125 124 125 125 126 126 126 128 128 126 128 133 128 129 129 130 129 129 129 131 127 134 133 135 137 138 139 140 140 140 141 140 139 138 137 136 135 135 136 135 135 136 136 139 140 143 141 141 141 141 141 141 141 142 140 142 141 139 140 139 141 0 0 0 0 0
    0 0 0 0 0 0 0 0 0 0 0 0 0 0 0 0 0 0 0 0 0 0 0 0 0 0 0 0 0 0 0 0 0 0 0 0 0 0 0 0 0 0 0 0 0 0 0 0 0 0 0 0 0 0 0 0 0 0 0 0 0 0 0 0 0 0 0 0 0 132 -193 130 130 130 129 129 128 127 126 126 127 130 130 132 130 130 129 130 130 130 129 129 126 127 127 129 130 128 125 126 129 129 127 127 127 125 126 126 127 126 127 127 127 126 126 127 129 125 125 125 125 125 126 126 125 124 127 127 126 124 124 125 124 124 124 123 123 125 124 125 126 125 125 125 126 125 127 129 126 127 128 128 128 128 128 126 125 129 127 127 128 130 130 131 129 131 129 129 129 129 128 127 127 130 129 128 127 127 126 132 128 129 127 127 127 127 127 127 124 126 125 126 126 127 127 128 126 124 124 123 122 120 119 120 122 127 129 130 128 127 132 128 127 129 127 127 127 127 127 125 127 127 125 126 126 127 128 130 129 127 129 128 129 130 128 126 127 125 127 126 125 128 126 126 126 125 126 125 126 126 124 124 125 125 127 126 128 127 129 129 128 130 131 129 131 135 129 129 130 130 130 129 129 131 127 135 135 136 138 138 140 140 140 139 140 139 139 -193 138 137 135 135 136 135 135 137 137 139 140 143 141 141 141 141 141 141 140 142 139 141 140 138 140 140 143 0 0 0 0 0
    0 0 0 0 0 0 0 0 0 0 0 0 0 0 0 0 0 0 0 0 0 0 0 0 0 0 0 0 0 0 0 0 0 0 0 0 0 0 0 0 0 0 0 0 0 0 0 0 0 0 0 0 0 0 0 0 0 0 0 0 0 0 0 0 0 0 0 0 0 -193 -193 132 132 132 131 131 130 129 128 127 128 130 131 133 131 130 129 130 130 130 129 128 125 126 125 127 129 127 124 126 130 130 128 128 127 125 126 126 127 126 126 126 126 126 126 127 128 125 125 124 125 125 125 126 125 124 126 127 126 124 124 124 123 124 123 123 123 125 125 125 126 125 125 125 126 125 128 129 126 127 128 128 127 128 128 125 125 129 126 126 128 129 129 130 129 130 130 130 130 130 128 128 128 130 129 128 128 127 126 132 128 129 126 127 127 128 127 127 124 126 125 126 126 127 127 127 125 124 123 122 121 119 119 119 122 129 129 131 129 127 133 129 128 129 128 128 127 128 127 125 126 126 125 126 125 127 128 130 129 128 130 129 130 130 129 126 127 126 127 126 126 128 126 126 127 125 126 125 126 126 124 125 126 125 128 127 129 128 130 130 129 131 131 129 131 134 129 129 129 130 130 129 129 131 127 136 136 136 138 138 140 140 140 139 141 139 139 -193 139 137 136 136 136 136 136 137 138 140 140 144 142 142 141 141 141 141 140 142 139 141 140 139 143 143 149 0 0 0 0 0
    0 0 0 0 0 0 0 0 0 0 0 0 0 0 0 0 0 0 0 0 0 0 0 0 0 0 0 0 0 0 0 0 0 0 0 0 0 0 0 0 0 0 0 0 0 0 0 0 0 0 0 0 0 0 0 0 0 0 0 0 0 0 0 0 0 0 0 0 0 -209 -193 -193 -193 -193 135 136 135 136 135 134 137 132 132 134 131 130 129 130 130 130 129 128 125 125 124 -193 -209 -193 -209 -209 134 131 -193 129 128 126 127 127 127 126 126 126 126 126 127 128 128 125 125 124 125 126 126 126 125 124 127 128 127 124 123 124 123 124 124 123 123 125 125 125 126 125 125 125 126 125 129 129 127 127 128 128 127 128 128 124 124 128 126 125 128 128 128 129 129 130 129 130 130 130 129 129 128 131 129 129 128 128 127 132 128 129 126 127 127 127 128 127 124 127 126 127 126 127 127 126 124 123 122 120 120 118 118 117 121 125 127 131 129 128 133 129 128 130 128 128 127 128 127 125 126 126 124 125 125 127 128 131 129 129 130 129 131 130 129 127 127 126 128 127 127 128 127 126 127 126 126 125 126 126 124 125 126 126 129 129 130 129 130 130 130 131 131 129 130 134 129 129 129 130 130 129 130 132 128 137 137 137 138 138 140 141 141 140 142 141 140 139 140 139 138 137 137 136 137 138 139 140 141 144 142 142 142 142 141 140 140 141 138 141 141 -209 -209 153 153 0 0 0 0 0
    0 0 0 0 0 0 0 0 0 0 0 0 0 0 0 0 0 0 0 0 0 0 0 0 0 0 0 0 0 0 0 0 0 0 0 0 0 0 0 0 0 0 0 0 0 0 0 0 0 0 0 0 0 0 0 0 0 0 0 0 0 0 0 0 0 0 0 0 0 -209 -193 -209 -193 -193 -193 -193 138 139 138 137 139 135 134 135 132 131 130 131 132 131 130 129 126 126 -193 129 -209 129 -209 -209 -193 -193 -193 131 130 126 128 129 129 127 128 128 128 128 130 130 129 126 125 125 125 126 126 127 125 124 127 128 127 124 123 123 122 124 124 124 124 126 125 126 126 125 125 125 126 126 130 130 128 128 130 129 129 129 129 124 125 129 125 124 127 126 127 129 129 130 129 130 131 131 130 130 130 132 130 130 130 129 128 133 129 130 127 128 128 128 129 128 124 128 126 129 127 128 129 127 126 124 122 120 120 118 118 118 122 126 129 132 131 129 133 130 129 130 129 128 128 128 128 125 126 126 124 124 125 127 128 131 130 129 131 130 131 130 130 127 127 127 128 129 127 129 127 126 127 126 126 126 125 126 124 125 126 125 128 128 130 128 130 130 130 131 130 129 130 134 130 129 129 130 130 130 130 132 129 137 137 138 139 138 140 141 140 140 142 142 141 140 141 141 140 138 139 138 139 141 141 142 142 145 143 143 142 142 141 141 140 141 138 141 140 -193 152 153 153 0 0 0 0 0
    0 0 0 0 0 0 0 0 0 0 0 0 0 0 0 0 0 0 0 0 0 0 0 0 0 0 0 0 0 0 0 0 0 0 0 0 0 0 0 0 0 0 0 0 0 0 0 0 0 0 0 0 0 0 0 0 0 0 0 0 0 0 0 0 0 0 0 0 0 -193 140 -209 -193 -193 -193 -193 -193 141 -193 139 142 138 135 136 133 132 131 132 133 132 131 131 127 127 -209 -209 -209 -209 -193 -209 143 -193 -193 132 132 128 130 131 131 130 -193 131 131 132 133 133 131 127 127 126 126 127 127 127 125 124 127 128 126 123 122 122 122 123 124 123 124 126 125 126 126 125 126 126 128 127 132 132 130 131 132 131 130 131 131 125 127 132 128 126 128 127 128 131 131 131 130 131 131 132 131 131 131 132 131 131 131 131 130 134 130 131 128 130 130 130 130 130 125 131 130 133 132 131 132 132 132 132 132 124 128 -209 -209 -209 -209 132 131 133 132 130 133 130 129 130 129 128 128 128 128 125 125 125 123 123 124 126 129 132 130 130 131 131 132 131 130 127 127 128 129 130 128 129 128 126 128 127 127 126 126 126 125 125 126 125 127 128 129 128 129 129 130 130 130 129 129 134 130 130 129 130 131 130 131 133 131 137 138 138 139 139 140 140 140 139 142 141 140 140 143 144 144 141 141 140 141 143 143 143 143 145 143 143 142 142 141 141 141 141 138 142 142 153 152 152 153 0 0 0 0 0
    0 0 0 0 0 0 0 0 0 0 0 0 0 0 0 0 0 0 0 0 0 0 0 0 0 0 0 0 0 0 0 0 0 0 0 0 0 0 0 0 0 0 0 0 0 0 0 0 0 0 0 0 0 0 0 0 0 0 0 0 0 0 0 0 0 0 0 0 0 -193 143 -193 -193 -193 -193 -193 -193 143 -193 -193 144 141 138 142 134 133 132 132 134 133 131 132 128 -209 -209 -209 143 -209 140 143 148 -193 141 133 134 130 132 133 -209 133 -209 -193 134 135 -193 -193 133 130 130 128 129 130 131 131 129 127 132 132 130 125 123 124 123 124 125 124 125 127 127 127 127 126 128 129 131 129 134 134 132 133 134 133 132 133 134 127 132 136 136 134 -193 133 134 133 134 133 132 132 132 133 132 132 132 133 132 132 132 132 132 136 131 132 129 131 132 132 132 132 128 134 134 137 137 135 135 135 135 137 138 -193 129 -209 -209 154 -193 -209 131 133 133 131 133 131 129 130 129 129 128 128 128 126 126 127 125 124 126 129 132 134 132 132 131 132 132 132 131 129 130 131 132 133 129 131 129 127 129 127 127 127 126 127 125 125 127 125 128 129 130 128 129 130 130 130 130 129 129 134 130 130 129 130 131 131 131 133 132 137 139 139 139 139 140 141 140 140 143 142 141 142 145 147 149 144 142 141 142 144 144 143 144 145 143 143 142 142 142 141 141 141 139 143 145 154 154 153 154 0 0 0 0 0
    0 0 0 0 0 0 0 0 0 0 0 0 0 0 0 0 0 0 0 0 0 0 0 0 0 0 0 0 0 0 0 0 0 0 0 0 0 0 0 0 0 0 0 0 0 0 0 0 0 0 0 0 0 0 0 0 0 0 0 0 0 0 0 0 0 0 0 0 0 -209 147 -193 148 146 -193 145 145 145 144 143 145 141 140 146 135 134 133 133 -209 -209 132 133 -209 -209 -209 -209 -193 -193 142 146 148 143 142 137 136 134 135 136 -209 136 -209 -209 -209 152 153 153 -193 133 133 130 132 133 133 133 133 131 -209 -193 133 128 128 130 126 126 130 127 129 131 130 130 129 128 131 132 133 131 135 135 134 135 136 135 134 135 136 134 136 138 140 139 140 140 140 138 142 -193 -209 -193 134 134 134 134 134 134 134 134 134 134 134 137 132 132 130 132 134 134 134 134 132 137 137 139 140 138 137 137 137 139 141 -193 -209 -209 -209 154 156 -193 -193 135 135 134 134 131 129 130 129 130 129 129 129 127 129 131 131 132 133 134 136 135 135 134 132 133 134 133 133 131 134 135 135 135 131 132 130 128 130 128 128 127 127 128 126 126 128 126 129 130 132 132 132 133 132 133 132 132 132 135 130 130 129 130 131 130 131 133 132 137 139 139 140 140 141 141 141 140 144 144 144 147 148 150 151 147 145 144 144 145 145 144 145 145 143 143 142 142 142 140 141 141 138 142 144 153 154 153 155 0 0 0 0 0</data></disparity>
</opencv_storage>
