<?xml version="1.0"?>
<opencv_storage>
<gps_time_stamp>26206</gps_time_stamp>
<gps_x>-5.5326099395751953e+000</gps_x>
<gps_y>8.1206965446472168e-001</gps_y>
<gps_z>-1.3711491823196411e+000</gps_z>
<image_time_stamp>14164</image_time_stamp>
<disparity type_id="opencv-matrix">
  <rows>86</rows>
  <cols>320</cols>
  <dt>s</dt>
  <data>
    0 0 0 0 0 0 0 0 0 0 0 0 0 0 0 0 0 0 0 0 0 0 0 0 0 0 0 0 0 0 0 0 0 0 0 0 0 0 0 0 0 0 0 0 0 0 0 0 0 0 0 0 0 0 0 0 0 0 0 0 0 0 0 0 0 0 0 0 0 0 0 0 0 0 0 0 0 0 0 0 0 0 0 0 0 0 0 0 0 0 0 0 0 0 0 0 0 0 0 0 0 0 0 0 0 0 0 0 0 0 0 0 0 11 10 10 -177 -177 9 8 10 10 0 0 0 9 10 10 11 0 0 0 0 0 0 0 0 0 0 0 0 0 0 0 0 -209 -209 -193 -193 9 10 12 11 12 11 11 10 11 11 11 10 9 0 10 -209 11 15 0 0 10 862 864 -193 9 9 0 11 12 10 10 10 10 11 11 11 11 10 12 11 12 18 14 12 11 11 11 10 10 9 0 0 0 0 0 15 12 13 15 15 15 15 15 15 12 15 15 16 15 15 15 15 16 14 15 16 15 16 18 17 17 17 18 18 16 18 18 15 19 21 22 22 23 25 25 29 31 32 29 31 33 32 33 32 32 33 33 32 34 33 34 32 34 32 33 33 34 33 33 34 35 34 36 36 37 38 38 39 38 38 39 38 39 38 37 38 36 38 39 39 40 40 40 39 40 41 42 42 42 43 44 45 45 46 47 46 47 45 45 45 44 44 45 46 46 51 0 0 0 0 0
    0 0 0 0 0 0 0 0 0 0 0 0 0 0 0 0 0 0 0 0 0 0 0 0 0 0 0 0 0 0 0 0 0 0 0 0 0 0 0 0 0 0 0 0 0 0 0 0 0 0 0 0 0 0 0 0 0 0 0 0 0 0 0 0 0 0 0 0 0 0 0 0 0 0 0 0 0 0 0 0 0 0 0 0 0 0 0 0 0 0 0 0 0 0 0 0 0 0 0 0 0 0 0 0 0 0 0 0 0 0 0 0 0 11 10 10 9 -177 9 9 10 10 0 0 0 9 11 11 12 9 9 0 0 0 0 0 0 0 0 0 0 0 0 0 0 -209 0 0 -193 0 10 11 11 12 11 11 10 11 11 11 11 11 9 11 -209 11 16 0 0 10 862 865 -193 9 9 0 11 12 10 10 10 10 10 10 10 11 9 12 11 12 18 13 11 11 11 11 10 9 9 0 0 0 0 0 16 12 14 16 16 16 16 16 16 12 15 16 16 15 14 15 16 15 15 15 17 15 16 18 17 17 17 17 17 16 19 18 15 18 21 21 21 22 23 24 28 29 31 29 31 33 32 34 33 32 33 32 32 34 33 33 31 33 32 32 33 33 33 33 34 34 34 36 36 37 38 38 39 38 38 39 38 39 38 38 39 37 39 40 39 40 39 39 38 39 40 41 41 42 42 43 44 44 46 46 45 47 45 44 44 44 44 45 46 46 52 0 0 0 0 0
    0 0 0 0 0 0 0 0 0 0 0 0 0 0 0 0 0 0 0 0 0 0 0 0 0 0 0 0 0 0 0 0 0 0 0 0 0 0 0 0 0 0 0 0 0 0 0 0 0 0 0 0 0 0 0 0 0 0 0 0 0 0 0 0 0 0 0 0 0 0 0 0 0 0 0 0 0 0 0 0 0 0 0 0 0 0 0 0 0 0 0 0 0 0 0 0 0 0 0 0 0 0 9 0 0 0 0 0 0 0 0 0 0 11 10 11 9 -177 9 9 10 11 0 0 0 9 11 11 12 10 9 0 0 0 0 0 0 0 0 0 0 0 0 0 0 -193 0 0 -193 0 10 11 11 12 11 11 11 11 11 11 11 12 9 12 -209 10 16 9 9 10 863 865 -193 10 10 0 11 12 9 9 10 10 10 10 10 11 9 13 11 12 17 12 11 11 10 11 9 9 9 0 0 0 0 -177 17 13 15 16 16 17 16 16 16 12 16 16 15 14 14 15 16 15 15 14 16 15 15 17 16 16 17 16 17 15 19 18 15 18 21 21 21 21 22 22 26 28 31 28 30 32 32 34 33 32 33 32 31 33 33 32 31 32 31 31 32 32 32 32 34 34 34 36 36 37 38 38 39 38 38 39 38 39 39 39 39 38 39 39 39 39 38 38 37 38 39 40 41 41 42 43 44 44 45 45 44 46 45 44 44 44 44 45 46 46 52 0 0 0 0 0
    0 0 0 0 0 0 0 0 0 0 0 0 0 0 0 0 0 0 0 0 0 0 0 0 0 0 0 0 0 0 0 0 0 0 0 0 0 0 0 0 0 0 0 0 0 0 0 0 0 0 0 0 0 0 0 0 0 0 0 0 0 0 0 0 0 0 0 0 0 0 0 0 0 0 0 0 0 0 0 0 0 0 0 0 0 0 0 0 0 0 0 0 0 0 0 0 0 0 9 9 0 0 9 0 0 0 0 0 0 0 0 0 0 11 10 11 9 -177 8 9 10 11 0 0 0 9 10 11 12 10 9 0 0 9 0 0 0 0 0 0 0 0 0 0 -193 -209 -193 -193 -193 0 9 10 10 12 10 11 10 11 11 11 10 11 9 10 -209 9 15 9 9 10 863 865 -193 10 10 0 10 12 9 9 10 10 10 10 11 11 9 13 12 11 16 12 10 10 10 10 9 9 9 0 0 0 9 9 15 11 14 14 14 14 14 15 14 12 16 15 15 15 15 15 15 15 15 14 17 15 15 16 16 16 16 16 17 15 19 17 15 18 21 20 20 20 21 21 26 27 30 27 30 31 33 34 34 33 33 32 32 33 34 32 31 32 31 31 31 32 32 32 35 34 34 37 37 37 38 38 39 38 38 38 37 38 38 38 38 37 38 39 38 38 37 37 36 37 38 38 40 40 41 43 44 45 46 46 44 46 45 45 44 44 44 46 47 46 52 0 0 0 0 0
    0 0 0 0 0 0 0 0 0 0 0 0 0 0 0 0 0 0 0 0 0 0 0 0 0 0 0 0 0 0 0 0 0 0 0 0 0 0 0 0 0 0 0 0 0 0 0 0 0 0 0 0 0 0 0 0 0 0 0 0 0 0 0 0 0 0 0 0 0 0 0 0 0 0 0 0 0 0 0 0 0 0 0 0 0 0 0 0 0 0 0 0 0 0 0 0 0 0 9 9 0 0 10 9 0 0 0 0 0 9 9 0 0 11 10 11 9 -177 0 9 10 10 0 0 0 9 10 11 11 10 9 0 0 9 9 0 0 0 0 0 0 0 0 0 0 -209 -193 0 0 0 9 9 10 12 10 10 10 10 10 10 10 10 0 9 -209 9 14 9 9 -193 863 865 -193 10 10 0 10 11 9 0 9 9 9 10 10 10 0 12 11 11 15 11 10 10 10 10 9 9 9 0 9 9 9 9 13 10 12 13 13 13 14 14 14 12 18 16 15 16 16 15 15 16 16 14 17 15 15 17 16 17 16 16 17 14 20 17 15 17 20 20 20 21 21 20 26 28 31 28 31 31 33 34 34 33 34 32 33 33 34 32 32 32 32 31 32 32 32 32 35 34 35 37 37 37 37 38 38 38 38 38 37 38 38 38 39 37 38 38 38 38 37 37 36 37 38 38 39 40 41 -225 42 45 45 45 43 45 45 45 44 45 44 47 47 47 52 0 0 0 0 0
    0 0 0 0 0 0 0 0 0 0 0 0 0 0 0 0 0 0 0 0 0 0 0 0 0 0 0 0 0 0 0 0 0 0 0 0 0 0 0 0 0 0 0 0 0 0 0 0 0 0 0 0 0 0 0 0 0 0 0 0 0 0 0 0 0 0 0 0 0 0 0 0 0 9 0 0 0 0 0 0 0 0 0 0 0 0 0 0 0 0 0 0 0 0 0 0 0 0 9 9 0 0 10 9 0 0 0 0 0 9 9 0 0 12 10 11 9 -177 0 9 10 10 0 0 0 9 10 11 11 10 9 9 9 9 9 9 0 0 0 0 0 0 0 0 0 -209 -193 0 0 0 0 9 10 11 9 9 9 10 10 9 10 9 0 10 -209 0 13 9 9 -193 863 865 -193 10 10 0 10 11 0 0 9 9 9 9 9 10 0 12 11 11 14 11 10 10 10 10 9 9 9 0 9 9 9 11 14 11 13 13 13 13 15 14 14 13 17 15 16 16 16 14 15 15 16 14 17 15 15 17 16 16 16 16 16 14 20 16 14 17 20 20 20 21 21 -193 26 27 30 28 31 31 33 34 34 33 33 32 33 33 34 33 32 32 33 32 33 32 32 33 34 34 35 37 37 37 37 38 38 38 38 39 38 39 39 39 39 38 38 38 37 37 36 36 36 36 37 37 38 38 39 39 41 43 43 44 43 44 44 44 44 44 43 46 47 46 52 0 0 0 0 0
    0 0 0 0 0 0 0 0 0 0 0 0 0 0 0 0 0 0 0 0 0 0 0 0 0 0 0 0 0 0 0 0 0 0 0 0 0 0 0 0 0 0 0 0 0 0 0 0 0 0 0 0 0 0 0 0 0 0 0 0 0 0 0 0 0 0 0 0 0 0 0 0 0 0 0 0 0 0 0 0 0 0 0 0 0 0 0 0 0 0 0 0 0 0 0 0 0 0 0 0 0 0 10 9 9 0 0 0 0 10 9 0 0 12 10 11 9 -177 0 9 10 10 0 0 0 9 10 11 10 10 9 9 9 10 10 9 0 0 0 0 0 0 0 0 -193 -209 -193 0 0 0 0 0 9 10 0 0 0 9 9 9 8 0 0 10 -193 0 13 9 9 -193 863 864 -193 10 10 0 9 10 0 0 9 9 9 10 9 10 0 11 10 10 13 10 9 10 9 9 9 9 9 0 9 9 10 13 14 11 13 13 13 13 15 14 14 14 17 16 16 16 15 14 15 15 15 14 17 15 15 17 16 16 15 15 16 13 20 16 14 17 19 19 19 19 20 -193 -193 26 28 28 31 31 33 33 34 32 33 31 33 32 33 32 32 32 33 32 33 33 33 34 34 35 34 37 37 37 38 38 38 39 39 39 39 39 39 38 39 38 37 37 37 37 35 36 36 36 37 37 37 37 38 38 40 42 43 43 43 43 44 43 44 43 42 46 47 46 52 0 0 0 0 0
    0 0 0 0 0 0 0 0 0 0 0 0 0 0 0 0 0 0 0 0 0 0 0 0 0 0 0 0 0 0 0 0 0 0 0 0 0 0 0 0 0 0 0 0 0 0 0 0 0 0 0 0 0 0 0 0 0 0 0 0 0 0 0 0 0 0 0 0 0 0 0 0 0 9 0 9 0 0 0 0 0 0 0 0 0 0 0 0 0 0 0 0 0 0 0 0 0 0 0 0 0 0 9 9 0 0 0 0 0 9 9 0 0 12 11 11 9 -177 9 9 10 10 0 0 0 0 9 10 10 10 9 9 9 10 10 9 9 0 0 0 9 0 0 0 0 -193 0 0 0 0 0 -193 -193 -193 0 0 0 0 0 0 0 0 0 9 -193 0 13 9 9 -193 863 864 -193 10 9 0 9 10 0 0 9 9 9 10 9 10 0 10 10 9 10 9 9 9 9 9 9 9 9 0 9 9 10 14 13 10 12 12 12 13 15 14 13 13 17 16 16 15 15 14 15 15 15 13 17 15 15 16 15 15 15 15 17 12 19 15 14 18 18 19 18 19 19 -177 -193 26 27 28 31 31 33 32 33 32 32 31 32 32 33 32 33 32 34 33 34 34 33 34 33 34 33 36 37 36 36 37 37 38 38 39 38 38 39 38 38 38 37 37 37 36 35 36 36 36 37 37 37 37 38 38 40 43 43 44 43 43 44 44 45 43 42 47 48 47 52 0 0 0 0 0
    0 0 0 0 0 0 0 0 0 0 0 0 0 0 0 0 0 0 0 0 0 0 0 0 0 0 0 0 0 0 0 0 0 0 0 0 0 0 0 0 0 0 0 0 0 0 0 0 0 0 0 0 0 0 0 0 0 0 0 0 0 0 0 0 0 0 0 0 0 0 0 0 0 0 0 9 0 0 0 0 0 0 0 0 0 0 0 0 0 0 0 0 0 0 0 0 0 0 0 0 0 0 0 0 0 0 0 0 0 9 9 0 0 12 11 11 10 -177 9 9 10 10 0 0 0 0 9 10 9 9 9 9 9 10 10 10 9 9 9 0 12 0 0 0 0 -193 0 0 0 0 0 -193 -193 -193 0 0 0 0 0 9 0 0 0 8 0 0 13 9 9 10 864 865 -193 10 9 0 0 9 0 0 9 10 9 10 10 10 9 10 10 9 9 0 0 0 0 0 9 9 9 0 10 10 10 14 12 10 11 11 11 13 14 13 13 13 17 16 15 15 15 14 15 15 15 14 17 15 15 16 16 15 15 16 17 12 19 15 15 19 19 19 18 19 20 -177 -193 26 27 29 31 32 33 33 33 32 32 31 32 32 33 33 33 33 34 34 35 34 34 34 33 34 33 35 36 35 35 36 37 38 38 39 39 39 39 39 39 38 37 38 36 36 34 35 36 35 37 37 37 37 37 38 39 42 44 43 42 44 45 44 45 43 43 47 48 49 53 0 0 0 0 0
    0 0 0 0 0 0 0 0 0 0 0 0 0 0 0 0 0 0 0 0 0 0 0 0 0 0 0 0 0 0 0 0 0 0 0 0 0 0 0 0 0 0 0 0 0 0 0 0 0 0 0 0 0 0 0 0 0 0 0 0 0 0 0 0 0 0 0 0 0 0 0 0 0 9 0 9 0 0 0 0 0 0 0 0 0 0 0 0 0 0 0 0 0 0 0 0 0 0 0 0 0 0 0 0 0 0 0 0 0 9 9 0 0 13 11 12 10 10 9 9 10 11 0 0 0 0 9 10 9 10 9 9 10 10 10 10 10 10 10 9 12 0 0 0 0 -193 -193 0 0 0 0 -209 0 9 0 0 0 9 9 9 0 9 0 0 0 0 13 9 9 10 -193 866 -193 9 9 0 0 9 0 0 9 10 9 10 10 10 9 10 9 9 9 0 0 0 0 0 10 9 9 8 10 11 11 16 12 9 10 11 12 13 14 13 13 14 17 16 15 15 15 15 15 15 15 14 18 15 15 15 15 15 14 16 17 11 19 15 16 19 19 19 19 20 21 -193 25 26 27 30 32 33 33 33 34 33 33 32 33 33 33 34 34 34 35 35 35 34 35 34 33 34 33 34 35 35 35 35 36 38 37 38 39 38 39 38 38 37 36 37 36 35 33 34 34 34 35 35 36 37 37 38 39 42 44 43 43 45 45 44 45 44 43 47 49 49 53 0 0 0 0 0
    0 0 0 0 0 0 0 0 0 0 0 0 0 0 0 0 0 0 0 0 0 0 0 0 0 0 0 0 0 0 0 0 0 0 0 0 0 0 0 0 0 0 0 0 0 0 0 0 0 0 0 0 0 0 0 0 0 0 0 0 0 0 0 0 0 0 0 0 0 0 0 0 0 0 0 9 0 0 0 0 0 0 0 0 0 0 0 0 0 0 0 0 0 0 0 0 0 0 0 0 0 0 0 0 0 0 0 0 0 10 10 0 0 13 11 12 11 10 9 10 11 11 0 0 0 9 10 10 9 10 10 10 10 11 10 11 10 10 10 0 11 0 0 0 -193 -193 -193 0 0 0 0 -193 0 9 0 0 0 9 9 9 0 9 0 0 0 0 13 9 9 10 -193 866 -193 9 9 0 0 9 0 0 9 10 9 10 10 10 9 9 8 0 0 0 0 0 0 0 9 9 9 9 10 12 12 18 11 9 10 11 12 12 13 13 13 13 16 15 14 14 15 14 15 15 14 13 18 15 15 15 15 15 14 16 17 11 17 15 17 20 20 20 20 21 22 -193 26 27 28 31 33 33 34 34 34 34 34 33 33 33 34 34 35 34 35 35 35 34 35 34 33 34 34 34 35 34 34 33 36 37 36 38 38 38 38 38 38 36 36 36 35 34 33 33 33 32 34 33 34 35 35 36 -225 42 43 42 45 46 45 44 44 44 43 46 49 48 53 0 0 0 0 0
    0 0 0 0 0 0 0 0 0 0 0 0 0 0 0 0 0 0 0 0 0 0 0 0 0 0 0 0 0 0 0 0 0 0 0 0 0 0 0 0 0 0 0 0 0 0 0 0 0 0 0 0 0 0 0 0 0 0 0 0 0 0 0 0 0 0 0 0 0 0 9 0 0 0 0 0 0 0 0 0 0 0 0 0 0 0 0 0 0 0 0 0 0 0 0 0 0 0 0 0 0 0 0 0 0 0 -193 0 0 10 9 0 0 13 11 12 11 10 10 10 11 11 0 0 0 9 10 10 9 10 10 10 10 11 11 11 10 11 11 9 11 0 -225 0 -193 -193 -193 0 0 0 0 0 0 9 0 0 0 9 9 9 8 9 0 0 0 0 13 9 9 10 -193 866 -193 9 9 0 0 0 0 0 9 10 9 10 10 10 9 0 0 0 0 0 0 0 0 0 10 9 9 9 11 12 12 19 11 9 10 10 11 11 12 12 12 13 15 14 14 15 14 14 14 15 14 14 17 15 15 15 16 16 14 17 17 11 17 15 17 21 20 21 21 23 24 25 27 28 28 32 35 34 34 34 34 34 34 34 34 34 34 34 34 34 35 35 35 34 35 34 33 34 34 34 34 34 34 33 35 37 36 37 38 38 37 37 37 36 36 36 35 34 33 33 33 31 33 31 32 32 32 -225 37 41 41 41 47 46 46 45 45 44 43 47 49 48 -209 0 0 0 0 0
    0 0 0 0 0 0 0 0 0 0 0 0 0 0 0 0 0 0 0 0 0 0 0 0 0 0 0 0 0 0 0 0 0 0 0 0 0 0 0 0 0 0 0 0 0 0 0 0 0 0 0 0 0 0 0 0 0 0 0 0 0 0 0 0 0 0 0 0 0 0 9 0 0 0 0 0 0 0 0 0 0 0 0 0 0 0 0 0 0 0 0 0 0 0 0 0 0 0 0 0 0 0 0 0 0 0 -193 0 0 9 9 0 0 13 12 12 11 10 10 10 11 11 0 0 0 9 10 10 9 10 10 10 11 11 11 11 11 11 11 10 11 0 -225 -193 -193 -193 -193 0 0 0 0 0 0 9 0 0 9 9 9 9 9 9 0 0 0 0 13 9 9 9 -193 866 -193 9 9 0 0 0 0 0 9 9 0 9 9 9 0 0 0 0 0 0 0 0 0 0 10 10 10 9 11 12 13 19 13 11 13 13 12 13 14 14 13 14 15 14 15 15 14 14 14 14 14 14 17 14 15 16 15 15 14 17 17 12 17 16 16 21 21 21 22 23 24 26 27 28 28 33 35 35 35 35 34 35 35 34 34 34 34 35 34 34 35 35 35 34 35 34 33 34 34 34 34 35 34 33 35 37 36 37 37 37 36 36 36 35 36 35 35 34 33 34 33 31 33 31 31 31 -225 -225 38 41 41 42 47 46 45 44 44 43 42 45 47 -193 -209 0 0 0 0 0
    0 0 0 0 0 0 0 0 0 0 0 0 0 0 0 0 0 0 0 0 0 0 0 0 0 0 0 0 0 0 0 0 0 0 0 0 0 0 0 0 0 0 0 0 0 0 0 0 0 0 0 0 0 0 0 0 0 0 0 0 0 0 0 0 0 0 0 0 0 0 9 0 0 0 0 0 0 0 0 0 0 0 0 0 0 0 0 0 0 0 0 0 0 0 0 0 0 0 0 0 0 0 0 0 0 -193 -193 0 0 9 9 0 0 13 11 12 11 10 10 10 11 11 0 0 0 9 10 10 9 10 10 10 11 11 11 11 10 11 11 9 9 -225 -225 -193 -193 -193 0 0 0 0 0 0 0 0 0 0 9 9 9 9 9 9 0 0 0 0 14 10 9 10 -193 -193 9 9 9 0 0 0 0 0 9 9 0 9 9 9 0 0 0 0 0 0 0 0 0 0 10 10 10 9 11 12 13 20 13 12 15 14 13 14 14 15 13 14 15 14 15 15 14 14 14 14 14 13 17 14 15 16 15 15 15 17 17 12 17 16 16 21 20 21 21 22 23 25 26 27 27 32 34 35 35 35 34 35 34 34 34 34 34 34 33 34 34 34 34 34 35 34 33 34 34 34 34 34 34 33 35 36 36 36 36 36 35 36 35 35 35 35 35 34 33 33 32 30 32 30 30 30 32 36 39 41 42 42 47 46 45 43 43 42 41 44 45 -209 -209 0 0 0 0 0
    0 0 0 0 0 0 0 0 0 0 0 0 0 0 0 0 0 0 0 0 0 0 0 0 0 0 0 0 0 0 0 0 0 0 0 0 0 0 0 0 0 0 0 0 0 0 0 0 0 0 0 0 0 0 0 0 0 0 0 0 0 0 0 0 0 0 0 0 0 0 9 0 0 0 0 0 0 0 0 0 0 0 0 0 0 0 0 0 0 0 0 0 0 0 0 0 0 0 0 0 0 0 0 0 -193 -193 -193 0 0 9 9 0 0 13 11 12 11 10 9 10 11 11 0 0 0 9 10 10 10 10 10 10 10 11 10 11 11 11 11 9 -225 -225 -225 -193 -193 0 0 0 0 0 0 0 0 9 0 0 9 9 9 9 9 10 0 0 0 0 14 10 9 10 10 -193 9 9 9 0 0 0 0 0 9 9 0 9 9 9 0 0 0 0 0 0 0 0 0 0 10 10 10 10 11 12 13 20 13 13 14 13 13 14 14 15 12 13 14 14 14 14 14 14 14 14 14 13 17 15 15 16 15 15 15 17 17 13 18 17 17 21 21 21 21 22 23 25 26 27 27 32 34 35 35 35 35 35 35 35 34 35 34 34 33 33 33 34 34 34 34 34 34 34 34 34 33 34 34 33 34 35 35 35 36 35 35 35 35 34 34 34 34 32 32 32 31 29 31 29 29 29 33 38 40 43 43 44 48 46 46 44 43 43 42 45 -209 -209 -209 0 0 0 0 0
    0 0 0 0 0 0 0 0 0 0 0 0 0 0 0 0 0 0 0 0 0 0 0 0 0 0 0 0 0 0 0 0 0 0 0 0 0 0 0 0 0 0 0 0 0 0 0 0 0 0 0 0 0 0 0 0 0 0 0 0 0 0 0 0 0 0 0 0 0 0 9 0 0 0 0 0 0 0 0 0 0 0 0 0 0 0 0 0 0 0 0 0 0 0 0 0 0 0 0 0 0 0 -209 -193 -177 -177 -193 0 0 10 9 0 0 13 11 12 10 10 9 9 10 11 0 0 0 9 11 10 9 10 10 10 10 10 9 10 11 12 12 9 -225 -225 -225 -193 -193 0 0 0 0 0 0 0 0 9 9 9 9 10 10 10 9 10 0 0 0 0 14 10 10 10 10 -193 9 10 9 0 0 0 0 0 0 9 0 0 0 0 0 0 0 0 0 0 0 0 0 0 11 11 11 10 11 12 13 20 13 13 15 14 14 14 14 14 12 12 13 13 13 13 13 13 13 15 15 14 18 15 16 17 16 15 15 18 17 13 18 16 18 21 22 22 22 24 25 26 26 28 27 33 33 36 36 36 35 36 35 35 34 35 34 34 33 33 32 34 33 33 34 34 33 34 35 34 33 34 34 33 33 35 34 34 35 35 34 34 34 33 33 33 32 31 31 30 30 28 29 28 27 28 33 39 41 44 44 45 50 48 48 46 44 45 -209 -193 -193 -209 -209 0 0 0 0 0
    0 0 0 0 0 0 0 0 0 0 0 0 0 0 0 0 0 0 0 0 0 0 0 0 0 0 0 0 0 0 0 0 0 0 0 0 0 0 0 0 0 0 0 0 0 0 0 0 0 0 0 0 0 0 0 0 0 0 0 0 0 0 0 0 0 0 0 0 0 0 9 0 0 0 0 0 0 0 0 0 0 0 0 0 0 0 0 0 0 0 0 0 0 0 0 0 0 0 0 0 0 0 -193 -177 -177 -177 -193 0 0 10 -193 0 0 13 11 12 10 10 9 9 10 10 0 0 0 9 10 10 9 9 10 10 10 10 9 10 11 12 12 9 -225 -225 -225 -193 -193 0 0 0 0 0 0 0 0 10 9 9 10 10 10 10 10 10 0 0 0 0 14 11 10 10 10 -193 9 10 10 0 0 0 0 0 0 0 0 0 0 0 0 0 0 0 0 0 0 0 0 0 11 11 11 10 11 12 13 20 14 15 16 15 15 14 14 15 12 12 12 12 12 12 12 13 13 15 15 15 19 16 17 17 17 15 16 18 18 14 19 17 18 21 22 22 23 24 25 25 26 27 27 32 34 36 37 37 35 36 35 35 35 35 34 33 33 33 32 33 33 33 33 34 34 35 35 34 33 34 34 33 33 34 33 33 34 34 34 32 33 32 32 32 31 31 31 30 31 28 30 28 28 28 33 38 41 45 45 46 51 50 50 47 45 -209 -193 -177 -177 -209 -209 0 0 0 0 0
    0 0 0 0 0 0 0 0 0 0 0 0 0 0 0 0 0 0 0 0 0 0 0 0 0 0 0 0 0 0 0 0 0 0 0 0 0 0 0 0 0 0 0 0 0 0 0 0 0 0 0 0 0 0 0 0 0 0 0 0 0 0 0 0 0 0 0 0 0 0 9 0 0 0 0 0 0 0 0 0 0 0 0 0 0 0 0 0 0 0 0 0 0 0 0 0 0 0 9 0 0 0 9 -193 -177 -177 -193 0 0 10 10 0 0 13 11 11 10 9 0 9 10 10 0 0 0 9 11 10 9 9 10 10 9 9 9 10 11 11 12 10 -225 -225 -225 -193 -193 0 0 0 -193 0 0 -193 0 10 10 9 10 9 10 10 9 10 0 0 0 0 14 11 11 10 11 -193 10 10 10 0 0 0 0 0 0 0 0 0 0 0 0 0 0 0 0 0 0 0 0 0 10 10 10 9 11 12 13 20 14 15 16 15 15 15 14 15 12 12 12 12 12 12 12 13 14 16 17 16 20 17 18 18 17 16 16 18 18 14 19 17 18 21 22 22 23 24 25 25 26 27 27 31 34 36 37 37 36 36 36 36 35 35 34 33 32 33 32 33 32 32 33 34 34 35 35 34 33 34 34 34 32 34 32 32 33 34 33 32 32 32 32 32 32 31 31 31 31 30 31 29 29 30 35 39 42 46 45 48 54 52 53 -209 -193 -177 -193 -193 -209 -209 -193 0 0 0 0 0
    0 0 0 0 0 0 0 0 0 0 0 0 0 0 0 0 0 0 0 0 0 0 0 0 0 0 0 0 0 0 0 0 0 0 0 0 0 0 0 0 0 0 0 0 0 0 0 0 0 0 0 0 0 0 0 0 0 0 0 0 0 0 0 0 0 0 0 0 0 9 9 0 0 0 0 0 0 0 0 0 0 0 0 0 0 0 0 0 0 0 0 0 0 0 0 0 0 0 9 0 0 0 10 9 -193 -193 0 0 0 10 10 0 0 13 11 11 9 9 0 0 10 10 0 0 0 9 11 9 10 9 9 9 9 0 0 9 10 10 11 -225 -225 -225 -225 -193 -209 -193 -193 -193 -193 10 9 9 9 11 10 10 10 10 10 10 9 10 0 9 0 0 14 11 11 11 11 -193 10 11 11 0 0 0 0 0 0 9 0 0 0 0 0 0 0 0 0 0 0 0 0 9 10 10 10 9 11 11 12 20 14 16 17 15 15 15 14 15 11 12 12 -193 -193 -193 -193 13 -193 19 20 19 21 19 19 19 19 16 17 18 18 14 19 18 19 21 22 23 23 24 25 25 26 28 28 30 34 35 37 36 35 35 35 35 34 34 34 32 31 32 32 32 32 32 32 35 34 35 35 34 34 34 35 34 32 34 32 32 33 33 33 32 32 32 33 32 32 32 32 32 31 31 32 31 32 34 37 39 42 47 48 52 56 -209 -209 -209 -177 -193 -209 -209 -193 -193 107 0 0 0 0 0
    0 0 0 0 0 0 0 0 0 0 0 0 0 0 0 0 0 0 0 0 0 0 0 0 0 0 0 0 0 0 0 0 0 0 0 0 0 0 0 0 0 0 0 0 0 0 0 0 0 0 0 0 0 0 0 0 0 0 0 0 0 0 0 0 0 0 0 0 0 10 9 9 0 0 0 0 0 0 0 0 0 0 0 0 0 0 0 0 0 0 0 0 0 0 0 0 0 0 0 0 0 0 10 9 0 0 0 0 0 10 10 0 0 13 11 11 9 9 0 0 10 10 0 0 0 9 10 9 9 9 0 0 0 0 0 0 9 9 9 -225 -225 -225 -225 -209 14 0 0 -193 -193 11 -193 10 10 11 10 10 10 10 10 10 9 9 0 10 0 0 14 11 11 11 11 -193 9 11 11 0 0 0 0 0 9 9 0 0 0 0 0 0 0 0 0 0 0 0 9 9 10 11 11 9 11 11 11 20 14 17 17 15 15 15 14 15 11 12 12 -193 -193 -193 -193 -193 -209 -209 -193 -193 22 19 20 19 18 15 17 17 17 15 19 19 20 22 23 23 24 25 25 26 26 28 27 30 33 35 35 35 34 34 33 33 33 34 32 31 31 32 32 32 32 33 31 35 35 36 35 34 34 34 35 34 32 33 32 32 33 34 33 33 32 32 33 33 33 32 32 32 31 32 33 33 34 36 38 39 43 50 -193 -209 -193 -193 -193 -209 -193 -193 -193 -193 -193 106 107 0 0 0 0 0
    0 0 0 0 0 0 0 0 0 0 0 0 0 0 0 0 0 0 0 0 0 0 0 0 0 0 0 0 0 0 0 0 0 0 0 0 0 0 0 0 0 0 0 0 0 0 0 0 0 0 0 0 0 0 0 0 0 0 0 0 0 0 0 0 0 0 0 0 0 10 9 9 0 0 0 0 0 0 0 0 0 0 0 0 0 0 0 0 0 0 0 0 0 0 0 0 0 0 0 0 0 0 9 9 0 0 0 0 0 9 9 0 0 12 11 11 10 9 9 9 10 10 0 0 0 9 10 0 9 0 0 0 0 0 0 0 9 0 9 10 -225 -225 -225 16 15 0 9 -193 -193 11 11 11 10 11 10 10 10 9 9 9 9 9 0 10 0 0 14 12 12 10 -193 -193 9 11 11 0 0 0 0 0 0 9 0 0 0 0 0 0 0 0 0 0 9 9 9 10 10 10 11 10 11 11 11 19 14 17 17 16 16 16 15 15 12 13 13 -193 -193 -193 -193 -193 -209 -209 -193 -193 25 21 21 20 18 16 18 18 18 15 20 19 20 23 22 23 24 25 25 26 26 29 28 31 32 35 34 34 33 34 32 32 32 33 31 30 30 31 31 32 32 32 31 35 35 35 35 34 33 34 34 34 31 33 32 32 33 33 33 32 32 32 32 33 32 31 32 32 31 32 33 34 35 36 38 -209 -193 -193 -177 108 -193 -193 -193 -209 -193 106 107 108 107 107 108 0 0 0 0 0
    0 0 0 0 0 0 0 0 0 0 0 0 0 0 0 0 0 0 0 0 0 0 0 0 0 0 0 0 0 0 0 0 0 0 0 0 0 0 0 0 0 0 0 0 0 0 0 0 0 0 0 0 0 0 0 0 0 0 0 0 0 0 0 0 0 0 0 0 0 9 9 9 0 0 0 0 0 0 0 0 0 0 0 0 0 0 0 0 0 0 0 0 0 0 0 0 0 0 0 0 0 0 9 9 0 0 0 0 0 9 0 0 0 12 11 12 10 10 9 9 10 11 0 0 0 0 0 0 0 0 0 0 0 0 0 0 8 0 9 11 10 13 22 15 14 0 9 -193 -193 12 12 11 10 11 10 10 10 8 9 0 0 0 0 9 0 0 14 12 12 11 -193 -193 9 11 11 0 0 0 0 0 8 9 0 0 0 0 0 0 0 0 9 9 10 10 10 10 10 10 11 10 11 12 12 19 14 17 16 15 15 16 15 15 11 13 -193 737 739 -193 -193 -209 67 69 -193 -209 28 23 23 21 20 18 19 19 19 15 20 18 21 23 22 23 24 25 25 25 27 29 28 32 32 34 34 34 32 33 32 31 32 33 31 30 30 31 31 31 32 32 31 35 34 35 35 34 33 34 34 34 31 33 32 32 33 33 33 32 32 32 32 33 32 31 32 31 31 31 33 34 35 37 -193 -177 -177 109 107 107 107 105 107 106 106 105 105 107 108 106 107 0 0 0 0 0
    0 0 0 0 0 0 0 0 0 0 0 0 0 0 0 0 0 0 0 0 0 0 0 0 0 0 0 0 0 0 0 0 0 0 0 0 0 0 0 0 0 0 0 0 0 0 0 0 0 0 0 0 0 0 0 0 0 0 0 0 0 0 0 0 0 0 0 0 0 9 10 9 0 0 0 0 0 0 0 0 0 0 0 0 0 0 0 0 0 0 0 0 0 0 0 0 0 0 0 0 0 9 9 9 0 0 0 0 0 9 0 0 0 12 11 12 10 10 9 9 10 11 0 0 0 9 0 0 0 0 0 0 0 0 0 0 9 0 10 14 12 13 -193 13 12 -193 -193 -209 -193 -193 12 11 10 11 10 10 9 0 0 0 0 0 0 0 0 0 14 11 12 10 10 -193 9 10 11 0 0 0 9 9 9 10 0 0 0 0 0 0 0 0 11 10 10 10 11 10 10 10 12 11 12 12 12 19 14 17 16 15 15 16 14 14 11 12 -193 -177 739 -193 -193 -193 66 67 -193 -209 29 24 24 22 22 21 21 20 20 16 21 20 22 24 23 23 24 25 25 25 26 28 26 30 31 34 33 33 31 32 31 30 32 32 31 31 30 32 32 32 32 32 31 35 34 35 34 34 33 33 34 34 32 33 32 33 33 34 33 33 32 32 33 33 32 31 32 32 31 32 34 34 35 -177 -209 -193 -177 112 108 108 109 107 108 107 107 106 106 107 108 106 108 0 0 0 0 0
    0 0 0 0 0 0 0 0 0 0 0 0 0 0 0 0 0 0 0 0 0 0 0 0 0 0 0 0 0 0 0 0 0 0 0 0 0 0 0 0 0 0 0 0 0 0 0 0 0 0 0 0 0 0 0 0 0 0 0 0 0 0 0 0 0 0 0 0 0 9 9 9 0 0 0 0 0 0 0 0 0 0 0 0 0 0 0 0 0 0 0 0 0 0 0 0 0 0 0 0 0 9 9 0 0 0 0 0 0 0 0 0 0 11 11 12 10 10 10 10 11 11 0 0 0 9 8 0 0 0 0 0 0 0 0 0 0 0 9 12 12 9 -193 -209 -209 -209 -209 -209 -209 -193 12 12 11 11 10 10 9 0 0 0 0 0 0 0 0 0 14 11 11 10 10 -193 9 11 11 0 0 0 9 10 11 11 9 9 0 0 0 0 0 0 11 11 11 11 11 10 10 10 12 11 12 12 12 19 14 17 16 16 15 17 14 14 11 13 -193 -177 -193 -193 -193 -193 -209 -209 -193 -193 34 31 31 28 27 24 23 22 21 19 23 22 23 24 23 23 24 25 26 25 26 28 26 29 30 32 31 31 30 31 30 29 31 31 31 30 30 31 32 32 32 32 31 34 33 34 34 33 33 33 33 33 31 32 32 32 33 34 33 33 33 32 33 33 32 32 32 32 31 33 34 35 36 -193 -193 -193 -177 112 107 107 108 107 107 107 107 107 107 108 109 107 109 0 0 0 0 0
    0 0 0 0 0 0 0 0 0 0 0 0 0 0 0 0 0 0 0 0 0 0 0 0 0 0 0 0 0 0 0 0 0 0 0 0 0 0 0 0 0 0 0 0 0 0 0 0 0 0 0 0 0 0 0 0 0 0 0 0 0 0 0 0 0 0 0 0 0 9 9 9 0 0 0 0 0 0 0 0 0 0 0 0 0 0 0 0 0 0 0 0 0 0 0 0 0 0 0 0 0 0 0 0 0 0 0 0 0 0 0 0 0 11 10 11 11 10 10 10 11 12 0 9 0 9 0 0 0 0 0 0 0 0 0 0 0 0 0 11 11 0 -193 -209 -209 -209 -209 -209 -209 -193 12 12 11 11 10 9 9 0 0 0 0 0 0 0 0 0 13 11 11 10 10 10 9 11 11 0 0 9 10 11 11 11 10 10 9 9 0 0 0 0 12 11 11 11 11 10 10 10 12 11 12 12 12 19 14 16 16 15 15 16 13 15 11 14 -193 -193 -193 -193 -193 -193 -209 -209 45 57 -193 -209 40 -193 -193 -209 -209 59 64 -193 -209 24 24 25 24 24 25 25 26 25 26 28 26 29 31 32 31 31 30 30 30 29 31 31 30 30 29 31 31 31 31 31 31 33 32 33 33 33 32 33 33 33 31 32 32 32 33 34 32 33 33 33 34 34 33 32 33 33 32 34 35 35 -193 -177 -177 -193 117 112 108 107 109 108 107 107 107 108 107 109 109 108 111 0 0 0 0 0
    0 0 0 0 0 0 0 0 0 0 0 0 0 0 0 0 0 0 0 0 0 0 0 0 0 0 0 0 0 0 0 0 0 0 0 0 0 0 0 0 0 0 0 0 0 0 0 0 0 0 0 0 0 0 0 0 0 0 0 0 0 0 0 0 0 0 0 0 0 9 9 9 0 0 0 0 0 0 0 0 0 0 0 0 0 0 0 0 0 0 0 0 0 0 0 0 0 0 0 0 0 0 0 0 0 0 0 0 0 0 0 0 0 10 10 11 10 10 10 10 11 12 9 9 0 9 0 0 0 0 0 0 0 0 0 9 0 0 0 10 10 0 9 -209 -209 -193 -209 -209 -209 -193 12 12 11 11 10 9 9 0 0 0 0 0 0 0 0 0 13 11 11 10 10 10 9 11 11 9 9 10 11 12 12 12 10 11 10 10 9 9 0 0 12 11 11 11 11 11 10 10 12 11 12 12 12 19 15 16 16 15 15 16 13 15 11 14 15 -193 -177 -193 -193 -209 -209 -209 42 53 -193 -209 44 53 -193 57 59 59 63 63 61 -209 26 27 24 24 25 25 26 25 26 27 25 28 30 32 31 31 30 30 30 29 31 31 30 30 29 30 31 31 31 30 30 31 32 32 33 32 32 33 32 32 31 31 32 33 34 34 33 34 34 34 34 34 33 33 33 34 32 34 35 -193 -177 -177 -193 -193 117 113 109 108 110 108 108 108 108 108 108 109 110 109 112 0 0 0 0 0
    0 0 0 0 0 0 0 0 0 0 0 0 0 0 0 0 0 0 0 0 0 0 0 0 0 0 0 0 0 0 0 0 0 0 0 0 0 0 0 0 0 0 0 0 0 0 0 0 0 0 0 0 0 0 0 0 0 0 0 0 0 0 0 0 0 0 0 0 0 9 9 9 0 0 0 0 0 0 0 0 0 0 0 0 0 0 0 0 0 0 0 0 0 0 0 0 0 0 0 0 0 0 0 0 0 0 0 0 0 0 0 0 0 9 9 11 10 10 10 10 11 11 9 10 0 9 0 0 0 0 0 0 0 0 0 0 0 0 0 0 9 0 0 -209 -209 -209 -209 -209 -209 -193 12 12 11 10 10 9 9 0 0 0 0 0 0 0 0 0 12 11 11 10 10 10 10 11 11 9 9 10 11 12 12 12 11 11 10 10 9 9 9 9 12 11 11 11 11 11 11 11 12 11 12 12 12 19 15 16 16 15 15 16 12 15 11 15 16 -193 -193 -177 -193 -193 -177 -193 -209 -209 37 -209 45 -193 57 57 60 60 63 65 62 62 -209 -193 22 22 24 24 25 22 25 26 25 27 29 31 30 31 30 30 30 28 31 30 30 30 29 30 30 30 31 30 30 30 32 31 32 32 32 33 31 31 31 31 32 33 34 34 33 34 34 34 34 34 33 33 33 33 33 34 36 -193 -177 -177 -193 -177 117 113 110 109 111 108 108 108 109 108 108 110 111 110 114 0 0 0 0 0
    0 0 0 0 0 0 0 0 0 0 0 0 0 0 0 0 0 0 0 0 0 0 0 0 0 0 0 0 0 0 0 0 0 0 0 0 0 0 0 0 0 0 0 0 0 0 0 0 0 0 0 0 0 0 0 0 0 0 0 0 0 0 0 0 0 0 0 0 0 9 9 9 0 0 0 0 0 0 0 0 0 0 0 0 0 0 0 0 0 0 0 0 0 0 0 0 0 0 0 0 0 0 0 0 0 0 0 0 0 0 0 0 0 0 0 9 0 0 9 9 9 10 0 9 0 0 0 0 0 0 0 0 0 0 0 0 0 0 0 0 9 0 -193 -209 -209 -209 -209 -209 -209 -209 11 11 10 10 9 9 9 0 0 0 0 0 0 0 0 0 12 11 11 10 10 10 10 10 11 9 9 10 11 11 11 12 11 11 10 10 9 9 9 9 12 11 10 11 11 11 11 11 12 11 12 12 12 19 15 16 17 16 15 16 12 14 10 14 14 -193 -193 -193 -193 21 -209 31 -209 -209 35 -209 -209 -209 57 57 60 60 63 65 64 66 -209 -193 18 20 22 22 -193 21 24 25 23 27 28 30 29 30 29 29 29 28 30 30 30 29 29 30 30 30 31 30 30 30 31 30 32 31 31 32 30 31 31 31 32 33 33 34 33 34 34 33 34 34 33 33 32 33 34 34 36 -193 -193 -193 -177 115 115 111 109 109 110 108 109 109 110 109 109 111 112 111 117 0 0 0 0 0
    0 0 0 0 0 0 0 0 0 0 0 0 0 0 0 0 0 0 0 0 0 0 0 0 0 0 0 0 0 0 0 0 0 0 0 0 0 0 0 0 0 0 0 0 0 0 0 0 0 0 0 0 0 0 0 0 0 0 0 0 0 0 0 0 0 0 0 0 0 0 0 0 0 0 0 0 0 0 0 0 0 0 0 0 0 0 0 0 0 0 0 0 0 0 0 0 0 0 0 0 0 0 0 0 0 0 0 0 0 0 0 0 0 0 0 0 0 0 0 0 0 0 0 8 0 0 0 0 0 0 0 0 0 0 0 9 0 0 0 9 9 0 -209 -209 132 -193 -209 -209 -209 -193 11 11 10 9 0 0 0 0 0 0 0 0 0 0 0 0 12 10 11 10 10 10 10 10 11 10 10 11 11 12 11 12 11 11 10 10 9 9 8 9 11 10 10 10 11 10 10 10 12 11 12 12 12 19 15 16 17 15 15 17 12 14 10 13 13 -193 -193 -209 -193 19 -193 29 37 -209 32 -209 -209 48 56 56 59 60 63 66 66 68 -193 -209 16 20 22 -193 -177 -177 -193 24 24 27 29 30 28 29 28 28 28 28 30 30 30 29 29 29 29 30 30 29 30 29 30 29 31 31 31 31 30 31 31 31 32 33 33 34 33 34 34 33 34 33 32 32 32 34 34 34 -193 -193 -193 -209 -177 114 114 111 110 109 111 110 110 110 111 110 111 113 115 115 119 0 0 0 0 0
    0 0 0 0 0 0 0 0 0 0 0 0 0 0 0 0 0 0 0 0 0 0 0 0 0 0 0 0 0 0 0 0 0 0 0 0 0 0 0 0 0 0 0 0 0 0 0 0 0 0 0 0 0 0 0 0 0 0 0 0 0 0 0 0 0 0 0 0 0 0 0 0 0 0 0 0 0 9 0 0 0 0 0 0 0 0 0 0 0 0 0 0 0 0 0 0 0 0 0 0 0 0 0 0 0 0 0 0 0 0 0 0 0 0 0 0 0 0 0 0 0 0 0 0 0 0 0 0 0 0 0 0 0 0 0 0 0 0 9 9 10 0 -193 -193 -177 -177 -193 -193 11 11 11 11 10 9 0 0 0 0 0 0 9 0 9 10 9 9 12 10 11 10 10 10 9 10 10 10 10 11 12 13 12 12 11 11 10 10 9 9 0 0 11 10 10 10 11 10 10 10 11 11 11 12 12 19 15 16 17 15 15 16 11 13 9 12 -193 -209 -193 -193 -209 19 -193 -193 -209 -209 -209 -177 -193 -209 -193 -193 60 -193 64 67 66 68 68 -193 15 20 -193 -209 -193 -177 -209 24 22 26 28 28 27 29 28 28 28 28 30 30 29 29 28 29 29 29 30 29 29 29 30 29 30 31 30 31 30 30 31 31 32 33 33 34 33 34 34 33 33 33 32 32 32 34 34 35 -193 -177 -193 -209 111 113 113 111 110 110 112 111 113 113 113 112 113 115 117 117 121 0 0 0 0 0
    0 0 0 0 0 0 0 0 0 0 0 0 0 0 0 0 0 0 0 0 0 0 0 0 0 0 0 0 0 0 0 0 0 0 0 0 0 0 0 0 0 0 0 0 0 0 0 0 0 0 0 0 0 0 0 0 0 0 0 0 0 0 0 0 0 0 0 0 0 0 0 0 0 0 0 0 0 9 0 0 0 0 0 0 0 0 0 0 0 0 0 0 0 0 0 0 0 0 0 0 0 0 0 0 0 0 0 0 0 0 0 0 0 0 0 0 0 0 0 0 0 9 0 0 0 9 0 0 0 0 0 0 0 0 0 0 0 0 10 10 11 9 10 -193 -177 -177 -193 -193 11 10 11 10 9 -193 -193 0 0 0 9 9 10 9 10 12 11 10 -193 9 10 9 9 9 9 9 10 9 10 11 12 13 12 12 12 11 11 11 9 9 0 9 11 10 9 10 11 10 10 10 11 10 11 11 11 19 15 16 17 15 15 17 12 13 9 -193 -209 -193 -193 -193 -209 -209 -209 -209 -209 -209 -177 -177 -209 -209 -209 -209 -209 -193 64 67 65 67 67 63 -193 -193 -209 -209 -193 -177 -209 -193 -209 27 29 28 26 28 27 27 27 28 30 29 29 29 29 29 29 29 29 28 29 29 30 29 30 31 30 30 30 30 30 31 31 32 32 33 32 34 34 33 33 33 32 32 32 35 34 36 -209 -177 -193 -193 109 110 112 111 110 111 112 112 114 114 115 115 115 117 118 119 123 0 0 0 0 0
    0 0 0 0 0 0 0 0 0 0 0 0 0 0 0 0 0 0 0 0 0 0 0 0 0 0 0 0 0 0 0 0 0 0 0 0 0 0 0 0 0 0 0 0 0 0 0 0 0 0 0 0 0 0 0 0 0 0 0 0 0 0 0 0 0 0 0 0 0 0 0 0 0 0 0 0 0 9 0 9 0 0 0 0 0 0 0 0 0 0 0 0 0 0 0 0 0 0 0 0 0 0 0 0 0 0 0 0 0 0 0 0 0 0 0 0 0 0 0 0 0 9 0 0 0 0 0 0 0 0 0 0 0 0 0 0 -177 9 10 11 11 10 -193 -177 128 -177 -177 -193 10 10 11 -193 -209 -193 -209 -193 9 0 9 9 10 10 10 12 11 11 -193 10 11 9 10 9 0 9 9 8 0 10 10 12 12 12 11 11 11 11 9 10 9 9 11 10 9 10 11 9 9 9 10 10 10 10 10 18 14 16 16 15 15 17 14 14 9 -209 -193 -193 -177 -193 -193 -209 68 -209 -193 -193 -177 -177 -193 -193 -209 -209 -209 310 64 67 65 68 69 -193 -209 -193 -209 -193 -193 -177 -209 -209 -193 -193 35 30 -193 27 27 28 28 28 30 29 29 29 30 30 28 29 29 28 29 29 30 28 29 30 30 30 30 29 29 30 31 32 32 32 32 34 33 33 33 33 32 32 32 35 34 -193 -209 -177 -177 -209 108 108 110 110 110 111 112 112 114 115 116 116 117 118 120 121 127 0 0 0 0 0
    0 0 0 0 0 0 0 0 0 0 0 0 0 0 0 0 0 0 0 0 0 0 0 0 0 0 0 0 0 0 0 0 0 0 0 0 0 0 0 0 0 0 0 0 0 0 0 0 0 0 0 0 0 0 0 0 0 0 0 0 0 0 0 0 0 0 0 0 0 0 0 0 0 0 0 0 0 0 0 0 0 0 0 0 0 0 0 0 0 0 0 0 0 0 0 0 0 0 0 0 0 0 0 0 0 0 0 0 0 0 0 0 0 9 0 0 0 0 0 9 9 10 0 0 0 0 0 0 0 0 0 0 0 0 0 0 9 9 11 11 11 -193 -193 -177 128 -177 -177 -193 10 10 10 -193 -209 -193 -193 -193 -193 -193 -193 -193 10 10 10 12 11 -193 13 10 11 10 10 10 9 9 9 0 0 0 9 10 10 11 10 10 9 10 9 9 0 9 10 10 10 10 11 9 9 10 10 10 10 10 10 17 14 15 15 14 15 17 14 13 -193 -177 -193 -193 -177 -193 -209 -209 66 -193 -193 -193 -193 20 22 -193 -209 -193 -177 -193 -193 -193 66 68 -193 -193 -193 -209 -209 -177 -177 -177 -193 -209 -209 -209 -209 -209 -209 28 27 28 28 28 30 29 29 29 30 30 28 29 29 28 29 29 29 28 29 30 30 29 29 29 29 29 30 31 32 32 32 34 33 32 33 32 32 32 32 34 34 -193 -209 -177 -193 -209 -193 107 110 109 111 111 112 113 116 116 117 118 120 121 122 127 131 0 0 0 0 0
    0 0 0 0 0 0 0 0 0 0 0 0 0 0 0 0 0 0 0 0 0 0 0 0 0 0 0 0 0 0 0 0 0 0 0 0 0 0 0 0 0 0 0 0 0 0 0 0 0 0 0 0 0 0 0 0 0 0 0 0 0 0 0 0 0 0 0 0 0 0 0 0 0 0 0 0 0 0 0 0 0 0 0 0 0 0 0 0 0 0 0 0 0 0 0 0 0 0 0 0 0 0 0 0 0 0 0 0 0 0 0 0 0 10 0 9 0 0 9 9 10 11 0 0 0 0 0 0 0 0 0 0 0 0 0 0 -193 -193 11 -193 -193 -193 -193 -177 127 127 129 -193 -193 -193 11 -193 -209 10 -193 -209 -193 -193 -209 -209 10 10 10 12 -193 -193 12 10 11 10 10 9 0 9 9 0 0 0 0 0 10 10 10 9 9 9 9 10 9 9 11 10 10 10 11 9 9 10 9 9 10 10 9 16 13 15 14 14 15 18 16 -193 -177 -177 -177 -193 -177 -193 -209 65 64 68 -209 23 18 18 21 23 20 -177 -177 -193 -177 -193 -193 69 -193 -177 -177 -193 -209 -177 -177 -177 -209 -209 79 75 74 74 79 29 27 29 28 28 30 29 29 29 31 30 29 29 30 28 30 29 30 29 30 31 31 30 30 29 30 30 30 31 31 31 32 33 33 32 33 32 32 32 32 34 34 37 -209 -209 -209 -209 -209 105 109 109 111 112 113 115 118 119 119 120 122 125 129 134 135 0 0 0 0 0
    0 0 0 0 0 0 0 0 0 0 0 0 0 0 0 0 0 0 0 0 0 0 0 0 0 0 0 0 0 0 0 0 0 0 0 0 0 0 0 0 0 0 0 0 0 0 0 0 0 0 0 0 0 0 0 0 0 0 0 0 0 0 0 0 0 0 0 0 0 0 0 0 0 0 0 0 0 0 0 0 0 0 0 0 0 0 0 0 0 0 0 0 0 0 0 0 0 0 0 0 0 0 0 0 0 0 0 0 0 0 0 0 0 10 0 9 0 0 9 10 10 11 0 0 0 0 0 0 0 0 0 0 0 0 0 0 -193 -193 -177 -193 -193 -193 -193 -177 127 127 129 128 -193 -193 -177 -193 -193 -193 -209 -209 -193 127 127 124 -193 -193 -193 -193 -193 -193 -193 10 11 10 10 -193 9 9 -193 0 0 0 0 0 9 10 9 0 0 9 9 9 0 9 10 10 9 10 10 9 9 9 9 9 9 9 0 15 13 14 13 13 14 19 -193 -193 -177 -177 -177 -193 -193 -193 62 64 62 67 -193 22 16 15 19 21 17 -193 -193 -209 -177 -209 -209 -209 -193 -177 -177 -193 -209 -177 -177 -193 -209 -209 79 76 76 76 82 81 -193 33 28 28 30 29 29 30 31 30 29 30 30 28 30 30 30 29 30 31 31 30 31 30 31 30 30 31 31 31 32 33 32 31 32 32 31 32 31 34 34 37 -209 -209 -209 -209 -193 104 107 108 112 114 113 116 119 121 122 124 127 132 134 137 140 0 0 0 0 0
    0 0 0 0 0 0 0 0 0 0 0 0 0 0 0 0 0 0 0 0 0 0 0 0 0 0 0 0 0 0 0 0 0 0 0 0 0 0 0 0 0 0 0 0 0 0 0 0 0 0 0 0 0 0 0 0 0 0 0 0 0 0 0 0 0 0 0 0 0 0 0 0 0 0 9 0 0 0 0 0 0 0 0 0 0 0 0 0 0 0 0 0 0 0 0 0 0 0 0 0 0 0 0 0 0 0 0 0 0 0 0 0 0 10 0 9 0 0 9 10 10 11 0 0 0 0 0 0 0 0 0 0 0 0 -177 -177 -193 -193 -177 -193 -193 -193 127 130 127 126 128 128 -193 -193 -193 -193 -193 -193 -209 -209 127 127 127 124 -193 -193 -193 -209 -193 -193 -193 10 11 10 10 -193 9 9 -193 9 9 0 0 9 10 11 10 9 0 9 9 9 0 9 10 10 10 11 10 9 9 9 9 9 9 9 0 14 13 14 13 13 14 19 -193 -193 -177 -177 -177 730 730 -193 62 63 62 67 17 22 15 15 18 21 16 -193 -209 -209 -193 -177 -209 -193 -193 -177 -177 -193 -209 -177 -177 -209 -209 71 77 76 76 77 82 81 80 80 31 29 32 29 30 31 32 30 29 30 31 29 30 31 30 30 31 32 31 30 31 30 30 30 30 31 31 31 31 32 32 31 32 31 31 31 31 34 33 38 -209 -209 -209 -209 -209 104 106 109 115 117 115 119 121 125 127 131 134 136 136 140 150 0 0 0 0 0
    0 0 0 0 0 0 0 0 0 0 0 0 0 0 0 0 0 0 0 0 0 0 0 0 0 0 0 0 0 0 0 0 0 0 0 0 0 0 0 0 0 0 0 0 0 0 0 0 0 0 0 0 0 0 0 0 0 0 0 0 0 0 0 0 0 0 0 0 0 0 9 9 9 10 -193 -209 -193 10 -209 -193 0 0 0 0 0 0 0 0 0 0 0 0 0 0 0 0 0 0 0 0 0 0 0 0 0 0 0 0 0 0 0 0 0 10 9 10 9 10 11 11 12 13 0 0 0 0 0 0 0 0 0 0 0 -177 -177 -177 -193 -193 -193 -193 -193 129 127 129 127 126 128 128 -193 -193 -193 -193 -177 -193 -209 -209 -209 127 126 125 -193 -193 -193 -209 -209 -193 -193 -193 11 -193 -193 -193 9 9 10 9 9 9 9 9 11 12 10 9 0 0 0 9 0 9 11 10 10 11 10 9 9 10 9 9 9 9 0 14 13 14 13 13 14 19 -193 -193 730 731 731 730 730 -193 60 61 60 66 17 22 16 15 18 20 16 15 -209 -209 -177 -177 -209 -209 -209 -177 -177 -193 -193 -193 -193 -209 56 68 75 76 77 78 82 82 83 81 78 -193 36 32 32 31 32 31 29 31 31 28 31 31 31 31 31 31 31 30 31 29 30 30 30 31 31 31 31 32 31 31 32 31 31 31 32 33 33 38 -209 -209 -209 -209 -193 104 106 110 117 120 119 122 125 130 133 135 136 137 138 145 153 0 0 0 0 0
    0 0 0 0 0 0 0 0 0 0 0 0 0 0 0 0 0 0 0 0 0 0 0 0 0 0 0 0 0 0 0 0 0 0 0 0 0 0 0 0 0 0 0 0 0 0 0 0 0 0 0 0 0 0 0 0 0 0 0 0 0 0 0 0 0 0 0 0 0 9 10 10 9 -193 -209 -209 -209 -209 -209 -209 -209 -193 0 0 0 0 0 0 0 0 0 -193 -193 -193 0 0 0 0 0 0 0 0 0 0 0 0 0 0 0 0 0 0 0 11 9 11 10 11 13 14 14 17 -209 -209 -209 -193 0 0 -177 -177 -177 -177 -177 0 0 0 131 127 130 130 130 -177 -177 -177 126 126 -193 -193 -177 -177 -177 -193 -193 -209 -209 -209 -209 -209 -209 -193 -193 -193 -193 -193 -193 -209 -209 -209 -193 -193 -193 -193 -209 9 10 9 10 9 0 8 10 11 9 9 0 0 0 0 0 9 11 11 10 11 10 9 9 10 9 9 9 9 0 13 13 15 13 12 13 19 -193 -193 -209 -209 -209 -209 -209 58 59 59 59 -193 -177 22 16 15 19 20 15 15 -209 155 -177 -177 -177 -177 14 -177 -177 -193 -193 -209 -209 -209 53 64 75 77 77 79 83 83 85 83 83 84 -193 36 34 33 33 31 30 31 32 29 31 32 31 31 31 31 31 30 31 29 30 29 30 30 31 31 31 32 31 30 32 30 31 30 32 33 33 37 -193 -209 -209 -209 99 100 103 109 119 126 123 127 132 134 136 138 138 139 139 146 153 0 0 0 0 0
    0 0 0 0 0 0 0 0 0 0 0 0 0 0 0 0 0 0 0 0 0 0 0 0 0 0 0 0 0 0 0 0 0 0 0 0 0 0 0 0 0 0 0 0 0 0 0 0 0 0 0 0 0 0 0 0 0 0 0 0 0 0 0 0 0 0 0 0 0 10 11 11 -209 -193 -193 -209 -209 55 56 -193 -193 -193 -193 -193 0 0 0 0 0 -193 -193 530 527 527 -193 0 0 0 0 0 0 0 0 0 0 9 0 0 9 9 0 0 0 11 9 11 11 13 -193 -193 -193 -193 -193 -209 -209 -209 -209 0 -177 -177 -177 -177 0 0 0 -193 131 127 130 131 130 -177 125 129 126 -193 -209 -193 -193 -177 -177 -209 -209 -193 -193 -209 -209 -193 -193 -177 -193 -193 -193 -193 -193 -193 -209 -209 -193 -193 -193 -193 -209 10 11 10 10 9 0 0 9 9 0 0 0 0 0 0 0 10 12 11 10 11 10 9 9 10 9 9 9 9 9 13 13 14 12 11 12 18 -193 -193 -193 -193 -209 -209 58 58 58 58 58 -209 15 22 16 16 19 20 16 15 161 158 -177 -177 -177 -177 14 -193 -177 -193 -209 -209 -209 -209 50 59 74 76 77 79 84 84 85 84 85 86 87 92 36 35 34 32 30 32 32 29 32 32 32 31 31 31 31 31 31 29 30 29 31 30 31 31 31 32 31 31 32 31 31 30 32 33 33 37 37 -193 -209 -193 -209 96 99 110 123 137 135 136 137 136 138 140 140 141 139 146 154 0 0 0 0 0
    0 0 0 0 0 0 0 0 0 0 0 0 0 0 0 0 0 0 0 0 0 0 0 0 0 0 0 0 0 0 0 0 0 0 0 0 0 0 0 0 0 0 0 0 0 0 0 0 0 0 0 0 0 0 0 0 0 0 0 0 0 0 0 0 0 0 0 0 0 10 13 13 -193 -177 -209 -193 57 57 57 57 57 59 -193 0 0 0 0 0 -193 -193 -193 531 529 529 -209 -193 -193 0 0 -209 0 -193 -209 -209 -193 9 0 0 9 9 0 0 0 13 10 12 12 14 -193 -193 -193 1008 -193 -209 -209 -209 -209 0 -177 -177 -177 0 9 0 0 -193 131 128 131 132 131 -177 125 -193 -193 -193 -177 -209 -209 -209 -209 -193 -193 -177 -177 -209 -209 -193 -177 -177 -177 -177 -209 -193 123 126 -209 -209 -193 -193 -193 -193 -193 11 12 10 11 0 0 0 0 0 0 0 0 0 0 0 0 9 12 11 10 11 9 9 9 10 9 9 9 10 9 14 14 15 -193 -193 12 -193 -209 -209 -193 -209 62 60 58 58 58 57 57 -177 -177 23 17 17 20 21 16 -193 163 161 -177 -177 -177 -177 14 -193 -177 -193 -193 -193 -209 -209 -193 -193 73 75 76 79 84 84 85 84 85 86 87 91 92 36 36 34 32 33 33 29 33 33 33 32 32 32 32 31 31 29 31 30 31 31 32 31 31 32 31 31 32 31 32 31 33 33 35 38 38 39 40 50 -209 -209 -209 117 130 140 138 137 138 138 140 141 141 142 139 147 -193 0 0 0 0 0
    0 0 0 0 0 0 0 0 0 0 0 0 0 0 0 0 0 0 0 0 0 0 0 0 0 0 0 0 0 0 0 0 0 0 0 0 0 0 0 0 0 0 0 0 0 0 0 0 0 0 0 0 0 0 0 0 0 0 0 0 0 0 0 0 0 0 0 0 0 11 14 -209 -209 -193 -193 56 57 57 57 57 57 59 59 -193 -193 -193 -209 -193 -209 -177 -193 532 530 529 -193 -193 -193 0 -209 -209 -209 -209 -209 -209 -209 -209 -209 0 9 10 8 9 0 -193 -193 -193 -209 -209 -209 -209 1008 -193 -193 -209 56 57 56 -193 -193 -193 -177 0 9 0 0 -209 132 131 132 134 -209 -193 -193 -209 -209 -209 -209 -209 -209 -209 -209 -209 -193 -209 -209 -209 -209 -209 -209 -193 -177 -193 -193 -209 122 125 -209 -209 -209 -209 -209 -209 10 12 14 12 11 0 0 0 0 0 0 0 0 0 0 0 0 9 12 11 10 11 9 9 9 11 9 9 9 11 9 15 17 18 -177 -177 -193 -209 -209 -193 -193 60 63 61 59 59 58 57 57 14 17 23 17 18 20 22 16 -193 -193 -177 -177 -177 -177 -177 -209 -209 -209 -193 -193 -209 -209 -209 -193 -209 -209 74 75 78 83 83 85 84 84 86 86 90 89 89 97 -193 -193 35 35 31 34 34 34 34 33 33 32 31 31 30 31 30 31 31 32 31 32 32 31 31 32 31 32 31 33 34 36 39 39 40 42 51 -209 -209 -209 121 133 141 138 138 138 138 140 141 142 142 138 146 -209 0 0 0 0 0
    0 0 0 0 0 0 0 0 0 0 0 0 0 0 0 0 0 0 0 0 0 0 0 0 0 0 0 0 0 0 0 0 0 0 0 0 0 0 0 0 0 0 0 0 0 0 0 0 0 0 0 0 0 0 0 0 0 0 0 0 0 0 0 0 0 0 0 0 0 12 -209 -209 -209 -177 54 57 57 57 58 58 58 59 59 59 58 59 59 59 63 -209 -209 -193 531 531 -193 -209 -209 -209 -209 -209 -193 -193 -193 62 -193 -209 -209 -209 10 13 -193 -193 -193 61 65 67 64 62 62 61 62 60 60 57 57 58 58 58 59 58 59 59 61 60 61 58 58 -193 -209 -209 -209 -209 -193 -193 59 63 -193 60 60 60 60 60 61 61 -209 -193 -209 -193 -209 -209 -209 -209 -209 55 -209 -193 57 58 -193 -193 57 -193 -209 14 16 12 11 0 0 0 0 0 -193 0 0 -193 -193 0 0 9 13 11 10 12 10 10 9 12 10 10 10 11 -177 17 19 -209 -193 -193 -193 63 61 61 61 61 63 62 60 60 58 57 57 14 19 23 18 19 21 22 17 -209 -193 -177 -177 -177 -177 -193 -193 -209 -209 -193 -209 -209 -209 -209 -193 -209 -209 -193 74 77 83 83 85 84 86 86 87 89 89 88 94 102 100 100 -209 -193 36 35 35 35 35 35 33 32 32 30 32 31 32 31 32 32 32 32 31 31 32 31 32 31 34 35 37 40 40 42 45 53 -209 -193 -209 -177 -177 140 138 138 138 138 140 141 142 142 -209 -209 -193 0 0 0 0 0
    0 0 0 0 0 0 0 0 0 0 0 0 0 0 0 0 0 0 0 0 0 0 0 0 0 0 0 0 0 0 0 0 0 0 0 0 0 0 0 0 0 0 0 0 0 0 0 0 0 0 0 0 0 0 0 0 0 0 0 0 0 0 0 0 0 0 0 0 0 59 59 -193 -209 -209 56 59 58 58 59 58 58 59 59 59 58 60 60 59 62 -209 -209 -209 -209 -193 -209 -193 -193 -209 58 58 59 60 60 62 61 60 61 64 -193 66 66 66 64 62 66 67 64 62 62 62 63 61 62 58 57 59 59 59 62 59 60 61 62 61 61 60 60 57 59 59 58 58 61 59 60 63 62 61 61 61 60 60 60 61 58 58 58 59 59 59 59 59 59 58 60 58 58 58 58 58 57 57 59 -193 -193 -209 -209 -209 -193 -193 -193 -193 61 -193 -193 -193 -193 -193 0 10 12 10 9 11 9 10 10 13 12 11 13 -209 -209 -209 -193 60 62 62 61 63 61 61 62 61 62 63 61 61 58 57 58 16 20 23 19 20 22 23 18 -209 -209 -209 -177 -177 -193 -193 77 -193 77 78 -209 -209 -209 -209 -209 -209 -209 -193 74 76 83 84 85 84 85 87 88 89 88 88 93 99 96 97 99 -193 -209 -193 37 36 35 36 34 32 31 30 32 30 32 31 33 32 32 32 32 32 33 31 33 30 34 35 38 41 41 45 50 55 -209 -193 -193 -177 -177 138 138 138 138 138 140 140 142 -209 -209 -193 -193 0 0 0 0 0
    0 0 0 0 0 0 0 0 0 0 0 0 0 0 0 0 0 0 0 0 0 0 0 0 0 0 0 0 0 0 0 0 0 0 0 0 0 0 0 0 0 0 0 0 0 0 0 0 0 0 0 0 0 0 0 0 0 0 0 0 0 0 0 0 0 0 0 0 0 60 61 61 61 59 57 60 58 58 59 58 58 60 59 59 59 60 60 59 61 59 59 59 58 -193 58 58 60 59 59 59 60 60 61 62 61 61 62 64 64 66 66 67 66 64 65 66 63 63 62 63 63 61 63 59 58 60 60 60 63 60 60 61 63 61 62 60 60 58 59 59 59 59 63 60 60 63 62 61 61 61 61 60 60 61 58 58 58 59 59 60 60 60 60 59 61 60 59 59 58 58 58 58 59 59 61 62 64 62 65 62 62 61 61 61 61 60 61 59 61 60 62 -209 -209 -209 -209 11 11 16 -209 -209 -209 58 59 57 60 61 61 61 61 62 61 61 61 60 61 62 61 61 59 58 60 21 23 24 20 21 23 -193 -209 -209 -209 -209 -209 -193 -193 76 77 76 77 78 75 -209 -209 47 57 -193 -209 -209 72 74 81 81 84 83 85 86 88 89 88 88 92 95 94 96 97 96 97 99 101 -209 35 36 35 33 31 30 33 30 33 31 33 32 32 33 32 32 33 31 34 30 35 35 38 43 48 -209 -193 -209 -209 -193 -177 131 135 137 137 138 138 138 140 140 142 -177 -177 -193 -177 0 0 0 0 0
    0 0 0 0 0 0 0 0 0 0 0 0 0 0 0 0 0 0 0 0 0 0 0 0 0 0 0 0 0 0 0 0 0 0 0 0 0 0 0 0 0 0 0 0 0 0 0 0 0 0 0 0 0 0 0 0 0 0 0 0 0 0 0 0 0 0 0 0 0 61 62 62 62 59 59 61 58 58 59 59 59 61 60 60 59 60 61 60 61 60 59 59 59 59 59 59 61 60 60 60 61 61 61 62 61 61 62 63 63 65 65 67 66 63 64 65 63 63 62 63 63 61 63 60 59 62 61 62 65 61 61 62 63 62 62 60 61 58 59 59 59 58 62 60 60 63 62 61 61 61 61 60 60 61 58 58 58 59 59 61 60 61 60 60 61 60 60 59 59 59 58 59 60 60 61 62 64 61 64 62 62 61 61 61 61 60 61 60 61 61 63 62 60 58 59 59 57 -193 57 56 57 59 61 60 62 62 62 61 61 62 61 61 61 60 60 61 61 62 59 59 61 -209 40 -193 22 23 24 -209 -209 -209 -193 -209 -209 -193 76 76 77 77 77 78 75 -193 -193 -193 59 58 60 65 70 73 78 78 81 82 86 86 88 90 89 89 91 92 92 94 96 94 95 97 99 98 96 99 -193 -209 30 31 34 30 34 30 34 32 32 33 32 33 33 31 34 30 36 36 39 46 -209 -209 -209 -209 -209 -209 -193 -209 135 137 137 138 138 138 139 139 -193 631 -209 -193 -177 0 0 0 0 0
    0 0 0 0 0 0 0 0 0 0 0 0 0 0 0 0 0 0 0 0 0 0 0 0 0 0 0 0 0 0 0 0 0 0 0 0 0 0 0 0 0 0 0 0 0 0 0 0 0 0 0 0 0 0 0 0 0 0 0 0 0 0 0 0 0 0 0 0 0 61 62 62 62 60 59 62 59 59 60 59 60 62 61 61 60 61 61 60 61 60 60 60 60 60 61 60 63 61 62 61 61 61 62 62 61 60 62 62 62 64 64 66 67 63 64 64 63 62 62 63 63 61 63 60 59 64 64 64 67 62 62 63 64 62 62 61 61 58 59 60 59 59 63 61 61 63 63 62 62 62 62 60 60 62 58 58 59 60 60 62 61 62 61 61 62 61 60 60 59 59 58 59 60 61 62 62 64 61 63 62 62 61 60 61 61 59 61 60 61 62 63 63 62 60 61 61 60 60 59 58 59 61 62 62 63 63 62 62 61 63 61 62 61 61 61 62 62 62 60 60 62 59 47 52 -209 -209 44 54 -209 -193 66 -209 76 74 77 76 77 77 78 78 75 75 76 67 67 62 62 65 70 73 77 75 72 78 87 88 90 91 90 90 91 93 92 93 95 94 94 96 97 97 97 99 94 91 -193 33 -193 -209 35 29 34 32 32 34 32 33 33 32 35 31 37 37 41 54 -209 -209 -209 -209 -209 -209 -193 -209 137 137 137 138 -193 138 139 138 -209 -193 -193 -193 -209 0 0 0 0 0
    0 0 0 0 0 0 0 0 0 0 0 0 0 0 0 0 0 0 0 0 0 0 0 0 0 0 0 0 0 0 0 0 0 0 0 0 0 0 0 0 0 0 0 0 0 0 0 0 0 0 0 0 0 0 0 0 0 0 0 0 0 0 0 0 0 0 0 0 0 61 63 62 62 61 61 63 61 61 62 61 62 63 62 61 61 61 61 60 61 60 59 61 61 62 62 61 65 62 62 62 62 62 61 62 62 60 62 61 62 66 65 67 67 62 63 64 62 62 62 63 63 62 66 62 61 68 68 67 69 64 63 64 64 63 63 61 62 59 60 60 60 59 63 62 61 64 63 62 62 62 62 61 61 63 59 59 60 61 61 63 62 63 62 62 63 61 61 60 59 59 58 59 60 62 62 62 64 61 63 62 62 61 60 61 61 60 61 61 62 63 63 63 62 61 62 62 61 62 60 60 61 63 63 64 64 63 63 62 62 63 62 63 62 62 62 63 63 63 61 62 64 61 57 57 58 58 58 60 -193 62 69 76 77 75 78 77 77 77 78 78 75 75 76 71 70 67 65 65 68 71 73 71 71 71 72 75 77 89 87 89 88 91 91 93 96 95 96 97 99 99 99 101 98 94 92 90 -209 70 69 -209 34 33 33 36 33 34 34 33 36 34 41 40 49 60 72 -209 -177 125 -209 135 -209 138 138 137 137 138 138 138 139 -193 -177 -177 -177 -209 -209 0 0 0 0 0
    0 0 0 0 0 0 0 0 0 0 0 0 0 0 0 0 0 0 0 0 0 0 0 0 0 0 0 0 0 0 0 0 0 0 0 0 0 0 0 0 0 0 0 0 0 0 0 0 0 0 0 0 0 0 0 0 0 0 0 0 0 0 0 0 0 0 0 0 0 62 64 62 62 62 62 64 65 64 65 64 64 65 63 63 62 61 62 61 61 61 60 62 63 65 64 63 66 63 64 63 62 62 62 62 62 60 63 61 63 67 66 67 67 62 63 64 63 63 63 64 64 63 68 66 67 70 70 70 70 66 64 65 65 64 63 62 62 59 61 61 61 60 64 64 62 65 64 63 63 63 63 61 61 64 59 60 61 62 63 65 63 64 62 62 63 62 61 60 59 59 58 59 60 63 63 63 64 62 63 62 62 62 60 61 61 60 61 61 61 63 63 62 62 61 62 62 61 63 61 61 63 64 63 65 64 64 63 63 63 63 62 63 63 63 64 65 63 65 62 65 66 63 61 61 61 62 63 66 71 69 71 78 78 76 79 77 77 78 78 78 76 75 77 73 72 70 66 66 67 68 70 69 69 70 71 71 71 72 76 75 84 90 90 92 96 96 96 98 100 100 100 102 101 100 96 95 -209 69 70 73 73 -193 73 -209 -209 -209 -209 -209 -209 -209 56 58 57 68 74 -209 -177 -177 -209 136 -209 139 139 136 136 138 137 137 138 -209 -177 -177 -177 -209 -209 0 0 0 0 0
    0 0 0 0 0 0 0 0 0 0 0 0 0 0 0 0 0 0 0 0 0 0 0 0 0 0 0 0 0 0 0 0 0 0 0 0 0 0 0 0 0 0 0 0 0 0 0 0 0 0 0 0 0 0 0 0 0 0 0 0 0 0 0 0 0 0 0 0 0 62 64 62 63 63 64 66 68 67 67 67 66 67 64 64 63 61 63 61 61 61 60 62 64 68 66 65 67 64 65 63 63 63 61 62 62 60 63 60 63 67 65 67 66 62 63 64 63 64 63 65 65 64 69 69 71 73 73 72 71 67 66 66 65 64 64 62 62 60 62 63 62 62 66 65 64 66 65 64 64 64 64 62 61 65 60 60 61 64 64 66 65 65 64 64 64 63 62 61 59 59 58 60 60 64 63 63 65 63 64 63 63 63 61 61 62 60 61 61 61 63 62 62 62 62 62 62 62 63 62 62 65 65 63 66 64 64 64 64 64 64 63 64 63 64 64 66 64 66 63 67 67 64 63 64 62 63 65 68 72 71 72 79 79 77 79 78 78 78 78 78 76 75 77 72 71 70 65 65 65 65 67 66 66 66 68 69 69 70 71 71 80 90 90 93 97 99 99 100 101 101 102 103 103 105 99 -193 -209 69 71 74 75 73 72 71 -193 -193 -193 -209 -209 67 63 63 62 70 77 -209 -177 -209 -209 -209 -209 139 140 136 136 137 137 137 -193 -177 702 697 697 502 503 0 0 0 0 0
    0 0 0 0 0 0 0 0 0 0 0 0 0 0 0 0 0 0 0 0 0 0 0 0 0 0 0 0 0 0 0 0 0 0 0 0 0 0 0 0 0 0 0 0 0 0 0 0 0 0 0 0 0 0 0 0 0 0 0 0 0 0 0 0 0 0 0 0 0 62 63 62 63 64 65 67 69 67 68 68 67 68 65 65 63 62 63 61 61 62 62 63 66 69 66 66 68 64 65 64 63 63 61 62 62 60 63 61 62 67 65 66 66 62 63 64 64 64 64 65 65 64 70 70 72 73 73 72 71 68 67 66 66 65 64 63 63 61 63 64 64 64 68 67 65 67 66 65 65 65 65 62 62 65 60 61 63 66 66 68 67 66 66 65 65 64 62 62 60 60 59 61 61 65 64 64 66 64 65 64 64 64 61 62 63 60 61 61 61 64 63 63 63 63 63 63 63 64 62 63 66 65 64 66 65 65 65 65 65 65 64 66 65 67 66 68 65 67 65 67 68 65 65 66 63 64 66 69 74 73 73 79 79 77 80 78 78 78 79 78 76 75 77 72 72 70 66 65 64 64 67 65 65 66 68 69 69 70 70 70 74 85 88 92 98 100 100 101 102 102 102 104 104 105 -193 -209 -209 70 71 74 75 74 73 73 73 73 74 -193 -193 70 67 68 66 72 82 -209 -209 -209 -209 -193 -209 140 141 136 136 138 137 137 -193 -177 701 695 695 -193 506 0 0 0 0 0
    0 0 0 0 0 0 0 0 0 0 0 0 0 0 0 0 0 0 0 0 0 0 0 0 0 0 0 0 0 0 0 0 0 0 0 0 0 0 0 0 0 0 0 0 0 0 0 0 0 0 0 0 0 0 0 0 0 0 0 0 0 0 0 0 0 0 0 0 0 63 63 63 64 66 67 68 70 68 68 69 67 68 66 65 64 62 64 62 62 64 64 66 68 70 67 67 68 65 66 64 64 63 61 62 63 60 64 62 64 66 66 66 66 63 64 64 64 64 64 65 66 65 70 71 73 74 74 72 71 68 67 67 66 65 64 63 63 62 64 66 66 66 69 68 66 68 67 66 66 66 65 62 62 65 60 61 64 67 66 68 67 67 66 66 66 65 63 63 61 60 60 62 62 66 64 63 66 64 65 65 64 64 62 63 64 61 62 62 62 65 63 63 64 63 63 64 63 64 63 63 65 65 64 67 65 67 66 67 67 66 66 68 66 69 67 68 66 68 67 68 70 68 68 68 65 66 68 70 77 74 74 79 79 77 80 78 78 78 78 78 77 75 77 72 71 70 66 65 64 64 67 65 66 66 68 68 69 69 70 70 72 75 85 91 98 101 101 101 103 103 103 104 105 106 99 -209 -209 70 71 74 76 76 74 75 75 75 75 -193 -193 71 70 71 70 73 82 -209 -193 -209 -209 142 -209 139 141 136 136 138 138 138 -177 -177 701 694 694 -193 509 0 0 0 0 0
    0 0 0 0 0 0 0 0 0 0 0 0 0 0 0 0 0 0 0 0 0 0 0 0 0 0 0 0 0 0 0 0 0 0 0 0 0 0 0 0 0 0 0 0 0 0 0 0 0 0 0 0 0 0 0 0 0 0 0 0 0 0 0 0 0 0 0 0 0 66 66 67 67 69 69 70 71 69 69 69 68 68 66 66 65 63 66 64 64 67 67 68 70 71 68 67 68 65 65 64 64 63 61 63 63 61 65 64 65 67 66 65 66 64 64 64 64 64 64 65 66 65 69 70 73 73 74 72 71 69 68 67 66 65 65 64 64 63 65 67 67 67 69 69 67 68 67 67 66 66 66 63 62 66 62 63 66 68 67 68 68 67 67 66 66 66 64 64 62 61 60 63 62 66 64 64 66 64 66 65 65 65 63 64 65 61 63 63 62 65 64 63 64 64 64 64 63 64 63 64 65 64 63 66 66 67 66 67 67 67 68 69 68 70 68 69 67 69 69 69 71 69 69 69 68 68 70 72 77 74 75 79 80 77 80 78 78 78 78 78 77 75 77 72 71 71 67 66 65 66 67 67 67 67 68 68 69 69 69 69 71 -209 -209 90 99 102 102 102 103 103 103 104 105 106 98 97 87 70 72 75 76 76 76 77 76 76 76 75 74 72 71 71 70 73 79 -209 -177 -209 -209 141 -209 138 141 136 136 -193 138 -193 701 701 701 694 -177 -209 -177 0 0 0 0 0
    0 0 0 0 0 0 0 0 0 0 0 0 0 0 0 0 0 0 0 0 0 0 0 0 0 0 0 0 0 0 0 0 0 0 0 0 0 0 0 0 0 0 0 0 0 0 0 0 0 0 0 0 0 0 0 0 0 0 0 0 0 0 0 0 0 0 0 0 0 68 69 70 70 71 70 71 71 69 69 69 68 69 67 67 67 65 68 67 67 70 69 69 70 71 68 68 68 66 66 64 64 64 61 63 64 62 67 68 69 70 68 67 68 66 66 65 63 64 64 64 66 64 68 70 73 73 74 72 71 70 69 68 67 66 65 64 64 64 66 67 68 68 69 70 68 69 68 68 67 67 67 64 63 68 65 66 68 69 67 68 68 67 67 67 66 66 64 65 64 61 60 63 61 65 64 64 67 65 66 66 66 67 64 65 67 63 65 64 64 66 64 64 65 64 64 65 64 65 64 64 65 64 64 67 66 67 67 68 67 68 68 69 68 70 68 69 66 70 69 69 72 70 70 70 71 71 72 73 78 74 77 78 80 77 80 78 78 78 78 78 77 75 77 73 72 72 69 68 68 69 69 68 69 69 69 69 69 69 69 70 72 -209 -209 89 100 102 102 102 103 102 103 103 -177 105 96 95 88 69 72 74 75 75 75 77 76 76 76 75 74 72 71 71 69 72 76 -193 -209 -209 -209 -209 -209 137 140 -193 -193 -193 -193 -193 700 700 700 693 -177 -193 -209 0 0 0 0 0
    0 0 0 0 0 0 0 0 0 0 0 0 0 0 0 0 0 0 0 0 0 0 0 0 0 0 0 0 0 0 0 0 0 0 0 0 0 0 0 0 0 0 0 0 0 0 0 0 0 0 0 0 0 0 0 0 0 0 0 0 0 0 0 0 0 0 0 0 0 70 70 70 70 71 71 71 71 69 69 69 69 69 68 68 68 67 70 70 70 72 71 71 71 72 69 68 69 66 66 65 65 65 61 65 66 65 70 71 71 71 70 70 70 69 68 67 64 65 65 66 67 67 69 71 75 74 75 73 72 71 70 69 68 67 66 65 65 65 66 67 68 68 70 71 69 69 69 69 68 68 68 66 63 68 67 67 69 70 68 68 69 68 67 67 67 67 65 67 65 62 61 63 61 64 64 64 67 66 67 67 67 68 66 67 68 65 67 66 65 66 65 65 66 65 65 66 65 66 65 65 66 65 65 67 67 68 68 69 68 68 69 69 69 69 69 69 66 71 70 69 72 71 71 72 72 73 73 74 78 75 77 78 79 77 80 78 78 78 78 77 77 75 76 73 72 73 71 70 71 71 70 71 71 71 71 71 70 69 69 70 72 -193 -209 89 100 -193 -193 102 103 102 102 103 -177 105 93 93 -209 67 71 73 74 75 76 78 77 76 75 75 74 73 72 72 71 72 75 78 -209 -209 -209 -209 -209 136 140 -193 -193 -193 -193 -193 700 700 700 692 -177 -193 -209 0 0 0 0 0
    0 0 0 0 0 0 0 0 0 0 0 0 0 0 0 0 0 0 0 0 0 0 0 0 0 0 0 0 0 0 0 0 0 0 0 0 0 0 0 0 0 0 0 0 0 0 0 0 0 0 0 0 0 0 0 0 0 0 0 0 0 0 0 0 0 0 0 0 0 70 71 70 70 71 70 70 70 69 69 69 69 69 69 69 69 69 71 73 72 74 -193 72 71 72 70 69 69 67 66 66 66 66 61 67 68 69 71 72 72 -193 70 70 70 70 69 69 66 66 66 67 68 69 69 72 75 74 74 74 72 71 70 70 68 67 66 65 65 66 67 67 69 69 70 71 69 70 70 69 69 69 69 68 65 69 69 69 69 70 68 68 69 68 68 68 68 67 65 68 67 64 63 65 62 64 66 66 68 67 68 68 68 69 68 68 69 66 68 66 65 66 66 66 67 66 66 66 67 67 67 67 68 67 67 68 68 69 69 70 68 69 70 70 70 70 70 70 68 73 73 72 74 73 73 73 73 73 73 74 77 75 77 77 78 77 80 78 78 78 78 77 77 75 76 73 73 73 73 72 73 73 72 72 73 73 73 72 71 70 69 70 72 -209 -209 90 100 102 103 102 103 102 102 -177 -193 -209 89 90 77 -193 72 73 75 76 77 80 78 77 76 75 74 73 73 72 72 73 75 78 -193 -209 -209 -209 -209 136 140 -193 -193 -193 139 -193 699 700 700 692 -177 -209 -209 0 0 0 0 0
    0 0 0 0 0 0 0 0 0 0 0 0 0 0 0 0 0 0 0 0 0 0 0 0 0 0 0 0 0 0 0 0 0 0 0 0 0 0 0 0 0 0 0 0 0 0 0 0 0 0 0 0 0 0 0 0 0 0 0 0 0 0 0 0 0 0 0 0 0 69 70 70 70 70 70 70 70 69 69 69 69 70 69 69 69 70 72 74 73 76 -193 -193 72 73 70 70 70 68 66 66 67 66 62 68 69 69 71 72 71 71 70 70 70 70 69 69 65 67 67 68 69 70 69 72 74 73 74 73 72 71 71 70 68 67 66 65 65 67 67 67 69 69 70 72 70 71 70 70 70 70 70 69 66 70 69 69 69 70 67 68 69 69 68 68 68 68 67 69 69 67 65 68 65 65 69 68 70 69 70 70 69 69 69 68 69 67 69 67 66 66 67 67 68 67 67 67 68 68 69 69 69 68 68 69 70 70 70 71 69 70 71 71 71 72 71 72 71 74 74 74 75 75 74 74 74 74 74 75 77 75 77 77 78 77 79 78 78 78 77 77 77 76 76 73 74 74 73 74 73 73 73 73 73 73 73 72 71 70 69 69 71 -193 -209 92 101 101 102 101 102 101 100 99 102 88 87 87 77 74 74 74 75 77 79 82 79 78 77 75 75 74 73 73 73 73 75 78 84 -209 -209 -209 -209 -193 141 -193 -193 -193 140 -193 -177 -177 -177 692 691 -209 -209 0 0 0 0 0
    0 0 0 0 0 0 0 0 0 0 0 0 0 0 0 0 0 0 0 0 0 0 0 0 0 0 0 0 0 0 0 0 0 0 0 0 0 0 0 0 0 0 0 0 0 0 0 0 0 0 0 0 0 0 0 0 0 0 0 0 0 0 0 0 0 0 0 0 0 70 71 70 70 70 71 70 70 69 69 69 69 70 70 70 70 71 73 75 74 76 -193 -193 73 73 71 70 70 68 66 66 67 66 62 68 69 70 70 72 71 71 70 70 70 70 69 69 65 67 67 69 70 70 69 72 74 73 73 73 71 71 71 70 69 68 67 66 66 67 68 68 70 70 71 72 70 71 71 71 71 71 71 70 68 71 70 70 70 70 68 67 69 69 69 69 69 69 68 70 69 68 66 69 67 66 71 70 71 70 71 71 70 70 70 69 69 68 70 67 67 66 67 68 69 68 68 68 69 69 69 70 70 69 70 71 71 71 72 72 70 71 72 72 72 72 72 72 71 74 75 74 75 75 74 76 75 75 75 76 76 75 77 77 78 78 79 78 78 78 77 77 77 76 76 74 74 74 74 75 74 74 74 74 74 74 74 73 70 70 69 70 72 -193 -209 92 101 100 100 100 100 99 99 97 100 87 86 85 76 74 74 73 75 77 80 83 81 79 77 76 76 75 74 73 73 74 75 78 83 -209 -209 -209 -209 -193 -193 -193 -193 -193 140 -193 -177 -177 699 692 -193 -209 -209 0 0 0 0 0
    0 0 0 0 0 0 0 0 0 0 0 0 0 0 0 0 0 0 0 0 0 0 0 0 0 0 0 0 0 0 0 0 0 0 0 0 0 0 0 0 0 0 0 0 0 0 0 0 0 0 0 0 0 0 0 0 0 0 0 0 0 0 0 0 0 0 0 0 0 71 72 71 71 -193 71 71 70 70 69 69 70 71 70 70 71 73 73 75 74 76 -193 -193 73 73 71 71 70 69 65 66 67 67 63 69 70 71 71 72 72 72 71 70 71 71 70 70 66 68 68 70 71 72 71 73 75 74 74 73 71 71 71 70 69 68 67 66 66 68 68 69 70 70 71 73 71 72 72 72 72 72 72 72 69 72 71 71 70 70 69 68 70 70 70 70 70 69 68 70 70 69 66 68 67 66 71 70 71 70 71 71 71 70 70 69 70 68 70 68 68 67 68 69 70 69 69 69 70 69 70 70 71 70 71 72 72 73 73 74 71 71 73 72 73 73 72 73 73 75 76 74 76 76 75 78 76 76 76 76 76 75 77 77 77 77 79 77 77 77 77 76 76 76 75 74 74 74 74 76 75 75 75 75 75 75 75 74 71 71 70 71 75 -209 93 92 101 98 99 99 99 98 98 96 98 86 85 82 76 74 74 73 74 74 77 80 80 79 77 76 76 75 74 74 74 74 75 79 84 -209 -209 -209 -193 -193 -193 -193 -193 -193 140 -193 -193 -177 698 -193 -209 -209 -209 0 0 0 0 0
    0 0 0 0 0 0 0 0 0 0 0 0 0 0 0 0 0 0 0 0 0 0 0 0 0 0 0 0 0 0 0 0 0 0 0 0 0 0 0 0 0 0 0 0 0 0 0 0 0 0 0 0 0 0 0 0 0 0 0 0 0 0 0 0 0 0 0 0 0 72 73 71 71 -193 72 71 70 70 69 69 71 71 71 71 72 73 74 75 74 76 -193 73 73 73 72 71 70 69 64 66 67 67 67 70 72 72 72 74 73 72 72 71 72 71 71 71 68 70 72 73 74 74 74 76 77 75 75 74 72 72 72 71 70 69 68 68 67 69 69 69 71 71 71 74 72 72 72 73 73 73 73 73 70 73 72 71 71 70 69 69 70 71 71 70 71 70 70 71 71 70 66 68 67 65 71 70 71 70 71 72 71 71 70 70 70 69 70 68 69 67 69 69 70 69 69 69 70 70 70 71 71 71 72 73 73 73 74 74 71 72 73 73 73 73 72 73 73 75 76 74 75 76 76 78 77 77 77 77 76 75 77 77 77 77 78 77 77 77 77 76 76 76 75 74 75 75 75 76 76 75 75 75 75 75 75 74 71 70 70 72 80 -209 94 93 101 97 98 99 99 98 97 96 97 86 85 81 76 75 75 74 74 74 76 78 79 80 77 77 77 76 75 75 74 75 75 81 85 -209 -209 -209 -193 -193 -209 -193 -193 -193 139 -177 -193 -193 -209 -209 -209 -209 -209 0 0 0 0 0
    0 0 0 0 0 0 0 0 0 0 0 0 0 0 0 0 0 0 0 0 0 0 0 0 0 0 0 0 0 0 0 0 0 0 0 0 0 0 0 0 0 0 0 0 0 0 0 0 0 0 0 0 0 0 0 0 0 0 0 0 0 0 0 0 0 0 0 0 0 73 74 72 72 -193 72 71 70 70 69 69 71 72 72 72 73 74 74 76 75 76 74 74 73 73 72 72 71 70 64 68 68 69 70 72 74 74 74 75 74 73 73 72 73 72 72 72 71 73 75 77 78 78 77 79 79 77 76 75 74 74 73 73 72 70 70 70 70 71 71 71 72 72 72 75 72 73 73 74 74 74 74 74 72 73 73 72 72 71 70 70 71 72 72 71 72 71 71 72 71 71 68 70 68 67 71 70 71 71 72 73 73 72 72 72 72 71 71 70 70 69 70 70 70 70 70 70 72 71 72 72 73 73 73 74 74 73 74 75 72 72 74 73 73 73 73 73 74 75 75 75 75 76 76 78 78 77 78 77 76 76 78 78 78 78 79 77 78 78 77 76 76 76 75 74 75 75 75 76 76 76 76 75 75 75 75 74 73 71 71 72 84 -193 94 94 101 96 97 98 98 97 96 95 95 87 85 82 76 76 76 75 75 73 75 77 78 79 77 76 77 76 75 75 74 75 76 82 86 -209 -209 -209 -209 -209 -209 -209 -209 -193 139 -193 -193 -193 -209 -209 -209 -209 -209 0 0 0 0 0
    0 0 0 0 0 0 0 0 0 0 0 0 0 0 0 0 0 0 0 0 0 0 0 0 0 0 0 0 0 0 0 0 0 0 0 0 0 0 0 0 0 0 0 0 0 0 0 0 0 0 0 0 0 0 0 0 0 0 0 0 0 0 0 0 0 0 0 0 0 74 75 72 72 71 72 71 70 70 70 70 72 73 73 73 73 74 74 76 75 76 74 74 74 74 73 73 72 73 67 72 72 72 74 74 77 77 75 77 75 74 74 74 74 73 73 74 74 75 79 80 81 80 80 81 81 78 77 76 75 75 74 74 73 72 72 73 72 73 73 74 74 74 73 77 74 74 75 75 75 75 75 75 73 73 74 73 72 72 72 71 72 73 73 73 73 73 73 73 73 73 71 73 70 72 73 73 73 74 75 76 74 73 73 73 73 72 73 71 71 71 72 72 72 72 71 71 73 72 72 73 74 74 74 75 75 74 75 75 73 73 75 74 74 73 74 74 74 75 75 75 76 75 76 78 77 77 77 77 76 76 77 78 77 78 78 77 78 77 77 76 76 76 75 75 76 75 76 77 76 76 76 76 76 75 76 75 74 74 73 74 84 96 93 93 101 96 96 98 97 96 95 95 95 87 86 83 77 76 76 75 75 74 75 76 78 78 76 75 77 77 76 76 76 76 77 84 -193 -209 -209 -209 -193 -209 -193 -193 -193 -209 -209 -193 -193 -193 -193 -193 -209 -209 -209 0 0 0 0 0
    0 0 0 0 0 0 0 0 0 0 0 0 0 0 0 0 0 0 0 0 0 0 0 0 0 0 0 0 0 0 0 0 0 0 0 0 0 0 0 0 0 0 0 0 0 0 0 0 0 0 0 0 0 0 0 0 0 0 0 0 0 0 0 0 0 0 0 0 0 75 76 73 73 71 72 71 70 71 71 71 73 73 73 73 74 75 75 76 75 76 75 75 75 74 74 74 73 73 69 74 75 74 77 76 79 78 77 77 76 75 75 75 75 74 73 75 75 76 80 80 82 81 81 82 82 78 77 77 76 76 75 75 74 73 73 74 74 74 75 76 76 75 74 78 76 75 76 76 76 76 76 76 74 74 74 74 73 73 73 73 74 75 75 75 75 74 74 74 74 74 73 74 73 74 75 76 76 75 77 77 75 74 74 74 73 73 74 73 73 73 74 74 73 73 73 71 74 73 73 74 74 75 75 75 76 74 75 76 74 74 76 74 75 74 74 75 75 76 76 75 76 76 77 79 77 77 79 79 77 77 78 79 77 79 78 77 77 77 77 77 76 77 75 76 77 76 77 77 77 77 77 76 77 76 77 76 76 75 74 75 84 94 92 93 101 96 96 98 97 96 95 95 95 88 87 84 77 77 77 76 76 74 76 77 78 79 77 76 77 78 78 77 78 79 81 86 -209 -209 -209 -209 138 137 -193 -193 135 -193 -193 -193 -193 -193 -193 -193 -209 -209 -209 0 0 0 0 0
    0 0 0 0 0 0 0 0 0 0 0 0 0 0 0 0 0 0 0 0 0 0 0 0 0 0 0 0 0 0 0 0 0 0 0 0 0 0 0 0 0 0 0 0 0 0 0 0 0 0 0 0 0 0 0 0 0 0 0 0 0 0 0 0 0 0 0 0 0 76 76 75 74 72 73 72 71 72 72 72 74 74 74 74 75 75 76 77 76 77 75 75 76 75 75 75 73 74 72 76 78 76 79 78 81 79 77 78 77 76 76 75 75 74 74 75 76 76 80 80 82 82 82 83 82 79 78 77 77 77 76 76 75 74 75 75 75 75 76 77 76 75 74 78 78 76 76 77 77 77 77 77 75 75 75 74 74 74 74 74 75 75 75 76 76 75 76 75 76 75 75 76 74 77 77 78 78 78 80 79 77 76 75 75 74 75 75 74 74 74 75 74 73 74 73 72 74 74 74 75 75 76 77 76 77 75 76 77 75 75 78 75 76 75 75 76 76 76 76 76 77 77 77 79 78 78 80 81 77 79 79 80 78 81 79 78 79 79 78 79 79 79 77 78 78 77 78 78 77 77 77 77 78 77 78 77 77 77 76 78 85 93 91 93 101 96 97 98 98 97 96 97 96 88 87 85 78 78 78 77 77 75 77 77 78 79 77 76 77 78 79 78 80 82 84 87 -193 -209 -177 -193 138 138 -193 -193 134 135 -193 -193 17 18 0 -209 -209 -209 -209 0 0 0 0 0
    0 0 0 0 0 0 0 0 0 0 0 0 0 0 0 0 0 0 0 0 0 0 0 0 0 0 0 0 0 0 0 0 0 0 0 0 0 0 0 0 0 0 0 0 0 0 0 0 0 0 0 0 0 0 0 0 0 0 0 0 0 0 0 0 0 0 0 0 0 77 77 76 76 74 75 74 73 74 74 74 75 75 76 75 77 76 76 77 76 77 76 75 76 75 75 75 74 75 74 78 80 77 80 79 82 79 78 78 77 77 76 76 76 74 75 76 76 77 80 80 82 82 83 83 83 79 79 78 78 78 77 77 76 74 76 76 76 76 77 78 77 75 75 79 79 77 77 78 78 78 78 78 76 75 76 75 74 74 75 75 76 76 75 78 77 76 77 76 76 76 76 77 75 78 78 80 79 80 81 81 79 77 77 77 76 76 75 75 75 75 76 74 74 74 74 72 75 75 75 75 76 76 77 77 77 76 76 77 76 76 79 76 77 75 75 76 76 76 76 76 77 77 78 80 78 80 82 83 78 82 82 82 81 82 81 80 80 80 80 81 80 80 79 78 79 78 78 78 78 78 78 78 78 78 79 78 79 78 78 81 86 92 91 94 102 97 98 99 99 98 98 100 98 89 89 86 78 79 78 77 77 76 76 77 78 79 77 77 78 80 80 79 81 83 84 87 -209 -209 -177 139 137 137 133 133 133 134 -193 15 17 17 0 -209 -209 -209 -209 0 0 0 0 0
    0 0 0 0 0 0 0 0 0 0 0 0 0 0 0 0 0 0 0 0 0 0 0 0 0 0 0 0 0 0 0 0 0 0 0 0 0 0 0 0 0 0 0 0 0 0 0 0 0 0 0 0 0 0 0 0 0 0 0 0 0 0 0 0 0 0 0 0 0 77 77 77 77 75 77 76 76 76 77 76 77 76 77 77 78 76 77 77 76 76 76 75 76 75 75 76 75 75 75 77 80 77 79 79 83 79 78 79 78 78 77 77 77 75 76 76 77 77 79 80 81 83 83 84 83 80 80 79 79 79 78 77 76 75 77 77 77 77 77 79 78 76 76 81 81 78 79 79 79 79 79 79 77 76 77 76 75 75 76 76 77 76 76 79 78 77 77 77 77 77 77 77 75 79 78 81 80 80 81 81 80 79 79 78 77 77 77 76 76 76 77 75 75 76 75 74 77 77 76 77 77 77 78 77 77 76 76 77 76 76 78 76 77 75 74 77 76 76 76 77 77 77 79 80 78 81 82 83 78 83 83 82 81 82 82 81 81 81 82 82 81 81 80 79 80 79 79 79 79 79 79 78 79 78 80 79 80 79 79 83 87 91 90 94 101 97 98 100 100 99 100 102 100 91 93 89 78 80 79 78 78 76 77 77 79 80 78 78 79 81 80 80 81 83 83 88 -209 -209 137 134 135 136 132 132 132 133 15 14 17 17 0 -209 -209 -209 -209 0 0 0 0 0
    0 0 0 0 0 0 0 0 0 0 0 0 0 0 0 0 0 0 0 0 0 0 0 0 0 0 0 0 0 0 0 0 0 0 0 0 0 0 0 0 0 0 0 0 0 0 0 0 0 0 0 0 0 0 0 0 0 0 0 0 0 0 0 0 0 0 0 0 0 77 78 77 77 75 79 77 78 78 79 78 78 77 78 78 79 77 77 77 76 76 77 76 76 75 76 76 76 76 76 77 80 77 79 78 83 79 79 80 79 79 78 78 78 76 77 77 78 78 80 81 82 83 84 84 84 80 80 80 80 80 79 78 77 76 79 79 78 77 77 79 78 77 77 82 82 80 80 81 80 81 81 80 78 77 78 77 76 77 77 77 78 77 77 80 78 77 78 77 77 77 77 78 75 80 79 81 80 81 81 82 81 81 80 79 78 78 78 78 78 77 77 75 76 77 76 75 77 78 78 78 79 79 80 78 78 77 77 77 77 77 78 76 77 75 75 78 76 77 77 78 78 77 79 80 78 81 82 83 79 84 84 83 83 83 85 83 83 83 83 83 83 82 82 79 81 79 80 79 80 80 79 79 80 80 80 80 81 80 81 84 86 90 90 94 102 98 99 101 101 100 101 103 102 92 95 91 80 81 80 79 79 77 78 78 80 82 79 79 80 82 82 83 83 84 84 89 -177 -193 135 131 132 136 131 131 132 133 14 14 17 16 9 -209 -209 -209 -209 0 0 0 0 0
    0 0 0 0 0 0 0 0 0 0 0 0 0 0 0 0 0 0 0 0 0 0 0 0 0 0 0 0 0 0 0 0 0 0 0 0 0 0 0 0 0 0 0 0 0 0 0 0 0 0 0 0 0 0 0 0 0 0 0 0 0 0 0 0 0 0 0 0 0 77 78 77 77 76 80 78 79 79 81 79 79 79 79 79 80 77 78 77 77 77 78 77 77 76 77 78 78 77 78 78 81 78 79 79 83 79 79 80 80 80 79 79 79 76 79 79 80 79 81 82 83 84 85 85 84 81 81 81 81 81 80 80 78 78 82 81 80 80 79 80 79 78 79 83 83 81 82 82 81 82 82 81 79 78 80 78 77 77 78 77 78 76 77 81 78 78 78 78 77 77 78 78 75 81 80 82 81 82 82 83 83 83 82 81 79 80 79 79 79 78 78 76 77 77 77 77 78 79 80 80 81 81 82 80 79 79 78 78 78 77 77 76 77 75 75 79 77 77 77 79 78 78 80 81 78 82 83 83 80 86 86 85 86 86 86 85 85 84 85 84 84 83 83 81 82 81 81 80 81 81 80 81 81 81 82 82 83 82 83 84 87 90 89 94 102 99 100 102 101 101 102 104 103 93 97 94 84 83 82 82 82 80 80 81 82 83 81 82 82 83 84 84 84 85 87 88 -177 -193 135 130 132 135 131 131 132 133 14 14 17 16 9 -209 -209 -209 -209 0 0 0 0 0
    0 0 0 0 0 0 0 0 0 0 0 0 0 0 0 0 0 0 0 0 0 0 0 0 0 0 0 0 0 0 0 0 0 0 0 0 0 0 0 0 0 0 0 0 0 0 0 0 0 0 0 0 0 0 0 0 0 0 0 0 0 0 0 0 0 0 0 0 0 78 78 77 78 76 80 79 81 81 82 82 81 81 80 80 81 78 79 78 78 79 80 79 79 78 79 81 82 80 81 80 83 79 80 80 83 79 80 80 80 80 80 80 80 77 80 79 80 80 82 83 84 85 86 86 85 82 82 82 82 82 81 81 80 80 84 83 82 82 82 82 81 80 82 85 84 82 83 83 82 82 83 82 79 79 80 78 78 79 79 78 79 77 77 82 79 79 78 78 78 78 79 79 76 82 80 83 82 83 83 83 83 83 83 82 80 81 81 80 80 79 79 77 78 78 78 77 78 80 81 82 82 83 83 81 80 80 79 78 78 78 77 76 77 76 75 81 78 78 78 81 79 79 81 81 79 83 84 84 81 86 87 86 88 88 88 86 86 85 86 85 85 84 84 82 84 83 83 80 82 82 82 83 83 83 84 83 84 83 84 85 87 89 89 95 103 101 102 103 102 102 103 105 105 94 98 96 88 86 85 85 85 83 83 83 83 83 82 83 83 84 85 85 85 87 89 91 104 122 135 130 132 136 132 132 133 -193 15 14 18 17 9 -209 -209 -209 -209 0 0 0 0 0
    0 0 0 0 0 0 0 0 0 0 0 0 0 0 0 0 0 0 0 0 0 0 0 0 0 0 0 0 0 0 0 0 0 0 0 0 0 0 0 0 0 0 0 0 0 0 0 0 0 0 0 0 0 0 0 0 0 0 0 0 0 0 0 0 0 0 0 0 0 78 78 77 78 76 81 80 82 82 83 83 82 82 82 82 82 80 80 79 78 80 81 80 80 79 79 82 82 82 83 81 83 81 81 82 84 80 80 80 81 80 80 80 80 77 80 80 80 79 81 83 83 84 86 85 85 82 83 83 82 83 82 81 81 81 84 83 83 83 83 83 82 81 83 86 84 83 83 83 83 83 83 82 80 80 81 79 79 80 80 80 82 79 79 83 80 81 80 80 80 79 80 81 78 83 81 84 83 83 83 84 83 83 83 82 80 82 82 81 80 80 80 78 79 79 78 77 79 80 81 82 83 83 83 81 80 80 79 79 78 78 78 76 78 79 77 84 79 79 80 83 81 81 82 82 79 83 84 84 82 87 87 87 89 89 89 87 87 86 87 86 86 85 85 84 85 85 86 82 85 84 84 84 84 85 84 84 84 83 85 86 88 90 89 96 103 102 103 104 103 104 105 106 106 94 98 96 89 87 86 86 86 84 83 84 84 84 83 85 84 86 87 87 87 88 91 92 103 -209 -177 129 133 136 133 133 134 -193 15 15 18 18 9 -209 -209 -209 759 0 0 0 0 0
    0 0 0 0 0 0 0 0 0 0 0 0 0 0 0 0 0 0 0 0 0 0 0 0 0 0 0 0 0 0 0 0 0 0 0 0 0 0 0 0 0 0 0 0 0 0 0 0 0 0 0 0 0 0 0 0 0 0 0 0 0 0 0 0 0 0 0 0 0 78 79 77 78 77 81 81 83 82 84 84 83 84 84 84 83 81 82 80 79 82 82 80 80 81 80 83 83 83 84 82 84 83 82 83 84 81 81 80 82 81 81 81 81 78 81 80 80 79 80 83 83 84 86 86 85 83 83 83 83 83 83 80 81 82 85 84 83 83 83 83 82 81 83 86 84 83 84 84 83 83 83 83 80 82 83 81 81 83 82 82 84 82 81 84 82 83 81 81 81 81 81 82 80 84 81 85 84 84 84 84 84 84 84 83 81 83 83 81 81 81 80 79 80 80 79 78 80 80 81 82 83 83 83 81 81 80 80 81 79 79 79 78 81 82 81 85 80 82 82 84 82 82 83 83 81 84 85 85 83 87 88 88 90 90 90 88 88 87 88 86 86 86 85 85 86 86 86 83 86 85 85 86 86 86 85 85 86 85 86 88 89 90 90 97 104 103 104 105 104 105 106 107 108 96 99 97 89 87 86 87 87 85 84 84 85 85 84 86 85 87 87 88 88 89 91 93 103 -209 -209 129 133 138 134 -193 -193 14 15 15 19 18 10 -209 -209 -209 756 0 0 0 0 0
    0 0 0 0 0 0 0 0 0 0 0 0 0 0 0 0 0 0 0 0 0 0 0 0 0 0 0 0 0 0 0 0 0 0 0 0 0 0 0 0 0 0 0 0 0 0 0 0 0 0 0 0 0 0 0 0 0 0 0 0 0 0 0 0 0 0 0 0 0 78 79 78 78 77 81 82 84 83 85 85 84 85 85 85 84 83 83 82 81 83 83 81 81 81 82 84 85 85 86 83 86 85 83 84 84 81 82 81 83 82 82 83 82 80 83 82 81 80 82 84 83 85 87 86 85 84 84 84 83 84 83 80 81 82 84 84 83 83 83 83 83 82 84 86 84 84 85 84 84 84 84 84 81 84 84 83 84 84 84 84 85 83 83 84 83 84 83 82 83 82 83 84 82 85 82 86 85 85 85 85 84 85 84 84 82 83 84 82 82 82 81 80 81 81 79 78 80 81 82 83 83 84 84 83 82 82 82 83 81 82 82 81 83 84 84 86 81 84 84 85 82 83 84 83 81 84 85 85 84 88 88 88 90 90 90 88 88 87 88 86 87 86 86 86 87 87 87 84 87 86 87 87 87 87 87 87 87 87 87 89 90 91 91 98 104 104 104 105 105 106 107 108 109 98 99 98 89 88 88 89 89 87 86 85 85 85 85 87 86 87 87 88 88 89 91 91 102 -209 -209 127 133 139 -193 -193 -193 14 15 15 18 18 -209 -209 -209 -193 753 0 0 0 0 0
    0 0 0 0 0 0 0 0 0 0 0 0 0 0 0 0 0 0 0 0 0 0 0 0 0 0 0 0 0 0 0 0 0 0 0 0 0 0 0 0 0 0 0 0 0 0 0 0 0 0 0 0 0 0 0 0 0 0 0 0 0 0 0 0 0 0 0 0 0 79 79 78 78 78 82 83 85 84 85 85 85 85 86 86 85 84 85 83 83 84 84 82 82 82 83 85 86 86 86 84 86 85 83 84 84 82 82 82 84 83 84 85 84 83 84 84 83 82 83 85 84 86 88 87 86 86 85 85 84 85 84 80 81 82 84 84 83 84 84 84 84 84 85 87 85 85 85 85 84 85 85 85 82 85 85 84 85 85 85 84 85 84 84 85 84 84 83 83 84 83 83 85 84 85 83 86 86 85 86 85 85 85 85 84 83 84 85 84 84 83 82 81 82 82 80 79 81 82 83 84 84 85 85 84 83 83 84 84 83 84 84 84 85 86 85 87 83 85 85 86 83 83 85 84 82 84 85 85 84 87 87 86 89 89 89 88 89 88 89 87 87 87 87 88 89 88 89 86 89 89 90 90 88 89 89 88 89 88 88 90 91 92 91 98 104 104 104 106 105 106 107 109 109 100 99 97 89 89 90 91 92 90 89 88 87 87 87 88 86 87 87 89 88 89 91 92 -193 307 306 126 133 139 -193 -193 -193 13 15 14 -193 -193 -209 -209 -209 -209 -177 0 0 0 0 0
    0 0 0 0 0 0 0 0 0 0 0 0 0 0 0 0 0 0 0 0 0 0 0 0 0 0 0 0 0 0 0 0 0 0 0 0 0 0 0 0 0 0 0 0 0 0 0 0 0 0 0 0 0 0 0 0 0 0 0 0 0 0 0 0 0 0 0 0 0 80 81 78 79 79 83 84 86 84 85 86 85 86 86 86 86 85 85 84 84 85 85 84 84 84 85 86 87 86 87 84 86 85 83 84 84 83 83 82 84 83 85 85 85 85 86 85 85 84 85 86 85 86 89 87 87 87 86 85 85 85 84 80 82 82 83 84 84 84 85 84 85 85 86 87 85 86 86 86 85 86 86 86 83 86 86 85 86 86 85 85 85 85 84 85 84 85 84 84 84 84 84 85 85 85 83 87 87 85 86 85 84 85 85 85 84 85 86 85 85 84 83 83 84 83 81 81 82 82 83 85 85 86 86 85 85 85 86 86 85 86 85 85 86 86 86 87 84 86 85 86 83 84 86 84 82 85 85 85 84 87 87 86 89 90 89 88 90 89 90 87 88 88 88 89 89 89 89 88 90 90 91 91 89 90 90 89 90 89 89 92 93 93 92 99 104 104 104 105 105 106 107 108 108 100 99 96 90 91 92 94 94 93 93 92 90 89 89 88 86 87 87 89 89 90 93 94 -209 -177 -177 126 133 140 137 -193 -193 -193 -193 -193 -193 -193 -209 -209 -209 -209 -209 0 0 0 0 0
    0 0 0 0 0 0 0 0 0 0 0 0 0 0 0 0 0 0 0 0 0 0 0 0 0 0 0 0 0 0 0 0 0 0 0 0 0 0 0 0 0 0 0 0 0 0 0 0 0 0 0 0 0 0 0 0 0 0 0 0 0 0 0 0 0 0 0 0 0 83 82 80 81 83 85 86 87 85 86 86 85 86 86 86 86 85 86 84 84 86 86 84 85 85 86 86 87 87 87 85 86 85 84 85 84 84 84 83 85 84 86 87 86 86 87 87 87 86 87 87 86 87 90 88 87 87 86 86 85 86 85 80 82 82 82 84 83 84 85 84 85 85 86 88 86 86 87 86 86 86 86 87 83 87 86 86 87 86 86 85 85 85 84 85 85 86 85 85 85 85 85 86 86 86 84 87 87 86 86 85 84 85 85 85 84 86 86 86 86 86 85 84 85 84 81 82 83 83 84 86 86 87 87 86 87 87 87 87 86 87 86 86 87 87 87 87 85 86 86 86 84 85 86 84 83 85 86 86 85 87 88 87 90 91 91 90 91 91 92 89 90 90 89 91 91 90 91 90 92 92 92 92 90 91 91 90 92 91 91 94 94 94 93 100 103 104 104 105 104 105 106 107 107 100 100 96 91 92 94 96 96 94 95 95 93 91 91 90 88 88 88 89 89 90 93 -209 -209 -209 -209 128 134 141 138 138 139 138 -193 -193 -193 -193 -209 -209 -209 -209 -209 0 0 0 0 0
    0 0 0 0 0 0 0 0 0 0 0 0 0 0 0 0 0 0 0 0 0 0 0 0 0 0 0 0 0 0 0 0 0 0 0 0 0 0 0 0 0 0 0 0 0 0 0 0 0 0 0 0 0 0 0 0 0 0 0 0 0 0 0 0 0 0 0 0 0 85 84 84 85 87 88 89 89 87 87 87 86 87 87 87 86 85 86 85 85 86 86 85 86 85 86 87 88 88 88 86 86 86 85 85 84 84 84 83 85 85 86 88 87 87 88 88 88 88 88 88 87 87 91 88 88 88 87 86 85 86 85 79 83 83 81 85 84 85 86 85 87 86 86 89 86 87 87 86 86 87 87 87 84 88 86 86 87 86 86 85 86 86 85 85 86 86 86 85 86 86 85 87 87 87 84 88 88 86 86 85 85 85 85 85 84 87 87 86 87 87 86 85 85 85 81 82 84 84 85 87 88 88 88 88 89 89 89 88 87 87 87 87 87 87 87 87 86 87 87 87 86 86 87 85 84 85 87 86 86 87 88 87 90 91 91 90 92 92 93 90 91 91 91 93 92 92 92 91 93 93 93 93 91 92 92 92 93 93 93 97 97 96 95 100 103 103 103 104 103 105 106 106 106 101 100 96 92 92 95 96 96 96 97 99 96 94 94 92 89 90 90 90 89 91 -193 -193 -209 -209 -209 131 135 141 138 138 139 139 -193 -193 -193 -193 -209 -209 -209 -209 -209 0 0 0 0 0
    0 0 0 0 0 0 0 0 0 0 0 0 0 0 0 0 0 0 0 0 0 0 0 0 0 0 0 0 0 0 0 0 0 0 0 0 0 0 0 0 0 0 0 0 0 0 0 0 0 0 0 0 0 0 0 0 0 0 0 0 0 0 0 0 0 0 0 0 0 86 85 87 88 90 90 92 91 88 88 88 87 87 88 87 87 86 87 86 86 87 87 86 86 86 87 88 89 89 89 87 87 87 86 86 85 85 84 83 86 85 86 88 88 88 88 88 88 88 88 89 86 87 91 87 88 88 87 86 85 86 85 79 83 83 82 86 87 88 90 89 90 89 88 91 87 -193 -193 87 87 87 87 88 84 88 86 86 87 86 86 85 86 86 85 85 86 86 86 86 87 86 86 87 87 87 85 88 88 86 86 85 84 85 85 85 84 86 87 86 87 87 86 86 86 86 81 82 85 85 85 88 89 89 90 89 91 90 90 89 88 88 -193 -193 -193 87 87 86 87 88 88 87 87 87 89 85 85 86 87 86 87 87 88 87 90 91 91 90 92 93 94 91 92 92 92 94 93 93 93 92 94 94 94 93 91 92 93 93 94 94 95 99 99 97 97 101 102 102 103 103 103 103 105 105 105 101 100 96 93 92 95 96 95 96 98 101 98 97 97 94 90 90 91 91 90 92 -193 -193 -209 -209 -209 -193 135 139 138 138 138 138 -209 -193 -193 -193 -209 -209 -209 -209 -209 0 0 0 0 0
    0 0 0 0 0 0 0 0 0 0 0 0 0 0 0 0 0 0 0 0 0 0 0 0 0 0 0 0 0 0 0 0 0 0 0 0 0 0 0 0 0 0 0 0 0 0 0 0 0 0 0 0 0 0 0 0 0 0 0 0 0 0 0 0 0 0 0 0 0 87 86 89 90 92 92 93 92 90 89 88 87 87 88 87 88 87 88 87 87 88 88 87 87 87 88 89 91 91 90 89 88 88 87 87 86 85 85 84 86 85 86 87 88 88 88 89 89 88 89 88 87 87 91 88 88 88 87 86 86 86 85 79 84 84 83 88 89 90 92 92 92 91 89 92 -193 -193 -193 88 88 88 88 89 86 88 87 86 87 86 86 85 86 86 85 85 86 87 86 87 88 87 87 88 88 88 86 89 88 86 86 85 84 85 85 85 84 86 87 86 87 87 86 86 87 87 84 86 87 87 88 89 89 90 90 90 91 91 91 89 88 -193 -193 -193 -193 87 87 86 88 89 89 88 89 89 90 86 85 86 87 86 87 87 88 86 90 91 91 90 92 93 93 91 92 93 93 94 93 93 93 93 96 95 94 94 92 93 94 95 96 94 97 100 100 99 98 101 102 102 102 102 102 102 103 104 102 101 101 95 93 92 97 97 96 96 98 101 98 99 99 95 90 91 92 92 92 95 -193 -193 -209 -209 -193 -193 135 136 137 137 137 137 -193 -209 -209 -209 -209 -209 -209 -209 -209 0 0 0 0 0
    0 0 0 0 0 0 0 0 0 0 0 0 0 0 0 0 0 0 0 0 0 0 0 0 0 0 0 0 0 0 0 0 0 0 0 0 0 0 0 0 0 0 0 0 0 0 0 0 0 0 0 0 0 0 0 0 0 0 0 0 0 0 0 0 0 0 0 0 0 87 87 90 91 92 92 92 92 90 89 88 87 87 88 87 88 88 88 88 89 90 90 89 89 88 90 91 93 92 92 91 90 90 89 88 87 86 85 84 86 86 86 87 88 88 88 89 89 89 89 88 88 88 93 89 89 89 87 87 87 87 86 80 85 85 84 89 90 91 93 92 92 91 90 94 90 90 90 89 89 89 89 90 87 89 87 87 88 86 86 85 86 86 85 86 87 87 87 87 88 88 87 89 89 89 88 91 88 86 87 86 85 85 85 85 84 86 87 86 88 88 88 88 88 88 88 89 90 90 90 90 90 90 90 90 91 91 91 89 88 -193 -193 -193 -193 88 88 88 89 90 90 90 90 90 91 86 85 86 87 86 87 87 88 87 90 92 92 91 92 93 93 92 92 93 93 95 94 94 94 95 97 97 95 95 93 94 96 97 98 96 100 101 102 100 100 102 101 101 102 102 101 101 102 103 100 102 102 -193 97 97 101 98 94 95 97 101 98 100 101 97 90 93 96 -193 95 -193 -193 -209 -209 131 136 137 135 136 137 137 137 136 -193 0 -193 -209 -209 -209 -209 -209 -209 0 0 0 0 0
    0 0 0 0 0 0 0 0 0 0 0 0 0 0 0 0 0 0 0 0 0 0 0 0 0 0 0 0 0 0 0 0 0 0 0 0 0 0 0 0 0 0 0 0 0 0 0 0 0 0 0 0 0 0 0 0 0 0 0 0 0 0 0 0 0 0 0 0 0 88 88 93 92 93 93 94 92 91 90 89 87 87 88 88 89 89 89 89 89 90 90 90 90 -209 91 92 95 94 93 92 91 91 90 89 89 87 85 85 86 86 85 86 87 87 87 89 89 90 89 88 88 89 93 90 90 90 88 87 88 88 86 81 86 86 85 90 91 92 93 93 92 91 90 95 91 91 90 90 90 90 91 91 88 89 87 -193 -193 86 85 84 85 86 85 85 87 87 87 88 89 88 88 89 90 90 90 93 89 87 87 86 86 86 85 85 85 87 87 87 89 88 89 89 90 90 90 90 92 91 92 90 90 91 91 91 91 91 91 90 89 89 -193 -193 88 89 89 89 90 92 91 91 91 91 90 86 85 85 87 86 86 87 88 88 91 92 92 91 93 94 94 93 92 94 94 96 95 96 95 97 97 97 96 96 94 97 99 100 101 100 104 104 104 102 102 103 101 101 102 101 101 101 102 103 99 104 104 -193 105 -193 -193 99 93 94 96 102 100 -193 -209 -193 -209 -209 -209 -193 -193 -209 -193 -209 -209 133 136 138 136 136 137 137 135 135 -193 0 0 -193 -209 -209 -209 -209 58 0 0 0 0 0
    0 0 0 0 0 0 0 0 0 0 0 0 0 0 0 0 0 0 0 0 0 0 0 0 0 0 0 0 0 0 0 0 0 0 0 0 0 0 0 0 0 0 0 0 0 0 0 0 0 0 0 0 0 0 0 0 0 0 0 0 0 0 0 0 0 0 0 0 0 -209 89 96 94 94 95 95 93 93 92 -193 89 89 90 88 90 90 91 91 91 92 92 91 -193 -209 -209 -209 96 94 94 93 92 92 91 89 89 87 86 85 85 -193 83 85 86 85 87 89 89 -193 89 86 88 89 94 90 89 90 87 87 88 87 86 82 87 87 87 90 92 93 95 95 94 92 92 97 93 92 91 91 91 91 92 92 88 90 -193 -193 -193 -193 -193 -193 -193 -193 84 85 87 87 88 89 89 89 89 90 91 91 90 95 90 87 -193 86 86 86 86 86 85 87 88 88 90 89 92 91 91 91 91 92 93 93 93 91 91 92 92 92 92 92 93 90 90 -193 -193 88 88 89 90 90 91 92 92 92 92 91 90 86 84 85 87 86 87 87 88 89 91 94 94 92 94 96 95 95 93 96 95 98 97 98 96 98 98 98 96 97 97 100 101 103 103 103 106 106 110 104 102 103 101 101 102 101 101 101 102 103 100 105 107 -209 110 123 124 -209 95 97 95 103 101 -193 -209 -193 -177 -193 -177 201 -209 -209 -193 -209 135 134 136 138 136 136 136 136 134 134 -193 0 -193 -209 -209 -209 -209 -209 59 0 0 0 0 0
    0 0 0 0 0 0 0 0 0 0 0 0 0 0 0 0 0 0 0 0 0 0 0 0 0 0 0 0 0 0 0 0 0 0 0 0 0 0 0 0 0 0 0 0 0 0 0 0 0 0 0 0 0 0 0 0 0 0 0 0 0 0 0 0 0 0 0 0 0 -209 -193 95 95 94 96 97 94 95 95 -193 -193 -209 -209 -209 93 96 96 -209 -209 -209 -209 -209 -209 -193 -193 -193 -209 -209 -193 -193 92 92 92 89 90 87 86 -193 -193 -209 -209 -193 -209 -193 -193 -209 -209 -209 -209 -193 86 -193 -193 -209 88 87 84 84 86 -193 83 81 88 88 90 92 95 96 98 97 97 94 94 100 94 94 93 92 92 93 93 93 88 93 -209 -209 -209 -193 -193 -193 -193 -193 -209 85 87 -209 88 90 91 90 91 91 93 94 92 100 -209 -209 -193 -193 87 86 86 87 86 88 88 88 91 91 96 93 92 92 92 93 95 94 95 91 92 93 93 93 92 92 93 -209 -209 -209 -209 -193 87 89 89 89 92 92 92 93 92 91 90 85 84 85 87 87 87 88 90 91 93 95 95 93 95 97 97 97 95 98 97 99 100 100 99 100 100 100 99 100 101 102 -193 105 108 -193 117 119 120 116 105 104 101 101 102 101 101 101 102 103 101 107 -193 -209 120 126 130 -209 -209 -209 -209 -209 102 -209 -209 -193 193 197 198 203 -193 -193 -193 -193 136 135 135 138 136 135 136 136 134 134 135 -209 -209 -209 -209 -209 -209 -209 59 0 0 0 0 0
    0 0 0 0 0 0 0 0 0 0 0 0 0 0 0 0 0 0 0 0 0 0 0 0 0 0 0 0 0 0 0 0 0 0 0 0 0 0 0 0 0 0 0 0 0 0 0 0 0 0 0 0 0 0 0 0 0 0 0 0 0 0 0 0 0 0 0 0 0 -193 -209 -193 -193 94 97 99 -193 97 -193 -193 -193 -209 -209 -209 -209 -193 -193 -209 544 -209 -209 -209 -209 -193 -193 -209 -209 -209 -193 -209 -209 -209 -193 -193 91 -209 -209 830 832 -209 129 129 128 130 131 131 130 126 132 -193 -209 -209 -209 -209 -209 -209 76 75 -209 -209 -209 -193 -209 -209 -193 96 98 99 99 99 99 96 97 102 97 98 95 94 95 96 96 96 89 100 -209 -209 -209 -209 -209 -209 -209 -209 -209 -209 -209 -209 -209 92 94 92 94 -209 -209 -209 -209 -209 -209 -209 -193 -209 -193 86 86 88 87 88 89 88 93 91 99 95 93 93 94 95 97 96 98 93 94 95 94 94 92 92 94 -209 -193 -177 -177 -209 86 -209 89 89 93 93 91 94 92 91 89 85 84 84 87 87 88 89 90 91 93 96 96 94 96 98 98 97 96 99 98 100 102 102 102 102 102 102 101 102 103 104 -193 108 115 -193 121 122 122 122 116 113 102 102 103 102 102 101 103 103 -193 111 123 125 126 131 132 133 -209 138 -209 -209 112 120 -193 -193 -193 -193 -193 -193 -209 -193 -193 137 136 135 136 138 136 135 136 136 133 133 135 -209 -209 -209 -209 -209 -209 -209 -209 0 0 0 0 0
    0 0 0 0 0 0 0 0 0 0 0 0 0 0 0 0 0 0 0 0 0 0 0 0 0 0 0 0 0 0 0 0 0 0 0 0 0 0 0 0 0 0 0 0 0 0 0 0 0 0 0 0 0 0 0 0 0 0 0 0 0 0 0 0 0 0 0 0 0 -193 127 -193 -209 -193 97 -193 -209 -209 -193 496 501 -193 125 129 126 123 123 -209 -209 -209 -209 -209 -209 -209 -209 133 135 -209 -209 -209 -209 -209 -193 -209 -193 -209 832 831 832 -193 131 132 131 132 132 132 132 130 134 133 -209 -193 -193 -209 -209 -209 -209 -193 -209 -209 -209 -209 -193 -209 -193 -193 -193 -193 100 100 100 -193 -209 -209 -209 103 -193 -193 101 102 101 100 91 105 122 123 125 125 129 130 131 133 -193 -209 -209 -209 -193 -209 -209 -209 -209 -209 -209 -209 -209 -209 -209 -209 -209 -209 -209 -209 -209 -209 -209 -209 -209 88 96 92 101 97 95 95 97 99 99 100 101 96 100 -193 -193 -209 -209 -193 -209 -209 -177 -177 -177 -177 -209 -209 -209 -209 95 -193 91 96 92 91 88 85 -193 83 87 87 87 89 90 92 93 96 96 94 96 98 98 99 98 101 100 102 105 -193 113 119 -193 -193 -193 105 109 110 110 113 118 122 123 123 124 124 122 121 -193 103 103 102 103 103 104 -209 -209 120 125 128 130 132 132 134 132 137 138 -209 122 123 124 127 -193 -193 -193 133 134 134 136 137 136 135 136 137 136 135 136 136 132 133 135 -209 -209 -209 -209 -209 -209 -209 -209 0 0 0 0 0
    0 0 0 0 0 0 0 0 0 0 0 0 0 0 0 0 0 0 0 0 0 0 0 0 0 0 0 0 0 0 0 0 0 0 0 0 0 0 0 0 0 0 0 0 0 0 0 0 0 0 0 0 0 0 0 0 0 0 0 0 0 0 0 0 0 0 0 0 0 129 128 125 -209 -193 -193 -177 -177 -209 493 -193 -193 -193 129 132 130 126 126 124 130 -209 -193 -209 132 134 -193 134 135 135 -209 -193 -209 -209 -193 -209 -209 833 -193 830 830 128 132 133 133 133 133 133 133 132 134 134 136 138 139 -209 -209 -209 -209 -209 -209 -193 133 129 130 129 126 127 -193 -209 -193 -209 -209 -209 -209 133 128 122 124 -193 -193 123 123 -193 -209 115 126 130 130 130 132 132 133 134 -193 -209 -209 -209 -209 -209 -209 -209 -209 -209 -209 -209 -209 -193 -209 -209 -193 134 -193 -193 131 131 128 128 -193 -209 -209 -209 -193 100 98 98 100 101 101 101 103 -209 -193 125 132 -193 137 139 138 137 -193 -193 -193 -209 134 -209 -209 -209 -209 -209 91 99 93 91 88 -193 -209 82 87 87 87 89 92 94 93 96 97 95 97 99 99 100 101 104 -209 -209 122 123 123 124 126 125 124 122 121 120 120 120 122 124 124 124 124 125 124 123 -193 107 113 -193 107 113 121 124 124 124 128 130 132 132 131 134 131 136 136 -209 125 126 127 130 130 133 -193 134 135 135 136 137 136 135 136 137 137 136 136 136 132 133 136 -209 -209 -209 -209 -209 -209 -209 -209 0 0 0 0 0
    0 0 0 0 0 0 0 0 0 0 0 0 0 0 0 0 0 0 0 0 0 0 0 0 0 0 0 0 0 0 0 0 0 0 0 0 0 0 0 0 0 0 0 0 0 0 0 0 0 0 0 0 0 0 0 0 0 0 0 0 0 0 0 0 0 0 0 0 0 131 130 127 128 -193 -209 -209 -193 -209 -193 131 133 131 132 133 132 128 128 127 131 132 133 136 133 134 133 134 135 -193 133 130 -193 -209 -209 -209 -193 -193 126 -193 -193 130 133 134 133 133 134 134 133 132 134 134 135 137 139 -193 -209 138 137 137 136 135 133 131 132 132 131 132 132 130 130 131 130 130 132 134 130 126 127 127 126 126 125 125 122 122 131 133 133 132 134 134 134 135 134 -193 133 134 -209 131 133 -209 -209 -193 132 -193 131 132 133 134 132 134 133 132 132 131 130 130 126 130 125 126 123 -193 100 100 101 103 102 102 -193 -209 124 128 133 134 137 138 137 136 134 135 -193 137 134 133 132 -193 -209 -209 -209 102 -209 93 -209 -209 -193 -209 131 131 -209 92 98 100 96 99 98 97 98 100 101 101 103 -209 -193 124 125 125 124 126 127 127 126 127 125 123 124 124 125 127 126 126 125 126 126 126 127 123 124 123 122 126 126 130 129 128 131 132 133 134 132 136 133 136 136 134 131 131 130 131 131 133 134 134 135 135 136 136 136 135 136 137 137 136 137 137 133 134 137 -193 -193 -177 243 243 -177 -209 -177 0 0 0 0 0
    0 0 0 0 0 0 0 0 0 0 0 0 0 0 0 0 0 0 0 0 0 0 0 0 0 0 0 0 0 0 0 0 0 0 0 0 0 0 0 0 0 0 0 0 0 0 0 0 0 0 0 0 0 0 0 0 0 0 0 0 0 0 0 0 0 0 0 0 0 132 131 128 129 130 -193 133 135 134 134 134 135 134 133 133 133 129 130 129 132 132 133 135 134 134 133 -193 135 -193 133 132 129 130 127 129 129 129 129 130 133 131 133 134 134 134 134 134 133 132 134 133 134 136 137 -193 135 137 136 137 136 135 134 132 133 133 133 133 133 133 133 133 133 133 134 135 132 128 130 129 129 129 128 127 124 127 134 135 134 134 134 134 134 135 134 134 133 134 134 132 133 135 132 133 134 134 133 133 134 135 133 134 133 133 133 131 131 131 127 130 127 127 125 -193 102 -193 103 109 115 -193 123 127 127 131 134 135 136 137 136 136 133 135 135 135 133 132 132 131 128 -193 -209 -193 -193 -209 -209 -209 -193 137 136 135 135 -193 -193 125 -193 102 100 101 -193 -209 103 -193 -209 -193 129 126 128 127 126 127 129 129 127 131 130 127 129 131 131 131 128 128 127 128 128 128 130 129 131 131 130 133 132 133 132 131 132 132 133 134 133 136 135 137 137 137 135 134 132 132 133 134 134 134 135 135 136 136 136 136 136 138 138 138 138 138 134 136 142 -193 -193 -177 244 245 -177 -193 -177 0 0 0 0 0</data></disparity>
</opencv_storage>
