<?xml version="1.0"?>
<opencv_storage>
<gps_time_stamp>17906</gps_time_stamp>
<gps_x>-3.4003518521785736e-002</gps_x>
<gps_y>6.7252628505229950e-002</gps_y>
<gps_z>-1.3465844094753265e-002</gps_z>
<image_time_stamp>5865</image_time_stamp>
<disparity type_id="opencv-matrix">
  <rows>93</rows>
  <cols>320</cols>
  <dt>s</dt>
  <data>
    0 0 0 0 0 0 0 0 0 0 0 0 0 0 0 0 0 0 0 0 0 0 0 0 0 0 0 0 0 0 0 0 0 0 0 0 0 0 0 0 0 0 0 0 0 0 0 0 0 0 0 0 0 0 0 0 0 0 0 0 0 0 0 0 0 0 0 0 0 13 14 19 9 10 10 9 0 9 0 0 9 0 0 0 0 0 0 0 0 0 0 0 9 9 12 11 13 13 10 10 0 9 0 0 0 0 0 0 0 0 0 0 10 10 12 12 12 11 11 13 11 9 -193 0 0 0 0 0 -193 -193 -209 -193 -177 -193 -193 -193 -193 -193 -193 117 116 115 116 115 -193 -193 -193 -193 -209 -209 -209 44 43 43 44 42 42 41 41 42 40 41 41 42 44 47 44 42 -193 -209 -209 0 10 9 10 15 11 20 22 16 20 23 24 25 27 28 29 32 33 36 37 36 39 35 34 34 35 40 38 37 38 39 43 44 44 44 34 23 22 18 15 14 15 15 15 13 13 11 13 17 15 15 17 15 18 -193 -177 -193 -193 -193 -209 59 35 32 31 35 32 35 36 34 36 38 38 39 38 40 41 39 40 41 42 42 43 44 45 44 46 45 45 46 46 46 45 45 47 47 49 48 48 48 48 51 52 48 50 48 51 51 54 54 55 53 56 56 56 55 56 56 56 52 57 53 54 54 55 55 55 54 55 53 55 56 55 55 55 55 -193 -193 -193 -193 54 57 56 55 -193 0 0 0 0 0
    0 0 0 0 0 0 0 0 0 0 0 0 0 0 0 0 0 0 0 0 0 0 0 0 0 0 0 0 0 0 0 0 0 0 0 0 0 0 0 0 0 0 0 0 0 0 0 0 0 0 0 0 0 0 0 0 0 0 0 0 0 0 0 0 0 0 0 0 0 14 15 20 11 11 11 11 10 12 9 11 11 0 0 0 0 0 0 0 0 0 9 9 12 11 16 18 21 24 22 26 20 20 14 0 0 0 0 0 0 9 0 0 10 10 13 12 12 11 11 13 11 -193 -193 -193 -193 -193 -209 -209 -209 -193 -209 -193 -193 -193 -209 -209 -193 -193 -193 118 116 -193 -193 -193 -193 -193 -193 -193 -193 -193 -209 45 43 44 44 43 42 42 41 42 40 41 41 43 45 47 43 41 -209 -193 -209 0 13 12 20 24 25 26 26 19 21 23 25 25 26 28 29 32 34 37 37 37 40 37 37 37 37 41 39 39 40 41 45 46 47 47 42 -193 23 18 15 15 14 14 15 13 12 11 13 19 15 16 17 16 -193 -193 -177 -193 -209 -193 53 60 -209 -193 35 -193 33 36 -193 -193 38 39 40 40 40 41 43 40 41 42 43 42 43 44 45 44 46 45 45 46 46 46 45 45 48 47 50 49 48 48 49 51 53 48 51 48 52 52 53 54 55 53 56 56 56 56 56 57 56 53 57 53 54 54 55 55 54 54 55 53 56 56 56 56 55 56 55 55 55 56 54 57 56 55 56 0 0 0 0 0
    0 0 0 0 0 0 0 0 0 0 0 0 0 0 0 0 0 0 0 0 0 0 0 0 0 0 0 0 0 0 0 0 0 0 0 0 0 0 0 0 0 0 0 0 0 0 0 0 0 0 0 0 0 0 0 0 0 0 0 0 0 0 0 0 0 0 0 0 0 19 19 23 21 16 16 18 19 22 21 25 25 21 16 10 10 10 9 9 0 0 10 10 17 15 21 25 25 27 26 28 26 26 25 -193 0 0 0 0 10 12 0 0 11 11 14 13 14 12 11 15 -193 -193 -177 -193 -193 -209 -209 -209 -209 -193 -209 -193 10 -209 -209 -193 -193 -193 -193 -193 116 -193 451 -193 -193 -193 -193 -209 216 -193 -193 45 45 45 45 44 44 44 43 44 41 41 40 42 44 46 42 40 40 36 40 -209 19 19 26 30 32 31 30 24 24 25 26 26 27 28 29 33 35 38 38 37 41 38 37 38 38 42 40 39 41 42 45 47 47 48 44 -209 -209 -209 17 17 16 15 16 13 13 11 15 19 16 17 18 17 -193 -193 -177 -193 315 -177 -193 64 72 -209 -209 -209 -193 -193 -193 -193 -193 40 -193 41 41 42 44 41 41 42 43 43 43 43 45 44 45 45 45 46 46 46 46 46 48 47 50 49 48 49 49 52 53 48 51 48 52 52 53 53 55 53 56 56 56 56 56 57 56 53 57 54 55 55 56 56 55 55 56 54 57 57 57 57 56 57 57 57 57 58 55 58 57 56 57 0 0 0 0 0
    0 0 0 0 0 0 0 0 0 0 0 0 0 0 0 0 0 0 0 0 0 0 0 0 0 0 0 0 0 0 0 0 0 0 0 0 0 0 0 0 0 0 0 0 0 0 0 0 0 0 0 0 0 0 0 0 0 0 0 0 0 0 0 0 0 0 0 0 0 24 23 25 25 22 25 24 25 26 26 27 28 28 28 26 26 26 26 22 10 9 11 12 24 -193 24 26 26 29 28 30 29 28 27 28 -193 -209 11 16 20 22 -193 -193 26 16 22 -177 -177 -177 -193 -177 -193 -193 -193 -209 -209 -209 -209 -209 -209 -193 -193 13 14 -209 -193 340 340 338 336 335 -193 453 452 -193 -193 -209 -209 -209 213 216 -193 47 46 46 46 45 44 45 44 45 42 41 40 41 44 46 42 40 39 40 41 41 26 26 29 35 36 35 32 29 26 27 28 27 27 29 29 33 36 38 39 37 41 39 38 40 40 42 41 41 43 44 47 48 49 50 47 -193 -209 -177 -177 -193 18 17 16 14 13 11 16 20 18 18 19 18 -193 -193 -177 -177 -209 -193 61 69 73 -209 -209 -209 -193 -193 -177 -177 -193 -209 -193 -209 -209 43 45 42 42 43 43 43 43 43 45 44 45 45 45 46 47 47 46 46 49 48 51 50 49 49 49 52 53 48 51 48 52 51 53 53 54 53 55 55 55 55 55 56 56 53 57 54 55 56 57 57 56 57 57 56 57 58 57 57 57 58 58 57 58 58 57 58 58 56 58 0 0 0 0 0
    0 0 0 0 0 0 0 0 0 0 0 0 0 0 0 0 0 0 0 0 0 0 0 0 0 0 0 0 0 0 0 0 0 0 0 0 0 0 0 0 0 0 0 0 0 0 0 0 0 0 0 0 0 0 0 0 0 0 0 0 0 0 0 0 0 0 0 0 0 26 -193 26 27 26 26 26 28 29 29 29 32 31 31 33 30 31 30 30 28 28 -193 -193 26 27 26 28 27 31 30 32 32 31 30 31 28 29 26 26 27 27 29 29 31 28 28 -177 -177 -177 27 28 27 24 32 36 33 30 26 27 -209 25 26 23 -193 -193 339 339 338 337 -193 -193 -193 -177 -193 -177 -209 -209 -209 -193 208 -193 44 47 47 46 46 45 45 45 44 45 43 41 41 41 44 46 43 40 39 41 42 41 34 32 33 37 38 37 35 32 28 29 31 28 27 30 29 33 35 37 38 36 40 39 38 41 40 42 42 42 45 45 48 49 50 51 -193 268 -193 -177 -177 -193 21 20 19 17 15 12 18 21 19 19 20 20 -193 -209 -177 -193 -209 -209 67 71 73 -193 67 73 -209 -193 -177 -177 274 -193 -193 -193 -193 44 45 42 43 44 43 43 43 44 45 44 45 44 44 46 47 47 46 47 49 48 51 50 49 49 49 52 53 48 51 47 51 50 53 52 54 52 55 54 55 54 55 55 56 52 57 54 56 57 58 58 57 57 58 57 58 58 57 57 57 57 58 58 58 59 57 59 59 57 59 0 0 0 0 0
    0 0 0 0 0 0 0 0 0 0 0 0 0 0 0 0 0 0 0 0 0 0 0 0 0 0 0 0 0 0 0 0 0 0 0 0 0 0 0 0 0 0 0 0 0 0 0 0 0 0 0 0 0 0 0 0 0 0 0 0 0 0 0 0 0 0 0 0 0 28 29 29 29 29 29 29 31 32 32 32 34 33 33 35 33 33 33 33 32 31 30 30 29 31 29 32 29 33 32 34 34 34 34 34 31 33 30 31 33 31 34 33 34 33 32 33 34 35 36 38 36 35 38 39 38 38 33 35 30 31 31 29 31 30 29 34 32 36 -193 -193 -209 -209 -209 -209 -209 -193 -193 -209 -193 45 44 46 46 45 45 45 45 45 44 45 43 40 40 41 42 44 42 39 38 40 44 42 40 38 37 39 39 39 37 36 31 31 34 29 28 32 30 33 35 37 38 36 40 40 39 42 42 43 44 44 46 46 48 50 51 51 51 -193 53 -193 -177 -177 -193 23 22 20 16 13 20 22 21 20 21 22 -209 -209 -209 -209 -209 -209 70 72 73 73 69 73 -209 -193 -193 -193 -209 -209 -193 -193 -193 46 48 45 46 47 45 44 44 44 45 45 45 44 44 46 47 48 47 47 49 49 51 50 50 50 50 51 52 48 51 47 51 50 53 52 54 52 55 54 55 54 54 55 55 51 57 54 56 58 58 58 58 58 58 57 58 58 56 56 56 57 57 57 57 58 57 59 59 57 58 0 0 0 0 0
    0 0 0 0 0 0 0 0 0 0 0 0 0 0 0 0 0 0 0 0 0 0 0 0 0 0 0 0 0 0 0 0 0 0 0 0 0 0 0 0 0 0 0 0 0 0 0 0 0 0 0 0 0 0 0 0 0 0 0 0 0 0 0 0 0 0 0 0 0 33 34 33 33 33 32 32 34 35 35 34 35 35 34 36 34 34 34 34 34 33 33 33 32 34 32 34 32 35 34 35 35 35 36 36 34 36 34 36 36 35 37 36 36 36 36 37 38 38 39 40 39 39 40 40 39 39 37 38 35 36 35 34 36 34 34 37 35 38 38 39 38 37 38 38 -193 39 39 40 40 45 43 45 46 45 45 45 45 45 43 45 43 40 40 41 42 42 41 41 39 40 44 42 40 39 39 40 40 39 38 37 34 34 36 31 30 34 31 33 35 37 38 37 40 40 40 43 44 45 47 46 49 47 49 50 51 51 52 -193 54 -193 -209 -193 -209 40 26 23 20 16 22 23 23 22 23 24 -193 -177 -209 -209 -209 71 71 72 73 73 70 73 73 -209 -193 -209 -209 -209 -193 -193 -193 -193 -193 -209 -193 -209 -209 -209 -209 44 45 45 44 43 44 45 46 47 47 47 49 49 51 50 50 50 49 51 52 47 51 47 51 50 53 53 54 52 55 54 54 53 54 54 55 51 57 54 56 58 59 59 58 58 59 58 59 58 56 56 56 56 57 57 57 58 57 58 60 58 59 0 0 0 0 0
    0 0 0 0 0 0 0 0 0 0 0 0 0 0 0 0 0 0 0 0 0 0 0 0 0 0 0 0 0 0 0 0 0 0 0 0 0 0 0 0 0 0 0 0 0 0 0 0 0 0 0 0 0 0 0 0 0 0 0 0 0 0 0 0 0 0 0 0 0 36 37 36 36 36 35 35 36 36 36 35 36 35 34 36 35 35 35 35 35 35 35 36 34 35 34 35 34 36 35 35 36 36 37 38 36 38 36 38 38 37 38 38 37 37 37 38 39 39 40 40 39 39 40 40 39 39 37 39 36 37 37 36 37 35 36 37 36 38 39 39 39 39 39 39 39 39 40 40 40 45 43 44 46 45 45 45 45 46 44 45 43 40 40 41 41 41 41 41 39 39 43 42 40 40 40 40 41 40 39 38 36 35 37 32 32 35 32 34 36 37 38 37 40 41 41 44 46 47 49 48 50 48 49 51 51 52 52 -193 55 53 58 54 57 57 56 49 -209 -193 23 -193 26 24 24 -209 -177 -177 -209 70 -193 72 72 73 73 73 72 74 75 72 66 72 -209 -209 -209 -209 -209 -193 -209 99 103 100 -193 -193 -209 -193 -193 -193 -193 43 43 45 46 47 46 47 49 49 51 50 50 49 49 50 51 47 50 47 51 50 53 53 55 52 55 54 54 53 54 54 55 50 57 54 57 60 60 60 59 59 60 59 60 59 57 56 56 56 56 56 57 58 57 58 59 57 59 0 0 0 0 0
    0 0 0 0 0 0 0 0 0 0 0 0 0 0 0 0 0 0 0 0 0 0 0 0 0 0 0 0 0 0 0 0 0 0 0 0 0 0 0 0 0 0 0 0 0 0 0 0 0 0 0 0 0 0 0 0 0 0 0 0 0 0 0 0 0 0 0 0 0 38 38 37 37 38 37 36 37 37 36 35 36 36 34 36 36 36 37 37 36 36 37 38 36 37 35 36 35 37 36 36 37 37 37 38 37 38 38 39 39 38 39 38 38 38 38 38 39 40 40 40 39 40 40 40 39 39 38 39 37 37 37 37 37 36 36 37 36 38 38 39 39 39 39 39 39 39 40 40 40 44 43 44 46 44 45 45 46 46 44 45 44 40 40 40 41 40 40 40 38 38 42 42 40 40 40 41 41 40 39 39 37 36 37 34 34 36 33 35 37 37 38 37 40 42 41 45 47 46 49 48 51 49 49 51 51 51 52 -193 55 54 58 57 59 59 60 58 58 57 -209 -209 37 39 31 -209 -177 -193 69 71 73 72 72 73 73 72 71 73 74 69 73 76 74 72 74 74 74 81 89 95 97 94 97 -193 -193 631 634 -193 -209 42 43 45 46 47 46 47 49 49 51 49 50 49 48 49 50 46 50 47 51 50 53 53 55 52 55 54 54 53 53 54 55 50 57 55 58 61 60 61 60 59 60 59 60 59 56 57 56 56 57 56 56 58 56 57 58 56 58 0 0 0 0 0
    0 0 0 0 0 0 0 0 0 0 0 0 0 0 0 0 0 0 0 0 0 0 0 0 0 0 0 0 0 0 0 0 0 0 0 0 0 0 0 0 0 0 0 0 0 0 0 0 0 0 0 0 0 0 0 0 0 0 0 0 0 0 0 0 0 0 0 0 0 38 39 38 38 38 37 37 37 37 37 36 37 36 34 37 37 37 38 38 37 37 38 38 38 38 36 37 36 38 37 37 37 38 38 39 38 39 39 40 40 39 39 39 38 38 39 39 40 40 40 40 39 40 40 40 40 39 39 39 37 38 37 37 37 36 36 37 37 38 39 39 39 39 39 39 39 39 40 40 41 43 43 43 46 44 45 45 46 45 44 45 44 40 40 41 41 40 40 41 38 38 42 42 40 41 41 41 41 41 40 39 38 37 38 35 35 37 33 35 37 37 38 37 40 42 42 45 47 46 48 48 51 49 50 51 51 51 52 -193 55 53 58 58 60 61 62 61 61 60 59 58 44 50 -193 -209 -193 -193 71 72 73 72 72 73 71 71 69 73 72 61 71 73 73 75 77 77 78 85 89 95 95 93 94 -193 -193 -177 -177 633 -177 -193 43 45 45 47 46 47 49 49 51 49 49 48 48 49 50 46 49 46 51 51 53 53 55 52 54 53 53 53 53 53 54 50 57 55 -193 61 61 61 60 60 61 60 61 59 57 57 57 57 57 57 57 58 57 58 58 55 57 0 0 0 0 0
    0 0 0 0 0 0 0 0 0 0 0 0 0 0 0 0 0 0 0 0 0 0 0 0 0 0 0 0 0 0 0 0 0 0 0 0 0 0 0 0 0 0 0 0 0 0 0 0 0 0 0 0 0 0 0 0 0 0 0 0 0 0 0 0 0 0 0 0 0 39 39 38 38 38 38 37 38 38 37 37 38 37 35 38 37 38 38 38 38 38 39 39 39 39 37 38 38 39 38 38 38 38 39 39 39 39 39 40 40 39 39 39 39 39 39 39 41 41 41 41 40 40 40 40 40 39 39 40 38 38 38 38 37 37 36 37 37 39 39 39 39 39 39 39 39 39 40 40 41 43 44 43 45 44 44 44 45 45 44 44 44 40 40 41 41 41 40 41 38 39 42 43 41 41 41 41 42 41 40 40 39 37 38 36 36 38 34 36 37 38 38 38 39 42 41 45 47 46 48 48 52 50 49 50 50 50 51 52 54 51 56 58 60 61 63 61 61 61 61 61 57 56 62 -209 75 76 71 72 73 -193 72 72 70 70 65 72 72 -193 -193 -193 75 79 85 83 83 86 90 95 94 93 91 -193 -209 -209 -193 -177 -177 -177 44 46 47 48 -193 -193 50 49 51 49 49 48 48 48 49 46 48 46 50 51 53 53 55 51 54 53 53 52 52 53 54 51 57 56 61 62 61 61 61 60 61 60 61 59 57 57 57 57 57 58 57 58 57 57 58 55 56 0 0 0 0 0
    0 0 0 0 0 0 0 0 0 0 0 0 0 0 0 0 0 0 0 0 0 0 0 0 0 0 0 0 0 0 0 0 0 0 0 0 0 0 0 0 0 0 0 0 0 0 0 0 0 0 0 0 0 0 0 0 0 0 0 0 0 0 0 0 0 0 0 0 0 40 40 39 39 39 38 38 38 38 38 38 38 38 36 38 38 39 39 39 39 39 39 40 40 40 39 40 39 39 39 38 38 38 39 39 39 39 39 40 40 39 39 39 39 39 39 40 41 41 41 41 40 40 40 40 40 39 40 40 39 39 39 39 38 38 37 38 38 39 40 40 40 40 40 40 40 40 41 41 43 43 44 43 45 44 44 44 45 44 43 44 44 40 40 41 41 41 41 41 39 39 43 43 42 42 42 42 42 42 41 40 39 38 38 37 37 39 35 36 38 38 39 38 39 43 42 45 48 47 48 49 52 51 50 51 51 50 51 52 54 50 55 58 59 60 63 62 61 62 62 62 58 59 65 63 74 75 70 71 72 71 71 71 69 69 -193 70 68 53 -193 -193 -193 -209 -209 75 80 88 91 95 93 92 91 91 -209 -209 -193 -177 -177 -177 45 47 48 49 -193 -193 51 50 52 49 49 48 48 49 49 46 48 45 50 51 53 53 55 51 54 52 52 52 52 52 54 51 58 57 61 62 61 61 61 60 61 60 61 58 56 56 56 56 57 57 57 58 57 57 58 55 57 0 0 0 0 0
    0 0 0 0 0 0 0 0 0 0 0 0 0 0 0 0 0 0 0 0 0 0 0 0 0 0 0 0 0 0 0 0 0 0 0 0 0 0 0 0 0 0 0 0 0 0 0 0 0 0 0 0 0 0 0 0 0 0 0 0 0 0 0 0 0 0 0 0 0 40 41 40 39 39 39 39 39 39 38 38 38 38 37 39 38 39 39 40 39 40 40 41 41 41 40 41 40 41 40 39 39 39 40 40 39 40 39 40 40 39 39 39 39 39 39 40 41 41 41 41 40 40 41 41 40 40 40 41 40 40 40 40 39 39 38 39 40 41 41 41 41 41 41 41 42 41 43 41 43 43 44 43 44 43 44 43 44 43 43 43 44 40 40 41 41 41 41 41 40 40 43 43 42 42 41 41 42 41 41 40 40 38 38 38 38 39 36 37 38 38 39 39 40 44 43 46 48 47 48 49 52 51 50 51 51 51 51 53 53 50 55 58 59 60 63 62 62 62 62 62 58 59 65 61 -193 73 68 69 71 70 70 69 67 68 -193 -193 57 51 51 51 52 54 55 65 -177 -193 91 97 93 93 92 91 -193 -193 -193 -177 -177 -177 47 49 50 -193 120 -193 -193 52 53 50 50 48 49 49 49 46 47 45 50 51 54 53 55 52 54 52 52 52 52 52 54 51 58 57 62 62 62 61 61 60 61 60 61 58 55 55 55 55 56 56 56 57 56 57 57 55 57 0 0 0 0 0
    0 0 0 0 0 0 0 0 0 0 0 0 0 0 0 0 0 0 0 0 0 0 0 0 0 0 0 0 0 0 0 0 0 0 0 0 0 0 0 0 0 0 0 0 0 0 0 0 0 0 0 0 0 0 0 0 0 0 0 0 0 0 0 0 0 0 0 0 0 41 41 40 40 39 40 41 40 40 40 41 40 40 40 39 39 40 40 41 40 40 40 41 41 41 41 42 41 41 41 41 40 40 40 40 39 40 40 40 40 39 40 40 40 39 40 41 42 42 42 41 41 41 41 41 40 40 41 41 40 41 41 40 40 40 39 40 42 42 42 42 42 42 42 42 43 41 44 42 44 43 44 43 44 43 44 43 44 43 43 42 43 40 40 41 41 41 41 41 40 40 43 43 41 41 41 41 42 41 40 40 39 38 38 38 38 39 37 37 38 39 40 40 40 45 43 46 48 48 48 49 52 51 50 52 52 51 51 53 53 50 55 60 60 61 64 63 63 63 62 62 58 58 64 58 67 72 67 68 69 69 69 -193 66 66 -193 -193 55 48 49 48 49 50 53 57 66 -209 93 99 95 94 93 93 -193 -193 -193 -193 -193 -177 -193 -177 -193 112 114 118 116 -193 54 -193 -193 49 49 49 49 46 47 44 49 52 54 53 55 53 54 53 53 53 53 53 54 52 59 57 62 62 62 61 61 60 61 60 61 58 56 55 55 55 55 55 55 57 54 56 56 55 56 0 0 0 0 0
    0 0 0 0 0 0 0 0 0 0 0 0 0 0 0 0 0 0 0 0 0 0 0 0 0 0 0 0 0 0 0 0 0 0 0 0 0 0 0 0 0 0 0 0 0 0 0 0 0 0 0 0 0 0 0 0 0 0 0 0 0 0 0 0 0 0 0 0 0 40 41 40 40 40 41 41 41 42 41 42 42 41 41 40 39 41 40 41 40 41 40 41 41 42 41 43 42 42 41 41 41 41 40 40 39 40 40 40 40 40 41 41 41 40 42 42 43 43 43 42 41 42 42 42 41 41 41 41 41 42 42 42 41 42 41 41 44 43 44 43 43 43 42 43 44 41 45 43 44 43 44 43 44 43 44 43 44 43 43 43 43 41 41 42 42 41 41 42 41 41 43 43 41 41 41 41 41 40 40 39 39 38 38 38 38 39 37 38 39 39 41 41 41 46 44 46 49 49 49 50 53 52 51 53 53 52 51 54 54 49 55 60 60 61 64 63 63 63 62 63 57 57 62 56 -193 71 65 67 68 68 68 -193 -193 65 58 61 53 45 45 45 46 48 52 56 -209 -193 92 99 95 94 93 93 92 92 91 92 90 -193 95 99 104 105 108 112 108 114 -209 -193 -193 -193 50 49 49 46 47 44 50 52 54 53 56 53 54 53 53 53 53 54 55 53 59 58 63 62 62 61 61 61 62 60 61 57 56 55 56 56 56 56 55 56 55 56 57 55 57 0 0 0 0 0
    0 0 0 0 0 0 0 0 0 0 0 0 0 0 0 0 0 0 0 0 0 0 0 0 0 0 0 0 0 0 0 0 0 0 0 0 0 0 0 0 0 0 0 0 0 0 0 0 0 0 0 0 0 0 0 0 0 0 0 0 0 0 0 0 0 0 0 0 0 41 41 41 40 40 41 42 42 43 41 43 43 42 42 41 41 42 41 42 41 41 41 41 42 42 42 43 42 42 42 42 42 42 41 41 41 41 42 41 41 41 41 41 41 40 42 42 43 43 43 43 42 42 43 42 41 42 42 42 42 42 43 43 42 43 41 42 45 44 44 43 43 43 43 43 44 42 45 43 44 43 44 43 44 44 44 43 44 43 44 43 44 41 41 42 42 42 41 42 41 41 43 43 41 41 42 41 42 40 40 39 39 39 38 38 38 39 38 39 40 40 42 42 42 47 44 46 48 49 48 50 53 53 52 54 54 53 52 55 55 50 55 61 61 62 65 64 64 64 63 63 57 57 61 56 56 71 65 66 -193 -193 -193 -193 66 65 58 64 54 43 43 43 44 46 51 -209 -209 -193 92 100 95 94 93 93 92 92 91 93 90 92 95 97 101 103 105 107 104 106 105 108 119 -193 52 51 51 46 47 45 50 53 55 54 56 53 55 54 54 53 53 54 55 53 60 59 64 62 62 62 61 61 62 60 61 57 56 55 56 57 57 57 57 57 57 57 57 56 57 0 0 0 0 0
    0 0 0 0 0 0 0 0 0 0 0 0 0 0 0 0 0 0 0 0 0 0 0 0 0 0 0 0 0 0 0 0 0 0 0 0 0 0 0 0 0 0 0 0 0 0 0 0 0 0 0 0 0 0 0 0 0 0 0 0 0 0 0 0 0 0 0 0 0 42 42 42 41 41 42 43 43 44 42 44 44 44 44 43 42 43 42 43 42 42 42 43 43 43 43 44 43 43 42 43 43 42 43 43 42 42 43 42 42 42 42 42 42 41 43 43 44 43 44 43 43 43 43 43 42 43 42 42 42 43 43 43 43 43 42 43 46 44 45 44 44 44 44 44 45 42 46 44 45 44 44 44 44 44 44 43 43 44 44 43 44 42 42 43 42 42 42 42 42 42 43 43 42 42 42 42 42 40 40 39 39 39 39 39 39 40 40 40 42 41 43 44 43 49 45 47 49 49 48 50 53 53 52 54 54 54 54 56 56 52 55 61 60 61 64 64 63 63 62 63 57 57 60 55 56 70 64 65 -193 -193 -193 -193 65 65 57 63 50 42 42 42 43 46 51 -209 -209 -209 93 100 95 95 94 93 92 92 92 95 92 96 99 99 102 103 104 105 103 104 102 104 113 121 -193 -209 54 51 50 46 52 54 56 55 56 54 55 54 54 53 53 54 55 54 61 59 64 62 62 61 61 61 61 59 61 57 56 54 56 57 57 57 58 58 58 57 58 57 57 0 0 0 0 0
    0 0 0 0 0 0 0 0 0 0 0 0 0 0 0 0 0 0 0 0 0 0 0 0 0 0 0 0 0 0 0 0 0 0 0 0 0 0 0 0 0 0 0 0 0 0 0 0 0 0 0 0 0 0 0 0 0 0 0 0 0 0 0 0 0 0 0 0 0 43 43 43 42 42 43 43 44 46 44 47 48 47 47 45 44 45 43 45 43 44 44 44 45 45 45 46 45 45 44 44 44 44 44 44 43 43 44 43 43 43 44 44 44 43 45 45 45 45 45 44 43 43 44 44 43 44 43 42 43 43 43 43 43 43 42 44 47 45 46 45 45 45 45 46 46 44 46 44 45 45 45 45 45 44 44 43 44 44 45 43 43 43 43 44 43 43 42 43 43 44 44 44 43 42 43 42 42 41 41 40 40 40 40 40 41 41 42 41 43 43 44 45 44 49 46 47 49 49 48 50 53 53 52 55 54 54 54 57 57 53 55 62 61 62 64 64 63 63 62 63 57 56 59 55 56 70 63 65 -177 287 288 289 -193 65 56 -193 48 42 42 43 43 46 52 -209 -209 -209 94 100 95 95 95 94 93 93 93 97 93 100 102 101 103 104 105 106 103 106 104 105 110 118 118 114 110 110 -209 -209 56 58 59 56 57 54 56 55 55 54 53 53 55 54 61 59 63 61 62 61 61 60 61 59 60 56 55 53 54 56 56 56 57 57 57 57 58 57 58 0 0 0 0 0
    0 0 0 0 0 0 0 0 0 0 0 0 0 0 0 0 0 0 0 0 0 0 0 0 0 0 0 0 0 0 0 0 0 0 0 0 0 0 0 0 0 0 0 0 0 0 0 0 0 0 0 0 0 0 0 0 0 0 0 0 0 0 0 0 0 0 0 0 0 45 45 45 43 44 44 43 45 48 46 50 51 49 49 47 47 47 45 46 45 45 45 47 47 48 49 49 48 47 46 47 47 46 46 45 45 45 46 46 45 45 46 47 48 46 49 48 47 47 47 46 44 44 45 45 44 46 44 43 44 45 44 44 44 45 43 46 48 47 48 47 47 46 47 48 48 46 48 46 46 46 46 46 45 45 45 44 44 44 44 44 43 44 44 44 44 44 43 43 44 45 45 45 44 43 44 43 43 41 42 41 41 41 41 42 42 42 44 43 45 45 47 47 45 50 47 48 49 50 48 50 53 53 53 55 55 54 54 57 57 54 56 62 61 62 64 64 63 63 62 63 57 56 60 55 57 70 63 65 -177 -177 -177 -177 -193 64 55 54 49 43 44 44 44 48 53 -209 -209 -209 96 101 96 96 96 96 95 94 95 99 95 101 103 102 103 104 105 105 102 104 103 103 106 108 110 110 108 109 108 108 107 -209 69 -209 -209 55 56 56 56 55 55 54 55 54 61 59 63 61 62 61 60 60 61 58 60 55 54 52 53 54 54 55 55 55 55 56 57 58 59 0 0 0 0 0
    0 0 0 0 0 0 0 0 0 0 0 0 0 0 0 0 0 0 0 0 0 0 0 0 0 0 0 0 0 0 0 0 0 0 0 0 0 0 0 0 0 0 0 0 0 0 0 0 0 0 0 0 0 0 0 0 0 0 0 0 0 0 0 0 0 0 0 0 0 48 47 47 45 46 47 44 47 48 47 51 52 50 51 49 49 48 47 47 46 45 46 49 50 52 53 51 51 50 49 50 50 48 49 46 48 47 48 48 47 48 50 50 51 50 51 50 48 49 49 48 45 46 47 47 45 48 45 44 45 45 44 44 45 45 45 48 50 49 50 49 49 48 49 49 50 48 49 48 47 47 47 47 46 46 45 45 45 46 45 45 44 45 44 45 44 45 44 45 45 46 46 45 45 44 46 45 45 43 43 42 42 42 43 43 44 43 46 46 48 49 50 50 47 51 48 49 49 51 49 51 53 54 53 55 55 55 54 57 57 55 56 63 61 62 64 64 63 63 62 63 57 57 61 57 59 70 64 66 -177 -177 288 289 -193 64 55 53 48 43 44 45 45 50 53 -209 -177 -193 96 101 96 96 97 97 96 95 96 100 97 102 103 102 102 103 104 104 100 102 101 99 103 104 105 107 106 107 106 107 108 109 107 -193 107 107 -209 57 57 56 55 55 56 55 61 59 62 61 61 61 60 60 60 58 59 55 54 52 52 53 53 54 55 55 55 56 57 58 59 0 0 0 0 0
    0 0 0 0 0 0 0 0 0 0 0 0 0 0 0 0 0 0 0 0 0 0 0 0 0 0 0 0 0 0 0 0 0 0 0 0 0 0 0 0 0 0 0 0 0 0 0 0 0 0 0 0 0 0 0 0 0 0 0 0 0 0 0 0 0 0 0 0 0 50 50 49 47 48 49 44 49 50 50 52 53 51 52 51 50 50 48 48 47 46 48 50 52 54 55 53 53 52 52 52 52 50 50 47 49 48 49 49 47 48 50 50 51 50 52 51 49 51 50 49 47 48 48 49 47 50 46 45 46 46 44 45 45 46 46 51 51 51 51 51 51 50 51 51 51 50 50 50 48 49 48 47 47 47 46 46 46 47 45 46 45 46 44 45 45 45 44 46 46 47 46 46 45 45 48 46 46 44 44 43 43 43 44 43 46 44 48 49 51 52 52 52 49 52 51 51 50 51 49 51 53 54 53 55 55 55 55 57 57 56 56 65 61 62 65 64 -177 64 62 63 57 58 62 58 60 71 64 -193 289 -177 289 289 -193 65 56 -193 48 43 44 46 45 51 54 -209 -177 -177 94 101 96 95 97 98 97 96 98 102 99 104 104 103 103 103 105 105 98 101 100 97 102 103 106 107 106 107 107 107 109 110 109 107 108 109 113 -193 -193 -209 56 56 57 55 61 59 62 61 61 60 60 60 60 58 59 56 54 52 53 54 54 54 55 55 55 57 58 58 59 0 0 0 0 0
    0 0 0 0 0 0 0 0 0 0 0 0 0 0 0 0 0 0 0 0 0 0 0 0 0 0 0 0 0 0 0 0 0 0 0 0 0 0 0 0 0 0 0 0 0 0 0 0 0 0 0 0 0 0 0 0 0 0 0 0 0 0 0 0 0 0 0 0 0 51 51 51 50 50 51 46 52 53 52 53 53 53 53 53 52 52 50 50 50 49 52 53 54 55 56 55 55 54 53 53 54 52 51 49 50 49 50 51 48 49 52 51 53 52 53 52 51 52 52 51 50 51 51 51 50 52 48 47 47 47 45 46 46 47 48 52 52 52 52 52 51 51 52 52 51 51 50 51 50 50 49 49 48 48 47 48 47 48 46 47 46 46 44 45 45 45 44 46 46 47 47 47 47 46 50 48 48 46 46 44 45 45 45 44 47 46 49 51 52 53 53 54 52 53 52 52 51 52 50 52 53 54 54 55 55 55 56 58 58 58 58 67 62 63 65 65 -177 64 63 63 57 58 62 58 61 71 -193 -193 -177 -177 289 289 -193 66 57 58 48 43 45 46 45 52 54 -193 -177 -177 93 101 95 95 97 98 98 97 99 102 -193 -193 -193 -193 104 -193 -177 -193 97 100 99 94 101 103 106 106 106 107 106 106 107 108 109 107 108 110 113 112 117 120 -209 -209 -209 56 62 60 63 61 61 60 60 59 60 58 59 55 54 52 53 54 54 54 55 55 55 56 58 58 59 0 0 0 0 0
    0 0 0 0 0 0 0 0 0 0 0 0 0 0 0 0 0 0 0 0 0 0 0 0 0 0 0 0 0 0 0 0 0 0 0 0 0 0 0 0 0 0 0 0 0 0 0 0 0 0 0 0 0 0 0 0 0 0 0 0 0 0 0 0 0 0 0 0 0 53 53 52 52 51 51 47 53 53 53 53 54 53 53 54 53 53 52 52 53 53 55 55 56 56 58 56 56 55 55 55 55 53 53 51 52 52 52 53 50 51 53 52 53 53 54 53 52 53 53 53 53 53 53 53 52 53 51 50 50 49 45 47 47 48 50 53 52 53 53 53 52 52 53 52 52 52 51 52 51 52 51 51 50 50 49 50 49 49 46 48 47 47 45 46 46 47 46 49 49 50 51 50 50 49 52 51 50 48 48 46 47 46 47 46 50 48 51 53 54 55 55 55 54 54 54 54 52 52 51 52 53 54 54 56 56 56 57 58 59 59 60 67 62 63 66 65 64 64 63 63 58 59 64 60 65 72 -193 -193 -177 -177 -177 -177 -193 -193 -193 69 49 44 46 47 46 52 55 -209 -177 -177 92 100 95 95 97 98 98 97 99 103 -193 -193 -193 -193 -193 -177 -177 -177 96 100 97 91 98 101 104 105 106 106 105 106 107 108 109 109 109 111 114 114 118 120 121 122 125 128 -193 61 63 61 62 61 60 60 60 58 58 55 54 53 54 55 55 55 56 55 56 57 58 58 59 0 0 0 0 0
    0 0 0 0 0 0 0 0 0 0 0 0 0 0 0 0 0 0 0 0 0 0 0 0 0 0 0 0 0 0 0 0 0 0 0 0 0 0 0 0 0 0 0 0 0 0 0 0 0 0 0 0 0 0 0 0 0 0 0 0 0 0 0 0 0 0 0 0 0 54 53 53 52 51 52 49 54 54 54 54 54 53 54 54 54 54 53 54 54 54 57 56 57 57 58 57 57 56 56 55 56 54 54 52 53 53 53 54 53 53 54 54 54 54 54 54 53 54 54 54 55 55 55 55 54 54 53 52 51 51 47 49 50 50 53 55 53 54 54 54 54 53 54 54 53 54 53 53 53 53 52 52 51 51 51 51 50 50 47 50 49 49 48 51 50 52 51 53 53 54 54 54 53 52 54 53 52 51 51 49 49 48 49 48 52 50 52 53 54 55 55 56 55 55 56 55 53 53 52 53 54 55 54 56 56 57 57 59 60 60 61 67 62 64 66 65 64 64 63 64 58 61 66 64 70 74 -193 -177 -177 -177 -177 -177 -177 -193 -193 -209 50 46 50 51 50 54 56 67 -209 95 90 100 94 -193 97 97 98 96 99 103 -193 105 107 -193 -177 -177 -177 -193 98 101 95 90 94 100 103 104 106 106 105 106 107 108 109 109 110 112 115 115 119 120 122 122 124 126 129 -193 -193 61 62 61 60 59 59 58 58 55 54 54 55 56 56 56 56 56 56 57 58 58 59 0 0 0 0 0
    0 0 0 0 0 0 0 0 0 0 0 0 0 0 0 0 0 0 0 0 0 0 0 0 0 0 0 0 0 0 0 0 0 0 0 0 0 0 0 0 0 0 0 0 0 0 0 0 0 0 0 0 0 0 0 0 0 0 0 0 0 0 0 0 0 0 0 0 0 55 54 54 53 52 52 51 55 55 55 55 55 55 55 55 55 55 54 55 56 56 58 57 58 58 59 58 58 57 57 56 56 55 54 52 54 54 55 56 54 54 55 54 55 54 54 54 53 54 55 55 57 57 56 56 55 55 55 54 53 53 50 52 53 53 55 56 55 55 55 55 55 55 55 55 55 56 54 55 54 54 54 53 53 53 52 52 52 51 50 52 51 52 51 53 54 55 55 56 56 57 57 57 56 55 55 54 54 53 53 52 52 51 52 51 53 51 53 54 55 55 56 56 55 56 57 57 54 54 53 54 55 56 55 57 57 57 58 59 60 62 62 68 63 64 66 65 65 64 63 64 58 62 68 67 72 75 -177 -177 -177 -177 -177 -177 -177 -177 -177 -209 48 46 50 51 51 54 58 66 -209 -209 -193 99 93 93 96 96 97 96 99 103 102 105 107 -193 -177 -177 -193 -193 101 103 -209 88 90 97 101 103 106 106 105 106 107 108 108 110 111 114 117 117 120 120 123 123 124 129 128 130 131 -193 -193 60 60 59 59 58 58 56 55 55 56 57 56 56 56 55 56 56 57 58 58 0 0 0 0 0
    0 0 0 0 0 0 0 0 0 0 0 0 0 0 0 0 0 0 0 0 0 0 0 0 0 0 0 0 0 0 0 0 0 0 0 0 0 0 0 0 0 0 0 0 0 0 0 0 0 0 0 0 0 0 0 0 0 0 0 0 0 0 0 0 0 0 0 0 0 56 54 55 54 53 54 53 56 56 56 56 57 56 57 57 57 -193 -193 -193 58 57 59 58 58 58 59 58 58 57 57 56 56 55 55 53 55 56 56 58 56 56 56 55 56 55 55 55 54 55 56 57 58 58 58 57 56 56 56 55 54 54 52 54 55 55 56 56 56 56 56 56 56 56 57 57 57 57 56 56 56 55 55 54 53 53 52 53 53 51 51 53 52 53 53 55 56 57 57 57 58 58 58 59 57 57 57 56 56 55 56 54 54 54 54 54 54 52 53 55 55 56 56 57 56 57 58 58 57 57 57 56 57 57 57 57 57 58 58 60 61 65 64 69 65 65 66 65 65 64 63 65 59 65 69 68 73 77 -193 -177 -177 -177 -177 -177 -177 -177 -177 -193 48 47 52 53 52 55 58 66 -209 -209 -193 98 93 93 96 96 97 96 99 102 102 105 107 -193 -177 -193 109 109 104 106 -209 -209 -209 -209 96 100 103 103 102 104 106 107 108 111 111 113 116 116 119 119 120 121 122 125 126 127 128 129 132 133 -193 -193 61 60 59 58 57 56 57 58 57 56 56 56 56 57 57 58 58 0 0 0 0 0
    0 0 0 0 0 0 0 0 0 0 0 0 0 0 0 0 0 0 0 0 0 0 0 0 0 0 0 0 0 0 0 0 0 0 0 0 0 0 0 0 0 0 0 0 0 0 0 0 0 0 0 0 0 0 0 0 0 0 0 0 0 0 0 0 0 0 0 0 0 57 55 56 55 54 56 55 57 58 58 57 59 58 58 59 58 58 -193 58 59 58 60 59 59 59 60 58 58 57 57 56 57 56 55 54 56 58 58 59 58 57 58 56 57 56 56 56 55 56 57 58 59 60 58 57 57 56 56 55 55 55 53 55 56 56 56 56 56 56 56 57 57 56 57 57 57 58 57 57 56 56 55 54 54 54 53 52 53 51 52 53 53 54 53 56 57 58 58 59 59 59 60 60 59 59 59 58 58 57 57 56 56 56 56 55 56 54 54 57 56 56 57 57 57 58 59 59 58 59 59 58 59 59 58 58 59 60 61 63 65 68 67 70 66 66 67 66 65 65 64 66 60 67 70 70 74 79 -193 -193 -193 -193 -177 -177 -177 -177 -193 -193 -193 55 55 57 55 56 61 69 79 79 87 96 92 92 96 96 97 96 99 103 102 105 107 -193 -193 -193 109 110 105 105 -209 -209 -193 -209 -193 -193 90 92 94 100 104 105 107 110 109 113 115 115 117 118 119 120 120 123 123 124 125 127 129 128 129 132 130 -193 62 61 59 59 59 60 58 57 57 57 57 58 58 59 59 0 0 0 0 0
    0 0 0 0 0 0 0 0 0 0 0 0 0 0 0 0 0 0 0 0 0 0 0 0 0 0 0 0 0 0 0 0 0 0 0 0 0 0 0 0 0 0 0 0 0 0 0 0 0 0 0 0 0 0 0 0 0 0 0 0 0 0 0 0 0 0 0 0 0 60 59 62 62 68 68 65 63 61 60 59 61 60 60 61 60 59 60 61 62 59 62 60 59 59 61 60 59 59 59 58 58 58 58 56 58 60 59 61 59 58 59 57 58 57 57 57 56 56 59 59 61 61 59 59 58 57 57 56 56 56 54 56 58 57 59 59 57 58 -193 -193 -193 -193 57 57 58 59 58 58 57 57 56 55 55 54 54 53 53 52 52 54 54 54 54 58 58 59 60 61 61 61 63 63 62 64 62 61 60 59 59 57 57 56 56 55 57 54 55 58 56 57 58 58 58 58 59 59 58 59 59 58 60 60 60 60 62 65 66 69 70 71 70 72 67 68 67 66 66 66 65 67 61 68 70 72 74 80 74 74 76 76 76 75 -193 -193 -193 76 79 70 61 67 61 62 67 72 79 79 86 94 91 92 95 95 96 95 99 103 102 105 107 -193 -193 108 109 110 105 105 67 70 72 74 79 84 82 83 86 89 95 98 104 108 108 112 115 115 117 117 118 119 119 122 123 123 125 125 127 125 126 128 126 128 128 127 -193 64 64 64 60 58 58 60 61 62 62 62 63 0 0 0 0 0
    0 0 0 0 0 0 0 0 0 0 0 0 0 0 0 0 0 0 0 0 0 0 0 0 0 0 0 0 0 0 0 0 0 0 0 0 0 0 0 0 0 0 0 0 0 0 0 0 0 0 0 0 0 0 0 0 0 0 0 0 0 0 0 0 0 0 0 0 0 69 68 73 73 75 74 74 70 65 64 62 65 63 62 63 62 61 64 64 65 61 64 62 61 61 64 63 62 63 62 61 63 63 66 61 61 64 61 63 62 62 64 60 61 62 60 62 60 61 65 63 66 65 61 61 59 58 59 58 57 57 56 58 62 62 65 67 -193 -193 -193 -193 -193 -193 -193 -193 59 61 60 60 61 60 58 57 -193 -209 56 55 55 54 55 56 55 55 55 60 60 62 62 64 65 64 67 67 66 69 67 68 65 63 62 59 58 57 57 56 57 55 55 58 57 58 59 59 59 59 60 60 59 60 60 59 61 62 61 62 66 69 69 71 72 73 72 74 70 70 69 67 67 66 66 68 63 69 71 72 75 80 75 75 76 77 77 76 76 76 72 76 79 75 74 74 73 73 73 75 82 82 86 93 91 91 95 95 96 95 98 102 101 105 106 -193 107 108 109 110 105 105 -209 75 75 76 79 82 80 81 83 83 -193 86 90 93 103 108 111 113 115 116 118 119 119 122 123 123 124 124 127 127 129 130 130 131 132 132 133 135 -209 -209 65 61 62 65 68 68 66 68 68 0 0 0 0 0
    0 0 0 0 0 0 0 0 0 0 0 0 0 0 0 0 0 0 0 0 0 0 0 0 0 0 0 0 0 0 0 0 0 0 0 0 0 0 0 0 0 0 0 0 0 0 0 0 0 0 0 0 0 0 0 0 0 0 0 0 0 0 0 0 0 0 0 0 0 73 73 75 75 77 76 76 73 68 67 65 67 66 65 65 64 64 68 67 68 64 67 64 63 62 66 67 67 68 69 67 70 72 71 68 64 66 62 64 65 66 67 64 65 69 67 71 73 71 71 69 70 68 64 64 62 60 60 60 59 60 60 63 68 71 71 73 -209 -193 -193 -193 -193 -177 -193 -193 61 65 65 64 68 67 62 62 66 -193 -193 60 60 57 57 63 -193 56 57 65 63 65 64 67 -193 67 69 70 69 72 70 71 70 69 69 64 62 60 59 57 58 56 56 58 58 59 60 60 61 61 62 62 61 62 63 62 64 64 63 64 68 71 72 73 74 75 74 75 72 71 70 69 68 67 67 69 64 70 72 73 75 80 76 76 77 78 78 77 76 77 73 77 82 81 77 79 78 77 76 77 83 83 86 93 91 92 95 95 96 95 98 102 101 105 106 105 107 108 109 110 105 105 -209 78 76 77 79 80 78 79 81 80 -193 84 84 85 88 103 107 109 113 116 119 120 121 123 123 124 126 126 128 129 129 131 130 131 131 131 132 133 132 135 -209 65 68 70 72 72 71 73 73 0 0 0 0 0
    0 0 0 0 0 0 0 0 0 0 0 0 0 0 0 0 0 0 0 0 0 0 0 0 0 0 0 0 0 0 0 0 0 0 0 0 0 0 0 0 0 0 0 0 0 0 0 0 0 0 0 0 0 0 0 0 0 0 0 0 0 0 0 0 0 0 0 0 0 74 74 75 76 77 76 76 73 71 70 68 70 68 68 68 67 68 70 70 70 67 69 66 66 66 69 71 71 72 73 -193 73 74 73 73 68 68 64 65 66 68 69 68 69 72 72 74 75 74 74 73 72 71 67 67 64 62 62 62 61 63 66 69 71 73 73 75 -209 -193 -193 -193 -193 -177 -193 -193 66 70 70 69 72 71 68 68 -193 -209 -193 70 73 -193 -193 -193 -209 57 63 70 67 -193 67 -193 -193 69 70 71 71 73 72 73 72 71 72 69 66 64 61 59 59 57 57 59 59 60 62 62 63 63 65 64 64 65 67 65 67 66 65 66 69 73 73 74 75 76 76 77 74 74 72 70 70 68 68 70 66 71 72 74 76 81 77 77 78 78 78 77 77 78 74 80 85 85 81 82 81 80 78 78 83 84 86 93 91 92 95 95 96 95 97 102 100 105 105 105 107 107 109 110 105 105 -209 81 77 78 79 80 77 78 78 77 79 81 81 79 80 87 103 106 108 112 119 119 121 124 124 127 128 128 130 132 132 133 133 134 134 134 134 136 136 136 135 -193 74 78 84 82 78 79 77 0 0 0 0 0
    0 0 0 0 0 0 0 0 0 0 0 0 0 0 0 0 0 0 0 0 0 0 0 0 0 0 0 0 0 0 0 0 0 0 0 0 0 0 0 0 0 0 0 0 0 0 0 0 0 0 0 0 0 0 0 0 0 0 0 0 0 0 0 0 0 0 0 0 0 75 75 76 76 78 77 76 74 74 72 71 72 71 70 71 70 70 72 71 71 69 71 70 69 71 72 74 74 75 75 75 75 76 75 75 72 70 66 66 67 69 70 71 71 75 74 75 77 76 76 75 74 73 69 69 66 63 63 63 63 66 -193 71 72 74 74 76 -193 74 -193 -209 -209 -177 -193 -193 69 71 -193 71 73 -193 -193 71 74 -193 -193 73 75 74 -193 -193 75 60 70 73 -193 70 69 -193 -193 71 72 73 72 75 74 74 74 73 74 73 69 68 63 62 60 60 61 62 62 62 66 66 67 67 67 67 67 68 70 68 69 68 67 68 71 75 74 75 77 77 77 78 76 75 73 72 72 70 69 71 69 72 74 75 77 81 78 79 78 79 79 78 78 80 75 82 85 85 83 83 83 81 80 79 83 85 86 93 91 92 95 95 96 95 97 102 100 104 105 105 106 107 109 110 105 104 -193 83 77 79 80 79 77 78 77 76 77 80 80 77 79 86 -193 93 101 105 115 116 119 124 124 127 129 130 131 133 134 135 134 135 136 135 136 138 138 137 138 74 80 84 87 85 83 82 79 0 0 0 0 0
    0 0 0 0 0 0 0 0 0 0 0 0 0 0 0 0 0 0 0 0 0 0 0 0 0 0 0 0 0 0 0 0 0 0 0 0 0 0 0 0 0 0 0 0 0 0 0 0 0 0 0 0 0 0 0 0 0 0 0 0 0 0 0 0 0 0 0 0 0 76 76 76 77 78 77 76 75 75 74 73 74 73 73 73 72 73 74 74 74 73 73 74 73 76 75 77 77 77 77 77 77 77 76 76 74 73 70 69 70 72 72 74 73 78 76 77 78 77 77 76 75 74 71 71 68 64 65 66 65 69 -193 73 74 76 75 77 76 76 76 74 -193 -193 -193 -209 72 73 73 72 74 74 -193 73 76 75 75 75 76 75 75 76 76 72 74 76 73 73 72 73 73 73 73 75 74 76 75 76 76 75 76 75 71 71 67 66 63 65 67 67 67 66 70 69 70 70 70 70 70 71 73 -193 -193 69 69 70 72 78 76 76 79 78 78 80 79 77 75 75 74 72 71 73 71 73 75 76 77 82 79 80 79 81 80 80 80 82 77 83 85 86 84 85 84 83 82 82 84 85 87 93 91 92 95 95 97 95 97 102 100 104 104 104 106 106 108 109 104 102 85 83 78 79 80 79 77 77 77 76 77 78 79 77 78 85 87 90 92 94 -193 110 119 125 125 129 131 132 132 134 135 135 135 135 137 136 136 138 138 -193 -209 75 80 84 87 83 83 81 78 0 0 0 0 0
    0 0 0 0 0 0 0 0 0 0 0 0 0 0 0 0 0 0 0 0 0 0 0 0 0 0 0 0 0 0 0 0 0 0 0 0 0 0 0 0 0 0 0 0 0 0 0 0 0 0 0 0 0 0 0 0 0 0 0 0 0 0 0 0 0 0 0 0 0 77 77 77 77 79 78 77 76 75 75 74 75 75 74 75 74 76 77 77 78 77 78 81 80 82 78 80 79 79 79 78 78 78 76 77 75 75 74 72 73 75 75 79 76 81 77 78 78 77 77 77 76 76 73 74 71 68 68 69 69 71 -193 75 76 78 76 78 77 77 77 75 76 76 76 75 74 74 74 74 75 76 75 74 78 77 76 77 78 77 77 78 78 74 78 80 76 76 75 76 75 75 75 78 75 78 76 77 77 77 77 76 73 73 69 68 67 68 69 69 69 68 72 71 73 72 73 73 72 73 75 -193 -193 -209 -193 72 74 81 77 77 81 79 79 81 80 79 77 78 77 74 74 77 74 75 78 79 79 82 80 81 80 82 81 81 81 83 79 84 86 86 84 85 85 84 83 83 84 86 87 93 92 92 95 96 97 96 97 102 100 104 104 103 105 105 107 108 101 99 85 81 78 79 80 79 78 78 78 77 79 81 82 80 82 87 88 90 91 92 99 104 108 119 124 128 132 133 133 134 136 135 135 136 137 136 136 138 138 -193 -193 -209 85 87 88 85 84 83 80 0 0 0 0 0
    0 0 0 0 0 0 0 0 0 0 0 0 0 0 0 0 0 0 0 0 0 0 0 0 0 0 0 0 0 0 0 0 0 0 0 0 0 0 0 0 0 0 0 0 0 0 0 0 0 0 0 0 0 0 0 0 0 0 0 0 0 0 0 0 0 0 0 0 0 78 78 78 78 79 79 77 76 76 75 75 76 75 75 76 75 77 80 80 81 80 83 84 85 84 82 82 81 80 80 79 78 78 76 77 75 76 75 74 76 77 79 83 79 83 79 80 79 78 78 78 77 77 75 76 74 73 73 73 73 74 81 79 81 81 78 79 79 78 78 77 77 77 77 78 76 76 76 76 77 77 77 76 81 79 78 79 81 79 79 80 80 76 80 82 79 78 78 78 77 77 76 79 76 79 77 78 77 78 78 78 74 75 71 71 69 70 71 72 72 71 75 73 75 74 75 75 75 75 77 75 78 75 75 76 77 83 78 78 82 80 80 81 80 80 78 80 80 76 78 82 78 79 82 82 81 83 82 83 82 84 83 83 82 85 82 84 86 85 84 85 85 84 84 83 85 87 88 93 92 93 95 96 97 96 97 102 100 104 103 103 104 105 107 108 99 97 86 82 79 80 81 80 79 80 80 79 81 83 83 82 83 86 87 89 89 90 92 99 -209 -209 128 131 132 135 134 135 137 136 136 136 137 137 136 137 138 -193 -193 -209 89 91 -209 -209 -209 -193 -209 0 0 0 0 0
    0 0 0 0 0 0 0 0 0 0 0 0 0 0 0 0 0 0 0 0 0 0 0 0 0 0 0 0 0 0 0 0 0 0 0 0 0 0 0 0 0 0 0 0 0 0 0 0 0 0 0 0 0 0 0 0 0 0 0 0 0 0 0 0 0 0 0 0 0 79 79 78 78 80 79 77 77 77 76 75 76 76 75 77 76 78 83 82 83 83 85 86 86 86 84 83 82 81 81 79 79 78 76 77 75 76 75 76 79 79 81 84 81 84 80 81 80 79 80 79 78 79 76 78 76 76 76 76 75 77 83 82 83 82 79 80 80 79 79 78 78 77 79 79 77 78 78 77 79 79 78 77 82 79 79 79 82 80 80 81 81 78 82 83 80 79 79 79 78 77 77 80 77 80 78 79 78 79 80 79 75 77 74 74 73 72 72 73 73 72 77 75 77 77 77 78 78 79 81 78 82 79 80 80 80 84 79 79 83 80 80 81 81 82 79 83 83 78 84 86 84 85 85 84 83 84 84 85 85 86 85 85 84 87 85 86 87 86 84 86 85 85 84 84 85 87 88 94 92 93 95 96 97 96 97 101 100 104 103 102 -193 104 107 107 97 96 86 83 80 81 81 81 80 80 80 79 82 83 84 84 84 87 86 87 88 88 89 93 92 -209 -177 132 133 135 135 136 138 136 136 137 138 137 137 -193 -193 -193 138 -209 -209 -209 -209 -193 -209 -209 -209 0 0 0 0 0
    0 0 0 0 0 0 0 0 0 0 0 0 0 0 0 0 0 0 0 0 0 0 0 0 0 0 0 0 0 0 0 0 0 0 0 0 0 0 0 0 0 0 0 0 0 0 0 0 0 0 0 0 0 0 0 0 0 0 0 0 0 0 0 0 0 0 0 0 0 79 80 79 79 81 80 78 77 77 77 76 76 76 76 77 77 79 84 84 85 85 87 86 87 86 85 84 83 82 81 79 80 78 77 78 76 77 76 77 78 79 82 84 81 84 81 82 81 80 81 79 79 79 77 79 78 77 78 78 78 80 84 83 84 83 80 81 81 80 80 78 79 77 79 80 77 78 78 77 79 79 78 77 81 79 79 80 82 81 81 82 83 79 83 83 81 79 79 79 78 77 77 80 77 81 80 80 80 81 82 81 77 78 76 75 74 73 73 75 75 75 79 77 80 80 80 81 81 82 83 81 84 81 83 83 83 85 80 80 83 81 81 82 82 82 79 83 84 79 85 87 85 86 87 86 85 86 86 87 86 86 85 86 85 87 85 85 86 85 85 86 86 86 85 84 86 89 89 95 93 94 96 96 98 96 97 101 -193 -193 102 102 -193 104 106 107 97 95 86 84 81 82 82 81 80 81 81 81 83 84 85 85 85 87 86 87 87 87 88 90 89 94 -209 -177 133 135 135 136 139 136 136 137 138 138 137 -193 -193 -193 138 -209 -209 -209 -177 -193 -209 -209 -209 0 0 0 0 0
    0 0 0 0 0 0 0 0 0 0 0 0 0 0 0 0 0 0 0 0 0 0 0 0 0 0 0 0 0 0 0 0 0 0 0 0 0 0 0 0 0 0 0 0 0 0 0 0 0 0 0 0 0 0 0 0 0 0 0 0 0 0 0 0 0 0 0 0 0 80 81 81 80 81 81 79 78 79 78 77 77 78 78 79 78 81 85 85 86 -193 -193 -193 -193 -193 86 85 84 83 83 81 81 80 79 80 77 79 77 78 78 79 83 84 82 85 81 83 82 81 82 80 80 80 77 80 79 79 79 79 80 83 85 84 85 83 82 82 82 82 81 79 79 77 79 79 77 77 77 76 79 79 78 78 82 80 80 81 83 82 82 83 84 81 84 84 82 80 81 80 79 77 78 81 79 82 82 82 82 83 83 83 80 80 78 77 75 74 74 76 75 75 79 77 80 80 80 81 83 83 84 82 85 83 85 85 86 85 81 81 84 81 81 82 83 82 80 84 84 81 87 87 87 87 88 88 86 87 87 87 87 86 85 86 85 87 85 85 86 86 86 87 87 87 86 85 87 91 90 96 93 95 96 96 98 96 97 101 100 103 102 102 -193 103 106 107 98 97 88 87 83 84 83 82 82 82 82 83 85 85 86 86 87 87 87 87 87 86 87 89 88 91 -209 -209 134 136 135 136 139 135 136 137 137 137 137 -193 -193 -193 139 -193 -209 -209 -209 -209 -209 -209 -209 0 0 0 0 0
    0 0 0 0 0 0 0 0 0 0 0 0 0 0 0 0 0 0 0 0 0 0 0 0 0 0 0 0 0 0 0 0 0 0 0 0 0 0 0 0 0 0 0 0 0 0 0 0 0 0 0 0 0 0 0 0 0 0 0 0 0 0 0 0 0 0 0 0 0 81 81 82 81 82 82 80 79 79 80 78 77 79 80 80 80 83 87 87 88 -209 -209 -209 -209 -209 -193 86 85 85 84 81 82 81 80 81 79 80 79 79 80 80 84 84 83 85 82 83 83 82 83 81 80 81 78 81 80 80 81 81 83 85 86 85 86 84 83 84 83 83 82 81 80 77 80 79 76 76 76 76 78 79 79 78 82 81 82 82 84 83 83 83 84 83 85 84 84 82 82 82 81 78 79 81 81 83 83 84 84 84 84 84 82 82 80 78 77 75 75 76 75 76 80 78 80 81 80 82 84 84 85 83 85 84 86 87 87 86 82 82 85 82 82 82 83 82 81 84 85 83 88 88 89 88 89 89 88 88 88 88 88 87 86 87 86 87 86 87 87 87 88 89 89 89 89 87 88 93 91 98 94 95 96 96 98 96 97 101 100 103 102 102 -193 103 106 106 98 98 90 90 86 87 86 84 85 84 83 84 85 86 86 87 87 88 87 87 87 87 88 89 88 92 -209 -209 -209 -209 136 137 141 136 136 138 -193 138 -193 -193 -193 -193 138 141 -209 -209 -177 -209 -209 -209 -209 0 0 0 0 0
    0 0 0 0 0 0 0 0 0 0 0 0 0 0 0 0 0 0 0 0 0 0 0 0 0 0 0 0 0 0 0 0 0 0 0 0 0 0 0 0 0 0 0 0 0 0 0 0 0 0 0 0 0 0 0 0 0 0 0 0 0 0 0 0 0 0 0 0 0 82 83 83 83 82 82 81 79 80 81 79 78 80 81 83 84 86 89 89 91 -209 -193 -209 -209 -209 -193 87 86 85 85 81 82 81 80 80 79 80 80 79 82 82 86 85 84 85 83 84 83 83 84 81 82 82 79 82 82 82 82 83 84 86 87 86 87 85 85 85 84 84 83 82 81 77 80 -193 76 75 75 75 77 79 79 79 82 82 83 83 84 83 84 84 85 84 85 84 84 82 83 83 82 79 81 82 83 84 85 85 85 85 85 85 83 83 82 79 79 77 77 78 77 77 81 80 82 82 81 83 85 85 85 85 86 85 87 87 88 85 83 83 85 82 82 83 84 82 82 85 86 85 88 88 89 88 89 89 88 89 89 89 89 88 87 88 87 88 87 87 87 87 88 90 90 90 90 89 90 95 92 98 94 95 96 96 98 96 98 101 100 103 102 102 103 103 106 106 98 98 90 92 87 88 88 85 86 86 86 87 87 87 88 89 89 89 88 87 88 88 89 89 88 93 -209 102 -209 -209 -209 135 139 136 136 137 -193 -193 -193 -193 -193 -193 138 -193 -209 -209 -177 -177 -209 -193 166 0 0 0 0 0
    0 0 0 0 0 0 0 0 0 0 0 0 0 0 0 0 0 0 0 0 0 0 0 0 0 0 0 0 0 0 0 0 0 0 0 0 0 0 0 0 0 0 0 0 0 0 0 0 0 0 0 0 0 0 0 0 0 0 0 0 0 0 0 0 0 0 0 0 0 83 84 84 84 83 83 82 80 80 82 80 79 81 82 84 86 87 90 90 92 -209 -193 -209 -193 -193 89 88 88 86 86 81 84 81 80 81 80 80 81 80 83 83 86 84 85 85 84 85 84 84 84 82 83 82 81 83 83 83 83 84 86 87 87 87 88 85 86 85 85 86 84 84 83 78 82 -193 77 74 75 75 77 82 81 81 82 83 84 84 85 84 84 84 85 85 85 84 85 83 84 83 83 79 82 82 85 84 86 85 86 86 86 85 85 84 84 80 81 78 78 80 80 79 83 82 83 84 82 84 87 86 86 86 86 86 87 88 88 85 83 83 85 83 82 83 84 83 83 86 86 85 88 88 89 88 89 89 89 89 90 90 90 88 87 88 87 88 87 87 87 87 88 90 89 90 90 89 90 95 92 99 94 95 97 97 98 96 98 101 100 103 102 102 103 103 106 106 98 98 91 93 89 89 90 88 -193 -193 90 90 89 89 90 91 90 90 89 88 88 89 89 90 89 94 -209 103 -209 -209 -209 135 137 135 136 137 -193 -209 -193 -193 -193 135 137 -193 -209 -209 -177 -209 169 164 163 0 0 0 0 0
    0 0 0 0 0 0 0 0 0 0 0 0 0 0 0 0 0 0 0 0 0 0 0 0 0 0 0 0 0 0 0 0 0 0 0 0 0 0 0 0 0 0 0 0 0 0 0 0 0 0 0 0 0 0 0 0 0 0 0 0 0 0 0 0 0 0 0 0 0 85 85 85 85 84 84 83 80 81 82 81 80 83 83 84 87 88 89 -193 -193 -209 -193 -209 90 90 90 89 90 88 88 84 86 84 83 82 81 80 82 81 84 84 86 84 85 85 84 85 84 85 85 83 84 83 82 84 83 84 83 84 86 87 87 88 88 86 87 86 86 86 85 85 84 79 85 -209 80 74 77 78 81 85 84 84 84 85 86 85 86 85 85 85 86 86 86 85 86 85 85 84 85 81 85 84 86 85 87 87 87 87 87 86 86 85 85 82 83 81 81 82 84 83 85 85 85 85 83 85 88 87 87 86 87 87 87 88 88 85 83 84 85 83 82 83 85 83 84 86 87 86 88 88 89 88 89 90 89 89 90 91 92 89 88 89 88 89 88 88 88 88 89 91 90 90 90 90 91 95 93 99 94 96 97 97 98 96 98 101 99 103 102 102 103 103 105 105 98 98 91 95 90 92 95 92 99 94 94 93 91 90 90 91 90 90 89 88 89 89 90 91 90 96 -193 -209 -209 -209 -193 134 136 135 135 -193 -193 -209 -193 -193 137 136 137 139 -209 -209 -209 159 167 162 161 0 0 0 0 0
    0 0 0 0 0 0 0 0 0 0 0 0 0 0 0 0 0 0 0 0 0 0 0 0 0 0 0 0 0 0 0 0 0 0 0 0 0 0 0 0 0 0 0 0 0 0 0 0 0 0 0 0 0 0 0 0 0 0 0 0 0 0 0 0 0 0 0 0 0 85 85 85 85 84 85 84 81 82 83 82 81 84 84 85 87 88 88 -209 -209 -209 -193 -209 90 90 91 90 90 89 90 87 89 85 84 83 82 80 82 82 85 84 87 85 85 85 85 85 85 85 86 83 85 84 83 85 84 85 84 84 86 87 87 87 89 86 87 87 86 87 86 87 86 81 88 78 87 78 81 83 85 87 86 86 84 86 87 86 87 86 86 86 87 86 86 85 86 85 85 85 85 82 86 85 88 86 88 88 -193 -193 -193 -193 -193 -193 86 83 84 82 82 83 86 86 87 87 87 87 84 86 -193 88 88 87 87 87 87 88 88 85 83 84 84 83 82 83 86 84 85 87 88 86 87 88 89 87 89 90 90 90 91 93 94 90 90 91 89 90 89 90 90 90 91 92 92 92 92 92 93 96 94 99 95 96 97 97 97 96 98 101 100 103 102 102 103 103 105 104 99 99 93 98 94 96 97 94 95 93 93 91 91 89 90 91 91 90 89 88 89 89 90 91 90 97 104 -209 -209 -209 -193 134 136 135 135 137 -209 -193 -193 -193 137 137 138 141 -209 146 153 155 163 158 157 0 0 0 0 0
    0 0 0 0 0 0 0 0 0 0 0 0 0 0 0 0 0 0 0 0 0 0 0 0 0 0 0 0 0 0 0 0 0 0 0 0 0 0 0 0 0 0 0 0 0 0 0 0 0 0 0 0 0 0 0 0 0 0 0 0 0 0 0 0 0 0 0 0 0 84 85 85 84 84 85 84 81 82 83 83 82 84 85 85 87 88 88 88 -209 -209 -209 -209 89 89 90 90 90 89 90 87 89 86 85 84 83 81 83 83 85 84 87 85 85 85 85 85 85 85 86 84 85 84 84 86 85 86 85 85 87 88 87 87 88 86 87 87 87 87 86 87 87 83 89 85 89 86 85 87 87 88 86 87 85 86 87 86 87 86 87 86 87 86 86 85 86 85 85 85 86 82 87 86 88 87 88 -193 -193 -193 -193 -193 -193 -193 86 83 84 83 83 84 87 88 88 89 89 88 86 87 -193 -193 88 88 87 88 87 88 88 84 84 84 85 84 83 84 88 85 87 88 88 87 87 87 89 86 89 89 90 90 91 93 94 90 91 92 89 90 90 91 91 91 92 94 93 94 93 93 95 97 96 99 95 96 97 97 98 97 99 100 100 103 102 102 103 103 104 104 100 99 94 100 97 98 97 93 93 91 92 90 90 87 88 90 90 90 89 88 88 88 90 90 90 97 105 -209 -209 -193 132 133 136 135 135 -193 -193 -193 -193 138 138 137 138 142 -193 147 152 153 158 156 155 0 0 0 0 0
    0 0 0 0 0 0 0 0 0 0 0 0 0 0 0 0 0 0 0 0 0 0 0 0 0 0 0 0 0 0 0 0 0 0 0 0 0 0 0 0 0 0 0 0 0 0 0 0 0 0 0 0 0 0 0 0 0 0 0 0 0 0 0 0 0 0 0 0 0 84 84 85 84 84 85 84 81 82 83 84 83 85 85 86 88 88 88 89 -209 -209 -209 -209 -193 -209 89 90 90 89 90 -193 90 88 87 85 84 83 84 84 86 86 87 86 86 86 85 86 85 86 86 84 85 84 85 86 86 86 86 86 87 88 87 88 89 87 88 87 87 88 87 88 87 84 89 84 89 85 85 87 87 89 87 88 86 87 88 87 87 87 87 86 87 87 86 85 86 86 86 86 87 85 88 88 88 87 88 87 -193 87 -193 -193 -193 -193 86 85 86 85 85 86 89 89 89 90 90 89 86 88 91 -209 88 88 88 88 88 88 88 84 84 85 85 85 84 85 90 86 88 88 89 87 87 87 88 86 89 90 90 90 92 93 94 91 92 92 90 92 92 92 93 93 93 96 94 95 94 94 96 98 98 100 95 97 98 97 98 97 99 101 100 103 102 102 103 103 104 103 100 99 95 101 98 99 98 93 93 92 95 91 91 87 89 92 92 92 90 88 89 89 91 91 91 100 -193 -209 -193 -193 132 133 136 135 136 -193 -193 -193 -193 138 139 138 139 143 140 146 150 152 157 155 154 0 0 0 0 0
    0 0 0 0 0 0 0 0 0 0 0 0 0 0 0 0 0 0 0 0 0 0 0 0 0 0 0 0 0 0 0 0 0 0 0 0 0 0 0 0 0 0 0 0 0 0 0 0 0 0 0 0 0 0 0 0 0 0 0 0 0 0 0 0 0 0 0 0 0 85 85 85 85 84 85 84 82 83 83 84 84 85 86 87 89 89 90 90 -193 -193 -193 -209 -193 -193 89 90 90 90 91 90 93 92 91 89 87 86 87 87 88 88 89 87 87 87 86 86 86 86 86 85 86 85 86 87 88 88 87 88 88 89 88 89 90 88 89 88 88 89 88 89 88 85 89 84 89 88 88 89 89 90 88 88 87 88 89 87 88 87 88 88 88 88 87 87 88 87 -193 -193 88 87 88 88 87 86 87 87 87 87 87 87 87 87 88 87 88 88 88 89 90 91 90 90 91 89 87 88 91 -193 88 88 88 88 88 89 89 85 85 86 86 86 85 86 91 86 88 88 89 87 87 87 88 87 89 91 91 90 92 94 95 92 93 94 92 93 94 94 95 94 94 97 95 95 95 95 96 98 99 100 96 97 98 98 99 98 100 101 101 103 102 102 103 102 103 102 100 99 96 101 99 100 99 95 94 95 98 93 93 89 92 94 95 98 94 93 92 92 93 93 94 102 -209 -209 -193 -209 133 134 136 137 137 138 -193 138 -193 139 139 138 139 143 -193 146 149 152 158 155 155 0 0 0 0 0
    0 0 0 0 0 0 0 0 0 0 0 0 0 0 0 0 0 0 0 0 0 0 0 0 0 0 0 0 0 0 0 0 0 0 0 0 0 0 0 0 0 0 0 0 0 0 0 0 0 0 0 0 0 0 0 0 0 0 0 0 0 0 0 0 0 0 0 0 0 86 86 86 85 84 85 85 82 82 83 84 84 86 87 88 91 91 91 92 93 91 91 89 90 89 90 91 91 90 92 91 94 94 94 92 90 88 89 90 90 90 91 89 89 88 88 88 87 87 87 86 87 86 88 89 89 89 89 89 90 92 90 91 92 89 90 90 90 90 89 90 89 87 90 88 90 90 91 91 91 91 89 89 88 88 89 88 89 88 89 89 89 89 89 89 89 89 -193 -193 -193 88 88 87 86 85 87 87 87 87 87 88 -193 -193 89 89 90 90 90 91 91 92 91 91 92 90 88 89 92 90 89 89 89 89 89 89 90 86 86 87 88 88 87 88 93 87 89 89 90 87 87 87 89 88 90 91 92 91 93 95 96 93 94 95 94 95 97 96 96 94 95 98 96 96 95 95 97 98 99 100 95 97 99 99 99 99 101 101 102 104 102 102 103 102 103 101 100 99 97 101 100 101 99 98 96 97 101 97 97 93 95 96 98 103 100 101 98 97 97 96 98 103 -209 -193 -209 -209 134 135 138 138 138 139 138 139 -193 139 140 138 139 144 -193 147 149 152 158 155 155 0 0 0 0 0
    0 0 0 0 0 0 0 0 0 0 0 0 0 0 0 0 0 0 0 0 0 0 0 0 0 0 0 0 0 0 0 0 0 0 0 0 0 0 0 0 0 0 0 0 0 0 0 0 0 0 0 0 0 0 0 0 0 0 0 0 0 0 0 0 0 0 0 0 0 88 87 86 87 86 86 85 83 81 82 84 86 86 88 88 91 91 91 92 93 92 92 90 92 90 91 93 93 92 93 93 95 95 95 94 91 90 91 92 92 92 92 90 90 89 90 89 88 88 88 87 89 88 90 90 91 90 90 90 92 93 91 93 93 91 92 91 91 91 90 91 89 88 90 89 91 92 92 92 92 92 90 90 89 89 90 89 89 90 90 90 90 90 90 90 90 90 90 90 90 89 89 89 86 86 88 -193 -193 88 88 89 89 90 90 90 91 91 91 92 91 92 92 91 92 92 90 90 94 92 90 90 90 90 89 90 91 87 88 89 89 89 89 89 94 88 89 90 90 87 87 88 89 88 91 92 92 91 93 95 96 94 94 95 95 97 98 97 97 95 96 99 96 96 95 96 97 98 100 100 96 98 100 99 100 100 102 102 102 104 103 102 103 103 103 100 100 99 97 101 101 101 99 99 98 99 102 101 100 100 99 98 99 104 102 103 99 97 97 95 98 103 -209 -193 -209 -209 134 135 139 138 138 140 139 139 138 140 141 139 140 143 -193 148 148 152 157 155 155 0 0 0 0 0
    0 0 0 0 0 0 0 0 0 0 0 0 0 0 0 0 0 0 0 0 0 0 0 0 0 0 0 0 0 0 0 0 0 0 0 0 0 0 0 0 0 0 0 0 0 0 0 0 0 0 0 0 0 0 0 0 0 0 0 0 0 0 0 0 0 0 0 0 0 89 88 87 88 87 87 86 85 83 83 86 88 88 89 89 92 92 92 93 94 92 93 91 93 92 92 95 94 93 94 94 95 95 96 95 93 92 94 94 94 93 93 91 91 91 91 90 90 90 90 89 90 90 90 91 92 91 91 91 93 95 93 96 94 92 93 92 92 92 91 92 90 90 91 90 91 92 92 92 92 92 91 91 90 90 90 90 90 91 91 91 92 92 91 91 92 92 91 91 91 90 90 91 88 89 90 90 90 90 89 91 91 92 92 92 92 92 92 93 92 92 92 91 92 93 91 91 95 93 91 90 91 91 90 91 92 89 89 90 91 91 90 91 95 90 91 91 92 89 88 89 90 89 92 93 92 92 94 96 96 95 96 96 97 99 100 99 99 97 98 100 98 98 97 98 98 99 102 101 97 100 101 101 101 101 102 102 103 104 102 102 103 103 102 100 100 100 98 102 101 102 99 99 99 99 102 100 100 99 98 99 100 106 105 106 102 101 100 99 100 105 -209 -193 -209 -193 135 136 140 139 139 141 139 140 138 140 141 138 140 143 141 149 148 152 156 154 154 0 0 0 0 0
    0 0 0 0 0 0 0 0 0 0 0 0 0 0 0 0 0 0 0 0 0 0 0 0 0 0 0 0 0 0 0 0 0 0 0 0 0 0 0 0 0 0 0 0 0 0 0 0 0 0 0 0 0 0 0 0 0 0 0 0 0 0 0 0 0 0 0 0 0 91 89 88 89 88 89 87 87 85 84 87 91 91 93 92 94 94 93 94 95 93 94 92 94 93 93 96 94 93 94 94 95 96 97 96 93 94 96 96 95 94 94 93 93 93 93 92 92 91 92 91 92 91 91 92 92 92 92 92 94 96 94 98 95 94 94 94 93 93 92 93 91 90 92 90 92 93 93 93 93 92 92 92 91 91 91 91 91 93 92 92 93 93 93 93 93 94 93 94 94 93 93 94 91 93 93 92 92 92 91 94 92 94 93 93 93 93 93 93 92 92 92 91 92 92 91 92 94 93 92 91 92 92 91 92 94 91 92 92 93 94 93 94 96 92 92 93 94 91 90 91 91 91 93 93 93 93 94 97 97 97 97 96 98 100 101 101 100 99 100 101 99 99 99 99 100 101 103 101 99 101 102 101 102 102 103 102 103 104 103 102 103 103 103 101 101 100 99 102 102 102 99 99 99 100 102 101 100 100 101 100 102 108 107 108 105 105 103 102 103 108 -209 -193 -193 -193 136 136 141 139 139 141 139 140 138 140 141 138 141 143 142 149 148 152 154 154 154 0 0 0 0 0
    0 0 0 0 0 0 0 0 0 0 0 0 0 0 0 0 0 0 0 0 0 0 0 0 0 0 0 0 0 0 0 0 0 0 0 0 0 0 0 0 0 0 0 0 0 0 0 0 0 0 0 0 0 0 0 0 0 0 0 0 0 0 0 0 0 0 0 0 0 94 93 91 91 91 91 91 91 89 86 89 94 95 97 94 95 96 95 96 97 95 95 93 94 94 93 96 95 94 95 95 96 97 98 98 94 95 98 98 96 95 95 94 95 96 96 95 94 94 96 94 94 93 93 93 93 92 93 92 94 96 94 99 96 94 95 95 94 94 93 94 91 92 93 91 93 94 96 94 95 93 93 94 92 92 92 92 92 94 93 94 94 94 94 95 95 95 94 96 96 95 96 96 93 95 95 94 93 93 92 96 94 95 94 94 94 94 94 94 92 93 92 91 92 92 92 92 95 94 92 92 92 93 92 94 95 93 94 95 96 96 95 96 96 93 93 94 95 92 91 92 92 91 94 94 94 93 95 98 97 97 97 96 99 101 102 101 100 100 101 102 100 100 100 101 101 102 103 101 100 102 103 102 102 102 103 103 104 104 103 103 103 103 103 101 101 101 100 102 102 102 99 100 100 100 102 101 101 101 103 101 103 109 109 110 108 107 106 104 104 111 -177 -209 -209 -193 137 137 143 140 140 142 140 140 139 140 141 138 141 142 142 149 148 151 154 154 154 0 0 0 0 0
    0 0 0 0 0 0 0 0 0 0 0 0 0 0 0 0 0 0 0 0 0 0 0 0 0 0 0 0 0 0 0 0 0 0 0 0 0 0 0 0 0 0 0 0 0 0 0 0 0 0 0 0 0 0 0 0 0 0 0 0 0 0 0 0 0 0 0 0 0 99 99 97 97 98 94 97 97 93 88 90 96 98 99 96 97 98 96 97 98 96 95 94 95 96 93 98 95 95 95 96 97 98 99 99 95 97 99 99 97 96 96 95 96 97 98 97 96 96 97 96 96 95 94 94 94 93 94 94 95 97 94 100 96 95 97 96 96 95 94 95 91 93 94 92 94 94 96 95 95 94 94 95 93 93 92 93 93 96 95 95 96 96 96 96 96 97 96 99 98 98 99 98 97 98 96 96 95 95 94 99 96 97 95 96 96 95 95 95 92 93 93 93 94 94 94 95 97 96 93 94 94 94 93 96 97 95 95 97 97 98 96 97 96 95 94 95 95 93 92 94 93 93 96 95 94 94 95 98 97 98 97 96 101 102 102 102 101 101 102 103 101 101 100 101 102 102 103 102 101 103 104 103 103 103 103 103 104 104 103 103 103 103 103 102 101 101 100 102 102 102 100 101 101 102 104 103 103 103 103 100 103 110 108 109 107 106 105 105 105 111 -177 -177 -209 145 139 138 145 141 141 143 141 141 139 140 141 138 140 141 141 -193 148 151 154 153 154 0 0 0 0 0
    0 0 0 0 0 0 0 0 0 0 0 0 0 0 0 0 0 0 0 0 0 0 0 0 0 0 0 0 0 0 0 0 0 0 0 0 0 0 0 0 0 0 0 0 0 0 0 0 0 0 0 0 0 0 0 0 0 0 0 0 0 0 0 0 0 0 0 0 0 101 101 101 100 102 99 99 -193 95 -193 91 98 99 100 98 98 99 97 98 98 97 96 94 96 96 94 99 96 95 95 96 96 97 99 99 95 98 99 99 97 97 97 96 97 98 98 97 97 97 97 97 97 95 94 94 94 93 94 95 96 97 95 101 96 96 97 97 96 96 95 96 92 95 94 93 95 95 98 96 96 94 95 95 93 94 93 95 95 98 96 97 97 97 97 98 97 98 97 100 99 99 100 99 99 100 98 98 97 98 98 101 98 99 96 97 97 96 95 95 93 94 94 95 96 97 98 98 99 98 96 97 96 97 95 98 98 97 97 98 98 99 97 98 96 96 95 96 96 94 93 96 94 95 98 96 95 95 96 99 97 98 98 96 101 102 103 103 101 103 104 104 102 102 102 102 103 103 104 103 103 105 105 104 104 104 104 104 104 104 103 103 103 104 102 101 101 101 101 102 103 103 102 103 104 104 105 105 104 104 103 97 102 107 105 106 105 104 103 104 104 111 -177 -177 -209 146 139 139 146 142 142 144 141 141 139 140 141 138 140 140 141 -209 148 151 154 153 154 0 0 0 0 0
    0 0 0 0 0 0 0 0 0 0 0 0 0 0 0 0 0 0 0 0 0 0 0 0 0 0 0 0 0 0 0 0 0 0 0 0 0 0 0 0 0 0 0 0 0 0 0 0 0 0 0 0 0 0 0 0 0 0 0 0 0 0 0 0 0 0 0 0 0 101 100 100 100 101 99 100 -193 96 -193 91 99 100 100 98 99 99 98 98 99 97 97 95 96 97 94 98 96 94 95 95 95 96 98 98 95 98 99 99 97 98 97 96 97 98 98 98 97 98 97 97 97 95 95 95 95 94 95 96 97 98 96 101 97 97 98 97 97 96 95 97 92 97 96 95 97 96 98 96 97 94 95 95 93 94 93 97 97 99 98 98 98 98 98 98 98 99 98 100 99 100 100 100 100 100 98 98 98 99 98 101 98 98 96 97 96 96 95 95 93 94 94 96 97 98 99 99 100 99 97 99 96 98 96 99 98 97 97 98 98 99 97 98 95 96 96 97 96 95 94 98 95 96 99 96 96 96 97 99 97 99 98 96 102 103 104 104 103 105 107 107 105 105 105 105 105 105 105 104 104 104 105 104 104 104 104 104 104 104 104 103 103 104 102 101 102 102 102 103 104 104 104 105 105 105 105 105 104 105 103 101 103 107 105 104 104 104 103 104 104 110 -209 -209 -209 146 140 139 146 142 142 143 141 141 139 140 141 138 141 141 142 -209 -193 152 153 153 153 0 0 0 0 0
    0 0 0 0 0 0 0 0 0 0 0 0 0 0 0 0 0 0 0 0 0 0 0 0 0 0 0 0 0 0 0 0 0 0 0 0 0 0 0 0 0 0 0 0 0 0 0 0 0 0 0 0 0 0 0 0 0 0 0 0 0 0 0 0 0 0 0 0 0 98 98 97 96 98 96 96 -193 93 -193 92 100 100 100 99 99 100 98 98 99 98 97 96 97 98 94 99 96 95 95 95 95 96 98 99 95 98 98 99 97 98 97 96 97 98 98 98 97 97 97 96 96 95 95 95 95 94 96 97 98 99 97 102 98 97 98 98 97 96 96 97 93 97 97 96 98 97 99 98 98 95 95 95 92 94 93 97 98 100 98 99 99 98 98 99 98 99 98 100 99 100 100 99 100 100 98 98 97 98 97 100 96 96 94 96 95 94 94 94 92 94 94 97 97 97 99 99 100 99 98 100 97 99 97 99 98 97 97 98 97 99 96 98 95 97 97 97 97 96 95 99 96 97 100 96 96 96 97 100 98 99 99 97 103 104 104 105 104 106 109 108 107 107 107 107 106 107 107 105 105 105 106 105 105 105 105 105 105 105 105 104 104 105 103 103 104 104 104 104 106 106 106 106 106 105 106 106 106 106 105 105 106 109 108 106 106 106 105 107 106 112 117 -209 134 144 139 139 144 141 141 143 141 141 139 140 140 138 141 141 143 -193 148 151 152 152 153 0 0 0 0 0
    0 0 0 0 0 0 0 0 0 0 0 0 0 0 0 0 0 0 0 0 0 0 0 0 0 0 0 0 0 0 0 0 0 0 0 0 0 0 0 0 0 0 0 0 0 0 0 0 0 0 0 0 0 0 0 0 0 0 0 0 0 0 0 0 0 0 0 0 0 -193 -193 94 95 98 97 96 -193 94 92 94 -193 100 100 99 99 100 98 99 99 98 98 97 99 -193 -193 100 97 96 96 97 97 98 99 100 97 100 99 100 98 98 97 96 97 98 98 98 97 97 97 97 96 95 94 95 95 94 96 97 99 99 98 102 98 98 98 98 98 96 96 97 93 97 98 97 98 98 100 99 100 96 96 95 93 95 94 97 98 100 99 99 99 99 99 99 99 99 98 100 99 100 100 100 100 100 99 97 97 97 96 99 95 95 93 94 94 93 94 93 92 94 95 98 97 97 99 99 101 99 98 101 97 99 97 99 98 97 98 98 97 99 97 99 95 98 98 98 97 96 96 99 97 97 100 96 96 96 98 101 98 99 99 97 103 104 104 105 104 107 110 109 109 109 108 109 108 109 110 106 107 106 107 106 106 106 105 105 106 105 106 105 106 106 104 105 106 106 107 106 108 109 107 108 107 106 107 106 107 107 106 106 107 110 111 107 108 107 107 109 108 112 115 -193 132 -193 138 138 144 140 141 142 140 140 139 139 140 138 140 140 143 149 148 151 152 152 153 0 0 0 0 0
    0 0 0 0 0 0 0 0 0 0 0 0 0 0 0 0 0 0 0 0 0 0 0 0 0 0 0 0 0 0 0 0 0 0 0 0 0 0 0 0 0 0 0 0 0 0 0 0 0 0 0 0 0 0 0 0 0 0 0 0 0 0 0 0 0 0 0 0 0 -193 94 93 96 101 101 -193 -193 98 98 100 -209 102 101 100 99 101 99 100 100 99 100 99 -209 -209 -193 -193 -193 -209 -209 99 99 100 101 102 100 103 101 101 100 100 98 98 98 99 98 99 98 98 97 97 95 94 94 95 94 93 95 96 98 99 97 102 98 98 98 98 97 96 96 97 93 96 98 97 98 98 100 100 101 97 96 96 93 97 96 98 99 100 99 100 100 100 100 100 100 100 99 101 100 100 100 100 100 99 98 97 97 97 96 98 94 94 93 94 94 92 93 94 93 95 96 100 97 97 100 101 102 100 99 102 98 101 98 100 98 97 98 98 97 99 97 99 96 100 99 99 99 98 97 100 98 98 100 96 96 97 99 101 99 100 99 97 103 104 104 105 104 107 111 110 110 110 110 111 109 112 112 107 109 107 107 107 107 107 106 106 106 106 106 106 106 106 104 106 109 110 110 110 110 111 109 109 107 107 107 107 107 107 106 107 108 112 113 108 109 108 109 111 109 112 114 118 130 -209 138 138 143 140 140 141 140 140 138 139 139 138 139 140 143 149 149 152 152 152 152 0 0 0 0 0
    0 0 0 0 0 0 0 0 0 0 0 0 0 0 0 0 0 0 0 0 0 0 0 0 0 0 0 0 0 0 0 0 0 0 0 0 0 0 0 0 0 0 0 0 0 0 0 0 0 0 0 0 0 0 0 0 0 0 0 0 0 0 0 0 0 0 0 0 0 94 95 94 100 -193 -193 -209 -209 -193 -193 104 -193 -209 -193 -193 -193 102 102 102 102 101 101 101 -209 -209 -193 -209 -209 -209 -209 -193 -209 102 103 104 104 106 104 103 103 103 100 100 100 100 99 100 99 98 97 98 96 94 95 95 95 93 95 97 99 101 100 103 100 100 100 99 99 98 97 98 93 97 99 99 99 99 101 -193 103 100 100 99 97 100 100 100 101 101 101 101 101 101 101 101 101 101 101 102 101 102 101 101 101 100 98 97 97 98 98 99 95 95 93 95 95 93 95 95 95 98 99 102 100 100 102 104 104 102 101 103 100 102 100 101 99 98 98 99 98 99 97 99 98 101 101 101 100 100 100 102 101 100 101 97 97 98 99 102 99 99 99 97 103 104 104 105 105 108 111 110 110 111 110 111 109 111 112 107 109 107 107 108 108 110 109 109 111 109 111 113 110 110 107 108 111 111 111 110 110 112 110 109 107 107 108 108 109 108 107 109 109 113 114 110 110 109 110 111 109 111 112 118 -193 -209 137 137 142 139 140 141 140 140 138 139 139 138 139 140 143 148 148 152 151 151 152 0 0 0 0 0
    0 0 0 0 0 0 0 0 0 0 0 0 0 0 0 0 0 0 0 0 0 0 0 0 0 0 0 0 0 0 0 0 0 0 0 0 0 0 0 0 0 0 0 0 0 0 0 0 0 0 0 0 0 0 0 0 0 0 0 0 0 0 0 0 0 0 0 0 0 94 97 96 103 107 107 -193 -193 -193 -193 107 108 -209 -209 -209 -209 106 106 105 105 104 -209 -209 -209 -209 -209 -209 -209 -209 -209 -209 -209 -193 106 106 107 108 107 106 107 107 103 103 102 101 101 102 101 100 99 100 98 98 99 99 99 96 99 101 102 104 103 104 102 102 102 102 102 101 100 100 97 101 101 -193 -209 102 -193 -193 -193 -193 -193 104 102 104 103 103 102 103 102 103 102 103 103 102 103 103 103 104 103 103 103 102 103 101 100 99 99 100 100 101 96 96 95 97 96 95 97 97 98 101 102 104 102 103 103 105 105 103 103 105 102 104 102 102 100 100 100 100 99 100 98 100 100 103 103 103 103 103 103 105 105 104 103 99 99 99 101 102 100 100 100 99 105 105 106 107 106 109 111 110 111 110 110 109 109 110 112 107 109 107 107 109 110 112 112 111 114 112 114 115 111 112 108 107 109 109 110 110 110 113 110 109 108 108 109 108 110 109 108 110 111 113 114 110 110 109 110 110 108 110 111 117 -209 -209 135 136 140 138 139 140 139 139 138 139 139 138 140 141 143 148 148 152 151 151 152 0 0 0 0 0
    0 0 0 0 0 0 0 0 0 0 0 0 0 0 0 0 0 0 0 0 0 0 0 0 0 0 0 0 0 0 0 0 0 0 0 0 0 0 0 0 0 0 0 0 0 0 0 0 0 0 0 0 0 0 0 0 0 0 0 0 0 0 0 0 0 0 0 0 0 95 99 100 105 109 108 109 -193 -193 109 109 110 -193 -193 -193 109 110 110 110 110 108 107 108 -193 -209 -209 -209 -209 -209 -193 -193 107 109 108 109 109 111 109 109 109 109 106 106 104 104 -193 -193 103 -193 101 -193 -193 -193 -209 104 103 101 102 104 105 105 106 106 104 104 105 104 104 104 103 102 101 103 -209 -209 -209 -193 -193 -193 -193 -193 -193 108 106 107 106 104 104 104 104 104 104 104 104 104 -193 105 105 105 105 105 104 103 104 103 101 101 101 102 -193 103 99 97 98 99 99 99 100 100 101 104 -193 106 105 105 105 107 107 105 106 107 105 106 104 105 102 102 103 102 101 102 100 102 102 105 105 105 105 105 105 107 107 106 104 100 100 101 102 103 101 101 101 102 106 107 108 108 107 109 111 110 111 110 110 109 109 111 113 109 111 109 108 112 112 114 114 113 115 113 114 116 112 113 109 108 109 109 110 111 111 114 111 110 109 108 110 109 111 110 108 112 111 112 113 110 110 109 110 110 107 110 111 117 -193 -209 134 136 138 138 138 139 139 139 138 138 138 138 140 142 145 149 149 152 151 151 -193 0 0 0 0 0
    0 0 0 0 0 0 0 0 0 0 0 0 0 0 0 0 0 0 0 0 0 0 0 0 0 0 0 0 0 0 0 0 0 0 0 0 0 0 0 0 0 0 0 0 0 0 0 0 0 0 0 0 0 0 0 0 0 0 0 0 0 0 0 0 0 0 0 0 0 99 -193 -193 108 111 109 111 110 110 110 110 111 112 109 115 110 112 112 112 112 111 109 110 108 -193 -209 -209 -209 -209 111 111 111 113 110 111 111 112 110 110 110 110 108 108 106 107 -193 108 105 -193 105 106 105 -193 -193 106 105 105 103 105 106 107 109 107 106 107 107 106 106 106 106 104 104 -193 -209 -209 -193 108 -193 -193 110 112 110 111 109 109 109 107 106 105 106 106 105 106 106 106 107 107 107 106 107 106 105 104 105 104 103 102 102 103 -209 -193 101 98 100 101 101 102 104 104 104 106 107 107 108 108 107 107 108 106 109 109 108 107 107 106 105 105 105 104 104 104 103 104 105 107 107 107 107 106 106 107 107 107 105 101 101 102 103 104 102 102 103 104 107 108 109 109 108 109 112 111 111 111 111 110 111 114 116 114 117 115 113 116 115 116 116 115 116 115 115 117 115 117 115 115 115 114 113 115 113 115 111 111 110 109 111 111 113 113 111 115 113 113 113 110 111 109 109 109 107 110 113 118 126 -209 132 135 136 137 138 138 138 138 137 138 138 138 141 141 146 149 149 152 -193 -193 -193 0 0 0 0 0
    0 0 0 0 0 0 0 0 0 0 0 0 0 0 0 0 0 0 0 0 0 0 0 0 0 0 0 0 0 0 0 0 0 0 0 0 0 0 0 0 0 0 0 0 0 0 0 0 0 0 0 0 0 0 0 0 0 0 0 0 0 0 0 0 0 0 0 0 0 -193 -209 -209 109 112 110 111 111 111 111 111 112 113 109 116 111 112 112 112 112 112 110 111 108 111 -209 -209 -209 -209 113 115 113 115 112 112 112 113 111 111 111 111 109 110 109 110 107 112 108 -193 107 108 106 107 107 107 106 106 105 106 107 109 111 108 109 109 109 109 108 109 108 106 -193 -193 -209 -209 -193 110 110 111 112 114 112 113 111 111 110 109 108 107 108 108 107 108 108 108 108 109 109 108 109 108 107 106 108 107 105 105 105 105 107 107 106 100 104 104 105 104 106 106 106 107 108 107 109 109 109 107 108 106 110 109 110 108 108 108 107 107 107 106 106 106 106 106 108 108 108 108 108 107 107 108 108 108 106 103 103 104 104 105 103 103 104 106 108 109 110 110 109 110 112 111 112 111 112 110 113 117 118 118 119 118 117 118 117 117 117 116 117 117 116 117 116 118 117 117 116 116 114 116 115 116 111 112 110 110 111 112 114 114 112 116 113 113 113 111 112 110 110 110 107 111 114 118 125 132 130 135 135 136 137 137 138 138 137 138 138 138 140 140 147 149 150 152 -193 -193 -193 0 0 0 0 0
    0 0 0 0 0 0 0 0 0 0 0 0 0 0 0 0 0 0 0 0 0 0 0 0 0 0 0 0 0 0 0 0 0 0 0 0 0 0 0 0 0 0 0 0 0 0 0 0 0 0 0 0 0 0 0 0 0 0 0 0 0 0 0 0 0 0 0 0 0 -209 -209 -209 109 112 110 111 111 111 111 111 112 113 109 116 111 113 113 113 113 113 111 112 109 112 -193 -209 112 112 113 115 114 116 112 113 112 114 112 112 112 112 110 113 111 113 110 115 112 -193 109 109 108 108 107 107 106 105 104 105 106 108 112 108 110 111 111 111 111 111 110 109 -193 -193 -193 109 -193 112 112 113 114 116 114 114 113 112 111 110 109 108 109 109 108 110 110 109 110 110 111 110 112 112 110 110 112 110 108 109 109 109 109 109 109 105 108 106 106 106 108 108 108 108 108 108 110 110 110 108 108 107 112 110 111 109 109 109 109 109 109 108 109 107 109 108 111 111 110 110 109 109 109 109 109 108 107 106 105 106 107 107 105 105 106 107 109 109 112 110 109 110 112 111 112 112 114 110 115 118 119 119 120 119 118 118 118 118 117 117 118 117 117 118 116 118 117 117 117 116 115 117 116 117 111 112 112 111 112 112 114 115 114 117 114 114 115 114 114 112 113 111 109 114 116 119 125 132 130 134 134 135 136 137 137 137 137 137 137 138 140 139 147 150 150 153 -193 -193 -193 0 0 0 0 0
    0 0 0 0 0 0 0 0 0 0 0 0 0 0 0 0 0 0 0 0 0 0 0 0 0 0 0 0 0 0 0 0 0 0 0 0 0 0 0 0 0 0 0 0 0 0 0 0 0 0 0 0 0 0 0 0 0 0 0 0 0 0 0 0 0 0 0 0 0 -193 -193 107 110 113 110 112 111 111 111 111 112 112 110 116 111 113 113 113 113 113 111 112 109 112 113 112 112 112 112 114 113 116 112 113 112 114 113 113 112 113 111 113 112 114 112 115 112 113 112 111 110 109 108 107 107 106 104 105 106 108 112 109 110 112 112 113 112 113 112 110 112 109 108 -193 110 113 113 114 115 116 115 115 114 113 112 111 111 109 110 110 109 111 110 110 111 111 113 111 114 114 112 113 113 111 110 110 111 111 111 111 111 109 111 108 108 108 110 110 109 109 109 109 111 112 112 109 109 109 114 111 113 110 111 110 110 110 111 109 111 109 112 111 113 112 111 111 110 109 109 109 109 109 108 107 107 108 109 110 108 107 108 109 110 110 114 110 110 111 112 111 112 113 115 111 118 119 120 120 120 120 119 119 119 119 117 117 118 118 118 118 116 119 118 119 119 118 117 118 118 119 113 114 114 114 114 113 115 117 116 118 115 115 115 114 115 113 113 111 109 114 117 120 126 133 131 135 134 135 136 137 137 137 136 137 136 138 139 139 147 151 152 154 -193 -193 -193 0 0 0 0 0
    0 0 0 0 0 0 0 0 0 0 0 0 0 0 0 0 0 0 0 0 0 0 0 0 0 0 0 0 0 0 0 0 0 0 0 0 0 0 0 0 0 0 0 0 0 0 0 0 0 0 0 0 0 0 0 0 0 0 0 0 0 0 0 0 0 0 0 0 0 -193 -193 109 112 114 111 112 111 112 111 111 111 112 109 116 111 113 113 113 113 113 111 112 109 113 114 113 113 112 112 115 114 116 112 113 112 114 113 113 112 113 111 113 111 114 111 114 110 112 112 111 110 109 108 108 108 107 105 105 107 109 113 109 111 112 112 113 112 112 111 110 -193 109 -193 -193 109 113 112 114 114 116 114 115 114 114 112 111 112 109 110 110 109 111 110 110 111 111 113 111 113 113 112 113 112 110 110 110 110 111 111 111 111 111 113 109 109 109 112 111 110 110 110 109 112 112 113 110 110 110 116 112 113 111 111 110 110 111 111 109 112 109 113 112 113 113 111 111 110 109 109 109 110 109 109 109 108 110 111 112 111 109 110 110 112 111 115 111 111 111 112 111 112 114 115 110 118 119 120 120 120 119 118 119 119 119 117 117 119 119 119 119 117 120 119 120 120 119 119 119 119 120 117 117 118 119 118 116 117 118 118 118 116 115 115 115 116 114 114 112 110 115 119 121 128 133 132 135 134 135 136 137 137 137 136 137 137 138 140 140 148 151 152 154 -193 -193 -193 0 0 0 0 0
    0 0 0 0 0 0 0 0 0 0 0 0 0 0 0 0 0 0 0 0 0 0 0 0 0 0 0 0 0 0 0 0 0 0 0 0 0 0 0 0 0 0 0 0 0 0 0 0 0 0 0 0 0 0 0 0 0 0 0 0 0 0 0 0 0 0 0 0 0 -193 -193 111 114 115 112 113 112 112 111 111 111 112 110 115 111 113 113 113 113 113 112 112 109 114 114 113 113 113 112 115 114 116 112 113 112 114 113 113 112 112 110 112 111 112 110 112 110 111 112 111 111 111 109 109 109 109 107 107 109 110 113 109 110 111 111 112 111 111 110 109 -193 110 108 109 110 113 112 113 114 115 114 115 114 114 112 112 112 109 111 111 110 111 110 111 111 111 112 110 112 112 111 112 110 110 110 110 110 110 110 110 111 110 114 109 109 109 112 111 110 110 110 109 111 111 112 109 110 110 116 112 113 111 111 110 110 111 111 109 112 109 113 113 114 113 111 112 110 109 109 109 110 109 109 110 110 112 114 115 114 112 113 112 113 111 116 111 112 111 112 111 113 114 115 110 119 119 120 119 120 119 118 119 118 119 117 117 119 119 120 120 118 121 120 121 120 120 120 120 120 121 119 121 121 125 121 119 119 118 118 119 116 116 116 116 116 116 116 113 112 117 120 122 128 132 131 134 134 134 136 136 137 137 136 137 137 138 141 141 148 150 151 154 -193 -193 -193 0 0 0 0 0
    0 0 0 0 0 0 0 0 0 0 0 0 0 0 0 0 0 0 0 0 0 0 0 0 0 0 0 0 0 0 0 0 0 0 0 0 0 0 0 0 0 0 0 0 0 0 0 0 0 0 0 0 0 0 0 0 0 0 0 0 0 0 0 0 0 0 0 0 0 114 111 111 114 115 112 113 112 112 112 111 112 112 110 115 110 112 113 113 113 113 112 112 109 115 115 113 113 113 112 115 114 117 113 113 113 114 113 113 112 112 110 112 110 111 109 110 109 111 111 111 110 111 110 109 109 111 109 109 111 111 113 109 110 111 111 111 111 111 110 109 113 110 109 110 111 114 112 114 114 115 114 115 114 114 112 113 114 110 113 111 111 112 111 111 111 111 112 109 112 111 110 111 110 110 110 110 110 110 110 110 110 109 114 109 109 109 114 112 110 110 110 109 111 111 112 108 109 111 116 113 114 112 111 111 111 111 112 110 113 110 113 114 114 114 112 112 110 109 109 110 110 109 109 110 110 113 115 116 116 114 115 114 114 112 116 112 112 111 112 111 113 114 115 110 119 120 119 119 119 119 117 119 118 118 116 118 119 119 120 120 119 122 121 121 121 120 120 120 121 122 120 122 123 130 125 123 122 121 119 120 116 116 116 116 117 117 117 116 115 119 122 124 127 131 130 134 133 134 135 136 137 137 136 137 137 138 142 141 149 151 152 154 -193 -193 154 0 0 0 0 0
    0 0 0 0 0 0 0 0 0 0 0 0 0 0 0 0 0 0 0 0 0 0 0 0 0 0 0 0 0 0 0 0 0 0 0 0 0 0 0 0 0 0 0 0 0 0 0 0 0 0 0 0 0 0 0 0 0 0 0 0 0 0 0 0 0 0 0 0 0 112 -193 110 114 115 112 113 112 112 112 112 112 112 110 114 110 112 112 112 112 113 112 112 109 116 116 114 115 114 113 116 115 117 113 113 113 114 114 114 112 112 109 112 110 111 109 110 109 110 111 110 110 110 109 108 109 109 108 107 109 110 112 108 110 110 111 111 111 111 110 110 113 110 109 110 111 114 112 113 113 115 113 114 113 113 111 113 114 111 114 112 111 113 111 112 112 110 111 109 112 111 110 111 110 109 110 110 110 110 110 109 109 109 113 109 109 109 114 112 110 110 110 109 111 110 111 108 109 110 116 113 113 112 111 111 111 111 112 109 113 110 114 114 115 114 113 112 110 109 110 110 110 109 109 110 110 113 115 115 115 114 115 114 114 112 116 112 111 111 112 111 113 115 116 111 119 120 120 119 120 119 118 119 119 119 116 117 119 120 121 121 120 122 121 121 121 121 121 121 121 122 121 124 125 133 127 126 123 122 120 121 117 117 117 118 119 119 118 117 118 119 123 125 127 131 129 133 133 134 135 135 137 137 136 137 137 138 142 141 148 150 151 154 -193 -193 154 0 0 0 0 0
    0 0 0 0 0 0 0 0 0 0 0 0 0 0 0 0 0 0 0 0 0 0 0 0 0 0 0 0 0 0 0 0 0 0 0 0 0 0 0 0 0 0 0 0 0 0 0 0 0 0 0 0 0 0 0 0 0 0 0 0 0 0 0 0 0 0 0 0 0 -193 -193 -193 115 115 113 113 112 113 112 112 112 112 110 114 110 112 112 112 112 112 111 111 109 115 116 114 116 116 115 117 116 118 114 114 114 114 114 114 112 112 110 112 111 112 109 109 110 111 112 111 110 110 108 108 109 106 105 103 106 108 111 108 110 110 110 111 111 111 111 110 114 111 110 111 111 115 112 113 113 114 113 114 113 113 111 114 115 112 115 112 112 114 112 112 112 110 111 108 111 110 109 111 109 109 111 110 110 110 110 109 109 109 114 109 110 110 115 113 111 111 110 109 111 110 111 107 108 110 116 113 113 112 112 111 111 111 112 109 112 109 112 113 114 114 113 112 111 110 110 111 111 110 110 110 111 113 114 115 113 112 112 112 112 111 117 111 111 111 112 112 114 117 117 113 121 122 121 121 121 120 119 120 120 120 116 118 120 121 122 122 122 123 123 122 122 122 121 121 122 122 122 124 124 130 125 124 123 122 120 121 119 120 119 120 121 121 120 119 120 120 124 125 125 128 127 133 133 134 135 135 136 137 137 137 137 138 143 141 148 148 149 153 -193 -193 153 0 0 0 0 0
    0 0 0 0 0 0 0 0 0 0 0 0 0 0 0 0 0 0 0 0 0 0 0 0 0 0 0 0 0 0 0 0 0 0 0 0 0 0 0 0 0 0 0 0 0 0 0 0 0 0 0 0 0 0 0 0 0 0 0 0 0 0 0 0 0 0 0 0 0 -193 -193 -193 -193 115 113 114 113 113 113 113 112 112 111 114 110 112 112 111 111 111 111 111 108 115 116 113 116 117 -193 -193 -193 118 114 114 114 114 114 114 112 112 109 112 111 112 -193 109 110 112 114 113 111 111 108 107 108 104 103 101 105 107 111 108 110 110 110 111 111 111 111 110 115 111 110 112 112 115 112 113 113 114 113 113 112 112 111 114 115 112 115 112 112 114 112 112 111 110 110 108 111 110 110 111 109 110 112 111 111 111 110 109 109 109 113 109 110 111 115 114 111 111 110 109 111 111 111 107 108 111 115 114 114 112 112 111 111 111 112 108 110 108 109 110 111 112 111 112 111 110 111 112 112 111 111 111 112 113 115 115 113 111 112 112 111 111 117 111 111 112 113 113 115 117 116 113 120 121 120 120 120 120 119 120 121 120 118 121 122 124 126 125 125 125 124 124 122 122 121 121 121 122 121 123 123 128 124 124 122 123 120 121 119 121 120 121 121 122 121 121 121 121 124 125 126 129 128 133 133 134 135 136 137 138 137 137 137 138 143 141 148 149 150 153 -193 -193 154 0 0 0 0 0
    0 0 0 0 0 0 0 0 0 0 0 0 0 0 0 0 0 0 0 0 0 0 0 0 0 0 0 0 0 0 0 0 0 0 0 0 0 0 0 0 0 0 0 0 0 0 0 0 0 0 0 0 0 0 0 0 0 0 0 0 0 0 0 0 0 0 0 0 0 -209 -193 -193 -193 116 114 114 113 113 113 113 112 112 111 115 110 112 112 111 111 111 111 110 108 115 115 112 -193 -193 -193 675 675 -193 115 114 115 114 114 114 113 -193 -193 -193 -193 111 -193 109 111 113 114 114 111 111 109 108 108 105 103 100 105 107 111 108 110 110 110 110 111 111 111 109 115 111 111 112 113 116 111 113 113 114 112 113 112 112 110 114 116 112 115 112 112 114 112 112 111 109 110 107 111 110 109 111 109 109 112 112 111 110 110 110 109 109 113 109 110 111 116 114 111 111 110 109 111 110 111 108 108 112 116 114 114 113 113 112 112 111 111 108 109 107 107 108 110 110 110 111 111 110 111 112 112 112 111 112 112 114 115 115 114 112 112 113 112 112 117 112 112 112 113 114 115 117 116 113 120 120 119 119 119 119 117 119 121 121 119 122 124 126 129 128 128 126 126 126 123 123 122 121 121 122 121 122 122 128 125 126 124 125 123 124 122 124 123 123 123 125 122 123 122 123 124 125 128 131 130 134 135 135 136 136 137 138 137 137 137 138 142 140 147 150 151 153 153 153 154 0 0 0 0 0
    0 0 0 0 0 0 0 0 0 0 0 0 0 0 0 0 0 0 0 0 0 0 0 0 0 0 0 0 0 0 0 0 0 0 0 0 0 0 0 0 0 0 0 0 0 0 0 0 0 0 0 0 0 0 0 0 0 0 0 0 0 0 0 0 0 0 0 0 0 -209 -177 -193 -193 116 114 114 113 113 113 113 112 111 111 114 110 111 112 111 111 111 111 110 108 116 116 -193 -193 -209 -193 677 677 -209 116 115 115 114 115 114 113 -193 -193 -193 -193 111 -193 109 111 113 115 114 112 112 111 109 110 107 105 101 106 107 -193 108 110 109 109 110 111 110 110 109 115 111 111 112 114 116 111 112 112 113 112 112 111 111 110 115 117 114 116 113 114 115 112 112 111 109 110 107 110 108 108 109 108 108 110 110 110 109 110 109 107 108 114 109 110 113 117 114 111 111 110 109 111 110 111 107 108 113 116 115 114 113 113 112 112 112 112 108 109 107 106 107 109 110 110 111 111 110 110 112 113 112 111 112 111 114 115 114 113 111 112 112 111 112 117 112 112 113 113 115 116 117 116 113 119 120 119 119 119 119 117 120 121 121 120 123 124 127 129 129 128 126 127 126 124 124 122 122 122 122 122 123 123 130 128 130 128 130 126 128 125 126 123 123 124 126 123 124 123 123 124 126 130 132 131 135 136 136 137 137 137 138 137 137 137 137 141 141 147 149 151 153 154 -193 -193 0 0 0 0 0
    0 0 0 0 0 0 0 0 0 0 0 0 0 0 0 0 0 0 0 0 0 0 0 0 0 0 0 0 0 0 0 0 0 0 0 0 0 0 0 0 0 0 0 0 0 0 0 0 0 0 0 0 0 0 0 0 0 0 0 0 0 0 0 0 0 0 0 0 0 -209 -209 -209 -209 -193 115 115 114 114 113 113 113 111 111 113 110 111 112 111 111 111 111 111 109 118 -209 -209 -209 -209 -209 -193 680 -209 -209 -193 116 115 115 115 113 113 -193 -193 -193 111 109 109 111 114 115 114 111 113 113 112 114 112 -209 101 -209 -209 -193 108 110 -193 109 109 111 110 110 109 115 110 111 112 115 115 110 112 111 112 111 111 111 111 110 117 119 118 118 114 116 116 114 113 112 109 -193 -193 -193 107 107 108 108 109 111 110 109 109 111 109 108 108 112 109 110 115 118 114 111 111 110 109 111 111 111 107 108 113 116 116 115 -193 113 112 113 114 113 109 109 108 107 108 109 110 110 111 111 111 111 113 113 114 114 114 113 116 -193 -193 113 112 111 111 111 113 117 112 113 113 114 115 116 117 115 112 118 119 118 118 117 117 115 120 121 121 121 124 125 127 130 129 129 127 127 127 124 124 122 122 122 122 123 123 125 131 130 131 130 131 128 130 128 127 125 124 125 128 125 125 123 123 124 126 130 132 131 135 137 137 138 138 138 139 138 139 139 138 142 141 146 148 150 153 154 153 154 0 0 0 0 0
    0 0 0 0 0 0 0 0 0 0 0 0 0 0 0 0 0 0 0 0 0 0 0 0 0 0 0 0 0 0 0 0 0 0 0 0 0 0 0 0 0 0 0 0 0 0 0 0 0 0 0 0 0 0 0 0 0 0 0 0 0 0 0 0 0 0 0 0 0 -209 -209 -209 -193 -193 115 115 114 115 114 114 114 112 112 114 110 112 112 112 111 111 110 111 111 -209 -209 -209 -209 -209 -209 -209 -209 -209 -209 -209 -209 117 117 116 115 115 115 -193 117 114 111 110 112 116 117 116 113 116 -209 -209 -193 -209 -209 -209 -209 -209 -209 110 112 110 110 110 112 110 110 108 114 110 113 115 118 117 110 112 111 112 111 112 111 111 110 119 123 121 -209 116 118 119 117 116 116 113 -193 -193 -193 -193 110 112 109 110 112 111 110 110 112 111 110 111 114 112 113 116 119 116 112 113 112 111 113 115 113 108 110 115 118 118 117 -193 -193 116 117 117 117 113 113 113 111 111 111 112 112 113 113 115 116 116 117 117 119 -209 -209 122 -193 118 116 115 116 115 115 117 118 114 115 116 117 118 118 118 117 114 119 119 118 118 116 116 116 121 122 122 122 126 126 130 131 130 129 126 128 127 124 124 122 122 122 122 123 123 126 130 130 131 130 131 129 131 129 127 126 125 125 129 126 125 123 123 124 126 130 133 131 135 139 138 139 139 139 139 139 139 139 138 141 141 146 148 149 152 154 153 154 0 0 0 0 0
    0 0 0 0 0 0 0 0 0 0 0 0 0 0 0 0 0 0 0 0 0 0 0 0 0 0 0 0 0 0 0 0 0 0 0 0 0 0 0 0 0 0 0 0 0 0 0 0 0 0 0 0 0 0 0 0 0 0 0 0 0 0 0 0 0 0 0 0 0 -209 -209 -209 -193 -209 -193 -193 -193 116 115 114 114 112 113 115 111 -193 -193 -193 -193 -193 113 115 -209 -193 -193 -193 132 132 132 132 -193 -193 -209 -209 -209 -209 -209 -209 -193 119 122 123 130 -209 123 -209 -193 126 133 -209 125 125 -193 -209 -209 -193 -209 -209 -193 124 -193 117 118 116 -193 114 116 114 112 109 116 115 -193 124 127 128 115 115 116 117 118 117 115 115 118 122 126 123 124 118 120 121 120 119 120 118 118 117 -193 -193 117 118 -193 -193 117 118 117 118 117 116 116 117 117 117 117 -193 -193 120 118 119 117 117 118 121 119 116 118 121 122 -193 -209 -209 -209 -193 -193 121 120 119 119 119 119 118 116 115 116 117 117 119 121 121 121 121 123 124 -193 125 126 122 -193 119 120 118 118 120 120 117 118 120 121 121 120 120 119 118 121 121 120 119 117 117 120 122 124 124 124 128 128 131 132 130 130 127 128 128 125 125 123 122 123 123 124 124 128 130 130 131 131 131 129 131 130 128 128 126 126 130 127 127 124 124 125 127 133 135 134 136 141 139 140 140 140 139 139 140 140 138 141 140 145 147 148 152 153 153 154 0 0 0 0 0
    0 0 0 0 0 0 0 0 0 0 0 0 0 0 0 0 0 0 0 0 0 0 0 0 0 0 0 0 0 0 0 0 0 0 0 0 0 0 0 0 0 0 0 0 0 0 0 0 0 0 0 0 0 0 0 0 0 0 0 0 0 0 0 0 0 0 0 0 0 -209 -209 -209 -209 -209 -209 -209 -209 -209 117 114 114 -209 111 -193 -209 -209 -193 -209 -209 -209 -209 -209 -209 128 133 134 134 133 133 133 134 -193 -209 -193 -193 125 -209 -209 123 123 126 128 134 134 132 135 137 134 135 136 133 132 131 -193 -193 128 -209 -209 124 129 126 124 122 122 -209 -193 -193 120 116 113 120 125 133 130 131 132 129 122 127 124 128 124 123 122 123 126 129 125 128 119 122 125 124 122 123 122 122 121 124 122 122 122 123 -209 123 124 122 122 122 120 119 119 118 119 119 124 132 128 126 130 128 125 125 129 126 124 125 125 125 126 127 -193 124 127 126 125 124 124 124 124 124 123 120 119 120 121 121 121 123 123 124 123 126 126 126 127 128 125 124 121 123 122 122 124 121 119 120 123 125 125 122 122 121 121 122 122 121 120 118 120 122 124 126 126 126 129 128 131 131 130 130 128 129 129 127 128 124 123 123 125 125 125 131 130 131 131 131 131 129 131 130 128 129 127 128 132 130 130 127 127 126 130 135 138 137 137 142 139 140 140 140 139 139 140 140 138 141 140 144 146 147 151 152 152 154 0 0 0 0 0
    0 0 0 0 0 0 0 0 0 0 0 0 0 0 0 0 0 0 0 0 0 0 0 0 0 0 0 0 0 0 0 0 0 0 0 0 0 0 0 0 0 0 0 0 0 0 0 0 0 0 0 0 0 0 0 0 0 0 0 0 0 0 0 0 0 0 0 0 0 -209 -209 -209 125 -209 -209 -209 -209 -193 -209 -209 -209 -209 -209 -209 -209 -209 -209 -209 -209 -209 -209 -193 -209 131 133 134 134 133 134 133 134 133 132 130 128 129 -209 -193 126 125 128 130 135 133 132 134 136 133 134 -193 133 132 132 132 -193 129 -193 -193 -193 -193 128 128 126 127 126 124 125 124 122 123 124 131 133 131 131 132 131 126 133 130 132 128 129 130 129 131 132 128 132 122 127 130 128 127 128 127 126 125 128 126 124 126 128 127 126 127 124 124 124 122 121 121 119 121 122 130 134 132 132 134 134 131 131 132 130 129 129 129 128 129 131 132 -193 132 130 129 129 129 128 127 126 126 123 122 123 125 124 124 126 125 125 125 127 127 127 128 129 126 127 125 127 126 128 129 128 -193 127 128 130 129 126 124 123 123 124 124 123 121 120 121 125 125 127 126 127 129 129 131 131 129 130 129 129 129 129 129 125 124 124 125 125 126 132 130 131 131 131 131 130 131 131 128 130 127 128 132 132 132 130 130 130 131 136 139 137 138 142 140 141 140 140 140 140 140 140 138 141 140 145 147 148 151 152 152 154 0 0 0 0 0
    0 0 0 0 0 0 0 0 0 0 0 0 0 0 0 0 0 0 0 0 0 0 0 0 0 0 0 0 0 0 0 0 0 0 0 0 0 0 0 0 0 0 0 0 0 0 0 0 0 0 0 0 0 0 0 0 0 0 0 0 0 0 0 0 0 0 0 0 0 -193 -193 -193 126 -193 -193 -193 -209 126 126 124 -209 -209 -209 -209 -209 -209 -209 -209 -193 -209 135 -193 -193 132 133 134 133 133 133 132 133 132 132 130 130 131 -193 -209 -209 129 131 131 134 132 131 133 135 132 133 133 132 131 131 132 130 128 130 129 131 133 130 131 129 130 131 129 128 127 126 129 127 131 133 132 132 132 132 128 134 131 133 130 131 132 132 132 132 130 133 127 133 134 132 132 132 131 130 130 131 128 126 129 130 128 128 129 125 125 125 123 124 122 120 122 123 130 134 133 132 134 133 132 132 132 131 131 131 131 130 131 132 133 -193 -193 132 131 132 132 131 130 128 128 126 125 127 128 127 126 129 127 127 126 128 127 128 128 129 126 128 128 130 131 132 132 131 132 132 132 133 131 129 126 125 124 125 124 123 121 120 121 128 127 129 129 129 130 130 132 132 129 131 129 129 129 129 129 125 124 124 126 126 127 133 131 132 132 131 132 130 131 131 128 130 127 128 131 131 131 130 130 132 132 136 139 138 139 142 140 141 140 140 140 140 140 140 138 140 141 144 147 148 151 152 152 153 0 0 0 0 0
    0 0 0 0 0 0 0 0 0 0 0 0 0 0 0 0 0 0 0 0 0 0 0 0 0 0 0 0 0 0 0 0 0 0 0 0 0 0 0 0 0 0 0 0 0 0 0 0 0 0 0 0 0 0 0 0 0 0 0 0 0 0 0 0 0 0 0 0 0 -193 133 131 126 -193 -193 -209 -209 128 127 125 127 -193 -209 -209 -209 -209 -209 -209 -209 134 135 132 134 133 133 133 132 133 133 132 133 131 132 130 129 131 130 128 131 130 131 131 134 132 131 133 134 132 132 133 132 131 132 132 130 129 130 129 132 133 130 131 130 131 132 131 131 129 129 132 131 -193 -193 132 132 132 132 129 134 132 133 131 131 132 132 133 133 131 134 131 135 135 134 133 134 133 132 131 132 129 127 129 131 128 129 129 126 126 126 124 125 123 121 123 123 129 133 131 130 133 132 132 132 132 131 131 132 131 131 132 132 133 132 135 132 132 133 133 133 131 130 130 129 129 131 130 130 127 130 128 128 127 129 128 128 129 130 127 129 130 132 132 133 133 132 133 133 133 134 132 131 130 128 127 128 128 128 125 124 124 131 130 131 131 131 130 131 132 132 129 132 130 129 129 130 130 126 126 125 128 127 129 134 132 132 132 131 131 130 131 131 128 130 129 129 132 132 132 131 132 133 133 135 138 137 138 141 139 139 139 139 139 139 140 139 138 141 143 145 146 148 151 151 152 153 0 0 0 0 0
    0 0 0 0 0 0 0 0 0 0 0 0 0 0 0 0 0 0 0 0 0 0 0 0 0 0 0 0 0 0 0 0 0 0 0 0 0 0 0 0 0 0 0 0 0 0 0 0 0 0 0 0 0 0 0 0 0 0 0 0 0 0 0 0 0 0 0 0 0 133 133 -193 127 -193 -193 -209 -209 128 127 125 127 -193 -209 -209 -209 -209 -209 -209 135 135 135 133 135 133 133 134 132 133 133 132 133 131 132 130 129 131 130 129 131 130 131 129 134 132 132 133 -193 131 132 132 132 131 131 132 131 129 130 129 132 133 130 131 130 131 132 131 131 130 131 133 132 -193 -193 133 132 132 131 130 133 131 133 131 131 133 133 133 133 131 134 132 135 135 133 133 134 133 131 131 131 129 127 130 131 127 129 129 126 126 126 124 125 123 121 123 123 129 133 130 130 133 132 132 131 132 130 131 132 131 130 131 132 133 132 135 132 132 132 133 133 132 131 131 130 131 132 131 131 128 130 129 129 128 129 128 129 130 130 128 130 131 132 132 133 133 131 133 133 133 134 133 133 132 131 130 130 131 130 127 128 127 132 132 131 132 131 131 132 132 132 128 131 132 130 132 135 135 132 131 130 132 132 131 134 132 132 131 131 131 129 131 131 128 129 129 130 133 133 133 133 133 135 135 136 137 137 137 139 139 139 139 139 139 140 140 139 138 142 145 146 145 147 151 151 151 153 0 0 0 0 0
    0 0 0 0 0 0 0 0 0 0 0 0 0 0 0 0 0 0 0 0 0 0 0 0 0 0 0 0 0 0 0 0 0 0 0 0 0 0 0 0 0 0 0 0 0 0 0 0 0 0 0 0 0 0 0 0 0 0 0 0 0 0 0 0 0 0 0 0 0 133 133 131 128 127 127 -193 -193 129 128 127 130 131 133 132 135 -209 -209 132 134 134 135 133 135 133 134 134 132 133 133 132 132 131 132 130 129 131 131 130 132 130 131 129 134 132 132 132 -193 130 131 131 131 130 130 131 130 128 129 129 132 133 130 131 130 131 132 131 131 130 131 134 133 -193 -193 134 132 132 131 130 132 131 132 130 130 133 133 133 133 132 134 132 135 135 133 133 133 133 131 131 131 129 127 131 131 127 128 129 126 126 126 124 125 123 122 123 123 131 133 130 130 133 131 131 131 132 130 130 131 131 130 131 132 133 132 135 132 132 132 133 133 131 131 131 130 131 132 131 130 128 130 129 129 128 129 128 129 130 130 128 130 131 131 132 133 132 131 133 133 133 133 132 132 132 131 130 131 131 131 128 129 128 132 132 131 132 131 131 132 132 132 128 130 132 132 136 138 138 136 136 135 136 135 134 135 132 132 131 130 130 128 130 131 127 129 129 131 133 133 134 134 134 137 136 137 137 137 137 138 138 138 138 139 139 141 140 140 139 143 147 146 145 147 150 150 151 153 0 0 0 0 0
    0 0 0 0 0 0 0 0 0 0 0 0 0 0 0 0 0 0 0 0 0 0 0 0 0 0 0 0 0 0 0 0 0 0 0 0 0 0 0 0 0 0 0 0 0 0 0 0 0 0 0 0 0 0 0 0 0 0 0 0 0 0 0 0 0 0 0 0 0 134 134 133 130 129 130 131 133 132 131 130 132 132 134 133 135 135 133 132 134 134 135 133 135 133 134 134 132 132 132 131 132 131 132 130 129 132 131 130 132 131 132 130 134 133 132 132 -193 130 131 130 130 129 129 130 130 127 129 128 132 132 130 131 130 130 131 131 131 129 131 134 132 133 135 134 132 131 131 129 132 131 132 130 129 133 133 133 133 131 134 132 135 134 132 132 133 132 131 131 131 129 128 131 131 128 128 129 126 126 127 125 126 124 123 124 125 132 133 129 131 132 131 131 131 132 130 130 131 131 131 132 132 133 132 135 133 132 133 134 133 132 131 131 130 131 131 131 130 128 130 129 129 128 129 128 129 130 130 128 130 131 131 132 133 132 130 132 132 132 132 132 132 132 131 130 131 132 131 129 130 129 132 133 131 132 131 131 132 132 132 128 127 132 134 138 141 141 138 137 137 138 138 135 135 132 132 130 129 129 127 129 130 126 128 128 131 133 133 134 135 136 138 138 137 137 137 137 138 137 138 138 139 139 141 140 140 140 146 148 148 147 148 151 150 151 152 0 0 0 0 0
    0 0 0 0 0 0 0 0 0 0 0 0 0 0 0 0 0 0 0 0 0 0 0 0 0 0 0 0 0 0 0 0 0 0 0 0 0 0 0 0 0 0 0 0 0 0 0 0 0 0 0 0 0 0 0 0 0 0 0 0 0 0 0 0 0 0 0 0 0 134 134 135 132 131 133 133 134 133 133 132 133 133 134 134 135 135 133 132 134 135 135 134 135 133 134 134 132 132 132 131 132 131 132 130 129 132 132 131 133 132 133 130 134 133 132 131 132 130 130 130 130 129 129 131 131 128 129 128 133 132 130 131 130 130 131 131 131 129 131 133 131 132 134 133 131 130 130 129 131 131 132 129 128 132 132 132 132 131 133 131 134 134 132 132 133 132 131 131 131 128 128 131 131 128 129 130 128 128 129 127 128 126 125 127 129 134 133 129 131 132 131 131 130 131 129 130 132 131 131 132 133 133 133 136 134 133 133 134 133 131 131 131 130 131 131 131 130 128 131 130 129 128 129 128 129 130 130 128 130 132 131 131 132 132 129 131 131 131 131 131 131 131 130 130 131 132 131 129 130 130 132 133 131 132 130 131 131 132 132 129 129 135 137 142 143 145 141 139 139 139 139 136 136 133 133 130 129 128 126 128 130 126 128 128 131 133 134 135 135 136 139 139 138 137 137 137 137 137 137 137 138 139 141 140 140 141 147 149 149 148 149 151 151 151 153 0 0 0 0 0
    0 0 0 0 0 0 0 0 0 0 0 0 0 0 0 0 0 0 0 0 0 0 0 0 0 0 0 0 0 0 0 0 0 0 0 0 0 0 0 0 0 0 0 0 0 0 0 0 0 0 0 0 0 0 0 0 0 0 0 0 0 0 0 0 0 0 0 0 0 133 133 134 131 131 132 133 133 132 132 131 131 131 131 132 133 134 133 132 133 134 135 134 134 133 134 133 132 132 132 131 132 131 132 129 129 132 132 131 133 132 133 130 133 132 131 130 130 128 129 128 129 128 128 131 131 128 129 128 133 132 130 131 130 129 131 131 131 128 131 133 130 131 133 132 131 129 130 129 131 130 131 129 127 132 132 132 132 131 133 132 134 133 131 132 132 131 131 131 130 128 128 131 131 127 129 130 128 129 130 128 129 127 128 129 131 134 133 128 130 132 131 130 129 131 128 129 131 131 131 132 133 133 132 136 134 133 134 134 132 131 131 131 130 131 131 131 130 129 131 130 130 129 129 128 129 130 131 128 130 132 131 131 132 131 129 130 131 131 130 130 131 131 130 130 131 132 131 129 130 130 132 133 131 132 130 131 132 132 133 130 128 136 138 143 143 144 141 140 140 140 140 137 137 134 134 131 129 127 125 128 131 127 128 130 131 133 134 135 136 136 138 139 137 137 137 137 136 136 136 137 138 139 141 140 140 143 148 150 150 149 151 151 151 152 153 0 0 0 0 0
    0 0 0 0 0 0 0 0 0 0 0 0 0 0 0 0 0 0 0 0 0 0 0 0 0 0 0 0 0 0 0 0 0 0 0 0 0 0 0 0 0 0 0 0 0 0 0 0 0 0 0 0 0 0 0 0 0 0 0 0 0 0 0 0 0 0 0 0 0 132 132 133 128 129 130 130 131 130 129 128 128 130 129 131 130 132 132 131 132 133 133 133 133 132 133 132 131 131 132 131 131 131 132 129 129 132 132 131 133 131 132 129 132 132 130 129 129 128 128 127 127 126 126 129 130 127 127 126 133 131 130 131 130 129 131 131 132 128 131 132 130 131 133 132 130 129 130 129 130 130 131 129 127 131 132 132 132 131 132 132 134 133 131 132 132 131 130 130 130 128 128 131 130 127 129 130 129 130 130 129 130 128 129 129 130 132 131 126 129 131 130 129 129 131 128 129 131 131 131 132 132 133 132 136 134 133 134 134 132 131 131 131 131 131 131 131 131 129 131 130 130 129 129 128 129 130 131 128 129 132 130 131 131 131 128 130 130 130 129 130 130 131 129 130 130 132 131 129 130 130 132 134 131 132 131 132 132 133 134 131 128 137 139 144 143 143 141 140 140 141 140 138 137 135 134 130 127 126 123 129 132 129 129 131 133 134 135 136 136 137 139 140 138 138 138 138 137 137 137 137 138 140 143 142 141 147 149 151 151 151 152 152 152 152 153 0 0 0 0 0
    0 0 0 0 0 0 0 0 0 0 0 0 0 0 0 0 0 0 0 0 0 0 0 0 0 0 0 0 0 0 0 0 0 0 0 0 0 0 0 0 0 0 0 0 0 0 0 0 0 0 0 0 0 0 0 0 0 0 0 0 0 0 0 0 0 0 0 0 0 132 131 132 127 127 129 130 130 128 128 128 128 130 129 130 129 131 132 131 132 133 133 133 132 132 133 132 130 130 131 130 131 130 132 129 129 132 132 132 133 131 132 130 132 132 130 129 129 128 128 127 126 125 124 127 129 126 128 127 133 131 130 131 130 129 131 131 132 128 132 132 130 131 133 132 130 129 130 129 130 130 131 128 126 131 131 131 131 131 132 132 134 133 131 132 132 130 130 130 129 127 127 131 129 127 130 131 130 131 131 130 130 129 129 129 130 132 131 126 129 130 130 129 128 131 128 129 131 131 131 131 132 132 132 136 134 133 134 134 132 131 131 131 131 131 131 130 131 129 131 131 130 129 129 129 130 130 131 128 130 132 130 131 131 131 128 129 130 129 128 129 130 130 129 130 130 132 131 129 130 130 132 134 132 133 131 133 133 134 134 133 130 137 140 143 143 141 140 140 140 141 141 139 138 136 135 129 124 124 120 131 134 130 130 132 133 135 136 137 137 138 140 141 140 139 139 138 137 137 137 137 139 140 143 142 144 149 150 151 151 151 152 152 152 152 153 0 0 0 0 0
    0 0 0 0 0 0 0 0 0 0 0 0 0 0 0 0 0 0 0 0 0 0 0 0 0 0 0 0 0 0 0 0 0 0 0 0 0 0 0 0 0 0 0 0 0 0 0 0 0 0 0 0 0 0 0 0 0 0 0 0 0 0 0 0 0 0 0 0 0 131 131 131 128 127 129 129 130 127 128 128 128 130 130 131 130 132 133 132 133 133 133 133 132 131 133 132 130 130 131 130 131 130 132 128 129 131 132 131 132 131 131 130 132 132 131 130 130 128 127 127 126 126 124 127 130 127 130 129 134 131 130 131 130 130 131 130 132 128 132 133 130 131 133 132 130 129 130 129 129 130 130 127 125 131 131 131 131 131 132 132 134 133 130 131 132 130 129 129 128 127 127 130 128 127 130 131 130 131 131 130 131 130 130 130 131 133 132 127 131 129 130 128 127 131 128 129 130 130 131 131 132 132 130 135 134 132 133 133 131 131 131 131 131 131 131 130 131 130 131 131 131 130 130 129 130 131 131 129 130 132 130 131 131 131 128 130 130 129 128 129 130 131 129 130 131 132 131 130 130 130 132 135 132 132 131 133 133 134 134 133 131 138 140 143 143 142 141 140 141 142 141 140 138 137 137 133 122 125 120 134 -193 131 131 134 136 138 138 139 139 139 141 142 142 140 140 138 137 136 137 137 139 140 144 143 146 149 151 -193 152 152 153 153 153 153 154 0 0 0 0 0
    0 0 0 0 0 0 0 0 0 0 0 0 0 0 0 0 0 0 0 0 0 0 0 0 0 0 0 0 0 0 0 0 0 0 0 0 0 0 0 0 0 0 0 0 0 0 0 0 0 0 0 0 0 0 0 0 0 0 0 0 0 0 0 0 0 0 0 0 0 131 130 130 127 127 129 130 130 127 129 129 129 130 130 132 131 132 134 132 133 133 133 133 132 132 133 132 130 130 131 130 131 130 132 128 129 131 132 131 132 131 131 131 132 132 131 129 130 128 127 127 125 126 124 127 130 128 131 130 134 131 131 131 131 130 131 130 132 128 131 132 130 130 132 131 130 129 130 130 129 130 130 127 127 132 132 130 131 131 132 133 133 132 130 131 131 130 129 129 128 128 127 130 128 126 130 131 130 131 131 130 131 131 131 131 132 134 132 128 131 129 131 128 127 131 128 129 130 130 130 130 132 132 129 135 133 132 133 133 131 131 131 131 131 130 131 130 131 130 131 131 131 130 130 130 131 131 132 130 130 132 130 131 132 131 128 130 129 129 127 129 129 131 129 130 131 133 131 130 131 131 133 135 131 132 131 133 133 134 134 134 132 138 142 146 145 142 141 140 141 143 142 139 138 137 137 -193 131 129 123 134 141 132 131 135 138 140 140 141 141 140 142 142 143 141 142 140 140 140 141 141 142 142 146 147 149 151 151 -193 152 153 154 155 154 153 154 0 0 0 0 0
    0 0 0 0 0 0 0 0 0 0 0 0 0 0 0 0 0 0 0 0 0 0 0 0 0 0 0 0 0 0 0 0 0 0 0 0 0 0 0 0 0 0 0 0 0 0 0 0 0 0 0 0 0 0 0 0 0 0 0 0 0 0 0 0 0 0 0 0 0 131 129 129 126 126 129 130 131 127 128 129 129 130 130 131 130 131 134 132 133 132 133 132 132 131 133 131 130 129 131 129 131 130 131 128 128 131 132 132 132 132 132 132 132 133 132 130 130 128 127 127 125 126 124 126 128 127 131 130 133 132 131 132 131 131 132 130 131 127 131 131 129 129 132 131 130 129 131 130 129 130 130 126 127 132 131 129 130 131 132 133 133 132 130 131 131 129 129 129 128 128 127 130 127 126 129 131 130 131 131 131 132 132 132 132 132 134 133 129 132 128 131 127 126 131 127 129 130 130 131 130 132 132 129 135 134 132 133 133 130 130 130 130 130 130 131 129 130 130 131 131 131 130 130 130 131 131 132 130 130 132 130 131 132 131 128 129 129 129 126 128 128 130 129 130 131 132 131 130 131 131 133 135 132 133 132 134 134 135 135 135 134 139 143 147 145 142 141 140 141 143 142 140 137 137 137 138 137 136 131 138 142 -193 135 138 142 143 142 142 142 142 143 144 145 143 144 145 148 146 147 147 147 145 147 148 150 151 151 152 152 152 154 155 155 154 153 0 0 0 0 0
    0 0 0 0 0 0 0 0 0 0 0 0 0 0 0 0 0 0 0 0 0 0 0 0 0 0 0 0 0 0 0 0 0 0 0 0 0 0 0 0 0 0 0 0 0 0 0 0 0 0 0 0 0 0 0 0 0 0 0 0 0 0 0 0 0 0 0 0 0 130 129 129 125 126 128 130 130 126 128 128 128 130 130 132 130 132 134 133 134 133 133 132 131 131 132 131 130 129 130 129 130 130 131 128 128 131 132 132 133 132 132 132 132 133 132 130 130 129 127 128 125 127 124 127 128 127 131 130 133 132 131 132 131 131 132 130 131 126 130 130 128 128 132 130 130 129 131 130 130 130 130 126 127 130 130 127 129 130 131 132 133 132 129 131 131 129 129 129 128 128 127 130 126 126 130 131 131 132 132 131 132 132 131 132 131 132 132 130 132 128 131 127 126 132 127 129 130 130 131 130 132 132 129 136 134 132 133 132 130 130 130 130 130 130 131 129 131 130 132 131 131 130 130 130 131 131 132 130 130 132 131 131 132 131 128 129 128 128 126 127 127 130 129 131 131 133 132 131 131 132 134 135 132 132 132 134 134 135 135 135 134 139 142 147 144 142 140 140 141 142 141 139 136 136 137 138 -193 136 126 -209 -209 -209 -209 143 147 146 144 143 143 143 143 145 146 146 146 148 -193 -209 149 149 147 145 147 148 149 150 151 -193 152 153 154 155 155 154 153 0 0 0 0 0
    0 0 0 0 0 0 0 0 0 0 0 0 0 0 0 0 0 0 0 0 0 0 0 0 0 0 0 0 0 0 0 0 0 0 0 0 0 0 0 0 0 0 0 0 0 0 0 0 0 0 0 0 0 0 0 0 0 0 0 0 0 0 0 0 0 0 0 0 0 129 128 127 124 125 127 130 130 125 127 127 127 130 130 132 131 132 135 134 134 133 133 132 131 131 132 130 129 128 130 129 130 130 131 127 128 130 131 131 132 132 131 132 131 133 131 130 130 129 127 128 126 128 124 127 128 128 131 131 133 132 131 132 131 131 132 130 131 126 130 129 127 128 131 129 129 129 131 130 130 131 130 126 129 131 130 126 129 131 131 132 132 132 129 131 131 129 128 128 127 128 126 129 126 126 130 131 131 132 132 132 132 132 131 132 131 132 133 132 134 128 131 127 125 132 127 129 129 130 130 130 131 132 127 135 133 132 133 132 130 130 130 130 130 130 131 129 131 131 132 132 132 131 131 130 131 131 132 130 130 132 131 132 132 131 128 129 128 129 126 127 127 131 130 132 132 134 133 132 132 133 135 135 132 133 132 133 134 134 135 134 134 138 139 142 140 139 138 138 139 139 138 138 135 136 139 139 139 139 139 145 151 146 143 141 146 146 144 142 142 143 143 145 146 146 147 149 151 150 150 150 147 145 147 147 149 150 151 -193 152 152 153 153 153 153 153 0 0 0 0 0
    0 0 0 0 0 0 0 0 0 0 0 0 0 0 0 0 0 0 0 0 0 0 0 0 0 0 0 0 0 0 0 0 0 0 0 0 0 0 0 0 0 0 0 0 0 0 0 0 0 0 0 0 0 0 0 0 0 0 0 0 0 0 0 0 0 0 0 0 0 129 128 126 123 124 126 129 129 124 126 126 127 130 130 132 130 131 134 134 134 132 132 131 130 131 132 130 129 128 129 128 130 129 130 127 128 130 131 131 132 132 131 131 131 133 131 130 130 129 127 128 125 127 123 126 126 126 131 130 133 132 131 132 132 132 132 130 132 127 130 129 127 128 132 128 129 129 131 131 130 131 130 127 132 132 131 128 130 132 132 133 132 132 129 131 131 128 128 128 127 128 126 128 125 125 129 131 130 130 130 130 131 132 130 130 130 131 133 134 136 130 132 127 125 132 127 129 129 130 130 129 130 131 126 135 132 131 133 132 130 131 130 131 130 130 131 129 131 131 132 132 132 132 131 130 131 132 132 131 131 132 131 132 132 132 129 130 128 130 126 128 128 132 131 133 134 135 134 134 134 135 136 136 133 133 132 133 133 134 134 133 132 136 137 139 138 137 137 137 137 138 137 137 134 135 138 139 140 143 144 149 152 148 146 145 148 147 144 142 142 143 144 145 146 146 146 148 150 149 149 149 148 146 147 148 149 150 152 152 151 152 152 152 152 152 152 0 0 0 0 0
    0 0 0 0 0 0 0 0 0 0 0 0 0 0 0 0 0 0 0 0 0 0 0 0 0 0 0 0 0 0 0 0 0 0 0 0 0 0 0 0 0 0 0 0 0 0 0 0 0 0 0 0 0 0 0 0 0 0 0 0 0 0 0 0 0 0 0 0 0 132 130 126 123 123 126 129 -193 124 126 127 128 131 130 131 129 130 134 133 133 131 131 131 130 131 132 130 129 127 129 127 129 128 129 127 127 129 130 130 130 131 130 131 131 132 131 130 130 129 127 128 124 126 123 124 124 125 131 130 133 132 131 132 132 132 132 130 132 127 131 130 128 130 133 128 130 130 132 131 131 131 131 127 133 133 132 127 131 132 133 133 132 133 129 131 131 129 128 128 127 128 125 129 125 125 129 129 128 128 128 128 129 130 128 128 128 130 134 -225 -225 -225 -225 128 125 132 128 129 129 129 130 129 130 131 125 134 131 131 132 131 130 130 129 131 129 129 130 128 131 131 133 133 132 133 132 130 132 132 133 132 131 132 131 133 133 132 130 132 129 130 127 129 128 132 -193 133 -193 -209 -209 -193 136 137 137 135 133 132 132 133 133 134 134 132 132 135 136 139 137 136 136 137 137 137 137 137 134 135 137 138 142 145 146 149 153 152 150 150 151 150 147 145 143 144 145 146 147 147 146 148 149 149 149 149 149 147 148 149 150 151 152 152 151 151 151 152 152 151 151 0 0 0 0 0</data></disparity>
</opencv_storage>
