<?xml version="1.0"?>
<opencv_storage>
<gps_time_stamp>35543</gps_time_stamp>
<gps_x>-1.2430501937866211e+001</gps_x>
<gps_y>1.1445485353469849e+000</gps_y>
<gps_z>-3.1347544193267822e+000</gps_z>
<image_time_stamp>23464</image_time_stamp>
<disparity type_id="opencv-matrix">
  <rows>76</rows>
  <cols>320</cols>
  <dt>s</dt>
  <data>
    0 0 0 0 0 0 0 0 0 0 0 0 0 0 0 0 0 0 0 0 0 0 0 0 0 0 0 0 0 0 0 0 0 0 0 0 0 0 0 0 0 0 0 0 0 0 0 0 0 0 0 0 0 0 0 0 0 0 0 0 0 0 0 0 0 0 0 0 0 333 331 332 332 331 332 331 331 331 331 331 330 330 331 331 332 331 332 331 331 331 330 329 329 328 329 329 330 330 331 332 333 334 333 332 331 331 331 331 330 329 329 329 330 330 330 329 330 329 330 329 329 328 328 328 329 328 329 329 330 330 329 330 330 330 328 327 327 327 327 328 327 326 321 327 330 331 331 331 331 334 334 335 333 332 331 331 331 329 326 326 325 326 327 326 327 327 328 330 330 331 331 331 332 332 331 332 332 333 332 332 331 331 331 331 331 330 330 330 331 330 331 330 331 330 330 330 331 330 331 331 331 332 331 332 332 330 329 329 328 327 325 325 326 327 328 328 330 328 328 329 329 328 328 327 328 324 328 328 328 328 327 328 327 327 326 327 326 326 326 326 326 326 326 327 326 328 327 327 328 328 330 329 328 330 330 331 332 331 331 330 330 331 330 330 329 328 329 329 328 327 325 324 324 324 325 325 325 326 327 328 330 329 329 327 327 326 326 325 325 325 325 324 325 324 325 325 327 326 326 326 326 326 327 327 327 326 326 324 326 328 328 330 329 331 332 0 0 0 0 0
    0 0 0 0 0 0 0 0 0 0 0 0 0 0 0 0 0 0 0 0 0 0 0 0 0 0 0 0 0 0 0 0 0 0 0 0 0 0 0 0 0 0 0 0 0 0 0 0 0 0 0 0 0 0 0 0 0 0 0 0 0 0 0 0 0 0 0 0 0 333 332 333 332 332 332 331 331 331 331 331 330 330 331 330 331 330 331 330 330 330 328 328 328 327 329 329 330 330 331 332 332 333 333 332 332 331 332 332 331 329 329 329 330 331 331 330 330 329 330 330 329 329 328 328 329 328 329 329 329 329 328 329 328 329 327 326 326 326 326 327 326 326 320 327 329 330 329 330 330 332 332 333 331 331 330 330 330 329 326 326 325 326 327 327 327 326 327 330 330 330 330 331 331 332 331 332 332 333 332 332 331 331 330 331 331 331 330 330 331 330 331 330 330 330 330 330 331 330 331 330 331 331 330 331 332 330 328 328 327 327 325 324 325 326 327 327 330 327 328 329 329 328 328 327 327 323 328 328 328 327 326 327 327 327 326 327 326 326 326 326 326 326 326 328 326 328 327 328 328 328 330 328 328 329 328 330 330 330 330 329 329 330 329 329 328 327 328 328 327 326 325 324 324 324 325 324 324 325 327 327 330 329 329 327 327 326 325 325 325 324 325 324 325 324 325 325 326 325 326 326 326 326 327 326 326 325 326 323 326 327 327 328 328 330 331 0 0 0 0 0
    0 0 0 0 0 0 0 0 0 0 0 0 0 0 0 0 0 0 0 0 0 0 0 0 0 0 0 0 0 0 0 0 0 0 0 0 0 0 0 0 0 0 0 0 0 0 0 0 0 0 0 0 0 0 0 0 0 0 0 0 0 0 0 0 0 0 0 0 0 333 332 332 332 332 332 331 331 331 331 331 330 330 330 330 330 330 330 329 330 330 328 328 328 327 329 328 329 329 330 331 331 332 332 331 332 331 332 332 331 330 330 330 330 331 331 330 331 329 331 330 330 329 328 328 329 328 328 328 328 328 327 327 327 328 326 326 326 326 326 327 327 327 320 328 329 330 329 330 -193 332 332 333 331 331 330 330 330 329 327 327 326 327 327 326 327 325 326 328 328 329 329 330 331 332 331 332 331 332 331 332 331 331 330 330 330 330 329 330 330 330 331 331 331 331 330 330 331 330 331 330 330 331 330 331 332 329 328 328 327 326 324 324 324 326 326 327 330 328 328 329 329 329 328 328 328 324 328 329 328 326 326 326 326 326 325 326 325 325 326 325 326 326 326 328 326 328 327 328 328 -193 330 -193 328 329 328 329 330 330 330 329 329 329 329 329 328 327 327 327 327 326 325 325 324 324 325 325 324 325 326 327 329 328 329 327 326 325 325 325 325 325 325 324 325 324 325 326 327 325 326 326 326 325 326 326 325 324 325 323 326 327 326 327 327 329 331 0 0 0 0 0
    0 0 0 0 0 0 0 0 0 0 0 0 0 0 0 0 0 0 0 0 0 0 0 0 0 0 0 0 0 0 0 0 0 0 0 0 0 0 0 0 0 0 0 0 0 0 0 0 0 0 0 0 0 0 0 0 0 0 0 0 0 0 0 0 0 0 0 0 0 332 331 332 332 331 332 331 331 331 331 330 330 330 330 330 331 330 331 329 331 330 329 329 329 328 330 328 329 329 329 330 330 331 330 330 331 330 330 331 330 328 328 329 329 330 330 330 330 329 330 330 330 330 329 329 329 328 329 328 328 328 326 327 326 328 326 326 326 326 326 327 327 327 320 329 328 331 329 330 -193 333 332 334 333 332 331 331 331 330 327 328 326 327 327 325 326 324 325 327 326 327 327 -193 330 332 331 332 331 332 331 331 331 330 330 330 330 330 329 330 330 330 331 331 331 331 331 331 331 330 330 330 329 329 329 330 330 328 328 327 326 326 324 324 324 325 326 327 331 328 328 329 330 329 328 328 329 325 329 329 328 326 326 326 326 326 325 326 325 324 325 325 326 326 326 327 326 328 327 328 329 328 330 -193 328 -193 328 329 330 330 330 329 329 329 329 328 327 326 327 327 326 326 326 325 324 325 325 325 324 324 325 325 328 327 329 328 326 326 325 326 326 325 325 325 325 324 326 327 327 325 326 325 325 324 325 325 324 323 325 323 326 326 326 326 326 328 329 0 0 0 0 0
    0 0 0 0 0 0 0 0 0 0 0 0 0 0 0 0 0 0 0 0 0 0 0 0 0 0 0 0 0 0 0 0 0 0 0 0 0 0 0 0 0 0 0 0 0 0 0 0 0 0 0 0 0 0 0 0 0 0 0 0 0 0 0 0 0 0 0 0 0 331 331 332 332 331 332 332 332 332 332 331 330 330 331 330 330 329 330 329 331 330 329 329 328 -193 -209 328 -193 328 329 329 329 330 329 328 329 329 329 330 328 327 327 327 329 329 329 329 330 329 330 330 330 330 329 329 329 329 329 328 328 327 326 327 326 327 326 326 326 327 327 327 327 327 320 328 328 331 328 329 -209 334 333 335 334 333 331 331 331 330 328 328 327 327 327 325 325 324 323 325 324 326 325 327 329 331 330 332 331 332 331 331 331 331 330 330 329 330 329 330 331 330 332 332 332 332 331 331 331 330 330 329 328 328 328 329 328 327 327 327 327 326 326 325 325 325 326 327 331 328 328 329 330 329 329 329 329 323 328 328 328 326 326 326 326 326 325 326 325 325 326 326 327 327 328 328 328 329 328 328 -209 328 -193 328 328 329 328 329 329 330 329 328 328 328 328 328 327 327 328 328 327 326 326 325 325 325 325 325 324 324 325 325 328 327 329 328 327 326 326 326 327 326 326 326 326 326 -193 -193 327 325 325 324 324 323 324 324 323 321 323 322 325 326 326 325 325 326 326 0 0 0 0 0
    0 0 0 0 0 0 0 0 0 0 0 0 0 0 0 0 0 0 0 0 0 0 0 0 0 0 0 0 0 0 0 0 0 0 0 0 0 0 0 0 0 0 0 0 0 0 0 0 0 0 0 0 0 0 0 0 0 0 0 0 0 0 0 0 0 0 0 0 0 330 330 331 332 331 332 332 332 332 332 331 330 330 330 330 330 329 330 329 330 329 328 -193 328 -193 -193 327 327 327 328 328 329 329 328 327 328 329 328 329 328 327 327 327 328 328 328 329 330 329 330 330 330 330 329 329 329 329 -193 329 328 328 327 327 327 327 326 326 326 327 328 328 328 327 321 328 328 331 327 327 -193 333 333 335 334 333 332 332 332 331 328 329 327 327 326 326 325 324 324 325 324 325 325 326 328 329 329 331 330 331 331 331 331 331 330 330 329 330 330 330 331 331 332 332 332 332 331 331 331 330 330 329 327 327 327 328 328 328 328 327 327 327 326 326 326 326 327 327 330 327 328 329 329 329 328 328 328 322 327 326 327 325 325 326 325 325 324 325 325 324 326 326 327 327 328 329 328 330 328 -193 -209 -193 -193 328 328 329 327 328 328 329 329 329 329 328 328 328 327 326 327 327 327 326 327 325 325 326 325 325 325 324 325 325 326 326 328 327 326 326 326 327 327 327 327 327 -193 -193 326 -193 327 325 324 324 323 322 323 324 322 320 322 322 324 325 326 325 325 326 326 0 0 0 0 0
    0 0 0 0 0 0 0 0 0 0 0 0 0 0 0 0 0 0 0 0 0 0 0 0 0 0 0 0 0 0 0 0 0 0 0 0 0 0 0 0 0 0 0 0 0 0 0 0 0 0 0 0 0 0 0 0 0 0 0 0 0 0 0 0 0 0 0 0 0 330 330 331 331 331 331 332 332 332 332 330 330 330 330 329 329 328 329 327 329 327 327 -193 327 328 328 327 328 328 328 329 329 329 328 328 328 329 328 327 327 327 328 327 328 328 327 329 329 329 330 330 330 330 329 329 329 329 -193 329 328 327 327 327 327 327 327 327 327 328 329 329 329 329 327 329 329 332 327 327 328 333 331 334 333 333 332 332 331 330 328 329 327 327 327 326 326 325 325 326 326 327 326 326 328 -193 329 -193 330 330 -193 -193 330 330 329 330 329 330 329 330 331 331 332 332 332 332 331 331 331 330 330 329 327 326 327 328 328 327 328 327 327 327 326 326 326 326 326 326 329 326 327 328 328 328 327 327 328 321 327 326 326 325 325 325 324 324 324 325 324 324 325 326 327 327 328 329 328 329 327 -193 -193 -193 -193 328 328 329 328 329 329 330 330 329 329 328 328 327 326 326 326 326 327 327 327 326 327 327 327 326 326 324 324 324 325 324 327 327 327 327 327 327 327 327 327 327 -193 -193 326 326 327 325 325 324 323 322 323 323 322 319 321 321 324 325 326 325 326 326 326 0 0 0 0 0
    0 0 0 0 0 0 0 0 0 0 0 0 0 0 0 0 0 0 0 0 0 0 0 0 0 0 0 0 0 0 0 0 0 0 0 0 0 0 0 0 0 0 0 0 0 0 0 0 0 0 0 0 0 0 0 0 0 0 0 0 0 0 0 0 0 0 0 0 0 330 330 330 331 331 331 332 332 332 332 330 330 330 329 329 329 328 328 326 328 326 326 327 327 327 327 327 328 328 328 329 329 330 329 329 329 329 328 327 328 328 329 328 329 328 328 329 330 329 330 330 331 330 329 329 329 329 329 329 328 327 326 327 327 327 327 327 327 329 329 330 330 330 329 329 330 331 326 327 328 330 328 331 331 331 330 330 330 329 328 328 327 327 327 327 326 326 327 327 327 327 326 326 328 -209 328 -209 -193 329 -193 -193 329 329 328 329 329 329 329 330 330 331 332 332 332 331 331 330 330 329 329 327 327 326 326 328 328 327 327 327 327 327 326 326 326 326 326 326 328 326 327 327 327 327 327 327 327 322 327 327 326 326 325 326 325 325 324 325 325 325 326 328 328 329 329 330 329 329 327 327 326 327 -193 328 328 329 328 329 330 330 331 330 330 329 328 327 326 326 326 326 327 327 327 327 327 328 327 326 326 324 325 325 326 325 327 327 327 326 326 326 326 326 326 326 327 326 326 326 327 326 325 325 324 323 323 324 323 319 321 320 324 324 326 324 325 325 326 0 0 0 0 0
    0 0 0 0 0 0 0 0 0 0 0 0 0 0 0 0 0 0 0 0 0 0 0 0 0 0 0 0 0 0 0 0 0 0 0 0 0 0 0 0 0 0 0 0 0 0 0 0 0 0 0 0 0 0 0 0 0 0 0 0 0 0 0 0 0 0 0 0 0 329 329 330 331 331 331 332 332 332 332 330 330 330 329 329 329 328 328 326 328 326 326 327 327 327 327 327 327 328 328 329 329 329 328 328 328 328 328 327 327 328 328 328 328 329 328 329 330 330 330 330 331 330 329 328 328 328 329 328 327 326 327 327 328 328 328 328 328 330 330 330 330 330 330 328 328 327 324 325 326 326 326 327 327 328 328 329 328 328 327 328 327 327 327 327 327 327 327 328 327 328 327 326 327 327 327 328 328 328 -193 329 328 328 328 329 328 328 328 329 330 331 331 332 331 330 330 330 329 328 328 327 326 325 326 328 328 327 327 327 327 327 327 326 326 326 326 326 328 326 327 327 327 327 326 327 327 322 327 326 326 325 325 325 324 324 323 325 325 327 327 329 329 329 329 330 329 329 326 327 326 328 329 329 329 329 329 330 330 331 331 331 330 330 329 328 326 327 327 327 328 328 328 328 329 329 328 327 327 325 325 325 325 324 324 325 325 325 325 325 325 325 325 326 326 326 326 326 327 326 326 325 324 323 324 324 324 320 321 321 324 325 327 326 327 327 328 0 0 0 0 0
    0 0 0 0 0 0 0 0 0 0 0 0 0 0 0 0 0 0 0 0 0 0 0 0 0 0 0 0 0 0 0 0 0 0 0 0 0 0 0 0 0 0 0 0 0 0 0 0 0 0 0 0 0 0 0 0 0 0 0 0 0 0 0 0 0 0 0 0 0 329 329 330 331 330 331 331 332 332 333 330 330 330 330 330 330 329 329 327 328 327 326 327 327 327 327 327 327 327 327 -193 328 328 327 327 327 327 327 326 326 327 328 328 328 329 329 330 330 330 330 330 331 330 329 328 328 328 328 328 327 326 327 328 329 329 330 329 329 331 331 330 330 330 330 327 327 326 322 325 326 326 325 326 326 327 327 328 327 327 327 327 327 327 327 327 326 327 327 327 327 328 327 326 327 327 326 327 327 327 327 328 327 327 327 328 328 328 328 330 330 331 331 331 331 331 330 330 330 329 328 327 327 326 327 328 328 327 327 327 327 327 327 327 326 326 327 326 328 326 327 327 327 326 326 326 326 322 325 325 325 325 325 325 324 324 323 324 325 327 327 329 329 329 329 330 329 329 327 328 -193 329 330 329 329 329 330 330 331 331 331 330 330 330 329 328 327 327 327 328 328 329 329 329 329 330 329 328 327 325 323 324 323 323 323 323 324 323 325 325 325 325 325 326 326 326 325 326 327 326 326 325 324 324 324 324 324 320 322 321 324 326 328 327 -209 328 329 0 0 0 0 0
    0 0 0 0 0 0 0 0 0 0 0 0 0 0 0 0 0 0 0 0 0 0 0 0 0 0 0 0 0 0 0 0 0 0 0 0 0 0 0 0 0 0 0 0 0 0 0 0 0 0 0 0 0 0 0 0 0 0 0 0 0 0 0 0 0 0 0 0 0 328 329 329 331 330 330 331 332 331 333 330 330 330 330 330 330 329 329 328 329 328 327 327 327 327 327 327 327 327 327 -193 328 328 327 327 327 326 327 326 326 327 327 327 328 328 329 329 330 330 330 330 331 329 329 328 327 328 328 328 327 327 328 329 330 329 331 330 330 331 331 331 330 330 330 327 328 328 323 325 327 326 -193 326 326 327 327 329 328 328 327 327 327 327 327 327 326 327 327 327 328 328 327 326 327 327 326 327 327 327 327 327 327 327 327 328 327 327 328 329 330 331 331 331 331 330 330 330 330 329 329 328 327 326 327 327 327 327 327 327 328 328 328 327 327 327 327 326 328 326 326 327 326 326 326 325 325 322 325 325 325 325 325 325 324 324 324 324 325 326 327 328 328 329 329 329 329 328 326 327 327 -193 329 329 329 330 330 331 331 331 331 331 330 330 330 329 328 327 327 329 328 329 328 328 -193 330 329 328 -193 325 323 325 323 323 323 323 323 323 324 325 325 326 325 326 326 326 326 326 327 326 326 326 325 324 325 325 324 320 323 322 324 326 329 -193 -193 -209 -209 0 0 0 0 0
    0 0 0 0 0 0 0 0 0 0 0 0 0 0 0 0 0 0 0 0 0 0 0 0 0 0 0 0 0 0 0 0 0 0 0 0 0 0 0 0 0 0 0 0 0 0 0 0 0 0 0 0 0 0 0 0 0 0 0 0 0 0 0 0 0 0 0 0 0 328 329 -193 331 330 331 331 332 332 333 330 330 330 330 329 330 329 329 327 328 328 327 327 327 327 -193 -193 328 328 -193 -193 328 327 327 327 327 326 326 326 326 326 327 327 327 328 328 329 329 330 330 329 331 329 329 328 328 328 329 329 328 327 328 329 331 330 332 330 330 331 331 331 330 330 330 326 329 330 323 326 327 327 -193 326 327 327 327 329 328 328 328 327 328 327 327 327 327 328 328 328 330 329 328 327 327 327 326 327 327 327 326 326 326 327 327 328 327 327 328 329 330 331 331 331 331 330 330 330 330 329 329 327 327 326 327 327 327 327 327 328 328 328 328 328 327 328 327 327 328 326 326 327 326 326 325 325 325 323 325 325 325 325 325 325 325 325 324 325 325 327 327 328 328 329 328 328 328 327 326 326 326 327 328 329 329 330 330 331 332 331 331 331 330 331 330 330 328 328 328 329 328 330 328 -193 -193 -193 329 -193 -193 326 324 326 324 324 323 323 322 322 323 325 324 325 325 326 326 326 326 326 327 326 326 326 325 324 325 325 325 320 323 322 324 326 329 -193 -209 -209 -209 0 0 0 0 0
    0 0 0 0 0 0 0 0 0 0 0 0 0 0 0 0 0 0 0 0 0 0 0 0 0 0 0 0 0 0 0 0 0 0 0 0 0 0 0 0 0 0 0 0 0 0 0 0 0 0 0 0 0 0 0 0 0 0 0 0 0 0 0 0 0 0 0 0 0 -209 329 -193 331 330 331 331 332 332 333 330 330 329 328 328 328 328 327 327 327 328 326 327 327 327 327 327 328 328 -193 -193 328 328 328 328 327 326 327 326 326 327 327 327 327 328 328 329 329 330 330 329 330 329 329 328 328 328 329 329 328 327 328 329 332 330 333 330 330 331 331 331 330 330 331 327 331 333 325 327 327 327 -193 325 325 326 326 329 327 329 328 328 -193 328 328 328 327 328 328 328 -193 329 -193 -193 327 327 325 326 326 326 326 326 326 326 327 328 328 327 328 328 330 330 331 331 330 329 330 330 330 329 328 327 327 327 328 328 328 328 328 329 329 329 328 328 328 328 328 327 328 326 326 327 326 326 325 325 325 323 325 326 325 326 326 325 326 326 325 325 325 328 327 328 329 329 328 328 328 327 325 326 326 327 327 329 329 329 330 330 331 332 330 331 330 331 330 330 329 328 328 330 329 330 -209 -209 -193 330 330 330 -193 -193 325 327 325 324 323 322 322 322 322 324 323 325 325 326 326 326 326 326 327 325 325 326 324 324 325 325 325 320 324 321 324 327 329 327 -209 -209 -193 0 0 0 0 0
    0 0 0 0 0 0 0 0 0 0 0 0 0 0 0 0 0 0 0 0 0 0 0 0 0 0 0 0 0 0 0 0 0 0 0 0 0 0 0 0 0 0 0 0 0 0 0 0 0 0 0 0 0 0 0 0 0 0 0 0 0 0 0 0 0 0 0 0 0 329 329 329 331 330 331 331 332 332 332 330 330 328 328 328 328 327 327 327 327 328 326 327 327 327 327 327 328 328 -193 -193 328 328 328 328 328 327 328 327 327 328 328 328 328 328 329 329 329 330 330 329 330 329 329 328 328 329 329 329 328 327 328 329 332 330 333 330 330 332 331 331 331 330 331 328 332 334 326 328 327 326 326 325 324 325 326 328 327 329 329 328 329 329 329 328 327 328 327 328 -193 330 -193 -193 328 327 326 326 327 327 326 326 326 326 327 328 328 327 327 328 329 330 330 330 330 329 330 330 330 330 329 328 329 329 330 330 329 329 329 330 330 329 328 328 328 329 328 327 327 326 326 327 326 326 326 325 326 325 326 327 326 326 327 326 327 327 326 326 325 327 326 327 328 328 327 328 327 326 325 326 326 327 328 329 329 330 331 331 332 332 331 331 331 331 330 329 329 328 328 329 -193 330 -193 -193 330 330 331 331 -193 329 326 327 324 324 323 322 322 321 322 323 323 325 324 325 326 326 326 326 327 325 326 326 325 324 325 325 324 320 324 321 323 327 329 327 -193 -193 -193 0 0 0 0 0
    0 0 0 0 0 0 0 0 0 0 0 0 0 0 0 0 0 0 0 0 0 0 0 0 0 0 0 0 0 0 0 0 0 0 0 0 0 0 0 0 0 0 0 0 0 0 0 0 0 0 0 0 0 0 0 0 0 0 0 0 0 0 0 0 0 0 0 0 0 330 330 330 331 330 331 331 332 331 332 330 330 329 329 328 328 327 326 326 327 0 -256 -1 30985 328 328 328 328 328 -193 -193 328 329 328 329 329 328 329 328 327 328 328 328 328 328 329 329 329 330 330 329 330 329 329 328 328 329 329 329 328 327 328 329 331 330 332 329 329 331 331 331 330 330 331 328 332 334 328 329 327 326 325 324 323 324 324 326 326 328 328 327 330 329 329 329 328 328 328 329 331 330 331 328 329 328 327 327 328 327 327 326 326 326 327 328 328 327 327 327 329 330 330 330 330 328 330 329 330 329 328 328 329 329 329 330 329 328 329 329 330 329 328 328 327 328 327 326 327 325 325 327 327 326 326 325 326 325 327 327 326 327 327 327 327 328 327 326 326 327 326 327 327 328 327 328 327 326 325 326 326 327 327 329 329 330 331 331 333 332 331 331 331 331 330 329 329 328 328 330 328 330 329 329 330 330 331 330 329 329 326 327 325 325 324 323 322 322 321 323 322 324 324 325 326 326 326 327 328 326 326 326 325 325 325 325 325 320 324 322 324 327 328 327 326 -193 -193 0 0 0 0 0
    0 0 0 0 0 0 0 0 0 0 0 0 0 0 0 0 0 0 0 0 0 0 0 0 0 0 0 0 0 0 0 0 0 0 0 0 0 0 0 0 0 0 0 0 0 0 0 0 0 0 0 0 0 0 0 0 0 0 0 0 0 0 0 0 0 0 0 0 0 330 330 330 331 330 330 330 331 331 331 330 330 329 329 329 329 328 327 328 328 330 -193 329 328 329 -193 329 329 328 -193 -193 328 329 328 330 330 329 330 328 328 329 328 328 327 328 328 329 329 329 330 329 330 329 329 329 329 329 330 329 329 328 329 329 331 330 331 329 329 331 330 331 330 329 330 328 331 333 328 329 327 326 325 324 323 323 324 326 326 328 328 328 330 329 330 329 328 329 327 329 331 330 331 329 330 328 327 327 329 328 328 327 327 327 328 328 328 327 327 328 330 331 331 331 330 329 330 329 329 329 328 328 328 329 329 330 329 328 329 330 330 329 328 327 327 328 327 326 326 325 326 327 327 327 327 326 326 326 327 327 326 326 327 327 327 328 327 326 327 327 327 327 327 328 327 328 327 326 326 327 327 328 328 329 -193 330 331 331 332 332 331 331 330 331 330 330 329 329 329 330 329 330 329 329 330 330 330 330 328 328 326 326 325 325 324 323 322 322 322 323 322 323 323 324 325 325 327 327 328 326 326 326 325 325 325 325 325 322 325 323 324 327 328 326 326 -193 -193 0 0 0 0 0
    0 0 0 0 0 0 0 0 0 0 0 0 0 0 0 0 0 0 0 0 0 0 0 0 0 0 0 0 0 0 0 0 0 0 0 0 0 0 0 0 0 0 0 0 0 0 0 0 0 0 0 0 0 0 0 0 0 0 0 0 0 0 0 0 0 0 0 0 0 330 330 329 330 329 330 330 330 330 330 329 329 328 329 328 328 328 327 328 329 331 330 331 330 330 329 330 329 329 327 329 327 328 328 330 330 329 329 329 328 328 328 328 327 328 329 329 330 330 331 330 331 330 330 330 329 330 330 329 329 328 329 329 330 329 331 328 328 330 330 330 330 329 330 327 331 333 329 330 327 327 325 324 324 323 324 327 326 329 330 329 331 330 331 330 329 329 328 329 331 331 333 331 331 331 329 329 330 330 330 328 327 327 328 328 328 328 328 329 330 332 332 332 332 331 331 330 330 330 329 328 328 329 329 329 329 328 329 329 330 329 328 327 327 328 327 326 326 326 327 328 328 328 327 327 327 326 327 326 325 326 326 326 327 327 327 326 327 327 326 326 326 327 326 326 326 326 326 327 327 328 328 329 -193 330 331 331 331 332 331 331 331 331 331 331 331 330 330 330 329 330 329 329 329 329 329 329 328 328 325 326 325 325 324 323 323 322 322 323 323 324 323 324 325 325 327 327 328 326 326 327 326 325 325 326 326 323 326 325 324 327 328 327 326 -193 -193 0 0 0 0 0
    0 0 0 0 0 0 0 0 0 0 0 0 0 0 0 0 0 0 0 0 0 0 0 0 0 0 0 0 0 0 0 0 0 0 0 0 0 0 0 0 0 0 0 0 0 0 0 0 0 0 0 0 0 0 0 0 0 0 0 0 0 0 0 0 0 0 0 0 0 330 330 329 330 329 329 329 329 329 329 328 328 327 328 327 327 326 326 327 329 331 330 332 331 331 330 330 330 329 328 329 326 327 327 330 330 329 329 329 329 328 328 327 327 328 328 329 330 330 331 330 331 330 331 330 330 330 330 329 329 328 328 328 329 328 330 327 328 330 330 330 330 329 330 327 332 334 330 331 329 328 327 325 326 324 325 -209 -193 330 331 331 332 331 332 331 330 331 329 330 332 331 332 331 331 331 329 329 329 329 329 327 327 327 327 328 328 328 328 329 330 332 332 332 332 331 331 331 330 330 330 329 329 329 329 329 329 328 328 329 330 329 328 327 327 327 327 326 326 326 327 328 328 328 328 327 327 327 327 326 325 326 326 326 327 327 327 327 327 327 325 326 325 327 326 325 325 325 325 326 327 327 327 -209 -209 -209 330 331 331 332 330 332 331 331 331 331 331 330 330 330 328 330 329 329 329 328 329 328 327 327 325 325 324 325 324 324 323 323 323 324 323 324 324 324 325 325 326 327 327 326 326 327 326 326 325 326 326 323 325 325 324 326 327 326 326 -193 -193 0 0 0 0 0
    0 0 0 0 0 0 0 0 0 0 0 0 0 0 0 0 0 0 0 0 0 0 0 0 0 0 0 0 0 0 0 0 0 0 0 0 0 0 0 0 0 0 0 0 0 0 0 0 0 0 0 0 0 0 0 0 0 0 0 0 0 0 0 0 0 0 0 0 0 329 329 -209 -193 329 329 -193 329 329 329 328 328 326 327 326 326 326 325 327 328 331 330 332 331 331 330 330 330 330 329 329 326 328 327 330 330 330 330 329 329 329 328 328 327 328 328 329 330 329 330 330 330 330 330 330 330 329 330 329 329 328 327 327 328 328 329 326 327 329 329 330 329 329 330 327 332 334 331 331 330 329 327 326 327 325 326 328 328 330 331 331 332 331 332 332 330 331 330 330 330 330 330 330 330 329 328 328 328 328 328 327 327 327 326 327 327 327 328 328 330 331 331 332 331 330 331 330 330 330 330 328 328 329 329 329 328 328 328 328 329 329 328 327 327 327 327 326 326 326 327 328 328 328 328 328 327 327 327 327 326 327 326 326 326 327 327 326 326 326 325 325 325 327 325 325 325 325 324 326 327 -209 -193 -209 -209 -209 330 330 330 331 330 331 329 330 330 330 331 330 329 329 328 330 329 329 329 328 328 328 327 327 325 325 324 324 324 324 323 323 323 324 324 324 324 324 325 325 326 327 327 327 327 327 326 326 326 326 326 323 325 324 323 325 327 325 325 -193 -193 0 0 0 0 0
    0 0 0 0 0 0 0 0 0 0 0 0 0 0 0 0 0 0 0 0 0 0 0 0 0 0 0 0 0 0 0 0 0 0 0 0 0 0 0 0 0 0 0 0 0 0 0 0 0 0 0 0 0 0 0 0 0 0 0 0 0 0 0 0 0 0 0 0 0 329 329 -209 -209 -193 -193 -193 -193 -193 -193 328 328 326 328 327 326 327 326 327 328 330 329 332 330 331 330 330 330 329 328 329 326 328 327 330 330 330 330 330 330 330 329 329 328 329 329 330 330 329 330 330 330 330 330 330 329 329 330 329 328 328 327 327 327 327 329 326 326 328 328 329 329 329 329 327 331 334 331 331 330 329 328 327 327 326 326 327 327 329 330 330 331 331 331 330 329 330 329 329 328 329 329 329 329 328 328 328 328 328 -193 327 327 327 326 327 327 327 328 328 329 331 331 331 331 330 330 330 330 330 329 328 329 329 329 330 329 329 328 328 328 327 327 326 325 326 325 325 326 326 327 328 328 328 328 328 328 328 328 327 326 327 326 326 326 325 326 325 325 326 324 325 325 326 326 325 325 325 325 327 328 -209 -209 -193 -209 -193 329 330 329 330 329 330 328 329 329 329 330 330 329 329 329 330 330 330 330 329 329 329 327 327 325 324 324 324 324 323 323 323 323 324 324 324 323 324 324 324 325 326 327 327 327 327 326 326 326 326 325 323 325 324 323 325 326 325 325 324 325 0 0 0 0 0
    0 0 0 0 0 0 0 0 0 0 0 0 0 0 0 0 0 0 0 0 0 0 0 0 0 0 0 0 0 0 0 0 0 0 0 0 0 0 0 0 0 0 0 0 0 0 0 0 0 0 0 0 0 0 0 0 0 0 0 0 0 0 0 0 0 0 0 0 0 -193 -193 -209 -209 327 -193 -193 -193 -193 -193 327 328 327 328 328 328 328 327 329 329 331 330 332 330 330 329 329 329 329 327 328 325 327 327 330 330 330 330 330 331 330 329 329 328 330 329 331 331 330 330 330 330 331 330 330 330 330 330 329 328 328 327 327 327 327 328 325 326 327 328 328 329 328 329 326 331 333 331 330 329 329 327 327 327 326 326 327 327 329 329 330 330 330 331 329 328 328 328 328 328 329 329 329 329 329 328 328 328 -193 -193 327 327 327 326 327 327 327 327 327 329 331 331 331 331 330 329 329 329 329 329 328 329 329 330 329 329 328 328 327 327 326 326 325 324 325 324 324 325 325 326 327 328 328 328 328 328 328 329 328 327 327 326 326 325 325 325 325 325 325 324 325 325 326 326 326 326 326 326 328 329 330 -209 -209 -209 -193 328 328 327 328 327 329 327 328 328 329 330 329 329 329 329 330 330 329 329 328 328 328 327 326 324 323 324 324 324 324 324 323 323 324 324 323 323 323 323 323 325 325 327 326 327 327 326 326 325 325 325 323 325 324 323 325 326 325 325 324 325 0 0 0 0 0
    0 0 0 0 0 0 0 0 0 0 0 0 0 0 0 0 0 0 0 0 0 0 0 0 0 0 0 0 0 0 0 0 0 0 0 0 0 0 0 0 0 0 0 0 0 0 0 0 0 0 0 0 0 0 0 0 0 0 0 0 0 0 0 0 0 0 0 0 0 -193 -193 -193 -193 327 327 -193 -193 -193 327 327 328 326 328 328 328 329 329 329 330 331 330 332 330 329 328 328 328 328 327 327 324 326 326 329 329 330 330 331 331 330 329 329 329 330 330 331 331 330 331 331 331 331 331 331 330 330 330 329 328 327 327 326 326 326 328 324 325 327 327 327 328 328 328 325 330 331 330 330 329 328 327 327 327 325 326 326 326 328 329 329 329 329 330 328 327 328 327 328 327 328 329 329 329 330 329 328 -193 -193 -193 327 327 327 326 327 327 327 327 327 329 330 330 330 330 329 328 328 329 328 328 328 328 328 328 328 328 327 327 326 326 326 325 324 324 324 324 323 325 325 326 327 328 328 328 328 328 328 329 327 327 327 325 326 325 324 325 325 325 325 324 325 325 327 326 326 326 326 326 327 -209 -209 -209 -209 -209 -209 -193 327 327 -193 326 327 326 327 327 328 329 329 329 328 328 328 329 328 328 326 326 326 325 325 323 322 324 324 324 324 324 324 324 325 325 323 323 323 323 323 325 325 327 326 327 327 326 326 326 325 325 323 324 324 323 324 325 324 324 323 324 0 0 0 0 0
    0 0 0 0 0 0 0 0 0 0 0 0 0 0 0 0 0 0 0 0 0 0 0 0 0 0 0 0 0 0 0 0 0 0 0 0 0 0 0 0 0 0 0 0 0 0 0 0 0 0 0 0 0 0 0 0 0 0 0 0 0 0 0 0 0 0 0 0 0 328 -193 -193 326 326 326 326 326 327 326 326 327 326 328 -193 328 -193 -193 -193 330 331 330 332 330 329 328 328 328 328 327 326 323 326 325 329 329 329 329 330 331 330 330 329 329 330 330 331 331 331 331 332 331 331 331 331 330 330 330 329 327 327 326 326 326 326 328 324 324 325 326 326 327 327 327 324 329 330 330 329 328 327 326 326 326 325 326 326 326 328 328 328 328 328 329 328 327 328 326 327 327 328 328 329 329 328 328 328 327 327 -193 327 327 327 326 327 327 328 328 328 329 329 330 330 330 329 327 327 327 327 326 326 326 326 326 326 326 325 326 325 326 326 325 324 324 324 324 323 325 325 325 327 327 328 328 328 328 328 329 327 327 327 325 326 325 325 325 325 325 325 324 325 325 326 326 326 326 326 326 327 -209 -209 -209 -193 -209 -209 -193 326 327 -193 -193 326 326 326 327 328 329 329 329 328 327 328 328 327 327 325 324 324 324 323 322 322 323 324 323 324 324 324 325 325 325 324 323 323 323 323 324 325 326 326 327 327 326 326 325 325 325 323 324 324 323 323 325 323 323 322 322 0 0 0 0 0
    0 0 0 0 0 0 0 0 0 0 0 0 0 0 0 0 0 0 0 0 0 0 0 0 0 0 0 0 0 0 0 0 0 0 0 0 0 0 0 0 0 0 0 0 0 0 0 0 0 0 0 0 0 0 0 0 0 0 0 0 0 0 0 0 0 0 0 0 0 327 327 326 326 326 326 326 326 -193 326 326 327 326 328 -193 329 -193 -193 -193 330 330 329 332 329 328 327 327 327 327 326 326 323 325 324 328 328 328 328 330 331 330 330 329 330 331 331 332 331 331 331 332 331 331 331 331 330 329 330 329 327 327 327 326 326 326 328 324 324 325 325 325 325 326 326 322 329 330 329 328 327 327 326 326 326 325 326 326 326 328 328 328 327 327 328 327 326 327 326 327 326 327 327 328 328 328 327 327 327 327 -193 327 327 327 326 327 327 328 328 328 329 329 329 330 330 329 327 327 327 327 327 326 326 326 326 326 326 325 325 325 325 326 325 325 324 324 324 324 326 325 326 327 327 328 328 327 328 327 328 327 327 327 326 326 325 325 325 325 325 325 323 324 323 325 326 325 325 326 325 326 -209 -209 51 -177 -209 -209 -193 327 327 -193 326 326 326 327 327 327 328 328 328 327 326 327 327 325 325 323 322 322 322 321 320 320 323 324 323 323 324 324 325 325 325 323 323 323 324 323 324 324 326 326 327 326 326 326 325 325 325 323 324 324 324 323 325 324 -193 322 322 0 0 0 0 0
    0 0 0 0 0 0 0 0 0 0 0 0 0 0 0 0 0 0 0 0 0 0 0 0 0 0 0 0 0 0 0 0 0 0 0 0 0 0 0 0 0 0 0 0 0 0 0 0 0 0 0 0 0 0 0 0 0 0 0 0 0 0 0 0 0 0 0 0 0 327 326 326 325 326 326 326 326 -193 -193 326 327 326 328 327 328 -193 -193 -193 329 329 328 330 328 328 327 327 327 327 326 326 322 325 324 326 328 328 328 329 330 329 330 329 330 331 331 332 331 331 331 332 331 331 331 330 330 329 329 328 327 327 326 326 327 325 328 323 323 324 324 324 325 325 325 321 329 329 329 328 327 327 326 327 326 325 326 326 326 327 328 327 327 326 327 327 326 326 326 326 326 326 327 327 327 327 327 327 327 327 -193 327 327 326 326 327 326 327 327 327 328 327 328 329 329 328 327 328 328 328 327 326 326 326 326 327 326 325 325 325 325 326 325 325 324 324 325 324 327 326 326 326 327 327 327 327 327 326 328 327 327 327 327 326 326 325 325 326 325 325 323 324 324 325 325 325 325 325 325 326 -193 -209 -177 -177 -209 -209 326 327 327 327 326 326 326 326 327 326 328 327 327 327 326 326 326 324 324 322 321 321 321 320 319 319 322 324 323 323 324 324 325 325 325 324 323 324 324 324 324 323 326 325 326 326 325 325 325 325 325 322 325 324 324 323 325 324 -193 322 -193 0 0 0 0 0
    0 0 0 0 0 0 0 0 0 0 0 0 0 0 0 0 0 0 0 0 0 0 0 0 0 0 0 0 0 0 0 0 0 0 0 0 0 0 0 0 0 0 0 0 0 0 0 0 0 0 0 0 0 0 0 0 0 0 0 0 0 0 0 0 0 0 0 0 0 326 326 325 325 325 325 326 326 -193 -193 326 327 326 328 -193 328 -209 -193 -193 329 328 328 329 328 327 326 326 326 326 326 326 323 325 326 327 328 328 328 329 330 329 330 329 330 330 331 331 331 331 330 331 331 330 330 329 329 328 329 328 327 326 326 326 327 325 328 323 323 323 324 324 325 325 325 321 329 328 329 328 327 327 326 327 326 325 326 325 325 327 327 326 326 325 326 326 325 326 325 325 325 325 326 326 327 327 326 327 326 327 327 326 327 326 325 326 326 326 326 326 326 326 327 328 328 328 326 327 327 328 327 326 326 326 326 327 327 326 326 325 326 326 326 325 325 324 325 325 327 326 326 327 327 327 327 326 327 326 328 327 327 327 327 326 326 326 325 326 325 325 324 325 324 325 325 325 325 325 325 325 -193 -209 -193 -177 -193 -193 326 326 327 326 325 325 325 325 325 325 326 325 324 325 324 325 325 324 323 322 321 322 321 321 320 320 323 324 323 323 324 324 325 325 325 324 324 324 325 324 325 324 326 325 326 325 325 324 324 324 324 321 324 323 325 324 324 324 -193 322 321 0 0 0 0 0
    0 0 0 0 0 0 0 0 0 0 0 0 0 0 0 0 0 0 0 0 0 0 0 0 0 0 0 0 0 0 0 0 0 0 0 0 0 0 0 0 0 0 0 0 0 0 0 0 0 0 0 0 0 0 0 0 0 0 0 0 0 0 0 0 0 0 0 0 0 326 325 325 324 325 325 326 325 326 325 325 327 327 328 -193 -193 -209 -193 330 329 328 328 -193 327 327 326 326 326 326 326 326 324 326 328 329 330 328 329 329 330 330 330 329 330 330 331 331 330 -193 -193 -193 330 330 329 329 328 329 329 328 327 327 327 327 327 326 328 324 323 324 324 324 325 325 325 321 328 328 329 327 327 326 326 326 326 325 325 324 324 325 326 325 324 323 325 324 324 324 324 324 324 324 326 326 326 327 326 327 326 327 327 327 327 326 326 326 325 326 326 325 326 325 326 327 327 327 326 327 327 327 327 326 325 325 326 328 327 326 327 326 326 326 326 326 325 325 326 325 327 326 326 326 326 326 326 325 326 325 327 326 326 327 327 327 326 326 325 325 325 325 324 325 324 325 325 326 325 325 325 324 -193 -209 -209 -209 -193 -193 325 326 326 326 325 324 324 325 325 324 325 324 321 324 322 323 323 322 322 321 321 322 320 322 321 322 324 325 324 324 324 324 325 325 325 324 323 324 324 324 325 324 326 325 325 325 324 324 324 324 324 319 323 322 324 323 324 323 323 322 321 0 0 0 0 0
    0 0 0 0 0 0 0 0 0 0 0 0 0 0 0 0 0 0 0 0 0 0 0 0 0 0 0 0 0 0 0 0 0 0 0 0 0 0 0 0 0 0 0 0 0 0 0 0 0 0 0 0 0 0 0 0 0 0 0 0 0 0 0 0 0 0 0 0 0 326 325 325 324 325 324 325 325 326 325 325 327 327 328 -193 -193 -193 329 330 329 328 327 -193 327 326 326 326 326 326 325 326 324 327 329 330 330 329 329 329 330 329 329 329 330 330 331 330 330 -193 -193 -209 330 330 329 329 329 329 329 329 328 327 327 327 327 326 328 324 324 324 325 325 326 326 325 321 328 328 328 327 326 325 326 326 326 325 325 324 324 325 325 324 323 322 325 324 324 324 324 325 324 325 326 -193 -193 327 326 327 327 327 327 327 327 326 326 326 325 326 325 325 325 324 326 326 327 327 325 326 326 326 326 325 325 326 326 328 328 327 328 326 327 327 326 326 325 325 326 324 327 326 325 326 326 325 325 325 326 324 327 327 327 327 -209 -193 -209 -193 326 325 326 325 324 325 325 325 325 326 325 325 325 324 -193 -193 -193 -193 324 323 325 325 326 325 324 324 325 325 325 324 325 324 321 323 321 322 322 321 321 321 321 323 321 323 322 323 325 326 325 325 324 324 325 325 324 323 323 324 324 324 325 324 327 324 325 324 323 323 323 323 323 319 322 321 323 323 324 323 -193 322 320 0 0 0 0 0
    0 0 0 0 0 0 0 0 0 0 0 0 0 0 0 0 0 0 0 0 0 0 0 0 0 0 0 0 0 0 0 0 0 0 0 0 0 0 0 0 0 0 0 0 0 0 0 0 0 0 0 0 0 0 0 0 0 0 0 0 0 0 0 0 0 0 0 0 0 325 324 324 324 325 324 325 324 325 325 325 326 326 327 -193 -193 -209 -193 329 329 328 328 -193 327 326 326 325 326 326 325 326 324 327 330 331 332 330 330 330 331 329 329 329 329 329 330 -193 330 -209 330 -209 331 -193 329 329 329 329 328 327 327 325 325 326 326 325 327 324 324 325 325 326 326 326 326 322 327 328 328 326 326 325 325 326 325 325 325 323 324 324 324 324 323 322 324 324 324 324 324 324 324 325 326 -193 327 327 326 328 327 328 327 327 327 326 326 326 325 326 325 326 326 325 327 326 327 327 326 326 326 326 326 326 325 326 326 328 328 327 328 327 328 328 327 327 325 325 326 324 327 326 325 326 325 325 325 325 326 325 327 327 328 328 -209 -209 -209 -193 -193 -193 -193 326 326 326 326 325 325 325 325 325 324 323 323 324 -193 323 323 321 324 324 325 325 324 324 324 325 325 324 324 323 320 322 319 321 320 320 321 321 322 324 322 324 324 324 326 327 325 325 324 324 325 325 325 323 323 324 325 324 325 324 327 324 325 324 322 322 322 322 322 318 320 320 323 323 324 324 -193 324 -193 0 0 0 0 0
    0 0 0 0 0 0 0 0 0 0 0 0 0 0 0 0 0 0 0 0 0 0 0 0 0 0 0 0 0 0 0 0 0 0 0 0 0 0 0 0 0 0 0 0 0 0 0 0 0 0 0 0 0 0 0 0 0 0 0 0 0 0 0 0 0 0 0 0 0 325 324 324 323 325 324 325 324 325 325 324 326 326 327 327 327 -193 328 328 328 328 328 -193 -193 327 327 326 326 -193 326 326 325 328 330 331 332 331 330 329 330 329 329 328 328 328 329 -193 -193 -209 -193 -209 -193 -193 328 327 327 326 327 325 325 323 324 324 325 323 327 324 324 325 326 326 326 326 326 323 327 328 328 326 326 325 326 326 326 325 325 323 325 325 324 324 323 323 324 324 324 324 324 324 323 325 325 325 327 327 326 328 327 328 327 327 327 326 326 326 325 326 326 326 326 326 327 327 327 327 326 326 326 326 326 325 325 326 325 328 328 327 328 328 328 328 328 328 326 326 327 325 328 326 326 326 326 326 325 325 326 325 327 327 328 329 -209 -209 -193 -209 -209 -209 -209 -193 326 326 326 325 324 325 325 324 323 323 322 324 325 323 324 321 324 324 325 325 324 324 325 325 325 -193 324 322 318 321 318 320 319 319 320 321 322 324 322 324 323 324 326 326 325 324 324 324 324 324 325 324 324 325 327 326 327 326 328 325 325 324 323 322 322 322 322 318 320 321 323 323 324 324 -193 -193 -193 0 0 0 0 0
    0 0 0 0 0 0 0 0 0 0 0 0 0 0 0 0 0 0 0 0 0 0 0 0 0 0 0 0 0 0 0 0 0 0 0 0 0 0 0 0 0 0 0 0 0 0 0 0 0 0 0 0 0 0 0 0 0 0 0 0 0 0 0 0 0 0 0 0 0 325 324 324 323 325 324 325 324 325 324 324 326 326 327 327 327 327 327 327 328 327 327 -193 -193 -193 327 326 327 -193 326 326 325 328 330 331 332 331 330 329 330 329 329 328 328 328 -209 -193 -193 -209 -193 -193 -193 -193 326 325 325 325 326 325 325 323 324 324 326 324 328 325 325 326 326 327 327 326 326 324 327 328 328 327 326 326 326 326 326 326 326 324 325 325 324 324 324 323 325 324 324 325 324 325 324 325 325 325 327 327 326 328 328 328 327 327 327 326 326 326 325 326 325 326 326 326 328 327 327 327 327 326 326 326 326 325 325 326 325 328 328 327 328 327 328 328 328 328 326 326 328 326 328 327 327 327 327 326 326 325 326 324 326 326 327 328 -209 -209 -193 -193 -193 -193 -193 -193 326 326 325 324 323 324 324 323 323 324 323 325 325 324 325 322 325 325 325 325 324 324 324 324 325 -193 323 322 317 320 317 320 319 319 320 321 322 324 322 324 324 325 326 326 325 324 324 323 323 323 324 324 324 325 328 328 328 329 331 326 325 324 323 322 322 322 323 319 322 324 327 327 327 327 -193 -193 325 0 0 0 0 0
    0 0 0 0 0 0 0 0 0 0 0 0 0 0 0 0 0 0 0 0 0 0 0 0 0 0 0 0 0 0 0 0 0 0 0 0 0 0 0 0 0 0 0 0 0 0 0 0 0 0 0 0 0 0 0 0 0 0 0 0 0 0 0 0 0 0 0 0 0 325 325 325 324 325 324 325 324 325 324 324 326 326 327 327 327 327 327 328 328 -193 327 -193 -193 327 327 326 327 -193 326 326 325 327 331 332 333 331 330 329 330 329 329 328 328 327 328 -209 -209 -209 -193 -193 -193 -193 326 325 325 325 325 325 325 323 324 323 325 324 328 326 326 326 327 328 327 327 327 325 327 327 328 327 327 326 -193 327 327 326 327 324 325 324 324 324 324 324 326 325 325 325 325 325 325 325 326 325 327 327 326 328 328 329 327 327 326 325 325 326 325 325 325 326 326 326 328 327 327 327 327 326 326 326 326 326 326 327 326 330 330 329 329 328 329 328 328 329 327 327 328 327 329 328 328 328 327 327 326 326 326 324 325 325 326 328 -209 -209 -209 -209 -193 -193 -193 -193 326 326 325 325 324 324 324 323 324 324 323 324 325 325 325 323 325 324 324 325 324 324 324 324 324 -193 323 323 317 320 318 320 320 321 321 323 324 326 325 327 327 327 327 328 328 326 326 324 324 324 326 326 325 326 330 330 331 333 336 -193 327 325 325 323 323 324 324 321 324 327 330 330 329 330 330 329 329 0 0 0 0 0
    0 0 0 0 0 0 0 0 0 0 0 0 0 0 0 0 0 0 0 0 0 0 0 0 0 0 0 0 0 0 0 0 0 0 0 0 0 0 0 0 0 0 0 0 0 0 0 0 0 0 0 0 0 0 0 0 0 0 0 0 0 0 0 0 0 0 0 0 0 325 325 325 324 325 324 325 324 325 324 324 326 326 327 327 327 327 327 327 328 328 327 328 328 327 327 326 326 326 326 326 326 327 331 332 332 331 330 329 330 329 328 328 327 327 327 -209 -193 -209 -209 -193 -193 -193 325 325 324 324 325 324 324 322 323 322 324 324 328 327 326 327 328 328 328 328 328 326 327 327 328 327 327 327 327 328 327 327 327 325 326 325 324 324 325 324 326 324 325 325 325 325 325 326 326 326 329 328 327 329 328 329 327 326 326 325 325 325 324 325 324 326 326 327 328 327 327 327 327 326 326 325 326 326 326 328 327 330 330 330 330 329 330 329 329 329 328 328 329 328 330 329 329 328 328 327 327 327 327 324 325 325 326 -209 -209 -209 -209 -209 -209 -209 -209 -209 -193 -193 -193 326 -193 325 324 324 324 324 323 324 325 326 326 324 325 324 324 325 324 324 324 324 324 -193 324 -193 321 322 320 321 321 323 323 325 326 327 328 330 331 332 331 331 332 331 330 329 328 327 327 328 328 328 334 333 335 337 339 -209 -193 327 -193 324 325 325 325 322 325 327 331 331 330 331 331 330 330 0 0 0 0 0
    0 0 0 0 0 0 0 0 0 0 0 0 0 0 0 0 0 0 0 0 0 0 0 0 0 0 0 0 0 0 0 0 0 0 0 0 0 0 0 0 0 0 0 0 0 0 0 0 0 0 0 0 0 0 0 0 0 0 0 0 0 0 0 0 0 0 0 0 0 325 325 325 324 325 324 325 324 325 325 324 326 326 327 327 327 327 327 327 328 327 327 327 327 326 327 326 326 327 326 327 -193 329 332 333 332 331 330 329 330 329 329 328 327 327 -193 -193 -193 -193 -209 -209 -209 -193 326 325 325 324 325 324 324 322 322 321 323 325 328 328 328 328 329 329 329 329 328 327 327 326 328 327 327 327 327 328 327 328 328 326 326 325 324 325 325 325 326 325 325 326 325 326 326 326 327 327 330 329 328 330 329 329 327 326 326 325 326 326 325 326 325 327 328 328 330 328 328 328 -193 327 326 326 326 326 327 328 327 330 330 330 331 330 330 329 329 329 329 329 329 328 331 330 330 329 328 328 327 327 -193 -209 326 -193 -209 -209 -209 -209 -209 -209 -209 -209 -209 -209 -209 -193 -193 -193 -193 -193 -193 323 325 324 -193 325 326 328 -193 326 326 325 325 325 324 324 324 324 325 -193 -193 -209 -193 -193 -193 319 320 322 323 325 326 327 329 330 331 334 332 332 333 332 332 333 333 332 329 333 334 334 340 338 338 338 340 342 333 -193 -193 -193 -193 -209 -209 323 326 -209 -193 -193 331 331 330 330 330 0 0 0 0 0
    0 0 0 0 0 0 0 0 0 0 0 0 0 0 0 0 0 0 0 0 0 0 0 0 0 0 0 0 0 0 0 0 0 0 0 0 0 0 0 0 0 0 0 0 0 0 0 0 0 0 0 0 0 0 0 0 0 0 0 0 0 0 0 0 0 0 0 0 0 325 325 326 325 326 325 325 325 325 326 325 326 326 327 327 328 327 327 327 328 327 326 326 327 326 327 -193 -193 328 328 328 -193 330 334 333 332 331 329 329 330 329 329 328 328 328 -193 -193 330 -193 -193 -209 -209 -193 328 328 327 326 326 326 325 324 323 322 324 326 329 329 329 330 330 331 331 330 329 328 327 327 328 -209 -209 -209 -193 329 328 329 328 326 326 325 324 325 326 326 327 326 326 326 326 327 327 327 -209 -209 331 330 330 331 330 330 328 327 327 326 327 328 326 327 327 329 329 329 330 -209 -209 -209 -209 -193 327 327 327 -193 327 329 327 329 329 330 330 329 330 329 328 329 328 329 329 328 331 329 329 328 328 327 327 327 -209 -209 -193 -209 -209 -209 -209 -209 -209 -209 -209 -209 -209 -209 -209 330 329 330 -209 -193 -193 -193 -193 325 -193 -193 -193 -209 -209 -193 326 325 325 325 325 324 324 324 325 -193 -193 -209 -209 -209 -209 -193 -193 -193 322 325 -193 -209 -193 329 330 335 333 333 334 334 335 338 339 339 335 344 345 344 343 341 340 339 340 342 338 337 -193 -209 790 797 -209 -209 -209 -209 -193 -193 -193 -193 332 332 332 0 0 0 0 0
    0 0 0 0 0 0 0 0 0 0 0 0 0 0 0 0 0 0 0 0 0 0 0 0 0 0 0 0 0 0 0 0 0 0 0 0 0 0 0 0 0 0 0 0 0 0 0 0 0 0 0 0 0 0 0 0 0 0 0 0 0 0 0 0 0 0 0 0 0 326 326 326 326 327 326 326 326 326 327 326 327 328 328 327 328 328 328 327 329 328 327 327 328 326 327 327 327 -193 328 -193 -193 332 335 335 334 333 330 330 330 329 329 328 328 328 328 329 -193 -193 331 -209 -193 -193 330 -193 -193 327 328 327 327 326 324 323 325 327 331 330 330 331 332 332 331 331 331 329 329 -193 -209 -209 -209 -209 -209 329 328 329 328 327 326 326 324 325 327 327 327 326 326 327 326 -193 -209 -209 -209 -209 331 331 331 332 331 331 329 327 327 327 328 329 327 328 328 330 331 331 331 -209 -209 -209 -209 -193 -193 -193 -193 -209 -193 329 328 329 -193 329 -209 328 329 329 328 328 328 329 329 329 331 330 330 329 -193 328 328 -209 -209 -209 -209 -209 -209 -209 -209 -209 -209 -209 -209 -193 -209 -209 -193 -193 329 331 -209 -193 -209 -209 -193 -209 -209 -193 -209 -209 -209 -209 -209 -193 325 -193 -193 324 324 325 -193 -209 -209 -209 -209 -209 -209 -209 -209 -209 -209 -209 -209 -209 -193 329 329 336 334 334 336 338 338 341 343 342 341 345 346 346 343 342 341 340 341 343 341 341 -209 -209 790 803 -209 806 -193 -209 -193 340 -193 -209 335 335 335 0 0 0 0 0
    0 0 0 0 0 0 0 0 0 0 0 0 0 0 0 0 0 0 0 0 0 0 0 0 0 0 0 0 0 0 0 0 0 0 0 0 0 0 0 0 0 0 0 0 0 0 0 0 0 0 0 0 0 0 0 0 0 0 0 0 0 0 0 0 0 0 0 0 0 327 327 327 327 329 328 327 326 327 327 326 327 328 328 327 328 328 329 329 330 330 329 -209 330 328 329 328 328 330 330 331 332 334 337 338 336 334 332 331 331 331 329 329 328 -193 -209 -209 -193 -193 333 -209 -193 -209 331 -193 -193 -193 328 327 327 326 325 324 325 328 331 331 331 332 332 332 332 332 331 330 330 330 329 -209 -209 -209 -209 330 329 329 329 328 326 326 324 326 327 327 328 327 326 328 327 -193 -209 -209 -209 -193 333 333 332 333 332 331 -193 -209 -193 -193 329 330 329 330 330 332 332 333 333 -209 -209 -209 -209 613 -193 -209 -209 -209 -209 -193 -193 -209 -193 -193 -209 328 329 329 327 328 328 330 330 330 334 331 331 330 330 329 329 -193 -193 -193 -209 -209 -209 -209 -193 -209 -209 -209 -209 -193 -209 -193 -193 331 329 331 -193 -193 -193 -193 327 -193 -209 -193 -209 -209 -209 -209 -209 -209 -209 -193 -193 -193 -193 325 -209 -209 -209 -209 -209 -209 -209 -209 -209 -209 -209 -209 -209 -209 -209 329 330 -193 -193 336 338 340 340 342 345 344 344 345 346 346 344 342 341 339 341 343 342 342 343 -209 -209 -209 -209 -193 810 -209 -193 342 343 343 339 339 340 0 0 0 0 0
    0 0 0 0 0 0 0 0 0 0 0 0 0 0 0 0 0 0 0 0 0 0 0 0 0 0 0 0 0 0 0 0 0 0 0 0 0 0 0 0 0 0 0 0 0 0 0 0 0 0 0 0 0 0 0 0 0 0 0 0 0 0 0 0 0 0 0 0 0 329 329 -193 329 330 329 -193 327 327 327 326 327 328 328 326 328 328 330 331 331 331 330 -209 330 -193 329 328 328 331 330 332 333 335 338 339 338 335 332 331 330 -193 -209 330 329 -209 -193 -209 -193 -193 334 339 332 -209 332 -193 -193 -193 328 328 328 328 326 326 327 329 333 332 331 333 333 333 333 333 332 330 332 331 330 -209 -193 -193 330 330 329 329 330 329 326 327 325 327 329 329 329 328 328 330 329 331 -193 -193 -193 -193 -193 -193 -209 333 -193 332 -209 -209 -193 -193 330 331 330 330 331 334 334 335 335 -193 -209 -209 -193 612 -193 -209 -209 -209 -209 -209 -193 -209 -209 -209 -209 -209 -209 329 328 -209 -193 331 332 333 338 334 333 332 332 331 330 -209 -193 -209 -193 -209 -209 -209 -209 -209 -209 -209 -209 -209 -209 -209 -209 -209 329 332 -225 -225 -225 -225 -209 -209 -209 -209 -209 -209 -209 -209 -209 -209 -193 -193 -193 -193 -193 -193 -209 -209 -209 -209 -209 -209 -209 -209 -209 -209 -209 -209 -209 -209 -209 329 -209 132 133 -209 -193 342 342 343 346 345 344 345 347 347 344 342 341 340 341 343 343 343 343 344 344 -193 -209 -209 -193 -209 347 -193 346 348 342 342 342 0 0 0 0 0
    0 0 0 0 0 0 0 0 0 0 0 0 0 0 0 0 0 0 0 0 0 0 0 0 0 0 0 0 0 0 0 0 0 0 0 0 0 0 0 0 0 0 0 0 0 0 0 0 0 0 0 0 0 0 0 0 0 0 0 0 0 0 0 0 0 0 0 0 0 331 331 331 331 332 331 330 328 328 328 327 328 329 329 327 329 329 331 332 332 331 -193 -209 330 327 329 328 328 332 331 334 335 337 339 340 339 336 332 332 331 -193 -193 330 -193 -209 -193 -209 -193 -193 333 341 337 -193 335 -193 -193 333 332 332 330 331 329 330 329 332 335 333 333 334 335 335 334 335 334 331 336 -209 -209 -209 -193 331 331 330 330 330 330 329 326 326 326 328 332 332 331 331 331 333 -209 -193 -209 -209 -193 -193 -193 -193 -209 -193 -209 -193 -209 -209 326 -209 330 330 -193 330 331 335 -193 -193 -209 -193 -193 -193 612 611 -193 -209 -209 -209 -209 -193 590 -193 -209 -209 -209 -209 -209 329 -193 -209 -209 -193 332 333 338 334 334 332 -193 331 331 -209 -193 -209 -209 -209 -209 -209 -209 -209 -209 795 -209 -209 -209 -209 -209 -225 -225 -225 -225 -225 -225 -225 -225 -225 -209 -225 -225 -209 -209 -209 -209 -209 -209 -209 -209 -193 -209 -209 -209 -209 -209 -209 -209 -209 -209 -209 -209 -209 -209 -209 -209 -209 -209 -209 -209 132 131 -209 -193 343 343 344 346 346 345 345 347 346 344 342 340 339 341 343 343 343 344 344 345 349 -209 -209 -209 355 351 353 353 355 355 345 345 0 0 0 0 0
    0 0 0 0 0 0 0 0 0 0 0 0 0 0 0 0 0 0 0 0 0 0 0 0 0 0 0 0 0 0 0 0 0 0 0 0 0 0 0 0 0 0 0 0 0 0 0 0 0 0 0 0 0 0 0 0 0 0 0 0 0 0 0 0 0 0 0 0 0 332 333 334 333 334 333 331 329 -193 -193 328 329 330 329 327 331 330 333 333 332 332 -193 -209 -193 328 330 329 329 337 334 336 337 339 340 340 339 336 332 332 331 -193 -209 -209 -209 -193 -193 -193 -193 933 333 341 341 342 338 340 340 340 337 338 334 336 332 333 330 332 336 334 334 335 336 337 336 338 337 333 342 -193 -209 -209 -193 332 331 330 330 329 330 330 327 328 327 330 335 338 334 334 332 334 -209 -193 -209 488 -209 -209 -209 -209 -209 -209 -209 -209 -209 -209 -209 -209 -193 330 -209 -193 -209 -209 -209 -209 -209 616 615 615 611 610 -193 -193 599 -193 -193 -193 592 596 -209 611 -209 -209 -209 330 -193 -209 -209 -209 -193 -193 340 334 336 -209 -209 -209 -209 -193 -193 -209 -209 -209 -209 -209 -209 -209 -209 -193 -209 -209 -225 -225 -225 -225 -225 -225 -225 -225 -225 -225 -225 -225 -225 -225 -225 -225 -225 -209 -209 -209 -209 -209 -209 -209 -209 -209 -209 -209 -209 -209 -209 -209 -209 -209 -209 -209 -209 -209 -209 -209 -209 -209 -193 128 -177 -209 -193 -193 343 344 346 346 345 345 346 346 345 342 341 340 342 344 344 344 345 345 347 351 -209 -209 -209 359 359 361 360 358 363 351 357 0 0 0 0 0
    0 0 0 0 0 0 0 0 0 0 0 0 0 0 0 0 0 0 0 0 0 0 0 0 0 0 0 0 0 0 0 0 0 0 0 0 0 0 0 0 0 0 0 0 0 0 0 0 0 0 0 0 0 0 0 0 0 0 0 0 0 0 0 0 0 0 0 0 0 335 337 339 338 338 336 335 -193 -193 -193 -193 -193 330 330 327 331 331 334 336 335 333 -209 -209 -209 -193 333 331 331 342 339 339 338 339 340 340 339 335 332 331 330 -209 -209 -209 -209 -193 -193 -193 926 -193 333 -209 -209 -193 340 340 341 342 340 340 338 338 335 337 332 334 337 334 335 337 338 339 339 340 339 336 344 -209 -209 -209 334 334 333 330 -193 -193 -209 -209 326 327 327 331 340 348 -209 -209 -209 -209 -193 75 81 -209 73 72 -209 -209 -209 -209 -193 -209 -209 -209 -209 -209 -193 -193 -209 -209 -209 -209 497 494 -193 614 615 615 612 -193 -193 -209 599 -193 -193 -193 -193 -209 -209 -193 351 -225 -225 -225 -225 -225 -225 -209 -225 -225 -225 -225 -209 -209 -209 -209 -209 -193 -193 -209 -209 -209 -209 -209 -209 -193 -209 -209 -209 -209 -225 -225 -225 -225 -225 -225 -225 -225 -225 -225 -225 -225 -225 -225 -225 -225 -225 -225 -225 -209 -209 -209 -209 -209 -209 -209 -209 -209 -209 -209 -209 -209 -209 -209 -209 -209 -209 -209 -209 -209 -209 -209 118 124 -177 -177 -209 -209 -209 345 347 346 345 345 346 346 346 343 342 342 343 345 348 350 349 347 352 357 362 364 364 362 362 362 363 361 364 360 361 0 0 0 0 0
    0 0 0 0 0 0 0 0 0 0 0 0 0 0 0 0 0 0 0 0 0 0 0 0 0 0 0 0 0 0 0 0 0 0 0 0 0 0 0 0 0 0 0 0 0 0 0 0 0 0 0 0 0 0 0 0 0 0 0 0 0 0 0 0 0 0 0 0 0 340 341 342 342 341 341 -209 -209 466 464 -193 -193 331 330 327 -193 -193 336 -193 337 335 -209 -209 -209 -209 340 341 341 345 342 342 340 341 341 341 340 338 333 332 331 -193 -209 -209 -209 -193 -193 -193 -193 -193 333 -209 343 344 340 340 341 342 341 342 340 340 338 341 335 338 338 336 337 339 339 340 339 341 340 338 -209 -209 -209 -209 -193 -193 335 -193 -209 -209 -209 461 323 326 -225 -225 -225 -225 -225 -225 -225 -225 -225 -225 -225 -225 -225 -225 -225 -225 531 -225 -225 -209 -193 630 -209 332 -193 -193 -209 -209 -209 -177 495 493 -193 614 614 614 612 -193 -193 -209 -209 -209 -193 -193 -193 -209 -225 -225 -225 -225 -225 -225 -225 -225 -225 -225 -225 -225 -225 -225 -225 -225 -225 -225 -225 -225 -225 -209 -209 -209 -209 -209 -209 -225 -209 -209 -225 -225 -225 -225 -225 -225 -225 -225 -225 -225 -225 -225 -225 -225 -225 -225 -225 -225 -225 -225 -225 -225 -209 -209 -209 -209 -209 -209 78 -209 -209 -209 -209 -209 -209 -209 -209 -209 -209 -209 -209 -209 -209 104 109 114 -177 -177 -177 -209 -209 346 347 347 345 345 345 346 345 341 341 343 345 346 355 358 358 353 357 360 364 366 364 364 364 363 364 363 366 362 362 0 0 0 0 0
    0 0 0 0 0 0 0 0 0 0 0 0 0 0 0 0 0 0 0 0 0 0 0 0 0 0 0 0 0 0 0 0 0 0 0 0 0 0 0 0 0 0 0 0 0 0 0 0 0 0 0 0 0 0 0 0 0 0 0 0 0 0 0 0 0 0 0 0 0 342 343 344 344 343 344 -209 468 465 463 463 463 331 330 -193 -193 -193 -193 -193 -193 -193 -193 -209 -193 -193 -193 343 344 347 343 343 340 341 341 341 341 339 334 -193 332 -193 -209 246 -193 -193 256 -209 -193 -209 -209 -209 -209 -193 -193 340 342 342 342 -193 342 342 -225 343 341 340 340 337 338 340 341 341 340 341 -193 340 -209 -209 -209 -193 338 338 337 -225 -225 -225 -225 -225 -225 -225 -225 -225 -225 -225 -225 -225 -225 -225 -225 -225 -225 -225 -225 -225 -225 -225 -225 -225 -225 -225 -225 -225 -225 -225 -225 -225 -225 -225 -225 -225 -225 494 -193 -225 -225 -225 -225 -225 -225 -225 -225 -225 -225 -225 -225 -225 -225 -225 -225 -225 -225 -225 -225 -225 -225 -225 -225 -225 -225 -225 -225 -225 -225 -225 -225 -225 -225 -225 -225 -225 -225 -225 -225 -225 -225 -225 -225 -225 -225 -225 -225 -225 -225 -225 -225 -225 -225 -225 -225 -225 -225 -225 -225 -225 -225 -225 -225 -225 -225 -209 -209 -209 -209 68 73 84 79 -209 -209 -209 -209 -209 -209 -209 -209 -209 -177 -209 -209 102 104 104 -177 -177 -177 -193 -209 -193 350 350 347 -209 -209 -209 -209 -209 338 342 346 346 356 359 363 -209 359 362 367 370 366 365 365 364 364 363 366 362 362 0 0 0 0 0
    0 0 0 0 0 0 0 0 0 0 0 0 0 0 0 0 0 0 0 0 0 0 0 0 0 0 0 0 0 0 0 0 0 0 0 0 0 0 0 0 0 0 0 0 0 0 0 0 0 0 0 0 0 0 0 0 0 0 0 0 0 0 0 0 0 0 0 0 0 343 345 347 346 -193 -193 -193 467 466 465 465 464 -193 -193 455 454 -193 -193 -193 -193 -193 -193 -193 -193 -193 -193 341 340 345 342 341 338 339 340 341 341 340 336 -193 -193 -193 -209 -209 -225 -225 -225 -225 -225 -193 -209 -193 -209 -209 -209 340 -193 343 -209 93 94 -225 -225 -225 -225 -225 -225 -225 339 341 342 342 341 342 -193 -193 346 -209 -225 -225 -225 -225 -225 -225 -225 -225 -225 -225 -225 -225 -225 -225 -225 -225 -225 -225 -225 -225 -225 -225 -225 -225 -225 -225 -225 -225 -225 -225 -225 -225 -225 -225 -225 -225 -225 -225 -225 -225 -225 -225 -225 -225 -225 -225 -225 -225 -225 -225 -225 -225 -225 -225 -225 -225 -225 -225 -225 -225 -225 -225 -225 -225 -225 -225 -225 -225 -225 -225 -225 -225 -225 -225 -225 -225 -225 -225 -225 -225 -225 -225 -225 -225 -225 -225 -225 -225 -225 -225 -225 -225 -225 -225 -225 -225 -225 -225 -225 -225 -225 -225 -225 -225 -225 -225 -225 -225 -225 -225 -225 -225 -209 -209 57 64 71 -209 -209 -209 -209 -209 -209 -209 -209 -209 -209 -209 -209 -209 -209 99 100 100 101 99 -177 -177 -193 -209 -209 -209 -209 -209 -209 -209 -209 -209 -209 -209 347 347 357 359 367 -193 367 368 369 370 366 366 367 365 365 364 367 364 363 0 0 0 0 0
    0 0 0 0 0 0 0 0 0 0 0 0 0 0 0 0 0 0 0 0 0 0 0 0 0 0 0 0 0 0 0 0 0 0 0 0 0 0 0 0 0 0 0 0 0 0 0 0 0 0 0 0 0 0 0 0 0 0 0 0 0 0 0 0 0 0 0 0 0 343 346 -193 462 461 465 470 469 469 469 468 467 462 464 460 455 456 -225 178 179 -225 -225 -193 -193 -193 -193 -225 339 344 -177 342 338 339 340 342 342 341 -193 -193 -209 -225 -225 -225 -225 -225 -225 -225 -225 -225 -225 -225 -225 -225 -225 -225 -225 -225 -225 -225 -225 -225 -225 -225 -225 -225 -225 -225 -225 -225 -225 -225 -225 -225 -225 -225 -225 -225 -225 -225 -225 -225 -225 -225 -225 -225 -225 -225 -225 -225 -225 -225 -225 -225 -225 -225 -225 -225 -225 -225 -225 -225 -225 -225 -225 -225 -225 -225 -225 -225 -225 -225 -225 -225 -225 -225 -225 -225 -225 -225 -225 -225 -225 -225 -225 -225 -225 -225 -225 -225 -225 -225 -225 -225 -225 -225 -225 -225 -225 -225 -225 -225 -225 -225 -225 -225 -225 -225 -225 -225 -225 -225 -225 -225 -225 -225 -225 -225 -225 -225 -225 -225 -225 -225 -225 -225 -225 -225 -225 -225 -225 -225 -225 -225 -225 -225 -225 -225 -225 -225 -225 -225 -225 -225 -225 -225 -225 -225 -225 -225 -209 -209 -209 -209 -209 -209 -209 -209 -209 -209 -209 -209 -209 -209 -209 -209 -209 -209 -209 95 97 97 98 96 -177 -177 97 -209 -209 -209 294 -209 -209 -209 -209 -209 -209 -209 -209 -209 358 362 375 381 -193 373 372 368 365 366 367 365 364 364 368 365 365 0 0 0 0 0
    0 0 0 0 0 0 0 0 0 0 0 0 0 0 0 0 0 0 0 0 0 0 0 0 0 0 0 0 0 0 0 0 0 0 0 0 0 0 0 0 0 0 0 0 0 0 0 0 0 0 0 0 0 0 0 0 0 0 0 0 0 0 0 0 0 0 0 0 0 342 345 -193 458 460 465 470 469 470 469 -225 -225 -225 -225 -225 -225 -225 -225 -225 -225 -225 -225 -225 -225 -225 -225 -225 -225 -225 -225 -225 -225 -225 -225 -225 -225 -225 -225 -225 -225 -225 -225 -225 -225 -225 -225 -225 -225 -225 -225 -225 -225 -225 -225 -225 -225 -225 -225 -225 -225 -225 -225 -225 -225 -225 -225 -225 -225 -225 -225 -225 -225 -225 -225 -225 -225 -225 -225 -225 -225 -225 -225 -225 -225 -225 -225 -225 -225 -225 -225 -225 -225 -225 -225 -225 -225 -225 -225 -225 -225 -225 -225 -225 -225 -225 -225 -225 -225 -225 -225 -225 -225 -225 -225 -225 -225 -225 -225 -225 -225 -225 -225 -225 -225 -225 -225 -225 -225 -225 -225 -225 -225 -225 -225 -225 -225 -225 -225 -225 -225 -225 -225 -225 -225 -225 -225 -225 -225 -225 -225 -225 -225 -225 -225 -225 -225 -225 -225 -225 -225 -225 -225 -225 -225 -225 -225 -225 -225 -225 -225 -225 -225 -225 -225 -225 -225 -225 -225 -225 -225 -225 -225 -225 -225 -225 -225 -225 -225 -225 -209 -209 -209 -209 -209 -209 -209 -209 -209 -209 -209 -209 -209 -209 -209 -209 -209 -209 -209 94 96 96 97 94 -177 -177 95 93 95 -209 -209 -209 -209 -209 -209 -209 -209 -209 -209 -209 363 370 377 384 381 -193 375 367 -193 -193 -193 364 364 363 369 367 367 0 0 0 0 0
    0 0 0 0 0 0 0 0 0 0 0 0 0 0 0 0 0 0 0 0 0 0 0 0 0 0 0 0 0 0 0 0 0 0 0 0 0 0 0 0 0 0 0 0 0 0 0 0 0 0 0 0 0 0 0 0 0 0 0 0 0 0 0 0 0 0 0 0 0 -225 -225 -225 -225 -225 -225 -225 -225 -225 -225 -225 -225 -225 -225 -225 -225 -225 -225 -225 -225 -225 -225 -225 -225 -225 -225 -225 -225 -225 -225 -225 -225 -225 -225 -225 -225 -225 -225 -225 -225 -225 -225 -225 -225 -225 -225 -225 -225 -225 -225 -225 -225 -225 -225 -225 -225 -225 -225 -225 -225 -225 -225 -225 -225 -225 -225 -225 -225 -225 -225 -225 -225 -225 -225 -225 -225 -225 -225 -225 -225 -225 -225 -225 -225 -225 -225 -225 -225 -225 -225 -225 -225 -225 -225 -225 -225 -225 -225 -225 -225 -225 -225 -225 -225 -225 -225 -225 -225 -225 -225 -225 -225 -225 -225 -225 -225 -225 -225 -225 -225 -225 -225 -225 -225 -225 -225 -225 -225 -225 -225 -225 -225 -225 -225 -225 -225 -225 -225 -225 -225 -225 -225 -225 -225 -225 -225 -225 -225 -225 -225 -225 -225 -225 -225 -225 -225 -225 -225 -225 -225 -225 -225 -225 -225 -225 -225 -225 -225 -225 -225 -225 -225 -225 -225 -225 -225 -225 -225 -225 -225 -225 -225 -225 -225 -225 -225 -225 -225 -225 -209 -209 -209 -209 -209 -209 -209 -209 -209 -209 -209 -209 -209 -209 -209 -209 -209 -209 99 95 97 96 98 94 -177 -177 -177 94 -193 -209 -209 -209 -209 -209 -209 -209 -209 -209 -209 -209 -209 373 377 387 384 -209 -209 -209 -209 527 -193 -193 364 363 370 369 368 0 0 0 0 0
    0 0 0 0 0 0 0 0 0 0 0 0 0 0 0 0 0 0 0 0 0 0 0 0 0 0 0 0 0 0 0 0 0 0 0 0 0 0 0 0 0 0 0 0 0 0 0 0 0 0 0 0 0 0 0 0 0 0 0 0 0 0 0 0 0 0 0 0 0 -225 -225 -225 -225 -225 -225 -225 -225 -225 -225 -225 -225 -225 -225 -225 -225 -225 -225 -225 -225 -225 -225 -225 -225 -225 -225 -225 -225 -225 -225 -225 -225 -225 -225 -225 -225 -225 -225 -225 -225 -225 -225 -225 -225 -225 -225 -225 -225 -225 -225 -225 -225 -225 -225 -225 -225 -225 -225 -225 -225 -225 -225 -225 -225 -225 -225 -225 -225 -225 -225 -225 -225 -225 -225 -225 -225 -225 -225 -225 -225 -225 -225 -225 -225 -225 -225 -225 -225 -225 -225 -225 -225 -225 -225 -225 -225 -225 -225 -225 -225 -225 -225 -225 -225 -225 -225 -225 -225 -225 -225 -225 -225 -225 -225 -225 -225 -225 -225 -225 -225 -225 -225 -225 -225 -225 -225 -225 -225 -225 -225 -225 -225 -225 -225 -225 -225 -225 -225 -225 -225 -225 -225 -225 -225 -225 -225 -225 -225 -225 -225 -225 -225 -225 -225 -225 -225 -225 -225 -225 -225 -225 -225 -225 -225 -225 -225 -225 -225 -225 -225 -225 -225 -225 -225 -225 -225 -225 -225 -225 -225 -225 -225 -225 -225 -225 -225 -225 -225 -225 -209 -209 -209 -209 -209 -209 -209 -209 -209 -209 -209 -209 -209 -209 -209 -209 -209 -209 -209 99 101 100 101 98 95 99 98 96 99 -209 -209 -209 -209 -209 -209 -209 -209 -209 -209 -209 -209 -193 -177 -177 -209 -209 -209 -209 -209 531 -209 -209 365 365 371 372 366 0 0 0 0 0
    0 0 0 0 0 0 0 0 0 0 0 0 0 0 0 0 0 0 0 0 0 0 0 0 0 0 0 0 0 0 0 0 0 0 0 0 0 0 0 0 0 0 0 0 0 0 0 0 0 0 0 0 0 0 0 0 0 0 0 0 0 0 0 0 0 0 0 0 0 -225 -225 -225 -225 -225 -225 -225 -225 -225 -225 -225 -225 -225 -225 -225 -225 -225 -225 -225 -225 -225 -225 -225 -225 -225 -225 -225 -225 -225 -225 -225 -225 -225 -225 -225 -225 -225 -225 -225 -225 -225 -225 -225 -225 -225 -225 -225 -225 -225 -225 -225 -225 -225 -225 -225 -225 -225 -225 -225 -225 -225 -225 -225 -225 -225 -225 -225 -225 -225 -225 -225 -225 -225 -225 -225 -225 -225 -225 -225 -225 -225 -225 -225 -225 -225 -225 -225 -225 -225 -225 -225 -225 -225 -225 -225 -225 -225 -225 -225 -225 -225 -225 -225 -225 -225 -225 -225 -225 -225 -225 -225 -225 -225 -225 -225 -225 -225 -225 -225 -225 -225 -225 -225 -225 -225 -225 -225 -225 -225 -225 -225 -225 -225 -225 -225 -225 -225 -225 -225 -225 -225 -225 -225 -225 -225 -225 -225 -225 -225 -225 -225 -225 -225 -225 -225 -225 -225 -225 -225 -225 -225 -225 -225 -225 -225 -225 -225 -225 -225 -225 -225 -225 -225 -225 -225 -225 -225 -225 -225 -225 -225 -225 -225 -225 -225 -225 -225 -225 -225 -209 -209 -209 -209 -209 -209 -209 -209 -209 -209 -209 -209 -209 -209 -209 -209 -209 -209 -209 -209 100 100 101 98 94 99 97 95 -193 -209 -209 -209 -209 -209 -193 -209 -209 -209 -209 -209 -209 -209 -209 395 -209 -209 -209 -209 -209 -209 -209 -209 -209 -209 -209 -209 -209 0 0 0 0 0
    0 0 0 0 0 0 0 0 0 0 0 0 0 0 0 0 0 0 0 0 0 0 0 0 0 0 0 0 0 0 0 0 0 0 0 0 0 0 0 0 0 0 0 0 0 0 0 0 0 0 0 0 0 0 0 0 0 0 0 0 0 0 0 0 0 0 0 0 0 -225 -225 -225 -225 -225 -225 -225 -225 -225 -225 -225 -225 -225 -225 -225 -225 -225 -225 -225 -225 -225 -225 -225 -225 -225 -225 -225 -225 -225 -225 -225 -225 -225 -225 -225 -225 -225 -225 -225 -225 -225 -225 -225 -225 -225 -225 -225 -225 -225 -225 -225 -225 -225 -225 -225 -225 -225 -225 -225 -225 -225 -225 -225 -225 -225 -225 -225 -225 -225 -225 -225 -225 -225 -225 -225 -225 -225 -225 -225 -225 -225 -225 -225 -225 -225 -225 -225 -225 -225 -225 -225 -225 -225 -225 -225 -225 -225 -225 -225 -225 -225 -225 -225 -225 -225 -225 -225 -225 -225 -225 -225 -225 -225 -225 -225 -225 -225 -225 -225 -225 -225 -225 -225 -225 -225 -225 -225 -225 -225 -225 -225 -225 -225 -225 -225 -225 -225 -225 -225 -225 -225 -225 -225 -225 -225 -225 -225 -225 -225 -225 -225 -225 -225 -225 -225 -225 -225 -225 -225 -225 -225 -225 -225 -225 -225 -225 -225 -225 -225 -225 -225 -225 -225 -225 -225 -225 -225 -225 -225 -225 -225 -225 -225 -225 -225 -225 -225 -225 -225 -209 -209 -209 -209 -209 -209 -209 -209 -209 -209 -209 -209 -209 -209 -209 -209 -209 -209 -209 -209 -209 -209 98 -209 91 96 -209 -209 -193 -209 -209 -209 -193 -193 0 0 -209 -209 -209 -209 -209 -209 -209 -209 -209 -193 -209 -209 -209 -209 -209 -209 660 666 -209 -209 -209 0 0 0 0 0
    0 0 0 0 0 0 0 0 0 0 0 0 0 0 0 0 0 0 0 0 0 0 0 0 0 0 0 0 0 0 0 0 0 0 0 0 0 0 0 0 0 0 0 0 0 0 0 0 0 0 0 0 0 0 0 0 0 0 0 0 0 0 0 0 0 0 0 0 0 -225 -225 -225 -225 -225 -225 -225 -225 -225 -225 -225 -225 -225 -225 -225 -225 -225 -225 -225 -225 -225 -225 -225 -225 -225 -225 -225 -225 -225 -225 -225 -225 -225 -225 -225 -225 -225 -225 -225 -225 -225 -225 -225 -225 -225 -225 -225 -225 -225 -225 -225 -225 -225 -225 -225 -225 -225 -225 -225 -225 -225 -225 -225 -225 -225 -225 -225 -225 -225 -225 -225 -225 -225 -225 -225 -225 -225 -225 -225 -225 -225 -225 -225 -225 -225 -225 -225 -225 -225 -225 -225 -225 -225 -225 -225 -225 -225 -225 -225 -225 -225 -225 -225 -225 -225 -225 -225 -225 -225 -225 -225 -225 -225 -225 -225 -225 -225 -225 -225 -225 -225 -225 -225 -225 -225 -225 -225 -225 -225 -225 -225 -225 -225 -225 -225 -225 -225 -225 -225 -225 -225 -225 -225 -225 -225 -225 -225 -225 -225 -225 -225 -225 -225 -225 -225 -225 -225 -225 -225 -225 -225 -225 -225 -225 -225 -225 -225 -225 -225 -209 -209 -209 -209 -209 -209 -209 -209 -225 -225 -225 -225 -225 -225 -225 -225 -225 -225 -225 -209 -209 -209 -209 -209 -209 -209 -209 -209 -209 -209 -209 -209 -209 -209 -209 -209 -209 -209 -209 -209 -209 -209 -209 -209 -209 95 -209 -209 -193 -209 -209 -209 -193 -209 0 -193 -209 -209 -209 -209 -209 -209 -209 417 419 -193 421 -209 -209 -209 -209 -209 660 -209 -209 -209 -209 0 0 0 0 0
    0 0 0 0 0 0 0 0 0 0 0 0 0 0 0 0 0 0 0 0 0 0 0 0 0 0 0 0 0 0 0 0 0 0 0 0 0 0 0 0 0 0 0 0 0 0 0 0 0 0 0 0 0 0 0 0 0 0 0 0 0 0 0 0 0 0 0 0 0 -225 -225 -225 -225 -225 -225 -225 -225 -225 -225 -225 -225 -225 -225 -225 -225 -225 -225 -225 -225 -225 -225 -225 -225 -225 -225 -225 -225 -225 -225 -225 -225 -225 -225 -225 -225 -225 -225 -225 -225 -225 -225 -225 -225 -225 -225 -225 -225 -225 -225 -225 -225 -225 -225 -225 -225 -225 -225 -225 -225 -225 -225 -225 -225 -225 -225 -225 -225 -225 -225 -225 -225 -225 -225 -225 -225 -225 -225 -225 -225 -225 -225 -225 -225 -225 -225 -225 -225 -225 -225 -225 -225 -225 -225 -225 -225 -225 -225 -225 -225 -225 -225 -225 -225 -225 -225 -225 -225 -225 -225 -225 -225 -225 -225 -225 -225 -225 -225 -225 -225 -225 -225 -225 -225 -225 -225 -225 -225 -225 -225 -225 -225 -225 -225 -225 -225 -225 -225 -225 -225 -225 -225 -225 -225 -225 -225 -225 -225 -225 -225 -225 -225 -225 -225 -225 -225 -225 -225 -225 -225 -225 -225 -225 -225 -225 -225 -225 -225 -209 -209 -209 -209 -209 -209 -209 -209 -209 -209 -209 -225 -225 -225 -225 -225 -225 -225 -225 -225 -209 -209 -209 -209 -209 -209 -209 -209 -209 -209 -209 -209 -209 -209 -209 -209 -209 -209 -209 -209 -209 -209 -209 -209 -209 -209 -209 -209 -209 -209 -209 -209 -193 -193 -209 -193 -193 93 88 -209 -209 -209 -209 -209 421 421 420 423 423 -209 -209 -209 -209 658 -209 -209 -209 -209 0 0 0 0 0
    0 0 0 0 0 0 0 0 0 0 0 0 0 0 0 0 0 0 0 0 0 0 0 0 0 0 0 0 0 0 0 0 0 0 0 0 0 0 0 0 0 0 0 0 0 0 0 0 0 0 0 0 0 0 0 0 0 0 0 0 0 0 0 0 0 0 0 0 0 -225 -225 -225 -225 -225 -225 -225 -225 -225 -225 -225 -225 -225 -225 -225 -225 -225 -225 -225 -225 -225 -225 -225 -225 -225 -225 -225 -225 -225 -225 -225 -225 -225 -225 -225 -225 -225 -225 -225 -225 -225 -225 -225 -225 -225 -225 -225 -225 -225 -225 -225 -225 -225 -225 -225 -225 -225 -225 -225 -225 -225 -225 -225 -225 -225 -225 -225 -225 -225 -225 -225 -225 -225 -225 -225 -225 -225 -225 -225 -225 -225 -225 -225 -225 -225 -225 -225 -225 -225 -225 -225 -225 -225 -225 -225 -225 -225 -225 -225 -225 -225 -225 -225 -225 -225 -225 -225 -225 -225 -225 -225 -225 -225 -225 -225 -225 -225 -225 -225 -225 -225 -225 -225 -225 -225 -225 -225 -225 -225 -225 -225 -225 -225 -225 -225 -225 -225 -225 -225 -225 -225 -225 -225 -225 -225 -225 -225 -225 -225 -225 -225 -225 -225 -225 -225 -225 -225 -225 -225 -225 -225 -225 -225 -225 -225 -225 -225 -225 -209 -209 -209 -209 -209 -209 -209 -209 -209 -209 -209 -209 -225 -225 -225 -225 -225 -225 -225 -209 -209 -209 -209 -209 -209 -209 -209 -209 -209 -209 -209 -209 -209 -209 -209 -209 -209 -209 -209 -209 -209 -209 -209 -209 -209 -209 -209 -209 -209 -209 -209 -209 -193 95 -193 -193 -193 94 -193 -193 -209 -209 -209 -209 422 422 421 423 -193 -193 -209 -209 -209 -193 -193 -209 -209 -209 0 0 0 0 0
    0 0 0 0 0 0 0 0 0 0 0 0 0 0 0 0 0 0 0 0 0 0 0 0 0 0 0 0 0 0 0 0 0 0 0 0 0 0 0 0 0 0 0 0 0 0 0 0 0 0 0 0 0 0 0 0 0 0 0 0 0 0 0 0 0 0 0 0 0 -225 -225 -225 -225 -225 -225 -225 -225 -225 -225 -225 -225 -225 -225 -225 -225 -225 -225 -225 -225 -225 -225 -225 -225 -225 -225 -225 -225 -225 -225 -225 -225 -225 -225 -225 -225 -225 -225 -225 -225 -225 -225 -225 -225 -225 -225 -225 -225 -225 -225 -225 -225 -225 -225 -225 -225 -225 -225 -225 -225 -225 -225 -225 -225 -225 -225 -225 -225 -225 -225 -225 -225 -225 -225 -225 -225 -225 -225 -225 -225 -225 -225 -225 -225 -225 -225 -225 -225 -225 -225 -225 -225 -225 -225 -225 -225 -225 -225 -225 -225 -225 -225 -225 -225 -225 -225 -225 -225 -225 -225 -225 -225 -225 -225 -225 -225 -225 -225 -225 -225 -225 -225 -225 -225 -225 -225 -225 -225 -225 -225 -225 -225 -225 -225 -225 -225 -225 -225 -225 -225 -225 -225 -225 -225 -225 -225 -225 -225 -225 -225 -225 -225 -225 -225 -225 -225 -225 -225 -225 -225 -225 -225 -225 -225 -225 -225 -225 -225 -209 -209 -209 -209 -209 -209 -209 -209 -209 -209 -209 -209 -209 -209 -209 -225 -225 -225 -209 -209 -209 -209 -209 -209 -209 -209 -209 -209 -209 -209 -209 -209 -209 -209 -209 -209 -209 -209 -209 -209 -209 -177 -177 -177 -209 -209 -209 -209 -209 -209 -209 -209 -193 -193 -209 -209 -193 -193 -209 -209 -209 -209 -209 -209 -193 424 424 425 427 -193 -193 -193 -209 -193 -209 -193 -209 -209 0 0 0 0 0
    0 0 0 0 0 0 0 0 0 0 0 0 0 0 0 0 0 0 0 0 0 0 0 0 0 0 0 0 0 0 0 0 0 0 0 0 0 0 0 0 0 0 0 0 0 0 0 0 0 0 0 0 0 0 0 0 0 0 0 0 0 0 0 0 0 0 0 0 0 -225 -225 -225 -225 -225 -225 -225 -225 -225 -225 -225 -225 -225 -225 -225 -225 -225 -225 -225 -225 -225 -225 -225 -225 -225 -225 -225 -225 -225 -225 -225 -225 -225 -225 -225 -225 -225 -225 -225 -225 -225 -225 -225 -225 -225 -225 -225 -225 -225 -225 -225 -225 -225 -225 -225 -225 -225 -225 -225 -225 -225 -225 -225 -225 -225 -225 -225 -225 -225 -225 -225 -225 -225 -225 -225 -225 -225 -225 -225 -225 -225 -225 -225 -225 -225 -225 -225 -225 -225 -225 -225 -225 -225 -225 -225 -225 -225 -225 -225 -225 -225 -225 -225 -225 -225 -225 -225 -225 -225 -225 -225 -225 -225 -225 -225 -225 -225 -225 -225 -225 -225 -225 -225 -225 -225 -225 -225 -225 -225 -225 -225 -225 -225 -225 -225 -225 -225 -225 -225 -225 -225 -225 -225 -225 -225 -225 -225 -225 -225 -225 -225 -225 -225 -225 -225 -225 -225 -225 -225 -225 -225 -225 -225 -225 -225 -225 -225 -225 -209 -209 -209 -209 -209 -209 -209 -209 -209 -209 -209 -209 -209 -209 -209 -209 -209 -209 -209 -209 -209 -209 -209 -209 -209 -209 -209 -209 -209 -209 -209 -209 -209 -209 -209 -209 -209 -209 -209 -209 -209 -177 -177 -177 -177 -209 -193 -209 -209 -209 -209 -209 -209 -193 -209 -209 -209 -209 -209 -209 -209 -193 -209 -209 426 426 427 428 431 431 430 430 -209 658 -209 -193 427 -209 0 0 0 0 0
    0 0 0 0 0 0 0 0 0 0 0 0 0 0 0 0 0 0 0 0 0 0 0 0 0 0 0 0 0 0 0 0 0 0 0 0 0 0 0 0 0 0 0 0 0 0 0 0 0 0 0 0 0 0 0 0 0 0 0 0 0 0 0 0 0 0 0 0 0 -225 -225 -225 -225 -225 -225 -225 -225 -225 -225 -225 -225 -225 -225 -225 -225 -225 -225 -225 -225 -225 -225 -225 -225 -225 -225 -225 -225 -225 -225 -225 -225 -225 -225 -225 -225 -225 -225 -225 -225 -225 -225 -225 -225 -225 -225 -225 -225 -225 -225 -225 -225 -225 -225 -225 -225 -225 -225 -225 -225 -225 -225 -225 -225 -225 -225 -225 -225 -225 -225 -225 -225 -225 -225 -225 -225 -225 -225 -225 -225 -225 -225 -225 -225 -225 -225 -225 -225 -225 -225 -225 -225 -225 -225 -225 -225 -225 -225 -225 -225 -225 -225 -225 -225 -225 -225 -225 -225 -225 -225 -225 -225 -225 -225 -225 -225 -225 -225 -225 -225 -225 -225 -225 -225 -225 -225 -225 -225 -225 -225 -225 -225 -225 -225 -225 -225 -225 -225 -225 -225 -225 -225 -225 -225 -225 -225 -225 -225 -225 -225 -225 -225 -225 -225 -225 -225 -225 -225 -225 -225 -225 -225 -225 -225 -225 -225 -225 -225 -209 -209 -209 -209 -209 -209 -209 -209 -209 -209 -209 -209 -209 -209 -209 -209 -209 -209 -209 -209 -209 -209 -209 -209 -209 -209 -209 -209 -209 -209 -209 -209 -209 -209 -209 -209 -209 -209 -209 -209 -193 -177 -177 -177 -177 -209 -193 -209 -209 -209 -209 -209 -209 -209 -209 -209 -209 -209 -209 -209 -209 -209 -209 -209 429 429 430 433 436 438 436 -193 -209 656 -209 -193 -193 -209 0 0 0 0 0
    0 0 0 0 0 0 0 0 0 0 0 0 0 0 0 0 0 0 0 0 0 0 0 0 0 0 0 0 0 0 0 0 0 0 0 0 0 0 0 0 0 0 0 0 0 0 0 0 0 0 0 0 0 0 0 0 0 0 0 0 0 0 0 0 0 0 0 0 0 -225 -225 -225 -225 -225 -225 -225 -225 -225 -225 -225 -225 -225 -225 -225 -225 -225 -225 -225 -225 -225 -225 -225 -225 -225 -225 -225 -225 -225 -225 -225 -225 -225 -225 -225 -225 -225 -225 -225 -225 -225 -225 -225 -225 -225 -225 -225 -225 -225 -225 -225 -225 -225 -225 -225 -225 -225 -225 -225 -225 -225 -225 -225 -225 -225 -225 -225 -225 -225 -225 -225 -225 -225 -225 -225 -225 -225 -225 -225 -225 -225 -225 -225 -225 -225 -225 -225 -225 -225 -225 -225 -225 -225 -225 -225 -225 -225 -225 -225 -225 -225 -225 -225 -225 -225 -225 -225 -225 -225 -225 -225 -225 -225 -225 -225 -225 -225 -225 -225 -225 -225 -225 -225 -225 -225 -225 -225 -225 -225 -225 -225 -225 -225 -225 -225 -225 -225 -225 -225 -225 -225 -225 -225 -225 -225 -225 -225 -225 -225 -225 -225 -225 -225 -225 -225 -225 -225 -225 -225 -225 -225 -225 -225 -225 -225 -225 -225 -225 -209 -209 -209 -209 -209 -209 -209 -209 -209 -209 -209 -209 -209 -209 -209 -209 -209 -209 -209 -209 -209 -209 -209 -209 -209 -209 -209 -209 -209 -209 -209 -209 -209 -209 -209 -209 -209 -209 -209 -209 -193 -177 -177 -177 46 42 -193 -209 -209 -209 -209 -209 -209 -209 -209 -209 -209 -209 -209 -209 -193 100 -209 -209 431 433 434 437 439 441 -193 -193 -209 654 -209 -209 -209 -209 0 0 0 0 0
    0 0 0 0 0 0 0 0 0 0 0 0 0 0 0 0 0 0 0 0 0 0 0 0 0 0 0 0 0 0 0 0 0 0 0 0 0 0 0 0 0 0 0 0 0 0 0 0 0 0 0 0 0 0 0 0 0 0 0 0 0 0 0 0 0 0 0 0 0 -225 -225 -225 -225 -225 -225 -225 -225 -225 -225 -225 -225 -225 -225 -225 -225 -225 -225 -225 -225 -225 -225 -225 -225 -225 -225 -225 -225 -225 -225 -225 -225 -225 -225 -225 -225 -225 -225 -225 -225 -225 -225 -225 -225 -225 -225 -225 -225 -225 -225 -225 -225 -225 -225 -225 -225 -225 -225 -225 -225 -225 -225 -225 -225 -225 -225 -225 -225 -225 -225 -225 -225 -225 -225 -225 -225 -225 -225 -225 -225 -225 -225 -225 -225 -225 -225 -225 -225 -225 -225 -225 -225 -225 -225 -225 -225 -225 -225 -225 -225 -225 -225 -225 -225 -225 -225 -225 -225 -225 -225 -225 -225 -225 -225 -225 -225 -225 -225 -225 -225 -225 -225 -225 -225 -225 -225 -225 -225 -225 -225 -225 -225 -225 -225 -225 -225 -225 -225 -225 -225 -225 -225 -225 -225 -225 -225 -225 -225 -225 -225 -225 -225 -225 -225 -225 -225 -225 -225 -225 -225 -225 -225 -225 -225 -225 -225 -225 -225 -209 -209 -209 -209 -209 -209 -209 -209 -209 -209 -209 -209 -209 -209 -209 -209 -209 -209 -209 -209 -209 -209 -209 -209 -209 -209 -209 -209 -209 -209 -209 -209 -209 -209 -209 -209 -209 -209 -209 -177 -177 -177 -177 -177 41 40 45 -209 -209 -209 -209 -209 -209 -209 -209 -209 -209 -209 -209 -209 90 97 -209 -193 433 434 435 438 441 443 -209 -209 -209 -209 -209 -209 -209 -209 0 0 0 0 0
    0 0 0 0 0 0 0 0 0 0 0 0 0 0 0 0 0 0 0 0 0 0 0 0 0 0 0 0 0 0 0 0 0 0 0 0 0 0 0 0 0 0 0 0 0 0 0 0 0 0 0 0 0 0 0 0 0 0 0 0 0 0 0 0 0 0 0 0 0 -225 -225 -225 -225 -225 -225 -225 -225 -225 -225 -225 -225 -225 -225 -225 -225 -225 -225 -225 -225 -225 -225 -225 -225 -225 -225 -225 -225 -225 -225 -225 -225 -225 -225 -225 -225 -225 -225 -225 -225 -225 -225 -225 -225 -225 -225 -225 -225 -225 -225 -225 -225 -225 -225 -225 -225 -225 -225 -225 -225 -225 -225 -225 -225 -225 -225 -225 -225 -225 -225 -225 -225 -225 -225 -225 -225 -225 -225 -225 -225 -225 -225 -225 -225 -225 -225 -225 -225 -225 -225 -225 -225 -225 -225 -225 -225 -225 -225 -225 -225 -225 -225 -225 -225 -225 -225 -225 -225 -225 -225 -225 -225 -225 -225 -225 -225 -225 -225 -225 -225 -225 -225 -225 -225 -225 -225 -225 -225 -225 -225 -225 -225 -225 -225 -225 -225 -225 -225 -225 -225 -225 -225 -225 -225 -225 -225 -225 -225 -225 -225 -225 -225 -225 -225 -225 -225 -225 -225 -225 -225 -225 -225 -225 -225 -225 -225 -225 -225 -209 -209 -209 -209 -209 -209 -209 -209 -209 -209 -209 -209 -209 -209 -209 -209 -209 -209 -209 -209 -209 -209 -209 -209 -209 -209 -209 -209 -209 -209 -209 -209 -209 -209 21 -209 -209 -209 28 29 31 37 37 40 38 38 -193 -209 -209 -209 -209 -209 -209 -193 -193 -193 -209 -209 -209 -209 -209 -209 -209 -209 -193 -209 -209 -209 442 -193 -209 -209 -209 -209 -209 -209 -209 -209 0 0 0 0 0
    0 0 0 0 0 0 0 0 0 0 0 0 0 0 0 0 0 0 0 0 0 0 0 0 0 0 0 0 0 0 0 0 0 0 0 0 0 0 0 0 0 0 0 0 0 0 0 0 0 0 0 0 0 0 0 0 0 0 0 0 0 0 0 0 0 0 0 0 0 -225 -225 -225 -225 -225 -225 -225 -225 -225 -225 -225 -225 -225 -225 -225 -225 -225 -225 -225 -225 -225 -225 -225 -225 -225 -225 -225 -225 -225 -225 -225 -225 -225 -225 -225 -225 -225 -225 -225 -225 -225 -225 -225 -225 -225 -225 -225 -225 -225 -225 -225 -225 -225 -225 -225 -225 -225 -225 -225 -225 -225 -225 -225 -225 -225 -225 -225 -225 -225 -225 -225 -225 -225 -225 -225 -225 -225 -225 -225 -225 -225 -225 -225 -225 -225 -225 -225 -225 -225 -225 -225 -225 -225 -225 -225 -225 -225 -225 -225 -225 -225 -225 -225 -225 -225 -225 -225 -225 -225 -225 -225 -225 -225 -225 -225 -225 -225 -225 -225 -225 -225 -225 -225 -225 -225 -225 -225 -225 -225 -225 -225 -225 -225 -225 -225 -225 -225 -225 -225 -225 -225 -225 -225 -225 -225 -225 -225 -225 -225 -225 -225 -225 -225 -225 -225 -225 -225 -225 -225 -225 -225 -225 -225 -225 -225 -225 -225 -225 -209 -209 -209 -209 -209 -209 -209 -209 -209 -209 -209 -209 -209 -209 -209 -209 -209 -209 -209 -209 -209 -209 -209 -209 -209 -209 -209 -209 -209 -209 -209 -209 21 19 21 -177 -209 30 29 30 31 37 37 38 36 37 -193 -193 -209 -209 -209 -209 -209 -209 339 342 -209 -209 -209 -209 -209 -209 -209 -209 -209 -209 -209 -209 -193 -209 -209 -193 -209 -209 -209 -209 -209 -209 0 0 0 0 0
    0 0 0 0 0 0 0 0 0 0 0 0 0 0 0 0 0 0 0 0 0 0 0 0 0 0 0 0 0 0 0 0 0 0 0 0 0 0 0 0 0 0 0 0 0 0 0 0 0 0 0 0 0 0 0 0 0 0 0 0 0 0 0 0 0 0 0 0 0 -225 -225 -225 -225 -225 -225 -225 -225 -225 -225 -225 -225 -225 -225 -225 -225 -225 -225 -225 -225 -225 -225 -225 -225 -225 -225 -225 -225 -225 -225 -225 -225 -225 -225 -225 -225 -225 -225 -225 -225 -225 -225 -225 -225 -225 -225 -225 -225 -225 -225 -225 -225 -225 -225 -225 -225 -225 -225 -225 -225 -225 -225 -225 -225 -225 -225 -225 -225 -225 -225 -225 -225 -225 -225 -225 -225 -225 -225 -225 -225 -225 -225 -225 -225 -225 -225 -225 -225 -225 -225 -225 -225 -225 -225 -225 -225 -225 -225 -225 -225 -225 -225 -225 -225 -225 -225 -225 -225 -225 -225 -225 -225 -225 -225 -225 -225 -225 -225 -225 -225 -225 -225 -225 -225 -225 -225 -225 -225 -225 -225 -225 -225 -225 -225 -225 -225 -225 -225 -225 -225 -225 -225 -225 -225 -225 -225 -225 -225 -225 -225 -225 -225 -225 -225 -225 -225 -225 -225 -225 -225 -225 -225 -225 -225 -225 -225 -225 -225 -209 -209 -209 -209 -209 -209 -209 -209 -209 -209 -209 -209 -209 -209 -209 -209 -209 -209 -209 -209 -209 -209 -209 -209 -209 -209 -209 -209 -209 -209 -209 -193 -193 -209 23 27 29 32 31 31 33 36 37 38 35 36 -193 38 -209 -209 -209 -209 -209 -209 337 -193 -209 -209 -209 -209 -209 -209 -209 -209 -209 -209 -209 -209 -209 -209 -209 -193 -209 -209 -209 -209 -209 796 0 0 0 0 0
    0 0 0 0 0 0 0 0 0 0 0 0 0 0 0 0 0 0 0 0 0 0 0 0 0 0 0 0 0 0 0 0 0 0 0 0 0 0 0 0 0 0 0 0 0 0 0 0 0 0 0 0 0 0 0 0 0 0 0 0 0 0 0 0 0 0 0 0 0 -225 -225 -225 -225 -225 -225 -225 -225 -225 -225 -225 -225 -225 -225 -225 -225 -225 -225 -225 -225 -225 -225 -225 -225 -225 -225 -225 -225 -225 -225 -225 -225 -225 -225 -225 -225 -225 -225 -225 -225 -225 -225 -225 -225 -225 -225 -225 -225 -225 -225 -225 -225 -225 -225 -225 -225 -225 -225 -225 -225 -225 -225 -225 -225 -225 -225 -225 -225 -225 -225 -225 -225 -225 -225 -225 -225 -225 -225 -225 -225 -225 -225 -225 -225 -225 -225 -225 -225 -225 -225 -225 -225 -225 -225 -225 -225 -225 -225 -225 -225 -225 -225 -225 -225 -225 -225 -225 -225 -225 -225 -225 -225 -225 -225 -225 -225 -225 -225 -225 -225 -225 -225 -225 -225 -225 -225 -225 -225 -225 -225 -225 -225 -225 -225 -225 -225 -225 -225 -225 -225 -225 -225 -225 -225 -225 -225 -225 -225 -225 -225 -225 -225 -225 -225 -225 -225 -225 -225 -225 -225 -225 -225 -225 -225 -225 -225 -225 -225 -209 -209 -209 -209 -209 -209 -209 -209 -209 -209 -209 -209 -209 -209 -209 -209 -209 -209 -209 -209 -209 -209 -209 -209 -209 -209 -209 -209 -209 -209 -209 -193 26 -209 23 28 31 35 33 -177 34 37 37 38 36 -193 -193 37 -193 -209 -209 -209 -209 -209 -193 -209 -193 -209 -209 -209 -209 -209 -209 461 -193 -193 -209 -209 -209 -209 -209 -193 -209 -209 -209 -209 -209 796 0 0 0 0 0
    0 0 0 0 0 0 0 0 0 0 0 0 0 0 0 0 0 0 0 0 0 0 0 0 0 0 0 0 0 0 0 0 0 0 0 0 0 0 0 0 0 0 0 0 0 0 0 0 0 0 0 0 0 0 0 0 0 0 0 0 0 0 0 0 0 0 0 0 0 -225 -225 -225 -225 -225 -225 -225 -225 -225 -225 -225 -225 -225 -225 -225 -225 -225 -225 -225 -225 -225 -225 -225 -225 -225 -225 -225 -225 -225 -225 -225 -225 -225 -225 -225 -225 -225 -225 -225 -225 -225 -225 -225 -225 -225 -225 -225 -225 -225 -225 -225 -225 -225 -225 -225 -225 -225 -225 -225 -225 -225 -225 -225 -225 -225 -225 -225 -225 -225 -225 -225 -225 -225 -225 -225 -225 -225 -225 -225 -225 -225 -225 -225 -225 -225 -225 -225 -225 -225 -225 -225 -225 -225 -225 -225 -225 -225 -225 -225 -225 -225 -225 -225 -225 -225 -225 -225 -225 -225 -225 -225 -225 -225 -225 -225 -225 -225 -225 -225 -225 -225 -225 -225 -225 -225 -225 -225 -225 -225 -225 -225 -225 -225 -225 -225 -225 -225 -225 -225 -225 -225 -225 -225 -225 -225 -225 -225 -225 -225 -225 -225 -225 -225 -225 -225 -225 -225 -225 -225 -225 -225 -225 -225 -225 -225 -225 -225 -225 -209 -209 -209 -209 -209 -209 -209 -209 -209 -209 -209 -209 -209 -209 -209 -209 -209 -209 -209 -209 -209 -209 -209 -209 -209 -209 -209 -209 -209 -209 -209 -193 -177 -177 -177 -177 -177 36 33 32 34 37 37 37 35 -193 34 36 -193 -209 -209 -209 -193 -209 -193 -209 -193 -209 -193 461 459 459 461 463 -193 -193 -193 -209 -209 -209 -209 -193 -209 -209 -209 -209 -209 -209 0 0 0 0 0
    0 0 0 0 0 0 0 0 0 0 0 0 0 0 0 0 0 0 0 0 0 0 0 0 0 0 0 0 0 0 0 0 0 0 0 0 0 0 0 0 0 0 0 0 0 0 0 0 0 0 0 0 0 0 0 0 0 0 0 0 0 0 0 0 0 0 0 0 0 -225 -225 -225 -225 -225 -225 -225 -225 -225 -225 -225 -225 -225 -225 -225 -225 -225 -225 -225 -225 -225 -225 -225 -225 -225 -225 -225 -225 -225 -225 -225 -225 -225 -225 -225 -225 -225 -225 -225 -225 -225 -225 -225 -225 -225 -225 -225 -225 -225 -225 -225 -225 -225 -225 -225 -225 -225 -225 -225 -225 -225 -225 -225 -225 -225 -225 -225 -225 -225 -225 -225 -225 -225 -225 -225 -225 -225 -225 -225 -225 -225 -225 -225 -225 -225 -225 -225 -225 -225 -225 -225 -225 -225 -225 -225 -225 -225 -225 -225 -225 -225 -225 -225 -225 -225 -225 -225 -225 -225 -225 -225 -225 -225 -225 -225 -225 -225 -225 -225 -225 -225 -225 -225 -225 -225 -225 -225 -225 -225 -225 -225 -225 -225 -225 -225 -225 -225 -225 -225 -225 -225 -225 -225 -225 -225 -225 -225 -225 -225 -225 -225 -225 -225 -225 -225 -225 -225 -225 -225 -225 -225 -225 -225 -225 -225 -225 -225 -225 -209 -209 -209 -209 -209 -209 -209 -209 -209 -209 -209 -209 -209 -209 -209 -209 -209 -209 -209 -209 -209 -209 -209 -209 -209 -209 -209 -209 -209 -209 28 -177 -177 -177 -177 -177 -177 36 35 34 35 37 37 37 35 -193 -193 -193 -209 -209 -209 -209 -209 -209 -209 -209 -193 -209 459 463 460 461 463 465 -193 -193 -193 -209 -209 614 -209 -209 -209 -193 -209 -209 -209 -209 0 0 0 0 0
    0 0 0 0 0 0 0 0 0 0 0 0 0 0 0 0 0 0 0 0 0 0 0 0 0 0 0 0 0 0 0 0 0 0 0 0 0 0 0 0 0 0 0 0 0 0 0 0 0 0 0 0 0 0 0 0 0 0 0 0 0 0 0 0 0 0 0 0 0 -225 -225 -225 -225 -225 -225 -225 -225 -225 -225 -225 -225 -225 -225 -225 -225 -225 -225 -225 -225 -225 -225 -225 -225 -225 -225 -225 -225 -225 -225 -225 -225 -225 -225 -225 -225 -225 -225 -225 -225 -225 -225 -225 -225 -225 -225 -225 -225 -225 -225 -225 -225 -225 -225 -225 -225 -225 -225 -225 -225 -225 -225 -225 -225 -225 -225 -225 -225 -225 -225 -225 -225 -225 -225 -225 -225 -225 -225 -225 -225 -225 -225 -225 -225 -225 -225 -225 -225 -225 -225 -225 -225 -225 -225 -225 -225 -225 -225 -225 -225 -225 -225 -225 -225 -225 -225 -225 -225 -225 -225 -225 -225 -225 -225 -225 -225 -225 -225 -225 -225 -225 -225 -225 -225 -225 -225 -225 -225 -225 -225 -225 -225 -225 -225 -225 -225 -225 -225 -225 -225 -225 -225 -225 -225 -225 -225 -225 -225 -225 -225 -225 -225 -225 -225 -225 -225 -225 -225 -225 -225 -225 -225 -225 -225 -225 -225 -225 -209 -209 -209 -209 -209 -209 -209 -209 -209 -209 -209 -209 -209 -209 -209 -209 -209 -209 -209 -209 -209 -209 -209 -209 -209 -209 -209 -209 -209 -209 -209 26 -193 -177 -177 -177 -177 -177 -177 -177 -193 -209 -209 -209 -209 -209 -193 -209 -209 -209 -177 -177 -209 -209 -209 -209 -209 -209 -209 459 464 460 461 464 466 468 467 468 -193 -209 -209 -209 -209 -209 -209 -209 -209 -209 -209 0 0 0 0 0
    0 0 0 0 0 0 0 0 0 0 0 0 0 0 0 0 0 0 0 0 0 0 0 0 0 0 0 0 0 0 0 0 0 0 0 0 0 0 0 0 0 0 0 0 0 0 0 0 0 0 0 0 0 0 0 0 0 0 0 0 0 0 0 0 0 0 0 0 0 -225 -225 -225 -225 -225 -225 -225 -225 -225 -225 -225 -225 -225 -225 -225 -225 -225 -225 -225 -225 -225 -225 -225 -225 -225 -225 -225 -225 -225 -225 -225 -225 -225 -225 -225 -225 -225 -225 -225 -225 -225 -225 -225 -225 -225 -225 -225 -225 -225 -225 -225 -225 -225 -225 -225 -225 -225 -225 -225 -225 -225 -225 -225 -225 -225 -225 -225 -225 -225 -225 -225 -225 -225 -225 -225 -225 -225 -225 -225 -225 -225 -225 -225 -225 -225 -225 -225 -225 -225 -225 -225 -225 -225 -225 -225 -225 -225 -225 -225 -225 -225 -225 -225 -225 -225 -225 -225 -225 -225 -225 -225 -225 -225 -225 -225 -225 -225 -225 -225 -225 -225 -225 -225 -225 -225 -225 -225 -225 -225 -225 -225 -225 -225 -225 -225 -225 -225 -225 -225 -225 -225 -225 -225 -225 -225 -225 -225 -225 -225 -225 -225 -225 -225 -225 -225 -225 -225 -225 -225 -225 -225 -225 -225 -225 -225 -225 -225 -209 -209 -209 -209 -209 -209 -209 -209 -209 -209 -209 -209 -209 -209 -209 -209 -209 -209 -209 -209 -209 -209 -209 -209 -209 -209 -209 -209 -209 -209 -209 25 24 -177 -193 -177 -177 -177 -209 -209 -209 -209 -209 -209 -209 -209 -209 -209 -209 -177 -177 -177 -209 -209 -209 -209 -209 -209 -209 -209 464 461 462 466 468 470 469 469 470 -209 -209 -209 -209 -209 -209 -209 -209 -209 -209 0 0 0 0 0
    0 0 0 0 0 0 0 0 0 0 0 0 0 0 0 0 0 0 0 0 0 0 0 0 0 0 0 0 0 0 0 0 0 0 0 0 0 0 0 0 0 0 0 0 0 0 0 0 0 0 0 0 0 0 0 0 0 0 0 0 0 0 0 0 0 0 0 0 0 -225 -225 -225 -225 -225 -225 -225 -225 -225 -225 -225 -225 -225 -225 -225 -225 -225 -225 -225 -225 -225 -225 -225 -225 -225 -225 -225 -225 -225 -225 -225 -225 -225 -225 -225 -225 -225 -225 -225 -225 -225 -225 -225 -225 -225 -225 -225 -225 -225 -225 -225 -225 -225 -225 -225 -225 -225 -225 -225 -225 -225 -225 -225 -225 -225 -225 -225 -225 -225 -225 -225 -225 -225 -225 -225 -225 -225 -225 -225 -225 -225 -225 -225 -225 -225 -225 -225 -225 -225 -225 -225 -225 -225 -225 -225 -225 -225 -225 -225 -225 -225 -225 -225 -225 -225 -225 -225 -225 -225 -225 -225 -225 -225 -225 -225 -225 -225 -225 -225 -225 -225 -225 -225 -225 -225 -225 -225 -225 -225 -225 -225 -225 -225 -225 -225 -225 -225 -225 -225 -225 -225 -225 -225 -225 -225 -225 -225 -225 -225 -225 -225 -225 -225 -225 -225 -225 -225 -225 -225 -225 -225 -225 -225 -225 -225 -225 -225 -209 -209 -209 -209 -209 -209 -209 -209 -209 -209 -209 -209 -209 -209 -209 -209 -209 -209 -209 -209 -209 -209 -209 -209 -209 -209 -209 -209 -209 -209 -209 -209 23 -193 -209 -209 -209 -209 -209 -209 -209 -209 -209 -209 -209 -209 -209 -209 -209 -209 -177 -177 -209 -209 -209 -209 -209 -193 -209 463 -193 463 465 467 469 470 469 470 470 470 -209 -209 -209 -209 -209 -209 -209 -209 -209 0 0 0 0 0
    0 0 0 0 0 0 0 0 0 0 0 0 0 0 0 0 0 0 0 0 0 0 0 0 0 0 0 0 0 0 0 0 0 0 0 0 0 0 0 0 0 0 0 0 0 0 0 0 0 0 0 0 0 0 0 0 0 0 0 0 0 0 0 0 0 0 0 0 0 -225 -225 -225 -225 -225 -225 -225 -225 -225 -225 -225 -225 -225 -225 -225 -225 -225 -225 -225 -225 -225 -225 -225 -225 -225 -225 -225 -225 -225 -225 -225 -225 -225 -225 -225 -225 -225 -225 -225 -225 -225 -225 -225 -225 -225 -225 -225 -225 -225 -225 -225 -225 -225 -225 -225 -225 -225 -225 -225 -225 -225 -225 -225 -225 -225 -225 -225 -225 -225 -225 -225 -225 -225 -225 -225 -225 -225 -225 -225 -225 -225 -225 -225 -225 -225 -225 -225 -225 -225 -225 -225 -225 -225 -225 -225 -225 -225 -225 -225 -225 -225 -225 -225 -225 -225 -225 -225 -225 -225 -225 -225 -225 -225 -225 -225 -225 -225 -225 -225 -225 -225 -225 -225 -225 -225 -225 -225 -225 -225 -225 -225 -225 -225 -225 -225 -225 -225 -225 -225 -225 -225 -225 -225 -225 -225 -225 -225 -225 -225 -225 -225 -225 -225 -225 -225 -225 -225 -225 -225 -225 -225 -225 -225 -225 -225 -225 -225 -209 -209 -209 -209 -209 -209 -209 -209 -209 -209 -209 -209 -209 -209 -209 -209 -209 -209 -209 -209 -209 -209 -209 -209 -209 -209 -209 -209 -209 -209 -209 -209 25 28 -209 -209 -209 -209 -209 -209 -209 -209 -209 -177 -209 -209 -209 -209 -209 -209 -209 -177 -209 -209 -209 -209 -193 -177 -177 465 -193 465 467 468 469 470 470 470 471 470 472 -209 -209 -209 -209 -209 -209 -209 -209 0 0 0 0 0
    0 0 0 0 0 0 0 0 0 0 0 0 0 0 0 0 0 0 0 0 0 0 0 0 0 0 0 0 0 0 0 0 0 0 0 0 0 0 0 0 0 0 0 0 0 0 0 0 0 0 0 0 0 0 0 0 0 0 0 0 0 0 0 0 0 0 0 0 0 -225 -225 -225 -225 -225 -225 -225 -225 -225 -225 -225 -225 -225 -225 -225 -225 -225 -225 -225 -225 -225 -225 -225 -225 -225 -225 -225 -225 -225 -225 -225 -225 -225 -225 -225 -225 -225 -225 -225 -225 -225 -225 -225 -225 -225 -225 -225 -225 -225 -225 -225 -225 -225 -225 -225 -225 -225 -225 -225 -225 -225 -225 -225 -225 -225 -225 -225 -225 -225 -225 -225 -225 -225 -225 -225 -225 -225 -225 -225 -225 -225 -225 -225 -225 -225 -225 -225 -225 -225 -225 -225 -225 -225 -225 -225 -225 -225 -225 -225 -225 -225 -225 -225 -225 -225 -225 -225 -225 -225 -225 -225 -225 -225 -225 -225 -225 -225 -225 -225 -225 -225 -225 -225 -225 -225 -225 -225 -225 -225 -225 -225 -225 -225 -225 -225 -225 -225 -225 -225 -225 -225 -225 -225 -225 -225 -225 -225 -225 -225 -225 -225 -225 -225 -225 -225 -225 -225 -225 -225 -225 -225 -225 -225 -225 -225 -225 -225 -209 -209 -209 -209 -209 -209 -209 -209 -209 -209 -209 -209 -209 -209 -209 -209 -209 -209 -209 -209 -209 -209 -209 -209 -209 -209 -209 -209 -209 -209 -209 -209 -209 -209 -209 -209 -209 -209 -209 -209 -209 -177 -209 62 69 -209 -177 -209 -209 -209 -209 -209 -209 -209 -209 -209 -193 -209 -209 -209 -193 466 468 469 470 471 471 471 472 471 474 475 -209 -209 -209 -209 -209 -209 -209 0 0 0 0 0
    0 0 0 0 0 0 0 0 0 0 0 0 0 0 0 0 0 0 0 0 0 0 0 0 0 0 0 0 0 0 0 0 0 0 0 0 0 0 0 0 0 0 0 0 0 0 0 0 0 0 0 0 0 0 0 0 0 0 0 0 0 0 0 0 0 0 0 0 0 -225 -225 -225 -225 -225 -225 -225 -225 -225 -225 -225 -225 -225 -225 -225 -225 -225 -225 -225 -225 -225 -225 -225 -225 -225 -225 -225 -225 -225 -225 -225 -225 -225 -225 -225 -225 -225 -225 -225 -225 -225 -225 -225 -225 -225 -225 -225 -225 -225 -225 -225 -225 -225 -225 -225 -225 -225 -225 -225 -225 -225 -225 -225 -225 -225 -225 -225 -225 -225 -225 -225 -225 -225 -225 -225 -225 -225 -225 -225 -225 -225 -225 -225 -225 -225 -225 -225 -225 -225 -225 -225 -225 -225 -225 -225 -225 -225 -225 -225 -225 -225 -225 -225 -225 -225 -225 -225 -225 -225 -225 -225 -225 -225 -225 -225 -225 -225 -225 -225 -225 -225 -225 -225 -225 -225 -225 -225 -225 -225 -225 -225 -225 -225 -225 -225 -225 -225 -225 -225 -225 -225 -225 -225 -225 -225 -225 -225 -225 -225 -225 -225 -225 -225 -225 -225 -225 -225 -225 -225 -225 -225 -225 -225 -225 -225 -225 -209 -209 -209 -209 -209 -209 -209 -209 -209 -209 -209 -209 -209 -209 -209 -209 -209 -209 -209 -209 -209 -209 -209 -209 -209 -209 -209 -209 -209 -209 -209 -209 -209 -209 -209 -209 -209 -209 -209 -209 -209 -177 -177 -177 62 65 -209 193 -177 -209 -209 -209 -209 -209 -209 -209 -177 -193 -209 -209 -209 -209 468 -193 471 471 471 474 473 477 -209 -193 483 -209 -209 -209 -209 -209 -209 -209 0 0 0 0 0
    0 0 0 0 0 0 0 0 0 0 0 0 0 0 0 0 0 0 0 0 0 0 0 0 0 0 0 0 0 0 0 0 0 0 0 0 0 0 0 0 0 0 0 0 0 0 0 0 0 0 0 0 0 0 0 0 0 0 0 0 0 0 0 0 0 0 0 0 0 -225 -225 -225 -225 -225 -225 -225 -225 -225 -225 -225 -225 -225 -225 -225 -225 -225 -225 -225 -225 -225 -225 -225 -225 -225 -225 -225 -225 -225 -225 -225 -225 -225 -225 -225 -225 -225 -225 -225 -225 -225 -225 -225 -225 -225 -225 -225 -225 -225 -225 -225 -225 -225 -225 -225 -225 -225 -225 -225 -225 -225 -225 -225 -225 -225 -225 -225 -225 -225 -225 -225 -225 -225 -225 -225 -225 -225 -225 -225 -225 -225 -225 -225 -225 -225 -225 -225 -225 -225 -225 -225 -225 -225 -225 -225 -225 -225 -225 -225 -225 -225 -225 -225 -225 -225 -225 -225 -225 -225 -225 -225 -225 -225 -225 -225 -225 -225 -225 -225 -225 -225 -225 -225 -225 -225 -225 -225 -225 -225 -225 -225 -225 -225 -225 -225 -225 -225 -225 -225 -225 -225 -225 -225 -225 -225 -225 -225 -225 -225 -225 -225 -225 -225 -225 -225 -225 -225 -225 -225 -225 -225 -225 -225 -225 135 134 134 -209 -209 -209 -209 -209 -209 -209 -209 -209 -209 -209 -209 -209 -209 -209 -209 -209 -209 -209 -209 -209 -209 -209 -209 -209 -209 -209 -209 -209 -209 -209 -209 -209 -209 -209 -209 -209 -209 -209 -209 -177 61 69 63 68 -209 189 188 -209 -209 -209 -209 -209 -209 -209 -177 -177 -209 -209 -209 -209 -209 -209 -209 -209 471 477 -209 488 -209 -209 -209 -209 -209 -209 -209 -209 -209 -209 0 0 0 0 0
    0 0 0 0 0 0 0 0 0 0 0 0 0 0 0 0 0 0 0 0 0 0 0 0 0 0 0 0 0 0 0 0 0 0 0 0 0 0 0 0 0 0 0 0 0 0 0 0 0 0 0 0 0 0 0 0 0 0 0 0 0 0 0 0 0 0 0 0 0 -225 -225 -225 -225 -225 -225 -225 -225 -225 -225 -225 -225 -225 -225 -225 -225 -225 -225 -225 -225 -225 -225 -225 -225 -225 -225 -225 -225 -225 -225 -225 -225 -225 -225 -225 -225 -225 -225 -225 -225 -225 -225 -225 -225 -225 -225 -225 -225 -225 -225 -225 -225 -225 -225 -225 -225 -225 -225 -225 -225 -225 -225 -225 -225 -225 -225 -225 -225 -225 -225 -225 -225 -225 -225 -225 -225 -225 -225 -225 -225 -225 -225 -225 -225 -225 -225 -225 -225 -225 -225 -225 -225 -225 -225 -225 -225 -225 -225 -225 -225 -225 -225 -225 -225 -225 -225 -225 -225 -225 -225 -225 -225 -225 -225 -225 -225 -225 -225 -225 -225 -225 -225 -225 -225 -225 -225 -225 -225 -225 -225 -225 -225 -225 -225 -225 -225 -225 -225 -225 -225 -225 -225 -225 -225 -225 -225 -225 -225 -225 -225 -225 -225 -225 -225 -225 -225 -225 -225 -225 -225 -225 -225 -225 -193 -209 -209 -209 -209 -209 -209 -209 -209 -209 -209 -209 -209 -209 -209 -209 -209 -209 -209 -209 -209 -209 -209 -209 -209 -209 -209 -209 -209 -209 -209 -209 -209 -209 -209 -209 -209 -209 -209 -209 -209 -209 -209 -209 -177 62 70 66 69 -209 188 189 -209 -209 -193 -209 -209 -209 -193 299 302 -193 -209 -209 -209 -209 -209 -193 -193 -193 -209 -209 -209 -209 -209 -209 -209 -209 -209 797 -193 -193 -193 0 0 0 0 0
    0 0 0 0 0 0 0 0 0 0 0 0 0 0 0 0 0 0 0 0 0 0 0 0 0 0 0 0 0 0 0 0 0 0 0 0 0 0 0 0 0 0 0 0 0 0 0 0 0 0 0 0 0 0 0 0 0 0 0 0 0 0 0 0 0 0 0 0 0 -225 -225 -225 -225 -225 -225 -225 -225 -225 -225 -225 -225 -225 -225 -225 -225 -225 -225 -225 -225 -225 -225 -225 -225 -225 -225 -225 -225 -225 -225 -225 -225 -225 -225 -225 -225 -225 -225 -225 -225 -225 -225 -225 -225 -225 -225 -225 -225 -225 -225 -225 -225 -225 -225 -225 -225 -225 -225 -225 -225 -225 -225 -225 -225 -225 -225 -225 -225 -225 -225 -225 -225 -225 -225 -225 -225 -225 -225 -225 -225 -225 -225 -225 -225 -225 -225 -225 -225 -225 -225 -225 -225 -225 -225 -225 -225 -225 -225 -225 -225 -225 -225 -225 -225 -225 -225 -225 -225 -225 -225 -225 -225 -225 -225 -225 -225 -225 -225 -225 -225 -225 -225 -225 -225 -225 -225 -225 -225 -225 -225 -225 -225 -225 -225 -225 -225 -225 -225 -225 -225 -225 -225 -225 -225 -225 -225 -225 -225 -225 -225 -225 -225 -225 -225 -225 -225 -225 -209 -193 55 518 -193 -209 -209 -209 -209 -209 -209 -209 -209 -209 -209 -209 -209 -209 -209 -209 -209 -209 -209 -209 -209 -209 -209 -209 -209 -209 -209 -209 -209 -209 -193 -193 519 518 519 519 519 524 -209 -209 -209 -209 -209 -209 -209 -209 54 62 72 67 69 -209 189 -209 -209 -209 -193 -209 -209 -209 -193 -209 300 -209 -209 -209 -209 -193 -193 508 508 -193 -209 507 -193 -193 -209 -209 -209 -209 -209 -193 796 796 -193 0 0 0 0 0
    0 0 0 0 0 0 0 0 0 0 0 0 0 0 0 0 0 0 0 0 0 0 0 0 0 0 0 0 0 0 0 0 0 0 0 0 0 0 0 0 0 0 0 0 0 0 0 0 0 0 0 0 0 0 0 0 0 0 0 0 0 0 0 0 0 0 0 0 0 -225 -225 -225 -225 -225 -225 -225 -225 -225 -225 -225 -225 -225 -225 -225 -225 -225 -225 -225 -225 -225 -225 -225 -225 -225 -225 -225 -225 -225 -225 -225 -225 -225 -225 -225 -225 -225 -225 -225 -225 -225 -225 -225 -225 -225 -225 -225 -225 -225 -225 -225 -225 -225 -225 -225 -225 -225 -225 -225 -225 -225 -225 -225 -225 -225 -225 -225 -225 -225 -225 -225 -225 -225 -225 -225 -225 -225 -225 -225 -225 -225 -225 -225 -225 -225 -225 -225 -225 -225 -225 -225 -225 -225 -225 -225 -225 -225 -225 -225 -225 -225 -225 -225 -225 -225 -225 -225 -225 -225 -225 -225 -225 -225 -225 -225 -225 -225 -225 -225 -225 -225 -225 -225 -225 -225 -225 -225 -225 -225 -193 -209 627 630 632 -209 -193 -193 -193 830 -209 -177 -193 -193 -193 -209 976 -193 -193 -209 -225 -225 -209 -209 525 526 -193 -193 523 -193 -209 -193 -193 -193 -209 -209 518 -193 -209 -209 -209 -209 -209 -209 -209 -209 -193 -193 -209 -209 -209 -209 -209 -209 -209 -209 -209 -209 -209 -209 -209 516 517 520 519 518 519 519 519 523 -209 -209 -209 -209 -209 -209 -209 -209 -193 65 73 71 -209 -209 -177 -209 -209 -209 -193 -193 178 -209 -209 -209 -209 -209 -209 -193 514 -193 512 508 508 510 507 507 507 -193 -193 -193 -209 -193 -209 -193 796 797 798 0 0 0 0 0
    0 0 0 0 0 0 0 0 0 0 0 0 0 0 0 0 0 0 0 0 0 0 0 0 0 0 0 0 0 0 0 0 0 0 0 0 0 0 0 0 0 0 0 0 0 0 0 0 0 0 0 0 0 0 0 0 0 0 0 0 0 0 0 0 0 0 0 0 0 -225 -225 -225 -225 -225 -225 -225 -225 -225 -225 -225 -225 -225 -225 -225 -225 -225 -225 -225 -225 -225 -225 -225 -225 -225 -225 -225 -225 -225 -225 -225 -225 -225 -225 -225 -225 -225 -225 -225 -225 -225 -225 -225 -225 -225 -225 -225 -225 -225 -225 -225 -225 -225 -225 -225 -225 -225 -225 -225 -225 -225 -225 -225 -225 -225 -225 -225 -225 -225 -225 -225 -225 -225 -225 -225 -225 -225 -225 -225 -225 -225 -225 -225 -225 -225 -225 -225 -225 -225 -225 -225 -225 537 538 -209 -209 -193 521 524 523 524 525 524 525 527 528 526 524 -209 -193 -193 523 522 -193 844 844 -193 -193 525 528 -193 -225 -225 -193 741 -209 -193 746 750 -193 -193 -193 629 -193 -209 -193 -193 -209 -193 -209 -193 -193 -193 -209 -209 -193 -193 -193 -209 -209 -209 -209 -209 524 525 -193 -193 -193 -193 -209 520 521 522 -193 -193 519 518 -209 -209 -209 -209 -209 -209 -193 -193 526 -193 -193 -209 -209 -209 -209 -209 -209 -209 -209 -209 -209 -209 -209 516 517 519 519 518 518 518 518 522 523 -209 -209 -209 -209 -209 -209 -209 -193 -177 -177 73 -193 -209 -177 -209 -209 -209 -193 176 175 -209 -209 -209 -209 -209 519 -193 515 514 512 509 509 510 508 509 508 509 508 -193 -193 -209 -193 -193 796 796 -177 0 0 0 0 0
    0 0 0 0 0 0 0 0 0 0 0 0 0 0 0 0 0 0 0 0 0 0 0 0 0 0 0 0 0 0 0 0 0 0 0 0 0 0 0 0 0 0 0 0 0 0 0 0 0 0 0 0 0 0 0 0 0 0 0 0 0 0 0 0 0 0 0 0 0 -225 -225 -225 -225 -225 -225 -225 -225 -225 -225 -225 -225 -225 -225 -225 -225 -225 -225 -225 -225 -225 -225 -225 -225 -225 -225 -225 -225 -225 -225 -225 -225 -225 -225 -225 -225 -225 -225 -225 -225 -225 -225 -225 -225 -225 -225 -225 -225 -225 -225 -225 -225 -225 -225 -225 -225 -225 518 -193 -209 -209 960 -209 -209 -225 -225 -225 -225 -225 -225 -225 -225 -225 -225 -225 -225 -225 -225 -225 -225 -225 -225 -225 -225 -225 -225 -225 -225 -225 -225 -225 531 533 536 533 -193 -193 523 526 524 526 527 525 526 527 -193 -193 -193 962 -193 961 -209 -193 -209 845 844 -193 -193 525 528 526 529 531 -209 -193 -209 -209 746 750 -193 -193 -209 -193 -193 -193 -193 -209 -193 -193 -193 524 524 522 -193 -209 -193 -193 -209 -209 -209 -209 -209 -209 524 525 -193 -193 -209 522 519 521 523 523 521 520 520 -193 -209 -209 -193 -209 -209 -193 527 526 526 525 -193 -209 -193 -209 -209 -209 -209 -209 -209 -209 -209 -209 -209 517 518 520 519 518 519 519 518 522 522 -209 -209 -209 -209 -193 -209 -209 -177 -177 -209 -209 -209 -209 -193 -177 -209 -209 -193 172 173 -209 -209 -193 -209 -209 519 -177 515 515 514 511 511 512 509 511 510 510 509 507 -193 -209 -209 -193 795 796 -177 0 0 0 0 0</data></disparity>
</opencv_storage>
