<?xml version="1.0"?>
<opencv_storage>
<gps_time_stamp>39942</gps_time_stamp>
<gps_x>-1.4062622070312500e+001</gps_x>
<gps_y>1.5174750089645386e+000</gps_y>
<gps_z>-4.2922520637512207e+000</gps_z>
<image_time_stamp>27865</image_time_stamp>
<disparity type_id="opencv-matrix">
  <rows>94</rows>
  <cols>320</cols>
  <dt>s</dt>
  <data>
    0 0 0 0 0 0 0 0 0 0 0 0 0 0 0 0 0 0 0 0 0 0 0 0 0 0 0 0 0 0 0 0 0 0 0 0 0 0 0 0 0 0 0 0 0 0 0 0 0 0 0 0 0 0 0 0 0 0 0 0 0 0 0 0 0 0 0 0 0 0 0 0 0 0 0 0 0 0 0 0 -225 -225 -225 -225 -225 -225 -225 -225 -225 16 16 16 16 16 16 16 15 0 0 0 0 0 0 0 0 0 0 0 0 0 9 0 0 0 -193 -193 -193 10 10 10 10 10 9 9 9 0 0 0 10 0 0 9 9 9 9 9 9 0 10 10 0 -209 9 12 10 11 11 10 11 10 11 11 10 10 10 0 8 -225 -225 -225 -225 -225 -225 -225 -225 -225 -225 -209 0 0 9 11 10 11 11 11 10 11 10 10 10 10 -193 -193 0 0 15 11 12 11 11 11 11 12 13 9 10 9 10 11 10 11 11 12 12 11 12 13 12 18 14 14 17 13 11 11 11 10 0 0 10 0 9 9 9 9 9 10 14 9 11 10 10 11 11 11 10 0 0 0 0 0 0 9 12 13 16 18 18 19 20 19 19 19 20 19 20 21 21 20 21 21 21 21 21 22 20 20 21 21 21 22 22 22 22 23 23 23 25 27 26 26 27 28 26 26 26 26 25 25 27 27 26 28 30 32 32 32 32 30 30 30 30 30 31 30 30 29 30 30 31 31 31 32 35 0 0 0 0 0
    0 0 0 0 0 0 0 0 0 0 0 0 0 0 0 0 0 0 0 0 0 0 0 0 0 0 0 0 0 0 0 0 0 0 0 0 0 0 0 0 0 0 0 0 0 0 0 0 0 0 0 0 0 0 0 0 0 0 0 0 0 0 0 0 0 0 0 0 0 0 0 0 0 0 0 0 0 0 0 0 0 -225 -225 -225 -225 -225 -225 -225 -225 15 14 14 14 14 14 15 14 0 0 0 0 0 0 0 0 0 0 0 0 0 0 0 8 0 -193 -193 -193 9 9 9 9 9 9 9 0 0 0 0 10 0 0 9 9 9 9 9 9 0 9 10 0 0 0 11 10 11 11 10 10 10 10 11 10 10 10 0 10 -225 -225 -225 -225 -225 -225 -225 -225 -225 -225 -209 9 0 10 13 11 12 11 11 10 11 10 10 10 10 -209 12 0 0 14 11 12 11 11 11 10 12 12 9 10 9 10 11 10 10 11 11 11 11 12 12 12 18 14 15 17 14 12 11 11 10 0 0 10 0 9 9 9 10 10 10 15 9 11 11 11 11 11 11 10 0 0 0 0 0 9 11 14 15 18 19 19 20 20 19 19 19 20 20 20 20 20 20 22 21 21 21 21 22 20 21 21 21 21 22 22 22 21 23 23 23 24 27 26 26 26 27 26 26 26 25 -193 25 26 27 26 28 30 32 31 31 31 30 30 30 30 30 31 30 30 29 30 30 30 31 30 31 34 0 0 0 0 0
    0 0 0 0 0 0 0 0 0 0 0 0 0 0 0 0 0 0 0 0 0 0 0 0 0 0 0 0 0 0 0 0 0 0 0 0 0 0 0 0 0 0 0 0 0 0 0 0 0 0 0 0 0 0 0 0 0 0 0 0 0 0 0 0 0 0 0 0 0 0 0 0 0 0 0 0 0 0 0 0 0 0 -225 -225 -225 -225 -225 -225 -225 14 13 13 13 13 13 14 12 0 0 0 0 0 0 0 0 0 0 0 0 0 0 0 0 0 0 -193 -193 0 0 0 0 0 0 0 0 0 0 0 10 0 0 9 0 9 9 0 0 0 9 10 0 0 0 9 9 10 10 10 11 10 11 11 11 11 11 9 12 -225 -225 -225 -225 -225 -225 -225 -225 -225 -225 -225 -225 11 12 16 12 13 12 11 11 11 10 10 9 9 9 12 0 0 13 11 11 11 11 11 10 12 12 9 10 9 10 11 10 11 11 11 11 10 11 12 11 18 14 15 18 14 12 11 11 10 0 0 10 0 9 9 9 10 10 10 15 10 11 11 11 12 12 12 11 0 0 0 9 10 12 13 16 17 19 19 19 20 19 18 18 19 20 19 20 20 20 20 21 21 21 20 21 22 21 21 21 21 21 21 21 22 21 23 22 22 24 27 26 26 26 26 25 25 25 25 -193 25 26 27 26 27 29 32 31 31 31 30 30 30 30 30 31 30 30 30 30 30 31 32 31 31 34 0 0 0 0 0
    0 0 0 0 0 0 0 0 0 0 0 0 0 0 0 0 0 0 0 0 0 0 0 0 0 0 0 0 0 0 0 0 0 0 0 0 0 0 0 0 0 0 0 0 0 0 0 0 0 0 0 0 0 0 0 0 0 0 0 0 0 0 0 0 0 0 0 0 0 0 0 0 0 0 0 0 0 0 0 0 0 0 0 -225 -225 -225 -225 -225 -225 12 11 11 11 11 11 12 11 0 0 0 0 0 0 0 0 0 0 0 0 0 0 0 0 0 0 -193 -193 0 0 0 0 0 0 0 0 0 0 0 9 0 0 0 0 0 0 0 0 0 9 10 0 0 0 0 9 10 10 10 11 10 11 12 11 13 13 8 -225 -225 -225 -225 -225 -225 -225 -225 -225 -225 -225 -225 -225 -225 12 16 12 13 12 11 11 11 11 10 9 9 0 12 0 0 13 11 11 11 -193 -193 -193 12 12 9 10 9 10 11 10 11 11 11 11 11 11 11 11 18 14 16 18 14 12 11 11 10 0 0 10 0 0 0 9 9 10 10 15 10 12 12 12 13 13 12 12 0 9 10 10 12 13 15 17 18 19 20 20 20 19 18 18 19 20 19 19 19 20 20 21 21 20 20 20 22 21 21 21 21 21 21 21 21 20 22 22 22 24 27 26 26 26 26 25 25 25 25 -193 25 25 26 25 27 29 32 31 32 31 30 30 30 30 31 31 30 30 29 30 30 31 32 32 33 34 0 0 0 0 0
    0 0 0 0 0 0 0 0 0 0 0 0 0 0 0 0 0 0 0 0 0 0 0 0 0 0 0 0 0 0 0 0 0 0 0 0 0 0 0 0 0 0 0 0 0 0 0 0 0 0 0 0 0 0 0 0 0 0 0 0 0 0 0 0 0 0 0 0 0 0 0 0 0 0 0 0 0 0 0 0 0 0 9 9 -225 -225 -225 -225 -225 10 9 9 9 9 9 10 9 0 0 0 0 0 0 0 0 0 0 0 0 0 0 0 0 0 0 0 -193 0 0 0 0 0 0 0 0 0 0 0 9 0 0 0 0 0 0 0 0 0 10 11 0 0 0 0 9 10 10 10 11 10 11 11 11 12 12 -193 -225 -225 -225 -225 -225 -225 -225 -225 -225 -225 -225 -225 11 12 11 15 11 12 11 11 11 11 10 10 9 9 0 11 0 0 13 11 11 11 -193 -193 -193 12 12 9 10 9 10 11 10 11 11 11 11 11 12 12 12 18 14 16 18 14 11 11 10 10 0 0 10 -193 9 9 9 10 10 10 15 10 12 12 12 13 13 13 12 0 10 11 12 13 14 16 18 18 20 20 20 19 19 18 18 19 19 20 20 20 22 21 22 22 22 22 21 23 21 21 22 21 20 21 21 21 20 22 21 21 24 27 25 25 25 26 24 24 25 24 22 25 25 26 25 27 29 32 32 32 31 30 31 30 30 31 30 30 29 29 30 29 31 32 31 32 34 0 0 0 0 0
    0 0 0 0 0 0 0 0 0 0 0 0 0 0 0 0 0 0 0 0 0 0 0 0 0 0 0 0 0 0 0 0 0 0 0 0 0 0 0 0 0 0 0 0 0 0 0 0 0 0 0 0 0 0 0 0 0 0 0 0 0 0 0 0 0 0 0 0 0 0 0 0 0 0 0 0 0 0 0 9 9 9 10 11 11 -225 -225 -225 -225 0 0 0 0 0 0 0 0 0 0 0 0 0 10 0 0 0 0 0 0 0 0 0 0 0 0 0 -193 9 0 0 0 0 0 0 0 0 0 0 0 0 0 0 0 0 0 0 0 0 10 11 0 0 0 0 9 10 10 10 10 9 10 10 10 11 0 -193 -225 -225 -225 -225 -225 -225 -225 -225 -225 -225 -225 -225 11 11 11 13 11 12 11 11 11 11 10 10 9 9 0 10 0 0 14 11 11 11 -193 -193 -193 12 13 9 10 10 10 11 11 12 11 11 11 12 12 12 12 18 13 15 17 14 11 11 10 10 0 0 10 -193 9 9 9 9 10 10 15 10 12 13 13 13 13 13 12 9 12 12 14 14 16 18 18 18 20 20 19 19 19 18 18 19 19 18 19 20 21 20 21 22 21 22 22 23 21 21 22 21 20 21 21 21 19 22 21 21 24 28 25 25 25 26 24 24 25 24 22 25 25 26 25 28 30 31 32 32 32 30 31 30 30 30 30 29 29 29 30 29 31 32 31 33 33 0 0 0 0 0
    0 0 0 0 0 0 0 0 0 0 0 0 0 0 0 0 0 0 0 0 0 0 0 0 0 0 0 0 0 0 0 0 0 0 0 0 0 0 0 0 0 0 0 0 0 0 0 0 0 0 0 0 0 0 0 0 0 0 0 0 0 0 0 0 0 0 0 0 0 0 0 0 0 0 0 0 0 0 8 9 9 10 10 11 12 -225 -225 -225 -225 0 0 0 0 0 0 0 0 0 9 9 9 0 11 9 0 9 0 0 0 0 0 0 0 0 0 9 -193 9 0 9 0 0 0 0 0 0 0 0 0 0 0 0 0 0 0 0 0 0 10 11 0 0 0 9 9 11 10 10 10 9 10 10 9 10 0 0 -225 -225 -225 -225 -225 -225 -225 -225 -225 -225 -225 10 12 12 11 12 11 11 11 10 10 10 10 10 9 9 0 0 0 0 15 11 11 11 -193 -193 11 12 13 10 10 10 10 11 11 12 12 12 12 12 13 13 13 18 13 14 16 13 11 10 10 10 0 0 10 -209 9 10 10 10 10 10 15 11 13 14 13 13 14 13 13 10 13 14 15 15 18 18 18 18 20 19 19 19 19 18 19 18 19 18 19 21 21 20 21 22 22 22 22 23 21 22 22 21 20 21 21 21 19 23 21 21 24 29 25 25 25 26 24 24 25 24 22 24 25 26 25 27 29 31 31 32 32 30 31 30 29 30 29 29 29 28 29 29 31 32 30 33 32 0 0 0 0 0
    0 0 0 0 0 0 0 0 0 0 0 0 0 0 0 0 0 0 0 0 0 0 0 0 0 0 0 0 0 0 0 0 0 0 0 0 0 0 0 0 0 0 0 0 0 0 0 0 0 0 0 0 0 0 0 0 0 0 0 0 0 0 0 0 0 0 0 0 0 0 0 0 0 0 0 0 0 0 9 9 9 10 10 10 11 11 -225 -225 -225 0 0 0 0 0 0 0 0 0 9 9 9 0 11 9 9 9 0 0 0 0 8 0 0 0 0 9 -193 9 0 9 0 0 0 0 0 0 0 0 0 0 0 0 0 0 0 0 0 -193 10 11 0 0 0 10 10 12 10 10 10 9 10 10 9 10 0 0 0 -225 -225 -225 -225 -225 -225 -225 -225 -225 -225 13 12 12 11 12 11 11 10 10 10 10 9 10 0 0 0 0 0 0 15 11 11 11 11 11 11 12 13 10 11 11 11 12 12 13 13 12 12 13 13 13 13 18 12 13 14 12 10 10 9 10 0 9 9 -209 9 10 10 10 10 10 15 11 14 14 13 13 14 14 14 10 14 15 16 17 19 18 18 19 20 18 19 18 19 18 18 18 18 18 20 20 20 20 21 22 22 22 22 23 21 22 23 22 20 21 21 21 19 23 22 21 25 29 25 25 25 25 23 23 24 24 22 24 25 25 25 27 29 30 30 31 32 30 30 30 29 30 29 29 29 28 29 29 31 32 30 33 32 0 0 0 0 0
    0 0 0 0 0 0 0 0 0 0 0 0 0 0 0 0 0 0 0 0 0 0 0 0 0 0 0 0 0 0 0 0 0 0 0 0 0 0 0 0 0 0 0 0 0 0 0 0 0 0 0 0 0 0 0 0 0 0 0 0 0 0 0 0 0 0 0 0 0 0 0 0 0 0 0 0 0 0 0 9 9 9 9 9 10 11 10 -225 -225 0 0 0 0 0 0 0 0 0 9 9 9 9 12 9 9 9 0 0 0 0 0 0 0 0 0 9 11 10 8 9 0 0 0 0 0 0 0 0 0 0 0 0 0 0 0 0 0 -193 10 12 0 0 9 10 10 12 10 10 10 9 9 10 9 9 0 0 0 0 -225 -225 -225 -225 -225 -225 -225 29 -225 18 13 13 11 12 11 11 10 10 10 10 9 10 9 -193 -225 -209 0 0 16 11 11 12 11 12 11 12 14 10 11 11 11 12 12 14 13 12 12 13 13 12 12 16 11 11 11 10 9 9 9 9 0 0 9 -193 9 10 10 10 10 10 15 12 14 13 12 13 13 14 13 11 13 14 17 16 19 18 18 19 19 18 19 18 19 17 18 18 18 19 20 20 21 20 21 23 23 23 22 23 22 23 23 22 20 21 22 22 20 24 22 22 25 29 24 25 24 25 23 23 24 24 22 25 25 26 25 27 29 30 29 31 32 30 31 30 30 31 29 30 29 28 29 29 32 31 30 33 32 0 0 0 0 0
    0 0 0 0 0 0 0 0 0 0 0 0 0 0 0 0 0 0 0 0 0 0 0 0 0 0 0 0 0 0 0 0 0 0 0 0 0 0 0 0 0 0 0 0 0 0 0 0 0 0 0 0 0 0 0 0 0 0 0 0 0 0 0 0 0 0 0 0 0 0 0 0 0 0 0 0 0 0 0 0 9 9 9 9 9 10 10 0 -225 0 0 0 0 0 0 0 0 0 9 10 9 9 12 9 9 0 0 0 0 0 0 0 0 0 0 9 12 11 9 10 0 0 0 0 0 0 0 0 0 0 0 0 0 0 0 0 0 -193 10 12 0 0 9 10 10 12 10 10 9 9 9 9 9 0 0 0 0 0 0 0 -225 -225 -225 -225 -225 27 28 19 14 14 11 11 11 10 10 10 10 10 9 10 -209 -193 -193 -209 0 0 -177 12 12 13 12 12 11 12 14 10 12 12 11 12 12 14 13 12 12 13 12 12 11 14 10 10 9 9 9 9 0 0 0 9 0 -193 9 10 9 9 9 9 14 12 13 13 12 12 13 13 13 11 14 14 17 16 18 18 18 19 19 18 19 18 18 18 18 18 18 19 20 20 21 21 22 23 23 22 22 23 23 23 24 23 20 22 22 23 22 24 23 25 26 29 25 25 24 26 23 23 24 24 23 25 26 26 25 28 29 29 29 31 31 30 32 31 30 31 30 31 29 29 30 29 33 32 31 33 33 0 0 0 0 0
    0 0 0 0 0 0 0 0 0 0 0 0 0 0 0 0 0 0 0 0 0 0 0 0 0 0 0 0 0 0 0 0 0 0 0 0 0 0 0 0 0 0 0 0 0 0 0 0 0 0 0 0 0 0 0 0 0 0 0 0 0 0 0 0 0 0 0 0 0 9 0 0 0 0 0 0 0 0 0 0 9 9 9 0 0 9 9 0 0 0 0 0 0 0 0 0 0 0 9 9 9 9 12 10 9 0 0 0 0 0 0 0 0 9 0 10 13 11 10 10 9 0 0 0 0 0 0 0 0 0 0 0 0 0 0 0 0 -193 10 12 0 0 9 9 9 12 9 9 9 9 9 9 0 0 0 0 0 0 0 0 -225 -225 -225 -225 -225 29 31 21 13 13 10 10 10 9 9 9 9 9 9 10 -209 -193 13 19 0 0 -177 13 13 13 13 13 12 13 15 10 12 12 11 12 12 14 13 12 12 13 12 11 11 12 0 0 0 0 9 9 0 0 0 10 9 -193 9 10 9 9 9 9 15 13 14 14 12 13 14 14 15 12 14 15 19 17 18 18 18 19 19 18 18 17 18 18 18 19 18 19 20 20 21 20 22 23 22 22 22 23 23 23 24 23 20 24 24 24 25 25 25 26 27 29 25 25 25 26 23 23 24 24 23 26 26 26 25 28 29 29 29 31 31 30 32 31 30 31 31 31 30 29 30 30 33 32 31 34 33 0 0 0 0 0
    0 0 0 0 0 0 0 0 0 0 0 0 0 0 0 0 0 0 0 0 0 0 0 0 0 0 0 0 0 0 0 0 0 0 0 0 0 0 0 0 0 0 0 0 0 0 0 0 0 0 0 0 0 0 0 0 0 0 0 0 0 0 0 0 0 0 0 0 0 9 9 0 0 0 0 0 0 0 0 0 9 9 9 0 0 0 0 0 0 0 0 0 0 0 0 0 0 0 9 8 0 0 11 10 10 9 0 0 0 0 0 0 0 9 0 10 13 12 11 10 9 0 0 0 0 0 0 0 0 0 0 0 0 0 0 0 0 -193 10 11 0 0 9 9 9 11 9 9 0 0 0 0 0 0 0 0 0 0 0 -193 -193 -209 -225 -225 -193 35 36 -209 10 11 9 9 9 9 0 9 9 9 0 9 -209 10 14 19 0 0 -177 13 13 14 13 13 12 13 15 10 12 12 11 12 12 14 13 11 12 12 12 11 11 12 0 0 0 0 9 9 0 0 0 10 9 9 9 10 9 9 9 9 16 13 14 14 13 14 14 14 15 12 14 16 18 16 18 18 17 19 19 18 18 17 18 18 18 19 18 19 20 21 21 20 21 23 22 22 22 22 23 23 24 24 20 25 26 27 26 25 26 26 27 28 25 25 25 26 24 23 24 25 24 26 26 26 25 28 29 29 29 30 31 30 32 31 30 31 31 31 30 29 30 30 33 32 31 33 33 0 0 0 0 0
    0 0 0 0 0 0 0 0 0 0 0 0 0 0 0 0 0 0 0 0 0 0 0 0 0 0 0 0 0 0 0 0 0 0 0 0 0 0 0 0 0 0 0 0 0 0 0 0 0 0 0 0 0 0 0 0 0 0 0 0 0 0 0 0 0 0 0 0 0 9 9 0 0 9 9 9 0 0 0 0 9 9 0 0 0 0 0 0 0 0 0 0 0 0 0 0 0 0 9 8 0 9 12 10 10 9 0 0 9 9 9 0 0 9 0 10 14 12 11 10 10 8 0 9 9 0 0 0 0 0 0 0 0 0 0 0 0 -193 10 11 0 0 9 0 0 10 0 0 0 0 0 0 0 0 0 0 0 0 0 -193 -193 -209 -225 -225 -225 36 38 -209 9 10 8 9 9 9 0 -193 9 -193 0 9 9 10 14 19 0 -177 19 13 13 14 13 13 12 13 15 10 12 12 11 12 12 14 13 11 12 13 12 11 11 11 0 0 0 0 9 0 0 0 0 11 9 9 0 10 9 9 9 11 15 13 14 14 13 13 15 15 14 12 15 17 18 16 18 18 17 18 19 18 17 17 19 18 18 19 18 19 20 21 21 20 21 23 22 22 22 22 23 24 24 23 18 25 26 27 27 25 27 26 27 29 26 26 26 27 24 24 25 26 25 27 27 26 26 29 29 28 28 30 30 30 32 31 30 30 31 31 30 29 31 30 33 32 31 33 33 0 0 0 0 0
    0 0 0 0 0 0 0 0 0 0 0 0 0 0 0 0 0 0 0 0 0 0 0 0 0 0 0 0 0 0 0 0 0 0 0 0 0 0 0 0 0 0 0 0 0 0 0 0 0 0 0 0 0 0 0 0 0 0 0 0 0 0 0 0 0 0 0 0 0 9 9 0 0 9 9 9 0 0 0 0 0 0 0 0 0 0 0 0 0 0 0 0 0 0 0 0 0 0 9 0 0 8 12 10 10 9 0 9 9 9 9 0 9 9 0 10 13 12 10 10 9 0 0 9 9 0 0 0 0 0 0 0 0 0 0 0 0 0 9 10 0 0 0 0 0 0 0 0 0 0 0 0 0 0 0 0 0 0 0 -193 -193 -209 -225 -225 -225 35 39 -209 0 9 0 0 8 0 0 -193 0 -193 0 9 9 10 14 19 11 9 19 14 13 14 14 13 12 13 15 11 12 12 11 12 12 15 14 11 12 13 12 11 11 11 0 0 0 0 0 0 0 0 0 11 9 9 0 10 0 0 8 12 14 14 15 15 14 14 16 15 14 13 15 17 18 16 17 17 17 18 18 18 17 17 19 18 18 19 18 19 20 21 19 19 20 22 21 21 21 21 21 24 24 23 18 24 25 26 26 24 25 25 26 28 26 27 26 27 25 25 26 26 25 27 27 26 26 29 29 28 28 30 30 30 32 31 30 31 31 31 30 30 31 31 34 32 31 33 33 0 0 0 0 0
    0 0 0 0 0 0 0 0 0 0 0 0 0 0 0 0 0 0 0 0 0 0 0 0 0 0 0 0 0 0 0 0 0 0 0 0 0 0 0 0 0 0 0 0 0 0 0 0 0 0 0 0 0 0 0 0 0 0 0 0 0 0 0 0 0 0 0 0 0 9 9 0 0 0 0 0 0 0 0 0 0 0 0 0 0 0 0 0 0 0 0 0 0 0 0 0 0 0 9 8 0 9 12 10 10 9 9 9 9 10 10 0 10 10 9 10 13 11 10 10 9 -193 9 9 10 0 0 0 0 0 0 0 0 0 0 0 0 0 9 10 0 0 0 0 0 0 0 0 0 0 0 0 0 0 0 0 0 0 0 -209 -193 -209 -209 -193 -209 -209 -209 -209 0 0 0 0 0 0 0 0 0 0 0 9 -193 10 13 18 12 10 18 13 13 14 14 13 12 13 15 11 12 12 11 12 12 15 14 11 12 12 12 11 11 11 0 0 0 0 0 0 0 0 0 10 8 0 0 10 0 0 0 13 14 14 15 15 15 15 16 16 14 14 16 17 18 16 17 17 17 18 18 18 18 18 19 18 18 19 18 19 20 21 19 19 20 22 21 21 21 21 21 23 23 23 19 23 24 25 25 23 25 24 25 27 26 27 26 27 25 25 26 26 26 27 27 26 26 28 29 28 28 30 30 30 32 30 30 31 32 32 30 30 31 31 34 32 31 32 34 0 0 0 0 0
    0 0 0 0 0 0 0 0 0 0 0 0 0 0 0 0 0 0 0 0 0 0 0 0 0 0 0 0 0 0 0 0 0 0 0 0 0 0 0 0 0 0 0 0 0 0 0 0 0 0 0 0 0 0 0 0 0 0 0 0 0 0 0 0 0 0 0 0 0 0 9 0 0 0 0 0 0 0 0 0 0 0 0 0 0 0 0 0 0 0 0 0 0 0 0 0 0 0 0 0 0 9 12 10 10 9 10 10 10 10 10 0 10 10 0 9 12 11 10 9 9 -209 0 9 10 0 0 9 9 0 0 0 0 0 0 0 0 0 9 10 0 0 0 0 0 0 0 0 0 0 0 0 0 0 0 0 0 0 9 10 -193 -193 -193 -193 -209 -193 -209 -209 0 0 0 0 0 0 0 0 0 0 0 9 -193 10 12 17 13 10 18 13 13 14 14 13 12 12 15 10 12 12 11 12 12 15 14 11 13 13 12 12 11 12 0 0 0 0 0 0 0 0 0 10 0 0 0 9 0 0 0 14 14 14 16 16 15 15 16 16 15 14 16 16 17 16 17 18 17 18 18 18 18 18 19 18 18 19 18 20 20 21 19 19 20 22 21 20 20 21 21 23 23 23 19 24 24 25 25 24 25 25 25 26 26 27 27 27 25 25 26 26 26 27 27 26 26 29 29 28 28 30 29 30 32 30 30 31 33 32 30 30 32 32 35 32 32 32 35 0 0 0 0 0
    0 0 0 0 0 0 0 0 0 0 0 0 0 0 0 0 0 0 0 0 0 0 0 0 0 0 0 0 0 0 0 0 0 0 0 0 0 0 0 0 0 0 0 0 0 0 0 0 0 0 0 0 0 0 0 0 0 0 0 0 0 0 0 0 0 0 0 0 0 0 9 0 0 0 0 0 0 0 0 0 0 0 0 0 0 0 0 0 0 0 0 0 0 0 0 0 0 0 0 0 0 9 12 10 10 9 10 10 10 10 9 0 9 10 0 0 11 10 9 0 0 -209 0 9 10 0 9 9 9 0 0 0 0 0 0 0 0 0 9 10 0 0 0 0 0 0 0 0 0 0 0 0 0 0 0 0 0 0 11 12 -209 9 10 -193 -193 13 -209 -209 -209 -209 -209 0 0 0 0 0 0 0 0 9 -193 10 12 17 15 11 18 13 13 14 13 13 12 12 14 10 12 12 11 12 12 15 14 12 13 13 13 12 12 12 0 0 0 0 0 0 0 0 0 11 9 9 0 9 0 0 0 14 13 14 16 16 15 16 17 17 15 15 16 16 17 16 17 18 17 18 18 19 18 18 19 18 18 19 19 19 20 21 19 19 20 22 21 20 20 21 21 23 23 22 18 23 24 24 25 24 25 25 26 27 26 27 27 27 26 26 26 27 26 27 27 27 27 30 29 29 29 30 29 29 32 31 30 31 33 31 30 30 32 32 34 32 32 31 35 0 0 0 0 0
    0 0 0 0 0 0 0 0 0 0 0 0 0 0 0 0 0 0 0 0 0 0 0 0 0 0 0 0 0 0 0 0 0 0 0 0 0 0 0 0 0 0 0 0 0 0 0 0 0 0 0 0 0 0 0 0 0 0 0 0 0 0 0 0 0 0 0 0 0 0 9 0 0 0 0 0 0 0 0 0 0 0 0 0 0 0 0 0 0 0 0 0 0 0 0 0 0 0 0 0 0 0 11 10 10 9 9 10 9 9 9 0 0 9 0 0 10 9 0 0 0 -209 0 9 11 0 9 9 10 0 0 0 0 0 0 0 0 0 9 10 0 0 9 0 0 0 0 0 0 0 0 0 0 0 0 0 0 10 13 15 10 11 12 13 13 13 -209 -225 -209 -209 -193 -193 -193 0 0 0 0 0 0 9 -193 9 12 16 16 11 18 13 13 14 13 13 12 12 14 10 12 12 11 12 12 14 14 11 13 13 13 12 12 13 0 0 0 0 0 0 0 0 0 12 10 10 9 10 0 0 0 14 13 14 17 17 16 16 17 17 15 15 16 16 17 16 17 18 17 18 19 19 18 19 19 19 18 19 19 19 20 21 19 20 20 22 20 20 20 20 20 22 22 22 17 23 24 24 24 23 25 25 26 27 27 28 28 28 26 27 27 27 26 28 27 27 27 31 30 29 30 30 29 29 32 30 29 30 32 30 29 30 32 32 34 32 32 31 35 0 0 0 0 0
    0 0 0 0 0 0 0 0 0 0 0 0 0 0 0 0 0 0 0 0 0 0 0 0 0 0 0 0 0 0 0 0 0 0 0 0 0 0 0 0 0 0 0 0 0 0 0 0 0 0 0 0 0 0 0 0 0 0 0 0 0 0 0 0 0 0 0 0 0 9 9 0 0 0 0 0 0 0 0 0 0 0 0 0 0 0 0 0 0 0 0 0 0 0 0 0 0 0 0 0 0 0 11 9 9 0 9 9 10 10 10 0 0 0 0 0 0 0 0 0 0 -209 9 10 12 9 10 10 10 0 0 0 0 0 0 0 0 0 9 11 0 0 10 9 0 0 0 0 0 0 0 0 0 0 0 0 9 11 14 18 12 13 13 14 14 13 -193 -209 -193 -193 -193 9 9 9 0 0 0 9 0 9 9 9 11 14 16 11 17 13 12 13 13 13 12 11 13 10 11 12 11 12 12 14 14 12 13 14 13 12 12 13 0 0 0 0 0 0 9 9 8 12 11 10 9 10 9 9 9 14 13 14 19 18 16 16 18 17 15 16 17 16 16 16 18 18 17 18 20 19 18 19 19 18 18 19 19 18 20 21 19 19 20 22 20 20 20 20 20 22 22 21 18 23 24 24 24 23 25 25 26 27 27 28 28 28 27 27 27 27 26 27 27 27 27 30 30 29 29 30 29 29 31 30 29 30 32 -193 28 29 32 31 33 31 31 30 35 0 0 0 0 0
    0 0 0 0 0 0 0 0 0 0 0 0 0 0 0 0 0 0 0 0 0 0 0 0 0 0 0 0 0 0 0 0 0 0 0 0 0 0 0 0 0 0 0 0 0 0 0 0 0 0 0 0 0 0 0 0 0 0 0 0 0 0 0 0 0 0 0 0 0 9 9 0 0 0 0 0 0 0 0 0 0 0 0 0 0 0 0 0 0 0 0 0 0 0 0 0 0 0 0 0 0 0 10 9 9 0 9 9 9 10 10 0 0 0 0 0 0 0 0 0 0 -209 9 10 12 9 10 10 10 0 0 0 0 0 0 0 0 0 10 11 0 9 11 10 0 0 0 0 0 0 0 0 0 0 0 0 9 11 13 17 12 13 13 13 13 12 11 12 10 13 -193 10 10 10 9 9 9 9 9 9 9 9 10 13 16 12 17 13 12 13 13 12 11 11 13 10 12 12 12 12 12 14 14 12 14 14 14 12 12 14 0 0 0 8 0 0 0 9 0 11 11 10 9 10 9 9 9 14 12 13 19 18 16 16 17 17 15 16 17 16 16 17 18 19 18 19 20 19 18 19 19 18 17 18 19 17 20 21 20 20 20 22 20 19 19 20 20 21 21 21 18 21 23 23 23 23 24 24 25 26 27 28 28 28 27 27 27 27 26 27 27 26 27 28 28 28 28 29 28 28 30 29 29 30 31 -193 28 29 32 31 32 31 31 30 34 0 0 0 0 0
    0 0 0 0 0 0 0 0 0 0 0 0 0 0 0 0 0 0 0 0 0 0 0 0 0 0 0 0 0 0 0 0 0 0 0 0 0 0 0 0 0 0 0 0 0 0 0 0 0 0 0 0 0 0 0 0 0 0 0 0 0 0 0 0 0 0 0 0 0 0 9 0 0 0 0 0 0 0 0 0 0 0 0 0 0 0 0 0 0 0 0 0 0 0 0 0 0 0 0 0 0 0 10 9 9 0 9 9 10 10 10 0 0 0 0 0 0 0 0 0 0 -209 9 10 13 9 10 10 10 0 0 0 0 0 0 0 0 0 10 12 0 9 10 10 0 0 0 0 0 0 0 0 0 0 0 0 9 11 14 18 13 14 13 13 12 11 11 12 11 13 11 10 11 10 10 10 10 10 9 10 10 9 11 13 17 12 17 13 12 13 13 12 11 11 13 10 12 12 12 12 12 15 14 12 14 14 14 13 12 14 0 0 0 9 0 0 0 9 0 11 10 10 0 9 9 10 10 14 11 13 20 18 16 16 17 16 15 16 17 15 16 17 18 19 18 19 20 18 18 18 18 18 17 19 19 17 19 21 19 19 20 22 20 19 19 20 19 21 21 21 18 22 23 23 23 23 24 24 25 26 26 28 28 28 27 27 27 27 26 27 26 25 26 27 27 27 27 29 28 28 30 28 29 30 31 -193 28 29 31 31 32 31 30 30 33 0 0 0 0 0
    0 0 0 0 0 0 0 0 0 0 0 0 0 0 0 0 0 0 0 0 0 0 0 0 0 0 0 0 0 0 0 0 0 0 0 0 0 0 0 0 0 0 0 0 0 0 0 0 0 0 0 0 0 0 0 0 0 0 0 0 0 0 0 0 0 0 0 0 0 0 9 0 0 0 0 0 0 0 0 0 0 0 0 0 0 0 0 0 0 0 0 0 0 0 0 0 0 0 0 0 0 0 9 9 9 0 9 9 10 10 10 0 0 0 0 0 0 0 0 0 0 -209 9 11 13 -193 10 10 10 0 0 0 0 0 0 0 0 0 10 12 0 10 11 10 0 0 0 0 0 0 0 0 0 0 0 0 9 12 15 19 14 16 13 12 11 11 10 11 10 13 12 11 11 11 10 10 10 10 10 10 10 9 11 12 17 12 17 12 12 12 12 12 12 11 13 10 12 13 12 12 12 14 14 11 13 13 13 12 11 13 0 0 0 10 9 9 9 9 9 11 11 10 0 9 9 10 10 13 11 13 21 18 15 16 17 16 15 17 17 15 17 18 18 19 18 18 19 18 18 18 18 18 16 19 19 17 20 21 19 19 20 22 19 18 19 19 19 21 21 21 19 22 23 23 23 23 24 24 25 26 26 28 27 27 27 27 27 27 26 27 26 25 26 28 27 27 28 29 28 28 30 28 29 30 30 -193 28 30 31 31 32 31 30 30 33 0 0 0 0 0
    0 0 0 0 0 0 0 0 0 0 0 0 0 0 0 0 0 0 0 0 0 0 0 0 0 0 0 0 0 0 0 0 0 0 0 0 0 0 0 0 0 0 0 0 0 0 0 0 0 0 0 0 0 0 0 0 0 0 0 0 0 0 0 0 0 0 0 0 0 0 9 0 0 0 0 0 0 0 0 0 0 0 0 0 0 0 0 0 0 0 0 0 0 0 0 0 0 0 0 0 0 0 9 9 9 0 10 10 10 10 10 0 0 0 0 0 0 0 0 0 0 10 9 11 13 -193 10 10 10 0 0 0 0 0 0 0 0 0 10 12 0 10 11 10 9 0 0 0 0 0 0 0 0 0 0 0 10 12 16 19 14 17 13 12 11 11 11 12 11 13 12 11 12 11 11 11 10 11 10 10 10 9 10 12 -193 12 17 12 11 12 12 12 12 11 13 10 12 13 12 12 11 13 13 10 11 12 11 10 10 12 0 0 0 12 10 10 9 10 9 11 11 10 9 9 9 10 11 12 11 12 21 18 15 16 16 16 16 16 16 15 17 18 18 19 18 18 20 19 19 17 18 18 16 19 19 17 20 21 20 20 20 22 20 19 19 19 19 21 21 21 20 22 23 23 23 24 25 24 25 26 26 28 28 28 27 28 27 27 27 27 26 25 27 28 27 27 28 28 28 28 30 28 28 30 30 29 28 30 31 30 31 31 30 30 32 0 0 0 0 0
    0 0 0 0 0 0 0 0 0 0 0 0 0 0 0 0 0 0 0 0 0 0 0 0 0 0 0 0 0 0 0 0 0 0 0 0 0 0 0 0 0 0 0 0 0 0 0 0 0 0 0 0 0 0 0 0 0 0 0 0 0 0 0 0 0 0 0 0 0 9 9 8 0 0 0 0 0 0 0 0 0 0 0 0 0 0 0 0 0 0 0 0 0 0 0 0 0 0 0 0 0 0 9 0 0 0 9 10 10 10 10 0 0 0 0 0 0 0 0 0 0 10 10 11 14 -193 10 10 10 0 0 0 0 0 0 0 0 0 10 12 0 10 11 11 10 10 9 0 0 0 0 0 0 0 0 0 11 14 18 21 18 20 17 14 12 12 12 12 12 14 14 13 14 12 11 12 11 11 11 10 11 9 11 12 -209 12 16 12 11 12 12 12 12 11 13 10 12 13 12 12 11 13 12 9 11 11 9 9 0 10 0 0 0 12 10 10 10 10 9 12 11 10 9 9 10 10 11 10 10 12 21 18 14 15 16 16 16 16 16 15 17 18 18 19 18 18 20 19 18 17 18 18 15 19 19 17 20 21 20 20 21 22 20 19 19 19 19 21 21 21 20 23 24 24 24 25 25 25 25 26 26 29 28 29 28 29 28 28 28 29 28 26 27 29 27 28 28 28 27 27 29 28 28 28 29 29 27 29 30 30 31 30 30 30 32 0 0 0 0 0
    0 0 0 0 0 0 0 0 0 0 0 0 0 0 0 0 0 0 0 0 0 0 0 0 0 0 0 0 0 0 0 0 0 0 0 0 0 0 0 0 0 0 0 0 0 0 0 0 0 0 0 0 0 0 0 0 0 0 0 0 0 0 0 0 0 0 0 0 0 9 9 9 9 9 0 0 0 0 0 0 0 0 0 0 0 0 0 0 0 0 0 0 0 0 0 0 0 0 0 0 0 0 0 0 0 0 9 10 10 9 9 0 0 0 0 0 0 0 0 0 0 10 10 11 14 -193 10 10 10 0 0 0 0 0 0 0 0 0 10 12 0 10 10 10 10 10 10 9 0 0 0 0 0 0 0 0 14 17 21 23 23 23 23 15 13 12 12 13 12 14 14 13 15 13 12 12 12 12 11 11 11 9 10 11 -209 11 16 11 11 12 12 12 11 11 13 10 12 13 12 12 11 13 12 9 10 10 9 0 0 9 0 0 0 13 10 10 10 10 10 12 11 10 0 9 9 10 10 9 9 10 20 16 13 15 16 15 15 15 16 15 17 18 18 19 18 18 20 18 17 17 18 17 14 18 19 16 21 21 20 20 21 22 20 19 19 19 20 21 21 21 20 23 24 24 24 25 25 25 25 26 26 30 29 30 29 29 28 29 29 30 27 26 27 29 27 28 27 28 27 26 28 27 27 28 28 28 27 29 30 29 30 30 30 30 32 0 0 0 0 0
    0 0 0 0 0 0 0 0 0 0 0 0 0 0 0 0 0 0 0 0 0 0 0 0 0 0 0 0 0 0 0 0 0 0 0 0 0 0 0 0 0 0 0 0 0 0 0 0 0 0 0 0 0 0 0 0 0 0 0 0 0 0 0 0 0 0 0 0 0 9 9 9 9 9 0 0 0 0 0 0 0 0 0 0 0 0 0 0 0 0 0 0 0 0 0 0 0 0 0 0 0 0 0 0 0 0 9 10 10 10 10 0 9 9 0 0 0 0 0 0 0 -193 10 11 14 -193 10 10 10 0 0 0 0 0 0 0 0 0 10 11 0 9 10 10 10 10 10 9 9 0 0 0 0 9 9 11 21 -225 23 24 27 25 27 18 12 12 11 12 11 13 14 12 14 13 12 12 12 12 11 10 11 0 10 11 -193 11 16 11 11 11 12 12 11 11 12 9 12 13 11 12 11 12 11 0 10 9 0 0 0 0 0 0 0 13 10 10 10 10 9 11 11 10 0 0 9 9 10 9 9 10 19 14 13 14 15 14 15 16 16 15 17 18 17 19 18 18 19 17 17 17 17 17 14 18 19 17 20 20 19 21 21 22 20 19 19 19 20 21 21 21 20 23 24 24 24 25 25 25 25 25 25 30 28 29 28 28 28 28 28 28 26 25 26 28 27 27 27 27 26 26 28 27 27 27 28 28 -193 30 30 29 30 29 30 31 31 0 0 0 0 0
    0 0 0 0 0 0 0 0 0 0 0 0 0 0 0 0 0 0 0 0 0 0 0 0 0 0 0 0 0 0 0 0 0 0 0 0 0 0 0 0 0 0 0 0 0 0 0 0 0 0 0 0 0 0 0 0 0 0 0 0 0 0 0 0 0 0 0 0 0 9 9 9 9 9 9 0 0 0 0 0 0 0 0 9 9 9 9 9 8 9 9 9 0 0 0 0 9 0 0 0 0 0 0 0 0 0 10 11 10 10 10 9 10 9 0 0 0 0 0 0 0 -193 10 11 14 10 10 10 10 0 0 0 0 0 0 0 0 0 10 11 0 9 9 10 10 10 10 9 9 0 0 0 0 0 9 10 20 -225 -225 26 29 28 31 -209 10 11 10 10 10 12 13 12 14 13 12 12 12 12 11 10 11 0 9 10 -177 10 15 10 10 11 11 11 11 10 12 9 11 12 10 11 11 12 11 0 10 10 0 9 0 0 0 0 0 12 9 9 9 9 9 11 10 10 0 0 9 9 10 9 9 10 17 14 12 14 15 14 15 16 16 15 17 18 17 20 18 17 18 17 17 16 17 17 13 19 19 18 20 20 19 20 21 22 19 18 19 20 19 21 21 22 21 24 24 25 24 25 26 25 24 24 24 28 26 27 26 27 26 27 27 27 26 24 26 27 27 27 26 27 26 26 28 26 26 27 27 28 -193 30 30 29 30 29 30 32 32 0 0 0 0 0
    0 0 0 0 0 0 0 0 0 0 0 0 0 0 0 0 0 0 0 0 0 0 0 0 0 0 0 0 0 0 0 0 0 0 0 0 0 0 0 0 0 0 0 0 0 0 0 0 0 0 0 0 0 0 0 0 0 0 0 0 0 0 0 0 0 0 0 0 0 9 9 9 9 9 9 0 0 0 0 0 0 0 0 9 9 9 9 9 9 10 9 9 0 0 0 0 9 0 0 0 0 0 0 0 0 0 10 11 11 10 10 9 10 10 0 0 0 0 0 0 0 -193 10 11 14 10 11 11 11 0 0 0 0 0 0 0 0 0 9 10 0 0 9 10 10 10 9 0 0 0 0 0 0 0 0 0 16 -225 25 26 31 29 34 -209 10 11 9 9 10 10 -193 12 14 13 12 12 12 12 12 10 11 0 9 -193 -177 10 15 10 10 11 11 11 10 10 11 0 10 12 10 11 10 12 11 0 10 10 0 9 0 0 0 0 0 11 9 9 9 9 9 11 11 10 0 9 9 10 11 10 10 11 15 14 12 13 14 13 15 16 16 15 17 18 17 20 17 17 18 17 17 16 17 17 13 19 19 19 20 21 19 20 21 22 20 19 19 20 19 20 21 22 21 23 24 25 24 26 26 25 24 24 24 27 26 26 25 26 26 26 26 26 26 24 26 28 27 27 27 27 27 26 28 26 26 27 27 29 27 31 29 29 30 30 31 34 32 0 0 0 0 0
    0 0 0 0 0 0 0 0 0 0 0 0 0 0 0 0 0 0 0 0 0 0 0 0 0 0 0 0 0 0 0 0 0 0 0 0 0 0 0 0 0 0 0 0 0 0 0 0 0 0 0 0 0 0 0 0 0 0 0 0 0 0 0 0 0 0 0 0 0 9 10 9 9 9 0 0 0 0 0 0 0 0 0 9 9 9 10 10 10 10 9 9 0 0 0 0 0 0 0 0 0 0 0 0 0 0 11 11 11 11 11 9 11 10 0 0 0 0 0 0 0 -193 9 11 14 -193 11 11 11 0 0 0 0 0 0 0 0 0 9 10 0 0 0 10 9 10 0 0 0 0 0 0 0 0 0 0 -193 14 25 27 33 32 36 -209 12 12 10 10 9 10 -193 12 15 13 12 12 12 13 12 11 12 9 11 11 -193 11 15 9 9 11 10 10 10 9 10 0 10 11 9 10 10 12 11 0 10 9 0 9 0 0 0 0 0 11 9 9 9 9 9 11 12 10 0 10 10 10 11 10 10 11 14 13 12 13 13 13 15 16 16 15 17 18 17 20 17 17 17 17 16 16 17 18 13 20 20 20 21 21 18 20 20 22 20 20 20 20 19 21 21 22 22 25 25 26 25 27 27 25 24 24 25 27 26 26 25 26 26 26 27 26 26 25 28 29 28 29 28 28 27 27 29 26 -193 26 26 28 27 30 29 30 31 30 32 35 33 0 0 0 0 0
    0 0 0 0 0 0 0 0 0 0 0 0 0 0 0 0 0 0 0 0 0 0 0 0 0 0 0 0 0 0 0 0 0 0 0 0 0 0 0 0 0 0 0 0 0 0 0 0 0 0 0 0 0 0 0 0 0 0 0 0 0 0 0 0 0 0 0 0 0 9 10 10 9 9 0 0 0 0 0 0 0 0 0 9 9 9 9 10 10 9 9 9 0 0 0 0 0 0 0 0 0 0 9 0 0 0 11 11 11 11 11 9 11 10 0 0 0 0 0 0 0 -193 9 11 13 9 11 11 11 0 0 0 0 0 0 0 0 0 9 9 0 0 0 9 9 9 0 0 0 0 0 0 0 0 0 0 0 9 16 -193 33 29 36 -209 13 13 11 11 10 10 14 12 15 13 12 12 12 13 13 11 11 9 10 10 -193 11 14 9 9 10 10 10 10 9 10 0 10 11 9 10 10 11 10 0 9 9 0 9 0 0 0 0 0 11 9 10 9 10 9 11 12 11 0 11 10 11 11 11 11 11 14 13 11 12 12 13 15 15 15 15 17 18 17 21 17 17 17 17 17 16 18 18 13 20 20 20 21 21 18 20 21 22 21 21 20 20 19 21 22 22 22 25 25 26 25 27 26 26 25 25 26 27 26 27 25 26 26 26 26 26 26 26 28 30 29 30 29 28 28 28 29 26 -193 -193 26 28 27 29 29 29 31 31 32 35 33 0 0 0 0 0
    0 0 0 0 0 0 0 0 0 0 0 0 0 0 0 0 0 0 0 0 0 0 0 0 0 0 0 0 0 0 0 0 0 0 0 0 0 0 0 0 0 0 0 0 0 0 0 0 0 0 0 0 0 0 0 0 0 0 0 0 0 0 0 0 0 0 0 0 0 9 10 10 9 9 9 9 9 9 0 0 0 0 0 9 9 9 9 10 10 10 10 10 0 10 9 9 10 0 0 0 0 0 9 0 0 0 11 11 11 11 11 9 12 11 0 0 9 0 0 0 0 -193 9 11 13 9 11 11 11 0 0 0 0 0 0 0 0 0 9 10 0 0 0 8 0 9 0 0 0 0 0 0 0 0 0 0 0 0 9 20 29 25 33 -193 17 16 13 14 12 12 14 12 15 13 12 12 12 13 12 11 11 9 10 10 16 11 14 9 9 10 10 10 10 9 9 0 10 11 9 10 9 11 10 9 9 9 0 9 0 0 0 0 0 10 9 9 9 9 10 11 13 11 0 11 11 12 12 11 11 11 13 13 11 12 12 13 14 15 15 15 17 18 18 21 17 18 18 18 17 17 18 18 13 20 20 20 21 21 17 20 21 22 21 21 21 20 20 21 22 22 23 25 25 26 25 27 27 26 25 25 28 27 26 27 25 26 26 26 26 25 26 25 27 30 29 31 30 28 28 28 29 27 -193 26 26 28 28 29 29 29 31 31 32 35 34 0 0 0 0 0
    0 0 0 0 0 0 0 0 0 0 0 0 0 0 0 0 0 0 0 0 0 0 0 0 0 0 0 0 0 0 0 0 0 0 0 0 0 0 0 0 0 0 0 0 0 0 0 0 0 0 0 0 0 0 0 0 0 0 0 0 0 0 0 0 0 0 0 0 0 9 11 10 9 9 9 9 9 9 0 0 0 0 0 0 0 0 9 9 9 10 10 11 9 10 10 10 10 0 0 0 0 0 9 0 0 0 10 11 11 11 11 9 12 12 9 0 10 0 0 0 0 10 9 11 13 -193 11 11 11 0 0 0 0 0 0 0 0 0 10 11 0 0 9 10 9 10 0 0 0 0 0 0 0 0 0 0 0 0 10 17 21 20 22 17 15 14 14 14 12 13 14 13 15 13 13 13 13 13 13 12 12 10 11 10 17 11 14 0 9 10 9 10 9 0 9 0 10 11 9 10 10 12 11 10 11 10 9 9 0 0 0 0 0 9 0 9 0 9 10 12 14 12 9 12 12 12 12 11 11 10 12 13 11 12 12 12 14 15 15 16 17 19 19 21 18 18 18 18 18 18 18 18 13 20 20 21 21 20 18 21 22 22 22 21 21 21 20 21 21 22 23 26 26 28 25 27 27 27 26 26 29 27 26 27 24 25 25 25 26 25 25 25 27 30 30 31 30 29 29 29 30 27 25 26 26 28 28 30 29 29 31 31 32 35 33 0 0 0 0 0
    0 0 0 0 0 0 0 0 0 0 0 0 0 0 0 0 0 0 0 0 0 0 0 0 0 0 0 0 0 0 0 0 0 0 0 0 0 0 0 0 0 0 0 0 0 0 0 0 0 0 0 0 0 0 0 0 0 0 0 0 0 0 0 0 0 0 0 0 0 9 12 10 9 9 9 9 9 9 9 0 0 0 0 0 0 0 0 0 9 10 10 10 10 10 10 10 11 9 0 0 0 0 9 0 0 0 10 11 11 11 11 9 13 13 10 0 11 9 0 0 0 10 10 11 13 9 11 11 11 0 0 0 0 0 0 0 0 0 9 10 0 0 9 10 10 10 9 0 0 0 0 0 0 0 0 0 0 0 9 11 11 13 13 12 12 12 12 13 12 12 14 12 14 13 13 13 13 14 13 12 13 11 12 11 17 11 13 0 0 9 9 9 9 0 0 0 10 11 9 11 11 12 12 10 11 11 9 10 0 0 0 0 0 0 0 0 0 9 10 12 16 12 10 13 14 13 12 11 11 10 12 14 12 12 12 12 14 15 16 16 17 19 19 22 18 18 18 18 18 17 18 18 14 20 21 21 21 21 20 22 23 22 22 22 21 21 20 21 21 21 21 25 26 28 26 28 28 28 27 27 28 26 26 26 24 24 24 25 25 24 24 24 26 30 29 31 30 29 30 30 31 28 26 28 27 30 29 30 30 30 32 31 32 35 33 0 0 0 0 0
    0 0 0 0 0 0 0 0 0 0 0 0 0 0 0 0 0 0 0 0 0 0 0 0 0 0 0 0 0 0 0 0 0 0 0 0 0 0 0 0 0 0 0 0 0 0 0 0 0 0 0 0 0 0 0 0 0 0 0 0 0 0 0 0 0 0 0 0 0 10 12 10 9 9 9 9 9 9 9 0 9 9 9 9 0 0 0 9 9 11 9 10 10 10 10 10 11 9 0 9 0 0 9 0 0 0 10 10 10 10 11 9 12 12 9 0 11 9 9 9 9 10 10 11 12 9 11 11 11 0 0 0 0 0 0 0 0 0 9 9 0 0 9 9 10 10 0 0 0 0 0 0 0 0 0 0 9 0 9 9 10 11 11 11 11 10 11 12 11 12 13 11 13 12 13 13 13 14 13 13 14 12 13 12 18 12 13 0 0 9 9 9 0 0 0 0 9 10 9 11 11 13 12 10 11 11 10 10 0 0 0 0 0 0 0 0 0 9 10 12 17 13 10 14 16 14 13 12 12 11 12 15 12 12 12 13 14 15 15 16 17 20 20 22 18 18 19 18 18 17 18 18 14 20 20 20 21 21 20 22 23 23 23 22 22 22 20 21 21 21 20 23 26 28 26 28 28 27 27 26 28 24 25 24 23 23 23 24 24 22 24 24 26 29 29 31 31 29 30 31 31 28 27 29 27 30 30 31 30 30 33 32 33 35 33 0 0 0 0 0
    0 0 0 0 0 0 0 0 0 0 0 0 0 0 0 0 0 0 0 0 0 0 0 0 0 0 0 0 0 0 0 0 0 0 0 0 0 0 0 0 0 0 0 0 0 0 0 0 0 0 0 0 0 0 0 0 0 0 0 0 0 0 0 0 0 0 0 0 0 10 12 9 9 0 9 9 9 9 9 0 9 9 9 0 0 0 0 0 9 10 9 10 9 10 10 10 11 9 0 9 0 0 9 0 0 0 10 10 10 10 10 0 11 12 10 0 11 9 9 9 9 10 10 10 11 9 11 10 10 0 0 0 0 0 0 0 0 0 9 9 0 0 9 9 10 10 0 0 0 0 0 0 0 0 0 9 10 9 10 10 11 12 11 11 11 10 11 11 11 11 12 11 13 12 13 13 14 14 14 13 15 13 14 13 18 13 13 0 0 0 0 0 0 0 0 0 10 11 9 11 11 13 12 10 11 10 9 9 0 0 0 0 0 0 0 0 0 10 10 13 18 14 11 15 17 15 14 13 12 11 13 16 12 12 12 13 14 14 15 16 16 20 20 22 18 18 19 18 18 17 18 18 14 20 20 19 21 21 20 22 23 23 23 22 22 22 21 21 21 20 19 21 26 28 27 28 29 28 28 27 28 24 24 24 23 23 23 23 24 23 24 24 26 29 29 32 32 30 31 32 32 29 28 30 28 31 30 31 30 31 33 32 34 35 33 0 0 0 0 0
    0 0 0 0 0 0 0 0 0 0 0 0 0 0 0 0 0 0 0 0 0 0 0 0 0 0 0 0 0 0 0 0 0 0 0 0 0 0 0 0 0 0 0 0 0 0 0 0 0 0 0 0 0 0 0 0 0 0 0 0 0 0 0 0 0 0 0 0 0 9 11 0 0 0 9 9 9 9 9 0 9 9 9 0 0 0 0 0 0 10 0 9 9 9 9 10 10 9 0 0 0 0 9 0 0 0 10 9 10 9 10 0 11 13 11 9 13 10 10 10 10 10 10 10 11 9 10 10 10 0 0 0 0 0 0 0 0 0 10 10 0 0 9 9 10 9 0 0 0 0 0 0 0 0 0 9 11 10 11 11 11 12 11 11 11 10 11 11 11 11 12 11 12 12 14 13 14 15 14 14 15 13 15 13 17 13 13 0 0 0 0 0 0 0 0 0 11 12 11 13 12 13 12 11 11 10 9 9 0 0 0 0 0 9 0 9 9 10 11 14 18 14 11 15 18 15 14 13 12 11 13 17 13 12 12 13 13 14 15 16 16 19 20 22 18 19 19 18 18 17 18 18 15 20 19 19 22 21 20 22 23 23 24 22 22 22 21 21 22 20 18 18 25 27 27 28 29 29 30 29 29 25 25 25 23 24 23 24 24 24 24 24 26 29 29 32 33 30 32 32 32 29 29 30 29 32 30 32 30 31 34 33 34 34 32 0 0 0 0 0
    0 0 0 0 0 0 0 0 0 0 0 0 0 0 0 0 0 0 0 0 0 0 0 0 0 0 0 0 0 0 0 0 0 0 0 0 0 0 0 0 0 0 0 0 0 0 0 0 0 0 0 0 0 0 0 0 0 0 0 0 0 0 0 0 0 0 0 0 0 0 10 0 0 0 9 9 9 9 9 0 9 10 9 0 0 0 0 0 0 9 0 0 9 9 9 9 9 0 0 0 0 0 9 0 0 0 9 9 9 9 9 0 11 13 12 9 13 10 10 10 10 10 10 10 10 9 9 9 9 0 0 0 0 0 0 0 0 0 10 10 0 0 9 0 9 9 0 0 0 0 0 0 0 0 0 10 11 10 11 10 11 11 11 11 10 10 10 11 11 11 11 11 12 12 14 14 14 15 14 14 15 13 15 13 16 12 12 0 0 0 0 0 8 0 9 0 11 13 12 14 12 14 12 11 11 10 9 10 0 0 0 0 0 10 9 9 10 11 11 14 19 15 12 15 18 15 14 13 12 11 12 17 13 12 12 13 13 14 14 16 15 19 20 22 18 19 19 18 18 17 18 18 14 20 19 20 22 21 20 21 23 23 22 21 21 20 19 20 21 18 16 16 25 25 26 28 28 29 31 30 28 25 25 25 23 24 23 23 23 24 24 23 25 28 28 32 32 30 31 32 32 30 30 31 30 33 31 32 31 32 34 34 34 34 32 0 0 0 0 0
    0 0 0 0 0 0 0 0 0 0 0 0 0 0 0 0 0 0 0 0 0 0 0 0 0 0 0 0 0 0 0 0 0 0 0 0 0 0 0 0 0 0 0 0 0 0 0 0 0 0 0 0 0 0 0 0 0 0 0 0 0 0 0 0 0 0 0 0 0 0 10 0 0 0 9 9 9 9 9 0 10 10 9 0 0 0 0 0 0 9 0 0 0 0 0 0 0 0 0 0 0 0 0 0 0 0 9 0 9 0 9 0 11 14 13 9 13 11 11 10 10 10 10 10 10 9 9 9 9 0 0 0 0 0 0 0 0 0 10 10 9 9 10 9 10 9 0 0 0 0 0 0 0 0 9 12 13 11 12 11 11 11 11 11 10 9 10 10 11 11 11 10 11 12 14 13 14 14 13 13 15 13 14 12 13 10 11 0 0 0 0 0 0 0 9 9 12 14 13 15 13 14 13 11 11 11 10 10 0 0 0 0 0 10 9 9 9 10 11 14 19 15 12 14 18 15 14 14 13 11 12 18 13 12 12 13 13 14 14 16 14 18 20 22 18 19 19 18 18 17 18 18 14 20 18 19 22 20 20 22 22 22 21 20 20 19 20 20 20 18 14 15 23 24 24 26 25 27 30 29 27 25 25 25 23 24 23 23 23 24 23 23 24 27 27 31 32 30 31 32 32 31 31 33 31 34 32 33 32 33 35 34 34 33 31 0 0 0 0 0
    0 0 0 0 0 0 0 0 0 0 0 0 0 0 0 0 0 0 0 0 0 0 0 0 0 0 0 0 0 0 0 0 0 0 0 0 0 0 0 0 0 0 0 0 0 0 0 0 0 0 0 0 0 0 0 0 0 0 0 0 0 0 0 0 0 0 0 0 0 0 10 0 0 0 9 9 9 9 9 0 10 10 10 9 9 9 9 9 0 9 0 0 9 0 0 0 0 0 0 0 0 0 0 0 0 0 9 0 0 0 9 0 11 15 13 9 13 11 11 10 10 10 10 10 10 0 9 0 0 0 0 0 0 0 0 0 0 0 10 10 9 10 11 10 11 10 9 0 0 0 0 0 0 9 11 13 14 12 13 12 11 12 11 10 10 9 10 10 10 10 -193 10 10 11 13 12 13 13 12 12 13 12 13 12 12 9 9 0 0 0 0 0 0 0 8 9 12 14 13 16 13 15 13 12 11 11 10 10 0 0 0 0 0 9 0 9 9 10 11 14 19 15 12 14 19 15 15 14 13 11 12 18 14 12 13 13 13 14 15 16 14 17 19 22 17 19 18 18 17 16 17 18 14 19 18 19 21 19 21 21 21 21 20 19 19 18 19 18 19 16 13 14 22 23 23 24 23 25 28 27 24 24 24 24 23 23 22 22 22 24 23 23 24 27 28 31 32 30 31 32 32 32 32 33 32 35 33 34 33 33 35 35 33 33 31 0 0 0 0 0
    0 0 0 0 0 0 0 0 0 0 0 0 0 0 0 0 0 0 0 0 0 0 0 0 0 0 0 0 0 0 0 0 0 0 0 0 0 0 0 0 0 0 0 0 0 0 0 0 0 0 0 0 0 0 0 0 0 0 0 0 0 0 0 0 0 0 0 0 0 0 10 0 0 0 9 9 9 9 9 0 10 10 10 9 9 9 9 9 0 0 0 0 9 0 0 0 0 0 0 0 0 0 0 0 0 0 9 0 0 0 8 0 11 14 13 8 12 11 11 10 10 10 10 10 10 0 9 0 0 0 9 10 9 9 9 0 9 9 10 10 10 10 11 10 11 11 9 0 0 0 0 0 9 9 10 12 12 11 12 11 11 11 10 10 9 9 9 9 10 10 -193 10 10 11 12 12 13 12 12 12 12 11 12 11 12 10 9 0 0 0 0 0 0 0 0 0 11 14 13 16 14 15 14 12 12 12 11 10 9 9 0 0 0 10 9 9 9 10 11 14 19 14 11 14 18 14 15 14 13 11 13 18 14 12 13 13 13 14 14 15 13 15 19 21 16 19 18 18 17 16 17 18 14 19 17 18 21 19 22 20 20 21 20 18 19 18 19 17 18 16 13 13 21 22 22 22 22 23 25 25 23 23 22 23 22 23 22 22 22 24 24 23 24 26 27 31 32 30 31 31 31 31 32 34 33 35 33 34 33 33 35 35 33 33 31 0 0 0 0 0
    0 0 0 0 0 0 0 0 0 0 0 0 0 0 0 0 0 0 0 0 0 0 0 0 0 0 0 0 0 0 0 0 0 0 0 0 0 0 0 0 0 0 0 0 0 0 0 0 0 0 0 0 0 0 0 0 0 0 0 0 0 0 0 0 0 0 0 0 0 0 9 0 0 0 9 9 9 9 9 0 10 10 10 9 10 10 10 9 0 0 0 0 0 0 0 0 0 0 0 0 0 0 0 0 0 0 0 0 0 0 0 0 11 13 13 0 12 11 11 10 10 10 10 10 10 0 9 0 0 10 10 11 11 10 11 9 10 10 9 9 0 9 10 9 10 10 0 0 0 0 0 0 0 0 0 10 9 10 10 10 10 10 9 9 -193 9 9 9 10 10 10 10 -193 10 11 11 12 11 11 11 11 10 11 11 12 10 9 0 0 0 0 0 0 0 0 0 11 14 12 14 13 14 14 12 12 11 10 10 9 9 0 0 0 11 9 9 9 10 11 13 18 14 11 13 17 13 14 13 13 11 13 17 14 12 13 13 13 14 14 15 12 15 18 20 16 18 18 17 17 16 17 17 14 19 16 16 20 19 22 19 20 21 20 19 19 19 19 16 19 18 13 13 21 22 22 21 20 22 24 24 23 21 21 22 22 22 21 22 22 23 24 24 25 26 27 31 32 30 31 31 31 32 33 34 33 34 33 34 33 33 34 34 33 33 31 0 0 0 0 0
    0 0 0 0 0 0 0 0 0 0 0 0 0 0 0 0 0 0 0 0 0 0 0 0 0 0 0 0 0 0 0 0 0 0 0 0 0 0 0 0 0 0 0 0 0 0 0 0 0 0 0 0 0 0 0 0 0 0 0 0 0 0 0 0 0 0 0 0 0 0 0 0 0 0 9 9 9 9 9 0 10 10 10 9 10 10 11 11 9 9 9 9 9 0 0 0 0 0 0 0 0 0 0 0 0 0 0 0 0 0 0 0 11 13 13 9 11 11 11 10 10 10 9 9 9 0 0 0 0 10 9 11 10 10 11 9 10 10 9 9 0 0 9 0 9 9 0 0 0 0 0 0 0 0 0 0 0 0 0 9 9 9 0 -209 -193 0 0 0 9 9 -209 -193 -209 -193 9 10 -193 10 -193 10 10 10 10 10 12 10 9 0 0 0 0 0 0 0 0 0 10 13 11 12 12 12 14 12 11 11 10 10 9 9 0 0 0 12 9 9 9 11 10 12 15 12 10 12 14 12 14 13 13 11 13 16 14 12 13 13 13 13 14 14 13 14 17 19 15 18 18 17 17 16 17 17 14 18 15 16 18 18 21 19 19 21 20 19 19 19 19 17 19 18 14 12 21 21 20 18 19 21 23 24 23 20 20 22 22 22 22 22 22 23 24 24 25 26 27 31 33 30 32 31 31 32 33 34 33 33 33 33 33 33 34 34 32 33 31 0 0 0 0 0
    0 0 0 0 0 0 0 0 0 0 0 0 0 0 0 0 0 0 0 0 0 0 0 0 0 0 0 0 0 0 0 0 0 0 0 0 0 0 0 0 0 0 0 0 0 0 0 0 0 0 0 0 0 0 0 0 0 0 0 0 0 0 0 0 0 0 0 0 0 0 0 0 0 0 9 9 9 9 9 0 10 10 10 9 10 10 11 11 10 10 10 10 10 0 0 0 0 0 0 0 0 0 0 0 0 0 0 0 0 0 0 0 11 13 13 9 12 11 12 11 10 10 10 10 9 0 0 0 0 9 9 10 10 10 11 9 9 10 9 9 0 0 0 0 9 9 0 0 0 0 0 0 0 0 0 0 0 0 0 0 0 0 0 -209 -193 -193 0 9 9 10 -209 -193 -193 -193 -193 -209 -193 -193 -209 -193 -193 -193 10 10 12 10 10 0 0 0 -193 0 -193 0 0 0 11 13 11 12 12 12 14 12 11 11 10 10 10 10 0 0 0 11 9 9 9 10 10 11 13 11 9 11 13 11 13 12 12 11 12 15 13 12 13 13 13 14 14 15 13 14 17 19 15 18 17 17 17 16 16 16 13 16 13 17 18 19 21 19 19 20 20 19 19 18 19 16 19 18 14 11 18 18 17 13 15 20 21 23 22 20 20 22 23 23 22 22 22 23 25 25 26 26 27 31 33 30 32 32 31 32 33 34 33 33 33 33 32 33 -193 -193 32 33 31 0 0 0 0 0
    0 0 0 0 0 0 0 0 0 0 0 0 0 0 0 0 0 0 0 0 0 0 0 0 0 0 0 0 0 0 0 0 0 0 0 0 0 0 0 0 0 0 0 0 0 0 0 0 0 0 0 0 0 0 0 0 0 0 0 0 0 0 0 0 0 0 0 0 0 0 0 0 0 0 9 9 0 0 0 0 9 9 9 0 9 9 10 10 9 10 10 10 10 9 0 0 0 0 0 0 0 0 0 0 0 0 0 0 0 0 0 0 11 13 13 9 13 12 12 11 11 10 10 10 10 0 0 0 0 0 9 10 10 10 11 9 9 10 9 9 0 0 -177 0 9 10 0 9 0 0 0 0 0 0 0 0 0 -193 0 0 0 0 0 -209 -193 -193 0 9 10 -193 -193 -193 -193 -193 -209 524 -193 -193 -193 -193 -193 -193 -193 -193 12 10 10 0 0 0 -193 -193 -193 -193 0 -193 11 13 11 12 12 11 14 13 12 12 11 11 11 11 0 0 0 11 0 9 0 10 9 10 12 11 9 11 12 11 13 12 12 11 12 14 13 12 14 13 14 14 15 15 14 15 17 19 16 18 17 17 17 15 16 16 13 15 13 18 19 20 21 19 19 20 20 18 18 18 18 16 19 19 14 11 16 16 15 12 13 18 19 22 23 20 20 22 23 23 22 23 23 23 25 26 27 26 28 31 33 30 32 31 30 32 32 33 32 31 32 32 32 32 -193 -193 31 32 31 0 0 0 0 0
    0 0 0 0 0 0 0 0 0 0 0 0 0 0 0 0 0 0 0 0 0 0 0 0 0 0 0 0 0 0 0 0 0 0 0 0 0 0 0 0 0 0 0 0 0 0 0 0 0 0 0 0 0 0 0 0 0 0 0 0 0 0 0 0 0 0 0 0 0 0 0 0 0 0 0 0 0 0 0 0 0 0 0 0 0 0 9 9 9 11 10 10 9 9 0 0 0 0 0 0 0 0 0 0 0 0 8 0 0 0 9 0 11 12 12 0 12 12 12 11 10 10 10 10 9 0 0 0 0 9 9 10 9 10 11 9 10 10 9 10 0 8 -177 0 9 10 -177 -177 -193 0 0 0 0 -193 0 -193 -193 -193 -193 -193 0 0 0 -209 -193 -209 0 -209 -209 -209 396 396 396 -193 -209 524 -193 -193 -177 -193 524 -193 -209 -209 12 10 10 0 0 0 -193 0 -193 0 0 0 10 12 11 11 11 11 14 13 12 12 11 11 11 11 0 0 0 10 0 0 0 10 9 9 11 10 9 10 12 11 13 12 12 11 12 14 13 12 14 13 14 15 16 15 15 15 18 18 16 18 17 17 17 15 15 15 12 13 14 18 19 21 21 19 19 20 20 18 18 18 18 16 18 19 15 11 17 17 16 12 13 17 18 21 23 20 20 22 24 23 23 23 24 24 26 27 27 26 28 31 33 30 31 31 30 32 32 32 31 30 31 30 31 31 -193 31 30 31 30 0 0 0 0 0
    0 0 0 0 0 0 0 0 0 0 0 0 0 0 0 0 0 0 0 0 0 0 0 0 0 0 0 0 0 0 0 0 0 0 0 0 0 0 0 0 0 0 0 0 0 0 0 0 0 0 0 0 0 0 0 0 0 0 0 0 0 0 0 0 0 0 0 0 0 0 0 0 0 0 0 0 0 0 0 0 0 0 0 0 9 9 9 10 9 12 11 11 10 10 9 9 9 0 0 0 0 0 0 0 0 0 9 0 0 0 9 0 11 12 12 0 12 11 11 10 10 10 10 10 9 0 0 0 0 0 0 10 9 10 10 9 9 10 9 10 0 9 -177 9 9 10 -177 -177 9 9 0 0 0 -193 0 -193 -193 -193 -193 -193 -209 -193 -193 -209 -209 -209 -193 -193 -209 -193 396 396 396 -193 -193 524 -193 -193 -193 -193 -177 -193 -209 -209 -193 10 10 -193 0 -193 -193 0 -193 0 0 0 10 12 10 11 11 10 14 13 12 12 11 11 12 10 0 0 0 9 0 0 0 9 0 9 10 10 9 10 12 11 12 12 12 11 12 13 13 12 15 13 15 15 16 16 16 16 18 19 17 18 18 17 17 15 15 16 12 14 15 19 20 21 21 19 19 21 21 19 19 18 18 17 19 20 16 11 18 18 17 13 14 18 17 21 23 21 21 22 24 23 23 24 24 24 26 27 27 26 28 31 32 29 31 31 30 31 31 32 31 30 31 30 30 30 -193 30 29 31 29 0 0 0 0 0
    0 0 0 0 0 0 0 0 0 0 0 0 0 0 0 0 0 0 0 0 0 0 0 0 0 0 0 0 0 0 0 0 0 0 0 0 0 0 0 0 0 0 0 0 0 0 0 0 0 0 0 0 0 0 0 0 0 0 0 0 0 0 0 0 0 0 0 0 0 0 0 0 0 0 0 0 0 0 0 0 0 0 0 0 9 9 10 10 9 12 11 11 10 10 9 9 9 9 0 0 0 0 0 0 0 0 9 0 0 0 9 0 10 11 12 9 13 11 12 11 10 10 10 10 9 0 0 0 0 0 0 9 9 10 10 9 9 10 9 9 0 0 -177 9 9 10 0 9 9 9 0 0 -193 -193 0 -193 -193 -193 -193 -193 -193 -193 -193 -209 -209 -209 -209 -193 -193 -193 -193 -193 396 -193 -193 524 -193 -209 -209 -209 -177 -193 -209 -209 12 10 10 -193 -193 -209 -193 -193 -209 0 0 -193 10 12 10 11 11 10 13 12 11 11 10 11 12 10 0 0 0 9 0 0 0 9 0 9 10 9 9 10 12 11 12 12 12 11 12 13 13 12 15 13 15 15 17 16 16 16 18 19 17 18 18 17 17 16 16 16 12 14 18 20 21 22 21 18 18 20 21 19 19 18 19 18 20 20 17 11 18 18 18 12 15 20 18 22 23 21 22 23 24 23 23 24 24 25 26 27 28 26 28 30 31 28 30 30 29 30 30 30 30 29 30 30 30 30 28 30 29 31 29 0 0 0 0 0
    0 0 0 0 0 0 0 0 0 0 0 0 0 0 0 0 0 0 0 0 0 0 0 0 0 0 0 0 0 0 0 0 0 0 0 0 0 0 0 0 0 0 0 0 0 0 0 0 0 0 0 0 0 0 0 0 0 0 0 0 0 0 0 0 0 0 0 0 0 0 0 0 0 0 0 0 0 0 0 0 0 0 0 0 9 9 9 10 9 12 10 11 9 10 9 9 9 9 0 0 0 0 0 0 0 0 0 0 0 0 9 0 10 10 12 9 14 12 12 11 11 10 10 10 9 0 0 0 0 0 0 9 9 9 10 9 9 9 9 9 0 0 -177 9 9 10 0 9 9 9 -193 0 0 -209 0 -193 -193 -193 -193 -193 -193 0 -193 -209 -209 -209 -193 -193 -193 10 -193 -193 396 -193 -193 524 -193 -209 -209 -209 -209 -193 -209 -193 12 10 10 -193 -193 -209 -209 0 -209 0 0 -193 10 11 10 10 10 10 11 11 11 11 10 10 11 10 0 0 0 0 0 0 0 0 0 9 9 9 9 10 11 10 11 11 11 11 12 13 13 12 15 13 15 15 17 16 17 17 18 19 17 18 17 17 17 16 15 17 12 15 20 21 23 22 20 17 17 20 22 19 19 19 19 19 20 21 18 11 19 19 19 13 18 21 19 22 24 22 22 23 25 24 23 24 24 25 25 27 27 25 28 30 31 28 29 29 29 30 30 30 29 28 30 29 30 30 28 30 29 31 30 0 0 0 0 0
    0 0 0 0 0 0 0 0 0 0 0 0 0 0 0 0 0 0 0 0 0 0 0 0 0 0 0 0 0 0 0 0 0 0 0 0 0 0 0 0 0 0 0 0 0 0 0 0 0 0 0 0 0 0 0 0 0 0 0 0 0 0 0 0 0 0 0 0 0 0 0 0 0 0 0 0 0 0 0 0 0 0 0 0 9 9 9 10 9 13 10 11 9 10 9 9 9 9 0 0 0 0 0 0 0 0 0 0 0 0 9 0 9 10 12 9 15 13 13 11 11 10 10 9 9 0 0 0 0 0 0 0 0 9 9 0 0 9 9 9 0 0 -177 9 9 10 0 9 9 9 0 0 0 -193 0 -193 -193 -193 -193 -193 -193 -193 -193 -209 -209 -209 -193 -193 -193 10 -209 -209 -193 -193 -193 524 -193 -209 -209 -209 -193 -193 -193 11 13 11 11 -193 0 9 0 0 -209 0 0 0 10 11 10 10 10 10 11 11 11 11 10 10 10 10 0 0 0 0 0 0 0 0 0 9 9 9 0 9 11 10 11 11 11 11 11 12 13 12 14 13 15 16 17 17 18 18 17 19 17 17 17 16 17 16 15 17 11 15 20 21 22 21 18 17 17 20 22 19 19 19 19 20 21 21 18 12 20 20 20 15 20 22 20 22 23 22 22 23 25 24 23 24 24 25 25 26 27 25 27 30 31 28 30 30 29 30 30 30 29 29 30 29 30 30 28 30 29 31 30 0 0 0 0 0
    0 0 0 0 0 0 0 0 0 0 0 0 0 0 0 0 0 0 0 0 0 0 0 0 0 0 0 0 0 0 0 0 0 0 0 0 0 0 0 0 0 0 0 0 0 0 0 0 0 0 0 0 0 0 0 0 0 0 0 0 0 0 0 0 0 0 0 0 0 0 0 0 0 0 0 0 0 0 0 0 0 0 0 0 9 0 9 10 9 13 10 11 9 10 9 10 9 9 0 0 0 0 0 0 0 0 0 0 0 0 9 0 9 9 11 9 14 13 12 11 11 10 10 9 0 0 0 0 0 0 0 0 0 9 9 0 0 9 9 10 0 0 -177 9 9 10 0 10 10 10 9 0 0 -193 0 -193 -193 -193 -193 -193 -193 -193 -209 -209 -193 -209 -193 -193 -193 9 -209 -209 -209 -193 -209 524 -193 -209 -209 -209 -209 13 12 12 15 12 12 -193 0 9 0 0 -193 0 0 0 10 12 11 11 11 11 12 12 12 12 11 11 10 10 0 0 0 0 0 0 0 0 0 9 0 0 0 9 11 10 10 11 10 11 11 11 12 11 14 13 15 16 18 18 19 18 17 19 17 17 17 16 17 15 15 17 11 15 20 21 22 21 17 16 16 19 22 19 18 18 18 20 21 21 19 12 21 21 21 18 21 22 20 22 23 -193 23 24 25 24 24 24 24 25 25 25 26 25 27 29 31 28 29 30 29 30 30 30 29 29 30 29 30 30 29 30 30 31 30 0 0 0 0 0
    0 0 0 0 0 0 0 0 0 0 0 0 0 0 0 0 0 0 0 0 0 0 0 0 0 0 0 0 0 0 0 0 0 0 0 0 0 0 0 0 0 0 0 0 0 0 0 0 0 0 0 0 0 0 0 0 0 0 0 0 0 0 0 0 0 0 0 0 0 0 0 0 0 0 0 0 0 0 0 0 0 0 0 0 0 0 9 10 9 13 10 10 0 10 9 9 9 9 0 0 0 9 0 0 0 0 0 0 0 0 9 0 9 0 10 0 13 11 11 10 10 9 9 9 0 0 0 0 0 0 0 0 0 9 9 9 9 10 10 11 0 9 9 10 10 11 10 11 11 12 11 10 10 10 0 -193 -193 -193 -193 -193 -193 -193 -193 9 9 9 9 9 9 10 -193 -193 -193 -209 -209 -209 -209 -209 -209 -193 -193 -193 13 13 18 13 12 0 0 9 -193 0 -193 0 0 0 10 12 11 12 12 11 12 13 13 13 12 12 12 12 0 0 0 0 0 0 0 0 0 9 0 0 0 9 11 10 10 10 10 11 11 11 12 11 14 13 15 17 19 18 20 18 18 20 18 17 17 16 17 15 15 17 11 17 22 22 23 21 16 15 15 18 22 18 18 17 18 20 21 21 19 13 22 22 22 20 22 22 21 23 24 -177 24 24 26 24 24 24 25 25 24 24 25 24 26 28 30 27 29 29 29 30 30 30 30 29 30 29 30 30 29 31 31 32 31 0 0 0 0 0
    0 0 0 0 0 0 0 0 0 0 0 0 0 0 0 0 0 0 0 0 0 0 0 0 0 0 0 0 0 0 0 0 0 0 0 0 0 0 0 0 0 0 0 0 0 0 0 0 0 0 0 0 0 0 0 0 0 0 0 0 0 0 0 0 0 0 0 0 0 0 0 0 0 0 0 0 0 0 0 0 0 0 0 0 0 0 0 9 9 12 9 9 0 10 0 9 0 9 0 0 0 9 0 0 0 0 0 9 0 9 9 0 9 9 10 0 11 10 10 9 9 0 0 0 0 0 0 0 0 0 0 0 0 9 9 9 10 10 10 12 9 10 11 12 13 13 12 12 12 13 12 11 11 11 10 10 10 10 10 9 10 9 11 10 10 9 9 9 9 9 0 0 0 -209 -209 -209 -209 -209 -193 -193 -193 -193 -193 14 21 13 13 0 0 9 -193 0 -193 0 0 0 9 11 10 11 12 11 12 13 13 13 12 12 12 13 9 0 0 0 0 0 0 0 0 9 0 0 0 9 12 11 10 10 10 11 11 11 13 11 13 14 15 16 18 18 21 19 17 20 17 17 17 17 17 15 15 17 11 19 22 22 22 21 17 15 15 18 22 18 18 17 19 20 21 21 20 13 23 23 23 22 23 23 23 24 -209 -177 25 26 27 25 24 25 25 25 23 24 25 23 25 27 29 27 28 29 29 30 30 30 30 29 31 30 30 30 29 31 31 32 31 0 0 0 0 0
    0 0 0 0 0 0 0 0 0 0 0 0 0 0 0 0 0 0 0 0 0 0 0 0 0 0 0 0 0 0 0 0 0 0 0 0 0 0 0 0 0 0 0 0 0 0 0 0 0 0 0 0 0 0 0 0 0 0 0 0 0 0 0 0 0 0 0 0 0 0 0 0 0 0 0 0 0 0 0 0 0 0 0 0 0 0 0 9 9 11 0 9 0 9 0 9 0 8 0 0 0 9 9 0 0 0 0 9 9 9 10 0 10 10 11 9 11 10 9 9 0 0 0 0 0 0 0 0 0 0 0 0 0 9 9 9 10 10 10 12 9 11 13 13 14 14 13 12 12 13 12 11 11 11 10 9 11 10 9 10 10 0 12 10 10 0 9 0 0 9 0 0 0 -209 -193 -193 -209 -209 -177 -193 -193 -193 -193 18 23 14 14 0 0 9 0 0 -193 0 0 0 9 11 10 11 12 12 12 13 13 13 11 12 10 11 0 0 0 0 0 0 0 0 0 9 0 0 0 0 11 10 10 10 10 11 11 11 13 11 13 14 14 15 18 18 21 18 17 21 17 17 17 17 17 15 15 17 10 19 21 21 21 19 17 14 14 17 22 18 18 17 18 19 21 21 20 14 24 24 24 23 23 24 23 24 -209 87 26 26 27 26 25 25 26 25 22 23 23 22 25 26 28 26 28 29 29 30 30 30 30 29 32 30 31 31 30 32 32 32 31 0 0 0 0 0
    0 0 0 0 0 0 0 0 0 0 0 0 0 0 0 0 0 0 0 0 0 0 0 0 0 0 0 0 0 0 0 0 0 0 0 0 0 0 0 0 0 0 0 0 0 0 0 0 0 0 0 0 0 0 0 0 0 0 0 0 0 0 0 0 0 0 0 0 0 0 0 0 0 0 -193 0 0 0 0 0 0 9 0 0 0 8 0 9 9 11 0 8 0 9 0 9 0 9 0 9 0 9 9 0 0 0 0 9 9 10 10 0 10 10 11 9 11 10 9 9 0 0 0 0 0 0 0 0 0 0 0 0 0 9 9 0 9 9 10 13 10 13 17 15 14 14 14 11 11 12 11 10 10 10 9 0 10 10 0 10 10 -193 12 0 -193 0 -209 0 0 9 -193 -193 -193 -193 -193 -177 -193 -193 386 -193 -193 -209 -209 18 23 15 14 0 0 9 0 0 -193 0 0 0 9 11 10 11 12 12 12 13 13 13 11 12 10 11 0 0 0 0 0 0 0 0 0 9 0 0 0 0 10 9 9 9 9 11 11 11 14 11 13 14 14 14 17 19 21 18 17 21 17 17 17 17 17 15 16 17 10 19 20 20 19 18 18 14 13 16 21 17 17 17 18 18 20 20 19 13 24 24 23 22 23 24 24 -193 -209 -177 27 27 28 26 25 26 26 25 22 22 23 22 25 26 27 26 28 29 28 29 30 29 30 30 32 30 31 31 30 33 33 32 31 0 0 0 0 0
    0 0 0 0 0 0 0 0 0 0 0 0 0 0 0 0 0 0 0 0 0 0 0 0 0 0 0 0 0 0 0 0 0 0 0 0 0 0 0 0 0 0 0 0 0 0 0 0 0 0 0 0 0 0 0 0 0 0 0 0 0 0 0 0 0 0 0 0 0 0 0 0 0 0 -193 0 0 0 0 0 0 9 9 0 0 0 0 0 0 9 0 0 0 0 0 9 0 9 0 0 0 0 9 0 0 0 0 9 9 9 9 0 9 9 11 9 11 10 9 9 9 0 0 0 0 0 0 0 0 0 0 0 0 0 9 0 9 9 10 13 10 13 18 15 15 14 14 11 11 12 10 -177 9 9 9 0 9 9 0 10 10 -193 9 0 -193 0 -209 0 0 10 -193 -193 -177 -193 389 388 -193 -193 384 -193 -193 -193 -209 17 23 14 13 9 0 9 0 0 -193 0 0 0 9 10 9 11 11 11 12 12 13 12 11 11 10 11 9 9 9 9 0 0 0 0 0 9 0 0 0 0 10 9 9 9 9 11 12 12 16 12 13 14 14 14 16 18 20 16 17 21 17 17 17 17 17 15 16 18 10 18 19 20 20 19 20 15 15 17 22 18 18 17 18 17 20 20 19 12 23 23 23 21 22 24 24 25 -209 -177 27 28 28 27 26 26 26 25 22 22 23 23 25 26 28 26 29 30 29 30 30 30 30 30 32 30 31 31 31 33 33 33 31 0 0 0 0 0
    0 0 0 0 0 0 0 0 0 0 0 0 0 0 0 0 0 0 0 0 0 0 0 0 0 0 0 0 0 0 0 0 0 0 0 0 0 0 0 0 0 0 0 0 0 0 0 0 0 0 0 0 0 0 0 0 0 0 0 0 0 0 0 0 0 0 0 0 0 0 0 0 0 0 -193 0 0 0 0 0 0 9 9 0 0 0 0 0 9 9 0 0 0 0 0 0 0 0 0 0 0 0 0 0 0 0 0 9 9 10 10 0 10 10 11 9 11 10 9 9 9 0 0 0 0 0 0 0 0 0 0 0 0 0 9 0 9 9 10 13 10 14 18 16 15 15 14 11 10 11 -177 -177 9 9 -177 0 0 9 0 12 24 -193 15 -193 14 -193 -209 0 0 10 -193 -177 -177 389 388 388 -193 389 384 -193 13 -193 -209 16 23 14 13 9 0 9 0 0 0 0 0 0 9 11 9 11 12 11 12 13 13 12 11 12 10 12 10 10 9 9 9 0 0 9 0 10 0 0 0 0 10 9 9 10 10 12 12 12 17 13 14 14 15 14 16 19 20 16 17 21 17 17 17 17 17 15 16 17 10 19 22 22 23 23 23 18 18 19 23 18 18 17 17 16 19 19 18 12 23 23 22 21 21 23 24 24 -209 -177 27 28 28 27 26 26 26 25 21 21 23 22 25 27 29 28 31 31 31 31 31 30 31 31 32 30 31 31 31 33 33 32 31 0 0 0 0 0
    0 0 0 0 0 0 0 0 0 0 0 0 0 0 0 0 0 0 0 0 0 0 0 0 0 0 0 0 0 0 0 0 0 0 0 0 0 0 0 0 0 0 0 0 0 0 0 0 0 0 0 0 0 0 0 0 0 0 0 0 0 0 0 0 0 0 0 0 0 0 0 0 0 0 -193 -193 9 0 0 0 9 9 9 0 0 0 0 9 9 10 0 0 0 0 0 0 0 0 0 0 0 0 0 0 0 0 0 0 9 10 10 0 11 11 12 9 10 9 0 0 9 0 0 0 0 0 0 0 0 0 0 0 0 0 9 0 9 9 10 13 10 14 19 16 15 14 14 -177 -177 -177 -177 -177 -177 -177 -177 0 0 0 -177 12 26 28 -193 -193 -209 -209 -193 0 0 12 388 387 388 389 389 388 389 389 384 -193 12 -193 -209 16 23 14 12 0 0 9 0 0 0 0 0 0 9 11 9 11 11 11 12 13 12 12 11 12 10 12 12 10 10 10 10 9 9 10 9 10 0 0 0 0 11 10 10 10 10 12 13 13 18 13 14 14 15 15 16 19 20 15 17 21 17 17 17 17 17 14 17 18 11 21 24 25 28 36 28 22 22 22 24 19 19 18 18 16 18 18 18 12 24 24 23 22 20 24 24 25 -209 -177 28 28 28 27 26 26 26 25 21 21 22 21 24 26 29 28 32 32 31 31 30 30 31 31 32 30 30 31 30 32 32 31 29 0 0 0 0 0
    0 0 0 0 0 0 0 0 0 0 0 0 0 0 0 0 0 0 0 0 0 0 0 0 0 0 0 0 0 0 0 0 0 0 0 0 0 0 0 0 0 0 0 0 0 0 0 0 0 0 0 0 0 0 0 0 0 0 0 0 0 0 0 0 0 0 0 0 0 0 0 0 0 0 -193 -193 9 9 9 9 9 10 10 0 0 0 0 9 10 10 9 0 0 0 0 0 0 0 0 0 0 0 0 0 0 0 0 0 9 9 10 0 12 12 11 8 9 0 0 0 0 0 0 0 0 0 0 0 0 0 0 0 0 0 0 0 0 9 10 13 9 14 18 16 14 14 13 -177 -177 -177 -177 -177 -177 -177 -177 0 0 0 -177 10 26 32 -225 -193 -209 14 27 9 0 13 388 387 388 389 389 389 389 389 385 9 -193 -193 -193 13 22 13 11 -193 0 9 0 0 0 0 0 0 9 10 9 11 11 11 12 12 12 11 11 12 10 12 12 11 10 10 11 9 10 10 9 10 0 0 0 0 12 10 12 11 11 13 14 14 19 14 15 14 15 15 16 19 20 14 17 21 17 17 17 18 17 14 18 18 11 23 27 30 33 38 35 24 24 24 -193 20 20 19 18 15 18 18 18 11 23 23 23 23 21 25 25 26 -209 -193 28 29 29 28 26 26 26 26 21 21 22 21 24 26 27 26 31 30 30 30 29 29 30 31 31 29 29 30 28 32 31 30 29 0 0 0 0 0
    0 0 0 0 0 0 0 0 0 0 0 0 0 0 0 0 0 0 0 0 0 0 0 0 0 0 0 0 0 0 0 0 0 0 0 0 0 0 0 0 0 0 0 0 0 0 0 0 0 0 0 0 0 0 0 0 0 0 0 0 0 0 0 0 0 0 0 0 0 0 0 0 0 0 -193 -193 9 9 9 0 9 10 10 0 0 0 0 9 10 11 9 10 9 9 0 0 0 0 0 0 0 0 0 0 0 0 0 0 0 0 10 0 12 12 12 9 9 0 0 0 0 0 0 0 0 0 0 0 0 0 0 0 0 0 0 0 0 0 10 12 0 13 17 15 14 14 12 9 -177 -177 -177 -177 -177 -177 0 0 0 0 0 0 -193 -225 -225 -225 -225 16 24 10 9 14 -193 388 388 389 389 389 389 389 -193 0 -193 9 0 11 20 11 10 -209 -193 -193 0 0 -193 0 0 0 9 10 9 10 10 11 12 12 11 10 11 11 10 12 12 11 10 10 11 9 9 10 9 10 0 0 0 0 13 11 13 12 12 14 15 15 19 14 15 14 15 15 16 18 20 13 17 21 17 17 17 18 17 16 19 20 14 25 28 29 31 37 35 24 24 23 -193 20 20 18 18 15 17 17 17 11 22 22 22 22 20 25 25 26 -193 -193 29 29 29 28 27 27 27 27 22 22 23 23 25 26 26 26 30 29 29 29 27 28 30 31 30 28 28 29 27 31 30 29 28 0 0 0 0 0
    0 0 0 0 0 0 0 0 0 0 0 0 0 0 0 0 0 0 0 0 0 0 0 0 0 0 0 0 0 0 0 0 0 0 0 0 0 0 0 0 0 0 0 0 0 0 0 0 0 0 0 0 0 0 0 0 0 0 0 0 0 0 0 0 0 0 0 0 0 0 0 0 0 0 -177 -193 9 9 9 0 10 11 10 0 0 0 0 0 9 11 9 10 0 9 0 0 0 0 0 0 0 0 0 0 0 0 0 0 0 0 9 0 11 12 12 9 10 0 0 0 0 0 0 0 0 0 0 0 0 0 0 0 0 0 0 0 0 0 9 11 0 12 17 15 13 14 12 9 9 9 -177 -177 0 0 0 0 0 0 0 0 -193 -193 -193 -193 28 17 21 10 9 15 -193 -193 -193 -193 389 389 -193 -193 -193 0 0 9 0 11 18 10 9 -209 -193 -193 9 9 -193 0 0 0 9 9 -193 10 10 10 11 11 11 10 11 11 10 11 11 10 10 10 12 9 10 9 9 10 0 0 0 0 14 12 14 13 13 14 16 16 19 14 15 13 15 15 16 18 20 13 17 21 17 17 17 18 18 17 20 21 16 26 30 31 32 37 36 25 24 24 24 20 20 18 17 14 17 17 17 11 20 21 21 21 19 24 25 26 -193 -193 29 29 30 29 27 28 28 27 23 23 24 24 25 26 26 25 30 29 28 28 27 27 29 31 30 28 28 29 26 30 29 28 27 0 0 0 0 0
    0 0 0 0 0 0 0 0 0 0 0 0 0 0 0 0 0 0 0 0 0 0 0 0 0 0 0 0 0 0 0 0 0 0 0 0 0 0 0 0 0 0 0 0 0 0 0 0 0 0 0 0 0 0 0 0 0 0 0 0 0 0 0 0 0 0 0 0 0 0 0 0 0 0 -193 -193 9 9 9 9 10 12 11 0 0 0 0 0 9 11 9 10 0 0 0 0 0 0 0 0 0 0 0 0 0 0 0 0 0 0 0 0 10 11 12 9 11 9 9 0 0 0 0 0 0 0 0 0 0 0 0 0 0 -193 9 0 9 9 9 11 0 11 14 14 12 12 11 9 0 9 0 0 0 0 0 0 0 0 0 -177 23 26 26 28 24 18 17 11 10 16 -193 -193 -193 -193 -193 -193 -193 -193 -193 0 0 0 0 10 16 9 9 -193 -193 -193 9 9 -193 0 0 9 9 9 -209 10 10 10 11 11 10 10 11 11 10 11 11 10 10 10 12 10 10 10 9 10 9 9 9 0 15 12 16 13 13 15 16 16 19 14 16 13 15 15 16 17 19 12 17 21 17 17 17 18 18 18 20 21 19 27 30 31 32 36 35 28 25 24 24 20 20 18 17 14 17 17 17 11 20 21 21 21 19 24 25 25 -193 35 29 29 30 29 27 28 28 27 23 23 24 -193 26 27 26 -193 30 29 29 29 -193 28 29 31 30 28 28 29 26 30 29 28 27 0 0 0 0 0
    0 0 0 0 0 0 0 0 0 0 0 0 0 0 0 0 0 0 0 0 0 0 0 0 0 0 0 0 0 0 0 0 0 0 0 0 0 0 0 0 0 0 0 0 0 0 0 0 0 0 0 0 0 0 0 0 0 0 0 0 0 0 0 0 0 0 0 0 0 0 0 0 0 0 11 -193 10 10 10 -193 10 12 12 0 0 0 0 0 9 12 9 10 0 0 0 0 0 0 0 0 0 0 0 0 0 0 0 0 0 0 0 0 9 9 10 0 10 9 9 0 0 0 0 0 9 0 0 0 0 0 0 9 0 -193 9 9 9 9 9 10 0 11 13 13 12 12 11 9 9 9 0 0 0 0 0 0 0 0 0 -177 13 24 22 22 22 16 14 11 11 16 13 11 11 -193 10 -193 -193 -193 9 0 0 0 9 9 15 9 9 -193 9 10 9 9 -193 0 0 9 9 9 -193 9 9 10 11 11 10 10 11 11 11 11 11 11 10 10 13 10 11 10 10 11 9 9 9 0 16 12 16 14 14 15 16 16 19 14 15 12 15 15 15 17 19 12 17 21 17 17 17 18 17 17 20 22 20 27 30 31 32 36 36 30 26 25 24 20 20 18 17 14 17 17 17 11 20 21 21 21 19 24 25 25 25 34 29 29 29 28 27 28 27 27 23 23 24 -209 26 27 27 26 30 29 29 29 -193 28 29 32 29 28 28 29 26 29 28 28 26 0 0 0 0 0
    0 0 0 0 0 0 0 0 0 0 0 0 0 0 0 0 0 0 0 0 0 0 0 0 0 0 0 0 0 0 0 0 0 0 0 0 0 0 0 0 0 0 0 0 0 0 0 0 0 0 0 0 0 0 0 0 0 0 0 0 0 0 0 0 0 0 0 0 0 0 0 0 0 0 12 10 10 10 10 -193 10 12 12 0 0 0 0 9 9 12 9 10 0 0 0 0 0 0 0 0 0 0 0 0 0 0 0 0 0 0 0 0 0 8 9 0 10 9 9 0 0 0 0 0 9 0 0 0 0 -193 0 9 0 -193 9 9 10 10 9 9 0 11 13 13 12 12 11 9 9 9 0 0 0 0 0 0 0 0 0 0 11 18 19 18 21 14 13 11 11 15 13 11 11 10 10 10 10 10 0 0 0 0 9 9 14 9 9 -193 9 10 9 9 0 0 0 9 9 0 0 9 9 10 11 11 10 10 11 11 11 11 12 11 10 10 14 11 11 11 10 11 10 9 9 0 16 12 16 14 14 15 16 15 19 13 15 12 14 15 15 16 19 12 17 21 17 17 16 18 17 17 20 21 -193 27 31 32 33 36 36 31 26 25 24 20 20 18 17 14 17 17 17 12 20 21 21 22 20 24 25 25 25 34 29 29 29 28 27 27 27 27 23 23 24 -193 26 28 28 27 31 29 29 29 -193 28 29 31 29 27 27 29 26 29 27 27 26 0 0 0 0 0
    0 0 0 0 0 0 0 0 0 0 0 0 0 0 0 0 0 0 0 0 0 0 0 0 0 0 0 0 0 0 0 0 0 0 0 0 0 0 0 0 0 0 0 0 0 0 0 0 0 0 0 0 0 0 0 0 0 0 0 0 0 0 0 0 0 0 0 0 0 0 0 9 9 9 12 11 11 11 11 -193 10 12 12 0 0 0 0 0 9 12 9 9 0 0 0 0 0 0 0 0 0 0 0 0 0 0 0 0 0 0 0 0 0 0 0 0 0 0 0 0 0 0 0 0 0 0 0 0 0 -193 9 9 8 -193 10 10 10 11 9 9 0 11 12 13 12 12 11 10 9 9 0 0 0 0 0 0 0 0 0 0 10 14 17 15 20 14 13 11 12 15 13 11 11 10 10 10 10 9 0 0 0 0 9 9 12 9 9 11 9 10 10 9 0 0 0 9 9 0 0 0 0 10 10 10 9 9 11 10 10 10 12 11 11 11 15 11 11 11 10 11 10 9 9 0 16 12 16 13 14 14 16 15 18 13 14 11 13 15 14 16 19 12 17 21 17 17 16 18 17 17 20 21 -193 27 30 31 33 36 36 31 26 25 24 20 19 18 17 14 17 17 17 12 20 21 21 21 20 24 24 25 -193 34 29 29 29 28 27 27 27 27 22 23 24 -193 26 28 28 28 31 29 29 28 28 28 28 30 28 27 27 29 26 28 27 27 26 0 0 0 0 0
    0 0 0 0 0 0 0 0 0 0 0 0 0 0 0 0 0 0 0 0 0 0 0 0 0 0 0 0 0 0 0 0 0 0 0 0 0 0 0 0 0 0 0 0 0 0 0 0 0 0 0 0 0 0 0 0 0 0 0 0 0 0 0 0 0 0 0 0 0 0 0 10 9 9 12 11 11 11 11 -193 10 12 12 0 0 0 0 0 0 11 0 9 0 0 0 0 0 0 0 0 0 0 0 0 0 0 0 0 0 0 0 0 0 0 0 0 0 0 0 0 0 0 0 0 0 0 0 0 0 -193 9 10 9 -193 10 11 11 11 0 9 0 10 11 11 12 11 10 9 9 9 0 0 0 0 0 0 0 0 0 0 0 11 12 12 18 12 12 11 12 14 13 11 11 10 10 10 10 9 0 0 0 0 9 9 12 9 9 12 10 11 10 10 0 0 0 9 0 0 0 0 0 10 10 10 9 9 10 10 10 10 11 11 11 11 15 11 11 11 10 11 10 9 9 0 16 11 16 13 13 14 15 15 18 13 14 11 13 14 14 16 18 12 16 21 17 17 15 18 17 17 20 21 -193 27 29 30 31 35 35 28 25 24 23 19 19 18 17 14 17 17 17 11 19 21 20 21 18 23 23 24 24 34 29 29 29 28 27 27 27 27 23 23 24 24 26 28 28 28 30 29 28 28 28 28 28 29 28 26 26 30 27 28 27 28 27 0 0 0 0 0
    0 0 0 0 0 0 0 0 0 0 0 0 0 0 0 0 0 0 0 0 0 0 0 0 0 0 0 0 0 0 0 0 0 0 0 0 0 0 0 0 0 0 0 0 0 0 0 0 0 0 0 0 0 0 0 0 0 0 0 0 0 0 0 0 0 0 0 0 0 0 0 11 9 9 12 11 11 11 11 -193 10 11 11 0 0 0 0 0 0 11 0 9 0 0 0 0 0 0 0 0 0 0 0 0 0 0 0 0 0 0 0 0 0 0 0 0 0 0 0 0 0 0 0 0 0 0 0 0 0 10 10 10 10 10 10 11 12 12 0 0 0 10 10 10 11 10 9 9 0 0 0 0 0 0 0 0 0 0 0 0 0 10 11 11 16 12 12 11 12 13 12 11 10 10 10 9 9 9 0 0 0 0 9 0 11 9 9 13 10 11 10 10 9 0 9 9 0 0 0 0 0 9 9 9 0 9 10 9 10 9 11 11 11 11 15 12 11 11 10 10 10 9 9 0 15 11 15 13 13 14 15 14 17 12 13 11 12 14 15 16 18 13 16 21 17 16 15 17 16 16 19 21 -193 26 28 29 30 34 33 24 23 21 22 18 17 17 16 14 17 17 17 12 18 20 20 20 17 22 22 24 24 34 29 29 30 29 28 28 28 28 23 24 25 25 26 28 28 28 30 29 29 29 28 28 28 29 28 26 27 30 27 29 28 28 28 0 0 0 0 0
    0 0 0 0 0 0 0 0 0 0 0 0 0 0 0 0 0 0 0 0 0 0 0 0 0 0 0 0 0 0 0 0 0 0 0 0 0 0 0 0 0 0 0 0 0 0 0 0 0 0 0 0 0 0 0 0 0 0 0 0 0 0 0 0 0 0 0 0 0 9 9 13 10 10 13 11 11 11 11 10 9 11 11 0 0 0 0 0 0 11 0 9 0 0 0 0 0 0 0 0 0 0 0 0 0 0 0 0 0 0 0 0 0 0 0 0 0 0 0 0 0 0 0 0 0 0 0 0 0 11 10 11 11 10 11 12 12 12 0 0 0 9 10 10 11 10 10 10 9 9 0 0 0 0 0 0 0 0 0 0 0 10 10 12 15 12 13 11 13 13 12 11 10 9 9 9 9 0 0 0 0 0 9 9 11 9 9 15 11 12 10 10 9 9 9 10 0 0 0 0 0 9 9 9 0 0 9 9 9 9 11 11 11 11 15 12 12 12 11 11 11 10 10 0 14 11 14 13 13 13 14 14 16 13 13 11 12 14 15 17 19 14 16 22 18 17 14 16 15 15 18 20 -193 -193 28 28 29 32 30 22 21 20 21 17 17 16 16 13 17 18 17 12 18 20 19 20 17 21 21 24 24 35 30 30 30 29 28 28 28 28 23 24 25 25 26 28 29 29 30 29 29 29 29 29 29 30 28 27 28 31 28 29 28 29 28 0 0 0 0 0
    0 0 0 0 0 0 0 0 0 0 0 0 0 0 0 0 0 0 0 0 0 0 0 0 0 0 0 0 0 0 0 0 0 0 0 0 0 0 0 0 0 0 0 0 0 0 0 0 0 0 0 0 0 0 0 0 0 0 0 0 0 0 0 0 0 0 0 0 0 10 9 14 10 10 12 10 10 11 10 10 9 11 11 -193 0 0 0 0 0 11 0 0 0 0 0 0 0 0 0 0 0 0 0 0 0 0 0 0 0 0 0 0 0 0 0 0 0 0 0 0 0 0 0 0 0 0 0 0 0 12 11 12 11 11 11 12 13 13 0 9 0 9 10 10 11 10 10 10 9 10 9 9 0 0 0 0 0 0 0 0 0 10 10 12 13 12 13 12 13 13 11 10 9 9 9 0 0 0 0 0 0 0 0 0 11 9 9 16 11 12 11 11 10 9 10 11 0 0 0 0 0 9 9 9 0 0 9 9 9 9 11 11 12 11 16 13 12 12 11 12 12 11 11 0 13 11 14 12 13 13 14 14 16 13 13 11 12 15 16 18 19 15 16 22 18 17 14 15 14 14 16 18 -193 -209 27 28 29 32 29 21 20 19 21 17 17 17 16 13 18 18 18 12 19 20 20 20 18 21 21 24 24 36 30 30 30 29 28 28 28 28 23 24 25 25 26 28 29 29 30 29 29 30 30 29 29 30 29 28 29 31 28 29 29 29 28 0 0 0 0 0
    0 0 0 0 0 0 0 0 0 0 0 0 0 0 0 0 0 0 0 0 0 0 0 0 0 0 0 0 0 0 0 0 0 0 0 0 0 0 0 0 0 0 0 0 0 0 0 0 0 0 0 0 0 0 0 0 0 0 0 0 0 0 0 0 0 0 0 0 0 11 10 14 10 10 11 10 10 10 9 9 9 11 11 10 11 11 10 10 10 11 0 0 0 0 0 0 0 0 0 0 0 0 0 0 0 0 0 0 0 0 0 0 0 0 0 0 0 0 0 0 0 0 0 0 0 0 -193 0 0 13 11 12 12 11 12 12 13 13 9 9 0 9 10 10 10 10 10 10 9 10 9 9 8 0 0 0 0 0 0 0 0 9 9 11 12 10 12 11 12 12 11 10 9 0 0 0 0 0 0 0 0 0 9 9 11 9 9 17 12 13 11 11 11 10 10 11 0 0 0 0 0 9 9 9 0 0 0 9 9 9 11 11 12 12 17 13 13 13 12 13 13 11 11 9 12 11 13 12 13 13 14 13 15 14 13 12 13 15 17 19 20 16 16 22 19 17 13 14 13 13 15 16 -193 -193 25 26 27 29 27 20 20 19 21 18 17 17 16 13 18 18 18 12 18 20 20 20 18 21 21 24 24 35 30 30 30 -193 -193 -193 28 28 24 24 25 25 26 28 30 30 31 30 30 30 30 29 29 30 29 28 29 31 28 29 29 29 29 0 0 0 0 0
    0 0 0 0 0 0 0 0 0 0 0 0 0 0 0 0 0 0 0 0 0 0 0 0 0 0 0 0 0 0 0 0 0 0 0 0 0 0 0 0 0 0 0 0 0 0 0 0 0 0 0 0 0 0 0 0 0 0 0 0 0 0 0 0 0 0 0 0 0 12 12 16 11 11 12 10 10 11 10 10 9 13 12 11 14 13 12 12 11 12 0 9 0 0 0 0 0 0 0 0 0 0 0 0 0 0 0 0 0 0 0 0 0 0 0 0 0 0 0 0 0 0 0 0 9 0 -193 9 9 13 11 13 12 12 12 12 13 13 9 9 0 0 9 9 10 10 10 10 9 10 9 9 8 0 0 0 0 0 0 0 0 0 0 9 9 9 10 10 11 11 10 9 9 0 0 0 0 0 0 0 0 0 9 9 11 9 0 17 12 13 11 11 11 10 11 12 0 0 0 0 0 0 0 0 0 0 0 0 0 0 11 11 12 12 18 14 13 13 13 13 14 12 12 10 12 11 12 12 13 13 14 13 14 15 13 13 13 16 18 19 20 18 17 23 20 17 -193 13 12 12 13 13 -193 15 22 23 24 26 24 19 19 18 20 17 17 16 16 13 17 18 17 12 17 19 18 19 17 21 22 25 24 36 30 30 -193 -193 -193 -193 -193 27 23 24 25 25 26 28 30 31 31 30 29 30 29 29 28 29 28 27 29 30 28 29 29 29 29 0 0 0 0 0
    0 0 0 0 0 0 0 0 0 0 0 0 0 0 0 0 0 0 0 0 0 0 0 0 0 0 0 0 0 0 0 0 0 0 0 0 0 0 0 0 0 0 0 0 0 0 0 0 0 0 0 0 0 0 0 0 0 0 0 0 0 0 0 0 0 0 0 0 0 12 12 16 12 12 13 -209 -209 -209 -209 -193 10 14 13 13 16 15 13 14 13 13 10 10 9 9 9 10 9 9 0 0 0 0 0 0 0 0 0 0 0 0 0 0 0 0 0 0 0 0 0 0 0 0 0 0 0 0 -193 9 9 13 11 13 12 12 12 12 13 13 9 10 0 0 9 9 10 10 9 10 9 9 9 9 0 0 0 0 0 0 0 0 0 0 0 8 0 0 9 9 10 10 10 9 0 0 0 0 0 0 0 0 0 0 9 10 10 0 0 15 11 12 11 11 11 11 11 12 9 9 0 0 0 0 0 0 0 0 0 0 0 0 11 11 12 12 18 13 13 14 14 14 15 13 13 10 12 12 12 12 14 13 14 13 15 17 14 14 13 16 19 20 21 19 17 23 21 18 -177 -193 11 12 13 13 11 13 20 21 20 22 23 17 18 17 20 17 16 16 16 13 17 18 17 12 16 18 18 19 17 21 24 27 -193 37 33 -193 -193 -193 -193 -193 27 28 22 24 25 25 26 28 30 32 31 30 29 30 30 28 29 29 28 27 28 30 28 29 29 29 29 0 0 0 0 0
    0 0 0 0 0 0 0 0 0 0 0 0 0 0 0 0 0 0 0 0 0 0 0 0 0 0 0 0 0 0 0 0 0 0 0 0 0 0 0 0 0 0 0 0 0 0 0 0 0 0 0 0 0 0 0 0 0 0 0 0 0 0 0 0 0 0 0 0 0 12 12 16 -209 12 -209 -193 -209 -209 -209 -209 9 14 13 14 17 16 15 15 14 14 12 12 12 11 11 11 10 11 11 0 0 0 0 0 0 0 0 0 0 0 0 0 0 0 0 0 0 0 0 0 0 0 0 0 0 0 -193 9 9 14 11 14 13 12 12 12 13 13 9 10 0 0 9 9 9 9 9 10 9 9 9 0 0 0 0 0 0 0 0 0 0 0 0 0 0 0 0 9 10 10 9 0 0 0 0 0 0 0 0 0 0 0 0 9 10 0 0 14 11 12 11 11 12 11 12 13 9 10 0 9 0 0 0 0 0 0 0 0 0 0 10 11 11 11 18 13 13 14 14 14 15 15 15 12 14 14 13 13 15 15 14 14 15 18 14 15 14 17 20 21 22 20 17 24 22 19 -177 13 11 12 13 13 11 12 17 18 17 19 21 16 17 17 20 17 16 16 15 13 17 18 17 12 16 19 19 19 19 21 25 29 32 38 36 36 36 36 34 30 29 30 24 26 25 26 26 27 31 32 32 30 30 32 31 30 31 30 30 27 29 30 28 29 28 28 29 0 0 0 0 0
    0 0 0 0 0 0 0 0 0 0 0 0 0 0 0 0 0 0 0 0 0 0 0 0 0 0 0 0 0 0 0 0 0 0 0 0 0 0 0 0 0 0 0 0 0 0 0 0 0 0 0 0 0 0 0 0 0 0 0 0 0 0 0 0 0 0 0 0 0 13 13 -193 -209 -209 -209 -193 -193 -209 -209 -209 -209 14 13 14 18 17 16 16 15 14 15 14 14 12 12 13 12 12 13 9 0 0 0 0 0 0 0 0 0 0 0 0 0 9 9 0 9 0 0 0 0 0 0 0 9 0 -193 9 9 14 11 14 13 12 12 12 13 13 9 9 0 0 0 0 9 9 9 9 9 10 9 0 0 0 0 0 0 0 0 0 0 0 0 0 0 0 0 0 9 9 9 0 0 0 0 0 0 0 0 0 0 0 0 9 10 0 0 14 11 12 11 12 13 11 12 14 10 10 9 9 9 0 0 0 0 0 0 0 0 0 9 10 10 10 18 13 13 14 15 15 16 17 16 13 15 15 14 15 16 16 14 14 15 19 15 16 15 18 20 21 -193 -193 18 24 22 19 -177 13 11 12 13 13 11 12 16 17 16 17 21 15 16 16 20 17 16 16 16 13 18 18 18 12 17 20 20 19 19 22 25 32 38 39 -193 -193 -193 -193 -193 -193 32 32 24 27 26 27 26 27 31 32 32 31 32 35 34 35 36 35 35 29 33 31 28 29 28 28 28 0 0 0 0 0
    0 0 0 0 0 0 0 0 0 0 0 0 0 0 0 0 0 0 0 0 0 0 0 0 0 0 0 0 0 0 0 0 0 0 0 0 0 0 0 0 0 0 0 0 0 0 0 0 0 0 0 0 0 0 0 0 0 0 0 0 0 0 0 0 0 0 0 0 0 13 13 -193 -209 -209 -209 -193 -193 -193 -209 -193 -193 -193 13 15 18 17 16 16 15 15 16 17 17 14 14 14 13 14 14 9 0 0 0 0 0 0 0 0 0 0 0 0 9 10 11 0 10 0 0 0 0 9 9 0 9 0 9 9 9 14 11 14 13 12 12 12 12 12 9 9 0 0 0 0 9 9 10 9 9 10 9 9 0 9 0 0 0 0 0 0 0 0 0 0 0 0 0 0 9 9 9 0 0 0 0 0 0 0 0 0 0 0 0 0 9 0 0 14 11 12 11 12 13 12 13 15 10 11 9 10 9 0 0 0 0 0 0 0 0 0 10 10 10 10 18 13 13 14 16 15 16 18 17 14 16 16 15 15 16 16 15 15 16 20 16 16 15 18 21 22 22 21 18 25 23 -193 -177 12 11 12 13 12 11 11 16 16 15 16 21 15 16 16 20 17 16 16 16 13 18 19 18 13 18 21 20 20 20 22 25 35 40 40 -209 -193 -193 -193 -193 -193 34 33 25 29 27 28 27 28 32 33 34 33 34 38 38 39 41 39 40 -193 -193 33 29 30 28 28 29 0 0 0 0 0
    0 0 0 0 0 0 0 0 0 0 0 0 0 0 0 0 0 0 0 0 0 0 0 0 0 0 0 0 0 0 0 0 0 0 0 0 0 0 0 0 0 0 0 0 0 0 0 0 0 0 0 0 0 0 0 0 0 0 0 0 0 0 0 0 0 0 0 0 0 13 13 -193 -209 -209 -209 -193 -193 -193 -209 -193 -193 -209 13 15 18 17 16 16 15 16 17 18 18 14 15 15 14 14 14 9 0 0 0 0 0 0 0 0 0 0 0 0 10 12 13 9 11 0 9 9 9 10 9 9 10 0 10 9 9 14 11 14 13 12 12 12 12 12 9 9 0 0 0 9 9 10 12 10 10 10 10 9 9 9 0 0 0 0 0 0 0 0 0 0 0 0 0 0 0 0 0 0 0 0 0 0 0 0 0 0 0 0 0 0 9 0 0 13 11 12 12 12 13 12 13 15 11 12 9 10 9 0 0 0 0 0 0 0 0 0 11 10 9 10 18 12 13 14 16 15 16 19 18 15 16 17 16 16 17 17 15 15 16 21 16 17 16 19 21 22 22 21 18 25 23 20 -177 12 11 12 13 13 11 11 16 16 16 16 21 15 16 16 20 16 16 16 16 13 18 19 18 13 20 22 23 22 22 25 -193 42 47 44 53 41 40 40 39 -193 35 35 -193 31 29 29 27 29 33 34 35 35 37 40 40 43 44 42 43 -209 -209 -193 32 33 28 29 30 0 0 0 0 0
    0 0 0 0 0 0 0 0 0 0 0 0 0 0 0 0 0 0 0 0 0 0 0 0 0 0 0 0 0 0 0 0 0 0 0 0 0 0 0 0 0 0 0 0 0 0 0 0 0 0 0 0 0 0 0 0 0 0 0 0 0 0 0 0 0 0 0 0 0 12 12 -193 -209 -209 -209 -193 -193 -193 -209 -209 -177 -193 13 15 18 16 16 16 15 15 16 17 18 14 15 15 14 15 15 10 0 0 0 0 0 0 0 0 0 0 0 0 11 13 15 10 12 10 10 10 9 11 10 9 10 9 10 9 10 14 11 13 13 12 11 12 12 12 9 9 0 0 0 0 0 9 11 9 9 10 10 9 9 9 0 0 0 0 0 0 0 0 0 0 0 0 0 0 0 0 0 0 0 0 0 0 0 0 0 0 0 0 0 0 9 0 0 13 11 13 12 13 13 12 13 15 11 12 9 10 9 0 0 0 0 0 0 0 0 0 12 11 10 10 18 12 12 14 16 15 16 20 18 16 17 17 16 17 18 18 15 16 16 21 17 17 16 19 21 22 22 21 18 25 24 20 -193 13 12 13 14 13 12 11 17 17 16 16 21 15 16 16 20 16 16 16 16 14 19 20 19 13 22 -193 -193 -209 24 35 44 47 48 47 52 44 42 42 41 37 37 37 -193 34 32 32 29 30 35 36 36 37 38 43 43 45 45 44 44 -193 -193 -209 36 36 30 31 -193 0 0 0 0 0
    0 0 0 0 0 0 0 0 0 0 0 0 0 0 0 0 0 0 0 0 0 0 0 0 0 0 0 0 0 0 0 0 0 0 0 0 0 0 0 0 0 0 0 0 0 0 0 0 0 0 0 0 0 0 0 0 0 0 0 0 0 0 0 0 0 0 0 0 0 11 12 -209 330 -209 -209 -193 -193 -193 -209 -209 -193 16 13 15 18 16 16 16 15 15 16 17 18 14 15 15 14 15 15 11 0 0 0 0 0 0 0 0 0 0 0 0 11 14 16 11 12 10 10 10 10 11 10 9 10 0 10 9 9 14 11 13 13 12 11 12 12 12 9 9 0 0 0 0 0 0 10 0 9 9 9 0 0 0 0 0 0 0 0 0 0 0 0 0 0 0 0 0 0 0 0 0 0 0 0 0 0 0 0 0 0 0 0 0 0 0 0 13 11 13 12 13 13 12 13 15 10 12 9 9 0 0 0 0 0 0 0 0 0 0 12 10 9 10 16 11 12 13 15 14 16 20 18 16 17 17 16 17 17 18 15 15 16 21 17 17 16 19 21 21 22 21 18 25 24 20 -193 12 12 13 14 14 13 12 19 19 19 19 22 17 17 17 21 17 17 17 17 15 21 21 21 15 25 28 29 28 32 40 47 48 47 48 51 45 43 44 43 40 39 39 36 37 36 35 32 33 37 37 38 38 41 45 46 47 46 45 46 46 43 -209 -193 -193 34 34 -177 0 0 0 0 0
    0 0 0 0 0 0 0 0 0 0 0 0 0 0 0 0 0 0 0 0 0 0 0 0 0 0 0 0 0 0 0 0 0 0 0 0 0 0 0 0 0 0 0 0 0 0 0 0 0 0 0 0 0 0 0 0 0 0 0 0 0 0 0 0 0 0 0 0 0 12 12 -209 -209 -209 -193 -193 -209 -209 -209 -209 -209 16 13 15 18 16 16 16 15 15 17 17 18 14 15 15 15 15 15 11 9 0 0 0 0 0 0 0 0 0 0 0 10 12 15 10 12 10 10 10 10 11 10 9 10 0 10 9 9 14 11 13 13 12 12 12 12 12 9 0 0 0 0 0 0 0 9 0 0 0 0 0 0 0 0 0 0 0 0 0 0 0 0 0 0 0 0 0 0 0 0 0 0 0 0 0 0 0 0 0 0 0 0 0 0 0 0 13 11 13 12 13 13 12 13 14 10 12 9 9 0 0 0 0 0 0 0 0 8 10 12 11 10 11 15 11 11 13 15 14 15 20 18 16 17 17 16 16 17 18 15 15 15 21 17 17 16 19 21 21 22 21 18 25 24 20 15 12 12 13 14 14 14 12 20 20 20 20 23 19 19 19 22 19 19 19 19 -193 -193 -193 -193 -193 27 35 37 36 40 43 48 48 47 49 51 47 45 45 44 42 41 41 41 38 38 37 36 36 38 38 39 40 42 45 47 48 47 46 47 47 44 46 -193 -193 -193 -209 -177 0 0 0 0 0
    0 0 0 0 0 0 0 0 0 0 0 0 0 0 0 0 0 0 0 0 0 0 0 0 0 0 0 0 0 0 0 0 0 0 0 0 0 0 0 0 0 0 0 0 0 0 0 0 0 0 0 0 0 0 0 0 0 0 0 0 0 0 0 0 0 0 0 0 0 12 11 -193 -209 -209 -193 -193 -209 -209 -209 -209 -209 -193 -193 15 18 17 16 16 14 15 16 17 17 15 15 15 15 15 15 11 10 0 0 0 0 0 0 0 0 0 0 0 9 12 13 10 11 10 9 10 10 11 10 9 10 0 10 9 9 14 11 12 13 12 11 12 12 12 0 0 0 0 0 0 0 0 0 0 0 0 0 0 0 0 0 0 0 0 0 0 0 0 0 0 0 0 0 0 0 0 0 0 0 0 0 0 0 0 0 0 0 0 0 0 0 0 0 14 12 13 13 13 13 12 13 14 10 12 9 9 0 0 0 9 9 9 9 10 11 11 12 12 11 12 14 11 11 13 15 13 15 20 18 17 17 16 16 16 17 17 14 15 14 20 16 16 16 19 21 21 22 21 18 25 25 20 16 13 13 14 15 15 15 13 21 21 21 21 23 20 20 20 23 20 20 20 -193 -193 -193 -193 -193 -209 30 38 40 40 42 44 47 47 46 48 49 46 45 45 44 42 42 43 43 41 41 40 39 39 40 40 41 42 44 46 47 48 47 47 47 48 45 48 44 44 -193 -193 -193 0 0 0 0 0
    0 0 0 0 0 0 0 0 0 0 0 0 0 0 0 0 0 0 0 0 0 0 0 0 0 0 0 0 0 0 0 0 0 0 0 0 0 0 0 0 0 0 0 0 0 0 0 0 0 0 0 0 0 0 0 0 0 0 0 0 0 0 0 0 0 0 0 0 0 12 11 -193 -209 -193 -193 -193 -193 -209 -209 -209 -209 15 13 15 17 16 16 15 13 15 15 15 16 14 14 14 14 15 14 12 10 0 0 0 0 0 0 0 0 0 0 0 9 11 12 10 10 9 10 10 10 11 10 9 10 0 9 9 0 13 11 11 13 11 11 11 11 11 0 0 0 0 0 0 0 0 0 0 0 0 0 0 0 0 0 0 0 0 0 0 0 0 0 0 0 0 0 0 0 0 0 0 0 0 0 0 0 0 0 0 0 0 0 0 0 0 0 15 12 14 13 13 14 12 14 14 10 12 9 9 9 9 9 11 11 11 10 11 12 12 13 13 11 12 13 11 11 13 14 13 14 20 17 17 17 16 16 15 16 16 14 14 13 19 16 15 16 19 20 21 21 21 17 25 24 20 16 13 14 14 16 16 17 14 22 22 22 23 24 21 22 23 24 21 21 22 -177 -177 -193 -193 -193 27 34 40 41 41 42 44 46 45 44 46 47 44 44 45 44 42 43 43 44 42 43 42 41 41 42 42 43 43 45 47 48 49 48 47 47 48 46 48 46 45 44 -193 -193 0 0 0 0 0
    0 0 0 0 0 0 0 0 0 0 0 0 0 0 0 0 0 0 0 0 0 0 0 0 0 0 0 0 0 0 0 0 0 0 0 0 0 0 0 0 0 0 0 0 0 0 0 0 0 0 0 0 0 0 0 0 0 0 0 0 0 0 0 0 0 0 0 0 0 13 12 12 -209 0 -193 -193 -193 -209 -209 -209 0 15 13 14 17 16 15 15 13 15 13 14 15 13 13 13 13 13 12 11 10 0 0 0 0 0 0 0 0 0 0 0 9 10 11 9 10 9 10 10 11 11 10 9 10 0 10 9 0 12 10 11 12 11 11 11 11 11 0 0 0 0 0 0 0 0 0 0 0 0 0 0 0 0 0 0 0 0 0 0 0 0 0 0 0 0 0 0 0 0 0 0 0 0 0 0 0 0 0 0 0 0 0 0 0 9 9 16 13 14 14 14 14 12 14 14 10 13 10 10 10 10 11 13 13 13 12 13 13 13 13 13 12 13 12 10 10 12 13 12 13 20 16 17 17 16 16 15 16 16 14 14 13 19 16 15 16 19 20 20 21 20 16 24 24 19 15 13 14 15 16 17 18 15 23 23 23 24 25 23 24 26 28 24 24 -193 -177 -177 -193 -193 33 33 37 41 42 41 43 45 45 45 44 46 46 44 43 44 43 42 43 43 43 43 43 44 42 42 43 42 43 44 46 47 48 49 49 48 48 48 46 48 46 46 45 44 46 0 0 0 0 0
    0 0 0 0 0 0 0 0 0 0 0 0 0 0 0 0 0 0 0 0 0 0 0 0 0 0 0 0 0 0 0 0 0 0 0 0 0 0 0 0 0 0 0 0 0 0 0 0 0 0 0 0 0 0 0 0 0 0 0 0 0 0 0 0 0 0 0 0 0 14 12 12 0 0 -193 -193 -193 -209 -209 -209 0 15 -193 14 18 16 15 15 13 14 12 13 13 11 12 12 12 12 12 11 10 0 0 0 0 0 0 0 0 0 0 0 0 10 11 9 9 9 10 10 11 11 10 9 10 0 9 0 0 12 10 10 12 11 11 11 11 11 0 0 0 0 0 0 0 0 0 0 0 0 0 0 0 0 0 0 0 0 0 0 0 0 0 0 0 0 0 0 0 0 0 0 0 0 -193 0 0 0 0 0 0 0 0 0 0 9 9 17 13 15 14 14 14 12 14 13 10 13 10 11 12 13 13 17 16 17 15 14 14 14 13 14 12 13 12 10 10 11 12 11 12 19 15 17 16 15 16 15 16 16 14 15 13 18 16 15 16 18 19 20 20 20 15 22 23 19 16 13 15 16 18 18 19 16 25 25 25 26 27 27 27 31 32 30 27 28 -193 -193 34 38 37 38 39 41 43 42 43 45 45 45 44 46 45 42 42 43 42 41 42 41 43 42 44 45 43 43 44 43 45 44 47 47 48 49 48 47 48 48 46 48 48 47 46 46 47 0 0 0 0 0
    0 0 0 0 0 0 0 0 0 0 0 0 0 0 0 0 0 0 0 0 0 0 0 0 0 0 0 0 0 0 0 0 0 0 0 0 0 0 0 0 0 0 0 0 0 0 0 0 0 0 0 0 0 0 0 0 0 0 0 0 0 0 0 0 0 0 0 0 0 15 13 12 0 0 -193 -193 -193 -193 -193 -209 0 14 13 14 18 17 16 15 13 14 11 -193 12 11 12 11 11 12 12 12 11 10 9 0 0 0 0 0 0 0 0 0 0 9 10 0 9 9 10 10 11 10 10 9 9 0 9 0 0 11 10 10 12 11 11 11 11 11 0 0 0 0 0 0 0 0 0 0 0 0 0 0 0 0 0 0 0 0 0 0 0 0 0 0 0 0 0 0 0 0 0 0 0 0 -193 0 0 0 0 0 0 0 0 0 0 9 10 18 13 15 14 14 14 12 13 13 9 13 11 11 14 17 17 20 19 20 18 16 15 14 13 14 12 13 12 10 9 10 10 10 10 18 14 16 15 15 16 15 16 16 14 15 13 18 15 15 17 17 19 19 20 20 16 22 23 18 16 14 17 18 19 20 21 18 25 27 27 28 27 30 29 35 35 35 32 33 36 33 37 39 38 39 40 41 43 42 44 44 44 44 44 45 46 43 43 43 43 42 44 43 45 43 45 45 44 44 45 44 46 44 48 47 48 49 48 47 48 48 47 49 49 48 47 48 48 0 0 0 0 0
    0 0 0 0 0 0 0 0 0 0 0 0 0 0 0 0 0 0 0 0 0 0 0 0 0 0 0 0 0 0 0 0 0 0 0 0 0 0 0 0 0 0 0 0 0 0 0 0 0 0 0 0 0 0 0 0 0 0 0 0 0 0 0 0 0 0 0 0 0 15 13 13 0 9 0 -193 -193 -193 -193 -209 0 16 14 15 19 18 17 16 13 15 11 11 11 10 11 11 11 12 12 13 13 12 11 0 0 0 0 0 0 0 0 0 0 0 9 0 9 9 9 9 10 10 10 9 9 0 9 0 0 10 9 9 11 10 10 10 11 11 0 0 0 0 0 0 0 0 0 0 0 0 0 0 0 0 0 0 0 0 0 0 0 0 0 0 0 0 0 0 0 0 0 0 0 -193 -193 0 0 0 0 0 0 0 0 0 9 10 10 18 14 15 15 14 13 12 13 13 9 13 12 12 18 21 21 22 21 21 19 17 15 15 14 14 12 13 12 10 9 9 9 9 9 17 13 16 15 14 16 15 16 16 14 16 13 18 16 15 18 17 19 19 20 20 16 21 22 18 16 15 17 18 20 21 21 20 26 28 28 29 28 32 31 36 36 36 36 36 38 36 38 40 39 40 40 41 42 41 43 43 44 44 43 45 45 43 43 44 44 43 47 45 48 44 46 46 45 44 45 44 46 43 48 46 48 48 48 47 47 48 47 49 50 48 48 48 49 0 0 0 0 0
    0 0 0 0 0 0 0 0 0 0 0 0 0 0 0 0 0 0 0 0 0 0 0 0 0 0 0 0 0 0 0 0 0 0 0 0 0 0 0 0 0 0 0 0 0 0 0 0 0 0 0 0 0 0 0 0 0 0 0 0 0 0 0 0 0 0 0 0 0 14 12 13 10 10 9 -193 -193 -209 -193 -193 10 17 15 17 19 19 18 18 15 15 11 11 11 10 12 11 11 13 13 14 15 14 13 0 0 0 0 0 0 0 0 0 0 0 0 0 9 8 9 9 10 9 9 0 0 0 9 0 0 9 0 0 10 10 10 9 10 11 0 9 8 0 0 0 0 0 0 0 0 0 0 0 0 0 0 0 0 0 0 0 0 0 0 0 0 0 0 0 0 0 0 0 0 0 -193 0 0 0 0 0 0 0 0 0 10 10 10 19 14 15 15 14 13 12 13 13 9 13 13 14 21 23 23 23 22 22 20 18 15 15 14 13 12 13 12 10 0 9 0 0 0 16 12 15 14 14 16 15 17 16 14 17 14 18 17 16 19 17 19 19 20 19 16 20 22 17 16 15 18 19 21 22 22 20 26 28 28 30 28 33 32 37 36 37 37 37 38 38 39 40 39 41 40 41 42 41 43 43 43 43 43 44 45 43 44 44 44 44 51 47 50 45 46 46 45 44 45 43 45 43 47 46 47 48 48 47 47 47 47 48 49 48 48 48 49 0 0 0 0 0
    0 0 0 0 0 0 0 0 0 0 0 0 0 0 0 0 0 0 0 0 0 0 0 0 0 0 0 0 0 0 0 0 0 0 0 0 0 0 0 0 0 0 0 0 0 0 0 0 0 0 0 0 0 0 0 0 0 0 0 0 0 0 0 0 0 0 0 0 0 14 12 14 11 12 12 10 9 -193 -209 12 11 17 16 17 20 19 18 18 15 16 12 12 11 10 13 12 13 15 -193 17 19 17 18 0 0 0 0 0 0 0 0 0 0 0 0 0 0 0 9 0 9 9 9 0 0 0 9 0 0 9 0 0 9 9 9 9 10 10 0 9 9 0 0 0 0 0 0 0 0 0 0 0 0 0 0 0 0 0 0 0 0 0 0 0 0 0 0 0 0 0 0 0 0 0 -193 0 0 0 0 0 0 0 0 0 12 10 11 20 14 15 15 14 13 12 13 13 9 13 13 15 23 25 25 24 23 23 21 19 16 15 14 13 12 14 12 11 0 0 0 0 0 -193 12 15 14 14 16 15 17 17 15 18 14 18 17 17 20 17 19 19 20 19 17 20 21 16 16 15 18 20 21 22 22 -193 27 29 29 31 28 34 33 37 36 37 38 38 39 39 40 41 40 41 41 41 43 41 43 43 42 43 42 44 45 43 44 44 43 45 52 48 50 45 46 46 45 44 45 44 46 43 47 46 47 47 47 46 46 47 46 47 49 47 47 48 48 0 0 0 0 0
    0 0 0 0 0 0 0 0 0 0 0 0 0 0 0 0 0 0 0 0 0 0 0 0 0 0 0 0 0 0 0 0 0 0 0 0 0 0 0 0 0 0 0 0 0 0 0 0 0 0 0 0 0 0 0 0 0 0 0 0 0 0 0 0 0 0 0 0 0 13 12 14 11 11 12 10 10 -193 10 12 11 15 17 17 20 19 18 18 16 16 13 12 11 10 14 13 -193 -193 -177 -193 -193 20 22 0 0 0 0 0 0 0 0 0 0 0 0 0 0 0 9 9 10 10 9 0 8 0 9 0 0 0 0 0 0 0 9 0 9 9 0 10 11 0 0 0 0 0 0 0 0 0 0 0 0 0 0 0 0 0 0 0 0 0 0 0 0 0 0 0 0 0 0 0 -193 -193 -193 0 0 0 0 0 0 0 0 0 12 10 10 19 14 14 15 14 13 12 14 13 9 13 14 17 25 27 27 27 25 24 22 20 16 15 14 13 12 13 11 10 0 0 0 0 0 -193 11 14 13 14 16 16 18 17 15 18 15 18 18 18 20 17 19 19 20 19 17 19 21 16 17 16 19 20 22 23 23 -177 27 29 29 32 28 35 34 38 36 38 38 38 38 39 40 41 40 41 40 40 42 41 43 42 42 42 42 43 45 43 43 44 43 45 51 47 50 45 46 47 46 45 45 44 46 44 47 46 47 47 47 47 47 46 46 47 48 46 46 47 47 0 0 0 0 0
    0 0 0 0 0 0 0 0 0 0 0 0 0 0 0 0 0 0 0 0 0 0 0 0 0 0 0 0 0 0 0 0 0 0 0 0 0 0 0 0 0 0 0 0 0 0 0 0 0 0 0 0 0 0 0 0 0 0 0 0 0 0 0 0 0 0 0 0 0 12 11 14 11 11 13 11 10 11 10 12 11 14 18 16 19 19 18 18 16 16 13 11 11 -193 -193 -209 -193 -177 -177 -177 -209 -209 -209 0 0 0 0 0 0 0 0 0 0 0 0 0 9 9 9 9 10 10 9 0 9 0 10 0 0 0 0 0 0 0 0 0 9 9 0 10 11 0 0 0 0 0 0 0 0 0 0 0 0 0 0 0 0 0 0 0 0 0 0 0 0 0 0 0 0 0 0 -193 -193 -193 -193 0 0 0 0 0 0 0 0 0 11 9 9 19 14 14 15 14 13 12 14 14 10 15 18 20 27 29 30 31 31 27 23 21 17 15 14 12 12 13 11 10 0 0 0 0 0 13 11 14 13 14 17 17 19 18 16 20 16 19 19 19 21 17 19 18 20 19 17 19 21 15 16 16 19 20 22 23 23 -177 27 29 29 32 28 36 35 38 36 37 38 38 38 38 -193 40 39 41 40 40 42 41 42 42 42 43 42 43 45 43 44 44 43 45 51 47 50 46 46 47 46 45 45 44 46 44 47 46 47 47 47 47 47 46 46 46 48 46 46 46 46 0 0 0 0 0
    0 0 0 0 0 0 0 0 0 0 0 0 0 0 0 0 0 0 0 0 0 0 0 0 0 0 0 0 0 0 0 0 0 0 0 0 0 0 0 0 0 0 0 0 0 0 0 0 0 0 0 0 0 0 0 0 0 0 0 0 0 0 0 0 0 0 0 0 0 11 11 15 11 11 14 12 11 12 11 13 11 14 18 16 19 18 17 18 16 16 14 12 12 -193 -193 -209 -193 -177 -177 -177 -209 -193 -209 -193 0 0 0 0 0 0 0 9 9 10 10 10 10 10 9 9 9 10 9 0 9 0 10 0 0 0 0 0 0 0 0 0 0 0 0 9 9 0 0 0 0 0 0 0 0 0 0 0 0 0 0 0 0 0 0 0 0 0 0 0 0 0 0 0 0 0 0 0 0 0 -193 0 0 0 0 0 0 13 10 0 14 9 10 19 13 14 15 13 13 12 14 15 11 17 21 24 29 32 34 35 36 30 24 22 17 15 14 12 12 13 10 10 0 0 0 0 0 13 11 14 13 15 17 18 20 19 17 20 17 19 19 20 21 17 19 18 20 19 18 19 21 15 16 16 19 20 22 23 -193 -177 27 30 29 32 28 36 35 38 36 37 38 37 37 38 -193 39 -193 -193 39 39 41 41 42 42 42 43 42 44 46 43 44 44 44 45 51 48 50 46 46 46 46 45 45 44 47 44 48 47 48 47 47 47 47 46 -193 46 48 46 46 46 46 0 0 0 0 0
    0 0 0 0 0 0 0 0 0 0 0 0 0 0 0 0 0 0 0 0 0 0 0 0 0 0 0 0 0 0 0 0 0 0 0 0 0 0 0 0 0 0 0 0 0 0 0 0 0 0 0 0 0 0 0 0 0 0 0 0 0 0 0 0 0 0 0 0 0 10 10 15 11 11 14 12 12 12 12 14 11 14 19 16 18 18 17 18 16 17 16 14 15 -193 -193 -209 -209 -209 -193 -193 29 27 27 -193 0 0 0 0 0 0 0 10 10 10 11 10 10 10 10 10 9 10 9 0 9 0 11 0 0 0 0 0 0 0 0 0 0 0 0 9 9 0 0 0 0 0 0 0 0 0 0 0 0 0 0 0 0 0 0 0 0 -193 -193 -193 -193 0 0 0 0 0 0 0 0 0 -193 -193 -193 0 0 0 14 25 22 16 18 11 10 18 13 14 14 13 13 12 14 16 12 19 22 25 31 33 35 35 36 30 25 22 18 15 14 12 12 13 10 10 0 0 0 -177 0 14 11 14 13 15 17 18 21 19 18 21 18 19 20 -193 21 18 20 19 20 20 19 20 21 15 16 16 19 20 22 -193 -177 544 28 31 30 33 29 36 35 37 35 36 37 37 37 38 -193 39 -193 -209 39 39 41 41 42 42 42 42 42 43 45 43 44 44 44 46 51 48 50 46 46 46 45 45 45 44 46 44 48 47 48 47 47 47 47 46 -193 46 48 46 46 46 47 0 0 0 0 0
    0 0 0 0 0 0 0 0 0 0 0 0 0 0 0 0 0 0 0 0 0 0 0 0 0 0 0 0 0 0 0 0 0 0 0 0 0 0 0 0 0 0 0 0 0 0 0 0 0 0 0 0 0 0 0 0 0 0 0 0 0 0 0 0 0 0 0 0 0 9 9 15 11 11 13 12 12 13 13 14 11 14 19 16 18 18 17 18 17 18 18 16 19 -193 -209 -209 -193 28 31 32 32 28 27 0 0 0 0 0 0 0 0 10 11 11 12 11 11 11 10 10 9 10 9 0 9 0 12 0 0 0 0 0 0 0 0 0 0 0 0 9 0 0 0 0 0 0 0 0 0 0 0 0 0 0 0 0 0 9 10 0 10 -209 -193 -193 -193 27 -193 0 0 -193 0 0 0 -193 -193 -193 -193 -193 -177 10 25 28 26 24 20 11 11 18 12 12 13 12 12 12 14 17 13 21 23 26 32 33 35 36 36 29 24 -193 17 15 14 12 11 12 10 10 0 9 9 0 0 14 12 14 14 16 17 19 21 20 18 22 19 -177 -193 -177 22 18 21 20 21 21 20 20 21 16 16 16 19 19 -193 148 150 546 28 31 31 33 29 35 34 37 35 36 37 37 36 38 -193 39 -193 -193 -193 39 41 41 42 42 42 42 42 43 45 43 44 44 43 46 51 48 49 46 46 46 45 44 44 44 45 44 47 46 47 47 47 47 47 46 -193 45 48 46 46 46 47 0 0 0 0 0
    0 0 0 0 0 0 0 0 0 0 0 0 0 0 0 0 0 0 0 0 0 0 0 0 0 0 0 0 0 0 0 0 0 0 0 0 0 0 0 0 0 0 0 0 0 0 0 0 0 0 0 0 0 0 0 0 0 0 0 0 0 0 0 0 0 0 0 0 0 9 9 15 11 11 14 13 13 14 14 14 11 14 20 15 18 18 18 19 17 19 20 18 22 -193 -209 28 28 30 32 33 34 29 27 9 9 0 0 0 0 0 0 11 12 12 13 11 11 12 11 12 11 12 10 0 9 9 14 0 0 9 0 0 0 0 0 0 0 0 0 9 9 0 0 0 0 0 0 0 0 0 0 0 0 0 0 0 10 12 14 13 -193 27 28 28 28 28 27 -193 -209 -209 -193 0 -193 -193 -193 -193 -193 -193 -209 16 27 33 32 34 -193 11 -193 -193 10 11 11 11 12 12 13 16 13 22 24 28 36 36 37 37 37 30 26 -193 -193 16 15 12 11 12 9 9 9 9 9 9 9 15 12 15 14 16 17 19 21 20 19 22 20 -177 -177 -177 22 19 22 21 21 21 20 20 -177 16 16 16 19 -193 -193 148 150 -193 28 32 32 33 29 35 34 36 35 36 37 36 36 38 39 39 38 -209 -193 39 42 41 42 42 42 42 42 43 45 43 44 44 43 45 51 48 49 46 45 46 45 44 44 44 45 44 46 46 47 47 47 47 46 46 -193 45 48 45 46 46 46 0 0 0 0 0
    0 0 0 0 0 0 0 0 0 0 0 0 0 0 0 0 0 0 0 0 0 0 0 0 0 0 0 0 0 0 0 0 0 0 0 0 0 0 0 0 0 0 0 0 0 0 0 0 0 0 0 0 0 0 0 0 0 0 0 0 0 0 0 0 0 0 0 0 0 0 0 16 11 11 14 14 13 14 14 15 11 13 20 15 17 18 18 19 18 20 21 20 24 -193 27 30 29 30 32 34 34 30 29 -193 0 0 0 0 9 0 9 13 14 15 15 13 13 14 13 16 14 19 14 10 13 13 18 0 0 11 0 0 0 -193 -193 -193 0 0 0 9 10 0 0 0 -193 10 0 12 11 10 12 12 12 12 -193 12 14 22 23 23 26 29 30 30 30 29 29 27 26 -209 -209 -193 -193 -193 -193 -193 -193 -209 -209 -193 30 36 37 -193 -209 -209 276 -193 -209 -193 -193 10 11 12 14 18 17 26 28 29 35 35 35 36 36 32 28 -193 -193 18 16 13 12 12 9 9 9 10 10 10 9 16 13 15 15 16 17 19 21 20 18 22 19 -193 -193 -177 22 20 22 21 22 22 21 21 -177 16 16 16 19 19 -193 149 150 -193 28 32 32 32 29 35 34 36 34 36 36 36 36 37 38 39 38 40 40 40 42 42 42 43 43 43 42 43 45 43 44 44 43 45 49 48 49 46 46 46 45 45 45 45 46 45 46 46 47 47 47 47 46 -193 -193 45 48 45 46 46 46 0 0 0 0 0
    0 0 0 0 0 0 0 0 0 0 0 0 0 0 0 0 0 0 0 0 0 0 0 0 0 0 0 0 0 0 0 0 0 0 0 0 0 0 0 0 0 0 0 0 0 0 0 0 0 0 0 0 0 0 0 0 0 0 0 0 0 0 0 0 0 0 0 0 0 0 0 16 11 11 14 13 13 14 14 14 10 13 20 14 17 17 18 19 19 21 22 21 25 26 29 31 30 30 33 34 34 31 29 20 12 13 11 10 11 11 11 15 17 18 18 15 15 18 16 21 20 24 22 17 21 21 23 16 10 15 0 0 10 -209 -209 -193 -193 -193 0 10 10 0 0 -193 -193 12 11 20 23 20 22 23 23 -193 -209 22 25 25 26 26 28 30 32 31 31 30 30 29 28 27 27 -209 -193 -193 -193 -193 -209 -209 -209 27 32 37 37 -193 -209 -193 273 281 -209 -209 -193 9 11 13 15 19 21 28 34 34 37 37 36 36 36 33 29 32 -193 20 18 15 12 12 9 9 9 11 11 10 10 16 13 15 15 16 16 19 20 19 18 21 19 19 20 -193 21 20 22 22 23 22 21 21 22 17 16 16 19 19 21 -193 -177 -193 28 31 31 31 29 34 34 35 34 36 36 36 36 37 38 39 38 40 40 40 42 42 43 43 43 43 42 43 45 43 44 44 43 44 47 47 48 46 46 46 46 46 46 46 47 46 47 47 48 47 47 47 46 46 -193 44 48 45 46 46 46 0 0 0 0 0</data></disparity>
</opencv_storage>
