<?xml version="1.0"?>
<opencv_storage>
<gps_time_stamp>16644</gps_time_stamp>
<gps_x>2.0105142146348953e-002</gps_x>
<gps_y>1.1295323260128498e-002</gps_y>
<gps_z>-9.3593355268239975e-003</gps_z>
<image_time_stamp>4565</image_time_stamp>
<disparity type_id="opencv-matrix">
  <rows>92</rows>
  <cols>320</cols>
  <dt>s</dt>
  <data>
    0 0 0 0 0 0 0 0 0 0 0 0 0 0 0 0 0 0 0 0 0 0 0 0 0 0 0 0 0 0 0 0 0 0 0 0 0 0 0 0 0 0 0 0 0 0 0 0 0 0 0 0 0 0 0 0 0 0 0 0 0 0 0 0 0 0 0 0 0 16 18 16 16 18 14 16 15 14 15 13 15 15 9 9 0 0 9 9 9 9 0 0 0 0 0 0 0 0 0 0 0 0 0 0 0 0 0 0 0 0 0 0 10 0 0 -193 -193 -193 0 0 0 0 9 0 0 12 10 10 10 10 10 10 11 12 0 0 0 0 0 0 0 0 0 0 0 0 0 0 0 10 11 13 16 18 18 18 18 15 12 -209 -193 0 0 0 0 0 0 0 0 0 9 16 12 17 10 10 9 -193 -193 9 0 0 0 0 0 9 0 0 0 0 0 0 0 0 0 10 9 0 0 0 0 10 10 10 0 10 11 11 0 0 0 0 0 0 0 0 9 12 16 16 20 17 20 16 18 17 17 17 16 15 17 15 19 18 19 20 20 22 22 23 23 23 24 24 26 26 26 27 29 31 32 34 34 32 34 33 34 36 35 36 35 35 35 35 36 35 35 36 35 36 35 36 37 36 37 36 36 37 36 37 38 38 39 38 39 40 41 42 44 48 47 47 50 50 50 49 48 48 44 46 43 41 40 39 37 36 36 35 35 36 35 33 35 34 35 0 0 0 0 0
    0 0 0 0 0 0 0 0 0 0 0 0 0 0 0 0 0 0 0 0 0 0 0 0 0 0 0 0 0 0 0 0 0 0 0 0 0 0 0 0 0 0 0 0 0 0 0 0 0 0 0 0 0 0 0 0 0 0 0 0 0 0 0 0 0 0 0 0 0 17 18 16 17 18 15 16 15 14 14 13 15 15 9 9 0 9 10 10 9 9 0 0 0 0 0 0 0 0 0 0 0 0 0 0 0 0 0 0 0 0 0 0 11 0 0 -193 -193 -193 -193 0 0 0 9 0 0 11 10 10 10 10 9 10 11 12 0 0 0 0 0 0 0 0 0 0 0 0 0 8 0 10 12 14 17 19 18 18 -193 -193 12 -209 -193 0 0 0 0 0 0 0 0 0 9 15 12 17 11 11 10 -193 -193 10 9 9 0 0 0 9 0 0 0 0 0 0 0 0 0 10 9 9 9 0 9 10 10 10 9 10 11 11 0 0 0 0 0 0 0 0 0 12 16 16 21 17 19 16 17 17 17 17 16 15 17 15 19 18 19 21 21 22 23 23 24 24 25 25 26 27 27 28 30 31 32 34 34 32 34 34 35 36 35 36 35 36 35 36 36 35 35 35 35 36 35 36 37 36 37 36 36 36 36 37 38 38 38 38 39 40 42 42 48 54 52 53 55 54 53 52 51 50 44 46 43 41 40 39 37 36 36 36 35 36 36 34 36 34 35 0 0 0 0 0
    0 0 0 0 0 0 0 0 0 0 0 0 0 0 0 0 0 0 0 0 0 0 0 0 0 0 0 0 0 0 0 0 0 0 0 0 0 0 0 0 0 0 0 0 0 0 0 0 0 0 0 0 0 0 0 0 0 0 0 0 0 0 0 0 0 0 0 0 0 18 19 17 17 19 16 16 16 15 14 13 13 13 0 0 0 0 0 9 0 0 0 0 0 0 0 0 0 0 0 0 0 0 0 0 0 0 0 0 0 0 0 0 11 0 0 -193 -193 -193 -193 -193 0 0 9 0 0 12 10 11 10 10 9 9 11 12 0 0 0 0 0 0 0 0 0 0 0 0 0 9 0 11 12 14 17 20 -193 -193 -209 -193 -193 -209 -193 0 0 0 0 0 0 0 0 0 9 14 11 18 12 12 10 11 10 10 9 10 0 0 0 9 0 0 0 0 0 9 0 0 0 11 10 9 9 0 9 11 11 11 9 10 11 11 0 0 0 0 0 0 0 0 0 12 16 18 20 17 19 16 17 17 17 16 16 15 17 15 18 17 19 20 21 22 23 23 25 25 25 26 27 27 27 28 30 31 32 34 34 33 34 34 35 37 36 37 36 37 37 37 37 36 35 35 35 36 35 36 37 36 37 36 36 36 36 37 38 38 38 38 39 40 41 41 49 55 53 54 56 55 54 53 52 50 44 46 44 41 40 39 37 37 36 36 37 37 37 36 38 36 36 0 0 0 0 0
    0 0 0 0 0 0 0 0 0 0 0 0 0 0 0 0 0 0 0 0 0 0 0 0 0 0 0 0 0 0 0 0 0 0 0 0 0 0 0 0 0 0 0 0 0 0 0 0 0 0 0 0 0 0 0 0 0 0 0 0 0 0 0 0 0 0 0 0 0 18 18 17 18 19 17 17 16 15 14 12 12 12 9 0 0 0 0 0 9 0 0 0 0 0 0 0 0 0 0 0 0 0 0 0 0 0 0 0 0 0 0 0 11 0 0 0 0 -193 -193 0 0 0 9 0 0 11 10 10 9 9 9 9 11 11 0 0 0 0 0 0 0 0 0 0 0 0 0 9 10 12 13 14 17 20 -193 -193 -209 -193 15 -193 11 10 0 0 0 0 0 0 9 9 9 14 11 18 12 12 11 11 11 11 10 10 0 0 0 9 0 0 0 0 0 10 0 9 0 11 10 9 9 9 9 11 10 10 9 10 11 11 0 0 0 0 0 0 0 0 0 12 15 18 20 16 18 16 17 17 16 16 15 15 17 15 18 17 18 20 20 21 22 22 24 24 26 27 27 27 27 29 31 31 33 35 34 33 34 35 36 37 37 37 36 37 37 37 37 35 35 35 34 36 35 35 36 36 36 36 35 36 35 37 38 39 39 39 40 42 45 48 53 56 55 55 57 56 55 54 53 52 46 47 44 42 40 39 37 37 37 37 38 39 39 39 40 39 38 0 0 0 0 0
    0 0 0 0 0 0 0 0 0 0 0 0 0 0 0 0 0 0 0 0 0 0 0 0 0 0 0 0 0 0 0 0 0 0 0 0 0 0 0 0 0 0 0 0 0 0 0 0 0 0 0 0 0 0 0 0 0 0 0 0 0 0 0 0 0 0 0 0 0 19 18 17 18 18 17 17 16 15 13 12 12 11 9 0 0 0 9 9 9 10 9 0 0 0 0 0 0 0 0 0 0 0 0 0 0 0 0 0 0 0 0 0 10 0 0 0 0 0 0 0 0 0 10 0 0 11 10 10 9 9 9 9 10 11 0 0 0 0 0 0 0 0 0 0 0 0 9 10 10 12 12 12 15 -193 -193 -193 -193 -193 17 16 13 12 10 9 9 9 9 9 9 9 9 -193 11 19 13 13 11 12 11 11 10 11 0 0 0 9 0 0 0 0 0 10 9 9 0 11 10 9 9 9 9 11 10 10 0 10 11 11 0 0 0 0 0 0 0 0 0 12 16 18 19 16 18 16 17 16 16 16 16 16 17 15 19 17 18 20 20 21 21 22 24 24 26 27 28 28 28 30 31 32 34 36 35 34 35 36 36 37 37 38 37 38 38 38 37 36 34 34 34 34 34 34 36 35 35 35 35 36 35 37 38 39 40 40 42 45 49 51 54 56 55 55 56 56 55 54 53 52 47 49 45 44 42 41 39 38 38 38 38 40 40 41 41 40 39 0 0 0 0 0
    0 0 0 0 0 0 0 0 0 0 0 0 0 0 0 0 0 0 0 0 0 0 0 0 0 0 0 0 0 0 0 0 0 0 0 0 0 0 0 0 0 0 0 0 0 0 0 0 0 0 0 0 0 0 0 0 0 0 0 0 0 0 0 0 0 0 0 0 0 19 18 18 18 19 18 18 17 15 13 13 12 11 10 9 8 0 0 9 9 0 0 0 0 0 0 0 0 0 0 0 0 0 0 0 0 0 0 0 0 0 0 0 10 0 0 0 0 0 0 0 0 9 10 9 0 11 10 10 9 9 0 0 10 10 0 0 0 0 0 0 0 0 0 0 0 9 9 11 10 11 10 9 12 -193 -193 -193 -193 16 16 15 13 12 10 10 9 9 9 9 9 9 9 -193 10 19 13 14 12 12 11 11 11 11 0 0 0 9 0 0 0 0 9 11 9 9 0 12 10 9 10 9 9 11 11 11 0 10 11 11 0 0 0 0 0 0 0 0 0 12 16 18 19 16 18 17 17 16 16 16 16 16 18 16 19 17 19 20 20 21 22 22 24 24 26 28 29 28 28 31 31 33 34 36 35 35 35 37 36 38 38 38 38 38 38 38 36 36 34 33 33 33 33 33 35 34 35 35 34 36 35 37 39 40 41 41 43 47 52 54 55 57 56 56 56 56 55 54 53 53 48 50 48 47 46 44 42 41 40 40 40 42 44 44 43 43 41 0 0 0 0 0
    0 0 0 0 0 0 0 0 0 0 0 0 0 0 0 0 0 0 0 0 0 0 0 0 0 0 0 0 0 0 0 0 0 0 0 0 0 0 0 0 0 0 0 0 0 0 0 0 0 0 0 0 0 0 0 0 0 0 0 0 0 0 0 0 0 0 0 0 0 20 17 18 19 20 18 18 18 16 14 14 13 12 10 10 9 9 0 0 0 0 0 0 0 0 0 0 0 0 0 0 0 0 0 0 0 0 0 0 0 9 0 0 10 0 0 0 0 0 9 0 0 9 11 9 0 11 10 9 9 0 0 0 10 10 0 0 0 0 0 0 0 0 0 9 9 10 10 11 10 11 9 0 10 -193 -193 -193 -193 14 14 13 12 11 9 9 9 9 9 9 9 9 10 -193 10 19 14 14 12 12 11 11 11 12 0 0 0 10 9 0 9 9 9 11 9 10 0 12 11 10 10 10 10 12 11 11 9 10 11 12 0 0 0 0 0 9 9 9 0 11 14 15 17 16 17 16 17 16 16 16 16 16 18 16 20 19 20 21 21 22 22 22 24 24 26 27 29 28 29 31 31 34 33 36 35 34 35 37 37 38 38 39 38 38 39 38 37 36 34 33 32 33 33 33 34 34 34 34 34 36 35 37 39 40 41 41 44 47 53 54 55 56 55 55 56 55 55 54 54 53 50 52 50 49 49 48 45 46 43 42 44 47 50 49 46 46 43 0 0 0 0 0
    0 0 0 0 0 0 0 0 0 0 0 0 0 0 0 0 0 0 0 0 0 0 0 0 0 0 0 0 0 0 0 0 0 0 0 0 0 0 0 0 0 0 0 0 0 0 0 0 0 0 0 0 0 0 0 0 0 0 0 0 0 0 0 0 0 0 0 0 0 19 17 19 20 20 19 18 18 17 15 15 13 11 10 9 9 0 0 0 0 0 0 0 0 0 0 0 0 0 0 0 0 0 0 0 0 0 0 0 9 9 0 0 10 0 0 0 0 0 9 0 9 9 11 9 0 10 9 9 9 0 0 0 9 9 0 0 0 0 0 0 0 0 0 9 9 10 10 11 10 11 10 9 10 -193 -193 11 12 13 13 13 11 11 9 9 9 9 9 9 9 9 10 -209 9 19 13 14 12 11 11 11 11 12 0 0 0 10 9 9 10 9 10 11 9 10 0 12 11 10 11 11 11 12 12 12 9 10 10 13 9 0 9 9 10 10 10 10 9 12 14 15 17 16 17 16 16 15 16 16 16 17 18 18 21 21 21 22 23 23 23 23 24 25 26 28 28 28 28 30 31 32 32 35 34 34 35 36 37 38 38 39 38 38 39 38 37 35 34 33 32 33 33 32 33 33 33 35 35 37 37 38 39 41 41 42 44 49 54 55 56 57 56 56 56 56 55 54 54 53 51 52 51 50 50 51 49 49 47 45 51 53 54 53 50 51 48 0 0 0 0 0
    0 0 0 0 0 0 0 0 0 0 0 0 0 0 0 0 0 0 0 0 0 0 0 0 0 0 0 0 0 0 0 0 0 0 0 0 0 0 0 0 0 0 0 0 0 0 0 0 0 0 0 0 0 0 0 0 0 0 0 0 0 0 0 0 0 0 0 0 0 19 16 18 20 20 19 18 18 17 15 15 13 11 10 0 0 0 0 0 0 0 0 0 0 0 0 0 0 0 0 0 0 0 0 0 0 0 0 9 9 10 0 0 10 0 0 0 0 0 9 0 9 9 10 0 0 10 9 9 9 0 0 0 10 10 0 0 0 0 0 0 0 0 9 9 9 10 10 12 10 11 10 9 10 -193 -193 11 13 13 13 13 11 11 9 9 9 9 9 9 9 10 10 -209 -177 18 13 13 12 11 11 10 11 11 0 0 0 10 10 10 10 10 10 11 10 10 0 12 11 10 11 11 12 12 12 12 9 10 10 15 10 9 10 11 11 11 11 12 10 12 14 16 16 16 16 16 15 14 14 15 15 17 18 19 22 22 23 24 24 24 24 24 25 25 26 27 27 27 27 28 30 31 31 35 34 34 35 36 38 37 38 39 38 38 39 38 37 35 33 33 32 32 32 32 32 33 33 35 35 38 38 40 41 42 42 42 46 51 54 55 56 56 56 56 56 56 55 54 54 53 52 52 51 51 51 52 52 52 51 51 55 56 56 56 54 54 53 0 0 0 0 0
    0 0 0 0 0 0 0 0 0 0 0 0 0 0 0 0 0 0 0 0 0 0 0 0 0 0 0 0 0 0 0 0 0 0 0 0 0 0 0 0 0 0 0 0 0 0 0 0 0 0 0 0 0 0 0 0 0 0 0 0 0 0 0 0 0 0 0 0 0 18 16 18 19 20 19 18 18 17 15 15 13 11 10 0 0 0 0 0 0 0 0 0 0 0 0 0 0 0 0 0 0 0 0 0 0 0 9 9 10 10 9 0 10 0 0 0 0 0 10 9 9 9 10 0 0 10 9 9 9 0 0 0 10 10 0 0 0 0 0 0 0 0 9 9 9 10 10 12 10 11 9 8 10 -193 -193 11 13 13 13 13 10 11 9 9 9 9 9 9 10 11 10 0 0 -177 13 13 11 10 10 10 11 11 0 0 0 9 10 11 11 10 11 12 10 10 0 12 11 10 11 11 12 11 11 11 0 9 10 16 11 10 12 13 12 12 12 12 9 11 13 14 15 15 15 14 14 14 14 14 14 17 19 20 23 24 24 25 25 25 25 25 25 26 26 27 27 27 27 28 30 30 30 34 33 34 35 36 38 37 39 39 38 38 38 37 36 34 33 33 32 32 31 31 31 32 32 35 35 39 40 42 43 44 43 44 48 52 54 54 56 56 56 56 56 56 55 54 54 53 53 52 51 52 52 53 53 53 52 54 57 58 57 57 55 55 55 0 0 0 0 0
    0 0 0 0 0 0 0 0 0 0 0 0 0 0 0 0 0 0 0 0 0 0 0 0 0 0 0 0 0 0 0 0 0 0 0 0 0 0 0 0 0 0 0 0 0 0 0 0 0 0 0 0 0 0 0 0 0 0 0 0 0 0 0 0 0 0 0 0 0 18 16 18 19 20 19 18 17 16 15 15 12 10 10 0 0 0 0 0 0 0 0 0 0 0 0 0 0 0 0 0 0 0 9 0 0 0 9 10 10 11 10 0 11 0 0 0 0 0 11 9 9 9 10 0 0 10 9 9 0 0 0 0 9 9 0 0 0 0 0 0 0 9 9 9 9 10 10 11 10 10 9 0 10 -193 -193 12 13 13 13 13 10 11 9 9 9 9 9 10 10 11 11 0 0 -177 12 12 11 -193 10 10 11 11 0 0 0 10 11 11 11 10 11 11 10 10 0 12 10 10 11 11 11 11 11 11 0 9 9 17 12 11 13 14 13 12 14 13 10 12 13 14 15 15 16 14 14 14 14 14 14 16 20 21 24 25 25 26 26 26 26 25 25 26 26 26 27 26 27 27 29 30 30 33 33 33 35 36 38 38 39 39 39 38 39 37 36 34 33 33 32 32 31 31 31 32 32 35 35 40 41 43 44 45 45 46 49 52 54 54 55 54 55 55 55 55 54 53 53 52 53 53 52 52 52 53 53 53 53 55 58 58 58 57 56 56 -193 0 0 0 0 0
    0 0 0 0 0 0 0 0 0 0 0 0 0 0 0 0 0 0 0 0 0 0 0 0 0 0 0 0 0 0 0 0 0 0 0 0 0 0 0 0 0 0 0 0 0 0 0 0 0 0 0 0 0 0 0 0 0 0 0 0 0 0 0 0 0 0 0 0 0 17 15 17 18 19 18 17 17 16 15 15 13 11 10 9 9 0 0 0 0 0 0 0 0 0 0 0 0 0 0 0 0 0 10 0 0 0 10 10 11 11 11 0 11 0 0 0 9 9 11 9 9 9 10 0 0 9 9 0 0 0 0 0 0 0 0 0 0 0 0 0 0 9 10 9 9 10 10 11 10 10 9 9 10 -193 12 13 14 14 13 13 11 11 9 10 9 9 9 10 11 12 11 -193 0 16 12 12 11 -193 9 9 10 10 0 0 0 9 10 11 10 10 11 11 10 10 8 12 10 11 12 12 12 11 11 11 0 10 10 18 13 12 14 16 15 14 16 15 12 14 14 15 15 15 16 14 14 14 14 14 15 17 20 21 25 26 26 26 26 26 26 25 25 26 26 26 27 26 27 28 29 30 29 32 32 33 35 36 38 38 39 39 39 39 39 37 36 34 33 33 31 32 32 31 31 32 32 35 36 41 42 43 45 46 47 47 50 52 54 54 55 54 54 54 54 54 53 52 52 52 54 53 53 53 53 54 53 53 53 55 59 59 59 58 -193 -193 -193 0 0 0 0 0
    0 0 0 0 0 0 0 0 0 0 0 0 0 0 0 0 0 0 0 0 0 0 0 0 0 0 0 0 0 0 0 0 0 0 0 0 0 0 0 0 0 0 0 0 0 0 0 0 0 0 0 0 0 0 0 0 0 0 0 0 0 0 0 0 0 0 0 0 0 16 15 17 17 18 17 16 16 15 14 14 12 11 10 9 9 0 0 0 0 0 0 0 0 0 0 0 0 0 0 0 0 0 10 8 8 8 11 10 12 12 12 9 12 9 9 0 9 9 12 9 10 9 11 8 0 0 9 0 0 0 0 0 0 0 0 0 0 0 0 0 0 9 9 9 0 9 10 10 9 9 9 9 10 12 11 12 13 12 12 11 10 10 9 9 0 0 9 9 10 11 11 0 0 15 12 12 11 -193 -193 9 10 10 0 0 0 0 10 11 10 10 11 11 10 10 9 12 11 11 12 13 12 11 11 11 9 10 10 19 14 12 14 17 15 15 16 15 13 14 15 15 14 15 16 14 14 14 14 14 15 16 20 20 25 26 27 26 27 26 26 26 26 27 26 26 26 26 27 27 29 29 29 31 31 33 35 35 38 38 39 39 39 39 38 37 37 34 33 33 32 32 32 32 31 32 33 36 38 42 46 45 47 47 49 49 51 52 53 53 54 52 53 53 53 53 52 51 52 52 54 54 53 54 54 54 54 54 54 55 59 60 59 -193 -193 -193 -193 0 0 0 0 0
    0 0 0 0 0 0 0 0 0 0 0 0 0 0 0 0 0 0 0 0 0 0 0 0 0 0 0 0 0 0 0 0 0 0 0 0 0 0 0 0 0 0 0 0 0 0 0 0 0 0 0 0 0 0 0 0 0 0 0 0 0 0 0 0 0 0 0 0 0 16 15 17 17 18 17 15 16 15 14 13 12 10 9 0 0 0 0 0 0 0 0 0 0 0 0 0 0 0 0 0 0 0 10 9 9 9 11 11 12 13 13 10 13 10 10 9 10 10 12 9 10 10 11 9 0 0 0 0 0 0 0 0 0 0 0 0 0 0 0 0 0 0 0 0 0 0 0 9 0 0 0 0 9 11 10 10 10 10 10 10 9 9 0 0 0 0 9 9 10 11 11 0 0 15 12 12 11 -193 -193 0 9 10 0 0 0 0 10 10 10 10 11 11 10 10 9 12 11 12 13 14 13 12 12 12 9 11 11 20 14 13 15 16 15 14 15 14 12 13 13 14 14 14 15 13 14 14 14 14 14 15 20 19 24 25 26 25 25 25 26 25 25 27 26 26 26 26 27 27 28 29 28 30 30 32 34 34 37 37 38 39 38 38 38 37 36 34 33 33 32 32 32 32 31 31 33 37 39 44 49 48 50 50 51 50 51 52 53 52 54 52 53 52 53 53 51 51 52 52 54 54 53 53 53 54 53 54 54 56 60 60 60 -193 -193 -193 -193 0 0 0 0 0
    0 0 0 0 0 0 0 0 0 0 0 0 0 0 0 0 0 0 0 0 0 0 0 0 0 0 0 0 0 0 0 0 0 0 0 0 0 0 0 0 0 0 0 0 0 0 0 0 0 0 0 0 0 0 0 0 0 0 0 0 0 0 0 0 0 0 0 0 0 17 15 16 17 18 17 15 14 14 14 13 12 10 9 0 9 0 0 0 0 0 0 0 0 0 0 0 0 0 0 0 0 0 9 9 9 9 11 11 12 13 14 11 14 11 10 9 9 9 11 9 9 9 10 0 0 0 0 0 0 0 0 0 0 0 0 0 0 0 0 0 0 0 0 0 0 0 0 0 0 0 9 0 9 12 10 10 9 9 9 9 0 0 0 0 0 0 9 9 10 11 12 0 0 15 12 12 11 -193 -193 0 9 9 0 0 0 0 10 10 10 10 10 11 10 11 9 12 12 13 14 15 13 13 13 13 9 11 12 20 14 13 16 17 15 15 15 14 12 13 13 13 13 14 15 13 14 14 15 15 14 15 20 18 23 24 24 24 24 24 25 24 25 26 25 25 26 26 27 26 27 28 28 29 29 31 34 34 37 37 38 38 38 37 37 37 36 34 34 34 32 33 33 32 32 32 33 37 40 46 51 49 51 51 52 51 52 53 53 52 53 51 52 52 52 52 50 51 52 52 55 55 54 53 54 54 53 54 54 56 60 60 60 -193 -193 -193 -193 0 0 0 0 0
    0 0 0 0 0 0 0 0 0 0 0 0 0 0 0 0 0 0 0 0 0 0 0 0 0 0 0 0 0 0 0 0 0 0 0 0 0 0 0 0 0 0 0 0 0 0 0 0 0 0 0 0 0 0 0 0 0 0 0 0 0 0 0 0 0 0 0 0 0 16 15 15 15 17 17 15 14 14 14 12 11 9 9 0 0 0 0 0 0 0 0 0 0 0 0 0 0 0 0 0 0 0 9 9 9 9 11 11 12 13 14 11 13 11 11 9 0 9 10 0 9 10 10 0 0 0 0 0 0 0 0 0 0 0 0 0 0 0 0 0 0 0 0 0 0 0 0 0 0 0 9 9 11 12 12 11 9 10 9 9 0 0 0 0 0 0 9 9 10 11 11 0 0 15 12 12 11 -193 -193 0 9 9 0 0 0 0 10 10 9 10 11 11 11 11 10 13 12 13 14 15 13 13 13 13 10 11 13 19 14 13 15 15 14 14 14 13 12 13 13 14 14 14 16 14 14 15 15 15 14 16 21 18 23 23 24 24 24 25 25 25 26 26 26 26 26 26 26 26 27 28 27 28 28 31 32 33 36 36 37 38 37 37 37 37 37 35 35 34 32 33 33 32 33 33 37 41 43 47 51 50 52 51 51 51 52 53 53 52 54 51 52 51 52 52 50 52 52 53 56 56 54 54 54 54 54 54 54 56 59 60 60 -193 -193 -193 -193 0 0 0 0 0
    0 0 0 0 0 0 0 0 0 0 0 0 0 0 0 0 0 0 0 0 0 0 0 0 0 0 0 0 0 0 0 0 0 0 0 0 0 0 0 0 0 0 0 0 0 0 0 0 0 0 0 0 0 0 0 0 0 0 0 0 0 0 0 0 0 0 0 0 0 16 15 15 14 16 16 14 15 14 13 12 11 10 9 0 0 0 0 0 0 0 0 0 0 0 0 0 0 0 0 0 0 0 9 9 9 9 11 11 12 13 14 10 12 11 11 0 0 0 9 0 9 10 9 0 0 0 0 0 0 0 0 0 0 0 0 0 0 9 0 0 0 0 0 0 0 0 0 0 0 0 9 9 11 12 13 11 9 10 9 -209 0 0 0 0 0 0 9 9 10 10 11 0 0 15 12 12 11 -193 -193 -193 9 9 0 0 0 0 10 10 9 10 11 11 11 11 10 13 12 13 14 14 13 13 13 13 10 11 11 16 13 12 13 13 13 13 14 13 12 13 13 14 14 13 16 14 14 15 15 15 14 16 21 17 22 23 24 24 24 25 25 25 26 27 26 26 26 26 26 26 27 28 27 28 28 31 31 33 35 35 37 38 37 37 37 37 36 35 35 33 32 33 33 33 35 36 40 43 45 49 51 50 52 51 51 51 52 53 52 51 53 50 51 50 51 51 48 52 52 54 58 57 55 55 55 55 55 55 55 57 -193 60 60 -193 -193 -193 -193 0 0 0 0 0
    0 0 0 0 0 0 0 0 0 0 0 0 0 0 0 0 0 0 0 0 0 0 0 0 0 0 0 0 0 0 0 0 0 0 0 0 0 0 0 0 0 0 0 0 0 0 0 0 0 0 0 0 0 0 0 0 0 0 0 0 0 0 0 0 0 0 0 0 0 16 15 15 14 17 16 15 15 14 13 12 11 11 10 0 9 0 0 0 0 0 0 0 0 0 0 0 0 0 0 0 0 0 9 9 9 9 11 11 12 12 13 10 11 10 10 0 0 0 9 0 9 10 10 9 9 0 0 0 0 0 0 0 0 0 0 0 0 9 0 0 0 0 0 0 0 0 0 0 0 0 10 9 11 12 12 10 0 9 0 -193 0 0 0 0 0 0 9 0 9 10 11 0 0 15 12 12 12 -193 -193 -193 9 9 0 0 0 0 10 10 9 10 10 11 11 12 10 13 13 13 14 14 13 13 14 14 12 15 15 17 12 12 13 12 13 12 13 12 12 13 13 14 14 13 16 14 15 15 15 15 15 17 21 16 21 23 24 24 24 25 25 25 26 27 26 26 26 26 26 26 27 28 27 27 28 30 30 32 33 35 36 38 37 37 37 38 37 37 36 34 33 34 34 35 37 39 42 47 48 51 52 51 52 51 52 52 51 52 52 51 53 49 51 49 51 51 49 53 53 54 58 57 56 56 56 56 56 56 56 57 -193 61 60 -193 -193 -193 -193 0 0 0 0 0
    0 0 0 0 0 0 0 0 0 0 0 0 0 0 0 0 0 0 0 0 0 0 0 0 0 0 0 0 0 0 0 0 0 0 0 0 0 0 0 0 0 0 0 0 0 0 0 0 0 0 0 0 0 0 0 0 0 0 0 0 0 0 0 0 0 0 0 0 0 16 16 15 14 16 16 14 15 13 13 11 11 11 10 0 0 0 0 0 0 0 0 0 0 0 0 0 0 0 0 0 0 0 0 9 9 9 11 11 11 11 12 9 10 9 9 0 0 0 0 0 0 10 10 9 9 0 0 0 0 0 0 0 0 0 0 0 0 0 0 0 0 0 0 0 0 0 0 0 0 0 10 9 12 12 12 11 0 9 0 0 0 0 0 0 0 0 0 0 9 10 11 -209 9 15 12 12 12 -193 -193 0 9 9 0 0 0 0 10 10 9 10 10 12 11 12 10 13 14 14 14 15 13 13 15 17 16 22 24 22 14 12 13 11 12 11 11 12 12 13 13 14 13 13 16 14 15 15 14 16 14 17 20 15 20 22 23 24 24 25 25 25 26 27 26 26 26 26 27 26 26 28 27 27 27 29 29 31 31 34 35 37 37 37 37 38 36 37 36 34 34 35 36 37 40 42 45 50 51 51 52 51 52 51 52 52 51 53 52 51 53 49 51 48 51 51 49 53 53 54 58 58 57 56 57 57 56 56 56 57 -193 60 60 -193 -193 -193 -193 0 0 0 0 0
    0 0 0 0 0 0 0 0 0 0 0 0 0 0 0 0 0 0 0 0 0 0 0 0 0 0 0 0 0 0 0 0 0 0 0 0 0 0 0 0 0 0 0 0 0 0 0 0 0 0 0 0 0 0 0 0 0 0 0 0 0 0 0 0 0 0 0 0 0 15 16 15 14 15 15 13 14 13 12 11 11 10 10 0 0 0 0 0 0 0 0 0 0 0 0 0 0 0 0 0 0 0 0 9 9 9 11 10 11 11 12 9 9 9 9 0 0 0 0 0 0 10 10 9 10 0 0 0 0 0 0 0 0 0 0 0 0 0 0 0 0 0 0 0 0 0 0 0 0 0 9 9 11 12 11 11 0 9 0 0 0 0 0 0 0 0 0 0 9 10 12 -209 10 18 13 14 13 -193 -193 9 9 9 0 0 0 0 10 9 9 10 10 12 12 12 11 13 14 14 14 14 13 13 16 19 19 25 27 28 19 13 16 11 11 10 10 11 12 13 13 14 13 13 16 14 14 14 14 15 14 17 20 15 21 22 23 24 24 25 25 25 26 27 26 26 26 26 26 26 26 27 26 27 26 28 28 31 30 33 34 35 36 36 36 37 35 38 37 35 36 37 39 41 43 46 48 51 51 52 52 52 53 52 53 52 52 53 53 52 53 49 51 48 51 50 49 53 53 54 58 58 57 56 57 56 56 56 56 57 -193 -193 -193 -193 -193 230 -193 0 0 0 0 0
    0 0 0 0 0 0 0 0 0 0 0 0 0 0 0 0 0 0 0 0 0 0 0 0 0 0 0 0 0 0 0 0 0 0 0 0 0 0 0 0 0 0 0 0 0 0 0 0 0 0 0 0 0 0 0 0 0 0 0 0 0 0 0 0 0 0 0 0 0 16 16 16 14 15 15 13 13 12 12 11 10 10 9 0 0 0 0 0 0 0 0 0 0 0 0 0 0 0 0 0 0 0 0 9 9 9 11 10 10 11 12 0 8 0 0 0 0 0 0 0 0 10 11 10 10 0 0 0 0 0 0 0 0 0 0 0 0 0 0 0 0 0 0 0 0 0 0 0 0 0 0 0 9 10 9 9 0 -193 10 -209 0 0 0 0 0 0 0 0 9 10 14 -209 -193 -193 15 16 15 -193 -193 9 10 10 0 0 0 0 9 9 0 10 10 11 11 12 11 14 14 14 15 14 13 14 17 20 21 26 29 32 29 23 24 0 9 0 0 10 11 12 12 13 13 12 16 14 14 15 15 15 14 17 20 15 20 22 23 24 25 25 26 25 26 27 26 26 26 26 25 26 25 26 26 26 26 27 27 31 29 32 34 35 35 35 36 37 34 39 37 36 38 40 41 44 46 48 49 52 51 51 52 52 53 53 53 53 52 54 54 53 55 50 51 50 52 51 49 53 52 53 57 57 56 -177 -177 55 55 55 54 56 -193 -193 -193 230 230 230 230 0 0 0 0 0
    0 0 0 0 0 0 0 0 0 0 0 0 0 0 0 0 0 0 0 0 0 0 0 0 0 0 0 0 0 0 0 0 0 0 0 0 0 0 0 0 0 0 0 0 0 0 0 0 0 0 0 0 0 0 0 0 0 0 0 0 0 0 0 0 0 0 0 0 0 16 16 17 15 15 16 14 14 12 12 11 10 10 9 0 0 0 0 0 0 0 0 0 0 0 0 0 0 0 0 0 0 0 0 0 9 9 11 10 10 11 12 0 0 0 0 0 0 0 -193 0 8 10 11 10 10 0 0 0 0 0 0 0 0 0 0 0 0 0 0 0 0 0 0 0 0 0 0 0 0 0 0 0 0 0 0 0 -209 -193 11 -209 -209 10 -193 9 9 9 10 -193 9 12 17 -209 -193 -193 18 18 18 -193 -193 10 10 10 0 0 0 0 9 9 0 9 10 11 11 12 11 14 15 15 15 14 14 14 18 22 22 27 30 34 34 30 28 -209 -193 9 9 10 10 12 12 13 13 12 16 14 15 15 14 15 15 17 19 15 20 22 22 24 25 25 26 25 26 26 26 26 25 25 25 26 25 26 26 26 26 27 27 31 29 32 33 34 35 35 36 38 36 41 40 39 41 43 44 46 47 49 49 52 50 51 51 52 53 53 54 53 53 55 55 55 56 51 52 51 53 52 50 53 53 54 57 57 55 -177 -177 55 54 54 54 55 -193 -193 -209 230 231 231 -193 0 0 0 0 0
    0 0 0 0 0 0 0 0 0 0 0 0 0 0 0 0 0 0 0 0 0 0 0 0 0 0 0 0 0 0 0 0 0 0 0 0 0 0 0 0 0 0 0 0 0 0 0 0 0 0 0 0 0 0 0 0 0 0 0 0 0 0 0 0 0 0 0 0 0 16 16 18 14 14 16 14 14 12 12 11 10 10 10 0 0 0 0 0 0 0 0 0 0 0 0 0 0 0 0 0 0 0 0 0 9 9 11 10 9 10 11 0 0 0 0 0 0 0 0 0 9 10 11 10 10 0 0 0 0 0 0 0 0 0 0 0 0 0 0 0 0 0 0 0 0 0 0 0 0 9 9 0 10 9 0 10 106 111 -193 -209 -209 -209 -209 -209 -193 10 12 -209 10 14 19 -209 -193 23 19 19 19 -193 -193 11 11 11 0 0 0 0 9 9 0 9 10 11 11 12 11 14 15 15 16 15 14 15 19 23 23 28 33 36 38 37 -193 -193 -209 -209 9 11 12 13 13 13 13 12 16 14 15 15 14 16 15 17 19 15 20 22 23 25 26 26 26 26 26 27 26 26 25 25 25 25 25 26 25 25 26 27 26 30 28 32 33 34 35 35 37 38 38 42 42 42 43 46 45 48 49 50 49 52 50 51 51 51 53 53 54 53 53 55 56 56 57 51 52 52 54 53 52 54 54 55 57 57 55 55 55 55 54 54 53 55 -193 -209 -209 -193 -193 -193 -193 0 0 0 0 0
    0 0 0 0 0 0 0 0 0 0 0 0 0 0 0 0 0 0 0 0 0 0 0 0 0 0 0 0 0 0 0 0 0 0 0 0 0 0 0 0 0 0 0 0 0 0 0 0 0 0 0 0 0 0 0 0 0 0 0 0 0 0 0 0 0 0 0 0 0 15 15 18 14 14 16 14 14 12 12 12 10 10 11 0 0 0 0 0 0 0 0 0 9 0 0 0 0 0 0 0 0 0 0 0 9 9 11 9 9 9 10 0 0 0 0 0 0 0 0 0 9 10 11 10 10 0 0 0 0 0 0 0 0 0 0 0 0 0 0 0 0 0 0 0 0 0 9 0 9 11 9 0 9 9 0 -209 106 108 -209 -209 -209 -209 -209 638 -193 -209 -193 -177 -193 18 -193 -209 -193 -193 19 19 19 -193 12 11 11 11 0 0 0 0 9 0 0 9 9 11 11 12 10 14 15 16 17 15 14 15 20 24 24 29 35 37 -193 -193 -177 -177 495 -193 9 11 12 13 13 14 13 12 16 15 15 15 14 16 15 17 19 16 21 23 24 26 27 27 27 26 27 27 26 26 25 25 25 25 26 26 25 25 26 26 26 28 28 31 31 33 35 36 38 39 39 43 44 44 45 48 47 48 49 50 49 52 50 51 50 51 53 53 54 53 53 55 56 56 57 51 53 52 55 53 52 55 54 54 57 56 55 54 55 54 53 53 52 53 55 -209 -193 -193 -193 -193 -193 0 0 0 0 0
    0 0 0 0 0 0 0 0 0 0 0 0 0 0 0 0 0 0 0 0 0 0 0 0 0 0 0 0 0 0 0 0 0 0 0 0 0 0 0 0 0 0 0 0 0 0 0 0 0 0 0 0 0 0 0 0 0 0 0 0 0 0 0 0 0 0 0 0 0 15 16 19 14 13 15 14 14 13 12 13 10 12 16 0 10 9 0 0 0 0 9 0 9 0 0 0 0 0 0 0 0 0 0 0 9 10 11 9 9 9 10 0 0 0 0 0 0 0 0 0 9 9 10 9 9 0 0 0 0 0 0 0 0 0 0 0 0 0 0 0 0 0 9 9 9 8 10 9 10 11 0 0 0 0 -193 -209 107 -177 -209 39 -209 -193 -209 -193 -209 -209 -193 -177 -209 22 -209 -209 -193 -193 20 21 20 -193 13 11 11 11 0 0 0 0 0 0 0 0 0 10 10 11 10 14 15 17 18 16 15 17 20 24 24 30 36 38 -193 -193 -177 -177 -193 -193 -193 11 12 13 13 14 14 12 17 15 15 15 14 15 15 17 19 16 20 22 24 26 27 27 27 26 26 26 26 25 25 24 25 25 25 26 26 25 26 26 26 28 28 31 31 32 34 36 39 40 40 44 44 45 46 49 47 48 49 49 49 51 50 51 50 51 53 53 54 54 53 56 56 57 58 52 53 53 54 53 52 55 55 54 56 55 54 54 54 54 51 52 50 52 54 -193 -193 -193 -193 -193 -193 0 0 0 0 0
    0 0 0 0 0 0 0 0 0 0 0 0 0 0 0 0 0 0 0 0 0 0 0 0 0 0 0 0 0 0 0 0 0 0 0 0 0 0 0 0 0 0 0 0 0 0 0 0 0 0 0 0 0 0 0 0 0 0 0 0 0 0 0 0 0 0 0 0 0 15 15 19 14 13 15 15 14 13 12 13 11 13 19 10 11 10 10 9 9 9 9 0 9 0 0 0 0 0 0 0 0 0 0 0 10 10 11 9 9 9 10 0 0 0 0 0 0 0 9 9 10 10 11 10 10 0 0 0 0 0 0 0 0 0 0 0 0 0 0 0 0 0 9 0 9 9 10 10 10 10 0 0 0 9 -193 -193 108 -177 -193 38 40 40 40 -193 40 -193 -193 -177 -209 29 -209 -209 -193 -193 -209 -209 -193 -193 -193 12 10 10 0 0 0 0 0 0 0 0 0 10 10 10 10 14 15 17 19 17 16 19 21 25 25 31 37 38 41 -193 -177 -177 -193 -193 -193 11 12 13 13 13 13 11 16 15 15 15 14 16 15 17 18 16 19 22 23 25 26 26 26 25 26 26 25 25 24 24 25 24 25 25 25 25 25 26 26 27 27 31 31 32 35 37 40 41 41 44 45 46 47 50 47 48 49 49 49 51 50 51 50 51 53 54 55 54 53 56 56 56 57 53 53 53 54 53 52 55 55 54 56 55 54 53 53 53 50 51 48 51 54 54 53 -193 -193 -193 -193 0 0 0 0 0
    0 0 0 0 0 0 0 0 0 0 0 0 0 0 0 0 0 0 0 0 0 0 0 0 0 0 0 0 0 0 0 0 0 0 0 0 0 0 0 0 0 0 0 0 0 0 0 0 0 0 0 0 0 0 0 0 0 0 0 0 0 0 0 0 0 0 0 0 0 16 16 20 15 14 17 17 15 15 14 15 12 13 20 11 12 10 10 10 9 9 9 0 0 0 0 0 0 0 0 0 0 0 0 0 9 10 11 9 9 10 10 0 0 0 0 0 0 0 9 9 10 9 10 10 10 0 0 0 0 0 0 0 0 0 0 0 0 0 0 0 0 0 9 0 9 9 10 10 10 9 0 0 0 11 -193 -193 111 114 37 38 40 40 40 40 40 40 -193 -209 -209 35 38 -193 -193 -193 -209 -193 -209 -209 -193 13 11 11 0 0 0 0 0 0 0 0 9 10 10 11 10 15 16 19 20 17 17 21 22 25 25 30 36 38 40 40 -193 -177 -193 -193 -193 11 12 13 13 13 13 11 17 15 16 15 14 16 16 17 18 17 20 23 23 25 26 26 26 26 25 25 25 25 24 24 25 25 25 25 25 25 26 26 26 28 28 33 32 32 35 38 41 41 41 44 44 46 47 50 48 48 49 49 49 51 50 51 49 51 53 54 55 54 53 56 55 56 57 53 53 53 54 52 52 55 55 54 55 54 53 53 53 53 50 51 48 50 54 53 53 52 52 -193 52 0 0 0 0 0
    0 0 0 0 0 0 0 0 0 0 0 0 0 0 0 0 0 0 0 0 0 0 0 0 0 0 0 0 0 0 0 0 0 0 0 0 0 0 0 0 0 0 0 0 0 0 0 0 0 0 0 0 0 0 0 0 0 0 0 0 0 0 0 0 0 0 0 0 0 16 16 20 17 17 21 21 20 20 20 20 15 17 21 12 13 12 11 10 10 10 10 0 0 0 0 0 0 0 0 0 0 0 0 0 9 9 11 10 10 10 10 0 0 0 0 0 0 0 0 0 10 9 10 9 10 0 0 0 0 0 0 0 0 0 0 0 0 0 0 0 0 0 10 9 10 10 11 10 10 9 0 0 9 11 13 -193 -193 -193 40 40 42 41 41 41 41 40 39 40 40 36 38 38 -193 -193 -193 32 -193 -209 -193 17 14 12 9 0 0 0 0 0 0 0 10 10 11 12 11 17 19 21 22 19 19 22 23 25 25 30 35 37 39 39 40 -209 -209 -209 12 13 13 13 13 13 14 11 18 16 16 15 14 16 16 17 18 18 21 24 25 26 26 26 26 26 25 25 25 25 25 24 25 24 24 25 25 24 25 26 27 28 28 34 32 32 36 39 42 42 42 45 44 46 47 50 48 48 49 49 48 51 50 50 48 51 52 53 55 54 54 56 56 57 58 53 53 53 54 53 53 56 55 54 55 54 53 53 53 53 51 51 49 51 55 54 53 53 53 53 52 0 0 0 0 0
    0 0 0 0 0 0 0 0 0 0 0 0 0 0 0 0 0 0 0 0 0 0 0 0 0 0 0 0 0 0 0 0 0 0 0 0 0 0 0 0 0 0 0 0 0 0 0 0 0 0 0 0 0 0 0 0 0 0 0 0 0 0 0 0 0 0 0 0 0 18 19 23 20 21 24 24 24 23 24 23 21 21 22 14 15 13 11 11 10 10 10 0 0 0 0 0 0 0 0 0 0 0 0 0 9 9 10 10 10 10 10 0 0 0 9 0 0 0 0 0 10 9 10 9 9 0 0 0 0 0 0 0 0 0 0 0 0 0 0 0 0 9 10 10 10 11 11 10 10 10 0 8 10 -193 -193 109 -193 -193 43 41 42 41 40 40 40 39 38 39 39 37 38 39 -193 -193 -193 -193 -193 -209 -209 21 17 12 10 0 0 0 9 9 9 9 11 12 14 16 14 21 22 24 25 23 21 24 23 25 25 29 33 35 38 37 39 -209 190 -193 14 13 13 13 12 13 15 11 16 15 15 16 15 16 17 18 18 17 19 22 23 24 25 24 25 25 25 25 25 24 24 23 25 24 24 25 25 24 25 26 27 27 28 34 32 31 36 40 44 43 43 45 44 46 46 50 47 48 49 49 48 51 49 50 47 50 52 52 54 54 53 55 55 56 57 53 54 53 54 53 53 56 56 54 55 54 53 53 53 53 51 51 50 52 55 54 54 54 -193 -193 53 0 0 0 0 0
    0 0 0 0 0 0 0 0 0 0 0 0 0 0 0 0 0 0 0 0 0 0 0 0 0 0 0 0 0 0 0 0 0 0 0 0 0 0 0 0 0 0 0 0 0 0 0 0 0 0 0 0 0 0 0 0 0 0 0 0 0 0 0 0 0 0 0 0 0 21 22 26 -193 25 36 41 41 29 32 31 -193 25 24 18 19 14 12 12 11 10 11 0 0 0 0 0 0 0 0 0 0 0 0 0 0 0 10 10 10 10 10 0 0 0 9 0 0 0 0 0 10 9 9 9 9 0 0 0 0 0 0 0 0 0 0 0 0 0 0 0 8 9 11 10 10 11 11 10 10 11 0 10 11 -193 -193 -193 -193 -193 43 41 41 40 39 40 39 38 38 39 39 38 38 39 -193 -193 -193 -193 -193 -193 27 23 22 15 11 9 0 10 10 10 10 10 12 14 17 19 19 24 25 27 28 25 23 25 23 24 24 27 31 33 36 37 39 -209 -209 -193 16 14 13 13 12 13 15 12 15 15 15 15 14 15 16 17 16 18 20 22 22 23 24 23 24 24 24 24 24 24 24 23 25 24 24 25 26 26 26 27 28 28 29 34 33 30 36 42 45 43 43 46 45 46 46 49 47 47 49 49 48 51 50 50 48 50 52 52 54 53 53 54 54 55 57 53 53 53 53 52 53 56 55 54 55 54 54 54 54 54 52 52 51 53 56 54 55 54 -193 -193 53 0 0 0 0 0
    0 0 0 0 0 0 0 0 0 0 0 0 0 0 0 0 0 0 0 0 0 0 0 0 0 0 0 0 0 0 0 0 0 0 0 0 0 0 0 0 0 0 0 0 0 0 0 0 0 0 0 0 0 0 0 0 0 0 0 0 0 0 0 0 0 0 0 0 0 25 28 36 39 36 41 42 43 39 39 -209 -209 27 27 20 21 17 13 13 11 11 11 9 0 0 0 0 0 0 0 0 0 0 0 0 0 0 10 10 10 10 10 0 0 0 9 0 0 0 0 0 9 0 9 0 0 0 0 0 0 0 0 0 0 0 0 0 0 0 0 0 9 10 11 10 10 11 11 10 10 10 9 10 12 -193 -193 -209 51 -193 42 41 41 41 40 41 40 39 39 40 40 39 39 40 39 40 -193 39 -193 35 -193 24 24 18 13 10 0 11 11 10 10 10 12 15 19 21 22 26 29 31 31 29 26 27 24 24 24 26 30 30 33 34 39 -209 -209 -193 15 13 13 12 12 13 15 11 13 13 14 14 13 14 16 16 16 19 20 21 21 22 23 22 23 24 23 23 24 24 24 23 25 24 24 26 27 27 28 28 31 31 36 38 38 34 38 42 45 43 43 45 44 45 46 49 47 47 50 49 49 51 50 51 49 51 52 53 54 53 54 54 53 54 56 52 52 52 52 50 52 56 54 54 54 53 53 53 54 54 52 52 50 53 56 54 -193 -193 -193 -193 -193 0 0 0 0 0
    0 0 0 0 0 0 0 0 0 0 0 0 0 0 0 0 0 0 0 0 0 0 0 0 0 0 0 0 0 0 0 0 0 0 0 0 0 0 0 0 0 0 0 0 0 0 0 0 0 0 0 0 0 0 0 0 0 0 0 0 0 0 0 0 0 0 0 0 0 28 32 38 40 38 42 45 43 -209 39 -209 -209 26 26 21 22 19 14 12 11 10 10 0 0 0 0 0 0 0 0 0 0 0 0 0 9 9 10 10 11 11 10 0 0 0 9 0 0 0 0 0 10 0 9 0 0 0 0 0 0 0 0 0 0 0 0 0 0 0 0 0 8 10 11 10 11 11 11 10 9 10 9 11 12 -209 -193 -209 49 44 42 42 41 41 40 41 41 39 40 40 40 39 40 40 40 41 40 40 41 39 39 32 28 23 15 10 9 11 11 11 11 11 12 14 19 22 23 27 33 35 35 33 28 28 24 23 23 24 27 26 27 29 32 33 -209 20 15 13 13 11 11 13 15 11 13 14 14 13 13 14 16 15 15 18 20 20 21 21 22 21 22 23 22 22 24 24 24 23 25 24 24 27 28 30 32 31 36 38 39 41 41 37 39 42 44 43 43 45 44 45 46 49 47 48 50 49 49 51 50 51 49 51 52 53 54 53 54 54 53 54 56 52 52 51 51 49 50 55 54 53 54 53 53 53 53 53 51 52 49 53 -193 -193 -193 -193 -193 -193 -193 0 0 0 0 0
    0 0 0 0 0 0 0 0 0 0 0 0 0 0 0 0 0 0 0 0 0 0 0 0 0 0 0 0 0 0 0 0 0 0 0 0 0 0 0 0 0 0 0 0 0 0 0 0 0 0 0 0 0 0 0 0 0 0 0 0 0 0 0 0 0 0 0 0 0 33 35 39 41 39 42 43 41 28 -209 -209 -209 23 23 19 21 17 12 11 10 9 9 0 0 0 0 0 0 0 0 0 0 0 0 0 0 0 10 10 11 11 10 0 0 0 10 0 0 0 0 0 10 0 0 0 0 0 0 0 0 0 0 0 0 0 0 0 0 0 0 0 0 9 10 10 11 11 11 9 9 10 9 11 12 -193 -193 -209 47 -193 42 42 41 41 41 42 41 39 40 40 40 39 39 40 40 41 40 41 42 41 41 40 36 31 21 11 10 11 11 11 11 11 12 14 19 22 25 28 34 36 34 33 29 29 24 23 23 24 -193 -193 -193 28 -209 34 40 21 16 13 13 12 12 14 15 12 13 13 13 13 13 14 16 14 15 18 20 19 20 20 21 20 21 22 22 21 23 23 24 23 25 24 24 28 30 33 36 34 38 41 41 42 42 38 39 42 43 43 43 45 44 45 46 49 46 48 50 49 49 51 50 51 49 51 52 53 54 53 54 54 53 53 55 51 51 51 50 47 49 55 53 54 54 53 53 53 54 54 52 53 50 54 -193 -193 -193 -193 -193 -193 -193 0 0 0 0 0
    0 0 0 0 0 0 0 0 0 0 0 0 0 0 0 0 0 0 0 0 0 0 0 0 0 0 0 0 0 0 0 0 0 0 0 0 0 0 0 0 0 0 0 0 0 0 0 0 0 0 0 0 0 0 0 0 0 0 0 0 0 0 0 0 0 0 0 0 0 36 37 40 41 39 41 -193 37 23 -209 -193 24 22 21 16 20 16 11 11 9 9 9 0 0 0 0 0 0 0 0 0 0 0 0 0 0 0 10 10 11 11 10 0 9 9 11 9 9 0 0 9 10 0 9 0 0 0 0 0 0 0 0 0 0 0 0 0 0 0 0 0 0 9 9 9 10 10 10 9 9 9 9 11 -193 -177 -193 -193 -209 -209 41 42 41 41 40 42 42 39 41 40 40 39 39 41 39 41 40 41 42 41 41 41 38 38 27 14 11 11 11 11 11 11 12 14 19 23 26 28 34 37 34 34 30 31 24 23 23 25 -193 -193 25 27 28 34 39 -193 17 14 14 12 12 14 16 12 14 13 13 13 13 14 16 14 14 17 19 18 19 19 20 19 20 22 21 21 23 23 25 24 25 25 24 29 33 36 38 36 40 42 43 43 44 39 40 42 43 43 42 45 44 45 46 49 46 48 50 49 50 51 50 50 49 51 52 52 53 51 53 53 52 53 54 50 51 50 50 46 50 55 53 54 54 54 53 54 54 54 52 54 51 55 -193 -193 -193 -193 -193 -193 -193 0 0 0 0 0
    0 0 0 0 0 0 0 0 0 0 0 0 0 0 0 0 0 0 0 0 0 0 0 0 0 0 0 0 0 0 0 0 0 0 0 0 0 0 0 0 0 0 0 0 0 0 0 0 0 0 0 0 0 0 0 0 0 0 0 0 0 0 0 0 0 0 0 0 0 38 37 40 41 38 -193 -209 -209 20 -209 -193 19 -193 20 14 20 16 11 10 9 0 0 0 0 0 0 0 0 0 0 0 0 0 0 0 0 0 9 9 10 10 10 0 9 9 10 9 9 0 0 9 10 0 0 0 0 0 0 0 0 0 0 0 0 0 0 0 0 0 0 0 0 0 9 9 9 9 9 0 0 9 9 10 -193 117 -193 -177 -209 -177 -193 42 42 41 41 42 42 40 41 39 38 38 37 40 38 39 39 40 41 41 41 41 36 37 28 16 12 11 11 11 11 12 13 13 19 23 26 28 33 37 35 34 31 32 24 23 24 24 -193 24 24 27 -193 33 41 22 19 15 14 12 12 15 16 14 14 13 13 13 14 14 16 14 13 16 19 17 18 18 19 17 19 21 20 20 22 23 25 25 26 26 25 30 36 37 39 37 40 43 43 43 44 39 40 42 43 43 43 45 44 45 46 48 46 48 50 49 49 51 50 50 49 51 52 52 53 50 53 52 52 52 54 50 51 50 50 46 51 55 53 54 53 53 53 54 54 54 52 54 50 55 -193 -193 -193 -193 -193 227 -193 0 0 0 0 0
    0 0 0 0 0 0 0 0 0 0 0 0 0 0 0 0 0 0 0 0 0 0 0 0 0 0 0 0 0 0 0 0 0 0 0 0 0 0 0 0 0 0 0 0 0 0 0 0 0 0 0 0 0 0 0 0 0 0 0 0 0 0 0 0 0 0 0 0 0 39 38 40 41 36 -209 -209 -209 18 -193 -209 -193 -193 21 14 20 17 9 10 0 0 0 0 0 0 0 0 0 0 0 0 0 0 0 0 0 0 0 9 9 10 9 0 0 0 11 9 9 9 9 9 10 9 9 0 0 0 0 0 0 0 0 0 0 0 0 0 0 0 9 0 0 0 9 9 9 9 9 0 0 0 -193 -193 -193 117 -193 -177 -209 -193 -209 43 42 41 41 43 43 40 41 37 36 35 35 39 36 38 38 40 42 41 41 40 34 36 29 14 12 10 11 12 12 12 12 13 19 23 26 28 32 36 35 34 33 33 24 23 24 24 24 24 24 27 -193 35 41 -209 -193 17 15 13 13 16 17 15 14 13 13 14 14 14 16 14 13 15 18 16 17 17 18 15 18 19 20 18 22 22 25 26 27 27 27 32 37 38 40 38 39 42 42 42 43 39 40 41 43 43 43 45 44 45 47 48 46 49 50 49 50 51 50 50 50 51 52 52 53 50 52 51 51 52 53 50 51 50 51 46 51 55 54 54 54 53 53 53 54 54 52 53 49 55 -193 -193 -177 -193 -193 225 -193 0 0 0 0 0
    0 0 0 0 0 0 0 0 0 0 0 0 0 0 0 0 0 0 0 0 0 0 0 0 0 0 0 0 0 0 0 0 0 0 0 0 0 0 0 0 0 0 0 0 0 0 0 0 0 0 0 0 0 0 0 0 0 0 0 0 0 0 0 0 0 0 0 0 0 39 38 40 -193 -193 -193 -209 -209 17 -193 -193 14 20 21 15 21 17 9 10 0 0 0 0 0 0 0 0 0 0 0 0 0 0 0 0 0 0 0 0 0 9 0 0 0 0 11 9 9 9 9 10 10 9 10 0 0 0 0 0 0 0 0 0 0 0 0 0 0 0 9 0 0 -193 -193 -193 9 10 -193 -193 -209 9 -193 -193 -193 117 116 117 -209 -193 -193 42 42 41 41 42 42 40 40 35 34 32 34 38 35 37 38 41 42 42 41 39 32 34 28 11 11 10 11 12 12 14 12 13 18 22 26 27 30 36 35 -193 34 36 -193 23 24 25 26 26 25 29 31 36 41 42 42 18 17 15 14 18 18 17 14 13 14 14 14 14 16 15 12 15 18 15 16 16 17 14 16 18 18 15 20 21 25 27 28 28 28 34 -193 38 40 38 39 42 42 42 42 38 40 41 42 43 43 45 45 45 47 48 46 49 50 49 51 51 50 50 50 51 52 52 52 49 51 49 50 51 52 49 51 50 50 45 51 55 54 54 54 53 53 53 54 54 52 53 48 55 -193 -193 -177 -193 -193 -177 -193 0 0 0 0 0
    0 0 0 0 0 0 0 0 0 0 0 0 0 0 0 0 0 0 0 0 0 0 0 0 0 0 0 0 0 0 0 0 0 0 0 0 0 0 0 0 0 0 0 0 0 0 0 0 0 0 0 0 0 0 0 0 0 0 0 0 0 0 0 0 0 0 0 0 0 39 38 40 -193 -193 -193 -193 -193 16 -209 -193 12 18 20 14 20 15 0 9 0 0 0 0 0 0 0 0 0 0 0 0 0 0 0 0 0 0 0 0 0 9 0 0 0 0 10 9 9 0 9 9 10 9 9 0 0 0 0 0 0 0 0 0 0 0 0 0 0 0 9 0 0 -193 -193 -193 -193 -193 -209 -209 -209 -193 -209 -193 118 -193 -193 -209 -209 -193 -193 41 42 41 41 42 42 41 41 33 33 29 35 37 33 36 38 40 42 43 41 38 31 32 28 12 11 9 11 13 13 15 11 12 15 19 24 24 -193 -193 -193 -193 34 37 -193 -209 27 32 36 33 29 36 -193 39 42 45 46 -209 -193 21 18 22 20 19 16 14 15 16 15 15 17 15 13 16 19 16 17 17 19 15 18 19 19 15 21 23 27 33 29 31 30 35 -193 39 40 38 39 42 42 42 42 39 40 40 42 42 42 44 44 45 46 47 46 48 49 49 51 50 50 50 50 51 52 52 52 48 51 49 50 51 52 49 50 49 50 45 51 54 54 54 54 54 54 54 55 55 53 53 47 55 -193 -193 -193 -193 -193 -193 -193 0 0 0 0 0
    0 0 0 0 0 0 0 0 0 0 0 0 0 0 0 0 0 0 0 0 0 0 0 0 0 0 0 0 0 0 0 0 0 0 0 0 0 0 0 0 0 0 0 0 0 0 0 0 0 0 0 0 0 0 0 0 0 0 0 0 0 0 0 0 0 0 0 0 0 39 38 39 -209 -209 -209 -209 -209 16 -193 12 12 17 19 13 19 15 9 10 0 0 0 0 0 0 0 0 0 0 0 0 0 0 0 0 0 0 0 9 0 10 9 9 0 9 11 9 9 9 0 9 10 9 10 0 9 0 0 0 0 0 0 0 0 0 0 0 0 0 0 0 -193 -193 -193 -193 -193 -193 -193 -209 -193 -209 -193 -193 -193 -193 -193 -209 -209 -209 42 41 42 41 41 42 42 41 40 31 32 28 37 38 34 37 39 41 43 44 42 39 30 30 27 12 11 9 11 13 13 16 12 11 13 17 23 22 24 -193 -193 -193 34 38 -193 -193 34 39 41 39 38 38 -193 39 43 46 48 46 47 47 47 44 22 22 19 17 17 17 17 16 18 15 13 16 19 17 17 18 19 15 20 20 21 19 -193 -193 -209 -193 33 34 34 36 -193 -193 -193 38 39 42 42 41 42 39 40 40 41 42 42 44 44 44 46 47 45 48 48 48 50 50 50 50 50 51 52 51 52 48 51 49 50 51 52 49 50 49 50 46 52 54 54 55 55 55 55 55 56 56 54 54 47 55 -193 -193 55 -193 56 56 56 0 0 0 0 0
    0 0 0 0 0 0 0 0 0 0 0 0 0 0 0 0 0 0 0 0 0 0 0 0 0 0 0 0 0 0 0 0 0 0 0 0 0 0 0 0 0 0 0 0 0 0 0 0 0 0 0 0 0 0 0 0 0 0 0 0 0 0 0 0 0 0 0 0 0 41 39 40 -209 -193 -209 -209 12 17 13 12 12 18 19 13 18 16 9 10 9 0 9 0 0 0 0 0 0 0 0 0 0 0 0 0 0 0 0 10 9 14 17 15 25 12 17 12 11 9 9 9 10 10 11 0 10 0 0 0 0 0 0 0 0 0 0 0 0 0 -193 -193 -209 -209 -193 -193 -193 -193 -193 -193 -193 -193 -193 -193 -193 -193 -209 -209 -209 -209 42 -193 42 40 40 41 41 40 38 30 31 27 37 39 34 37 39 41 43 44 42 38 29 34 28 13 12 9 12 17 16 20 -193 11 12 16 23 20 23 -193 -177 -193 33 38 39 -193 38 41 43 41 41 41 42 41 44 48 50 46 49 51 50 47 -209 24 21 19 19 19 19 18 18 15 13 16 19 17 18 18 20 16 22 -193 -209 -209 -209 -209 58 64 -193 35 34 36 -177 -193 -193 38 38 41 41 41 42 39 40 40 41 42 42 43 43 44 45 46 45 47 47 47 50 49 50 49 49 50 51 51 51 48 49 48 49 51 51 48 50 50 52 48 53 55 55 56 56 55 56 55 56 56 54 54 48 55 55 56 55 56 56 57 57 0 0 0 0 0
    0 0 0 0 0 0 0 0 0 0 0 0 0 0 0 0 0 0 0 0 0 0 0 0 0 0 0 0 0 0 0 0 0 0 0 0 0 0 0 0 0 0 0 0 0 0 0 0 0 0 0 0 0 0 0 0 0 0 0 0 0 0 0 0 0 0 0 0 0 42 40 -193 -193 -193 -193 -193 14 19 18 15 14 21 21 15 20 20 11 12 13 12 14 0 10 -193 0 0 0 0 0 0 0 0 0 0 0 9 0 12 9 22 26 25 27 25 25 20 18 11 9 10 11 11 14 0 12 0 0 -177 -177 -177 -177 -177 -177 -177 9 -193 0 0 -209 -193 -193 230 229 227 226 227 223 221 -193 -193 -193 -193 -193 -193 -209 -209 -209 -209 42 40 41 39 40 41 41 39 38 30 32 29 39 40 35 39 40 41 43 43 42 38 33 39 29 20 17 12 20 24 23 24 29 18 15 19 24 21 23 27 -193 -193 34 38 39 -193 39 42 44 42 42 42 43 42 45 47 49 48 50 51 51 50 -209 -177 -193 20 20 19 19 18 18 15 12 16 19 18 18 18 20 16 23 -193 -193 -193 325 -209 59 66 -193 -193 38 -193 -193 -193 -193 -193 39 42 42 41 42 40 41 41 41 41 41 43 43 43 45 45 45 47 47 47 49 49 49 48 49 50 51 50 50 47 48 47 49 51 51 48 50 51 53 51 53 55 55 57 57 56 56 56 56 57 55 54 50 55 55 56 56 57 56 57 57 0 0 0 0 0
    0 0 0 0 0 0 0 0 0 0 0 0 0 0 0 0 0 0 0 0 0 0 0 0 0 0 0 0 0 0 0 0 0 0 0 0 0 0 0 0 0 0 0 0 0 0 0 0 0 0 0 0 0 0 0 0 0 0 0 0 0 0 0 0 0 0 0 0 0 41 40 -193 269 -193 -193 -193 18 21 22 18 16 23 24 20 23 24 22 19 22 22 24 25 26 27 -193 -193 -193 -193 -193 -193 0 0 0 0 9 19 11 20 20 25 28 27 30 28 28 26 26 22 -209 15 20 19 24 12 24 10 11 11 -177 -177 -177 -177 -177 0 11 -193 9 -209 -209 -193 -193 -177 -193 225 224 227 222 -193 335 335 -177 -177 -177 -193 -209 -209 -209 -209 41 39 41 39 39 40 40 39 38 -193 35 31 41 41 37 39 40 41 43 43 42 38 34 -193 29 23 22 18 25 27 29 28 33 29 24 24 26 22 23 28 -193 31 36 41 41 -193 41 44 45 43 44 43 44 44 46 49 50 51 51 52 51 52 -193 -177 -177 -193 21 20 20 18 18 15 12 16 19 18 18 19 20 17 23 -193 -193 -209 -193 -209 63 71 73 -209 -209 -209 -193 -193 -193 -193 -193 42 43 42 42 40 41 41 41 41 42 43 43 43 45 45 45 47 47 47 49 49 49 48 49 49 50 50 50 46 47 46 48 51 50 48 50 51 54 52 53 54 55 56 57 56 56 56 57 57 56 55 53 56 56 57 57 58 57 58 58 0 0 0 0 0
    0 0 0 0 0 0 0 0 0 0 0 0 0 0 0 0 0 0 0 0 0 0 0 0 0 0 0 0 0 0 0 0 0 0 0 0 0 0 0 0 0 0 0 0 0 0 0 0 0 0 0 0 0 0 0 0 0 0 0 0 0 0 0 0 0 0 0 0 0 40 39 -193 -193 -193 271 272 22 23 26 21 20 25 26 24 26 27 27 23 26 26 27 28 28 31 30 30 32 29 29 29 27 27 -193 11 15 25 -193 25 26 27 30 29 32 31 30 29 28 27 -193 -193 27 26 27 26 27 26 24 22 -177 -177 15 16 16 10 19 25 20 -193 20 -193 -209 -209 -193 -177 -177 -193 -193 336 335 334 333 -177 -177 -193 -209 -209 39 -209 41 39 41 39 39 40 40 40 38 33 36 33 42 41 38 41 41 42 43 43 43 38 36 41 29 26 25 24 27 30 34 31 35 35 27 27 27 23 24 28 -209 37 38 41 42 42 42 44 46 43 44 44 45 45 47 50 51 53 53 53 53 54 -193 -177 -177 -193 23 23 22 20 19 16 12 17 20 19 19 19 20 18 -193 -193 -193 -193 -209 -209 68 73 75 75 -209 -209 -209 -193 -177 -177 286 43 45 -193 -193 41 41 41 41 41 42 42 43 43 44 45 45 47 46 47 50 49 49 49 49 50 51 50 50 47 48 47 48 51 50 48 51 52 54 51 53 54 55 56 56 56 56 56 57 57 57 56 54 59 57 59 58 60 59 59 59 0 0 0 0 0
    0 0 0 0 0 0 0 0 0 0 0 0 0 0 0 0 0 0 0 0 0 0 0 0 0 0 0 0 0 0 0 0 0 0 0 0 0 0 0 0 0 0 0 0 0 0 0 0 0 0 0 0 0 0 0 0 0 0 0 0 0 0 0 0 0 0 0 0 0 -209 -193 -193 275 273 276 275 -193 27 29 25 24 28 31 31 29 31 32 27 28 30 31 32 31 33 33 31 34 33 31 31 31 30 30 28 27 27 28 28 29 29 33 31 35 34 33 31 30 29 31 27 30 28 29 30 30 30 28 27 26 26 25 26 26 25 27 31 29 30 27 30 28 28 28 -193 -209 -193 -193 -193 -193 -193 -177 -193 -193 -209 -209 37 39 40 41 39 41 39 40 41 41 40 39 36 39 36 43 43 39 41 41 42 43 43 43 39 37 41 31 30 28 27 30 33 36 33 36 36 30 29 30 27 26 31 -209 -193 -193 42 42 42 42 45 46 43 44 44 45 45 49 52 51 53 54 55 55 56 58 -193 -209 -209 -209 25 25 23 21 16 13 18 21 20 19 20 21 20 -209 -193 -193 -193 -209 -209 71 74 75 76 66 -193 -209 -193 -177 -177 287 -193 -193 -209 -193 -193 42 42 41 41 42 42 43 44 45 45 46 47 46 46 50 49 49 48 49 50 50 50 50 47 48 47 48 51 50 48 50 51 53 50 53 54 55 56 56 56 57 57 57 58 57 57 55 59 58 59 60 61 60 60 60 0 0 0 0 0
    0 0 0 0 0 0 0 0 0 0 0 0 0 0 0 0 0 0 0 0 0 0 0 0 0 0 0 0 0 0 0 0 0 0 0 0 0 0 0 0 0 0 0 0 0 0 0 0 0 0 0 0 0 0 0 0 0 0 0 0 0 0 0 0 0 0 0 0 0 -193 -193 -193 -193 -193 -193 -193 32 32 34 30 35 34 35 36 33 34 35 30 31 32 34 35 33 35 35 33 35 34 33 32 32 32 32 31 31 31 33 32 34 32 35 34 36 36 35 34 33 32 35 31 35 33 34 34 33 34 32 30 31 30 30 31 32 32 35 36 36 36 34 37 35 34 35 35 35 35 34 36 36 36 38 36 38 38 38 39 39 40 42 39 41 40 40 41 41 41 41 38 41 38 45 43 40 42 42 42 43 43 43 39 38 41 35 34 33 31 33 35 37 35 36 36 32 31 33 32 27 33 -209 -193 -193 42 43 42 42 45 46 43 44 45 45 45 49 52 52 54 55 55 55 57 59 58 57 -193 -193 36 33 30 23 18 14 19 22 21 21 21 23 -209 -177 -177 716 713 -193 -209 73 74 75 76 69 71 67 -209 -193 -193 -193 -209 -193 -193 -193 -193 44 45 43 43 43 44 44 44 46 46 46 46 46 46 49 49 49 48 49 50 50 51 50 47 48 48 49 51 49 48 48 50 52 50 53 53 54 56 57 57 57 57 58 58 58 58 56 60 59 61 62 62 61 61 61 0 0 0 0 0
    0 0 0 0 0 0 0 0 0 0 0 0 0 0 0 0 0 0 0 0 0 0 0 0 0 0 0 0 0 0 0 0 0 0 0 0 0 0 0 0 0 0 0 0 0 0 0 0 0 0 0 0 0 0 0 0 0 0 0 0 0 0 0 0 0 0 0 0 0 -193 -193 38 -193 -193 39 38 38 37 38 36 41 41 38 39 36 36 36 33 33 34 35 35 33 35 35 33 36 35 34 33 33 33 33 34 34 34 36 35 36 35 37 36 37 37 37 36 36 36 38 36 38 37 37 37 36 37 36 34 35 34 35 35 37 38 39 38 38 39 37 39 38 37 38 38 38 38 37 38 38 37 38 37 38 39 39 39 40 39 41 39 41 40 40 41 41 41 41 38 41 39 45 44 40 42 42 42 43 43 43 40 39 42 39 37 37 34 36 36 37 35 36 36 34 33 35 35 30 35 41 41 -193 42 43 43 42 45 46 43 44 45 46 45 49 52 52 54 56 56 56 57 59 59 57 58 53 56 -193 -193 -209 20 15 20 23 23 23 23 -209 -177 -177 -177 -177 711 710 -193 74 75 76 76 71 73 71 -209 -209 -209 -209 -209 -193 576 -193 -193 50 51 49 -193 -209 -209 46 -193 47 46 47 46 46 47 48 49 49 47 49 50 50 51 50 48 49 48 49 51 49 49 48 50 52 50 53 53 54 56 57 57 57 57 58 58 58 58 56 61 59 62 64 63 62 62 62 0 0 0 0 0
    0 0 0 0 0 0 0 0 0 0 0 0 0 0 0 0 0 0 0 0 0 0 0 0 0 0 0 0 0 0 0 0 0 0 0 0 0 0 0 0 0 0 0 0 0 0 0 0 0 0 0 0 0 0 0 0 0 0 0 0 0 0 0 0 0 0 0 0 0 38 39 37 37 38 39 37 39 39 39 38 42 42 40 40 38 37 37 35 35 35 35 36 34 35 35 34 36 36 35 35 35 35 35 36 36 35 37 36 37 36 38 37 38 38 38 37 37 37 39 37 39 38 37 38 37 37 37 36 36 35 36 36 38 38 39 38 38 39 38 40 39 38 39 39 40 38 38 38 38 37 38 37 38 38 39 39 40 39 41 39 41 40 40 41 41 40 41 39 41 40 45 44 40 43 42 42 43 43 43 41 40 42 40 39 38 36 37 37 37 36 37 36 35 35 37 38 33 37 42 42 42 43 43 43 43 45 47 43 45 46 46 46 50 53 52 54 -193 56 -193 58 60 60 58 60 58 58 59 61 60 59 -193 21 23 29 24 24 -209 -177 -177 -177 -177 -177 -177 -193 76 76 77 78 73 75 74 -193 -193 -193 -209 -209 -193 -193 -209 -193 -209 -209 97 98 102 98 -193 -193 -193 -193 -193 46 45 47 47 49 48 47 49 50 50 51 50 48 49 49 50 51 48 49 47 51 53 51 53 53 55 57 57 57 57 57 58 58 58 57 56 61 60 64 66 63 63 63 63 0 0 0 0 0
    0 0 0 0 0 0 0 0 0 0 0 0 0 0 0 0 0 0 0 0 0 0 0 0 0 0 0 0 0 0 0 0 0 0 0 0 0 0 0 0 0 0 0 0 0 0 0 0 0 0 0 0 0 0 0 0 0 0 0 0 0 0 0 0 0 0 0 0 0 38 39 37 37 38 39 38 40 40 40 40 43 41 40 40 38 37 37 36 36 35 36 36 34 36 36 34 37 36 35 35 35 35 35 36 36 36 37 37 38 37 38 38 39 39 38 38 38 37 39 38 39 38 37 38 37 38 37 36 37 36 37 38 38 38 39 38 38 39 38 40 40 39 40 40 40 39 38 39 38 37 38 37 38 38 38 39 40 39 41 39 41 40 40 41 41 41 41 40 42 40 45 43 40 42 42 42 43 43 42 41 40 42 40 40 38 37 38 37 37 37 37 37 36 37 38 39 37 38 44 42 43 43 43 43 43 45 48 43 45 47 47 47 51 53 53 54 56 56 -209 58 60 61 59 61 61 61 62 64 62 62 62 -209 -209 -193 -209 -209 -193 -177 -177 -177 -177 -177 -177 -193 78 77 78 78 71 73 73 73 74 77 79 73 76 78 79 81 90 92 93 93 96 94 -193 -193 652 -193 -193 46 45 47 47 49 48 47 49 50 50 52 50 49 49 50 50 52 48 50 47 51 53 52 54 54 56 57 57 57 57 57 58 58 58 57 56 62 61 65 67 64 65 64 64 0 0 0 0 0
    0 0 0 0 0 0 0 0 0 0 0 0 0 0 0 0 0 0 0 0 0 0 0 0 0 0 0 0 0 0 0 0 0 0 0 0 0 0 0 0 0 0 0 0 0 0 0 0 0 0 0 0 0 0 0 0 0 0 0 0 0 0 0 0 0 0 0 0 0 38 39 37 37 38 39 39 41 41 42 41 43 41 40 40 38 38 38 36 36 35 36 36 35 36 37 35 38 37 36 36 35 36 35 36 36 35 36 36 37 37 38 39 39 39 39 38 38 38 40 39 40 38 38 38 38 38 38 37 38 37 38 38 39 39 39 38 39 39 39 40 40 39 40 40 40 39 38 39 38 37 38 37 38 38 38 39 39 38 40 39 41 40 40 41 41 41 42 40 42 41 45 43 40 42 42 42 43 42 42 40 40 42 40 40 38 37 37 37 37 37 37 37 37 38 39 40 38 39 45 43 43 43 43 43 43 46 48 43 46 48 47 48 51 -193 53 -193 -193 56 -209 58 60 62 59 62 63 62 64 66 64 64 63 61 59 56 56 -193 -209 715 716 -193 -193 -193 -193 -193 79 78 77 77 71 71 69 73 73 75 76 77 82 84 86 87 92 95 94 93 95 92 -193 -193 -177 -177 -193 46 46 47 47 49 49 47 50 51 51 52 50 49 50 50 51 52 48 51 47 51 53 52 54 54 56 57 57 57 57 57 58 58 58 57 57 62 61 66 67 64 65 64 64 0 0 0 0 0
    0 0 0 0 0 0 0 0 0 0 0 0 0 0 0 0 0 0 0 0 0 0 0 0 0 0 0 0 0 0 0 0 0 0 0 0 0 0 0 0 0 0 0 0 0 0 0 0 0 0 0 0 0 0 0 0 0 0 0 0 0 0 0 0 0 0 0 0 0 38 38 37 37 38 39 39 41 42 42 41 43 41 40 40 38 37 38 36 36 35 37 36 35 37 37 36 38 37 37 37 36 36 35 36 36 35 36 36 37 37 38 39 39 39 39 39 38 39 40 39 40 39 39 39 38 38 39 37 38 38 39 39 40 40 40 39 39 39 39 41 41 40 40 40 40 39 39 39 -193 38 38 37 38 39 39 39 40 38 40 39 40 40 40 41 41 41 42 41 43 41 44 43 41 42 42 42 43 42 42 41 41 42 41 40 39 37 37 37 37 37 38 37 37 39 40 41 40 40 46 44 44 44 44 44 44 46 49 44 47 49 48 48 51 -177 54 -193 -193 -209 -209 58 60 61 58 59 63 62 64 66 64 64 63 62 62 57 58 62 -209 -193 87 88 82 83 81 80 80 78 78 78 -193 70 65 -193 74 75 78 82 86 88 89 89 92 95 94 93 95 92 92 -193 -193 -177 -177 -193 46 48 48 50 50 48 50 51 51 53 51 50 50 51 52 52 49 52 47 51 52 51 54 54 56 56 57 57 57 57 58 58 58 57 57 63 61 67 67 65 65 64 64 0 0 0 0 0
    0 0 0 0 0 0 0 0 0 0 0 0 0 0 0 0 0 0 0 0 0 0 0 0 0 0 0 0 0 0 0 0 0 0 0 0 0 0 0 0 0 0 0 0 0 0 0 0 0 0 0 0 0 0 0 0 0 0 0 0 0 0 0 0 0 0 0 0 0 38 38 37 37 38 40 39 42 42 42 41 42 41 40 40 39 37 37 36 37 36 37 37 36 37 38 38 39 38 38 38 37 37 36 36 36 36 37 37 37 37 39 39 40 40 40 39 39 40 41 41 41 40 40 40 39 39 39 39 39 39 39 40 40 40 41 40 40 40 40 41 41 40 41 40 41 39 39 39 40 38 39 38 38 39 40 40 40 38 41 39 41 41 40 41 41 40 42 40 42 41 43 43 41 42 42 42 43 42 42 41 41 42 41 41 40 38 38 38 38 37 38 38 38 39 40 42 41 41 46 44 44 44 43 44 43 45 49 44 46 49 48 48 51 -177 54 -177 -177 -177 -177 58 60 61 57 59 63 61 63 66 64 64 63 63 63 58 59 65 72 80 88 88 82 83 82 81 81 78 78 78 -193 -193 56 55 -193 -193 -193 -209 81 86 89 90 92 96 94 94 96 93 93 -193 -177 -177 -209 -209 48 50 49 51 51 -193 51 52 52 53 51 51 51 52 52 53 49 52 47 50 51 51 54 54 56 57 57 57 57 57 58 58 58 57 57 63 61 67 67 64 65 64 64 0 0 0 0 0
    0 0 0 0 0 0 0 0 0 0 0 0 0 0 0 0 0 0 0 0 0 0 0 0 0 0 0 0 0 0 0 0 0 0 0 0 0 0 0 0 0 0 0 0 0 0 0 0 0 0 0 0 0 0 0 0 0 0 0 0 0 0 0 0 0 0 0 0 0 38 39 38 38 39 41 40 43 43 42 42 42 41 40 40 39 38 38 37 38 37 38 38 37 38 39 39 40 39 39 38 38 37 37 37 36 36 37 37 38 38 39 40 41 41 41 40 41 41 43 42 43 42 41 41 41 40 40 40 40 39 40 40 41 41 41 40 40 41 41 42 42 41 41 -193 41 40 40 40 41 39 40 39 39 40 40 40 41 39 41 40 41 41 40 40 40 40 41 40 42 41 43 42 41 42 42 42 42 42 42 41 41 41 41 41 40 39 38 38 38 38 38 38 38 39 40 42 41 41 46 44 44 43 43 44 43 45 50 44 46 48 49 48 51 -193 54 164 164 -177 -177 57 59 60 56 57 62 61 62 65 64 64 64 63 63 58 60 65 70 78 85 88 82 83 82 81 81 79 78 -193 -177 -193 53 51 52 52 54 55 -193 -177 89 89 91 97 96 95 -193 94 -193 -193 -193 -177 -209 -209 49 51 50 53 -193 -193 -193 53 53 54 52 52 51 52 53 53 49 52 46 49 50 51 54 54 56 57 58 57 57 58 58 58 58 57 57 63 61 67 66 64 64 64 64 0 0 0 0 0
    0 0 0 0 0 0 0 0 0 0 0 0 0 0 0 0 0 0 0 0 0 0 0 0 0 0 0 0 0 0 0 0 0 0 0 0 0 0 0 0 0 0 0 0 0 0 0 0 0 0 0 0 0 0 0 0 0 0 0 0 0 0 0 0 0 0 0 0 0 39 40 39 40 41 42 41 44 43 43 42 42 41 40 40 39 39 39 38 39 38 39 39 38 39 39 40 41 40 40 39 38 38 37 37 37 37 37 37 38 38 40 40 40 41 41 41 41 42 44 43 44 43 42 42 42 41 41 41 41 40 40 40 41 41 41 40 41 42 41 42 42 42 42 42 42 42 41 41 42 40 41 40 40 41 41 41 42 39 42 40 41 41 40 40 40 40 40 39 41 42 42 42 41 42 41 42 42 42 41 41 41 41 41 41 40 39 39 39 39 39 39 39 39 40 40 42 41 41 45 43 43 43 42 43 43 44 50 44 46 48 49 49 51 54 54 162 162 -177 -177 57 59 59 55 56 62 61 62 65 64 64 63 63 63 57 58 63 59 75 80 87 81 82 81 80 80 -193 -193 -193 -193 -209 49 47 48 49 50 52 55 -209 -177 88 90 98 98 98 -193 95 -193 -193 -209 -193 -209 -209 -177 51 50 -193 -193 120 -193 54 55 56 54 54 52 53 53 54 50 52 45 47 49 52 54 54 56 58 58 58 58 58 57 57 58 57 56 63 61 67 65 64 64 64 63 0 0 0 0 0
    0 0 0 0 0 0 0 0 0 0 0 0 0 0 0 0 0 0 0 0 0 0 0 0 0 0 0 0 0 0 0 0 0 0 0 0 0 0 0 0 0 0 0 0 0 0 0 0 0 0 0 0 0 0 0 0 0 0 0 0 0 0 0 0 0 0 0 0 0 41 42 42 42 43 43 43 44 44 43 42 43 41 40 40 40 39 39 39 39 38 39 39 38 39 39 40 40 40 40 40 38 38 37 38 37 37 37 37 38 39 39 40 40 41 41 41 42 42 44 44 44 43 42 42 42 41 41 41 41 40 40 40 40 40 41 40 40 42 41 42 42 42 43 43 43 43 -193 42 45 42 43 42 42 42 42 42 43 40 42 40 40 40 40 40 40 39 39 38 41 42 42 42 42 42 42 42 43 42 42 42 42 41 41 41 40 40 40 40 39 40 40 40 40 41 41 42 42 42 44 43 43 43 42 44 44 45 51 45 -177 49 50 50 52 54 54 161 161 -177 -193 56 58 58 54 55 63 61 63 66 64 64 63 63 63 57 57 62 56 -193 75 86 79 80 80 79 80 -193 -193 -193 -209 -209 46 44 47 49 50 51 55 -209 -193 -209 90 99 99 99 -193 96 -193 -209 -193 -209 -209 -193 97 -209 -193 107 107 111 109 106 -209 57 55 55 53 54 54 54 51 52 46 48 49 53 55 54 56 57 58 58 57 57 57 56 57 56 56 63 61 66 64 64 64 63 63 0 0 0 0 0
    0 0 0 0 0 0 0 0 0 0 0 0 0 0 0 0 0 0 0 0 0 0 0 0 0 0 0 0 0 0 0 0 0 0 0 0 0 0 0 0 0 0 0 0 0 0 0 0 0 0 0 0 0 0 0 0 0 0 0 0 0 0 0 0 0 0 0 0 0 44 45 44 44 46 44 44 45 44 44 43 43 42 41 41 41 41 41 41 40 39 41 40 40 40 41 41 41 41 41 40 39 39 38 38 37 37 38 38 38 39 39 40 40 41 42 42 43 43 44 44 44 43 42 42 42 41 41 41 40 40 40 41 40 40 41 40 40 42 41 42 43 43 43 43 43 44 -193 44 47 44 44 43 43 44 43 43 44 41 42 41 41 41 40 40 41 40 40 40 41 43 43 43 42 43 43 43 43 43 42 42 42 41 41 42 41 40 40 41 40 41 41 41 40 41 41 42 42 42 44 43 43 43 42 45 44 46 51 46 49 50 51 50 52 54 54 -177 -193 -177 -193 55 57 57 54 55 63 61 63 66 65 64 63 63 63 57 57 61 56 65 73 84 78 80 79 79 80 -193 79 79 73 -209 45 43 46 48 49 51 54 -209 -209 -209 89 100 100 -193 -209 97 -193 -193 96 -193 93 95 97 94 101 103 103 105 103 103 102 -193 -209 -209 -193 55 55 55 51 51 47 49 50 54 56 55 57 57 58 58 57 57 56 56 57 55 56 63 62 66 64 64 63 63 63 0 0 0 0 0
    0 0 0 0 0 0 0 0 0 0 0 0 0 0 0 0 0 0 0 0 0 0 0 0 0 0 0 0 0 0 0 0 0 0 0 0 0 0 0 0 0 0 0 0 0 0 0 0 0 0 0 0 0 0 0 0 0 0 0 0 0 0 0 0 0 0 0 0 0 48 49 48 47 49 47 46 47 46 44 44 44 43 42 43 43 42 42 43 42 41 42 42 42 43 42 43 43 42 42 42 41 40 39 39 39 38 39 39 40 40 40 40 41 41 42 42 43 43 44 45 45 45 44 43 43 41 42 42 41 41 41 41 41 41 42 41 41 43 42 42 43 43 43 44 44 45 43 45 48 45 46 45 45 45 44 44 44 41 42 41 41 41 41 41 41 41 42 41 42 44 43 43 43 44 43 44 44 43 42 42 43 42 42 42 41 41 41 41 41 41 42 42 41 42 42 42 43 43 45 44 44 44 43 47 46 47 51 46 50 50 51 51 52 54 54 -193 -193 -193 -193 54 56 56 54 55 63 61 63 66 65 64 63 63 63 57 57 61 56 60 72 83 78 -193 79 79 79 79 80 79 73 -193 46 44 45 48 48 50 54 -209 -209 -209 -193 -193 -193 -193 -193 -193 -193 -193 -193 101 96 97 99 97 101 102 103 103 101 101 100 98 104 108 -209 -209 56 56 53 53 47 50 51 55 56 55 57 57 58 57 57 56 56 55 57 55 57 63 62 65 63 64 63 63 63 0 0 0 0 0
    0 0 0 0 0 0 0 0 0 0 0 0 0 0 0 0 0 0 0 0 0 0 0 0 0 0 0 0 0 0 0 0 0 0 0 0 0 0 0 0 0 0 0 0 0 0 0 0 0 0 0 0 0 0 0 0 0 0 0 0 0 0 0 0 0 0 0 0 0 50 49 50 49 50 48 47 48 47 45 45 45 45 44 45 45 44 44 45 43 43 43 43 44 45 44 44 44 44 44 43 43 42 40 40 40 40 41 41 41 41 42 42 42 43 44 44 44 45 46 47 46 46 46 45 45 43 43 43 42 42 42 42 42 41 43 42 42 45 43 43 43 44 44 44 44 45 44 47 50 47 48 47 47 46 46 46 46 43 44 43 43 43 42 43 42 42 43 42 43 45 44 44 44 44 44 44 44 44 43 43 43 43 43 43 42 42 42 42 42 42 43 43 42 43 43 43 44 44 46 45 45 45 44 48 46 48 51 48 50 51 51 51 52 54 53 54 54 -193 54 54 55 55 55 56 64 61 63 66 65 65 63 63 63 57 56 60 55 57 71 82 77 -193 79 79 79 79 80 80 73 -193 47 46 47 49 49 50 54 69 -209 -209 -193 -193 -193 442 442 -193 -209 -193 -193 103 100 100 101 99 102 103 103 103 100 102 101 98 104 105 108 107 109 -193 -209 -209 51 52 51 55 56 55 56 57 58 58 57 56 55 55 56 56 57 63 62 64 63 63 63 63 63 0 0 0 0 0
    0 0 0 0 0 0 0 0 0 0 0 0 0 0 0 0 0 0 0 0 0 0 0 0 0 0 0 0 0 0 0 0 0 0 0 0 0 0 0 0 0 0 0 0 0 0 0 0 0 0 0 0 0 0 0 0 0 0 0 0 0 0 0 0 0 0 0 0 0 51 50 51 49 51 48 47 48 47 45 47 47 47 46 48 48 47 47 49 45 45 45 44 46 47 46 46 45 46 45 45 44 43 42 42 42 42 43 43 44 44 44 44 45 45 46 45 46 46 48 50 48 48 49 48 49 46 45 46 43 44 43 43 42 42 44 45 44 48 45 44 45 45 44 44 44 46 45 48 51 50 50 49 49 48 48 48 48 45 46 46 45 44 44 44 44 43 44 44 44 46 44 45 45 45 45 45 45 44 44 44 45 44 44 44 44 44 44 44 44 44 45 44 44 44 44 44 46 45 47 46 46 47 47 50 48 49 52 49 51 51 52 52 53 54 53 54 54 54 54 53 55 55 55 56 64 61 63 65 65 64 63 63 63 57 56 60 56 59 71 82 77 -193 -193 -193 79 -193 80 80 73 -193 47 45 46 48 49 50 55 69 -209 -209 90 -193 -193 -193 443 -193 -193 97 99 103 101 101 102 99 102 102 103 103 99 101 100 98 103 104 104 106 107 107 108 111 111 -209 -209 59 69 -193 57 57 58 58 57 56 56 55 57 57 58 62 62 64 62 63 63 63 62 0 0 0 0 0
    0 0 0 0 0 0 0 0 0 0 0 0 0 0 0 0 0 0 0 0 0 0 0 0 0 0 0 0 0 0 0 0 0 0 0 0 0 0 0 0 0 0 0 0 0 0 0 0 0 0 0 0 0 0 0 0 0 0 0 0 0 0 0 0 0 0 0 0 0 52 51 51 50 51 49 48 49 49 46 49 49 49 49 51 50 50 49 51 47 46 48 46 49 50 47 48 47 48 47 46 45 43 43 43 44 43 45 45 46 46 46 46 47 48 48 47 48 48 49 51 49 49 51 50 51 48 48 48 44 45 45 44 43 43 45 47 46 51 47 46 47 47 46 46 46 48 47 51 52 51 51 51 51 50 50 50 50 48 47 48 47 47 46 46 46 45 46 46 46 48 45 46 46 46 46 46 45 45 44 45 45 45 45 45 45 45 46 46 46 46 46 46 46 46 46 45 48 47 48 49 48 50 49 52 49 50 52 50 51 52 52 52 53 54 53 54 54 54 54 53 55 55 56 56 64 61 63 65 65 64 63 64 63 57 57 61 58 62 71 82 77 -193 -193 -193 79 79 80 80 74 -193 47 45 46 47 49 51 55 69 -209 -209 91 101 100 -193 -193 -193 99 97 99 103 101 102 103 101 103 103 104 103 98 100 99 96 101 102 103 104 106 106 107 110 110 112 111 110 -193 -193 112 -209 60 60 59 57 56 56 57 58 59 63 63 63 62 63 63 63 62 0 0 0 0 0
    0 0 0 0 0 0 0 0 0 0 0 0 0 0 0 0 0 0 0 0 0 0 0 0 0 0 0 0 0 0 0 0 0 0 0 0 0 0 0 0 0 0 0 0 0 0 0 0 0 0 0 0 0 0 0 0 0 0 0 0 0 0 0 0 0 0 0 0 0 52 51 52 51 52 50 50 51 51 49 51 51 51 51 52 52 52 51 53 50 49 51 50 52 52 50 51 50 51 49 48 47 45 44 46 46 45 48 47 49 49 50 49 50 50 50 49 50 49 50 52 50 50 52 51 53 51 51 51 45 48 47 45 45 45 47 50 48 53 49 49 49 49 47 48 48 50 50 53 53 52 52 52 52 51 51 51 51 50 49 50 49 49 49 48 48 47 48 49 48 51 47 48 48 48 47 47 46 46 45 46 46 45 45 46 45 46 48 47 48 48 48 48 47 48 47 46 50 49 49 51 50 52 51 53 51 51 53 52 52 53 53 53 54 54 53 54 54 53 54 53 55 56 57 58 66 62 64 65 65 64 63 64 63 57 57 61 59 64 71 81 -193 -193 -193 -193 79 -193 80 80 74 -193 45 45 47 48 51 53 56 70 -177 94 90 100 98 99 100 98 99 97 99 103 -193 103 104 102 103 103 104 104 97 99 98 95 99 100 101 104 105 106 106 108 109 111 112 114 113 111 116 119 120 -193 -209 -193 56 56 58 59 60 63 63 63 62 64 63 63 62 0 0 0 0 0
    0 0 0 0 0 0 0 0 0 0 0 0 0 0 0 0 0 0 0 0 0 0 0 0 0 0 0 0 0 0 0 0 0 0 0 0 0 0 0 0 0 0 0 0 0 0 0 0 0 0 0 0 0 0 0 0 0 0 0 0 0 0 0 0 0 0 0 0 0 52 51 52 52 52 52 51 52 52 51 53 53 52 53 53 53 54 52 54 52 52 53 53 53 53 51 52 52 52 51 50 50 47 48 51 50 49 50 50 51 52 52 51 52 52 52 51 51 51 52 53 52 52 54 53 54 53 53 52 48 51 51 47 49 49 50 52 51 53 51 51 51 50 49 50 50 52 52 54 54 53 53 53 53 52 52 51 52 51 50 51 51 51 51 51 50 50 51 52 51 53 48 50 50 49 48 47 47 47 46 47 47 46 46 47 47 47 50 49 50 50 50 49 49 50 49 47 52 50 51 52 52 52 52 53 52 51 53 52 52 54 53 54 54 54 53 54 54 53 53 53 55 57 58 60 67 62 65 66 65 65 63 64 64 58 58 61 61 66 71 -193 -193 -193 -193 -193 -193 -193 79 79 74 -193 47 48 52 54 57 58 64 72 88 90 89 100 96 97 99 98 99 97 99 103 -193 -193 -193 -193 -209 -193 -177 105 97 99 98 93 98 101 103 104 106 106 107 109 109 111 111 113 112 113 119 120 122 123 125 130 -209 -209 -193 59 61 64 64 64 63 64 63 63 62 0 0 0 0 0
    0 0 0 0 0 0 0 0 0 0 0 0 0 0 0 0 0 0 0 0 0 0 0 0 0 0 0 0 0 0 0 0 0 0 0 0 0 0 0 0 0 0 0 0 0 0 0 0 0 0 0 0 0 0 0 0 0 0 0 0 0 0 0 0 0 0 0 0 0 53 52 54 54 54 54 53 53 54 53 54 54 53 54 54 54 55 53 55 54 54 55 55 55 54 53 53 53 53 52 51 50 49 50 53 52 51 51 52 53 54 54 53 53 53 53 53 54 54 54 55 54 54 56 55 56 55 55 54 51 53 53 51 53 53 53 54 53 54 53 53 53 52 51 53 53 54 54 55 54 54 54 54 54 53 53 52 52 52 51 52 52 53 53 52 52 52 53 54 53 55 51 52 52 51 50 50 49 49 48 49 48 48 48 48 49 48 51 51 51 51 51 51 51 51 52 50 53 52 53 54 53 54 53 54 53 52 54 53 53 54 54 54 55 54 53 54 54 53 54 54 55 57 59 61 67 63 65 65 65 65 63 64 64 58 60 62 66 69 72 -193 -193 -193 -193 -193 -193 -193 78 78 73 -193 51 52 58 58 61 62 67 72 88 88 89 100 95 96 99 97 98 97 99 103 560 562 -193 -193 -177 -193 -177 -193 96 100 97 92 96 100 102 104 106 106 106 107 107 109 109 110 111 112 118 119 121 122 124 128 132 130 133 -193 -193 66 66 64 63 64 63 63 62 0 0 0 0 0
    0 0 0 0 0 0 0 0 0 0 0 0 0 0 0 0 0 0 0 0 0 0 0 0 0 0 0 0 0 0 0 0 0 0 0 0 0 0 0 0 0 0 0 0 0 0 0 0 0 0 0 0 0 0 0 0 0 0 0 0 0 0 0 0 0 0 0 0 0 54 53 55 56 55 56 55 55 55 54 54 54 54 54 54 54 54 53 56 55 56 56 56 56 56 54 55 54 54 53 52 52 51 52 54 54 53 53 54 54 55 55 54 55 55 55 55 55 56 56 57 56 56 57 57 57 56 56 55 53 55 55 53 55 55 54 55 54 55 54 55 55 54 54 55 55 56 56 56 54 55 55 54 54 54 54 53 53 54 52 53 53 54 54 54 54 54 54 55 55 57 54 54 54 54 53 53 53 52 51 52 52 51 52 51 51 50 52 52 53 53 52 52 52 53 53 52 54 53 54 55 54 55 54 55 55 54 55 55 54 55 55 56 55 54 53 55 54 53 54 54 55 58 60 61 67 63 65 65 65 65 62 64 64 59 62 63 70 71 72 -193 -193 -193 -193 -193 -193 -193 -193 77 73 -193 54 55 59 60 61 64 67 72 89 88 89 100 95 95 98 96 98 96 100 103 -193 -193 -209 -177 -177 -193 -177 107 97 99 96 91 94 99 103 105 106 107 107 107 108 109 109 110 111 113 118 119 121 122 123 129 130 131 133 134 137 -193 -193 65 64 65 64 63 62 0 0 0 0 0
    0 0 0 0 0 0 0 0 0 0 0 0 0 0 0 0 0 0 0 0 0 0 0 0 0 0 0 0 0 0 0 0 0 0 0 0 0 0 0 0 0 0 0 0 0 0 0 0 0 0 0 0 0 0 0 0 0 0 0 0 0 0 0 0 0 0 0 0 0 56 55 56 59 56 58 56 56 56 54 55 55 54 55 54 54 55 53 56 57 57 58 57 56 57 56 56 56 55 55 54 54 54 54 55 55 54 54 54 55 55 55 55 55 55 55 55 56 58 58 59 58 58 59 58 58 57 57 56 55 56 56 54 56 56 55 55 55 55 55 56 56 56 55 57 56 57 57 57 55 56 55 55 55 55 55 54 54 55 53 54 54 55 55 55 55 55 55 56 56 58 57 57 57 56 55 56 55 55 54 54 54 54 53 53 52 51 52 53 54 54 54 53 53 54 55 54 55 54 54 55 55 56 55 56 56 55 56 56 56 56 56 57 56 55 55 56 56 55 55 56 56 60 61 62 67 63 65 65 64 64 62 64 64 59 63 64 72 72 74 80 76 79 79 78 78 76 77 76 -193 52 55 55 58 59 60 62 67 73 90 89 90 100 95 95 98 96 98 96 100 103 -193 105 -193 -177 -177 -193 -193 107 99 100 -193 -209 -193 94 101 104 106 106 107 107 108 110 109 110 111 113 118 119 122 122 123 128 130 132 132 133 135 136 137 -193 66 66 65 64 63 0 0 0 0 0
    0 0 0 0 0 0 0 0 0 0 0 0 0 0 0 0 0 0 0 0 0 0 0 0 0 0 0 0 0 0 0 0 0 0 0 0 0 0 0 0 0 0 0 0 0 0 0 0 0 0 0 0 0 0 0 0 0 0 0 0 0 0 0 0 0 0 0 0 0 59 63 63 72 63 64 60 58 57 56 56 57 55 56 55 55 56 55 58 60 58 60 59 58 59 57 58 58 57 56 56 56 56 55 57 56 54 55 55 55 56 56 56 55 56 56 56 57 59 59 59 59 59 60 59 59 59 58 58 57 58 58 56 57 56 56 55 55 55 55 56 56 57 56 57 58 58 58 57 56 56 56 56 56 56 56 55 55 55 54 55 55 55 55 56 55 56 56 57 57 58 58 59 59 60 58 59 57 57 56 55 55 55 55 55 54 53 53 54 55 55 55 54 55 55 56 56 56 54 55 56 56 56 56 56 56 56 57 57 57 57 57 57 58 58 57 58 58 58 58 59 59 65 63 64 69 64 66 65 64 64 62 64 64 59 64 65 73 74 77 80 77 79 79 79 78 76 78 76 -193 -193 56 56 60 60 61 64 68 73 92 90 90 100 95 95 98 97 98 96 100 103 -193 -193 -193 -177 -193 -193 108 109 101 102 -209 -209 -209 -209 -209 104 106 106 106 107 107 111 109 112 113 115 119 120 122 122 123 127 129 131 131 133 134 134 135 137 136 -193 67 65 64 0 0 0 0 0
    0 0 0 0 0 0 0 0 0 0 0 0 0 0 0 0 0 0 0 0 0 0 0 0 0 0 0 0 0 0 0 0 0 0 0 0 0 0 0 0 0 0 0 0 0 0 0 0 0 0 0 0 0 0 0 0 0 0 0 0 0 0 0 0 0 0 0 0 0 67 73 73 74 73 71 68 62 61 58 59 60 58 59 59 59 69 69 71 72 64 64 62 60 61 59 60 59 58 58 58 59 59 58 59 58 56 56 57 57 58 59 58 57 59 60 60 60 63 61 60 60 60 62 60 61 61 59 60 59 60 60 57 59 57 56 56 55 55 56 57 57 57 57 58 61 60 60 -193 -209 -193 -193 56 56 56 56 55 55 56 55 55 56 56 56 56 56 56 57 57 57 58 58 60 60 61 59 60 59 59 58 57 57 56 57 57 55 55 55 56 56 56 57 55 56 57 57 57 57 55 55 57 58 57 57 57 57 57 58 58 58 57 57 57 58 59 59 60 61 61 62 63 65 68 66 67 69 64 66 64 64 64 62 64 65 60 66 67 75 75 79 79 77 79 79 79 78 77 78 75 74 -193 60 60 64 65 64 67 70 75 91 89 90 100 94 95 98 96 98 96 100 103 -193 106 -193 -177 -193 -193 108 109 100 100 -209 69 -193 84 -209 -209 -209 96 102 103 105 109 107 111 112 114 118 119 120 121 121 124 125 127 128 130 132 132 134 136 136 138 138 139 -193 0 0 0 0 0
    0 0 0 0 0 0 0 0 0 0 0 0 0 0 0 0 0 0 0 0 0 0 0 0 0 0 0 0 0 0 0 0 0 0 0 0 0 0 0 0 0 0 0 0 0 0 0 0 0 0 0 0 0 0 0 0 0 0 0 0 0 0 0 0 0 0 0 0 0 73 75 75 75 75 73 72 67 67 62 64 67 64 67 69 73 74 76 76 76 71 68 67 63 64 62 62 61 60 60 61 62 63 61 63 60 58 58 60 59 63 65 63 61 68 69 69 65 67 63 62 63 62 64 62 63 64 62 64 64 65 65 61 62 60 57 57 56 56 57 58 57 58 58 60 66 65 66 67 -209 -193 -193 -193 -193 -193 57 56 56 57 56 56 57 57 57 58 58 59 59 59 59 60 59 62 61 62 60 62 60 60 59 59 59 58 60 60 58 59 58 59 59 59 59 57 58 57 58 58 57 56 56 57 59 58 58 57 57 57 58 58 57 57 57 57 59 61 60 62 64 65 66 68 69 70 68 69 70 65 67 65 64 64 62 65 66 61 68 69 75 76 80 79 77 79 79 79 78 77 78 75 75 77 65 64 68 69 68 69 71 78 89 88 89 98 94 95 98 96 98 96 100 103 103 106 -193 -177 -193 -193 108 108 98 97 59 63 70 74 -193 76 79 81 87 90 101 106 105 108 109 112 117 118 120 120 120 123 124 126 126 128 130 130 132 135 135 136 136 136 138 0 0 0 0 0
    0 0 0 0 0 0 0 0 0 0 0 0 0 0 0 0 0 0 0 0 0 0 0 0 0 0 0 0 0 0 0 0 0 0 0 0 0 0 0 0 0 0 0 0 0 0 0 0 0 0 0 0 0 0 0 0 0 0 0 0 0 0 0 0 0 0 0 0 0 74 76 76 76 75 74 73 71 70 68 69 71 71 73 74 75 76 78 78 78 74 72 70 67 67 65 64 63 61 61 64 65 66 64 66 62 62 62 67 68 70 72 72 71 74 74 74 70 68 65 63 65 64 65 64 66 68 67 69 71 71 71 69 69 65 59 59 57 57 58 59 59 60 -193 65 71 72 72 -209 -209 -193 -193 -193 -193 -193 -193 58 58 60 58 59 62 63 59 62 63 -193 62 63 62 64 62 67 64 65 64 67 63 64 62 63 63 62 66 65 63 67 64 67 66 65 64 59 60 59 60 58 58 57 56 58 60 59 60 59 59 59 59 60 59 58 59 58 60 63 62 65 67 69 69 70 71 72 71 72 72 68 68 66 65 65 63 66 67 63 70 70 76 76 80 78 77 79 79 79 78 77 77 75 76 78 72 72 73 73 72 72 72 80 88 88 89 98 93 94 98 96 97 95 100 103 103 106 -193 -177 107 107 108 108 98 97 -209 70 73 76 75 77 79 78 83 85 90 96 98 -193 105 110 117 119 121 121 122 123 124 126 127 128 129 129 132 134 135 136 136 137 138 0 0 0 0 0
    0 0 0 0 0 0 0 0 0 0 0 0 0 0 0 0 0 0 0 0 0 0 0 0 0 0 0 0 0 0 0 0 0 0 0 0 0 0 0 0 0 0 0 0 0 0 0 0 0 0 0 0 0 0 0 0 0 0 0 0 0 0 0 0 0 0 0 0 0 75 76 77 76 76 75 74 73 73 72 72 74 73 75 76 76 76 79 79 79 76 75 73 70 70 68 67 67 63 63 67 67 67 65 67 64 65 65 70 73 73 75 75 74 76 76 77 73 69 67 64 66 66 66 67 68 71 71 73 74 74 74 73 72 70 63 63 59 60 60 62 62 64 -193 70 73 75 75 75 -209 74 -193 70 -193 64 63 61 62 66 63 65 69 70 64 68 69 -193 -193 68 68 68 66 70 69 68 68 70 66 67 66 -193 -193 67 69 69 67 71 69 71 71 70 69 63 64 62 62 60 59 57 56 58 62 61 62 62 61 61 61 62 61 60 61 60 62 66 64 67 69 71 71 72 73 74 73 74 75 70 70 67 67 67 64 67 68 65 71 72 76 77 81 78 78 78 79 78 77 76 77 74 76 78 76 75 76 76 75 75 75 82 88 87 89 98 93 95 98 97 98 95 100 103 103 106 -193 -193 107 107 108 108 99 97 86 76 76 77 76 78 79 77 82 81 86 -209 -193 87 93 -193 108 117 121 120 122 124 124 126 127 128 130 129 131 133 134 136 136 137 138 0 0 0 0 0
    0 0 0 0 0 0 0 0 0 0 0 0 0 0 0 0 0 0 0 0 0 0 0 0 0 0 0 0 0 0 0 0 0 0 0 0 0 0 0 0 0 0 0 0 0 0 0 0 0 0 0 0 0 0 0 0 0 0 0 0 0 0 0 0 0 0 0 0 0 76 76 77 77 76 76 75 74 74 74 74 76 75 76 77 77 77 79 79 79 76 76 75 73 73 72 71 70 67 67 69 69 68 66 69 66 69 70 73 75 75 76 77 76 78 77 78 75 -193 69 65 67 66 67 69 70 74 73 74 75 75 75 75 74 73 68 -193 64 65 63 67 66 67 -209 71 74 75 75 75 -193 75 74 73 72 68 67 64 67 69 67 69 72 72 68 70 -193 -193 -193 71 73 71 69 72 72 70 70 71 69 69 68 -193 -193 69 70 71 69 -193 71 -193 72 71 72 69 68 67 64 62 60 59 57 59 65 64 66 66 65 65 65 66 65 63 65 63 66 68 66 68 70 72 73 73 74 75 75 76 77 73 71 69 69 68 65 68 69 67 72 74 77 78 81 78 78 78 79 78 77 77 78 75 77 79 79 77 79 80 80 78 78 84 89 88 90 98 94 95 98 97 98 95 101 104 103 107 -193 -193 107 106 107 107 99 98 89 80 77 77 77 79 79 77 81 80 84 86 86 86 86 86 94 109 112 114 120 122 123 126 127 130 131 131 133 134 135 138 138 139 139 0 0 0 0 0
    0 0 0 0 0 0 0 0 0 0 0 0 0 0 0 0 0 0 0 0 0 0 0 0 0 0 0 0 0 0 0 0 0 0 0 0 0 0 0 0 0 0 0 0 0 0 0 0 0 0 0 0 0 0 0 0 0 0 0 0 0 0 0 0 0 0 0 0 0 77 77 77 77 77 77 76 76 76 76 76 77 76 77 78 78 77 79 79 79 77 77 75 74 75 74 73 73 71 70 70 71 70 67 71 69 72 74 76 77 77 79 79 79 80 79 80 -193 -209 -209 67 69 68 69 71 72 76 75 75 76 76 76 76 75 74 -193 -193 69 69 67 69 68 69 -209 -193 75 76 76 76 75 75 75 74 74 71 71 68 70 71 70 71 73 74 72 72 74 -193 -193 73 74 73 72 74 74 71 72 73 71 70 70 -193 -193 71 72 -193 71 74 73 74 73 73 73 72 70 70 65 63 61 60 59 61 69 67 69 69 68 68 68 68 68 66 69 66 68 70 68 69 71 74 74 74 75 76 76 77 79 76 73 72 71 70 67 70 71 69 74 76 78 79 82 79 79 79 80 79 78 78 79 76 78 80 82 80 82 83 82 80 81 84 89 89 90 98 93 95 98 97 98 95 101 104 104 107 -193 -193 106 106 107 107 99 98 89 82 77 78 78 80 80 78 80 78 80 84 84 84 83 83 87 -209 -209 108 117 121 123 125 127 131 132 132 134 135 136 139 139 140 140 0 0 0 0 0
    0 0 0 0 0 0 0 0 0 0 0 0 0 0 0 0 0 0 0 0 0 0 0 0 0 0 0 0 0 0 0 0 0 0 0 0 0 0 0 0 0 0 0 0 0 0 0 0 0 0 0 0 0 0 0 0 0 0 0 0 0 0 0 0 0 0 0 0 0 78 77 77 77 77 78 77 78 77 77 78 79 78 79 79 79 78 79 79 79 77 78 76 75 77 75 75 75 73 72 72 73 73 70 74 74 76 77 78 80 79 81 81 81 82 81 82 80 76 76 72 73 71 72 74 74 79 76 77 77 76 76 76 76 76 -193 -193 73 73 72 73 73 73 -193 -193 78 77 77 76 77 77 76 75 75 73 73 71 73 73 73 73 75 75 74 73 76 75 74 75 76 75 75 75 75 73 75 76 73 73 73 73 73 73 73 74 73 75 74 75 74 75 75 74 72 74 68 68 63 63 64 65 71 69 72 72 71 71 71 71 70 70 73 69 71 71 70 71 72 76 75 75 77 78 78 79 81 78 75 75 74 72 71 72 74 73 75 78 80 80 83 80 81 80 81 80 79 79 81 77 80 81 83 82 83 84 84 82 83 85 89 89 90 97 93 95 97 97 98 96 101 104 104 107 -193 -193 106 106 107 107 99 97 89 83 78 78 80 81 81 79 82 79 81 85 86 84 83 84 87 95 98 104 -209 114 119 124 126 131 132 133 135 136 137 139 141 141 141 0 0 0 0 0
    0 0 0 0 0 0 0 0 0 0 0 0 0 0 0 0 0 0 0 0 0 0 0 0 0 0 0 0 0 0 0 0 0 0 0 0 0 0 0 0 0 0 0 0 0 0 0 0 0 0 0 0 0 0 0 0 0 0 0 0 0 0 0 0 0 0 0 0 0 78 77 78 78 78 78 78 79 79 78 79 81 78 79 80 80 78 80 79 79 77 79 77 76 78 76 76 76 75 74 74 75 75 73 77 78 79 79 80 82 81 82 82 82 83 81 83 82 79 79 76 78 76 76 80 77 83 78 79 78 77 78 77 77 77 75 76 75 76 77 77 77 77 79 76 82 79 80 78 78 78 78 77 77 75 75 73 74 75 74 74 76 76 75 75 78 76 75 76 78 77 77 78 77 75 79 80 76 75 75 76 75 75 75 76 74 76 75 76 75 76 76 75 73 76 72 73 70 69 68 71 73 71 75 74 74 73 73 74 73 73 74 73 74 73 71 72 72 78 76 76 78 79 79 80 81 80 77 79 78 75 74 75 77 75 77 81 81 81 83 81 81 81 81 81 79 79 81 78 80 81 83 83 84 85 84 83 84 86 89 89 90 98 93 95 97 97 99 96 101 104 -193 107 -193 -193 106 106 107 107 99 97 89 84 80 80 82 83 83 81 83 80 83 86 87 86 86 87 88 94 96 102 -209 108 116 121 125 131 132 133 136 137 139 141 143 142 142 0 0 0 0 0
    0 0 0 0 0 0 0 0 0 0 0 0 0 0 0 0 0 0 0 0 0 0 0 0 0 0 0 0 0 0 0 0 0 0 0 0 0 0 0 0 0 0 0 0 0 0 0 0 0 0 0 0 0 0 0 0 0 0 0 0 0 0 0 0 0 0 0 0 0 79 78 78 78 78 79 78 79 79 79 80 82 79 80 80 80 79 80 80 80 78 79 78 77 79 77 77 77 76 75 76 77 76 74 81 80 82 81 82 83 82 83 82 83 83 82 83 -193 80 80 78 81 79 82 84 81 84 81 81 80 79 79 78 78 79 76 78 77 78 79 79 79 80 80 78 83 81 81 79 80 80 79 78 79 76 77 75 76 77 76 76 78 77 77 76 81 78 77 78 79 78 79 80 80 77 82 82 78 78 78 78 77 76 76 77 75 77 76 77 76 77 77 77 75 78 74 76 74 73 72 75 76 75 78 76 76 76 76 76 75 75 76 74 75 74 73 73 74 80 77 77 79 80 80 81 82 82 78 83 82 79 79 82 82 78 80 83 82 82 83 81 82 82 82 82 80 81 83 79 81 82 83 83 84 85 84 84 85 86 90 89 90 98 94 96 97 97 99 96 101 104 -193 107 -177 -193 -193 105 107 107 100 98 90 86 83 83 84 85 85 84 85 83 85 87 88 87 87 87 87 89 91 91 90 93 -193 -193 127 131 135 134 136 139 140 142 145 143 143 0 0 0 0 0
    0 0 0 0 0 0 0 0 0 0 0 0 0 0 0 0 0 0 0 0 0 0 0 0 0 0 0 0 0 0 0 0 0 0 0 0 0 0 0 0 0 0 0 0 0 0 0 0 0 0 0 0 0 0 0 0 0 0 0 0 0 0 0 0 0 0 0 0 0 79 78 78 78 79 79 78 80 80 79 80 82 79 80 81 81 80 81 81 81 78 81 79 78 80 77 78 78 76 76 78 80 79 76 84 81 83 83 82 83 83 83 83 82 83 82 83 -193 -193 80 79 82 80 84 85 83 85 82 82 81 80 81 79 79 80 77 80 79 80 81 80 81 82 81 80 84 82 83 80 81 81 80 80 80 76 78 75 77 77 76 76 78 77 77 77 80 78 77 79 80 79 80 81 81 79 83 83 80 79 80 79 78 77 77 78 76 78 77 77 77 78 79 78 76 80 77 79 78 77 76 81 82 81 83 78 80 78 78 78 77 77 78 76 77 76 76 76 76 83 78 78 81 81 81 82 83 83 81 85 85 84 85 87 87 84 85 85 84 83 84 83 84 84 84 83 83 83 84 82 82 83 84 84 85 85 85 85 86 87 90 90 91 99 94 96 97 97 99 97 101 104 -193 107 -177 -177 -193 105 106 107 100 98 90 88 85 85 86 86 86 85 86 84 87 89 89 87 87 87 87 88 89 88 87 88 -209 131 132 134 136 136 137 140 140 142 146 143 143 0 0 0 0 0
    0 0 0 0 0 0 0 0 0 0 0 0 0 0 0 0 0 0 0 0 0 0 0 0 0 0 0 0 0 0 0 0 0 0 0 0 0 0 0 0 0 0 0 0 0 0 0 0 0 0 0 0 0 0 0 0 0 0 0 0 0 0 0 0 0 0 0 0 0 80 78 78 79 79 80 79 80 81 80 81 83 80 81 81 82 81 82 82 82 79 82 81 79 81 78 80 79 78 78 81 84 83 81 85 82 84 83 83 83 83 83 83 82 84 82 83 -193 -193 81 79 82 81 85 85 84 86 83 83 82 82 82 80 81 82 79 83 81 82 83 82 83 84 83 83 86 84 85 83 83 83 82 82 81 77 79 75 76 77 76 75 77 77 77 77 80 79 78 80 81 80 82 82 83 81 85 84 82 81 81 80 79 77 77 78 76 79 79 79 79 80 80 80 78 82 80 81 82 82 83 86 85 84 86 81 83 81 81 81 80 80 81 78 81 78 79 79 78 84 79 78 82 82 81 82 83 83 81 86 86 84 86 88 88 87 87 86 85 84 85 85 85 85 85 85 84 85 86 84 84 83 84 84 85 85 86 86 86 87 92 91 92 100 95 98 98 98 100 98 102 104 -193 -193 -177 -177 -193 105 106 106 101 99 91 90 87 86 87 87 87 86 87 85 87 90 91 89 89 89 89 90 91 90 88 88 95 -209 127 132 136 136 138 142 141 143 147 144 144 0 0 0 0 0
    0 0 0 0 0 0 0 0 0 0 0 0 0 0 0 0 0 0 0 0 0 0 0 0 0 0 0 0 0 0 0 0 0 0 0 0 0 0 0 0 0 0 0 0 0 0 0 0 0 0 0 0 0 0 0 0 0 0 0 0 0 0 0 0 0 0 0 0 0 81 79 78 80 81 80 80 81 82 81 82 84 81 81 82 83 82 82 83 82 80 82 82 81 81 79 81 81 80 80 83 85 85 84 86 83 84 84 83 84 82 83 83 82 84 83 83 -193 -193 83 81 84 82 86 -193 84 86 83 84 83 83 83 81 82 83 81 84 83 83 84 84 85 85 84 84 87 85 86 85 85 85 84 84 83 78 81 75 77 77 76 75 76 77 76 77 80 80 79 81 82 82 83 84 84 83 86 85 83 82 82 82 80 77 78 79 77 80 80 80 81 81 82 82 80 84 83 83 86 86 86 87 86 85 86 82 84 82 81 82 82 82 82 80 83 80 83 84 83 85 80 80 83 82 81 82 83 83 82 86 86 85 87 89 89 89 89 88 86 85 86 85 86 86 85 85 85 85 86 84 84 83 84 84 85 86 86 87 88 89 94 92 94 101 96 99 99 99 101 99 102 -193 -193 -193 -177 -177 226 -193 106 106 102 100 93 93 90 89 89 88 88 88 88 87 89 91 92 90 91 91 91 91 92 91 90 90 94 94 -209 -193 135 136 138 144 141 143 147 144 144 0 0 0 0 0
    0 0 0 0 0 0 0 0 0 0 0 0 0 0 0 0 0 0 0 0 0 0 0 0 0 0 0 0 0 0 0 0 0 0 0 0 0 0 0 0 0 0 0 0 0 0 0 0 0 0 0 0 0 0 0 0 0 0 0 0 0 0 0 0 0 0 0 0 0 83 81 80 81 82 81 81 82 83 82 83 84 83 82 83 84 83 83 83 83 81 83 84 83 83 82 83 83 81 82 83 85 85 -193 86 83 84 84 83 84 82 83 82 82 84 83 84 85 83 84 83 84 83 86 86 85 86 83 84 84 84 84 82 83 83 83 85 84 84 85 85 86 86 86 86 88 87 -193 86 86 86 86 86 85 80 83 76 78 78 76 76 77 77 77 78 81 81 80 83 84 83 85 85 86 85 86 86 85 84 84 83 82 78 79 80 79 81 82 81 82 83 83 83 82 84 85 84 88 87 88 88 87 86 87 82 84 83 83 83 84 84 84 83 85 84 86 86 86 86 82 81 84 83 82 82 84 84 83 86 87 86 89 90 90 90 90 90 88 87 87 86 86 86 85 85 85 85 86 85 85 84 84 86 86 87 88 89 90 90 96 94 96 102 98 100 99 99 -177 100 103 -193 -193 -177 -177 225 227 -193 106 105 102 101 95 96 95 93 93 91 91 91 91 90 91 93 94 92 92 92 92 92 93 92 91 90 92 92 94 -209 -209 -209 139 147 142 143 148 144 144 0 0 0 0 0
    0 0 0 0 0 0 0 0 0 0 0 0 0 0 0 0 0 0 0 0 0 0 0 0 0 0 0 0 0 0 0 0 0 0 0 0 0 0 0 0 0 0 0 0 0 0 0 0 0 0 0 0 0 0 0 0 0 0 0 0 0 0 0 0 0 0 0 0 0 85 83 82 83 84 82 82 83 84 83 83 85 84 83 84 85 84 84 84 84 82 84 86 85 84 84 84 84 82 83 83 85 85 85 85 84 84 85 84 85 83 84 -193 -193 85 84 85 86 84 85 84 85 84 86 86 85 86 84 85 84 84 85 83 84 84 84 85 84 85 85 86 87 87 86 86 89 88 -193 -193 87 87 87 87 87 83 84 77 80 81 79 77 78 79 79 80 82 83 82 84 85 85 86 85 87 86 87 87 86 86 86 85 85 79 82 82 82 83 84 83 84 84 84 84 84 85 86 84 88 88 88 89 89 88 87 84 85 84 84 85 86 85 86 85 87 86 87 88 88 87 83 82 84 83 82 83 84 84 83 87 87 87 89 90 91 90 91 91 90 89 89 87 87 86 86 86 86 86 87 86 86 85 85 87 88 89 89 90 91 91 98 94 98 102 99 101 99 100 -177 100 103 103 -193 -177 -177 225 227 -193 105 105 103 102 96 98 98 96 96 93 95 95 93 91 92 94 96 93 93 93 93 93 94 92 -193 -193 92 91 93 -209 -209 -209 -209 149 142 142 149 144 144 0 0 0 0 0
    0 0 0 0 0 0 0 0 0 0 0 0 0 0 0 0 0 0 0 0 0 0 0 0 0 0 0 0 0 0 0 0 0 0 0 0 0 0 0 0 0 0 0 0 0 0 0 0 0 0 0 0 0 0 0 0 0 0 0 0 0 0 0 0 0 0 0 0 0 85 84 83 84 85 83 82 83 85 84 84 86 86 84 85 86 86 85 86 85 83 84 86 86 85 84 83 83 82 83 83 85 85 85 85 84 85 85 84 85 83 84 83 -193 86 85 86 86 85 85 84 86 84 87 85 85 85 84 85 85 85 85 84 85 85 85 86 85 86 85 86 87 88 86 87 89 88 -193 -193 -193 88 88 89 89 85 86 78 82 83 83 80 82 82 82 83 84 85 84 85 86 86 86 86 87 87 88 88 87 86 87 86 86 80 85 83 84 84 86 84 85 85 85 85 85 85 86 -193 89 -209 89 89 90 89 88 86 87 85 85 86 87 86 87 86 87 87 88 88 88 87 84 83 85 84 83 83 84 84 84 87 88 88 90 90 91 91 91 92 92 91 89 88 88 87 87 86 87 87 87 87 87 87 87 88 89 90 90 91 91 92 98 95 99 102 100 101 100 100 -177 101 103 103 101 -177 -177 224 226 103 104 103 103 102 96 98 98 97 96 94 95 96 94 92 93 95 96 93 94 93 92 92 93 92 -193 89 90 90 91 94 -209 -209 -209 -209 142 142 149 144 144 0 0 0 0 0
    0 0 0 0 0 0 0 0 0 0 0 0 0 0 0 0 0 0 0 0 0 0 0 0 0 0 0 0 0 0 0 0 0 0 0 0 0 0 0 0 0 0 0 0 0 0 0 0 0 0 0 0 0 0 0 0 0 0 0 0 0 0 0 0 0 0 0 0 0 86 85 84 85 86 83 83 83 86 84 84 86 85 84 85 86 86 85 86 85 84 85 86 87 85 84 84 83 82 83 84 86 85 85 85 84 85 86 85 85 83 85 -193 -193 87 86 86 86 86 86 85 86 84 86 85 85 85 84 85 85 85 86 84 85 85 86 87 86 86 85 86 87 88 86 87 90 89 90 -193 89 89 89 90 90 87 87 80 84 87 87 85 85 84 85 85 85 86 84 85 86 86 87 87 88 87 88 88 88 87 -193 86 87 80 87 84 86 86 87 85 86 86 86 86 86 -193 -193 -193 89 -209 90 90 90 89 89 87 87 86 85 86 88 87 87 87 88 88 88 88 88 87 84 84 85 85 83 83 85 85 85 87 88 88 89 90 91 90 91 92 92 92 90 90 90 88 87 87 87 87 88 87 88 88 88 90 91 91 92 91 92 94 99 95 99 102 100 102 100 100 -177 101 103 102 101 -193 -177 224 226 103 104 102 103 102 96 98 99 98 98 94 96 95 94 92 92 94 95 93 93 93 92 92 92 92 90 89 90 90 92 95 -209 -209 -209 -209 142 142 148 143 143 0 0 0 0 0
    0 0 0 0 0 0 0 0 0 0 0 0 0 0 0 0 0 0 0 0 0 0 0 0 0 0 0 0 0 0 0 0 0 0 0 0 0 0 0 0 0 0 0 0 0 0 0 0 0 0 0 0 0 0 0 0 0 0 0 0 0 0 0 0 0 0 0 0 0 87 87 85 86 86 83 83 83 86 84 83 86 86 84 85 86 86 85 86 86 84 85 86 87 85 85 85 84 83 84 85 87 86 86 86 84 85 86 85 85 83 85 84 -193 87 86 87 87 87 87 86 87 84 87 85 86 85 84 85 85 85 86 84 86 85 87 87 87 86 85 86 88 88 86 87 90 89 90 89 89 89 89 90 90 87 88 83 87 89 89 87 87 86 86 86 85 87 85 85 87 87 87 87 88 87 88 88 88 -193 -193 -193 -193 80 89 85 88 87 88 86 87 86 -193 -193 -193 -193 -193 -209 -193 -209 90 90 91 90 89 88 89 88 87 87 -193 88 88 89 89 89 88 89 89 87 85 85 85 86 84 84 86 85 85 87 88 88 89 89 90 90 91 93 93 93 92 92 92 89 88 88 88 87 88 89 90 90 90 92 93 93 94 93 94 96 99 96 100 101 100 102 100 100 101 101 103 101 101 -193 -177 -177 226 103 103 100 103 103 97 98 99 99 99 95 96 94 93 91 92 93 94 92 92 93 92 92 93 93 91 90 90 90 93 100 -209 -209 -209 -193 142 142 148 143 143 0 0 0 0 0
    0 0 0 0 0 0 0 0 0 0 0 0 0 0 0 0 0 0 0 0 0 0 0 0 0 0 0 0 0 0 0 0 0 0 0 0 0 0 0 0 0 0 0 0 0 0 0 0 0 0 0 0 0 0 0 0 0 0 0 0 0 0 0 0 0 0 0 0 0 90 89 87 87 87 84 83 84 86 84 83 86 86 85 85 86 86 85 86 86 85 84 86 86 85 86 86 86 85 85 86 88 86 87 86 84 85 86 85 85 83 84 84 -193 88 87 88 88 88 89 88 88 86 87 85 86 85 84 85 85 85 86 85 86 86 87 88 87 87 86 87 89 89 87 88 91 89 91 90 -177 -177 -177 -177 90 87 87 84 86 89 88 88 87 86 86 86 85 87 85 85 87 87 88 87 89 88 -193 89 89 -193 542 542 544 81 89 87 90 88 89 87 88 -193 766 766 766 -177 767 -193 89 -193 90 90 91 90 90 90 90 90 88 89 91 -193 89 89 89 89 88 89 89 87 86 86 86 86 85 85 87 85 85 87 88 88 89 89 90 89 91 93 93 93 92 93 94 91 91 91 90 88 91 91 92 92 93 95 97 96 97 95 97 97 100 97 101 101 100 102 100 100 101 101 103 101 101 -193 -177 -177 -193 103 103 100 104 103 97 97 99 99 99 96 96 94 93 92 92 93 93 92 92 93 92 93 94 94 91 90 91 91 96 -209 -209 -209 -209 -193 141 141 148 143 143 0 0 0 0 0
    0 0 0 0 0 0 0 0 0 0 0 0 0 0 0 0 0 0 0 0 0 0 0 0 0 0 0 0 0 0 0 0 0 0 0 0 0 0 0 0 0 0 0 0 0 0 0 0 0 0 0 0 0 0 0 0 0 0 0 0 0 0 0 0 0 0 0 0 0 92 91 90 90 89 87 85 86 87 85 85 86 87 86 86 86 86 85 86 86 85 83 85 86 85 87 87 87 86 87 88 -193 -193 88 86 85 86 87 86 87 84 85 85 88 91 90 90 90 89 91 91 91 88 88 86 87 86 85 85 85 85 86 85 87 86 88 88 88 88 88 88 90 90 89 89 92 90 91 90 -177 -177 -177 91 91 88 88 85 88 90 89 89 87 86 86 86 85 87 85 86 87 88 89 88 89 89 89 89 90 -209 542 542 -193 83 90 88 91 88 89 87 88 -193 766 766 766 -177 -177 -209 90 91 91 91 91 91 90 90 91 91 89 90 91 89 89 89 89 89 88 88 88 87 86 87 86 87 86 86 88 85 85 86 87 88 88 88 89 89 91 93 93 93 93 95 95 93 93 93 91 90 93 92 94 95 95 97 98 97 98 96 98 98 99 98 101 100 100 102 100 100 101 101 103 101 101 103 -193 -177 -193 103 103 100 105 104 98 98 100 100 100 97 96 94 93 92 91 93 93 92 92 93 92 93 94 94 91 90 91 91 97 -209 -209 -209 -209 -193 141 142 147 143 143 0 0 0 0 0
    0 0 0 0 0 0 0 0 0 0 0 0 0 0 0 0 0 0 0 0 0 0 0 0 0 0 0 0 0 0 0 0 0 0 0 0 0 0 0 0 0 0 0 0 0 0 0 0 0 0 0 0 0 0 0 0 0 0 0 0 0 0 0 0 0 0 0 0 0 92 91 91 91 90 89 86 88 87 86 86 87 88 87 87 87 87 86 86 86 86 83 84 86 86 88 88 89 88 89 89 90 89 90 88 87 88 89 89 89 87 87 87 90 93 92 92 91 90 92 93 92 90 90 88 88 87 86 86 86 86 86 85 87 86 89 89 89 88 89 90 92 91 91 91 93 91 92 91 90 90 90 91 90 88 88 87 90 91 91 90 88 87 87 87 86 87 86 86 88 89 90 89 91 90 90 90 90 89 -193 -193 -193 84 89 88 91 89 90 87 88 87 -209 -209 -209 -193 -193 -209 91 92 92 92 92 92 91 91 92 93 90 90 91 89 89 89 89 89 88 88 89 88 87 88 88 88 87 88 89 85 85 86 87 88 88 88 89 89 91 94 94 94 93 96 96 94 94 94 93 91 95 94 96 96 97 98 100 98 99 97 98 99 100 99 101 100 101 102 100 101 101 101 103 101 102 -193 102 -193 104 103 103 101 105 105 99 101 101 102 100 98 96 95 93 92 92 93 93 93 92 93 92 93 94 94 91 90 90 91 99 -209 -193 -209 -209 -193 141 142 147 143 144 0 0 0 0 0
    0 0 0 0 0 0 0 0 0 0 0 0 0 0 0 0 0 0 0 0 0 0 0 0 0 0 0 0 0 0 0 0 0 0 0 0 0 0 0 0 0 0 0 0 0 0 0 0 0 0 0 0 0 0 0 0 0 0 0 0 0 0 0 0 0 0 0 0 0 92 91 91 91 91 90 87 89 87 87 87 87 89 88 87 88 88 88 87 87 87 84 85 88 87 89 89 90 90 90 91 92 91 91 90 90 91 91 92 92 91 91 93 94 97 95 94 92 91 94 94 93 91 92 89 89 88 88 87 87 86 87 86 88 88 90 90 91 90 90 91 94 93 92 93 94 92 92 91 91 90 90 91 90 89 89 88 92 92 92 91 90 89 89 88 87 88 87 88 89 90 91 91 92 91 91 91 91 90 -193 -193 89 85 89 88 91 89 91 88 89 88 89 89 -193 89 90 -209 92 94 94 94 94 94 93 92 94 95 91 92 93 90 90 90 89 89 88 88 -193 -193 88 89 89 89 89 90 91 85 85 86 87 88 88 88 89 89 92 94 95 95 94 97 97 96 97 96 96 93 98 96 97 98 98 99 101 99 100 98 99 100 100 100 102 100 100 101 101 101 101 102 104 101 103 -193 103 104 104 104 104 101 105 105 100 101 101 102 99 99 95 95 94 92 93 93 93 92 91 92 92 93 94 95 91 90 90 92 101 -209 -209 -193 -209 -193 142 144 147 143 144 0 0 0 0 0
    0 0 0 0 0 0 0 0 0 0 0 0 0 0 0 0 0 0 0 0 0 0 0 0 0 0 0 0 0 0 0 0 0 0 0 0 0 0 0 0 0 0 0 0 0 0 0 0 0 0 0 0 0 0 0 0 0 0 0 0 0 0 0 0 0 0 0 0 0 93 92 92 92 92 91 88 90 89 88 89 88 90 89 89 89 89 89 89 89 88 85 86 89 89 91 90 91 91 92 92 94 92 93 91 92 93 93 94 94 93 93 97 96 98 97 95 93 93 95 95 94 93 93 91 91 90 90 89 89 88 89 88 90 90 91 91 93 92 92 92 96 94 94 95 95 93 93 92 92 91 91 92 91 90 90 89 93 93 93 92 90 90 90 89 89 89 87 89 90 91 92 92 93 92 92 92 92 91 90 -193 89 86 89 88 91 90 91 88 90 89 90 91 91 91 92 91 94 95 95 95 94 96 94 94 97 97 92 94 94 91 90 90 90 89 88 88 -193 -193 88 89 89 90 91 91 92 86 86 87 87 88 88 88 89 89 92 95 95 96 95 98 98 98 98 97 99 98 100 99 99 100 99 100 101 100 100 99 100 101 100 100 102 99 100 101 101 101 101 102 104 102 103 105 104 104 104 104 104 101 105 105 100 102 101 102 98 100 95 96 94 93 94 95 95 94 92 93 93 93 95 96 91 90 89 93 -209 -209 -209 -193 -209 -209 142 145 147 144 145 0 0 0 0 0
    0 0 0 0 0 0 0 0 0 0 0 0 0 0 0 0 0 0 0 0 0 0 0 0 0 0 0 0 0 0 0 0 0 0 0 0 0 0 0 0 0 0 0 0 0 0 0 0 0 0 0 0 0 0 0 0 0 0 0 0 0 0 0 0 0 0 0 0 0 93 93 93 94 94 93 89 92 90 89 89 89 90 90 89 90 90 90 90 90 90 87 87 91 90 93 92 92 93 93 93 95 93 94 92 93 94 93 96 95 94 95 98 98 99 98 96 94 94 97 97 95 94 94 92 93 93 93 91 91 90 92 90 92 91 92 92 94 93 93 92 97 94 96 98 96 95 94 93 93 92 93 93 91 91 91 91 94 93 94 93 91 90 90 90 90 90 88 90 91 92 93 95 94 93 93 93 93 92 91 91 89 89 90 91 93 94 94 91 92 91 92 94 93 93 94 93 96 97 97 96 95 97 95 96 99 100 94 97 97 93 92 92 91 90 88 90 -193 90 90 91 91 92 93 94 94 88 88 89 89 89 89 89 89 89 93 95 95 96 95 98 98 98 98 96 99 99 101 100 100 100 100 101 102 101 101 99 101 101 101 101 102 99 100 101 101 101 102 103 105 103 104 106 105 105 105 105 104 102 105 104 100 101 101 101 96 100 94 95 94 93 94 95 94 93 92 93 93 92 94 96 92 91 90 95 -209 -209 -193 -193 -193 -193 143 147 147 145 146 0 0 0 0 0
    0 0 0 0 0 0 0 0 0 0 0 0 0 0 0 0 0 0 0 0 0 0 0 0 0 0 0 0 0 0 0 0 0 0 0 0 0 0 0 0 0 0 0 0 0 0 0 0 0 0 0 0 0 0 0 0 0 0 0 0 0 0 0 0 0 0 0 0 0 93 92 93 93 94 93 90 92 90 90 90 89 91 91 91 91 91 91 91 92 92 90 89 93 92 96 94 94 94 94 94 95 94 95 93 94 95 94 97 96 95 96 99 99 99 99 97 95 95 98 98 96 95 95 94 94 95 95 93 92 92 94 92 93 93 93 93 95 94 94 93 98 95 98 99 97 96 96 95 95 94 94 93 91 92 92 93 96 95 95 95 93 93 92 92 92 93 91 92 93 95 95 97 96 96 94 95 95 94 93 93 90 92 92 95 95 97 97 94 95 94 95 98 96 96 96 96 98 98 98 96 94 97 95 99 101 101 97 100 100 97 95 95 94 91 90 92 93 92 92 92 92 94 95 96 96 91 89 90 90 90 89 89 90 90 94 95 95 96 96 99 99 99 99 97 101 102 103 102 102 102 102 102 103 101 101 100 102 101 102 103 103 99 101 102 102 102 102 104 105 104 105 107 106 106 106 106 105 103 105 105 101 101 102 102 97 100 95 96 94 92 94 94 92 92 92 93 94 95 99 102 102 100 99 101 -193 -209 -209 -193 149 147 144 147 147 145 147 0 0 0 0 0
    0 0 0 0 0 0 0 0 0 0 0 0 0 0 0 0 0 0 0 0 0 0 0 0 0 0 0 0 0 0 0 0 0 0 0 0 0 0 0 0 0 0 0 0 0 0 0 0 0 0 0 0 0 0 0 0 0 0 0 0 0 0 0 0 0 0 0 0 0 92 92 92 93 94 93 90 92 91 92 91 90 91 92 92 93 92 93 92 93 93 92 91 95 93 99 96 96 96 96 95 96 95 95 93 94 95 95 98 97 96 97 99 99 99 99 97 95 95 98 98 96 96 95 94 95 96 96 94 93 93 95 94 95 94 94 94 96 96 96 95 98 95 98 100 97 98 96 96 96 95 96 94 92 94 93 94 96 96 96 96 95 95 94 94 94 95 94 95 96 97 97 99 98 98 97 97 97 96 96 97 92 96 95 98 98 99 99 97 98 98 99 101 99 99 98 98 99 99 99 96 94 98 96 100 101 101 100 101 102 101 99 99 98 95 94 96 96 96 95 95 95 96 97 97 97 93 91 92 92 91 90 91 91 91 95 95 95 96 96 99 99 99 99 97 101 102 103 104 103 103 103 103 103 102 102 101 102 102 102 103 103 101 102 103 104 104 104 105 106 105 106 108 107 106 106 107 106 104 105 105 102 102 102 103 98 101 97 98 96 -193 96 95 92 92 -193 93 -193 98 103 107 107 106 107 105 113 -209 -209 277 149 147 144 148 146 145 147 0 0 0 0 0
    0 0 0 0 0 0 0 0 0 0 0 0 0 0 0 0 0 0 0 0 0 0 0 0 0 0 0 0 0 0 0 0 0 0 0 0 0 0 0 0 0 0 0 0 0 0 0 0 0 0 0 0 0 0 0 0 0 0 0 0 0 0 0 0 0 0 0 0 0 92 92 93 94 95 94 91 93 92 93 92 91 92 92 92 93 92 92 92 93 92 91 91 95 94 99 96 97 96 96 95 96 95 95 92 93 94 94 97 97 96 96 99 99 99 99 96 94 95 97 97 96 96 96 95 95 96 96 94 93 93 94 94 94 95 95 95 97 97 98 96 99 96 99 100 98 99 97 97 98 96 98 95 93 96 94 96 97 96 96 96 96 95 95 95 95 96 96 97 98 98 98 100 98 99 98 98 98 97 98 99 94 99 97 99 99 99 100 99 99 100 101 102 100 100 99 99 100 99 99 96 94 98 98 99 101 101 100 102 102 102 101 101 100 99 99 100 100 99 98 98 97 99 99 99 98 96 93 94 94 93 91 92 92 92 97 96 96 96 97 99 99 99 99 96 102 103 104 104 103 103 103 104 104 102 102 102 102 103 103 104 104 103 105 105 106 105 106 107 108 107 107 108 107 107 107 108 106 105 105 105 102 102 103 103 99 102 98 100 100 -193 99 97 94 92 -193 -193 -193 101 107 110 109 108 109 106 114 -209 -209 -193 149 147 145 148 146 146 147 0 0 0 0 0
    0 0 0 0 0 0 0 0 0 0 0 0 0 0 0 0 0 0 0 0 0 0 0 0 0 0 0 0 0 0 0 0 0 0 0 0 0 0 0 0 0 0 0 0 0 0 0 0 0 0 0 0 0 0 0 0 0 0 0 0 0 0 0 0 0 0 0 0 0 93 93 94 95 95 95 91 94 93 94 93 92 94 94 93 94 93 93 92 93 92 90 91 96 94 99 97 98 97 97 96 97 95 95 92 93 94 94 97 96 95 96 98 98 99 99 96 94 94 97 98 96 96 96 95 95 96 96 94 93 93 93 94 94 95 95 96 98 97 98 96 98 95 98 100 97 98 97 97 98 97 98 96 93 97 94 98 98 98 97 97 97 96 97 97 97 98 98 99 99 99 99 100 99 99 98 99 98 98 98 99 95 100 98 99 99 99 100 99 100 101 101 102 100 100 99 100 100 99 99 97 95 98 99 100 101 100 100 101 102 102 101 102 101 101 101 101 101 100 100 99 98 99 99 99 98 98 95 96 96 95 93 94 94 94 99 97 96 97 97 100 99 99 99 96 102 103 104 104 103 104 104 104 104 103 103 103 103 104 105 106 106 106 107 108 108 108 107 108 108 108 108 108 107 107 107 108 106 105 105 105 103 103 103 104 100 102 100 102 104 102 103 101 99 95 -209 -209 -193 104 108 110 110 108 108 106 112 -209 -209 -209 150 147 145 149 146 146 147 0 0 0 0 0</data></disparity>
</opencv_storage>
