<?xml version="1.0"?>
<opencv_storage>
<gps_time_stamp>25829</gps_time_stamp>
<gps_x>-5.3993239402770996e+000</gps_x>
<gps_y>7.2281163930892944e-001</gps_y>
<gps_z>-1.1839827299118042e+000</gps_z>
<image_time_stamp>13764</image_time_stamp>
<disparity type_id="opencv-matrix">
  <rows>78</rows>
  <cols>320</cols>
  <dt>s</dt>
  <data>
    0 0 0 0 0 0 0 0 0 0 0 0 0 0 0 0 0 0 0 0 0 0 0 0 0 0 0 0 0 0 0 0 0 0 0 0 0 0 0 0 0 0 0 0 0 0 0 0 0 0 0 0 0 0 0 0 0 0 0 0 0 0 0 0 0 0 0 0 0 171 172 170 171 171 171 169 169 170 171 170 171 171 171 171 173 173 172 172 173 173 171 173 172 172 172 173 172 172 174 173 171 173 172 173 171 172 172 170 172 173 171 172 172 173 174 174 174 174 173 175 175 173 173 173 171 172 172 172 171 171 172 172 170 171 170 169 170 170 169 169 172 170 169 171 171 172 172 172 172 170 173 174 172 172 171 171 170 170 171 171 170 169 170 170 169 170 170 170 169 170 171 170 172 172 173 173 173 173 173 172 172 171 171 171 170 169 169 169 170 169 170 170 167 168 168 168 168 168 169 169 169 171 171 171 173 172 173 172 172 172 171 171 171 169 170 169 171 171 172 173 173 174 173 173 171 172 173 171 172 171 171 172 171 173 172 171 172 -209 171 171 170 -193 167 167 170 171 173 173 172 172 173 174 173 173 178 -209 -209 -177 -209 -209 -209 -209 -209 -209 -209 -209 -209 -177 -177 -193 369 367 367 367 367 367 369 370 365 365 379 -193 -193 -209 -209 -209 396 -193 393 393 399 397 397 397 399 401 402 -209 -209 -209 -209 -209 -209 -209 -209 -209 -209 -209 -209 -209 408 411 413 414 418 0 0 0 0 0
    0 0 0 0 0 0 0 0 0 0 0 0 0 0 0 0 0 0 0 0 0 0 0 0 0 0 0 0 0 0 0 0 0 0 0 0 0 0 0 0 0 0 0 0 0 0 0 0 0 0 0 0 0 0 0 0 0 0 0 0 0 0 0 0 0 0 0 0 0 171 172 170 171 171 171 169 169 170 171 170 171 171 172 171 174 173 173 172 173 173 171 173 172 172 172 173 172 172 174 173 171 173 172 173 171 172 172 170 171 172 171 172 172 172 174 174 174 174 173 175 176 174 174 174 173 173 173 173 172 172 172 172 170 171 170 169 170 169 169 169 171 170 169 171 171 172 172 172 172 -193 172 174 172 172 171 171 171 171 172 171 170 170 171 170 169 169 170 169 169 169 170 170 171 172 172 173 173 173 173 171 172 171 171 171 170 169 169 169 170 169 170 170 168 168 168 169 169 169 169 169 169 170 170 171 172 172 172 171 171 171 171 171 171 169 170 169 171 171 172 171 172 172 172 172 171 172 172 171 172 171 171 172 171 173 171 171 171 170 171 170 169 169 166 167 171 172 173 173 172 173 174 175 175 175 179 -193 -209 -177 -177 -209 -209 -209 -209 -193 -209 -209 -209 -177 -193 -193 369 367 367 367 366 367 368 369 364 -193 378 -193 -209 307 314 -209 397 -193 394 391 395 393 394 393 394 395 -193 -209 -209 -209 -209 -209 -209 -209 -209 -209 -209 -209 -209 -209 409 412 -193 414 419 0 0 0 0 0
    0 0 0 0 0 0 0 0 0 0 0 0 0 0 0 0 0 0 0 0 0 0 0 0 0 0 0 0 0 0 0 0 0 0 0 0 0 0 0 0 0 0 0 0 0 0 0 0 0 0 0 0 0 0 0 0 0 0 0 0 0 0 0 0 0 0 0 0 0 173 172 171 172 171 171 169 169 170 171 170 170 170 171 171 174 173 173 172 172 173 171 172 172 171 172 173 172 172 174 174 172 174 172 173 171 171 172 170 171 172 170 171 171 172 174 174 174 174 173 175 175 174 175 174 173 173 173 173 173 172 172 172 170 170 169 169 169 -193 168 168 170 170 169 171 171 172 172 172 -193 -193 172 174 171 171 170 171 170 170 172 171 170 170 171 170 168 168 169 169 168 169 170 169 171 172 172 172 173 173 173 171 172 171 171 171 171 170 170 169 170 169 170 171 169 169 168 169 169 169 169 169 169 170 170 171 172 171 171 171 171 171 170 171 171 169 169 169 171 171 171 170 171 171 171 172 170 171 172 171 172 171 171 172 171 172 171 171 171 170 170 170 169 168 166 167 169 171 172 172 172 174 174 175 174 175 179 181 -209 -177 -209 -193 -209 -209 -209 -209 -177 -209 -209 -209 -193 372 369 366 366 366 365 366 367 368 364 -193 378 -193 -209 304 311 -209 398 -209 395 388 390 389 391 391 392 394 -209 -209 585 584 -177 -177 -177 -209 -209 -209 -209 -209 -209 410 409 411 412 412 416 0 0 0 0 0
    0 0 0 0 0 0 0 0 0 0 0 0 0 0 0 0 0 0 0 0 0 0 0 0 0 0 0 0 0 0 0 0 0 0 0 0 0 0 0 0 0 0 0 0 0 0 0 0 0 0 0 0 0 0 0 0 0 0 0 0 0 0 0 0 0 0 0 0 0 176 174 171 172 172 171 169 168 169 171 169 170 170 170 171 173 173 172 171 171 172 171 172 171 171 172 173 172 173 175 174 173 174 173 173 170 171 171 169 170 171 170 171 171 172 174 174 173 173 172 174 -193 -193 -193 -193 172 173 174 173 173 172 172 172 170 170 169 168 169 -193 168 168 170 170 170 172 172 172 172 173 -193 -193 172 174 171 171 170 171 170 170 171 171 169 169 171 169 168 167 168 -193 -209 -209 -209 169 171 -193 -193 -193 173 172 173 172 172 171 171 171 171 170 170 169 170 169 171 171 170 169 169 170 170 170 169 169 169 170 170 170 171 171 171 171 171 171 170 171 171 169 169 169 170 170 170 170 170 170 170 171 169 170 171 171 171 171 171 173 172 173 172 172 172 171 171 171 169 169 167 166 167 168 170 171 171 173 174 176 174 176 180 182 -209 -209 -209 -209 -209 -209 -209 -209 -177 -209 -209 -193 369 372 369 367 367 366 365 366 368 367 364 369 379 -209 -209 304 309 -209 397 -209 393 385 386 388 391 391 393 396 -209 581 585 583 -177 284 -177 -209 -209 -209 -209 -209 216 -193 409 411 411 411 416 0 0 0 0 0
    0 0 0 0 0 0 0 0 0 0 0 0 0 0 0 0 0 0 0 0 0 0 0 0 0 0 0 0 0 0 0 0 0 0 0 0 0 0 0 0 0 0 0 0 0 0 0 0 0 0 0 0 0 0 0 0 0 0 0 0 0 0 0 0 0 0 0 0 0 179 177 173 174 174 172 169 168 169 170 169 169 170 170 170 173 172 172 171 171 171 171 172 171 171 172 173 173 173 176 175 174 175 173 173 170 171 171 169 170 171 170 171 171 172 174 174 173 173 172 174 -193 -193 -193 -209 -193 174 174 174 174 172 172 172 170 170 169 168 168 -193 168 168 170 170 170 172 172 172 172 173 -193 -177 -193 -193 171 171 170 171 171 170 171 171 169 169 -209 -209 167 167 168 -209 -209 -209 -193 -193 -193 -193 -193 -193 173 172 173 172 172 171 171 171 171 170 170 169 170 169 171 171 170 169 169 172 171 170 169 169 169 170 169 170 170 170 170 171 171 170 170 171 171 168 168 169 170 169 169 169 170 170 170 170 169 169 170 170 171 171 171 173 173 173 173 173 172 172 172 173 171 170 169 168 168 169 171 172 172 174 174 176 174 178 182 -209 -209 -209 -209 -209 -209 -209 -209 -209 -209 -193 -209 364 370 372 368 366 367 367 365 366 368 366 363 373 380 -209 300 307 -193 -209 -193 -177 -177 387 390 390 389 390 -209 -209 -209 585 588 584 -193 284 284 -193 -209 -209 -209 217 219 -209 -209 -209 -193 413 418 0 0 0 0 0
    0 0 0 0 0 0 0 0 0 0 0 0 0 0 0 0 0 0 0 0 0 0 0 0 0 0 0 0 0 0 0 0 0 0 0 0 0 0 0 0 0 0 0 0 0 0 0 0 0 0 0 0 0 0 0 0 0 0 0 0 0 0 0 0 0 0 0 0 0 181 179 175 175 178 173 168 166 168 169 -209 -193 -193 -193 170 174 172 172 170 171 170 170 171 171 170 171 174 173 174 177 176 175 176 174 174 170 171 171 169 170 171 170 -193 -193 171 174 173 173 173 172 174 -193 -209 -209 -209 -193 176 175 176 175 173 173 172 170 170 168 168 168 -193 167 167 169 170 170 173 172 -193 -193 -193 -193 -177 -193 -193 -193 -193 170 171 171 170 172 171 -209 -209 -193 -209 -193 -193 -209 -209 -209 -209 -193 -209 -193 -193 -193 -193 173 172 173 171 172 170 170 171 170 169 170 169 170 169 171 172 170 170 170 173 172 171 169 170 169 170 169 169 170 170 170 170 170 170 169 170 170 167 167 168 169 169 169 169 170 170 170 170 168 169 169 170 171 171 171 173 172 173 173 173 173 173 173 173 171 171 170 169 169 170 171 172 172 174 174 175 173 178 182 -209 -177 -209 -209 -209 -209 -177 -209 -209 -209 -209 -209 365 368 370 366 365 366 366 364 366 366 365 -193 -193 -209 -193 -193 308 -209 385 388 382 386 382 385 382 383 386 390 -209 -209 592 594 -177 -193 285 283 -209 -209 -209 -209 219 218 -209 -209 -209 -193 414 418 0 0 0 0 0
    0 0 0 0 0 0 0 0 0 0 0 0 0 0 0 0 0 0 0 0 0 0 0 0 0 0 0 0 0 0 0 0 0 0 0 0 0 0 0 0 0 0 0 0 0 0 0 0 0 0 0 0 0 0 0 0 0 0 0 0 0 0 0 0 0 0 0 0 0 187 -193 177 180 183 176 167 165 167 -193 -225 -209 -193 -193 170 177 174 172 170 171 169 -193 171 171 -193 171 175 174 174 178 177 175 176 176 173 -193 -209 -209 -209 -193 -209 -209 0 0 171 174 173 173 -193 172 -209 -193 352 353 -193 -193 -193 -193 179 179 175 174 173 171 170 168 168 168 -193 166 166 168 170 170 173 -193 -193 -193 -177 -177 -177 -209 859 869 -193 -193 172 171 170 172 -209 -209 -209 -209 -209 -193 45 -209 -209 -209 459 -193 -209 172 -193 -193 -193 173 172 173 170 171 170 170 171 -193 169 170 169 170 170 171 173 171 171 172 174 173 172 170 170 169 170 169 169 169 170 170 170 170 170 169 170 169 167 167 168 169 169 169 169 170 170 170 170 168 168 169 169 170 170 171 172 172 173 173 173 173 173 173 174 172 172 171 170 169 170 172 173 173 176 175 175 173 179 182 -209 -209 -177 -209 -209 -209 -177 -209 -209 -209 -209 -209 365 367 369 365 365 365 366 364 366 366 365 -209 -193 -209 -193 -193 310 -209 382 379 379 381 379 381 378 380 383 386 386 383 -193 -209 -209 -193 285 284 285 -209 -209 -209 -209 218 -209 -209 -209 -193 413 416 0 0 0 0 0
    0 0 0 0 0 0 0 0 0 0 0 0 0 0 0 0 0 0 0 0 0 0 0 0 0 0 0 0 0 0 0 0 0 0 0 0 0 0 0 0 0 0 0 0 0 0 0 0 0 0 0 0 0 0 0 0 0 0 0 0 0 0 0 0 0 0 0 0 0 -225 -225 -225 -225 -225 -225 -225 -225 -225 -225 -225 -225 -225 -225 182 -193 -193 -193 169 170 169 -193 171 170 -209 172 179 174 175 180 178 178 177 177 175 -209 -209 -193 372 373 -193 -193 0 0 -193 175 -193 -193 441 -193 -193 355 354 355 -193 -193 -193 -193 181 181 176 174 173 -177 -177 167 -193 -193 -193 166 166 167 -193 -193 -193 -177 -177 405 400 400 -193 -209 -193 865 -209 -209 172 172 172 174 -209 -209 -209 335 -209 -177 44 -193 -209 -193 -193 -193 -209 173 178 -193 -193 175 173 174 171 172 171 170 171 -193 170 170 170 171 170 171 173 171 172 172 175 174 172 -193 170 169 169 168 169 169 169 170 170 170 170 169 170 170 167 167 168 169 169 169 169 170 170 170 170 167 168 167 169 170 170 171 172 172 172 173 173 173 173 173 173 172 172 171 170 168 169 171 172 173 177 175 175 172 179 182 -209 -209 -177 -193 -209 -193 -177 -209 -209 -209 -209 -209 364 366 366 364 364 365 365 363 365 365 364 -209 372 -193 -193 -193 -209 -209 378 376 377 377 377 378 376 379 382 385 385 382 381 383 382 -209 -193 -193 -209 -209 -209 -209 -209 -209 -209 -209 -209 -209 409 411 0 0 0 0 0
    0 0 0 0 0 0 0 0 0 0 0 0 0 0 0 0 0 0 0 0 0 0 0 0 0 0 0 0 0 0 0 0 0 0 0 0 0 0 0 0 0 0 0 0 0 0 0 0 0 0 0 0 0 0 0 0 0 0 0 0 0 0 0 0 0 0 0 0 0 -225 -225 -225 -225 -225 -225 -225 -225 -225 -225 -225 -225 -225 -225 -225 -225 -225 -225 -225 -225 -225 -225 -225 -225 -225 -193 -193 -193 176 181 178 -177 -177 180 178 -193 -209 -209 -193 -193 525 526 -193 -193 -209 -193 -209 442 442 442 -225 -225 -225 -225 367 376 380 379 384 183 179 -193 -193 -193 -209 165 -193 -193 -193 165 -193 165 397 398 401 400 399 400 394 394 -209 -209 -225 852 851 -193 -209 -209 -209 -209 -209 -193 -193 340 -209 43 44 55 -209 460 468 -193 68 -209 -193 -193 -193 -193 -193 -193 172 173 171 171 172 171 170 171 170 171 169 170 172 171 171 173 176 176 -193 -209 -193 168 168 167 167 168 169 169 170 170 169 169 170 170 166 167 168 169 169 168 169 170 169 170 169 167 167 166 167 169 169 170 172 172 172 173 173 173 172 172 173 171 171 171 170 168 168 170 172 172 177 175 174 171 179 182 -209 -209 -177 -209 -209 -209 -177 -209 -209 -209 -209 -209 362 364 364 363 363 364 364 362 365 365 363 361 372 -193 375 -193 -209 -209 379 376 378 376 376 376 375 378 381 384 385 382 382 383 382 383 -209 -209 -209 -209 -209 -209 -209 -209 -209 -209 -209 402 404 407 0 0 0 0 0
    0 0 0 0 0 0 0 0 0 0 0 0 0 0 0 0 0 0 0 0 0 0 0 0 0 0 0 0 0 0 0 0 0 0 0 0 0 0 0 0 0 0 0 0 0 0 0 0 0 0 0 0 0 0 0 0 0 0 0 0 0 0 0 0 0 0 0 0 0 -225 -225 -225 -225 -225 -225 -225 -225 -225 -225 -225 -225 -225 -225 -225 -225 -225 -225 -225 -225 -225 -225 -225 -225 -225 -225 -225 -225 -225 -225 -225 -225 -225 -225 -225 -225 -225 -225 -225 -225 -225 -225 -225 -225 -225 -225 -225 -225 -225 -225 -225 -225 -225 -225 -225 -225 -225 -225 -225 -193 389 390 -193 392 -209 -193 -193 -209 -209 -193 0 9 14 15 -209 393 -193 -225 -225 -225 -225 -225 -225 -225 -193 -209 -209 -209 -193 330 332 -177 -177 -209 -193 41 41 53 -209 -177 -177 -193 67 468 469 468 -193 -193 468 460 -193 -193 171 171 172 172 171 171 170 170 169 171 173 172 172 181 180 -193 -193 -193 -193 159 163 163 165 -193 167 168 169 170 169 170 171 171 166 167 169 169 169 168 168 169 168 169 168 165 165 163 165 168 169 170 172 172 172 173 174 173 172 172 173 171 171 171 169 168 168 169 171 171 176 174 173 170 179 182 -209 -209 -193 -209 -209 -193 -177 -209 -209 -209 -209 -193 360 362 362 362 362 362 363 361 364 364 361 362 374 -193 376 -193 379 380 382 379 376 375 375 375 374 376 379 381 383 382 382 382 381 -193 259 -209 -209 -209 -209 -209 -209 -209 -209 -209 -209 398 400 405 0 0 0 0 0
    0 0 0 0 0 0 0 0 0 0 0 0 0 0 0 0 0 0 0 0 0 0 0 0 0 0 0 0 0 0 0 0 0 0 0 0 0 0 0 0 0 0 0 0 0 0 0 0 0 0 0 0 0 0 0 0 0 0 0 0 0 0 0 0 0 0 0 0 0 -225 -225 -225 -225 -225 -225 -225 -225 -225 -225 -225 -225 -225 -225 -225 -225 -225 -225 -225 -225 -225 -225 -225 -225 -225 -225 -225 -225 -225 -225 -225 -225 -225 -225 -225 -225 -225 -225 -225 -225 -225 -225 -225 -225 -225 -225 -225 -225 -225 -225 -225 -225 -225 -225 -225 -225 -225 -225 -225 -225 -225 -225 -225 -225 -225 -225 -225 -225 -225 -225 -225 -225 -225 -225 -225 -225 -225 -225 -225 -225 -225 -225 -225 -225 -225 -225 -225 -225 -209 -193 337 -193 -209 -177 24 38 37 43 42 53 57 57 63 -225 -225 -225 -225 -225 -225 -225 -225 -225 -225 -225 171 173 172 172 171 172 171 172 176 175 175 -209 -193 -193 -193 131 136 148 157 -193 163 -177 168 169 170 170 170 170 171 172 167 168 170 169 170 170 169 170 169 169 168 163 161 156 160 166 168 170 171 172 172 174 173 172 172 172 173 171 171 172 170 169 168 170 171 172 176 173 172 168 179 183 -209 -209 -209 -177 -209 -177 -177 -193 -209 -209 -177 -193 358 361 360 360 360 361 362 360 363 363 354 364 374 376 376 377 380 380 380 378 375 375 374 373 373 375 377 378 380 381 381 380 378 -209 -193 -209 -209 -209 -209 -209 -209 -177 -177 -209 -209 -193 399 404 0 0 0 0 0
    0 0 0 0 0 0 0 0 0 0 0 0 0 0 0 0 0 0 0 0 0 0 0 0 0 0 0 0 0 0 0 0 0 0 0 0 0 0 0 0 0 0 0 0 0 0 0 0 0 0 0 0 0 0 0 0 0 0 0 0 0 0 0 0 0 0 0 0 0 -225 -225 -225 -225 -225 -225 -225 -225 -225 -225 -225 -225 -225 -225 -225 -225 -225 -225 -225 -225 -225 -225 -225 -225 -225 -225 -225 -225 -225 -225 -225 -225 -225 -225 -225 -225 -225 -225 -225 -225 -225 -225 -225 -225 -225 -225 -225 -225 -225 -225 -225 -225 -225 -225 -225 -225 -225 -225 -225 -225 -225 -225 -225 -225 -225 -225 -225 -225 -225 -225 -225 -225 -225 -225 -225 -225 -225 -225 -225 -225 -225 -225 -225 -225 -225 -225 -225 -225 -225 -225 -225 -225 -225 -225 -225 -225 -225 -225 -225 -225 -225 -225 -225 -225 -225 -225 -225 -225 -225 -225 -225 -225 -225 -225 -225 -225 -225 -225 -225 -225 -225 -225 -225 -225 -225 -225 -225 -225 -225 128 133 140 -209 -193 159 -177 167 168 170 171 170 171 171 172 169 168 170 170 170 170 -225 -225 -225 169 165 158 155 153 159 167 169 170 172 173 173 175 174 173 173 172 173 172 173 174 172 171 -209 -209 -209 -209 -193 -209 -193 167 179 -209 -193 -177 -193 -209 -209 -209 -209 -193 -209 -209 -209 351 356 360 359 360 360 361 362 361 365 366 361 369 -193 -193 376 -193 379 378 377 377 374 373 373 372 371 373 375 376 376 379 379 -193 376 -209 -209 -209 -209 -209 -209 -209 -209 -177 -177 -209 -209 -209 399 404 0 0 0 0 0
    0 0 0 0 0 0 0 0 0 0 0 0 0 0 0 0 0 0 0 0 0 0 0 0 0 0 0 0 0 0 0 0 0 0 0 0 0 0 0 0 0 0 0 0 0 0 0 0 0 0 0 0 0 0 0 0 0 0 0 0 0 0 0 0 0 0 0 0 0 -225 -225 -225 -225 -225 -225 -225 -225 -225 -225 -225 -225 -225 -225 -225 -225 -225 -225 -225 -225 -225 -225 -225 -225 -225 -225 -225 -225 -225 -225 -225 -225 -225 -225 -225 -225 -225 -225 -225 -225 -225 -225 -225 -225 -225 -225 -225 -225 -225 -225 -225 -225 -225 -225 -225 -225 -225 -225 -225 -225 -225 -225 -225 -225 -225 -225 -225 -225 -225 -225 -225 -225 -225 -225 -225 -225 -225 -225 -225 -225 -225 -225 -225 -225 -225 -225 -225 -225 -225 -225 -225 -225 -225 -225 -225 -225 -225 -225 -225 -225 -225 -225 -225 -225 -225 -225 -225 -225 -225 -225 -225 -225 -225 -225 -225 -225 -225 -225 -225 -225 -225 -225 -225 -225 -225 -225 -225 -225 -225 -225 -225 -225 -225 -225 -225 -225 -225 -225 -225 -225 -225 -225 -225 -225 -225 -225 -225 -225 -225 -225 -225 -225 -225 -225 -225 -225 135 143 155 166 168 169 170 171 172 174 174 173 173 173 173 173 177 182 -193 -209 -209 -209 223 223 225 226 225 225 -209 -209 -177 -177 -177 -177 -193 -209 -209 -209 -209 -209 -209 349 353 356 356 356 357 358 357 360 364 365 362 367 372 373 375 376 378 377 377 377 373 372 372 371 370 371 373 373 372 377 376 375 375 377 -193 -209 -209 -209 -209 -209 -209 -209 -177 -209 -209 -193 400 405 0 0 0 0 0
    0 0 0 0 0 0 0 0 0 0 0 0 0 0 0 0 0 0 0 0 0 0 0 0 0 0 0 0 0 0 0 0 0 0 0 0 0 0 0 0 0 0 0 0 0 0 0 0 0 0 0 0 0 0 0 0 0 0 0 0 0 0 0 0 0 0 0 0 0 -225 -225 -225 -225 -225 -225 -225 -225 -225 -225 -225 -225 -225 -225 -225 -225 -225 -225 -225 -225 -225 -225 -225 -225 -225 -225 -225 -225 -225 -225 -225 -225 -225 -225 -225 -225 -225 -225 -225 -225 -225 -225 -225 -225 -225 -225 -225 -225 -225 -225 -225 -225 -225 -225 -225 -225 -225 -225 -225 -225 -225 -225 -225 -225 -225 -225 -225 -225 -225 -225 -225 -225 -225 -225 -225 -225 -225 -225 -225 -225 -225 -225 -225 -225 -225 -225 -225 -225 -225 -225 -225 -225 -225 -225 -225 -225 -225 -225 -225 -225 -225 -225 -225 -225 -225 -225 -225 -225 -225 -225 -225 -225 -225 -225 -225 -225 -225 -225 -225 -225 -225 -225 -225 -225 -225 -225 -225 -225 -225 -225 -225 -225 -225 -225 -225 -225 -225 -225 -225 -225 -225 -225 -225 -225 -225 -225 -225 -225 -225 -225 -225 -225 -225 -225 -225 -225 -225 -225 -225 -225 -225 -225 -225 -225 -225 -225 -225 -225 -225 -225 -225 -225 -225 -225 -225 -225 -225 229 222 223 224 226 226 226 225 227 222 234 245 -209 -209 -209 -209 -209 -209 -209 -209 348 350 350 350 350 351 352 349 354 363 362 365 366 370 371 374 375 376 376 376 376 372 370 370 370 370 370 371 372 371 376 376 375 374 377 382 -209 -209 -209 -209 -209 -209 -209 -209 -209 -209 -193 401 405 0 0 0 0 0
    0 0 0 0 0 0 0 0 0 0 0 0 0 0 0 0 0 0 0 0 0 0 0 0 0 0 0 0 0 0 0 0 0 0 0 0 0 0 0 0 0 0 0 0 0 0 0 0 0 0 0 0 0 0 0 0 0 0 0 0 0 0 0 0 0 0 0 0 0 -225 -225 -225 -225 -225 -225 -225 -225 -225 -225 -225 -225 -225 -225 -225 -225 -225 -225 -225 -225 -225 -225 -225 -225 -225 -225 -225 -225 -225 -225 -225 -225 -225 -225 -225 -225 -225 -225 -225 -225 -225 -225 -225 -225 -225 -225 -225 -225 -225 -225 -225 -225 -225 -225 -225 -225 -225 -225 -225 -225 -225 -225 -225 -225 -225 -225 -225 -225 -225 -225 -225 -225 -225 -225 -225 -225 -225 -225 -225 -225 -225 -225 -225 -225 -225 -225 -225 -225 -225 -225 -225 -225 -225 -225 -225 -225 -225 -225 -225 -225 -225 -225 -225 -225 -225 -225 -225 -225 -225 -225 -225 -225 -225 -225 -225 -225 -225 -225 -225 -225 -225 -225 -225 -225 -225 -225 -225 -225 -225 -225 -225 -225 -225 -225 -225 -225 -225 -225 -225 -225 -225 -225 -225 -225 -225 -225 -225 -225 -225 -225 -225 -225 -225 -225 -225 -225 -225 -225 -225 -225 -225 -225 -225 -225 -225 -225 -225 -225 -225 -225 -225 -225 -225 -225 -225 -225 -225 229 223 223 225 226 226 226 226 229 222 234 244 -225 -225 -225 -225 -225 -225 -225 542 345 346 346 346 346 346 347 345 347 362 367 367 368 -193 370 373 375 374 375 375 375 371 369 369 370 369 370 371 372 369 375 374 373 370 377 382 -209 -209 -209 -209 -209 -209 -209 -209 -209 -209 396 401 405 0 0 0 0 0
    0 0 0 0 0 0 0 0 0 0 0 0 0 0 0 0 0 0 0 0 0 0 0 0 0 0 0 0 0 0 0 0 0 0 0 0 0 0 0 0 0 0 0 0 0 0 0 0 0 0 0 0 0 0 0 0 0 0 0 0 0 0 0 0 0 0 0 0 0 -225 -225 -225 -225 -225 -225 -225 -225 -225 -225 -225 -225 -225 -225 -225 -225 -225 -225 -225 -225 -225 -225 -225 -225 -225 -225 -225 -225 -225 -225 -225 -225 -225 -225 -225 -225 -225 -225 -225 -225 -225 -225 -225 -225 -225 -225 -225 -225 -225 -225 -225 -225 -225 -225 -225 -225 -225 -225 -225 -225 -225 -225 -225 -225 -225 -225 -225 -225 -225 -225 -225 -225 -225 -225 -225 -225 -225 -225 -225 -225 -225 -225 -225 -225 -225 -225 -225 -225 -225 -225 -225 -225 -225 -225 -225 -225 -225 -225 -225 -225 -225 -225 -225 -225 -225 -225 -225 -225 -225 -225 -225 -225 -225 -225 -225 -225 -225 -225 -225 -225 -225 -225 -225 -225 -225 -225 -225 -225 -225 -225 -225 -225 -225 -225 -225 -225 -225 -225 -225 -225 -225 -225 -225 -225 -225 -225 -225 -225 -225 -225 -225 -225 -225 -225 -225 -225 -225 -225 -225 -225 -225 -225 -225 -225 -225 -225 -225 -225 -225 -225 -225 -225 -225 -225 -225 -225 -225 229 223 223 225 226 226 226 226 229 222 234 -225 -225 -225 -225 -225 -225 -225 -225 342 344 345 345 345 345 345 345 345 349 362 364 364 365 367 368 372 374 373 375 375 374 370 369 369 370 368 369 370 371 368 374 370 370 365 375 -209 -209 -209 -209 -209 -209 -209 -177 -177 -177 -209 397 401 405 0 0 0 0 0
    0 0 0 0 0 0 0 0 0 0 0 0 0 0 0 0 0 0 0 0 0 0 0 0 0 0 0 0 0 0 0 0 0 0 0 0 0 0 0 0 0 0 0 0 0 0 0 0 0 0 0 0 0 0 0 0 0 0 0 0 0 0 0 0 0 0 0 0 0 -225 -225 -225 -225 -225 -225 -225 -225 -225 -225 -225 -225 -225 -225 -225 -225 -225 -225 -225 -225 -225 -225 -225 -225 -225 -225 -225 -225 -225 -225 -225 -225 -225 -225 -225 -225 -225 -225 -225 -225 -225 -225 -225 -225 -225 -225 -225 -225 -225 -225 -225 -225 -225 -225 -225 -225 -225 -225 -225 -225 -225 -225 -225 -225 -225 -225 -225 -225 -225 -225 -225 -225 -225 -225 -225 -225 -225 -225 -225 -225 -225 -225 -225 -225 -225 -225 -225 -225 -225 -225 -225 -225 -225 -225 -225 -225 -225 -225 -225 -225 -225 -225 -225 -225 -225 -225 -225 -225 -225 -225 -225 -225 -225 -225 -225 -225 -225 -225 -225 -225 -225 -225 -225 -225 -225 -225 -225 -225 -225 -225 -225 -225 -225 -225 -225 -225 -225 -225 -225 -225 -225 -225 -225 -225 -225 -225 -225 -225 -225 -225 -225 -225 -225 -225 -225 -225 -225 -225 -225 -225 -225 -225 -225 -225 -225 -225 -225 -225 -225 -225 -225 -225 -225 -225 -225 -225 -225 229 223 223 225 226 226 226 226 229 223 234 -225 -225 -225 -225 -225 -225 -225 -225 340 342 343 343 343 344 344 344 344 348 356 357 358 359 361 364 371 372 374 376 375 374 369 369 369 371 368 367 368 369 365 370 366 366 361 366 -209 -209 -209 -209 -209 -209 -209 -209 -209 -209 -209 399 403 406 0 0 0 0 0
    0 0 0 0 0 0 0 0 0 0 0 0 0 0 0 0 0 0 0 0 0 0 0 0 0 0 0 0 0 0 0 0 0 0 0 0 0 0 0 0 0 0 0 0 0 0 0 0 0 0 0 0 0 0 0 0 0 0 0 0 0 0 0 0 0 0 0 0 0 -225 -225 -225 -225 -225 -225 -225 -225 -225 -225 -225 -225 -225 -225 -225 -225 -225 -225 -225 -225 -225 -225 -225 -225 -225 -225 -225 -225 -225 -225 -225 -225 -225 -225 -225 -225 -225 -225 -225 -225 -225 -225 -225 -225 -225 -225 -225 -225 -225 -225 -225 -225 -225 -225 -225 -225 -225 -225 -225 -225 -225 -225 -225 -225 -225 -225 -225 -225 -225 -225 -225 -225 -225 -225 -225 -225 -225 -225 -225 -225 -225 -225 -225 -225 -225 -225 -225 -225 -225 -225 -225 -225 -225 -225 -225 -225 -225 -225 -225 -225 -225 -225 -225 -225 -225 -225 -225 -225 -225 -225 -225 -225 -225 -225 -225 -225 -225 -225 -225 -225 -225 -225 -225 -225 -225 -225 -225 -225 -225 -225 -225 -225 -225 -225 -225 -225 -225 -225 -225 -225 -225 -225 -225 -225 -225 -225 -225 -225 -225 -225 -225 -225 -225 -225 -225 -225 -225 -225 -225 -225 -225 -225 -225 -225 -225 -225 -225 -225 -225 -225 -225 -225 -225 -225 -225 -225 -225 229 223 223 225 226 226 226 226 229 223 234 -225 -225 -225 -225 -225 -225 -225 -225 340 342 342 342 343 344 344 344 345 356 361 361 361 361 362 364 368 371 373 376 376 374 369 369 369 371 368 367 367 367 364 366 364 365 -209 -209 -209 -209 -209 -209 -193 -177 -177 -177 -177 -177 401 402 405 407 0 0 0 0 0
    0 0 0 0 0 0 0 0 0 0 0 0 0 0 0 0 0 0 0 0 0 0 0 0 0 0 0 0 0 0 0 0 0 0 0 0 0 0 0 0 0 0 0 0 0 0 0 0 0 0 0 0 0 0 0 0 0 0 0 0 0 0 0 0 0 0 0 0 0 -225 -225 -225 -225 -225 -225 -225 -225 -225 -225 -225 -225 -225 -225 -225 -225 -225 -225 -225 -225 -225 -225 -225 -225 -225 -225 -225 -225 -225 -225 -225 -225 -225 -225 -225 -225 -225 -225 -225 -225 -225 -225 -225 -225 -225 -225 -225 -225 -225 -225 -225 -225 -225 -225 -225 -225 -225 -225 -225 -225 -225 -225 -225 -225 -225 -225 -225 -225 -225 -225 -225 -225 -225 -225 -225 -225 -225 -225 -225 -225 -225 -225 -225 -225 -225 -225 -225 -225 -225 -225 -225 -225 -225 -225 -225 -225 -225 -225 -225 -225 -225 -225 -225 -225 -225 -225 -225 -225 -225 -225 -225 -225 -225 -225 -225 -225 -225 -225 -225 -225 -225 -225 -225 -225 -225 -225 -225 -225 -225 -225 -225 -225 -225 -225 -225 -225 -225 -225 -225 -225 -225 -225 -225 -225 -225 -225 -225 -225 -225 -225 -225 -225 -225 -225 -225 -225 -225 -225 -225 -225 -225 -225 -225 -225 -225 -225 -225 -225 -225 -225 -225 -225 -225 -225 -225 -225 -225 229 223 223 225 226 226 226 226 229 223 234 -225 -225 -225 -225 -225 -225 -225 -225 341 343 343 343 344 344 346 346 347 359 361 362 362 362 362 364 366 367 371 376 376 373 370 370 370 372 368 366 366 365 363 365 364 365 -209 -209 -209 -209 -209 -209 -193 -193 -193 -177 -177 -177 403 404 406 408 0 0 0 0 0
    0 0 0 0 0 0 0 0 0 0 0 0 0 0 0 0 0 0 0 0 0 0 0 0 0 0 0 0 0 0 0 0 0 0 0 0 0 0 0 0 0 0 0 0 0 0 0 0 0 0 0 0 0 0 0 0 0 0 0 0 0 0 0 0 0 0 0 0 0 -225 -225 -225 -225 -225 -225 -225 -225 -225 -225 -225 -225 -225 -225 -225 -225 -225 -225 -225 -225 -225 -225 -225 -225 -225 -225 -225 -225 -225 -225 -225 -225 -225 -225 -225 -225 -225 -225 -225 -225 -225 -225 -225 -225 -225 -225 -225 -225 -225 -225 -225 -225 -225 -225 -225 -225 -225 -225 -225 -225 -225 -225 -225 -225 -225 -225 -225 -225 -225 -225 -225 -225 -225 -225 -225 -225 -225 -225 -225 -225 -225 -225 -225 -225 -225 -225 -225 -225 -225 -225 -225 -225 -225 -225 -225 -225 -225 -225 -225 -225 -225 -225 -225 -225 -225 -225 -225 -225 -225 -225 -225 -225 -225 -225 -225 -225 -225 -225 -225 -225 -225 -225 -225 -225 -225 -225 -225 -225 -225 -225 -225 -225 -225 -225 -225 -225 -225 -225 -225 -225 -225 -225 -225 -225 -225 -225 -225 -225 -225 -225 -225 -225 -225 -225 -225 -225 -225 -225 -225 -225 -225 -225 -225 -225 -225 -225 -225 -225 -225 -225 -225 -225 -225 -225 -225 -225 -225 229 223 223 225 226 226 226 226 229 223 234 -225 -225 -225 -225 -225 -225 -225 -225 343 344 345 345 345 346 347 348 349 358 359 360 361 361 360 362 362 363 366 372 373 371 368 369 369 371 367 366 365 364 363 364 363 364 -209 -209 366 -209 363 -193 -209 -193 -193 -177 -177 -177 404 405 406 408 0 0 0 0 0
    0 0 0 0 0 0 0 0 0 0 0 0 0 0 0 0 0 0 0 0 0 0 0 0 0 0 0 0 0 0 0 0 0 0 0 0 0 0 0 0 0 0 0 0 0 0 0 0 0 0 0 0 0 0 0 0 0 0 0 0 0 0 0 0 0 0 0 0 0 -225 -225 -225 -225 -225 -225 -225 -225 -225 -225 -225 -225 -225 -225 -225 -225 -225 -225 -225 -225 -225 -225 -225 -225 -225 -225 -225 -225 -225 -225 -225 -225 -225 -225 -225 -225 -225 -225 -225 -225 -225 -225 -225 -225 -225 -225 -225 -225 -225 -225 -225 -225 -225 -225 -225 -225 -225 -225 -225 -225 -225 -225 -225 -225 -225 -225 -225 -225 -225 -225 -225 -225 -225 -225 -225 -225 -225 -225 -225 -225 -225 -225 -225 -225 -225 -225 -225 -225 -225 -225 -225 -225 -225 -225 -225 -225 -225 -225 -225 -225 -225 -225 -225 -225 -225 -225 -225 -225 -225 -225 -225 -225 -225 -225 -225 -225 -225 -225 -225 -225 -225 -225 -225 -225 -225 -225 -225 -225 -225 -225 -225 -225 -225 -225 -225 -225 -225 -225 -225 -225 -225 -225 -225 -225 -225 -225 -225 -225 -225 -225 -225 -225 -225 -225 -225 -225 -225 -225 -225 -225 -225 -225 -225 -225 -225 -225 -225 -225 -225 -225 -225 -225 -225 -225 -225 -225 -225 228 222 223 225 226 227 227 227 230 225 234 -225 -225 -225 -225 -225 -225 -225 -225 344 345 346 346 346 347 348 349 351 357 359 360 360 360 360 362 362 364 367 371 372 370 369 369 370 371 367 366 365 364 364 364 364 364 -209 362 365 -209 -193 367 366 -193 -193 -177 -177 -193 404 405 406 408 0 0 0 0 0
    0 0 0 0 0 0 0 0 0 0 0 0 0 0 0 0 0 0 0 0 0 0 0 0 0 0 0 0 0 0 0 0 0 0 0 0 0 0 0 0 0 0 0 0 0 0 0 0 0 0 0 0 0 0 0 0 0 0 0 0 0 0 0 0 0 0 0 0 0 -225 -225 -225 -225 -225 -225 -225 -225 -225 -225 -225 -225 -225 -225 -225 -225 -225 -225 -225 -225 -225 -225 -225 -225 -225 -225 -225 -225 -225 -225 -225 -225 -225 -225 -225 -225 -225 -225 -225 -225 -225 -225 -225 -225 -225 -225 -225 -225 -225 -225 -225 -225 -225 -225 -225 -225 -225 -225 -225 -225 -225 -225 -225 -225 -225 -225 -225 -225 -225 -225 -225 -225 -225 -225 -225 -225 -225 -225 -225 -225 -225 -225 -225 -225 -225 -225 -225 -225 -225 -225 -225 -225 -225 -225 -225 -225 -225 -225 -225 -225 -225 -225 -225 -225 -225 -225 -225 -225 -225 -225 -225 -225 -225 -225 -225 -225 -225 -225 -225 -225 -225 -225 -225 -225 -225 -225 -225 -225 -225 -225 -225 -225 -225 -225 -225 -225 -225 -225 -225 -225 -225 -225 -225 -225 -225 -225 -225 -225 -225 -225 -225 -225 -225 -225 -225 -225 -225 -225 -225 -225 -225 -225 -225 -225 -225 -225 -225 -225 -225 -225 -225 -225 -225 -225 -225 -225 -225 -225 -225 222 224 226 227 227 227 230 226 -225 -225 -225 -225 -225 -225 -225 -225 -225 344 345 345 345 346 347 347 348 351 357 359 360 361 361 361 363 363 366 367 370 372 370 369 369 370 371 367 366 365 364 364 365 364 364 -209 363 366 -209 -193 -193 365 370 375 -193 -193 -193 403 404 406 408 0 0 0 0 0
    0 0 0 0 0 0 0 0 0 0 0 0 0 0 0 0 0 0 0 0 0 0 0 0 0 0 0 0 0 0 0 0 0 0 0 0 0 0 0 0 0 0 0 0 0 0 0 0 0 0 0 0 0 0 0 0 0 0 0 0 0 0 0 0 0 0 0 0 0 -225 -225 -225 -225 -225 -225 -225 -225 -225 -225 -225 -225 -225 -225 -225 -225 -225 -225 -225 -225 -225 -225 -225 -225 -225 -225 -225 -225 -225 -225 -225 -225 -225 -225 -225 -225 -225 -225 -225 -225 -225 -225 -225 -225 -225 -225 -225 -225 -225 -225 -225 -225 -225 -225 -225 -225 -225 -225 -225 -225 -225 -225 -225 -225 -225 -225 -225 -225 -225 -225 -225 -225 -225 -225 -225 -225 -225 -225 -225 -225 -225 -225 -225 -225 -225 -225 -225 -225 -225 -225 -225 -225 -225 -225 -225 -225 -225 -225 -225 -225 -225 -225 -225 -225 -225 -225 -225 -225 -225 -225 -225 -225 -225 -225 -225 -225 -225 -225 -225 -225 -225 -225 -225 -225 -225 -225 -225 -225 -225 -225 -225 -225 -225 -225 -225 -225 -225 -225 -225 -225 -225 -225 -225 -225 -225 -225 -225 -225 -225 -225 -225 -225 -225 -225 -225 -225 -225 -225 -225 -225 -225 -225 -225 -225 -225 -225 -225 -225 -225 -225 -225 -225 -225 -225 -225 -225 -225 -225 -225 -225 -225 -225 -225 -225 -225 -225 -225 -225 -225 -225 -225 -225 -225 -225 -225 -225 343 344 344 344 344 345 346 346 351 358 360 360 361 362 363 364 364 367 368 369 372 370 370 369 370 370 367 366 365 364 365 365 364 364 -209 363 366 -209 -209 -209 -209 369 -209 -209 -209 402 403 404 406 407 0 0 0 0 0
    0 0 0 0 0 0 0 0 0 0 0 0 0 0 0 0 0 0 0 0 0 0 0 0 0 0 0 0 0 0 0 0 0 0 0 0 0 0 0 0 0 0 0 0 0 0 0 0 0 0 0 0 0 0 0 0 0 0 0 0 0 0 0 0 0 0 0 0 0 -225 -225 -225 -225 -225 -225 -225 -225 -225 -225 -225 -225 -225 -225 -225 -225 -225 -225 -225 -225 -225 -225 -225 -225 -225 -225 -225 -225 -225 -225 -225 -225 -225 -225 -225 -225 -225 -225 -225 -225 -225 -225 -225 -225 -225 -225 -225 -225 -225 -225 -225 -225 -225 -225 -225 -225 -225 -225 -225 -225 -225 -225 -225 -225 -225 -225 -225 -225 -225 -225 -225 -225 -225 -225 -225 -225 -225 -225 -225 -225 -225 -225 -225 -225 -225 -225 -225 -225 -225 -225 -225 -225 -225 -225 -225 -225 -225 -225 -225 -225 -225 -225 -225 -225 -225 -225 -225 -225 -225 -225 -225 -225 -225 -225 -225 -225 -225 -225 -225 -225 -225 -225 -225 -225 -225 -225 -225 -225 -225 -225 -225 -225 -225 -225 -225 -225 -225 -225 -225 -225 -225 -225 -225 -225 -225 -225 -225 -225 -225 -225 -225 -225 -225 -225 -225 -225 -225 -225 -225 -225 -225 -225 -225 -225 -225 -225 -225 -225 -225 -225 -225 -225 -225 -225 -225 -225 -225 -225 -225 -225 -225 -225 -225 -225 -225 -225 -225 -225 -225 -225 -225 -225 -225 -225 -225 341 342 342 342 342 343 344 345 346 351 358 361 361 362 362 363 364 365 367 367 368 370 369 369 369 370 369 366 366 365 364 365 366 364 364 -209 -209 365 -209 -209 -209 360 365 -209 -209 -209 400 402 404 406 408 0 0 0 0 0
    0 0 0 0 0 0 0 0 0 0 0 0 0 0 0 0 0 0 0 0 0 0 0 0 0 0 0 0 0 0 0 0 0 0 0 0 0 0 0 0 0 0 0 0 0 0 0 0 0 0 0 0 0 0 0 0 0 0 0 0 0 0 0 0 0 0 0 0 0 -225 -225 -225 -225 -225 -225 -225 -225 -225 -225 -225 -225 -225 -225 -225 -225 -225 -225 -225 -225 -225 -225 -225 -225 -225 -225 -225 -225 -225 -225 -225 -225 -225 -225 -225 -225 -225 -225 -225 -225 -225 -225 -225 -225 -225 -225 -225 -225 -225 -225 -225 -225 -225 -225 -225 -225 -225 -225 -225 -225 -225 -225 -225 -225 -225 -225 -225 -225 -225 -225 -225 -225 -225 -225 -225 -225 -225 -225 -225 -225 -225 -225 -225 -225 -225 -225 -225 -225 -225 -225 -225 -225 -225 -225 -225 -225 -225 -225 -225 -225 -225 -225 -225 -225 -225 -225 -225 -225 -225 -225 -225 -225 -225 -225 -225 -225 -225 -225 -225 -225 -225 -225 -225 -225 -225 -225 -225 -225 -225 -225 -225 -225 -225 -225 -225 -225 -225 -225 -225 -225 -225 -225 -225 -225 -225 -225 -225 -225 -225 -225 -225 -225 -225 -225 -225 -225 -225 -225 -225 -225 -225 -225 -225 -225 -225 -225 -225 -225 -225 -225 -225 -225 -225 -225 -225 -225 -225 -225 -225 -225 -225 -225 -225 -225 -225 -225 -225 -225 -225 -225 -225 -225 -225 -225 -225 341 342 342 342 342 342 343 344 346 353 359 361 362 362 362 363 363 364 367 367 367 369 368 369 370 370 369 366 366 364 364 365 366 364 -193 -209 -209 -209 -209 -209 358 356 362 375 390 -209 397 401 404 407 408 0 0 0 0 0
    0 0 0 0 0 0 0 0 0 0 0 0 0 0 0 0 0 0 0 0 0 0 0 0 0 0 0 0 0 0 0 0 0 0 0 0 0 0 0 0 0 0 0 0 0 0 0 0 0 0 0 0 0 0 0 0 0 0 0 0 0 0 0 0 0 0 0 0 0 -225 -225 -225 -225 -225 -225 -225 -225 -225 -225 -225 -225 -225 -225 -225 -225 -225 -225 -225 -225 -225 -225 -225 -225 -225 -225 -225 -225 -225 -225 -225 -225 -225 -225 -225 -225 -225 -225 -225 -225 -225 -225 -225 -225 -225 -225 -225 -225 -225 -225 -225 -225 -225 -225 -225 -225 -225 -225 -225 -225 -225 -225 -225 -225 -225 -225 -225 -225 -225 -225 -225 -225 -225 -225 -225 -225 -225 -225 -225 -225 -225 -225 -225 -225 -225 -225 -225 -225 -225 -225 -225 -225 -225 -225 -225 -225 -225 -225 -225 -225 -225 -225 -225 -225 -225 -225 -225 -225 -225 -225 -225 -225 -225 -225 -225 -225 -225 -225 -225 -225 -225 -225 -225 -225 -225 -225 -225 -225 -225 -225 -225 -225 -225 -225 -225 -225 -225 -225 -225 -225 -225 -225 -225 -225 -225 -225 -225 -225 -225 -225 -225 -225 -225 -225 -225 -225 -225 -225 -225 -225 -225 -225 -225 -225 -225 -225 -225 -225 -225 -225 -225 -225 -225 -225 -225 -225 -225 -225 -225 -225 -225 -225 -225 -225 -225 -225 -225 -225 -225 -225 -225 -225 -225 -225 -225 340 341 341 341 341 341 342 344 347 354 359 362 362 362 362 363 363 364 367 367 368 369 369 369 371 371 369 365 365 364 364 365 366 363 -193 -193 -193 -209 -209 -209 350 357 -193 -193 -193 -193 -193 399 404 407 408 0 0 0 0 0
    0 0 0 0 0 0 0 0 0 0 0 0 0 0 0 0 0 0 0 0 0 0 0 0 0 0 0 0 0 0 0 0 0 0 0 0 0 0 0 0 0 0 0 0 0 0 0 0 0 0 0 0 0 0 0 0 0 0 0 0 0 0 0 0 0 0 0 0 0 -225 -225 -225 -225 -225 -225 -225 -225 -225 -225 -225 -225 -225 -225 -225 -225 -225 -225 -225 -225 -225 -225 -225 -225 -225 -225 -225 -225 -225 -225 -225 -225 -225 -225 -225 -225 -225 -225 -225 -225 -225 -225 -225 -225 -225 -225 -225 -225 -225 -225 -225 -225 -225 -225 -225 -225 -225 -225 -225 -225 -225 -225 -225 -225 -225 -225 -225 -225 -225 -225 -225 -225 -225 -225 -225 -225 -225 -225 -225 -225 -225 -225 -225 -225 -225 -225 -225 -225 -225 -225 -225 -225 -225 -225 -225 -225 -225 -225 -225 -225 -225 -225 -225 -225 -225 -225 -225 -225 -225 -225 -225 -225 -225 -225 -225 -225 -225 -225 -225 -225 -225 -225 -225 -225 -225 -225 -225 -225 -225 -225 -225 -225 -225 -225 -225 -225 -225 -225 -225 -225 -225 -225 -225 -225 -225 -225 -225 -225 -225 -225 -225 -225 -225 -225 -225 -225 -225 -225 -225 -225 -225 -225 -225 -225 -225 -225 -225 -225 -225 -225 -225 -225 -225 -225 -225 -225 -225 -225 -225 -225 -225 -225 -225 -225 -225 -225 -225 -225 -225 -225 -225 -225 -225 -225 -225 338 340 340 340 340 340 340 342 346 353 358 360 361 362 362 362 362 363 366 366 367 368 368 369 370 370 368 365 365 365 365 366 365 -193 -193 293 292 -209 -209 -209 -193 353 -193 -209 -177 -177 -209 -193 403 407 409 0 0 0 0 0
    0 0 0 0 0 0 0 0 0 0 0 0 0 0 0 0 0 0 0 0 0 0 0 0 0 0 0 0 0 0 0 0 0 0 0 0 0 0 0 0 0 0 0 0 0 0 0 0 0 0 0 0 0 0 0 0 0 0 0 0 0 0 0 0 0 0 0 0 0 -225 -225 -225 -225 -225 -225 -225 -225 -225 -225 -225 -225 -225 -225 -225 -225 -225 -225 -225 -225 -225 -225 -225 -225 -225 -225 -225 -225 -225 -225 -225 -225 -225 -225 -225 -225 -225 -225 -225 -225 -225 -225 -225 -225 -225 -225 -225 -225 -225 -225 -225 -225 -225 -225 -225 -225 -225 -225 -225 -225 -225 -225 -225 -225 -225 -225 -225 -225 -225 -225 -225 -225 -225 -225 -225 -225 -225 -225 -225 -225 -225 -225 -225 -225 -225 -225 -225 -225 -225 -225 -225 -225 -225 -225 -225 -225 -225 -225 -225 -225 -225 -225 -225 -225 -225 -225 -225 -225 -225 -225 -225 -225 -225 -225 -225 -225 -225 -225 -225 -225 -225 -225 -225 -225 -225 -225 -225 -225 -225 -225 -225 -225 -225 -225 -225 -225 -225 -225 -225 -225 -225 -225 -225 -225 -225 -225 -225 -225 -225 -225 -225 -225 -225 -225 -225 -225 -225 -225 -225 -225 -225 -225 -225 -225 -225 -225 -225 -225 -225 -225 -225 -225 -225 -225 -225 -225 -225 -225 -225 -225 -225 -225 -225 -225 -225 -225 -225 -225 -225 -225 -225 -225 -225 -225 -225 334 336 336 336 336 336 335 340 344 351 357 360 360 361 362 362 362 363 366 366 367 368 368 369 370 370 367 365 367 366 367 367 366 -193 -193 293 293 -209 -209 -209 343 351 -193 905 918 -193 -193 395 402 407 409 0 0 0 0 0
    0 0 0 0 0 0 0 0 0 0 0 0 0 0 0 0 0 0 0 0 0 0 0 0 0 0 0 0 0 0 0 0 0 0 0 0 0 0 0 0 0 0 0 0 0 0 0 0 0 0 0 0 0 0 0 0 0 0 0 0 0 0 0 0 0 0 0 0 0 -225 -225 -225 -225 -225 -225 -225 -225 -225 -225 -225 -225 -225 -225 -225 -225 -225 -225 -225 -225 -225 -225 -225 -225 -225 -225 -225 -225 -225 -225 -225 -225 -225 -225 -225 -225 -225 -225 -225 -225 -225 -225 -225 -225 -225 -225 -225 -225 -225 -225 -225 -225 -225 -225 -225 -225 -225 -225 -225 -225 -225 -225 -225 -225 -225 -225 -225 -225 -225 -225 -225 -225 -225 -225 -225 -225 -225 -225 -225 -225 -225 -225 -225 -225 -225 -225 -225 -225 -225 -225 -225 -225 -225 -225 -225 -225 -225 -225 -225 -225 -225 -225 -225 -225 -225 -225 -225 -225 -225 -225 -225 -225 -225 -225 -225 -225 -225 -225 -225 -225 -225 -225 -225 -225 -225 -225 -225 -225 -225 -225 -225 -225 -225 -225 -225 -225 -225 -225 -225 -225 -225 -225 -225 -225 -225 -225 -225 -225 -225 -225 -225 -225 -225 -225 -225 -225 -225 -225 -225 -225 -225 -225 -225 -225 -225 -225 -225 -225 -225 -225 -225 -225 -225 -225 -225 -225 -225 -225 -225 -225 -225 -225 -225 -225 -225 -225 -225 -225 -225 -225 -225 -225 -225 -225 -225 332 332 332 332 332 332 332 335 343 -177 359 362 361 363 363 364 363 365 368 367 367 369 368 368 370 369 367 365 367 367 367 369 -209 295 295 294 295 -209 -209 -209 343 357 -209 -193 918 -193 392 395 401 407 410 0 0 0 0 0
    0 0 0 0 0 0 0 0 0 0 0 0 0 0 0 0 0 0 0 0 0 0 0 0 0 0 0 0 0 0 0 0 0 0 0 0 0 0 0 0 0 0 0 0 0 0 0 0 0 0 0 0 0 0 0 0 0 0 0 0 0 0 0 0 0 0 0 0 0 -225 -225 -225 -225 -225 -225 -225 -225 -225 -225 -225 -225 -225 -225 -225 -225 -225 -225 -225 -225 -225 -225 -225 -225 -225 -225 -225 -225 -225 -225 -225 -225 -225 -225 -225 -225 -225 -225 -225 -225 -225 -225 -225 -225 -225 -225 -225 -225 -225 -225 -225 -225 -225 -225 -225 -225 -225 -225 -225 -225 -225 -225 -225 -225 -225 -225 -225 -225 -225 -225 -225 -225 -225 -225 -225 -225 -225 -225 -225 -225 -225 -225 -225 -225 -225 -225 -225 -225 -225 -225 -225 -225 -225 -225 -225 -225 -225 -225 -225 -225 -225 -225 -225 -225 -225 -225 -225 -225 -225 -225 -225 -225 -225 -225 -225 -225 -225 -225 -225 -225 -225 -225 -225 -225 -225 -225 -225 -225 -225 -225 -225 -225 -225 -225 -225 -225 -225 -225 -225 -225 -225 -225 -225 -225 -225 -225 -225 -225 -225 -225 -225 -225 -225 -225 -225 -225 -225 -225 -225 -225 -225 -225 -225 -225 -225 -225 -225 -225 -225 -225 -225 -225 -225 -225 -225 -225 -225 -225 -225 -225 -225 -225 -225 -225 -225 -225 -225 -225 -225 -225 -225 -225 -225 -225 -225 332 332 332 332 332 332 331 -177 340 350 360 364 362 364 365 365 364 365 368 367 367 369 368 368 369 369 367 365 368 366 367 -193 295 296 296 295 296 -209 -209 -209 343 -209 -209 905 -193 391 394 397 403 408 410 0 0 0 0 0
    0 0 0 0 0 0 0 0 0 0 0 0 0 0 0 0 0 0 0 0 0 0 0 0 0 0 0 0 0 0 0 0 0 0 0 0 0 0 0 0 0 0 0 0 0 0 0 0 0 0 0 0 0 0 0 0 0 0 0 0 0 0 0 0 0 0 0 0 0 -225 -225 -225 -225 -225 -225 -225 -225 -225 -225 -225 -225 -225 -225 -225 -225 -225 -225 -225 -225 -225 -225 -225 -225 -225 -225 -225 -225 -225 -225 -225 -225 -225 -225 -225 -225 -225 -225 -225 -225 -225 -225 -225 -225 -225 -225 -225 -225 -225 -225 -225 -225 -225 -225 -225 -225 -225 -225 -225 -225 -225 -225 -225 -225 -225 -225 -225 -225 -225 -225 -225 -225 -225 -225 -225 -225 -225 -225 -225 -225 -225 -225 -225 -225 -225 -225 -225 -225 -225 -225 -225 -225 -225 -225 -225 -225 -225 -225 -225 -225 -225 -225 -225 -225 -225 -225 -225 -225 -225 -225 -225 -225 -225 -225 -225 -225 -225 -225 -225 -225 -225 -225 -225 -225 -225 -225 -225 -225 -225 -225 -225 -225 -225 -225 -225 -225 -225 -225 -225 -225 -225 -225 -225 -225 -225 -225 -225 -225 -225 -225 -225 -225 -225 -225 -225 -225 -225 -225 -225 -225 -225 -225 -225 -225 -225 -225 -225 -225 -225 -225 -225 -225 -225 -225 -225 -225 -225 -225 -225 -225 -225 -225 -225 -225 -225 -225 -225 -225 -225 -225 -225 -225 -225 -225 -225 332 332 332 332 332 332 332 -177 339 351 360 364 362 365 366 364 363 365 367 366 367 368 367 366 369 368 367 365 367 365 -193 299 296 296 296 296 297 -209 -209 -209 -209 -209 -193 905 -209 393 396 401 406 409 411 0 0 0 0 0
    0 0 0 0 0 0 0 0 0 0 0 0 0 0 0 0 0 0 0 0 0 0 0 0 0 0 0 0 0 0 0 0 0 0 0 0 0 0 0 0 0 0 0 0 0 0 0 0 0 0 0 0 0 0 0 0 0 0 0 0 0 0 0 0 0 0 0 0 0 -225 -225 -225 -225 -225 -225 -225 -225 -225 -225 -225 -225 -225 -225 -225 -225 -225 -225 -225 -225 -225 -225 -225 -225 -225 -225 -225 -225 -225 -225 -225 -225 -225 -225 -225 -225 -225 -225 -225 -225 -225 -225 -225 -225 -225 -225 -225 -225 -225 -225 -225 -225 -225 -225 -225 -225 -225 -225 -225 -225 -225 -225 -225 -225 -225 -225 -225 -225 -225 -225 -225 -225 -225 -225 -225 -225 -225 -225 -225 -225 -225 -225 -225 -225 -225 -225 -225 -225 -225 -225 -225 -225 -225 -225 -225 -225 -225 -225 -225 -225 -225 -225 -225 -225 -225 -225 -225 -225 -225 -225 -225 -225 -225 -225 -225 -225 -225 -225 -225 -225 -225 -225 -225 -225 -225 -225 -225 -225 -225 -225 -225 -225 -225 -225 -225 -225 -225 -225 -225 -225 -225 -225 -225 -225 -225 -225 -225 -225 -225 -225 -225 -225 -225 -225 -225 -225 -225 -225 -225 -225 -225 -225 -225 -225 -225 -225 -225 -225 -225 -225 -225 -225 -225 -225 -225 -225 -225 -225 -225 -225 -225 -225 -225 -225 -225 -225 -225 -225 -225 -225 -225 -225 -225 -225 -225 333 333 333 333 333 333 333 -177 341 352 360 362 361 364 364 364 363 364 365 366 367 368 367 368 369 369 369 368 369 -209 -193 301 296 296 296 296 299 -209 -209 -209 -209 -193 897 905 -209 397 401 405 408 410 412 0 0 0 0 0
    0 0 0 0 0 0 0 0 0 0 0 0 0 0 0 0 0 0 0 0 0 0 0 0 0 0 0 0 0 0 0 0 0 0 0 0 0 0 0 0 0 0 0 0 0 0 0 0 0 0 0 0 0 0 0 0 0 0 0 0 0 0 0 0 0 0 0 0 0 -225 -225 -225 -225 -225 -225 -225 -225 -225 -225 -225 -225 -225 -225 -225 -225 -225 -225 -225 -225 -225 -225 -225 -225 -225 -225 -225 -225 -225 -225 -225 -225 -225 -225 -225 -225 -225 -225 -225 -225 -225 -225 -225 -225 -225 -225 -225 -225 -225 -225 -225 -225 -225 -225 -225 -225 -225 -225 -225 -225 -225 -225 -225 -225 -225 -225 -225 -225 -225 -225 -225 -225 -225 -225 -225 -225 -225 -225 -225 -225 -225 -225 -225 -225 -225 -225 -225 -225 -225 -225 -225 -225 -225 -225 -225 -225 -225 -225 -225 -225 -225 -225 -225 -225 -225 -225 -225 -225 -225 -225 -225 -225 -225 -225 -225 -225 -225 -225 -225 -225 -225 -225 -225 -225 -225 -225 -225 -225 -225 -225 -225 -225 -225 -225 -225 -225 -225 -225 -225 -225 -225 -225 -225 -225 -225 -225 -225 -225 -225 -225 -225 -225 -225 -225 -225 -225 -225 -225 -225 -225 -225 -225 -225 -225 -225 -225 -225 -225 -225 -225 -225 -225 -225 -225 -225 -225 -225 -225 -225 -225 -225 -225 -225 -225 -225 -225 -225 -225 -225 -225 -225 -225 -225 -225 -209 334 334 334 335 337 339 339 335 345 357 361 363 362 365 365 366 364 365 366 367 370 371 371 371 371 372 373 371 372 -209 304 305 -209 -209 -209 -193 -193 -209 -209 350 364 375 -193 -193 399 401 404 407 409 411 413 0 0 0 0 0
    0 0 0 0 0 0 0 0 0 0 0 0 0 0 0 0 0 0 0 0 0 0 0 0 0 0 0 0 0 0 0 0 0 0 0 0 0 0 0 0 0 0 0 0 0 0 0 0 0 0 0 0 0 0 0 0 0 0 0 0 0 0 0 0 0 0 0 0 0 -225 -225 -225 -225 -225 -225 -225 -225 -225 -225 -225 -225 -225 -225 -225 -225 -225 -225 -225 -225 -225 -225 -225 -225 -225 -225 -225 -225 -225 -225 -225 -225 -225 -225 -225 -225 -225 -225 -225 -225 -225 -225 -225 -225 -225 -225 -225 -225 -225 -225 -225 -225 -225 -225 -225 -225 -225 -225 -225 -225 -225 -225 -225 -225 -225 -225 -225 -225 -225 -225 -225 -225 -225 -225 -225 -225 -225 -225 -225 -225 -225 -225 -225 -225 -225 -225 -225 -225 -225 -225 -225 -225 -225 -225 -225 -225 -225 -225 -225 -225 -225 -225 -225 -225 -225 -225 -225 -225 -225 -225 -225 -225 -225 -225 -225 -225 -225 -225 -225 -225 -225 -225 -225 -225 -225 -225 -225 -225 -225 -225 -225 -225 -225 -225 -225 -225 -225 -225 -225 -225 -225 -225 -225 -225 -225 -225 -225 -225 -225 -225 -225 -225 -225 -225 -225 -225 -225 -225 -225 -225 -225 -225 -225 -225 -225 -225 -225 -225 -225 -225 -225 -225 -225 -225 -225 -225 -225 -225 -225 -225 -225 -225 -225 -225 -225 -225 -225 -225 -225 -225 -225 -225 -225 -225 341 335 335 339 342 342 343 343 341 348 362 367 371 369 370 369 370 367 367 367 369 372 373 373 372 371 372 375 373 373 -209 -209 -209 -209 -209 -209 -209 -193 -209 -193 353 363 375 391 397 398 402 405 407 409 410 412 0 0 0 0 0
    0 0 0 0 0 0 0 0 0 0 0 0 0 0 0 0 0 0 0 0 0 0 0 0 0 0 0 0 0 0 0 0 0 0 0 0 0 0 0 0 0 0 0 0 0 0 0 0 0 0 0 0 0 0 0 0 0 0 0 0 0 0 0 0 0 0 0 0 0 -225 -225 -225 -225 -225 -225 -225 -225 -225 -225 -225 -225 -225 -225 -225 -225 -225 -225 -225 -225 -225 -225 -225 -225 -225 -225 -225 -225 -225 -225 -225 -225 -225 -225 -225 -225 -225 -225 -225 -225 -225 -225 -225 -225 -225 -225 -225 -225 -225 -225 -225 -225 -225 -225 -225 -225 -225 -225 -225 -225 -225 -225 -225 -225 -225 -225 -225 -225 -225 -225 -225 -225 -225 -225 -225 -225 -225 -225 -225 -225 -225 -225 -225 -225 -225 -225 -225 -225 -225 -225 -225 -225 -225 -225 -225 -225 -225 -225 -225 -225 -225 -225 -225 -225 -225 -225 -225 -225 -225 -225 -225 -225 -225 -225 -225 -225 -225 -225 -225 -225 -225 -225 -225 -225 -225 -225 -225 -225 -225 -225 -225 -225 -225 -225 -225 -225 -225 -225 -225 -225 -225 -225 -225 -225 -225 -225 -225 -225 -225 -225 -225 -225 -225 -225 -225 -225 -225 -225 -225 -225 -225 -225 -225 -225 -225 -225 -225 -225 -225 -225 -225 -225 -225 -225 -225 -225 -225 -225 -225 -225 -225 -225 -225 -225 -225 -225 -225 -225 -225 -225 -225 -225 -225 -225 342 340 340 342 346 346 346 347 347 355 367 375 375 374 373 373 373 371 371 370 371 372 374 374 373 372 373 375 375 375 -209 -209 -209 -209 -209 -209 -209 -209 -209 343 355 363 375 390 395 397 402 406 407 409 410 412 0 0 0 0 0
    0 0 0 0 0 0 0 0 0 0 0 0 0 0 0 0 0 0 0 0 0 0 0 0 0 0 0 0 0 0 0 0 0 0 0 0 0 0 0 0 0 0 0 0 0 0 0 0 0 0 0 0 0 0 0 0 0 0 0 0 0 0 0 0 0 0 0 0 0 -225 -225 -225 -225 -225 -225 -225 -225 -225 -225 -225 -225 -225 -225 -225 -225 -225 -225 -225 -225 -225 -225 -225 -225 -225 -225 -225 -225 -225 -225 -225 -225 -225 -225 -225 -225 -225 -225 -225 -225 -225 -225 -225 -225 -225 -225 -225 -225 -225 -225 -225 -225 -225 -225 -225 -225 -225 -225 -225 -225 -225 -225 -225 -225 -225 -225 -225 -225 -225 -225 -225 -225 -225 -225 -225 -225 -225 -225 -225 -225 -225 -225 -225 -225 -225 -225 -225 -225 -225 -225 -225 -225 -225 -225 -225 -225 -225 -225 -225 -225 -225 -225 -225 -225 -225 -225 -225 -225 -225 -225 -225 -225 -225 -225 -225 -225 -225 -225 -225 -225 -225 -225 -225 -225 -225 -225 -225 -225 -225 -225 -225 -225 -225 -225 -225 -225 -225 -225 -225 -225 -225 -225 -225 -225 -225 -225 -225 -225 -225 -225 -225 -225 -225 -225 -225 -225 -225 -225 -225 -225 -225 -225 -225 -225 -225 -225 -225 -225 -225 -225 -225 -225 -225 -225 -225 -225 -225 -225 -225 -225 -225 -225 -225 -225 -225 -225 -225 -225 -225 -225 -225 -225 -225 -225 -209 343 343 343 347 349 351 355 356 359 370 376 377 376 376 376 375 373 374 373 373 374 374 375 374 374 373 373 373 372 -209 -209 -209 -209 -209 -209 -209 -209 -209 -209 363 369 378 390 393 396 401 405 406 408 408 411 0 0 0 0 0
    0 0 0 0 0 0 0 0 0 0 0 0 0 0 0 0 0 0 0 0 0 0 0 0 0 0 0 0 0 0 0 0 0 0 0 0 0 0 0 0 0 0 0 0 0 0 0 0 0 0 0 0 0 0 0 0 0 0 0 0 0 0 0 0 0 0 0 0 0 -225 -225 -225 -225 -225 -225 -225 -225 -225 -225 -225 -225 -225 -225 -225 -225 -225 -225 -225 -225 -225 -225 -225 -225 -225 -225 -225 -225 -225 -225 -209 -209 -225 -225 -225 -225 -225 -225 -225 -225 -225 -225 -225 -225 -225 -225 -225 -225 -225 -225 -225 -225 -225 -225 -225 -225 -225 -225 -225 -225 -225 -225 -225 -225 -225 -225 -225 -225 -225 -225 -225 -225 -225 -225 -225 -225 -225 -225 -225 -225 -225 -225 -225 -225 -225 -225 -225 -225 -225 -225 -225 -225 -225 -225 -225 -225 -225 -225 -225 -225 -225 -225 -225 -225 -225 -225 -225 -225 -225 -225 -225 -225 -225 -225 -225 -225 -225 -225 -225 -225 -225 -225 -225 -225 -225 -225 -225 -225 -225 -225 -225 -225 -225 -225 -225 -225 -225 -225 -225 -225 -225 -225 -225 -225 -225 -225 -225 -225 -225 -225 -225 -225 -225 -225 -225 -225 -225 -225 -225 -225 -225 -225 -225 -225 -225 -225 -225 -225 -225 -225 -225 -225 -225 -225 -225 -225 -225 -225 -225 -225 -225 -225 -225 -225 -225 -225 -225 -225 -225 -225 -225 -225 -225 -225 344 344 344 344 347 350 352 356 357 360 371 377 377 376 376 377 376 374 375 374 374 375 375 375 375 374 373 367 366 364 -209 -209 -209 -209 -209 -209 -209 -209 -209 366 -193 377 381 389 391 394 399 403 405 406 407 410 0 0 0 0 0
    0 0 0 0 0 0 0 0 0 0 0 0 0 0 0 0 0 0 0 0 0 0 0 0 0 0 0 0 0 0 0 0 0 0 0 0 0 0 0 0 0 0 0 0 0 0 0 0 0 0 0 0 0 0 0 0 0 0 0 0 0 0 0 0 0 0 0 0 0 -209 -193 -209 -209 -193 332 381 386 388 385 -225 -225 -225 397 394 392 391 390 390 387 386 386 385 386 387 388 389 387 390 390 -193 -209 596 597 -193 -193 395 395 397 -225 -225 -225 -225 -225 -225 -225 -225 -225 -225 -225 -225 -225 -225 -225 -225 -225 -225 -225 -225 -225 -225 -225 -225 -225 -225 -225 -225 -225 -225 -225 -225 -225 -225 -225 -225 -225 -225 -225 -225 -225 -225 -225 -225 -225 -225 -225 -225 -225 -225 -225 -225 -225 -225 -225 -225 -225 -225 -225 -225 -225 -225 -225 -225 -225 -225 -225 -225 -225 -225 -225 -225 -225 -225 -225 -225 -225 -225 -225 -225 -225 -225 -225 -225 -225 -225 -225 -225 -225 -225 -225 -225 -225 -225 -225 -225 -225 -225 -225 -225 -225 -225 -225 -225 -225 -225 -225 -225 -225 -225 -225 -225 -225 -225 -225 -225 -225 -225 -225 -225 -225 -225 -225 -225 -225 -225 -225 -225 -225 -225 -225 -225 -225 -225 -225 -225 -225 -225 -225 -225 -225 -225 -225 -225 -225 -225 -225 -225 -225 -225 -225 -225 -225 -225 -225 349 347 348 349 351 355 356 358 359 361 369 374 375 375 377 377 376 375 376 374 374 375 375 375 375 375 374 363 361 360 351 347 346 -209 -209 -209 -209 -209 361 373 380 380 384 389 391 394 398 401 403 404 406 410 0 0 0 0 0
    0 0 0 0 0 0 0 0 0 0 0 0 0 0 0 0 0 0 0 0 0 0 0 0 0 0 0 0 0 0 0 0 0 0 0 0 0 0 0 0 0 0 0 0 0 0 0 0 0 0 0 0 0 0 0 0 0 0 0 0 0 0 0 0 0 0 0 0 0 -209 -193 -209 -209 -209 -193 383 387 389 387 390 390 394 395 393 391 390 390 389 386 386 386 385 386 388 388 389 387 390 389 391 -193 -177 -193 -193 -193 394 393 395 -193 -225 -225 -225 -225 -225 -225 -225 -225 -225 -225 -225 -225 -225 -225 -225 -225 -225 -225 523 521 -193 -193 -193 -209 -193 31 30 32 33 36 32 28 27 31 35 38 38 -177 -177 -177 -177 -177 -225 -225 -225 -225 -225 -225 -225 -225 -225 -225 -225 -225 -225 -225 -225 -225 -225 -225 -225 -225 -225 -225 -225 -225 -225 -225 -225 -225 -225 -225 -225 -225 -225 -225 -225 -225 -225 -225 -225 -225 -225 -225 -225 -225 -225 -225 -225 -225 -225 -225 -225 -225 -225 -225 -225 -225 -225 -225 -225 -225 -225 -225 -225 -225 -225 -225 -225 -225 -225 -225 -225 -225 -225 -225 -225 -225 -225 -225 -225 -225 -225 -225 -225 -225 -225 -225 -225 -225 -225 -225 -225 -225 -225 -225 -225 -225 -225 -225 -225 -225 -225 -225 -225 -225 -225 -225 -225 -225 -225 -225 -225 -225 348 347 350 354 355 359 360 361 363 365 371 373 373 375 376 377 377 375 376 374 375 375 375 375 375 375 370 360 359 359 355 349 349 -193 -209 -209 -209 -209 368 376 382 382 386 389 390 393 397 399 400 401 404 409 0 0 0 0 0
    0 0 0 0 0 0 0 0 0 0 0 0 0 0 0 0 0 0 0 0 0 0 0 0 0 0 0 0 0 0 0 0 0 0 0 0 0 0 0 0 0 0 0 0 0 0 0 0 0 0 0 0 0 0 0 0 0 0 0 0 0 0 0 0 0 0 0 0 0 203 -209 312 -193 -209 384 385 389 389 388 390 390 394 394 393 391 390 390 390 388 387 387 387 387 389 389 390 388 390 389 390 390 -193 390 390 390 391 390 392 -193 387 -225 -225 -225 -225 -225 -225 -225 -225 388 387 387 -193 -209 -209 -209 514 518 -177 -177 -193 -209 -209 -209 -209 -209 -209 -209 -209 -209 -209 -193 26 30 32 34 -209 166 169 171 -193 -209 387 385 386 385 -193 -193 -193 -209 -193 -193 -193 -225 -225 -225 -225 -225 -225 -193 -193 -193 -177 -193 -177 -193 -209 -177 -225 -225 -225 -209 -225 -225 -225 -225 -225 -193 -193 -193 383 381 380 380 380 380 382 376 376 372 373 376 375 378 378 378 -209 661 -209 -193 -225 -225 -225 -225 -225 -225 -225 -225 -225 -225 -225 -225 -225 -225 -225 -225 -225 -225 -225 -225 -225 -225 -225 -225 -225 -225 -225 -225 -225 -225 -225 -225 -225 -225 -225 -225 -225 -225 -225 -225 -225 -225 -225 -225 -225 -225 -225 -225 -225 -225 -225 -225 -225 -225 346 346 350 355 357 360 361 362 363 366 371 373 373 374 376 378 378 377 378 376 376 376 376 377 377 377 375 360 360 360 357 351 351 354 -209 -209 -209 374 377 378 385 384 387 390 390 393 395 396 397 398 402 407 0 0 0 0 0
    0 0 0 0 0 0 0 0 0 0 0 0 0 0 0 0 0 0 0 0 0 0 0 0 0 0 0 0 0 0 0 0 0 0 0 0 0 0 0 0 0 0 0 0 0 0 0 0 0 0 0 0 0 0 0 0 0 0 0 0 0 0 0 0 0 0 0 0 0 208 -209 312 314 -209 -193 387 390 391 389 390 391 394 394 393 391 390 390 390 388 387 387 387 387 390 390 390 389 391 389 390 390 390 390 390 389 391 390 392 388 387 387 388 389 389 389 -225 -225 389 388 387 386 -177 -193 -209 -209 -209 -177 -209 -209 -193 -209 -209 -209 -209 -209 -193 -193 -209 -209 -209 -193 -193 -193 -193 -193 -193 -193 -193 386 387 387 386 385 385 384 386 387 385 384 -193 -193 -193 -193 -209 -193 111 -193 -193 214 216 -209 -193 -193 -193 -209 295 -209 -209 -209 -209 -209 398 -209 -193 393 -193 -193 384 382 384 381 381 381 380 380 382 375 374 372 372 375 375 378 378 378 -193 -209 -193 -209 -177 -209 -209 -225 -225 -225 -225 -225 -225 -225 -225 -225 -225 -225 -225 -225 -225 -225 -225 -225 -225 -225 -225 -225 -225 -225 -225 -225 -225 390 390 383 380 381 -209 -209 -209 -193 -193 -225 -225 -225 -209 -225 -225 -225 -225 -225 -225 -225 -225 -225 -225 -225 346 347 350 356 358 362 362 363 364 367 372 373 373 374 376 378 379 380 380 377 377 377 378 378 378 378 377 360 360 359 358 353 355 356 -209 -209 -209 -193 379 381 386 386 387 389 389 393 394 394 395 396 398 403 0 0 0 0 0
    0 0 0 0 0 0 0 0 0 0 0 0 0 0 0 0 0 0 0 0 0 0 0 0 0 0 0 0 0 0 0 0 0 0 0 0 0 0 0 0 0 0 0 0 0 0 0 0 0 0 0 0 0 0 0 0 0 0 0 0 0 0 0 0 0 0 0 0 0 207 -209 -193 -209 -209 389 390 392 392 390 390 390 393 393 392 391 390 390 390 388 387 387 387 387 389 389 390 388 391 389 390 390 390 390 390 389 391 390 392 388 387 386 388 388 389 389 389 387 388 388 386 385 -193 -193 -193 -193 -209 -209 -209 -209 -209 -209 -209 -209 -209 -193 -209 -209 -193 386 384 384 383 -193 -193 -193 386 384 385 387 387 387 386 385 385 384 386 387 384 384 -193 -193 -193 -209 -209 -209 -193 -193 -193 214 -193 -209 -193 -209 -193 -209 294 -209 -193 -209 -209 -209 400 -209 -193 393 -193 382 386 384 385 383 384 383 382 382 384 378 378 375 375 378 377 381 380 380 379 -193 380 381 -193 -209 378 -209 201 -209 -225 -225 -225 -225 -225 -225 -225 -225 -225 -225 -225 -225 -225 -225 -193 380 381 380 380 382 380 381 384 383 384 380 378 -193 -209 -209 -209 242 245 243 -193 -193 -209 -209 -209 -209 -193 -225 -225 -225 -225 -225 -225 -225 -209 349 355 359 360 363 363 363 364 366 371 372 372 374 376 378 381 382 384 378 378 378 378 378 378 377 377 360 360 359 359 356 358 -193 -209 -209 -193 379 380 383 386 386 386 388 388 392 393 393 393 394 396 398 0 0 0 0 0
    0 0 0 0 0 0 0 0 0 0 0 0 0 0 0 0 0 0 0 0 0 0 0 0 0 0 0 0 0 0 0 0 0 0 0 0 0 0 0 0 0 0 0 0 0 0 0 0 0 0 0 0 0 0 0 0 0 0 0 0 0 0 0 0 0 0 0 0 0 -209 -209 -209 -193 390 390 390 392 391 389 389 389 391 391 390 389 389 389 389 387 387 387 387 387 388 388 389 387 390 388 389 389 389 389 389 388 390 388 391 387 386 386 387 387 387 387 386 385 386 386 384 383 385 386 386 387 388 388 -193 -193 389 387 386 387 386 387 387 386 387 385 384 384 383 384 385 383 386 384 386 387 387 387 386 385 385 384 386 386 384 384 382 383 384 -193 -209 -209 -209 -209 -193 -193 216 -209 -209 -209 -209 -209 -193 -209 -209 -209 393 -209 396 -209 -193 388 385 382 385 384 385 384 384 384 382 383 385 380 379 378 378 380 379 382 380 380 379 -193 380 381 -209 -209 -193 -209 -193 -193 377 372 358 357 358 -225 -225 -225 -225 -225 378 -225 378 -193 380 380 382 381 380 382 381 381 383 383 383 380 379 379 -193 -209 -209 -209 -193 -209 830 -193 -209 -209 -209 -209 -209 -209 -225 -225 -225 -225 -225 -225 -209 356 359 362 361 363 363 363 364 366 370 371 371 373 376 379 381 382 386 379 379 379 379 379 378 378 377 361 362 360 360 359 361 -209 -209 -209 380 381 381 384 387 386 386 387 388 391 392 392 393 394 395 396 0 0 0 0 0
    0 0 0 0 0 0 0 0 0 0 0 0 0 0 0 0 0 0 0 0 0 0 0 0 0 0 0 0 0 0 0 0 0 0 0 0 0 0 0 0 0 0 0 0 0 0 0 0 0 0 0 0 0 0 0 0 0 0 0 0 0 0 0 0 0 0 0 0 0 -193 -193 391 391 391 391 391 392 391 388 389 388 390 389 389 388 387 387 388 386 387 387 387 386 388 387 389 386 389 386 388 387 387 387 388 387 388 387 390 386 385 385 386 387 386 386 386 383 385 385 384 383 384 385 386 386 387 387 387 387 388 386 385 386 385 386 386 385 386 385 384 384 383 385 385 384 386 384 386 387 386 387 386 385 385 384 385 385 384 384 381 383 383 384 385 -193 -193 -193 -193 -193 -177 -209 -209 -193 -193 379 380 -209 -193 381 388 385 390 388 387 385 382 381 383 382 384 383 383 383 382 383 385 381 380 378 378 380 379 382 380 380 379 380 380 381 -209 -193 378 -209 -209 378 377 375 364 -193 -193 358 357 -193 -193 -193 378 380 378 -193 380 380 383 381 380 382 381 382 383 383 383 380 379 379 -193 -193 -209 -193 377 -209 -209 -209 378 378 -209 -209 -209 -193 917 -209 -193 -225 -225 -209 -209 360 361 364 363 364 364 363 364 366 370 370 370 372 377 380 382 383 385 379 379 379 378 378 378 378 377 361 362 360 360 360 362 -193 -209 -193 380 381 382 384 387 386 386 387 388 390 392 393 393 394 395 396 0 0 0 0 0
    0 0 0 0 0 0 0 0 0 0 0 0 0 0 0 0 0 0 0 0 0 0 0 0 0 0 0 0 0 0 0 0 0 0 0 0 0 0 0 0 0 0 0 0 0 0 0 0 0 0 0 0 0 0 0 0 0 0 0 0 0 0 0 0 0 0 0 0 0 389 390 391 390 390 391 391 391 391 388 388 387 388 388 388 387 386 386 387 386 386 386 385 384 386 386 388 384 387 385 386 386 386 386 387 386 387 386 389 385 385 385 386 386 385 385 385 383 385 385 384 383 384 385 386 386 386 386 386 386 387 385 384 385 385 385 386 385 386 385 383 384 383 384 384 384 385 384 386 386 385 387 385 385 385 384 385 384 384 383 381 382 383 382 384 381 -193 -193 -193 -209 -209 379 379 378 379 380 379 379 380 381 385 382 386 386 385 384 382 381 383 381 383 382 382 382 381 382 384 381 380 379 379 380 379 381 380 380 379 380 381 381 -193 379 378 378 378 378 378 377 377 378 379 -193 369 378 379 -193 377 378 377 379 379 379 382 381 380 381 381 381 382 382 383 380 379 380 -193 -193 -209 -209 378 -209 -209 -193 377 378 378 378 -209 -209 -209 -209 -193 -193 -225 -209 -209 362 364 366 365 365 364 363 364 367 369 368 367 369 376 380 382 382 382 378 378 378 378 378 378 378 377 366 368 364 362 363 365 373 -193 379 381 382 383 384 386 386 385 386 387 389 391 392 393 394 395 397 0 0 0 0 0
    0 0 0 0 0 0 0 0 0 0 0 0 0 0 0 0 0 0 0 0 0 0 0 0 0 0 0 0 0 0 0 0 0 0 0 0 0 0 0 0 0 0 0 0 0 0 0 0 0 0 0 0 0 0 0 0 0 0 0 0 0 0 0 0 0 0 0 0 0 388 388 390 389 389 390 390 390 390 387 388 386 387 387 387 386 386 385 386 385 0 -256 -1 32644 385 384 386 383 384 383 384 384 384 385 385 385 385 385 388 385 385 385 385 386 385 384 385 383 384 384 383 383 383 384 386 385 386 386 386 386 386 385 384 384 385 385 386 385 386 385 384 384 383 384 384 383 385 383 386 386 385 387 385 385 385 384 385 383 384 383 381 382 382 382 383 381 380 -193 -193 -193 381 379 380 378 379 379 380 380 380 381 384 381 385 385 384 383 383 382 383 381 383 382 381 382 381 382 383 381 381 379 379 380 379 381 380 380 379 379 380 380 -193 379 378 378 378 379 378 377 378 379 380 378 377 379 379 378 377 378 377 379 379 379 380 380 380 381 381 381 382 382 383 381 381 381 379 379 -193 -193 379 -193 -209 -193 378 378 378 379 -193 -209 -193 -209 -193 381 381 380 377 365 368 369 367 366 365 365 365 368 370 369 369 371 -193 380 381 382 380 377 378 378 378 378 378 378 378 375 374 374 365 368 370 376 380 382 382 383 383 384 386 385 385 386 387 389 391 392 393 395 396 398 0 0 0 0 0
    0 0 0 0 0 0 0 0 0 0 0 0 0 0 0 0 0 0 0 0 0 0 0 0 0 0 0 0 0 0 0 0 0 0 0 0 0 0 0 0 0 0 0 0 0 0 0 0 0 0 0 0 0 0 0 0 0 0 0 0 0 0 0 0 0 0 0 0 0 387 387 388 389 388 389 389 389 390 387 387 386 387 386 386 385 386 384 386 385 385 385 386 384 385 384 385 383 383 382 383 383 383 383 384 384 384 384 387 385 385 385 385 385 384 384 384 382 384 384 383 382 383 384 386 385 386 386 386 386 386 385 384 383 385 385 386 385 385 385 384 384 383 384 383 382 384 383 386 385 384 387 384 385 385 384 384 383 383 383 380 382 382 381 383 381 381 381 382 382 381 380 381 379 379 379 380 380 380 381 383 381 383 384 384 383 383 382 382 381 383 382 382 382 381 382 383 381 382 380 380 381 380 381 380 380 379 379 380 380 -193 379 378 378 378 379 378 377 378 378 379 378 378 380 379 379 377 378 378 379 379 378 380 380 380 381 382 381 382 382 383 381 381 380 379 378 -193 -193 379 377 377 378 378 378 379 379 379 379 380 379 380 380 380 378 377 371 370 371 371 370 368 367 367 370 373 373 373 374 -193 380 381 382 380 379 379 379 379 379 378 379 378 377 376 376 371 373 374 379 382 383 383 383 384 384 385 385 384 385 387 388 390 391 393 394 396 398 0 0 0 0 0
    0 0 0 0 0 0 0 0 0 0 0 0 0 0 0 0 0 0 0 0 0 0 0 0 0 0 0 0 0 0 0 0 0 0 0 0 0 0 0 0 0 0 0 0 0 0 0 0 0 0 0 0 0 0 0 0 0 0 0 0 0 0 0 0 0 0 0 0 0 386 386 387 388 388 389 388 389 389 386 387 386 386 386 386 385 386 384 386 385 386 385 387 384 386 385 384 384 382 382 382 382 382 382 383 383 383 384 386 385 385 385 384 385 384 384 384 382 383 383 382 382 382 383 386 384 385 385 386 386 385 385 384 382 385 384 385 384 384 384 383 384 383 383 383 382 383 383 386 385 384 387 384 385 385 384 384 382 383 383 380 382 382 381 383 381 381 381 381 381 381 380 382 380 380 380 381 381 381 382 382 380 382 383 383 382 383 382 382 381 382 382 382 382 381 382 382 382 382 380 380 381 381 381 380 380 379 380 381 380 379 379 379 379 378 379 378 377 377 378 379 378 378 380 379 379 378 378 378 379 379 378 379 380 380 381 382 381 381 381 382 380 381 379 378 377 -193 377 378 377 377 377 378 378 379 379 379 379 380 379 380 379 379 377 377 373 373 371 374 371 370 368 368 369 373 375 377 376 378 379 379 379 379 379 379 380 380 380 380 380 380 379 378 378 374 374 374 380 382 383 383 383 383 384 384 384 383 384 386 387 389 390 391 393 394 396 0 0 0 0 0
    0 0 0 0 0 0 0 0 0 0 0 0 0 0 0 0 0 0 0 0 0 0 0 0 0 0 0 0 0 0 0 0 0 0 0 0 0 0 0 0 0 0 0 0 0 0 0 0 0 0 0 0 0 0 0 0 0 0 0 0 0 0 0 0 0 0 0 0 0 385 386 386 388 387 388 388 388 389 386 386 386 386 385 386 385 385 383 385 384 385 385 386 383 385 384 383 383 382 381 381 381 381 382 382 383 382 384 386 385 385 385 384 385 384 383 383 381 382 382 381 381 381 382 385 383 384 384 385 385 385 384 384 382 385 383 384 383 384 384 383 384 383 383 383 382 383 382 385 384 383 386 384 384 384 383 383 382 383 383 380 382 381 380 382 380 381 381 382 382 381 381 383 380 381 380 381 381 381 381 382 380 381 382 381 382 382 381 382 381 382 382 382 383 382 382 383 384 383 381 381 382 381 381 381 381 379 380 381 381 380 379 379 379 378 379 378 377 377 378 378 378 378 380 379 379 378 379 379 379 379 379 380 380 381 381 382 381 381 381 382 380 381 379 378 377 377 377 377 377 377 377 378 378 379 379 380 380 379 -193 -193 379 378 376 376 374 373 372 374 373 372 370 370 371 374 377 378 378 378 379 378 378 378 378 378 379 378 379 379 380 380 378 378 377 373 373 374 379 381 382 383 382 382 383 383 383 382 384 385 386 388 389 390 392 394 395 0 0 0 0 0
    0 0 0 0 0 0 0 0 0 0 0 0 0 0 0 0 0 0 0 0 0 0 0 0 0 0 0 0 0 0 0 0 0 0 0 0 0 0 0 0 0 0 0 0 0 0 0 0 0 0 0 0 0 0 0 0 0 0 0 0 0 0 0 0 0 0 0 0 0 385 385 386 387 386 387 386 386 388 385 385 385 385 385 386 385 385 383 385 384 385 385 386 383 385 383 382 383 381 381 381 381 381 382 382 383 382 384 386 385 384 385 383 384 383 383 382 381 381 381 380 381 381 381 384 382 383 383 384 384 384 384 384 382 385 383 383 383 383 384 383 383 383 382 382 382 382 383 385 383 383 386 383 384 384 383 383 382 383 382 379 382 381 380 382 380 382 381 382 382 381 381 383 380 381 380 381 380 381 381 381 380 380 381 381 381 382 381 381 381 382 382 382 383 382 382 383 386 384 382 382 383 382 381 381 381 379 380 381 380 379 379 379 379 378 378 378 377 378 378 379 379 379 380 379 379 378 379 379 379 378 378 379 379 380 380 381 381 380 380 381 380 381 379 379 377 -193 -193 377 377 377 377 378 378 379 379 380 381 380 -193 -193 -193 -193 -193 376 374 374 373 375 375 375 373 372 373 374 377 379 379 379 378 377 377 377 378 377 377 377 377 378 379 379 377 377 376 373 374 374 378 379 380 382 382 382 382 383 383 382 384 386 386 388 389 390 391 393 396 0 0 0 0 0
    0 0 0 0 0 0 0 0 0 0 0 0 0 0 0 0 0 0 0 0 0 0 0 0 0 0 0 0 0 0 0 0 0 0 0 0 0 0 0 0 0 0 0 0 0 0 0 0 0 0 0 0 0 0 0 0 0 0 0 0 0 0 0 0 0 0 0 0 0 384 385 385 386 386 386 385 385 387 385 385 385 385 385 386 385 385 383 385 385 385 385 386 384 386 384 384 384 382 382 381 381 381 382 382 383 382 384 386 385 384 385 384 384 383 382 382 380 381 381 380 381 380 381 383 382 383 383 383 384 383 383 384 382 385 383 384 383 383 384 383 383 382 382 382 382 381 383 384 382 382 385 382 383 383 383 382 381 382 382 379 382 381 380 382 380 382 381 382 382 381 381 383 380 382 380 381 380 380 381 381 380 380 381 381 381 382 381 381 381 381 382 381 382 381 381 382 385 384 382 382 382 381 381 381 381 379 379 380 380 379 378 378 378 378 378 378 378 378 378 380 380 380 381 379 380 379 379 379 379 378 378 378 379 380 380 381 381 380 380 381 380 381 379 379 377 377 -193 377 377 377 377 377 377 378 379 380 381 380 -193 -193 -193 -193 -193 376 375 375 374 376 376 376 376 376 377 377 378 380 380 379 378 376 376 376 376 375 376 376 376 377 378 377 376 377 376 374 374 375 377 378 379 382 381 382 382 383 384 383 384 386 386 388 389 390 391 392 395 0 0 0 0 0
    0 0 0 0 0 0 0 0 0 0 0 0 0 0 0 0 0 0 0 0 0 0 0 0 0 0 0 0 0 0 0 0 0 0 0 0 0 0 0 0 0 0 0 0 0 0 0 0 0 0 0 0 0 0 0 0 0 0 0 0 0 0 0 0 0 0 0 0 0 384 384 384 386 385 386 385 384 387 385 385 385 385 385 386 385 386 383 385 385 385 385 386 385 386 385 385 385 383 383 382 382 382 382 383 383 382 384 385 385 384 385 384 384 383 383 382 380 381 381 380 381 380 381 382 382 383 383 383 383 383 383 383 382 385 382 383 382 383 384 383 383 382 382 382 381 381 382 383 381 381 385 381 382 382 382 381 380 382 381 379 381 380 379 381 380 381 381 381 382 381 381 383 380 381 380 381 380 380 380 381 380 380 381 381 381 382 381 381 381 381 381 381 381 381 381 382 384 382 381 381 382 381 381 381 381 379 379 380 380 379 378 378 378 378 378 378 378 378 378 379 379 380 381 379 380 379 379 380 379 379 379 378 379 380 380 381 380 380 379 380 380 380 378 378 376 376 376 376 376 376 377 376 377 378 378 380 381 380 379 -193 -193 -193 -193 376 375 375 374 376 376 377 378 378 378 377 378 379 380 379 377 375 376 375 376 376 377 376 376 377 377 377 376 376 375 374 374 374 -193 -193 378 379 380 381 381 382 383 383 384 386 387 388 389 390 391 392 394 0 0 0 0 0
    0 0 0 0 0 0 0 0 0 0 0 0 0 0 0 0 0 0 0 0 0 0 0 0 0 0 0 0 0 0 0 0 0 0 0 0 0 0 0 0 0 0 0 0 0 0 0 0 0 0 0 0 0 0 0 0 0 0 0 0 0 0 0 0 0 0 0 0 0 384 384 384 385 384 385 384 383 386 384 385 385 385 385 386 385 386 383 385 384 384 385 386 385 385 385 384 385 383 383 382 382 382 382 382 383 382 385 385 385 384 385 384 385 383 383 382 380 380 380 380 380 379 380 381 381 382 382 383 383 382 383 383 382 384 382 383 382 383 383 384 382 382 381 381 381 381 382 382 380 381 384 381 382 382 382 381 380 382 381 378 381 380 379 381 380 381 381 381 382 381 381 383 380 381 380 381 380 380 380 381 379 380 381 381 382 382 381 381 381 382 381 381 381 380 380 381 383 382 381 381 382 381 381 381 380 378 379 380 379 379 378 378 378 378 379 378 377 378 378 378 379 379 380 379 380 379 380 381 380 379 379 378 378 380 380 381 380 379 379 379 379 379 377 377 375 375 375 375 375 376 376 376 376 377 378 379 380 379 378 -193 -193 -193 -193 376 -193 375 -193 377 377 378 378 378 378 376 377 377 -193 -193 375 374 375 374 376 -193 376 376 376 377 376 376 375 376 375 374 375 374 -193 -193 377 378 377 379 380 381 383 383 384 386 387 388 389 390 391 393 394 0 0 0 0 0
    0 0 0 0 0 0 0 0 0 0 0 0 0 0 0 0 0 0 0 0 0 0 0 0 0 0 0 0 0 0 0 0 0 0 0 0 0 0 0 0 0 0 0 0 0 0 0 0 0 0 0 0 0 0 0 0 0 0 0 0 0 0 0 0 0 0 0 0 0 383 384 383 385 384 384 384 383 385 384 385 385 385 385 386 385 387 384 385 385 385 386 386 386 386 385 385 385 383 383 382 382 382 382 382 383 382 385 385 385 384 385 384 384 383 383 381 380 380 380 379 379 378 379 380 380 382 381 382 383 382 383 383 382 385 382 383 382 382 383 384 382 382 381 381 381 381 383 382 380 381 384 381 382 381 381 380 380 381 381 378 381 381 380 382 380 382 381 381 381 381 381 382 380 381 380 381 380 380 380 380 379 380 380 380 381 382 381 381 381 381 381 381 381 380 380 381 383 382 381 381 382 381 381 381 380 378 379 380 379 379 378 378 378 378 379 378 377 377 377 377 378 378 380 378 379 379 380 381 379 379 379 378 378 380 380 380 379 379 379 379 378 379 376 376 375 375 375 375 375 375 376 376 376 377 377 378 379 378 377 376 376 377 376 376 375 375 -193 376 376 378 378 377 377 376 376 377 -193 -193 375 374 374 374 375 375 376 375 375 376 376 376 375 375 374 374 374 374 372 374 375 377 375 377 379 380 383 384 385 386 387 388 390 390 392 393 394 0 0 0 0 0
    0 0 0 0 0 0 0 0 0 0 0 0 0 0 0 0 0 0 0 0 0 0 0 0 0 0 0 0 0 0 0 0 0 0 0 0 0 0 0 0 0 0 0 0 0 0 0 0 0 0 0 0 0 0 0 0 0 0 0 0 0 0 0 0 0 0 0 0 0 383 384 383 385 384 385 384 383 385 384 385 385 385 384 386 385 387 384 386 385 386 386 387 386 387 386 386 385 384 383 382 382 382 381 382 383 382 385 384 384 383 385 383 384 382 382 381 380 380 380 379 379 378 379 380 379 381 381 382 382 381 382 382 382 384 382 383 382 382 383 384 382 382 381 381 381 381 384 382 379 381 383 381 381 381 381 379 380 381 381 379 382 381 380 382 380 382 381 381 381 381 381 382 380 381 381 382 380 381 380 380 379 380 380 379 381 381 380 380 381 381 381 381 381 380 379 381 383 381 380 381 381 381 381 381 380 378 379 380 379 379 378 378 378 378 379 377 377 377 377 377 378 378 379 378 379 379 379 380 379 378 379 378 378 380 380 380 379 379 379 378 377 378 375 375 374 374 374 374 374 375 375 375 375 377 377 378 378 377 376 375 376 377 376 375 376 375 374 376 376 377 377 376 377 375 376 376 -193 -193 374 374 374 374 375 375 375 375 374 375 374 375 374 374 373 373 373 373 371 372 372 375 374 375 376 378 382 384 386 387 387 389 390 391 392 393 394 0 0 0 0 0
    0 0 0 0 0 0 0 0 0 0 0 0 0 0 0 0 0 0 0 0 0 0 0 0 0 0 0 0 0 0 0 0 0 0 0 0 0 0 0 0 0 0 0 0 0 0 0 0 0 0 0 0 0 0 0 0 0 0 0 0 0 0 0 0 0 0 0 0 0 383 384 383 385 385 385 385 384 385 385 385 385 385 384 386 384 387 384 386 386 386 386 387 386 387 385 386 384 382 382 381 381 381 380 381 382 382 384 383 384 383 384 383 384 382 382 381 380 380 380 379 380 379 379 380 379 381 381 382 382 381 382 381 381 383 381 382 382 382 383 384 382 382 381 382 382 381 384 381 379 381 382 380 380 380 380 379 380 380 380 379 382 380 379 381 380 381 381 381 381 381 381 382 381 382 382 382 381 381 380 380 379 379 379 378 380 380 379 379 380 380 380 381 381 379 379 381 382 380 380 381 381 380 381 381 380 378 379 380 379 379 379 378 378 378 379 378 377 377 377 377 378 377 379 378 379 379 379 381 379 379 379 379 378 380 380 380 379 379 379 377 377 376 375 375 374 374 374 373 374 374 375 375 375 376 376 377 377 377 375 374 375 376 375 374 375 374 373 375 375 377 377 376 376 375 376 376 376 377 374 374 374 373 375 374 375 374 373 375 373 374 374 374 373 373 373 373 370 373 371 373 372 374 375 376 380 384 387 388 388 389 390 391 392 393 394 0 0 0 0 0
    0 0 0 0 0 0 0 0 0 0 0 0 0 0 0 0 0 0 0 0 0 0 0 0 0 0 0 0 0 0 0 0 0 0 0 0 0 0 0 0 0 0 0 0 0 0 0 0 0 0 0 0 0 0 0 0 0 0 0 0 0 0 0 0 0 0 0 0 0 383 383 383 385 385 386 386 384 385 385 384 384 384 383 384 383 387 385 386 387 386 387 386 386 387 385 386 383 382 382 380 380 380 380 381 382 382 384 383 384 383 384 383 383 382 382 380 380 380 380 379 380 379 380 380 380 381 381 382 382 381 381 381 381 383 381 382 382 382 383 384 382 382 381 381 382 381 383 380 378 380 381 379 379 379 379 378 379 380 379 379 382 380 379 381 380 381 381 381 381 381 381 382 381 382 382 381 381 381 381 381 380 380 379 378 380 380 379 379 380 380 380 381 381 379 379 382 382 380 380 380 381 380 380 381 379 378 379 380 379 379 379 378 379 379 379 378 377 377 377 377 378 377 378 378 379 379 380 381 380 379 380 379 379 380 380 380 379 379 378 377 376 376 374 374 374 373 373 373 374 374 375 375 375 376 376 377 377 377 375 374 375 375 375 374 375 374 373 374 375 376 377 376 377 376 376 376 377 377 375 374 374 374 375 375 375 374 373 375 373 374 374 374 374 374 373 373 370 373 371 372 370 372 374 376 378 381 387 388 389 390 390 391 393 395 395 0 0 0 0 0
    0 0 0 0 0 0 0 0 0 0 0 0 0 0 0 0 0 0 0 0 0 0 0 0 0 0 0 0 0 0 0 0 0 0 0 0 0 0 0 0 0 0 0 0 0 0 0 0 0 0 0 0 0 0 0 0 0 0 0 0 0 0 0 0 0 0 0 0 0 383 383 384 385 385 386 386 384 384 385 384 384 384 383 384 383 387 385 386 387 386 387 386 387 387 385 385 383 381 381 379 380 380 379 381 382 383 384 383 384 383 384 383 383 382 381 381 380 380 380 380 380 379 380 380 380 381 382 382 381 381 381 381 381 382 381 381 381 381 382 384 382 381 381 381 382 381 382 379 378 380 380 378 379 378 378 377 378 379 378 378 381 380 379 381 380 381 381 381 381 380 380 382 381 382 382 382 381 381 381 381 380 380 379 378 380 380 380 380 380 380 380 381 381 379 379 381 381 379 379 380 380 379 380 380 378 378 379 380 379 379 379 379 379 379 380 378 378 377 377 377 377 377 378 378 379 379 380 381 380 379 380 379 379 380 380 379 379 378 378 377 376 375 374 375 374 373 374 373 373 374 375 375 374 375 375 376 377 377 376 375 375 375 375 374 376 374 374 373 375 378 379 377 378 -193 -193 377 377 377 375 374 374 374 375 374 374 374 373 375 373 374 373 374 374 374 373 373 371 374 372 373 370 371 373 375 377 379 382 387 388 390 390 391 392 394 395 0 0 0 0 0
    0 0 0 0 0 0 0 0 0 0 0 0 0 0 0 0 0 0 0 0 0 0 0 0 0 0 0 0 0 0 0 0 0 0 0 0 0 0 0 0 0 0 0 0 0 0 0 0 0 0 0 0 0 0 0 0 0 0 0 0 0 0 0 0 0 0 0 0 0 383 383 384 386 386 386 386 385 385 385 385 385 385 385 386 384 387 386 386 387 386 387 386 386 387 384 385 382 380 380 378 379 379 379 381 381 383 384 383 383 383 383 383 383 382 381 381 381 380 381 381 380 379 380 380 380 381 382 382 382 381 382 381 381 382 381 381 381 382 382 383 382 381 381 381 382 381 381 379 377 380 379 378 378 378 377 377 378 378 378 378 380 380 379 381 380 381 381 380 381 380 380 382 380 382 382 381 381 381 381 381 380 380 379 378 380 380 380 380 380 380 380 381 380 379 379 381 379 378 378 379 378 379 379 379 378 378 379 380 379 379 380 379 379 380 380 378 377 377 376 376 377 376 377 377 378 378 379 380 380 379 380 379 379 380 380 379 379 378 378 377 376 375 374 375 374 373 374 373 373 374 375 375 374 375 375 375 376 376 376 375 -193 376 376 375 377 375 375 374 376 380 381 379 379 377 -193 377 -193 377 374 373 374 374 375 375 374 374 373 375 373 374 373 373 374 373 372 373 370 374 373 373 371 372 372 374 376 378 380 381 386 389 389 391 392 394 396 0 0 0 0 0
    0 0 0 0 0 0 0 0 0 0 0 0 0 0 0 0 0 0 0 0 0 0 0 0 0 0 0 0 0 0 0 0 0 0 0 0 0 0 0 0 0 0 0 0 0 0 0 0 0 0 0 0 0 0 0 0 0 0 0 0 0 0 0 0 0 0 0 0 0 382 382 384 385 386 386 387 385 385 385 385 385 386 386 387 384 388 387 387 388 387 387 386 386 387 383 384 381 379 378 377 377 378 378 380 381 382 383 382 383 382 383 382 382 381 381 381 381 381 381 381 380 379 380 380 379 380 382 382 382 381 383 382 381 382 382 381 382 382 382 383 381 381 381 381 382 381 381 379 378 380 380 378 378 379 378 378 379 379 378 378 381 380 379 381 380 382 381 380 381 380 380 382 380 382 382 381 381 381 381 381 380 380 379 378 379 379 380 380 380 380 380 381 380 379 378 381 378 378 378 378 378 378 379 379 377 378 379 379 379 379 380 378 379 380 380 377 377 376 376 375 376 375 376 376 377 377 378 380 379 379 380 379 379 380 380 380 379 378 379 378 376 376 375 375 375 374 374 373 373 374 375 376 375 375 375 375 376 377 376 375 376 376 377 376 377 375 374 374 375 379 379 377 378 377 376 -193 376 376 374 374 374 374 374 375 373 374 373 374 372 373 372 373 373 372 371 372 369 373 371 372 370 371 372 372 373 376 377 379 381 386 388 390 393 395 398 0 0 0 0 0
    0 0 0 0 0 0 0 0 0 0 0 0 0 0 0 0 0 0 0 0 0 0 0 0 0 0 0 0 0 0 0 0 0 0 0 0 0 0 0 0 0 0 0 0 0 0 0 0 0 0 0 0 0 0 0 0 0 0 0 0 0 0 0 0 0 0 0 0 0 381 381 383 384 385 385 386 385 385 385 386 385 386 386 387 385 388 387 388 388 387 388 385 386 386 382 382 379 377 377 376 376 377 377 379 380 381 382 382 382 381 382 381 382 381 381 381 381 381 381 381 380 380 380 380 379 380 382 382 381 381 382 382 381 382 382 381 383 382 382 383 381 381 381 381 382 381 381 379 378 381 380 379 379 379 378 378 379 379 378 379 381 380 379 381 381 382 382 381 381 381 381 382 380 382 382 382 381 381 381 381 381 380 379 378 378 379 380 380 379 379 380 381 381 379 379 382 378 378 378 378 377 378 378 378 376 377 378 379 378 379 379 378 379 379 379 376 376 376 375 375 376 374 375 375 376 377 377 378 379 378 380 380 380 380 380 380 380 379 379 378 377 376 375 376 375 -193 375 374 374 375 376 377 375 375 376 375 377 377 377 376 377 377 377 377 377 376 375 375 376 378 377 376 377 376 375 -193 376 376 374 373 373 373 373 373 371 372 372 373 372 372 371 372 372 371 370 370 368 371 370 372 370 371 372 372 373 374 375 376 378 379 381 387 391 395 399 0 0 0 0 0
    0 0 0 0 0 0 0 0 0 0 0 0 0 0 0 0 0 0 0 0 0 0 0 0 0 0 0 0 0 0 0 0 0 0 0 0 0 0 0 0 0 0 0 0 0 0 0 0 0 0 0 0 0 0 0 0 0 0 0 0 0 0 0 0 0 0 0 0 0 382 381 384 384 385 385 386 385 385 385 386 385 386 387 388 386 389 389 390 389 388 388 385 385 -193 -193 381 379 -193 376 376 376 377 377 379 380 381 382 381 382 381 381 380 381 380 380 380 380 380 381 381 380 380 380 381 380 380 382 382 381 381 381 381 381 381 381 381 383 382 382 382 381 381 381 381 382 380 380 379 378 382 380 379 379 379 378 378 379 379 377 379 381 380 379 381 380 382 382 381 381 381 381 382 381 382 382 382 381 381 381 381 381 380 379 378 378 378 379 379 379 379 379 381 381 379 379 383 378 377 378 378 377 377 378 378 376 377 378 378 378 379 379 378 379 379 379 376 376 376 376 375 376 374 375 375 376 376 376 377 378 378 380 380 380 380 380 380 380 379 380 379 377 377 376 376 376 -193 376 375 374 376 376 377 376 375 376 376 377 378 377 377 377 377 377 377 377 375 374 375 376 377 376 376 376 375 375 376 376 375 374 373 373 373 372 372 370 371 371 372 371 372 370 372 371 370 369 368 367 368 368 370 367 371 372 372 371 372 373 373 376 -209 -209 -209 -193 -209 402 0 0 0 0 0
    0 0 0 0 0 0 0 0 0 0 0 0 0 0 0 0 0 0 0 0 0 0 0 0 0 0 0 0 0 0 0 0 0 0 0 0 0 0 0 0 0 0 0 0 0 0 0 0 0 0 0 0 0 0 0 0 0 0 0 0 0 0 0 0 0 0 0 0 0 382 381 384 384 386 385 386 385 385 385 385 384 386 386 387 385 388 388 390 389 388 388 385 385 -193 -193 380 379 376 376 375 375 376 377 379 379 381 382 381 382 381 381 380 380 380 380 380 380 380 381 381 380 380 380 381 380 380 381 381 380 380 380 381 380 381 381 380 383 382 382 382 381 381 381 381 382 380 379 379 378 382 379 379 379 379 378 379 379 379 377 378 380 379 379 380 380 382 381 382 381 381 382 382 380 382 382 382 381 381 381 381 381 380 379 378 377 377 379 379 378 378 379 380 381 379 380 382 378 377 377 377 376 376 377 377 376 377 378 378 378 379 379 378 379 379 378 376 376 376 376 376 376 375 375 377 377 377 377 378 379 378 381 381 380 381 381 380 381 379 380 379 378 377 377 376 -193 -193 376 375 374 376 376 377 376 376 377 376 378 378 377 377 377 377 377 377 377 376 374 375 376 378 377 376 376 375 374 376 375 375 374 373 373 373 371 372 370 371 372 372 371 371 370 371 370 369 368 367 366 366 365 367 364 369 371 372 370 371 373 373 374 374 -209 -177 -177 -177 -193 0 0 0 0 0
    0 0 0 0 0 0 0 0 0 0 0 0 0 0 0 0 0 0 0 0 0 0 0 0 0 0 0 0 0 0 0 0 0 0 0 0 0 0 0 0 0 0 0 0 0 0 0 0 0 0 0 0 0 0 0 0 0 0 0 0 0 0 0 0 0 0 0 0 0 382 381 385 384 387 386 387 385 385 385 385 384 386 386 387 385 387 389 -193 390 388 388 386 -193 -193 -193 380 379 376 376 375 375 376 377 379 379 380 382 381 382 381 381 380 380 380 379 380 380 380 380 380 380 380 379 380 379 379 381 380 379 380 380 380 380 380 380 380 384 382 382 382 381 381 381 381 382 379 378 378 377 381 379 378 378 378 377 378 378 379 376 378 379 379 379 380 380 382 382 382 381 381 381 381 379 382 381 381 380 380 380 381 381 381 379 378 377 377 379 378 378 377 378 379 380 379 380 382 377 377 377 377 376 376 377 377 375 377 378 378 378 379 379 378 378 378 378 377 376 376 377 377 377 376 377 377 377 377 378 378 380 380 383 381 380 381 381 380 381 379 380 379 377 377 377 377 -193 -209 -193 375 374 376 376 376 376 375 376 376 377 378 377 377 376 376 376 376 377 376 373 375 376 378 378 376 376 375 374 375 375 375 374 373 373 373 371 372 371 371 372 372 371 371 370 372 370 369 368 367 366 365 364 365 362 369 371 371 368 371 373 373 374 373 373 -193 -177 -177 -177 0 0 0 0 0
    0 0 0 0 0 0 0 0 0 0 0 0 0 0 0 0 0 0 0 0 0 0 0 0 0 0 0 0 0 0 0 0 0 0 0 0 0 0 0 0 0 0 0 0 0 0 0 0 0 0 0 0 0 0 0 0 0 0 0 0 0 0 0 0 0 0 0 0 0 382 381 385 384 387 386 386 385 385 384 384 384 386 386 387 385 386 388 -193 390 389 388 386 385 -193 -193 381 380 -193 377 376 376 377 378 379 379 380 382 381 382 381 381 379 379 380 379 380 380 380 380 380 379 379 379 379 379 378 379 379 -193 379 379 380 379 380 380 379 384 382 382 382 381 382 381 382 382 379 378 378 377 381 378 378 378 378 -193 378 378 378 375 378 379 378 378 380 379 382 382 382 381 380 381 380 379 381 379 380 380 380 380 380 380 381 379 378 377 377 378 378 377 376 377 378 379 378 379 380 377 377 377 377 376 376 376 376 375 377 377 377 377 378 378 377 378 378 378 377 377 377 378 378 378 377 377 378 377 376 377 377 380 379 382 379 379 379 380 379 380 378 379 379 377 377 377 377 -193 -209 -193 375 374 375 375 375 375 374 374 375 376 377 376 376 376 376 376 376 377 377 373 376 377 380 380 378 377 376 374 376 375 375 373 373 372 372 370 372 371 371 372 372 371 371 370 371 370 368 368 366 366 364 363 365 362 369 371 371 368 371 373 372 374 373 371 372 552 -177 -177 0 0 0 0 0
    0 0 0 0 0 0 0 0 0 0 0 0 0 0 0 0 0 0 0 0 0 0 0 0 0 0 0 0 0 0 0 0 0 0 0 0 0 0 0 0 0 0 0 0 0 0 0 0 0 0 0 0 0 0 0 0 0 0 0 0 0 0 0 0 0 0 0 0 0 383 382 386 384 387 385 386 385 385 384 384 384 386 386 387 385 386 388 -193 -193 388 387 385 383 384 383 381 380 -193 -193 377 -193 377 379 380 380 380 381 381 381 380 380 379 379 379 379 380 380 380 380 380 379 379 379 378 378 377 378 378 377 378 378 379 379 379 379 378 384 382 382 382 381 381 381 381 382 378 378 378 377 381 378 378 378 378 -193 378 378 378 375 377 378 378 378 380 379 382 382 382 381 380 381 380 378 380 379 379 379 379 379 379 379 380 378 377 376 376 377 377 376 375 376 377 378 378 378 379 377 377 377 377 375 376 376 376 376 376 377 377 377 378 377 377 377 377 377 377 377 377 378 378 378 377 377 377 375 375 375 375 378 378 380 378 378 378 380 379 379 378 378 378 377 377 377 376 -193 -209 -193 375 374 -193 -193 -193 374 373 373 374 376 376 375 376 375 376 376 377 377 377 375 377 380 381 380 378 376 375 373 375 374 374 372 373 371 372 369 372 371 371 372 371 371 371 370 371 369 368 368 366 366 365 363 365 362 370 372 373 371 372 374 374 375 374 372 371 -193 -177 -177 0 0 0 0 0
    0 0 0 0 0 0 0 0 0 0 0 0 0 0 0 0 0 0 0 0 0 0 0 0 0 0 0 0 0 0 0 0 0 0 0 0 0 0 0 0 0 0 0 0 0 0 0 0 0 0 0 0 0 0 0 0 0 0 0 0 0 0 0 0 0 0 0 0 0 383 382 385 383 386 384 386 384 384 384 384 383 386 385 387 385 387 389 -193 -193 388 387 385 383 384 383 381 380 380 379 379 378 378 380 380 380 380 381 380 381 380 380 379 379 379 379 380 379 380 379 380 379 379 378 378 378 377 378 378 377 377 378 378 378 378 378 378 384 381 381 381 381 381 381 381 381 378 378 378 378 382 378 378 378 378 -177 379 378 378 374 377 377 377 377 379 378 381 381 381 380 380 381 380 378 380 378 379 379 378 378 378 378 379 377 377 375 375 376 376 375 374 375 376 377 377 377 378 376 377 377 377 376 376 376 376 376 377 377 377 377 378 377 377 377 376 377 376 376 377 378 378 377 376 376 376 374 373 374 374 376 377 379 -193 378 378 379 378 379 378 378 378 376 377 376 376 -193 -209 375 375 374 -193 375 375 374 373 373 374 375 375 375 375 374 375 376 376 377 378 376 378 381 382 378 377 375 374 373 374 373 373 371 372 370 371 369 372 371 371 372 371 371 371 370 371 369 368 368 367 367 366 364 365 362 369 373 373 371 372 374 375 376 375 372 -193 -193 -177 -177 0 0 0 0 0
    0 0 0 0 0 0 0 0 0 0 0 0 0 0 0 0 0 0 0 0 0 0 0 0 0 0 0 0 0 0 0 0 0 0 0 0 0 0 0 0 0 0 0 0 0 0 0 0 0 0 0 0 0 0 0 0 0 0 0 0 0 0 0 0 0 0 0 0 0 382 381 384 382 385 384 386 384 384 384 384 383 386 385 387 385 387 388 -193 -193 387 384 384 382 382 -193 381 381 381 381 380 380 379 381 380 380 380 380 380 381 380 380 379 379 379 379 379 379 379 379 380 379 379 379 378 378 378 378 378 376 377 377 377 377 377 377 376 383 380 380 380 380 380 380 380 381 378 378 378 378 381 378 378 378 378 -177 378 378 378 374 377 377 377 377 378 378 380 380 380 380 379 380 380 378 380 379 379 379 378 378 379 379 379 377 377 376 376 376 376 375 374 375 375 376 376 377 377 376 377 378 378 376 376 377 377 377 377 378 378 377 378 377 377 377 376 377 377 377 377 378 378 378 377 377 377 374 373 374 374 376 376 378 -193 377 377 379 378 378 378 377 377 376 376 376 376 376 376 375 375 374 375 375 375 374 373 373 373 374 374 374 374 374 375 376 376 377 377 376 378 380 382 377 376 375 374 373 374 373 373 371 372 370 371 369 371 370 371 372 371 370 371 370 372 370 369 369 368 368 366 364 366 362 368 370 371 369 369 372 374 374 374 371 369 -193 -193 -209 0 0 0 0 0
    0 0 0 0 0 0 0 0 0 0 0 0 0 0 0 0 0 0 0 0 0 0 0 0 0 0 0 0 0 0 0 0 0 0 0 0 0 0 0 0 0 0 0 0 0 0 0 0 0 0 0 0 0 0 0 0 0 0 0 0 0 0 0 0 0 0 0 0 0 382 381 382 381 383 382 384 383 383 384 384 383 385 384 386 385 386 387 -193 -193 -193 383 383 381 382 -193 -193 381 381 381 380 380 380 380 380 380 380 380 380 381 380 380 378 378 378 379 379 379 379 379 380 379 379 379 379 379 379 378 378 376 377 376 377 376 375 375 376 381 379 379 379 379 379 379 379 379 377 378 378 378 381 378 378 378 378 -193 378 377 377 373 376 377 376 377 377 377 379 379 379 378 378 379 379 377 379 378 378 378 378 377 378 377 378 376 376 375 374 375 375 374 373 374 375 376 376 376 377 376 377 378 378 376 377 377 377 378 377 378 378 377 378 377 377 377 377 378 377 377 378 378 378 378 377 377 378 375 374 375 375 376 377 378 -193 376 377 378 377 377 377 376 377 376 375 376 375 375 375 375 374 374 375 375 375 374 374 373 373 374 374 373 374 373 373 375 375 375 377 376 378 381 384 378 377 375 374 373 374 374 373 371 372 370 371 369 371 370 370 371 370 370 370 370 371 369 369 369 368 368 366 364 365 362 369 370 370 369 370 372 374 374 374 370 369 367 369 -193 0 0 0 0 0
    0 0 0 0 0 0 0 0 0 0 0 0 0 0 0 0 0 0 0 0 0 0 0 0 0 0 0 0 0 0 0 0 0 0 0 0 0 0 0 0 0 0 0 0 0 0 0 0 0 0 0 0 0 0 0 0 0 0 0 0 0 0 0 0 0 0 0 0 0 382 381 381 381 381 381 382 382 382 383 383 382 384 383 386 384 386 386 -193 385 384 383 383 380 381 -193 -193 380 381 381 -193 380 380 381 380 380 380 380 380 380 379 378 377 377 378 379 379 379 379 379 380 380 379 379 379 379 379 378 378 376 376 376 376 375 374 374 375 380 378 378 378 378 378 378 378 378 376 377 377 378 380 377 377 377 377 376 377 377 377 372 376 376 376 376 376 376 377 377 377 377 377 377 377 376 377 377 377 377 376 376 377 376 376 375 374 374 373 374 374 373 373 373 374 375 375 376 376 375 376 377 378 377 377 377 377 378 377 378 378 377 378 377 377 377 377 378 377 378 378 379 379 379 379 378 379 376 375 376 376 376 376 376 375 375 376 377 376 376 376 375 376 375 375 375 375 374 374 374 374 373 375 374 375 374 374 372 373 373 373 372 372 371 372 373 374 373 376 374 377 379 383 378 377 374 374 373 374 373 373 371 372 369 371 369 371 370 371 371 370 370 370 370 371 369 369 369 368 368 367 364 365 363 369 371 371 369 370 373 374 373 374 370 369 367 368 369 0 0 0 0 0
    0 0 0 0 0 0 0 0 0 0 0 0 0 0 0 0 0 0 0 0 0 0 0 0 0 0 0 0 0 0 0 0 0 0 0 0 0 0 0 0 0 0 0 0 0 0 0 0 0 0 0 0 0 0 0 0 0 0 0 0 0 0 0 0 0 0 0 0 0 382 381 381 381 380 380 382 381 382 382 382 381 383 382 384 383 384 384 -193 -193 382 381 382 379 380 -209 -193 380 380 380 -193 380 381 381 381 380 380 379 379 379 378 377 376 376 378 379 380 379 380 380 381 380 379 379 379 379 379 378 378 376 377 377 377 376 375 375 376 380 378 378 377 377 378 378 378 377 375 377 377 377 378 376 376 376 376 375 376 376 375 371 375 375 375 376 376 375 376 376 376 376 376 376 375 376 376 376 376 376 376 376 376 375 375 374 373 373 372 373 373 372 372 372 373 374 375 375 375 374 376 377 378 376 377 377 377 378 377 378 377 376 377 376 376 376 -209 378 377 378 379 380 380 381 380 380 381 378 376 377 377 376 376 375 374 375 375 376 375 375 375 375 375 375 374 374 374 374 374 374 374 373 375 374 375 374 373 372 372 372 372 370 371 369 370 372 373 371 374 371 375 377 380 376 376 373 373 373 373 373 373 370 372 369 371 370 372 370 371 370 369 369 370 370 371 368 369 369 369 368 367 364 366 363 370 -193 -193 370 372 373 375 374 375 370 370 368 369 370 0 0 0 0 0
    0 0 0 0 0 0 0 0 0 0 0 0 0 0 0 0 0 0 0 0 0 0 0 0 0 0 0 0 0 0 0 0 0 0 0 0 0 0 0 0 0 0 0 0 0 0 0 0 0 0 0 0 0 0 0 0 0 0 0 0 0 0 0 0 0 0 0 0 0 381 381 381 380 380 379 381 381 381 382 382 381 382 382 384 382 383 381 -193 -193 -193 379 -209 -209 -209 -209 -209 -193 381 380 -193 380 381 381 381 380 380 379 379 379 378 377 376 376 378 378 380 379 380 380 381 380 379 379 379 378 379 378 378 376 377 377 378 376 376 375 376 380 378 378 377 377 378 378 377 377 375 376 376 376 377 375 375 376 376 374 375 375 373 369 374 375 374 375 375 374 376 376 376 376 376 376 375 375 376 376 376 376 376 376 376 375 375 373 373 373 372 373 373 372 372 372 373 374 374 375 373 373 375 377 378 376 376 377 377 378 377 377 377 376 376 376 375 375 375 378 377 378 379 381 381 383 382 381 381 379 377 377 377 376 376 375 374 374 374 375 375 375 375 375 375 374 374 374 374 374 373 374 373 373 -193 374 375 373 373 372 372 371 371 370 369 368 369 371 372 369 372 371 373 376 377 375 375 372 372 372 373 373 372 370 372 369 372 371 372 370 371 370 369 369 369 370 371 369 369 369 370 369 368 365 367 -193 -193 -193 -193 -193 -193 373 -193 374 375 371 371 370 371 371 0 0 0 0 0
    0 0 0 0 0 0 0 0 0 0 0 0 0 0 0 0 0 0 0 0 0 0 0 0 0 0 0 0 0 0 0 0 0 0 0 0 0 0 0 0 0 0 0 0 0 0 0 0 0 0 0 0 0 0 0 0 0 0 0 0 0 0 0 0 0 0 0 0 0 380 381 380 380 379 378 380 380 381 381 382 381 382 381 384 381 383 380 378 376 376 377 -193 376 -209 -209 -209 -193 380 380 -193 380 381 381 381 380 380 379 379 378 378 377 376 376 378 378 380 379 380 380 381 379 379 379 379 378 379 378 378 376 377 378 378 376 376 376 376 379 377 377 377 376 377 377 376 376 375 376 376 377 376 375 375 375 375 374 375 375 372 370 374 374 374 375 374 374 375 375 375 376 375 376 375 375 376 376 376 376 376 376 376 376 375 374 373 373 373 374 373 372 372 373 374 374 375 375 372 373 374 376 377 376 376 376 377 377 376 377 377 376 376 375 375 375 -193 378 375 377 378 379 380 381 382 380 380 378 377 377 377 376 376 374 374 374 374 375 375 375 375 374 375 374 374 374 374 374 373 373 373 373 374 374 374 373 373 372 372 371 371 370 369 368 368 371 371 369 372 372 372 375 376 374 374 372 372 372 372 372 372 370 371 369 372 371 372 370 370 368 368 368 368 370 370 368 369 369 370 370 370 365 367 -193 -193 -193 -193 -193 370 371 -193 -193 -193 370 371 370 372 372 0 0 0 0 0
    0 0 0 0 0 0 0 0 0 0 0 0 0 0 0 0 0 0 0 0 0 0 0 0 0 0 0 0 0 0 0 0 0 0 0 0 0 0 0 0 0 0 0 0 0 0 0 0 0 0 0 0 0 0 0 0 0 0 0 0 0 0 0 0 0 0 0 0 0 380 381 380 380 379 378 380 379 380 381 382 381 383 382 386 382 385 380 378 376 375 375 375 374 374 -193 -209 378 380 380 -193 380 381 381 381 380 380 378 378 377 378 -193 376 376 378 377 379 379 380 380 381 379 379 379 379 379 380 378 379 377 378 378 379 377 377 376 376 378 377 376 376 375 377 376 376 376 374 376 376 377 376 375 376 375 376 374 375 375 372 372 375 375 375 376 374 373 373 374 373 375 374 375 374 375 375 376 376 376 376 376 376 376 375 374 374 373 373 373 373 372 372 373 375 375 376 375 373 373 374 376 376 376 376 376 376 376 376 377 376 375 375 374 375 374 374 376 373 370 374 376 379 379 381 379 379 378 377 376 376 375 376 374 374 374 374 375 374 375 375 374 374 374 374 374 374 374 373 374 374 374 374 375 375 374 374 373 373 372 371 371 369 369 369 370 371 370 371 372 370 374 374 373 373 371 371 371 371 372 371 371 371 370 372 372 372 370 370 368 367 367 369 370 370 367 368 368 371 371 371 364 366 364 368 -193 -193 -193 -193 -193 -209 -193 -193 -193 -193 370 372 371 0 0 0 0 0
    0 0 0 0 0 0 0 0 0 0 0 0 0 0 0 0 0 0 0 0 0 0 0 0 0 0 0 0 0 0 0 0 0 0 0 0 0 0 0 0 0 0 0 0 0 0 0 0 0 0 0 0 0 0 0 0 0 0 0 0 0 0 0 0 0 0 0 0 0 380 381 380 380 379 378 380 379 380 381 382 381 383 -193 387 381 383 379 377 375 374 375 374 373 373 373 -209 377 378 379 -193 379 380 380 380 379 379 -209 378 -209 -209 -193 375 376 377 377 379 379 379 379 380 378 378 378 378 378 379 378 379 377 379 378 379 377 377 376 376 377 377 376 376 374 376 376 376 376 374 376 376 378 376 375 376 375 375 374 375 375 371 373 376 375 376 376 374 372 372 373 372 374 373 374 373 375 375 376 376 376 376 376 376 376 376 375 374 373 373 373 373 372 372 373 374 375 375 374 372 372 373 374 375 375 375 375 375 376 375 376 376 375 374 374 374 374 373 374 372 370 373 376 379 379 381 379 380 380 379 377 376 375 375 373 374 373 373 374 374 374 374 374 374 374 374 374 374 374 374 374 374 374 375 375 -193 -193 374 373 373 372 372 372 370 369 369 370 371 369 370 371 368 373 372 372 371 371 370 371 371 371 370 371 371 371 372 372 372 370 370 368 368 368 369 371 370 367 368 368 371 371 372 365 366 364 368 -193 -193 -193 -209 -193 -209 -193 -193 -193 -193 -193 -193 -193 0 0 0 0 0
    0 0 0 0 0 0 0 0 0 0 0 0 0 0 0 0 0 0 0 0 0 0 0 0 0 0 0 0 0 0 0 0 0 0 0 0 0 0 0 0 0 0 0 0 0 0 0 0 0 0 0 0 0 0 0 0 0 0 0 0 0 0 0 0 0 0 0 0 0 380 381 380 381 381 380 381 381 382 382 382 381 383 -193 384 379 380 377 375 374 372 374 373 372 372 373 -193 -193 -193 377 -193 378 379 379 379 378 379 377 379 -209 376 376 374 375 377 377 380 379 379 379 380 378 378 377 378 378 378 378 378 376 378 378 379 377 377 377 376 377 377 376 376 374 376 376 375 375 374 376 377 378 377 376 376 375 375 374 375 375 371 373 375 375 376 376 374 373 372 372 372 374 373 374 373 375 375 376 376 376 376 -193 376 377 376 375 375 374 374 373 373 372 372 373 373 374 374 373 372 371 372 374 375 375 375 374 375 375 375 375 375 374 374 373 374 374 374 374 373 373 374 376 379 379 381 379 380 381 380 378 377 375 375 373 374 373 373 373 373 374 374 374 374 374 374 374 374 374 373 374 374 374 374 374 -193 -193 374 373 -193 373 373 373 371 370 370 370 370 368 369 371 368 373 371 372 371 370 370 371 371 371 370 372 371 372 372 373 372 371 371 368 368 368 369 371 369 367 367 366 369 369 366 360 -209 363 -209 -193 -193 -193 -193 430 -193 -209 -193 -193 -193 368 -193 -193 0 0 0 0 0
    0 0 0 0 0 0 0 0 0 0 0 0 0 0 0 0 0 0 0 0 0 0 0 0 0 0 0 0 0 0 0 0 0 0 0 0 0 0 0 0 0 0 0 0 0 0 0 0 0 0 0 0 0 0 0 0 0 0 0 0 0 0 0 0 0 0 0 0 0 380 381 380 382 382 381 382 381 382 381 380 380 380 378 379 377 376 374 373 372 368 372 371 370 370 372 374 375 376 376 376 377 378 378 378 377 379 378 380 -193 378 376 375 376 378 377 380 379 380 379 380 377 378 377 377 377 377 377 378 376 378 377 379 377 377 377 377 377 377 376 376 374 376 376 375 375 374 376 376 378 376 376 375 375 375 375 376 375 371 374 375 375 376 376 374 373 373 373 373 374 373 374 373 375 375 375 376 376 376 376 376 377 375 375 375 374 374 373 373 372 372 373 373 374 375 373 373 372 373 374 375 375 374 374 375 375 374 375 375 374 374 374 374 374 374 374 374 374 375 378 379 379 381 379 379 379 379 378 377 375 375 373 374 373 373 373 373 374 374 373 374 373 373 373 373 374 373 374 373 374 -193 -193 -193 -193 -193 -193 -209 374 374 373 372 370 369 369 370 368 368 370 369 373 371 372 370 370 370 370 370 371 369 371 370 373 373 374 374 372 372 368 368 367 368 370 367 365 364 363 365 364 359 358 -209 -209 -209 -209 -177 434 -193 -193 -193 -193 -193 -193 -209 -193 -209 -209 0 0 0 0 0
    0 0 0 0 0 0 0 0 0 0 0 0 0 0 0 0 0 0 0 0 0 0 0 0 0 0 0 0 0 0 0 0 0 0 0 0 0 0 0 0 0 0 0 0 0 0 0 0 0 0 0 0 0 0 0 0 0 0 0 0 0 0 0 0 0 0 0 0 0 381 382 381 385 385 383 386 384 384 382 380 379 378 376 376 375 373 372 371 370 367 369 368 368 368 371 373 373 375 375 376 376 377 378 379 378 380 379 381 379 380 379 378 378 379 379 381 380 380 379 380 377 377 376 377 376 377 377 377 376 378 377 379 377 377 377 377 377 377 376 376 375 376 376 375 375 374 375 376 377 376 375 375 374 375 375 376 375 371 375 375 375 376 375 374 373 373 373 373 375 373 374 373 375 375 375 376 376 376 376 376 377 375 375 375 374 374 373 373 371 372 373 372 373 374 372 371 372 373 373 374 374 374 373 374 374 374 375 374 374 374 374 374 374 374 374 374 375 376 378 379 379 381 379 378 379 379 377 376 374 375 373 374 373 373 373 373 373 374 374 374 373 373 373 373 375 373 373 372 373 -193 -193 -193 -193 374 373 -193 -193 373 372 370 369 368 367 367 366 367 370 369 373 370 372 370 370 370 370 370 370 368 371 370 374 374 375 374 373 373 368 367 366 367 368 364 362 361 -193 362 361 354 355 -209 -225 -225 -209 -193 434 -193 -209 -193 -209 -209 -193 -209 -225 -225 -225 0 0 0 0 0</data></disparity>
</opencv_storage>
