<?xml version="1.0"?>
<opencv_storage>
<gps_time_stamp>22142</gps_time_stamp>
<gps_x>-2.9080281257629395e+000</gps_x>
<gps_y>2.6870280504226685e-001</gps_y>
<gps_z>-1.5815532207489014e-001</gps_z>
<image_time_stamp>10064</image_time_stamp>
<disparity type_id="opencv-matrix">
  <rows>84</rows>
  <cols>320</cols>
  <dt>s</dt>
  <data>
    0 0 0 0 0 0 0 0 0 0 0 0 0 0 0 0 0 0 0 0 0 0 0 0 0 0 0 0 0 0 0 0 0 0 0 0 0 0 0 0 0 0 0 0 0 0 0 0 0 0 0 0 0 0 0 0 0 0 0 0 0 0 0 0 0 0 0 0 0 67 66 60 63 61 60 59 -193 -193 -193 -193 55 59 61 61 63 62 62 60 58 57 56 55 55 55 56 54 55 54 56 55 61 58 57 58 58 58 59 59 60 57 60 -193 58 60 60 56 55 55 54 54 54 54 53 52 51 49 52 54 53 53 53 52 52 52 53 52 50 51 49 49 52 54 52 53 53 53 53 54 53 53 49 55 54 -193 -193 -177 -193 -177 -193 76 77 81 81 79 82 82 79 79 82 82 79 79 81 76 70 71 55 54 55 56 64 75 75 78 76 76 77 77 78 75 73 -209 55 54 54 52 49 51 50 49 51 50 49 49 53 50 49 51 50 50 50 51 51 45 55 58 57 63 65 64 66 65 65 64 62 65 61 63 67 64 71 72 -193 -193 72 73 72 68 68 63 62 61 61 61 60 58 57 54 54 64 -209 -177 99 96 101 96 96 98 97 96 95 96 96 -193 -193 50 49 49 50 50 50 51 51 52 52 53 54 55 55 56 56 57 -209 -209 -209 -209 -209 -209 -209 -193 131 132 131 131 132 132 131 -193 60 60 63 64 66 63 63 63 63 64 64 64 67 67 68 68 68 0 0 0 0 0
    0 0 0 0 0 0 0 0 0 0 0 0 0 0 0 0 0 0 0 0 0 0 0 0 0 0 0 0 0 0 0 0 0 0 0 0 0 0 0 0 0 0 0 0 0 0 0 0 0 0 0 0 0 0 0 0 0 0 0 0 0 0 0 0 0 0 0 0 0 69 69 62 66 63 61 61 59 58 59 60 59 65 70 71 71 71 70 69 63 62 59 57 58 57 58 -209 -193 57 60 58 67 64 61 67 65 63 65 65 66 64 67 -193 61 63 64 59 56 55 55 55 55 55 54 53 53 52 54 55 53 53 53 52 52 52 53 52 51 52 51 50 53 55 53 53 54 54 54 55 55 55 53 57 56 -209 -193 -177 -193 -177 -193 76 77 82 80 78 82 82 79 80 82 82 78 79 79 75 65 68 56 55 56 57 68 77 76 78 77 77 77 77 78 75 72 62 55 55 54 53 51 52 52 52 52 51 51 50 53 50 50 52 50 50 51 52 52 46 55 58 57 64 65 64 66 66 65 64 63 65 61 64 67 66 71 72 -193 -193 72 73 71 68 68 62 62 61 61 61 60 58 58 57 56 63 -209 -177 99 98 102 97 97 98 97 96 95 96 96 90 -193 -193 53 52 51 51 52 52 53 53 53 54 55 55 54 55 56 57 -209 -209 -209 -209 -209 -193 -209 -193 132 133 132 132 132 132 131 133 -193 59 62 64 66 63 64 64 64 65 64 65 68 68 69 68 69 0 0 0 0 0
    0 0 0 0 0 0 0 0 0 0 0 0 0 0 0 0 0 0 0 0 0 0 0 0 0 0 0 0 0 0 0 0 0 0 0 0 0 0 0 0 0 0 0 0 0 0 0 0 0 0 0 0 0 0 0 0 0 0 0 0 0 0 0 0 0 0 0 0 0 70 70 65 68 67 63 64 63 61 62 67 67 70 72 73 73 73 72 72 68 68 63 60 61 60 60 -193 -193 64 67 71 72 72 71 72 72 71 71 71 71 70 72 -193 -193 68 68 64 57 56 55 56 58 58 57 57 57 56 58 -193 54 53 53 52 52 52 53 52 52 53 53 53 55 56 55 55 56 56 57 57 57 58 56 59 58 -209 -209 -193 -193 -193 77 77 77 83 80 79 82 81 79 80 82 81 77 79 78 73 60 63 55 55 56 58 69 79 76 79 77 77 78 78 78 75 71 58 55 54 54 53 52 53 53 53 53 52 52 52 54 51 51 52 51 51 52 52 52 47 56 59 57 65 65 64 66 66 65 65 63 66 61 66 68 67 72 71 -193 -193 72 72 71 69 68 63 62 61 60 60 59 58 57 57 56 64 80 -177 98 97 102 97 97 98 97 96 94 96 96 90 94 95 58 55 53 52 52 52 52 53 53 53 55 55 54 55 56 56 -193 -193 -209 -209 -209 -193 -209 -193 132 133 132 132 132 132 130 132 -193 -193 -193 64 66 63 64 64 64 65 64 66 67 68 69 68 69 0 0 0 0 0
    0 0 0 0 0 0 0 0 0 0 0 0 0 0 0 0 0 0 0 0 0 0 0 0 0 0 0 0 0 0 0 0 0 0 0 0 0 0 0 0 0 0 0 0 0 0 0 0 0 0 0 0 0 0 0 0 0 0 0 0 0 0 0 0 0 0 0 0 0 71 72 69 71 71 69 70 70 70 70 72 73 73 76 74 74 74 74 74 71 71 68 63 64 63 63 -193 66 69 71 74 75 75 73 74 74 73 73 73 73 73 73 74 -193 71 71 70 -193 57 55 57 63 62 65 65 66 70 70 69 -209 54 54 52 52 53 53 52 53 54 56 -193 60 69 59 59 59 59 60 60 59 60 58 61 62 -193 -209 -209 -193 -193 78 77 78 83 80 79 82 80 79 80 82 81 76 79 76 68 59 61 56 55 58 60 71 80 76 78 77 77 78 77 77 75 70 56 54 54 53 53 52 53 53 53 54 52 53 53 54 52 52 53 52 53 53 53 54 52 58 62 59 67 65 65 66 66 66 65 64 66 60 67 67 68 73 71 72 72 71 71 70 69 67 62 61 61 60 60 59 58 57 57 56 66 -177 -177 96 96 101 97 97 98 97 96 94 96 97 90 94 -193 62 58 55 52 52 51 51 52 52 52 55 55 54 55 56 57 -193 -193 -193 -209 -209 -209 -193 -193 132 133 131 131 132 131 130 132 -193 -193 -193 64 65 62 63 63 63 64 63 66 66 68 69 68 69 0 0 0 0 0
    0 0 0 0 0 0 0 0 0 0 0 0 0 0 0 0 0 0 0 0 0 0 0 0 0 0 0 0 0 0 0 0 0 0 0 0 0 0 0 0 0 0 0 0 0 0 0 0 0 0 0 0 0 0 0 0 0 0 0 0 0 0 0 0 0 0 0 0 0 72 73 71 73 73 73 75 74 75 75 78 76 76 79 76 75 75 75 75 74 73 72 68 69 68 68 -193 -193 -193 -193 76 77 78 74 76 76 74 74 74 74 74 74 75 74 73 73 73 -209 60 57 60 69 69 71 71 71 73 72 73 72 57 56 53 53 53 54 53 53 55 60 62 67 73 68 68 65 65 65 65 62 63 61 67 66 71 -209 -193 77 80 78 78 78 83 80 79 82 80 79 81 81 80 76 78 76 66 61 62 58 56 62 66 73 79 76 78 77 77 78 77 77 76 73 56 55 54 54 53 53 54 54 54 55 53 54 54 55 53 53 54 53 55 55 56 56 56 62 69 63 69 66 65 66 66 66 65 64 66 60 68 68 69 74 71 71 71 70 70 69 68 67 61 61 61 59 59 58 58 57 56 56 66 -177 -177 95 95 101 96 97 98 97 97 94 97 97 90 95 -193 60 58 56 54 54 53 53 54 53 54 55 55 54 55 56 57 56 -193 -209 -209 -209 -209 130 133 131 133 131 131 131 131 129 131 -193 -193 -193 65 65 62 63 63 63 64 63 68 66 69 69 69 69 0 0 0 0 0
    0 0 0 0 0 0 0 0 0 0 0 0 0 0 0 0 0 0 0 0 0 0 0 0 0 0 0 0 0 0 0 0 0 0 0 0 0 0 0 0 0 0 0 0 0 0 0 0 0 0 0 0 0 0 0 0 0 0 0 0 0 0 0 0 0 0 0 0 0 72 73 72 73 74 75 79 78 79 79 83 79 78 81 76 76 76 76 76 75 75 74 71 72 72 72 -193 -193 -193 -193 77 79 80 76 78 78 76 75 76 76 75 75 76 75 74 75 75 73 71 71 70 73 73 73 74 73 74 74 74 74 63 61 55 54 54 55 55 56 58 67 71 72 74 72 72 70 70 70 70 66 66 66 70 69 72 -209 73 79 80 78 78 78 83 80 80 82 79 79 81 81 79 76 77 75 66 63 63 60 58 69 71 74 79 77 79 78 78 78 77 78 77 74 59 55 55 54 54 54 55 55 56 57 56 56 56 56 54 55 55 55 57 58 59 62 66 71 73 69 71 66 65 66 66 65 65 64 66 61 70 69 71 75 71 71 71 69 70 69 68 66 61 61 61 58 59 58 58 56 54 56 65 -177 -177 95 96 101 97 97 98 97 97 95 98 97 91 98 -193 60 59 59 56 56 55 56 56 55 55 56 56 54 55 57 57 57 55 -209 -209 -209 -193 130 133 130 132 131 130 130 129 128 129 124 -193 62 64 64 62 63 63 63 65 64 69 68 70 70 70 70 0 0 0 0 0
    0 0 0 0 0 0 0 0 0 0 0 0 0 0 0 0 0 0 0 0 0 0 0 0 0 0 0 0 0 0 0 0 0 0 0 0 0 0 0 0 0 0 0 0 0 0 0 0 0 0 0 0 0 0 0 0 0 0 0 0 0 0 0 0 0 0 0 0 0 72 73 73 74 75 77 80 79 81 81 84 79 78 80 76 76 76 76 76 75 76 75 73 74 74 74 72 75 74 76 79 81 83 78 80 81 78 77 78 77 76 76 78 76 75 76 77 75 75 76 75 76 75 75 75 75 75 74 74 75 71 71 56 56 56 58 58 62 66 71 75 74 76 74 74 73 73 73 -209 69 69 68 71 70 73 -193 74 80 80 78 78 78 84 80 80 82 79 79 81 80 79 76 76 75 69 65 65 65 66 74 74 76 81 78 80 79 78 78 78 78 77 75 68 56 55 55 55 55 56 57 58 59 59 60 59 59 57 57 58 58 61 64 65 70 73 74 75 72 72 68 67 67 67 66 66 66 67 62 72 72 72 77 73 72 72 70 70 69 68 65 61 62 62 58 59 58 58 56 55 57 68 -177 -177 95 98 100 97 97 99 98 97 95 98 97 91 99 -193 60 59 59 56 56 57 57 58 56 56 57 58 56 56 58 58 59 57 -193 -209 -177 -177 129 133 130 132 130 128 129 128 128 128 124 -193 61 63 63 63 63 63 63 66 64 70 68 71 70 70 70 0 0 0 0 0
    0 0 0 0 0 0 0 0 0 0 0 0 0 0 0 0 0 0 0 0 0 0 0 0 0 0 0 0 0 0 0 0 0 0 0 0 0 0 0 0 0 0 0 0 0 0 0 0 0 0 0 0 0 0 0 0 0 0 0 0 0 0 0 0 0 0 0 0 0 72 74 -193 -193 -193 -209 124 125 -193 -209 -209 79 78 80 76 76 76 76 76 76 76 76 74 74 75 75 73 76 75 77 80 83 -193 -193 83 83 80 79 79 78 76 76 79 77 76 78 79 77 77 80 78 78 77 76 76 76 75 75 75 76 74 74 -193 61 62 67 72 72 73 74 78 76 78 76 76 76 75 75 75 72 72 71 73 72 74 74 76 80 79 78 78 78 83 80 80 81 79 79 81 80 78 76 76 75 70 67 67 68 73 75 76 77 82 79 80 79 79 78 77 77 77 75 70 58 56 56 56 56 58 60 60 63 62 64 67 64 61 61 65 67 68 71 71 73 75 76 76 74 74 70 69 69 68 67 67 67 68 64 73 73 74 79 75 74 73 70 71 70 69 66 61 62 62 58 59 58 59 57 57 59 70 86 -177 94 98 99 96 97 98 98 97 95 98 96 92 98 -193 62 62 62 57 58 59 60 59 57 58 59 61 59 59 61 60 62 60 -193 -193 -177 -177 129 133 129 132 130 128 128 128 127 128 124 59 61 62 62 63 63 63 62 66 64 69 68 70 70 70 70 0 0 0 0 0
    0 0 0 0 0 0 0 0 0 0 0 0 0 0 0 0 0 0 0 0 0 0 0 0 0 0 0 0 0 0 0 0 0 0 0 0 0 0 0 0 0 0 0 0 0 0 0 0 0 0 0 0 0 0 0 0 0 0 0 0 0 0 0 0 0 0 0 0 0 126 125 126 125 -193 123 127 128 127 126 126 -193 -193 79 75 75 75 75 76 76 76 76 74 75 76 -193 75 78 -209 -209 -209 -209 -209 -209 -209 -209 -209 -193 -193 -193 76 75 79 76 76 79 81 79 79 81 79 80 78 76 76 76 75 75 75 76 75 76 76 73 78 75 79 79 77 75 81 77 79 78 78 78 77 76 77 73 74 72 74 73 74 74 76 80 78 78 78 78 82 80 80 81 79 79 81 80 78 76 76 75 70 67 69 71 74 76 76 77 81 79 80 80 80 79 79 79 79 77 76 73 64 59 60 60 61 63 63 67 66 67 70 68 67 67 70 71 71 73 73 76 76 77 77 76 75 73 71 71 69 69 69 68 69 66 74 74 75 80 77 75 75 71 71 71 70 67 62 63 63 58 60 60 60 60 60 69 75 87 102 94 98 99 96 97 98 98 97 95 98 95 91 95 66 69 68 68 63 61 61 63 61 59 60 61 63 61 62 65 63 66 66 -193 -209 -209 -177 129 134 129 131 130 128 128 127 127 128 124 59 61 62 63 63 63 63 63 66 65 69 68 70 70 70 69 0 0 0 0 0
    0 0 0 0 0 0 0 0 0 0 0 0 0 0 0 0 0 0 0 0 0 0 0 0 0 0 0 0 0 0 0 0 0 0 0 0 0 0 0 0 0 0 0 0 0 0 0 0 0 0 0 0 0 0 0 0 0 0 0 0 0 0 0 0 0 0 0 0 0 129 129 128 128 127 126 128 130 127 127 127 127 -193 -193 74 74 75 75 75 76 77 77 -193 -209 -209 -209 -209 -209 132 -209 -209 -209 -209 -193 -209 -209 -209 -209 -209 -209 -209 -209 78 76 77 79 81 79 79 81 80 80 79 76 77 76 75 75 75 76 76 77 78 77 87 -193 -209 -209 -209 -193 -193 78 79 78 79 78 78 77 78 74 75 74 75 74 74 74 77 80 78 77 78 78 82 80 80 80 78 80 81 80 78 77 77 75 73 71 73 73 75 76 77 77 80 79 80 79 80 79 79 79 79 77 75 73 70 62 65 66 66 66 66 70 69 70 71 70 69 69 71 72 72 74 74 77 77 77 78 77 77 75 73 74 71 71 71 70 71 70 75 76 76 81 79 77 76 72 72 71 71 68 63 64 64 59 65 66 68 71 74 78 83 87 98 92 97 97 95 97 98 98 97 95 98 94 91 94 67 69 70 69 66 62 61 64 60 58 59 60 63 61 63 65 65 68 -193 -209 -209 -209 128 128 134 129 131 129 127 127 126 127 127 123 60 62 63 63 63 64 64 62 66 65 69 68 69 69 69 69 0 0 0 0 0
    0 0 0 0 0 0 0 0 0 0 0 0 0 0 0 0 0 0 0 0 0 0 0 0 0 0 0 0 0 0 0 0 0 0 0 0 0 0 0 0 0 0 0 0 0 0 0 0 0 0 0 0 0 0 0 0 0 0 0 0 0 0 0 0 0 0 0 0 0 129 130 129 128 129 128 129 130 129 129 128 129 131 131 -209 73 74 -193 -193 -193 -193 -209 -209 -209 -209 -209 -209 131 132 -193 -209 -209 133 135 134 134 -209 -209 -209 -209 -193 -209 -193 78 79 82 82 81 81 82 82 82 80 77 77 76 75 76 76 77 78 79 -193 -193 -193 -193 123 -209 -209 -209 -177 -193 78 76 78 78 77 77 78 74 76 75 76 75 75 75 77 80 78 78 79 79 82 81 81 80 78 79 80 79 79 78 78 77 76 75 77 76 78 78 78 79 81 80 80 79 80 79 79 79 79 78 77 74 73 69 70 70 70 70 70 72 72 72 73 71 71 70 72 72 73 74 74 78 77 77 79 78 78 76 75 76 74 73 74 73 73 73 77 78 78 82 80 77 76 72 72 71 71 68 64 64 65 59 73 74 78 77 81 83 85 87 93 90 95 94 94 96 97 97 97 95 98 93 91 94 65 68 69 69 66 62 60 63 60 59 60 61 63 63 65 68 69 71 -209 -177 -209 -209 126 127 134 128 130 129 127 127 125 127 127 122 61 62 63 63 63 64 64 62 66 65 69 67 69 69 69 68 0 0 0 0 0
    0 0 0 0 0 0 0 0 0 0 0 0 0 0 0 0 0 0 0 0 0 0 0 0 0 0 0 0 0 0 0 0 0 0 0 0 0 0 0 0 0 0 0 0 0 0 0 0 0 0 0 0 0 0 0 0 0 0 0 0 0 0 0 0 0 0 0 0 0 129 129 128 128 129 128 129 130 129 130 129 130 131 132 134 -209 -209 -209 -209 -209 -209 -209 -209 -209 -209 -209 132 131 132 133 -209 -193 134 135 133 133 -193 -209 -209 -209 -209 -209 -209 -209 82 83 -193 83 -193 83 84 83 81 77 78 77 76 76 76 79 80 -209 -209 -209 -209 -193 126 126 -193 -209 -193 -209 -209 -209 75 76 76 76 77 74 76 75 77 75 75 75 78 80 79 80 81 79 82 82 82 80 79 80 80 79 79 79 80 79 79 77 82 80 81 81 80 80 81 81 81 80 80 79 80 79 80 80 79 77 75 73 74 73 73 72 73 73 74 74 74 73 73 72 74 73 74 74 74 78 77 78 79 78 78 77 77 78 75 76 76 75 75 76 79 79 80 83 82 78 77 72 71 70 70 65 62 63 66 60 73 79 84 80 83 84 86 87 91 89 94 93 93 95 96 96 96 94 98 92 91 92 68 70 70 71 69 66 65 68 64 64 66 66 67 68 68 71 72 74 -193 -193 -209 -209 125 126 133 128 129 129 127 126 126 127 127 122 62 63 63 63 64 64 64 62 67 66 69 68 69 69 69 68 0 0 0 0 0
    0 0 0 0 0 0 0 0 0 0 0 0 0 0 0 0 0 0 0 0 0 0 0 0 0 0 0 0 0 0 0 0 0 0 0 0 0 0 0 0 0 0 0 0 0 0 0 0 0 0 0 0 0 0 0 0 0 0 0 0 0 0 0 0 0 0 0 0 0 129 129 128 127 128 128 129 130 129 130 130 131 131 132 133 -193 133 137 -209 -209 -209 134 134 133 132 -209 133 132 132 133 134 133 134 134 132 132 134 134 133 133 133 133 132 133 -193 129 -193 -209 -193 -193 -193 -193 84 78 79 78 -193 -193 -193 -193 -209 -209 -209 -209 129 124 129 128 128 130 126 -193 -209 -209 -209 -209 -209 76 -209 -209 75 74 77 74 74 75 79 82 81 82 83 81 84 83 82 81 80 81 81 79 79 80 81 80 80 79 83 81 82 81 81 80 81 81 82 81 82 81 82 82 83 83 82 79 76 76 76 74 75 73 74 74 75 76 75 74 74 73 75 74 75 74 74 78 77 78 80 79 79 78 79 80 77 78 80 77 77 79 81 81 82 84 84 80 82 76 73 72 72 66 63 67 68 66 74 83 85 81 84 85 87 87 90 89 94 93 93 95 96 96 96 94 98 91 92 -193 67 72 71 71 70 66 66 69 66 69 70 69 71 71 72 74 75 78 -193 -209 -209 -193 125 128 133 128 129 129 126 126 126 127 127 122 62 63 63 63 64 64 64 63 67 67 69 68 69 69 69 68 0 0 0 0 0
    0 0 0 0 0 0 0 0 0 0 0 0 0 0 0 0 0 0 0 0 0 0 0 0 0 0 0 0 0 0 0 0 0 0 0 0 0 0 0 0 0 0 0 0 0 0 0 0 0 0 0 0 0 0 0 0 0 0 0 0 0 0 0 0 0 0 0 0 0 129 130 129 128 129 129 130 131 129 131 131 132 132 133 133 135 133 137 136 -193 135 134 134 134 133 134 134 133 132 133 134 133 133 133 132 132 133 133 133 132 133 133 133 134 134 132 134 -209 128 127 -193 -193 -209 -209 -193 -209 -193 -209 -209 -209 -209 -193 -193 132 132 130 132 130 130 131 127 130 130 -193 -209 -209 -209 -209 -209 -209 -209 -209 -209 -209 -209 -209 -209 -209 83 84 85 84 86 85 83 82 82 84 -209 -209 -209 -209 -209 -209 -209 -209 -193 79 81 80 81 80 82 82 83 83 84 83 85 84 86 85 84 83 78 78 79 77 78 76 -193 75 78 78 76 75 76 74 76 75 76 73 73 78 78 78 80 80 80 80 81 82 79 82 84 81 81 83 84 83 83 84 83 81 83 79 75 74 75 72 65 70 70 73 77 85 86 83 85 85 87 88 90 89 95 92 93 95 95 95 95 94 97 89 91 -209 67 74 -209 71 -209 -209 -209 -209 70 76 75 74 76 75 77 77 79 83 -209 -209 -209 128 125 128 132 128 128 129 126 126 126 127 126 122 62 63 63 63 65 65 65 64 68 67 69 69 69 69 70 69 0 0 0 0 0
    0 0 0 0 0 0 0 0 0 0 0 0 0 0 0 0 0 0 0 0 0 0 0 0 0 0 0 0 0 0 0 0 0 0 0 0 0 0 0 0 0 0 0 0 0 0 0 0 0 0 0 0 0 0 0 0 0 0 0 0 0 0 0 0 0 0 0 0 0 130 131 130 129 130 130 130 131 130 132 131 132 133 134 133 135 133 136 135 136 135 134 135 134 134 135 134 134 133 133 134 132 132 133 132 132 133 133 133 133 133 133 133 134 134 133 134 131 130 130 131 131 -193 -193 -209 -193 133 133 132 130 130 132 133 131 131 131 132 130 130 132 128 130 130 129 129 127 -193 -209 -177 -209 -177 -193 128 -193 -193 -193 -193 -193 -193 -209 -209 -193 -193 -209 -193 -209 84 -209 -193 -209 -209 130 132 -193 -209 132 130 128 -193 -193 80 80 83 82 83 84 85 85 87 -193 -209 -209 86 -193 79 81 82 79 81 -193 -193 -193 80 -193 -193 -193 -209 -209 76 77 78 73 73 78 78 78 80 81 80 81 83 84 82 85 86 84 86 87 86 86 85 84 83 82 84 82 77 77 79 74 69 72 72 75 78 85 87 84 85 86 87 89 91 89 96 93 94 95 95 95 94 94 97 -193 -193 -209 -193 -209 -209 71 -209 -209 -209 79 76 82 82 78 82 79 79 79 81 84 -209 -209 -209 127 124 129 130 127 127 129 127 126 126 128 126 -193 62 63 63 64 66 66 66 66 68 68 69 69 69 69 69 69 0 0 0 0 0
    0 0 0 0 0 0 0 0 0 0 0 0 0 0 0 0 0 0 0 0 0 0 0 0 0 0 0 0 0 0 0 0 0 0 0 0 0 0 0 0 0 0 0 0 0 0 0 0 0 0 0 0 0 0 0 0 0 0 0 0 0 0 0 0 0 0 0 0 0 130 131 130 129 130 130 130 131 130 132 131 132 133 134 133 135 133 136 134 136 135 135 135 135 134 136 134 134 133 133 133 132 132 133 131 131 132 132 133 132 133 133 132 133 134 132 133 131 130 131 132 133 134 -193 -193 132 134 133 133 131 131 132 133 131 131 131 133 130 130 132 129 130 130 130 129 128 130 130 -193 -193 -193 129 129 129 130 -193 131 131 130 131 126 129 129 126 126 125 125 125 128 133 128 129 132 132 132 132 132 130 129 132 -193 -193 -209 -193 84 -193 -209 -209 -209 -209 -209 126 -193 127 129 -193 -193 82 85 -209 -209 -209 -209 -193 -209 -193 -193 -193 -193 79 81 73 73 80 78 78 81 81 81 80 83 84 82 86 87 85 87 89 87 87 87 85 84 84 86 86 84 84 86 84 77 87 80 80 82 86 88 85 87 88 88 90 92 90 98 93 95 96 95 96 95 94 97 85 -209 -209 -209 -209 66 69 -209 -209 -209 77 76 84 83 79 84 82 82 82 84 86 -209 -209 -209 126 124 129 129 127 127 129 127 127 127 128 126 -193 -193 65 64 65 66 66 67 67 69 68 69 69 69 70 70 69 0 0 0 0 0
    0 0 0 0 0 0 0 0 0 0 0 0 0 0 0 0 0 0 0 0 0 0 0 0 0 0 0 0 0 0 0 0 0 0 0 0 0 0 0 0 0 0 0 0 0 0 0 0 0 0 0 0 0 0 0 0 0 0 0 0 0 0 0 0 0 0 0 0 0 130 131 130 130 131 130 130 131 130 132 131 133 133 134 134 135 133 136 135 136 135 135 135 136 135 136 134 134 132 133 133 132 132 133 131 131 132 132 132 132 133 132 130 132 133 130 131 130 130 130 132 132 133 134 -193 133 135 133 133 132 132 133 134 131 131 131 133 130 131 132 130 131 130 130 130 128 131 131 127 131 126 130 129 129 130 130 131 131 129 131 127 130 131 128 128 126 127 127 129 133 128 128 132 132 132 132 132 130 129 132 131 130 130 129 -193 -209 -209 -209 -209 -193 127 128 131 129 130 130 129 -193 -209 133 136 132 133 -193 -193 -193 -193 131 132 127 133 -209 73 81 77 78 81 82 81 81 83 84 83 87 87 86 88 89 88 87 88 87 84 86 88 88 -193 -193 -209 -209 83 95 -209 81 -209 -193 -209 86 88 89 -209 93 96 92 100 95 97 98 97 98 97 96 99 75 -209 -209 -209 -209 -209 66 -209 -209 -209 -209 76 84 82 79 84 84 -193 84 -193 -209 -209 -209 126 126 124 130 129 127 128 129 127 127 127 128 124 123 126 69 67 67 68 69 69 69 70 70 70 70 70 71 70 70 0 0 0 0 0
    0 0 0 0 0 0 0 0 0 0 0 0 0 0 0 0 0 0 0 0 0 0 0 0 0 0 0 0 0 0 0 0 0 0 0 0 0 0 0 0 0 0 0 0 0 0 0 0 0 0 0 0 0 0 0 0 0 0 0 0 0 0 0 0 0 0 0 0 0 131 131 130 130 131 131 130 131 130 132 131 135 134 137 136 137 135 137 136 136 136 136 136 136 135 136 133 133 132 133 133 131 132 133 131 131 132 132 131 131 132 132 130 132 132 130 131 131 130 130 131 131 134 134 -193 134 135 134 134 133 133 133 134 131 132 132 134 131 131 133 131 131 131 131 131 129 131 131 128 132 127 131 131 130 131 131 132 131 130 132 129 131 131 129 129 127 128 129 130 133 128 128 131 132 131 131 132 130 129 131 130 129 128 128 127 -193 128 -193 -193 129 129 129 131 131 131 131 131 134 134 132 135 132 132 133 133 -193 132 131 132 129 134 133 -209 -193 77 78 82 83 81 81 83 84 84 87 87 87 89 91 91 91 97 -209 -193 -193 123 125 125 125 126 128 125 124 126 127 126 126 128 -193 88 -209 -209 -193 99 95 101 97 99 100 99 100 100 99 102 -193 -193 124 -193 131 131 -193 -193 -209 -209 -209 -209 -209 -209 -209 -193 -209 -209 -209 -209 -209 -193 -193 127 125 124 130 129 127 128 130 128 127 128 129 123 123 124 -209 71 70 69 71 71 71 72 71 71 71 71 72 71 71 0 0 0 0 0
    0 0 0 0 0 0 0 0 0 0 0 0 0 0 0 0 0 0 0 0 0 0 0 0 0 0 0 0 0 0 0 0 0 0 0 0 0 0 0 0 0 0 0 0 0 0 0 0 0 0 0 0 0 0 0 0 0 0 0 0 0 0 0 0 0 0 0 0 0 -193 132 131 130 132 131 131 131 131 133 -193 136 136 139 139 139 137 138 137 137 138 139 138 138 -209 -193 -193 -193 -193 135 134 132 132 133 130 131 132 131 130 130 131 131 128 131 132 130 132 131 130 130 132 132 135 134 -193 133 135 133 133 132 132 132 133 131 131 132 134 131 132 133 131 132 131 132 131 130 132 132 129 132 128 132 131 131 132 131 132 131 130 132 130 131 131 129 129 127 128 129 130 132 128 129 131 131 131 131 131 130 128 131 130 128 128 128 127 125 129 130 127 129 130 130 131 131 132 131 131 133 133 132 134 132 132 132 133 132 131 131 132 129 133 132 -193 -193 -193 79 83 84 82 82 84 85 85 88 88 89 91 95 97 100 109 122 126 126 126 128 126 127 128 129 126 125 128 128 127 127 129 129 -209 -193 124 -209 -193 -193 103 99 101 103 101 102 102 102 104 -209 -193 124 126 130 131 131 133 137 137 137 138 138 -209 139 -193 -193 136 135 135 134 133 -193 129 125 124 129 128 127 128 130 128 128 129 130 123 125 126 -209 -209 71 70 -209 -209 -209 -193 -193 -193 73 75 77 78 79 0 0 0 0 0
    0 0 0 0 0 0 0 0 0 0 0 0 0 0 0 0 0 0 0 0 0 0 0 0 0 0 0 0 0 0 0 0 0 0 0 0 0 0 0 0 0 0 0 0 0 0 0 0 0 0 0 0 0 0 0 0 0 0 0 0 0 0 0 0 0 0 0 0 0 -209 -193 -193 130 132 132 132 132 132 134 -193 136 -193 145 145 143 140 142 145 142 -209 149 149 150 154 -193 -209 -209 -209 -209 136 134 133 134 131 131 132 131 131 131 131 131 129 132 134 132 134 134 132 134 -209 -209 137 -209 -209 -193 135 133 133 132 132 132 133 130 130 131 134 131 132 133 131 132 131 132 131 129 132 131 129 132 128 132 132 132 132 131 132 131 130 132 130 130 131 129 129 127 128 129 130 132 128 129 131 131 131 131 131 130 128 131 130 128 128 128 127 126 130 130 128 129 130 130 131 131 132 130 131 133 133 131 134 131 131 131 132 130 131 130 131 127 132 131 130 128 131 -193 84 85 84 82 84 86 86 90 90 92 98 -193 -193 -193 122 125 127 127 128 129 127 128 129 130 127 126 129 128 127 128 129 128 123 123 124 122 123 121 121 103 104 111 -193 107 117 116 -193 122 122 126 127 132 133 134 135 138 139 139 139 139 138 140 143 -193 -193 134 134 134 133 -193 129 126 125 129 127 127 128 129 127 127 128 129 123 126 126 125 -193 125 127 134 138 138 140 142 -193 -209 -209 -209 -209 -209 0 0 0 0 0
    0 0 0 0 0 0 0 0 0 0 0 0 0 0 0 0 0 0 0 0 0 0 0 0 0 0 0 0 0 0 0 0 0 0 0 0 0 0 0 0 0 0 0 0 0 0 0 0 0 0 0 0 0 0 0 0 0 0 0 0 0 0 0 0 0 0 0 0 0 -209 -209 -209 -193 133 -209 -209 -209 -209 -193 -209 -209 157 157 156 155 153 154 155 156 157 157 157 158 162 161 162 -209 -209 -209 -209 135 134 134 131 132 132 132 132 132 132 133 131 135 136 137 138 138 137 142 141 142 141 -193 -209 -209 136 134 133 132 132 132 133 131 131 132 135 131 132 133 131 132 131 131 131 129 132 131 129 132 128 132 132 132 132 132 133 131 130 132 130 130 131 129 129 127 129 128 130 132 128 128 131 131 131 131 131 130 128 131 130 128 128 129 127 127 130 131 129 130 131 131 131 131 132 130 131 133 132 130 133 131 130 131 131 130 130 130 130 127 131 131 130 129 131 132 133 135 135 -209 84 88 -209 96 -209 -209 114 122 123 123 124 128 129 128 129 130 128 130 130 131 128 128 131 130 129 130 130 129 125 125 126 124 124 123 123 122 117 122 122 121 122 123 124 124 125 129 129 135 135 136 137 139 140 140 140 139 139 141 142 138 -193 134 134 134 134 -193 129 126 125 129 126 127 128 129 127 128 129 130 123 129 127 126 122 129 130 135 139 138 141 141 139 135 135 135 -209 128 0 0 0 0 0
    0 0 0 0 0 0 0 0 0 0 0 0 0 0 0 0 0 0 0 0 0 0 0 0 0 0 0 0 0 0 0 0 0 0 0 0 0 0 0 0 0 0 0 0 0 0 0 0 0 0 0 0 0 0 0 0 0 0 0 0 0 0 0 0 0 0 0 0 0 -193 -209 -209 -209 -209 -193 -193 -193 -193 -209 157 156 158 158 157 157 155 156 156 157 157 158 160 160 163 162 163 160 159 159 157 -193 -193 135 132 133 133 133 133 134 134 134 133 137 139 140 141 142 141 148 146 147 146 -209 -209 -209 -193 -193 134 133 133 133 134 132 132 134 136 132 133 133 132 132 131 132 131 130 132 131 129 132 129 133 133 133 133 132 133 131 130 131 130 130 131 129 130 127 129 128 130 132 129 128 131 131 130 131 131 130 128 131 130 128 128 129 128 128 131 131 130 131 132 132 132 133 133 131 132 133 133 130 133 131 130 130 131 130 130 130 130 127 131 131 130 130 132 131 133 134 133 132 130 -193 126 -193 -193 -193 121 124 124 125 125 130 130 128 130 130 129 130 130 131 129 129 132 130 130 130 131 130 127 126 127 125 125 124 125 124 121 125 124 123 124 125 126 126 128 131 130 136 136 137 138 140 140 140 140 139 139 140 140 138 137 135 135 135 135 135 132 128 126 129 126 128 129 130 129 131 131 131 125 135 133 130 124 132 132 136 141 141 143 143 140 134 135 135 135 132 0 0 0 0 0
    0 0 0 0 0 0 0 0 0 0 0 0 0 0 0 0 0 0 0 0 0 0 0 0 0 0 0 0 0 0 0 0 0 0 0 0 0 0 0 0 0 0 0 0 0 0 0 0 0 0 0 0 0 0 0 0 0 0 0 0 0 0 0 0 0 0 0 0 0 161 -193 -209 -193 -193 -193 -193 -193 -193 158 158 158 159 158 157 157 155 156 155 156 156 157 160 159 162 162 162 161 160 160 159 156 155 -193 133 134 135 135 135 136 136 136 135 139 144 146 145 146 147 150 149 -193 -193 -209 -209 -209 -209 -209 136 135 135 134 135 135 134 136 138 134 135 135 133 133 132 133 132 131 133 132 131 133 131 134 134 134 134 133 134 132 131 131 130 130 131 130 130 127 131 129 132 133 129 129 132 131 130 131 131 129 128 130 130 128 129 129 128 128 131 131 130 131 132 132 133 133 133 131 133 133 133 130 133 131 130 130 131 130 130 130 131 127 131 131 131 130 132 131 132 132 131 131 131 127 129 126 124 125 125 129 126 127 127 132 131 129 130 131 129 130 131 131 129 130 132 131 131 131 132 131 129 128 128 126 126 125 127 125 123 127 125 125 126 127 128 127 129 131 129 136 136 137 138 140 141 141 141 139 139 140 140 138 137 136 136 136 136 136 134 131 130 131 129 131 133 133 134 135 135 135 133 138 139 136 -193 136 136 138 142 142 143 142 140 134 135 136 137 135 0 0 0 0 0
    0 0 0 0 0 0 0 0 0 0 0 0 0 0 0 0 0 0 0 0 0 0 0 0 0 0 0 0 0 0 0 0 0 0 0 0 0 0 0 0 0 0 0 0 0 0 0 0 0 0 0 0 0 0 0 0 0 0 0 0 0 0 0 0 0 0 0 0 0 161 162 -193 -193 -193 -193 -193 -193 162 160 158 159 158 158 157 157 155 156 155 156 155 157 159 158 161 160 160 160 159 160 159 157 157 154 -193 139 139 138 138 139 140 140 138 145 150 151 151 150 152 153 152 153 -209 -209 -209 -209 154 153 151 152 147 -209 145 148 -209 141 150 136 136 136 135 135 133 134 133 132 134 133 132 134 133 135 135 136 135 134 135 132 131 132 131 131 131 130 130 128 132 130 133 133 130 130 132 132 131 131 131 130 128 131 130 128 129 129 128 128 131 131 130 131 132 133 133 134 134 132 133 134 134 131 134 131 130 131 132 130 131 130 131 128 132 132 132 130 132 131 131 131 130 130 131 128 129 127 127 127 128 131 127 128 128 132 131 129 130 131 130 130 131 131 129 130 132 131 131 131 132 132 131 131 131 129 128 127 130 127 126 130 127 127 128 128 129 128 130 132 129 137 137 138 139 140 141 141 141 139 139 140 140 139 138 136 136 136 136 137 135 133 133 132 133 134 137 137 138 139 139 139 138 139 140 137 139 138 136 138 141 142 142 140 138 135 135 137 137 136 0 0 0 0 0
    0 0 0 0 0 0 0 0 0 0 0 0 0 0 0 0 0 0 0 0 0 0 0 0 0 0 0 0 0 0 0 0 0 0 0 0 0 0 0 0 0 0 0 0 0 0 0 0 0 0 0 0 0 0 0 0 0 0 0 0 0 0 0 0 0 0 0 0 0 162 162 163 164 163 164 163 163 162 161 158 159 158 158 157 157 156 157 156 156 155 158 159 158 160 159 159 159 159 160 158 157 157 155 156 153 152 152 150 151 152 152 153 151 153 154 153 153 154 155 153 154 -193 -193 156 155 156 155 154 155 154 159 155 155 156 153 153 153 146 141 136 136 135 135 134 133 135 134 134 -209 136 139 140 138 136 136 136 134 134 134 133 132 133 132 132 130 134 132 134 134 131 131 134 133 132 132 132 131 130 132 131 129 129 129 129 129 131 132 130 131 133 133 133 134 134 132 134 135 134 132 134 131 131 131 132 131 131 131 131 128 132 132 132 130 132 130 131 131 130 130 130 128 129 127 128 128 127 131 127 128 128 132 131 129 130 131 130 131 131 131 129 129 132 130 130 130 131 131 131 131 131 131 130 129 131 128 128 132 128 128 129 129 130 129 131 132 127 137 137 138 139 140 140 140 140 139 139 140 140 140 139 138 137 137 138 138 136 134 135 133 136 137 143 141 142 143 143 143 142 141 142 138 140 139 138 140 142 142 142 139 139 135 136 137 137 137 0 0 0 0 0
    0 0 0 0 0 0 0 0 0 0 0 0 0 0 0 0 0 0 0 0 0 0 0 0 0 0 0 0 0 0 0 0 0 0 0 0 0 0 0 0 0 0 0 0 0 0 0 0 0 0 0 0 0 0 0 0 0 0 0 0 0 0 0 0 0 0 0 0 0 162 162 163 164 163 163 162 162 161 159 157 158 157 157 157 157 156 158 157 157 156 158 159 158 160 159 159 159 159 160 158 157 158 156 158 156 154 155 155 155 155 155 156 154 155 155 155 154 155 157 154 156 155 156 157 157 158 157 157 157 157 162 157 157 158 154 155 155 153 153 144 -209 136 137 -193 -209 -209 -209 138 -193 140 147 148 143 139 138 138 135 135 135 134 134 136 135 135 134 137 135 136 135 133 133 135 135 134 134 133 133 132 133 132 130 130 130 130 131 133 133 132 133 134 134 135 136 135 133 135 135 135 133 134 132 132 132 133 131 132 132 132 129 132 132 132 130 132 131 131 131 131 131 130 128 129 127 127 127 126 130 126 127 127 131 131 130 130 131 130 131 131 131 129 129 131 129 129 129 131 130 131 131 131 131 131 130 131 129 128 133 128 128 128 129 130 129 131 132 127 137 137 138 139 140 140 140 140 140 140 141 140 140 140 140 139 139 139 140 138 137 137 135 138 140 147 144 145 145 146 145 145 143 145 140 144 143 143 142 146 146 147 141 141 136 137 138 138 138 0 0 0 0 0
    0 0 0 0 0 0 0 0 0 0 0 0 0 0 0 0 0 0 0 0 0 0 0 0 0 0 0 0 0 0 0 0 0 0 0 0 0 0 0 0 0 0 0 0 0 0 0 0 0 0 0 0 0 0 0 0 0 0 0 0 0 0 0 0 0 0 0 0 0 161 161 162 164 163 163 162 161 160 159 157 157 156 156 156 157 156 158 157 157 156 159 160 158 160 159 159 159 159 160 159 158 159 156 159 158 156 158 157 157 157 158 158 156 156 157 156 155 156 158 155 156 155 156 157 157 158 158 158 159 158 162 159 159 161 156 156 157 155 155 153 154 -209 144 -209 -177 -209 -209 144 -193 146 152 152 149 143 138 139 135 136 136 136 136 138 138 140 -193 147 147 144 -193 136 136 137 138 136 136 135 135 135 -193 -193 -193 132 132 133 135 -209 135 135 135 136 136 139 139 137 135 137 137 137 134 135 133 133 133 134 132 133 133 133 130 134 134 133 131 133 132 132 131 131 131 130 128 129 126 126 126 125 128 125 126 126 132 132 131 131 132 131 132 132 132 130 130 132 130 130 131 131 131 132 132 132 133 132 132 132 130 130 134 129 129 128 129 130 129 131 132 128 137 138 138 139 140 140 140 140 140 141 142 141 141 141 143 141 143 143 145 142 141 143 137 140 143 148 144 145 146 147 146 146 145 146 142 147 147 -193 146 149 149 150 143 142 136 137 139 138 138 0 0 0 0 0
    0 0 0 0 0 0 0 0 0 0 0 0 0 0 0 0 0 0 0 0 0 0 0 0 0 0 0 0 0 0 0 0 0 0 0 0 0 0 0 0 0 0 0 0 0 0 0 0 0 0 0 0 0 0 0 0 0 0 0 0 0 0 0 0 0 0 0 0 0 -177 160 161 163 162 162 161 161 159 158 156 157 156 155 156 157 156 158 157 158 156 159 161 159 161 159 159 159 159 160 159 158 158 156 158 158 157 158 158 158 158 158 158 157 157 157 156 154 156 158 155 157 156 156 157 158 159 158 158 159 159 162 159 160 161 157 157 158 157 157 155 156 154 -193 -209 -177 -193 -193 -193 154 153 155 155 155 154 145 144 138 138 139 139 139 146 144 150 -193 153 154 153 155 143 143 147 150 153 148 149 150 153 154 155 -193 -193 -193 -193 154 -193 149 147 146 148 144 147 146 143 141 141 142 146 137 138 134 134 134 135 134 134 134 135 133 136 137 136 134 -193 -209 134 133 -193 133 131 130 130 126 126 125 125 127 124 126 125 131 132 131 132 132 131 133 133 133 131 131 134 132 132 133 134 134 135 135 134 134 134 133 133 131 131 134 129 129 128 129 129 129 131 132 129 137 138 138 139 140 140 140 140 140 141 142 142 141 142 146 146 148 149 150 150 150 150 148 148 147 149 144 145 146 147 147 147 147 148 145 150 -193 -193 150 151 151 152 146 146 138 139 141 140 141 0 0 0 0 0
    0 0 0 0 0 0 0 0 0 0 0 0 0 0 0 0 0 0 0 0 0 0 0 0 0 0 0 0 0 0 0 0 0 0 0 0 0 0 0 0 0 0 0 0 0 0 0 0 0 0 0 0 0 0 0 0 0 0 0 0 0 0 0 0 0 0 0 0 0 158 159 160 161 160 161 159 159 158 157 155 156 155 155 155 157 155 158 157 157 156 159 161 159 161 159 159 159 159 159 158 157 158 155 157 157 156 158 158 158 157 158 158 157 158 157 156 154 156 159 156 158 157 157 158 158 159 158 158 159 158 160 158 159 160 157 158 158 158 158 156 158 156 154 155 155 153 154 153 155 154 155 156 156 156 153 153 153 153 153 151 152 153 152 153 154 155 155 155 156 151 153 153 154 156 154 154 154 155 155 156 156 155 153 155 156 154 153 153 152 153 151 151 150 149 148 148 148 151 149 150 -209 135 136 137 136 136 137 138 -209 140 147 -193 -193 -193 -209 -209 -209 -177 -193 -209 134 134 127 129 127 126 129 125 126 126 132 133 132 132 133 132 133 133 134 132 132 136 135 135 136 137 138 139 141 137 136 136 136 136 133 133 134 129 129 129 129 130 130 132 132 130 137 138 139 140 141 140 140 141 141 142 143 142 142 143 148 149 151 151 152 152 153 153 153 151 150 149 145 146 147 147 148 148 148 149 147 151 -193 154 154 154 153 153 150 151 148 145 146 143 146 0 0 0 0 0
    0 0 0 0 0 0 0 0 0 0 0 0 0 0 0 0 0 0 0 0 0 0 0 0 0 0 0 0 0 0 0 0 0 0 0 0 0 0 0 0 0 0 0 0 0 0 0 0 0 0 0 0 0 0 0 0 0 0 0 0 0 0 0 0 0 0 0 0 0 157 157 158 159 159 160 159 158 157 157 155 156 155 154 154 156 155 158 157 157 156 159 161 159 161 159 158 159 159 159 158 157 158 155 157 157 156 158 158 157 157 157 157 157 158 157 156 155 158 161 157 158 157 157 158 158 158 158 158 159 158 160 158 159 160 157 157 158 158 158 157 159 157 155 157 157 155 155 155 155 154 155 156 156 157 154 154 154 155 156 155 155 155 154 155 155 156 156 156 156 154 155 155 157 158 156 156 156 156 156 156 156 155 154 155 157 155 154 154 153 153 153 153 152 151 152 152 152 154 154 154 -193 141 142 145 142 143 145 147 -193 149 153 153 154 154 155 154 155 -209 -209 -193 -193 153 -193 -193 -193 134 -193 128 131 130 134 135 133 133 134 133 134 134 134 133 133 137 137 136 138 139 141 146 152 151 153 153 151 152 -193 136 135 129 129 129 129 130 130 132 132 130 137 138 139 140 141 140 141 141 142 143 145 144 143 146 150 151 154 155 155 155 156 155 155 153 151 150 147 147 147 148 148 149 148 149 147 152 -193 155 155 156 154 155 152 152 152 149 149 146 149 0 0 0 0 0
    0 0 0 0 0 0 0 0 0 0 0 0 0 0 0 0 0 0 0 0 0 0 0 0 0 0 0 0 0 0 0 0 0 0 0 0 0 0 0 0 0 0 0 0 0 0 0 0 0 0 0 0 0 0 0 0 0 0 0 0 0 0 0 0 0 0 0 0 0 155 157 157 158 158 159 158 158 157 156 155 155 154 154 154 156 154 158 157 157 156 160 162 159 161 159 158 159 159 159 158 157 157 154 157 156 156 158 158 157 157 157 157 157 158 158 156 156 158 161 157 159 158 157 158 158 158 158 158 159 159 159 158 159 160 157 157 158 158 157 157 158 157 155 157 157 155 156 155 156 155 155 156 155 157 154 154 154 154 156 157 155 155 154 155 155 155 156 156 156 156 158 157 160 160 157 157 158 157 157 156 157 155 155 155 157 155 154 155 154 154 154 153 153 153 154 155 154 157 156 157 156 154 153 153 -193 -193 153 153 153 153 155 155 155 156 156 154 156 155 155 155 154 155 155 154 155 -193 154 -193 -193 147 141 142 136 134 135 134 136 135 135 134 134 138 138 138 145 -193 148 151 155 156 156 156 155 155 154 153 154 130 130 130 130 130 131 132 132 130 137 138 139 141 141 141 141 141 143 145 148 147 147 150 153 155 157 158 157 157 158 157 156 155 153 152 149 149 149 149 149 150 149 151 149 153 155 155 156 156 155 156 154 155 157 158 155 -193 -193 0 0 0 0 0
    0 0 0 0 0 0 0 0 0 0 0 0 0 0 0 0 0 0 0 0 0 0 0 0 0 0 0 0 0 0 0 0 0 0 0 0 0 0 0 0 0 0 0 0 0 0 0 0 0 0 0 0 0 0 0 0 0 0 0 0 0 0 0 0 0 0 0 0 0 155 156 157 158 157 158 157 157 156 155 154 154 153 153 153 155 154 158 157 158 156 160 162 160 161 159 158 159 158 158 157 156 157 154 157 157 156 158 158 158 157 158 158 157 158 159 157 158 159 161 158 159 159 158 158 158 158 158 158 158 158 158 157 159 159 157 157 158 157 157 157 158 156 155 158 157 155 155 155 155 154 154 155 155 157 155 155 155 155 157 158 157 156 155 155 155 155 156 156 156 156 159 158 162 161 158 158 159 158 157 156 157 155 155 155 158 155 154 155 155 154 154 154 154 153 155 157 155 158 157 159 157 157 156 155 154 155 156 156 155 155 156 156 156 157 156 155 156 156 156 155 155 156 156 155 156 155 155 156 155 154 153 152 149 144 141 -193 138 136 137 -193 135 140 140 143 152 -193 153 154 158 159 158 158 157 157 156 156 156 131 132 131 131 131 132 133 133 131 137 139 140 142 143 142 141 142 144 147 150 149 149 153 156 158 160 160 159 158 159 158 156 155 153 153 150 150 150 150 151 152 151 152 151 154 156 155 156 156 156 158 157 158 159 161 159 159 157 0 0 0 0 0
    0 0 0 0 0 0 0 0 0 0 0 0 0 0 0 0 0 0 0 0 0 0 0 0 0 0 0 0 0 0 0 0 0 0 0 0 0 0 0 0 0 0 0 0 0 0 0 0 0 0 0 0 0 0 0 0 0 0 0 0 0 0 0 0 0 0 0 0 0 -193 156 158 158 157 157 156 156 155 154 153 154 153 152 153 155 153 159 157 159 157 161 163 161 162 159 158 159 159 158 157 156 157 154 157 157 157 159 159 159 158 158 158 157 158 158 156 159 159 161 159 159 159 158 158 158 158 158 158 158 158 157 157 158 158 157 157 157 157 157 157 158 156 155 157 157 154 154 154 153 152 153 154 155 157 156 156 156 157 159 159 158 156 155 155 155 155 155 156 155 156 158 157 162 161 158 158 159 158 157 156 157 155 155 155 158 155 154 156 155 155 155 154 155 154 155 157 155 158 158 159 158 158 157 157 155 156 157 157 156 156 157 156 156 157 157 155 157 156 156 156 156 157 156 156 157 155 156 156 156 155 154 153 153 153 152 -193 148 150 146 -193 -193 147 146 151 155 -193 154 155 160 160 159 159 158 158 157 157 157 -193 134 133 133 133 134 134 133 132 137 139 142 144 145 144 143 144 147 149 152 151 151 156 157 159 161 161 159 159 159 159 156 156 154 154 151 151 152 152 152 154 153 154 153 155 157 156 157 159 158 159 159 159 159 161 159 159 157 0 0 0 0 0
    0 0 0 0 0 0 0 0 0 0 0 0 0 0 0 0 0 0 0 0 0 0 0 0 0 0 0 0 0 0 0 0 0 0 0 0 0 0 0 0 0 0 0 0 0 0 0 0 0 0 0 0 0 0 0 0 0 0 0 0 0 0 0 0 0 0 0 0 0 -177 -193 159 158 156 157 155 155 154 154 152 153 153 151 152 154 153 159 157 160 158 162 164 161 163 160 159 160 159 158 158 157 157 154 157 158 158 159 159 159 158 158 158 157 157 157 155 157 157 160 159 159 159 158 158 159 158 158 158 158 158 156 156 158 158 156 156 157 157 157 158 158 156 156 158 157 154 154 154 153 151 153 154 156 157 157 156 157 158 159 160 158 156 155 155 155 154 155 155 155 156 158 157 162 161 158 158 159 158 157 156 157 155 155 155 158 155 155 156 155 155 155 155 156 154 155 157 155 158 158 160 158 158 158 157 156 157 158 157 156 156 157 156 155 157 157 155 157 156 157 156 156 157 156 156 157 156 156 156 156 156 155 154 154 154 154 154 153 154 153 -193 -193 153 153 153 156 156 155 156 161 160 160 160 159 158 158 158 158 156 135 134 134 134 136 136 134 134 139 144 148 149 149 149 147 148 149 151 153 153 153 158 157 160 161 162 159 159 160 159 156 156 154 154 153 153 154 155 155 156 155 157 156 157 159 158 158 159 158 159 160 159 160 161 160 159 157 0 0 0 0 0
    0 0 0 0 0 0 0 0 0 0 0 0 0 0 0 0 0 0 0 0 0 0 0 0 0 0 0 0 0 0 0 0 0 0 0 0 0 0 0 0 0 0 0 0 0 0 0 0 0 0 0 0 0 0 0 0 0 0 0 0 0 0 0 0 0 0 0 0 0 -177 -193 -193 159 156 158 155 156 155 155 153 -193 154 153 153 158 155 160 158 160 158 163 164 161 163 160 159 160 159 158 158 157 157 155 157 158 158 159 159 158 157 157 156 155 155 156 154 156 156 158 158 158 159 158 157 158 157 157 158 157 158 156 156 158 157 156 156 157 157 157 158 159 156 156 158 158 154 155 154 153 152 153 155 157 158 159 158 158 159 161 161 159 156 155 155 155 154 155 155 155 156 157 157 162 161 159 158 159 158 157 156 157 154 154 154 157 154 155 156 155 156 156 155 156 154 156 159 155 159 160 161 159 159 158 158 156 157 159 157 156 156 157 156 155 157 156 155 157 156 157 155 156 157 156 156 157 156 157 157 157 157 155 155 155 155 155 156 155 156 155 154 155 154 154 154 156 155 155 156 162 160 160 160 159 158 158 158 159 156 152 138 138 136 140 148 -193 141 148 153 153 153 152 153 150 150 151 152 154 154 154 160 157 159 160 161 158 158 158 158 154 155 154 154 154 155 156 158 160 161 160 163 163 165 165 163 161 161 159 160 160 160 160 161 160 160 158 0 0 0 0 0
    0 0 0 0 0 0 0 0 0 0 0 0 0 0 0 0 0 0 0 0 0 0 0 0 0 0 0 0 0 0 0 0 0 0 0 0 0 0 0 0 0 0 0 0 0 0 0 0 0 0 0 0 0 0 0 0 0 0 0 0 0 0 0 0 0 0 0 0 0 -177 -193 164 161 157 160 156 157 158 -209 -209 -193 -193 -209 -209 -209 -209 -209 160 163 159 164 165 161 163 160 159 160 159 158 157 157 157 154 157 157 157 158 158 157 156 156 155 154 154 155 153 156 156 158 158 158 159 158 157 158 157 157 158 157 157 155 155 158 157 156 156 157 157 157 158 158 156 156 158 158 154 155 154 -209 -193 -193 156 160 160 161 159 159 159 160 161 159 156 155 154 154 154 154 155 154 155 156 156 162 160 159 158 159 157 157 157 157 154 154 154 157 154 155 156 156 156 155 155 156 154 156 159 156 161 161 162 160 159 158 158 156 157 159 157 156 156 158 156 155 158 157 155 157 156 157 155 157 157 156 157 157 156 157 157 157 157 156 155 156 156 156 157 157 157 156 155 156 155 155 154 156 155 155 156 162 160 161 160 159 159 159 159 159 156 155 153 150 151 153 154 155 154 154 155 156 155 154 154 152 152 152 153 154 154 155 162 158 159 160 160 158 158 158 157 154 154 154 154 154 156 157 159 163 164 164 166 167 168 168 166 164 163 162 161 161 162 161 162 161 161 159 0 0 0 0 0
    0 0 0 0 0 0 0 0 0 0 0 0 0 0 0 0 0 0 0 0 0 0 0 0 0 0 0 0 0 0 0 0 0 0 0 0 0 0 0 0 0 0 0 0 0 0 0 0 0 0 0 0 0 0 0 0 0 0 0 0 0 0 0 0 0 0 0 0 0 -193 -193 167 164 158 161 157 159 -209 -209 -209 -209 -209 -209 -209 -209 187 195 -193 -193 -193 166 166 162 163 160 159 159 159 158 157 156 157 155 158 158 157 158 157 156 155 155 154 154 153 -193 153 156 156 157 158 -193 159 158 157 157 156 156 157 156 157 155 155 158 157 156 156 157 157 157 158 158 156 156 159 158 154 155 -193 -209 -209 -209 158 162 161 162 160 159 159 159 160 158 156 155 154 154 153 154 154 154 155 155 156 162 160 159 158 159 158 157 157 157 154 155 154 158 154 155 156 156 155 155 155 156 154 157 158 156 161 162 162 160 159 157 158 156 157 159 157 156 156 159 156 156 158 157 156 157 156 157 155 157 158 156 157 157 156 157 156 156 156 155 155 155 155 156 158 157 157 156 156 156 155 155 155 156 155 155 156 162 160 160 160 159 159 159 159 159 157 156 155 154 155 156 157 157 156 156 156 157 156 156 156 154 154 154 155 155 155 156 162 158 159 160 160 158 158 158 158 154 155 154 154 155 158 161 163 166 166 168 169 170 171 171 170 168 166 165 163 162 162 161 162 162 162 159 0 0 0 0 0
    0 0 0 0 0 0 0 0 0 0 0 0 0 0 0 0 0 0 0 0 0 0 0 0 0 0 0 0 0 0 0 0 0 0 0 0 0 0 0 0 0 0 0 0 0 0 0 0 0 0 0 0 0 0 0 0 0 0 0 0 0 0 0 0 0 0 0 0 0 -209 -209 -209 -209 161 163 -193 -193 -209 -209 -209 -209 -209 -209 -209 -193 191 197 -209 -209 -209 167 -193 162 164 160 160 160 160 158 157 157 158 155 160 159 158 159 157 156 155 155 154 153 153 -209 153 157 156 158 -193 -193 -193 158 157 157 155 158 158 157 159 155 155 159 157 156 156 158 157 157 159 159 156 157 160 158 155 156 -193 -209 -209 -193 160 163 162 163 161 159 159 159 160 158 156 155 154 154 154 154 155 154 154 155 155 162 159 158 158 159 157 157 157 157 154 156 155 158 154 155 156 156 155 155 155 156 154 157 158 -193 160 162 162 160 158 157 157 156 157 158 157 157 156 159 156 156 158 156 156 157 156 157 155 157 158 156 157 157 156 157 156 156 156 155 155 155 155 156 158 157 158 157 156 157 156 156 156 157 156 156 157 162 159 160 160 159 159 159 159 159 157 158 156 157 158 159 159 159 158 159 158 159 158 158 158 157 157 157 157 157 157 158 163 159 159 160 160 158 158 158 157 153 154 153 154 155 160 165 166 168 168 172 171 172 173 173 171 170 169 168 163 162 162 161 162 162 163 159 0 0 0 0 0
    0 0 0 0 0 0 0 0 0 0 0 0 0 0 0 0 0 0 0 0 0 0 0 0 0 0 0 0 0 0 0 0 0 0 0 0 0 0 0 0 0 0 0 0 0 0 0 0 0 0 0 0 0 0 0 0 0 0 0 0 0 0 0 0 0 0 0 0 0 -209 -209 -209 -209 -209 -209 -209 -209 -209 -209 -209 -209 -209 197 198 194 197 199 198 197 -209 -209 -209 162 164 160 161 160 160 159 158 157 158 156 162 160 160 160 158 156 -209 -193 153 153 -209 -209 -209 158 -209 -193 -209 -209 -209 -209 -209 -209 -193 -193 162 159 160 156 156 159 157 156 157 158 158 158 159 159 156 158 160 159 156 157 155 -193 -193 -209 -193 167 165 166 163 160 160 158 158 156 154 153 153 153 153 154 154 154 154 154 155 161 158 157 157 158 157 157 157 157 155 156 155 158 155 155 156 156 156 155 155 156 154 157 157 -193 158 162 162 160 158 157 158 157 157 158 157 157 157 160 156 156 158 156 156 157 156 157 155 157 157 156 157 157 156 157 156 156 156 155 155 155 155 156 158 157 158 156 156 157 156 156 156 156 156 155 157 162 159 160 160 159 158 159 159 159 157 158 157 158 160 161 161 160 159 160 159 160 158 159 158 157 158 158 158 157 157 159 163 159 159 159 159 157 158 158 157 153 155 154 155 156 164 169 170 171 171 175 173 174 174 174 172 171 170 169 161 159 160 158 160 160 161 158 0 0 0 0 0
    0 0 0 0 0 0 0 0 0 0 0 0 0 0 0 0 0 0 0 0 0 0 0 0 0 0 0 0 0 0 0 0 0 0 0 0 0 0 0 0 0 0 0 0 0 0 0 0 0 0 0 0 0 0 0 0 0 0 0 0 0 0 0 0 0 0 0 0 0 -209 -193 -193 -193 -209 -209 -209 -209 -209 -209 202 201 200 198 199 197 198 199 199 199 -193 202 205 -193 210 -193 161 160 161 160 159 158 160 158 -193 -209 -193 -209 -193 -209 -177 -209 -209 -209 -209 -209 -209 -193 -209 -209 -193 -209 -193 -209 -209 -209 -209 -209 -193 -193 -193 157 156 161 157 156 157 158 158 158 160 160 157 158 161 159 157 161 156 -209 -209 -193 -193 173 169 -209 -209 162 161 158 156 154 153 152 152 152 152 152 153 153 153 153 155 160 157 157 157 157 156 156 157 156 154 155 154 158 155 156 156 156 156 156 156 157 155 157 157 -193 157 161 161 161 158 157 157 157 158 158 157 157 156 160 156 156 158 157 156 157 157 157 155 157 157 156 156 156 156 156 156 156 156 155 155 155 155 157 158 157 158 156 156 157 156 156 156 156 155 155 157 161 159 160 159 159 158 159 159 159 157 158 157 158 160 163 161 161 159 160 160 160 159 159 158 157 158 158 158 157 157 159 163 159 159 159 159 157 158 158 157 153 156 156 157 158 166 171 171 172 173 176 174 174 174 174 172 171 171 170 159 157 158 156 158 159 160 157 0 0 0 0 0
    0 0 0 0 0 0 0 0 0 0 0 0 0 0 0 0 0 0 0 0 0 0 0 0 0 0 0 0 0 0 0 0 0 0 0 0 0 0 0 0 0 0 0 0 0 0 0 0 0 0 0 0 0 0 0 0 0 0 0 0 0 0 0 0 0 0 0 0 0 197 197 194 195 195 199 -193 -193 201 200 200 200 199 198 198 197 198 199 199 200 -193 202 204 204 208 210 -193 -193 -193 -193 160 160 163 162 -209 -193 -193 -209 -209 -209 -193 -209 -209 -209 -177 -193 -209 -209 -209 -209 -193 -193 -193 -209 -209 -209 193 188 191 191 -193 -209 161 165 160 157 158 160 158 158 160 160 157 158 161 160 158 -209 -209 -209 -209 -209 -209 179 174 -209 -209 -209 162 -193 -193 153 152 151 152 -193 -193 151 152 152 152 152 154 159 156 156 156 157 156 156 157 157 155 156 155 159 155 156 156 156 156 156 156 157 154 157 156 -209 -193 158 157 159 156 156 156 157 158 158 157 157 157 160 157 156 158 157 157 157 156 157 155 157 157 155 156 156 155 156 156 156 156 156 155 156 156 157 158 157 157 156 156 157 156 156 156 156 155 155 157 161 158 160 159 158 158 159 159 158 156 158 157 158 160 163 161 160 159 159 159 159 158 158 157 156 158 158 159 157 157 160 163 159 159 159 159 157 158 158 157 153 157 157 158 159 166 171 172 173 174 176 175 174 175 175 172 172 172 171 160 156 156 154 156 158 159 158 0 0 0 0 0
    0 0 0 0 0 0 0 0 0 0 0 0 0 0 0 0 0 0 0 0 0 0 0 0 0 0 0 0 0 0 0 0 0 0 0 0 0 0 0 0 0 0 0 0 0 0 0 0 0 0 0 0 0 0 0 0 0 0 0 0 0 0 0 0 0 0 0 0 0 199 199 198 198 199 201 202 202 203 201 200 200 199 199 199 198 198 199 199 200 -193 202 203 203 206 207 207 -193 205 205 204 203 203 201 200 199 201 200 200 -209 -209 -209 -209 -209 364 -193 -177 -209 -193 -209 -193 -193 -193 192 192 193 194 192 194 194 194 -193 -209 -193 -209 160 162 162 159 158 160 160 157 159 162 -209 -209 -209 -209 -209 -209 193 -209 -193 -209 -209 -209 -209 -209 -209 -209 -209 -209 -209 -209 -209 -193 -209 -193 -209 152 152 154 157 156 156 156 157 157 156 158 157 155 -193 156 161 155 156 156 155 156 155 155 156 -193 155 -209 -209 -209 -209 -209 158 155 155 157 158 159 159 158 159 158 161 157 157 158 156 156 156 156 156 155 156 156 155 155 155 155 156 156 156 157 156 156 157 157 158 159 157 157 156 156 156 156 156 156 156 155 155 158 160 158 159 159 158 158 159 159 158 156 158 156 158 159 162 160 159 158 158 158 158 157 158 157 156 158 158 159 157 157 161 163 159 159 159 159 157 158 158 156 154 158 159 160 162 167 172 172 173 175 177 175 175 175 175 173 173 173 172 -193 155 154 151 154 159 163 163 0 0 0 0 0
    0 0 0 0 0 0 0 0 0 0 0 0 0 0 0 0 0 0 0 0 0 0 0 0 0 0 0 0 0 0 0 0 0 0 0 0 0 0 0 0 0 0 0 0 0 0 0 0 0 0 0 0 0 0 0 0 0 0 0 0 0 0 0 0 0 0 0 0 0 200 200 201 201 202 202 203 203 204 202 201 200 199 199 199 198 198 199 199 199 -193 201 202 201 204 205 205 205 205 204 204 203 203 202 202 201 201 200 200 200 -193 -193 -193 -209 -209 -209 -209 -209 198 197 194 195 194 193 193 194 194 194 195 195 196 198 195 192 192 -209 166 165 160 159 162 161 157 160 -209 -209 -209 -209 -209 189 189 193 -193 -193 189 196 -193 200 202 200 198 196 -209 -209 -209 -209 -193 -209 -209 -209 -209 152 153 155 155 155 156 157 157 157 159 -193 157 -193 -209 -209 -193 156 156 155 155 -193 -193 -193 -209 -209 -209 -209 -209 191 195 -209 155 156 158 159 159 160 159 160 159 162 157 156 157 156 156 155 155 155 154 156 156 155 154 154 154 155 156 156 157 157 156 158 158 158 159 157 157 156 156 156 156 156 157 156 156 156 159 160 158 159 159 158 158 159 159 157 157 158 156 158 159 161 160 158 158 157 157 158 157 157 156 155 157 158 158 157 157 162 162 159 159 159 159 158 158 158 156 155 160 161 162 164 167 172 172 173 175 178 175 175 175 175 173 174 174 173 170 165 167 -193 159 166 -193 166 0 0 0 0 0
    0 0 0 0 0 0 0 0 0 0 0 0 0 0 0 0 0 0 0 0 0 0 0 0 0 0 0 0 0 0 0 0 0 0 0 0 0 0 0 0 0 0 0 0 0 0 0 0 0 0 0 0 0 0 0 0 0 0 0 0 0 0 0 0 0 0 0 0 0 201 201 201 201 202 202 204 204 204 202 202 201 200 200 200 199 199 199 199 199 199 201 201 200 201 201 202 201 202 202 202 202 202 202 202 201 201 200 199 199 -193 -193 -193 -193 200 200 201 201 199 198 196 196 195 194 194 195 195 196 196 197 197 200 198 197 196 -193 -193 -209 -209 161 164 163 -209 -209 -209 -209 -209 -193 -209 191 196 197 197 -193 196 199 201 199 200 199 198 197 198 196 -193 -209 -209 194 196 195 -209 -193 152 153 154 154 155 156 157 157 -193 -209 -209 -209 188 190 -209 -193 -193 155 -193 -209 -209 -209 -209 -209 -209 -209 -193 191 194 195 -209 -193 -193 160 160 161 160 161 160 162 157 156 157 156 155 155 155 155 154 156 156 154 154 153 -193 153 154 154 155 156 156 158 159 160 161 158 158 156 156 156 156 156 157 156 155 155 158 159 158 158 158 158 158 159 159 157 157 158 156 158 159 161 159 158 157 157 157 158 156 157 156 155 157 158 158 157 157 163 162 159 159 159 159 158 158 159 156 155 162 163 164 165 168 171 172 173 175 177 175 174 175 174 173 174 174 174 170 -193 -193 -193 156 166 -209 -193 0 0 0 0 0
    0 0 0 0 0 0 0 0 0 0 0 0 0 0 0 0 0 0 0 0 0 0 0 0 0 0 0 0 0 0 0 0 0 0 0 0 0 0 0 0 0 0 0 0 0 0 0 0 0 0 0 0 0 0 0 0 0 0 0 0 0 0 0 0 0 0 0 0 0 201 201 201 201 202 202 203 203 204 202 202 201 200 200 200 199 199 199 199 199 199 201 201 199 199 199 199 199 199 200 200 200 200 201 201 200 200 200 198 198 198 198 199 199 198 199 200 200 199 198 197 197 196 195 195 195 196 197 197 197 198 200 198 198 198 -193 -193 -193 -193 -209 -209 -209 -193 -209 -209 -209 189 193 195 195 200 200 200 201 199 200 201 199 199 198 198 197 198 197 198 198 198 196 197 197 196 195 -209 -209 153 154 155 156 158 157 -193 -209 -209 186 190 193 -193 -209 -209 -209 -209 -209 -209 -209 -209 -209 -193 -209 -193 192 193 195 -209 -209 -209 -209 161 162 162 162 162 163 158 157 157 156 155 155 155 154 154 156 155 154 153 -193 -193 -193 -193 -193 154 155 155 158 160 160 161 159 159 156 157 156 157 156 157 155 155 155 157 157 158 158 158 157 157 159 158 157 158 158 157 160 159 161 159 158 158 158 157 159 157 158 157 157 159 160 159 158 158 164 161 159 159 159 159 158 158 159 156 156 163 163 164 166 168 171 172 173 176 178 175 175 175 175 174 175 176 174 171 172 173 -209 -209 -209 176 169 0 0 0 0 0
    0 0 0 0 0 0 0 0 0 0 0 0 0 0 0 0 0 0 0 0 0 0 0 0 0 0 0 0 0 0 0 0 0 0 0 0 0 0 0 0 0 0 0 0 0 0 0 0 0 0 0 0 0 0 0 0 0 0 0 0 0 0 0 0 0 0 0 0 0 201 201 201 201 201 202 203 203 203 202 202 201 200 200 200 199 199 199 200 199 200 201 201 200 200 199 199 198 198 199 199 199 198 199 199 199 198 198 197 196 196 196 196 196 196 197 198 199 198 198 197 198 196 196 195 196 197 198 197 197 198 200 199 199 199 -193 -193 -193 -193 -193 188 190 -193 -193 192 195 192 194 197 197 201 201 201 202 201 201 202 200 199 198 198 197 198 197 198 197 198 197 197 197 197 196 -209 -209 153 154 155 156 159 -209 -177 -209 -193 189 192 195 195 195 192 -209 -209 -209 -209 -209 -209 -193 191 192 191 192 193 194 197 -209 -209 -209 -193 164 164 164 164 165 159 158 158 157 -209 -209 -209 -209 153 -209 -193 -193 -193 -193 -193 -193 -209 -209 -209 -209 155 158 161 161 159 159 158 157 157 157 158 157 158 156 156 155 157 157 158 158 157 157 157 158 158 157 158 158 157 162 161 163 162 159 159 160 159 162 158 160 159 160 162 163 161 160 159 165 161 158 158 158 158 157 157 158 155 156 162 162 164 165 167 170 170 172 175 177 175 175 175 176 175 177 178 176 174 182 181 182 186 186 185 186 0 0 0 0 0
    0 0 0 0 0 0 0 0 0 0 0 0 0 0 0 0 0 0 0 0 0 0 0 0 0 0 0 0 0 0 0 0 0 0 0 0 0 0 0 0 0 0 0 0 0 0 0 0 0 0 0 0 0 0 0 0 0 0 0 0 0 0 0 0 0 0 0 0 0 200 201 200 200 200 201 202 202 202 201 202 201 200 200 200 199 199 199 200 199 200 201 201 201 201 200 200 199 198 199 199 198 198 198 199 198 197 198 196 195 195 195 195 195 195 196 197 198 198 198 197 198 197 196 196 196 197 198 198 198 199 200 199 199 199 199 198 198 198 196 193 195 194 195 195 196 195 196 198 199 201 201 201 202 201 201 201 199 198 198 198 197 197 196 197 197 197 197 197 197 198 197 200 202 -209 154 155 -193 -209 -209 -177 -209 192 191 194 196 196 196 195 195 -193 -209 -193 -193 -193 193 193 193 193 193 194 195 197 198 199 200 -193 -209 -209 -193 -193 -193 -193 -193 -209 -209 -209 -209 -209 -209 -209 -209 -209 -209 -209 -209 -209 -193 201 200 199 197 -193 189 -193 188 -193 159 157 156 157 157 158 158 158 156 156 155 158 157 158 157 157 157 157 158 158 157 159 158 157 163 161 164 163 159 158 160 159 162 158 162 160 161 163 164 163 162 162 166 161 158 158 158 158 156 156 157 155 158 164 164 165 166 167 169 170 171 173 175 174 175 175 175 175 178 179 178 179 184 184 185 187 187 187 187 0 0 0 0 0
    0 0 0 0 0 0 0 0 0 0 0 0 0 0 0 0 0 0 0 0 0 0 0 0 0 0 0 0 0 0 0 0 0 0 0 0 0 0 0 0 0 0 0 0 0 0 0 0 0 0 0 0 0 0 0 0 0 0 0 0 0 0 0 0 0 0 0 0 0 200 200 199 199 199 200 200 201 201 199 201 200 200 200 200 199 199 199 200 199 199 200 201 200 200 199 200 199 198 199 199 198 198 198 198 198 197 197 195 195 194 195 195 194 194 196 196 197 197 198 198 198 198 197 197 197 198 199 198 198 199 200 199 199 199 199 198 198 198 196 195 196 196 196 196 197 197 197 198 199 201 200 200 200 200 199 199 198 197 197 197 196 197 195 196 195 196 196 197 197 198 197 200 202 -209 -209 -193 -209 -209 -209 -193 196 195 194 196 197 196 197 196 196 197 198 198 198 195 195 195 194 194 194 194 195 196 197 198 199 200 196 197 -209 -209 -193 193 196 -193 -209 -209 -209 -209 -209 -193 194 -193 192 194 199 -193 197 200 198 198 197 195 192 191 191 -193 -193 -193 156 158 157 158 157 158 156 156 154 156 156 156 156 156 156 156 157 158 157 161 159 157 163 160 163 163 157 157 158 157 161 158 162 161 160 164 165 164 165 -193 -193 161 158 158 157 157 156 155 156 154 158 163 164 164 166 167 169 170 171 174 175 174 175 176 176 176 179 179 180 181 185 185 186 188 189 189 189 0 0 0 0 0
    0 0 0 0 0 0 0 0 0 0 0 0 0 0 0 0 0 0 0 0 0 0 0 0 0 0 0 0 0 0 0 0 0 0 0 0 0 0 0 0 0 0 0 0 0 0 0 0 0 0 0 0 0 0 0 0 0 0 0 0 0 0 0 0 0 0 0 0 0 200 200 198 198 198 199 199 200 200 199 200 200 199 199 199 199 199 199 199 198 198 200 200 199 200 199 199 199 198 199 199 198 198 197 198 198 197 197 194 195 194 195 195 194 194 195 195 197 197 199 198 199 199 198 198 198 199 199 198 198 198 199 198 198 199 199 198 198 198 196 195 196 196 197 197 198 198 198 199 200 201 201 200 200 200 198 198 198 197 197 196 195 196 194 195 194 195 195 195 196 197 197 200 201 -209 -209 -209 -193 -209 -209 200 197 197 196 197 197 197 197 197 197 198 199 198 198 196 197 196 195 195 195 194 195 196 197 198 198 200 198 199 198 197 195 199 199 -193 -209 -209 196 198 198 196 195 195 194 195 197 198 196 199 197 197 196 195 193 193 192 193 -193 -209 -209 -193 -193 -193 -209 -209 -209 155 -193 -193 155 155 155 156 155 156 156 157 156 164 161 158 165 160 163 164 -209 -193 -193 157 163 158 164 162 162 -193 -193 -193 -193 190 188 161 158 158 157 157 155 155 156 154 158 163 164 164 166 168 169 170 172 176 177 175 176 177 177 177 179 180 181 182 185 186 188 189 190 190 190 0 0 0 0 0
    0 0 0 0 0 0 0 0 0 0 0 0 0 0 0 0 0 0 0 0 0 0 0 0 0 0 0 0 0 0 0 0 0 0 0 0 0 0 0 0 0 0 0 0 0 0 0 0 0 0 0 0 0 0 0 0 0 0 0 0 0 0 0 0 0 0 0 0 0 200 200 198 198 198 199 199 200 200 199 200 200 199 200 199 199 199 199 199 198 198 199 200 199 200 199 199 199 198 199 198 198 198 197 198 198 196 197 194 195 194 195 194 193 193 195 194 196 197 199 199 200 200 199 199 199 199 200 198 198 198 199 198 198 199 198 198 198 198 196 195 197 197 197 197 198 198 199 199 200 201 200 199 199 199 198 198 197 197 197 197 196 197 195 196 195 196 195 195 197 197 198 200 -193 -193 -209 -193 -193 -193 200 200 197 198 196 197 198 197 198 197 197 199 198 199 199 197 197 196 196 196 195 195 195 196 197 198 198 200 199 200 199 200 199 200 200 200 199 197 197 198 198 196 196 196 195 195 197 197 196 198 196 197 196 196 194 194 193 194 191 -193 -209 97 -209 -209 -209 -193 -209 -209 -209 -209 -209 -209 -209 -193 155 156 157 157 158 168 165 165 -193 -209 -209 -209 -193 -193 -193 -209 -209 -193 -209 196 195 192 193 191 191 194 192 -193 159 159 158 158 155 154 156 154 159 164 165 165 167 169 170 171 172 178 178 176 177 178 177 178 180 181 182 184 186 187 189 190 192 191 192 0 0 0 0 0
    0 0 0 0 0 0 0 0 0 0 0 0 0 0 0 0 0 0 0 0 0 0 0 0 0 0 0 0 0 0 0 0 0 0 0 0 0 0 0 0 0 0 0 0 0 0 0 0 0 0 0 0 0 0 0 0 0 0 0 0 0 0 0 0 0 0 0 0 0 198 198 197 197 197 198 198 199 199 199 201 200 200 200 200 199 199 199 199 198 199 199 200 200 200 199 199 199 198 199 198 198 197 197 197 198 196 197 193 195 194 195 194 193 192 195 193 196 196 198 199 200 200 200 199 199 200 200 198 198 199 199 198 198 199 198 198 198 198 196 196 197 198 198 198 199 198 199 199 200 201 200 199 198 199 198 197 197 197 197 197 196 197 195 197 196 196 196 196 198 198 198 199 200 -193 -193 -193 -193 200 200 200 198 198 197 197 198 198 198 198 197 199 198 199 199 197 197 196 195 196 195 195 195 196 197 198 197 200 199 199 199 200 198 199 199 199 198 197 196 197 197 196 195 195 195 195 197 197 196 199 196 197 196 196 195 195 194 195 192 197 -193 -193 -193 203 -193 206 204 -209 -209 -209 -209 -209 -209 -209 -209 156 157 158 162 170 -193 170 181 -209 -209 -193 202 204 204 202 201 201 197 197 197 196 195 194 194 196 195 195 -193 162 160 160 154 153 155 153 159 166 164 165 167 169 169 170 172 177 178 177 178 178 178 179 180 181 183 185 186 188 189 191 194 193 194 0 0 0 0 0
    0 0 0 0 0 0 0 0 0 0 0 0 0 0 0 0 0 0 0 0 0 0 0 0 0 0 0 0 0 0 0 0 0 0 0 0 0 0 0 0 0 0 0 0 0 0 0 0 0 0 0 0 0 0 0 0 0 0 0 0 0 0 0 0 0 0 0 0 0 198 198 197 197 197 197 197 198 198 198 200 200 200 200 200 200 200 200 200 199 200 200 200 200 201 200 199 200 198 199 198 198 197 196 197 197 195 197 192 195 194 195 194 193 192 195 193 195 196 198 198 200 200 200 200 200 200 201 199 198 199 198 198 198 198 198 197 198 198 195 196 197 197 198 197 198 198 198 198 199 200 199 198 198 198 197 197 197 197 197 196 196 197 196 198 196 197 197 197 198 198 198 199 -193 -193 -193 -193 -193 -193 200 200 198 198 198 198 198 198 198 198 197 198 198 198 198 196 197 196 195 196 195 195 195 196 197 198 198 200 200 200 201 201 198 199 198 198 197 195 195 196 196 195 195 195 194 194 196 196 196 199 196 197 196 196 196 195 195 195 192 197 196 197 199 200 200 202 201 199 -193 -193 -193 195 198 -209 -209 -209 -209 -209 169 180 -193 181 187 194 200 198 201 202 203 201 199 199 197 198 197 197 196 194 195 197 196 196 192 -193 -193 -193 -209 151 154 151 162 -209 -193 170 169 173 171 170 172 178 178 177 179 179 179 180 182 182 184 187 188 189 191 193 195 194 195 0 0 0 0 0
    0 0 0 0 0 0 0 0 0 0 0 0 0 0 0 0 0 0 0 0 0 0 0 0 0 0 0 0 0 0 0 0 0 0 0 0 0 0 0 0 0 0 0 0 0 0 0 0 0 0 0 0 0 0 0 0 0 0 0 0 0 0 0 0 0 0 0 0 0 198 198 197 197 196 196 196 196 197 197 199 199 200 200 200 200 200 200 200 199 201 200 201 201 201 200 200 201 199 199 198 198 197 197 197 197 194 196 192 195 194 195 194 193 192 194 193 195 195 197 198 199 199 200 199 199 200 200 198 198 199 198 197 197 198 198 197 198 198 195 196 197 197 198 197 198 197 198 197 198 199 198 197 197 197 197 197 197 197 196 196 196 198 196 198 197 197 197 197 198 197 197 198 -193 -193 -193 1008 -193 -193 199 199 198 198 198 198 198 198 198 197 196 198 198 198 198 196 197 196 195 196 195 195 194 195 197 197 197 200 200 200 200 201 198 199 198 197 196 195 195 195 196 195 195 195 194 194 195 195 195 199 196 197 196 197 196 196 196 196 193 197 197 197 198 198 199 200 199 198 198 197 196 196 197 196 194 189 190 187 186 187 190 188 191 196 199 198 200 202 202 201 200 200 198 198 198 197 197 195 195 197 196 196 194 191 189 189 190 -193 -193 -209 -209 186 188 188 -193 185 -193 175 176 180 179 179 180 180 180 180 182 183 186 188 189 190 192 194 196 195 196 0 0 0 0 0
    0 0 0 0 0 0 0 0 0 0 0 0 0 0 0 0 0 0 0 0 0 0 0 0 0 0 0 0 0 0 0 0 0 0 0 0 0 0 0 0 0 0 0 0 0 0 0 0 0 0 0 0 0 0 0 0 0 0 0 0 0 0 0 0 0 0 0 0 0 198 -193 197 196 196 196 196 196 196 197 199 199 199 200 199 200 200 200 200 199 200 200 200 201 202 201 201 202 200 200 199 198 198 197 197 197 194 196 193 195 194 195 194 193 192 194 192 195 195 197 197 198 199 199 199 199 199 200 198 198 199 198 197 198 198 198 197 198 198 195 196 197 197 198 197 197 196 197 196 197 198 197 197 196 197 196 196 196 197 196 196 195 198 196 198 197 197 198 197 198 197 197 198 -193 -193 -193 1008 -193 -193 199 -193 198 198 198 198 198 198 198 197 196 197 197 198 198 196 197 196 195 196 195 195 194 194 196 196 195 199 198 199 198 199 197 198 197 197 196 195 194 195 196 196 195 195 194 193 194 195 194 198 196 196 196 196 196 196 196 196 193 196 196 196 196 196 197 198 198 196 197 195 195 195 196 195 194 190 191 191 190 191 192 192 194 197 200 199 200 202 202 200 200 200 199 199 199 198 197 195 196 198 196 196 195 193 192 192 194 194 190 192 189 190 191 191 190 190 188 186 185 185 182 182 182 182 180 181 183 184 187 189 190 191 193 195 197 196 196 0 0 0 0 0
    0 0 0 0 0 0 0 0 0 0 0 0 0 0 0 0 0 0 0 0 0 0 0 0 0 0 0 0 0 0 0 0 0 0 0 0 0 0 0 0 0 0 0 0 0 0 0 0 0 0 0 0 0 0 0 0 0 0 0 0 0 0 0 0 0 0 0 0 0 198 -193 196 196 195 195 194 195 195 196 198 199 199 199 199 199 199 199 199 199 200 200 200 200 201 201 201 202 200 200 199 199 198 197 197 197 194 196 193 194 194 195 194 193 192 194 192 194 195 196 196 197 198 198 198 199 199 200 198 198 199 198 197 198 198 198 197 198 197 195 197 197 197 198 196 197 196 196 196 197 198 196 196 195 196 195 196 196 197 196 196 196 198 197 199 198 198 198 198 199 198 197 198 197 -193 -193 -193 -193 -193 199 199 199 199 198 198 198 198 198 196 196 197 196 197 197 196 196 196 195 196 195 195 194 193 195 195 194 199 199 199 199 199 198 199 197 197 196 194 194 195 196 196 195 195 194 193 195 195 195 198 195 196 196 196 196 195 195 195 193 196 196 195 195 194 196 196 197 195 195 194 194 194 195 194 194 191 193 193 193 193 194 195 195 197 200 198 200 201 201 199 199 199 198 198 198 197 197 196 197 198 197 197 196 196 195 195 196 196 193 196 194 195 195 195 195 195 193 190 189 188 186 185 185 185 182 182 184 186 190 194 193 195 196 197 199 197 197 0 0 0 0 0
    0 0 0 0 0 0 0 0 0 0 0 0 0 0 0 0 0 0 0 0 0 0 0 0 0 0 0 0 0 0 0 0 0 0 0 0 0 0 0 0 0 0 0 0 0 0 0 0 0 0 0 0 0 0 0 0 0 0 0 0 0 0 0 0 0 0 0 0 0 198 198 196 196 195 194 194 195 195 196 198 199 199 200 199 200 199 200 199 199 200 200 199 200 201 200 200 201 200 200 199 199 198 198 197 197 195 196 193 194 194 195 194 193 192 193 192 194 195 196 196 197 198 198 198 199 199 200 198 199 199 198 197 197 198 198 197 198 197 195 197 197 198 198 -193 -193 196 196 195 197 198 196 196 195 196 196 196 196 197 196 197 196 199 198 200 199 199 199 198 199 198 197 198 -193 -193 -193 -193 -193 -193 -193 199 199 199 198 198 198 198 198 196 195 196 195 196 197 196 196 196 195 196 195 195 194 192 194 195 193 199 199 200 200 200 199 199 198 197 196 195 194 194 195 195 195 195 194 193 195 196 195 198 195 196 195 195 195 195 195 195 192 195 195 195 195 194 196 195 196 194 195 194 194 195 195 194 195 192 195 194 195 194 194 195 195 196 199 197 200 200 200 199 198 198 197 198 198 197 197 196 197 199 198 198 197 197 197 197 198 198 195 197 196 198 198 197 198 197 196 194 193 192 188 187 187 187 184 184 187 190 195 197 197 198 198 199 200 198 198 0 0 0 0 0
    0 0 0 0 0 0 0 0 0 0 0 0 0 0 0 0 0 0 0 0 0 0 0 0 0 0 0 0 0 0 0 0 0 0 0 0 0 0 0 0 0 0 0 0 0 0 0 0 0 0 0 0 0 0 0 0 0 0 0 0 0 0 0 0 0 0 0 0 0 198 198 197 197 195 195 195 196 196 197 199 199 199 200 200 200 200 200 200 199 200 200 199 200 200 200 200 201 200 200 199 199 198 198 197 197 195 196 193 194 194 195 194 193 192 193 192 194 196 196 196 197 198 199 199 -193 200 200 199 199 200 198 197 198 198 197 197 198 197 195 197 197 198 198 -193 -193 196 196 195 196 198 -193 -193 196 196 196 196 197 198 197 198 198 200 200 201 200 200 200 199 199 198 197 197 197 -193 -193 -193 197 -193 -193 198 199 198 198 198 198 197 198 195 195 195 194 195 196 196 195 195 195 196 195 195 194 193 194 196 194 199 200 200 200 200 199 198 197 197 195 195 193 193 195 195 194 195 194 194 195 197 196 198 196 196 195 195 195 195 194 194 192 194 194 195 194 193 195 194 195 194 195 194 194 195 195 194 195 193 195 194 195 194 195 195 196 196 198 197 199 199 200 198 198 198 197 197 198 197 197 196 198 200 199 199 197 197 198 198 199 198 197 197 197 199 199 198 199 198 197 196 195 194 190 189 189 188 185 187 190 195 198 199 199 199 199 199 201 198 198 0 0 0 0 0
    0 0 0 0 0 0 0 0 0 0 0 0 0 0 0 0 0 0 0 0 0 0 0 0 0 0 0 0 0 0 0 0 0 0 0 0 0 0 0 0 0 0 0 0 0 0 0 0 0 0 0 0 0 0 0 0 0 0 0 0 0 0 0 0 0 0 0 0 0 197 197 198 197 196 195 195 197 197 198 199 200 200 200 200 200 201 201 200 200 202 201 200 200 201 201 200 202 200 200 199 199 199 198 197 197 195 195 194 194 194 195 194 193 192 193 193 194 196 195 195 197 198 199 -193 -193 200 200 199 200 200 198 198 198 198 197 197 198 197 195 197 197 198 198 -193 -193 -193 196 195 195 197 -193 -193 -193 195 196 196 196 198 196 197 198 201 200 201 201 200 200 200 200 198 197 197 197 197 196 195 197 194 199 198 198 198 198 198 197 197 198 195 195 195 194 194 196 195 194 195 194 195 194 194 194 192 194 196 194 199 199 200 200 199 198 197 196 196 195 194 193 192 193 193 193 194 192 194 195 197 197 199 196 196 195 195 195 195 194 194 191 193 193 194 194 193 195 193 195 194 195 195 195 195 195 194 195 194 196 195 195 195 196 196 196 197 198 196 199 198 200 198 197 198 197 197 198 197 197 195 198 200 199 199 198 198 198 198 199 199 197 197 197 199 199 198 198 197 196 195 195 194 191 189 190 189 186 188 191 195 198 199 199 199 199 200 202 198 198 0 0 0 0 0
    0 0 0 0 0 0 0 0 0 0 0 0 0 0 0 0 0 0 0 0 0 0 0 0 0 0 0 0 0 0 0 0 0 0 0 0 0 0 0 0 0 0 0 0 0 0 0 0 0 0 0 0 0 0 0 0 0 0 0 0 0 0 0 0 0 0 0 0 0 197 197 198 198 196 196 197 198 199 199 200 200 200 201 200 201 201 201 201 200 203 201 200 201 202 202 201 202 201 201 200 200 200 199 198 198 196 196 194 194 194 194 194 193 193 193 193 194 195 194 195 196 197 198 -193 -193 199 200 199 200 200 198 198 198 198 197 197 198 197 194 197 197 197 197 197 -193 196 196 -193 195 -193 -193 -193 -193 195 195 195 195 197 195 196 197 200 200 201 201 201 201 200 200 198 197 197 197 197 196 195 196 193 198 198 198 198 198 198 197 197 198 195 195 194 193 194 196 195 194 195 194 195 194 194 194 192 194 195 193 197 197 199 199 198 198 197 196 196 195 194 193 192 193 193 192 192 191 192 193 197 198 199 196 197 196 196 195 195 195 194 192 193 192 194 193 193 194 193 194 193 195 195 195 194 195 194 196 195 196 196 196 196 197 197 196 196 197 196 198 198 199 198 197 198 197 197 198 197 197 196 198 200 199 200 198 198 198 198 199 199 197 197 197 199 199 197 198 196 195 194 194 192 190 189 189 188 185 187 190 195 198 199 199 198 199 200 202 197 197 0 0 0 0 0
    0 0 0 0 0 0 0 0 0 0 0 0 0 0 0 0 0 0 0 0 0 0 0 0 0 0 0 0 0 0 0 0 0 0 0 0 0 0 0 0 0 0 0 0 0 0 0 0 0 0 0 0 0 0 0 0 0 0 0 0 0 0 0 0 0 0 0 0 0 198 197 199 198 196 196 197 199 199 199 200 200 200 201 200 200 200 200 201 200 204 202 201 202 204 203 202 203 203 202 201 201 201 200 198 199 196 196 195 194 194 195 194 194 193 194 195 196 197 196 196 196 198 -193 -193 -193 -209 -209 199 199 200 198 198 198 198 197 197 198 197 194 196 196 196 196 196 197 196 196 195 195 -193 -177 -193 -193 195 195 195 195 196 194 195 197 200 200 201 201 201 201 200 200 198 197 197 197 197 196 195 196 193 198 198 198 198 197 197 197 197 197 194 195 194 193 194 196 195 194 195 195 195 194 194 194 192 194 195 194 196 197 199 199 198 198 197 196 196 195 195 193 192 193 192 192 192 191 192 193 198 199 199 197 197 196 196 196 196 195 194 192 193 192 195 193 193 194 192 194 193 195 195 194 194 195 194 196 196 196 196 196 196 197 197 196 196 196 196 198 198 199 198 198 198 197 198 198 197 198 195 198 200 200 200 198 198 198 198 199 199 197 197 196 198 198 197 197 196 194 194 194 192 191 189 190 189 186 188 191 195 198 199 199 198 199 199 201 197 197 0 0 0 0 0
    0 0 0 0 0 0 0 0 0 0 0 0 0 0 0 0 0 0 0 0 0 0 0 0 0 0 0 0 0 0 0 0 0 0 0 0 0 0 0 0 0 0 0 0 0 0 0 0 0 0 0 0 0 0 0 0 0 0 0 0 0 0 0 0 0 0 0 0 0 196 196 198 197 194 195 197 200 200 200 199 199 200 200 200 200 199 199 -193 200 204 203 201 203 204 204 202 203 203 202 202 202 201 -209 -209 -193 -193 -193 196 194 194 195 195 195 194 195 197 198 198 -193 -193 -193 -209 -209 -193 -193 -209 -209 198 199 199 198 197 198 198 197 197 198 197 194 196 196 195 195 195 197 195 196 196 195 -193 -193 -193 -193 196 196 196 195 196 194 194 195 198 198 199 200 200 201 200 200 198 197 197 197 197 196 195 197 193 198 197 197 198 197 197 197 196 197 194 195 194 192 194 196 195 194 195 196 195 195 195 195 193 195 196 195 195 197 199 199 198 198 197 197 197 196 195 193 192 193 192 192 192 190 192 194 198 199 199 197 198 196 196 196 196 195 194 192 193 191 195 193 193 194 192 194 194 195 195 194 194 195 195 196 196 196 196 196 196 197 197 196 195 196 196 198 198 199 198 197 197 197 197 197 197 197 195 198 199 199 199 198 198 198 197 198 198 196 197 196 197 197 196 197 196 194 194 194 192 191 190 190 189 186 189 191 195 198 199 199 198 198 199 201 197 197 0 0 0 0 0
    0 0 0 0 0 0 0 0 0 0 0 0 0 0 0 0 0 0 0 0 0 0 0 0 0 0 0 0 0 0 0 0 0 0 0 0 0 0 0 0 0 0 0 0 0 0 0 0 0 0 0 0 0 0 0 0 0 0 0 0 0 0 0 0 0 0 0 0 0 193 195 198 196 190 192 198 203 203 200 199 199 200 200 200 199 199 199 -193 200 203 202 201 202 204 204 201 202 -193 -193 201 202 -209 -209 -209 -193 287 -193 -193 -193 -193 -193 -193 -193 195 196 198 198 -177 -209 -209 -193 -209 294 285 285 -209 -209 -209 198 199 197 197 198 198 197 196 197 197 193 195 195 194 193 -193 -209 -193 -209 -209 -209 -209 -193 -193 -193 197 197 196 196 197 194 193 194 197 197 198 199 199 200 200 200 198 197 197 196 197 196 195 196 193 198 197 197 198 197 197 196 196 197 194 196 195 192 195 196 195 194 196 196 196 195 195 195 194 195 196 195 195 197 199 199 197 199 197 197 197 196 195 193 192 193 192 192 192 190 192 194 198 199 198 197 197 195 196 196 196 195 193 192 192 190 194 193 192 193 192 194 194 196 196 195 194 195 195 197 196 197 196 196 196 197 197 196 196 196 197 198 198 199 197 197 196 196 196 196 196 197 195 198 199 199 199 198 198 197 197 198 198 196 197 196 197 197 196 197 196 194 194 194 193 192 190 190 189 187 190 191 195 199 199 199 198 198 199 201 197 197 0 0 0 0 0
    0 0 0 0 0 0 0 0 0 0 0 0 0 0 0 0 0 0 0 0 0 0 0 0 0 0 0 0 0 0 0 0 0 0 0 0 0 0 0 0 0 0 0 0 0 0 0 0 0 0 0 0 0 0 0 0 0 0 0 0 0 0 0 0 0 0 0 0 0 191 195 198 -209 -209 190 198 207 -209 201 200 200 200 201 201 200 200 -209 -193 -193 204 203 200 202 204 203 199 200 -209 -209 -209 -209 -209 -209 -209 -193 286 286 285 -193 -193 -193 -193 -193 196 196 199 -209 -209 -209 -209 -177 -193 -193 284 284 -209 -209 -209 -193 198 197 197 197 198 196 196 197 197 193 195 195 193 -193 -209 -209 -209 -209 -209 -209 -193 -177 -177 -193 -193 198 197 197 197 193 191 192 196 195 196 198 199 199 199 200 198 198 197 197 197 197 196 197 192 197 196 196 198 196 196 196 196 197 194 196 196 193 195 196 196 194 196 197 196 196 196 196 195 196 197 196 196 197 199 199 198 199 198 197 197 196 196 193 192 193 192 192 193 191 194 196 199 199 198 196 197 195 195 195 195 194 193 192 192 190 195 195 194 194 192 195 195 197 197 196 195 196 196 198 197 197 197 196 197 197 197 197 196 197 197 198 199 199 197 197 196 196 196 196 196 197 195 198 198 199 199 197 198 197 196 197 197 196 196 195 196 196 196 197 196 193 194 193 192 192 190 191 190 188 192 193 196 199 200 199 198 198 199 201 197 197 0 0 0 0 0
    0 0 0 0 0 0 0 0 0 0 0 0 0 0 0 0 0 0 0 0 0 0 0 0 0 0 0 0 0 0 0 0 0 0 0 0 0 0 0 0 0 0 0 0 0 0 0 0 0 0 0 0 0 0 0 0 0 0 0 0 0 0 0 0 0 0 0 0 0 -209 -209 -209 -209 -209 -209 -209 -209 -209 -209 -209 -193 202 204 -209 -209 -209 -209 -193 -209 -209 -209 -209 206 -209 -209 -209 199 -209 -209 -209 -193 -193 -193 -193 -193 287 286 -193 -193 0 0 0 0 -209 -209 -209 -209 -209 -209 -209 290 -209 -193 -193 -209 -209 -209 -209 -193 198 197 196 197 197 196 196 197 197 193 195 -209 -209 -209 -209 -209 -193 -209 -209 -209 -209 -177 -177 -177 -193 -209 -209 196 197 192 190 190 194 192 194 196 197 198 198 200 198 198 197 196 196 197 196 196 192 197 195 196 197 196 196 196 196 197 194 196 196 193 195 196 195 193 195 196 196 196 196 196 195 196 197 196 196 196 198 198 197 199 197 197 197 196 196 193 192 193 193 193 193 192 194 196 199 199 197 196 196 195 195 195 195 194 192 193 192 191 196 196 195 194 193 195 196 198 198 197 196 197 197 199 198 197 197 196 197 197 197 197 197 197 198 198 199 200 197 197 196 196 196 196 196 197 195 198 198 198 199 197 198 197 196 197 197 195 196 195 196 196 195 197 196 193 194 193 193 194 192 192 191 190 194 195 195 198 199 198 197 197 198 200 197 197 0 0 0 0 0
    0 0 0 0 0 0 0 0 0 0 0 0 0 0 0 0 0 0 0 0 0 0 0 0 0 0 0 0 0 0 0 0 0 0 0 0 0 0 0 0 0 0 0 0 0 0 0 0 0 0 0 0 0 0 0 0 0 0 0 0 0 0 0 0 0 0 0 0 0 -209 -209 -209 -209 257 262 263 263 -209 -209 -209 -209 -209 -209 -209 -209 -209 -193 -209 -209 278 276 269 275 -209 -209 284 294 -209 303 -193 -193 -209 -209 -209 0 -193 -193 0 0 0 0 0 0 -209 -209 -209 -209 -209 -209 -209 -209 -209 -193 -209 -209 -209 -209 -193 -209 -193 -193 196 197 197 195 195 196 -209 -209 -209 -209 -209 -209 -209 -209 619 -209 -209 -209 -209 -209 -209 -209 -209 -209 -209 -193 196 191 189 189 192 190 191 194 196 197 198 200 198 198 197 196 196 196 195 196 191 196 195 196 197 196 195 196 196 197 194 196 194 191 194 195 194 192 194 196 196 196 196 197 196 196 197 197 195 195 197 197 196 198 196 195 196 195 195 193 193 193 193 193 194 192 194 196 198 198 196 196 196 195 195 195 195 194 192 194 192 192 196 196 196 195 194 196 197 198 198 197 196 197 197 199 198 197 198 196 197 198 197 197 197 197 198 198 199 200 197 197 196 196 196 196 197 196 195 197 197 198 198 197 197 197 197 197 197 196 197 195 196 195 195 197 196 194 195 194 194 195 194 194 194 193 196 195 195 198 198 198 197 197 198 200 197 197 0 0 0 0 0
    0 0 0 0 0 0 0 0 0 0 0 0 0 0 0 0 0 0 0 0 0 0 0 0 0 0 0 0 0 0 0 0 0 0 0 0 0 0 0 0 0 0 0 0 0 0 0 0 0 0 0 0 0 0 0 0 0 0 0 0 0 0 0 0 0 0 0 0 0 277 276 -209 262 -193 266 267 266 270 276 278 278 280 -193 -193 -209 -209 -209 278 277 281 284 286 292 294 -209 294 299 306 309 -209 -209 0 0 0 0 0 -193 0 0 0 0 0 0 -193 -209 -209 -193 -209 -209 -209 -209 -209 -209 -209 -209 -209 -209 -209 -193 -193 -193 195 196 197 195 194 -209 -209 -209 -209 -209 -209 -209 -209 -209 -209 -209 -209 -209 -209 -209 -209 -209 -209 -209 -209 -209 195 190 188 188 191 189 190 192 194 196 197 199 -193 -193 -193 196 195 196 195 195 191 196 195 196 197 196 196 196 197 197 194 195 193 189 193 194 194 191 192 196 196 197 197 197 196 196 197 197 195 194 196 195 194 197 196 195 196 196 196 194 194 194 194 193 193 191 192 195 197 198 195 196 196 195 196 196 195 195 192 195 192 192 196 195 196 195 194 196 198 198 199 197 195 197 197 199 199 197 198 196 197 198 197 197 196 196 198 197 199 199 196 197 196 196 196 196 196 196 194 197 196 197 198 197 197 196 196 197 196 195 196 194 195 194 194 195 195 193 195 194 194 195 195 194 195 195 197 196 196 198 199 198 197 197 198 200 197 197 0 0 0 0 0
    0 0 0 0 0 0 0 0 0 0 0 0 0 0 0 0 0 0 0 0 0 0 0 0 0 0 0 0 0 0 0 0 0 0 0 0 0 0 0 0 0 0 0 0 0 0 0 0 0 0 0 0 0 0 0 0 0 0 0 0 0 0 0 0 0 0 0 0 0 272 275 -209 -193 269 270 271 270 271 273 276 276 279 281 283 285 285 278 277 278 284 -209 -209 -209 -209 296 296 302 309 309 -193 -209 -193 0 0 9 0 -193 0 12 14 -209 -209 -209 -209 -209 -193 43 50 -209 -209 -209 -209 -209 -209 -209 -209 -209 -209 -209 -193 -193 -193 -193 -209 -209 -209 -209 -209 -209 -209 -209 -209 -209 -209 -209 -209 -209 -209 -209 -209 -209 -209 -209 -193 -209 -193 -209 195 190 188 188 190 189 189 191 193 -193 196 199 -209 -209 -209 -209 -209 -193 -193 195 190 195 194 195 197 196 195 195 196 196 193 194 192 188 193 194 193 190 192 196 197 197 198 197 197 197 197 197 194 192 195 193 191 196 194 194 196 197 197 195 196 196 195 193 193 191 190 193 196 197 194 196 196 196 196 196 196 196 193 197 192 193 196 193 193 193 191 195 197 197 198 196 195 197 198 200 199 198 198 196 197 197 197 196 196 196 198 197 199 199 196 197 196 196 196 196 196 196 194 197 196 197 197 197 197 196 196 196 196 195 196 194 195 193 193 194 194 193 194 194 194 195 195 195 196 197 198 197 197 198 199 198 197 196 198 199 197 197 0 0 0 0 0
    0 0 0 0 0 0 0 0 0 0 0 0 0 0 0 0 0 0 0 0 0 0 0 0 0 0 0 0 0 0 0 0 0 0 0 0 0 0 0 0 0 0 0 0 0 0 0 0 0 0 0 0 0 0 0 0 0 0 0 0 0 0 0 0 0 0 0 0 0 272 275 267 266 269 267 267 268 267 269 271 273 275 274 278 280 283 -193 276 279 290 -209 -209 -209 -209 -209 -209 303 -209 -209 0 0 0 0 0 -209 -209 -193 -209 -209 -209 297 299 296 -193 302 312 322 -193 -209 -209 -209 -209 -209 -209 -209 -209 -209 -209 -209 -193 344 -209 -209 -209 -209 -209 -209 -209 -209 -209 -209 -209 -209 -209 -209 -209 -209 -209 -209 -209 -209 -177 -177 -177 -209 -193 -209 -209 -209 -193 187 189 189 189 191 192 -193 -193 -209 -193 93 98 -177 -193 -209 -193 -193 189 195 193 194 196 195 194 195 196 196 192 -193 -193 187 191 192 192 188 190 196 198 198 198 198 197 197 198 197 194 192 194 192 -193 194 193 193 196 198 198 196 197 197 196 194 193 190 189 192 195 196 193 195 195 196 196 196 196 196 194 198 192 199 -193 195 194 192 188 193 195 197 197 196 196 198 198 200 199 198 198 196 196 196 196 196 195 195 197 196 199 199 196 197 196 195 196 195 196 195 194 196 196 196 197 196 196 195 195 195 195 195 196 194 195 193 193 194 195 193 194 194 195 195 195 195 196 197 198 198 198 198 198 198 197 195 198 199 196 196 0 0 0 0 0
    0 0 0 0 0 0 0 0 0 0 0 0 0 0 0 0 0 0 0 0 0 0 0 0 0 0 0 0 0 0 0 0 0 0 0 0 0 0 0 0 0 0 0 0 0 0 0 0 0 0 0 0 0 0 0 0 0 0 0 0 0 0 0 0 0 0 0 0 0 270 272 267 267 268 266 267 268 268 269 270 272 273 272 276 278 279 278 277 279 -209 -209 -209 311 -209 -209 -209 -209 -209 -209 -193 0 0 0 -193 -209 -209 -209 -209 -209 -209 -209 -193 -209 310 310 314 322 -193 -209 -209 -209 382 -193 -209 -209 -209 -209 -209 -209 -209 -209 -209 78 -209 -209 -209 -209 -209 -193 -209 -209 -209 -209 -209 -209 -209 -209 -209 -209 -209 -209 -209 57 63 -209 -193 -209 -209 -209 -209 -209 -193 -193 189 190 191 -193 -193 -209 93 95 99 -177 -177 -209 -193 -209 185 191 191 193 196 194 194 195 196 196 191 -193 -193 -209 -193 -193 191 187 188 194 197 198 198 198 198 197 197 197 193 190 193 -193 -209 -209 190 191 195 198 198 197 198 197 198 195 193 191 189 193 195 196 192 195 195 195 196 196 196 197 195 200 -209 203 209 -209 -209 199 189 194 196 197 196 197 198 199 199 201 200 198 198 196 196 195 195 195 194 194 196 196 198 199 196 197 196 195 195 195 196 195 193 195 195 195 196 196 196 195 195 195 195 195 196 194 195 193 193 194 195 194 195 194 195 196 196 195 197 198 198 198 197 196 197 197 197 195 197 199 196 196 0 0 0 0 0
    0 0 0 0 0 0 0 0 0 0 0 0 0 0 0 0 0 0 0 0 0 0 0 0 0 0 0 0 0 0 0 0 0 0 0 0 0 0 0 0 0 0 0 0 0 0 0 0 0 0 0 0 0 0 0 0 0 0 0 0 0 0 0 0 0 0 0 0 0 270 272 269 269 269 267 269 269 269 270 271 272 273 272 275 276 277 276 275 277 279 -209 -209 -209 -209 -209 -209 -209 -209 -209 -193 -193 -193 -193 -209 -209 -209 52 -209 -209 319 323 317 320 318 317 318 323 325 -193 -209 -193 385 395 -209 -209 -209 -209 -209 -209 -193 -209 -209 -209 -209 -209 -209 -209 -193 0 -209 -209 -209 -209 -209 -209 447 451 -209 -209 60 -209 -209 -209 -209 -209 -209 -209 -209 142 145 -209 135 136 -193 -209 -209 96 -193 -193 -193 96 100 103 114 -177 -177 -177 175 185 188 188 192 192 191 194 197 -193 -209 115 117 -193 121 -177 -177 -209 181 188 194 196 196 197 197 196 197 195 191 188 191 -209 -209 -193 -209 188 193 197 198 198 199 198 198 195 193 190 188 191 192 194 191 194 194 195 195 196 195 197 195 201 -209 -193 211 -209 -209 -209 188 195 196 197 197 198 199 200 199 202 204 199 198 197 196 195 195 196 195 193 196 196 198 199 197 197 196 195 195 195 196 195 193 195 194 194 197 196 196 196 196 196 195 195 196 194 195 192 193 193 194 194 195 194 195 196 197 -193 -193 198 198 198 198 197 196 197 197 195 197 198 196 196 0 0 0 0 0
    0 0 0 0 0 0 0 0 0 0 0 0 0 0 0 0 0 0 0 0 0 0 0 0 0 0 0 0 0 0 0 0 0 0 0 0 0 0 0 0 0 0 0 0 0 0 0 0 0 0 0 0 0 0 0 0 0 0 0 0 0 0 0 0 0 0 0 0 0 270 273 270 269 271 268 271 269 270 270 270 272 272 271 272 273 275 273 273 275 276 -209 -193 -209 -209 -209 -209 -209 -209 -193 -193 -193 -193 -193 -209 -193 -209 -193 -209 -209 317 322 317 323 323 319 319 324 -209 -209 -209 -193 -209 395 -209 -193 274 273 270 268 269 268 269 266 264 -209 -209 -209 -193 9 -193 15 19 -193 85 -193 -209 -209 -209 -209 124 -209 -209 120 -209 112 -209 -193 -209 -209 141 -209 -209 138 141 -209 -209 -209 187 195 -193 -209 101 104 -209 -209 -209 -209 166 173 181 175 181 177 176 -193 -209 115 121 121 120 121 121 127 137 -177 -209 182 190 -193 191 195 196 197 198 -193 -209 -209 -193 -209 -209 -209 -209 187 195 200 202 202 202 200 199 193 191 189 186 189 190 194 190 194 194 195 196 196 195 197 194 201 -209 -193 -193 -209 -209 -209 189 195 196 197 197 198 199 200 -193 -209 208 -193 199 197 196 194 195 195 194 191 195 196 198 199 197 197 197 195 195 195 195 194 193 195 193 194 196 196 196 195 197 196 -193 -193 -193 -193 -193 -193 -193 190 192 193 194 193 194 195 195 -193 -193 198 197 197 197 195 194 197 197 195 197 198 196 196 0 0 0 0 0
    0 0 0 0 0 0 0 0 0 0 0 0 0 0 0 0 0 0 0 0 0 0 0 0 0 0 0 0 0 0 0 0 0 0 0 0 0 0 0 0 0 0 0 0 0 0 0 0 0 0 0 0 0 0 0 0 0 0 0 0 0 0 0 0 0 0 0 0 0 269 271 269 269 271 269 272 270 271 271 271 273 273 271 272 272 273 271 270 272 272 -209 -193 -209 -193 -193 -209 -209 -193 271 272 273 274 273 -193 276 276 -209 -193 -209 -209 325 321 326 -209 -209 -193 -193 -209 -209 -209 -209 -193 -193 272 -193 273 271 269 268 269 268 268 267 264 263 264 266 -209 -209 10 13 16 18 -209 145 145 -193 -193 -177 128 127 126 126 126 131 -209 -209 -209 -209 -209 -209 -209 138 139 143 149 -209 -209 -209 -209 158 -209 -209 -209 -209 87 88 -209 -193 -209 167 167 165 167 177 -209 115 120 123 -209 -193 121 129 137 138 142 -209 -209 -209 -209 185 190 196 -209 -209 -209 -209 -209 -209 -209 -209 -209 -209 196 203 211 215 -193 -209 -209 190 189 -193 186 188 188 194 190 194 195 195 197 197 196 198 -193 -193 -209 -193 -209 -209 -209 -209 -209 194 194 195 195 197 199 200 -193 -209 207 -209 199 197 194 191 193 194 193 190 193 196 197 199 197 198 197 195 195 195 195 194 192 194 193 194 196 196 196 196 197 -209 -209 -209 -209 -193 45 47 -193 -193 -193 -193 -193 -193 -209 -193 -193 91 96 -193 194 194 193 -177 -177 197 198 195 198 198 196 196 0 0 0 0 0
    0 0 0 0 0 0 0 0 0 0 0 0 0 0 0 0 0 0 0 0 0 0 0 0 0 0 0 0 0 0 0 0 0 0 0 0 0 0 0 0 0 0 0 0 0 0 0 0 0 0 0 0 0 0 0 0 0 0 0 0 0 0 0 0 0 0 0 0 0 269 270 268 269 -177 269 275 272 272 272 271 273 273 271 271 270 271 269 268 271 270 269 -193 -193 -193 -193 -193 -193 -193 271 272 273 274 274 274 276 275 -193 -193 -209 -209 -193 -209 -209 -193 -209 -193 -193 -209 -193 -193 278 276 272 271 275 272 270 269 268 268 268 268 267 264 263 264 266 -193 -209 -177 11 13 -177 -193 145 145 -193 136 136 131 130 128 127 129 -193 -209 -209 -209 -209 -209 -209 -209 140 139 145 -193 -193 -193 -209 -209 155 -209 -209 170 175 -193 -193 171 171 169 168 168 170 -193 -209 -193 -177 -193 -209 -209 -209 -209 133 139 149 -193 164 -209 -209 -193 -209 -209 -209 -209 -209 -209 142 -209 -209 -209 -209 -209 -209 -209 -209 236 241 247 249 248 -209 -209 -209 183 -193 186 193 190 195 196 198 199 200 199 -209 34 -209 -209 -193 -193 -193 -209 -209 -209 -209 -209 -209 199 202 -209 -209 270 282 -209 -209 -209 195 192 190 193 193 189 188 191 196 197 199 198 198 197 195 195 195 195 193 192 193 191 192 196 196 196 -193 -209 -209 -209 -209 -209 -209 46 48 47 48 50 -193 52 51 -177 -193 -177 87 92 99 -193 -193 190 190 196 -177 200 198 199 198 197 197 0 0 0 0 0
    0 0 0 0 0 0 0 0 0 0 0 0 0 0 0 0 0 0 0 0 0 0 0 0 0 0 0 0 0 0 0 0 0 0 0 0 0 0 0 0 0 0 0 0 0 0 0 0 0 0 0 0 0 0 0 0 0 0 0 0 0 0 0 0 0 0 0 0 0 269 270 268 269 -177 269 275 271 271 271 271 272 272 271 271 269 270 269 268 270 268 267 267 -193 -193 -193 -193 -193 269 270 271 272 273 273 272 275 274 274 273 275 -209 -193 -193 -193 -193 -209 -193 -209 -209 277 278 277 275 271 271 275 272 270 269 268 268 268 269 268 265 265 266 267 268 -193 -193 -193 -193 -177 -209 -193 -193 -209 -209 -209 129 128 126 -193 -193 -193 -209 -209 -209 -209 -209 -209 -209 140 -193 -193 -193 -209 -193 -209 -209 156 -209 166 169 173 175 172 172 171 169 169 169 -193 -177 -177 -177 -177 261 -193 264 264 266 267 -193 -193 -193 -209 -209 -209 -193 -177 -177 -209 -209 -209 -209 -209 -209 -209 -209 -209 -209 260 250 251 249 249 251 252 251 249 252 -193 -209 -193 183 -209 187 192 197 199 203 -193 -193 -209 37 -209 -209 -209 -209 18 24 -209 -209 -209 -209 206 -177 221 -177 259 270 284 -209 -209 -209 -209 -209 -209 -209 -209 -209 184 188 195 197 -193 198 198 197 194 -193 195 194 193 190 190 189 190 195 195 -193 -209 -209 -209 -209 30 36 -193 44 45 46 48 52 54 54 53 53 -177 -177 -177 -177 -209 -209 -209 186 188 198 201 202 201 200 198 198 198 0 0 0 0 0
    0 0 0 0 0 0 0 0 0 0 0 0 0 0 0 0 0 0 0 0 0 0 0 0 0 0 0 0 0 0 0 0 0 0 0 0 0 0 0 0 0 0 0 0 0 0 0 0 0 0 0 0 0 0 0 0 0 0 0 0 0 0 0 0 0 0 0 0 0 269 270 268 269 -177 268 274 271 271 271 271 272 272 270 270 269 270 269 269 270 268 266 267 267 -193 268 268 269 268 269 271 271 273 272 271 274 272 272 271 272 272 -193 270 271 270 273 -193 -209 -209 -193 -193 275 274 270 270 275 272 270 269 268 268 269 270 268 266 266 267 268 269 269 268 268 271 -193 -209 -209 -209 -193 -193 -209 -193 -193 -193 268 269 269 270 -193 269 -193 -193 -193 -193 -209 -209 -193 -193 -193 265 -209 -209 -209 -209 -209 168 172 174 172 172 171 169 -177 -209 265 266 -177 261 261 263 264 265 265 266 267 268 269 269 268 -193 -193 -177 -177 -177 -209 254 258 -209 266 -193 -209 -209 -209 261 265 264 255 253 252 253 255 255 252 253 258 -209 -209 -209 -209 -209 -193 -209 -193 -209 253 266 271 276 274 274 -193 -193 -209 -209 -209 -209 -209 -209 -209 -209 -209 258 264 271 281 -209 -209 -209 -209 -193 -209 -209 -209 -209 -209 -209 -193 -193 268 -209 -209 -209 -209 -209 -209 -193 193 -193 186 -209 187 193 -209 -193 -209 -209 -209 -209 -209 -193 42 46 44 45 49 54 57 -193 54 51 -177 -177 -209 -209 -209 -193 -209 -209 186 194 196 200 200 200 197 197 198 0 0 0 0 0
    0 0 0 0 0 0 0 0 0 0 0 0 0 0 0 0 0 0 0 0 0 0 0 0 0 0 0 0 0 0 0 0 0 0 0 0 0 0 0 0 0 0 0 0 0 0 0 0 0 0 0 0 0 0 0 0 0 0 0 0 0 0 0 0 0 0 0 0 0 269 270 268 269 271 268 273 270 271 271 270 272 272 270 271 269 270 269 269 270 268 267 268 268 268 268 268 269 268 269 271 270 272 273 271 274 272 271 271 271 270 269 269 270 268 271 270 271 -193 -193 -193 274 271 269 269 274 271 270 269 268 268 269 270 268 266 267 268 268 269 269 268 268 271 272 272 271 -193 -193 271 271 -193 269 268 268 269 269 270 269 269 270 268 268 268 267 -193 266 266 266 266 266 -209 -209 -193 -209 -209 -209 -177 -177 -177 171 -209 -209 266 265 265 265 262 262 264 265 265 265 267 267 268 269 269 268 267 -193 -193 -193 -193 261 257 259 263 265 266 266 263 262 263 266 265 260 261 260 261 262 263 260 261 262 265 261 262 262 262 260 260 258 258 258 265 268 274 273 272 271 270 269 -193 -193 -193 261 262 -193 262 264 265 266 268 272 271 -209 -209 -193 -209 -209 -209 -209 265 265 267 268 266 267 -193 -209 -209 -209 -209 -209 -209 -209 -209 -209 -209 -209 -209 -193 61 63 -209 53 -209 -209 -209 53 -193 50 52 54 58 62 64 -209 51 54 58 -209 -209 -209 -209 -193 -209 186 -193 190 197 199 199 197 196 197 0 0 0 0 0
    0 0 0 0 0 0 0 0 0 0 0 0 0 0 0 0 0 0 0 0 0 0 0 0 0 0 0 0 0 0 0 0 0 0 0 0 0 0 0 0 0 0 0 0 0 0 0 0 0 0 0 0 0 0 0 0 0 0 0 0 0 0 0 0 0 0 0 0 0 269 271 268 269 -177 268 273 270 271 271 270 271 271 270 271 269 270 269 269 270 268 267 268 268 268 269 268 269 269 270 271 271 273 273 271 275 272 272 271 270 270 268 268 268 267 269 268 268 268 270 273 272 269 268 268 272 269 269 269 268 268 269 270 268 267 268 268 269 269 268 268 268 270 271 271 270 271 270 270 271 270 269 268 269 269 269 270 269 269 271 269 269 270 268 267 267 268 267 266 267 267 -209 -193 -209 -209 -209 -209 -177 -209 -209 266 266 266 265 266 265 263 263 265 265 266 265 267 267 268 268 268 268 267 266 -193 -193 -193 263 260 261 263 265 266 265 262 262 263 265 265 261 262 261 262 263 265 262 263 263 266 262 264 264 264 262 262 260 259 259 263 264 269 269 269 268 268 268 267 268 267 263 264 263 264 266 266 267 267 269 268 263 263 -209 263 263 -193 264 265 265 266 268 265 266 266 -209 -209 -209 -209 -209 -209 -209 -209 -209 -209 -209 -209 -209 -209 -209 -209 59 66 67 70 70 67 -209 -209 69 66 70 74 -209 -209 -193 58 -209 -209 -209 -209 -209 -209 -209 -209 -209 -209 -193 -193 197 197 198 0 0 0 0 0
    0 0 0 0 0 0 0 0 0 0 0 0 0 0 0 0 0 0 0 0 0 0 0 0 0 0 0 0 0 0 0 0 0 0 0 0 0 0 0 0 0 0 0 0 0 0 0 0 0 0 0 0 0 0 0 0 0 0 0 0 0 0 0 0 0 0 0 0 0 269 271 267 269 273 267 273 270 271 271 270 271 271 270 271 268 270 269 269 270 268 267 268 269 269 269 268 269 269 270 272 271 273 274 272 276 273 272 271 269 269 268 267 268 266 268 267 268 267 269 271 270 268 267 267 270 268 268 268 267 268 269 269 268 267 268 269 269 269 268 268 269 270 270 270 269 270 270 270 271 270 269 269 269 270 270 270 270 270 271 270 270 271 269 268 268 269 268 267 267 267 265 265 265 265 264 265 -193 266 266 266 265 266 265 266 265 264 264 265 265 266 265 267 267 268 268 268 267 267 266 266 266 265 265 263 263 264 266 266 266 263 262 263 265 265 262 262 261 262 263 265 262 262 263 265 262 264 264 264 263 262 260 260 260 261 263 266 268 268 268 267 267 268 269 267 264 264 264 265 267 267 267 -193 268 267 264 263 266 263 263 265 265 265 265 266 268 266 -193 -193 -209 -209 -209 -209 -209 -209 -209 -209 -209 -209 168 -209 -209 -209 -209 -209 -209 70 -209 72 74 -209 -209 -209 -209 -193 75 77 -209 -209 -193 -209 -209 -209 -209 -209 -209 -209 -209 -209 126 -209 -209 -209 -209 201 202 0 0 0 0 0
    0 0 0 0 0 0 0 0 0 0 0 0 0 0 0 0 0 0 0 0 0 0 0 0 0 0 0 0 0 0 0 0 0 0 0 0 0 0 0 0 0 0 0 0 0 0 0 0 0 0 0 0 0 0 0 0 0 0 0 0 0 0 0 0 0 0 0 0 0 269 270 267 268 271 267 272 269 270 270 270 271 270 270 270 268 269 269 268 269 268 267 268 269 269 269 267 268 268 269 272 271 273 275 273 276 274 272 271 269 269 268 267 268 267 268 269 269 268 269 271 270 267 266 267 269 267 267 267 267 268 268 269 268 267 269 270 270 270 269 269 270 272 272 271 270 271 271 271 270 269 269 269 270 270 270 269 270 270 271 270 270 271 269 268 269 269 269 267 268 267 266 266 266 266 265 265 265 266 266 266 265 267 266 266 265 265 265 265 266 266 266 267 267 268 268 268 267 268 267 266 266 265 266 265 264 265 265 266 265 263 262 263 265 265 262 263 262 262 263 264 261 262 262 263 262 263 263 263 262 262 260 261 260 261 263 265 266 266 267 266 266 267 268 267 264 264 265 265 267 267 267 266 267 266 263 263 265 263 263 265 265 265 266 267 268 266 267 266 264 264 -193 -209 -209 -209 -209 -209 -209 -209 168 164 -209 -209 -209 -209 -209 -209 -209 -209 -209 -209 -209 -209 -209 -209 81 81 -209 -209 -209 -209 -209 -209 -209 -209 -209 -209 -193 -193 121 -209 -209 -209 -209 -209 205 0 0 0 0 0
    0 0 0 0 0 0 0 0 0 0 0 0 0 0 0 0 0 0 0 0 0 0 0 0 0 0 0 0 0 0 0 0 0 0 0 0 0 0 0 0 0 0 0 0 0 0 0 0 0 0 0 0 0 0 0 0 0 0 0 0 0 0 0 0 0 0 0 0 0 269 270 266 267 269 266 269 268 270 269 270 270 270 269 270 268 268 268 268 268 268 267 268 269 268 268 267 268 268 269 272 271 273 277 274 277 274 272 271 269 268 268 267 268 267 268 268 268 268 269 271 269 267 265 267 269 267 267 267 267 268 268 269 268 267 269 269 269 269 268 269 269 271 271 270 269 270 270 270 270 269 269 269 269 270 269 269 269 269 271 269 270 271 269 269 269 269 269 268 269 268 266 267 266 266 266 266 266 266 266 266 266 267 266 266 265 265 265 266 266 266 266 267 267 268 268 267 267 268 267 267 266 266 266 265 265 266 266 267 266 265 264 265 266 267 264 264 263 264 263 264 262 262 262 263 261 262 262 263 262 263 260 261 261 261 263 264 265 264 265 265 265 266 267 266 264 264 265 265 266 267 266 266 266 266 263 263 265 263 263 265 265 265 266 267 268 266 267 267 265 265 265 266 -193 -209 -209 -193 -209 166 166 162 160 -193 256 -209 256 -193 -177 -209 -209 -209 -209 -209 -209 -209 85 85 86 -209 -209 -209 -209 -209 -209 -209 -209 -209 -209 -209 -209 -209 -209 -209 -209 -209 -209 0 0 0 0 0
    0 0 0 0 0 0 0 0 0 0 0 0 0 0 0 0 0 0 0 0 0 0 0 0 0 0 0 0 0 0 0 0 0 0 0 0 0 0 0 0 0 0 0 0 0 0 0 0 0 0 0 0 0 0 0 0 0 0 0 0 0 0 0 0 0 0 0 0 0 269 270 266 267 269 266 268 268 269 269 270 270 270 269 270 268 268 269 269 268 268 -193 268 269 268 269 267 267 269 269 273 271 -193 -193 274 277 274 271 270 268 268 267 267 268 267 268 268 268 268 270 272 269 266 265 268 269 267 267 267 267 268 268 269 267 267 269 270 269 269 267 268 268 270 270 269 268 269 270 270 270 269 269 269 270 270 269 269 269 269 270 269 269 270 269 269 269 270 270 268 270 268 267 267 266 267 267 267 266 266 267 267 267 268 266 266 265 266 266 266 266 267 266 267 267 268 268 267 267 267 266 267 266 266 266 266 267 267 267 268 267 266 265 267 268 267 265 265 264 265 264 265 262 263 262 263 261 262 262 263 262 263 260 261 260 261 262 263 263 263 263 264 264 265 266 266 264 264 265 265 266 267 267 267 266 266 264 264 266 264 264 265 265 265 266 267 268 267 268 267 266 266 266 266 267 266 266 267 -209 -209 -209 159 -193 256 261 264 261 264 263 263 -209 -209 -209 -209 -209 -209 -209 -209 -209 -209 -209 -209 -209 -209 -209 -209 -209 -209 -209 -209 -209 -209 -209 -209 -209 -209 -209 0 0 0 0 0
    0 0 0 0 0 0 0 0 0 0 0 0 0 0 0 0 0 0 0 0 0 0 0 0 0 0 0 0 0 0 0 0 0 0 0 0 0 0 0 0 0 0 0 0 0 0 0 0 0 0 0 0 0 0 0 0 0 0 0 0 0 0 0 0 0 0 0 0 0 270 270 267 268 269 266 268 268 269 270 271 271 271 270 270 268 269 270 270 269 270 -193 269 270 269 269 267 267 269 269 273 -193 -193 -193 -193 278 276 272 271 269 269 268 267 269 268 269 269 269 268 270 272 269 266 265 268 268 267 267 267 267 268 269 269 267 268 270 270 270 269 267 268 267 269 269 268 268 269 270 270 270 269 269 269 270 269 269 268 268 269 269 268 269 269 269 269 269 270 269 268 270 268 267 267 266 267 266 266 265 266 266 266 266 268 266 266 265 267 267 267 267 267 266 267 267 268 268 267 266 267 266 266 265 266 265 266 266 266 267 269 268 266 265 267 268 267 266 266 266 266 267 268 265 264 263 264 262 263 262 263 262 263 261 261 261 261 262 263 263 263 263 263 263 264 265 265 264 264 265 265 267 267 267 267 267 266 264 264 266 264 264 265 265 265 266 267 268 266 268 267 265 266 266 266 267 266 266 267 266 266 -193 -193 262 260 262 265 263 265 264 264 264 263 263 262 261 -193 -209 -209 -209 -193 -209 -209 -193 -193 -193 -193 -209 262 262 263 262 -193 -209 263 262 -193 263 0 0 0 0 0
    0 0 0 0 0 0 0 0 0 0 0 0 0 0 0 0 0 0 0 0 0 0 0 0 0 0 0 0 0 0 0 0 0 0 0 0 0 0 0 0 0 0 0 0 0 0 0 0 0 0 0 0 0 0 0 0 0 0 0 0 0 0 0 0 0 0 0 0 0 270 270 267 269 268 266 267 267 269 270 271 270 271 270 271 269 270 271 270 269 271 -193 271 271 270 270 268 268 270 269 273 -193 -193 -193 -193 279 278 275 274 270 269 268 266 268 267 268 269 269 267 268 270 267 265 264 269 267 266 267 267 266 268 268 269 267 268 270 269 269 269 266 267 267 268 268 267 268 268 269 269 270 269 269 269 269 269 269 268 268 268 269 268 268 269 269 269 269 269 269 268 269 268 267 267 266 266 266 266 265 265 266 266 266 267 266 266 266 267 267 268 267 267 266 267 268 268 268 267 267 267 266 266 266 266 266 266 266 266 267 268 267 266 264 267 267 267 267 267 266 267 267 268 266 265 264 265 263 263 263 263 263 263 261 262 262 262 262 263 263 263 262 263 263 263 264 264 264 264 265 265 267 267 267 266 266 266 265 264 265 263 263 265 265 265 265 266 267 266 267 266 265 266 266 266 266 266 266 266 266 266 265 264 263 262 263 265 264 266 264 264 263 263 263 262 261 262 260 265 266 268 268 268 267 267 266 266 264 263 262 263 263 -193 -209 263 262 262 263 0 0 0 0 0
    0 0 0 0 0 0 0 0 0 0 0 0 0 0 0 0 0 0 0 0 0 0 0 0 0 0 0 0 0 0 0 0 0 0 0 0 0 0 0 0 0 0 0 0 0 0 0 0 0 0 0 0 0 0 0 0 0 0 0 0 0 0 0 0 0 0 0 0 0 270 270 267 269 268 267 267 267 268 269 270 269 270 270 270 269 269 270 270 269 271 269 271 271 270 270 268 269 271 270 273 272 -193 -193 277 278 277 275 275 271 270 268 265 267 267 268 269 270 269 269 271 267 265 264 269 267 266 266 266 266 268 268 268 266 267 269 269 269 268 266 267 266 267 267 267 267 268 268 268 269 268 268 268 269 269 268 267 268 268 269 268 268 269 269 269 269 269 268 268 268 267 267 267 266 266 266 266 265 265 265 266 266 267 266 266 266 268 268 268 267 267 267 267 268 267 267 266 266 267 266 266 266 265 266 266 266 266 266 269 267 266 264 267 267 267 267 267 266 267 267 268 266 265 264 265 264 264 263 263 263 263 262 262 262 261 262 262 262 261 261 262 262 262 263 263 264 264 266 266 267 268 267 266 266 266 265 264 264 263 263 264 264 265 265 265 266 266 266 266 265 266 265 265 265 265 264 265 265 264 264 264 264 263 -193 266 264 266 265 264 263 262 263 262 261 262 260 264 265 267 267 268 266 266 265 266 264 263 263 263 263 264 -193 264 262 263 263 0 0 0 0 0</data></disparity>
</opencv_storage>
