<?xml version="1.0"?>
<opencv_storage>
<gps_time_stamp>34835</gps_time_stamp>
<gps_x>-1.1855537414550781e+001</gps_x>
<gps_y>1.1491547822952271e+000</gps_y>
<gps_z>-3.0273661613464355e+000</gps_z>
<image_time_stamp>22767</image_time_stamp>
<disparity type_id="opencv-matrix">
  <rows>93</rows>
  <cols>320</cols>
  <dt>s</dt>
  <data>
    0 0 0 0 0 0 0 0 0 0 0 0 0 0 0 0 0 0 0 0 0 0 0 0 0 0 0 0 0 0 0 0 0 0 0 0 0 0 0 0 0 0 0 0 0 0 0 0 0 0 0 0 0 0 0 0 0 0 0 0 0 0 0 0 0 0 0 0 0 0 0 0 0 0 0 0 0 0 0 0 0 0 -225 -225 12 12 12 12 12 12 13 10 0 0 0 0 0 0 0 0 0 0 0 0 0 0 9 9 0 0 -193 -193 9 10 0 0 0 9 0 0 0 0 10 10 10 9 9 10 10 11 11 0 0 0 9 9 9 9 9 10 9 9 0 0 0 1008 0 0 0 10 -225 -225 16 -193 -193 -193 19 20 20 20 20 22 0 9 0 9 0 0 0 0 9 9 9 -193 -193 -209 13 19 14 14 13 -193 -193 11 10 10 0 0 0 0 0 10 10 11 10 10 10 9 0 0 0 0 0 0 0 0 0 0 0 11 9 9 10 11 11 11 13 20 13 19 22 22 22 21 20 18 11 13 15 15 16 15 15 16 16 17 16 16 16 16 17 17 18 18 19 18 18 18 20 18 19 19 20 19 20 20 20 19 21 22 19 19 19 21 21 20 20 20 18 22 23 23 22 23 24 25 24 24 24 24 24 25 26 27 27 29 29 31 34 36 38 42 40 41 41 41 41 41 41 41 41 43 43 43 43 44 44 45 45 46 45 47 46 47 47 0 0 0 0 0
    0 0 0 0 0 0 0 0 0 0 0 0 0 0 0 0 0 0 0 0 0 0 0 0 0 0 0 0 0 0 0 0 0 0 0 0 0 0 0 0 0 0 0 0 0 0 0 0 0 0 0 0 0 0 0 0 0 0 0 0 0 0 0 0 0 0 0 0 0 0 0 0 0 0 0 0 0 0 0 0 0 0 0 -225 11 11 11 11 11 11 12 9 0 0 0 0 0 0 0 0 0 0 0 0 0 0 9 9 9 0 -193 -193 0 10 0 0 0 0 0 0 0 0 10 10 10 9 9 9 10 11 11 0 0 0 9 9 9 9 9 9 9 9 0 0 0 -193 0 0 0 9 -225 -225 16 -193 -193 16 16 17 16 15 13 13 0 0 0 0 0 0 0 0 9 9 9 -193 -193 -209 13 19 15 14 14 13 -193 11 10 10 0 0 0 0 0 10 10 10 10 10 9 9 0 0 0 0 0 0 0 0 0 0 0 11 9 9 10 11 11 11 12 19 13 17 20 20 20 19 18 17 11 13 15 15 16 15 16 17 16 17 17 16 17 17 17 17 18 17 19 18 18 17 19 18 19 19 19 18 20 20 20 18 21 22 19 19 19 21 21 20 20 20 18 22 23 23 22 23 25 25 24 24 24 23 23 25 27 28 29 30 31 34 36 36 38 40 39 40 41 41 40 41 41 41 41 43 43 43 43 44 45 46 45 46 46 47 47 48 47 0 0 0 0 0
    0 0 0 0 0 0 0 0 0 0 0 0 0 0 0 0 0 0 0 0 0 0 0 0 0 0 0 0 0 0 0 0 0 0 0 0 0 0 0 0 0 0 0 0 0 0 0 0 0 0 0 0 0 0 0 0 0 0 0 0 0 0 0 0 0 0 0 0 0 0 0 0 0 0 0 0 0 9 9 0 0 0 0 16 10 10 10 10 10 10 10 0 0 0 0 0 0 0 0 0 0 0 0 0 0 0 9 10 9 0 -193 -193 0 9 0 0 0 0 0 0 0 0 9 9 10 9 0 9 9 10 11 0 0 0 0 0 0 9 9 9 9 0 0 0 0 -193 0 0 0 0 9 11 11 -193 11 13 12 14 13 10 10 9 0 0 0 0 0 0 0 0 0 9 0 -209 -209 -209 13 19 15 14 14 13 -193 11 10 10 0 0 0 0 0 10 10 10 10 10 9 9 0 0 0 0 0 0 0 0 0 0 0 10 9 0 10 10 10 10 12 19 12 16 19 18 18 17 17 17 11 14 15 15 16 16 17 17 16 17 17 17 17 17 17 17 19 19 20 19 19 18 20 19 19 18 19 18 20 20 20 17 21 22 19 19 19 21 20 20 20 20 19 22 23 23 22 23 25 25 24 24 24 23 24 25 27 28 29 31 33 35 37 38 39 41 40 41 41 41 41 41 41 41 41 43 42 43 43 44 45 45 45 46 46 47 47 48 48 0 0 0 0 0
    0 0 0 0 0 0 0 0 0 0 0 0 0 0 0 0 0 0 0 0 0 0 0 0 0 0 0 0 0 0 0 0 0 0 0 0 0 0 0 0 0 0 0 0 0 0 0 0 0 0 0 0 0 0 0 0 0 0 0 0 0 0 0 0 0 0 0 0 0 0 0 0 0 0 0 0 0 0 0 0 0 0 0 13 9 9 9 9 9 9 9 0 0 0 0 0 0 0 0 0 0 0 0 0 0 0 9 10 0 0 -193 -193 0 9 0 0 0 0 0 0 0 0 9 9 10 0 0 9 9 10 11 0 0 0 0 0 0 0 9 9 9 0 0 0 0 0 0 0 0 0 10 11 10 10 9 10 9 11 11 8 9 0 0 0 0 0 0 0 0 0 0 0 0 -209 -209 -209 13 19 15 15 15 14 13 12 10 11 0 0 0 0 9 11 11 11 10 10 9 9 0 0 0 0 0 0 0 0 0 0 0 8 0 0 9 10 10 10 11 18 12 16 18 17 17 16 16 17 12 15 15 16 16 15 17 16 16 17 17 17 17 16 17 17 19 18 20 18 18 18 20 18 19 18 19 16 19 19 19 17 21 22 19 19 19 21 21 20 20 20 19 22 23 23 22 23 25 24 24 24 24 23 23 25 27 29 30 32 35 36 37 39 39 41 40 40 41 41 41 41 41 41 42 43 43 43 44 44 45 46 45 45 45 47 47 48 48 0 0 0 0 0
    0 0 0 0 0 0 0 0 0 0 0 0 0 0 0 0 0 0 0 0 0 0 0 0 0 0 0 0 0 0 0 0 0 0 0 0 0 0 0 0 0 0 0 0 0 0 0 0 0 0 0 0 0 0 0 0 0 0 0 0 0 0 0 0 0 0 0 0 0 9 9 0 0 0 0 0 0 0 0 0 0 0 0 10 0 0 0 0 0 0 0 0 0 0 0 0 0 0 0 0 0 0 0 0 0 0 9 9 0 0 -193 0 0 0 0 0 0 0 0 0 0 0 0 9 10 0 0 9 9 10 11 0 0 0 0 0 0 0 9 9 9 9 0 0 0 0 0 0 0 0 10 11 10 10 9 9 0 10 10 0 0 0 0 0 0 0 0 0 0 0 0 0 0 -193 -209 -209 13 19 15 15 15 14 13 12 10 12 0 0 0 0 9 11 12 11 10 10 9 9 0 0 0 0 0 0 0 0 0 0 0 0 0 0 9 9 9 9 10 18 12 16 16 16 16 16 16 16 12 16 16 16 16 17 17 16 16 17 17 16 16 16 17 18 19 18 20 18 18 19 20 18 18 18 18 15 19 19 19 16 21 22 19 19 20 22 21 20 21 21 19 22 23 23 22 23 24 23 23 23 23 22 23 24 26 29 30 33 36 35 37 38 39 41 40 40 41 41 41 42 42 42 42 44 43 44 44 45 45 46 45 44 45 48 47 48 48 0 0 0 0 0
    0 0 0 0 0 0 0 0 0 0 0 0 0 0 0 0 0 0 0 0 0 0 0 0 0 0 0 0 0 0 0 0 0 0 0 0 0 0 0 0 0 0 0 0 0 0 0 0 0 0 0 0 0 0 0 0 0 0 0 0 0 0 0 0 0 0 0 0 0 9 9 9 9 9 9 9 0 0 0 0 0 0 0 0 0 0 0 0 0 0 0 0 0 0 0 0 0 0 0 0 0 0 8 0 0 0 9 0 0 0 0 0 0 0 0 0 0 0 0 0 0 0 0 8 9 0 0 9 9 10 11 0 0 0 0 0 9 9 9 9 9 9 9 9 0 0 -193 0 0 9 11 12 11 11 9 9 0 10 10 0 0 0 0 0 0 0 0 0 0 0 0 0 0 -193 -209 -209 12 19 14 15 15 15 13 12 10 12 0 0 0 0 0 11 12 11 10 10 9 9 0 0 0 0 0 0 0 0 0 0 0 0 0 0 9 0 9 9 10 18 13 16 16 16 16 16 16 16 12 16 16 17 16 16 16 16 16 17 16 16 16 17 17 18 19 18 20 18 19 19 20 18 18 18 19 15 19 19 19 16 22 22 20 21 21 22 21 21 21 21 20 23 23 23 23 24 25 24 23 23 23 22 22 24 26 29 30 34 36 35 37 38 38 41 40 40 41 41 42 43 42 43 42 43 43 43 44 45 44 45 44 44 44 47 47 47 48 0 0 0 0 0
    0 0 0 0 0 0 0 0 0 0 0 0 0 0 0 0 0 0 0 0 0 0 0 0 0 0 0 0 0 0 0 0 0 0 0 0 0 0 0 0 0 0 0 0 0 0 0 0 0 0 0 0 0 0 0 0 0 0 0 0 0 0 0 0 0 0 0 0 0 9 0 0 0 0 0 0 0 0 0 0 0 0 0 0 0 0 0 0 0 0 0 0 0 0 0 0 0 0 0 0 9 9 10 9 9 0 9 9 0 0 0 0 0 0 0 0 0 0 0 0 0 0 0 0 9 0 0 9 9 10 11 0 0 0 0 0 9 9 9 9 9 9 9 9 0 0 -193 0 9 9 11 13 12 11 10 10 9 11 12 9 9 0 0 0 0 0 0 0 0 0 0 0 0 0 -209 -209 12 19 14 14 15 15 13 12 11 12 9 9 9 0 8 11 12 11 10 9 9 9 0 0 0 0 0 0 0 0 0 0 0 0 0 0 9 0 9 9 10 18 13 17 16 16 17 16 16 16 13 17 16 17 16 16 16 16 17 17 15 16 16 18 17 18 19 18 20 19 19 19 19 18 19 18 19 14 19 19 19 18 22 22 21 21 21 22 21 21 21 21 20 22 23 23 23 24 25 24 24 24 24 24 24 25 27 30 31 34 36 34 36 37 38 40 39 39 40 41 42 43 43 44 43 44 44 44 44 45 44 45 44 43 44 47 46 46 48 0 0 0 0 0
    0 0 0 0 0 0 0 0 0 0 0 0 0 0 0 0 0 0 0 0 0 0 0 0 0 0 0 0 0 0 0 0 0 0 0 0 0 0 0 0 0 0 0 0 0 0 0 0 0 0 0 0 0 0 0 0 0 0 0 0 0 0 0 0 0 0 0 0 0 9 9 9 9 0 9 0 0 0 0 0 0 0 0 0 0 0 0 0 0 0 0 0 0 0 0 0 0 0 0 0 9 10 10 9 10 0 10 9 0 0 0 0 0 0 0 0 0 0 0 -193 0 0 0 0 10 0 0 9 9 10 10 0 0 0 0 0 0 0 9 0 9 0 0 0 0 0 0 0 9 9 12 13 12 12 12 11 12 13 14 10 9 0 0 0 0 0 0 0 0 0 0 0 0 0 -209 -209 11 18 14 14 15 15 13 12 11 12 9 9 9 9 9 12 12 12 10 10 9 9 9 0 0 0 0 0 0 0 0 0 0 0 0 0 0 0 9 9 10 18 13 16 15 15 16 16 15 15 13 17 16 17 15 16 16 16 17 16 15 16 16 18 17 18 19 18 20 18 18 18 19 18 18 17 18 13 18 19 20 19 22 22 22 22 22 23 22 21 22 22 21 23 23 23 22 23 24 23 24 24 25 25 25 26 28 31 32 34 36 35 37 37 38 39 39 40 40 41 42 43 43 43 43 44 44 44 44 45 45 46 45 44 44 47 47 46 48 0 0 0 0 0
    0 0 0 0 0 0 0 0 0 0 0 0 0 0 0 0 0 0 0 0 0 0 0 0 0 0 0 0 0 0 0 0 0 0 0 0 0 0 0 0 0 0 0 0 0 0 0 0 0 0 0 0 0 0 0 0 0 0 0 0 0 0 0 0 0 0 0 0 0 9 9 9 0 0 0 0 0 0 0 0 0 0 0 0 0 0 0 0 0 0 0 0 0 0 0 0 0 0 0 0 9 10 11 10 10 0 10 10 0 0 0 0 0 0 0 0 0 0 0 0 0 0 0 0 10 0 0 9 9 10 10 0 0 0 0 0 0 0 0 0 9 0 0 0 0 0 0 0 0 8 11 13 12 13 12 11 13 13 15 11 10 9 0 0 0 0 0 0 0 0 0 0 0 0 -209 -209 12 18 14 14 15 15 13 12 11 13 9 9 9 9 9 11 12 12 10 10 9 9 9 0 0 0 0 0 0 0 0 0 0 0 0 0 0 0 0 8 10 16 13 16 15 15 16 16 15 15 14 17 16 17 15 17 17 17 17 16 16 17 16 18 17 18 19 18 20 18 18 18 18 18 18 17 19 12 19 21 22 22 23 23 22 22 22 23 22 22 22 22 22 23 23 23 23 24 25 24 24 25 25 25 25 26 28 32 32 35 36 35 38 38 39 39 40 41 41 42 42 43 43 44 44 44 44 45 45 45 45 46 45 44 45 48 47 46 49 0 0 0 0 0
    0 0 0 0 0 0 0 0 0 0 0 0 0 0 0 0 0 0 0 0 0 0 0 0 0 0 0 0 0 0 0 0 0 0 0 0 0 0 0 0 0 0 0 0 0 0 0 0 0 0 0 0 0 0 0 0 0 0 0 0 0 0 0 0 0 0 0 0 0 9 9 9 0 0 0 0 0 0 0 0 0 0 0 0 0 0 0 0 0 0 0 0 0 0 0 0 0 0 0 0 10 11 11 10 10 0 9 9 0 0 0 0 0 0 0 0 0 0 0 0 0 0 0 0 10 0 0 9 9 10 10 0 0 0 0 0 0 0 0 0 0 0 0 0 0 0 0 0 9 10 12 13 12 13 13 12 14 14 16 13 10 9 0 9 0 0 0 0 0 0 0 0 0 0 -193 -209 11 18 14 14 15 15 13 12 11 13 9 9 10 9 9 11 12 11 9 9 9 9 9 9 0 0 0 0 9 9 0 0 0 0 0 0 0 0 0 0 11 16 13 16 15 15 16 16 16 15 14 17 16 16 15 17 16 16 16 15 16 17 16 18 16 18 18 18 20 19 18 18 18 19 17 17 18 12 16 21 22 22 22 23 22 22 22 23 22 22 23 22 22 23 24 23 23 24 25 24 25 25 25 26 26 26 27 31 31 35 36 36 37 38 39 39 40 41 41 41 42 43 43 44 44 44 43 45 45 45 45 46 45 45 46 48 46 46 49 0 0 0 0 0
    0 0 0 0 0 0 0 0 0 0 0 0 0 0 0 0 0 0 0 0 0 0 0 0 0 0 0 0 0 0 0 0 0 0 0 0 0 0 0 0 0 0 0 0 0 0 0 0 0 0 0 0 0 0 0 0 0 0 0 0 0 0 0 0 0 0 0 0 0 9 0 9 0 0 0 0 0 0 0 0 0 0 0 0 0 0 0 0 0 0 0 0 0 0 0 0 0 0 0 0 10 11 11 11 11 0 0 0 0 0 0 0 0 0 0 0 0 0 0 0 0 0 0 0 10 0 0 9 9 10 11 0 0 0 0 0 0 0 0 0 0 0 0 0 0 0 9 9 11 11 13 13 13 13 14 13 15 14 16 14 11 10 0 9 0 0 0 0 0 0 0 0 0 0 0 15 11 17 13 14 14 15 13 12 11 13 9 10 10 9 9 12 13 12 9 9 9 9 9 9 0 0 0 9 10 9 9 8 0 9 9 9 0 0 0 9 13 15 13 15 15 15 15 16 15 15 14 17 15 17 15 17 16 16 15 16 16 17 16 17 16 18 18 18 20 19 18 18 18 19 16 18 18 14 15 20 21 22 22 23 21 21 21 23 22 22 23 22 22 23 24 23 23 25 25 25 25 25 26 26 26 26 26 31 30 34 35 35 36 36 38 39 38 40 40 40 41 43 43 43 43 44 44 45 45 45 45 46 45 45 45 48 46 46 49 0 0 0 0 0
    0 0 0 0 0 0 0 0 0 0 0 0 0 0 0 0 0 0 0 0 0 0 0 0 0 0 0 0 0 0 0 0 0 0 0 0 0 0 0 0 0 0 0 0 0 0 0 0 0 0 0 0 0 0 0 0 0 0 0 0 0 0 0 0 0 0 0 0 0 9 0 0 0 0 0 0 0 0 0 0 0 0 0 0 0 0 0 0 0 0 0 0 0 0 0 0 0 0 0 0 10 11 11 11 11 0 0 0 0 0 0 0 0 0 0 0 0 0 0 0 0 0 0 9 10 0 0 9 9 10 11 0 0 0 0 0 0 0 9 0 9 0 9 9 9 9 11 10 12 12 14 13 13 14 15 14 15 14 15 15 11 11 0 9 0 0 0 0 0 0 0 0 0 0 0 15 11 17 13 13 14 14 13 12 10 13 9 10 10 9 9 11 13 12 9 9 9 9 9 9 9 9 9 10 10 10 9 9 9 10 9 9 9 0 9 9 13 15 12 15 14 14 15 15 16 14 14 16 15 17 15 17 16 15 16 16 16 17 16 18 16 19 17 17 19 19 17 17 18 18 15 19 19 16 15 21 22 22 22 23 22 22 22 23 23 22 23 22 22 23 24 24 23 25 26 25 25 25 26 26 25 25 25 30 29 31 33 34 34 34 37 38 38 40 40 40 41 42 43 44 43 44 44 45 45 45 45 46 46 45 46 48 46 46 49 0 0 0 0 0
    0 0 0 0 0 0 0 0 0 0 0 0 0 0 0 0 0 0 0 0 0 0 0 0 0 0 0 0 0 0 0 0 0 0 0 0 0 0 0 0 0 0 0 0 0 0 0 0 0 0 0 0 0 0 0 0 0 0 0 0 0 0 0 0 0 0 0 0 0 0 0 0 0 0 0 0 0 0 0 0 0 0 0 0 0 0 0 0 0 0 0 0 0 0 0 0 0 0 0 0 10 11 11 12 11 0 0 0 0 0 0 0 0 0 0 0 0 0 0 0 0 0 0 9 10 9 0 9 9 10 11 0 0 0 0 0 10 9 9 0 9 9 9 9 9 10 11 11 12 13 14 13 14 15 16 15 15 14 15 16 -193 -209 -209 9 9 9 0 0 0 0 0 0 0 0 -193 15 11 16 13 13 14 14 12 12 10 12 9 10 10 9 9 11 12 12 9 9 9 9 10 10 9 9 9 11 11 11 10 10 10 12 11 11 9 10 10 10 14 15 13 15 14 14 15 16 15 14 14 16 16 17 15 16 15 16 16 16 16 17 16 18 17 19 17 17 19 19 18 18 18 18 17 20 20 18 16 22 22 22 22 22 22 22 22 23 23 22 23 23 23 24 24 24 24 25 26 25 26 26 26 26 25 25 25 29 29 30 31 32 33 32 36 38 38 40 40 40 41 42 44 44 43 44 44 45 45 45 45 46 46 46 46 48 46 46 49 0 0 0 0 0
    0 0 0 0 0 0 0 0 0 0 0 0 0 0 0 0 0 0 0 0 0 0 0 0 0 0 0 0 0 0 0 0 0 0 0 0 0 0 0 0 0 0 0 0 0 0 0 0 0 0 0 0 0 0 0 0 0 0 0 0 0 0 0 0 0 0 0 0 0 0 0 0 0 0 0 0 0 0 0 0 0 0 0 0 0 0 0 0 0 0 0 0 0 0 0 0 0 0 0 0 11 11 11 12 12 9 0 0 0 0 0 0 0 0 0 0 0 0 0 0 0 0 0 9 10 9 0 9 9 10 11 0 0 0 9 9 9 9 9 0 9 9 9 9 9 10 11 11 12 13 14 13 14 16 17 16 16 15 -193 -193 -193 -209 -209 9 9 9 0 0 0 0 0 0 0 0 -193 16 12 16 13 13 14 14 12 11 10 11 0 9 10 9 9 11 12 11 9 9 9 9 10 10 9 9 9 12 11 12 10 10 10 13 11 11 10 10 10 11 15 15 14 15 15 15 16 16 16 14 15 15 16 17 15 16 16 16 16 17 17 17 16 18 17 19 18 17 18 20 18 18 18 19 17 19 20 18 15 22 22 22 21 22 22 22 22 23 23 23 23 23 23 24 24 23 23 25 26 26 26 26 27 27 26 26 26 29 30 30 31 33 33 33 36 38 37 39 40 40 41 42 43 43 43 44 43 45 45 45 46 46 47 47 46 47 46 46 48 0 0 0 0 0
    0 0 0 0 0 0 0 0 0 0 0 0 0 0 0 0 0 0 0 0 0 0 0 0 0 0 0 0 0 0 0 0 0 0 0 0 0 0 0 0 0 0 0 0 0 0 0 0 0 0 0 0 0 0 0 0 0 0 0 0 0 0 0 0 0 0 0 0 0 0 0 0 0 0 0 0 0 0 0 0 0 0 0 0 0 0 0 0 0 0 0 0 0 0 0 0 9 0 0 0 11 11 11 12 12 9 0 0 0 0 0 0 0 0 0 0 0 0 0 0 0 0 9 9 10 9 0 9 9 10 10 0 0 0 0 9 9 0 9 0 9 9 9 9 9 10 11 11 12 13 14 14 15 17 18 17 16 15 16 -209 -193 -209 0 0 9 0 0 0 0 0 0 0 0 0 10 16 13 16 13 13 13 14 12 11 9 11 0 9 10 9 0 10 11 11 9 9 9 9 9 10 9 9 9 13 11 12 11 11 11 14 12 12 10 11 11 11 15 14 14 15 15 15 16 16 15 14 15 14 16 17 15 15 16 16 17 16 17 17 16 18 18 19 18 17 19 20 18 18 18 19 17 19 19 18 16 22 22 22 21 22 22 22 22 23 23 22 23 23 23 24 24 23 23 25 26 26 26 26 26 27 26 26 26 29 31 30 31 33 32 34 36 37 37 39 40 40 41 42 43 43 43 44 44 46 47 46 47 46 48 47 46 47 46 46 48 0 0 0 0 0
    0 0 0 0 0 0 0 0 0 0 0 0 0 0 0 0 0 0 0 0 0 0 0 0 0 0 0 0 0 0 0 0 0 0 0 0 0 0 0 0 0 0 0 0 0 0 0 0 0 0 0 0 0 0 0 0 0 0 0 0 0 0 0 0 0 0 0 0 0 0 9 9 9 0 0 0 0 0 0 0 0 0 0 0 0 0 0 0 0 0 0 0 0 0 0 0 9 9 9 9 11 11 11 12 12 9 0 0 0 0 0 0 0 0 0 0 0 0 0 0 0 0 10 9 11 0 0 9 9 10 10 0 0 0 0 0 0 0 0 0 0 0 9 9 9 10 11 11 12 13 13 14 15 17 18 16 15 14 14 -193 10 -209 0 0 9 0 0 9 0 0 0 9 0 0 11 17 13 16 13 13 13 14 12 11 9 10 0 9 9 9 0 10 11 10 0 9 0 9 9 10 9 9 10 14 11 12 11 11 12 14 12 12 11 12 11 12 15 13 15 15 15 16 16 15 15 15 16 14 16 17 15 15 17 17 16 16 17 17 16 18 18 18 18 18 19 20 18 17 18 18 16 19 19 19 16 22 22 21 21 22 22 22 22 23 23 23 23 23 24 25 25 24 24 25 26 26 26 26 26 27 26 25 25 29 31 31 31 34 33 35 37 38 38 40 41 40 41 42 42 43 43 43 44 46 46 46 46 46 47 47 46 47 46 46 47 0 0 0 0 0
    0 0 0 0 0 0 0 0 0 0 0 0 0 0 0 0 0 0 0 0 0 0 0 0 0 0 0 0 0 0 0 0 0 0 0 0 0 0 0 0 0 0 0 0 0 0 0 0 0 0 0 0 0 0 0 0 0 0 0 0 0 0 0 0 0 0 0 0 0 9 9 9 9 0 0 0 0 0 0 0 0 0 0 0 0 0 0 0 0 0 0 0 0 0 0 0 9 9 9 9 11 11 11 12 12 9 0 0 0 0 0 0 0 0 0 0 0 0 0 0 0 0 10 10 11 0 0 9 9 10 10 0 0 0 0 0 0 0 0 0 0 9 9 9 10 10 11 11 12 13 13 14 15 16 18 15 13 12 12 -193 9 -209 0 0 9 9 9 9 0 0 0 9 0 0 11 17 13 16 13 13 13 14 12 11 9 10 0 9 10 9 0 10 10 10 0 9 9 9 9 10 9 9 10 13 11 12 11 11 12 14 12 12 11 12 12 12 15 13 16 16 15 17 16 16 16 15 16 14 16 17 15 15 17 16 16 17 17 17 16 18 18 19 18 18 18 20 17 18 19 18 16 19 19 19 16 22 21 21 21 22 22 22 22 22 22 22 23 23 24 24 25 24 24 25 26 26 26 26 26 27 26 25 25 29 31 31 30 34 32 34 36 38 38 40 41 40 41 42 42 43 42 43 43 44 46 46 46 46 47 46 46 46 45 45 46 0 0 0 0 0
    0 0 0 0 0 0 0 0 0 0 0 0 0 0 0 0 0 0 0 0 0 0 0 0 0 0 0 0 0 0 0 0 0 0 0 0 0 0 0 0 0 0 0 0 0 0 0 0 0 0 0 0 0 0 0 0 0 0 0 0 0 0 0 0 0 0 0 0 0 9 9 9 9 9 0 9 0 0 0 0 0 0 0 0 0 0 0 0 0 0 0 0 0 0 0 0 9 9 9 9 12 12 12 12 12 9 0 0 0 0 0 0 0 0 0 0 0 0 0 0 0 0 10 10 11 0 0 9 9 9 10 0 0 0 0 0 0 0 0 0 9 9 9 10 10 10 12 11 13 14 13 14 15 16 17 15 13 12 11 -193 10 -193 0 0 9 9 9 9 0 9 0 9 0 0 11 17 13 16 13 13 13 14 12 11 9 10 0 9 10 9 0 10 11 10 9 9 8 0 9 9 9 9 9 12 10 11 10 11 12 14 12 12 11 12 12 12 14 12 18 16 15 17 16 16 16 16 16 14 16 17 15 15 16 16 16 17 16 16 15 18 18 19 18 18 18 21 18 18 19 19 17 19 19 19 16 21 21 20 20 21 21 21 21 21 22 22 23 23 24 24 25 24 24 25 26 26 26 26 26 27 27 26 26 29 31 30 30 33 30 33 36 39 38 40 41 40 41 42 42 43 42 43 42 44 46 46 46 46 46 46 46 46 45 45 45 0 0 0 0 0
    0 0 0 0 0 0 0 0 0 0 0 0 0 0 0 0 0 0 0 0 0 0 0 0 0 0 0 0 0 0 0 0 0 0 0 0 0 0 0 0 0 0 0 0 0 0 0 0 0 0 0 0 0 0 0 0 0 0 0 0 0 0 0 0 0 0 0 0 0 9 9 9 10 9 9 9 0 0 0 0 0 0 0 0 0 0 0 0 0 0 0 0 0 0 0 0 9 9 9 9 12 12 12 13 13 10 10 0 0 0 0 0 0 0 0 0 0 0 0 0 0 0 10 10 11 9 9 9 9 9 10 0 0 0 0 0 0 0 9 9 9 10 10 10 11 11 12 12 13 14 14 15 17 17 18 15 13 12 11 -193 10 -193 0 0 9 9 9 9 0 0 0 0 9 0 11 16 13 16 13 13 13 14 12 11 9 10 0 9 9 9 0 10 11 10 9 9 0 0 9 9 9 9 9 11 10 11 10 11 11 13 12 12 11 12 11 11 12 11 18 16 15 17 16 16 16 16 16 14 16 18 15 15 17 16 16 17 16 17 15 18 19 19 18 18 18 21 18 19 20 19 18 19 20 20 17 21 21 20 20 21 21 21 20 22 22 22 23 24 24 25 25 25 25 26 26 26 26 27 26 28 27 27 27 29 32 30 30 33 30 34 36 39 39 40 41 41 41 42 42 43 42 43 42 43 46 46 46 47 47 46 46 46 46 45 45 0 0 0 0 0
    0 0 0 0 0 0 0 0 0 0 0 0 0 0 0 0 0 0 0 0 0 0 0 0 0 0 0 0 0 0 0 0 0 0 0 0 0 0 0 0 0 0 0 0 0 0 0 0 0 0 0 0 0 0 0 0 0 0 0 0 0 0 0 0 0 0 0 0 0 9 10 10 10 9 9 9 0 0 0 0 0 0 0 0 0 0 0 0 0 0 0 0 0 0 0 0 9 9 9 9 12 13 13 13 13 10 11 9 0 0 0 0 0 0 0 0 0 0 0 0 0 0 11 10 11 9 9 9 9 10 10 0 0 0 0 0 0 0 9 9 9 10 10 10 11 10 12 12 13 14 13 15 18 17 18 16 13 12 11 -193 10 -193 0 0 9 9 9 9 0 0 0 0 0 0 10 16 13 17 14 13 13 14 12 11 9 10 0 9 9 9 0 10 11 10 9 9 0 0 0 9 9 0 0 11 10 11 10 11 11 13 11 11 10 11 11 11 11 10 19 16 15 17 16 16 16 16 16 14 16 17 15 15 16 16 16 16 16 16 14 18 19 19 19 19 19 22 18 19 20 19 18 19 20 19 17 21 21 20 20 20 21 21 21 22 22 23 23 24 25 25 25 25 25 26 26 26 26 27 27 28 28 28 29 32 35 32 32 33 33 36 37 40 40 41 42 42 42 42 43 43 42 43 42 43 46 47 47 47 47 46 46 46 46 45 45 0 0 0 0 0
    0 0 0 0 0 0 0 0 0 0 0 0 0 0 0 0 0 0 0 0 0 0 0 0 0 0 0 0 0 0 0 0 0 0 0 0 0 0 0 0 0 0 0 0 0 0 0 0 0 0 0 0 0 0 0 0 0 0 0 0 0 0 0 0 0 0 0 0 0 9 10 10 10 9 9 9 0 0 0 0 0 0 0 0 0 0 0 0 0 0 0 0 0 0 0 0 9 9 9 9 12 13 13 13 13 10 11 9 0 0 0 0 0 0 0 0 0 0 0 0 0 0 11 10 11 9 9 10 10 10 10 0 0 0 0 0 0 0 9 9 10 10 10 10 11 10 12 12 13 15 14 17 19 18 19 16 14 12 11 -193 11 -193 0 0 9 9 9 9 0 0 0 0 0 0 10 16 13 17 14 13 14 14 12 11 10 11 0 9 9 0 0 10 12 11 9 9 0 0 0 9 9 0 0 11 10 11 11 11 11 12 11 11 10 11 10 10 10 9 20 16 16 17 16 16 16 16 16 14 16 17 15 15 16 16 16 16 16 16 14 18 19 19 19 20 20 23 19 20 20 19 19 19 19 19 17 21 20 20 19 19 21 21 21 22 22 23 23 25 25 26 25 25 25 25 26 26 26 27 27 29 28 30 32 35 36 34 34 35 35 38 38 39 40 41 42 42 42 42 42 43 42 43 42 44 45 48 46 48 47 46 46 46 46 46 45 0 0 0 0 0
    0 0 0 0 0 0 0 0 0 0 0 0 0 0 0 0 0 0 0 0 0 0 0 0 0 0 0 0 0 0 0 0 0 0 0 0 0 0 0 0 0 0 0 0 0 0 0 0 0 0 0 0 0 0 0 0 0 0 0 0 0 0 0 0 0 0 0 0 0 10 10 10 10 9 9 9 0 0 0 0 0 0 0 0 0 0 0 0 0 0 0 0 0 0 0 0 0 9 9 9 12 12 13 13 13 10 11 0 0 0 0 0 0 0 0 0 0 0 0 0 0 0 11 10 11 10 9 10 10 10 10 0 0 0 0 0 0 0 9 9 10 10 10 10 11 10 12 12 14 16 14 18 20 18 18 15 13 11 11 -193 10 -193 0 0 0 0 0 0 0 0 0 0 0 0 9 16 13 17 14 13 14 14 12 11 10 11 0 9 9 0 0 9 11 10 9 0 0 0 0 8 0 0 0 11 10 11 11 11 11 12 11 11 10 11 10 10 10 9 19 17 15 17 16 15 16 16 16 14 15 18 15 15 17 16 16 16 16 16 14 18 19 18 20 20 19 22 18 19 20 19 18 19 19 19 17 21 20 19 19 19 21 21 20 21 22 23 23 25 25 25 25 26 26 26 26 26 26 27 27 29 29 30 33 36 36 35 35 36 37 39 39 39 40 42 42 43 42 42 42 42 42 43 42 43 45 47 46 48 46 46 47 46 46 46 45 0 0 0 0 0
    0 0 0 0 0 0 0 0 0 0 0 0 0 0 0 0 0 0 0 0 0 0 0 0 0 0 0 0 0 0 0 0 0 0 0 0 0 0 0 0 0 0 0 0 0 0 0 0 0 0 0 0 0 0 0 0 0 0 0 0 0 0 0 0 0 0 0 0 0 10 10 10 10 9 9 9 0 0 0 0 0 0 0 0 0 0 0 0 0 0 0 0 0 0 0 0 0 9 9 9 12 12 13 13 13 10 11 0 0 0 0 0 0 0 0 0 0 0 0 0 0 0 11 10 11 10 9 10 10 10 10 0 0 0 0 0 0 0 9 9 9 10 9 9 10 9 11 11 13 14 13 17 19 16 17 14 12 10 10 10 9 -193 0 0 0 0 0 0 0 0 0 0 0 0 9 17 13 17 14 13 14 14 12 12 10 11 0 9 10 0 0 9 10 10 9 0 0 0 0 9 9 0 0 11 10 11 11 11 12 12 11 11 10 11 11 10 10 9 17 16 14 16 15 15 15 16 16 14 15 18 15 15 16 16 15 16 16 17 13 18 19 18 19 19 19 22 18 19 20 19 18 19 18 19 18 20 19 18 19 19 21 20 19 20 22 22 23 24 24 25 26 27 27 27 27 27 26 27 27 28 29 30 34 36 36 37 37 37 39 40 40 40 41 43 42 43 42 42 42 42 42 42 42 42 43 45 44 47 46 46 47 46 46 46 45 0 0 0 0 0
    0 0 0 0 0 0 0 0 0 0 0 0 0 0 0 0 0 0 0 0 0 0 0 0 0 0 0 0 0 0 0 0 0 0 0 0 0 0 0 0 0 0 0 0 0 0 0 0 0 0 0 0 0 0 0 0 0 0 0 0 0 0 0 0 0 0 0 0 0 9 9 9 9 0 0 0 0 0 0 0 0 0 0 0 0 0 0 0 0 0 0 0 0 0 0 0 0 0 0 0 11 12 12 13 13 10 11 0 0 0 0 0 0 0 0 0 0 0 0 0 0 0 11 10 11 10 9 10 10 10 10 0 0 0 0 0 9 0 9 9 9 10 9 9 9 0 10 9 11 11 11 13 17 15 16 13 12 10 9 9 0 0 0 0 0 0 0 0 0 0 0 0 0 0 9 18 13 17 13 13 14 14 13 12 10 11 0 10 10 0 0 0 10 10 0 0 0 0 9 9 9 0 0 10 10 10 11 11 12 12 11 11 11 12 12 11 11 10 16 15 13 14 14 14 15 15 15 14 14 18 15 15 15 15 15 16 16 17 13 18 19 18 19 20 18 21 18 19 20 19 18 19 18 19 17 19 19 18 18 19 21 20 19 21 22 23 23 25 25 25 27 28 28 27 28 28 27 27 28 28 28 30 34 36 36 37 38 37 39 40 40 40 40 42 42 42 41 42 41 41 41 41 42 42 43 44 43 47 46 45 47 46 46 46 45 0 0 0 0 0
    0 0 0 0 0 0 0 0 0 0 0 0 0 0 0 0 0 0 0 0 0 0 0 0 0 0 0 0 0 0 0 0 0 0 0 0 0 0 0 0 0 0 0 0 0 0 0 0 0 0 0 0 0 0 0 0 0 0 0 0 0 0 0 0 0 0 0 0 0 0 0 0 0 0 0 0 0 0 0 0 0 0 0 0 0 0 0 0 9 9 9 0 0 0 0 0 0 0 0 0 11 12 12 13 13 11 11 0 0 0 0 0 0 0 0 0 0 0 0 0 0 0 11 10 11 10 9 10 10 11 11 0 0 0 9 11 13 11 11 10 10 10 10 9 9 9 10 9 10 10 10 12 16 14 16 13 12 10 10 9 0 0 0 0 0 0 0 0 0 0 0 0 0 0 10 18 13 17 13 13 13 14 12 12 10 11 0 10 10 0 0 0 10 10 9 0 8 9 9 10 10 9 0 10 10 10 10 10 11 11 10 10 11 12 12 11 11 11 15 14 13 13 13 13 15 14 15 13 14 18 15 15 15 15 15 16 16 18 12 18 19 19 19 19 18 21 18 20 20 20 19 20 19 19 18 19 18 18 18 19 21 20 20 21 23 24 24 25 25 25 27 29 29 27 28 27 26 27 28 28 28 30 33 36 36 36 37 36 38 38 39 39 39 41 40 41 40 41 41 41 41 41 41 42 43 44 44 46 45 45 47 46 46 45 45 0 0 0 0 0
    0 0 0 0 0 0 0 0 0 0 0 0 0 0 0 0 0 0 0 0 0 0 0 0 0 0 0 0 0 0 0 0 0 0 0 0 0 0 0 0 0 0 0 0 0 0 0 0 0 0 0 0 0 0 0 0 0 0 0 0 0 0 0 0 0 0 0 0 0 0 0 0 0 0 0 0 0 0 0 0 0 0 0 0 9 0 9 0 9 9 9 0 0 0 0 0 0 0 0 0 11 12 12 13 13 11 12 9 0 0 9 9 9 9 0 0 0 9 0 0 0 0 11 10 11 10 9 10 10 11 11 0 0 0 10 13 15 12 12 11 11 11 10 9 9 9 9 9 9 10 10 11 14 13 14 13 12 10 10 9 9 0 0 0 0 0 0 0 0 0 0 0 0 9 11 18 13 17 13 12 13 13 12 11 9 10 0 9 9 0 0 0 9 9 0 0 0 9 10 10 10 9 9 11 10 10 10 10 10 10 10 10 11 12 12 11 11 11 14 13 12 11 12 12 13 14 15 12 14 18 15 15 15 15 16 15 17 17 12 18 19 19 19 19 18 21 19 20 20 20 20 20 19 18 18 19 18 19 17 19 21 20 20 21 23 24 24 25 25 25 27 29 29 27 28 27 26 27 28 28 29 30 33 35 36 35 37 35 37 37 38 38 38 40 39 39 39 40 40 39 40 40 41 42 42 43 43 45 45 45 46 45 46 45 45 0 0 0 0 0
    0 0 0 0 0 0 0 0 0 0 0 0 0 0 0 0 0 0 0 0 0 0 0 0 0 0 0 0 0 0 0 0 0 0 0 0 0 0 0 0 0 0 0 0 0 0 0 0 0 0 0 0 0 0 0 0 0 0 0 0 0 0 0 0 0 0 0 0 0 0 0 0 0 0 0 0 0 0 0 0 0 0 0 0 9 9 9 9 9 9 9 0 0 0 0 0 0 0 0 0 11 12 12 12 12 10 11 9 0 0 9 0 0 0 0 0 0 9 0 0 0 0 11 10 11 10 9 10 10 11 12 0 0 0 11 13 15 13 13 11 11 11 10 10 9 9 9 9 9 9 10 10 11 10 11 11 10 9 0 0 0 0 0 0 0 0 0 0 0 9 9 9 9 9 12 18 14 17 13 12 13 12 12 11 9 9 0 9 9 0 0 0 9 9 0 0 0 0 9 10 10 9 9 11 10 9 10 10 10 10 9 9 11 12 12 11 11 11 13 13 12 10 11 11 12 13 15 12 13 19 15 15 15 15 16 15 17 17 13 19 19 19 19 19 20 21 20 20 20 20 19 20 19 17 19 19 19 19 18 21 21 20 20 21 23 23 24 24 25 25 27 29 29 27 28 27 26 27 28 29 29 30 32 35 35 35 36 35 36 37 38 38 38 39 39 39 39 39 39 39 39 39 40 41 41 41 42 44 44 44 45 45 45 44 45 0 0 0 0 0
    0 0 0 0 0 0 0 0 0 0 0 0 0 0 0 0 0 0 0 0 0 0 0 0 0 0 0 0 0 0 0 0 0 0 0 0 0 0 0 0 0 0 0 0 0 0 0 0 0 0 0 0 0 0 0 0 0 0 0 0 0 0 0 0 0 0 0 0 0 0 0 0 0 0 0 0 0 0 0 0 0 0 0 0 9 9 10 9 9 10 10 0 0 0 0 0 0 0 0 0 10 11 11 11 11 10 9 0 0 0 0 0 0 0 0 0 0 9 0 0 0 0 11 10 11 10 9 10 10 11 12 9 9 9 11 13 15 13 13 11 10 11 10 10 9 9 0 9 9 9 10 9 10 9 10 9 0 0 0 0 0 0 0 0 0 0 0 0 0 9 9 9 9 10 12 17 13 16 12 12 12 12 12 11 9 9 0 9 9 0 0 0 10 9 0 0 0 9 0 9 9 0 0 10 10 9 9 9 10 10 10 10 11 12 13 12 12 11 13 12 11 10 10 10 12 12 14 11 13 19 15 15 15 15 16 15 17 17 13 19 19 19 19 19 20 21 20 20 20 20 19 20 17 14 17 16 17 17 18 22 22 20 20 21 23 23 23 23 24 24 26 28 28 26 27 26 26 26 28 28 29 29 31 34 35 34 35 34 35 36 37 37 37 38 38 38 39 39 39 38 39 39 40 41 41 41 41 43 43 43 45 44 44 44 44 0 0 0 0 0
    0 0 0 0 0 0 0 0 0 0 0 0 0 0 0 0 0 0 0 0 0 0 0 0 0 0 0 0 0 0 0 0 0 0 0 0 0 0 0 0 0 0 0 0 0 0 0 0 0 0 0 0 0 0 0 0 0 0 0 0 0 0 0 0 0 0 0 0 0 0 0 0 0 0 0 0 0 0 0 0 0 0 0 0 9 9 10 9 10 10 10 0 0 0 0 0 0 0 0 0 10 10 10 11 11 9 9 0 0 0 0 0 0 0 0 0 0 9 0 0 0 0 11 10 11 10 9 10 10 11 11 9 9 9 11 13 13 12 12 11 10 10 9 9 9 9 9 9 10 10 10 10 10 9 9 0 0 0 0 0 0 0 0 0 0 0 0 0 9 9 9 10 10 11 13 17 14 15 12 11 12 12 11 10 0 9 0 9 9 0 0 0 9 0 0 0 9 9 0 9 9 0 0 9 9 0 9 9 10 11 10 10 12 13 13 12 12 12 13 12 11 9 9 10 11 12 14 11 12 19 16 15 16 15 16 15 17 17 13 18 19 18 18 19 21 21 20 20 21 20 20 20 19 14 18 19 20 19 20 23 21 20 20 21 23 22 23 23 23 24 26 27 27 26 26 26 25 26 27 28 29 28 29 31 34 33 34 33 34 34 37 36 36 37 37 37 38 39 39 38 38 38 39 41 41 41 41 42 43 43 44 43 43 43 44 0 0 0 0 0
    0 0 0 0 0 0 0 0 0 0 0 0 0 0 0 0 0 0 0 0 0 0 0 0 0 0 0 0 0 0 0 0 0 0 0 0 0 0 0 0 0 0 0 0 0 0 0 0 0 0 0 0 0 0 0 0 0 0 0 0 0 0 0 0 0 0 0 0 0 0 0 0 0 0 0 0 0 0 0 0 0 0 0 0 10 10 10 9 10 10 9 0 0 0 0 0 0 0 0 0 10 10 10 10 11 9 9 0 0 0 0 0 0 0 0 0 0 9 0 0 0 0 12 10 11 10 9 10 10 10 11 0 0 0 10 12 12 10 11 10 9 10 0 9 9 9 9 9 10 10 11 10 10 9 9 0 0 0 0 0 0 0 0 0 0 0 0 0 9 9 9 11 11 11 14 17 14 15 12 11 11 11 11 10 0 0 0 9 9 9 0 0 9 0 0 0 9 9 9 9 9 0 0 0 0 0 0 0 9 10 10 10 12 13 14 13 13 12 13 13 11 10 10 10 11 12 14 12 12 19 15 16 16 15 16 15 17 18 13 18 17 17 18 18 21 20 20 20 20 20 20 21 19 14 19 20 21 21 22 24 21 19 19 20 22 22 22 22 22 23 26 26 27 25 26 26 26 26 27 28 29 28 28 30 33 32 33 32 32 32 36 36 36 36 36 36 37 38 38 37 38 38 39 40 41 40 41 42 43 43 44 43 43 42 43 0 0 0 0 0
    0 0 0 0 0 0 0 0 0 0 0 0 0 0 0 0 0 0 0 0 0 0 0 0 0 0 0 0 0 0 0 0 0 0 0 0 0 0 0 0 0 0 0 0 0 0 0 0 0 0 0 0 0 0 0 0 0 0 0 0 0 0 0 0 0 0 0 0 0 0 0 0 0 0 0 0 9 9 0 0 0 0 9 0 10 10 11 9 9 10 9 0 0 0 0 0 0 0 0 0 10 11 10 10 11 9 9 0 0 0 0 0 0 0 0 0 0 9 0 9 9 9 12 10 11 10 0 10 10 10 10 0 0 0 10 12 12 10 11 10 9 10 9 9 9 10 10 10 11 11 11 11 10 9 9 0 0 0 0 0 0 0 0 0 0 0 0 9 10 10 10 12 12 12 15 17 14 15 12 11 11 11 11 10 0 9 0 9 9 9 9 0 10 9 0 9 9 9 9 9 9 0 0 0 0 0 0 0 9 10 10 10 12 14 14 13 13 13 13 14 12 10 10 11 11 12 15 12 12 19 15 16 16 16 16 15 17 17 13 18 16 16 17 18 21 20 20 20 20 20 20 20 19 15 19 20 21 21 22 24 20 19 19 20 23 22 22 22 22 23 25 26 26 25 25 25 26 26 27 28 29 28 28 30 33 32 33 32 32 32 35 35 36 36 35 36 37 37 37 36 37 37 38 39 40 40 40 41 42 42 43 42 42 41 42 0 0 0 0 0
    0 0 0 0 0 0 0 0 0 0 0 0 0 0 0 0 0 0 0 0 0 0 0 0 0 0 0 0 0 0 0 0 0 0 0 0 0 0 0 0 0 0 0 0 0 0 0 0 0 0 0 0 0 0 0 0 0 0 0 0 0 0 0 0 0 0 0 0 0 0 0 0 0 0 0 0 9 9 9 0 0 0 9 9 10 10 11 10 10 10 9 0 0 0 0 0 0 0 0 0 11 11 10 11 11 9 10 9 0 0 0 0 0 0 0 0 0 9 0 9 9 9 12 10 11 9 0 10 10 10 10 0 9 0 10 12 12 11 12 11 10 11 10 10 9 10 10 10 11 11 12 11 10 9 9 9 0 0 0 0 0 0 0 0 0 0 9 10 11 11 11 12 12 12 14 16 14 15 12 12 11 11 11 10 9 9 0 10 9 10 9 9 10 9 9 9 9 9 9 9 9 0 0 0 0 0 0 0 0 10 10 10 12 14 15 14 14 13 13 16 12 11 11 11 11 12 15 12 12 19 15 16 16 16 16 15 17 17 13 17 16 16 16 17 20 19 19 19 19 19 19 19 18 13 18 21 23 23 24 24 20 19 19 21 23 22 22 22 22 25 25 26 26 23 25 25 25 25 27 28 29 28 28 30 32 32 32 31 31 31 34 34 34 35 34 35 36 36 37 36 36 36 37 39 39 39 39 39 40 41 41 40 41 41 41 0 0 0 0 0
    0 0 0 0 0 0 0 0 0 0 0 0 0 0 0 0 0 0 0 0 0 0 0 0 0 0 0 0 0 0 0 0 0 0 0 0 0 0 0 0 0 0 0 0 0 0 0 0 0 0 0 0 0 0 0 0 0 0 0 0 0 0 0 0 0 0 0 0 0 0 0 0 0 0 0 0 9 9 9 0 0 9 9 9 10 10 11 9 9 9 0 0 0 0 0 0 9 0 0 9 12 12 11 11 11 9 10 10 0 0 0 0 0 0 0 0 0 9 0 9 9 9 12 10 11 9 9 10 10 10 11 9 9 0 10 11 11 10 11 10 10 11 10 11 10 11 10 10 11 11 11 10 10 9 9 9 0 0 0 0 0 0 0 0 9 10 11 11 11 12 11 12 11 12 14 16 13 15 12 12 11 11 11 10 9 10 0 10 9 10 10 9 11 9 9 9 9 9 9 9 9 0 9 0 0 0 0 0 0 10 10 10 11 15 15 14 14 13 13 18 13 12 11 11 11 12 15 12 11 19 15 16 16 16 16 15 17 17 14 18 16 17 18 17 20 19 18 18 18 18 18 17 17 11 15 25 26 26 25 24 19 19 19 20 23 22 22 21 21 25 25 25 25 23 25 25 26 26 27 29 30 29 28 30 31 31 31 31 30 30 34 33 33 35 33 35 36 36 36 35 35 35 35 38 38 38 38 38 40 40 40 40 40 40 40 0 0 0 0 0
    0 0 0 0 0 0 0 0 0 0 0 0 0 0 0 0 0 0 0 0 0 0 0 0 0 0 0 0 0 0 0 0 0 0 0 0 0 0 0 0 0 0 0 0 0 0 0 0 0 0 0 0 0 0 0 0 0 0 0 0 0 0 0 0 0 0 0 0 0 0 0 0 0 0 0 0 9 9 9 0 0 9 9 9 9 9 10 0 0 0 0 0 0 0 0 0 9 0 0 8 11 11 11 11 11 0 9 9 0 0 0 0 0 0 0 0 0 9 0 9 9 9 12 10 11 10 9 10 10 10 11 0 0 0 0 9 9 9 9 9 9 10 10 11 11 11 10 10 11 10 11 10 10 9 9 9 0 0 0 0 0 0 0 0 9 9 10 11 11 12 10 11 11 11 12 14 12 14 12 12 11 11 12 11 10 11 0 10 10 11 10 9 11 9 9 9 9 9 0 9 9 0 9 0 0 0 0 0 0 10 9 9 11 14 15 14 14 14 12 20 13 13 12 12 12 13 15 13 11 18 15 16 15 16 16 15 18 18 14 18 17 17 18 17 20 19 17 17 17 17 17 16 17 12 14 25 26 26 26 24 18 18 18 19 22 21 21 21 20 25 25 25 25 24 26 26 27 27 27 29 30 29 28 30 30 31 30 30 30 30 34 32 33 35 32 34 36 35 36 34 34 34 33 37 35 36 37 36 38 39 39 39 40 40 40 0 0 0 0 0
    0 0 0 0 0 0 0 0 0 0 0 0 0 0 0 0 0 0 0 0 0 0 0 0 0 0 0 0 0 0 0 0 0 0 0 0 0 0 0 0 0 0 0 0 0 0 0 0 0 0 0 0 0 0 0 0 0 0 0 0 0 0 0 0 0 0 0 0 0 0 0 0 0 0 0 0 0 9 0 0 0 0 9 9 9 9 9 0 0 0 0 0 0 0 0 0 0 0 0 0 11 11 11 11 10 0 0 0 0 0 0 0 0 0 0 0 0 9 0 9 9 9 13 11 11 9 9 10 10 10 10 0 0 0 0 0 0 0 0 0 9 10 10 11 11 11 11 10 11 10 11 10 10 9 0 0 0 0 0 0 0 0 0 0 0 -193 -193 9 10 10 9 10 9 10 10 12 12 13 11 11 11 11 13 12 11 11 9 11 12 13 11 10 11 9 9 9 9 9 0 9 9 0 9 0 0 0 0 0 0 9 9 9 12 14 16 15 15 14 13 20 14 13 14 13 13 14 15 13 11 18 14 15 15 17 16 15 18 18 15 18 17 17 19 18 19 19 17 17 17 17 17 15 16 13 12 25 26 26 26 24 18 18 18 19 22 20 21 21 21 25 26 26 26 25 27 27 27 27 27 29 30 28 28 29 29 30 30 30 30 30 33 31 32 34 31 34 35 34 35 33 34 33 32 35 33 35 35 35 38 38 38 39 39 39 39 0 0 0 0 0
    0 0 0 0 0 0 0 0 0 0 0 0 0 0 0 0 0 0 0 0 0 0 0 0 0 0 0 0 0 0 0 0 0 0 0 0 0 0 0 0 0 0 0 0 0 0 0 0 0 0 0 0 0 0 0 0 0 0 0 0 0 0 0 0 0 0 0 0 0 0 0 0 0 0 0 0 0 0 0 0 0 0 0 9 0 9 10 0 0 0 0 0 0 0 0 0 0 0 0 0 10 11 11 11 10 0 0 0 0 0 0 0 0 0 0 0 0 10 0 10 10 9 15 12 12 10 9 10 10 9 10 0 0 0 0 0 0 0 0 0 10 10 10 11 11 11 11 9 10 10 10 10 10 9 -193 0 0 0 0 0 0 0 0 0 0 -193 -193 -193 -193 -209 0 10 9 9 10 12 11 13 11 11 11 11 13 12 11 11 9 11 12 12 11 9 11 9 9 10 10 9 0 9 9 9 9 0 0 0 0 0 0 10 9 9 13 15 17 15 15 15 14 20 15 14 16 14 14 15 15 14 11 17 15 15 16 16 16 16 18 18 15 18 16 17 19 18 19 19 17 17 17 17 16 15 16 14 12 25 26 25 25 24 18 18 17 19 22 21 21 21 21 26 26 27 27 26 28 28 28 28 28 29 30 27 27 28 28 30 29 30 29 30 33 31 32 33 31 33 34 33 33 32 34 32 32 35 33 35 35 36 38 38 38 38 38 39 38 0 0 0 0 0
    0 0 0 0 0 0 0 0 0 0 0 0 0 0 0 0 0 0 0 0 0 0 0 0 0 0 0 0 0 0 0 0 0 0 0 0 0 0 0 0 0 0 0 0 0 0 0 0 0 0 0 0 0 0 0 0 0 0 0 0 0 0 0 0 0 0 0 0 0 0 0 0 0 0 0 0 0 0 0 0 0 0 0 0 9 9 10 9 8 0 0 0 0 0 0 0 0 0 0 0 11 12 11 11 11 0 0 0 0 0 0 0 0 0 0 0 0 10 9 10 10 10 16 12 12 10 9 10 9 9 10 0 0 0 0 0 0 0 0 0 10 10 10 11 11 11 11 -193 -193 9 10 -177 -177 9 -193 0 0 0 0 0 0 0 0 0 -193 -193 255 255 255 -193 -209 9 9 9 10 13 12 14 11 12 12 12 13 12 10 11 0 10 11 11 11 0 11 10 10 10 10 10 9 10 9 9 9 0 0 0 0 0 0 10 9 9 13 15 17 15 15 15 14 20 16 14 16 14 15 16 16 15 11 16 15 15 15 17 16 16 18 18 15 17 15 19 19 17 18 19 16 17 17 17 16 14 16 15 11 24 26 24 25 23 18 18 18 19 22 21 22 22 22 26 27 28 29 26 29 29 29 28 28 29 29 27 27 27 28 29 28 29 29 29 32 30 32 33 31 33 33 32 32 30 32 30 30 34 33 36 36 37 38 38 38 38 38 38 38 0 0 0 0 0
    0 0 0 0 0 0 0 0 0 0 0 0 0 0 0 0 0 0 0 0 0 0 0 0 0 0 0 0 0 0 0 0 0 0 0 0 0 0 0 0 0 0 0 0 0 0 0 0 0 0 0 0 0 0 0 0 0 0 0 0 0 0 0 0 0 0 0 0 0 9 9 9 9 0 0 0 0 0 0 0 0 0 0 0 9 10 10 9 9 9 0 0 0 0 0 0 0 0 0 0 11 12 11 12 11 0 0 0 0 0 0 0 0 0 0 0 9 11 10 10 10 10 15 12 12 10 9 10 9 9 10 0 0 0 0 0 0 0 9 -193 10 11 11 11 11 11 11 -193 -193 -193 -209 -193 -193 -193 -193 -193 0 0 0 0 0 -193 -193 -209 -193 255 255 256 256 -193 -193 -209 -209 -209 -193 12 12 14 11 12 12 12 13 11 10 10 0 10 10 10 10 0 10 10 10 10 10 10 9 10 10 9 9 0 0 0 0 0 0 9 9 9 13 14 17 14 15 15 14 20 16 15 17 14 15 16 16 15 11 17 15 15 15 17 16 16 17 18 15 17 15 20 19 17 17 19 16 17 16 16 15 14 16 16 11 24 24 23 24 23 18 17 17 19 23 21 22 22 23 27 28 29 29 27 29 29 29 28 27 29 29 27 26 27 27 28 28 28 28 28 31 30 31 32 30 33 33 32 31 30 31 29 30 34 34 36 37 37 38 38 38 38 38 39 39 0 0 0 0 0
    0 0 0 0 0 0 0 0 0 0 0 0 0 0 0 0 0 0 0 0 0 0 0 0 0 0 0 0 0 0 0 0 0 0 0 0 0 0 0 0 0 0 0 0 0 0 0 0 0 0 0 0 0 0 0 0 0 0 0 0 0 0 0 0 0 0 0 0 0 9 10 9 9 9 0 0 0 0 0 0 0 0 0 0 9 10 11 10 9 9 9 0 0 0 0 0 0 0 0 0 11 12 11 12 11 0 0 0 0 0 0 0 0 0 0 0 0 11 9 10 9 9 14 12 12 10 9 10 9 10 10 0 0 0 0 0 0 0 9 -193 10 10 10 11 11 11 -177 -193 -177 -193 -209 -209 -193 132 128 -193 -209 -193 -193 0 -193 -193 -193 -193 -193 -193 -193 256 256 -193 -193 -193 -193 -193 -193 12 11 14 11 12 12 12 13 11 -193 10 0 10 10 10 10 0 9 10 10 10 10 10 9 10 10 9 10 0 0 0 0 0 0 9 9 9 13 13 16 14 14 15 14 19 16 14 16 13 15 16 16 15 12 17 15 15 15 17 16 16 16 17 14 17 17 21 19 17 18 20 17 17 17 16 15 15 17 16 11 23 23 22 23 23 17 17 17 19 22 21 22 22 23 27 29 30 30 27 30 29 28 28 27 29 29 27 26 26 27 28 27 28 27 28 30 29 31 32 30 32 33 31 31 31 32 30 31 35 34 36 36 37 37 37 38 38 38 38 39 0 0 0 0 0
    0 0 0 0 0 0 0 0 0 0 0 0 0 0 0 0 0 0 0 0 0 0 0 0 0 0 0 0 0 0 0 0 0 0 0 0 0 0 0 0 0 0 0 0 0 0 0 0 0 0 0 0 0 0 0 0 0 0 0 0 0 0 0 0 0 0 0 0 0 9 9 0 0 0 0 0 0 0 0 0 0 0 0 0 10 10 11 10 10 10 10 9 0 0 0 0 0 0 0 0 11 11 11 11 10 0 0 0 0 0 0 0 0 0 0 0 0 10 9 9 9 9 14 12 12 10 10 10 10 10 11 0 0 0 0 0 0 0 0 -193 -193 -193 -193 10 10 -177 -193 -193 -193 -193 -193 -193 129 132 128 -193 -193 -209 -193 0 -193 -193 -193 -193 -193 -193 -193 256 256 -193 127 -193 -193 -193 -193 12 11 14 11 12 12 12 13 12 -193 -193 0 10 10 10 10 0 10 10 11 10 11 10 9 10 10 10 10 10 0 0 9 0 0 9 9 9 13 13 16 13 14 15 14 19 16 14 16 13 15 16 15 16 12 17 15 14 15 17 16 16 16 17 14 17 18 21 19 17 18 20 17 17 16 16 15 15 17 16 11 23 23 22 23 23 18 17 18 19 22 21 22 22 23 27 29 29 29 27 29 29 29 27 27 29 29 27 26 26 27 27 27 27 27 27 30 29 31 32 30 32 33 31 31 32 34 31 32 36 36 36 37 37 37 37 38 38 38 38 39 0 0 0 0 0
    0 0 0 0 0 0 0 0 0 0 0 0 0 0 0 0 0 0 0 0 0 0 0 0 0 0 0 0 0 0 0 0 0 0 0 0 0 0 0 0 0 0 0 0 0 0 0 0 0 0 0 0 0 0 0 0 0 0 0 0 0 0 0 0 0 0 0 0 0 9 9 0 0 0 0 0 0 0 0 0 0 0 0 0 10 10 11 10 10 10 10 9 9 0 0 0 0 0 0 0 10 11 10 10 9 0 0 0 0 0 0 0 0 0 0 0 0 10 9 9 9 0 14 11 12 10 9 10 9 10 11 0 0 0 0 0 0 0 0 -193 -193 -193 -193 10 10 -177 -193 -193 -193 -193 -193 -193 129 132 128 -193 -193 -209 -193 0 0 -193 -193 -193 -193 -193 255 256 256 -193 -193 -193 -193 -193 -193 12 11 14 11 12 12 12 13 12 -193 -193 0 10 10 11 10 0 10 11 11 11 11 11 9 10 9 9 10 10 0 0 9 0 0 9 9 9 12 12 15 13 14 15 14 18 15 14 16 13 15 16 15 16 12 17 15 15 16 17 16 16 16 18 13 18 19 21 19 17 18 21 17 17 17 17 15 15 18 17 11 23 24 23 23 23 19 17 18 19 22 21 21 21 22 26 28 29 29 27 29 29 29 28 27 29 29 27 26 26 26 27 26 27 27 27 29 29 31 32 30 32 32 31 31 32 35 31 32 36 36 36 37 37 36 37 38 38 38 38 40 0 0 0 0 0
    0 0 0 0 0 0 0 0 0 0 0 0 0 0 0 0 0 0 0 0 0 0 0 0 0 0 0 0 0 0 0 0 0 0 0 0 0 0 0 0 0 0 0 0 0 0 0 0 0 0 0 0 0 0 0 0 0 0 0 0 0 0 0 0 0 0 0 0 0 9 9 9 0 0 0 0 0 0 0 0 0 0 0 0 11 11 12 11 10 10 10 9 9 0 0 0 0 0 0 0 9 10 9 9 9 0 0 0 0 0 0 0 0 0 0 0 0 9 0 9 9 9 12 11 11 10 9 9 0 0 9 0 0 0 0 0 0 0 0 -193 -193 9 -193 10 10 -177 -177 -193 -193 -193 -209 -209 129 132 128 -193 -193 -193 -193 0 0 -193 -193 -193 -193 -193 255 256 256 -193 -193 -193 -193 -193 -193 -193 11 13 11 11 11 11 13 -193 -193 -193 0 10 10 10 10 9 11 11 12 11 12 11 10 9 9 9 9 9 0 0 9 0 0 9 9 9 12 12 15 12 13 14 14 17 15 13 15 12 15 16 16 17 13 18 15 15 16 17 16 16 15 17 12 16 19 21 18 17 18 21 17 17 17 17 15 16 18 18 11 23 24 23 23 23 19 18 18 19 22 20 21 21 21 25 27 28 28 27 29 29 29 28 28 28 28 26 25 25 25 26 26 26 26 26 29 28 30 31 30 32 32 31 31 32 35 31 33 36 36 36 37 36 36 37 39 38 39 38 40 0 0 0 0 0
    0 0 0 0 0 0 0 0 0 0 0 0 0 0 0 0 0 0 0 0 0 0 0 0 0 0 0 0 0 0 0 0 0 0 0 0 0 0 0 0 0 0 0 0 0 0 0 0 0 0 0 0 0 0 0 0 0 0 0 0 0 0 0 0 0 0 0 0 0 9 9 0 0 0 0 0 0 0 0 0 0 0 0 0 11 11 12 11 11 10 11 10 10 0 0 0 0 0 0 0 9 10 9 9 9 0 0 0 0 0 0 0 0 0 0 0 0 0 0 9 0 0 11 10 10 9 0 0 -177 0 0 0 0 0 0 0 0 0 0 0 9 9 9 9 9 9 9 -193 -193 -193 -193 -193 -193 -193 -193 -193 -193 -193 -177 0 0 -193 -193 -193 -193 255 255 256 256 256 -193 254 253 -193 251 -193 11 14 11 -193 -193 -193 -193 -193 895 -193 0 10 10 10 10 9 11 12 13 12 13 12 11 10 10 9 9 10 0 0 9 0 9 9 9 9 11 12 14 12 13 13 13 17 14 13 15 12 14 16 16 18 14 18 16 15 16 16 15 16 14 17 11 14 19 21 18 17 17 21 17 17 17 16 15 17 18 18 11 23 24 23 23 23 20 18 18 19 22 20 20 20 20 24 25 26 26 26 28 28 28 27 27 28 28 26 25 25 25 26 26 25 25 26 28 28 29 30 29 31 31 30 31 32 34 31 33 36 37 36 37 36 37 37 39 39 39 39 40 0 0 0 0 0
    0 0 0 0 0 0 0 0 0 0 0 0 0 0 0 0 0 0 0 0 0 0 0 0 0 0 0 0 0 0 0 0 0 0 0 0 0 0 0 0 0 0 0 0 0 0 0 0 0 0 0 0 0 0 0 0 0 0 0 0 0 0 0 0 0 0 0 0 0 10 9 9 9 0 0 0 0 0 0 0 0 0 0 0 11 11 13 12 11 11 10 10 10 0 0 0 0 0 0 0 9 10 9 9 9 0 0 0 0 0 0 0 0 0 0 0 0 0 0 0 0 0 10 9 9 0 0 0 -177 0 0 0 0 0 0 0 0 0 0 0 0 0 0 0 0 0 0 0 0 0 -177 -177 -193 -193 -193 -193 -177 0 -177 0 0 -193 -193 -193 -193 -193 255 256 256 256 -193 253 254 -193 251 -193 12 15 11 -193 -193 -193 -193 -193 895 -193 0 10 10 10 10 9 11 11 13 12 13 12 11 11 10 10 9 11 0 0 10 9 9 9 9 9 10 11 13 11 12 12 13 15 14 13 14 12 14 16 16 18 14 19 16 15 16 16 15 16 13 17 11 13 19 21 17 17 17 21 16 17 17 16 15 18 18 18 11 23 24 23 23 23 20 18 18 19 21 20 20 20 19 22 24 25 25 25 27 28 27 27 27 28 27 26 26 26 26 26 26 25 25 26 28 27 28 29 28 30 30 30 30 32 34 31 34 36 37 36 37 36 37 38 40 40 40 40 41 0 0 0 0 0
    0 0 0 0 0 0 0 0 0 0 0 0 0 0 0 0 0 0 0 0 0 0 0 0 0 0 0 0 0 0 0 0 0 0 0 0 0 0 0 0 0 0 0 0 0 0 0 0 0 0 0 0 0 0 0 0 0 0 0 0 0 0 0 0 0 0 0 0 0 -193 -193 9 9 0 0 0 0 0 0 0 0 0 0 0 11 12 13 12 11 11 11 10 10 0 0 0 0 0 0 0 9 10 10 10 9 0 0 0 0 0 0 0 0 0 0 0 0 0 0 0 0 0 9 9 9 0 0 0 0 0 0 0 0 0 0 0 0 0 0 0 0 0 0 0 0 0 0 0 0 0 0 0 0 8 0 0 0 9 0 0 0 10 9 10 10 9 9 -193 -193 -193 0 -193 -193 -193 -193 13 12 15 11 11 -193 -193 -193 -193 -193 -193 0 10 10 10 10 9 11 11 13 12 12 12 11 11 10 10 10 11 0 0 9 0 9 9 9 9 9 11 12 11 11 11 12 14 13 13 13 11 13 16 16 18 14 19 15 16 16 16 16 16 14 18 11 21 23 22 16 15 15 20 16 16 16 15 15 18 18 18 12 23 24 23 23 23 20 18 18 19 21 19 19 19 18 22 24 25 25 25 26 27 27 27 27 27 27 27 26 26 26 27 26 25 26 26 27 27 28 28 28 29 30 29 30 33 34 31 34 35 36 35 36 36 37 38 40 40 41 41 42 0 0 0 0 0
    0 0 0 0 0 0 0 0 0 0 0 0 0 0 0 0 0 0 0 0 0 0 0 0 0 0 0 0 0 0 0 0 0 0 0 0 0 0 0 0 0 0 0 0 0 0 0 0 0 0 0 0 0 0 0 0 0 0 0 0 0 0 0 0 0 0 0 0 0 -193 10 9 9 9 9 0 0 0 0 0 0 0 0 0 11 12 12 12 11 11 11 10 9 0 0 0 0 0 0 0 9 10 10 10 10 0 0 0 0 0 0 0 0 0 0 0 0 0 0 0 0 0 0 0 0 0 0 0 0 0 0 0 0 0 0 0 0 0 0 0 0 0 0 0 0 0 0 0 0 0 0 0 0 0 0 0 0 9 0 0 0 10 9 10 10 9 8 9 0 9 0 0 0 0 0 15 12 16 11 11 -193 -193 -193 -193 -193 -193 0 10 11 11 11 10 11 11 13 12 12 12 11 11 10 10 10 12 0 0 9 0 9 9 9 9 0 11 12 10 11 10 11 12 13 13 12 12 13 16 18 18 15 19 15 16 17 17 17 17 16 19 12 24 23 22 17 15 15 20 15 16 16 15 15 18 18 18 12 23 24 23 23 23 20 18 18 18 20 18 19 19 17 20 23 24 24 24 26 27 27 27 27 28 28 28 27 27 27 28 27 26 27 26 27 27 28 28 27 29 30 29 31 33 34 30 33 34 34 34 35 35 37 38 41 41 41 41 42 0 0 0 0 0
    0 0 0 0 0 0 0 0 0 0 0 0 0 0 0 0 0 0 0 0 0 0 0 0 0 0 0 0 0 0 0 0 0 0 0 0 0 0 0 0 0 0 0 0 0 0 0 0 0 0 0 0 0 0 0 0 0 0 0 0 0 0 0 0 0 0 0 0 0 10 10 9 9 9 9 0 0 0 0 0 0 0 0 0 11 12 12 11 11 10 10 9 0 0 0 0 0 0 0 0 9 10 10 10 10 0 0 0 0 0 0 0 0 0 0 0 0 0 0 0 0 0 0 0 0 0 0 0 0 0 0 0 0 0 0 0 0 0 0 0 0 0 0 0 0 0 0 0 0 0 0 0 0 0 0 0 0 0 0 0 0 10 10 10 10 10 9 9 9 9 0 0 0 0 0 -177 12 16 10 10 -193 -193 -193 -193 -193 10 0 11 12 12 13 12 12 12 13 13 12 12 11 11 10 10 10 13 0 0 0 0 9 9 9 9 0 11 11 10 10 9 10 10 11 11 10 10 13 15 18 18 15 19 16 16 17 17 17 17 16 19 12 24 23 21 16 14 14 20 15 15 15 15 15 18 18 18 12 23 24 23 23 22 20 18 18 18 20 18 18 18 16 19 22 23 23 23 26 28 27 28 28 28 29 28 27 28 27 29 27 26 27 26 27 27 28 27 26 28 28 27 30 33 32 30 31 32 33 32 34 34 36 38 40 41 41 41 42 0 0 0 0 0
    0 0 0 0 0 0 0 0 0 0 0 0 0 0 0 0 0 0 0 0 0 0 0 0 0 0 0 0 0 0 0 0 0 0 0 0 0 0 0 0 0 0 0 0 0 0 0 0 0 0 0 0 0 0 0 0 0 0 0 0 0 0 0 0 0 0 0 0 0 10 10 9 9 9 9 0 0 0 0 0 0 0 0 0 8 11 10 10 10 9 9 0 0 0 0 0 0 0 0 0 0 9 10 10 10 0 0 0 0 0 0 0 0 0 0 0 0 0 0 0 0 9 0 0 0 0 0 0 0 0 0 0 0 0 0 0 0 0 0 0 0 0 0 0 0 0 0 0 0 0 0 0 0 0 0 0 0 0 0 0 0 10 10 10 11 10 9 10 9 9 0 0 0 0 0 -177 13 16 10 10 11 -193 -193 10 -193 9 0 11 13 12 13 12 12 12 13 13 12 12 11 10 10 10 10 12 0 0 0 0 10 9 9 9 0 11 11 11 10 9 10 11 12 12 10 11 14 16 19 19 16 20 16 16 17 16 17 16 15 19 12 22 23 21 15 14 14 20 15 15 15 15 15 17 17 18 11 22 23 22 22 22 20 18 17 18 20 17 18 18 16 19 22 23 23 23 27 29 28 29 29 29 29 29 28 28 28 29 27 26 27 25 26 26 27 26 26 27 27 26 29 30 30 29 29 31 33 33 34 34 36 39 41 41 41 41 42 0 0 0 0 0
    0 0 0 0 0 0 0 0 0 0 0 0 0 0 0 0 0 0 0 0 0 0 0 0 0 0 0 0 0 0 0 0 0 0 0 0 0 0 0 0 0 0 0 0 0 0 0 0 0 0 0 0 0 0 0 0 0 0 0 0 0 0 0 0 0 0 0 0 0 10 11 10 10 9 9 0 0 0 0 0 0 0 0 0 0 9 9 9 9 9 0 0 0 0 0 0 0 0 0 0 0 9 10 10 10 9 9 0 0 0 0 0 0 0 0 0 0 0 0 0 0 9 0 0 0 0 0 0 0 0 0 0 0 0 0 0 0 0 0 0 0 0 0 0 0 0 0 0 0 0 0 0 0 0 0 0 0 0 0 0 0 10 10 10 10 10 -193 9 9 9 0 0 0 0 0 16 12 15 9 9 10 -193 -193 10 0 0 0 11 12 11 13 11 12 12 12 12 11 11 10 9 9 9 9 12 0 0 0 0 10 9 9 9 0 12 11 11 10 0 9 13 12 12 10 11 14 17 19 19 16 20 17 16 17 16 16 16 15 18 11 21 23 21 16 14 14 20 14 15 15 15 14 17 17 18 11 21 22 21 21 21 20 18 17 17 19 17 17 17 16 19 22 23 23 23 27 31 29 30 29 29 30 29 28 29 29 29 27 26 27 24 25 25 26 25 25 26 26 26 27 28 28 28 28 29 31 32 32 33 -193 40 41 41 41 41 42 0 0 0 0 0
    0 0 0 0 0 0 0 0 0 0 0 0 0 0 0 0 0 0 0 0 0 0 0 0 0 0 0 0 0 0 0 0 0 0 0 0 0 0 0 0 0 0 0 0 0 0 0 0 0 0 0 0 0 0 0 0 0 0 0 0 0 0 0 0 0 0 0 0 0 10 11 10 9 9 9 0 0 9 0 0 0 0 0 0 0 9 9 9 9 9 0 0 0 0 0 0 0 0 0 0 0 9 11 10 11 10 11 10 9 0 0 0 0 0 0 0 0 0 0 0 9 9 0 0 0 0 0 0 0 0 0 0 0 0 0 0 0 0 0 0 0 0 0 0 0 0 0 0 0 0 0 0 0 0 0 0 0 0 0 0 0 11 10 10 10 -193 -193 9 9 0 0 0 0 0 0 16 12 14 9 9 10 -193 -193 10 0 0 0 11 12 11 12 11 11 11 12 11 10 10 10 9 9 9 0 12 0 0 0 0 11 9 9 9 0 12 12 11 10 0 10 14 12 11 10 11 14 16 18 18 15 20 17 16 17 15 16 15 14 18 11 20 24 22 16 14 14 20 14 15 15 15 14 17 17 17 11 20 20 20 20 21 19 17 16 17 19 16 17 16 15 18 22 23 22 21 27 31 29 30 29 28 30 29 28 29 29 29 26 26 26 24 25 25 25 25 25 26 26 25 27 28 27 27 27 29 30 31 31 33 37 39 40 41 41 41 42 0 0 0 0 0
    0 0 0 0 0 0 0 0 0 0 0 0 0 0 0 0 0 0 0 0 0 0 0 0 0 0 0 0 0 0 0 0 0 0 0 0 0 0 0 0 0 0 0 0 0 0 0 0 0 0 0 0 0 0 0 0 0 0 0 0 0 0 0 0 0 0 0 0 0 10 11 9 9 9 9 0 9 9 0 0 0 0 0 0 0 0 0 0 0 0 0 0 0 0 0 0 0 0 0 0 0 9 11 10 11 11 13 10 9 0 0 0 0 0 0 0 0 0 0 0 9 9 0 0 0 0 0 0 0 0 0 0 0 0 0 0 0 0 0 0 0 0 0 0 0 0 0 0 0 0 0 0 0 0 0 0 0 0 0 0 0 11 -193 -193 10 -193 -193 -193 -193 -193 0 0 0 0 0 -177 13 14 0 9 10 -193 -193 10 0 0 0 11 12 11 12 11 11 11 11 10 9 9 0 0 0 0 0 12 0 0 0 0 11 9 9 9 0 11 11 11 10 9 10 13 11 11 10 10 12 15 17 16 14 19 16 15 16 15 16 15 16 19 11 21 25 23 17 14 14 20 15 15 15 15 14 17 17 17 10 19 19 19 19 20 18 16 15 16 19 16 16 16 15 17 21 22 21 16 26 29 28 29 28 28 30 30 29 29 30 29 26 26 26 24 24 24 25 25 25 26 25 25 27 28 27 27 27 29 30 31 31 33 -193 38 40 41 40 41 42 0 0 0 0 0
    0 0 0 0 0 0 0 0 0 0 0 0 0 0 0 0 0 0 0 0 0 0 0 0 0 0 0 0 0 0 0 0 0 0 0 0 0 0 0 0 0 0 0 0 0 0 0 0 0 0 0 0 0 0 0 0 0 0 0 0 0 0 0 0 0 0 0 0 0 10 11 9 10 10 10 0 9 9 9 0 0 0 0 0 0 0 0 0 0 0 0 0 0 0 0 0 0 0 0 0 0 9 10 9 11 11 14 11 9 0 0 0 0 0 0 0 0 0 0 0 9 9 0 0 0 0 0 0 0 0 0 0 0 0 0 0 0 0 0 0 0 0 0 0 0 0 0 0 0 0 0 0 0 -193 0 0 0 0 0 0 0 12 -193 -193 -193 -193 -177 -193 -193 -193 0 0 0 0 0 16 13 14 0 0 9 -193 -193 9 0 0 0 11 12 11 12 10 11 11 11 10 9 9 0 0 0 0 9 12 0 0 0 0 11 9 9 9 0 10 11 11 11 9 11 13 10 10 10 9 11 13 16 14 12 18 16 15 16 15 16 15 17 19 12 22 25 24 18 14 15 20 15 15 15 15 14 17 17 17 11 19 18 18 19 19 18 16 15 16 19 15 16 15 14 16 21 22 21 12 26 29 27 29 28 28 30 30 30 30 31 28 25 25 26 23 23 24 25 24 25 25 25 25 27 28 27 27 27 28 30 31 30 32 -193 37 39 40 40 40 42 0 0 0 0 0
    0 0 0 0 0 0 0 0 0 0 0 0 0 0 0 0 0 0 0 0 0 0 0 0 0 0 0 0 0 0 0 0 0 0 0 0 0 0 0 0 0 0 0 0 0 0 0 0 0 0 0 0 0 0 0 0 0 0 0 0 0 0 0 0 0 0 0 0 0 10 12 10 10 10 10 0 10 10 10 0 0 0 0 0 0 0 0 0 0 0 0 0 0 0 0 0 0 0 0 0 0 9 10 9 11 11 14 11 10 0 0 0 0 0 0 0 0 0 0 0 0 9 0 0 0 0 0 0 0 0 0 0 0 0 0 0 0 0 0 0 0 0 0 0 0 0 0 0 0 0 0 0 0 10 0 0 0 9 0 0 0 14 10 10 10 -193 -193 -193 10 9 0 0 0 0 0 16 13 14 0 0 -193 0 -193 9 0 0 0 11 12 11 12 10 11 11 11 10 9 9 0 0 0 0 0 10 0 0 0 0 11 9 9 9 9 10 12 11 11 10 11 15 11 10 11 10 12 -193 16 14 12 18 16 15 16 15 16 14 19 19 12 23 26 24 19 15 15 20 15 15 16 15 14 17 17 17 11 18 18 18 19 19 18 15 15 15 19 16 16 15 14 15 20 21 20 11 26 29 28 29 28 27 29 29 29 29 30 27 25 25 26 23 23 24 24 -193 -193 25 25 25 27 28 27 27 26 28 29 30 29 31 -193 36 37 39 39 39 41 0 0 0 0 0
    0 0 0 0 0 0 0 0 0 0 0 0 0 0 0 0 0 0 0 0 0 0 0 0 0 0 0 0 0 0 0 0 0 0 0 0 0 0 0 0 0 0 0 0 0 0 0 0 0 0 0 0 0 0 0 0 0 0 0 0 0 0 0 0 0 0 0 0 0 11 12 11 11 11 11 0 11 12 11 0 9 9 0 0 0 0 0 0 0 0 0 0 0 0 0 0 0 0 0 0 0 0 10 9 10 11 14 12 10 0 0 0 0 0 0 0 0 0 0 0 0 0 0 0 0 0 0 0 0 0 0 0 0 0 0 0 0 0 9 0 0 0 0 0 0 0 0 0 0 0 0 0 0 12 -193 -193 -193 10 0 0 0 15 10 11 11 -193 -193 10 10 10 0 0 0 0 0 16 13 14 0 0 -193 0 -193 9 0 0 0 11 12 11 11 10 11 10 11 10 9 9 0 0 0 0 0 0 0 0 0 0 10 0 0 0 9 9 12 11 11 10 11 15 12 11 12 -193 -193 947 -193 15 12 19 17 15 15 14 15 14 17 18 11 21 24 23 19 15 16 20 15 16 16 15 14 18 17 18 11 19 19 19 19 19 18 15 15 16 19 15 16 15 14 15 19 20 19 11 25 27 27 28 27 25 27 28 28 27 29 25 24 24 25 22 22 23 -193 -177 -193 25 25 25 27 28 27 26 26 28 29 30 29 30 30 33 35 36 37 37 40 0 0 0 0 0
    0 0 0 0 0 0 0 0 0 0 0 0 0 0 0 0 0 0 0 0 0 0 0 0 0 0 0 0 0 0 0 0 0 0 0 0 0 0 0 0 0 0 0 0 0 0 0 0 0 0 0 0 0 0 0 0 0 0 0 0 0 0 0 0 0 0 0 0 0 11 12 10 11 11 11 0 10 11 10 0 9 9 0 0 0 0 0 0 0 0 0 0 0 0 0 0 0 0 0 0 0 0 9 0 10 10 13 11 10 0 0 0 0 0 0 0 0 0 0 0 0 0 0 0 0 0 0 0 0 0 0 0 0 0 0 0 0 0 9 0 0 0 0 0 0 0 0 0 0 0 0 0 0 13 -193 -193 -193 11 0 0 0 15 11 11 11 -177 -193 11 10 10 0 0 0 0 0 15 13 14 0 0 9 0 -193 0 0 0 0 10 11 10 10 10 10 10 10 9 9 10 9 0 0 0 0 0 0 0 0 0 10 0 0 0 0 9 11 11 10 10 11 15 12 11 -193 942 945 947 -193 16 12 21 18 15 14 12 13 13 16 17 10 19 24 23 19 16 16 20 15 16 16 16 15 19 19 19 12 23 22 22 21 21 19 16 15 16 19 15 16 15 15 15 19 20 18 11 25 26 26 27 26 22 25 26 26 26 29 23 23 23 24 22 22 23 -193 -193 23 24 24 -193 26 28 27 26 26 28 29 30 29 30 30 32 34 35 36 36 39 0 0 0 0 0
    0 0 0 0 0 0 0 0 0 0 0 0 0 0 0 0 0 0 0 0 0 0 0 0 0 0 0 0 0 0 0 0 0 0 0 0 0 0 0 0 0 0 0 0 0 0 0 0 0 0 0 0 0 0 0 0 0 0 0 0 0 0 0 0 0 0 0 0 0 12 12 10 11 11 11 0 10 11 9 0 10 10 9 9 0 0 0 0 0 0 0 0 0 0 0 0 0 0 0 0 -193 0 0 0 10 10 13 11 9 0 0 0 0 0 0 0 0 0 0 0 0 0 0 0 0 0 0 0 0 0 0 0 0 0 0 0 0 0 10 0 0 0 0 0 0 0 0 0 0 0 0 0 0 14 -193 12 14 11 9 9 10 14 11 11 11 11 11 11 11 10 0 0 0 0 -193 14 12 13 0 0 0 0 -193 0 0 0 0 10 10 9 10 9 10 9 10 -193 9 9 9 0 0 0 0 0 0 0 0 0 10 0 0 0 -193 0 11 10 10 9 11 15 12 11 14 -193 -193 -193 -193 16 13 21 17 14 13 12 14 13 16 18 11 20 24 23 19 16 16 20 16 16 17 17 17 21 21 21 15 25 25 25 23 23 19 16 15 16 20 16 16 16 15 16 20 21 19 11 25 26 26 -193 -193 21 22 26 26 25 29 23 23 23 24 22 22 23 -193 -193 24 25 25 -193 27 28 27 27 26 28 30 30 29 30 31 33 35 36 37 36 39 0 0 0 0 0
    0 0 0 0 0 0 0 0 0 0 0 0 0 0 0 0 0 0 0 0 0 0 0 0 0 0 0 0 0 0 0 0 0 0 0 0 0 0 0 0 0 0 0 0 0 0 0 0 0 0 0 0 0 0 0 0 0 0 0 0 0 0 0 0 0 0 0 0 0 13 12 11 11 11 11 9 11 12 10 10 12 12 10 10 0 0 0 0 0 0 0 0 0 0 0 0 0 0 0 0 -193 0 0 0 10 11 13 11 9 0 0 0 0 0 0 0 0 0 0 0 0 0 0 0 0 0 0 0 0 0 0 0 0 0 0 0 0 0 10 0 0 0 9 0 0 9 0 0 0 0 0 0 0 12 -193 12 14 11 9 9 10 13 11 11 11 11 11 11 11 10 9 -193 -193 -193 -193 14 12 13 0 0 0 0 0 0 0 0 0 10 10 0 9 9 9 9 9 -193 9 9 9 9 0 0 0 0 0 0 0 9 10 0 0 0 -193 0 11 10 10 9 11 15 12 12 15 15 20 -193 -193 17 13 21 17 15 13 13 15 14 19 19 12 23 25 24 20 17 17 20 16 16 18 18 19 23 22 22 19 26 28 28 25 26 20 16 15 17 20 -193 -193 -193 -193 -193 22 22 20 12 25 26 -193 -193 16 19 21 26 25 25 29 23 23 23 25 22 22 -193 -193 -193 25 26 26 26 28 30 29 29 28 31 33 30 28 29 32 34 36 37 38 37 39 0 0 0 0 0
    0 0 0 0 0 0 0 0 0 0 0 0 0 0 0 0 0 0 0 0 0 0 0 0 0 0 0 0 0 0 0 0 0 0 0 0 0 0 0 0 0 0 0 0 0 0 0 0 0 0 0 0 0 0 0 0 0 0 0 0 0 0 0 0 0 0 0 0 0 -193 -193 -193 12 12 12 9 12 13 11 11 14 13 11 11 0 0 0 0 0 0 0 0 0 0 0 0 0 0 0 0 -193 0 9 0 11 11 14 11 10 0 0 0 0 0 0 0 0 0 0 0 0 0 0 0 0 0 0 0 0 0 0 0 0 0 0 0 0 0 11 0 0 9 9 9 9 9 9 0 0 0 0 0 0 10 0 10 13 11 9 10 10 13 11 11 11 11 11 11 11 10 9 -193 10 10 10 14 13 13 0 0 0 0 0 0 0 0 0 9 10 0 0 9 9 9 9 -193 9 10 9 10 9 0 8 8 0 0 0 9 10 0 0 0 -193 0 11 10 10 9 11 16 12 13 16 17 21 21 21 17 -193 21 17 15 14 13 15 15 20 20 13 25 27 24 21 18 18 21 16 16 17 18 18 -193 -193 23 20 26 28 29 26 27 21 16 16 18 -193 -193 -177 -193 -193 -193 24 24 22 16 26 26 -193 -193 14 19 21 26 25 27 33 24 24 24 26 23 23 24 24 23 25 27 27 27 30 34 33 32 33 35 36 31 29 29 34 35 36 37 38 37 39 0 0 0 0 0
    0 0 0 0 0 0 0 0 0 0 0 0 0 0 0 0 0 0 0 0 0 0 0 0 0 0 0 0 0 0 0 0 0 0 0 0 0 0 0 0 0 0 0 0 0 0 0 0 0 0 0 0 0 0 0 0 0 0 0 0 0 0 0 0 0 0 0 0 0 -193 -193 -177 12 13 -193 -193 12 14 11 12 16 14 13 13 0 0 0 0 0 0 0 0 0 0 0 0 0 0 0 0 -193 0 9 9 11 11 14 12 10 0 0 0 0 0 0 0 0 0 0 0 0 0 0 0 0 0 0 0 0 0 0 0 0 0 0 0 0 0 11 9 9 9 10 10 10 10 9 0 0 0 0 0 0 0 0 0 9 10 9 9 10 12 11 10 11 11 11 11 11 10 10 -193 11 11 10 14 13 14 0 0 0 0 0 0 0 0 0 9 9 0 0 0 9 9 10 9 10 10 10 11 9 9 9 9 0 0 0 9 10 0 0 0 -193 0 11 10 10 9 11 17 13 14 18 19 22 22 22 19 -193 22 17 16 14 14 16 15 21 21 14 25 28 26 22 20 19 21 17 17 18 18 19 -193 -193 23 21 26 28 29 27 28 22 17 16 19 -193 -193 -193 -193 20 -193 25 26 24 23 28 29 27 -193 23 21 24 28 27 31 37 27 26 26 30 24 23 24 24 24 26 28 28 29 32 36 35 36 37 38 37 34 30 30 35 35 37 37 37 37 39 0 0 0 0 0
    0 0 0 0 0 0 0 0 0 0 0 0 0 0 0 0 0 0 0 0 0 0 0 0 0 0 0 0 0 0 0 0 0 0 0 0 0 0 0 0 0 0 0 0 0 0 0 0 0 0 0 0 0 0 0 0 0 0 0 0 0 0 0 0 0 0 0 0 0 16 -193 -177 13 13 -193 -193 13 14 11 13 16 15 14 14 10 9 0 0 0 0 0 0 0 0 0 0 0 0 0 0 -193 0 9 9 12 12 14 13 11 9 0 0 0 0 0 0 0 0 0 0 0 0 0 0 0 0 0 0 0 0 0 0 0 0 0 0 0 0 11 9 9 9 9 9 10 10 9 0 0 0 0 0 0 0 0 0 0 0 0 0 9 11 10 10 10 10 10 11 11 10 10 11 12 11 11 13 12 13 0 0 0 0 0 0 0 0 0 9 9 0 0 0 9 9 -193 10 11 12 11 12 10 10 10 10 0 0 0 9 10 0 0 0 -193 0 11 10 10 10 12 19 14 16 -193 21 -193 23 23 20 -193 -193 18 16 14 14 17 16 21 21 15 26 30 28 24 22 20 22 18 18 19 20 20 24 24 24 23 26 28 30 28 29 23 18 18 20 22 20 -193 20 -193 -193 26 28 26 26 30 34 31 34 28 24 26 32 30 36 39 32 29 29 34 28 25 26 25 25 27 30 30 31 35 37 37 37 38 39 38 36 33 33 36 37 38 38 38 38 40 0 0 0 0 0
    0 0 0 0 0 0 0 0 0 0 0 0 0 0 0 0 0 0 0 0 0 0 0 0 0 0 0 0 0 0 0 0 0 0 0 0 0 0 0 0 0 0 0 0 0 0 0 0 0 0 0 0 0 0 0 0 0 0 0 0 0 0 0 0 0 0 0 0 0 17 -193 -177 14 14 -193 -193 14 15 12 14 17 16 15 15 11 11 9 0 0 0 0 0 0 0 0 0 0 0 0 0 -193 0 9 10 12 12 15 14 12 10 9 9 0 0 0 0 0 0 0 0 0 0 0 0 0 0 0 0 0 0 0 0 0 0 0 0 0 9 10 9 0 0 9 9 9 9 9 0 0 0 0 0 0 0 0 0 0 0 0 0 9 10 9 9 10 10 10 11 11 10 10 11 12 11 10 13 11 12 0 0 0 0 0 0 0 0 0 9 9 0 0 0 9 9 -193 10 11 12 12 13 11 10 10 11 0 9 9 11 11 10 9 9 10 10 12 11 11 11 12 20 16 18 -193 -193 -193 23 23 21 -193 -193 18 16 15 14 17 17 21 22 17 26 31 29 25 24 21 22 19 19 20 21 21 25 25 25 25 27 29 31 30 32 24 19 20 22 23 21 22 22 -193 -193 28 30 28 29 32 36 35 39 32 26 28 36 34 39 40 36 33 34 37 36 28 28 27 26 29 34 34 34 37 38 38 38 39 39 39 37 36 36 38 38 39 39 39 39 40 0 0 0 0 0
    0 0 0 0 0 0 0 0 0 0 0 0 0 0 0 0 0 0 0 0 0 0 0 0 0 0 0 0 0 0 0 0 0 0 0 0 0 0 0 0 0 0 0 0 0 0 0 0 0 0 0 0 0 0 0 0 0 0 0 0 0 0 0 0 0 0 0 0 0 18 14 14 14 14 14 -193 15 16 13 15 18 17 16 16 13 12 10 9 9 0 0 0 0 0 0 0 0 0 0 0 0 0 9 10 12 12 15 14 12 10 10 9 9 0 0 0 0 0 0 0 0 0 0 0 0 0 0 0 0 0 0 0 0 0 0 0 0 0 9 0 0 0 0 0 9 9 0 0 0 0 0 0 0 0 0 0 0 0 0 0 9 9 9 9 9 10 10 11 11 10 10 11 11 11 10 12 10 11 0 0 -177 0 -177 0 0 0 0 9 9 0 0 0 0 0 9 9 11 12 11 13 11 11 11 12 10 10 10 13 12 12 10 10 10 10 12 11 11 11 12 21 17 20 672 -193 670 -193 23 21 -193 -193 18 17 15 14 18 17 22 22 -193 27 31 29 26 25 23 23 20 21 22 22 23 26 27 27 26 29 31 32 32 35 28 21 21 23 24 23 23 24 -193 27 29 33 30 33 34 37 36 39 36 35 34 39 38 40 41 39 37 38 39 39 33 32 29 28 33 38 37 37 38 39 39 40 40 40 40 39 39 38 40 40 40 40 40 40 41 0 0 0 0 0
    0 0 0 0 0 0 0 0 0 0 0 0 0 0 0 0 0 0 0 0 0 0 0 0 0 0 0 0 0 0 0 0 0 0 0 0 0 0 0 0 0 0 0 0 0 0 0 0 0 0 0 0 0 0 0 0 0 0 0 0 0 0 0 0 0 0 0 0 0 17 14 13 14 14 14 11 14 16 13 15 18 17 16 16 13 14 11 10 10 0 0 0 0 0 0 0 0 0 0 0 0 0 9 9 12 12 15 14 11 10 10 10 9 0 0 0 0 0 0 0 0 0 0 0 0 0 0 0 0 0 0 0 0 0 0 0 0 0 9 0 0 0 0 0 9 9 0 0 0 0 0 0 0 0 0 0 0 0 0 0 0 0 0 0 0 9 9 10 10 10 10 11 11 10 10 11 10 10 0 0 -177 0 0 0 0 0 0 9 9 0 0 0 0 0 8 9 11 11 11 13 11 11 11 13 11 11 11 15 12 13 11 11 10 10 12 11 10 10 12 21 18 -193 672 -193 -177 -193 23 21 19 22 17 17 16 14 18 18 22 23 -193 27 31 30 29 27 24 24 22 23 23 24 24 28 28 28 28 30 31 32 33 35 31 -193 24 26 28 27 27 27 27 29 32 35 34 36 36 38 37 39 37 38 38 40 40 41 41 40 40 40 40 41 38 37 34 34 37 39 39 39 -193 -193 40 40 41 41 41 40 40 39 41 41 41 41 41 41 41 0 0 0 0 0
    0 0 0 0 0 0 0 0 0 0 0 0 0 0 0 0 0 0 0 0 0 0 0 0 0 0 0 0 0 0 0 0 0 0 0 0 0 0 0 0 0 0 0 0 0 0 0 0 0 0 0 0 0 0 0 0 0 0 0 0 0 0 0 0 0 0 0 0 0 17 14 14 14 14 14 12 15 17 14 15 18 17 16 16 14 15 13 11 11 10 9 9 0 0 0 0 0 0 0 0 0 0 9 10 12 12 15 14 12 10 10 10 9 0 0 0 0 0 -193 0 0 0 0 0 0 0 0 0 0 0 0 0 0 0 0 0 0 0 9 0 0 0 0 9 9 9 0 0 0 0 0 0 0 0 0 0 0 0 0 0 0 0 0 0 0 9 9 10 10 9 10 11 11 10 11 11 9 9 0 0 -177 0 0 0 0 0 0 9 9 0 0 0 0 0 0 9 10 11 10 12 11 11 11 13 12 11 11 16 13 14 11 11 10 11 11 11 10 10 11 22 20 -193 673 -193 -193 23 23 21 18 22 17 17 16 15 18 18 22 23 20 27 30 30 30 29 27 28 24 27 27 28 27 30 30 29 29 32 31 33 35 36 35 33 28 31 33 32 32 30 31 33 35 37 36 38 38 38 38 39 38 39 39 41 40 41 41 41 41 41 41 42 40 39 37 38 39 40 40 40 -193 -193 40 40 41 41 41 41 41 40 42 41 42 41 41 42 42 0 0 0 0 0
    0 0 0 0 0 0 0 0 0 0 0 0 0 0 0 0 0 0 0 0 0 0 0 0 0 0 0 0 0 0 0 0 0 0 0 0 0 0 0 0 0 0 0 0 0 0 0 0 0 0 0 0 0 0 0 0 0 0 0 0 0 0 0 0 0 0 0 0 0 17 14 14 15 15 15 12 16 17 14 16 18 17 17 16 15 16 14 12 13 11 10 11 12 0 0 0 0 0 0 0 0 0 9 10 12 12 15 15 12 11 11 10 10 9 0 0 0 0 -193 0 0 0 0 0 0 0 0 0 0 0 0 0 0 0 0 0 0 0 9 0 0 0 0 9 9 9 0 0 0 0 0 0 0 0 0 0 0 0 0 0 0 0 0 0 0 9 9 10 10 10 10 11 11 10 10 11 0 0 0 0 0 0 0 0 0 0 0 9 10 0 0 0 0 0 0 9 11 11 11 13 11 11 11 13 12 11 11 16 13 14 11 11 10 11 12 12 10 10 11 22 22 23 -177 -193 -193 22 22 20 18 21 16 17 17 15 18 19 23 24 23 28 31 31 33 31 30 32 30 33 32 32 31 31 32 31 32 34 31 34 38 37 38 38 34 36 36 36 37 33 35 35 36 37 37 38 38 39 38 39 38 40 40 41 40 41 41 41 42 42 41 -193 41 41 40 40 40 40 40 40 -193 -193 40 40 41 41 41 41 41 40 42 42 42 41 42 42 42 0 0 0 0 0
    0 0 0 0 0 0 0 0 0 0 0 0 0 0 0 0 0 0 0 0 0 0 0 0 0 0 0 0 0 0 0 0 0 0 0 0 0 0 0 0 0 0 0 0 0 0 0 0 0 0 0 0 0 0 0 0 0 0 0 0 0 0 0 0 0 0 0 0 0 17 14 14 15 15 15 12 16 18 15 16 18 18 17 17 15 17 15 13 14 12 11 13 17 10 0 0 9 0 0 0 0 0 9 9 9 10 13 14 12 11 12 11 11 10 0 0 0 0 -193 0 0 0 0 0 0 0 0 0 0 0 0 0 0 0 0 0 0 0 9 0 0 0 0 0 0 9 0 0 0 0 0 0 0 0 0 0 0 0 0 0 0 0 0 0 0 9 9 10 10 9 9 11 11 9 9 10 0 0 0 0 0 0 0 0 0 0 0 10 11 9 0 0 0 0 0 9 11 12 12 14 11 12 11 14 12 11 11 17 13 14 11 11 10 11 12 12 9 9 11 21 21 22 -193 22 -193 22 22 20 17 21 16 17 17 15 18 19 23 24 24 29 32 32 34 34 34 34 33 36 35 35 35 34 35 34 37 38 32 36 42 39 41 40 38 39 38 38 38 35 37 36 36 37 37 39 38 39 39 39 39 41 41 42 -193 41 40 -193 -193 -193 -193 -193 40 41 41 41 41 41 40 40 -193 -193 39 40 41 41 41 42 41 40 42 42 42 42 42 42 42 0 0 0 0 0
    0 0 0 0 0 0 0 0 0 0 0 0 0 0 0 0 0 0 0 0 0 0 0 0 0 0 0 0 0 0 0 0 0 0 0 0 0 0 0 0 0 0 0 0 0 0 0 0 0 0 0 0 0 0 0 0 0 0 0 0 0 0 0 0 0 0 0 0 0 16 14 13 14 15 14 12 16 18 15 16 18 18 17 17 15 17 15 13 14 12 11 14 19 12 9 10 13 12 11 11 9 9 11 10 10 10 12 13 11 10 12 11 11 10 9 0 0 0 -193 0 0 0 0 0 0 0 0 0 0 0 0 0 0 0 0 0 0 0 10 0 0 0 0 0 0 9 0 0 0 0 0 0 0 0 0 0 0 0 0 0 0 0 0 0 9 9 10 10 10 9 9 11 11 0 0 10 0 0 0 0 0 0 0 0 0 0 0 11 15 11 10 9 0 0 0 9 10 12 11 14 10 11 11 14 11 10 10 17 13 14 11 11 10 11 12 12 9 10 10 19 21 22 21 22 22 21 22 19 17 20 15 16 17 15 18 19 24 25 25 29 32 32 35 34 34 34 34 36 36 36 36 35 37 35 38 39 36 37 43 39 41 40 39 39 39 39 39 36 38 36 36 37 37 39 38 39 39 39 -193 41 -193 -193 -193 -193 -193 -193 -193 -193 162 -209 39 41 41 41 40 41 40 40 39 -193 39 -193 40 42 42 42 42 41 43 43 43 42 43 42 43 0 0 0 0 0
    0 0 0 0 0 0 0 0 0 0 0 0 0 0 0 0 0 0 0 0 0 0 0 0 0 0 0 0 0 0 0 0 0 0 0 0 0 0 0 0 0 0 0 0 0 0 0 0 0 0 0 0 0 0 0 0 0 0 0 0 0 0 0 0 0 0 0 0 0 15 14 13 14 14 14 12 16 19 15 16 18 18 17 17 15 16 15 13 13 12 11 14 18 13 10 12 18 19 16 16 14 11 16 14 11 11 12 14 11 10 12 11 12 11 10 9 0 9 -177 -193 0 0 0 0 0 0 0 0 0 0 0 0 0 0 0 10 9 9 11 0 0 0 9 0 0 8 0 0 0 0 0 0 0 0 0 0 0 0 0 0 0 0 0 0 9 9 10 10 10 9 9 11 11 0 9 11 0 0 0 0 0 0 0 0 0 0 -193 14 21 19 20 16 18 -193 0 10 9 11 10 13 10 11 11 15 11 11 11 17 13 15 12 11 11 12 12 13 10 11 11 19 21 21 20 21 22 21 21 18 15 19 14 16 16 15 17 18 -193 -193 26 30 32 32 35 34 35 34 34 36 36 36 36 35 37 36 38 40 38 37 42 39 41 40 39 39 39 39 39 36 38 36 37 38 38 39 38 -177 39 -209 -209 -193 -193 -193 159 160 -193 158 158 158 161 -193 38 40 40 41 39 40 40 40 39 -193 -193 -193 40 42 42 43 43 42 44 43 43 42 43 43 43 0 0 0 0 0
    0 0 0 0 0 0 0 0 0 0 0 0 0 0 0 0 0 0 0 0 0 0 0 0 0 0 0 0 0 0 0 0 0 0 0 0 0 0 0 0 0 0 0 0 0 0 0 0 0 0 0 0 0 0 0 0 0 0 0 0 0 0 0 0 0 0 0 0 0 14 13 13 14 14 14 12 17 19 17 16 18 18 16 16 14 16 14 12 13 12 11 14 18 13 12 15 22 23 20 19 19 15 21 18 12 11 11 15 12 11 13 11 13 13 13 10 10 11 -193 -193 0 0 0 0 0 0 0 0 0 0 0 0 -193 9 9 17 13 10 12 -193 0 0 9 0 0 0 0 0 0 0 0 0 0 0 0 0 0 0 0 0 0 0 0 0 9 10 10 -193 -193 -193 -209 11 11 0 9 12 0 0 0 0 0 0 0 0 0 0 -193 15 24 23 24 24 -193 -193 -209 -193 -209 -209 -209 12 10 11 11 16 12 11 12 19 14 16 13 12 11 12 13 13 10 12 11 19 21 22 20 20 21 20 -193 17 14 18 14 15 17 -193 -193 -193 -209 -193 26 30 31 32 34 33 35 34 33 36 36 36 36 35 37 35 39 40 39 36 42 39 40 39 39 39 39 39 38 36 38 36 37 38 38 39 38 -177 40 -209 -209 42 -193 -193 160 161 -193 -193 -193 158 161 -193 37 39 40 41 38 39 40 40 39 -193 -193 39 40 42 42 43 44 43 45 44 44 43 44 43 43 0 0 0 0 0
    0 0 0 0 0 0 0 0 0 0 0 0 0 0 0 0 0 0 0 0 0 0 0 0 0 0 0 0 0 0 0 0 0 0 0 0 0 0 0 0 0 0 0 0 0 0 0 0 0 0 0 0 0 0 0 0 0 0 0 0 0 0 0 0 0 0 0 0 0 13 13 12 13 14 14 11 17 20 17 17 19 19 16 16 15 16 14 12 13 12 11 14 18 13 14 18 24 24 21 21 21 17 22 20 13 11 11 17 11 13 15 12 14 14 15 10 10 12 -193 -193 9 0 0 0 0 0 0 0 0 0 0 -193 -209 -209 -209 26 -209 -209 -193 -193 9 9 10 0 -193 -193 -193 0 -193 -209 -193 0 0 0 0 0 0 0 0 0 0 0 0 0 10 10 10 -193 -193 -193 -209 -193 11 -193 0 12 0 0 0 0 0 -193 -209 0 -193 -193 -193 17 25 24 25 25 -193 -209 -209 -209 -209 -209 -209 -209 9 11 10 15 12 11 13 20 14 16 13 12 11 12 -193 -193 9 11 11 18 20 -193 -193 20 -193 -193 -193 16 14 17 13 15 17 -193 -193 -193 -209 -193 27 30 31 32 34 34 35 34 33 35 36 36 35 35 37 35 38 40 39 38 42 39 40 39 38 38 38 38 38 35 38 36 36 38 38 40 39 41 40 -209 -209 -193 -193 -193 -193 -193 -193 -193 -193 -193 -193 -193 37 39 40 41 39 39 40 40 40 -193 40 39 40 42 43 43 44 42 45 44 44 43 44 43 43 0 0 0 0 0
    0 0 0 0 0 0 0 0 0 0 0 0 0 0 0 0 0 0 0 0 0 0 0 0 0 0 0 0 0 0 0 0 0 0 0 0 0 0 0 0 0 0 0 0 0 0 0 0 0 0 0 0 0 0 0 0 0 0 0 0 0 0 0 0 0 0 0 0 0 12 12 11 12 13 13 11 16 19 17 16 19 19 16 16 14 15 -193 12 13 11 11 15 18 14 17 21 25 25 22 22 22 19 23 22 13 11 11 19 11 -193 -209 11 15 14 -209 10 9 11 -193 10 9 0 0 0 0 0 0 0 -177 0 -193 -209 -209 -209 28 34 37 -209 -209 -209 -209 10 -209 -209 -209 -209 -193 -209 -209 -209 -209 -193 -209 -209 -193 0 -193 0 0 0 0 0 0 0 10 10 -193 -193 642 -193 -209 -209 -209 -193 -193 11 0 0 0 0 0 -193 -209 -193 -209 -209 -209 20 25 25 25 25 -193 -209 16 -209 -209 -209 -209 -209 9 11 10 14 11 11 12 19 14 16 13 11 -193 -193 -193 -193 9 11 -209 17 -193 -193 -193 -193 -193 -193 -209 14 13 16 -193 -193 17 -193 -193 -193 -209 -193 27 30 31 33 35 34 35 34 33 35 35 35 35 34 36 34 38 40 39 38 42 38 39 38 37 37 37 37 37 34 38 36 -193 39 39 -193 -193 -193 -193 -209 -209 -209 -193 -193 -193 -193 -193 -193 -193 -193 -193 -193 36 39 39 40 37 39 40 40 -193 -193 -193 -193 40 42 42 41 42 41 44 43 43 42 43 42 43 0 0 0 0 0
    0 0 0 0 0 0 0 0 0 0 0 0 0 0 0 0 0 0 0 0 0 0 0 0 0 0 0 0 0 0 0 0 0 0 0 0 0 0 0 0 0 0 0 0 0 0 0 0 0 0 0 0 0 0 0 0 0 0 0 0 0 0 0 0 0 0 0 0 0 11 11 10 11 13 13 11 16 19 18 -193 -193 -209 -209 -193 -193 15 -193 11 12 10 9 13 16 14 18 23 25 26 23 23 24 21 23 25 14 12 12 22 20 -209 -209 -209 -193 -209 -209 10 9 10 10 10 10 9 0 0 0 0 -193 0 -193 0 -209 -193 -209 -209 28 36 38 -209 -209 -209 -209 -209 -209 -193 -209 -209 -193 -209 -209 -209 -209 -193 -209 194 -193 -209 -193 -209 0 -193 0 -193 0 0 11 11 11 -209 -193 -193 -209 -209 -209 -193 -193 -209 -209 -193 0 -193 -209 -193 -193 -209 -209 -209 -209 23 26 26 26 26 -193 -209 20 -209 -209 -209 -209 -209 -209 12 12 16 9 11 12 18 14 15 -193 -193 -193 -193 478 -193 -209 -209 -209 -209 -209 -193 -209 -193 -193 -193 -193 -193 12 -193 -193 -193 -193 -193 -193 -193 -193 -193 28 32 33 34 36 35 36 34 33 35 35 35 34 34 36 34 38 39 40 39 42 39 39 38 36 36 36 35 36 32 37 34 36 38 38 -193 -193 -193 -193 -193 -193 -209 -209 -209 -209 -209 -209 -209 -209 -209 161 -193 -193 -193 -193 -193 36 39 40 39 -193 -193 -193 -193 39 -193 -209 -193 -193 -193 42 41 42 42 42 42 43 0 0 0 0 0
    0 0 0 0 0 0 0 0 0 0 0 0 0 0 0 0 0 0 0 0 0 0 0 0 0 0 0 0 0 0 0 0 0 0 0 0 0 0 0 0 0 0 0 0 0 0 0 0 0 0 0 0 0 0 0 0 0 0 0 0 0 0 0 0 0 0 0 0 0 -193 10 10 11 12 -193 -193 -193 -193 -209 -209 -209 -209 -209 685 -209 -193 -193 -193 -193 10 0 12 14 15 20 25 26 26 24 24 25 22 24 25 17 -209 -209 -209 -209 -193 -193 -177 -177 -209 -209 -209 -209 10 10 10 11 10 0 0 0 -209 -209 -209 -209 -209 -193 -193 -193 -193 -193 37 -193 -209 188 190 -209 -209 -209 -209 -209 -209 -209 -193 -209 -193 193 196 198 194 193 193 -209 -209 -209 -209 -209 902 -209 0 12 -193 -193 -193 196 195 -209 -209 -209 -209 -209 -209 -209 -193 -209 -193 -193 -193 -193 -209 -209 -209 -209 -209 27 27 27 27 27 26 25 27 -209 -209 -209 -209 -209 17 24 21 -193 10 12 -193 13 -193 -177 -209 -209 -209 479 -209 -209 -209 -209 973 -209 -209 -209 -193 -209 -209 203 203 -193 199 179 183 -193 -193 -193 -209 -193 -193 30 34 34 35 36 35 36 34 34 35 34 34 34 34 36 34 37 39 40 41 42 39 -193 38 36 35 32 31 -177 27 30 -209 -193 -193 -193 36 -193 36 36 -209 -209 -209 -209 -209 281 281 -209 282 283 -209 -193 -193 -193 -193 -193 -209 37 39 -209 -193 -193 -193 -193 -209 -193 201 -209 -209 -209 -209 -193 -193 -193 41 41 42 43 0 0 0 0 0
    0 0 0 0 0 0 0 0 0 0 0 0 0 0 0 0 0 0 0 0 0 0 0 0 0 0 0 0 0 0 0 0 0 0 0 0 0 0 0 0 0 0 0 0 0 0 0 0 0 0 0 0 0 0 0 0 0 0 0 0 0 0 0 0 0 0 0 0 0 -209 9 9 9 -193 195 196 197 194 196 -209 -209 -209 -209 -193 -193 -209 -193 -193 -209 -209 0 11 -209 18 22 28 27 27 25 25 26 24 25 -209 -209 -209 999 -209 935 -193 -193 930 932 -209 -209 -209 -209 11 -193 11 -193 -193 -209 -209 -209 -193 -209 -177 -193 430 -193 -209 -193 -193 -209 -209 -209 187 188 190 189 190 -193 -193 191 197 -209 -209 -193 194 193 195 197 195 193 194 193 190 190 -193 -209 -193 -193 -209 189 189 195 198 196 195 195 196 196 195 195 -193 -193 -209 -209 -193 -193 191 -193 -209 -209 -209 198 200 -193 26 26 27 -193 26 25 29 -209 -209 -209 -209 -209 -209 -209 -209 195 -209 -193 198 196 196 -193 -209 -209 -209 -193 -193 -193 -193 -193 -209 -193 199 -193 -209 -209 -209 203 203 200 200 182 185 182 -209 -193 -209 29 31 31 35 35 36 35 34 36 34 34 35 33 33 33 34 35 34 37 38 -193 40 41 -193 -209 -209 -193 -209 -209 26 -209 -209 -209 202 203 202 202 -193 -193 -209 -209 -209 196 197 -177 -193 -209 -193 -209 283 284 -209 -209 -209 -193 -209 -209 -209 -209 -209 -193 -209 -209 -209 -193 197 198 199 203 -193 -193 203 204 204 204 -193 -193 -193 -193 0 0 0 0 0
    0 0 0 0 0 0 0 0 0 0 0 0 0 0 0 0 0 0 0 0 0 0 0 0 0 0 0 0 0 0 0 0 0 0 0 0 0 0 0 0 0 0 0 0 0 0 0 0 0 0 0 0 0 0 0 0 0 0 0 0 0 0 0 0 0 0 0 0 0 -209 -209 -193 194 193 195 195 196 195 196 196 -209 -193 -177 -177 -177 -177 -209 -209 -193 196 -209 -209 -193 -209 20 -209 -193 25 24 24 26 25 26 -193 -209 -209 -209 -209 938 -193 939 -193 -193 -209 643 -209 644 -209 -193 -193 -209 -209 -209 -193 -209 -193 202 202 -193 -209 -193 -193 193 192 189 188 187 188 189 191 190 191 192 190 192 197 196 195 196 195 195 196 198 196 195 195 196 194 194 196 -193 -193 -193 191 192 191 196 198 196 196 196 197 197 196 196 195 192 -193 195 192 194 194 195 197 -193 -209 199 200 201 -209 -209 -209 200 -209 -193 -209 -193 -209 -209 -209 -209 -193 190 195 195 197 197 198 195 196 197 199 197 198 197 198 197 198 198 199 197 198 199 199 -193 -209 201 202 200 200 194 192 194 -209 -209 -209 29 30 30 34 34 35 33 33 34 33 34 34 32 31 32 33 35 35 -193 -209 -193 -209 -209 -209 -209 -193 -177 -209 -209 -177 -209 202 201 201 202 201 202 202 200 201 200 201 199 199 198 199 200 200 201 -193 -193 201 199 199 -193 195 198 195 197 196 194 199 201 199 199 199 199 200 202 205 202 203 204 203 203 205 205 204 204 0 0 0 0 0
    0 0 0 0 0 0 0 0 0 0 0 0 0 0 0 0 0 0 0 0 0 0 0 0 0 0 0 0 0 0 0 0 0 0 0 0 0 0 0 0 0 0 0 0 0 0 0 0 0 0 0 0 0 0 0 0 0 0 0 0 0 0 0 0 0 0 0 0 0 193 194 193 194 193 195 193 195 194 195 195 196 -193 -193 -193 -177 -177 -209 -193 195 196 199 199 198 -193 200 201 -209 -209 -209 -209 -209 -193 -193 -209 -209 -209 -193 -193 944 947 946 -209 -209 -209 -193 197 196 196 197 197 198 197 198 -209 199 200 201 201 201 198 197 195 192 191 190 189 189 191 191 194 193 195 196 194 195 197 196 196 196 195 195 196 198 196 195 195 196 195 195 197 196 195 196 194 196 195 197 198 197 196 197 197 197 197 197 196 194 194 197 195 197 196 197 198 199 200 199 200 200 199 200 200 200 199 198 199 196 195 196 196 196 192 194 198 196 198 196 197 195 196 197 198 197 198 197 198 198 198 198 198 197 197 197 198 198 198 200 200 200 200 197 195 196 197 189 -193 -193 -193 28 32 -193 -193 -193 -193 -193 -193 34 32 -193 29 31 33 36 -193 207 205 205 -177 -193 -193 -209 -209 -209 -193 -209 -193 201 202 201 201 201 201 201 201 200 201 200 201 200 200 199 200 200 200 201 200 199 201 199 199 199 198 199 198 199 198 196 199 200 199 199 200 200 200 202 204 203 203 204 203 203 204 205 204 204 0 0 0 0 0
    0 0 0 0 0 0 0 0 0 0 0 0 0 0 0 0 0 0 0 0 0 0 0 0 0 0 0 0 0 0 0 0 0 0 0 0 0 0 0 0 0 0 0 0 0 0 0 0 0 0 0 0 0 0 0 0 0 0 0 0 0 0 0 0 0 0 0 0 0 195 195 194 195 194 194 192 195 194 194 194 196 194 194 194 195 194 193 196 197 195 198 197 197 198 198 198 198 197 198 196 197 196 193 193 191 189 -193 -193 947 -209 -209 -209 -193 195 196 197 196 196 197 197 198 197 198 198 198 199 200 200 199 196 196 194 192 191 190 191 191 194 193 195 195 197 198 197 197 197 197 196 196 196 196 196 198 196 196 195 196 196 195 197 196 196 196 195 197 196 198 198 197 197 197 197 198 197 198 197 195 196 198 197 199 197 198 199 199 200 199 199 199 198 199 199 198 197 197 198 196 196 198 198 198 197 199 201 198 199 197 196 195 196 196 197 196 198 196 198 199 198 198 198 197 198 197 197 198 197 199 199 198 199 197 196 196 196 192 189 195 195 197 197 196 197 196 196 195 193 192 192 194 -193 -209 200 201 202 202 202 201 201 198 198 200 200 202 200 200 203 201 201 201 200 201 200 201 201 199 201 200 201 200 200 199 199 199 199 200 199 199 200 198 199 198 199 199 199 199 198 197 199 199 199 199 200 199 200 202 203 203 204 204 203 203 204 204 204 203 0 0 0 0 0
    0 0 0 0 0 0 0 0 0 0 0 0 0 0 0 0 0 0 0 0 0 0 0 0 0 0 0 0 0 0 0 0 0 0 0 0 0 0 0 0 0 0 0 0 0 0 0 0 0 0 0 0 0 0 0 0 0 0 0 0 0 0 0 0 0 0 0 0 0 195 194 194 195 194 194 192 194 194 194 195 195 194 194 194 195 195 194 195 197 195 197 195 195 196 196 197 196 195 197 194 196 195 192 193 190 189 189 188 -193 188 191 192 196 195 197 197 197 197 197 197 198 196 197 197 197 197 198 198 196 194 195 195 193 193 192 193 193 195 194 195 195 196 197 196 197 196 196 196 196 197 196 196 198 197 197 196 197 197 195 197 196 195 195 195 196 196 197 198 197 197 197 198 198 197 198 197 196 197 199 198 200 198 199 200 199 199 199 199 199 197 198 198 197 197 196 197 195 196 197 197 197 197 199 200 197 199 197 196 196 196 196 196 196 197 196 198 200 199 199 199 198 198 198 198 198 197 199 198 198 199 197 197 196 195 195 192 196 196 196 196 196 196 195 195 194 192 191 192 194 198 199 200 200 201 202 202 201 200 198 198 198 199 201 200 200 203 201 201 201 201 201 200 201 201 199 201 201 201 200 200 199 199 198 198 199 198 197 199 198 199 198 200 200 199 200 198 196 198 198 198 198 199 198 198 201 202 203 204 204 203 202 204 204 203 203 0 0 0 0 0
    0 0 0 0 0 0 0 0 0 0 0 0 0 0 0 0 0 0 0 0 0 0 0 0 0 0 0 0 0 0 0 0 0 0 0 0 0 0 0 0 0 0 0 0 0 0 0 0 0 0 0 0 0 0 0 0 0 0 0 0 0 0 0 0 0 0 0 0 0 195 193 193 194 193 194 192 194 193 194 195 194 192 193 194 195 194 192 194 197 193 197 194 194 195 194 196 195 193 196 193 195 194 192 192 190 189 188 188 189 189 192 194 197 196 197 197 197 197 197 197 197 196 197 197 197 197 198 198 197 194 196 195 192 192 191 193 194 196 195 196 195 197 197 196 197 195 195 195 195 196 196 195 197 196 198 197 198 198 194 198 196 196 195 195 196 195 197 198 197 197 197 198 197 197 198 197 196 197 199 198 200 197 198 199 198 199 198 199 199 197 199 198 197 197 196 197 194 195 197 196 196 196 196 198 195 198 197 196 196 196 196 196 195 197 194 198 200 198 199 199 198 199 198 199 199 197 198 198 198 198 196 197 196 195 196 192 198 196 197 196 196 196 194 194 193 191 190 191 192 197 198 200 200 201 201 202 201 200 198 197 198 199 201 200 200 204 201 201 201 201 201 201 201 202 199 201 201 202 200 200 199 199 198 198 199 198 197 199 197 199 198 200 200 199 200 198 196 197 197 198 197 198 198 198 200 201 202 203 203 203 202 204 204 203 203 0 0 0 0 0
    0 0 0 0 0 0 0 0 0 0 0 0 0 0 0 0 0 0 0 0 0 0 0 0 0 0 0 0 0 0 0 0 0 0 0 0 0 0 0 0 0 0 0 0 0 0 0 0 0 0 0 0 0 0 0 0 0 0 0 0 0 0 0 0 0 0 0 0 0 194 193 193 194 194 194 193 195 194 194 195 194 192 193 193 194 193 191 193 196 193 197 194 194 195 194 196 195 193 196 192 195 194 192 193 190 189 189 189 -193 190 193 194 197 195 197 197 197 196 196 197 197 196 197 197 197 197 199 199 197 194 197 196 192 192 191 192 193 196 195 195 195 196 197 196 197 195 194 195 195 196 195 195 197 196 197 197 198 198 195 198 197 196 195 195 196 195 197 198 197 197 197 198 197 197 198 197 195 197 198 197 199 197 198 198 198 198 198 199 199 197 199 198 198 198 197 198 195 196 198 197 197 197 197 199 196 198 197 196 196 195 195 195 194 195 192 196 199 198 198 199 198 199 198 199 199 196 198 197 197 198 196 197 196 196 197 196 199 198 198 197 196 196 194 194 192 191 190 191 192 196 196 197 198 200 200 200 200 199 197 198 199 200 202 200 200 204 201 201 201 201 201 201 201 202 199 201 201 202 200 200 199 199 198 198 199 198 196 199 196 199 197 200 200 199 200 198 196 197 197 198 197 198 198 199 200 201 201 202 202 202 201 203 203 203 203 0 0 0 0 0
    0 0 0 0 0 0 0 0 0 0 0 0 0 0 0 0 0 0 0 0 0 0 0 0 0 0 0 0 0 0 0 0 0 0 0 0 0 0 0 0 0 0 0 0 0 0 0 0 0 0 0 0 0 0 0 0 0 0 0 0 0 0 0 0 0 0 0 0 0 193 192 193 194 194 195 193 195 195 194 195 194 192 193 193 194 193 191 193 196 192 196 194 194 194 193 196 195 193 196 192 195 195 194 195 191 191 190 190 191 192 194 194 197 195 197 196 197 196 196 196 197 196 197 197 197 196 199 199 197 -193 196 196 193 193 191 193 194 196 195 195 195 196 197 196 197 196 195 195 195 196 196 195 197 195 196 197 198 198 195 198 197 196 195 195 196 195 197 198 197 197 197 197 197 197 197 197 195 195 197 196 199 197 198 198 198 199 198 199 199 198 200 199 199 199 197 198 196 197 198 198 198 197 198 199 197 198 197 196 196 195 194 194 192 194 191 194 198 197 198 199 198 199 198 199 199 196 198 197 196 197 195 197 196 196 198 198 200 199 198 197 197 197 194 194 192 191 191 191 193 196 197 197 197 199 199 199 199 198 197 198 199 200 201 200 200 204 201 201 201 201 201 200 201 202 199 200 200 201 200 200 198 199 198 197 198 198 196 198 196 199 197 200 200 199 200 198 196 197 197 198 197 199 198 199 200 200 201 201 202 202 201 203 202 202 202 0 0 0 0 0
    0 0 0 0 0 0 0 0 0 0 0 0 0 0 0 0 0 0 0 0 0 0 0 0 0 0 0 0 0 0 0 0 0 0 0 0 0 0 0 0 0 0 0 0 0 0 0 0 0 0 0 0 0 0 0 0 0 0 0 0 0 0 0 0 0 0 0 0 0 193 192 193 194 195 195 194 195 195 194 195 194 193 193 194 195 193 190 193 196 192 196 193 193 192 192 195 194 192 196 191 196 195 195 195 192 191 190 191 191 193 194 193 196 195 196 196 197 195 195 196 197 195 196 196 196 195 198 198 196 192 196 197 194 194 193 194 195 196 196 196 196 197 197 196 197 196 196 195 196 196 196 195 196 195 195 196 197 197 196 198 197 196 196 195 196 196 197 198 197 197 197 197 197 197 197 197 195 195 197 196 198 197 198 198 198 198 199 199 199 198 200 199 199 199 198 198 196 197 198 198 198 198 198 200 197 197 197 196 196 195 194 194 191 194 190 194 198 197 198 198 198 199 198 199 199 196 197 197 196 196 195 197 196 196 198 199 200 199 198 198 197 197 195 194 193 191 192 192 194 195 196 197 197 199 198 198 198 198 197 197 198 199 201 200 200 204 201 201 201 -193 201 200 201 201 198 200 200 201 199 200 198 199 197 197 198 197 195 198 196 199 197 200 200 200 200 198 197 197 197 198 197 199 199 200 201 200 201 201 201 201 200 202 201 201 202 0 0 0 0 0
    0 0 0 0 0 0 0 0 0 0 0 0 0 0 0 0 0 0 0 0 0 0 0 0 0 0 0 0 0 0 0 0 0 0 0 0 0 0 0 0 0 0 0 0 0 0 0 0 0 0 0 0 0 0 0 0 0 0 0 0 0 0 0 0 0 0 0 0 0 193 193 193 194 194 194 194 194 194 193 194 194 193 194 194 195 194 191 194 196 192 195 192 193 192 191 194 193 192 195 192 196 195 196 195 193 192 191 192 192 193 194 192 196 194 196 196 196 194 194 195 196 194 195 194 195 194 197 198 196 194 198 199 197 197 196 196 196 197 197 196 196 197 198 197 198 197 196 196 197 197 196 196 196 194 194 194 196 196 195 197 196 196 196 196 197 197 197 198 197 197 197 198 197 197 197 197 195 195 196 196 198 197 198 198 198 198 199 199 199 198 199 198 199 199 198 198 196 197 198 198 198 198 198 200 197 197 198 197 196 195 194 194 191 193 190 193 198 197 198 198 198 199 198 199 199 196 197 197 196 197 195 197 196 196 198 199 199 199 198 198 197 197 195 195 193 192 193 193 194 195 196 196 197 198 198 198 198 198 197 198 198 199 200 199 200 204 201 201 201 -193 201 200 201 201 198 200 200 201 199 200 198 199 197 197 198 197 195 199 197 200 198 201 201 201 201 199 198 198 198 199 197 200 199 200 201 200 201 201 201 202 200 202 201 201 202 0 0 0 0 0
    0 0 0 0 0 0 0 0 0 0 0 0 0 0 0 0 0 0 0 0 0 0 0 0 0 0 0 0 0 0 0 0 0 0 0 0 0 0 0 0 0 0 0 0 0 0 0 0 0 0 0 0 0 0 0 0 0 0 0 0 0 0 0 0 0 0 0 0 0 194 193 194 194 194 194 194 194 194 192 194 193 194 195 195 195 196 192 195 196 193 195 192 192 192 191 194 193 192 195 193 196 195 196 196 194 194 193 193 193 193 193 192 195 194 195 195 195 194 193 194 196 194 195 194 195 193 197 197 196 194 198 199 198 197 196 196 197 197 197 197 197 198 198 198 198 197 197 197 197 197 196 196 196 194 194 193 195 195 194 196 196 196 196 196 197 198 198 199 198 197 198 198 198 198 197 197 196 196 197 197 198 197 198 198 198 198 198 199 198 197 198 196 197 197 197 198 197 198 199 198 199 198 198 199 196 197 197 196 196 195 194 193 191 193 191 194 198 197 198 198 198 199 198 199 199 196 197 197 196 196 195 197 196 195 198 198 198 198 197 197 197 197 196 195 194 193 194 194 195 196 197 197 197 199 198 198 198 198 197 198 198 199 200 199 200 203 201 201 201 -193 201 200 201 202 198 200 200 201 200 -193 199 199 197 197 198 198 196 199 198 201 200 202 202 201 201 199 198 198 198 -193 197 200 200 200 200 200 201 201 201 202 201 203 202 202 202 0 0 0 0 0
    0 0 0 0 0 0 0 0 0 0 0 0 0 0 0 0 0 0 0 0 0 0 0 0 0 0 0 0 0 0 0 0 0 0 0 0 0 0 0 0 0 0 0 0 0 0 0 0 0 0 0 0 0 0 0 0 0 0 0 0 0 0 0 0 0 0 0 0 0 193 193 194 194 194 194 195 194 194 194 194 193 194 195 195 195 195 192 194 195 193 195 192 192 192 191 193 193 192 195 194 196 196 196 196 194 195 195 195 194 194 194 192 194 194 195 194 195 193 193 194 196 194 195 194 195 193 196 197 195 194 197 198 197 197 196 196 197 197 197 197 197 198 198 198 198 198 198 197 198 197 196 196 196 194 195 194 196 195 196 196 197 196 197 197 197 198 198 199 198 197 198 198 198 198 198 198 196 197 198 197 199 198 199 198 198 197 197 198 198 196 197 194 196 196 195 196 195 196 198 197 198 197 197 198 196 196 196 195 195 194 193 192 191 192 192 195 198 197 198 198 198 199 198 198 198 196 197 196 195 195 194 197 195 195 198 198 198 197 197 197 196 196 196 195 195 193 195 195 196 196 197 197 197 198 199 198 199 198 198 198 198 198 199 198 200 203 200 201 200 200 200 200 201 202 199 201 200 202 200 -193 199 199 198 197 198 198 196 199 198 201 201 202 202 201 200 198 197 197 197 198 197 199 199 200 200 200 201 200 201 -193 201 203 202 202 202 0 0 0 0 0
    0 0 0 0 0 0 0 0 0 0 0 0 0 0 0 0 0 0 0 0 0 0 0 0 0 0 0 0 0 0 0 0 0 0 0 0 0 0 0 0 0 0 0 0 0 0 0 0 0 0 0 0 0 0 0 0 0 0 0 0 0 0 0 0 0 0 0 0 0 192 193 194 194 194 195 195 195 194 195 195 194 194 196 195 195 195 192 195 195 194 196 193 193 192 191 193 193 192 195 194 196 196 196 197 195 196 196 196 195 195 194 193 194 194 195 194 195 193 193 194 196 194 195 194 195 194 196 197 196 194 197 198 197 197 196 197 197 197 197 197 197 198 198 199 199 198 198 197 198 198 197 197 197 195 195 195 196 196 196 197 197 197 197 197 198 198 198 199 199 198 198 198 198 198 198 198 196 198 198 198 199 198 199 198 198 197 197 198 197 196 196 192 195 194 193 193 193 194 197 196 197 196 196 197 195 195 196 195 195 194 193 192 190 192 192 196 197 197 197 198 198 199 198 198 197 195 196 196 194 194 194 197 196 196 198 199 198 198 197 196 195 196 195 195 195 193 194 194 195 196 197 197 197 198 199 198 199 198 198 198 198 198 199 198 200 203 -193 201 200 200 200 200 201 201 198 201 200 202 -193 -193 200 199 198 198 199 199 196 199 197 201 200 201 201 199 199 198 197 197 197 198 197 199 199 200 199 199 200 200 200 -193 -193 203 202 202 202 0 0 0 0 0
    0 0 0 0 0 0 0 0 0 0 0 0 0 0 0 0 0 0 0 0 0 0 0 0 0 0 0 0 0 0 0 0 0 0 0 0 0 0 0 0 0 0 0 0 0 0 0 0 0 0 0 0 0 0 0 0 0 0 0 0 0 0 0 0 0 0 0 0 0 192 193 193 193 194 194 195 195 195 195 196 195 195 196 196 195 196 193 195 195 194 196 194 194 193 192 194 193 193 195 195 195 196 196 197 195 196 196 196 195 195 195 194 194 195 195 194 195 193 193 194 196 195 195 194 195 194 196 197 196 195 197 198 197 197 197 197 197 197 197 197 197 198 198 199 198 198 198 197 198 197 196 197 196 195 195 194 196 196 197 197 198 197 198 197 198 198 198 200 199 198 199 199 199 199 199 198 196 198 197 197 198 198 199 197 198 197 197 198 197 196 196 192 196 194 195 196 196 197 198 197 197 196 196 197 195 196 196 195 195 194 193 193 191 193 193 197 197 197 197 198 198 198 198 198 197 196 196 196 194 194 195 197 196 196 198 199 198 198 197 196 195 196 195 196 195 194 195 195 195 196 196 196 196 196 198 197 198 198 197 198 198 197 199 198 200 203 -193 201 201 200 201 200 201 201 198 200 200 203 -193 -193 200 200 199 199 199 199 195 199 195 199 198 199 199 198 197 197 197 197 197 198 198 200 200 200 200 200 200 199 200 -209 -193 202 201 202 202 0 0 0 0 0
    0 0 0 0 0 0 0 0 0 0 0 0 0 0 0 0 0 0 0 0 0 0 0 0 0 0 0 0 0 0 0 0 0 0 0 0 0 0 0 0 0 0 0 0 0 0 0 0 0 0 0 0 0 0 0 0 0 0 0 0 0 0 0 0 0 0 0 0 0 191 193 193 193 194 194 195 194 195 196 196 196 197 197 197 196 197 195 196 195 195 196 194 193 192 192 193 193 193 194 194 195 196 196 197 195 196 196 197 196 195 195 194 194 195 194 194 195 193 193 194 196 195 195 195 195 194 196 197 196 195 198 198 198 198 197 198 197 197 197 197 197 198 198 198 198 198 198 197 198 197 196 196 196 195 195 194 196 195 196 196 197 197 198 198 199 199 198 200 199 199 199 199 199 199 199 198 196 198 197 197 198 198 198 197 197 197 196 197 197 196 195 193 197 194 196 198 198 199 198 197 197 196 196 196 195 196 195 195 195 195 193 195 193 194 195 198 198 198 198 198 198 198 198 198 196 196 196 196 195 195 196 197 196 196 197 198 197 197 197 195 195 196 196 196 196 194 196 196 196 196 197 196 196 196 197 196 198 198 197 197 197 197 199 199 200 204 201 201 201 201 201 200 201 201 198 201 201 203 -193 -193 200 200 199 199 199 199 -193 198 194 198 197 198 198 197 197 197 197 198 198 199 199 201 201 201 -193 200 -193 -193 200 -209 -193 201 200 201 201 0 0 0 0 0
    0 0 0 0 0 0 0 0 0 0 0 0 0 0 0 0 0 0 0 0 0 0 0 0 0 0 0 0 0 0 0 0 0 0 0 0 0 0 0 0 0 0 0 0 0 0 0 0 0 0 0 0 0 0 0 0 0 0 0 0 0 0 0 0 0 0 0 0 0 192 193 193 193 193 194 195 194 195 196 197 197 197 198 197 197 197 195 197 195 195 195 193 193 192 191 192 192 192 193 194 195 196 196 197 195 196 196 196 195 195 195 194 194 195 194 193 194 193 193 194 196 194 195 195 196 194 195 196 195 194 197 196 197 197 197 197 197 197 197 197 198 198 198 199 198 198 199 197 198 197 197 197 196 195 195 194 196 196 196 196 197 197 198 198 199 199 199 200 199 199 199 199 199 199 199 198 196 198 197 197 197 197 198 196 198 197 196 197 197 196 196 194 197 194 197 198 197 198 197 196 197 196 196 196 195 195 195 194 195 195 194 196 195 197 198 200 198 198 198 198 198 198 198 197 195 196 196 197 196 196 197 197 196 196 197 197 197 196 196 194 194 195 196 196 197 195 197 196 196 197 197 197 197 197 198 197 198 198 197 197 196 196 198 198 200 204 201 201 201 201 201 200 201 201 198 201 201 203 201 201 201 200 199 199 199 -193 -193 199 195 198 198 198 197 196 196 197 197 198 198 199 199 201 202 202 -193 201 201 -193 -193 -209 -193 201 201 202 202 0 0 0 0 0
    0 0 0 0 0 0 0 0 0 0 0 0 0 0 0 0 0 0 0 0 0 0 0 0 0 0 0 0 0 0 0 0 0 0 0 0 0 0 0 0 0 0 0 0 0 0 0 0 0 0 0 0 0 0 0 0 0 0 0 0 0 0 0 0 0 0 0 0 0 192 194 193 194 193 194 195 194 194 196 197 197 198 198 198 197 197 196 197 196 196 196 194 193 192 191 192 192 193 193 194 195 195 195 196 195 196 196 196 195 195 195 194 194 195 193 192 194 193 192 194 196 195 195 195 196 194 196 197 196 194 197 196 197 197 197 197 197 197 197 197 198 199 198 199 198 198 199 198 198 198 197 197 197 196 196 195 196 196 196 196 196 196 197 198 199 199 199 200 199 199 199 199 199 199 199 198 197 198 197 197 198 197 198 197 198 197 196 197 197 196 196 196 198 196 199 199 197 198 197 196 196 195 195 195 194 195 194 194 195 195 194 197 197 198 199 200 198 198 198 198 197 198 197 197 194 197 197 198 197 197 198 198 196 196 197 197 197 196 196 194 194 196 197 197 198 196 198 197 197 197 197 197 198 198 199 198 199 199 198 197 197 196 199 198 199 203 200 200 201 201 201 200 201 201 198 202 202 203 201 202 201 200 200 200 200 -193 -193 199 196 199 198 197 197 195 195 196 197 198 198 199 199 201 202 202 -193 201 201 -193 -193 -209 -193 201 201 202 202 0 0 0 0 0
    0 0 0 0 0 0 0 0 0 0 0 0 0 0 0 0 0 0 0 0 0 0 0 0 0 0 0 0 0 0 0 0 0 0 0 0 0 0 0 0 0 0 0 0 0 0 0 0 0 0 0 0 0 0 0 0 0 0 0 0 0 0 0 0 0 0 0 0 0 193 194 194 194 193 194 194 194 194 195 196 196 197 198 198 197 198 196 197 196 197 197 195 194 193 192 193 193 194 194 194 195 195 195 197 195 196 196 197 196 195 196 195 195 196 193 193 194 194 193 194 197 195 196 196 197 195 196 197 196 193 197 195 196 196 195 195 196 196 196 197 197 198 198 198 198 198 199 198 198 198 198 198 198 197 197 196 197 197 196 196 196 196 197 197 199 199 199 199 199 199 199 199 200 199 199 198 197 199 198 198 199 198 198 197 198 197 196 197 197 196 197 197 199 198 199 199 197 198 197 196 196 195 195 195 194 195 194 194 195 195 195 198 198 198 199 200 198 198 198 198 197 197 197 197 193 198 198 199 199 199 199 198 197 197 197 197 197 197 196 193 195 197 198 198 199 197 198 197 197 198 197 198 198 198 199 198 199 199 197 198 197 196 199 199 199 203 200 200 201 201 201 200 201 201 198 202 203 204 202 202 201 201 201 201 200 -193 -193 199 195 198 197 195 196 194 194 196 196 198 198 199 199 201 202 202 200 200 -193 -193 -193 -209 -209 201 -193 202 202 0 0 0 0 0
    0 0 0 0 0 0 0 0 0 0 0 0 0 0 0 0 0 0 0 0 0 0 0 0 0 0 0 0 0 0 0 0 0 0 0 0 0 0 0 0 0 0 0 0 0 0 0 0 0 0 0 0 0 0 0 0 0 0 0 0 0 0 0 0 0 0 0 0 0 193 194 194 194 194 195 195 194 194 196 196 197 198 199 197 197 197 196 197 196 197 197 195 194 194 193 193 194 195 194 194 195 196 195 197 196 197 197 197 197 196 197 196 196 197 195 195 196 195 194 195 198 196 196 196 197 194 195 197 195 191 194 192 193 194 193 192 195 195 195 196 196 197 197 198 198 198 199 198 198 199 198 198 198 197 197 196 197 197 196 197 197 196 197 197 199 198 198 199 199 199 199 199 200 199 200 199 198 199 199 198 199 198 198 197 198 197 196 198 197 197 198 198 199 199 200 200 197 199 197 196 195 195 194 194 194 195 194 194 195 195 196 198 199 199 199 200 198 198 198 198 197 197 197 197 192 198 198 199 199 199 199 198 196 197 197 197 197 197 196 -193 196 199 198 199 199 197 -193 197 197 198 197 198 198 198 199 198 199 198 197 197 197 196 199 199 199 204 200 200 200 201 -193 200 201 201 197 201 202 204 201 202 202 201 201 201 201 -193 -193 199 195 197 196 195 195 194 193 196 196 198 198 199 199 201 201 202 -193 -193 -193 -193 -209 -209 -209 201 -193 202 202 0 0 0 0 0
    0 0 0 0 0 0 0 0 0 0 0 0 0 0 0 0 0 0 0 0 0 0 0 0 0 0 0 0 0 0 0 0 0 0 0 0 0 0 0 0 0 0 0 0 0 0 0 0 0 0 0 0 0 0 0 0 0 0 0 0 0 0 0 0 0 0 0 0 0 193 194 194 194 194 195 195 194 195 197 196 197 198 199 198 197 197 195 197 197 -193 -193 -193 195 195 -193 -193 196 197 196 196 197 197 196 197 196 197 197 198 197 197 198 197 198 199 197 198 198 197 196 197 199 197 197 197 197 195 196 197 196 192 196 195 196 197 196 195 197 196 196 196 196 197 197 198 198 198 199 198 199 199 198 198 198 198 197 197 198 197 196 197 196 196 196 197 198 197 198 199 199 199 199 199 200 199 200 199 198 199 199 199 200 199 199 198 198 198 197 198 197 197 198 198 199 199 200 200 197 199 197 196 196 195 194 194 194 196 195 195 195 196 197 199 200 200 200 201 198 199 198 198 198 198 198 197 192 198 197 199 198 198 198 196 195 196 196 196 196 196 196 -193 197 -209 -193 -193 199 196 -193 196 196 197 196 197 197 197 198 198 198 197 196 196 197 197 199 199 200 205 201 200 201 201 -193 -193 201 201 197 201 202 203 201 202 201 201 201 201 200 -193 195 198 -193 -193 194 193 194 193 193 196 196 198 198 198 198 201 201 202 -193 -193 -193 -193 -209 -209 -209 201 -209 202 202 0 0 0 0 0</data></disparity>
</opencv_storage>
