<?xml version="1.0"?>
<opencv_storage>
<gps_time_stamp>27242</gps_time_stamp>
<gps_x>-6.1694068908691406e+000</gps_x>
<gps_y>9.1142791509628296e-001</gps_y>
<gps_z>-1.6412920951843262e+000</gps_z>
<image_time_stamp>15168</image_time_stamp>
<disparity type_id="opencv-matrix">
  <rows>81</rows>
  <cols>320</cols>
  <dt>s</dt>
  <data>
    0 0 0 0 0 0 0 0 0 0 0 0 0 0 0 0 0 0 0 0 0 0 0 0 0 0 0 0 0 0 0 0 0 0 0 0 0 0 0 0 0 0 0 0 0 0 0 0 0 0 0 0 0 0 0 0 0 0 0 0 0 0 0 0 0 0 0 0 0 99 99 100 100 100 99 100 98 99 99 100 99 99 100 99 102 100 101 102 102 101 101 101 99 99 98 98 98 98 98 99 98 100 98 101 101 101 101 99 98 98 96 97 96 97 98 99 98 98 102 98 99 100 98 98 98 99 99 93 100 99 95 99 100 98 99 100 99 98 99 100 101 98 103 102 101 101 101 101 100 100 101 98 99 100 102 101 101 102 102 102 101 101 101 99 99 98 96 100 98 98 97 99 98 99 100 100 96 98 99 101 100 101 100 100 99 101 101 100 99 99 99 102 102 101 101 101 101 101 100 101 95 95 98 96 95 98 96 96 96 96 96 96 97 98 98 100 102 100 100 101 102 102 102 102 102 101 103 101 101 101 99 97 97 97 100 100 101 101 101 102 104 104 105 105 104 105 105 105 103 99 100 100 101 102 101 102 102 103 104 104 105 105 104 105 106 106 105 105 105 107 107 109 109 108 108 109 107 110 106 106 108 110 112 112 118 120 119 120 121 121 121 122 122 122 119 122 122 101 -193 103 104 -225 -225 105 -193 -193 100 103 102 102 101 100 101 102 103 0 0 0 0 0
    0 0 0 0 0 0 0 0 0 0 0 0 0 0 0 0 0 0 0 0 0 0 0 0 0 0 0 0 0 0 0 0 0 0 0 0 0 0 0 0 0 0 0 0 0 0 0 0 0 0 0 0 0 0 0 0 0 0 0 0 0 0 0 0 0 0 0 0 0 100 99 100 100 100 100 100 99 100 100 100 100 100 100 99 102 100 101 102 102 101 101 101 98 99 98 98 98 97 98 98 98 100 97 102 101 101 101 99 98 97 96 96 94 95 97 98 97 98 102 98 98 99 98 98 98 98 98 92 98 98 93 97 99 97 98 100 99 99 101 101 102 100 103 102 101 101 101 101 100 100 100 98 99 100 102 101 101 102 102 102 101 101 101 99 99 98 96 100 98 98 98 99 99 99 100 100 96 98 99 100 101 101 100 100 99 101 101 100 100 99 99 102 102 102 102 102 101 101 101 101 95 95 98 95 95 98 97 97 97 97 97 98 100 100 101 102 103 101 101 101 102 102 102 102 102 101 103 102 102 101 100 99 98 98 101 100 101 101 101 103 104 104 105 105 105 106 106 106 105 102 103 102 102 102 102 102 102 102 103 104 104 104 104 105 106 106 106 106 105 107 109 111 113 109 109 110 108 111 106 106 109 111 112 113 118 119 119 121 121 121 122 122 122 122 121 122 121 102 -193 104 104 -225 108 -209 -193 -193 -193 106 107 108 107 -193 104 104 105 0 0 0 0 0
    0 0 0 0 0 0 0 0 0 0 0 0 0 0 0 0 0 0 0 0 0 0 0 0 0 0 0 0 0 0 0 0 0 0 0 0 0 0 0 0 0 0 0 0 0 0 0 0 0 0 0 0 0 0 0 0 0 0 0 0 0 0 0 0 0 0 0 0 0 100 100 100 100 100 100 101 100 100 100 101 100 100 101 100 103 101 102 103 103 102 102 102 99 100 98 98 98 97 98 99 98 100 98 103 102 102 102 100 99 98 96 96 93 93 96 96 96 97 102 98 98 100 98 98 98 98 98 92 98 97 92 94 97 95 98 99 98 99 101 102 103 102 104 102 102 101 101 101 100 100 100 97 99 100 102 101 101 102 101 101 101 100 100 98 99 98 95 100 98 99 99 99 99 99 100 101 96 98 99 100 101 101 101 100 100 101 101 101 100 99 100 102 102 102 102 102 101 101 101 101 95 96 99 96 96 99 97 96 97 96 98 100 101 101 102 103 103 101 101 101 102 101 101 102 101 100 103 102 103 102 100 100 99 99 102 101 102 101 102 104 104 105 105 105 105 106 106 107 106 105 105 104 104 103 103 102 102 102 103 104 104 104 104 105 106 106 106 106 105 107 108 111 111 108 108 110 109 112 107 106 110 112 112 114 118 119 119 121 121 121 122 122 123 122 121 122 -193 -193 -209 102 103 -209 -209 -209 -209 -193 -193 108 110 111 110 108 106 107 107 0 0 0 0 0
    0 0 0 0 0 0 0 0 0 0 0 0 0 0 0 0 0 0 0 0 0 0 0 0 0 0 0 0 0 0 0 0 0 0 0 0 0 0 0 0 0 0 0 0 0 0 0 0 0 0 0 0 0 0 0 0 0 0 0 0 0 0 0 0 0 0 0 0 0 101 101 101 101 101 101 101 100 101 101 101 101 101 102 101 103 102 104 104 105 104 104 104 100 101 98 98 98 98 99 99 98 101 99 103 103 103 102 100 100 98 95 96 93 93 96 95 97 98 102 98 98 100 99 98 98 98 98 93 99 99 93 98 100 99 101 101 101 100 102 104 105 104 104 103 102 101 101 101 101 100 100 97 99 100 102 101 101 102 101 101 101 100 100 98 98 97 95 100 98 99 99 99 99 100 100 101 96 99 98 100 100 100 101 100 100 101 101 101 100 100 100 102 102 102 102 102 102 102 102 102 97 100 101 100 100 102 99 99 99 97 98 100 101 101 101 102 102 101 101 101 101 101 101 101 101 100 103 103 104 103 101 101 100 101 103 102 102 101 102 104 105 105 105 105 106 107 107 107 106 106 106 105 105 104 104 102 102 102 103 104 104 105 105 106 107 107 107 106 106 108 109 110 111 108 108 110 109 112 107 107 111 113 113 115 119 119 119 121 121 121 122 122 123 121 121 122 -209 -209 -209 104 106 -209 -193 -193 -193 -193 108 109 112 113 111 109 107 107 107 0 0 0 0 0
    0 0 0 0 0 0 0 0 0 0 0 0 0 0 0 0 0 0 0 0 0 0 0 0 0 0 0 0 0 0 0 0 0 0 0 0 0 0 0 0 0 0 0 0 0 0 0 0 0 0 0 0 0 0 0 0 0 0 0 0 0 0 0 0 0 0 0 0 0 102 101 101 101 101 101 101 101 101 102 102 101 101 102 101 104 104 106 107 107 106 107 107 103 102 100 100 99 98 100 100 99 102 100 105 104 104 103 101 101 100 97 98 95 95 98 96 98 98 103 99 99 100 99 98 99 99 99 93 101 101 98 103 105 105 105 105 105 105 105 107 109 108 108 104 -193 103 102 102 102 101 101 98 100 100 102 101 100 101 101 100 100 100 100 98 98 98 95 101 98 99 99 100 99 100 101 101 96 100 99 100 101 100 101 100 99 101 101 101 101 100 101 103 102 102 102 102 102 102 102 102 99 102 103 102 102 105 102 101 101 100 100 102 102 102 101 103 102 100 101 100 101 100 100 101 100 100 103 103 104 103 102 101 100 101 103 102 102 101 103 104 105 105 105 105 106 107 108 108 106 107 107 107 106 105 105 103 103 102 103 104 104 105 105 106 107 107 108 107 106 109 110 112 113 111 110 111 111 113 108 107 113 114 113 116 119 119 119 120 121 121 121 122 122 119 121 122 -193 106 -193 105 -209 -209 -193 -209 -209 -193 -193 109 112 114 113 110 108 109 108 0 0 0 0 0
    0 0 0 0 0 0 0 0 0 0 0 0 0 0 0 0 0 0 0 0 0 0 0 0 0 0 0 0 0 0 0 0 0 0 0 0 0 0 0 0 0 0 0 0 0 0 0 0 0 0 0 0 0 0 0 0 0 0 0 0 0 0 0 0 0 0 0 0 0 103 102 102 102 102 102 102 102 103 103 103 103 103 104 103 105 107 107 110 109 108 109 109 107 105 102 102 100 99 100 101 100 102 102 105 105 105 105 103 103 102 100 101 100 100 101 101 101 101 104 100 100 101 100 99 99 99 99 94 102 103 102 106 108 108 108 107 108 107 107 109 110 111 110 107 105 104 104 103 103 103 102 100 101 101 102 101 101 101 101 100 100 100 100 99 99 99 98 102 99 100 101 100 101 101 102 102 98 102 100 101 101 100 101 100 100 102 102 102 101 100 102 103 101 101 102 102 102 103 103 103 102 104 105 105 105 107 104 104 103 103 103 104 103 103 101 103 102 100 100 100 100 100 100 101 100 100 103 103 105 104 102 102 101 101 104 102 102 101 103 105 105 105 105 105 107 107 108 108 106 108 108 108 107 106 107 105 104 103 103 104 105 105 106 106 107 108 109 108 108 111 112 114 116 114 113 114 114 115 110 109 115 115 114 117 120 119 119 120 120 120 120 121 121 117 121 121 -209 -209 -209 -209 -209 -209 -193 -193 -209 -209 -209 110 114 115 117 113 110 110 108 0 0 0 0 0
    0 0 0 0 0 0 0 0 0 0 0 0 0 0 0 0 0 0 0 0 0 0 0 0 0 0 0 0 0 0 0 0 0 0 0 0 0 0 0 0 0 0 0 0 0 0 0 0 0 0 0 0 0 0 0 0 0 0 0 0 0 0 0 0 0 0 0 0 0 105 104 -193 -193 103 -193 -193 105 105 106 106 105 105 106 105 106 109 108 112 110 110 110 110 109 108 104 104 101 100 101 101 101 103 103 106 105 106 106 105 105 105 102 103 102 103 104 105 105 104 106 102 103 103 101 100 100 100 100 95 103 104 104 107 108 108 109 108 109 108 108 109 110 111 112 107 106 105 105 105 104 104 103 101 102 102 103 101 101 101 100 100 101 101 101 100 101 101 101 103 101 102 102 102 102 102 104 103 100 104 102 102 102 101 102 101 100 102 102 103 102 101 103 103 102 102 102 103 103 104 104 105 105 106 107 107 106 109 105 106 106 104 104 105 104 103 100 103 101 100 100 100 100 100 100 101 101 102 104 105 107 106 104 105 104 103 105 102 102 102 103 105 105 105 105 105 107 108 108 109 107 110 109 109 108 108 108 107 106 105 104 106 106 107 108 107 109 110 110 109 109 112 114 116 117 116 115 115 115 116 112 112 117 116 115 118 119 118 119 119 119 119 120 120 120 117 121 121 117 119 -193 -209 -209 105 -209 -193 -209 -209 -209 110 115 116 118 114 111 109 107 0 0 0 0 0
    0 0 0 0 0 0 0 0 0 0 0 0 0 0 0 0 0 0 0 0 0 0 0 0 0 0 0 0 0 0 0 0 0 0 0 0 0 0 0 0 0 0 0 0 0 0 0 0 0 0 0 0 0 0 0 0 0 0 0 0 0 0 0 0 0 0 0 0 0 108 -193 -209 -193 -193 108 -193 108 108 109 108 108 107 108 106 107 111 109 113 111 111 111 110 109 109 106 106 103 103 103 103 103 105 106 108 107 108 108 108 108 108 105 105 105 106 106 108 108 107 108 105 105 105 103 103 101 101 101 97 105 107 106 108 108 109 109 109 108 107 107 108 109 111 112 107 107 105 106 106 105 105 105 102 103 102 103 102 101 101 101 100 101 101 103 102 103 103 103 105 103 103 104 104 104 104 105 105 103 105 105 104 104 102 103 102 101 103 103 104 102 102 103 103 102 102 102 103 103 105 105 106 106 107 108 108 107 109 106 107 107 106 106 107 105 104 101 103 101 100 101 101 101 101 101 102 102 104 106 107 109 109 108 108 107 106 108 103 102 102 103 105 104 105 105 105 107 108 108 109 107 111 110 110 109 109 109 109 107 107 104 106 106 108 109 109 110 111 112 111 112 114 115 116 117 116 115 116 115 116 114 114 118 117 116 118 119 118 119 119 119 119 120 120 120 118 121 121 120 120 121 117 113 109 -193 -209 -209 -209 -209 111 115 116 117 114 112 109 107 0 0 0 0 0
    0 0 0 0 0 0 0 0 0 0 0 0 0 0 0 0 0 0 0 0 0 0 0 0 0 0 0 0 0 0 0 0 0 0 0 0 0 0 0 0 0 0 0 0 0 0 0 0 0 0 0 0 0 0 0 0 0 0 0 0 0 0 0 0 0 0 0 0 0 111 110 -193 111 111 111 111 111 110 111 110 110 109 109 108 108 113 110 114 111 111 111 110 110 110 107 108 105 104 104 105 105 106 107 109 109 110 110 110 110 111 107 107 107 108 108 110 110 110 109 108 107 107 106 105 103 103 103 101 107 110 108 110 109 109 110 109 108 107 107 108 109 110 112 107 107 106 107 107 107 106 106 103 105 103 104 103 102 102 102 101 103 103 105 105 106 105 106 107 105 105 106 105 106 105 106 106 105 106 106 105 104 103 104 103 102 104 104 105 104 103 103 103 103 103 103 104 104 107 107 107 107 107 109 109 108 110 107 107 107 106 106 108 105 105 102 104 101 101 101 101 101 101 101 102 103 105 107 109 110 111 111 111 110 108 111 104 103 102 103 104 104 104 104 104 107 109 109 110 108 112 110 110 109 110 108 109 107 107 104 106 106 109 110 109 112 113 113 112 113 115 116 116 117 115 114 114 114 115 115 116 119 117 117 119 120 120 120 120 120 120 121 121 121 119 121 121 120 119 119 117 114 112 109 107 105 -193 110 112 115 116 117 114 113 110 108 0 0 0 0 0
    0 0 0 0 0 0 0 0 0 0 0 0 0 0 0 0 0 0 0 0 0 0 0 0 0 0 0 0 0 0 0 0 0 0 0 0 0 0 0 0 0 0 0 0 0 0 0 0 0 0 0 0 0 0 0 0 0 0 0 0 0 0 0 0 0 0 0 0 0 112 111 -193 114 113 114 114 114 111 113 112 111 110 110 110 110 114 111 115 111 111 112 111 110 110 108 109 -193 105 105 106 106 107 108 109 109 110 111 111 110 112 108 108 109 111 109 112 112 112 111 110 109 109 108 108 106 105 105 106 110 113 110 110 109 109 109 109 108 107 106 107 109 110 112 108 108 107 108 108 108 107 107 104 106 105 105 105 105 104 104 104 105 106 106 107 107 106 107 108 106 105 107 107 107 107 107 107 106 107 108 106 106 105 106 105 104 105 106 106 106 106 106 106 105 105 105 106 105 110 108 108 108 108 109 110 109 110 107 107 107 106 107 108 106 105 103 104 102 102 102 101 101 102 102 103 105 107 109 111 112 112 112 112 111 109 112 106 104 103 103 104 104 104 104 104 107 110 109 110 109 112 110 110 110 111 108 110 108 109 105 109 108 112 112 111 113 114 114 113 114 115 116 117 117 116 114 115 115 116 117 117 119 118 118 120 120 121 121 121 121 121 121 121 120 120 120 120 118 118 117 118 115 117 113 110 111 -193 114 114 115 115 114 112 111 109 108 0 0 0 0 0
    0 0 0 0 0 0 0 0 0 0 0 0 0 0 0 0 0 0 0 0 0 0 0 0 0 0 0 0 0 0 0 0 0 0 0 0 0 0 0 0 0 0 0 0 0 0 0 0 0 0 0 0 0 0 0 0 0 0 0 0 0 0 0 0 0 0 0 0 0 114 113 -193 -209 115 115 -193 114 112 113 112 111 109 110 111 111 115 111 115 112 112 112 111 110 110 108 109 106 107 106 107 107 107 109 109 109 110 110 111 111 113 110 110 110 112 111 114 113 113 112 111 111 111 110 110 108 107 107 108 112 114 111 111 109 109 109 108 108 106 106 106 107 109 112 109 109 108 109 109 110 109 108 106 107 107 108 108 108 106 106 106 108 108 108 108 108 108 108 109 107 106 108 108 109 108 108 108 107 109 109 107 106 106 106 105 105 106 106 108 107 107 107 108 108 107 107 108 107 112 110 110 109 110 111 111 110 111 107 107 107 106 107 108 106 106 104 105 103 102 102 101 102 102 103 104 107 108 110 112 112 112 112 113 111 109 113 108 105 105 104 105 104 105 105 105 107 111 109 110 109 112 110 111 110 111 108 110 109 111 108 117 117 118 118 117 117 118 117 116 116 116 117 118 118 117 115 116 116 117 118 118 119 118 119 121 121 121 121 121 121 121 121 121 120 119 120 119 118 118 117 118 116 120 120 112 118 -193 -193 115 115 115 109 108 109 106 106 0 0 0 0 0
    0 0 0 0 0 0 0 0 0 0 0 0 0 0 0 0 0 0 0 0 0 0 0 0 0 0 0 0 0 0 0 0 0 0 0 0 0 0 0 0 0 0 0 0 0 0 0 0 0 0 0 0 0 0 0 0 0 0 0 0 0 0 0 0 0 0 0 0 0 116 -193 -209 -209 118 117 -193 116 112 114 114 112 110 110 110 110 116 112 116 112 111 112 111 111 110 109 110 106 108 108 -193 -193 -209 108 109 108 109 -193 -193 109 111 110 110 111 114 112 115 114 114 112 112 112 112 111 112 110 110 110 112 115 116 113 112 109 109 109 108 108 106 105 106 107 109 112 110 110 109 111 110 112 111 110 108 109 109 111 111 110 108 108 109 110 110 109 109 109 109 110 109 108 107 109 110 110 110 109 109 109 111 110 108 106 106 106 106 105 106 106 109 109 109 109 110 110 110 110 111 109 113 111 111 110 111 111 111 110 111 107 108 108 108 109 110 109 108 105 106 104 103 102 102 102 103 104 106 109 109 112 113 113 112 113 113 111 109 113 109 106 106 106 107 106 106 106 106 107 112 110 111 109 112 110 111 110 111 108 111 110 114 112 120 120 122 123 122 122 122 120 119 119 119 120 120 121 121 119 120 120 121 120 118 119 118 119 121 120 121 121 121 121 120 121 120 118 119 119 119 118 119 118 119 117 121 -209 -209 -209 -209 -209 -209 -209 -209 -209 107 111 102 102 0 0 0 0 0
    0 0 0 0 0 0 0 0 0 0 0 0 0 0 0 0 0 0 0 0 0 0 0 0 0 0 0 0 0 0 0 0 0 0 0 0 0 0 0 0 0 0 0 0 0 0 0 0 0 0 0 0 0 0 0 0 0 0 0 0 0 0 0 0 0 0 0 0 0 118 -209 -209 -209 -209 -209 -209 -209 -193 113 114 113 109 109 109 110 117 112 116 112 111 112 112 111 111 109 110 -193 108 -193 -193 -177 -177 -193 -193 -209 -193 500 -193 -193 -193 109 110 112 115 112 115 114 114 112 112 111 111 110 112 110 110 111 114 117 117 114 113 110 110 109 108 108 106 105 105 106 107 111 109 110 109 111 111 113 113 112 110 112 111 113 113 113 111 110 111 111 110 110 110 110 109 110 110 108 107 110 111 112 111 110 109 110 112 111 108 106 106 106 106 106 107 107 110 110 111 111 113 113 113 113 114 111 115 112 112 111 111 112 112 111 112 108 109 109 109 111 112 111 111 107 107 105 104 103 102 103 104 104 108 111 110 112 114 113 113 113 113 111 110 113 109 107 107 107 108 107 107 107 107 108 113 110 111 110 111 111 111 111 111 108 112 111 115 114 121 121 123 124 124 124 125 122 122 121 121 121 122 123 123 -193 125 122 126 129 120 119 119 120 122 120 121 121 121 121 120 120 120 118 120 120 119 118 119 119 120 -209 -209 -193 -209 -209 -193 -209 14 17 19 24 -209 -209 -209 -209 0 0 0 0 0
    0 0 0 0 0 0 0 0 0 0 0 0 0 0 0 0 0 0 0 0 0 0 0 0 0 0 0 0 0 0 0 0 0 0 0 0 0 0 0 0 0 0 0 0 0 0 0 0 0 0 0 0 0 0 0 0 0 0 0 0 0 0 0 0 0 0 0 0 0 -193 -209 -209 -209 -209 -209 -209 -209 -209 -209 -209 -209 -209 -209 -209 -209 -193 110 116 112 111 113 112 112 111 109 111 -193 -209 -209 -177 -177 -177 -177 -193 -193 496 501 503 502 -193 -209 107 -193 -209 -209 -209 -193 -209 -209 -209 -193 -193 109 111 109 110 111 115 118 118 116 115 110 110 109 108 107 105 104 103 104 105 109 108 109 108 109 110 112 113 112 110 113 113 116 116 115 113 113 112 112 111 110 109 110 109 110 109 108 107 111 111 112 111 109 109 109 112 111 -193 107 107 106 106 106 107 107 110 110 111 110 113 113 114 114 116 112 116 113 113 112 112 112 113 111 112 108 110 109 109 111 112 111 111 108 -193 106 105 104 103 103 105 105 108 112 111 113 114 113 113 113 113 112 110 112 110 107 108 107 107 106 107 107 107 108 113 110 111 110 111 111 111 111 111 108 112 111 114 115 121 121 122 124 125 125 126 123 123 122 121 121 122 125 125 125 133 127 133 137 133 132 -193 127 125 122 122 121 121 121 121 120 120 117 120 120 120 119 120 -193 -209 -209 -209 149 163 -209 160 -193 -193 18 18 23 -193 -209 -209 -209 0 0 0 0 0
    0 0 0 0 0 0 0 0 0 0 0 0 0 0 0 0 0 0 0 0 0 0 0 0 0 0 0 0 0 0 0 0 0 0 0 0 0 0 0 0 0 0 0 0 0 0 0 0 0 0 0 0 0 0 0 0 0 0 0 0 0 0 0 0 0 0 0 0 0 -193 -209 -209 141 -209 159 165 167 -193 -193 -209 -209 -209 170 -193 -209 -209 -209 -193 -193 -193 112 113 112 -193 -193 -193 556 -209 -177 -177 -177 -177 -209 -209 498 498 500 502 502 502 -209 -209 -209 158 164 -209 -209 -209 -209 -177 254 257 -193 110 -193 108 110 116 118 119 117 115 109 109 -193 -209 -209 103 101 98 101 104 107 106 108 107 108 110 114 114 114 114 116 116 -193 -209 -209 -193 -193 -193 113 112 110 109 110 111 109 108 108 107 111 114 113 111 109 109 109 113 -193 -209 -209 -209 -209 -209 -209 -209 106 109 110 111 110 113 114 115 116 117 114 116 113 114 113 112 112 113 112 112 108 110 108 108 111 113 111 -193 -209 -209 -193 -193 -193 104 104 106 106 111 114 112 114 115 114 113 114 114 112 110 113 111 108 109 110 108 108 108 109 108 108 115 111 112 111 111 111 111 111 111 107 110 109 112 114 120 120 122 123 125 125 127 123 125 123 123 122 123 127 129 130 136 133 135 138 137 -193 123 135 128 124 123 123 122 121 121 120 120 117 120 120 120 120 -209 162 -209 -209 -209 151 163 165 164 168 -193 -193 17 23 -193 -209 -209 -209 0 0 0 0 0
    0 0 0 0 0 0 0 0 0 0 0 0 0 0 0 0 0 0 0 0 0 0 0 0 0 0 0 0 0 0 0 0 0 0 0 0 0 0 0 0 0 0 0 0 0 0 0 0 0 0 0 0 0 0 0 0 0 0 0 0 0 0 0 0 0 0 0 0 0 -209 155 -193 152 157 161 165 166 166 168 -193 -209 -193 169 171 -209 -209 -209 -209 -209 -209 -193 -193 113 -209 557 555 555 -209 -209 -177 -177 -193 -209 -209 499 499 500 502 -193 -193 -193 -193 158 158 162 165 168 -209 -209 -177 -177 -177 258 -209 -209 -209 -209 -209 -209 -209 -209 -209 -193 -209 -209 -209 -209 -209 -193 -193 -209 -209 -209 -209 -209 -209 -209 -209 -209 -209 115 118 -209 -209 -209 -209 -209 -209 -209 -193 -209 -209 -209 109 -193 -193 -209 -209 108 108 113 117 116 113 -193 -193 108 -209 -209 -209 -209 -209 -209 -209 -209 -209 -209 108 111 112 112 113 114 116 117 118 115 116 114 114 113 113 113 114 113 113 109 110 -209 -193 -209 -193 -193 -209 -209 -209 -209 -209 -209 -209 -209 -209 -193 111 115 112 114 115 115 114 113 113 112 111 113 112 -193 -193 -193 -209 -209 -209 -193 -193 108 116 111 112 112 111 111 111 111 111 107 111 110 112 115 120 121 123 126 127 126 129 124 127 125 124 123 124 129 132 134 137 135 136 138 138 139 -193 138 131 129 128 127 126 124 124 122 120 118 119 120 120 -177 -209 165 169 169 -209 156 167 167 167 169 -193 -193 -193 -193 -209 -209 -209 -209 0 0 0 0 0
    0 0 0 0 0 0 0 0 0 0 0 0 0 0 0 0 0 0 0 0 0 0 0 0 0 0 0 0 0 0 0 0 0 0 0 0 0 0 0 0 0 0 0 0 0 0 0 0 0 0 0 0 0 0 0 0 0 0 0 0 0 0 0 0 0 0 0 0 0 -193 160 158 156 160 162 164 165 165 167 -193 -193 -193 168 169 -193 -193 -193 -193 164 -193 -209 -209 -209 -209 553 -177 -209 -209 -209 -193 -193 -193 165 -209 498 498 -193 -193 -193 -193 -193 159 158 158 161 163 167 -209 -209 -193 -193 -193 -177 -209 -209 -209 -193 -193 157 156 156 160 -209 -209 -209 -209 -209 -209 -209 -209 -209 -209 -209 -193 -209 -209 -209 -209 -209 -209 -209 -209 -209 -193 -209 -193 -193 -209 -193 166 166 166 -209 -209 162 160 158 161 -209 -209 116 -209 -209 -209 -209 -209 -209 -209 -209 -209 -209 -209 -209 -209 -209 -209 -209 -209 109 -193 112 113 113 115 116 118 115 115 113 114 112 112 113 114 115 115 115 -209 -193 156 158 161 165 167 168 -209 -209 -209 -209 -209 -209 -209 -209 -209 -209 113 115 116 116 114 112 113 113 -193 -193 -209 -209 163 163 162 162 159 162 -193 -193 116 111 111 111 110 111 112 111 111 107 111 111 114 118 121 121 127 133 133 131 133 128 131 129 127 124 124 131 134 135 137 136 135 138 137 139 -193 139 132 131 132 133 131 128 127 123 122 -193 -193 -209 -209 -209 164 166 169 169 169 166 167 168 167 170 169 168 -193 -209 -209 -209 -209 -209 0 0 0 0 0
    0 0 0 0 0 0 0 0 0 0 0 0 0 0 0 0 0 0 0 0 0 0 0 0 0 0 0 0 0 0 0 0 0 0 0 0 0 0 0 0 0 0 0 0 0 0 0 0 0 0 0 0 0 0 0 0 0 0 0 0 0 0 0 0 0 0 0 0 0 163 161 158 157 161 162 164 165 165 166 -193 -193 -193 167 -193 -193 -193 164 163 162 163 163 -193 -193 159 -193 -193 165 -193 165 165 165 164 165 165 -193 -193 162 163 161 161 164 162 161 160 160 163 165 166 166 -193 -209 -193 -193 -193 -193 165 164 162 158 157 156 160 -209 -209 -193 -209 -209 -209 -209 -209 -209 -209 -209 -209 -209 162 160 -193 157 159 157 158 160 161 -193 -193 166 167 168 166 167 166 166 164 163 162 162 163 165 165 161 156 157 161 -193 -193 -209 -193 159 162 -193 -209 162 -193 -193 -209 -209 -209 -209 -209 112 112 111 113 115 118 -193 114 113 114 112 113 113 116 -209 -209 -209 -193 157 162 162 162 164 164 166 169 -209 -209 -209 -209 -209 -209 -209 -209 -209 -209 -209 -209 -209 -209 -193 -193 -193 -177 -193 -193 166 164 164 164 165 164 165 164 165 -209 111 110 110 108 109 111 110 110 107 109 113 114 119 122 122 132 137 138 135 -209 -209 -209 -209 -209 128 126 132 135 136 137 136 135 138 138 139 -193 140 130 133 134 135 132 131 129 -177 -177 153 161 168 168 168 166 166 168 168 168 167 168 168 168 170 170 169 170 -209 -193 -193 -193 -193 0 0 0 0 0
    0 0 0 0 0 0 0 0 0 0 0 0 0 0 0 0 0 0 0 0 0 0 0 0 0 0 0 0 0 0 0 0 0 0 0 0 0 0 0 0 0 0 0 0 0 0 0 0 0 0 0 0 0 0 0 0 0 0 0 0 0 0 0 0 0 0 0 0 0 164 162 159 158 163 163 164 165 165 166 -193 -193 -193 166 167 -193 -193 163 162 162 162 162 160 159 159 163 163 165 165 164 165 165 164 165 164 164 163 163 164 163 163 166 164 164 162 162 164 164 165 165 165 165 166 166 165 165 164 163 161 159 157 155 159 -193 -209 -193 -209 -209 -209 -209 -209 -209 -209 161 161 161 163 162 163 160 161 158 160 162 162 162 164 165 167 167 166 166 166 166 164 164 163 163 164 165 165 163 160 161 164 162 164 165 163 162 164 -193 -193 163 163 162 160 162 -193 -193 -193 -193 110 110 110 112 -193 -193 -193 113 -193 -193 -209 -209 -209 163 161 155 155 160 165 164 163 165 164 166 169 -193 -209 -209 -209 -209 -209 -209 -209 -209 168 -209 -193 -209 -209 -209 -193 -193 -209 -209 166 167 166 165 165 166 165 165 164 165 -193 -209 -193 109 107 108 111 108 109 108 109 114 116 120 121 124 134 140 148 -193 -209 167 -209 164 -209 -209 130 135 138 139 138 138 137 140 142 144 140 146 -209 138 140 140 -209 -193 135 -209 -193 156 164 168 168 168 166 166 168 168 168 167 167 168 168 169 170 169 170 169 171 172 171 -193 0 0 0 0 0
    0 0 0 0 0 0 0 0 0 0 0 0 0 0 0 0 0 0 0 0 0 0 0 0 0 0 0 0 0 0 0 0 0 0 0 0 0 0 0 0 0 0 0 0 0 0 0 0 0 0 0 0 0 0 0 0 0 0 0 0 0 0 0 0 0 0 0 0 0 164 163 159 158 164 163 164 165 165 166 166 166 166 166 167 -193 165 164 163 163 163 163 161 160 160 163 163 165 165 164 165 165 164 165 164 164 164 163 165 164 164 166 166 166 165 164 165 166 166 165 165 165 166 166 165 165 164 162 162 159 158 155 159 161 -193 160 162 161 163 162 163 161 165 162 163 162 164 162 163 161 162 159 161 162 163 162 165 166 167 166 166 166 165 165 164 164 163 163 164 165 165 164 162 164 165 163 164 165 163 163 164 165 162 163 163 162 161 162 163 162 162 165 -193 -193 -209 -193 -209 163 -193 -193 167 170 167 168 166 165 165 160 161 166 167 165 163 165 163 165 168 168 167 167 172 -209 -209 -193 -209 167 167 167 166 166 166 167 166 166 167 167 166 167 166 165 165 165 165 165 163 165 165 -193 -193 157 159 -193 -193 -193 108 109 106 110 114 119 120 126 139 153 158 161 163 165 166 165 164 162 -193 140 146 146 140 141 141 145 149 151 146 152 -209 -193 151 153 152 149 146 154 155 160 165 168 168 168 166 166 167 168 168 167 167 167 167 169 170 169 170 169 170 171 171 171 0 0 0 0 0
    0 0 0 0 0 0 0 0 0 0 0 0 0 0 0 0 0 0 0 0 0 0 0 0 0 0 0 0 0 0 0 0 0 0 0 0 0 0 0 0 0 0 0 0 0 0 0 0 0 0 0 0 0 0 0 0 0 0 0 0 0 0 0 0 0 0 0 0 0 164 163 160 159 165 164 165 165 165 166 166 166 166 166 167 166 165 165 164 164 165 164 163 162 162 164 164 165 165 163 164 165 164 164 163 163 164 163 165 165 164 167 167 167 166 165 166 167 166 165 165 165 166 165 165 164 164 162 162 159 160 156 160 162 159 160 162 161 162 161 163 162 165 162 163 162 164 162 163 162 162 159 162 163 164 163 166 167 167 166 165 165 165 165 164 163 162 163 163 164 164 163 162 164 165 164 165 165 164 163 164 165 162 163 163 162 162 163 164 163 163 165 162 166 166 167 167 165 165 166 168 169 168 169 168 167 168 166 166 168 168 164 162 163 162 164 166 166 165 165 169 168 166 167 168 166 166 166 166 165 165 166 166 164 166 166 165 165 166 165 164 164 164 164 162 164 164 161 162 160 162 162 162 163 -193 -193 -193 -209 -209 -209 -209 -193 152 161 163 165 165 166 167 166 166 165 160 155 153 152 145 146 147 150 152 154 -193 155 -193 155 155 157 156 155 156 160 163 166 167 168 168 168 167 166 167 167 167 167 166 167 166 169 170 168 170 169 171 172 172 173 0 0 0 0 0
    0 0 0 0 0 0 0 0 0 0 0 0 0 0 0 0 0 0 0 0 0 0 0 0 0 0 0 0 0 0 0 0 0 0 0 0 0 0 0 0 0 0 0 0 0 0 0 0 0 0 0 0 0 0 0 0 0 0 0 0 0 0 0 0 0 0 0 0 0 164 164 160 160 165 165 165 165 165 166 166 166 166 165 167 166 166 165 165 165 165 165 164 164 164 165 165 165 165 164 164 165 164 164 163 163 164 163 164 164 164 166 166 166 165 164 165 166 166 165 165 165 165 165 165 164 164 162 162 160 161 158 161 161 159 159 161 161 162 161 163 162 165 162 162 162 163 162 163 162 162 159 163 164 164 163 167 167 167 167 165 165 165 165 164 163 162 162 163 164 164 163 163 165 165 164 165 165 164 164 164 164 162 163 163 162 162 163 164 163 164 165 162 166 166 167 167 166 166 167 168 169 168 169 167 167 167 165 165 166 166 163 163 163 162 163 165 165 165 164 167 167 166 167 167 165 166 166 165 165 165 166 165 163 165 165 163 164 165 164 163 163 162 163 161 162 162 161 163 162 163 164 164 165 164 163 163 164 162 159 161 157 163 166 166 166 167 167 167 166 167 167 165 166 163 161 -193 152 152 154 154 161 159 159 159 159 163 166 166 166 166 168 168 169 169 171 169 168 167 166 167 167 167 166 166 166 166 168 170 169 170 170 172 172 173 174 0 0 0 0 0
    0 0 0 0 0 0 0 0 0 0 0 0 0 0 0 0 0 0 0 0 0 0 0 0 0 0 0 0 0 0 0 0 0 0 0 0 0 0 0 0 0 0 0 0 0 0 0 0 0 0 0 0 0 0 0 0 0 0 0 0 0 0 0 0 0 0 0 0 0 164 164 161 160 165 165 165 165 165 165 166 166 166 165 166 166 166 166 165 165 166 165 165 165 165 165 165 165 166 164 164 165 164 164 163 163 164 163 164 165 163 165 166 166 165 163 164 165 165 164 165 164 164 163 164 164 164 162 163 161 163 160 163 162 161 160 162 162 162 161 163 162 165 162 162 162 163 162 163 161 162 159 162 163 163 162 167 167 167 167 166 165 165 165 164 163 162 162 162 163 164 163 163 165 165 164 165 165 164 164 165 165 163 164 163 162 162 163 163 163 163 165 162 166 166 166 167 166 166 167 167 169 167 169 168 167 167 166 165 166 166 164 163 162 162 163 164 164 164 163 165 165 165 166 167 165 165 165 165 165 165 165 164 163 164 164 162 164 165 164 163 163 163 163 161 163 163 162 163 163 164 164 165 165 165 164 164 164 164 163 164 163 167 168 166 167 167 167 167 166 166 166 165 167 164 164 167 162 162 163 164 167 166 167 168 169 170 173 173 173 174 173 173 172 170 173 169 169 167 167 167 167 167 166 165 166 166 168 170 169 170 170 172 173 174 174 0 0 0 0 0
    0 0 0 0 0 0 0 0 0 0 0 0 0 0 0 0 0 0 0 0 0 0 0 0 0 0 0 0 0 0 0 0 0 0 0 0 0 0 0 0 0 0 0 0 0 0 0 0 0 0 0 0 0 0 0 0 0 0 0 0 0 0 0 0 0 0 0 0 0 164 164 161 161 165 165 165 165 165 165 165 165 165 165 166 166 166 165 166 165 166 166 165 165 165 164 164 164 165 163 164 165 164 163 163 163 164 163 164 165 163 165 166 166 166 164 164 166 166 164 165 163 164 163 164 164 164 162 163 162 164 161 164 164 162 161 163 163 162 161 163 162 165 163 162 162 163 162 163 161 161 159 161 162 163 160 166 167 167 166 165 165 165 165 164 163 162 162 162 163 163 163 163 165 164 164 165 165 164 165 165 165 163 164 163 163 162 163 163 162 163 164 161 165 165 165 165 166 165 166 166 167 166 168 167 167 166 166 165 166 166 164 163 163 162 163 164 164 164 163 164 165 165 166 166 165 165 165 165 165 164 165 164 162 164 164 163 165 166 165 165 165 165 165 164 164 164 163 164 164 164 164 164 164 164 163 163 164 164 163 164 164 167 168 166 167 167 166 167 166 166 166 165 167 165 165 167 165 165 165 166 168 167 168 169 171 171 172 173 172 173 172 171 170 169 171 168 168 167 166 167 167 167 166 165 166 166 169 170 169 170 170 173 174 177 178 0 0 0 0 0
    0 0 0 0 0 0 0 0 0 0 0 0 0 0 0 0 0 0 0 0 0 0 0 0 0 0 0 0 0 0 0 0 0 0 0 0 0 0 0 0 0 0 0 0 0 0 0 0 0 0 0 0 0 0 0 0 0 0 0 0 0 0 0 0 0 0 0 0 0 164 164 162 162 166 166 165 165 166 165 165 165 165 164 165 165 165 165 166 166 167 166 166 165 165 163 164 163 165 162 163 165 164 163 163 163 164 164 164 165 163 165 166 167 166 165 165 166 167 165 165 164 164 163 164 164 165 163 164 162 165 162 164 164 162 162 164 163 163 162 163 163 165 163 162 162 163 162 163 162 162 159 162 163 163 159 166 166 166 166 164 164 164 164 164 163 162 162 162 164 164 163 163 165 164 164 164 164 164 164 165 164 162 164 163 163 162 163 162 162 162 163 160 164 164 165 164 165 164 166 165 166 165 166 166 167 166 165 164 166 166 164 164 163 163 163 164 165 164 164 164 165 164 166 166 164 164 165 164 164 164 165 164 162 164 165 164 167 167 166 166 166 166 166 165 165 165 164 164 164 164 164 164 164 164 163 163 164 164 163 164 164 168 168 166 167 167 166 167 166 166 166 164 167 166 165 166 165 167 167 167 168 168 168 169 171 171 171 172 171 172 171 170 169 168 170 168 168 167 166 167 167 167 165 164 166 165 168 171 170 170 171 175 179 181 183 0 0 0 0 0
    0 0 0 0 0 0 0 0 0 0 0 0 0 0 0 0 0 0 0 0 0 0 0 0 0 0 0 0 0 0 0 0 0 0 0 0 0 0 0 0 0 0 0 0 0 0 0 0 0 0 0 0 0 0 0 0 0 0 0 0 0 0 0 0 0 0 0 0 0 164 164 162 163 166 167 166 166 166 165 165 165 164 163 164 164 165 164 165 165 167 166 165 165 165 163 163 161 164 161 162 164 163 162 162 163 164 163 164 165 163 165 166 167 166 165 165 166 166 164 165 164 164 163 164 164 165 162 164 162 165 163 164 164 163 163 164 164 163 163 163 163 165 163 162 162 163 163 163 162 162 160 162 163 164 159 167 166 166 166 164 164 164 164 164 163 162 162 163 165 164 163 164 165 164 164 164 164 163 164 165 164 162 164 163 162 161 162 162 161 161 162 159 163 163 164 163 164 163 165 164 165 164 166 165 166 165 165 164 166 166 165 164 164 164 164 165 165 164 164 164 164 164 166 166 164 164 164 163 164 163 164 163 162 165 165 165 168 168 167 167 167 166 167 165 165 165 164 164 164 164 164 164 163 164 163 163 164 164 164 165 165 168 168 167 167 167 166 167 166 166 165 164 166 165 165 166 165 168 167 168 168 168 168 169 170 171 171 171 170 171 169 169 168 168 168 167 167 167 166 167 167 167 166 165 167 166 168 171 170 170 173 179 182 184 185 0 0 0 0 0
    0 0 0 0 0 0 0 0 0 0 0 0 0 0 0 0 0 0 0 0 0 0 0 0 0 0 0 0 0 0 0 0 0 0 0 0 0 0 0 0 0 0 0 0 0 0 0 0 0 0 0 0 0 0 0 0 0 0 0 0 0 0 0 0 0 0 0 0 0 165 164 163 164 167 167 166 166 166 165 165 165 164 163 163 164 164 163 165 -193 -193 166 165 165 165 163 163 161 164 161 162 164 163 162 162 162 164 163 164 165 162 164 166 166 166 163 163 164 164 162 164 162 164 162 163 163 165 162 164 163 165 163 165 165 164 163 165 164 163 162 163 163 165 163 162 162 163 163 163 163 163 160 163 164 164 160 167 167 166 166 163 163 164 164 164 163 162 162 163 165 164 164 164 165 164 164 165 164 164 165 165 164 163 164 163 162 161 162 161 160 161 162 159 162 162 163 162 163 162 164 163 165 163 165 164 166 165 166 164 167 166 165 165 164 164 164 164 165 164 164 164 164 164 165 165 164 164 164 163 164 164 164 163 163 164 166 165 168 168 167 167 167 166 167 165 165 164 164 164 164 164 164 164 162 163 162 163 164 165 164 165 165 168 168 167 168 167 167 167 166 167 166 165 167 166 165 167 166 168 168 168 168 169 169 169 170 170 170 170 169 169 168 168 167 167 167 166 166 166 166 166 166 167 165 165 167 167 168 171 171 172 176 182 185 186 187 0 0 0 0 0
    0 0 0 0 0 0 0 0 0 0 0 0 0 0 0 0 0 0 0 0 0 0 0 0 0 0 0 0 0 0 0 0 0 0 0 0 0 0 0 0 0 0 0 0 0 0 0 0 0 0 0 0 0 0 0 0 0 0 0 0 0 0 0 0 0 0 0 0 0 165 165 164 165 167 168 166 166 166 164 165 164 164 163 162 163 164 162 165 -193 -193 165 -193 -193 164 162 163 161 164 162 162 165 163 163 162 162 164 163 163 164 161 162 164 164 165 162 161 162 161 160 163 161 163 161 162 163 165 163 165 164 166 164 165 165 164 164 165 165 163 162 163 163 165 163 162 162 162 162 162 163 163 159 163 164 164 160 167 166 165 165 163 163 164 163 163 163 162 163 164 165 164 164 165 165 164 164 165 164 164 164 165 163 162 164 162 162 161 162 161 160 161 161 159 162 162 163 161 163 161 164 163 165 163 165 164 166 166 166 164 166 165 165 165 164 163 163 164 164 164 164 163 163 163 165 165 164 164 164 163 163 164 164 162 162 164 165 164 167 167 167 167 167 167 167 165 165 164 164 164 164 164 164 164 161 163 162 163 164 164 164 165 165 168 168 167 168 167 167 167 167 167 166 166 167 166 167 169 168 169 169 169 169 170 170 170 170 171 170 170 169 168 167 167 166 167 166 165 166 166 165 166 166 166 164 166 168 169 169 172 173 174 178 182 186 187 187 0 0 0 0 0
    0 0 0 0 0 0 0 0 0 0 0 0 0 0 0 0 0 0 0 0 0 0 0 0 0 0 0 0 0 0 0 0 0 0 0 0 0 0 0 0 0 0 0 0 0 0 0 0 0 0 0 0 0 0 0 0 0 0 0 0 0 0 0 0 0 0 0 0 0 165 165 164 165 167 169 166 165 166 164 164 164 163 162 160 162 163 161 164 164 165 164 -193 -193 164 161 164 161 164 163 163 165 164 163 163 163 164 163 163 163 160 160 162 163 163 160 158 159 157 158 158 157 161 158 159 -193 166 164 165 165 166 165 166 166 165 164 166 166 164 163 164 163 166 163 162 162 162 163 162 163 163 159 163 164 163 161 166 166 164 165 163 163 164 164 164 163 163 163 164 165 164 164 165 165 164 164 164 163 163 164 165 163 162 164 162 162 162 162 161 160 161 161 159 162 162 162 161 162 161 164 163 164 163 165 165 167 166 166 164 166 165 165 165 164 164 163 164 164 163 164 163 162 163 165 164 164 163 164 162 163 164 164 160 162 163 164 163 166 166 167 167 167 167 168 166 166 165 165 164 164 164 164 164 161 163 162 163 164 164 163 164 165 168 167 167 167 167 167 167 167 167 166 167 168 167 167 169 168 170 169 169 169 170 169 169 169 170 169 169 168 167 166 167 166 167 166 165 165 166 165 166 166 166 164 168 169 170 169 172 174 174 179 183 187 187 188 0 0 0 0 0
    0 0 0 0 0 0 0 0 0 0 0 0 0 0 0 0 0 0 0 0 0 0 0 0 0 0 0 0 0 0 0 0 0 0 0 0 0 0 0 0 0 0 0 0 0 0 0 0 0 0 0 0 0 0 0 0 0 0 0 0 0 0 0 0 0 0 0 0 0 165 165 164 164 166 169 166 164 165 164 164 163 162 162 159 160 163 159 162 161 163 161 161 162 162 160 163 161 165 163 163 165 164 164 163 163 164 163 163 163 159 159 162 162 163 161 158 159 157 157 156 155 159 157 -193 -193 -193 164 165 165 166 165 166 166 165 165 166 166 164 164 164 163 166 163 162 163 163 163 162 163 163 159 162 163 162 160 164 165 164 164 163 164 164 164 165 164 164 165 166 166 164 165 165 165 164 164 164 163 163 164 164 162 162 164 162 162 162 162 161 160 161 161 159 162 162 162 161 162 161 164 163 164 163 165 165 167 166 166 164 167 166 166 166 164 164 164 164 165 164 164 163 162 163 166 164 164 163 164 162 163 164 163 160 162 162 164 163 166 166 166 167 167 168 167 166 166 165 165 164 164 164 163 164 161 164 162 163 164 164 164 165 165 168 167 166 167 166 166 166 166 166 165 166 167 167 167 169 169 170 169 169 169 170 168 167 166 167 166 166 166 166 165 166 166 167 165 165 165 165 165 166 166 166 165 169 170 171 170 172 174 174 178 183 187 187 188 0 0 0 0 0
    0 0 0 0 0 0 0 0 0 0 0 0 0 0 0 0 0 0 0 0 0 0 0 0 0 0 0 0 0 0 0 0 0 0 0 0 0 0 0 0 0 0 0 0 0 0 0 0 0 0 0 0 0 0 0 0 0 0 0 0 0 0 0 0 0 0 0 0 0 164 165 164 164 165 168 165 164 164 163 163 163 162 162 159 160 161 158 159 158 160 158 158 159 160 158 161 160 164 163 164 166 165 164 164 164 164 163 163 163 159 160 162 163 163 162 159 160 158 158 -193 -193 -193 -193 -209 -193 -193 164 165 165 166 165 166 166 165 165 165 166 164 164 164 163 166 163 162 163 163 163 162 163 163 159 162 163 161 160 163 164 162 163 162 163 164 164 165 164 164 166 167 166 164 164 165 164 163 164 163 162 163 164 164 162 163 164 162 162 162 162 161 160 161 160 159 162 162 162 161 162 162 164 163 164 163 165 165 167 166 166 165 167 166 167 166 165 164 164 164 165 163 164 162 161 163 166 164 164 163 163 162 162 163 163 159 162 162 164 163 166 165 166 167 167 167 167 166 166 164 165 164 164 163 163 164 161 163 162 163 164 164 164 165 165 167 166 166 166 166 166 166 166 166 165 166 166 166 167 169 169 170 169 169 169 170 167 166 164 166 164 165 165 165 164 166 166 166 165 165 164 165 165 166 166 166 165 169 171 172 171 173 176 177 180 183 186 186 187 0 0 0 0 0
    0 0 0 0 0 0 0 0 0 0 0 0 0 0 0 0 0 0 0 0 0 0 0 0 0 0 0 0 0 0 0 0 0 0 0 0 0 0 0 0 0 0 0 0 0 0 0 0 0 0 0 0 0 0 0 0 0 0 0 0 0 0 0 0 0 0 0 0 0 164 164 164 164 165 167 165 164 165 164 164 164 163 163 158 159 160 157 158 157 158 156 157 159 158 158 161 160 164 163 164 166 165 164 164 164 164 164 164 164 160 161 164 165 165 163 160 161 159 158 -193 -209 -193 -193 -193 -193 163 164 165 165 166 164 166 165 165 165 165 165 164 163 164 163 167 163 163 163 163 163 163 163 163 159 163 163 161 161 162 163 161 161 160 162 163 163 165 164 164 166 166 166 163 164 165 163 163 163 163 162 163 164 164 161 163 164 161 162 161 161 161 160 161 160 159 162 161 162 160 162 161 164 163 163 163 164 164 166 166 166 165 167 167 167 166 165 165 165 165 165 164 164 163 161 164 166 164 164 163 163 162 162 163 162 159 161 161 163 163 165 165 165 166 167 167 166 165 165 164 165 164 163 163 162 163 161 163 161 163 163 164 164 164 164 167 166 166 166 166 165 165 165 165 164 166 166 166 167 169 170 170 169 169 169 170 166 164 162 164 162 163 163 163 163 165 166 166 165 165 165 165 166 166 166 166 166 170 172 173 172 174 179 180 181 183 185 185 186 0 0 0 0 0
    0 0 0 0 0 0 0 0 0 0 0 0 0 0 0 0 0 0 0 0 0 0 0 0 0 0 0 0 0 0 0 0 0 0 0 0 0 0 0 0 0 0 0 0 0 0 0 0 0 0 0 0 0 0 0 0 0 0 0 0 0 0 0 0 0 0 0 0 0 164 164 164 165 165 168 166 165 165 165 165 164 163 163 158 158 159 156 157 156 158 156 156 159 158 159 162 161 164 162 163 165 164 164 163 163 164 164 164 164 161 163 165 166 165 164 161 -193 -209 -209 -209 -209 -209 -209 -209 -193 163 164 165 165 166 164 165 165 165 164 165 164 162 163 163 163 167 163 163 163 163 164 163 164 164 159 163 163 162 161 162 163 161 161 161 162 164 163 165 164 163 165 165 165 163 163 165 163 163 164 163 162 163 164 164 160 163 164 161 162 161 161 161 161 161 161 159 162 161 162 160 162 162 164 164 163 163 164 164 165 165 165 165 166 167 167 166 165 165 165 165 165 163 164 163 162 164 166 164 164 163 163 162 162 163 162 159 161 161 163 162 164 163 163 164 165 165 165 163 164 163 164 163 163 162 162 163 161 163 161 163 163 163 165 165 165 167 165 166 166 165 165 165 165 165 163 165 165 166 167 169 169 169 169 169 169 170 165 161 159 162 161 161 162 162 163 165 166 167 165 165 165 166 166 166 166 166 166 170 172 174 172 174 178 180 181 183 184 184 186 0 0 0 0 0
    0 0 0 0 0 0 0 0 0 0 0 0 0 0 0 0 0 0 0 0 0 0 0 0 0 0 0 0 0 0 0 0 0 0 0 0 0 0 0 0 0 0 0 0 0 0 0 0 0 0 0 0 0 0 0 0 0 0 0 0 0 0 0 0 0 0 0 0 0 165 165 165 165 165 168 166 165 165 165 165 165 163 163 157 158 159 157 157 156 158 156 156 159 158 159 162 162 164 162 163 165 164 164 163 163 164 163 163 164 161 163 165 166 165 163 -193 -209 -193 -193 -209 -209 -209 -209 -209 -209 161 164 -193 165 166 163 165 164 165 163 164 163 161 161 162 162 167 163 163 163 163 164 164 164 164 159 163 162 -193 161 162 163 162 162 163 164 164 163 165 164 164 165 165 165 163 163 165 163 164 164 163 162 163 164 164 160 163 163 161 162 162 161 161 161 162 161 159 162 161 162 160 162 162 164 165 164 164 164 165 165 165 165 165 165 166 167 166 164 164 164 163 164 162 164 163 161 165 166 164 164 163 163 162 162 163 162 159 161 160 161 160 161 161 161 162 163 163 162 161 162 162 163 161 161 160 161 163 162 163 161 163 163 163 165 165 166 167 165 166 165 165 165 165 165 165 163 165 165 166 167 169 170 169 168 169 169 169 165 162 159 163 162 161 161 163 164 166 166 166 164 164 165 166 166 166 166 165 166 170 172 173 172 174 178 180 181 183 184 184 186 0 0 0 0 0
    0 0 0 0 0 0 0 0 0 0 0 0 0 0 0 0 0 0 0 0 0 0 0 0 0 0 0 0 0 0 0 0 0 0 0 0 0 0 0 0 0 0 0 0 0 0 0 0 0 0 0 0 0 0 0 0 0 0 0 0 0 0 0 0 0 0 0 0 0 166 166 165 165 165 168 167 165 165 165 165 165 164 164 158 161 162 160 159 158 159 157 158 159 159 160 163 163 164 163 163 166 164 164 163 162 164 164 163 164 161 163 165 167 166 164 -209 -209 -177 -193 -193 -193 -209 -209 -209 -209 -193 164 -193 164 165 163 165 164 164 163 163 163 160 161 162 162 166 163 163 163 163 164 163 164 164 159 163 162 -193 161 162 163 162 163 163 164 165 164 166 165 164 165 165 165 162 163 165 163 164 164 163 162 164 165 164 161 163 163 161 162 162 161 161 162 162 161 160 163 161 162 161 163 162 -193 165 164 164 164 165 165 165 165 166 164 166 166 166 164 164 163 163 163 162 163 162 160 165 166 163 164 163 163 162 162 163 161 158 161 159 160 159 160 159 160 160 162 161 161 160 160 161 162 159 159 159 159 163 162 162 160 163 163 163 165 165 166 166 165 166 165 165 165 165 165 165 163 166 166 167 168 169 170 169 167 167 167 168 165 162 161 162 162 162 162 164 164 167 166 166 164 164 165 166 166 166 165 165 167 170 172 174 172 174 178 181 182 183 183 184 185 0 0 0 0 0
    0 0 0 0 0 0 0 0 0 0 0 0 0 0 0 0 0 0 0 0 0 0 0 0 0 0 0 0 0 0 0 0 0 0 0 0 0 0 0 0 0 0 0 0 0 0 0 0 0 0 0 0 0 0 0 0 0 0 0 0 0 0 0 0 0 0 0 0 0 165 165 165 165 165 167 166 164 164 165 164 164 164 164 158 162 164 162 161 160 160 158 158 160 159 160 164 163 164 163 164 166 165 164 163 163 164 164 164 164 162 164 167 168 168 -193 -209 -209 -193 -209 -193 -193 -193 -209 -209 -209 -193 164 -193 165 165 163 165 164 164 163 163 163 160 160 162 162 166 163 163 163 162 164 163 164 163 158 163 162 160 161 162 163 162 163 164 165 165 164 166 164 163 164 165 164 161 163 165 163 163 164 163 162 163 164 163 160 163 163 161 162 162 161 161 162 162 161 160 163 161 162 161 163 -193 -193 165 164 164 -193 166 165 165 165 165 163 165 166 165 163 164 163 163 164 163 163 162 160 165 166 163 164 163 163 161 161 162 160 158 160 158 159 159 159 159 159 160 161 161 161 159 160 161 161 158 158 157 159 163 162 162 159 163 164 163 165 166 166 166 165 166 165 165 165 164 164 164 162 165 165 167 167 169 169 168 166 166 165 166 164 161 160 159 160 160 161 164 164 167 166 166 164 164 165 166 166 166 165 166 168 170 172 173 172 174 178 181 181 182 183 183 184 0 0 0 0 0
    0 0 0 0 0 0 0 0 0 0 0 0 0 0 0 0 0 0 0 0 0 0 0 0 0 0 0 0 0 0 0 0 0 0 0 0 0 0 0 0 0 0 0 0 0 0 0 0 0 0 0 0 0 0 0 0 0 0 0 0 0 0 0 0 0 0 0 0 0 163 163 163 163 163 166 165 163 163 164 164 164 164 164 157 163 -193 -193 -193 -193 159 -193 157 159 -193 159 162 162 163 162 163 165 164 164 163 162 164 165 165 165 163 166 168 171 172 -209 -209 -209 -193 -209 -209 -209 -193 -193 -209 -193 160 164 165 165 166 163 165 163 164 163 162 162 160 160 162 162 166 163 163 163 162 164 164 164 163 158 163 161 -193 161 162 163 162 163 164 165 165 164 166 164 163 164 164 164 161 162 164 163 163 164 163 162 163 165 164 161 163 164 162 163 162 161 161 162 162 161 160 163 161 162 162 163 -193 -193 165 163 164 -193 165 164 164 164 165 162 165 166 166 164 165 164 164 165 164 164 163 160 166 166 162 164 162 162 161 161 162 159 157 160 157 159 158 158 158 159 160 161 160 160 159 159 161 161 158 158 157 160 165 164 163 159 163 164 163 165 166 167 166 165 166 165 165 164 164 164 163 161 164 164 166 167 167 168 167 165 165 164 164 162 159 158 157 156 157 158 161 163 166 166 165 165 165 166 166 166 166 165 166 168 170 171 173 173 174 178 182 180 182 182 182 183 0 0 0 0 0
    0 0 0 0 0 0 0 0 0 0 0 0 0 0 0 0 0 0 0 0 0 0 0 0 0 0 0 0 0 0 0 0 0 0 0 0 0 0 0 0 0 0 0 0 0 0 0 0 0 0 0 0 0 0 0 0 0 0 0 0 0 0 0 0 0 0 0 0 0 162 163 163 165 -193 165 166 165 -209 -209 -193 -209 -193 -209 -209 -209 -209 -209 -209 -209 -209 -209 -209 -209 -193 158 -193 160 -193 159 160 165 163 164 162 161 163 165 165 165 165 168 169 174 176 -209 -209 -177 -193 -193 -209 -209 -209 -209 -209 157 159 163 164 165 164 161 163 160 162 161 161 162 159 159 161 161 166 162 163 163 162 164 164 164 163 158 163 161 -193 -193 162 163 162 163 164 165 165 164 166 164 163 164 164 164 161 162 164 163 163 164 163 162 164 165 165 162 163 164 162 163 163 162 161 162 163 162 159 163 161 163 163 -193 163 -193 165 163 163 -193 164 163 163 163 165 161 164 165 165 163 165 164 163 165 165 164 164 160 167 166 162 164 162 161 161 160 161 159 157 159 157 158 158 158 158 159 159 160 159 160 158 159 161 161 158 159 159 162 165 165 163 159 163 164 163 165 166 167 166 165 166 165 164 164 164 163 162 160 163 163 166 166 167 168 166 165 165 163 163 162 159 158 156 155 155 156 158 160 165 166 165 165 165 166 167 167 167 166 167 169 171 172 173 173 175 179 182 181 182 182 182 182 0 0 0 0 0
    0 0 0 0 0 0 0 0 0 0 0 0 0 0 0 0 0 0 0 0 0 0 0 0 0 0 0 0 0 0 0 0 0 0 0 0 0 0 0 0 0 0 0 0 0 0 0 0 0 0 0 0 0 0 0 0 0 0 0 0 0 0 0 0 0 0 0 0 0 161 163 165 -193 -209 -209 -209 -209 -209 292 -177 302 308 -209 -209 -209 -209 -209 -209 -209 -209 -209 -209 -209 -209 -209 -209 -209 -209 -209 157 163 161 164 162 159 161 164 166 165 166 170 173 182 -209 -209 -209 901 -177 -209 -209 -209 -209 -209 -209 -209 -209 -209 -209 -209 -209 -209 -209 -209 -193 -193 -193 -193 158 158 160 163 166 163 163 162 162 164 164 164 163 -193 -193 -209 -193 -193 -193 -193 162 163 164 164 165 163 166 164 163 163 164 163 161 162 165 162 163 164 163 163 164 166 165 162 164 164 162 164 163 162 161 161 162 162 158 163 160 162 163 -193 -193 -209 -209 -193 -209 -209 -193 161 162 162 164 159 163 164 164 162 164 163 162 164 165 165 165 164 168 166 162 163 162 161 160 160 161 158 157 160 157 158 158 157 157 159 159 160 159 159 158 159 161 161 158 159 159 162 165 164 162 158 162 163 161 164 165 166 166 165 166 165 164 164 163 163 162 159 163 163 166 166 167 168 166 165 166 164 164 163 161 159 156 155 154 154 155 158 164 165 164 165 166 167 168 168 167 167 168 169 170 171 173 173 175 179 182 181 182 181 181 181 0 0 0 0 0
    0 0 0 0 0 0 0 0 0 0 0 0 0 0 0 0 0 0 0 0 0 0 0 0 0 0 0 0 0 0 0 0 0 0 0 0 0 0 0 0 0 0 0 0 0 0 0 0 0 0 0 0 0 0 0 0 0 0 0 0 0 0 0 0 0 0 0 0 0 164 168 -193 -209 -177 -209 -209 -209 -193 299 300 304 308 -209 -209 -209 -193 -209 -209 -209 471 -209 -209 -209 494 -209 -209 -209 -209 -209 -209 -209 -209 -209 -209 -209 158 164 167 166 -193 -193 -209 -209 -193 908 908 907 914 -177 -209 -209 -209 -209 -209 399 406 407 407 411 -209 -209 -209 -209 -209 -209 -209 -209 -209 158 162 167 167 165 165 163 163 165 -193 -193 -193 -193 -209 -193 -193 78 -209 -193 -209 -209 -209 -209 166 164 167 165 164 163 163 162 160 162 165 162 163 164 163 163 165 166 166 162 163 163 161 164 163 161 160 -193 162 162 -193 -193 -209 -193 -209 -209 -209 -209 -209 -209 -209 -209 -209 -209 162 -193 -193 -193 162 163 164 162 164 165 163 -193 167 169 170 169 172 166 162 163 161 160 160 160 160 158 157 160 157 158 158 157 157 159 159 159 158 159 158 159 161 161 157 158 157 158 163 162 158 154 159 159 157 161 164 166 166 166 166 165 164 164 164 164 162 160 163 164 166 166 166 168 166 -193 -209 -209 -209 -193 162 160 157 154 -193 153 153 155 163 163 163 164 165 167 168 168 167 167 169 170 171 172 174 173 177 181 183 182 183 182 182 180 0 0 0 0 0
    0 0 0 0 0 0 0 0 0 0 0 0 0 0 0 0 0 0 0 0 0 0 0 0 0 0 0 0 0 0 0 0 0 0 0 0 0 0 0 0 0 0 0 0 0 0 0 0 0 0 0 0 0 0 0 0 0 0 0 0 0 0 0 0 0 0 0 0 0 -193 -193 183 -209 189 -209 -209 -209 301 309 -193 309 -209 -209 -193 -193 -209 -209 -209 -209 -209 -209 -209 -209 -209 -209 -209 -193 -209 -209 -209 -209 -209 -209 -209 -209 -209 -209 -209 -209 -209 -209 -193 -193 -193 -209 -193 -209 -209 -209 -209 -209 -225 -209 397 401 406 -209 -193 -193 -193 -209 -209 679 682 -209 683 680 680 -209 -209 179 196 -193 -193 204 -209 -209 -209 -209 -209 -209 -209 -209 -209 -193 -193 -209 -209 -209 -209 -209 -193 -209 -193 -209 165 165 163 162 160 161 166 162 164 165 164 164 166 -193 -193 -193 -193 164 162 -193 165 162 161 -193 -209 -193 817 -209 -209 -209 -209 -209 -209 -209 -209 -209 -209 -209 -209 -209 -209 -209 -193 994 -209 -193 172 -209 -209 -209 -209 -193 -209 178 182 -209 182 -193 160 162 160 158 158 159 158 157 157 161 156 158 158 158 157 160 159 159 158 159 -193 -193 159 159 -193 154 148 148 148 147 142 145 150 150 150 154 164 -193 166 167 167 167 166 166 165 165 164 162 164 163 163 162 161 162 162 -209 -209 -209 -209 -209 -209 -209 160 -209 154 155 156 158 165 163 162 162 165 167 168 168 167 166 169 170 170 171 173 172 180 185 188 184 185 183 184 182 0 0 0 0 0
    0 0 0 0 0 0 0 0 0 0 0 0 0 0 0 0 0 0 0 0 0 0 0 0 0 0 0 0 0 0 0 0 0 0 0 0 0 0 0 0 0 0 0 0 0 0 0 0 0 0 0 0 0 0 0 0 0 0 0 0 0 0 0 0 0 0 0 0 0 -209 -209 -209 -209 -193 206 211 -209 -209 -209 209 -209 -209 -193 -209 203 -209 -193 200 -193 202 201 -193 199 -193 -193 -193 -209 -209 -193 -209 -209 -209 548 552 -209 -209 -209 -209 -209 -193 -209 -209 208 -193 -209 -209 -209 -209 -209 -193 -209 -225 -209 -209 -209 -209 -209 605 611 611 -209 -209 -193 -209 -209 -209 -209 -193 -177 -209 194 200 203 204 205 205 204 203 203 -193 877 877 879 -193 -193 -193 -209 -209 -209 -209 -209 -209 -209 -209 -209 -209 -209 -209 -209 -193 -193 -209 -193 164 -209 -193 -193 -193 -193 -209 -209 -193 164 -209 -209 -209 -209 -209 -193 -193 -193 193 197 199 -193 199 -193 -193 -209 -209 -209 -209 -209 -209 -209 -209 -209 -209 -209 -209 -209 -209 198 204 205 202 205 211 195 198 202 200 200 -193 164 162 157 157 -193 -193 -193 -193 -209 -209 158 159 160 161 163 -193 162 160 -193 -177 -177 -209 -209 -209 -209 -209 137 136 136 136 137 139 -209 142 149 -193 169 168 169 169 169 168 167 167 166 166 164 165 164 163 161 159 -193 160 -209 -209 -209 -209 -209 -209 -209 -209 -209 -209 -209 165 166 167 163 161 161 165 167 168 167 167 166 169 170 170 171 173 -209 185 190 194 189 187 185 186 185 0 0 0 0 0
    0 0 0 0 0 0 0 0 0 0 0 0 0 0 0 0 0 0 0 0 0 0 0 0 0 0 0 0 0 0 0 0 0 0 0 0 0 0 0 0 0 0 0 0 0 0 0 0 0 0 0 0 0 0 0 0 0 0 0 0 0 0 0 0 0 0 0 0 0 -209 -209 201 201 200 203 206 201 201 203 207 206 -193 -193 -209 203 202 201 201 201 202 202 201 200 200 201 202 201 199 -193 -209 -193 -209 549 -209 -209 -209 -209 199 -209 201 201 201 205 208 -193 -193 206 205 -193 -209 -193 -209 -209 -209 -193 496 -193 -209 616 617 -193 -193 -193 -209 -209 -193 -209 -193 -193 195 195 199 201 202 203 201 201 201 201 200 -209 -193 -193 -193 -193 -193 -209 -193 -193 203 204 205 204 197 198 199 198 199 199 -209 -209 199 -193 -209 443 454 -209 -209 -193 461 -193 -209 -209 618 629 -209 -209 -209 190 190 198 196 198 199 198 198 197 197 -193 -193 -193 194 195 195 194 195 197 197 199 201 -209 -209 203 206 208 204 206 204 196 199 202 201 201 200 -209 -209 -209 -209 -209 -193 -209 -209 -209 -193 -209 -209 -209 -209 -193 -209 -209 -209 -209 -193 -209 -209 -193 -209 -209 -209 134 -193 131 132 -193 -193 -209 -193 -193 -209 -209 -209 176 177 173 172 172 170 168 167 165 166 -193 -193 -193 -193 -209 -193 -209 -209 -209 -209 -209 -209 -209 -209 -209 -209 -209 -209 -209 -193 165 164 163 167 169 170 169 168 168 170 170 171 172 173 -209 187 193 195 190 186 185 186 184 0 0 0 0 0
    0 0 0 0 0 0 0 0 0 0 0 0 0 0 0 0 0 0 0 0 0 0 0 0 0 0 0 0 0 0 0 0 0 0 0 0 0 0 0 0 0 0 0 0 0 0 0 0 0 0 0 0 0 0 0 0 0 0 0 0 0 0 0 0 0 0 0 0 0 -193 -193 203 202 201 204 205 202 201 203 206 203 201 203 -193 203 202 201 201 202 202 202 201 200 200 201 202 201 199 200 -193 197 -209 -209 -209 197 -193 -193 198 -193 200 200 200 202 203 201 202 202 201 -193 -193 -209 -209 -193 -193 -193 -193 -209 -209 -193 -193 -209 -193 675 -193 678 -193 -193 -193 195 193 195 198 199 200 200 199 200 199 200 199 199 198 198 195 200 201 -193 -193 203 202 204 205 205 199 199 200 199 200 200 -193 199 200 202 -209 -193 -209 -209 -209 -209 -209 -209 -209 -209 -209 -209 -209 -209 197 197 195 199 198 199 199 199 199 198 197 197 194 195 196 196 195 195 195 197 197 199 200 -193 199 201 204 205 202 202 199 197 199 200 201 201 201 201 201 204 207 206 207 205 205 205 204 203 202 201 201 197 196 195 195 195 196 193 193 192 193 193 197 199 -209 -193 -193 -193 -177 -193 -209 -209 201 201 201 198 193 -209 191 195 199 194 -209 164 -209 210 -193 -193 -193 -209 -209 -209 -193 -209 -209 -209 -209 -193 199 -209 -209 190 188 189 -193 -209 -209 -209 175 181 176 171 168 170 170 169 169 171 -209 -209 188 195 197 186 185 184 185 183 0 0 0 0 0
    0 0 0 0 0 0 0 0 0 0 0 0 0 0 0 0 0 0 0 0 0 0 0 0 0 0 0 0 0 0 0 0 0 0 0 0 0 0 0 0 0 0 0 0 0 0 0 0 0 0 0 0 0 0 0 0 0 0 0 0 0 0 0 0 0 0 0 0 0 -193 -193 -193 202 202 204 205 202 201 203 205 203 201 -193 -193 203 -193 201 201 201 202 202 201 200 200 201 202 200 199 200 -193 198 -193 -209 -209 196 198 198 198 198 199 199 199 201 201 200 201 200 199 -193 -193 -209 -193 -193 197 197 -193 -193 -209 -193 -209 -209 -209 -193 -209 -193 -193 194 194 195 193 194 197 197 199 199 199 199 199 199 199 198 198 197 -193 200 201 201 201 -193 201 203 204 204 199 200 201 200 200 201 200 200 201 202 -193 -193 -193 -193 -209 201 -209 -209 -209 -193 197 -209 -209 197 198 198 196 199 198 199 200 200 200 199 198 198 195 196 197 197 196 196 196 197 197 198 199 196 197 198 200 201 200 200 198 197 198 199 199 200 200 201 201 203 205 205 206 205 204 204 203 201 201 201 199 198 197 196 196 197 197 195 195 194 194 196 198 200 -193 -209 202 -193 -193 204 203 203 202 203 202 200 199 200 199 200 201 200 200 201 204 211 214 214 216 -209 214 -193 -193 -193 -193 -193 -193 198 198 199 -209 -193 192 193 196 195 195 194 187 197 196 -193 -209 176 178 -209 172 174 -209 -209 191 197 198 192 188 186 187 -193 0 0 0 0 0
    0 0 0 0 0 0 0 0 0 0 0 0 0 0 0 0 0 0 0 0 0 0 0 0 0 0 0 0 0 0 0 0 0 0 0 0 0 0 0 0 0 0 0 0 0 0 0 0 0 0 0 0 0 0 0 0 0 0 0 0 0 0 0 0 0 0 0 0 0 208 -193 202 201 201 203 204 202 201 202 204 202 201 203 202 203 202 201 201 201 202 201 201 200 201 202 202 201 200 200 -209 -193 -209 -209 -209 196 198 198 198 198 199 199 199 200 200 199 200 199 198 200 -193 -193 196 197 196 197 196 196 194 -193 -193 -209 -209 -193 -209 -193 194 194 194 195 193 195 197 197 198 199 198 199 198 199 198 198 198 197 195 199 200 200 200 201 200 202 204 203 201 201 202 201 201 202 201 201 201 202 202 -193 -193 -193 -193 199 -209 -209 -209 196 194 -193 197 197 198 198 196 199 199 200 200 201 200 200 199 199 197 198 199 198 197 197 197 197 197 198 199 196 197 198 199 199 199 199 198 197 198 198 198 199 199 199 200 201 203 204 205 204 203 203 201 201 200 200 198 198 197 196 197 197 198 197 196 195 196 197 199 201 -193 -193 203 204 204 204 204 204 203 203 203 201 200 200 200 200 201 200 200 201 204 209 213 212 214 213 210 207 204 -193 -193 199 199 197 198 199 -193 197 195 195 197 197 198 198 192 200 199 204 -193 182 -209 -209 181 -193 187 -209 194 197 198 197 196 192 194 194 0 0 0 0 0
    0 0 0 0 0 0 0 0 0 0 0 0 0 0 0 0 0 0 0 0 0 0 0 0 0 0 0 0 0 0 0 0 0 0 0 0 0 0 0 0 0 0 0 0 0 0 0 0 0 0 0 0 0 0 0 0 0 0 0 0 0 0 0 0 0 0 0 0 0 203 200 201 200 200 202 203 201 201 202 203 202 202 204 203 203 202 201 201 201 202 201 201 200 201 202 202 201 200 200 -193 -193 -193 -193 195 195 197 198 198 198 198 198 198 199 199 199 199 199 198 200 197 199 196 197 196 197 196 196 195 196 195 198 198 198 -193 196 196 196 195 196 194 195 197 197 198 199 198 198 198 199 199 198 198 197 196 199 200 200 200 201 200 202 203 203 202 201 202 201 201 202 201 201 201 202 -193 200 199 199 197 198 -209 -209 -193 193 192 199 197 198 198 198 197 199 199 199 200 201 200 200 199 199 197 198 199 198 197 197 197 197 197 198 198 196 197 199 199 200 200 200 199 198 198 198 198 199 198 198 198 200 201 203 203 203 202 202 201 201 200 200 198 198 197 196 197 198 198 197 197 196 196 197 199 201 -193 -209 203 203 204 204 204 204 203 203 203 201 200 201 200 200 201 200 201 201 203 208 211 209 212 210 207 204 203 202 200 199 200 197 198 199 198 198 196 196 198 197 198 198 196 201 201 203 206 -193 203 -193 -193 -193 199 -193 197 197 198 197 196 193 195 196 0 0 0 0 0
    0 0 0 0 0 0 0 0 0 0 0 0 0 0 0 0 0 0 0 0 0 0 0 0 0 0 0 0 0 0 0 0 0 0 0 0 0 0 0 0 0 0 0 0 0 0 0 0 0 0 0 0 0 0 0 0 0 0 0 0 0 0 0 0 0 0 0 0 0 202 200 200 199 200 201 202 201 201 201 201 201 202 204 203 203 201 200 201 201 202 201 201 200 201 202 202 200 200 200 -193 199 199 196 194 195 197 197 198 197 197 197 197 198 198 198 199 198 198 200 198 199 197 197 196 197 196 196 195 196 196 198 198 198 197 197 196 196 196 196 195 196 198 197 198 198 198 198 198 199 199 198 198 198 197 199 200 200 200 201 200 202 203 203 201 201 201 200 201 201 200 200 201 201 -193 -193 199 199 198 198 198 -193 192 195 192 201 197 197 198 198 198 199 199 199 199 201 200 200 199 199 197 198 199 198 197 197 197 197 197 198 198 196 197 198 199 200 200 200 199 199 199 199 198 199 198 198 198 199 200 202 203 203 202 201 200 200 200 199 197 198 197 196 197 198 198 197 197 197 197 197 199 201 -193 -193 202 202 203 203 202 202 202 202 202 201 200 201 200 200 201 201 201 201 202 207 209 207 211 206 205 203 201 201 199 199 199 196 198 198 197 197 196 196 197 197 198 198 197 201 201 203 205 202 203 203 200 201 200 202 200 199 199 198 198 196 197 198 0 0 0 0 0
    0 0 0 0 0 0 0 0 0 0 0 0 0 0 0 0 0 0 0 0 0 0 0 0 0 0 0 0 0 0 0 0 0 0 0 0 0 0 0 0 0 0 0 0 0 0 0 0 0 0 0 0 0 0 0 0 0 0 0 0 0 0 0 0 0 0 0 0 0 203 -193 -193 199 200 201 202 201 201 201 201 201 201 204 202 203 201 200 201 201 201 201 200 200 201 201 201 200 199 199 -193 198 199 195 193 194 196 197 198 197 197 196 197 198 197 197 198 197 198 200 199 199 197 197 196 197 196 196 195 196 196 198 198 198 198 197 197 197 196 196 195 196 197 196 197 198 197 198 198 199 198 197 198 198 197 199 199 199 199 200 199 201 201 201 201 201 201 200 200 200 200 200 200 -193 -193 200 199 199 199 199 199 198 197 198 197 202 198 197 198 198 198 200 199 199 199 200 200 200 199 199 197 198 199 199 197 197 197 198 197 198 198 196 197 198 199 199 200 199 199 199 198 198 198 198 198 197 197 198 199 201 202 202 201 201 200 200 199 198 196 198 197 197 197 198 198 197 197 197 197 197 199 199 199 -193 201 201 201 201 201 201 200 200 201 200 199 200 200 199 200 200 200 199 202 205 205 204 207 203 202 201 200 200 198 198 198 196 198 198 196 197 196 196 197 197 198 198 197 201 201 202 203 199 201 198 192 197 197 198 199 199 200 199 199 198 198 201 0 0 0 0 0
    0 0 0 0 0 0 0 0 0 0 0 0 0 0 0 0 0 0 0 0 0 0 0 0 0 0 0 0 0 0 0 0 0 0 0 0 0 0 0 0 0 0 0 0 0 0 0 0 0 0 0 0 0 0 0 0 0 0 0 0 0 0 0 0 0 0 0 0 0 202 200 -193 199 200 200 202 201 201 201 201 201 202 203 203 203 202 200 200 200 201 200 200 199 201 201 201 200 199 199 199 199 199 194 193 194 197 197 198 197 197 196 197 197 197 197 197 195 197 199 198 199 197 197 196 197 196 196 195 196 196 198 198 198 198 197 197 197 196 196 195 196 197 196 196 197 197 197 198 199 198 197 199 198 197 199 199 199 198 199 198 199 200 201 201 201 201 201 200 200 200 199 200 200 -193 200 199 199 199 199 199 198 198 198 197 201 198 196 197 197 199 199 198 198 198 200 199 199 199 199 197 198 200 199 197 198 198 198 197 198 198 196 197 198 198 198 199 199 198 198 198 197 197 197 197 196 196 196 198 200 202 202 201 200 200 200 199 198 195 198 198 197 197 198 198 198 198 198 197 197 199 198 199 199 200 200 200 200 200 200 200 199 200 199 199 199 199 199 199 199 199 198 201 202 202 200 203 200 200 199 199 198 198 198 199 196 198 198 197 197 196 197 197 197 198 197 196 201 199 200 201 194 198 190 188 195 195 195 197 197 197 196 196 198 197 -193 0 0 0 0 0
    0 0 0 0 0 0 0 0 0 0 0 0 0 0 0 0 0 0 0 0 0 0 0 0 0 0 0 0 0 0 0 0 0 0 0 0 0 0 0 0 0 0 0 0 0 0 0 0 0 0 0 0 0 0 0 0 0 0 0 0 0 0 0 0 0 0 0 0 0 201 200 200 199 200 200 201 201 201 201 201 202 202 203 203 203 202 200 200 199 200 200 200 199 201 200 201 200 199 199 199 199 199 195 194 195 197 197 198 197 197 196 196 197 196 196 197 194 196 199 198 198 197 197 196 197 196 196 195 196 196 197 198 197 198 197 197 197 196 195 195 196 197 195 196 197 197 197 198 199 198 197 199 198 197 198 198 198 197 197 197 198 199 200 200 200 200 200 200 200 200 200 200 200 -193 200 199 199 200 199 200 199 199 199 198 201 198 195 197 197 199 199 198 198 198 200 199 199 199 199 198 199 200 199 198 199 198 198 197 198 197 196 196 197 197 198 199 198 198 197 197 197 196 196 196 195 195 195 198 199 200 200 199 199 199 199 199 197 195 198 198 197 197 -193 198 198 198 198 197 197 199 198 198 199 199 200 199 200 199 200 200 199 200 199 199 199 199 199 199 199 199 199 201 202 202 200 202 200 200 199 199 198 198 199 199 197 199 198 197 198 197 197 197 197 198 197 196 200 196 197 195 190 194 189 188 193 193 193 196 196 196 195 195 199 197 203 0 0 0 0 0
    0 0 0 0 0 0 0 0 0 0 0 0 0 0 0 0 0 0 0 0 0 0 0 0 0 0 0 0 0 0 0 0 0 0 0 0 0 0 0 0 0 0 0 0 0 0 0 0 0 0 0 0 0 0 0 0 0 0 0 0 0 0 0 0 0 0 0 0 0 200 200 199 199 200 200 201 201 201 202 201 202 202 203 204 202 201 199 199 198 199 200 199 199 201 200 200 199 199 199 199 199 199 195 196 196 198 197 199 197 197 196 196 197 196 196 196 192 195 199 198 199 197 198 197 197 197 197 196 197 196 197 197 197 198 197 196 197 196 195 195 196 197 195 196 197 197 197 198 199 198 197 199 198 197 197 197 197 196 196 196 197 198 199 199 199 200 200 200 200 200 200 200 200 200 200 199 200 200 200 200 199 200 200 199 201 198 195 196 196 199 198 198 197 198 200 199 199 199 199 199 200 201 200 199 200 199 199 198 198 197 196 196 197 197 197 198 198 198 197 197 197 196 196 196 195 195 195 197 198 199 199 198 198 198 198 198 196 194 197 198 197 197 198 198 198 199 199 197 198 199 198 198 199 199 199 199 199 199 199 199 199 199 198 198 199 199 199 198 199 200 199 201 202 201 199 201 199 199 199 198 198 198 199 199 197 199 198 197 198 197 197 197 197 198 197 195 199 195 195 192 189 192 190 188 192 193 193 195 196 196 194 194 198 198 203 0 0 0 0 0
    0 0 0 0 0 0 0 0 0 0 0 0 0 0 0 0 0 0 0 0 0 0 0 0 0 0 0 0 0 0 0 0 0 0 0 0 0 0 0 0 0 0 0 0 0 0 0 0 0 0 0 0 0 0 0 0 0 0 0 0 0 0 0 0 0 0 0 0 0 198 198 198 198 199 199 200 201 201 201 200 202 202 205 206 203 202 199 198 198 199 199 198 199 200 199 199 199 199 199 198 199 199 195 197 197 198 197 199 197 196 196 196 196 196 196 196 191 196 199 199 199 199 198 197 198 197 197 196 197 196 196 197 197 198 197 196 197 197 196 195 196 197 196 196 197 197 197 198 198 198 196 198 197 196 196 196 197 196 196 196 196 198 199 199 199 199 200 200 200 200 200 200 200 200 200 199 200 200 200 200 199 200 200 199 201 198 195 196 196 199 198 197 197 197 200 199 199 199 199 199 200 201 200 199 200 200 199 198 198 197 197 196 197 197 197 198 197 197 197 197 196 195 195 195 194 195 194 196 197 197 198 197 198 197 197 197 195 194 197 197 196 197 198 197 198 198 199 197 198 199 198 198 198 198 198 197 198 197 198 198 198 198 198 198 198 199 199 198 199 200 199 201 201 201 199 201 199 199 198 198 198 198 199 199 197 199 198 197 197 197 197 197 197 198 196 196 199 196 195 192 190 192 190 188 192 191 192 194 195 195 193 192 197 198 203 0 0 0 0 0
    0 0 0 0 0 0 0 0 0 0 0 0 0 0 0 0 0 0 0 0 0 0 0 0 0 0 0 0 0 0 0 0 0 0 0 0 0 0 0 0 0 0 0 0 0 0 0 0 0 0 0 0 0 0 0 0 0 0 0 0 0 0 0 0 0 0 0 0 0 197 197 197 197 198 198 199 200 200 200 200 201 202 204 205 203 -193 199 198 198 199 199 198 198 200 198 199 199 199 199 198 199 199 195 198 197 198 197 198 197 196 195 195 196 196 196 196 191 196 199 200 200 199 198 197 197 197 197 196 197 196 197 197 197 198 198 197 198 197 196 196 197 198 196 196 197 197 197 198 198 -193 195 198 196 196 194 195 196 195 195 196 196 198 199 199 199 199 199 199 199 199 199 200 200 200 200 200 200 200 200 200 199 199 199 198 199 196 194 195 195 198 198 196 196 196 199 198 198 199 198 199 200 -193 200 198 200 200 199 198 198 197 197 196 197 197 197 198 197 197 197 197 196 195 194 195 193 194 193 196 196 197 197 197 198 197 197 197 195 194 198 197 196 197 198 198 198 199 199 197 198 199 197 197 197 196 196 196 196 196 197 196 197 198 198 198 198 199 198 198 199 199 199 200 199 199 198 199 198 198 198 198 198 198 199 199 196 199 198 197 197 197 197 197 196 198 196 197 199 196 194 192 190 190 189 188 191 191 192 194 194 195 194 194 198 199 204 0 0 0 0 0
    0 0 0 0 0 0 0 0 0 0 0 0 0 0 0 0 0 0 0 0 0 0 0 0 0 0 0 0 0 0 0 0 0 0 0 0 0 0 0 0 0 0 0 0 0 0 0 0 0 0 0 0 0 0 0 0 0 0 0 0 0 0 0 0 0 0 0 0 0 197 197 198 198 199 198 199 199 199 199 199 201 201 203 204 203 -193 199 198 198 199 199 197 197 199 198 198 198 198 198 197 199 199 195 199 198 198 197 198 196 196 195 195 196 196 195 196 191 197 199 200 199 199 198 197 198 198 198 196 197 197 197 197 197 198 198 197 198 198 197 196 197 198 196 197 197 198 197 198 198 -193 196 198 196 195 194 195 196 195 195 196 195 197 198 198 198 197 198 199 199 199 199 199 200 200 200 200 201 201 201 201 200 200 199 198 199 196 194 194 194 198 197 195 195 196 198 197 197 197 197 197 199 199 199 198 200 199 199 198 198 197 197 196 198 197 197 198 197 197 197 197 196 195 194 195 193 194 193 196 196 196 197 197 198 197 197 198 195 195 198 198 197 197 198 197 198 199 198 197 198 198 197 197 197 196 196 195 195 195 196 195 196 197 197 198 198 198 198 197 198 199 198 199 199 198 197 199 198 198 198 198 198 199 199 199 197 199 198 197 197 196 196 196 197 198 196 198 199 197 195 193 191 190 189 187 190 190 191 194 194 195 195 195 200 201 205 0 0 0 0 0
    0 0 0 0 0 0 0 0 0 0 0 0 0 0 0 0 0 0 0 0 0 0 0 0 0 0 0 0 0 0 0 0 0 0 0 0 0 0 0 0 0 0 0 0 0 0 0 0 0 0 0 0 0 0 0 0 0 0 0 0 0 0 0 0 0 0 0 0 0 196 197 197 198 199 198 198 199 198 198 198 199 200 202 202 202 -209 -193 198 198 199 198 197 196 198 197 198 198 198 198 197 199 199 195 200 198 198 197 198 196 195 195 195 196 196 196 197 193 198 199 200 199 199 198 197 197 -193 198 197 197 197 197 197 197 198 197 196 198 197 196 196 198 198 197 197 198 198 197 198 198 -193 196 197 196 195 193 195 196 195 194 196 194 197 198 197 197 197 198 199 199 199 199 200 200 201 201 201 201 201 202 202 201 200 199 199 199 197 194 194 194 198 197 195 195 195 197 196 196 196 196 196 199 199 199 198 200 200 199 198 198 197 197 196 197 197 197 197 196 196 196 196 196 195 194 194 193 195 194 196 196 197 197 197 198 197 197 197 195 196 198 197 197 197 198 197 198 199 199 197 198 198 197 197 197 196 195 195 195 194 196 195 196 196 197 197 197 197 198 197 197 198 198 199 198 198 197 198 197 198 197 198 198 198 199 199 197 199 198 197 197 196 196 196 197 198 197 199 201 200 198 196 193 191 189 187 190 190 191 193 194 195 195 195 200 202 205 0 0 0 0 0
    0 0 0 0 0 0 0 0 0 0 0 0 0 0 0 0 0 0 0 0 0 0 0 0 0 0 0 0 0 0 0 0 0 0 0 0 0 0 0 0 0 0 0 0 0 0 0 0 0 0 0 0 0 0 0 0 0 0 0 0 0 0 0 0 0 0 0 0 0 195 196 196 198 199 198 198 199 198 198 198 199 201 202 -193 -209 -209 -209 199 199 200 199 197 196 198 196 197 198 197 197 197 198 199 195 201 198 198 197 198 196 196 196 196 196 196 196 197 193 197 198 198 198 198 198 197 197 198 198 197 198 197 197 197 196 197 197 196 197 197 196 196 198 198 197 197 198 198 197 198 198 196 196 197 195 194 193 194 196 196 194 196 195 198 198 198 198 197 198 199 199 199 200 200 200 201 201 201 201 202 202 202 201 200 200 199 199 198 195 196 196 198 197 195 195 195 196 195 196 196 195 196 198 198 198 198 200 200 199 199 199 197 198 196 197 197 196 197 195 195 195 195 195 194 193 193 192 195 194 196 196 197 197 197 198 197 197 197 196 196 198 197 197 197 198 198 198 199 199 198 198 198 197 197 197 196 195 195 195 195 196 195 196 196 196 197 197 197 197 196 197 198 198 199 198 198 197 197 197 197 197 197 198 198 199 199 197 199 198 198 198 197 197 197 197 199 197 199 201 201 201 199 198 196 192 188 190 190 191 192 194 194 193 192 196 198 204 0 0 0 0 0
    0 0 0 0 0 0 0 0 0 0 0 0 0 0 0 0 0 0 0 0 0 0 0 0 0 0 0 0 0 0 0 0 0 0 0 0 0 0 0 0 0 0 0 0 0 0 0 0 0 0 0 0 0 0 0 0 0 0 0 0 0 0 0 0 0 0 0 0 0 195 195 196 198 199 197 197 198 197 198 198 198 -193 -193 -209 -193 -209 -209 199 201 202 199 198 196 198 196 197 198 197 197 197 198 199 196 201 199 198 197 198 196 196 196 196 197 197 197 197 194 197 198 198 198 198 198 197 197 197 197 197 198 197 196 196 195 197 196 195 197 196 195 196 198 197 197 197 198 198 197 198 198 196 196 197 195 194 193 194 196 196 195 196 196 198 198 198 198 198 198 199 199 199 200 200 200 201 201 201 201 201 202 201 200 199 199 199 198 198 196 196 196 198 197 195 195 195 196 195 196 196 195 196 198 198 197 197 199 199 199 199 199 198 198 197 198 197 197 196 195 195 195 194 194 193 192 193 193 195 194 197 196 197 197 198 198 197 197 197 196 197 198 197 197 197 198 198 198 199 199 198 198 198 197 197 197 196 195 196 195 195 196 194 195 195 195 196 196 196 196 196 196 197 197 198 197 197 196 197 196 197 196 197 198 198 199 199 198 199 198 198 198 197 197 197 198 199 197 200 201 202 202 202 201 200 198 194 194 192 192 192 194 195 193 190 193 196 201 0 0 0 0 0
    0 0 0 0 0 0 0 0 0 0 0 0 0 0 0 0 0 0 0 0 0 0 0 0 0 0 0 0 0 0 0 0 0 0 0 0 0 0 0 0 0 0 0 0 0 0 0 0 0 0 0 0 0 0 0 0 0 0 0 0 0 0 0 0 0 0 0 0 0 195 196 197 198 199 197 196 198 196 195 195 195 -193 -209 -209 -193 -209 -209 199 200 202 199 197 195 198 196 197 198 197 197 197 198 199 196 201 198 197 196 198 196 196 196 197 197 197 197 198 195 196 197 197 198 197 197 196 196 196 196 196 197 196 195 195 194 196 195 195 196 195 196 196 198 197 197 197 197 198 197 197 197 194 196 196 195 194 192 194 195 196 195 196 196 198 198 198 197 197 198 199 198 199 200 199 200 200 200 201 201 201 201 201 201 200 199 199 198 198 196 196 196 199 197 195 195 196 196 195 196 196 194 195 197 197 196 196 198 198 199 198 199 198 199 198 199 198 197 196 195 195 195 194 194 194 192 193 193 196 195 197 197 197 197 198 197 197 197 198 197 197 198 197 197 197 198 198 198 198 198 198 199 197 198 197 197 196 195 196 195 195 196 194 195 194 195 195 196 196 196 196 196 197 197 198 197 197 196 197 196 197 196 196 197 197 198 198 197 199 198 198 198 197 197 197 198 199 197 199 200 202 202 202 201 201 200 197 198 195 195 195 197 198 196 192 195 197 202 0 0 0 0 0
    0 0 0 0 0 0 0 0 0 0 0 0 0 0 0 0 0 0 0 0 0 0 0 0 0 0 0 0 0 0 0 0 0 0 0 0 0 0 0 0 0 0 0 0 0 0 0 0 0 0 0 0 0 0 0 0 0 0 0 0 0 0 0 0 0 0 0 0 0 194 194 196 198 198 198 195 197 195 193 193 193 196 -209 -209 -209 -209 205 200 201 202 198 197 195 197 196 197 197 197 196 197 197 199 196 199 197 195 195 197 196 196 196 196 197 197 197 197 195 196 197 197 197 197 197 196 196 196 197 196 197 196 195 195 195 196 196 196 197 196 196 196 198 197 197 197 197 198 197 197 197 193 195 195 194 194 192 194 195 196 195 196 196 199 198 198 197 197 198 199 198 199 199 199 199 200 200 200 200 201 201 200 201 200 199 199 198 198 197 197 197 199 197 195 195 196 196 195 196 195 194 195 197 196 196 195 197 197 198 198 199 198 199 198 199 198 197 197 195 195 195 194 195 194 193 194 193 196 196 197 197 197 197 198 197 197 197 197 197 197 197 196 197 197 197 197 198 198 198 198 198 197 198 197 197 196 195 196 194 195 196 193 195 194 195 195 196 196 196 196 196 196 197 197 197 196 195 196 195 196 196 196 197 197 198 197 197 199 198 198 198 196 197 196 197 198 197 198 199 201 202 202 201 201 202 200 201 198 198 198 198 200 197 192 194 198 203 0 0 0 0 0
    0 0 0 0 0 0 0 0 0 0 0 0 0 0 0 0 0 0 0 0 0 0 0 0 0 0 0 0 0 0 0 0 0 0 0 0 0 0 0 0 0 0 0 0 0 0 0 0 0 0 0 0 0 0 0 0 0 0 0 0 0 0 0 0 0 0 0 0 0 193 193 193 195 195 195 193 195 193 192 193 194 195 198 196 -193 -209 203 199 200 200 198 196 195 196 195 196 197 197 196 196 197 199 196 198 196 193 193 196 196 195 195 196 197 196 196 197 195 195 197 197 197 197 196 196 196 196 197 196 198 196 196 197 196 197 197 196 197 196 197 196 198 197 196 196 197 197 197 196 197 191 195 195 194 193 192 194 195 196 196 197 196 199 198 198 197 197 197 198 197 198 199 198 198 199 199 199 199 200 200 199 -193 199 199 199 198 198 197 197 198 198 197 195 195 196 195 195 196 195 193 195 196 196 195 195 196 196 197 197 197 197 198 197 198 198 197 196 195 195 195 195 195 194 193 194 192 195 196 197 197 197 197 198 197 197 197 198 197 197 197 196 196 196 197 197 197 198 197 198 198 197 198 197 197 196 195 195 194 194 195 192 194 194 195 195 196 196 195 196 195 196 196 196 196 195 195 196 195 195 196 196 197 196 197 197 197 198 198 197 198 196 196 196 197 197 196 197 199 -193 202 202 201 202 202 201 202 199 201 200 200 201 200 195 196 199 204 0 0 0 0 0
    0 0 0 0 0 0 0 0 0 0 0 0 0 0 0 0 0 0 0 0 0 0 0 0 0 0 0 0 0 0 0 0 0 0 0 0 0 0 0 0 0 0 0 0 0 0 0 0 0 0 0 0 0 0 0 0 0 0 0 0 0 0 0 0 0 0 0 0 0 193 194 194 196 195 196 194 195 193 193 195 195 194 197 194 196 197 199 196 197 198 196 196 194 195 195 196 197 197 195 196 196 199 196 196 195 192 192 195 195 195 195 195 196 196 196 196 194 193 195 196 196 196 195 196 196 197 198 197 199 197 197 199 197 198 198 197 197 196 197 197 198 197 196 197 197 198 197 197 197 193 196 196 194 194 193 195 196 197 196 197 196 199 198 197 197 196 197 198 197 198 198 197 197 198 198 198 198 200 200 199 201 200 200 200 198 199 197 197 198 198 196 195 195 196 195 195 195 194 193 194 195 195 193 194 195 195 196 195 196 196 197 197 197 197 196 196 195 195 194 194 194 194 193 194 193 196 196 197 197 197 197 198 197 197 197 197 196 196 196 195 196 196 197 197 197 197 197 198 198 196 198 197 196 196 195 195 194 195 196 194 195 195 195 195 196 196 194 195 195 195 196 196 196 195 194 196 195 196 195 195 196 195 197 197 197 198 198 197 198 196 197 196 197 197 197 197 199 -193 -193 -193 200 200 201 200 200 199 201 201 201 201 202 200 200 201 204 0 0 0 0 0
    0 0 0 0 0 0 0 0 0 0 0 0 0 0 0 0 0 0 0 0 0 0 0 0 0 0 0 0 0 0 0 0 0 0 0 0 0 0 0 0 0 0 0 0 0 0 0 0 0 0 0 0 0 0 0 0 0 0 0 0 0 0 0 0 0 0 0 0 0 193 193 195 196 196 197 196 196 194 194 196 195 193 196 192 195 196 197 195 195 197 195 195 193 195 194 195 197 196 194 196 195 198 195 194 195 192 192 195 196 195 194 195 196 196 196 196 194 193 195 196 -193 -193 -193 196 -209 -209 -209 -193 200 198 197 199 196 197 197 196 197 195 196 197 198 197 196 197 197 198 197 197 197 194 197 196 195 196 195 197 197 197 196 197 196 198 197 196 196 196 196 197 196 197 198 197 196 197 197 197 197 198 199 198 200 201 201 201 200 200 198 198 198 198 197 196 195 196 195 195 195 194 193 194 195 195 193 194 195 194 195 195 197 197 197 198 197 197 196 196 195 195 195 195 195 195 195 196 195 197 197 198 198 198 198 198 197 196 196 197 196 196 195 195 196 196 197 197 196 197 197 198 198 196 197 197 196 196 195 196 194 196 197 195 196 195 196 196 196 196 194 195 194 195 196 196 196 196 194 196 195 196 195 195 195 195 196 197 197 197 198 197 197 196 197 196 197 196 197 196 199 199 -193 199 198 -193 -193 198 198 197 199 200 200 201 201 199 200 201 203 0 0 0 0 0
    0 0 0 0 0 0 0 0 0 0 0 0 0 0 0 0 0 0 0 0 0 0 0 0 0 0 0 0 0 0 0 0 0 0 0 0 0 0 0 0 0 0 0 0 0 0 0 0 0 0 0 0 0 0 0 0 0 0 0 0 0 0 0 0 0 0 0 0 0 192 192 194 195 196 198 196 196 195 195 -193 196 193 196 190 193 195 197 194 194 197 195 195 194 195 195 194 197 196 193 195 195 198 194 192 195 192 193 195 196 195 195 195 197 197 196 196 194 193 195 -193 -209 -209 -193 -209 -209 -209 -209 -209 -193 199 -193 200 194 197 197 197 197 195 196 197 198 197 196 197 197 197 198 197 197 -193 197 196 196 196 196 197 196 197 197 197 197 197 197 197 196 197 197 197 196 197 197 196 196 196 196 196 195 197 198 198 200 201 201 201 200 201 198 199 198 198 197 196 196 197 195 196 195 195 193 193 195 195 192 194 194 193 195 195 197 198 198 199 198 198 197 196 196 195 195 195 195 196 196 197 196 197 197 198 198 197 197 198 196 195 196 197 196 195 195 195 196 196 197 197 196 198 197 198 198 195 197 196 196 195 194 195 194 196 197 195 195 195 195 195 196 196 194 195 195 196 197 196 196 196 194 196 195 196 195 195 195 195 196 197 197 197 198 196 197 196 196 196 196 195 196 194 198 197 197 197 197 196 -193 196 197 196 198 201 200 201 201 199 200 201 203 0 0 0 0 0
    0 0 0 0 0 0 0 0 0 0 0 0 0 0 0 0 0 0 0 0 0 0 0 0 0 0 0 0 0 0 0 0 0 0 0 0 0 0 0 0 0 0 0 0 0 0 0 0 0 0 0 0 0 0 0 0 0 0 0 0 0 0 0 0 0 0 0 0 0 192 191 195 195 195 198 196 -193 194 -193 -193 -193 191 195 189 191 194 197 194 194 196 195 195 194 195 195 194 197 196 194 195 195 197 194 192 195 192 193 196 197 195 195 195 197 196 196 195 194 192 -193 -209 -209 -209 -177 -209 -209 -193 -209 -193 -193 199 -209 200 193 197 198 197 197 195 197 197 198 197 196 197 197 197 197 197 196 -193 197 196 196 196 196 197 196 197 196 197 196 197 197 196 196 197 197 197 196 196 197 196 195 195 195 195 195 197 197 197 199 201 201 202 200 201 198 199 198 198 198 196 196 197 195 196 195 195 194 193 195 195 192 193 193 193 194 194 196 198 199 198 197 198 197 197 196 196 195 195 196 197 196 197 197 197 197 197 198 197 196 197 195 194 195 197 195 195 195 196 196 196 197 197 197 198 198 199 198 196 197 196 195 194 193 194 192 194 196 195 195 195 195 196 196 196 195 196 195 196 197 196 196 196 194 196 194 195 194 194 195 194 196 197 197 197 198 196 197 196 196 196 195 194 195 192 197 196 196 195 196 196 195 195 197 197 200 202 203 203 202 200 202 202 204 0 0 0 0 0
    0 0 0 0 0 0 0 0 0 0 0 0 0 0 0 0 0 0 0 0 0 0 0 0 0 0 0 0 0 0 0 0 0 0 0 0 0 0 0 0 0 0 0 0 0 0 0 0 0 0 0 0 0 0 0 0 0 0 0 0 0 0 0 0 0 0 0 0 0 192 192 196 196 196 198 196 -193 -193 193 -193 -193 189 193 188 189 193 196 193 192 195 194 194 194 195 195 194 197 197 194 196 195 197 195 192 -193 -193 192 195 197 195 194 194 196 196 195 195 194 192 -193 -209 -209 -209 -209 -209 -193 510 -193 -177 -193 -193 -209 201 195 198 198 198 198 197 197 197 198 197 196 197 197 197 197 197 196 -193 197 196 195 196 196 197 196 197 196 196 196 196 197 196 196 196 196 196 196 196 197 196 194 194 194 195 194 196 196 196 198 201 201 202 200 200 198 199 198 198 198 196 196 197 196 196 195 195 194 193 195 195 192 193 193 192 193 193 196 197 198 198 197 198 197 197 197 196 195 196 197 197 197 198 197 197 198 197 197 196 196 197 195 193 194 197 195 195 195 196 196 196 198 197 197 198 198 198 198 196 197 195 194 193 192 193 192 193 195 195 195 195 196 196 197 197 195 196 196 197 197 196 196 195 193 196 194 194 194 194 195 195 196 198 198 197 198 196 197 196 197 196 195 195 196 192 196 196 196 195 196 195 195 195 197 199 201 203 204 204 205 203 205 206 208 0 0 0 0 0
    0 0 0 0 0 0 0 0 0 0 0 0 0 0 0 0 0 0 0 0 0 0 0 0 0 0 0 0 0 0 0 0 0 0 0 0 0 0 0 0 0 0 0 0 0 0 0 0 0 0 0 0 0 0 0 0 0 0 0 0 0 0 0 0 0 0 0 0 0 190 189 194 195 195 199 -193 -193 -193 195 -193 -193 -193 196 189 190 193 196 192 191 195 194 193 194 195 195 194 196 197 193 195 196 197 195 -193 -193 -193 -193 195 197 194 193 193 195 195 194 195 193 192 -193 -209 -209 -209 -209 -209 -193 508 509 -177 -177 -193 -209 202 199 199 200 199 199 198 198 198 198 197 196 197 197 196 196 196 195 -193 196 195 195 196 197 197 196 196 196 196 195 194 196 195 196 196 196 196 196 196 196 195 194 194 194 195 194 196 197 196 198 201 202 203 201 201 199 199 198 198 198 196 196 197 196 196 195 196 195 193 195 195 192 193 192 191 192 191 194 196 197 197 196 198 197 197 197 196 195 196 197 198 198 199 197 197 198 197 197 196 195 196 194 192 193 196 195 195 195 196 196 196 198 197 196 198 198 198 197 196 197 193 193 191 190 191 191 192 195 195 196 197 197 198 198 198 196 196 196 197 197 197 196 196 193 196 194 195 194 193 195 195 196 199 199 198 199 197 197 197 197 197 196 195 196 193 196 196 196 195 196 195 196 196 198 201 202 205 204 204 205 204 205 208 209 0 0 0 0 0
    0 0 0 0 0 0 0 0 0 0 0 0 0 0 0 0 0 0 0 0 0 0 0 0 0 0 0 0 0 0 0 0 0 0 0 0 0 0 0 0 0 0 0 0 0 0 0 0 0 0 0 0 0 0 0 0 0 0 0 0 0 0 0 0 0 0 0 0 0 187 187 190 193 194 -193 -193 -193 195 196 -193 -193 195 198 190 192 194 197 193 191 195 194 193 194 195 195 193 196 196 191 193 194 193 189 -209 -225 -225 -193 192 196 193 191 192 194 194 193 194 193 192 -209 -209 -209 -209 -209 -209 -209 505 506 -177 -193 202 -209 204 203 200 -193 -193 -193 -193 -193 198 198 197 196 196 197 196 196 196 194 -193 196 195 195 197 198 198 197 197 197 197 196 195 196 196 196 196 195 196 196 195 196 195 194 194 193 194 194 195 197 196 -193 202 203 206 204 204 199 200 198 198 198 196 196 197 195 196 195 196 195 193 195 195 192 193 192 190 191 190 194 196 196 197 196 198 197 197 196 196 195 196 197 198 198 -193 197 197 -193 197 196 195 195 196 194 191 192 196 194 194 195 196 195 196 198 197 196 198 198 198 197 196 196 191 191 190 189 190 191 192 197 196 197 198 198 199 199 198 197 196 196 197 198 197 196 196 194 196 194 195 194 194 196 196 197 199 199 198 198 197 197 196 197 197 196 195 196 193 196 196 196 196 196 196 198 199 201 203 204 207 206 205 205 205 205 209 208 0 0 0 0 0
    0 0 0 0 0 0 0 0 0 0 0 0 0 0 0 0 0 0 0 0 0 0 0 0 0 0 0 0 0 0 0 0 0 0 0 0 0 0 0 0 0 0 0 0 0 0 0 0 0 0 0 0 0 0 0 0 0 0 0 0 0 0 0 0 0 0 0 0 0 187 188 191 192 194 197 196 196 195 196 -193 -193 194 -193 190 192 194 -225 191 190 194 193 192 193 194 194 191 195 196 188 193 191 -209 -209 -225 -225 -225 -225 190 195 192 191 191 194 194 192 194 192 -193 -193 492 -193 -193 -209 -193 -209 503 -193 -209 -193 203 -209 204 -209 -193 -193 -193 -193 -193 -193 199 198 198 196 197 197 196 196 196 193 -193 -193 196 195 197 198 199 198 198 197 197 196 195 196 196 196 196 195 196 196 195 196 196 194 194 193 194 194 195 197 196 -193 201 204 209 210 208 200 200 198 197 198 196 196 196 195 196 194 195 195 192 195 194 191 192 191 190 190 189 193 196 197 198 197 198 197 197 196 196 195 196 197 198 198 -193 -193 -193 -193 -193 196 194 195 196 194 190 192 196 193 194 195 196 196 196 198 198 197 199 199 199 197 196 196 190 191 189 189 190 191 191 197 197 197 197 198 198 198 198 197 196 196 198 199 -193 -193 -209 -209 197 196 196 195 195 197 -193 -193 -193 199 198 198 197 197 196 197 197 196 196 198 195 198 198 197 198 198 198 199 201 202 205 206 209 209 206 208 208 207 211 210 0 0 0 0 0
    0 0 0 0 0 0 0 0 0 0 0 0 0 0 0 0 0 0 0 0 0 0 0 0 0 0 0 0 0 0 0 0 0 0 0 0 0 0 0 0 0 0 0 0 0 0 0 0 0 0 0 0 0 0 0 0 0 0 0 0 0 0 0 0 0 0 0 0 0 -225 -225 -225 -225 -225 -225 -225 -225 -225 -225 -225 -225 -225 -225 -225 -225 -225 -225 -225 188 191 191 191 191 192 191 189 192 194 187 -193 -225 -225 -225 -225 -225 -225 -225 -225 -193 191 190 191 194 194 192 194 -193 -193 494 496 -225 495 -225 -209 -225 -209 -193 -209 -193 -193 -209 -193 -209 -209 -193 -193 -193 -193 -177 200 199 200 199 199 199 197 198 -193 -193 -209 -193 195 -193 -193 -193 -209 -193 -193 196 197 197 193 195 196 196 196 196 196 196 195 197 196 194 195 193 194 194 195 197 197 -193 -193 -225 210 212 210 200 200 198 198 199 196 196 197 195 196 194 196 195 191 196 194 190 191 189 189 190 189 195 198 199 199 198 198 198 198 197 196 196 197 197 199 -193 -193 -193 454 -209 -193 -193 194 196 196 195 190 192 196 194 194 196 197 196 197 199 199 199 201 201 200 198 197 197 190 191 189 189 191 191 192 198 197 197 198 199 199 198 197 197 196 197 200 -193 -193 -193 -209 -209 -209 -209 -209 -209 -209 -209 -209 -209 -209 -209 198 199 197 197 197 197 197 197 197 199 196 199 199 198 199 199 199 -193 202 204 208 208 211 211 209 211 210 209 213 213 0 0 0 0 0
    0 0 0 0 0 0 0 0 0 0 0 0 0 0 0 0 0 0 0 0 0 0 0 0 0 0 0 0 0 0 0 0 0 0 0 0 0 0 0 0 0 0 0 0 0 0 0 0 0 0 0 0 0 0 0 0 0 0 0 0 0 0 0 0 0 0 0 0 0 -225 -225 -225 -225 -225 -225 -225 -225 -225 -225 -225 -225 -225 -225 -225 -225 -225 -225 -225 -225 -225 -225 -225 -225 -225 -225 -225 -225 -225 -225 -225 -225 -225 -225 -225 -225 -225 -225 -225 -225 -225 -225 -225 -225 -225 -225 -225 -225 -225 -225 -225 -225 -225 -225 -225 -225 -225 -225 -225 -225 -225 -225 -225 -225 -225 -225 -225 -209 -209 -193 -193 199 201 201 200 199 -193 -193 -193 -193 -209 -209 -193 -209 -209 -193 -209 -193 -209 -209 -193 -193 -209 -209 -209 -193 197 196 -193 -193 194 197 196 193 193 192 192 192 191 196 -193 -193 -225 -225 -225 -225 -225 -225 202 198 198 199 197 197 197 196 196 194 196 195 190 196 194 190 -193 -225 -225 190 -193 198 -225 -209 -193 199 200 199 199 199 197 197 198 -193 -193 -193 203 -193 453 -209 -209 -209 -209 196 -193 -193 -193 -193 197 195 195 197 198 198 199 200 200 201 202 202 202 200 200 199 190 190 188 190 191 191 190 196 196 195 196 198 198 197 197 198 197 199 -209 -209 -193 -193 -209 -209 -209 -209 -209 -209 -209 -209 -209 -209 -209 -209 -209 -209 197 197 196 197 197 198 198 199 195 200 200 199 200 201 201 204 207 209 214 212 213 213 211 213 213 212 214 214 0 0 0 0 0
    0 0 0 0 0 0 0 0 0 0 0 0 0 0 0 0 0 0 0 0 0 0 0 0 0 0 0 0 0 0 0 0 0 0 0 0 0 0 0 0 0 0 0 0 0 0 0 0 0 0 0 0 0 0 0 0 0 0 0 0 0 0 0 0 0 0 0 0 0 -225 -225 -225 -225 -225 -225 -225 -225 -225 -225 -225 -225 -225 -225 -225 -225 -225 -225 -225 -225 -225 -225 -225 -225 -225 -225 -225 -225 -225 -225 -225 -225 -225 -225 -225 -225 -225 -225 -225 -225 -225 -225 -225 -225 -225 -225 -225 -225 -225 -225 -225 -225 -225 -225 -225 -225 -225 -225 -225 -225 -225 -225 -225 -225 -225 -225 -225 -225 -225 -225 -225 -225 -225 -225 -225 -225 -225 -225 -225 -225 -225 -225 -225 -225 -225 -225 -225 -225 -209 -209 -209 -225 -225 -225 -225 -225 -225 -225 -225 -225 -225 -225 -225 -225 -225 -225 -225 -225 -225 -225 -225 -225 -225 -225 -225 -225 -225 -225 -225 -225 -225 -225 196 197 197 196 195 194 196 194 189 -225 -225 -225 -225 -225 -225 -225 -225 -225 -225 -225 -225 -225 -225 -225 -225 -225 -225 -225 -225 -225 -225 -225 -225 -225 -225 -225 -193 -209 -209 -209 -209 -209 -209 -193 196 195 196 198 200 199 199 202 202 202 203 203 203 201 203 203 -225 -225 -225 -225 -225 189 189 192 195 193 195 197 198 198 199 201 -193 -209 -209 -209 -209 -193 -193 38 -209 -209 -209 -209 -209 -209 -209 -209 -209 -209 -177 -177 -209 -193 196 196 198 198 198 200 197 201 205 201 207 212 211 211 213 213 215 213 213 214 212 214 213 212 214 214 0 0 0 0 0
    0 0 0 0 0 0 0 0 0 0 0 0 0 0 0 0 0 0 0 0 0 0 0 0 0 0 0 0 0 0 0 0 0 0 0 0 0 0 0 0 0 0 0 0 0 0 0 0 0 0 0 0 0 0 0 0 0 0 0 0 0 0 0 0 0 0 0 0 0 -225 -225 -225 -225 -225 -225 -225 -225 -225 -225 -225 -225 -225 -225 -225 -225 -225 -225 -225 -225 -225 -225 -225 -225 -225 -225 -225 -225 -225 -225 -225 -225 -225 -225 -225 -225 -225 -225 -225 -225 -225 -225 -225 -225 -225 -225 -225 -225 -225 -225 -225 -225 -225 -225 -225 -225 -225 -225 -225 -225 -225 -225 -225 -225 -225 -225 -225 -225 -225 -225 -225 -225 -225 -225 -225 -225 -225 -225 -225 -225 -225 -225 -225 -225 -225 -225 -225 -225 -225 -225 -225 -225 -225 -225 -225 -225 -225 -225 -225 -225 -225 -225 -225 -225 -225 -225 -225 -225 -225 -225 -225 -225 -225 -225 -225 -225 -225 -225 -225 -225 -225 -225 -225 -225 -225 -225 -225 -225 -225 -225 -225 -225 -225 -225 -225 -225 -225 -225 -225 -225 -225 -225 -225 -225 -225 -225 -225 -225 -225 -225 -225 -225 -225 -225 -225 -225 -225 -225 -225 -225 -225 -225 -225 -225 -225 189 194 194 196 198 200 199 200 202 202 203 203 204 203 201 -225 -225 -225 -225 -225 -225 -225 -225 -225 -225 -225 -225 -225 -225 -225 -225 -225 -225 -225 -225 -193 -193 -209 -209 -209 39 -209 -209 -209 -209 -209 -209 -209 -209 -209 -177 -177 -177 -209 -209 -209 -209 199 201 200 203 202 204 215 218 217 219 218 217 218 217 219 216 215 215 213 214 214 213 215 214 0 0 0 0 0
    0 0 0 0 0 0 0 0 0 0 0 0 0 0 0 0 0 0 0 0 0 0 0 0 0 0 0 0 0 0 0 0 0 0 0 0 0 0 0 0 0 0 0 0 0 0 0 0 0 0 0 0 0 0 0 0 0 0 0 0 0 0 0 0 0 0 0 0 0 -225 -225 -225 -225 -225 -225 -225 -225 -225 -225 -225 -225 -225 -225 -225 -225 -225 -225 -225 -225 -225 -225 -225 -225 -225 -225 -225 -225 -225 -225 -225 -225 -225 -225 -225 -225 -225 -225 -225 -225 -225 -225 -225 -225 -225 -225 -225 -225 -225 -225 -225 -225 -225 -225 -225 -225 -225 -225 -225 -225 -225 -225 -225 -225 -225 -225 -225 -225 -225 -225 -225 -225 -225 -225 -225 -225 -225 -225 -225 -225 -225 -225 -225 -225 -225 -225 -225 -225 -225 -225 -225 -225 -225 -225 -225 -225 -225 -225 -225 -225 -225 -225 -225 -225 -225 -225 -225 -225 -225 -225 -225 -225 -225 -225 -225 -225 -225 -225 -225 -225 -225 -225 -225 -225 -225 -225 -225 -225 -225 -225 -225 -225 -225 -225 -225 -225 -225 -225 -225 -225 -225 -225 -225 -225 -225 -225 -225 -225 -225 -225 -225 -225 -225 -225 -225 -225 -225 -225 -225 -225 -225 -225 -225 -225 -225 -225 -225 -225 -225 -225 -225 -225 -225 -225 -225 -225 -225 -225 -225 -225 -225 -225 -225 -225 -225 -225 -225 -225 -225 -225 -225 -225 -225 -225 -225 -225 -225 -225 -225 -225 -225 -225 -225 -225 -209 40 -209 -209 -209 -209 -209 -209 -209 -209 -209 -209 -209 -177 -193 -177 -209 -209 -209 205 207 211 212 214 219 221 222 224 223 223 225 223 222 -209 215 215 213 214 213 212 214 214 0 0 0 0 0
    0 0 0 0 0 0 0 0 0 0 0 0 0 0 0 0 0 0 0 0 0 0 0 0 0 0 0 0 0 0 0 0 0 0 0 0 0 0 0 0 0 0 0 0 0 0 0 0 0 0 0 0 0 0 0 0 0 0 0 0 0 0 0 0 0 0 0 0 0 -225 -225 -225 -225 -225 -225 -225 -225 -225 -225 -225 -225 -225 -225 -225 -225 -225 -225 -225 -225 -225 -225 -225 -225 -225 -225 -225 -225 -225 -225 -225 -225 -225 -225 -225 -225 -225 -225 -225 -225 -225 -225 -225 -225 -225 -225 -225 -225 -225 -225 -225 -225 -225 -225 -225 -225 -225 -225 -225 -225 -225 -225 -225 -225 -225 -225 -225 -225 -225 -225 -225 -225 -225 -225 -225 -225 -225 -225 -225 -225 -225 -225 -225 -225 -225 -225 -225 -225 -225 -225 -225 -225 -225 -225 -225 -225 -225 -225 -225 -225 -225 -225 -225 -225 -225 -225 -225 -225 -225 -225 -225 -225 -225 -225 -225 -225 -225 -225 -225 -225 -225 -225 -225 -225 -225 -225 -225 -225 -225 -225 -225 -225 -225 -225 -225 -225 -225 -225 -225 -225 -225 -225 -225 -225 -225 -225 -225 -225 -225 -225 -225 -225 -225 -225 -225 -225 -225 -225 -225 -225 -225 -225 -225 -225 -225 -225 -225 -225 -225 -225 -225 -225 -225 -225 -225 -225 -225 -225 -225 -225 -225 -225 -225 -225 -225 -225 -225 -225 -225 -225 -225 -225 -225 -225 -225 -225 -225 -225 -225 -225 -225 -225 -225 -225 -225 38 -209 39 -209 -209 -209 -209 -209 -209 -209 -209 -209 -177 -209 -209 -209 -209 -209 211 214 216 218 220 225 226 227 229 228 228 230 230 -193 -209 -209 216 214 215 -209 -193 216 215 0 0 0 0 0
    0 0 0 0 0 0 0 0 0 0 0 0 0 0 0 0 0 0 0 0 0 0 0 0 0 0 0 0 0 0 0 0 0 0 0 0 0 0 0 0 0 0 0 0 0 0 0 0 0 0 0 0 0 0 0 0 0 0 0 0 0 0 0 0 0 0 0 0 0 -225 -225 -225 -225 -225 -225 -225 -225 -225 -225 -225 -225 -225 -225 -225 -225 -225 -225 -225 -225 -225 -225 -225 -225 -225 -225 -225 -225 -225 -225 -225 -225 -225 -225 -225 -225 -225 -225 -225 -225 -225 -225 -225 -225 -225 -225 -225 -225 -225 -225 -225 -225 -225 -225 -225 -225 -225 -225 -225 -225 -225 -225 -225 -225 -225 -225 -225 -225 -225 -225 -225 -225 -225 -225 -225 -225 -225 -225 -225 -225 -225 -225 -225 -225 -225 -225 -225 -225 -225 -225 -225 -225 -225 -225 -225 -225 -225 -225 -225 -225 -225 -225 -225 -225 -225 -225 -225 -225 -225 -225 -225 -225 -225 -225 -225 -225 -225 -225 -225 -225 -225 -225 -225 -225 -225 -225 -225 -225 -225 -225 -225 -225 -225 -225 -225 -225 -225 -225 -225 -225 -225 -225 -225 -225 -225 -225 -225 -225 -225 -225 -225 -225 -225 -225 -225 -225 -225 -225 -225 -225 -225 -225 -225 -225 -225 -225 -225 -225 -225 -225 -225 -225 -225 -225 -225 -225 -225 -225 -225 -225 -225 -225 -225 -225 -225 -225 -225 -225 -225 -225 -225 -225 -225 -225 -225 -225 -225 -225 -225 -225 -225 -225 -225 -225 -225 -225 -225 -209 -209 -209 -209 -209 -209 -177 -209 -193 -209 -177 -209 -177 -209 -209 -209 214 -193 218 221 224 228 228 229 230 229 229 232 232 231 -209 -209 -209 -209 -209 -209 -209 221 -209 0 0 0 0 0
    0 0 0 0 0 0 0 0 0 0 0 0 0 0 0 0 0 0 0 0 0 0 0 0 0 0 0 0 0 0 0 0 0 0 0 0 0 0 0 0 0 0 0 0 0 0 0 0 0 0 0 0 0 0 0 0 0 0 0 0 0 0 0 0 0 0 0 0 0 -225 -225 -225 -225 -225 -225 -225 -225 -225 -225 -225 -225 -225 -225 -225 -225 -225 -225 -225 -225 -225 -225 -225 -225 -225 -225 -225 -225 -225 -225 -225 -225 -225 -225 -225 -225 -225 -225 -225 -225 -225 -225 -225 -225 -225 -225 -225 -225 -225 -225 -225 -225 -225 -225 -225 -225 -225 -225 -225 -225 -225 -225 -225 -225 -225 -225 -225 -225 -225 -225 -225 -225 -225 -225 -225 -225 -225 -225 -225 -225 -225 -225 -225 -225 -225 -225 -225 -225 -225 -225 -225 -225 -225 -225 -225 -225 -225 -225 -225 -225 -225 -225 -225 -225 -225 -225 -225 -225 -225 -225 -225 -225 -225 -225 -225 -225 -225 -225 -225 -225 -225 -225 -225 -225 -225 -225 -225 -225 -225 -225 -225 -225 -225 -225 -225 -225 -225 -225 -225 -225 -225 -225 -225 -225 -225 -225 -225 -225 -225 -225 -225 -225 -225 -225 -225 -225 -225 -225 -225 -225 -225 -225 -225 -225 -225 -225 -225 -225 -225 -225 -225 -225 -225 -225 -225 -225 -225 -225 -225 -225 -225 -225 -225 -225 -225 -225 -225 -225 -225 -225 -225 -225 -225 -225 -225 -225 -225 -225 -225 -225 -225 -225 -225 -225 -225 -225 -225 -225 45 -209 -209 -209 -209 -177 -209 -177 -177 -177 -177 -177 -209 -209 -209 -209 -209 220 223 227 230 230 230 230 231 230 233 234 233 234 234 -209 -209 -193 236 -193 232 -209 0 0 0 0 0
    0 0 0 0 0 0 0 0 0 0 0 0 0 0 0 0 0 0 0 0 0 0 0 0 0 0 0 0 0 0 0 0 0 0 0 0 0 0 0 0 0 0 0 0 0 0 0 0 0 0 0 0 0 0 0 0 0 0 0 0 0 0 0 0 0 0 0 0 0 -193 -225 -225 -225 -225 -225 -225 -225 -225 254 255 255 255 256 254 -225 -225 -225 -225 -225 -225 -225 -225 -225 -225 -225 -225 -225 -225 -225 -225 -225 -225 -225 -225 -225 -225 -225 -225 -225 -225 -225 -225 -225 -225 -225 -225 -225 -225 -225 -225 -225 -225 -225 -225 -225 -225 -225 -225 -225 -225 -225 -225 -225 -225 -225 -225 -225 -225 -225 -225 -225 -225 -225 -225 -225 -225 -225 -225 -225 -225 -225 -225 -225 -225 -225 -225 -225 -225 -225 -225 -225 -225 -225 -225 -225 -225 -225 -225 -225 -225 -225 -225 -225 -225 -225 -225 -225 -225 -225 -225 -225 -225 -225 -225 -225 -225 -225 -225 -225 -225 -225 -225 -225 -225 -225 -225 -225 -225 -225 -225 -225 -225 -225 -225 -225 -225 -225 -225 -225 -225 -225 -225 -225 -225 -225 -225 -225 -225 -225 -225 -225 -225 -225 -225 -225 -225 -225 -225 -225 -225 -225 -225 -225 -225 -225 -225 -225 -225 -225 -225 -225 -225 -225 -225 -225 -225 -225 -225 -225 -225 -225 -225 -225 -225 -225 -225 -225 -225 -225 -225 -225 -225 -225 -225 -225 -225 -225 -225 -225 -225 -225 -225 -225 -225 -225 -225 -225 47 -209 -209 -209 28 31 30 26 29 -177 -209 -209 -209 -209 -209 -209 -209 -209 -209 230 232 231 231 231 232 232 234 234 234 235 235 236 238 237 238 236 237 -193 0 0 0 0 0
    0 0 0 0 0 0 0 0 0 0 0 0 0 0 0 0 0 0 0 0 0 0 0 0 0 0 0 0 0 0 0 0 0 0 0 0 0 0 0 0 0 0 0 0 0 0 0 0 0 0 0 0 0 0 0 0 0 0 0 0 0 0 0 0 0 0 0 0 0 -193 -193 246 249 -193 -193 250 256 253 254 256 255 255 256 254 257 253 259 -225 -225 -225 -225 -225 -225 -225 -225 -225 -225 -225 -225 -225 -225 -225 -225 -225 -225 -225 -225 -225 -225 -225 -225 -225 -225 -225 -225 -225 -225 -225 -193 -209 -209 -225 -225 -225 -225 -225 -225 -225 -225 -225 -225 -225 -225 -225 -225 -225 -225 -225 -225 -225 -225 -225 -225 -225 -225 -225 -225 -225 -225 -225 -225 -225 -225 -225 -225 -225 -225 -225 -225 -225 -225 -225 -225 -225 -225 -225 -225 -225 -225 -225 -225 -225 -225 -225 -225 -225 -225 -225 -225 -225 -225 -225 -225 -225 -225 -225 -225 -225 -225 -225 -225 -225 -225 -225 -225 -225 -225 -225 -225 -225 -225 -225 261 -225 260 258 259 257 257 255 256 -225 -225 -225 -225 -225 -225 -225 -225 -225 -225 -225 -225 -225 -225 -225 -225 -225 -225 -225 -225 -225 -225 -225 -225 -225 -225 -225 -225 -225 -225 -225 -225 -225 -225 -225 -225 -225 -225 -225 -225 -225 -225 -225 -225 -225 -225 -225 -225 -225 -225 -225 -225 -225 -225 -225 -225 -225 -225 -225 -225 -225 -225 -225 -225 -225 -193 -209 -209 -209 -209 -209 -209 -193 37 -193 -209 -177 -177 -177 -209 -209 -209 -209 -209 -209 -193 237 237 236 236 237 237 238 236 237 237 237 237 238 238 238 237 239 239 0 0 0 0 0
    0 0 0 0 0 0 0 0 0 0 0 0 0 0 0 0 0 0 0 0 0 0 0 0 0 0 0 0 0 0 0 0 0 0 0 0 0 0 0 0 0 0 0 0 0 0 0 0 0 0 0 0 0 0 0 0 0 0 0 0 0 0 0 0 0 0 0 0 0 -209 -193 247 249 250 251 251 255 253 253 255 254 254 255 254 255 252 257 257 256 255 254 253 253 253 253 253 252 251 253 252 254 255 255 252 -193 251 250 249 249 -193 -193 -209 248 253 252 253 253 254 254 253 255 -177 -193 -209 -209 -177 -209 -193 -193 739 745 -225 -225 -225 -225 -225 -225 -225 -193 244 -193 245 244 245 245 -193 247 248 -225 -225 -225 -225 -225 -225 -225 -225 -225 -225 -225 -225 -225 -225 -225 -225 -225 -225 -225 -225 -225 -225 -225 -225 -225 -225 -225 -225 -225 -225 -225 -225 -225 -225 -225 -209 -225 -225 -193 -193 619 620 250 253 -225 -225 262 260 259 256 257 256 259 256 258 255 256 255 258 256 256 255 255 253 253 -209 -209 -209 -209 -193 -193 -193 -225 243 -225 195 -193 -225 -225 -193 -225 -225 -225 -225 -225 -209 -209 -209 -209 -193 66 65 -193 -193 -225 -225 -225 -225 -225 -225 -225 -225 -225 -225 -225 -225 -225 -225 -225 -225 -225 240 244 247 248 254 259 261 263 264 265 -193 -193 -209 -225 -225 -225 -225 -193 -209 -209 -209 -209 -209 -209 -209 -209 -177 -209 -177 -177 -177 -177 -209 -209 -209 -209 -193 -209 246 246 244 242 244 243 241 238 240 239 239 239 240 240 240 239 239 239 0 0 0 0 0
    0 0 0 0 0 0 0 0 0 0 0 0 0 0 0 0 0 0 0 0 0 0 0 0 0 0 0 0 0 0 0 0 0 0 0 0 0 0 0 0 0 0 0 0 0 0 0 0 0 0 0 0 0 0 0 0 0 0 0 0 0 0 0 0 0 0 0 0 0 -193 -209 249 250 250 251 251 254 253 253 255 254 253 254 253 254 251 254 255 255 255 254 253 253 253 254 253 252 251 253 253 254 254 253 251 250 249 249 247 247 -193 -193 -193 247 251 251 252 253 253 253 253 254 -193 -193 -209 -209 -209 -209 -193 -193 -177 -193 -177 -177 -177 -177 -225 748 -193 -193 246 -193 246 246 247 247 250 249 251 251 251 254 254 252 250 -193 -193 -193 -193 -193 -193 -193 -225 -225 -225 -225 -209 -193 -193 -193 -193 -193 -209 -209 -209 -225 254 255 253 253 254 253 253 250 -193 247 247 -193 -193 -193 249 250 253 255 259 258 258 257 254 253 252 253 252 255 253 253 253 255 255 254 254 254 252 252 -193 251 -209 145 -193 -193 -193 -193 243 -193 -193 245 247 251 -193 249 -193 251 -209 -209 -193 -209 -193 -209 -193 -193 -193 -209 -193 -193 -225 -225 -225 -225 -225 -225 -225 -225 -225 -225 -225 -225 -225 453 242 243 243 246 247 248 254 254 254 254 255 257 256 258 -209 61 -225 -225 -209 -193 -193 -193 -209 -209 -209 -209 -209 -209 -209 -209 -177 -177 -177 -177 -209 -209 -209 -209 -209 -193 247 247 245 244 245 243 241 238 240 240 240 240 240 240 240 240 240 239 0 0 0 0 0</data></disparity>
</opencv_storage>
