<?xml version="1.0"?>
<opencv_storage>
<gps_time_stamp>28642</gps_time_stamp>
<gps_x>-6.7106308937072754e+000</gps_x>
<gps_y>1.0181320905685425e+000</gps_y>
<gps_z>-2.0034670829772949e+000</gps_z>
<image_time_stamp>16564</image_time_stamp>
<disparity type_id="opencv-matrix">
  <rows>76</rows>
  <cols>320</cols>
  <dt>s</dt>
  <data>
    0 0 0 0 0 0 0 0 0 0 0 0 0 0 0 0 0 0 0 0 0 0 0 0 0 0 0 0 0 0 0 0 0 0 0 0 0 0 0 0 0 0 0 0 0 0 0 0 0 0 0 0 0 0 0 0 0 0 0 0 0 0 0 0 0 0 0 0 0 139 138 137 138 139 136 136 136 136 136 136 137 -193 -193 -193 -193 -209 -209 -193 -209 -209 137 136 137 138 138 138 138 139 137 137 138 137 137 135 136 135 134 134 133 132 133 134 134 134 134 135 136 137 137 -193 -193 -193 -209 -209 -193 -209 136 135 135 136 135 136 135 135 136 -193 -193 -209 -209 -193 137 -209 135 136 134 135 135 136 135 -193 137 138 -209 140 138 140 139 139 140 136 137 137 137 137 136 136 135 134 -209 135 136 136 -193 135 134 136 135 134 134 133 132 132 133 133 132 132 133 134 134 136 136 136 137 -193 137 135 134 133 132 131 133 133 132 132 134 136 135 136 136 135 135 136 136 136 134 135 129 129 134 130 125 128 133 137 137 137 137 134 134 135 134 133 133 131 132 133 132 133 132 134 136 135 136 136 135 136 136 136 135 133 134 133 131 133 133 128 125 124 125 129 130 133 133 131 134 137 137 137 136 137 136 136 136 136 134 134 132 133 125 129 -193 125 -209 127 132 135 134 136 135 135 135 134 134 133 132 133 131 131 132 132 132 128 128 127 128 133 -193 -193 138 138 141 146 143 143 143 0 0 0 0 0
    0 0 0 0 0 0 0 0 0 0 0 0 0 0 0 0 0 0 0 0 0 0 0 0 0 0 0 0 0 0 0 0 0 0 0 0 0 0 0 0 0 0 0 0 0 0 0 0 0 0 0 0 0 0 0 0 0 0 0 0 0 0 0 0 0 0 0 0 0 138 138 137 138 139 136 136 136 136 136 136 137 -193 -193 -193 -177 -209 -209 -209 -209 -209 137 136 137 138 138 137 138 138 137 136 137 137 136 135 136 135 134 134 134 133 133 134 134 134 134 135 136 137 137 -193 -193 -193 -209 -209 -209 -209 136 135 135 135 135 136 135 135 137 -193 -209 -209 -209 -193 -209 -177 -209 136 -193 -193 -193 -209 -209 -193 137 138 -209 140 139 140 139 139 140 137 137 137 137 137 136 -193 135 135 -209 -193 136 136 -193 135 135 136 135 134 134 133 133 132 133 133 132 132 133 133 134 136 136 136 137 136 137 136 135 135 134 134 135 134 133 133 134 135 135 136 136 135 136 136 136 136 134 135 130 130 134 129 126 130 134 137 137 137 137 136 136 136 136 135 134 132 133 133 133 133 132 134 136 135 136 136 135 136 136 136 135 133 135 134 132 135 135 132 130 130 134 -193 136 134 133 132 135 140 138 137 136 136 135 135 136 135 133 133 132 132 126 130 124 122 -193 125 128 132 131 134 134 135 136 135 -193 133 133 133 130 129 131 130 132 130 129 128 129 133 136 137 138 138 142 145 143 142 142 0 0 0 0 0
    0 0 0 0 0 0 0 0 0 0 0 0 0 0 0 0 0 0 0 0 0 0 0 0 0 0 0 0 0 0 0 0 0 0 0 0 0 0 0 0 0 0 0 0 0 0 0 0 0 0 0 0 0 0 0 0 0 0 0 0 0 0 0 0 0 0 0 0 0 138 139 137 138 140 137 137 136 137 136 136 137 -193 -193 -177 -209 -209 -177 -209 -209 -209 -193 136 137 138 138 137 138 137 136 136 137 137 136 135 136 135 134 134 134 133 134 134 134 134 134 136 -209 137 137 -193 -193 -193 -209 -209 -193 -209 135 135 135 135 135 135 135 135 137 -193 -209 -209 -193 -177 -177 -177 -209 -193 -193 -193 -193 -209 -209 -193 137 137 -209 -193 139 141 140 140 141 137 138 138 137 137 136 136 135 135 -209 135 136 136 -193 136 135 137 136 135 135 134 133 133 134 133 132 132 133 133 134 135 135 135 136 136 137 135 135 135 135 135 135 134 133 134 134 135 135 136 136 135 136 137 136 136 134 135 128 127 133 128 127 131 135 137 137 137 137 137 137 137 137 136 136 133 134 134 133 133 132 134 136 135 136 136 135 135 136 136 135 133 134 134 132 135 134 133 132 134 138 139 139 136 136 135 136 141 138 137 137 136 136 135 136 135 132 133 131 131 124 128 124 122 124 125 128 131 130 134 133 134 135 134 -209 -193 -193 132 -193 -193 -209 -209 -193 129 130 129 130 134 136 141 138 138 142 144 143 142 142 0 0 0 0 0
    0 0 0 0 0 0 0 0 0 0 0 0 0 0 0 0 0 0 0 0 0 0 0 0 0 0 0 0 0 0 0 0 0 0 0 0 0 0 0 0 0 0 0 0 0 0 0 0 0 0 0 0 0 0 0 0 0 0 0 0 0 0 0 0 0 0 0 0 0 139 139 137 137 139 137 136 136 136 136 136 137 -193 -209 -193 -209 -209 -193 499 -209 -193 -193 135 136 138 138 137 138 137 137 136 137 137 136 -193 -193 135 134 134 134 133 134 134 135 135 134 -193 -209 -193 138 138 -193 -193 -209 -209 -209 -209 135 134 134 134 134 134 134 134 137 -209 -193 -209 -177 -177 -177 -177 -209 -209 -209 -193 -193 -209 -209 -193 137 138 -193 -193 -193 142 141 141 141 137 138 -193 -193 -209 136 136 135 135 -193 135 136 136 -193 -193 136 137 137 136 136 135 134 134 134 134 133 132 133 133 134 135 135 135 135 135 136 135 135 135 135 135 136 135 134 134 134 135 135 136 136 135 136 137 137 137 135 135 128 126 132 127 127 131 135 136 137 137 137 137 137 136 138 136 136 134 134 134 133 133 132 133 136 134 135 136 134 135 136 136 135 133 134 134 132 135 135 134 134 136 138 141 140 139 138 137 137 142 139 137 137 137 136 136 136 135 131 132 128 128 123 -209 -209 115 108 122 126 130 130 134 133 133 134 133 132 130 128 129 -209 -209 -209 -177 -193 -193 125 126 125 131 136 140 137 138 142 144 142 142 142 0 0 0 0 0
    0 0 0 0 0 0 0 0 0 0 0 0 0 0 0 0 0 0 0 0 0 0 0 0 0 0 0 0 0 0 0 0 0 0 0 0 0 0 0 0 0 0 0 0 0 0 0 0 0 0 0 0 0 0 0 0 0 0 0 0 0 0 0 0 0 0 0 0 0 139 139 136 136 139 136 136 135 136 136 135 138 -193 -177 -177 -209 -193 497 500 502 499 -177 135 136 138 139 137 138 137 136 136 137 137 137 -193 -193 135 134 134 134 133 134 -193 -193 135 134 -193 -209 -209 137 -193 -193 -193 -209 -209 -209 -209 135 134 133 133 133 133 134 133 136 -209 -209 -193 -193 -177 -177 -177 -209 -193 -193 394 -193 -209 -193 -193 -193 -193 589 -193 -193 -193 -193 141 141 137 138 -209 -193 -209 -193 136 135 134 -209 135 136 136 138 137 137 137 137 137 137 136 135 135 135 135 134 133 134 134 134 135 134 134 135 135 136 135 -193 135 136 136 136 136 135 135 134 135 135 136 136 136 136 138 138 -193 -193 135 129 128 133 -193 -209 130 134 136 136 137 137 136 137 136 137 136 136 135 134 135 133 133 132 134 136 135 135 136 135 135 136 136 135 133 134 134 133 136 135 135 135 136 139 140 140 139 139 138 138 144 138 137 137 137 136 136 135 135 130 -193 -193 125 120 116 111 112 110 119 122 125 124 131 132 133 134 133 132 129 127 128 -209 -209 -209 -209 -209 -209 -193 123 122 126 135 138 136 137 142 144 142 142 142 0 0 0 0 0
    0 0 0 0 0 0 0 0 0 0 0 0 0 0 0 0 0 0 0 0 0 0 0 0 0 0 0 0 0 0 0 0 0 0 0 0 0 0 0 0 0 0 0 0 0 0 0 0 0 0 0 0 0 0 0 0 0 0 0 0 0 0 0 0 0 0 0 0 0 138 138 135 135 138 135 135 135 135 136 135 138 -193 -177 -177 -209 435 499 502 -193 -209 -209 -209 135 137 139 137 138 137 135 136 137 137 -193 -193 -193 -193 134 134 134 133 134 -193 -193 -193 134 -193 -209 -193 137 -209 -193 -193 -209 -209 -209 -209 -193 133 132 132 132 133 133 133 135 -209 -209 854 -193 -177 -177 -209 -209 -209 -209 -193 -193 -209 -193 -193 -193 -209 585 -193 610 -193 -193 -193 141 -193 -193 -193 -193 -209 -193 136 -193 -209 -209 136 137 137 138 137 137 137 138 138 138 136 136 136 137 136 136 134 134 134 134 134 134 134 134 134 135 135 -193 -209 137 137 137 137 136 136 135 136 135 137 136 -193 -193 139 138 -193 -193 -209 -209 126 -209 -209 -209 129 134 135 136 136 136 136 137 136 138 136 137 136 135 135 133 132 130 134 136 135 135 136 135 135 136 136 135 133 134 134 132 135 135 135 135 136 138 139 139 139 138 138 138 143 138 136 137 136 135 135 135 133 126 -193 -193 -193 115 109 108 113 115 121 123 126 125 129 131 131 132 131 130 127 125 125 -209 -209 -209 -209 -209 -209 -209 -209 121 127 136 139 136 137 142 143 142 142 142 0 0 0 0 0
    0 0 0 0 0 0 0 0 0 0 0 0 0 0 0 0 0 0 0 0 0 0 0 0 0 0 0 0 0 0 0 0 0 0 0 0 0 0 0 0 0 0 0 0 0 0 0 0 0 0 0 0 0 0 0 0 0 0 0 0 0 0 0 0 0 0 0 0 0 -225 -225 -225 134 138 136 136 136 136 136 135 138 -193 -177 -177 -193 -225 -225 -225 -225 -225 -225 -193 -209 135 138 137 -193 135 134 135 136 -193 -193 -193 -193 -193 -193 -193 -193 133 135 -193 135 -193 -193 -193 -193 136 136 -209 -209 645 -209 -209 -209 -209 -193 132 131 131 131 133 133 133 134 -209 -209 852 -193 -177 857 -209 449 -209 -193 391 -193 -209 -177 -193 -193 -209 583 596 607 -177 -193 -193 -209 -209 -209 -193 533 -209 -209 -209 -209 -209 -209 -193 137 137 138 -193 136 137 139 138 138 136 136 137 137 137 136 134 134 134 134 134 134 134 134 135 136 136 -193 -209 -193 138 138 137 137 137 136 136 136 138 -193 -193 -193 139 -193 -193 -177 -209 -209 -209 -193 -209 -209 131 135 136 136 137 137 138 139 138 140 138 139 138 138 139 -193 132 128 133 136 134 135 136 134 135 135 135 134 133 134 134 131 134 133 133 133 134 136 137 136 137 137 137 137 144 137 136 136 135 135 135 134 133 124 -193 93 -193 112 108 109 113 115 122 124 127 125 127 128 129 130 127 126 123 122 123 -209 -209 -193 -209 -209 -209 -209 -209 123 131 137 140 137 138 143 143 142 142 142 0 0 0 0 0
    0 0 0 0 0 0 0 0 0 0 0 0 0 0 0 0 0 0 0 0 0 0 0 0 0 0 0 0 0 0 0 0 0 0 0 0 0 0 0 0 0 0 0 0 0 0 0 0 0 0 0 0 0 0 0 0 0 0 0 0 0 0 0 0 0 0 0 0 0 -225 -225 -225 -225 -225 -225 -225 -225 -193 -225 -193 -209 -225 -225 -225 -225 -225 -225 -225 -225 -225 -225 -225 -225 -225 -225 133 133 133 131 133 -193 135 -193 -177 -177 -177 226 -193 -193 -209 -209 -177 -193 -177 325 -209 -193 -193 -193 -193 -209 652 -209 -193 -193 -193 -209 -209 -193 -209 131 133 134 -209 -209 -209 -209 -193 853 854 857 -193 449 -209 -209 391 394 -193 390 394 -209 -225 -225 -225 -225 -225 -225 -225 -225 880 -209 -193 533 -209 -209 -193 -209 519 -193 -209 -193 -209 -209 -209 136 137 139 -193 -193 -209 -209 -193 137 137 136 134 135 134 134 135 134 134 135 -193 137 -193 -193 -193 -193 139 138 137 137 137 -193 136 135 138 -209 832 -193 -193 -209 -177 -177 80 86 -209 -177 -193 -177 -193 136 137 138 138 138 138 140 139 141 140 141 140 143 144 148 134 124 132 135 133 134 135 133 134 134 135 134 132 133 133 129 133 132 132 131 132 134 134 135 136 137 138 137 145 138 136 136 135 135 134 133 132 -193 -209 -209 -193 117 112 114 116 118 123 126 127 125 126 127 129 132 132 132 128 126 128 -209 -209 -193 90 -209 -209 -209 -209 124 134 139 141 137 138 144 142 142 141 141 0 0 0 0 0
    0 0 0 0 0 0 0 0 0 0 0 0 0 0 0 0 0 0 0 0 0 0 0 0 0 0 0 0 0 0 0 0 0 0 0 0 0 0 0 0 0 0 0 0 0 0 0 0 0 0 0 0 0 0 0 0 0 0 0 0 0 0 0 0 0 0 0 0 0 -225 -225 -225 -225 -225 -225 -225 -225 -225 -225 -225 -225 -225 -225 -225 -225 -225 -225 -225 -225 -225 -225 -225 -225 -225 -225 -225 -225 -225 -225 -225 -225 135 229 228 227 -225 -225 -225 -209 -177 -209 -225 -225 327 328 -209 -209 -209 654 654 -193 -209 -209 -193 -209 790 -209 -209 -209 -209 -209 -209 -209 936 935 937 935 -209 -209 854 -225 -225 -225 -225 -225 -225 -225 -225 -225 -225 -225 -225 -225 -225 -225 -225 -225 -225 -225 -225 -193 538 537 542 -209 -193 -209 518 -193 -193 -209 -193 443 -193 -193 135 -209 -177 -209 766 -193 -193 -193 -209 -193 134 135 134 134 134 133 134 135 -209 -209 -193 -193 847 -193 -193 138 137 137 138 -193 -193 -193 -209 -209 -225 -209 -193 -209 -209 75 81 84 76 73 -193 -177 -193 135 137 137 137 137 138 140 139 142 141 141 141 147 148 -193 -209 -209 127 -193 -193 133 134 133 133 134 134 133 132 132 132 128 132 132 132 132 132 134 135 136 138 139 140 139 147 139 136 136 136 135 134 133 132 -193 101 102 112 117 116 116 117 118 122 125 125 124 124 125 126 131 130 128 126 130 133 135 -209 -209 -209 -193 -209 -209 -209 122 131 137 139 136 137 143 140 140 140 140 0 0 0 0 0
    0 0 0 0 0 0 0 0 0 0 0 0 0 0 0 0 0 0 0 0 0 0 0 0 0 0 0 0 0 0 0 0 0 0 0 0 0 0 0 0 0 0 0 0 0 0 0 0 0 0 0 0 0 0 0 0 0 0 0 0 0 0 0 0 0 0 0 0 0 -225 -225 -225 -225 -225 -225 -225 -225 -225 -225 -225 -225 -225 -225 -225 -225 -225 -225 -225 -225 -225 -225 -225 -225 -225 -225 -225 -225 -225 -225 -225 -225 -225 -225 -225 -225 -225 -225 -225 -225 -225 -225 -225 -225 -225 -225 -225 -225 -225 -225 -225 -225 -225 -225 -225 -225 -225 -225 -225 -225 -225 -225 -225 -225 -225 -225 -225 -225 -225 -225 -225 -225 -225 -225 -225 -225 -225 -225 -225 -225 -225 -225 -225 -225 -225 -225 -225 -225 -225 -225 -225 -225 -225 -225 -225 552 553 553 -209 -193 -209 -193 -225 -225 -209 -209 -193 -193 14 -209 -209 -209 -177 -177 -177 -193 130 132 132 131 133 132 133 135 968 -209 137 -193 -193 -193 139 138 137 136 -193 -225 -225 -225 -225 -225 -225 -225 -225 68 71 73 78 75 74 71 -193 -177 -209 133 136 137 137 137 137 139 138 143 144 143 144 150 149 -209 -209 -193 -193 -193 -193 133 134 132 133 135 135 134 132 132 133 128 133 132 133 132 134 135 135 136 141 -193 144 142 149 140 136 136 136 134 133 131 130 -209 -209 -193 120 119 118 118 118 119 122 123 123 122 122 123 125 128 129 125 126 131 133 135 137 138 -193 131 134 135 134 132 135 137 139 136 136 141 139 139 139 139 0 0 0 0 0
    0 0 0 0 0 0 0 0 0 0 0 0 0 0 0 0 0 0 0 0 0 0 0 0 0 0 0 0 0 0 0 0 0 0 0 0 0 0 0 0 0 0 0 0 0 0 0 0 0 0 0 0 0 0 0 0 0 0 0 0 0 0 0 0 0 0 0 0 0 -225 -225 -225 -225 -225 -225 -225 -225 -225 -225 -225 -225 -225 -225 -225 -225 -225 -225 -225 -225 -225 -225 -225 -225 -225 -225 -225 -225 -225 -225 -225 -225 -225 -225 -225 -225 -225 -225 -225 -225 -225 -225 -225 -225 -225 -225 -225 -225 -225 -225 -225 -225 -225 -225 -225 -225 -225 -225 -225 -225 -225 -225 -225 -225 -225 -225 -225 -225 -225 -225 -225 -225 -225 -225 -225 -225 -225 -225 -225 -225 -225 -225 -225 -225 -225 -225 -225 -225 -225 -225 -225 -225 -225 -225 -225 -225 -225 -225 -225 -225 -225 -225 -225 -225 -225 -225 -225 -225 -225 -225 -225 -225 -225 -225 -225 -225 -225 -225 -225 -225 -225 -225 -225 -225 -225 -225 -225 -225 -225 -225 -225 -225 -225 -225 -225 -225 -225 -225 -225 -225 -225 -225 -225 -225 -225 68 70 64 63 57 -177 55 54 -177 135 136 137 137 137 140 138 145 -225 -225 -225 -225 -225 -225 -225 -209 -193 -209 -209 -193 134 132 133 136 -193 135 134 132 134 131 135 134 134 134 136 137 137 136 141 -193 146 144 -193 -193 136 137 136 132 131 128 128 -209 -209 -193 120 119 119 119 118 119 122 124 123 122 123 123 124 127 127 126 130 132 134 137 138 138 138 135 137 138 139 138 139 140 142 138 139 141 138 137 137 137 0 0 0 0 0
    0 0 0 0 0 0 0 0 0 0 0 0 0 0 0 0 0 0 0 0 0 0 0 0 0 0 0 0 0 0 0 0 0 0 0 0 0 0 0 0 0 0 0 0 0 0 0 0 0 0 0 0 0 0 0 0 0 0 0 0 0 0 0 0 0 0 0 0 0 -225 -225 -225 -225 -225 -225 -225 -225 -225 -225 -225 -225 -225 -225 -225 -225 -225 -225 -225 -225 -225 -225 -225 -225 -225 -225 -225 -225 -225 -225 -225 -225 -225 -225 -225 -225 -225 -225 -225 -225 -225 -225 -225 -225 -225 -225 -225 -225 -225 -225 -225 -225 -225 -225 -225 -225 -225 -225 -225 -225 -225 -225 -225 -225 -225 -225 -225 -225 -225 -225 -225 -225 -225 -225 -225 -225 -225 -225 -225 -225 -225 -225 -225 -225 -225 -225 -225 -225 -225 -225 -225 -225 -225 -225 -225 -225 -225 -225 -225 -225 -225 -225 -225 -225 -225 -225 -225 -225 -225 -225 -225 -225 -225 -225 -225 -225 -225 -225 -225 -225 -225 -225 -225 -225 -225 -225 -225 -225 -225 -225 -225 -225 -225 -225 -225 -225 -225 -225 -225 -225 -225 -225 -225 -225 -225 -225 -225 -225 -225 -225 -225 -225 -225 -225 -225 -225 -225 -225 -225 -225 -225 -225 -225 -225 -225 -225 -225 -225 -225 -225 -225 -225 -225 -225 -225 -225 -225 -225 -225 -225 -225 -225 -225 136 137 137 138 137 137 135 135 135 -209 -209 145 -193 -209 -209 -209 131 -193 121 126 125 126 -193 107 -193 124 122 119 119 118 119 122 123 122 122 123 123 124 128 129 130 133 134 135 137 138 138 138 137 138 139 140 139 139 141 143 143 146 151 142 139 139 140 0 0 0 0 0
    0 0 0 0 0 0 0 0 0 0 0 0 0 0 0 0 0 0 0 0 0 0 0 0 0 0 0 0 0 0 0 0 0 0 0 0 0 0 0 0 0 0 0 0 0 0 0 0 0 0 0 0 0 0 0 0 0 0 0 0 0 0 0 0 0 0 0 0 0 -225 -225 -225 -225 -225 -225 -225 -225 -225 -225 -225 -225 -225 -225 -225 -225 -225 -225 -225 -225 -225 -225 -225 -225 -225 -225 -225 -225 -225 -225 -225 -225 -225 -225 -225 -225 -225 -225 -225 -225 -225 -225 -225 -225 -225 -225 -225 -225 -225 -225 -225 -225 -225 -225 -225 -225 -225 -225 -225 -225 -225 -225 -225 -225 -225 -225 -225 -225 -225 -225 -225 -225 -225 -225 -225 -225 -225 -225 -225 -225 -225 -225 -225 -225 -225 -225 -225 -225 -225 -225 -225 -225 -225 -225 -225 -225 -225 -225 -225 -225 -225 -225 -225 -225 -225 -225 -225 -225 -225 -225 -225 -225 -225 -225 -225 -225 -225 -225 -225 -225 -225 -225 -225 -225 -225 -225 -225 -225 -225 -225 -225 -225 -225 -225 -225 -225 -225 -225 -225 -225 -225 -225 -225 -225 -225 -225 -225 -225 -225 -225 -225 -225 -225 -225 -225 -225 -225 -225 -225 -225 -225 -225 -225 -225 -225 -225 -225 -225 -225 -225 -225 -225 -225 -225 -225 -225 -225 -225 -225 -225 -225 -225 -225 -225 -225 -225 -225 -225 -225 -225 -225 -225 -225 -225 -225 -225 -225 -225 -225 116 116 117 112 119 121 121 118 126 136 137 121 124 121 122 124 123 122 122 122 123 124 129 130 131 134 134 135 137 138 138 138 137 138 139 140 141 142 143 145 143 147 152 144 141 140 142 0 0 0 0 0
    0 0 0 0 0 0 0 0 0 0 0 0 0 0 0 0 0 0 0 0 0 0 0 0 0 0 0 0 0 0 0 0 0 0 0 0 0 0 0 0 0 0 0 0 0 0 0 0 0 0 0 0 0 0 0 0 0 0 0 0 0 0 0 0 0 0 0 0 0 -225 -225 -225 -225 -225 -225 -225 -225 -225 -225 -225 -225 -225 -225 -225 -225 -225 -225 -225 -225 -225 -225 -225 -225 -225 -225 -225 -225 -225 -225 -225 -225 -225 -225 -225 -225 -225 -225 -225 -225 -225 -225 -225 -225 -225 -225 -225 -225 -225 -225 -225 -225 -225 -225 -225 -225 -225 -225 -225 -225 -225 -225 -225 -225 -225 -225 -225 -225 -225 -225 -225 -225 -225 -225 -225 -225 -225 -225 -225 -225 -225 -225 -225 -225 -225 -225 -225 -225 -225 -225 -225 -225 -225 -225 -225 -225 -225 -225 -225 -225 -225 -225 -225 -225 -225 -225 -225 -225 -225 -225 -225 -225 -225 -225 -225 -225 -225 -225 -225 -225 -225 -225 -225 -225 -225 -225 -225 -225 -225 -225 -225 -225 -225 -225 -225 -225 -225 -225 -225 -225 -225 -225 -225 -225 -225 -225 -225 -225 -225 -225 -225 -225 -225 -225 -225 -225 -225 -225 -225 -225 -225 -225 -225 -225 -225 -225 -225 -225 -225 -225 -225 -225 -225 -225 -225 -225 -225 -225 -225 -225 -225 -225 -225 -225 -225 -225 -225 -225 -225 -225 -225 -225 -225 -225 -225 -225 -225 -225 -225 -225 -225 -225 -225 116 -193 119 118 126 136 138 138 137 136 133 130 128 127 125 124 122 123 127 127 128 133 133 133 135 137 137 138 137 139 140 141 142 144 146 147 147 150 153 145 141 142 147 0 0 0 0 0
    0 0 0 0 0 0 0 0 0 0 0 0 0 0 0 0 0 0 0 0 0 0 0 0 0 0 0 0 0 0 0 0 0 0 0 0 0 0 0 0 0 0 0 0 0 0 0 0 0 0 0 0 0 0 0 0 0 0 0 0 0 0 0 0 0 0 0 0 0 -225 -225 -225 -225 -225 -225 -225 -225 -225 -225 -225 -225 -225 -225 -225 -225 -225 -225 -225 -225 -225 -225 -225 -225 -225 -225 -225 -225 -225 -225 -225 -225 -225 -225 -225 -225 -225 -225 -225 -225 -225 -225 -225 -225 -225 -225 -225 -225 -225 -225 -225 -225 -225 -225 -225 -225 -225 -225 -225 -225 -225 -225 -225 -225 -225 -225 -225 -225 -225 -225 -225 -225 -225 -225 -225 -225 -225 -225 -225 -225 -225 -225 -225 -225 -225 -225 -225 -225 -225 -225 -225 -225 -225 -225 -225 -225 -225 -225 -225 -225 -225 -225 -225 -225 -225 -225 -225 -225 -225 -225 -225 -225 -225 -225 -225 -225 -225 -225 -225 -225 -225 -225 -225 -225 -225 -225 -225 -225 -225 -225 -225 -225 -225 -225 -225 -225 -225 -225 -225 -225 -225 -225 -225 -225 -225 -225 -225 -225 -225 -225 -225 -225 -225 -225 -225 -225 -225 -225 -225 -225 -225 -225 -225 -225 -225 -225 -225 -225 -225 -225 -225 -225 -225 -225 -225 -225 -225 -225 -225 -225 -225 -225 -225 -225 -225 -225 -225 -225 -225 -225 -225 -225 -225 -225 -225 -225 -225 -225 -225 -225 -225 -225 -225 -225 -225 -225 -225 -225 -225 139 138 138 137 129 133 131 130 125 122 120 122 127 130 130 134 133 133 135 138 139 138 137 138 138 139 141 143 144 146 146 150 151 147 146 146 149 0 0 0 0 0
    0 0 0 0 0 0 0 0 0 0 0 0 0 0 0 0 0 0 0 0 0 0 0 0 0 0 0 0 0 0 0 0 0 0 0 0 0 0 0 0 0 0 0 0 0 0 0 0 0 0 0 0 0 0 0 0 0 0 0 0 0 0 0 0 0 0 0 0 0 -225 -225 -225 -225 -225 -225 -225 -225 -225 -225 -225 -225 -225 -225 -225 -225 -225 -225 -225 -225 -225 -225 -225 -225 -225 -225 -225 -225 -225 -225 -225 -225 -225 -225 -225 -225 -225 -225 -225 -225 -225 -225 -225 -225 -225 -225 -225 -225 -225 -225 -225 -225 -225 -225 -225 -225 -225 -225 -225 -225 -225 -225 -225 -225 -225 -225 -225 -225 -225 -225 -225 -225 -225 -225 -225 -225 -225 -225 -225 -225 -225 -225 -225 -225 -225 -225 -225 -225 -225 -225 -225 -225 -225 -225 -225 -225 -225 -225 -225 -225 -225 -225 -225 -225 -225 -225 -225 -225 -225 -225 -225 -225 -225 -225 -225 -225 -225 -225 -225 -225 -225 -225 -225 -225 -225 -225 -225 -225 -225 -225 -225 -225 -225 -225 -225 -225 -225 -225 -225 -225 -225 -225 -225 -225 -225 -225 -225 -225 -225 -225 -225 -225 -225 -225 -225 -225 -225 -225 -225 -225 -225 -225 -225 -225 -225 -225 -225 -225 -225 -225 -225 -225 -225 -225 -225 -225 -225 -225 -225 -225 -225 -225 -225 -225 -225 -225 -225 -225 -225 -225 -225 -225 -225 -225 -225 -225 -225 -225 -225 -225 -225 -225 -225 -225 -225 -225 -225 -225 -225 -225 -225 -225 134 133 133 131 130 129 -209 -209 126 134 136 136 138 138 137 137 138 138 138 137 137 137 138 139 142 143 145 147 151 152 150 149 149 152 0 0 0 0 0
    0 0 0 0 0 0 0 0 0 0 0 0 0 0 0 0 0 0 0 0 0 0 0 0 0 0 0 0 0 0 0 0 0 0 0 0 0 0 0 0 0 0 0 0 0 0 0 0 0 0 0 0 0 0 0 0 0 0 0 0 0 0 0 0 0 0 0 0 0 -225 -225 -225 -225 -225 -225 -225 -225 -225 -225 -225 -225 -225 -225 -225 -225 -225 -225 -225 -225 -225 -225 -225 -225 -225 -225 -225 -225 -225 -225 -225 -225 -225 -225 -225 -225 -225 -225 -225 -225 -225 -225 -225 -225 -225 -225 -225 -225 -225 -225 -225 -225 -225 -225 -225 -225 -225 -225 -225 -225 -225 -225 -225 -225 -225 -225 -225 -225 -225 -225 -225 -225 -225 -225 -225 -225 -225 -225 -225 -225 -225 -225 -225 -225 -225 -225 -225 -225 -225 -225 -225 -225 -225 -225 -225 -225 -225 -225 -225 -225 -225 -225 -225 -225 -225 -225 -225 -225 -225 -225 -225 -225 -225 -225 -225 -225 -225 -225 -225 -225 -225 -225 -225 -225 -225 -225 -225 -225 -225 -225 -225 -225 -225 -225 -225 -225 -225 -225 -225 -225 -225 -225 -225 -225 -225 -225 -225 -225 -225 -225 -225 -225 -225 -225 -225 -225 -225 -225 -225 -225 -225 -225 -225 -225 -225 -225 -225 -225 -225 -225 -225 -225 -225 -225 -225 -225 -225 -225 -225 -225 -225 -225 -225 -225 -225 -225 -225 -225 -225 -225 -225 -225 -225 -225 -225 -225 -225 -225 -225 -225 -225 -225 -225 -225 -225 -225 -225 -225 -225 -225 -225 -225 -225 125 130 126 126 -209 -209 -209 -209 -209 -209 -209 131 129 125 130 134 135 137 137 137 136 138 139 141 141 144 148 150 151 150 149 149 151 0 0 0 0 0
    0 0 0 0 0 0 0 0 0 0 0 0 0 0 0 0 0 0 0 0 0 0 0 0 0 0 0 0 0 0 0 0 0 0 0 0 0 0 0 0 0 0 0 0 0 0 0 0 0 0 0 0 0 0 0 0 0 0 0 0 0 0 0 0 0 0 0 0 0 -225 -225 -225 -225 -225 -225 -225 -225 -225 -225 -225 -225 -225 -225 -225 -225 -225 -225 -225 -225 -225 -225 -225 -225 -225 -225 -225 -225 -225 -225 -225 -225 -225 -225 -225 -225 -225 -225 -225 -225 -225 -225 -225 -225 -225 -225 -225 -225 -225 -225 -225 -225 -225 -225 -225 -225 -225 -225 -225 -225 -225 -225 -225 -225 -225 -225 -225 -225 -225 -225 -225 -225 -225 -225 -225 -225 -225 -225 -225 -225 -225 -225 -225 -225 -225 -225 -225 -225 -225 -225 -225 -225 -225 -225 -225 -225 -225 -225 -225 -225 -225 -225 -225 -225 -225 -225 -225 -225 -225 -225 -225 -225 -225 -225 -225 -225 -225 -225 -225 -225 -225 -225 -225 -225 -225 -225 -225 -225 -225 -225 -225 -225 -225 -225 -225 -225 -225 -225 -225 -225 -225 -225 -225 -225 -225 -225 -225 -225 -225 -225 -225 -225 -225 -225 -225 -225 -225 -225 -225 -225 -225 -225 -225 -225 -225 -225 -225 -225 -225 -225 -225 -225 -225 -225 -225 -225 -225 -225 -225 -225 -225 -225 -225 -225 -225 -225 -225 -225 -225 -225 -225 -225 -225 -225 -225 -225 -225 -225 -225 -225 -225 -225 -225 -225 -225 -225 -225 -225 -225 -225 -225 -225 -225 -209 -209 -209 -209 -209 -209 -209 -209 -209 -209 -209 -209 -209 -193 -193 124 130 135 135 135 135 137 138 140 140 143 146 148 149 148 146 148 151 0 0 0 0 0
    0 0 0 0 0 0 0 0 0 0 0 0 0 0 0 0 0 0 0 0 0 0 0 0 0 0 0 0 0 0 0 0 0 0 0 0 0 0 0 0 0 0 0 0 0 0 0 0 0 0 0 0 0 0 0 0 0 0 0 0 0 0 0 0 0 0 0 0 0 -225 -225 -225 -225 -225 -225 -225 -225 -225 -225 -225 -225 -225 -225 -225 -225 -225 -225 -225 -225 -225 -225 -225 -225 -225 -225 -225 -225 -225 -225 -225 -225 -225 -225 -225 -225 -225 -225 -225 -225 -225 -225 -225 -225 -225 -225 -225 -225 -225 -225 -225 -225 -225 -225 -225 -225 -225 -225 -225 -225 -225 -225 -225 -225 -225 -225 -225 -225 -225 -225 -225 -225 -225 -225 -225 -225 -225 -225 -225 -225 -225 -225 -225 -225 -225 -225 -225 -225 -225 -225 -225 -225 -225 -225 -225 -225 -225 -225 -225 -225 -225 -225 -225 -225 -225 -225 -225 -225 -225 -225 -225 -225 -225 -225 -225 -225 -225 -225 -225 -225 -225 -225 -225 -225 -225 -225 -225 -225 -225 -225 -225 -225 -225 -225 -225 -225 -225 -225 -225 -225 -225 -225 -225 -225 -225 -225 -225 -225 -225 -225 -225 -225 -225 -225 -225 -225 -225 -225 -225 -225 -225 -225 -225 -225 -225 -225 -225 -225 -225 -225 -225 -225 -225 -225 -225 -225 -225 -225 -225 -225 -225 -225 -225 -225 -225 -225 -225 -225 -225 -225 -225 -225 -225 -225 -225 -225 -225 -225 -225 -225 -225 -225 -225 -225 -225 -225 -225 -225 -225 -225 -225 -225 -225 -225 -209 -209 -209 -209 -209 -209 -209 -209 -209 -209 -209 -209 -209 -193 -193 -193 -193 -209 -209 126 132 134 136 136 146 151 149 149 149 146 150 153 0 0 0 0 0
    0 0 0 0 0 0 0 0 0 0 0 0 0 0 0 0 0 0 0 0 0 0 0 0 0 0 0 0 0 0 0 0 0 0 0 0 0 0 0 0 0 0 0 0 0 0 0 0 0 0 0 0 0 0 0 0 0 0 0 0 0 0 0 0 0 0 0 0 0 -225 -225 -225 -225 -225 -225 -225 -225 -225 -225 -225 -225 -225 -225 -225 -225 -225 -225 -225 -225 -225 -225 -225 -225 -225 -225 -225 -225 -225 -225 -225 -225 -225 -225 -225 -225 -225 -225 -225 -225 -225 -225 -225 -225 -225 -225 -225 -225 -225 -225 -225 -225 -225 -225 -225 -225 -225 -225 -225 -225 -225 -225 -225 -225 -225 -225 -225 -225 -225 -225 -225 -225 -225 -225 -225 -225 -225 -225 -225 -225 -225 -225 -225 -225 -225 -225 -225 -225 -225 -225 -225 -225 -225 -225 -225 -225 -225 -225 -225 -225 -225 -225 -225 -225 -225 -225 -225 -225 -225 -225 -225 -225 -225 -225 -225 -225 -225 -225 -225 -225 -225 -225 -225 -225 -225 -225 -225 -225 -225 -225 -225 -225 -225 -225 -225 -225 -225 -225 -225 -225 -225 -225 -225 -225 -225 -225 -225 -225 -225 -225 -225 -225 -225 -225 -225 -225 -225 -225 -225 -225 -225 -225 -225 -225 -225 -225 -225 -225 -225 -225 -225 -225 -225 -225 -225 -225 -225 -225 -225 -225 -225 -225 -225 -225 -225 -225 -225 -225 -225 -225 -225 -225 -225 -225 -225 -225 -225 -225 -225 -225 -225 -225 -225 -225 -225 -225 -225 -225 -225 -225 -225 -225 -225 -225 -193 -193 -209 -209 -209 -209 -209 -209 -209 -209 -209 -209 -209 -193 107 -193 -193 -209 -209 116 121 124 123 129 -209 -209 -209 149 153 149 151 153 0 0 0 0 0
    0 0 0 0 0 0 0 0 0 0 0 0 0 0 0 0 0 0 0 0 0 0 0 0 0 0 0 0 0 0 0 0 0 0 0 0 0 0 0 0 0 0 0 0 0 0 0 0 0 0 0 0 0 0 0 0 0 0 0 0 0 0 0 0 0 0 0 0 0 -225 -225 -225 -225 -225 -225 -225 -225 -225 -225 -225 -225 -225 -225 -225 -225 -225 -225 -225 -225 -225 -225 -225 -225 -225 -225 -225 -225 -225 -225 -225 -225 -225 -225 -225 -225 -225 -225 -225 -225 -225 -225 -225 -225 -225 -225 -225 -225 -225 -225 -225 -225 -225 -225 -225 -225 -225 -225 -225 -225 -225 -225 -225 -225 -225 -225 -225 -225 -225 -225 -225 -225 -225 -225 -225 -225 -225 -225 -225 -225 -225 -225 -225 -225 -225 -225 -225 -225 -225 -225 -225 -225 -225 -225 -225 -225 -225 -225 -225 -225 -225 -225 -225 -225 -225 -225 -225 -225 -225 -225 -225 -225 -225 -225 -225 -225 -225 -225 -225 -225 -225 -225 -225 -225 -225 -225 -225 -225 -225 -225 -225 -225 -225 -225 -225 -225 -225 -225 -225 -225 -225 -225 -225 -225 -225 -225 -225 -225 -225 -225 -225 -225 -225 -225 -225 -225 -225 -225 -225 -225 -225 -225 -225 -225 -225 -225 -225 -225 -225 -225 -225 -225 -225 -225 -225 -225 -225 -225 -225 -225 -225 -225 -225 -225 -225 -225 -225 -225 -225 -225 -225 -225 -225 -225 -225 -225 -225 -225 -225 -225 -225 -225 -225 -225 -225 -225 -225 -225 -225 -225 -225 -225 -225 -225 -209 -209 16 -209 -209 -193 -193 -193 -177 0 -209 -209 -209 -209 -193 116 -193 -209 -193 117 121 123 -209 -209 120 123 127 135 -193 138 142 145 0 0 0 0 0
    0 0 0 0 0 0 0 0 0 0 0 0 0 0 0 0 0 0 0 0 0 0 0 0 0 0 0 0 0 0 0 0 0 0 0 0 0 0 0 0 0 0 0 0 0 0 0 0 0 0 0 0 0 0 0 0 0 0 0 0 0 0 0 0 0 0 0 0 0 -225 -225 -225 -225 -225 -225 -225 -225 -225 -225 -225 -225 -225 -225 -225 -225 -225 -225 -225 -225 -225 -225 -225 -225 -225 -225 -225 -225 -225 -225 -225 -225 -225 -225 -225 -225 -225 -225 -225 -225 -225 -225 -225 -225 -225 -225 -225 -225 -225 -225 -225 -225 -225 -225 -225 -225 -225 -225 -225 -225 -225 -225 -225 -225 -225 -225 -225 -225 -225 -225 -225 -225 -225 -225 -225 -225 -225 -225 -225 -225 -225 -225 -225 -225 -225 -225 -225 -225 -225 -225 -225 -225 -225 -225 -225 -225 -225 -225 -225 -225 -225 -225 -225 -225 -225 -225 -225 -225 -225 -225 -225 -225 -225 -225 -225 -225 -225 -225 -225 -225 -225 -225 -225 -225 -225 -225 -225 -225 -225 -225 -225 -225 -225 -225 -225 -225 -225 -225 -225 -225 -225 -225 -225 -225 -225 -225 -225 -225 -225 -225 -225 -225 -225 -225 -225 -225 -225 -225 -225 -225 -225 -225 -225 -225 -225 -225 -225 -225 -225 -225 -225 -225 -225 -225 -225 -225 -225 -225 -225 -225 -225 -225 -225 -225 -225 -225 -225 -225 -225 -225 -225 -225 -225 -225 -225 -225 -225 -225 -225 -225 -225 -225 -225 -225 -225 -225 -225 -225 -225 -225 -225 -225 -225 -225 -225 -209 17 -209 -193 0 0 0 -177 0 0 -177 -177 -209 -193 117 -193 -209 107 120 121 123 -209 -209 -209 -209 -193 132 133 135 141 -209 0 0 0 0 0
    0 0 0 0 0 0 0 0 0 0 0 0 0 0 0 0 0 0 0 0 0 0 0 0 0 0 0 0 0 0 0 0 0 0 0 0 0 0 0 0 0 0 0 0 0 0 0 0 0 0 0 0 0 0 0 0 0 0 0 0 0 0 0 0 0 0 0 0 0 -193 232 -193 -209 76 -225 -225 -225 -225 -225 -225 -225 -225 -225 -225 -225 -225 -225 -193 -193 -209 -193 531 531 528 -193 -209 -193 -209 -209 -193 -193 -209 -209 -209 -193 -193 -209 -193 -209 -209 285 -193 -225 -225 -193 790 -225 -225 -225 -225 -225 -225 -225 -225 -225 -225 -225 -225 -225 -225 -225 -225 -225 -225 -225 -225 -225 -225 -225 -225 -225 -225 -225 -225 -225 -225 -225 -225 -225 -225 -225 -225 -225 -225 -225 -225 -225 -225 -225 -225 -225 -225 -225 -225 -225 -225 -225 -225 -225 -225 -225 -225 -225 -225 -225 -225 -225 -225 -225 -225 -225 -225 -225 -225 -225 -225 -225 -225 -225 -225 -225 -225 -225 -225 -225 -225 -225 -225 -225 -225 -225 -225 -225 -225 -225 -225 -225 -225 -225 -225 -225 -225 -225 -225 -225 -225 -225 -225 -225 -225 -225 -225 -225 -225 -225 -225 -225 -225 -225 -225 -225 -225 -225 -225 -225 -225 -225 -225 -225 -225 -225 -225 -225 -225 -225 -225 -225 -225 -225 -225 -225 -225 -225 -225 -225 -225 -225 -225 -225 -225 -225 -225 -225 -225 -225 -225 -225 -225 -225 -225 -225 -225 -225 -225 -225 -225 -225 -225 -225 -225 -225 -225 -225 -225 -209 21 -209 -193 0 0 0 -177 -177 -177 -177 -177 -209 102 105 -209 -209 -209 -177 119 -209 205 206 204 202 -209 -193 131 134 -209 -209 0 0 0 0 0
    0 0 0 0 0 0 0 0 0 0 0 0 0 0 0 0 0 0 0 0 0 0 0 0 0 0 0 0 0 0 0 0 0 0 0 0 0 0 0 0 0 0 0 0 0 0 0 0 0 0 0 0 0 0 0 0 0 0 0 0 0 0 0 0 0 0 0 0 0 232 232 233 234 -209 235 233 234 -225 -225 -225 -225 -225 -225 -225 -225 -209 533 -193 -209 -193 -209 -209 -209 -193 -193 236 236 -193 -209 -193 -193 -209 -193 -209 -193 228 -193 -193 -193 -193 -193 -193 -209 -209 -209 -193 -193 -193 -209 -209 -209 -209 -209 -225 -225 -225 -225 -225 -225 -225 -225 -225 -225 -225 -225 -225 -225 -225 -225 -225 -225 -225 -225 -225 -209 -209 -209 -225 -225 130 134 -209 -209 -225 -225 -225 -225 -225 -193 -209 -209 231 229 225 228 -193 -209 -193 -209 -209 -209 -209 -209 -209 -193 -193 -225 -225 -225 -225 -225 -225 -225 -225 -225 -225 -225 -225 -225 -225 -225 -225 -225 -225 -225 -225 -225 -225 -225 -225 -225 -225 -225 -225 -225 -225 -225 -225 -225 -225 -225 -225 -225 -225 -225 -225 -225 -225 -225 -225 -225 -225 -225 -225 -225 -225 -225 -225 -225 -225 -225 -225 -225 -225 -225 -225 -225 -225 -225 -225 -225 -225 -225 -225 -225 -225 -225 -225 -225 -225 -225 -225 -225 -225 -225 -225 -225 -225 -225 -225 -225 -225 -225 -225 -225 -225 -225 -225 -225 -225 -225 -225 -225 -225 -225 -225 -225 -225 -225 -225 -225 -225 -225 -225 -209 -209 -193 -209 0 0 -193 -177 -177 -177 -177 -177 -209 103 -177 -209 -177 -209 -209 -209 205 208 210 208 205 201 -209 -209 -209 -209 -209 0 0 0 0 0
    0 0 0 0 0 0 0 0 0 0 0 0 0 0 0 0 0 0 0 0 0 0 0 0 0 0 0 0 0 0 0 0 0 0 0 0 0 0 0 0 0 0 0 0 0 0 0 0 0 0 0 0 0 0 0 0 0 0 0 0 0 0 0 0 0 0 0 0 0 232 232 233 234 233 235 233 234 234 234 -193 -193 230 230 -193 232 -209 -193 -193 -193 234 -193 234 233 -209 233 236 236 236 -209 238 239 236 236 -209 -193 228 -193 -209 -193 -193 231 230 232 -193 -193 -193 -193 -209 -209 -209 -209 -209 228 224 222 223 222 -193 222 -225 -225 -225 -193 -225 -193 -177 -225 -225 -209 -209 -209 434 438 -209 -209 -209 -209 -193 -177 -193 -193 -209 -209 -209 176 179 -193 -193 -193 -209 -209 230 229 226 226 -193 -209 -193 -209 -209 -209 -209 -209 -209 -193 -209 496 -209 -209 -193 -193 -225 -225 -225 -177 -225 -225 -225 -225 -225 -225 -225 -225 230 -177 230 230 229 231 -193 -209 -193 373 371 -193 -193 -177 -193 -209 -209 -209 -225 -225 -225 -225 -225 -225 -225 -225 -225 -225 -225 -225 -225 -225 -225 -225 -225 -225 -225 -225 -225 -225 -225 -225 -225 -225 -225 -225 -225 -225 -225 -225 -225 -225 -225 -225 -225 -225 -225 -225 -225 -225 -225 -225 -225 -225 -225 -225 -225 -225 -225 -225 -225 -225 -225 -225 -225 -225 -225 -225 -225 -225 -193 219 -225 -225 -225 -225 -225 -225 -225 -225 -225 -209 -209 31 -209 -193 -193 -193 -177 -177 -177 -177 -177 -209 104 -177 -177 -209 -209 -209 -209 207 209 211 209 206 203 -193 -209 -209 -209 -209 0 0 0 0 0
    0 0 0 0 0 0 0 0 0 0 0 0 0 0 0 0 0 0 0 0 0 0 0 0 0 0 0 0 0 0 0 0 0 0 0 0 0 0 0 0 0 0 0 0 0 0 0 0 0 0 0 0 0 0 0 0 0 0 0 0 0 0 0 0 0 0 0 0 0 232 233 233 234 233 234 233 233 234 234 232 231 231 232 233 232 -193 -193 -193 -193 234 234 234 233 233 232 235 235 235 233 238 238 236 236 -193 230 229 229 -193 230 230 230 230 232 -209 -209 -209 -209 233 -209 -209 -209 230 228 226 225 223 224 224 223 229 -209 -209 -209 -193 -193 -193 -177 -177 -209 -209 -209 -177 -177 -209 443 -209 -209 -209 -193 -177 -177 -193 219 -193 -193 229 228 229 -193 -209 230 230 228 226 227 228 227 227 222 -193 -177 -209 -209 -209 -209 -209 -209 -209 230 231 -193 -193 -177 -177 -177 -209 -209 -193 -209 -209 223 229 228 229 227 229 229 228 229 228 -193 -193 -177 -193 -193 227 226 225 226 222 225 222 -193 217 -225 -225 -225 -225 -225 -225 235 240 -193 -193 -209 -193 -193 -193 221 -225 -225 -225 -225 -225 -225 -225 -225 -225 -225 -225 -225 -225 -225 -225 -225 -225 -225 -225 -225 -225 -225 -225 -225 -225 -225 -225 -193 -209 -209 -209 -193 221 -193 -209 -193 -209 225 225 224 -209 -209 -209 -193 220 219 220 -193 221 222 223 222 224 -225 -225 -209 -209 32 -209 -193 9 -193 -177 -177 -177 -177 -177 -209 106 108 -177 -209 -193 -209 -209 -177 211 212 210 207 206 205 205 214 221 219 0 0 0 0 0
    0 0 0 0 0 0 0 0 0 0 0 0 0 0 0 0 0 0 0 0 0 0 0 0 0 0 0 0 0 0 0 0 0 0 0 0 0 0 0 0 0 0 0 0 0 0 0 0 0 0 0 0 0 0 0 0 0 0 0 0 0 0 0 0 0 0 0 0 0 232 233 233 233 232 233 232 232 234 233 232 231 231 232 232 232 -193 -193 -193 -193 234 234 234 233 232 231 233 234 234 233 237 236 234 235 -193 -193 230 230 -193 230 231 230 230 231 231 -193 -193 232 233 232 -209 232 231 229 228 226 225 225 226 223 229 231 236 -209 -209 -193 -209 -177 -193 -193 -209 -209 -209 -177 -209 -209 -209 -209 -209 -209 -193 -193 -193 221 223 225 229 227 228 229 231 230 230 229 227 228 229 228 228 225 225 -193 -193 -209 -193 -193 -209 -209 227 230 229 231 230 -209 -193 227 229 226 225 226 223 225 229 228 230 228 229 229 228 229 228 228 227 -193 227 228 227 226 226 226 223 227 223 225 218 219 223 229 232 234 234 236 240 -193 232 232 227 222 223 221 223 225 227 227 229 228 -225 -225 -225 -225 -225 -225 -225 230 -209 -193 -193 -193 -193 -209 -177 -177 -209 -209 -209 -209 230 -193 226 225 224 222 222 222 223 224 -193 224 224 222 222 -193 223 221 220 220 221 221 222 222 223 222 224 222 221 222 -193 -193 -209 -193 9 -193 -193 -177 -177 -177 -177 -209 107 -177 -177 -209 -209 -193 -193 211 213 213 211 210 215 -209 -209 216 224 222 0 0 0 0 0
    0 0 0 0 0 0 0 0 0 0 0 0 0 0 0 0 0 0 0 0 0 0 0 0 0 0 0 0 0 0 0 0 0 0 0 0 0 0 0 0 0 0 0 0 0 0 0 0 0 0 0 0 0 0 0 0 0 0 0 0 0 0 0 0 0 0 0 0 0 232 232 233 232 231 231 230 231 233 232 232 231 231 232 232 232 -193 -193 233 234 234 234 234 234 232 231 232 233 234 233 237 236 234 235 -193 -193 230 230 -193 230 231 230 229 231 230 232 232 231 232 231 232 231 231 230 228 227 227 227 228 225 230 232 238 -209 243 241 -209 -209 -209 360 -209 -209 -193 -177 -209 -209 -209 -209 -209 -209 -193 -193 225 222 224 224 228 227 227 229 231 231 231 230 229 229 230 229 228 226 226 -193 226 -193 -193 223 -193 -193 228 230 229 231 230 -193 229 228 230 228 227 228 225 226 229 228 229 228 229 229 228 229 228 228 227 228 226 227 227 226 226 227 224 227 224 228 223 224 227 229 231 233 234 236 237 230 228 228 226 224 223 221 222 224 223 225 226 227 228 230 234 233 229 230 231 231 -193 -193 -193 -193 -193 -209 -177 -177 -209 -209 -209 229 229 230 226 225 225 223 223 223 225 225 224 224 224 222 223 223 224 221 220 221 222 222 223 223 223 222 224 223 222 222 222 -193 -209 -209 15 -193 -193 -193 -209 -209 -209 -193 -177 -177 -177 -209 -193 217 213 214 214 215 214 215 220 -209 -209 222 229 228 0 0 0 0 0
    0 0 0 0 0 0 0 0 0 0 0 0 0 0 0 0 0 0 0 0 0 0 0 0 0 0 0 0 0 0 0 0 0 0 0 0 0 0 0 0 0 0 0 0 0 0 0 0 0 0 0 0 0 0 0 0 0 0 0 0 0 0 0 0 0 0 0 0 0 232 232 232 230 230 231 229 231 233 231 231 231 231 231 232 232 233 -193 233 234 234 234 234 234 232 230 232 232 233 232 236 235 235 236 -193 232 231 230 -193 230 230 230 229 231 231 232 232 231 232 231 232 231 231 230 229 227 228 227 228 223 230 231 237 -209 -209 237 -209 -209 -209 360 -209 -209 -177 -209 -209 -209 -209 -209 -209 -193 -193 -193 227 222 225 226 229 228 228 229 231 231 232 231 230 230 231 230 230 227 227 -193 227 -193 -193 225 226 -193 228 230 229 231 230 228 229 229 230 229 228 228 226 226 229 228 229 228 229 229 228 229 228 229 227 228 227 227 227 226 227 227 225 228 225 229 227 228 229 230 231 233 233 234 234 228 227 228 227 225 224 222 223 224 223 224 223 224 224 227 232 230 227 228 230 229 -193 226 225 -193 -193 -209 -177 -177 -177 -209 -193 228 228 229 226 226 226 224 223 223 226 225 223 224 224 223 224 224 225 222 221 222 223 223 224 223 223 222 224 223 221 222 222 223 226 227 -193 -193 -209 -209 -209 -209 -209 -209 -177 -193 -209 218 220 219 216 216 217 218 218 220 224 224 222 225 229 228 0 0 0 0 0
    0 0 0 0 0 0 0 0 0 0 0 0 0 0 0 0 0 0 0 0 0 0 0 0 0 0 0 0 0 0 0 0 0 0 0 0 0 0 0 0 0 0 0 0 0 0 0 0 0 0 0 0 0 0 0 0 0 0 0 0 0 0 0 0 0 0 0 0 0 232 232 232 230 229 231 230 231 232 231 231 231 231 231 231 232 233 232 233 233 0 -256 -1 -10458 231 230 232 232 232 232 235 235 234 235 234 233 232 -193 -193 231 231 230 230 231 231 233 232 231 231 231 231 231 231 230 229 227 228 228 228 227 230 230 233 -193 -193 234 -209 -209 -209 357 -209 -209 -209 -209 -209 -209 231 -193 -193 230 229 228 228 224 227 227 230 228 228 229 231 230 231 230 229 229 231 230 230 228 228 -193 228 230 229 227 227 227 229 230 230 231 230 228 229 229 230 229 228 229 227 227 230 228 229 228 229 229 229 229 229 229 227 228 227 227 227 226 227 227 225 228 225 229 228 229 229 229 230 231 232 233 231 227 226 228 227 225 224 223 223 225 224 224 224 224 225 227 229 228 227 228 229 229 228 226 226 -193 -193 -193 -209 -193 -209 -193 -193 227 228 229 226 227 226 225 224 224 226 225 223 224 224 223 226 227 227 224 223 223 224 223 224 223 223 222 223 222 221 222 222 223 225 226 225 225 226 224 224 224 223 223 -193 222 221 220 222 221 220 219 221 222 223 223 225 224 223 224 226 224 0 0 0 0 0
    0 0 0 0 0 0 0 0 0 0 0 0 0 0 0 0 0 0 0 0 0 0 0 0 0 0 0 0 0 0 0 0 0 0 0 0 0 0 0 0 0 0 0 0 0 0 0 0 0 0 0 0 0 0 0 0 0 0 0 0 0 0 0 0 0 0 0 0 0 231 231 232 229 229 231 229 231 232 231 231 231 231 231 231 232 233 232 233 233 233 233 234 234 231 230 231 232 232 232 235 234 234 235 234 233 232 232 232 231 231 230 230 232 232 -193 -193 231 231 230 231 230 231 230 229 228 229 229 229 229 231 231 233 -193 235 234 231 231 -209 -193 231 231 231 231 233 232 231 231 230 230 230 229 229 226 228 228 230 229 228 229 230 230 230 230 229 229 231 231 230 229 229 229 229 231 230 229 228 228 230 230 230 231 231 228 228 228 230 228 228 229 227 227 230 229 230 229 230 229 229 229 229 229 227 228 227 227 227 226 228 228 225 228 226 229 228 229 229 228 229 230 230 231 228 225 224 226 225 225 224 223 224 225 225 224 225 226 226 227 228 228 227 227 228 228 227 225 225 -193 227 -193 225 -193 -193 -193 -193 226 227 229 226 227 226 225 224 224 226 225 224 225 225 224 228 228 228 225 223 223 224 224 224 223 222 222 222 222 220 221 221 223 224 225 224 224 225 224 224 224 223 223 223 223 222 221 224 225 225 225 227 228 228 228 227 227 225 225 226 224 0 0 0 0 0
    0 0 0 0 0 0 0 0 0 0 0 0 0 0 0 0 0 0 0 0 0 0 0 0 0 0 0 0 0 0 0 0 0 0 0 0 0 0 0 0 0 0 0 0 0 0 0 0 0 0 0 0 0 0 0 0 0 0 0 0 0 0 0 0 0 0 0 0 0 232 231 231 228 227 230 229 230 232 230 231 231 230 230 231 232 232 232 232 233 233 233 234 234 231 230 231 232 233 233 235 235 235 236 235 234 233 233 232 230 231 230 230 231 231 232 231 -193 230 230 230 229 230 230 229 228 229 230 230 231 231 230 232 232 234 233 231 230 230 230 231 230 231 230 232 231 231 230 230 230 229 229 229 226 228 228 230 229 228 229 231 230 230 230 230 229 231 231 231 230 229 230 230 231 231 230 229 228 229 230 229 230 229 227 226 227 229 228 228 229 228 227 230 229 230 229 230 230 229 229 229 229 228 229 227 228 227 227 228 228 226 228 226 229 228 229 228 228 228 228 228 228 224 224 223 225 225 224 224 224 224 226 226 225 226 227 228 228 229 228 227 227 228 228 227 226 226 227 226 228 226 225 -193 -193 -193 225 227 228 226 226 226 225 224 225 226 225 224 225 225 224 228 228 228 225 224 224 224 224 224 222 222 221 222 222 220 221 220 223 224 225 224 224 225 224 224 224 223 223 223 224 223 223 226 227 227 227 228 229 230 229 228 228 226 227 227 226 0 0 0 0 0
    0 0 0 0 0 0 0 0 0 0 0 0 0 0 0 0 0 0 0 0 0 0 0 0 0 0 0 0 0 0 0 0 0 0 0 0 0 0 0 0 0 0 0 0 0 0 0 0 0 0 0 0 0 0 0 0 0 0 0 0 0 0 0 0 0 0 0 0 0 231 231 230 226 224 229 228 230 231 231 231 231 231 230 231 231 232 231 232 232 232 232 233 233 231 230 231 233 233 234 235 235 235 236 235 235 234 233 232 230 230 230 230 231 231 230 230 -193 230 229 229 229 230 230 230 229 230 230 231 231 231 229 231 231 233 231 229 229 229 229 231 230 230 230 233 231 231 230 230 230 229 228 229 225 228 228 230 229 228 229 230 230 230 230 230 229 231 231 231 230 230 230 230 230 231 230 229 228 229 229 228 229 228 226 226 227 229 229 229 229 228 228 230 230 230 229 230 230 229 229 228 229 227 228 227 227 227 227 228 228 226 229 227 229 228 229 228 227 227 226 227 226 224 224 224 226 226 225 225 225 225 226 225 225 226 226 228 228 229 228 228 228 229 228 227 226 227 228 227 228 226 225 225 228 228 225 227 228 226 226 226 226 224 225 226 224 223 224 224 224 227 227 227 225 224 225 224 224 224 223 222 221 221 222 220 221 221 223 224 225 224 223 224 224 224 224 222 223 223 223 224 224 227 228 227 228 228 229 230 230 228 227 226 227 227 226 0 0 0 0 0
    0 0 0 0 0 0 0 0 0 0 0 0 0 0 0 0 0 0 0 0 0 0 0 0 0 0 0 0 0 0 0 0 0 0 0 0 0 0 0 0 0 0 0 0 0 0 0 0 0 0 0 0 0 0 0 0 0 0 0 0 0 0 0 0 0 0 0 0 0 230 230 230 226 223 228 227 229 231 230 230 231 230 230 230 231 231 231 231 231 230 231 232 233 231 231 231 233 233 234 235 235 235 236 235 235 234 234 232 230 231 230 230 231 231 230 230 -193 230 230 230 230 231 230 230 230 231 231 231 232 231 229 231 231 233 231 229 229 229 229 231 230 231 230 233 231 231 230 230 230 230 229 229 226 228 228 229 228 228 228 229 229 229 230 230 229 230 230 231 230 229 230 229 230 231 230 229 228 228 229 228 229 228 226 226 227 229 229 229 229 228 228 230 229 229 229 229 229 229 228 228 229 227 229 227 227 227 227 229 229 227 229 227 230 229 230 228 226 226 225 226 226 225 225 225 227 227 226 226 226 225 225 224 223 223 226 228 228 228 228 228 229 229 229 228 228 228 229 228 229 227 227 226 228 227 225 227 228 226 226 226 226 225 225 227 223 222 224 223 224 226 227 227 226 224 226 225 225 224 223 222 222 222 223 221 221 222 224 224 225 223 223 223 223 224 223 222 223 222 224 225 226 228 229 228 229 229 230 229 229 227 227 226 226 226 225 0 0 0 0 0
    0 0 0 0 0 0 0 0 0 0 0 0 0 0 0 0 0 0 0 0 0 0 0 0 0 0 0 0 0 0 0 0 0 0 0 0 0 0 0 0 0 0 0 0 0 0 0 0 0 0 0 0 0 0 0 0 0 0 0 0 0 0 0 0 0 0 0 0 0 230 230 230 227 224 228 227 229 230 230 230 231 230 230 230 231 231 231 231 231 230 231 232 232 231 231 231 233 233 234 235 235 235 236 235 235 234 234 233 231 231 231 231 232 232 231 -193 -193 230 231 230 230 231 230 231 230 232 232 231 232 231 229 231 230 233 230 229 229 229 229 231 231 231 230 233 231 231 231 231 231 230 229 230 227 229 228 229 228 228 228 229 229 229 230 230 229 230 230 231 230 229 230 229 229 231 230 229 228 228 229 228 229 228 227 226 227 228 229 229 228 228 228 230 229 229 229 229 229 230 228 228 229 228 229 228 228 228 228 230 229 227 229 228 230 230 230 227 225 224 223 225 225 224 224 224 226 226 226 226 225 224 224 224 222 222 225 228 228 228 228 228 229 229 229 228 228 229 229 228 229 227 227 226 228 227 225 227 227 226 226 227 226 225 225 227 223 222 224 224 224 227 228 228 227 225 226 226 225 225 224 223 223 223 224 222 222 223 224 223 224 223 223 223 223 224 224 222 224 223 224 225 227 228 229 228 229 228 229 229 229 227 227 226 227 226 225 0 0 0 0 0
    0 0 0 0 0 0 0 0 0 0 0 0 0 0 0 0 0 0 0 0 0 0 0 0 0 0 0 0 0 0 0 0 0 0 0 0 0 0 0 0 0 0 0 0 0 0 0 0 0 0 0 0 0 0 0 0 0 0 0 0 0 0 0 0 0 0 0 0 0 232 231 231 228 226 229 227 230 230 230 230 231 230 230 229 231 231 231 231 230 230 231 232 232 231 231 231 232 232 234 234 234 234 235 235 236 235 235 233 232 232 232 232 233 232 231 231 -193 230 231 230 231 231 230 231 230 233 232 232 232 230 229 230 230 232 230 228 229 229 229 230 230 231 230 233 231 230 230 230 231 230 229 230 227 229 229 230 229 228 229 228 229 229 229 230 229 230 231 231 230 229 230 229 229 231 229 229 228 228 228 228 229 228 226 226 226 227 229 229 228 228 229 230 230 229 230 229 229 230 228 228 229 228 229 228 228 228 228 230 229 227 229 228 229 229 229 226 224 223 222 224 224 224 223 224 225 226 225 226 226 224 224 225 223 223 226 228 229 228 228 228 228 229 228 228 227 227 228 227 228 227 226 226 227 227 225 227 227 226 227 227 226 226 226 227 222 222 224 224 225 227 228 228 226 226 226 225 225 224 224 223 223 223 224 222 223 222 224 222 223 222 222 222 223 224 224 222 224 223 225 226 227 228 228 228 229 228 229 229 229 227 228 226 227 226 225 0 0 0 0 0
    0 0 0 0 0 0 0 0 0 0 0 0 0 0 0 0 0 0 0 0 0 0 0 0 0 0 0 0 0 0 0 0 0 0 0 0 0 0 0 0 0 0 0 0 0 0 0 0 0 0 0 0 0 0 0 0 0 0 0 0 0 0 0 0 0 0 0 0 0 233 232 232 230 228 230 228 230 230 230 230 231 230 229 229 230 231 230 230 230 229 230 231 232 230 230 231 232 232 233 233 234 233 235 234 235 235 235 233 232 231 232 232 233 232 230 231 230 230 231 230 231 231 230 231 230 232 232 231 232 230 229 230 230 231 229 228 229 229 229 230 230 230 230 232 230 230 230 230 231 230 229 230 227 230 230 230 230 228 229 228 228 228 229 229 228 230 230 231 230 230 230 230 229 231 230 229 227 228 228 228 228 228 226 225 225 227 228 229 228 228 229 230 230 230 230 229 229 230 228 228 229 228 229 229 228 228 228 230 230 227 228 227 227 228 228 225 224 223 223 224 224 223 223 223 224 225 225 226 226 225 225 226 224 225 227 230 229 229 228 228 228 229 228 227 227 226 227 227 227 227 226 226 227 226 225 228 227 226 226 226 226 225 226 227 222 223 224 225 226 228 229 228 227 226 227 225 225 224 224 223 223 223 224 222 224 222 224 222 223 221 222 222 222 223 223 222 224 223 225 226 228 228 228 228 229 229 229 229 229 227 228 227 226 225 225 0 0 0 0 0
    0 0 0 0 0 0 0 0 0 0 0 0 0 0 0 0 0 0 0 0 0 0 0 0 0 0 0 0 0 0 0 0 0 0 0 0 0 0 0 0 0 0 0 0 0 0 0 0 0 0 0 0 0 0 0 0 0 0 0 0 0 0 0 0 0 0 0 0 0 233 232 233 231 229 230 229 230 230 231 230 231 230 230 229 230 230 230 230 229 229 229 230 231 230 230 231 232 232 233 233 233 233 234 234 234 234 234 231 231 230 231 232 232 231 230 230 230 230 231 230 231 230 230 231 230 232 232 231 232 230 230 230 230 231 230 229 229 228 228 229 229 230 229 231 229 229 230 230 231 230 229 230 227 230 230 230 229 227 228 228 227 227 228 229 228 229 230 230 230 229 230 230 229 231 230 229 228 228 228 228 228 228 226 225 225 227 228 228 228 228 229 230 230 230 230 229 229 230 228 228 229 228 228 228 228 228 229 230 229 226 227 227 226 226 226 224 224 222 223 223 223 223 223 223 223 223 224 225 226 225 225 227 225 227 229 231 230 229 228 229 228 228 228 227 226 226 227 227 226 227 227 226 226 226 225 228 226 226 226 226 226 225 225 226 221 223 224 226 227 228 229 228 227 226 227 225 225 224 224 223 223 223 224 222 224 221 223 222 222 220 221 221 221 222 223 222 224 223 225 226 228 228 227 228 229 229 230 230 230 227 228 227 226 225 225 0 0 0 0 0
    0 0 0 0 0 0 0 0 0 0 0 0 0 0 0 0 0 0 0 0 0 0 0 0 0 0 0 0 0 0 0 0 0 0 0 0 0 0 0 0 0 0 0 0 0 0 0 0 0 0 0 0 0 0 0 0 0 0 0 0 0 0 0 0 0 0 0 0 0 233 233 233 231 230 231 229 231 231 231 230 231 231 230 229 230 230 230 229 229 229 228 229 231 230 230 231 232 232 233 233 233 233 233 233 233 233 232 230 230 229 230 231 231 230 230 230 230 230 231 229 230 230 230 231 230 232 232 231 232 230 230 231 231 232 231 230 230 229 229 229 229 229 228 230 228 228 230 230 231 230 229 230 227 230 230 229 229 227 228 227 228 228 228 229 228 229 230 230 230 229 229 230 228 231 229 229 227 228 228 228 228 228 226 226 225 227 228 228 227 228 229 230 230 230 230 229 229 229 228 228 228 228 228 228 228 227 228 229 229 226 226 226 225 225 225 223 224 222 223 223 223 223 223 222 223 222 223 224 225 225 225 227 225 227 229 231 230 229 229 229 228 228 228 227 226 226 227 226 226 227 226 226 226 226 225 227 226 226 225 225 225 225 225 225 220 223 224 226 228 228 229 228 227 226 227 225 225 224 225 224 224 224 225 222 224 221 222 221 222 220 220 220 220 222 223 222 224 224 226 226 228 228 227 227 229 228 229 230 230 227 228 227 226 226 225 0 0 0 0 0
    0 0 0 0 0 0 0 0 0 0 0 0 0 0 0 0 0 0 0 0 0 0 0 0 0 0 0 0 0 0 0 0 0 0 0 0 0 0 0 0 0 0 0 0 0 0 0 0 0 0 0 0 0 0 0 0 0 0 0 0 0 0 0 0 0 0 0 0 0 234 233 233 231 230 230 230 230 231 231 231 231 231 230 230 230 230 230 229 229 229 228 229 231 230 230 231 232 232 232 233 233 232 233 232 233 233 232 230 230 229 230 231 231 230 230 230 230 230 231 229 230 230 230 231 230 232 232 231 232 230 231 231 231 231 230 230 230 229 228 228 228 229 227 230 228 227 230 230 231 230 229 230 226 230 230 229 228 226 227 227 228 228 228 229 228 229 230 230 229 229 228 229 227 230 228 229 227 228 228 228 228 228 226 226 225 227 228 228 227 228 229 230 230 230 229 228 229 229 227 228 228 227 227 227 227 226 228 229 228 225 225 225 225 225 225 223 224 221 222 222 222 222 222 222 223 222 223 224 225 224 225 226 225 225 228 230 230 229 229 229 228 228 228 228 227 226 227 226 225 226 226 225 225 225 225 227 225 225 224 224 225 225 225 225 220 223 224 226 227 226 227 227 225 226 227 225 226 225 226 225 225 224 225 223 224 221 221 221 221 219 220 219 219 221 223 222 226 225 227 227 229 228 226 226 228 227 228 230 229 226 228 227 226 225 225 0 0 0 0 0
    0 0 0 0 0 0 0 0 0 0 0 0 0 0 0 0 0 0 0 0 0 0 0 0 0 0 0 0 0 0 0 0 0 0 0 0 0 0 0 0 0 0 0 0 0 0 0 0 0 0 0 0 0 0 0 0 0 0 0 0 0 0 0 0 0 0 0 0 0 234 233 232 231 230 230 229 230 230 231 230 231 231 230 230 230 230 229 229 229 228 228 229 230 230 230 231 231 232 232 232 232 232 232 232 232 233 232 231 232 230 232 232 232 231 230 231 230 230 231 230 231 230 230 230 230 232 232 232 233 230 231 231 230 231 230 229 229 228 228 228 228 229 227 230 228 227 230 230 231 230 230 230 227 231 230 229 228 225 227 226 227 228 227 229 228 229 230 230 229 229 228 229 226 230 228 229 228 228 228 228 228 228 226 227 226 227 228 228 227 227 228 229 229 229 228 228 229 228 226 227 227 227 226 227 227 225 228 228 228 224 224 224 225 225 225 223 224 221 222 223 223 223 223 222 223 222 224 224 225 225 226 226 225 224 227 228 229 228 228 228 227 228 228 227 227 226 227 225 225 226 225 225 224 224 225 227 225 225 224 224 225 225 225 225 220 224 225 226 227 225 226 226 225 226 227 225 226 225 226 226 225 225 225 224 224 221 221 221 221 220 220 219 219 221 224 224 227 226 228 228 229 228 226 226 227 226 228 230 229 226 228 227 225 225 224 0 0 0 0 0
    0 0 0 0 0 0 0 0 0 0 0 0 0 0 0 0 0 0 0 0 0 0 0 0 0 0 0 0 0 0 0 0 0 0 0 0 0 0 0 0 0 0 0 0 0 0 0 0 0 0 0 0 0 0 0 0 0 0 0 0 0 0 0 0 0 0 0 0 0 234 234 233 231 230 230 229 229 230 230 230 231 231 230 230 230 230 229 229 229 228 227 229 230 229 229 231 230 230 231 231 231 230 231 230 231 232 232 231 232 230 233 233 233 232 232 -193 231 230 232 230 231 230 230 230 230 232 232 231 233 229 231 230 230 230 229 229 229 228 228 228 228 229 227 230 228 227 230 230 231 231 230 230 227 232 231 229 228 226 227 227 228 228 227 229 228 229 230 230 229 229 228 229 226 230 228 229 228 228 227 228 228 228 226 227 226 227 228 228 227 227 228 229 229 229 228 227 229 228 226 227 227 226 225 226 226 225 227 227 227 224 224 225 225 225 225 223 224 221 222 222 222 222 223 222 223 222 224 225 225 225 226 226 226 224 227 226 228 227 227 227 227 227 227 227 226 225 226 225 224 225 225 224 223 224 225 226 225 224 224 224 225 225 226 225 221 226 226 227 227 225 226 227 225 226 226 225 225 225 226 225 224 225 225 224 224 222 222 221 222 220 221 220 219 221 225 225 229 227 229 230 230 229 227 226 227 227 229 231 229 226 227 226 225 224 223 0 0 0 0 0
    0 0 0 0 0 0 0 0 0 0 0 0 0 0 0 0 0 0 0 0 0 0 0 0 0 0 0 0 0 0 0 0 0 0 0 0 0 0 0 0 0 0 0 0 0 0 0 0 0 0 0 0 0 0 0 0 0 0 0 0 0 0 0 0 0 0 0 0 0 234 234 233 232 231 230 230 230 230 231 230 231 231 230 230 231 230 229 229 229 228 227 228 230 228 227 230 229 229 230 229 230 228 229 229 230 230 231 230 231 230 232 232 232 232 233 232 231 231 232 230 232 230 230 230 230 232 232 231 232 228 231 230 229 230 229 229 230 228 229 229 229 229 228 230 228 228 230 230 231 230 230 230 227 231 230 229 228 226 227 228 228 229 227 229 229 230 231 230 230 230 229 230 227 231 229 229 228 228 227 228 228 228 226 227 227 227 228 228 227 227 227 229 229 229 228 228 229 228 226 228 226 226 225 226 226 224 227 227 226 224 224 224 224 224 225 222 224 221 222 222 222 222 222 221 222 221 224 225 225 226 227 226 227 226 227 226 227 227 227 226 226 226 225 225 225 224 226 224 224 225 225 224 223 224 225 226 225 224 223 223 225 225 226 225 221 227 227 229 228 225 227 227 225 226 226 224 225 225 226 225 224 224 224 224 224 222 222 222 222 221 -193 220 220 222 226 227 230 228 230 231 231 230 228 226 227 228 229 230 228 225 226 225 224 223 223 0 0 0 0 0
    0 0 0 0 0 0 0 0 0 0 0 0 0 0 0 0 0 0 0 0 0 0 0 0 0 0 0 0 0 0 0 0 0 0 0 0 0 0 0 0 0 0 0 0 0 0 0 0 0 0 0 0 0 0 0 0 0 0 0 0 0 0 0 0 0 0 0 0 0 233 233 232 231 231 231 230 231 231 231 230 231 231 230 230 230 230 228 228 229 228 226 228 229 228 226 230 229 228 229 228 229 228 228 228 229 229 230 228 230 228 -193 230 230 229 -193 231 230 229 230 229 -193 230 230 231 231 232 232 232 233 229 231 230 229 229 229 229 229 228 228 228 229 229 227 230 227 227 229 229 230 229 229 229 225 231 230 228 228 226 227 228 228 228 227 229 229 231 232 231 231 231 230 231 229 231 229 229 228 228 227 228 228 228 226 227 228 227 228 228 227 227 227 229 228 229 228 228 229 227 226 228 226 226 225 226 225 224 226 225 224 223 223 223 224 224 225 223 225 221 223 222 222 222 222 221 222 221 224 225 225 226 227 225 227 226 226 224 226 225 227 225 225 224 224 224 224 224 225 223 224 225 226 224 224 224 226 226 224 224 223 223 225 225 226 224 221 226 226 229 229 226 228 227 226 226 226 225 225 225 226 225 223 224 224 224 224 222 222 222 222 -193 -193 -193 220 222 226 227 230 228 230 231 231 230 228 226 226 228 229 230 228 225 225 224 223 223 222 0 0 0 0 0
    0 0 0 0 0 0 0 0 0 0 0 0 0 0 0 0 0 0 0 0 0 0 0 0 0 0 0 0 0 0 0 0 0 0 0 0 0 0 0 0 0 0 0 0 0 0 0 0 0 0 0 0 0 0 0 0 0 0 0 0 0 0 0 0 0 0 0 0 0 232 233 231 231 231 231 230 230 231 231 230 231 232 231 230 231 230 228 228 228 228 226 228 229 228 226 229 229 228 229 228 229 228 227 228 229 228 229 227 229 227 -193 229 -193 -193 -193 230 -193 -193 -193 229 -193 230 230 230 230 232 231 232 232 229 231 230 229 229 229 230 229 228 228 228 228 227 226 230 226 226 228 228 229 228 228 229 224 231 229 228 227 226 227 227 228 228 227 229 230 233 233 233 233 233 232 232 231 232 229 229 229 229 227 228 228 229 226 227 228 228 227 228 227 227 227 228 228 228 227 228 228 227 226 228 226 226 224 225 224 223 226 224 223 223 223 223 224 225 225 223 226 222 223 222 222 222 222 221 221 220 224 225 226 227 228 226 228 228 226 222 223 222 225 223 224 223 223 225 225 224 226 223 225 224 226 224 223 223 226 226 224 224 223 223 225 225 226 224 222 226 226 229 228 225 227 227 226 226 226 225 225 226 226 224 223 223 223 223 223 221 221 221 221 221 221 220 219 220 225 226 229 227 230 230 230 229 227 226 225 227 229 230 228 224 224 224 223 223 222 0 0 0 0 0
    0 0 0 0 0 0 0 0 0 0 0 0 0 0 0 0 0 0 0 0 0 0 0 0 0 0 0 0 0 0 0 0 0 0 0 0 0 0 0 0 0 0 0 0 0 0 0 0 0 0 0 0 0 0 0 0 0 0 0 0 0 0 0 0 0 0 0 0 0 231 232 231 231 230 230 230 230 231 231 231 231 232 231 231 231 231 229 229 229 228 226 227 228 228 226 229 229 228 230 228 230 228 228 228 229 228 229 227 229 227 -193 229 -193 -193 -193 230 -193 228 227 228 230 229 230 229 230 230 231 231 231 229 229 229 229 228 229 229 229 227 227 227 227 226 225 230 226 226 228 227 228 227 228 228 223 230 229 227 226 225 227 227 227 228 227 229 230 233 233 233 233 233 233 232 231 231 229 230 229 229 227 228 228 229 227 228 229 228 227 228 227 227 226 228 227 227 226 227 227 226 225 228 226 226 223 224 223 223 225 224 222 223 223 223 225 225 225 223 225 221 223 222 222 221 222 220 221 220 224 225 226 228 228 227 228 228 223 221 221 221 224 222 224 222 223 224 225 225 226 223 226 224 226 224 223 223 226 226 224 224 223 223 225 225 226 223 222 225 225 227 227 224 226 226 225 226 225 224 224 225 226 224 222 223 222 223 222 221 220 220 221 220 220 220 218 220 224 226 228 227 229 229 229 228 226 225 224 226 228 229 227 224 224 223 222 222 221 0 0 0 0 0
    0 0 0 0 0 0 0 0 0 0 0 0 0 0 0 0 0 0 0 0 0 0 0 0 0 0 0 0 0 0 0 0 0 0 0 0 0 0 0 0 0 0 0 0 0 0 0 0 0 0 0 0 0 0 0 0 0 0 0 0 0 0 0 0 0 0 0 0 0 231 231 230 230 230 230 229 230 231 231 231 231 232 231 232 232 231 229 229 229 228 227 228 228 227 225 229 229 228 230 228 230 228 228 228 229 228 229 227 229 227 229 229 -193 -193 -193 231 228 227 226 228 229 229 229 229 229 230 230 230 231 229 229 229 229 228 228 229 229 227 227 227 228 225 226 230 225 226 227 227 227 227 228 228 222 230 228 227 226 226 227 227 227 228 227 229 230 233 232 233 233 232 232 231 230 230 229 229 229 228 227 228 228 229 227 228 229 227 227 228 227 227 226 227 227 227 226 227 227 226 225 228 226 225 223 224 223 223 224 224 222 222 223 223 224 225 224 222 224 220 222 221 221 221 222 220 221 221 224 226 226 227 228 225 228 226 221 219 220 220 223 221 224 222 222 224 225 224 226 222 226 223 226 225 223 223 227 226 224 224 223 223 224 225 225 222 222 224 223 226 225 222 224 224 223 224 223 223 223 225 225 223 222 222 222 223 221 220 219 220 220 220 220 219 218 220 224 225 227 226 228 227 228 227 225 225 224 226 227 229 227 223 223 223 221 221 221 0 0 0 0 0
    0 0 0 0 0 0 0 0 0 0 0 0 0 0 0 0 0 0 0 0 0 0 0 0 0 0 0 0 0 0 0 0 0 0 0 0 0 0 0 0 0 0 0 0 0 0 0 0 0 0 0 0 0 0 0 0 0 0 0 0 0 0 0 0 0 0 0 0 0 231 231 230 230 230 230 229 230 230 231 231 232 232 232 233 232 231 229 229 229 228 227 228 228 227 225 229 229 228 230 229 230 228 228 228 229 228 229 228 229 227 229 229 -193 -193 -209 -193 229 228 227 229 229 229 229 229 229 229 230 230 230 229 228 228 228 227 227 228 228 227 227 228 229 225 227 231 226 226 226 227 226 226 227 227 222 229 228 227 226 226 227 227 227 227 227 229 230 233 232 232 232 232 232 230 230 230 228 229 229 228 227 228 228 229 227 228 229 227 227 227 227 227 226 227 226 226 225 226 225 224 224 227 226 225 224 224 224 224 224 224 222 221 223 222 224 225 223 222 223 220 221 221 221 221 222 222 222 222 225 227 226 227 227 225 228 226 220 218 220 219 223 221 223 221 222 224 225 224 225 222 226 222 226 225 223 223 227 226 224 225 224 223 224 225 225 222 222 224 223 225 224 222 223 224 223 223 222 222 222 224 224 222 221 221 220 222 221 219 218 219 219 219 220 219 218 220 224 226 227 226 228 224 226 225 223 224 223 225 227 228 226 224 223 223 221 221 221 0 0 0 0 0
    0 0 0 0 0 0 0 0 0 0 0 0 0 0 0 0 0 0 0 0 0 0 0 0 0 0 0 0 0 0 0 0 0 0 0 0 0 0 0 0 0 0 0 0 0 0 0 0 0 0 0 0 0 0 0 0 0 0 0 0 0 0 0 0 0 0 0 0 0 231 231 230 229 230 230 230 230 231 230 231 232 232 232 232 232 231 229 229 229 228 228 228 228 227 225 229 229 228 230 228 230 228 228 228 229 228 229 228 229 228 230 230 -193 -193 -209 -193 231 230 228 230 230 230 229 229 229 229 229 229 229 228 227 228 227 226 227 228 228 226 227 229 229 225 228 231 226 226 227 227 226 226 227 227 222 229 228 226 226 226 227 227 227 227 227 229 230 232 231 231 231 231 232 230 229 229 228 228 228 227 226 227 227 228 227 228 228 227 226 227 227 226 225 226 225 225 224 225 224 223 224 227 227 226 225 225 224 225 225 225 223 222 223 223 224 225 223 222 223 221 223 222 223 224 224 225 225 226 226 227 226 227 226 226 227 226 221 220 221 220 223 222 223 221 222 223 224 223 224 222 226 223 227 226 223 223 228 226 224 225 224 223 224 225 224 221 221 224 223 225 224 222 223 224 223 223 222 221 221 222 222 221 219 219 219 220 219 218 217 217 217 218 219 219 218 220 223 224 224 224 225 220 222 222 220 223 222 225 226 227 226 223 223 222 221 221 220 0 0 0 0 0
    0 0 0 0 0 0 0 0 0 0 0 0 0 0 0 0 0 0 0 0 0 0 0 0 0 0 0 0 0 0 0 0 0 0 0 0 0 0 0 0 0 0 0 0 0 0 0 0 0 0 0 0 0 0 0 0 0 0 0 0 0 0 0 0 0 0 0 0 0 230 230 229 229 230 231 231 232 231 231 231 232 233 232 232 232 231 230 230 230 229 228 229 229 228 225 229 229 228 229 228 229 227 228 228 229 227 228 227 228 227 228 229 -193 -193 -209 -193 231 231 228 230 229 229 228 228 228 228 229 229 229 228 227 228 227 226 227 228 228 227 228 229 229 225 229 231 226 226 228 226 226 226 227 226 222 227 227 225 225 226 227 227 227 227 228 228 230 232 230 232 231 232 231 231 230 230 229 228 228 227 227 227 227 227 226 227 228 227 226 227 226 226 225 226 225 225 223 225 223 224 224 227 227 226 226 226 225 226 226 226 224 222 224 223 225 225 223 223 223 222 225 224 225 226 226 227 226 227 227 228 227 227 226 226 226 226 222 221 222 221 223 222 223 222 222 223 224 223 223 223 226 224 228 227 224 224 228 227 225 225 224 223 224 224 224 221 221 223 223 224 224 223 223 224 223 223 222 221 221 222 221 220 219 218 218 219 218 217 216 215 215 217 219 218 217 220 222 223 223 223 223 220 221 222 220 224 223 225 225 226 225 223 222 222 220 220 220 0 0 0 0 0
    0 0 0 0 0 0 0 0 0 0 0 0 0 0 0 0 0 0 0 0 0 0 0 0 0 0 0 0 0 0 0 0 0 0 0 0 0 0 0 0 0 0 0 0 0 0 0 0 0 0 0 0 0 0 0 0 0 0 0 0 0 0 0 0 0 0 0 0 0 231 231 230 229 230 231 231 232 231 231 231 232 233 233 233 232 232 231 231 231 230 229 230 230 229 227 230 230 229 230 229 230 228 229 228 229 228 228 227 227 226 227 228 -193 227 230 229 229 230 227 230 228 229 228 228 228 228 229 229 228 228 226 227 227 226 227 228 228 227 227 228 229 225 229 231 225 226 228 226 227 226 227 226 223 227 227 224 226 226 227 227 227 227 228 228 230 232 231 232 232 232 232 231 231 230 230 229 228 228 227 228 228 228 227 227 228 227 227 227 227 226 226 227 225 225 224 226 224 224 223 226 228 227 227 226 225 226 226 226 225 222 224 222 225 225 224 224 224 224 227 226 227 227 227 228 226 227 227 227 227 226 225 226 225 226 222 222 223 222 223 222 223 222 222 223 223 223 223 223 225 224 227 227 224 225 228 226 224 225 224 224 224 224 223 220 220 222 222 223 223 222 223 223 223 223 222 221 221 221 221 220 219 219 218 219 219 218 218 217 216 218 220 219 219 221 222 223 223 223 222 219 219 220 220 224 223 225 225 226 224 222 222 222 220 219 220 0 0 0 0 0
    0 0 0 0 0 0 0 0 0 0 0 0 0 0 0 0 0 0 0 0 0 0 0 0 0 0 0 0 0 0 0 0 0 0 0 0 0 0 0 0 0 0 0 0 0 0 0 0 0 0 0 0 0 0 0 0 0 0 0 0 0 0 0 0 0 0 0 0 0 233 232 231 231 231 232 231 231 230 231 232 233 233 233 233 233 233 231 231 231 230 230 231 230 230 228 231 231 231 231 230 230 229 230 229 230 229 229 228 227 226 227 228 230 227 230 229 229 230 228 230 228 229 228 228 227 227 228 228 228 228 224 226 227 227 228 229 -193 227 228 229 229 227 229 231 226 226 228 227 228 227 228 227 223 227 227 224 225 225 227 226 228 228 229 229 230 232 231 232 231 231 231 231 231 230 229 229 228 228 228 228 228 228 227 227 228 228 227 227 227 226 227 227 226 225 224 226 225 225 224 226 229 227 228 227 226 227 226 227 225 222 224 223 225 226 225 226 226 227 228 227 228 227 226 228 226 227 226 226 227 226 225 227 224 227 223 222 224 222 223 223 223 222 222 223 224 222 224 223 225 222 225 225 222 224 228 226 224 226 225 225 224 225 224 220 220 221 221 221 221 222 222 223 222 222 221 220 221 221 220 220 219 219 219 221 220 220 219 219 219 219 221 220 220 222 224 223 223 223 221 217 218 218 219 223 223 225 225 226 224 222 222 221 220 219 219 0 0 0 0 0
    0 0 0 0 0 0 0 0 0 0 0 0 0 0 0 0 0 0 0 0 0 0 0 0 0 0 0 0 0 0 0 0 0 0 0 0 0 0 0 0 0 0 0 0 0 0 0 0 0 0 0 0 0 0 0 0 0 0 0 0 0 0 0 0 0 0 0 0 0 235 233 232 232 232 232 232 232 231 232 232 233 234 234 234 234 234 232 232 232 231 231 231 230 230 229 231 231 231 232 231 230 229 230 229 230 229 229 229 228 227 228 229 -209 -193 -193 231 231 231 229 231 228 229 227 226 226 225 226 226 226 226 223 225 227 227 228 229 -193 227 228 229 230 227 229 231 227 227 229 227 228 227 228 227 224 227 227 224 226 225 227 226 228 228 230 229 230 231 230 231 231 231 230 231 230 230 229 229 228 228 228 228 228 228 228 228 228 228 227 227 227 226 227 227 226 225 224 226 224 225 223 225 229 227 228 227 227 228 227 227 226 223 225 223 226 226 225 227 226 227 228 228 228 227 225 228 225 227 226 226 227 226 225 227 225 228 225 224 225 223 224 223 224 222 223 223 224 222 223 223 224 221 223 225 221 223 228 227 225 227 227 226 226 227 226 221 221 223 221 221 221 223 222 223 222 223 222 221 221 221 221 220 220 220 220 222 221 221 221 220 221 221 222 221 220 223 224 223 223 223 221 218 219 218 219 224 224 226 225 226 225 222 222 221 220 220 220 0 0 0 0 0
    0 0 0 0 0 0 0 0 0 0 0 0 0 0 0 0 0 0 0 0 0 0 0 0 0 0 0 0 0 0 0 0 0 0 0 0 0 0 0 0 0 0 0 0 0 0 0 0 0 0 0 0 0 0 0 0 0 0 0 0 0 0 0 0 0 0 0 0 0 236 233 232 232 232 232 232 232 231 232 232 233 234 234 234 234 234 233 233 232 231 231 232 231 231 230 232 231 232 232 231 230 229 230 229 230 230 230 -193 228 228 -193 -193 -209 -209 233 232 231 232 229 231 227 228 226 225 225 224 225 225 225 225 222 224 226 227 228 230 -209 228 229 230 230 228 229 231 227 227 230 228 228 228 229 227 224 227 227 223 226 225 227 226 228 228 230 229 229 230 229 231 231 230 230 230 230 230 229 228 228 227 228 228 228 228 228 228 228 228 228 227 227 226 227 227 226 225 223 225 224 225 223 224 229 227 229 227 227 228 227 227 226 223 225 223 226 226 225 227 225 227 228 227 228 227 225 227 225 227 226 226 227 225 225 227 224 227 224 224 226 223 224 223 223 222 222 222 223 222 222 223 223 221 222 224 221 223 228 227 225 228 228 228 227 228 228 223 224 225 223 221 222 224 222 223 223 223 222 221 221 221 221 220 220 220 221 223 222 222 222 221 223 222 224 223 221 224 226 226 226 227 225 219 222 220 221 227 226 227 226 226 225 223 223 221 221 221 220 0 0 0 0 0
    0 0 0 0 0 0 0 0 0 0 0 0 0 0 0 0 0 0 0 0 0 0 0 0 0 0 0 0 0 0 0 0 0 0 0 0 0 0 0 0 0 0 0 0 0 0 0 0 0 0 0 0 0 0 0 0 0 0 0 0 0 0 0 0 0 0 0 0 0 238 234 232 233 232 233 232 232 231 231 232 233 233 234 234 234 234 233 233 232 231 232 232 232 231 231 233 232 233 233 231 230 230 -193 229 230 230 -193 -193 -193 -193 -193 -193 -193 -209 234 233 232 232 230 232 228 228 226 225 225 224 224 225 225 224 221 223 224 227 228 230 -209 228 230 231 231 228 230 232 228 228 230 228 229 228 229 228 225 227 227 224 227 225 227 226 228 228 230 229 229 230 229 231 231 230 230 230 230 229 229 228 228 227 229 228 228 228 228 227 228 229 228 227 227 226 227 227 227 225 224 226 225 225 223 224 230 227 229 228 228 229 228 228 227 224 226 224 227 227 226 227 226 227 228 227 228 227 225 228 225 227 226 226 227 225 225 227 224 227 225 224 226 223 224 223 223 222 222 222 223 222 223 223 223 221 222 223 221 223 228 227 225 228 229 228 227 229 228 224 225 226 224 222 223 225 223 223 223 223 222 221 221 221 221 220 221 220 221 223 223 223 223 222 224 223 226 225 223 225 228 229 230 232 232 228 228 227 229 231 230 228 226 226 225 224 225 222 222 222 222 0 0 0 0 0
    0 0 0 0 0 0 0 0 0 0 0 0 0 0 0 0 0 0 0 0 0 0 0 0 0 0 0 0 0 0 0 0 0 0 0 0 0 0 0 0 0 0 0 0 0 0 0 0 0 0 0 0 0 0 0 0 0 0 0 0 0 0 0 0 0 0 0 0 0 239 235 -193 234 233 234 233 233 231 232 233 234 234 234 234 234 234 233 234 233 232 232 233 232 232 232 233 232 233 234 232 230 230 231 230 231 230 -193 838 -193 -193 -193 848 -193 -209 -193 233 232 232 -193 -193 229 228 227 226 225 223 223 223 223 221 218 220 221 225 227 230 -209 228 230 232 231 229 230 232 229 229 232 229 230 229 229 228 226 227 227 224 228 226 227 227 229 229 231 230 230 230 230 231 -193 -193 230 -193 230 230 230 228 228 228 229 229 229 228 228 227 228 229 228 227 227 225 228 226 227 225 224 226 226 225 223 223 230 227 230 229 228 229 228 229 228 225 228 225 227 227 227 228 227 228 229 228 228 227 225 228 226 227 226 226 227 225 226 227 225 228 227 227 227 225 226 224 224 223 224 223 224 223 224 225 223 220 221 222 220 223 227 227 225 229 230 229 229 229 230 227 227 228 227 224 226 -193 -193 224 224 224 223 221 222 221 221 220 221 221 222 224 224 223 223 223 226 225 227 227 224 226 230 231 232 234 234 234 233 234 236 238 237 -193 225 224 225 226 227 223 223 224 225 0 0 0 0 0
    0 0 0 0 0 0 0 0 0 0 0 0 0 0 0 0 0 0 0 0 0 0 0 0 0 0 0 0 0 0 0 0 0 0 0 0 0 0 0 0 0 0 0 0 0 0 0 0 0 0 0 0 0 0 0 0 0 0 0 0 0 0 0 0 0 0 0 0 0 -193 -193 -193 -193 -209 -193 234 234 231 232 233 234 234 234 234 234 234 234 235 234 233 234 235 234 233 233 232 232 232 233 231 229 229 231 230 231 -193 836 838 839 843 846 847 -193 -209 -209 -209 -193 -193 957 961 -193 228 227 225 224 221 221 221 220 217 215 216 217 218 224 -193 -209 228 230 231 231 229 230 232 230 230 232 229 230 229 230 228 226 227 227 224 228 225 226 227 228 229 231 230 230 230 230 232 -209 -193 -193 -193 230 230 230 228 227 227 228 228 228 228 228 226 228 230 228 227 226 225 228 227 227 226 224 227 227 226 224 224 230 228 230 229 229 230 229 229 229 226 229 226 228 227 228 230 228 230 230 229 229 228 226 228 226 227 226 226 227 226 226 227 225 229 228 229 228 226 226 225 225 224 224 223 224 224 -193 227 223 220 221 221 219 223 226 227 225 230 231 231 230 231 231 230 229 230 229 225 -193 -193 -209 224 225 225 224 222 222 221 -193 221 222 221 222 224 224 223 224 224 227 226 227 228 226 227 230 232 233 235 236 237 236 236 240 240 239 246 223 222 226 227 228 224 225 225 227 0 0 0 0 0
    0 0 0 0 0 0 0 0 0 0 0 0 0 0 0 0 0 0 0 0 0 0 0 0 0 0 0 0 0 0 0 0 0 0 0 0 0 0 0 0 0 0 0 0 0 0 0 0 0 0 0 0 0 0 0 0 0 0 0 0 0 0 0 0 0 0 0 0 0 -193 -193 -193 -193 -209 -193 233 233 231 232 233 234 234 234 234 234 235 235 236 235 234 235 237 235 235 234 233 232 232 234 232 228 229 231 230 231 -193 836 838 839 843 846 846 -193 -209 -209 -209 -193 -193 957 960 -193 -193 228 223 222 219 219 218 218 214 212 211 215 216 220 -193 -209 229 231 232 231 231 231 232 230 230 232 228 230 229 229 228 227 227 227 224 228 -193 226 226 227 -193 -193 230 229 230 230 -209 954 955 -193 -193 -193 230 230 229 228 227 -193 -193 229 228 228 227 229 231 229 228 228 227 230 228 229 228 226 229 228 228 226 225 230 229 -193 230 231 231 230 230 230 228 -193 226 229 -193 228 231 230 231 231 230 229 228 226 228 225 227 226 226 227 225 226 228 225 230 -193 -209 229 226 227 226 -193 -193 225 224 225 224 -193 -193 -193 -193 221 221 218 223 226 228 227 231 233 232 232 232 234 233 231 231 -209 225 -209 -209 -209 223 -193 226 225 223 223 222 -209 221 223 223 223 226 226 224 225 226 228 227 228 228 227 229 232 234 235 237 238 240 238 237 240 239 238 242 225 224 229 230 230 227 227 228 230 0 0 0 0 0
    0 0 0 0 0 0 0 0 0 0 0 0 0 0 0 0 0 0 0 0 0 0 0 0 0 0 0 0 0 0 0 0 0 0 0 0 0 0 0 0 0 0 0 0 0 0 0 0 0 0 0 0 0 0 0 0 0 0 0 0 0 0 0 0 0 0 0 0 0 -193 -177 -177 -193 -193 -193 -193 233 231 233 235 235 234 235 235 235 236 236 237 235 234 235 237 236 -193 235 -209 232 234 237 234 229 230 231 230 -193 -193 837 838 -193 843 -225 -225 -225 -225 -225 -209 -193 -209 957 -193 -193 -193 229 223 222 -193 -193 -193 216 211 207 205 213 -209 -209 -193 -209 -193 -193 234 235 233 232 233 231 230 232 228 230 229 229 229 227 227 228 -193 -209 -193 -209 -209 -193 -209 -209 -209 -209 -193 -193 951 953 955 956 957 -193 -193 -193 -193 227 -193 -193 -193 -193 229 230 228 230 -193 -193 -193 230 229 231 230 230 230 228 230 230 -193 227 225 229 229 -193 230 231 231 230 230 231 -193 -193 229 -209 -193 230 232 232 232 232 231 230 228 223 227 223 225 224 224 226 224 225 227 -193 -193 -225 -225 -225 -225 -193 -193 -193 -193 -193 -193 -193 -193 -209 -209 -209 -209 -209 -193 -193 221 227 231 231 234 236 235 234 235 237 236 234 -209 -209 -209 -209 -209 -209 -209 -209 -209 -209 -209 -209 -209 -209 -209 -193 -209 -209 -193 -193 -193 226 226 228 227 228 228 228 229 232 235 236 238 239 242 239 237 239 238 237 237 229 227 231 -193 -209 231 231 231 233 0 0 0 0 0
    0 0 0 0 0 0 0 0 0 0 0 0 0 0 0 0 0 0 0 0 0 0 0 0 0 0 0 0 0 0 0 0 0 0 0 0 0 0 0 0 0 0 0 0 0 0 0 0 0 0 0 0 0 0 0 0 0 0 0 0 0 0 0 0 0 0 0 0 0 -225 -225 -225 -225 -225 -225 -225 -225 -225 -225 -225 -225 -225 237 238 236 237 237 238 235 233 235 706 710 713 712 711 713 -193 -225 -225 -225 -225 -225 -225 -225 -225 -225 -225 -225 -225 -225 -225 -225 -225 -225 -225 -225 -225 -209 -209 -193 -209 -209 642 -193 -225 -225 -225 -225 -225 -225 -225 -225 -225 -225 -225 -225 -225 -225 -225 -209 -193 -177 -209 -209 -209 -209 -209 230 231 -209 -209 -209 -209 -209 -209 -209 -225 -225 -225 -225 -225 -225 -225 -209 942 948 949 953 955 955 957 957 959 959 -209 -209 -209 855 -209 -209 230 -193 229 231 -209 -209 -209 -209 231 233 231 232 231 230 230 -193 -193 -225 -225 227 227 -193 232 233 233 -209 -193 -193 -193 -193 -193 -193 -225 -193 -225 -225 -225 -225 -225 -225 -225 -225 -225 -225 -193 -225 -225 -225 -225 -225 -225 -225 -225 -225 -225 -225 -225 -225 -225 77 -209 -209 -209 626 -209 699 -193 -209 -193 -193 953 -193 -209 -209 -209 -209 236 240 237 237 238 240 -193 -209 -209 -209 -209 -209 -209 -209 -209 -209 -209 -209 -209 -209 -209 -209 -209 -209 -209 -209 -209 -209 -177 -209 -193 -193 -193 227 227 228 230 233 238 237 239 239 242 240 237 239 238 237 237 -193 230 234 241 247 -209 233 234 236 0 0 0 0 0
    0 0 0 0 0 0 0 0 0 0 0 0 0 0 0 0 0 0 0 0 0 0 0 0 0 0 0 0 0 0 0 0 0 0 0 0 0 0 0 0 0 0 0 0 0 0 0 0 0 0 0 0 0 0 0 0 0 0 0 0 0 0 0 0 0 0 0 0 0 -225 -225 -225 -225 -225 -225 -225 -225 -225 -225 -225 -225 -225 -225 -225 -225 -225 -225 -225 -225 -225 -225 -225 -225 -225 -225 -225 -225 -225 -225 -225 -225 -225 -225 -225 -225 -225 -225 -225 -225 -225 -225 -225 -225 -225 -225 -225 -225 -225 -225 -225 -225 -225 -225 -225 -225 -225 -225 -225 -225 -225 -225 -225 -225 -225 -225 -225 -225 -225 -225 -225 -225 -225 -225 -209 -209 -209 -209 -209 -209 -209 -209 -209 -209 -225 -225 -225 -225 -225 -225 -225 -225 -225 -225 -225 -225 -225 -225 -225 -225 -225 -225 -225 -225 -225 -225 -225 -225 -225 -225 -225 -225 -225 -225 -225 -225 -225 -225 -225 -225 -209 -193 -225 -225 -225 -225 -225 -225 -225 -225 -225 -225 -225 -225 -225 -225 -225 -225 -225 -193 -225 -225 -225 -225 -225 -225 -225 -225 -225 -225 -225 -225 -225 -225 -225 -225 -225 -225 -225 -225 -225 -225 -225 -225 -225 -225 -225 -225 -225 -225 -225 -225 -225 -225 -225 -225 -225 -225 -193 -209 -193 -193 950 -193 -209 -209 -209 -209 240 -193 236 236 238 241 240 -209 -209 -209 -209 -209 -209 -209 -209 -209 -209 -209 -209 -209 -209 -209 -209 -209 -209 -209 -209 -209 -177 -209 -209 -209 -193 225 224 224 228 232 239 237 241 241 243 241 237 240 238 237 237 -193 -209 237 245 250 -209 238 236 238 0 0 0 0 0
    0 0 0 0 0 0 0 0 0 0 0 0 0 0 0 0 0 0 0 0 0 0 0 0 0 0 0 0 0 0 0 0 0 0 0 0 0 0 0 0 0 0 0 0 0 0 0 0 0 0 0 0 0 0 0 0 0 0 0 0 0 0 0 0 0 0 0 0 0 -225 -225 -225 -225 -225 -225 -225 -225 -225 -225 -225 -225 -225 -225 -225 -225 -225 -225 -225 -225 -225 -225 -225 -225 -225 -225 -225 -225 -225 -225 -225 -225 -225 -225 -225 -225 -225 -225 -225 -225 -225 -225 -225 -225 -225 -225 -225 -225 -225 -225 -225 -225 -225 -225 -225 -225 -225 -225 -225 -225 -225 -225 -225 -225 -225 -225 -225 -225 -225 -225 -225 -225 -225 -225 -225 -225 -225 -225 -225 -225 -225 -225 -225 -225 -225 -225 -225 -225 -225 -225 -225 -225 -225 -225 -225 -225 -225 -225 -225 -225 -225 -225 -225 -225 -225 -225 -225 -225 -225 -225 -225 -225 -225 -225 -225 -225 -225 -225 -225 -225 -225 -225 -225 -225 -225 -225 -225 -225 -225 -225 -225 -225 -225 -225 -225 -225 -225 -225 -225 -225 -225 -225 -225 -225 -225 -225 -225 -225 -225 -225 -225 -225 -225 -225 -225 -225 -225 -225 -225 -225 -225 -225 -225 -225 -225 -225 -225 -225 -225 -225 -225 -225 -225 -225 -225 -225 -225 -225 -225 -225 -225 -225 -225 -225 -209 -209 -209 -209 -209 -209 -209 -209 240 -209 -209 -209 -209 -209 -209 -209 -209 -209 -209 -209 -209 -209 -209 -209 -209 -209 -209 -209 -209 -209 -209 -209 -177 -193 -209 -209 -193 -193 222 223 228 232 242 238 243 242 245 242 238 240 238 237 236 -209 -209 237 244 250 252 -193 238 240 0 0 0 0 0
    0 0 0 0 0 0 0 0 0 0 0 0 0 0 0 0 0 0 0 0 0 0 0 0 0 0 0 0 0 0 0 0 0 0 0 0 0 0 0 0 0 0 0 0 0 0 0 0 0 0 0 0 0 0 0 0 0 0 0 0 0 0 0 0 0 0 0 0 0 -225 -225 -225 -225 -225 -225 -225 -225 -225 -225 -225 -225 -225 -225 -225 -225 -225 -225 -225 -225 -225 -225 -225 -225 -225 -225 -225 -225 -225 -225 -225 -225 -225 -225 -225 -225 -225 -225 -225 -225 -225 -225 -225 -225 -225 -225 -225 -225 -225 -225 -225 -225 -225 -225 -225 -225 -225 -225 -225 -225 -225 -225 -225 -225 -225 -225 -225 -225 -225 -225 -225 -225 -225 -225 -225 -225 -225 -225 -225 -225 -225 -225 -225 -225 -225 -225 -225 -225 -225 -225 -225 -225 -225 -225 -225 -225 -225 -225 -225 -225 -225 -225 -225 -225 -225 -225 -225 -225 -225 -225 -225 -225 -225 -225 -225 -225 -225 -225 -225 -225 -225 -225 -225 -225 -225 -225 -225 -225 -225 -225 -225 -225 -225 -225 -225 -225 -225 -225 -225 -225 -225 -225 -225 -225 -225 -225 -225 -225 -225 -225 -225 -225 -225 -225 -225 -225 -225 -225 -225 -225 -225 -225 -225 -225 -225 -225 -225 -225 -225 -225 -225 -225 -225 -225 -225 -225 -225 -225 -225 -225 -225 -225 -225 -225 -225 -209 -209 -209 -209 -209 -209 -209 -209 -209 -209 -209 -209 -209 -209 -209 -209 -209 -209 -209 -209 -209 -209 -209 -209 -209 103 105 106 -209 -209 -209 -209 -209 -209 -193 -193 223 224 225 228 232 240 237 241 242 245 240 236 238 236 236 -193 -209 -209 236 243 250 -193 245 240 242 0 0 0 0 0
    0 0 0 0 0 0 0 0 0 0 0 0 0 0 0 0 0 0 0 0 0 0 0 0 0 0 0 0 0 0 0 0 0 0 0 0 0 0 0 0 0 0 0 0 0 0 0 0 0 0 0 0 0 0 0 0 0 0 0 0 0 0 0 0 0 0 0 0 0 -225 -225 -225 -225 -225 -225 -225 -225 -225 -225 -225 -225 -225 -225 -225 -225 -225 -225 -225 -225 -225 -225 -225 -225 -225 -225 -225 -225 -225 -225 -225 -225 -225 -225 -225 -225 -225 -225 -225 -225 -225 -225 -225 -225 -225 -225 -225 -225 -225 -225 -225 -225 -225 -225 -225 -225 -225 -225 -225 -225 -225 -225 -225 -225 -225 -225 -225 -225 -225 -225 -225 -225 -225 -225 -225 -225 -225 -225 -225 -225 -225 -225 -225 -225 -225 -225 -225 -225 -225 -225 -225 -225 -225 -225 -225 -225 -225 -225 -225 -225 -225 -225 -225 -225 -225 -225 -225 -225 -225 -225 -225 -225 -225 -225 -225 -225 -225 -225 -225 -225 -225 -225 -225 -225 -225 -225 -225 -225 -225 -225 -225 -225 -225 -225 -225 -225 -225 -225 -225 -225 -225 -225 -225 -225 -225 -225 -225 -225 -225 -225 -225 -225 -225 -225 -225 -225 -225 -225 -225 -225 -225 -225 -225 -225 -225 -225 -225 -225 -225 -225 -225 -225 -225 -225 -225 -225 -225 -225 -225 -225 -225 -225 -225 -225 -209 -209 -209 -209 -209 -209 -209 -209 -209 -209 -209 -209 -209 -209 -209 -209 -209 -209 -209 -209 -209 -209 -209 -209 -209 -209 103 105 105 105 -209 -209 -209 -193 -209 -209 -193 -193 225 228 230 232 241 237 243 243 246 242 236 237 236 235 -193 -209 -209 -209 -193 252 252 246 244 245 0 0 0 0 0
    0 0 0 0 0 0 0 0 0 0 0 0 0 0 0 0 0 0 0 0 0 0 0 0 0 0 0 0 0 0 0 0 0 0 0 0 0 0 0 0 0 0 0 0 0 0 0 0 0 0 0 0 0 0 0 0 0 0 0 0 0 0 0 0 0 0 0 0 0 -225 -225 -225 -225 -225 -225 -225 -225 -225 -225 -225 -225 -225 -225 -225 -225 -225 -225 -225 -225 -225 -225 -225 -225 -225 -225 -225 -225 -225 -225 -225 -225 -225 -225 -225 -225 -225 -225 -225 -225 -225 -225 -225 -225 -225 -225 -225 -225 -225 -225 -225 -225 -225 -225 -225 -225 -225 -225 -225 -225 -225 -225 -225 -225 -225 -225 -225 -225 -225 -225 -225 -225 -225 -225 -225 -225 -225 -225 -225 -225 -225 -225 -225 -225 -225 -225 -225 -225 -225 -225 -225 -225 -225 -225 -225 -225 -225 -225 -225 -225 -225 -225 -225 -225 -225 -225 -225 -225 -225 -225 -225 -225 -225 -225 -225 -225 -225 -225 -225 -225 -225 -225 -225 -225 -225 -225 -225 -225 -225 -225 -225 -225 -225 -225 -225 -225 -225 -225 -225 -225 -225 -225 -225 -225 -225 -225 -225 -225 -225 -225 -225 -225 -225 -225 -225 -225 -225 -225 -225 -225 -225 -225 -225 -225 -225 -225 -225 -225 -225 -225 -225 -225 -225 -225 -225 -225 -225 -225 -225 -225 -225 -225 -225 -209 -209 -209 -209 -209 -209 -209 -209 -209 -209 -209 -209 -209 -209 -209 -209 -209 -209 -209 -209 -209 -209 -209 -209 -209 -209 -209 105 106 105 106 106 -209 -209 -177 -177 -177 -209 -209 226 229 231 233 241 237 242 244 247 242 235 235 235 -193 -209 -209 -209 -209 -209 255 -193 -193 247 249 0 0 0 0 0
    0 0 0 0 0 0 0 0 0 0 0 0 0 0 0 0 0 0 0 0 0 0 0 0 0 0 0 0 0 0 0 0 0 0 0 0 0 0 0 0 0 0 0 0 0 0 0 0 0 0 0 0 0 0 0 0 0 0 0 0 0 0 0 0 0 0 0 0 0 -225 -225 -225 -225 -225 -225 -225 -225 -225 -225 -225 -225 -225 -225 -225 -225 -225 -225 -225 -225 -225 -225 -225 -225 -225 -225 -225 -225 -225 -225 -225 -225 -225 -225 -225 -225 -225 -225 -225 -225 -225 -225 -225 -225 -225 -225 -225 -225 -225 -225 -225 -225 -225 -225 -225 -225 -225 -225 -225 -225 -225 -225 -225 -225 -225 -225 -225 -225 -225 -225 -225 -225 -225 -225 -225 -225 -225 -225 -225 -225 -225 -225 -225 -225 -225 -225 -225 -225 -225 -225 -225 -225 -225 -225 -225 -225 -225 -225 -225 -225 -225 -225 -225 -225 -225 -225 -225 -225 -225 -225 -225 -225 -225 -225 -225 -225 -225 -225 -225 -225 -225 -225 -225 -225 -225 -225 -225 -225 -225 -225 -225 -225 -225 -225 -225 -225 -225 -225 -225 -225 -225 -225 -225 -225 -225 -225 -225 -225 -225 -225 -225 -225 -225 -225 -225 -225 -225 -225 -225 -225 -225 -225 -225 -225 -225 -225 -225 -225 -225 -225 -225 -225 -225 -225 -225 -225 -225 -225 -225 -225 -225 -225 -209 -209 -209 -209 -209 -209 -209 -209 -209 -209 -209 -209 -209 -209 -209 -209 -209 -209 -209 -209 -209 -209 -209 -209 -209 -209 -209 -209 108 109 107 107 108 -177 -209 -209 -209 46 51 -209 226 229 231 233 238 234 235 240 237 237 -193 -193 233 -193 -209 -209 -209 -209 -209 -193 -193 -209 -193 -193 0 0 0 0 0
    0 0 0 0 0 0 0 0 0 0 0 0 0 0 0 0 0 0 0 0 0 0 0 0 0 0 0 0 0 0 0 0 0 0 0 0 0 0 0 0 0 0 0 0 0 0 0 0 0 0 0 0 0 0 0 0 0 0 0 0 0 0 0 0 0 0 0 0 0 -225 -225 -225 -225 -225 -225 -225 -225 -225 -225 -225 -225 -225 -225 -225 -225 -225 -225 -225 -225 -225 -225 -225 -225 -225 -225 -225 -225 -225 -225 -225 -225 -225 -225 -225 -225 -225 -225 -225 -225 -225 -225 -225 -225 -225 -225 -225 -225 -225 -225 -225 -225 -225 -225 -225 -225 -225 -225 -225 -225 -225 -225 -225 -225 -225 -225 -225 -225 -225 -225 -225 -225 -225 -225 -225 -225 -225 -225 -225 -225 -225 -225 -225 -225 -225 -225 -225 -225 -225 -225 -225 -225 -225 -225 -225 -225 -225 -225 -225 -225 -225 -225 -225 -225 -225 -225 -225 -225 -225 -225 -225 -225 -225 -225 -225 -225 -225 -225 -225 -225 -225 -225 -225 -225 -225 -225 -225 -225 -225 -225 -225 -225 -225 -225 -225 -225 -225 -225 -225 -225 -225 -225 -225 -225 -225 -225 -225 -225 -225 -225 -225 -225 -225 -225 -225 -225 -225 -225 -225 -225 -225 -225 -225 -225 -225 -225 -225 -225 -225 -225 -225 -225 -225 -225 -225 -225 -225 -225 -225 -225 -225 -209 -209 -209 -209 -209 -209 -209 -209 -209 -209 -209 -209 -209 -209 -209 -209 -209 -209 -209 -209 -209 -209 -209 -209 -209 -209 -209 -209 -209 112 110 109 107 108 110 -177 -193 -209 -209 -209 -209 -209 229 231 -193 -209 230 231 237 -209 -193 -209 -209 -193 -193 -193 -209 -209 -193 -209 -209 -209 -209 -209 -209 0 0 0 0 0
    0 0 0 0 0 0 0 0 0 0 0 0 0 0 0 0 0 0 0 0 0 0 0 0 0 0 0 0 0 0 0 0 0 0 0 0 0 0 0 0 0 0 0 0 0 0 0 0 0 0 0 0 0 0 0 0 0 0 0 0 0 0 0 0 0 0 0 0 0 -225 -225 -225 -225 -225 -225 -225 -225 -225 -225 -225 -225 -225 -225 -225 -225 -225 -225 -225 -225 -225 -225 -225 -225 -225 -225 -225 -225 -225 -225 -225 -225 -225 -225 -225 -225 -225 -225 -225 -225 -225 -225 -225 -225 -225 -225 -225 -225 -225 -225 -225 -225 -225 -225 -225 -225 -225 -225 -225 -225 -225 -225 -225 -225 -225 -225 -225 -225 -225 -225 -225 -225 -225 -225 -225 -225 -225 -225 -225 -225 -225 -225 -225 -225 -225 -225 -225 -225 -225 -225 -225 -225 -225 -225 -225 -225 -225 -225 -225 -225 -225 -225 -225 -225 -225 -225 -225 -225 -225 -225 -225 -225 -225 -225 -225 -225 -225 -225 -225 -225 -225 -225 -225 -225 -225 -225 -225 -225 -225 -225 -225 -225 -225 -225 -225 -225 -225 -225 -225 -225 -225 -225 -225 -225 -225 -225 -225 -225 -225 -225 -225 -225 -225 -225 -225 -225 -225 -225 -225 -225 -225 -225 -225 -225 -225 -225 -225 -225 -225 -225 -225 -225 -225 -225 -225 -225 -225 -225 -225 -209 -209 -209 -209 -209 -209 -209 -209 -209 -209 -209 -209 -209 -209 -209 -209 -209 -209 -209 -209 -209 -209 -209 -209 -209 -209 -209 -209 -209 -209 -209 -209 108 109 106 107 110 -177 -177 107 -209 -209 -193 -209 227 230 231 -209 225 230 -193 -209 -209 -193 0 -193 0 0 -209 -209 -193 -209 -209 -209 -209 -209 -209 0 0 0 0 0
    0 0 0 0 0 0 0 0 0 0 0 0 0 0 0 0 0 0 0 0 0 0 0 0 0 0 0 0 0 0 0 0 0 0 0 0 0 0 0 0 0 0 0 0 0 0 0 0 0 0 0 0 0 0 0 0 0 0 0 0 0 0 0 0 0 0 0 0 0 -225 -225 -225 -225 -225 -225 -225 -225 -225 -225 -225 -225 -225 -225 -225 -225 -225 -225 -225 -225 -225 -225 -225 -225 -225 -225 -225 -225 -225 -225 -225 -225 -225 -225 -225 -225 -225 -225 -225 -225 -225 -225 -225 -225 -225 -225 -225 -225 -225 -225 -225 -225 -225 -225 -225 -225 -225 -225 -225 -225 -225 -225 -225 -225 -225 -225 -225 -225 -225 -225 -225 -225 -225 -225 -225 -225 -225 -225 -225 -225 -225 -225 -225 -225 -225 -225 -225 -225 -225 -225 -225 -225 -225 -225 -225 -225 -225 -225 -225 -225 -225 -225 -225 -225 -225 -225 -225 -225 -225 -225 -225 -225 -225 -225 -225 -225 -225 -225 -225 -225 -225 -225 -225 -225 -225 -225 -225 -225 -225 -225 -225 -225 -225 -225 -225 -225 -225 -225 -225 -225 -225 -225 -225 -225 -225 -225 -225 -225 -225 -225 -225 -225 -225 -225 -225 -225 -225 -225 -225 -225 -225 -225 -225 -225 -225 -225 -225 -225 -225 -225 -225 -225 -225 -225 -225 -225 -225 -225 -209 -209 -209 -209 -209 -209 -209 -209 -209 -209 -209 -209 -209 -209 -209 -209 -209 -209 -209 -209 -209 -209 -209 -209 -209 -209 -209 -209 -209 -209 -209 -209 -209 -209 106 -193 104 107 -209 -209 108 -209 -209 -209 -209 228 231 233 -209 -209 -209 -209 -209 -209 0 0 -193 -193 -209 -209 -209 -209 -209 43 -209 -209 -209 -209 0 0 0 0 0
    0 0 0 0 0 0 0 0 0 0 0 0 0 0 0 0 0 0 0 0 0 0 0 0 0 0 0 0 0 0 0 0 0 0 0 0 0 0 0 0 0 0 0 0 0 0 0 0 0 0 0 0 0 0 0 0 0 0 0 0 0 0 0 0 0 0 0 0 0 -225 -225 -225 -225 -225 -225 -225 -225 -225 -225 -225 -225 -225 -225 -225 -225 -225 -225 -225 -225 -225 -225 -225 -225 -225 -225 -225 -225 -225 -225 -225 -225 -225 -225 -225 -225 -225 -225 -225 -225 -225 -225 -225 -225 -225 -225 -225 -225 -225 -225 -225 -225 -225 -225 -225 -225 -225 -225 -225 -225 -225 -225 -225 -225 -225 -225 -225 -225 -225 -225 -225 -225 -225 -225 -225 -225 -225 -225 -225 -225 -225 -225 -225 -225 -225 -225 -225 -225 -225 -225 -225 -225 -225 -225 -225 -225 -225 -225 -225 -225 -225 -225 -225 -225 -225 -225 -225 -225 -225 -225 -225 -225 -225 -225 -225 -225 -225 -225 -225 -225 -225 -225 -225 -225 -225 -225 -225 -225 -225 -225 -225 -225 -225 -225 -225 -225 -225 -225 -225 -225 -225 -225 -225 -225 -225 -225 -225 -225 -225 -225 -225 -225 -225 -225 -225 -225 -225 -225 -225 -225 -225 -225 -225 -225 -225 -225 -225 -225 -225 -225 -225 -225 -225 -225 -225 -225 -225 -209 -209 -209 -209 -209 -209 -209 -209 -209 -209 -209 -209 -209 -209 -209 -209 -209 -209 -209 -209 -209 -209 -209 -209 -209 -209 -209 -209 -209 -209 -209 -209 -209 -209 100 103 99 101 -177 -209 -209 -209 -209 -209 -209 231 233 234 235 240 -209 -209 -209 280 277 -193 -193 -209 -193 -209 -209 -209 -209 -209 -209 -209 -209 -209 -209 0 0 0 0 0
    0 0 0 0 0 0 0 0 0 0 0 0 0 0 0 0 0 0 0 0 0 0 0 0 0 0 0 0 0 0 0 0 0 0 0 0 0 0 0 0 0 0 0 0 0 0 0 0 0 0 0 0 0 0 0 0 0 0 0 0 0 0 0 0 0 0 0 0 0 -225 -225 -225 -225 -225 -225 -225 -225 -225 -225 -225 -225 -225 -225 -225 -225 -225 -225 -225 -225 -225 -225 -225 -225 -225 -225 -225 -225 -225 -225 -225 -225 -225 -225 -225 -225 -225 -225 -225 -225 -225 -225 -225 -225 -225 -225 -225 -225 -225 -225 -225 -225 -225 -225 -225 -225 -225 -225 -225 -225 -225 -225 -225 -225 -225 -225 -225 -225 -225 -225 -225 -225 -225 -225 -225 -225 -225 -225 -225 -225 -225 -225 -225 -225 -225 -225 -225 -225 -225 -225 -225 -225 -225 -225 -225 -225 -225 -225 -225 -225 -225 -225 -225 -225 -225 -225 -225 -225 -225 -225 -225 -225 -225 -225 -225 -225 -225 -225 -225 -225 -225 -225 -225 -225 -225 -225 -225 -225 -225 -225 -225 -225 -225 -225 -225 -225 -225 -225 -225 -225 -225 -225 -225 -225 -225 -225 -225 -225 -225 -225 -225 -225 -225 -225 -225 -225 -225 -225 -225 -225 -225 -225 -225 -225 -225 -225 -225 -225 -225 -225 -225 -225 -225 -225 -225 -225 -225 -209 -209 -209 -209 -209 -209 -209 -209 -209 -209 -209 -209 -209 -209 -209 -209 -209 -209 -209 -209 -209 -209 -209 -209 -209 -209 -209 -209 -209 -209 -209 -209 -209 -209 -209 -209 -177 -177 -177 -209 -209 -209 -209 -209 234 233 234 235 237 245 -209 -209 -209 279 274 271 272 -193 270 270 -193 -209 -209 -193 -209 -209 -209 -209 -209 0 0 0 0 0
    0 0 0 0 0 0 0 0 0 0 0 0 0 0 0 0 0 0 0 0 0 0 0 0 0 0 0 0 0 0 0 0 0 0 0 0 0 0 0 0 0 0 0 0 0 0 0 0 0 0 0 0 0 0 0 0 0 0 0 0 0 0 0 0 0 0 0 0 0 -225 -225 -225 -225 -225 -225 -225 -225 -225 -225 -225 -225 -225 -225 -225 -225 -225 -225 -225 -225 -225 -225 -225 -225 -225 -225 -225 -225 -225 -225 -225 -225 -225 -225 -225 -225 -225 -225 -225 -225 -225 -225 -225 -225 -225 -225 -225 -225 -225 -225 -225 -225 -225 -225 -225 -225 -225 -225 -225 -225 -225 -225 -225 -225 -225 -225 -225 -225 -225 -225 -225 -225 -225 -225 -225 -225 -225 -225 -225 -225 -225 -225 -225 -225 -225 -225 -225 -225 -225 -225 -225 -225 -225 -225 -225 -225 -225 -225 -225 -225 -225 -225 -225 -225 -225 -225 -225 -225 -225 -225 -225 -225 -225 -225 -225 -225 -225 -225 -225 -225 -225 -225 -225 -225 -225 -225 -225 -225 -225 -225 -225 -225 -225 -225 -225 -225 -225 -225 -225 -225 -225 -225 -225 -225 -225 -225 -225 -225 -225 -225 -225 -225 -225 -225 -225 -225 -225 -225 -225 -225 -225 -225 -225 -225 -225 -225 -225 -225 -225 -225 -225 -225 -225 -225 -225 -225 -225 -209 -209 -209 -209 -209 -209 -209 -209 -209 -209 -209 -209 -209 -209 -209 -209 -209 -209 -209 -209 -209 -209 -209 -209 -209 -209 -209 -209 -209 -209 -209 -209 -209 -209 -209 -209 -209 -209 -209 -209 -209 -209 -209 -209 -209 237 237 235 238 -209 -209 -193 272 276 271 269 271 271 270 270 271 -193 -193 273 -193 -193 -209 -209 -209 0 0 0 0 0
    0 0 0 0 0 0 0 0 0 0 0 0 0 0 0 0 0 0 0 0 0 0 0 0 0 0 0 0 0 0 0 0 0 0 0 0 0 0 0 0 0 0 0 0 0 0 0 0 0 0 0 0 0 0 0 0 0 0 0 0 0 0 0 0 0 0 0 0 0 -225 -225 -225 -225 -225 -225 -225 -225 -225 -225 -225 -225 -225 -225 -225 -225 -225 -225 -225 -225 -225 -225 -225 -225 -225 -225 -225 -225 -225 -225 -225 -225 -225 -225 -225 -225 -225 -225 -225 -225 -225 -225 -225 -225 -225 -225 -225 -225 -225 -225 -225 -225 -225 -225 -225 -225 -225 -225 -225 -225 -225 -225 -225 -225 -225 -225 -225 -225 -225 -225 -225 -225 -225 -225 -225 -225 -225 -225 -225 -225 -225 -225 -225 -225 -225 -225 -225 -225 -225 -225 -225 -225 -225 -225 -225 -225 -225 -225 -225 -225 -225 -225 -225 -225 -225 -225 -225 -225 -225 -225 -225 -225 -225 -225 -225 -225 -225 -225 -225 -225 -225 -225 -225 -225 -225 -225 -225 -225 -225 -225 -225 -225 -225 -225 -225 -225 -225 -225 -225 -225 -225 -225 -225 -225 -225 -225 -225 -225 -225 -225 -225 -225 -225 -225 -225 -225 -225 -225 -225 -225 -225 -225 -225 -225 -225 -225 -225 -225 -225 -225 -225 -225 -225 -225 -225 -225 -225 -209 -209 -209 -209 -209 -209 -209 -209 -209 -209 -209 -209 -209 -209 -209 -209 -209 -209 -209 -209 -209 -209 -209 -209 -209 -209 -209 -209 -209 -209 -209 -209 -209 -209 -209 -209 -209 -209 -209 -209 -209 -209 -209 -209 -209 -209 -209 -209 -209 -209 269 273 275 279 271 270 271 271 271 271 -193 -209 -209 274 -209 -209 -209 -209 -209 0 0 0 0 0
    0 0 0 0 0 0 0 0 0 0 0 0 0 0 0 0 0 0 0 0 0 0 0 0 0 0 0 0 0 0 0 0 0 0 0 0 0 0 0 0 0 0 0 0 0 0 0 0 0 0 0 0 0 0 0 0 0 0 0 0 0 0 0 0 0 0 0 0 0 -225 -225 -225 -225 -225 -225 -225 -225 -225 -225 -225 -225 -225 -225 -225 -225 -225 -225 -225 -225 -225 -225 -225 -225 -225 -225 -225 -225 -225 -225 -225 -225 -225 -225 -225 -225 -225 -225 -225 -225 -225 -225 -225 -225 -225 -225 -225 -225 -225 -225 -225 -225 -225 -225 -225 -225 -225 -225 -225 -225 -225 -225 -225 -225 -225 -225 -225 -225 -225 -225 -225 -225 -225 -225 -225 -225 -225 -225 -225 -225 -225 -225 -225 -225 -225 -225 -225 -225 -225 -225 -225 -225 -225 -225 -225 -225 -225 -225 -225 -225 -225 -225 -225 -225 -225 -225 -225 -225 -225 -225 -225 -225 -225 -225 -225 -225 -225 -225 -225 -225 -225 -225 -225 -225 -225 -225 -225 -225 -225 -225 -225 -225 -225 -225 -225 -225 -225 -225 -225 -225 -225 -225 -225 -225 -225 -225 -225 -225 -225 -225 -225 -225 -225 -225 -225 -225 -225 -225 -225 -225 -225 -225 -225 -225 -225 -225 -225 -225 -225 -225 -225 -225 -225 -225 -225 -225 -225 -209 -209 -209 -209 -209 -209 -209 -209 -209 -209 -209 -209 -209 -209 -209 -209 -209 -209 -209 -209 -209 -209 -209 -209 -209 -209 -209 -209 -209 -209 -209 -209 -209 -209 -209 -209 -209 -209 -209 -209 -209 -209 -209 -209 -209 -209 -209 -209 -193 -209 275 280 281 282 275 271 272 272 272 -193 -193 -193 -193 -209 -209 -209 -209 -209 -209 0 0 0 0 0
    0 0 0 0 0 0 0 0 0 0 0 0 0 0 0 0 0 0 0 0 0 0 0 0 0 0 0 0 0 0 0 0 0 0 0 0 0 0 0 0 0 0 0 0 0 0 0 0 0 0 0 0 0 0 0 0 0 0 0 0 0 0 0 0 0 0 0 0 0 -225 -225 -225 -225 -225 -225 -225 -225 -225 -225 -225 -225 -225 -225 -225 -225 -225 -225 -225 -225 -225 -225 -225 -225 -225 -225 -225 -225 -225 -225 -225 -225 -225 -225 -225 -225 -225 -225 -225 -225 -225 -225 -225 -225 -225 -225 -225 -225 -225 -225 -225 -225 -225 -225 -225 -225 -225 -225 -225 -225 -225 -225 -225 -225 -225 -225 -225 -225 -225 -225 -225 -225 -225 -225 -225 -225 -225 -225 -225 -225 -225 -225 -225 -225 -225 -225 -225 -225 -225 -225 -225 -225 -225 -225 -225 -225 -225 -225 -225 -225 -225 -225 -225 -225 -225 -225 -225 -225 -225 -225 -225 -225 -225 -225 -225 -225 -225 -225 -225 -225 -225 -225 -225 -225 -225 -225 -225 -225 -225 -225 -225 -225 -225 -225 -225 -225 -225 -225 -225 -225 -225 -225 -225 -225 -225 -225 -225 -225 -225 -225 -225 -225 -225 -225 -225 -225 -225 -225 -225 -225 -225 -225 -225 -225 -225 -225 -225 -225 -225 -225 -225 -225 -225 -225 -225 -225 -225 -209 -209 -209 -209 -209 -209 -209 -209 -209 -209 -209 -209 -209 -209 -209 -209 -209 -209 -209 -209 -209 -209 -209 -209 -209 76 78 -209 -209 -209 -209 -209 -209 -209 -209 -209 -209 -209 -209 -209 268 269 266 -193 -209 -209 -209 -209 -193 -209 276 281 281 282 276 272 273 274 274 274 -193 -193 -193 -193 -209 -193 -193 -209 -209 0 0 0 0 0
    0 0 0 0 0 0 0 0 0 0 0 0 0 0 0 0 0 0 0 0 0 0 0 0 0 0 0 0 0 0 0 0 0 0 0 0 0 0 0 0 0 0 0 0 0 0 0 0 0 0 0 0 0 0 0 0 0 0 0 0 0 0 0 0 0 0 0 0 0 -225 -225 -225 -225 -225 -225 -225 -225 -225 -225 -225 -225 -225 -225 -225 -225 -225 -225 -225 -225 -225 -225 -225 -225 -225 -225 -225 -225 -225 -225 -225 -225 -225 -225 -225 -225 -225 -225 -225 -225 -225 -225 -225 -225 -225 -225 -225 -225 -225 -225 -225 -225 -225 -225 -225 -225 -225 -225 -225 -225 -225 -225 -225 -225 -225 -225 -225 -225 -225 -225 -225 -225 -225 -225 -225 -225 -225 -225 -225 -225 -225 -225 -225 -225 -225 -225 -225 -225 -225 -225 -225 -225 -225 -225 -225 -225 -225 -225 -225 -225 -225 -225 -225 -225 -225 -225 -225 -225 -225 -225 -225 -225 -225 -225 -225 -225 -225 -225 -225 -225 -225 -225 -225 -225 -225 -225 -225 -225 -225 -225 -225 -225 -225 -225 -225 -225 -225 -225 -225 -225 -225 -225 -225 -225 -225 -225 -225 -225 -225 -225 -225 -225 -225 -225 -225 -225 -225 -225 -225 -225 -225 -225 -225 -225 -225 -225 -225 -225 -225 -225 -225 -225 -225 -225 -225 -225 -209 -209 -209 -209 -209 -209 -209 -209 -209 -209 -209 -209 -209 -209 -209 -209 -209 -209 -209 -209 -209 -209 -209 -209 -209 -209 85 84 -209 -209 -209 -209 -209 -209 -209 -209 -209 -209 -209 -209 -193 272 275 270 -209 269 277 -209 281 281 -193 281 282 282 282 278 274 274 275 276 276 277 -193 276 -193 -209 -209 -193 -209 276 0 0 0 0 0</data></disparity>
</opencv_storage>
