<?xml version="1.0"?>
<opencv_storage>
<gps_time_stamp>33507</gps_time_stamp>
<gps_x>-1.0667562484741211e+001</gps_x>
<gps_y>1.1049618721008301e+000</gps_y>
<gps_z>-2.6660139560699463e+000</gps_z>
<image_time_stamp>21467</image_time_stamp>
<disparity type_id="opencv-matrix">
  <rows>84</rows>
  <cols>320</cols>
  <dt>s</dt>
  <data>
    0 0 0 0 0 0 0 0 0 0 0 0 0 0 0 0 0 0 0 0 0 0 0 0 0 0 0 0 0 0 0 0 0 0 0 0 0 0 0 0 0 0 0 0 0 0 0 0 0 0 0 0 0 0 0 0 0 0 0 0 0 0 0 0 0 0 0 0 0 0 0 0 0 0 0 0 0 9 9 9 9 15 12 15 12 11 11 11 10 10 0 0 0 0 0 0 0 0 9 9 9 10 0 0 0 0 0 0 0 0 0 0 0 0 9 9 10 9 10 13 11 12 11 10 10 9 9 10 0 0 0 0 0 0 0 0 0 10 10 10 11 11 11 10 9 -193 -193 -193 -193 0 0 0 0 0 -193 -193 -193 -193 -209 -177 -193 -193 -193 -193 257 -193 -193 -193 -193 -193 -193 -193 -193 13 18 13 13 -193 -193 -193 -193 10 11 0 10 9 10 9 0 9 9 0 0 0 0 9 0 0 0 0 0 0 0 9 0 9 9 9 9 9 10 10 9 10 10 11 11 12 11 10 11 12 12 14 12 15 13 13 13 13 13 13 12 15 9 16 23 18 18 18 21 17 17 17 17 15 17 17 18 11 19 18 17 19 20 17 17 16 19 21 21 22 22 21 26 27 25 25 22 23 22 22 22 22 22 23 23 23 24 25 26 26 26 28 28 28 29 28 31 31 30 33 30 32 32 32 36 38 37 38 39 40 40 40 40 40 41 41 43 43 44 -193 -209 -193 -209 0 0 0 0 0
    0 0 0 0 0 0 0 0 0 0 0 0 0 0 0 0 0 0 0 0 0 0 0 0 0 0 0 0 0 0 0 0 0 0 0 0 0 0 0 0 0 0 0 0 0 0 0 0 0 0 0 0 0 0 0 0 0 0 0 0 0 0 0 0 0 0 0 0 0 0 0 0 0 0 0 0 0 9 9 9 9 14 12 15 12 11 10 11 10 9 0 0 0 0 0 0 0 0 9 9 10 10 0 0 0 0 0 0 0 0 0 0 0 0 9 9 9 0 9 12 11 11 10 10 9 9 9 10 0 0 0 0 0 0 0 0 0 10 9 9 10 10 10 9 9 9 0 -193 -193 0 0 0 0 0 9 -193 -193 -193 10 -209 10 11 10 11 10 9 10 -209 -193 -193 -193 13 -209 13 18 12 12 -193 -193 -193 -193 10 10 0 9 9 10 9 0 9 0 0 0 0 9 9 0 0 0 0 9 9 0 9 9 11 10 10 10 9 11 11 10 11 10 11 14 14 12 12 14 15 16 18 14 16 13 13 13 13 12 13 12 15 9 17 23 18 18 18 21 17 17 17 17 15 17 17 18 11 19 19 18 19 20 17 17 16 19 21 21 22 22 21 26 27 26 26 22 23 22 22 22 22 22 22 23 23 24 25 25 26 26 27 28 27 28 28 30 30 29 32 29 30 30 29 34 37 37 38 39 41 40 40 40 39 40 41 42 42 -193 -177 -177 -177 -209 0 0 0 0 0
    0 0 0 0 0 0 0 0 0 0 0 0 0 0 0 0 0 0 0 0 0 0 0 0 0 0 0 0 0 0 0 0 0 0 0 0 0 0 0 0 0 0 0 0 0 0 0 0 0 0 0 0 0 0 0 0 0 0 0 0 0 0 0 0 0 0 0 0 0 0 0 0 0 0 0 0 0 0 0 9 0 12 11 14 11 10 10 10 9 0 0 0 0 0 0 0 0 0 9 10 10 11 0 0 0 0 0 0 0 0 0 0 0 0 9 0 0 0 0 11 10 11 9 -177 -177 9 9 9 0 0 0 0 0 0 0 9 0 9 0 8 9 9 9 9 0 9 0 9 9 0 0 0 0 0 10 11 10 10 12 -193 10 -193 10 10 -193 -193 -193 -209 -193 -193 -193 14 -193 14 18 12 11 -193 893 894 894 9 9 0 9 9 9 9 0 0 0 0 0 0 0 9 0 0 0 0 11 9 9 10 10 12 11 11 11 10 10 10 10 10 9 10 15 14 12 14 15 16 18 20 15 17 14 14 14 14 13 12 12 15 9 16 23 18 18 18 21 18 16 17 17 14 17 17 18 11 17 19 18 19 20 17 17 16 19 21 21 22 21 21 26 27 26 25 22 23 22 21 21 21 21 21 22 23 23 23 24 25 25 26 27 27 28 28 29 30 28 31 29 29 30 28 32 36 37 38 38 40 40 40 39 39 39 40 41 42 -193 -177 -177 -177 -193 0 0 0 0 0
    0 0 0 0 0 0 0 0 0 0 0 0 0 0 0 0 0 0 0 0 0 0 0 0 0 0 0 0 0 0 0 0 0 0 0 0 0 0 0 0 0 0 0 0 0 0 0 0 0 0 0 0 0 0 0 0 0 0 0 0 0 0 0 0 0 0 0 0 0 0 0 0 0 0 0 0 0 0 0 0 0 11 10 13 10 10 9 10 9 0 0 0 0 0 0 0 0 9 10 10 11 11 0 0 0 0 0 0 9 0 0 0 0 0 9 0 0 0 0 11 10 10 9 -177 9 0 9 9 0 0 0 0 0 9 10 11 0 9 9 9 9 9 9 0 0 0 0 0 0 0 0 0 0 9 13 16 13 13 16 12 11 12 11 10 -193 -193 -209 -209 -193 -193 -193 -193 -193 14 18 12 10 -193 894 894 -193 9 9 0 10 10 10 10 0 0 0 0 0 0 9 9 0 0 0 0 12 10 10 10 10 13 12 11 11 9 9 9 10 9 0 9 15 13 12 14 15 17 19 19 15 17 15 14 14 14 12 12 12 15 9 14 23 18 18 18 21 18 16 17 17 14 16 16 17 11 16 18 17 19 20 17 17 16 19 20 21 21 21 20 26 26 25 25 22 22 22 22 21 21 20 20 21 23 22 22 23 25 24 26 27 26 27 28 29 29 28 30 29 29 30 28 32 35 36 38 38 40 39 39 39 38 39 40 41 43 -193 -177 -177 -177 -193 0 0 0 0 0
    0 0 0 0 0 0 0 0 0 0 0 0 0 0 0 0 0 0 0 0 0 0 0 0 0 0 0 0 0 0 0 0 0 0 0 0 0 0 0 0 0 0 0 0 0 0 0 0 0 0 0 0 0 0 0 0 0 0 0 0 0 0 0 0 0 0 0 0 0 9 9 9 9 0 0 0 0 0 0 9 9 11 10 13 10 10 10 10 9 0 0 0 0 0 0 0 0 9 10 11 11 12 9 0 0 0 0 0 9 0 0 0 0 0 9 0 0 0 0 12 10 11 9 -177 -177 0 9 9 0 0 0 0 0 9 9 11 0 8 9 9 9 9 9 0 0 0 0 0 0 0 0 0 0 11 17 -193 15 15 18 12 -193 -193 11 10 -193 0 8 0 -193 -193 -193 -193 -209 14 18 11 10 -193 894 895 895 -193 0 0 10 10 10 10 9 9 9 9 9 9 9 10 9 9 9 0 13 10 10 10 10 14 12 11 11 9 9 9 10 9 0 9 17 13 12 14 15 16 20 19 15 17 15 15 14 14 13 12 12 15 0 13 23 18 18 18 21 18 17 17 17 15 16 16 17 12 15 18 17 19 20 16 17 16 19 20 21 21 21 20 26 26 25 25 23 23 22 22 21 20 19 19 20 22 21 21 22 24 24 25 26 26 27 27 29 29 27 30 29 28 30 28 33 35 36 38 38 41 39 39 39 38 39 39 40 43 -193 -177 -193 -193 -209 0 0 0 0 0
    0 0 0 0 0 0 0 0 0 0 0 0 0 0 0 0 0 0 0 0 0 0 0 0 0 0 0 0 0 0 0 0 0 0 0 0 0 0 0 0 0 0 0 0 0 0 0 0 0 0 0 0 0 0 0 0 0 0 0 0 0 0 0 0 0 0 0 0 0 9 9 9 9 0 0 0 0 0 0 9 9 10 10 12 9 9 9 9 9 0 0 0 0 9 9 9 9 9 10 11 12 12 9 0 0 0 0 0 9 0 0 0 0 0 9 0 0 0 0 13 11 11 9 -177 -177 0 9 9 0 0 0 0 0 0 9 11 0 0 0 9 9 9 9 9 0 9 9 9 0 0 0 0 0 10 16 21 15 15 19 -193 -193 -193 10 10 -193 0 0 0 9 10 10 -193 -209 14 17 10 10 -193 895 896 896 0 0 0 10 11 10 10 9 9 9 9 9 9 9 10 9 9 9 0 14 10 10 10 11 14 12 11 11 10 10 9 10 9 0 9 18 14 13 15 15 16 20 18 15 17 15 15 14 14 13 11 12 14 0 13 23 19 18 18 21 19 17 18 17 15 17 17 18 13 14 17 17 18 20 16 16 15 19 20 21 21 21 20 25 26 25 24 22 23 22 22 21 20 19 18 20 22 21 21 22 24 23 24 26 25 26 27 28 28 27 30 30 29 30 28 33 34 35 37 36 40 39 38 38 36 38 38 40 43 -209 -209 -209 -209 -177 0 0 0 0 0
    0 0 0 0 0 0 0 0 0 0 0 0 0 0 0 0 0 0 0 0 0 0 0 0 0 0 0 0 0 0 0 0 0 0 0 0 0 0 0 0 0 0 0 0 0 0 0 0 0 0 0 0 0 0 0 0 0 0 0 0 0 0 0 0 0 0 0 0 0 9 9 9 9 0 0 0 0 0 0 0 0 0 9 10 0 0 0 0 0 0 0 0 0 9 9 9 9 9 10 11 12 12 0 0 0 0 0 0 8 0 0 0 0 0 0 0 0 0 0 13 11 12 -177 -177 -177 0 9 9 0 0 0 0 0 0 9 11 0 0 0 9 9 9 9 9 0 10 10 10 9 0 0 0 0 9 -209 21 14 14 18 -193 -193 -193 10 10 -193 -193 -193 0 0 0 9 -193 -209 14 17 10 -193 896 895 896 896 0 0 0 10 11 10 10 9 9 9 9 0 9 9 10 9 9 9 0 14 11 11 11 11 15 12 12 12 10 11 10 11 10 9 10 18 14 13 15 15 17 20 18 15 16 14 14 14 14 13 11 12 14 0 13 23 19 18 18 21 19 17 18 18 15 17 17 18 13 14 17 17 18 19 16 16 15 19 20 21 21 21 20 26 26 25 25 24 23 22 22 21 20 18 18 20 23 21 20 21 24 23 24 -209 25 -193 27 28 28 27 30 30 28 29 28 33 34 35 37 36 40 39 39 38 36 37 38 39 43 -209 -209 -193 -193 -177 0 0 0 0 0
    0 0 0 0 0 0 0 0 0 0 0 0 0 0 0 0 0 0 0 0 0 0 0 0 0 0 0 0 0 0 0 0 0 0 0 0 0 0 0 0 0 0 0 0 0 0 0 0 0 0 0 0 0 0 0 0 0 0 0 0 0 0 0 0 0 0 0 0 0 9 9 9 9 0 0 0 0 0 0 0 0 0 0 0 0 0 0 0 0 0 0 0 0 10 9 9 9 9 9 10 11 12 0 0 0 0 0 0 0 0 0 0 0 0 0 0 0 0 0 13 11 12 9 -177 -177 9 9 9 0 0 0 0 0 0 9 11 0 -177 -177 9 9 9 10 10 8 10 11 12 9 0 9 0 0 -209 -209 20 13 13 18 -193 373 374 -193 10 -193 -193 -193 0 9 9 10 12 -209 14 16 9 9 -193 895 896 897 0 0 0 10 10 10 10 9 9 10 9 0 9 9 10 10 9 0 0 14 11 11 11 11 15 12 12 12 11 11 11 11 10 9 11 18 14 12 14 15 17 20 17 15 16 15 15 14 14 13 11 13 15 0 13 23 20 18 18 21 19 17 17 17 15 17 17 18 14 14 17 17 18 20 16 16 15 19 20 21 21 21 21 26 27 26 25 25 24 23 23 21 19 17 17 19 22 20 20 21 23 22 23 -209 -193 -193 27 28 28 26 29 29 27 29 27 32 35 -193 38 36 40 -193 -193 38 36 36 38 39 -193 -209 -193 -193 -209 -177 0 0 0 0 0
    0 0 0 0 0 0 0 0 0 0 0 0 0 0 0 0 0 0 0 0 0 0 0 0 0 0 0 0 0 0 0 0 0 0 0 0 0 0 0 0 0 0 0 0 0 0 0 0 0 0 0 0 0 0 0 0 0 0 0 0 0 0 0 0 0 0 0 0 0 9 9 9 9 0 9 0 0 0 0 0 0 0 0 9 0 0 0 0 0 0 0 0 0 10 9 9 9 9 9 10 11 11 0 8 0 0 0 0 0 0 0 0 0 0 0 0 0 0 0 12 11 12 9 -177 -177 0 9 9 0 0 0 0 0 0 9 11 -177 -177 -177 10 10 10 10 10 9 10 12 12 9 0 10 0 -209 -209 -209 16 12 12 17 373 373 374 -193 -193 -193 -193 -193 0 9 11 11 14 -209 15 17 9 0 -209 895 896 897 0 0 0 10 10 9 10 0 9 10 10 9 9 10 10 11 9 0 0 13 10 10 11 11 14 12 11 11 11 11 11 11 10 9 11 18 14 12 15 15 18 21 17 16 17 16 16 15 15 14 12 14 17 9 20 23 20 17 17 21 19 16 17 16 15 16 17 18 14 14 19 19 19 20 16 16 16 20 20 21 21 21 21 26 26 25 25 25 25 24 24 21 18 18 17 20 23 20 19 20 -193 22 23 -193 -193 -177 27 28 28 26 29 30 27 28 27 31 -193 -193 -193 -193 39 -193 -209 -209 -193 36 38 39 -209 -209 -193 -209 -209 -193 0 0 0 0 0
    0 0 0 0 0 0 0 0 0 0 0 0 0 0 0 0 0 0 0 0 0 0 0 0 0 0 0 0 0 0 0 0 0 0 0 0 0 0 0 0 0 0 0 0 0 0 0 0 0 0 0 0 0 0 0 0 0 0 0 0 0 0 0 0 0 0 0 0 0 -193 9 9 9 0 0 0 0 0 0 0 0 9 0 10 0 0 0 0 9 9 0 0 0 10 9 9 9 9 0 9 10 11 0 9 0 0 0 0 0 0 0 0 0 0 0 0 0 0 0 -193 11 12 9 -177 -177 0 9 9 0 0 0 0 0 0 0 10 -177 -177 -177 11 10 10 11 11 10 11 14 13 9 0 -193 -209 -209 -193 -193 -209 10 10 16 373 373 374 -193 -193 -193 -193 -193 0 -193 -193 -193 -209 -209 15 16 0 0 -209 895 896 897 0 0 0 10 10 -193 9 0 9 10 10 9 10 10 11 11 11 9 0 13 10 10 10 10 13 11 11 11 11 11 11 10 10 9 11 18 13 12 15 16 19 21 18 16 17 17 16 15 16 14 12 14 16 0 17 23 19 16 16 20 19 16 16 16 15 16 17 17 14 14 20 19 20 20 16 17 17 21 20 20 21 21 21 25 25 25 25 25 26 25 25 22 19 18 16 20 24 20 20 21 23 22 23 -209 -193 -193 27 28 28 26 29 29 26 27 25 30 -193 -193 -209 -209 35 -193 -209 -209 -209 34 37 -193 -209 -193 -193 -209 -209 -209 0 0 0 0 0
    0 0 0 0 0 0 0 0 0 0 0 0 0 0 0 0 0 0 0 0 0 0 0 0 0 0 0 0 0 0 0 0 0 0 0 0 0 0 0 0 0 0 0 0 0 0 0 0 0 0 0 0 0 0 0 0 0 0 0 0 0 0 0 0 0 0 0 0 0 285 -193 0 0 0 0 0 0 0 0 0 0 9 0 10 0 9 0 9 9 9 0 0 0 0 0 0 0 0 0 0 9 10 0 11 11 0 0 0 9 0 0 0 0 0 0 0 0 0 0 -193 11 12 9 -177 -177 0 9 9 0 0 0 0 0 0 0 10 9 9 10 12 12 12 13 13 12 13 17 16 -193 9 -209 -209 -209 -209 -209 -209 -209 -193 14 -193 -193 -193 9 -193 -193 -193 -193 0 -193 -193 -193 -209 -209 17 18 0 0 -209 -193 896 898 0 0 0 10 10 -193 9 0 -193 -193 -193 -193 10 -209 -209 13 13 11 0 13 10 9 -193 -193 12 -193 10 11 11 11 11 11 11 10 11 18 13 12 15 15 19 21 17 16 16 16 16 15 15 14 -193 13 15 0 11 22 16 13 14 19 19 15 16 16 15 17 17 18 15 15 -193 20 21 21 16 17 18 20 20 20 20 20 20 24 24 24 23 23 25 24 24 22 18 18 17 21 24 20 21 21 24 22 23 -193 -209 -177 26 28 -193 -209 29 29 -193 25 23 -193 -209 -193 -209 -209 -209 -209 -209 -209 -193 -193 -193 -193 -193 147 147 145 -209 -209 0 0 0 0 0
    0 0 0 0 0 0 0 0 0 0 0 0 0 0 0 0 0 0 0 0 0 0 0 0 0 0 0 0 0 0 0 0 0 0 0 0 0 0 0 0 0 0 0 0 0 0 0 0 0 0 0 0 0 0 0 0 0 0 0 0 0 0 0 0 0 0 0 0 0 287 289 -193 9 0 9 9 9 0 0 0 0 9 0 10 0 9 0 0 9 9 0 0 0 0 0 0 0 -193 0 0 0 10 0 12 14 -193 0 0 9 0 0 0 0 0 0 0 0 0 0 -193 11 12 9 -177 0 0 9 9 0 0 0 0 0 0 0 -209 -209 10 12 15 15 14 16 16 14 -193 -209 -209 -209 -209 -209 -209 -209 -209 -209 133 141 0 11 -193 -193 -193 9 -209 -209 -209 -209 -209 381 -193 -193 368 -209 -193 -193 -209 0 -193 895 896 -193 0 0 0 10 11 -193 -193 -193 145 149 -209 -209 -209 -209 -209 -209 -209 -209 0 14 -193 -209 -209 -193 -193 -193 10 10 11 11 11 11 11 10 12 18 14 12 14 15 19 20 16 15 16 15 15 15 15 -193 -177 13 13 0 10 18 12 11 12 17 17 15 15 16 16 18 19 19 17 -193 -209 -209 22 22 17 18 19 -193 20 20 20 20 19 23 23 23 22 22 24 -193 -209 22 19 18 18 21 24 21 21 22 24 23 23 -209 -209 -177 -193 -193 -209 -209 -209 -209 -209 19 -193 -193 141 147 151 150 148 150 -193 149 151 150 149 149 149 149 148 146 151 -209 0 0 0 0 0
    0 0 0 0 0 0 0 0 0 0 0 0 0 0 0 0 0 0 0 0 0 0 0 0 0 0 0 0 0 0 0 0 0 0 0 0 0 0 0 0 0 0 0 0 0 0 0 0 0 0 0 0 0 0 0 0 0 0 0 0 0 0 0 0 0 0 0 0 0 288 290 -193 9 0 9 9 9 0 0 0 0 9 0 10 9 9 0 0 9 9 0 0 0 0 0 0 0 -193 0 0 0 -193 -193 14 -209 -209 9 0 9 0 0 0 0 0 0 0 0 0 0 -193 10 12 9 -177 0 0 0 10 0 0 0 0 0 0 -193 -209 -193 -193 13 17 -193 -193 -193 -193 -193 -193 -209 -193 -209 -209 -209 -209 139 138 138 137 141 148 -209 -209 -193 -193 -209 -209 -209 -209 -209 -209 382 -193 -209 366 370 -209 -209 -209 -193 -193 894 895 -193 -177 0 0 10 11 142 143 143 145 149 -193 -209 -193 -209 -209 -193 -209 130 134 138 141 -193 -209 -193 -209 -193 -193 10 11 11 11 11 12 11 13 18 14 13 -193 16 20 20 16 15 16 15 14 15 -193 -193 -177 -193 12 -177 10 14 11 10 11 15 -193 14 -193 -193 -193 -193 -193 20 19 -193 -209 -209 -209 -193 19 -193 -209 -193 -209 -193 21 20 19 23 22 22 -193 -193 -193 -193 -209 22 19 18 17 21 24 21 21 22 24 23 24 25 -193 656 -193 -193 -209 -209 -209 922 -193 -177 -193 -193 143 148 150 149 149 150 150 148 150 149 149 149 149 149 149 147 151 -209 0 0 0 0 0
    0 0 0 0 0 0 0 0 0 0 0 0 0 0 0 0 0 0 0 0 0 0 0 0 0 0 0 0 0 0 0 0 0 0 0 0 0 0 0 0 0 0 0 0 0 0 0 0 0 0 0 0 0 0 0 0 0 0 0 0 0 0 0 0 0 0 0 0 0 -193 -193 0 0 0 9 10 9 0 0 0 0 10 9 10 9 9 -209 -193 0 -209 0 0 0 0 -193 0 0 0 0 0 -209 -209 -209 -209 -209 -209 -193 9 9 0 0 0 0 0 0 0 -193 0 0 -193 10 12 -193 -209 -193 -193 0 -193 0 0 -193 -209 -209 -209 -193 -209 -193 -209 -193 -193 -193 -193 -209 -209 -209 -209 -209 -193 -209 -209 -193 -193 140 139 140 138 142 148 -209 -209 -193 -193 -209 -193 -193 -209 -209 -177 -177 -177 -209 368 -193 -209 -209 -209 -209 -209 -193 894 -209 -177 -177 -193 -193 -193 142 143 143 146 149 147 136 137 136 138 137 139 135 136 139 142 143 144 143 -209 -193 -209 9 -177 -177 11 12 13 12 14 18 14 13 -193 16 21 20 16 15 15 14 -193 -193 -177 154 156 -177 11 -193 -193 -193 -193 9 11 -193 -193 -209 -193 -193 -193 -193 -193 21 20 -209 -209 -209 -209 -209 -209 -209 -193 797 794 797 -209 -193 -193 -193 21 -193 -193 -209 -209 -209 -209 -193 -193 -193 -209 22 25 22 22 23 25 24 24 26 -209 -193 -209 -209 -209 -193 -209 -193 -193 148 143 142 145 148 149 149 149 149 149 148 150 149 149 149 149 149 149 147 151 146 0 0 0 0 0
    0 0 0 0 0 0 0 0 0 0 0 0 0 0 0 0 0 0 0 0 0 0 0 0 0 0 0 0 0 0 0 0 0 0 0 0 0 0 0 0 0 0 0 0 0 0 0 0 0 0 0 0 0 0 0 0 0 0 0 0 0 0 0 0 0 0 0 0 0 -193 -193 0 0 -193 10 11 9 0 0 0 0 11 9 -193 -209 -209 -209 -193 -209 -209 -209 -193 0 -193 -209 -209 0 -177 0 -209 -209 -209 -209 -209 -193 -177 -209 13 11 9 0 0 0 0 0 0 -193 0 0 -193 -193 -193 -209 -193 -193 -193 -209 -209 0 0 -209 -209 -209 -209 591 -209 -193 -209 -193 -193 -193 955 -209 -209 -209 -193 -209 -193 -209 140 140 139 140 140 141 139 144 148 150 149 -193 -209 378 379 -193 -193 -209 -177 -177 -209 -177 -209 -209 -209 -209 -209 -209 -209 -209 -193 -193 -193 -193 144 144 145 142 143 143 145 149 146 136 137 137 139 139 142 137 138 141 143 143 143 143 142 141 -209 -209 -209 -177 12 12 13 13 14 17 -193 -193 -193 16 21 20 16 15 -209 -209 161 164 -177 152 153 -177 149 146 144 143 143 -193 -209 -209 -209 -209 -193 -177 -193 -177 -209 -209 -209 -209 -209 -209 -209 -209 -209 788 791 797 793 796 -209 -209 -209 -193 -193 144 145 146 146 146 143 143 144 141 149 -193 28 -193 23 24 27 -177 -177 -193 -193 152 157 -209 147 146 148 147 147 149 146 144 146 148 148 148 148 149 149 147 149 148 148 148 149 149 148 146 151 146 0 0 0 0 0
    0 0 0 0 0 0 0 0 0 0 0 0 0 0 0 0 0 0 0 0 0 0 0 0 0 0 0 0 0 0 0 0 0 0 0 0 0 0 0 0 0 0 0 0 0 0 0 0 0 0 0 0 0 0 0 0 0 0 0 0 0 0 0 0 0 0 0 0 0 -193 -193 -193 -193 -193 10 12 10 0 0 0 0 14 -193 -193 -193 -209 -209 -177 -209 -209 132 -193 -209 -209 -209 -209 -209 -209 -209 -209 -209 -209 -209 -193 -177 -177 -193 -209 13 10 9 0 0 0 0 -193 -209 -209 -209 -193 -209 -177 -193 -193 -209 -193 -209 -193 -193 -209 -209 -209 -209 -209 -209 -209 -209 -209 -177 -177 952 956 -209 -209 -193 -193 -193 -193 140 140 140 139 140 140 141 140 144 147 148 147 146 149 -193 -193 -193 -209 -209 -209 -209 940 947 -177 -177 -209 143 142 143 142 142 143 143 142 142 143 144 143 142 143 142 144 148 144 136 137 137 139 140 145 139 139 142 142 143 143 143 142 141 144 -193 -193 -193 -193 11 13 12 14 -193 -193 -193 -209 -193 -209 -209 -209 -209 289 -193 157 157 152 150 150 151 147 146 144 144 144 144 142 143 140 143 142 -193 144 144 144 146 142 144 -193 -209 -193 -209 -209 -209 792 796 -193 -209 -209 -193 -193 147 148 144 145 145 146 146 144 145 146 142 149 147 148 145 -193 -193 -193 -193 -193 149 149 150 151 150 148 146 149 146 146 150 147 145 146 147 147 147 147 148 148 147 149 148 148 148 148 148 148 145 150 145 0 0 0 0 0
    0 0 0 0 0 0 0 0 0 0 0 0 0 0 0 0 0 0 0 0 0 0 0 0 0 0 0 0 0 0 0 0 0 0 0 0 0 0 0 0 0 0 0 0 0 0 0 0 0 0 0 0 0 0 0 0 0 0 0 0 0 0 0 0 0 0 0 0 0 9 9 10 10 -209 -193 14 -209 -209 -193 0 0 -177 -193 -193 -193 -209 -209 -177 -209 -209 133 136 138 138 139 140 -209 -209 -193 -209 -209 -209 -209 -209 -177 -177 -209 -209 15 10 11 11 0 0 9 -193 -193 -177 -209 -209 -193 -177 134 -209 -209 -193 -193 -193 -193 -193 -209 -193 139 -209 -193 135 137 -209 -209 -193 -193 -193 -193 144 143 143 145 142 141 141 141 140 140 141 142 140 144 147 147 146 145 147 146 142 141 141 141 141 143 -209 -209 -209 -193 145 144 143 143 143 142 143 143 143 142 143 144 142 141 142 142 144 148 143 138 139 139 141 142 147 140 141 142 142 142 143 143 142 140 143 143 142 143 144 142 -193 140 139 138 137 137 139 -193 -193 141 144 148 150 151 152 150 149 147 147 150 145 146 144 143 143 144 143 144 141 144 142 144 144 144 143 145 142 143 142 141 -193 -193 -193 -193 141 -193 -193 -193 147 148 147 145 147 144 145 145 145 145 144 145 145 141 146 143 146 142 142 143 145 146 147 147 146 146 149 148 148 148 149 146 147 150 147 146 147 147 146 145 146 147 147 146 148 147 147 147 147 148 147 143 149 145 0 0 0 0 0
    0 0 0 0 0 0 0 0 0 0 0 0 0 0 0 0 0 0 0 0 0 0 0 0 0 0 0 0 0 0 0 0 0 0 0 0 0 0 0 0 0 0 0 0 0 0 0 0 0 0 0 0 0 0 0 0 0 0 0 0 0 0 0 0 0 0 0 0 0 12 11 -209 -193 -209 -209 -209 -209 -193 -177 -193 -209 -193 -193 -193 -209 -209 -209 -177 -209 -209 134 137 138 138 139 139 139 -193 -193 -193 -209 -209 -209 -209 -209 -209 -209 -209 -209 -193 -177 19 -193 0 -193 -193 132 133 136 -193 135 136 136 137 138 140 141 139 139 139 138 139 139 139 138 137 139 137 139 142 145 142 145 144 144 143 145 142 141 141 141 141 141 142 142 140 144 146 144 143 142 144 143 140 140 139 140 141 142 142 141 142 143 146 144 143 143 143 142 143 142 143 142 142 142 141 141 142 143 144 147 144 141 141 142 142 142 147 141 142 142 142 142 142 143 142 140 142 141 141 142 144 141 141 142 141 140 140 141 142 142 145 145 146 147 147 148 148 147 147 144 144 148 144 145 144 143 143 143 143 144 141 144 142 144 143 143 142 144 142 142 142 142 141 139 140 140 140 144 142 141 146 146 146 144 147 144 144 145 145 145 143 144 145 140 143 142 143 141 141 142 143 144 145 144 142 141 144 145 147 147 149 145 147 150 147 146 147 147 147 145 146 146 147 146 147 147 147 147 147 147 147 143 149 147 0 0 0 0 0
    0 0 0 0 0 0 0 0 0 0 0 0 0 0 0 0 0 0 0 0 0 0 0 0 0 0 0 0 0 0 0 0 0 0 0 0 0 0 0 0 0 0 0 0 0 0 0 0 0 0 0 0 0 0 0 0 0 0 0 0 0 0 0 0 0 0 0 0 0 -209 -209 -209 -209 140 142 139 -209 -193 -177 -177 -209 139 139 -209 139 138 -193 -209 -209 -193 137 139 139 139 139 140 140 140 139 139 138 137 138 138 138 139 -193 139 -193 -193 -193 -193 -193 139 139 138 138 138 142 142 140 139 139 139 139 140 141 139 140 140 139 139 140 140 139 138 141 139 141 143 145 143 145 144 143 143 145 143 142 142 142 141 141 142 142 140 143 144 142 141 141 142 141 139 140 139 140 140 141 141 140 142 143 146 144 144 144 143 143 143 142 142 141 142 141 140 141 142 142 143 146 143 142 142 143 142 142 148 143 143 143 142 142 142 143 142 140 141 140 140 141 143 141 140 142 141 141 142 142 143 143 145 145 146 147 147 146 147 147 148 144 144 148 144 145 144 144 143 143 143 144 141 144 142 144 144 143 142 144 142 142 142 142 141 139 139 -193 140 143 142 141 144 146 146 144 147 144 144 145 145 145 144 144 145 140 144 143 144 142 141 142 143 143 143 143 142 140 142 144 147 148 149 144 147 150 147 146 146 147 147 145 146 146 147 146 147 146 146 147 147 148 147 143 150 149 0 0 0 0 0
    0 0 0 0 0 0 0 0 0 0 0 0 0 0 0 0 0 0 0 0 0 0 0 0 0 0 0 0 0 0 0 0 0 0 0 0 0 0 0 0 0 0 0 0 0 0 0 0 0 0 0 0 0 0 0 0 0 0 0 0 0 0 0 0 0 0 0 0 0 -209 -209 -209 140 140 142 140 140 140 -193 -193 139 140 141 140 140 139 139 139 139 139 139 141 141 140 141 141 141 141 140 140 138 138 138 139 138 139 138 139 139 139 139 -193 139 139 139 138 139 138 141 141 140 141 141 140 141 141 141 140 141 141 140 140 141 140 139 140 142 140 143 145 146 144 145 145 144 144 144 142 142 142 142 141 141 142 141 140 142 144 141 141 141 142 141 139 140 140 140 141 141 141 141 142 144 146 145 144 144 143 143 143 142 142 141 141 141 139 140 141 141 142 145 143 142 142 143 142 141 148 143 143 143 142 142 142 143 143 140 141 140 140 141 143 141 141 142 141 141 143 143 143 143 144 145 144 145 146 144 146 146 148 144 144 149 144 145 144 144 143 143 143 144 141 144 142 144 144 143 142 143 142 142 142 141 141 139 139 140 140 143 142 140 143 144 146 144 147 145 144 145 146 145 144 144 145 141 144 144 145 142 141 141 142 142 143 142 141 139 140 143 145 146 149 143 146 150 146 146 146 147 146 144 146 146 146 145 147 146 147 147 148 149 149 146 153 153 0 0 0 0 0
    0 0 0 0 0 0 0 0 0 0 0 0 0 0 0 0 0 0 0 0 0 0 0 0 0 0 0 0 0 0 0 0 0 0 0 0 0 0 0 0 0 0 0 0 0 0 0 0 0 0 0 0 0 0 0 0 0 0 0 0 0 0 0 0 0 0 0 0 0 137 136 139 139 140 141 141 142 142 141 141 140 142 141 140 140 139 139 138 139 139 139 141 141 141 141 141 141 141 140 140 138 138 138 139 138 139 138 139 139 139 139 -193 138 138 138 137 139 -193 139 -193 140 141 141 140 140 141 141 140 141 141 140 140 141 140 140 140 143 140 144 146 146 144 145 144 144 144 144 142 141 141 141 141 141 141 141 140 141 143 141 141 141 142 141 140 140 140 140 141 141 141 141 143 145 146 144 143 143 143 143 143 142 142 141 141 141 139 140 141 142 143 144 143 143 142 143 142 142 148 143 143 143 142 142 142 143 143 139 141 140 140 141 142 141 141 142 141 141 143 143 143 143 144 145 143 144 145 143 145 146 147 144 144 148 144 145 144 144 143 143 143 144 141 144 142 143 143 143 142 143 141 141 142 141 141 139 139 141 140 143 142 140 142 144 146 144 146 145 144 145 146 146 144 144 146 141 143 144 144 141 140 141 142 142 143 142 140 139 139 141 142 142 148 142 146 150 147 146 147 147 147 145 147 146 146 145 147 147 148 148 150 150 150 149 154 160 0 0 0 0 0
    0 0 0 0 0 0 0 0 0 0 0 0 0 0 0 0 0 0 0 0 0 0 0 0 0 0 0 0 0 0 0 0 0 0 0 0 0 0 0 0 0 0 0 0 0 0 0 0 0 0 0 0 0 0 0 0 0 0 0 0 0 0 0 0 0 0 0 0 0 136 135 138 139 139 141 141 143 143 142 142 141 142 142 140 140 138 138 138 138 139 140 142 141 142 142 142 142 142 141 140 139 138 138 139 138 139 138 139 138 138 139 139 138 139 138 138 139 138 140 139 139 141 140 139 140 141 140 139 140 140 140 140 141 140 139 140 143 139 143 145 145 143 144 143 143 144 144 142 141 141 142 141 141 141 140 140 141 143 141 141 142 142 142 140 141 141 141 142 143 141 142 144 146 147 145 144 144 143 143 143 142 142 141 141 141 140 141 142 143 143 144 143 144 143 143 141 142 147 143 143 143 142 142 142 143 142 139 141 140 140 141 142 141 141 142 142 141 143 143 143 144 144 145 143 144 144 143 144 145 147 144 143 148 144 144 144 143 143 142 143 144 141 143 142 142 143 143 142 143 141 141 142 141 141 140 140 142 142 144 143 141 143 144 146 144 146 146 144 145 146 146 144 144 146 141 142 144 144 141 140 141 142 142 143 142 140 138 139 139 141 142 149 143 148 151 148 148 148 149 149 147 148 147 147 147 148 148 149 149 151 152 152 152 157 167 0 0 0 0 0
    0 0 0 0 0 0 0 0 0 0 0 0 0 0 0 0 0 0 0 0 0 0 0 0 0 0 0 0 0 0 0 0 0 0 0 0 0 0 0 0 0 0 0 0 0 0 0 0 0 0 0 0 0 0 0 0 0 0 0 0 0 0 0 0 0 0 0 0 0 136 135 -193 138 138 139 139 142 142 141 140 140 141 140 139 139 137 136 136 138 139 140 142 142 142 142 142 142 143 141 140 139 139 138 139 138 139 138 139 139 138 139 139 138 139 139 139 140 139 140 140 139 141 140 139 140 140 140 139 140 140 140 140 140 140 139 140 142 139 143 144 144 142 143 143 143 144 143 142 141 142 142 142 141 141 140 140 141 142 141 141 142 142 142 141 141 142 142 143 143 142 143 144 146 146 144 143 143 143 143 143 142 141 140 141 142 141 143 144 144 145 144 144 145 144 144 142 144 147 144 144 143 142 142 143 143 142 139 141 140 140 142 142 141 142 142 142 141 143 143 143 143 143 144 143 144 143 142 144 145 147 143 142 148 143 144 144 143 142 142 142 144 141 143 142 142 143 142 142 142 141 140 141 141 141 140 141 143 142 144 144 142 143 144 146 144 146 145 143 145 146 146 145 145 147 142 143 147 146 142 141 -193 -193 -193 -193 -193 139 136 -193 -193 140 144 150 144 149 152 150 150 150 151 150 149 150 149 149 149 149 150 150 151 153 155 155 156 162 169 0 0 0 0 0
    0 0 0 0 0 0 0 0 0 0 0 0 0 0 0 0 0 0 0 0 0 0 0 0 0 0 0 0 0 0 0 0 0 0 0 0 0 0 0 0 0 0 0 0 0 0 0 0 0 0 0 0 0 0 0 0 0 0 0 0 0 0 0 0 0 0 0 0 0 137 137 138 139 138 139 139 141 141 141 140 139 140 139 138 138 136 136 136 137 139 140 142 142 142 143 143 143 143 142 141 139 139 138 139 139 139 139 139 139 139 139 139 138 139 139 140 141 140 141 141 140 141 141 139 140 140 140 139 140 140 140 140 141 141 139 140 142 139 143 144 145 143 143 143 144 144 144 142 142 142 142 142 141 141 140 140 140 141 140 141 142 142 142 141 142 143 142 143 143 142 143 143 146 146 144 143 143 143 142 143 142 141 140 141 142 142 144 144 145 145 145 144 145 145 145 142 145 147 144 144 144 143 142 143 143 142 140 142 140 141 142 142 142 143 143 143 142 144 145 144 144 144 145 143 143 143 142 144 145 147 144 143 148 143 144 143 142 142 141 142 143 140 143 142 142 142 142 141 142 140 139 140 140 141 -193 141 144 143 145 144 142 144 144 145 144 146 145 143 145 147 147 146 146 149 145 148 151 149 147 145 -193 144 -193 -193 -193 -193 137 -193 -209 144 151 151 146 150 153 151 151 152 152 151 151 152 151 150 150 150 151 152 153 157 163 164 162 165 169 0 0 0 0 0
    0 0 0 0 0 0 0 0 0 0 0 0 0 0 0 0 0 0 0 0 0 0 0 0 0 0 0 0 0 0 0 0 0 0 0 0 0 0 0 0 0 0 0 0 0 0 0 0 0 0 0 0 0 0 0 0 0 0 0 0 0 0 0 0 0 0 0 0 0 138 138 139 139 139 139 139 141 142 141 141 140 140 139 138 137 136 135 135 137 139 140 142 142 143 143 143 143 143 142 141 140 140 139 140 140 140 139 139 140 139 139 139 138 139 140 140 141 141 142 142 141 142 141 140 140 141 140 139 140 140 140 140 141 141 139 140 142 139 143 144 145 143 144 143 144 144 144 143 142 142 142 142 142 141 141 140 140 141 141 141 143 142 143 142 142 143 142 143 143 142 142 142 145 144 143 143 142 142 142 143 142 141 140 140 141 143 145 146 147 146 146 146 148 147 146 143 147 147 145 144 144 143 143 144 144 143 141 143 141 141 143 143 142 143 144 144 143 146 146 145 145 144 145 143 144 143 144 146 148 149 148 146 150 144 145 144 142 141 141 141 143 140 143 142 142 143 142 141 141 140 139 139 -193 141 -193 141 144 143 145 145 142 144 144 145 144 145 145 143 146 148 148 148 148 150 149 151 154 -193 151 -209 -209 -193 -193 -209 -193 -193 -209 -193 144 147 155 152 148 151 155 152 152 153 153 152 151 153 153 151 152 152 153 156 158 164 168 168 167 168 170 0 0 0 0 0
    0 0 0 0 0 0 0 0 0 0 0 0 0 0 0 0 0 0 0 0 0 0 0 0 0 0 0 0 0 0 0 0 0 0 0 0 0 0 0 0 0 0 0 0 0 0 0 0 0 0 0 0 0 0 0 0 0 0 0 0 0 0 0 0 0 0 0 0 0 138 138 139 140 140 140 140 141 143 142 142 141 142 139 139 137 136 135 136 138 140 141 143 142 143 144 144 145 144 143 142 140 142 140 142 142 141 140 141 140 139 140 140 138 139 139 140 142 141 142 142 141 142 141 140 140 140 140 139 140 140 139 140 141 140 139 140 142 139 144 146 146 144 144 144 144 145 144 144 143 143 143 143 144 143 142 142 141 143 142 142 144 142 143 142 142 143 142 143 143 142 142 141 145 143 142 142 142 142 141 142 142 140 141 141 143 146 147 147 149 148 148 149 150 149 148 145 148 146 145 145 145 144 144 145 145 143 142 144 142 142 144 143 144 145 145 145 145 148 149 147 148 144 146 144 144 145 147 149 151 152 152 151 152 148 148 -193 144 142 141 141 143 140 143 142 142 143 143 141 141 139 -193 -209 -209 -193 -193 142 145 145 146 146 143 144 144 144 143 145 145 142 146 148 149 150 150 152 -193 155 164 169 -209 -193 -193 -209 31 33 38 -193 170 173 167 -193 168 172 -193 153 159 153 153 154 154 153 152 154 154 152 155 155 158 166 166 168 169 170 169 169 170 0 0 0 0 0
    0 0 0 0 0 0 0 0 0 0 0 0 0 0 0 0 0 0 0 0 0 0 0 0 0 0 0 0 0 0 0 0 0 0 0 0 0 0 0 0 0 0 0 0 0 0 0 0 0 0 0 0 0 0 0 0 0 0 0 0 0 0 0 0 0 0 0 0 0 140 -193 -193 141 141 139 141 -193 -193 -193 143 -193 144 139 139 137 136 135 136 139 141 142 145 144 144 146 146 146 145 144 143 142 145 144 145 146 145 144 146 -193 142 141 141 140 140 139 141 142 141 142 142 141 142 141 140 140 140 140 139 140 140 139 140 140 140 139 140 142 141 147 149 149 147 147 145 146 146 146 145 145 146 146 146 147 146 145 145 144 146 143 143 145 143 144 143 143 144 143 143 143 142 142 141 146 143 143 142 142 142 142 143 142 140 142 141 146 148 149 149 151 151 150 151 153 151 150 148 150 147 146 146 146 146 146 147 147 145 144 147 146 146 146 147 148 149 149 149 -193 153 154 152 152 147 148 145 145 147 -193 150 152 160 167 -209 167 -209 151 150 147 145 141 142 144 140 143 142 142 143 142 141 140 -209 135 -209 -209 -209 -209 143 147 146 147 147 145 145 144 144 144 144 145 141 146 148 150 152 -209 158 166 166 169 170 169 170 170 170 -193 -193 -193 173 174 175 173 175 175 176 176 165 166 156 155 156 155 155 154 155 155 154 162 165 166 170 170 170 171 171 171 171 171 0 0 0 0 0
    0 0 0 0 0 0 0 0 0 0 0 0 0 0 0 0 0 0 0 0 0 0 0 0 0 0 0 0 0 0 0 0 0 0 0 0 0 0 0 0 0 0 0 0 0 0 0 0 0 0 0 0 0 0 0 0 0 0 0 0 0 0 0 0 0 0 0 0 0 -193 -209 -177 -193 141 138 -209 -193 -193 -193 -193 -193 -193 -209 140 137 137 135 135 139 143 142 146 144 145 146 146 147 146 144 145 -193 -193 -193 148 148 -193 -193 -209 -193 -193 148 148 145 145 141 142 143 142 142 141 141 142 141 140 141 141 140 139 140 140 139 140 140 140 138 139 143 142 150 153 -193 -193 149 148 148 148 148 147 147 148 148 149 150 -193 -193 -193 148 149 146 144 146 144 144 144 144 145 144 143 144 143 143 142 146 143 143 142 142 143 142 144 143 141 143 143 149 -193 -193 150 154 154 153 154 160 157 152 150 154 148 148 148 149 148 149 150 150 148 150 151 -193 150 150 151 152 153 153 -193 -193 158 163 165 164 157 151 -193 149 -193 -209 152 157 165 169 169 169 -209 -193 -193 -193 149 142 143 145 140 143 142 -193 -193 -209 -209 -209 -209 -209 -209 -209 -209 -209 -209 -209 149 149 148 147 147 146 145 145 145 145 141 146 150 151 -209 -209 169 170 169 170 170 170 170 171 170 171 170 171 174 175 176 175 177 175 176 176 170 169 162 160 160 158 157 156 157 158 157 167 170 170 172 172 171 173 173 173 172 172 0 0 0 0 0
    0 0 0 0 0 0 0 0 0 0 0 0 0 0 0 0 0 0 0 0 0 0 0 0 0 0 0 0 0 0 0 0 0 0 0 0 0 0 0 0 0 0 0 0 0 0 0 0 0 0 0 0 0 0 0 0 0 0 0 0 0 0 0 0 0 0 0 0 0 -193 -209 -177 -209 143 -209 -209 -209 -209 -193 -209 -193 -209 -209 143 139 138 -193 -209 -209 -209 145 148 146 146 147 146 148 147 145 -193 -193 -193 -209 150 150 -209 562 -209 -193 -193 154 -193 -193 -193 146 146 146 144 144 143 142 143 142 141 141 141 140 139 141 141 139 140 141 141 140 142 148 149 154 157 163 -193 154 -193 151 151 -209 -193 150 150 -193 -209 -209 -193 -193 -193 -193 -209 -193 146 147 144 144 144 145 147 145 144 145 144 144 143 146 143 144 143 143 144 145 146 147 145 148 148 152 -193 -209 151 158 161 164 162 166 167 164 156 163 149 150 149 151 150 152 155 155 -193 155 163 170 -193 -209 -209 157 162 161 164 166 165 168 169 170 169 169 -209 157 -209 -209 163 165 167 169 169 170 169 164 164 -193 156 149 148 149 -193 -193 -193 -209 -209 -209 -209 -209 -209 -209 -193 -209 -209 -209 -209 -209 153 152 151 -193 149 149 148 148 -193 -193 -193 -193 -209 -209 170 173 170 171 170 170 171 170 170 171 170 171 171 172 174 176 177 175 177 174 175 176 171 170 164 164 164 161 161 159 160 162 162 169 174 172 174 173 173 174 174 174 173 172 0 0 0 0 0
    0 0 0 0 0 0 0 0 0 0 0 0 0 0 0 0 0 0 0 0 0 0 0 0 0 0 0 0 0 0 0 0 0 0 0 0 0 0 0 0 0 0 0 0 0 0 0 0 0 0 0 0 0 0 0 0 0 0 0 0 0 0 0 0 0 0 0 0 0 156 157 -193 145 151 -209 -209 -209 -209 -209 -209 -193 -209 -209 -193 -209 147 -209 -209 -209 172 -193 151 -193 148 148 148 149 148 146 -193 -193 -177 -209 -209 -193 -209 -193 158 -193 160 161 163 164 164 151 151 149 148 -193 146 146 146 144 143 144 144 142 139 142 141 140 141 143 143 142 146 152 154 159 162 167 165 162 164 157 155 170 -209 -193 -193 -193 -193 -193 159 160 154 154 157 -193 148 149 146 145 145 146 148 146 146 146 145 144 143 146 143 144 145 145 146 147 149 150 149 152 152 153 -193 -193 153 163 165 167 166 167 169 168 167 168 -193 153 152 154 153 155 160 161 -193 -193 169 170 171 169 169 169 169 168 169 169 168 169 170 170 168 169 168 163 166 166 166 167 168 169 169 170 169 167 167 166 164 157 154 156 -209 -209 470 -193 -209 -209 -209 -209 -209 -193 -193 -209 -209 -209 -193 161 161 158 152 159 -193 156 -209 -209 -209 -209 -209 -209 -193 171 171 175 172 172 171 171 171 170 170 171 169 170 170 171 173 175 176 175 177 173 174 175 172 172 166 167 167 165 164 164 164 166 166 171 177 173 175 174 174 174 174 174 173 171 0 0 0 0 0
    0 0 0 0 0 0 0 0 0 0 0 0 0 0 0 0 0 0 0 0 0 0 0 0 0 0 0 0 0 0 0 0 0 0 0 0 0 0 0 0 0 0 0 0 0 0 0 0 0 0 0 0 0 0 0 0 0 0 0 0 0 0 0 0 0 0 0 0 0 160 161 159 155 158 -193 -209 -209 -209 -209 -209 -177 -209 -177 -209 -209 -209 -209 -209 171 169 -209 152 -209 -193 150 150 150 149 147 -193 -209 -177 -209 -209 -193 162 165 163 165 164 165 166 167 167 156 156 152 152 -209 -193 -193 -209 -193 149 150 150 148 142 146 145 142 145 148 148 148 152 156 162 164 166 168 167 166 167 164 164 171 -193 -193 -193 -193 -193 -193 166 165 158 159 162 157 152 152 148 147 148 149 151 148 148 148 148 145 143 146 143 145 146 146 148 149 151 153 153 156 155 156 161 163 159 166 167 168 168 168 169 169 169 169 170 163 163 162 164 163 165 165 -193 -193 170 171 171 170 170 170 170 169 170 170 169 169 169 169 168 168 167 164 166 167 167 167 169 169 170 170 170 168 168 168 168 166 166 165 -193 -193 -209 -209 -209 170 -193 -193 170 170 172 -193 170 170 169 167 167 166 160 166 171 169 171 170 171 -193 171 170 171 172 172 176 173 172 172 171 171 170 170 170 169 170 170 170 171 174 175 174 175 172 174 175 174 175 170 170 170 168 168 167 167 168 168 171 179 173 175 174 174 173 173 174 173 171 0 0 0 0 0
    0 0 0 0 0 0 0 0 0 0 0 0 0 0 0 0 0 0 0 0 0 0 0 0 0 0 0 0 0 0 0 0 0 0 0 0 0 0 0 0 0 0 0 0 0 0 0 0 0 0 0 0 0 0 0 0 0 0 0 0 0 0 0 0 0 0 0 0 0 163 163 161 160 162 164 164 -209 -209 -209 -209 -209 -209 -209 -209 162 -209 167 -209 168 167 -193 157 -193 -193 -193 153 153 152 149 -209 -209 -209 -193 159 160 165 166 165 166 165 166 167 168 168 158 162 158 163 -209 -209 -193 -209 -209 -209 159 162 157 150 153 150 148 151 153 152 153 155 159 165 165 166 168 168 167 168 166 166 171 168 167 167 -193 -193 167 168 167 162 165 166 164 157 159 153 -193 151 153 163 -193 158 -193 -193 174 -209 -209 143 146 149 150 151 -193 155 158 158 162 163 161 166 166 165 167 168 168 169 168 170 169 170 170 170 167 168 167 168 167 167 167 -193 168 171 171 172 170 171 171 171 170 171 170 169 169 169 169 168 168 168 166 167 169 169 169 171 170 170 171 170 169 169 169 169 169 169 168 167 -193 -193 169 169 169 169 170 169 170 171 170 170 170 170 169 169 169 -193 168 171 171 170 170 171 171 172 171 172 174 173 177 173 172 172 171 171 170 170 170 168 169 169 169 170 172 172 172 174 171 173 175 175 176 172 172 171 171 171 171 170 171 170 172 179 174 174 173 174 173 173 174 173 171 0 0 0 0 0
    0 0 0 0 0 0 0 0 0 0 0 0 0 0 0 0 0 0 0 0 0 0 0 0 0 0 0 0 0 0 0 0 0 0 0 0 0 0 0 0 0 0 0 0 0 0 0 0 0 0 0 0 0 0 0 0 0 0 0 0 0 0 0 0 0 0 0 0 0 164 164 163 164 165 166 166 -209 -193 -193 -193 -209 164 -209 -209 165 -193 167 167 167 166 163 160 159 -193 157 156 157 156 -193 -193 -193 164 162 163 163 166 166 166 166 166 166 167 167 167 161 165 166 167 -209 -193 171 170 170 170 168 167 167 162 159 155 154 154 156 155 156 158 161 165 165 166 167 167 167 167 166 167 171 168 168 168 -193 -193 168 168 168 164 167 168 168 165 166 167 169 165 164 168 169 168 171 172 174 -193 -193 -209 -209 -209 -209 -209 -193 -209 -193 165 166 166 165 168 167 167 168 169 169 169 169 170 169 170 170 170 168 169 168 169 168 168 168 169 169 172 172 173 171 172 171 172 170 171 170 170 170 170 169 168 168 168 167 168 169 169 169 171 171 170 171 170 169 169 169 169 168 169 169 168 168 169 169 169 169 169 169 169 170 170 170 170 170 170 169 169 169 167 168 170 171 170 170 170 170 171 171 172 173 172 177 173 172 171 171 170 170 170 170 167 169 169 169 170 171 171 171 173 171 173 175 175 177 174 173 172 172 173 173 172 174 171 172 180 174 174 173 174 173 173 174 174 171 0 0 0 0 0
    0 0 0 0 0 0 0 0 0 0 0 0 0 0 0 0 0 0 0 0 0 0 0 0 0 0 0 0 0 0 0 0 0 0 0 0 0 0 0 0 0 0 0 0 0 0 0 0 0 0 0 0 0 0 0 0 0 0 0 0 0 0 0 0 0 0 0 0 0 164 165 164 165 167 167 167 -193 -193 -193 -193 165 166 167 166 165 167 166 166 166 166 163 162 162 161 160 160 161 160 158 162 163 166 164 164 164 167 166 166 166 166 166 167 167 168 164 166 168 168 170 -193 171 171 170 170 169 168 168 166 163 159 158 158 160 159 161 162 164 166 166 166 166 167 167 167 167 167 171 168 168 169 169 169 169 169 169 166 169 169 169 167 167 169 169 167 165 167 168 167 170 172 172 172 173 173 173 173 172 173 170 169 169 168 169 168 167 168 168 167 168 168 168 -193 168 169 169 169 169 169 168 169 168 169 168 169 168 170 170 173 173 174 172 173 172 172 171 171 170 170 170 170 169 168 168 168 167 168 169 169 169 172 171 170 171 170 169 169 169 169 168 168 169 168 169 169 169 169 169 169 169 169 170 170 170 169 170 170 169 168 167 162 167 170 170 169 169 170 169 170 170 171 172 171 177 172 171 171 170 170 170 169 169 167 169 169 169 170 171 171 172 173 171 173 175 176 177 174 173 172 171 172 173 172 173 171 172 180 175 174 174 174 174 174 175 175 171 0 0 0 0 0
    0 0 0 0 0 0 0 0 0 0 0 0 0 0 0 0 0 0 0 0 0 0 0 0 0 0 0 0 0 0 0 0 0 0 0 0 0 0 0 0 0 0 0 0 0 0 0 0 0 0 0 0 0 0 0 0 0 0 0 0 0 0 0 0 0 0 0 0 0 164 165 164 166 168 168 168 -193 -209 -209 166 166 167 167 166 165 167 166 166 166 166 164 164 164 163 163 163 163 163 162 164 165 166 165 165 165 167 167 166 167 166 166 167 167 167 163 166 168 168 170 170 171 171 170 170 169 168 167 166 164 161 161 161 162 162 163 164 165 167 167 167 167 167 167 167 167 167 172 169 -193 169 170 170 170 170 170 166 169 170 170 167 167 169 170 168 166 168 169 168 170 172 171 172 172 172 173 173 173 173 171 171 170 170 170 170 169 169 168 168 168 168 168 -193 168 -193 169 169 169 169 168 169 168 169 168 169 168 170 170 173 173 173 172 173 172 172 171 171 171 170 170 171 170 169 168 168 167 168 169 169 169 171 171 170 170 170 169 169 169 169 168 169 169 168 169 170 170 169 169 169 169 169 169 169 169 168 169 169 168 167 166 167 169 170 171 170 170 170 169 169 170 171 172 171 177 172 171 171 170 170 170 169 169 166 168 168 168 169 170 170 171 171 170 172 173 175 175 173 172 172 171 172 173 172 173 171 172 180 175 175 174 175 175 174 175 175 171 0 0 0 0 0
    0 0 0 0 0 0 0 0 0 0 0 0 0 0 0 0 0 0 0 0 0 0 0 0 0 0 0 0 0 0 0 0 0 0 0 0 0 0 0 0 0 0 0 0 0 0 0 0 0 0 0 0 0 0 0 0 0 0 0 0 0 0 0 0 0 0 0 0 0 164 165 164 166 168 168 168 -209 167 167 167 167 167 166 165 165 166 166 165 165 165 163 163 164 163 163 163 164 164 162 165 166 167 165 166 166 167 167 166 166 166 166 167 167 167 162 166 169 171 172 171 172 171 171 171 169 168 167 166 164 161 161 161 162 162 163 164 165 167 167 167 167 167 167 167 167 167 172 168 168 169 169 170 170 170 170 165 170 171 171 167 167 169 170 168 167 168 169 168 170 172 171 172 172 172 171 172 172 172 170 170 -193 -193 170 170 170 170 169 168 168 168 168 -193 168 -193 -193 169 169 169 168 169 169 169 168 168 168 169 170 173 172 173 171 173 172 172 171 172 171 171 171 171 170 170 169 169 168 168 169 169 169 171 170 170 170 170 169 168 168 168 167 168 169 168 169 170 170 170 170 169 170 169 170 168 169 167 169 168 166 166 166 -193 171 171 173 171 171 170 169 169 169 170 170 170 176 172 171 171 170 169 170 169 169 166 167 168 168 169 169 169 169 168 166 167 169 171 171 170 170 170 170 171 173 172 172 171 172 180 175 175 174 176 175 175 175 175 171 0 0 0 0 0
    0 0 0 0 0 0 0 0 0 0 0 0 0 0 0 0 0 0 0 0 0 0 0 0 0 0 0 0 0 0 0 0 0 0 0 0 0 0 0 0 0 0 0 0 0 0 0 0 0 0 0 0 0 0 0 0 0 0 0 0 0 0 0 0 0 0 0 0 0 165 165 164 166 168 168 168 -193 168 168 168 168 169 167 165 165 166 166 165 165 165 163 163 163 163 163 162 163 164 162 165 166 168 166 167 167 168 167 166 167 166 166 167 166 167 162 166 170 174 172 171 172 170 170 170 169 168 167 165 163 159 160 160 161 161 163 165 166 167 168 168 167 168 167 167 167 167 171 167 167 168 169 169 169 169 169 162 169 171 170 166 167 168 169 168 167 168 168 167 169 171 171 172 172 172 171 171 171 171 169 -209 -193 -193 169 171 171 171 169 169 168 168 167 168 167 167 -193 169 169 168 168 169 169 169 168 168 167 168 170 172 172 171 171 172 172 173 172 172 172 172 172 172 171 171 169 170 169 169 169 169 169 171 170 170 170 170 169 169 168 169 168 169 169 169 170 170 171 171 170 170 170 169 169 168 169 166 169 167 166 167 167 170 172 172 173 171 171 171 170 169 170 170 170 170 176 171 171 170 170 169 169 169 169 165 167 167 167 168 168 167 169 165 162 162 164 -193 168 167 167 168 168 170 172 172 172 171 172 180 175 174 174 176 174 174 175 175 171 0 0 0 0 0
    0 0 0 0 0 0 0 0 0 0 0 0 0 0 0 0 0 0 0 0 0 0 0 0 0 0 0 0 0 0 0 0 0 0 0 0 0 0 0 0 0 0 0 0 0 0 0 0 0 0 0 0 0 0 0 0 0 0 0 0 0 0 0 0 0 0 0 0 0 165 165 164 164 167 167 168 166 168 168 168 169 170 169 167 166 167 167 165 166 166 163 163 163 163 163 162 164 165 164 167 168 169 167 168 168 168 167 167 167 166 166 167 166 167 162 166 170 176 172 170 171 170 170 170 169 168 166 164 163 158 159 159 160 160 163 164 166 -193 168 168 168 168 168 -193 167 167 171 168 168 168 169 169 169 169 168 161 169 170 170 166 166 167 169 169 168 168 167 166 168 171 170 171 172 171 170 170 170 170 168 -193 -193 -193 -193 170 171 171 169 169 168 168 167 167 167 167 168 168 168 168 168 169 168 169 168 168 167 168 171 173 171 171 171 173 172 173 172 172 172 172 172 172 171 171 169 171 170 170 170 170 170 171 172 170 170 170 169 169 169 169 169 169 170 169 170 170 171 171 170 170 169 169 169 166 167 165 168 167 166 168 169 170 172 171 172 171 172 171 170 170 170 171 170 170 175 171 170 170 170 169 169 169 169 165 167 167 166 167 168 167 168 166 165 165 166 169 169 167 167 167 167 168 171 171 171 170 172 179 174 174 174 175 174 174 175 174 171 0 0 0 0 0
    0 0 0 0 0 0 0 0 0 0 0 0 0 0 0 0 0 0 0 0 0 0 0 0 0 0 0 0 0 0 0 0 0 0 0 0 0 0 0 0 0 0 0 0 0 0 0 0 0 0 0 0 0 0 0 0 0 0 0 0 0 0 0 0 0 0 0 0 0 165 165 164 163 166 167 167 165 167 167 168 169 170 169 166 167 167 167 165 166 166 164 164 164 -193 164 163 165 167 166 168 168 169 167 169 168 168 167 166 166 166 166 166 166 166 162 164 169 174 172 170 171 170 169 169 168 167 166 164 163 159 160 161 162 -193 163 165 166 -193 -193 168 167 168 167 -193 167 167 170 167 167 168 168 169 168 168 168 159 169 170 169 165 166 167 169 169 168 168 167 166 167 169 168 169 170 170 169 169 169 170 168 -193 -193 -193 -193 170 171 170 169 169 168 168 168 167 168 167 168 168 168 167 167 169 168 168 168 168 167 168 171 173 171 171 171 173 172 173 172 172 172 172 172 172 171 171 170 172 171 171 172 171 170 171 174 171 170 171 170 169 169 169 169 167 168 167 167 168 170 169 169 169 168 168 168 164 164 162 164 165 165 168 169 170 172 171 173 171 173 172 171 170 172 172 171 170 176 171 170 170 170 169 169 169 169 166 167 167 167 168 168 167 168 167 166 167 167 169 169 168 166 167 167 168 171 171 171 170 173 179 174 174 174 175 174 174 174 173 170 0 0 0 0 0
    0 0 0 0 0 0 0 0 0 0 0 0 0 0 0 0 0 0 0 0 0 0 0 0 0 0 0 0 0 0 0 0 0 0 0 0 0 0 0 0 0 0 0 0 0 0 0 0 0 0 0 0 0 0 0 0 0 0 0 0 0 0 0 0 0 0 0 0 0 165 165 164 163 166 166 166 164 166 166 167 -209 170 169 166 167 168 168 166 167 167 165 166 166 -193 -193 165 168 168 168 168 169 169 168 169 168 168 167 166 166 165 166 166 165 165 161 160 168 170 170 168 169 168 168 168 168 167 165 165 164 161 163 163 164 -193 -193 166 165 -193 167 167 166 167 166 166 166 167 169 167 167 167 168 169 168 168 167 160 168 169 169 165 165 167 169 169 168 167 166 165 165 167 166 168 169 169 168 169 169 170 168 170 -193 -193 169 170 171 170 169 169 169 168 168 168 168 167 168 168 168 167 167 167 167 166 167 166 166 167 171 173 172 171 173 174 173 174 173 172 172 172 172 172 172 172 171 173 173 172 173 172 171 172 176 171 171 171 170 170 169 169 169 166 166 165 164 165 168 167 167 166 166 167 166 162 160 159 159 162 163 168 170 170 172 170 173 172 174 172 172 171 173 173 172 171 176 171 171 170 170 170 170 169 169 167 167 168 167 168 168 167 168 167 167 168 168 169 168 168 166 166 166 167 170 170 170 170 173 178 174 174 174 175 174 174 174 173 171 0 0 0 0 0
    0 0 0 0 0 0 0 0 0 0 0 0 0 0 0 0 0 0 0 0 0 0 0 0 0 0 0 0 0 0 0 0 0 0 0 0 0 0 0 0 0 0 0 0 0 0 0 0 0 0 0 0 0 0 0 0 0 0 0 0 0 0 0 0 0 0 0 0 0 165 165 164 162 166 165 165 163 166 165 167 -209 169 167 166 167 168 168 167 167 168 167 168 168 -193 -193 167 169 169 168 169 169 169 168 169 168 168 167 166 166 165 165 165 164 165 163 159 168 169 168 166 167 167 167 167 167 166 165 165 165 163 164 165 165 -193 165 166 165 -193 167 167 166 167 166 166 165 166 168 167 167 168 -193 168 168 168 168 162 167 168 167 165 165 167 169 168 169 168 167 166 165 167 166 168 169 168 167 -193 169 169 167 169 166 166 168 170 170 170 169 169 169 169 169 168 169 168 168 168 168 167 167 167 167 166 167 167 167 -209 172 -193 173 -193 -193 -193 173 173 173 172 172 172 172 172 172 173 172 174 173 173 174 172 171 171 176 171 171 171 -193 169 169 169 169 164 165 163 161 163 165 166 166 166 165 166 164 162 -193 159 158 160 160 -209 168 171 172 171 173 173 175 173 173 171 174 174 173 172 176 171 171 170 170 169 169 169 169 167 167 167 167 168 168 167 168 168 168 168 168 169 169 169 167 167 166 167 169 170 170 170 172 177 174 174 174 174 174 173 174 173 171 0 0 0 0 0
    0 0 0 0 0 0 0 0 0 0 0 0 0 0 0 0 0 0 0 0 0 0 0 0 0 0 0 0 0 0 0 0 0 0 0 0 0 0 0 0 0 0 0 0 0 0 0 0 0 0 0 0 0 0 0 0 0 0 0 0 0 0 0 0 0 0 0 0 0 165 165 164 162 166 165 165 164 166 165 167 -209 -193 165 164 166 166 167 167 167 168 168 169 169 169 169 167 169 169 167 168 169 170 169 170 169 169 168 166 166 166 166 166 165 165 164 161 168 169 167 166 166 166 166 166 166 166 165 166 166 165 166 166 165 -193 165 -193 166 -193 168 167 167 167 166 167 166 166 168 168 168 168 -193 169 168 169 169 165 167 168 167 166 166 168 169 168 169 169 169 167 166 167 167 -193 168 168 167 168 168 168 166 167 166 166 169 170 170 170 170 170 170 170 170 169 169 168 168 169 168 168 167 167 168 167 168 169 169 -209 172 173 172 -193 -193 -193 172 172 172 171 171 171 171 171 172 172 171 173 173 173 173 172 171 171 176 171 171 -193 -193 -193 -193 169 -193 163 164 163 162 163 164 165 165 166 165 166 163 162 -193 -193 -193 160 -193 -209 -209 171 174 172 175 174 177 175 174 173 176 175 174 172 177 171 171 170 170 169 169 169 169 167 167 167 167 168 168 167 168 168 168 168 168 169 169 169 168 168 167 168 170 170 170 170 173 177 173 174 174 174 174 173 174 172 171 0 0 0 0 0
    0 0 0 0 0 0 0 0 0 0 0 0 0 0 0 0 0 0 0 0 0 0 0 0 0 0 0 0 0 0 0 0 0 0 0 0 0 0 0 0 0 0 0 0 0 0 0 0 0 0 0 0 0 0 0 0 0 0 0 0 0 0 0 0 0 0 0 0 0 165 165 164 162 166 165 165 164 166 166 167 -209 167 164 162 165 166 167 167 168 168 168 168 169 168 168 166 168 168 165 167 169 169 169 171 169 169 168 166 166 166 166 166 165 165 165 162 168 169 167 166 166 165 166 166 166 167 165 166 166 166 167 167 166 -209 165 -193 165 167 167 167 166 167 166 167 165 166 167 168 168 168 -193 169 168 169 169 167 167 168 168 167 167 169 170 169 170 169 169 168 166 167 167 -193 168 -193 167 168 168 168 166 167 166 166 169 170 170 171 170 170 170 170 171 169 169 169 168 169 169 168 168 168 168 168 169 170 169 -193 171 172 172 -193 -193 -193 171 171 171 170 170 170 171 170 171 171 171 173 174 174 174 173 171 171 177 171 171 -193 813 -193 -193 -193 -193 163 164 163 162 164 165 165 165 166 165 166 162 162 159 -193 -193 -193 -193 -209 171 172 173 172 174 173 176 175 175 174 178 177 175 172 176 171 171 170 170 169 169 169 169 167 166 167 167 167 167 167 167 167 167 167 166 167 167 168 167 168 167 168 170 171 170 170 174 177 173 174 174 174 173 173 173 172 171 0 0 0 0 0
    0 0 0 0 0 0 0 0 0 0 0 0 0 0 0 0 0 0 0 0 0 0 0 0 0 0 0 0 0 0 0 0 0 0 0 0 0 0 0 0 0 0 0 0 0 0 0 0 0 0 0 0 0 0 0 0 0 0 0 0 0 0 0 0 0 0 0 0 0 165 166 164 162 165 165 165 164 165 165 167 -209 -193 166 163 166 167 167 168 167 168 167 167 168 166 166 164 -193 -209 -193 -193 169 169 169 171 169 168 168 166 166 166 166 166 165 166 166 163 168 168 167 165 165 165 165 166 166 167 165 166 167 167 167 167 166 -209 165 -193 165 167 167 166 166 166 166 166 164 165 167 168 168 168 169 169 168 169 169 169 167 168 168 168 167 169 170 169 169 168 168 167 165 166 166 167 167 -193 -193 167 167 167 165 165 165 165 167 168 169 170 170 170 170 171 171 170 170 169 168 169 169 169 168 169 169 169 170 170 170 170 171 172 172 -193 -193 -193 171 171 171 170 169 169 170 170 171 171 171 174 175 175 175 173 172 172 178 172 171 -193 -193 -193 -193 -193 -193 163 165 163 163 165 166 167 166 167 166 166 164 165 163 164 -209 -193 169 171 172 172 173 172 174 173 177 175 177 175 177 177 175 173 175 171 171 170 170 169 169 169 169 167 167 168 167 167 167 167 167 166 166 166 166 166 167 167 166 167 167 167 169 170 170 170 175 177 173 173 173 173 173 173 173 172 170 0 0 0 0 0
    0 0 0 0 0 0 0 0 0 0 0 0 0 0 0 0 0 0 0 0 0 0 0 0 0 0 0 0 0 0 0 0 0 0 0 0 0 0 0 0 0 0 0 0 0 0 0 0 0 0 0 0 0 0 0 0 0 0 0 0 0 0 0 0 0 0 0 0 0 165 166 164 162 165 164 164 163 164 164 165 -209 166 166 163 167 167 167 167 166 167 167 167 168 166 165 164 -209 -209 -209 -209 -193 169 169 170 168 168 168 166 166 166 166 166 165 166 166 163 167 167 166 165 165 165 165 166 166 167 166 167 167 168 168 168 167 -193 165 -209 -193 167 167 166 166 166 166 166 164 165 167 168 168 169 169 169 168 169 169 169 166 167 167 167 166 168 168 167 168 167 166 165 163 165 165 -193 166 -209 -193 -193 166 167 165 166 167 166 168 168 168 169 169 169 169 170 171 170 170 169 169 169 169 169 168 169 169 169 170 171 171 171 171 173 172 171 172 171 171 171 170 169 169 168 169 168 169 169 170 174 175 175 176 174 173 173 179 172 171 171 -193 170 170 170 170 166 167 166 165 166 167 167 166 166 165 166 -193 -193 165 165 -209 168 169 171 172 172 173 173 174 174 178 178 179 177 178 177 176 175 175 172 171 170 170 169 170 169 169 168 168 169 168 168 168 168 168 -193 167 166 166 167 167 168 167 -193 166 167 169 170 170 170 176 177 173 173 173 173 173 173 173 171 171 0 0 0 0 0
    0 0 0 0 0 0 0 0 0 0 0 0 0 0 0 0 0 0 0 0 0 0 0 0 0 0 0 0 0 0 0 0 0 0 0 0 0 0 0 0 0 0 0 0 0 0 0 0 0 0 0 0 0 0 0 0 0 0 0 0 0 0 0 0 0 0 0 0 0 165 165 164 162 164 163 164 163 162 161 162 -209 158 163 -193 166 167 -193 -193 166 166 166 167 168 166 165 165 -209 -209 -209 -193 -193 168 168 170 167 167 168 166 166 166 166 167 165 166 166 163 168 167 166 165 165 165 165 165 166 167 166 167 168 168 168 169 168 169 166 169 167 167 166 165 165 165 165 166 164 164 166 169 169 169 169 169 169 170 170 169 166 167 167 167 166 168 167 167 167 166 166 -193 -193 164 163 -193 165 -193 -209 -209 167 167 167 168 168 167 168 167 167 169 168 169 169 170 171 170 170 169 169 169 169 169 167 169 169 -193 170 -193 -193 172 173 174 174 172 173 171 172 171 170 169 167 167 167 167 168 167 168 172 174 174 175 173 173 173 180 173 172 172 172 171 172 172 172 169 169 169 167 167 169 167 -193 165 -193 -209 -209 -193 -209 164 -209 -193 -193 170 172 173 174 175 175 177 181 181 181 178 179 177 176 175 175 172 171 170 170 169 170 170 170 169 169 170 170 170 170 168 169 -193 -193 -193 -193 -209 168 169 169 432 -209 -209 -193 -209 -209 -209 -209 -193 174 174 174 174 175 174 173 172 171 0 0 0 0 0
    0 0 0 0 0 0 0 0 0 0 0 0 0 0 0 0 0 0 0 0 0 0 0 0 0 0 0 0 0 0 0 0 0 0 0 0 0 0 0 0 0 0 0 0 0 0 0 0 0 0 0 0 0 0 0 0 0 0 0 0 0 0 0 0 0 0 0 0 0 164 165 164 162 165 163 164 164 162 162 161 160 159 162 161 165 166 165 164 164 165 165 166 167 166 165 167 -193 -209 -209 -193 -193 167 167 169 167 167 169 167 166 167 167 167 166 167 167 164 168 167 166 165 165 165 165 165 165 167 166 167 167 168 168 169 168 169 166 170 166 -193 -193 164 164 164 164 165 163 163 166 170 169 169 169 169 169 170 170 170 166 167 167 167 167 169 168 168 168 167 -193 -193 -193 -193 -193 -193 165 -193 -209 -209 168 -193 -193 -193 -193 168 169 -209 -193 -193 169 169 169 172 172 -193 -193 -193 -193 -193 -193 169 168 169 171 -209 -209 -209 -209 -193 173 175 174 172 173 171 172 171 170 169 167 166 167 166 167 165 167 169 172 173 174 172 172 173 180 174 173 174 174 172 173 173 173 170 172 171 -209 168 -209 -193 -209 -209 -209 -209 -209 46 -209 -209 -209 -209 -209 -193 175 177 -193 -193 179 180 183 183 182 179 179 177 176 176 174 172 171 169 170 169 171 169 169 169 169 170 170 170 170 168 169 168 169 -193 -193 -209 -193 -193 -209 433 440 -177 -177 -177 -209 -209 213 -209 -193 177 174 174 176 175 174 173 172 0 0 0 0 0
    0 0 0 0 0 0 0 0 0 0 0 0 0 0 0 0 0 0 0 0 0 0 0 0 0 0 0 0 0 0 0 0 0 0 0 0 0 0 0 0 0 0 0 0 0 0 0 0 0 0 0 0 0 0 0 0 0 0 0 0 0 0 0 0 0 0 0 0 0 165 165 164 162 165 164 165 165 162 163 161 162 160 163 162 165 165 164 164 164 165 166 167 168 167 166 -193 -209 -209 -209 -209 -209 164 165 -193 -193 -193 169 167 167 167 167 167 166 168 168 165 169 167 167 165 164 164 164 164 164 166 165 166 167 167 167 168 167 169 -193 -193 -209 -209 -209 -193 -193 -209 -209 -193 161 163 165 -193 -193 169 170 170 169 170 171 170 167 168 168 168 168 170 169 169 -193 -193 80 78 77 -209 -209 -209 -177 -209 -209 -209 169 170 171 -193 -209 -209 170 -193 -193 175 169 169 170 173 172 -193 -193 169 -193 -193 -193 -193 -209 170 -209 -209 -209 -209 -193 -193 -209 -193 176 -193 173 172 172 172 170 169 167 166 167 165 167 164 166 169 172 173 174 171 172 174 181 175 174 174 175 173 174 174 174 171 174 173 171 170 174 -209 -209 -209 -209 235 -209 45 -209 -209 -209 -209 -209 -209 -193 -193 179 -193 180 182 185 184 184 179 180 178 177 178 175 173 171 169 170 170 171 168 169 168 168 170 170 170 170 167 170 168 171 -209 -193 -209 -209 -209 -209 434 441 -177 -177 -209 -209 215 213 -193 -193 179 175 175 178 176 175 173 173 0 0 0 0 0
    0 0 0 0 0 0 0 0 0 0 0 0 0 0 0 0 0 0 0 0 0 0 0 0 0 0 0 0 0 0 0 0 0 0 0 0 0 0 0 0 0 0 0 0 0 0 0 0 0 0 0 0 0 0 0 0 0 0 0 0 0 0 0 0 0 0 0 0 0 165 166 165 162 166 164 165 165 161 161 159 160 157 158 158 160 163 160 162 162 163 165 167 -193 -209 -209 -193 -209 -209 -209 -209 -209 -193 162 -209 -193 -193 169 168 168 168 168 168 167 168 168 166 170 -193 -209 -209 -209 -209 -209 -209 163 165 165 166 168 167 168 167 167 169 -209 -209 -209 -209 -193 209 210 210 -193 -193 162 -193 166 -193 -193 169 170 170 169 171 171 171 167 169 169 169 169 172 172 -193 -193 83 80 78 77 -209 -209 -209 -209 -209 -209 -209 -193 172 172 -193 -209 -209 170 -209 -209 -209 169 169 170 174 173 170 170 170 169 170 -193 172 -209 173 -209 -193 -209 -193 212 211 210 -209 -209 -209 174 -193 172 171 170 169 166 165 166 164 166 162 164 168 -193 172 -193 -209 171 175 182 176 175 175 177 174 175 175 175 171 175 174 173 170 -193 -209 -209 -209 -209 236 -209 -209 -193 -193 -193 -209 -209 -193 -193 -193 179 -193 180 -193 186 185 184 180 180 179 178 178 175 173 171 169 170 170 172 168 169 169 170 171 172 172 -193 166 172 -209 174 -209 -209 -209 -209 -209 -209 433 440 -177 -209 -209 -193 214 212 213 -193 -209 177 175 179 177 175 174 173 0 0 0 0 0
    0 0 0 0 0 0 0 0 0 0 0 0 0 0 0 0 0 0 0 0 0 0 0 0 0 0 0 0 0 0 0 0 0 0 0 0 0 0 0 0 0 0 0 0 0 0 0 0 0 0 0 0 0 0 0 0 0 0 0 0 0 0 0 0 0 0 0 0 0 165 166 165 162 166 164 165 166 -193 157 157 158 154 155 156 157 160 158 159 158 160 164 -209 -209 -209 -209 -193 -209 -209 -209 -209 -209 -209 -209 -209 -193 -193 172 169 169 169 168 169 167 169 169 -209 -193 -209 -209 -209 -209 -209 -209 -209 -209 -193 165 166 168 167 168 167 167 170 -209 -209 -209 -193 206 208 208 209 210 212 -193 -209 -193 -209 -193 170 171 171 169 171 171 171 168 169 169 169 171 175 -193 -193 82 82 80 78 77 -209 -209 -209 -209 -209 -209 -177 -193 -193 -209 -209 -209 -209 -209 -209 -209 -209 -209 -193 171 178 175 171 171 171 170 172 174 -193 -209 -209 203 207 209 209 210 209 209 208 207 -193 -209 -209 -193 -193 -209 -209 166 165 166 162 165 -193 163 -193 -193 -193 -209 -193 -193 -193 -193 -193 179 178 180 177 178 176 176 171 176 174 -193 -209 -193 -209 -209 -209 -209 -209 -209 211 212 211 212 -193 208 210 -193 -193 178 -193 -209 -209 187 185 -209 180 181 180 178 178 176 174 172 168 -209 -209 -209 170 172 177 -193 -193 180 -193 -209 -209 -193 -209 -209 -209 207 -209 -193 -209 -193 428 429 -193 213 214 213 213 212 212 212 -193 -193 174 179 178 175 174 174 0 0 0 0 0
    0 0 0 0 0 0 0 0 0 0 0 0 0 0 0 0 0 0 0 0 0 0 0 0 0 0 0 0 0 0 0 0 0 0 0 0 0 0 0 0 0 0 0 0 0 0 0 0 0 0 0 0 0 0 0 0 0 0 0 0 0 0 0 0 0 0 0 0 0 165 167 165 162 167 164 164 -209 -209 -209 157 157 -193 153 156 158 159 -193 -193 -193 -209 -193 -209 -209 -209 -209 -209 -209 -209 -209 -193 -193 -193 207 -209 -209 -193 174 170 170 170 169 170 168 170 171 -209 -209 -209 -209 -209 -209 -209 -209 -209 -209 -193 -209 166 169 168 168 168 169 171 -209 -209 -193 206 207 208 208 209 210 211 212 -209 -193 206 -209 171 173 172 -209 171 -193 170 167 169 168 168 -193 -193 -209 -193 79 78 78 -177 -193 -209 208 209 210 -177 -177 211 212 212 212 212 213 210 210 211 -193 211 210 209 -193 203 -193 -193 171 173 173 177 182 -209 -209 204 204 208 208 208 209 208 208 208 207 208 206 208 -209 -209 -209 -209 -193 -193 -209 -209 -193 205 -193 -193 204 205 204 205 208 206 209 211 -193 -193 -193 181 181 179 179 173 179 176 -193 -193 -193 -209 -209 -193 219 220 214 210 211 210 212 212 208 210 207 205 -193 -209 -209 -209 188 187 -209 -193 181 -209 -209 179 178 176 175 -209 -209 -209 -193 -209 -193 197 203 -193 -209 -209 -209 -209 -193 -209 -209 200 209 -193 -193 -193 -193 -193 -193 212 213 214 213 213 212 213 213 211 207 -193 180 180 177 177 178 0 0 0 0 0
    0 0 0 0 0 0 0 0 0 0 0 0 0 0 0 0 0 0 0 0 0 0 0 0 0 0 0 0 0 0 0 0 0 0 0 0 0 0 0 0 0 0 0 0 0 0 0 0 0 0 0 0 0 0 0 0 0 0 0 0 0 0 0 0 0 0 0 0 0 166 167 165 162 167 -193 -209 -209 -209 -209 -209 -209 -209 -209 -193 -193 211 -193 -193 -209 -209 -209 -193 -193 -209 -209 -209 -209 -193 212 212 211 210 207 209 -209 -193 177 171 171 171 171 171 170 173 -193 -209 -209 -209 -209 206 206 206 206 205 205 -193 -193 -209 -209 -209 171 -209 -209 -209 -209 -209 205 207 208 208 208 209 210 210 210 208 210 207 -193 -209 179 -209 -209 -193 -193 170 167 170 167 167 -193 -209 -209 -193 -177 -177 -177 -177 -193 205 208 208 209 208 209 209 211 210 211 210 212 209 211 211 210 210 211 210 209 206 206 206 203 -193 -193 -193 -193 202 205 207 206 208 208 208 209 208 208 208 206 208 206 206 206 204 206 204 -193 -193 -193 203 204 205 206 203 203 204 204 205 207 206 208 210 205 205 204 -209 -193 182 182 177 181 179 -193 -209 -209 -193 -209 -193 217 217 214 210 210 210 211 211 209 211 208 206 209 -209 -209 -209 196 196 -209 -209 -209 -209 -209 -209 -209 -209 -209 -209 -193 210 202 202 -193 202 204 203 -193 -193 -193 208 -193 -209 -193 199 208 -193 -193 -193 -193 -193 210 211 213 213 213 213 212 213 213 212 211 208 -193 -193 -193 -193 -209 0 0 0 0 0
    0 0 0 0 0 0 0 0 0 0 0 0 0 0 0 0 0 0 0 0 0 0 0 0 0 0 0 0 0 0 0 0 0 0 0 0 0 0 0 0 0 0 0 0 0 0 0 0 0 0 0 0 0 0 0 0 0 0 0 0 0 0 0 0 0 0 0 0 0 166 -193 -193 163 169 -209 -209 -209 -177 -177 -209 206 -193 -209 -193 207 211 212 -193 -209 1008 -193 -193 -177 -177 -209 218 211 212 211 210 210 208 206 208 -209 -209 183 174 174 174 174 175 177 182 -209 -209 -209 -193 205 207 207 207 206 206 206 206 205 -193 -209 -209 -209 203 205 206 207 207 207 208 207 208 207 207 208 208 207 206 209 207 206 204 202 204 203 -193 -193 171 168 177 -193 166 178 -209 -209 -209 -193 -177 -177 -193 206 205 207 207 208 207 208 208 209 208 209 208 211 208 210 210 210 210 211 210 210 207 208 207 207 206 205 203 205 204 208 210 208 209 208 208 209 208 208 207 206 207 205 206 205 204 205 204 204 204 203 204 206 207 208 205 205 206 206 207 208 207 208 209 206 206 205 204 -193 -209 -209 182 184 182 -193 -209 -209 -177 -193 214 214 215 213 210 210 210 210 211 209 210 208 207 210 206 -209 -193 -193 -193 -209 -209 -209 -209 -209 -209 -209 -209 -209 -209 204 208 202 203 205 205 205 204 204 204 206 208 207 203 203 199 208 211 -193 -193 208 209 211 211 213 213 213 213 212 213 213 212 212 211 206 206 205 207 208 0 0 0 0 0
    0 0 0 0 0 0 0 0 0 0 0 0 0 0 0 0 0 0 0 0 0 0 0 0 0 0 0 0 0 0 0 0 0 0 0 0 0 0 0 0 0 0 0 0 0 0 0 0 0 0 0 0 0 0 0 0 0 0 0 0 0 0 0 0 0 0 0 0 0 -209 -193 -209 -177 174 202 205 -209 -177 -177 -209 206 207 206 206 207 211 211 -193 -193 -209 -209 -193 -193 -193 211 215 209 210 210 210 209 208 206 207 202 -209 191 180 179 179 180 180 185 189 -209 -209 -209 206 205 208 207 207 206 206 206 206 205 206 -193 206 204 205 206 207 208 208 208 208 206 208 207 206 207 207 206 205 209 207 206 206 205 206 205 205 206 -193 -209 195 -209 -209 186 189 196 195 198 -193 -193 202 206 205 207 207 208 206 207 207 209 208 208 208 210 207 210 210 210 210 210 210 210 207 208 208 209 208 206 205 207 206 210 212 209 209 208 209 209 208 209 207 206 207 205 206 205 204 205 204 204 203 203 205 206 208 209 207 206 207 207 209 209 209 211 211 209 209 208 207 204 204 202 -209 193 -209 -209 -209 -209 -177 -193 211 212 214 213 209 209 209 210 210 209 210 209 207 210 207 207 207 204 205 -193 -209 -193 -193 210 214 215 215 216 216 214 214 206 208 208 207 206 205 205 205 209 210 208 205 205 203 210 212 211 211 210 210 211 211 212 213 212 212 212 212 212 212 212 212 210 212 213 214 214 0 0 0 0 0
    0 0 0 0 0 0 0 0 0 0 0 0 0 0 0 0 0 0 0 0 0 0 0 0 0 0 0 0 0 0 0 0 0 0 0 0 0 0 0 0 0 0 0 0 0 0 0 0 0 0 0 0 0 0 0 0 0 0 0 0 0 0 0 0 0 0 0 0 0 188 -193 -209 -209 -193 203 205 206 -209 -209 204 206 207 205 206 206 210 210 210 211 210 205 -193 -193 -209 208 214 209 210 209 209 208 208 206 207 203 202 201 -193 183 183 185 185 188 196 -209 -209 202 207 206 208 207 207 206 206 206 206 204 206 203 206 204 206 207 207 208 209 208 209 206 208 207 206 208 207 206 205 210 208 207 207 207 208 207 208 208 204 203 203 202 202 200 199 199 199 200 201 203 203 206 205 207 207 209 207 208 208 208 207 208 207 209 207 210 209 210 210 210 210 210 208 208 208 210 208 207 205 206 206 209 212 208 209 208 208 209 208 209 207 206 207 206 206 205 204 205 204 204 203 203 204 205 207 208 207 206 207 208 210 210 211 211 212 211 211 210 209 207 207 207 204 202 204 -209 -209 -193 -193 -193 209 210 213 213 208 209 209 209 210 209 210 208 206 210 208 208 208 207 208 207 -193 207 211 211 214 214 214 214 216 215 213 209 210 207 208 206 205 205 205 210 210 208 206 205 205 211 211 211 210 209 209 210 210 211 212 211 211 211 211 212 212 213 213 212 214 215 216 215 0 0 0 0 0
    0 0 0 0 0 0 0 0 0 0 0 0 0 0 0 0 0 0 0 0 0 0 0 0 0 0 0 0 0 0 0 0 0 0 0 0 0 0 0 0 0 0 0 0 0 0 0 0 0 0 0 0 0 0 0 0 0 0 0 0 0 0 0 0 0 0 0 0 0 194 192 197 201 203 204 207 206 205 205 205 206 207 205 206 205 209 208 207 207 205 203 202 202 211 206 212 208 209 209 208 208 208 206 207 204 204 202 200 189 189 190 191 194 199 -209 203 203 208 206 208 207 207 206 206 206 206 204 206 203 207 205 207 207 208 209 210 209 209 206 208 208 207 208 207 206 206 211 208 208 208 209 210 208 210 210 205 206 205 204 204 202 202 202 201 203 203 204 204 206 205 207 207 208 206 207 208 208 207 208 207 209 207 209 208 209 209 210 210 209 207 207 208 209 207 206 204 205 205 208 211 207 209 208 208 209 208 209 208 206 208 206 206 206 204 205 204 204 203 203 204 204 206 207 206 206 206 208 210 210 210 211 212 211 211 211 210 210 210 211 209 205 208 209 210 -193 -193 208 207 208 211 212 208 209 209 209 209 209 209 208 206 210 209 208 209 208 210 208 209 208 211 211 214 212 213 212 214 215 208 206 208 205 206 204 204 203 204 209 208 205 204 204 205 210 211 210 209 209 209 210 210 211 212 210 211 210 211 211 211 212 212 212 214 215 216 215 0 0 0 0 0
    0 0 0 0 0 0 0 0 0 0 0 0 0 0 0 0 0 0 0 0 0 0 0 0 0 0 0 0 0 0 0 0 0 0 0 0 0 0 0 0 0 0 0 0 0 0 0 0 0 0 0 0 0 0 0 0 0 0 0 0 0 0 0 0 0 0 0 0 0 198 199 200 201 204 204 207 206 206 206 206 206 207 205 206 205 209 208 206 206 205 203 203 202 208 205 211 207 209 208 208 208 208 206 208 204 206 203 202 200 200 199 199 199 202 205 205 205 209 207 209 208 208 207 206 206 206 204 206 203 207 206 207 207 208 209 210 209 209 206 208 208 206 208 207 206 206 211 208 208 208 209 210 209 210 210 205 207 207 206 206 204 205 204 203 205 204 205 204 205 205 207 206 208 206 207 207 208 207 207 206 208 206 209 208 208 208 209 209 208 207 207 207 208 207 206 204 205 204 206 212 207 208 207 208 209 208 209 208 206 208 206 206 206 205 205 204 204 204 203 204 205 207 207 206 206 206 207 209 209 209 209 211 211 211 211 209 209 208 210 208 205 208 209 209 210 209 208 207 208 211 212 208 209 209 209 209 209 209 208 206 210 209 208 209 209 209 208 208 208 211 210 213 211 213 212 214 216 211 209 212 207 209 204 204 203 204 209 206 204 204 204 206 210 210 209 209 209 208 210 210 210 211 210 210 210 210 211 211 212 212 211 214 215 215 215 0 0 0 0 0
    0 0 0 0 0 0 0 0 0 0 0 0 0 0 0 0 0 0 0 0 0 0 0 0 0 0 0 0 0 0 0 0 0 0 0 0 0 0 0 0 0 0 0 0 0 0 0 0 0 0 0 0 0 0 0 0 0 0 0 0 0 0 0 0 0 0 0 0 0 200 202 202 203 205 205 207 205 205 205 205 205 206 204 206 205 208 207 206 206 205 204 204 203 208 205 211 207 208 208 207 207 208 206 207 204 206 204 203 203 203 202 203 203 204 208 208 207 210 208 209 208 208 207 206 206 206 205 206 204 207 206 207 207 207 208 209 208 208 205 208 208 207 208 207 206 206 211 208 207 207 208 209 208 209 209 205 208 207 207 207 205 206 205 204 206 204 206 205 205 206 208 206 208 206 207 207 208 207 208 207 208 206 208 207 208 208 209 209 208 207 207 207 208 207 206 204 204 204 205 212 207 209 207 208 209 208 209 208 206 208 206 206 206 205 205 204 204 204 203 205 205 207 207 206 206 206 207 208 207 208 207 209 210 210 211 208 208 208 210 209 206 209 211 209 211 210 208 207 208 210 212 208 209 209 209 209 209 209 208 205 210 209 208 209 209 209 208 208 208 210 210 211 209 212 211 214 214 210 210 212 207 210 204 204 203 203 208 205 203 204 203 205 209 209 208 207 208 207 208 209 209 211 209 210 210 210 211 210 211 212 211 214 214 215 214 0 0 0 0 0
    0 0 0 0 0 0 0 0 0 0 0 0 0 0 0 0 0 0 0 0 0 0 0 0 0 0 0 0 0 0 0 0 0 0 0 0 0 0 0 0 0 0 0 0 0 0 0 0 0 0 0 0 0 0 0 0 0 0 0 0 0 0 0 0 0 0 0 0 0 201 202 203 204 205 204 205 205 204 204 204 204 204 203 204 204 207 206 205 205 205 204 204 203 207 204 211 207 208 207 207 207 208 206 207 204 207 205 205 205 207 206 207 207 207 209 209 208 210 209 208 209 208 207 206 206 206 205 206 205 208 206 207 207 207 208 209 208 208 205 208 208 207 208 208 206 205 211 207 207 207 207 207 206 207 208 204 207 206 206 206 205 206 205 205 206 205 206 205 206 206 208 206 208 206 207 207 208 208 208 207 208 206 208 207 208 208 209 208 208 207 206 207 208 206 205 204 204 203 204 212 206 208 207 208 209 209 209 208 206 209 206 207 206 205 204 204 204 204 203 205 204 206 206 206 206 206 206 207 207 207 206 207 208 208 210 208 207 209 212 212 -193 -193 213 210 211 211 208 207 208 210 212 208 209 209 209 209 209 209 209 205 209 209 209 209 210 210 208 208 207 210 209 210 208 210 209 212 213 207 207 211 206 208 203 204 203 203 207 204 203 203 203 205 208 207 207 207 207 206 208 208 208 210 208 209 209 209 211 210 211 211 210 213 213 214 214 0 0 0 0 0
    0 0 0 0 0 0 0 0 0 0 0 0 0 0 0 0 0 0 0 0 0 0 0 0 0 0 0 0 0 0 0 0 0 0 0 0 0 0 0 0 0 0 0 0 0 0 0 0 0 0 0 0 0 0 0 0 0 0 0 0 0 0 0 0 0 0 0 0 0 201 203 203 204 205 204 205 205 204 204 204 204 204 203 205 204 207 206 205 205 205 204 205 204 207 204 211 206 208 207 207 207 207 206 207 204 206 205 205 205 208 207 207 207 207 210 210 209 211 209 209 208 208 207 206 206 206 205 206 205 208 207 207 207 207 208 208 208 208 205 207 207 207 207 207 206 205 210 207 206 207 206 206 206 206 207 203 206 205 205 206 205 206 205 205 206 205 206 205 206 206 208 206 208 206 207 207 208 208 207 207 208 207 208 207 208 208 208 208 207 207 205 206 207 206 205 203 203 203 204 212 206 209 207 208 209 209 209 208 206 209 206 207 206 205 204 204 204 204 203 205 204 206 206 206 206 206 207 208 207 207 206 206 208 208 211 208 209 212 -193 -193 -193 -193 213 209 211 210 208 207 208 209 212 208 209 209 209 209 209 209 209 206 209 210 209 209 211 211 209 208 207 211 209 209 208 209 208 212 212 208 206 211 207 209 205 205 204 204 208 204 203 203 203 204 207 207 207 206 207 206 207 208 207 211 207 209 208 208 210 210 210 211 209 213 213 213 214 0 0 0 0 0
    0 0 0 0 0 0 0 0 0 0 0 0 0 0 0 0 0 0 0 0 0 0 0 0 0 0 0 0 0 0 0 0 0 0 0 0 0 0 0 0 0 0 0 0 0 0 0 0 0 0 0 0 0 0 0 0 0 0 0 0 0 0 0 0 0 0 0 0 0 202 204 204 205 206 205 206 205 205 204 204 204 204 203 205 204 208 206 206 206 206 205 206 204 208 205 211 207 208 207 207 206 207 206 206 204 206 204 205 205 207 205 206 207 207 209 209 208 211 209 209 208 208 207 206 206 205 204 205 204 208 206 206 207 206 208 208 207 207 204 206 207 207 207 207 207 205 211 207 206 207 206 206 206 206 207 202 206 205 204 205 205 205 205 205 206 205 206 205 205 206 208 206 208 206 207 208 207 208 208 207 208 207 209 207 208 208 208 208 207 207 204 205 205 205 204 203 203 203 203 212 206 209 207 207 209 209 209 208 206 209 206 207 206 205 204 204 204 204 204 205 205 207 207 207 208 207 208 209 207 207 207 207 209 210 213 211 213 214 -193 -193 -193 -193 212 209 210 209 208 206 208 209 212 208 209 209 208 208 208 208 208 205 208 210 209 209 212 212 210 209 208 212 209 208 207 208 207 210 209 206 205 209 207 209 206 207 205 206 209 205 203 203 203 204 206 207 207 207 208 207 208 209 208 211 207 209 209 208 210 210 209 211 209 212 212 213 214 0 0 0 0 0
    0 0 0 0 0 0 0 0 0 0 0 0 0 0 0 0 0 0 0 0 0 0 0 0 0 0 0 0 0 0 0 0 0 0 0 0 0 0 0 0 0 0 0 0 0 0 0 0 0 0 0 0 0 0 0 0 0 0 0 0 0 0 0 0 0 0 0 0 0 204 205 205 207 207 206 207 206 205 205 204 204 204 203 205 204 207 206 206 206 206 206 206 205 207 205 211 207 208 207 207 206 207 206 207 204 206 204 205 205 206 205 206 207 206 207 208 207 209 208 208 207 207 206 205 205 204 204 204 204 207 206 206 207 206 207 207 207 207 204 205 206 207 207 208 207 206 211 207 207 207 206 206 206 206 207 202 205 205 204 205 205 205 204 204 205 205 206 206 205 206 208 206 208 207 208 208 208 208 208 208 208 208 209 208 208 208 207 208 206 207 204 205 205 204 204 203 203 203 203 212 206 209 207 207 209 209 208 208 206 209 206 208 207 206 205 205 205 205 205 206 205 207 207 207 208 207 207 208 206 206 206 207 209 211 214 213 214 214 -193 -193 -193 211 211 209 209 209 208 207 209 209 212 208 209 209 208 208 207 208 208 205 207 209 208 209 212 213 211 210 209 213 210 209 208 209 208 209 209 206 205 208 207 208 206 206 205 205 207 204 202 202 201 203 205 206 206 207 208 207 208 210 208 211 208 209 209 209 210 210 209 211 208 212 211 212 213 0 0 0 0 0
    0 0 0 0 0 0 0 0 0 0 0 0 0 0 0 0 0 0 0 0 0 0 0 0 0 0 0 0 0 0 0 0 0 0 0 0 0 0 0 0 0 0 0 0 0 0 0 0 0 0 0 0 0 0 0 0 0 0 0 0 0 0 0 0 0 0 0 0 0 205 207 207 209 208 207 208 207 206 205 205 204 203 203 204 203 206 205 205 206 206 205 206 204 207 205 212 207 208 208 207 207 207 206 206 204 206 204 204 205 206 204 206 207 206 207 207 206 207 207 207 206 206 206 204 205 204 204 204 204 207 207 206 207 205 207 207 206 206 204 204 206 207 207 207 207 206 211 207 206 207 206 206 205 206 206 202 205 204 203 204 204 204 204 204 205 205 206 206 206 206 208 206 208 207 208 208 208 209 209 208 209 209 209 208 208 208 208 208 206 208 204 205 205 205 205 204 203 203 204 212 205 209 207 207 209 209 208 208 206 209 206 208 208 207 206 206 207 206 206 207 206 207 206 207 209 207 207 207 206 206 206 206 207 209 211 212 213 214 215 212 212 210 212 209 209 209 209 208 210 209 212 208 209 209 208 208 207 207 208 204 206 208 208 209 213 214 213 212 211 214 211 209 209 208 208 207 207 205 204 206 206 206 205 205 205 205 206 203 201 201 200 201 203 206 206 208 208 207 208 211 208 211 207 209 209 208 210 209 208 210 207 212 210 211 213 0 0 0 0 0
    0 0 0 0 0 0 0 0 0 0 0 0 0 0 0 0 0 0 0 0 0 0 0 0 0 0 0 0 0 0 0 0 0 0 0 0 0 0 0 0 0 0 0 0 0 0 0 0 0 0 0 0 0 0 0 0 0 0 0 0 0 0 0 0 0 0 0 0 0 207 209 209 211 209 208 208 208 206 206 205 204 203 203 203 203 206 205 206 206 206 206 206 205 207 205 212 207 208 208 207 206 207 206 206 203 205 204 204 205 206 204 206 207 206 207 207 206 207 207 207 206 206 206 205 205 205 204 204 205 207 207 206 206 205 206 206 205 205 203 204 205 207 206 206 207 206 210 206 206 207 205 206 205 205 206 202 205 204 203 204 204 205 204 205 205 205 206 206 206 207 207 206 207 208 207 208 208 209 209 209 209 210 209 209 208 207 208 208 207 208 204 205 205 205 205 205 204 204 204 212 206 209 207 207 208 209 208 208 206 209 206 208 208 207 206 206 207 207 206 207 207 207 207 208 211 208 207 208 207 206 205 206 206 206 208 209 211 -193 213 211 211 210 211 209 209 209 208 208 209 209 212 208 209 209 208 208 207 207 207 204 206 208 209 210 214 214 214 213 213 214 212 211 211 209 209 207 207 206 204 206 206 206 206 205 205 205 205 202 200 200 199 200 202 205 205 208 209 208 209 211 208 211 207 209 208 208 209 208 208 210 207 211 210 211 213 0 0 0 0 0
    0 0 0 0 0 0 0 0 0 0 0 0 0 0 0 0 0 0 0 0 0 0 0 0 0 0 0 0 0 0 0 0 0 0 0 0 0 0 0 0 0 0 0 0 0 0 0 0 0 0 0 0 0 0 0 0 0 0 0 0 0 0 0 0 0 0 0 0 0 208 209 209 211 208 208 207 208 206 205 204 204 202 203 205 205 207 206 207 207 207 206 206 205 206 205 212 206 207 207 207 206 207 206 206 203 205 203 203 204 205 204 205 206 205 206 207 206 206 206 206 205 205 206 205 206 205 205 205 205 207 207 206 206 204 205 204 204 204 203 203 204 207 206 206 208 206 210 206 205 206 205 205 205 205 205 202 205 205 203 205 204 205 205 206 206 206 207 208 207 208 207 207 207 209 208 208 208 208 209 209 209 210 208 209 208 207 208 208 207 209 205 206 205 205 206 205 205 204 205 212 206 209 207 208 208 210 209 208 206 209 207 208 208 208 206 206 208 207 207 208 208 208 207 208 211 208 207 208 206 205 205 205 205 205 206 207 210 -193 -193 -193 210 209 211 208 209 209 208 209 209 209 212 208 209 209 208 208 207 207 207 204 206 209 209 210 214 214 214 213 214 215 213 212 212 210 210 208 208 207 205 206 206 206 206 206 206 205 204 202 200 200 199 200 201 205 205 208 209 208 209 211 208 211 207 209 208 208 209 208 207 210 207 211 210 211 213 0 0 0 0 0
    0 0 0 0 0 0 0 0 0 0 0 0 0 0 0 0 0 0 0 0 0 0 0 0 0 0 0 0 0 0 0 0 0 0 0 0 0 0 0 0 0 0 0 0 0 0 0 0 0 0 0 0 0 0 0 0 0 0 0 0 0 0 0 0 0 0 0 0 0 210 211 210 212 209 209 207 208 206 205 204 204 202 204 205 206 207 207 208 207 208 207 207 205 207 205 211 206 206 206 206 205 206 205 205 202 204 203 203 204 204 203 204 205 204 205 206 205 205 205 206 205 206 207 205 206 206 205 205 205 207 207 206 205 204 204 204 204 204 203 203 204 207 206 206 208 206 210 205 205 206 205 205 205 205 205 202 205 205 203 205 204 205 205 207 206 208 208 209 208 209 208 209 208 210 208 209 209 209 209 210 208 210 208 209 208 207 208 208 207 209 205 206 205 206 206 206 205 205 206 212 207 209 208 208 209 210 209 208 207 209 207 209 208 208 206 207 209 208 208 208 209 209 208 209 212 209 208 209 207 206 206 206 205 205 206 207 209 -209 -193 -193 208 208 210 208 208 208 207 208 209 209 211 208 209 209 208 208 207 206 207 204 206 209 209 210 214 214 214 214 214 215 213 213 213 210 211 208 208 206 204 205 205 205 206 205 206 204 202 200 199 199 198 199 200 203 204 208 208 208 209 211 208 211 208 209 208 208 209 208 208 210 207 211 210 211 213 0 0 0 0 0
    0 0 0 0 0 0 0 0 0 0 0 0 0 0 0 0 0 0 0 0 0 0 0 0 0 0 0 0 0 0 0 0 0 0 0 0 0 0 0 0 0 0 0 0 0 0 0 0 0 0 0 0 0 0 0 0 0 0 0 0 0 0 0 0 0 0 0 0 0 212 212 211 213 210 210 207 208 206 205 204 204 202 204 205 206 207 206 208 208 208 207 206 205 206 205 211 206 205 205 206 205 205 205 205 202 204 203 203 203 203 203 203 204 204 205 205 205 205 205 207 206 207 208 207 208 208 207 206 206 208 207 206 205 204 204 204 204 204 203 202 204 207 205 205 208 206 210 205 205 206 204 205 205 205 205 202 204 204 202 203 203 204 204 207 206 208 209 209 209 209 208 210 208 211 209 209 209 208 209 210 208 210 208 209 208 207 208 208 208 209 206 207 206 207 207 207 206 205 206 212 207 210 208 209 209 210 209 208 207 210 208 209 208 209 207 208 210 208 208 209 210 210 209 210 214 212 210 211 209 209 208 208 206 205 205 206 207 -193 208 208 207 207 209 207 208 208 207 208 209 209 211 208 208 209 207 207 206 206 207 204 206 210 210 211 214 214 214 213 214 214 213 213 213 210 211 208 208 206 204 205 205 205 206 204 205 204 202 199 198 198 197 198 199 202 203 208 209 209 210 211 209 212 208 209 209 208 210 208 208 210 206 210 210 210 211 0 0 0 0 0
    0 0 0 0 0 0 0 0 0 0 0 0 0 0 0 0 0 0 0 0 0 0 0 0 0 0 0 0 0 0 0 0 0 0 0 0 0 0 0 0 0 0 0 0 0 0 0 0 0 0 0 0 0 0 0 0 0 0 0 0 0 0 0 0 0 0 0 0 0 212 213 211 213 211 210 207 208 206 205 204 204 203 204 205 206 207 206 208 209 209 209 207 206 206 206 210 206 205 205 205 205 205 205 204 202 203 203 203 203 203 202 202 203 203 204 205 205 205 205 207 206 208 208 207 207 207 206 206 205 207 206 206 204 204 204 204 204 204 203 202 203 206 205 205 207 206 210 206 206 206 205 206 206 205 205 202 204 204 202 203 202 203 203 207 206 208 209 209 209 210 208 210 208 211 209 209 209 208 208 209 207 210 207 209 207 207 208 207 208 209 206 207 207 207 207 207 206 205 207 211 207 210 208 209 209 210 209 208 207 209 208 209 208 209 207 209 211 209 210 209 211 211 211 212 216 214 212 212 211 210 209 208 206 205 205 205 206 205 205 206 206 206 207 206 207 207 207 207 209 209 212 209 208 208 207 207 207 206 207 204 205 210 210 211 214 213 214 212 213 213 213 213 213 210 211 208 209 207 205 205 205 205 206 205 206 205 203 200 199 199 197 198 199 201 202 206 209 209 211 212 210 212 209 210 210 209 210 209 208 210 206 210 209 210 211 0 0 0 0 0
    0 0 0 0 0 0 0 0 0 0 0 0 0 0 0 0 0 0 0 0 0 0 0 0 0 0 0 0 0 0 0 0 0 0 0 0 0 0 0 0 0 0 0 0 0 0 0 0 0 0 0 0 0 0 0 0 0 0 0 0 0 0 0 0 0 0 0 0 0 211 212 211 211 210 210 207 208 206 205 204 204 203 203 204 206 206 205 208 208 209 209 208 207 206 207 210 207 205 205 205 205 205 206 204 203 203 203 203 203 203 202 202 203 203 204 205 205 204 205 206 206 208 207 207 206 207 206 205 205 206 205 205 204 204 204 203 204 204 203 202 204 206 205 205 207 206 211 206 206 206 205 206 206 206 205 202 203 203 202 203 202 203 203 207 206 208 209 210 210 210 208 210 207 211 208 208 208 207 208 208 207 209 206 208 207 206 208 207 209 209 207 207 207 207 207 207 206 205 207 210 207 209 208 209 208 210 209 208 208 209 208 209 208 209 207 209 211 209 210 209 212 211 212 213 216 215 212 211 210 210 208 207 206 205 205 205 205 204 204 205 205 205 206 206 207 207 207 207 208 208 211 209 208 208 207 207 206 206 207 204 204 209 210 211 215 214 214 213 214 214 213 213 214 212 213 210 210 207 205 206 206 206 207 206 206 206 204 202 199 199 198 199 199 201 201 203 207 208 210 211 209 212 209 210 210 209 210 209 208 210 206 210 210 210 211 0 0 0 0 0
    0 0 0 0 0 0 0 0 0 0 0 0 0 0 0 0 0 0 0 0 0 0 0 0 0 0 0 0 0 0 0 0 0 0 0 0 0 0 0 0 0 0 0 0 0 0 0 0 0 0 0 0 0 0 0 0 0 0 0 0 0 0 0 0 0 0 0 0 0 210 211 210 210 210 210 207 208 207 206 205 204 204 204 204 206 205 205 208 208 210 209 208 207 206 207 209 207 205 205 205 205 205 206 204 203 203 204 203 203 203 202 202 203 203 204 204 205 204 205 206 206 208 207 207 206 207 206 205 205 206 205 205 203 204 203 203 203 203 203 203 204 206 206 205 207 207 211 206 206 206 205 206 206 206 205 202 203 204 202 203 203 205 204 209 207 209 209 210 210 210 208 210 207 210 208 208 208 207 207 208 207 208 205 207 206 206 207 207 208 209 207 208 208 208 208 207 206 205 208 210 208 209 208 209 208 210 209 208 208 209 209 209 208 209 207 209 210 209 209 208 212 212 212 213 215 213 210 211 209 209 207 207 206 204 204 204 204 203 203 205 204 204 205 205 207 207 206 207 208 208 211 208 208 207 207 207 207 206 207 203 204 208 211 212 215 213 214 213 214 214 214 214 214 213 213 212 212 210 208 208 207 206 207 206 207 206 203 201 199 199 198 199 199 201 202 203 207 207 210 211 209 212 209 209 210 209 211 209 209 210 207 211 211 211 211 0 0 0 0 0
    0 0 0 0 0 0 0 0 0 0 0 0 0 0 0 0 0 0 0 0 0 0 0 0 0 0 0 0 0 0 0 0 0 0 0 0 0 0 0 0 0 0 0 0 0 0 0 0 0 0 0 0 0 0 0 0 0 0 0 0 0 0 0 0 0 0 0 0 0 209 210 210 209 210 209 207 208 207 206 205 205 205 204 204 206 205 205 208 207 209 208 208 207 206 207 209 207 205 205 205 205 205 205 204 203 203 204 203 204 203 203 202 203 204 204 205 206 205 206 207 208 210 209 209 207 208 207 206 205 206 205 205 203 204 202 203 203 203 203 203 205 206 205 205 206 206 210 206 206 206 205 205 206 206 205 202 204 204 203 204 204 206 205 209 207 209 209 209 210 210 208 210 207 210 208 208 208 207 207 207 207 208 205 207 206 206 207 207 208 209 207 208 208 207 207 207 205 204 208 209 208 208 208 209 208 210 209 208 208 209 209 209 207 209 207 209 209 208 208 208 211 211 211 212 214 212 210 211 209 208 206 206 205 204 204 204 203 202 203 204 203 204 205 205 206 206 206 205 207 207 210 207 207 207 207 207 207 206 207 203 204 208 211 211 215 213 214 213 215 214 214 214 215 213 213 212 212 210 209 209 207 207 208 208 208 208 204 -193 199 199 198 198 199 200 201 201 205 205 207 209 207 211 207 208 209 209 211 209 209 211 208 212 212 212 212 0 0 0 0 0
    0 0 0 0 0 0 0 0 0 0 0 0 0 0 0 0 0 0 0 0 0 0 0 0 0 0 0 0 0 0 0 0 0 0 0 0 0 0 0 0 0 0 0 0 0 0 0 0 0 0 0 0 0 0 0 0 0 0 0 0 0 0 0 0 0 0 0 0 0 208 208 208 206 207 207 206 206 206 206 205 205 205 204 205 206 206 205 209 207 209 209 209 208 207 208 209 207 206 205 205 205 205 205 204 203 202 204 203 204 204 204 202 203 204 205 206 207 207 207 209 210 211 210 210 208 208 207 206 205 206 205 204 203 203 202 203 203 204 203 204 207 207 206 207 207 206 211 207 206 206 206 206 206 206 206 203 204 205 204 205 206 207 205 208 207 208 208 208 209 209 208 209 207 210 208 208 208 207 207 207 206 207 205 206 206 206 207 206 207 208 207 208 208 207 207 206 205 204 208 209 208 208 208 209 208 210 210 208 209 209 209 208 207 209 207 209 209 207 208 208 211 211 210 211 212 211 210 211 208 207 205 206 205 204 204 204 203 202 203 204 202 204 204 204 206 205 205 205 206 206 209 207 207 207 207 207 208 206 207 203 204 208 211 211 214 212 213 213 215 214 214 214 215 213 213 212 213 211 211 -193 208 208 209 211 210 211 203 -193 198 -193 -193 -193 -193 200 201 200 203 203 204 206 206 210 207 207 208 208 211 209 209 211 208 213 -193 -193 -193 0 0 0 0 0
    0 0 0 0 0 0 0 0 0 0 0 0 0 0 0 0 0 0 0 0 0 0 0 0 0 0 0 0 0 0 0 0 0 0 0 0 0 0 0 0 0 0 0 0 0 0 0 0 0 0 0 0 0 0 0 0 0 0 0 0 0 0 0 0 0 0 0 0 0 207 206 206 205 206 205 205 205 205 205 205 205 205 204 204 206 206 206 209 208 209 209 209 208 207 208 208 207 206 205 206 206 205 205 204 203 202 204 203 204 205 206 204 204 204 206 208 210 209 208 209 211 212 211 210 208 207 206 205 205 205 204 204 203 203 202 204 204 205 204 204 207 207 207 208 207 207 212 208 207 207 206 206 206 206 206 203 204 206 204 205 206 206 204 207 206 206 207 207 208 208 208 209 207 209 208 208 207 206 207 207 206 207 205 206 205 206 207 206 207 207 207 207 208 207 206 206 204 203 209 209 209 208 208 209 209 210 210 208 209 209 209 208 207 209 207 210 210 207 207 207 211 211 210 210 211 210 208 211 207 206 205 206 206 204 204 204 203 203 203 203 202 203 204 204 206 205 205 204 206 206 209 207 207 207 207 207 208 207 208 204 204 208 212 211 215 212 214 213 215 214 214 214 215 213 213 212 -193 211 -193 -193 -193 -193 -193 -193 211 212 204 -209 -209 -209 -193 125 131 -209 200 200 201 201 203 205 205 209 206 207 208 210 213 210 211 212 210 214 -209 -209 -209 0 0 0 0 0
    0 0 0 0 0 0 0 0 0 0 0 0 0 0 0 0 0 0 0 0 0 0 0 0 0 0 0 0 0 0 0 0 0 0 0 0 0 0 0 0 0 0 0 0 0 0 0 0 0 0 0 0 0 0 0 0 0 0 0 0 0 0 0 0 0 0 0 0 0 206 205 206 204 206 206 205 206 206 206 205 205 205 204 204 206 206 207 210 209 210 210 210 209 208 209 208 207 206 206 206 206 205 205 204 204 203 206 205 205 206 207 205 205 206 207 210 212 211 209 210 212 213 211 211 208 207 206 205 204 205 204 204 202 203 203 204 205 206 204 204 208 207 208 208 207 207 212 208 207 208 207 206 206 207 206 202 -193 -193 -209 204 205 205 203 205 205 205 206 205 207 208 207 208 206 208 207 207 207 206 207 207 206 207 204 205 205 207 207 205 206 206 207 207 208 207 206 205 204 203 209 209 209 209 208 209 209 210 210 207 209 209 209 208 207 209 207 210 209 207 207 206 210 211 209 209 211 211 208 210 207 206 205 206 206 204 204 205 204 203 203 204 202 203 203 204 205 204 204 203 205 205 209 207 207 207 207 207 208 207 208 204 204 208 212 213 216 213 214 214 215 214 214 214 214 213 -193 -193 -209 -193 -209 -193 -209 -209 -209 -209 -209 -209 -209 -209 -209 -193 116 123 127 133 -209 198 -177 200 201 204 204 208 206 207 209 211 214 212 213 214 213 -209 -209 -209 -209 0 0 0 0 0
    0 0 0 0 0 0 0 0 0 0 0 0 0 0 0 0 0 0 0 0 0 0 0 0 0 0 0 0 0 0 0 0 0 0 0 0 0 0 0 0 0 0 0 0 0 0 0 0 0 0 0 0 0 0 0 0 0 0 0 0 0 0 0 0 0 0 0 0 0 206 204 206 204 206 206 205 205 205 206 205 205 205 203 204 205 206 207 210 209 209 209 211 210 209 209 208 208 206 206 206 206 206 206 204 204 203 207 206 207 208 208 206 207 208 209 211 213 212 210 211 212 213 211 210 -193 -193 -193 -193 205 205 204 204 202 202 202 204 205 206 204 205 208 207 207 209 207 207 212 209 207 208 208 207 206 207 206 202 -193 -193 -193 204 204 204 203 204 204 205 205 205 207 207 207 207 206 207 207 207 207 206 206 206 206 207 204 205 205 207 207 205 205 206 206 207 208 207 206 205 203 203 209 208 209 209 208 209 208 210 210 207 209 208 208 208 207 209 206 209 208 206 206 206 210 210 208 209 212 212 209 211 207 206 205 206 206 204 204 205 204 203 204 205 -193 203 203 204 205 203 204 202 206 204 209 207 207 206 207 207 208 207 208 -193 -193 -193 212 212 215 213 214 214 215 215 215 215 215 213 -193 -209 -209 -209 -209 -209 -209 -209 -209 -209 -209 -209 -209 -209 -209 107 115 122 124 132 -209 -209 -177 198 200 202 201 206 205 205 208 212 216 213 214 215 -193 -209 -209 -209 -209 0 0 0 0 0
    0 0 0 0 0 0 0 0 0 0 0 0 0 0 0 0 0 0 0 0 0 0 0 0 0 0 0 0 0 0 0 0 0 0 0 0 0 0 0 0 0 0 0 0 0 0 0 0 0 0 0 0 0 0 0 0 0 0 0 0 0 0 0 0 0 0 0 0 0 206 204 206 204 206 205 205 204 205 206 205 205 205 203 203 205 206 207 210 209 209 209 211 210 210 210 209 208 206 207 207 206 206 206 204 204 203 209 207 208 210 210 207 208 209 209 212 213 212 209 209 211 212 -193 -193 -193 -193 -193 -193 204 205 -209 203 -193 201 201 203 203 206 -193 -193 -193 206 208 209 208 208 213 209 208 209 209 207 206 207 207 203 -193 206 -209 204 205 204 203 204 204 204 204 204 206 206 206 207 205 206 206 206 206 205 206 206 206 207 204 205 205 208 207 206 204 205 205 206 207 206 205 204 203 203 209 208 209 209 208 208 208 210 210 207 209 207 207 -193 -193 208 -193 208 206 -193 -193 205 209 210 208 208 -193 213 210 213 -193 206 204 206 206 205 205 205 -193 -193 -209 -193 -209 -193 -193 205 206 203 204 202 206 204 208 206 206 205 207 206 208 206 207 -193 -209 -193 -193 211 215 213 214 214 216 216 216 215 217 -193 -209 -209 -209 -209 -209 -209 -209 -209 -209 -209 -209 -209 -209 -209 -209 -209 117 122 126 -209 -209 -209 -209 193 197 198 199 203 202 200 203 212 219 214 215 216 -209 -209 -209 -209 -193 0 0 0 0 0
    0 0 0 0 0 0 0 0 0 0 0 0 0 0 0 0 0 0 0 0 0 0 0 0 0 0 0 0 0 0 0 0 0 0 0 0 0 0 0 0 0 0 0 0 0 0 0 0 0 0 0 0 0 0 0 0 0 0 0 0 0 0 0 0 0 0 0 0 0 206 204 205 203 205 205 205 204 206 207 206 206 206 203 204 205 206 207 210 208 208 209 211 210 210 209 209 208 207 207 207 206 206 206 205 204 203 210 208 209 212 211 208 209 209 210 213 214 213 210 209 211 -193 -193 -177 10 13 13 20 -209 -209 -209 -209 -209 198 199 203 203 -193 -193 -209 -209 -193 207 -193 207 208 212 208 207 208 209 207 206 207 207 203 -193 207 -193 204 206 205 203 204 204 203 -193 203 206 205 206 206 205 206 206 206 206 205 206 206 206 207 204 205 205 208 206 205 203 203 203 205 206 205 203 203 201 202 211 209 210 209 207 208 208 210 210 206 210 206 -209 -193 -209 -209 -209 -193 -177 -193 -193 -193 -193 -225 -225 206 -177 211 208 214 -193 203 -177 205 -193 -193 -193 -193 395 -209 -193 -193 -193 381 387 -209 -209 -209 203 201 205 204 206 205 205 205 207 207 208 207 -193 -193 904 905 -209 -209 -193 -209 -193 214 -193 216 216 -193 -193 -209 -209 -209 -209 -209 -209 -209 -209 -209 -209 -209 -209 -209 -209 -209 -209 -209 -209 -209 -209 -209 -209 -209 -209 -193 194 196 196 199 199 197 195 -209 227 -209 -209 -209 -209 -209 -209 -209 -193 0 0 0 0 0
    0 0 0 0 0 0 0 0 0 0 0 0 0 0 0 0 0 0 0 0 0 0 0 0 0 0 0 0 0 0 0 0 0 0 0 0 0 0 0 0 0 0 0 0 0 0 0 0 0 0 0 0 0 0 0 0 0 0 0 0 0 0 0 0 0 0 0 0 0 205 203 204 203 205 205 205 205 206 208 207 207 207 204 205 206 208 210 211 208 208 208 210 209 210 209 209 207 207 207 207 206 207 206 205 204 203 209 207 210 212 210 209 210 210 211 214 215 214 -193 -193 -193 0 -177 9 0 11 11 19 -209 -209 -209 -209 -209 -193 197 202 -193 -209 -193 715 724 -193 -209 -209 206 206 212 207 207 208 208 207 206 208 207 204 -193 -193 -209 205 206 205 -193 203 203 202 -193 -193 -193 205 206 206 205 206 206 206 207 206 207 206 207 208 205 205 206 210 207 206 202 201 201 203 206 -193 200 202 201 203 212 210 211 209 207 208 208 211 -193 -209 -193 -193 -209 -193 -193 -193 -193 -209 -209 365 -209 -209 -225 -225 -225 -225 -225 -225 -225 -225 -225 -209 -177 -193 -193 320 323 -209 -209 -209 -193 -193 -193 381 388 388 -209 -209 -209 -193 -209 -209 -209 -209 -209 -209 -209 -193 -209 -193 906 906 906 906 -209 -209 -209 -209 -209 -193 -209 -209 -209 -209 -209 -209 -209 -209 -209 -209 -209 -209 -209 -209 -209 -209 -209 -209 -209 -209 -209 -209 -209 -209 -209 -209 -209 31 30 -193 -193 -209 -193 198 197 -209 -209 -209 -209 -209 -209 -209 -209 -209 -209 -209 -209 0 0 0 0 0
    0 0 0 0 0 0 0 0 0 0 0 0 0 0 0 0 0 0 0 0 0 0 0 0 0 0 0 0 0 0 0 0 0 0 0 0 0 0 0 0 0 0 0 0 0 0 0 0 0 0 0 0 0 0 0 0 0 0 0 0 0 0 0 0 0 0 0 0 0 204 202 203 202 204 204 205 203 205 208 208 209 208 204 205 205 208 211 211 209 207 209 211 209 210 210 209 207 207 208 208 207 207 206 205 204 204 210 208 212 213 212 211 212 213 213 216 -193 -209 -209 -209 -193 0 -177 -177 0 9 9 16 -209 -209 -209 -209 147 149 -209 206 -209 -209 -193 -193 -193 730 -177 -177 -209 206 211 206 206 208 208 207 207 208 208 205 -209 -209 -209 205 205 -193 -209 202 -193 -193 -193 -193 -193 205 206 206 -193 -193 -209 -193 -193 753 -209 -209 207 -193 -193 -209 -209 -193 -193 -193 -209 202 201 200 202 199 198 200 200 201 208 208 210 209 206 207 208 212 -209 -209 -177 -193 -193 -209 -193 -193 -193 -193 -193 602 -193 -193 -225 -225 -225 -225 -225 -225 -225 -225 507 -209 -209 -209 -209 -209 -193 279 -209 -209 -209 -209 -209 -209 -209 -209 263 -209 -209 -193 -209 -209 -209 -193 -209 -209 -209 912 -209 911 913 911 908 909 -193 -209 -209 -209 830 -209 -209 -209 -209 -209 -209 -209 -209 -209 -209 -209 -209 -209 -209 -209 -209 -209 -209 -209 -209 -209 -209 -209 -209 -209 -209 -209 -209 30 -177 29 32 35 -209 -209 -209 -209 -209 -209 -209 260 -209 -193 -209 264 264 -209 -209 0 0 0 0 0
    0 0 0 0 0 0 0 0 0 0 0 0 0 0 0 0 0 0 0 0 0 0 0 0 0 0 0 0 0 0 0 0 0 0 0 0 0 0 0 0 0 0 0 0 0 0 0 0 0 0 0 0 0 0 0 0 0 0 0 0 0 0 0 0 0 0 0 0 0 -193 -193 -193 201 202 202 201 201 203 206 205 207 205 -193 -193 -193 210 214 213 211 209 211 213 210 212 211 209 207 207 209 209 207 208 207 205 204 207 213 211 213 -193 -209 -209 -209 -209 -209 -209 -209 -209 -209 -209 -209 0 -177 -177 -177 -177 0 14 -209 -209 -209 142 147 147 150 -193 -209 -193 -193 -209 -193 735 735 736 -209 -209 -209 -209 208 212 -209 -193 209 211 -193 -209 -209 -209 -209 -209 -209 -177 -209 -209 308 306 305 -193 607 -209 -209 -209 -193 382 -209 -209 -193 749 -225 -225 -225 530 534 -193 -209 -209 -209 -209 -209 -209 -209 -209 -193 451 451 453 -193 275 -193 72 -209 -209 -209 -193 -193 -209 -209 -209 -193 -209 -193 -193 -209 779 -193 -209 -193 265 266 268 -225 -225 -225 -225 -225 -225 -225 -225 250 263 -209 -209 -209 -209 -209 -209 284 287 287 286 284 283 -193 -193 -193 -209 466 -177 -177 -177 -209 -193 -209 -209 -209 -209 -209 -193 714 717 -193 -209 -209 -209 -209 -209 -209 -209 -209 -209 -209 -209 -209 -209 -209 -209 -209 -209 -209 -209 -209 -209 -209 284 280 278 278 277 275 -209 -209 -209 -177 -177 -177 -177 -177 30 32 36 -209 -209 -209 -209 271 -209 270 268 269 269 267 266 265 -193 -209 0 0 0 0 0
    0 0 0 0 0 0 0 0 0 0 0 0 0 0 0 0 0 0 0 0 0 0 0 0 0 0 0 0 0 0 0 0 0 0 0 0 0 0 0 0 0 0 0 0 0 0 0 0 0 0 0 0 0 0 0 0 0 0 0 0 0 0 0 0 0 0 0 0 0 -193 -193 -193 203 204 203 201 200 202 206 205 205 -209 -177 207 207 212 216 214 213 210 211 212 210 212 212 206 205 205 208 -193 -193 -193 -209 -209 -209 -209 -209 -209 -209 -209 653 662 669 -209 -209 -193 -209 -209 -209 -177 -225 -225 -225 -225 -225 -225 -225 -225 -225 -225 -225 -225 -225 -225 -225 -209 -209 -209 -209 -209 -209 -209 -209 -209 -209 -209 259 256 -209 -209 -209 -209 -209 -209 639 638 636 -209 -209 -209 -209 -209 -193 -193 -193 704 703 704 -225 -225 -225 383 -193 -225 -225 -225 -225 -225 -225 -225 -225 -225 -225 -225 -225 -225 -209 536 536 -193 -209 -209 448 446 447 450 -193 -193 -193 172 171 170 170 -209 166 -209 -193 -193 -193 -209 -209 -193 -209 -193 -209 -193 263 266 266 267 266 266 -225 -225 -225 -225 -225 -193 268 269 274 -209 -209 -193 273 -209 284 289 289 286 284 284 -193 -193 -209 -193 -177 -177 -177 -209 -193 -209 -209 -209 -193 -193 -209 -209 -209 -193 717 712 725 -209 -209 -209 -193 -209 -209 -209 -193 -193 -209 -209 -209 -209 -209 -209 -209 -209 -209 279 279 280 279 277 277 276 275 -193 -193 -209 -177 -177 -177 -177 -177 30 33 38 -209 267 269 271 274 270 271 272 271 271 269 267 266 -193 -209 0 0 0 0 0
    0 0 0 0 0 0 0 0 0 0 0 0 0 0 0 0 0 0 0 0 0 0 0 0 0 0 0 0 0 0 0 0 0 0 0 0 0 0 0 0 0 0 0 0 0 0 0 0 0 0 0 0 0 0 0 0 0 0 0 0 0 0 0 0 0 0 0 0 0 204 202 207 -193 -209 -193 365 -209 -209 -209 -209 -209 182 193 208 214 217 221 222 224 -209 -193 -193 277 -193 -193 -209 -209 -209 -193 -193 -193 -193 -209 692 -209 -209 -209 -209 -209 -209 0 -209 -209 -209 -209 -209 -209 335 -209 -225 -225 -225 -225 -225 -225 -225 -225 -225 -225 -225 -225 -225 -225 -225 -225 -225 -177 -193 -177 -177 -177 -209 -209 -209 -209 267 267 266 266 -209 -209 -209 -209 -209 -209 -209 -209 -209 -209 -209 -209 -193 -209 -209 697 699 697 700 -225 -225 -225 -209 -209 -225 -225 819 823 822 827 832 -225 -225 -225 -225 -225 -225 -225 536 536 533 530 -209 448 -193 449 -209 277 -193 -193 171 171 -193 -193 -193 -193 -193 -193 -209 -193 784 -193 -193 -209 260 -193 265 266 269 268 269 268 268 268 266 272 270 271 266 269 269 273 279 279 274 274 -193 282 286 286 -193 -193 282 282 -209 -209 -209 -177 464 -209 -209 -177 -209 -209 -193 267 269 -193 -209 -209 -209 -209 -193 -209 -209 -209 -209 -209 -209 -209 -209 -193 -193 -209 277 -193 -193 275 278 276 278 278 278 278 279 277 277 276 275 274 273 271 -209 -209 -209 -177 -177 -177 29 32 -193 -193 269 271 273 275 272 272 273 272 273 271 269 267 -193 -209 0 0 0 0 0
    0 0 0 0 0 0 0 0 0 0 0 0 0 0 0 0 0 0 0 0 0 0 0 0 0 0 0 0 0 0 0 0 0 0 0 0 0 0 0 0 0 0 0 0 0 0 0 0 0 0 0 0 0 0 0 0 0 0 0 0 0 0 0 0 0 0 0 0 0 -209 -209 -209 -209 -209 -193 -209 -209 -209 -209 -209 -209 -209 -209 -209 -209 -209 -209 -209 260 265 268 266 269 270 270 -193 -193 -193 280 -209 -209 -177 -177 -193 -177 -177 -193 -193 260 262 -209 -193 -209 -209 -209 -209 -209 -209 -225 -225 -225 -225 -225 -225 -225 -225 -225 -225 -225 -225 -225 -225 -225 -225 -225 -193 263 -225 -225 265 -177 265 -193 -193 266 270 271 268 268 269 269 267 266 267 -209 -209 -193 -209 -209 -209 -209 750 750 749 752 753 -193 -193 -193 -193 -209 -209 -193 -193 -209 825 826 -193 828 -209 -209 -209 -193 -193 538 540 539 -193 535 532 531 -209 448 448 451 -209 277 276 276 -193 -193 -193 -193 -193 274 275 275 275 -193 -193 265 266 263 262 267 266 267 270 269 269 269 269 268 267 271 270 270 268 269 269 271 275 276 273 273 -193 -193 -209 -193 -193 -193 280 280 -193 277 -209 -193 -193 -193 -209 -177 -193 -193 268 268 269 271 -209 -209 -209 -209 -209 -209 -209 -209 -193 -193 -209 278 -193 -193 -193 -193 276 -193 -193 273 276 275 278 277 277 277 278 277 276 276 275 274 273 271 271 -193 -193 -193 -193 -193 -209 -193 269 270 270 271 273 275 273 272 272 272 273 273 271 269 268 -193 0 0 0 0 0
    0 0 0 0 0 0 0 0 0 0 0 0 0 0 0 0 0 0 0 0 0 0 0 0 0 0 0 0 0 0 0 0 0 0 0 0 0 0 0 0 0 0 0 0 0 0 0 0 0 0 0 0 0 0 0 0 0 0 0 0 0 0 0 0 0 0 0 0 0 -193 275 274 270 269 -193 -193 -193 271 276 271 271 271 273 274 273 274 275 271 266 267 268 267 268 270 269 267 268 273 275 274 -193 453 454 -177 -177 -177 -193 -193 -193 262 -193 -193 -225 -225 -193 -209 -225 -225 -225 -225 -225 -225 -225 -225 -225 -225 -225 -225 -225 -225 -225 -225 145 -225 -209 -177 -177 264 266 267 266 267 267 272 267 272 273 269 269 270 269 268 267 267 266 -193 -209 -209 810 -193 -193 -193 -193 750 751 754 750 752 -209 -209 -193 957 961 962 960 959 964 -193 -193 -209 -177 -177 -177 -193 -209 -209 -193 531 526 524 -193 -209 447 448 -209 280 277 275 276 277 277 -193 -193 275 275 275 276 275 271 273 268 269 267 264 271 268 269 271 270 270 270 270 269 268 271 270 270 269 270 269 270 273 274 272 272 274 278 -193 -193 -193 275 275 275 274 273 271 272 -193 271 -193 -177 -193 -193 268 268 270 271 -193 -193 -209 -209 -209 -209 -209 -209 -209 -193 -209 277 279 -193 -193 278 275 273 271 270 274 273 275 275 276 277 277 276 276 275 275 274 272 271 271 271 271 269 268 268 268 269 270 270 271 271 273 275 274 273 273 272 273 272 271 270 268 268 0 0 0 0 0</data></disparity>
</opencv_storage>
