<?xml version="1.0"?>
<opencv_storage>
<gps_time_stamp>26331</gps_time_stamp>
<gps_x>-5.6157517433166504e+000</gps_x>
<gps_y>8.1362795829772949e-001</gps_y>
<gps_z>-1.4022361040115356e+000</gps_z>
<image_time_stamp>14264</image_time_stamp>
<disparity type_id="opencv-matrix">
  <rows>85</rows>
  <cols>320</cols>
  <dt>s</dt>
  <data>
    0 0 0 0 0 0 0 0 0 0 0 0 0 0 0 0 0 0 0 0 0 0 0 0 0 0 0 0 0 0 0 0 0 0 0 0 0 0 0 0 0 0 0 0 0 0 0 0 0 0 0 0 0 0 0 0 0 0 0 0 0 0 0 0 0 0 0 0 0 0 0 0 0 0 0 0 0 9 0 0 0 0 0 0 0 0 0 0 0 0 0 0 0 0 0 0 0 0 0 0 0 0 0 0 0 0 0 0 0 0 0 0 0 11 10 11 11 10 11 11 11 11 0 0 0 0 0 0 0 0 0 9 10 10 10 10 10 9 10 10 11 12 12 12 -193 11 12 12 12 13 13 14 12 13 13 13 12 13 13 11 10 11 10 11 10 9 13 10 11 10 10 10 10 10 10 0 0 10 0 9 0 0 0 0 0 0 0 0 0 0 9 0 0 0 0 10 10 11 11 10 12 12 12 12 15 13 13 13 12 13 12 9 10 0 -209 -209 -193 -177 -209 -209 -209 71 -209 -209 -209 -193 -177 -209 -209 -209 -209 -209 -193 70 71 73 73 74 73 75 -193 -209 -209 -209 -177 -209 -209 -209 26 27 28 28 27 30 29 29 29 30 32 30 29 29 28 28 28 29 28 27 28 28 29 28 30 30 30 32 31 31 32 32 32 33 33 33 33 34 34 33 34 33 32 32 32 32 30 33 37 -193 -177 -209 -177 107 110 111 111 110 110 111 112 112 114 114 115 113 115 0 0 0 0 0
    0 0 0 0 0 0 0 0 0 0 0 0 0 0 0 0 0 0 0 0 0 0 0 0 0 0 0 0 0 0 0 0 0 0 0 0 0 0 0 0 0 0 0 0 0 0 0 0 0 0 0 0 0 0 0 0 0 0 0 0 0 0 0 0 0 0 0 0 0 0 0 0 0 0 0 0 0 9 0 9 0 0 0 0 0 0 0 0 0 0 0 0 0 0 0 0 0 0 0 0 0 0 0 0 0 0 0 0 0 0 0 0 0 12 11 12 11 11 12 11 12 12 0 0 0 0 0 0 0 0 0 8 9 9 9 0 9 9 10 -193 11 11 12 12 -193 -193 11 10 11 11 11 12 -193 12 12 12 12 12 -193 -193 10 11 11 11 10 -193 13 10 11 11 10 -193 -193 -193 10 0 0 9 0 9 0 0 0 0 0 0 0 0 0 0 9 0 0 0 0 10 11 11 12 11 12 13 12 12 15 13 13 13 12 12 13 9 10 0 -177 -193 -177 -177 -193 -209 -193 70 -193 -193 -209 -193 -193 -193 -209 -209 -177 -209 -209 -193 70 73 73 74 -193 75 77 -209 -209 -209 -177 -209 -209 -209 -209 31 29 28 27 29 29 29 28 29 30 29 28 29 28 27 27 28 28 27 28 28 29 28 30 31 30 32 31 31 32 32 32 33 33 33 32 35 34 33 34 33 33 32 32 32 30 34 38 -209 -193 -209 -177 105 109 111 111 111 111 112 113 113 115 115 117 116 117 0 0 0 0 0
    0 0 0 0 0 0 0 0 0 0 0 0 0 0 0 0 0 0 0 0 0 0 0 0 0 0 0 0 0 0 0 0 0 0 0 0 0 0 0 0 0 0 0 0 0 0 0 0 0 0 0 0 0 0 0 0 0 0 0 0 0 0 0 0 0 0 0 0 0 0 0 0 0 0 0 0 0 9 0 0 0 0 0 0 0 0 0 0 0 0 0 0 0 0 0 0 0 0 0 0 0 0 0 0 0 0 0 0 0 0 0 0 0 13 11 13 12 11 12 12 12 13 0 0 0 0 0 0 0 0 0 0 -193 0 0 0 -193 -193 -193 -193 -193 -193 -193 -193 128 -193 -193 -193 9 10 11 -193 -193 11 -193 -193 12 -193 -193 -193 10 11 11 11 -193 -193 14 11 12 11 -193 -193 -193 -193 11 0 0 9 9 9 0 0 0 0 9 0 0 0 0 0 10 9 9 9 9 10 11 11 12 12 12 13 12 13 14 13 14 12 11 13 14 11 10 -209 -177 -193 -193 -177 -193 -209 -193 67 69 -177 -209 -193 20 22 -209 -209 -177 -177 -209 -209 70 73 74 75 -193 -193 78 -193 -209 -193 -177 -209 -209 -209 -209 -209 -209 31 27 28 30 29 28 29 30 28 28 29 28 27 27 28 27 27 28 28 28 28 30 32 31 33 32 32 32 32 32 33 33 33 33 35 34 33 33 33 32 32 32 32 31 35 38 -209 -193 -209 -209 102 107 110 110 110 111 111 112 113 116 116 117 117 118 0 0 0 0 0
    0 0 0 0 0 0 0 0 0 0 0 0 0 0 0 0 0 0 0 0 0 0 0 0 0 0 0 0 0 0 0 0 0 0 0 0 0 0 0 0 0 0 0 0 0 0 0 0 0 0 0 0 0 0 0 0 0 0 0 0 0 0 0 0 0 0 0 0 0 9 9 0 0 0 0 0 0 9 0 0 0 0 0 0 0 0 0 0 0 0 0 0 0 0 0 0 9 0 0 0 0 0 0 0 0 0 0 0 0 0 0 0 0 13 11 13 12 12 12 12 12 13 9 9 0 0 0 0 -177 -177 -177 0 -193 -193 0 -177 131 127 130 -193 -193 -193 -193 130 128 128 -193 -193 -193 10 -177 -193 -209 10 -193 -209 -193 128 128 125 -193 -193 -193 -193 -193 -193 14 11 12 11 12 -193 -193 11 12 0 0 9 10 10 9 9 0 9 10 9 10 0 0 0 11 10 9 9 9 10 10 11 13 12 13 13 12 13 15 13 14 12 11 13 16 14 -209 -177 -177 -193 -177 -177 -177 -193 64 63 66 -193 23 18 17 20 23 -209 -177 -193 -209 -209 -193 -193 73 -193 -193 -193 78 -209 -193 -193 -177 -209 70 75 76 76 75 -209 30 28 30 29 28 29 29 28 28 28 28 26 26 27 27 27 28 29 28 29 31 33 32 33 33 32 32 32 32 33 32 33 33 34 33 32 33 33 32 32 32 32 31 35 38 -209 -177 -177 -193 101 107 109 108 109 110 111 112 115 118 118 119 120 121 0 0 0 0 0
    0 0 0 0 0 0 0 0 0 0 0 0 0 0 0 0 0 0 0 0 0 0 0 0 0 0 0 0 0 0 0 0 0 0 0 0 0 0 0 0 0 0 0 0 0 0 0 0 0 0 0 0 0 0 0 0 0 0 0 0 0 0 0 0 0 0 0 0 0 10 10 9 0 9 0 0 0 9 0 9 0 0 0 0 0 0 0 0 0 0 0 0 0 0 0 10 10 0 0 0 0 0 0 0 0 0 0 0 0 0 0 0 0 13 11 13 12 12 13 13 13 14 9 9 0 0 0 0 -177 -177 -177 -177 -193 -177 0 -193 132 127 130 130 130 129 -193 -193 128 127 -193 -193 -193 10 -177 -193 -193 -193 -193 -193 -193 128 128 125 125 125 126 -193 -193 -193 14 11 12 11 12 -193 11 11 12 0 9 9 10 10 9 10 9 9 10 9 11 9 0 9 12 10 10 10 10 10 10 11 14 13 13 13 13 13 15 14 14 12 11 14 17 -209 -209 -177 -177 -193 -193 -177 -193 -193 63 62 66 -193 22 16 16 19 22 -193 -209 -209 -209 -209 -193 -177 73 75 -193 -177 -193 -193 -193 -193 -177 -209 72 76 79 79 79 86 86 -209 33 29 27 28 28 27 27 29 28 26 27 28 27 28 29 30 29 30 31 33 32 33 33 32 33 32 32 33 32 33 32 34 33 32 33 32 32 32 31 33 31 36 38 -209 -193 -193 -209 99 106 109 107 109 112 113 113 117 120 121 122 124 125 0 0 0 0 0
    0 0 0 0 0 0 0 0 0 0 0 0 0 0 0 0 0 0 0 0 0 0 0 0 0 0 0 0 0 0 0 0 0 0 0 0 0 0 0 0 0 0 0 0 0 0 0 0 0 0 0 0 0 0 0 0 0 0 0 0 0 0 0 0 0 0 0 0 0 11 11 10 9 9 0 0 0 9 0 9 0 0 0 0 0 0 0 0 0 0 0 0 0 0 0 9 9 0 0 0 0 0 0 0 0 0 0 0 0 0 0 0 0 13 11 13 13 12 13 13 13 14 9 9 0 0 0 0 -177 -177 -177 -177 -193 -177 0 -177 132 127 130 130 130 129 -193 130 128 127 -193 -193 -193 -193 -193 -193 -193 -193 -193 126 128 128 127 125 125 125 126 126 -193 -209 14 11 12 11 12 -193 11 11 12 9 10 9 10 11 10 12 11 11 12 11 13 10 9 9 13 11 11 10 10 10 10 10 14 13 13 12 13 13 15 14 14 12 11 14 17 -209 -209 -177 -177 -177 -193 -193 -193 62 62 61 66 16 21 16 15 18 21 -193 -209 -209 -209 -193 -193 -177 -193 76 -193 -177 -193 -193 -209 -193 -193 -209 72 75 78 78 79 85 84 84 84 31 28 28 27 26 27 29 28 26 27 28 27 28 30 30 29 31 32 33 32 34 33 32 32 32 32 33 32 32 32 34 32 32 33 32 32 32 31 33 31 37 38 -209 -193 -209 -209 96 106 108 107 110 114 116 115 118 123 124 126 130 132 0 0 0 0 0
    0 0 0 0 0 0 0 0 0 0 0 0 0 0 0 0 0 0 0 0 0 0 0 0 0 0 0 0 0 0 0 0 0 0 0 0 0 0 0 0 0 0 0 0 0 0 0 0 0 0 0 0 0 0 0 0 0 0 0 0 0 0 0 0 0 0 0 0 0 12 12 11 10 11 9 0 0 10 0 -193 0 0 9 9 9 9 0 0 0 0 0 0 0 0 0 9 9 0 0 0 0 0 0 0 0 0 0 0 0 0 0 0 0 13 11 14 13 13 14 13 14 15 9 9 0 0 0 0 -177 -177 -177 -177 -193 -193 -177 -193 131 127 130 130 129 129 128 130 128 127 130 -193 -209 -193 -193 -193 -193 -193 -193 -193 -193 127 127 125 125 125 126 126 -193 -209 14 11 12 12 12 -193 11 12 12 9 11 10 11 12 11 14 12 13 13 11 13 11 10 10 13 11 11 11 11 10 10 10 14 13 13 12 12 12 15 14 14 12 11 13 17 -209 -209 -193 -177 -177 -193 -209 -193 61 60 59 63 15 21 16 15 18 21 -209 -209 -209 -209 -193 -177 -177 74 76 -177 -177 -177 -177 -209 -209 -209 56 69 75 78 79 80 85 84 86 85 -193 -193 33 30 27 27 29 28 27 28 29 27 28 30 30 30 31 32 33 32 34 33 32 32 32 32 32 32 32 32 33 32 32 33 31 32 32 32 32 31 37 38 39 -209 -177 -209 93 105 106 106 111 116 118 117 120 126 130 132 134 135 0 0 0 0 0
    0 0 0 0 0 0 0 0 0 0 0 0 0 0 0 0 0 0 0 0 0 0 0 0 0 0 0 0 0 0 0 0 0 0 0 0 0 0 0 0 0 0 0 0 0 0 0 0 0 0 0 0 0 0 0 0 0 0 0 0 0 0 0 0 0 0 0 0 0 12 13 12 11 -193 -209 -209 -209 -209 -193 -193 0 0 -193 -193 9 -193 0 -193 0 0 0 0 -193 -193 0 9 0 0 0 0 0 0 0 0 0 0 0 0 0 0 0 0 0 13 11 14 14 14 15 14 14 15 -193 -193 -193 -193 0 0 -177 -177 -177 -177 -193 -193 -177 -193 131 127 130 130 130 129 127 130 127 127 -193 -193 -209 -209 -193 -209 -209 -177 -193 -193 -193 -193 127 125 125 125 125 125 125 -193 15 11 -193 -193 -193 -193 -193 -193 12 9 11 11 11 12 11 14 12 13 12 11 13 11 10 10 14 11 11 11 11 10 10 10 14 13 12 12 12 12 15 14 14 11 11 13 17 -209 -209 -209 -209 -209 -209 58 59 59 58 58 -193 -177 22 16 15 18 21 -193 -193 164 161 163 -177 -177 -193 -193 -193 -177 -177 -193 -209 -209 -209 54 66 75 80 81 82 86 86 87 87 87 88 -193 -193 29 28 29 29 27 28 29 27 29 31 31 30 32 32 32 32 34 32 32 32 31 32 31 32 31 31 33 31 32 33 32 32 32 32 32 32 36 38 39 -209 -209 -209 90 100 -193 -193 113 119 121 -193 122 130 135 135 136 137 0 0 0 0 0
    0 0 0 0 0 0 0 0 0 0 0 0 0 0 0 0 0 0 0 0 0 0 0 0 0 0 0 0 0 0 0 0 0 0 0 0 0 0 0 0 0 0 0 0 0 0 0 0 0 0 0 0 0 0 0 0 0 0 0 0 0 0 0 0 0 0 0 0 0 14 14 13 -193 -209 -193 -209 -209 57 -193 -177 -209 0 -193 -193 -193 -193 -193 -193 -209 -209 -209 -209 -193 -209 -193 -193 0 0 0 0 0 0 0 0 0 0 0 0 0 0 0 0 0 13 11 15 15 15 17 16 15 16 -209 -209 -209 -209 -209 0 -177 -177 -177 -177 -193 -193 0 -193 132 128 131 132 131 130 127 131 128 -193 -209 -209 -193 -193 -209 -209 -209 -193 -193 -193 -193 -177 -209 -209 -209 -193 125 125 124 127 -193 -193 -193 -193 -193 -193 -193 -193 13 10 11 11 11 11 11 12 11 11 11 10 13 11 10 10 14 11 11 10 10 9 10 10 13 12 12 12 12 12 15 14 15 11 10 12 -193 -177 -209 -209 -209 61 58 58 58 58 57 57 -209 -177 -177 16 16 19 22 -193 -193 167 166 165 162 -177 -193 -193 -209 -177 -177 -193 -209 -209 -193 52 60 74 78 80 83 86 86 87 86 87 88 88 92 -193 30 31 29 27 28 29 27 29 31 31 29 31 32 32 31 33 31 32 32 31 32 31 32 31 31 32 31 32 32 32 33 32 33 33 33 36 38 39 39 -193 -209 -209 85 -209 76 -209 124 130 -209 -193 134 138 138 138 138 0 0 0 0 0
    0 0 0 0 0 0 0 0 0 0 0 0 0 0 0 0 0 0 0 0 0 0 0 0 0 0 0 0 0 0 0 0 0 0 0 0 0 0 0 0 0 0 0 0 0 0 0 0 0 0 0 0 0 0 0 0 0 0 0 0 0 0 0 0 0 0 0 0 0 16 17 -193 -193 -193 -193 -209 57 58 58 -193 58 -209 9 9 -193 -193 -193 -209 -209 -209 -193 -209 -193 -209 -193 -209 0 0 -193 0 0 0 0 0 0 0 0 0 0 0 0 0 9 15 12 16 16 17 18 17 16 -193 -209 -209 -209 -209 -209 -193 -177 -177 -177 -177 9 -193 0 -193 131 129 132 134 -193 -193 129 -193 -193 -209 -209 -209 -209 -209 -209 -209 -209 -193 -193 -209 -193 -177 -193 -193 -177 -177 -193 124 124 127 -209 -209 -209 -193 -193 -193 -193 -193 14 10 12 11 10 10 9 10 9 0 0 0 10 10 9 10 14 11 11 10 10 9 9 10 13 13 13 13 13 13 16 15 15 11 10 12 -193 -177 -209 -209 59 63 60 59 59 59 57 57 13 16 22 17 17 19 22 -193 -193 168 168 -177 -177 -177 -193 -193 -209 -177 -177 -193 -193 -209 -177 -193 -193 73 77 78 82 87 87 88 87 88 89 89 93 94 -193 34 31 27 28 30 28 29 31 31 29 31 32 32 31 33 31 32 32 31 32 31 32 31 32 32 32 32 33 32 33 32 34 33 34 37 39 40 40 41 45 -193 -177 -193 72 -209 132 -209 -193 -193 135 138 138 137 137 0 0 0 0 0
    0 0 0 0 0 0 0 0 0 0 0 0 0 0 0 0 0 0 0 0 0 0 0 0 0 0 0 0 0 0 0 0 0 0 0 0 0 0 0 0 0 0 0 0 0 0 0 0 0 0 0 0 0 0 0 0 0 0 0 0 0 0 0 0 0 0 0 0 0 18 19 -209 -177 -193 -193 58 57 58 58 58 57 58 -209 10 -193 -193 -193 -209 -209 -177 -193 -209 -209 -209 -177 -209 0 0 -209 -193 0 -193 -209 -209 -209 -209 0 0 0 9 9 0 10 17 12 18 -193 20 20 -209 -209 -193 -193 60 59 58 58 -209 -209 -209 -177 0 11 -193 0 -193 131 131 134 136 -193 -209 -209 -209 -209 -209 -209 -177 -209 -193 -209 -209 -209 -209 -209 -209 -209 -209 -209 -193 -177 -177 -209 -209 123 125 -209 -209 -209 -209 -209 -209 -193 14 16 12 12 10 9 9 0 0 0 0 0 0 0 8 0 10 14 11 10 9 9 0 9 10 13 13 13 13 14 14 18 17 17 -193 -193 -193 -177 -193 63 62 61 63 62 60 60 59 57 57 13 16 22 17 17 20 22 -193 -209 169 169 -177 -177 -177 74 76 -209 -177 -193 -209 -193 -209 -209 -193 -209 -193 -209 77 80 86 86 87 87 87 89 88 91 92 93 96 102 -193 31 31 29 30 32 32 30 32 33 33 32 33 31 32 32 32 32 32 32 32 32 32 32 32 33 32 33 32 34 34 35 37 40 42 -193 41 43 55 -209 63 70 -209 -177 -193 -193 -193 136 138 138 137 137 0 0 0 0 0
    0 0 0 0 0 0 0 0 0 0 0 0 0 0 0 0 0 0 0 0 0 0 0 0 0 0 0 0 0 0 0 0 0 0 0 0 0 0 0 0 0 0 0 0 0 0 0 0 0 0 0 0 0 0 0 0 0 0 0 0 0 0 0 0 0 0 0 0 0 21 -209 -209 -209 -209 -193 58 58 58 58 58 57 57 56 -193 58 -193 -209 -209 -209 -209 -193 -209 -209 -209 -177 -209 -209 -209 -193 -209 -209 -193 -209 -193 -209 -209 -209 -193 11 -193 -209 -209 -209 57 -193 57 59 60 60 60 61 60 61 61 60 59 59 59 60 59 61 60 60 60 65 61 62 61 -193 -193 -193 62 -193 -193 -193 -193 -193 -193 -193 -193 -193 -193 -193 -193 -209 -209 -209 -193 -193 -209 -209 -209 -209 57 60 -193 59 60 60 58 58 57 -209 15 19 14 12 10 0 0 0 0 0 -193 0 0 -193 0 0 10 14 11 10 9 9 0 10 10 13 13 14 14 15 15 20 19 -193 -209 -209 -193 -193 63 62 62 61 63 62 61 61 59 57 57 13 16 22 17 18 20 22 -193 -209 171 -177 -177 -177 -193 75 76 -209 -193 -193 -209 -209 -209 -209 53 -193 -209 -209 75 79 86 86 87 87 88 89 88 91 91 92 95 101 102 101 -209 33 32 33 33 31 33 34 33 32 32 31 32 32 31 32 31 33 32 32 32 32 32 33 32 33 32 34 35 36 38 40 45 43 42 43 54 -209 -193 68 -209 -177 136 -193 -193 137 138 139 137 137 0 0 0 0 0
    0 0 0 0 0 0 0 0 0 0 0 0 0 0 0 0 0 0 0 0 0 0 0 0 0 0 0 0 0 0 0 0 0 0 0 0 0 0 0 0 0 0 0 0 0 0 0 0 0 0 0 0 0 0 0 0 0 0 0 0 0 0 0 0 0 0 0 0 0 -209 -209 -209 -209 -193 58 58 58 59 58 58 58 58 57 57 59 60 58 61 -193 -209 -209 -209 -209 -209 -209 -209 -209 -209 -209 58 59 59 59 60 59 59 61 -209 -209 -209 57 58 57 58 59 59 59 61 61 61 61 61 61 61 61 60 59 59 61 60 61 61 62 62 64 63 63 62 63 62 63 63 64 61 60 62 -193 61 61 61 61 60 60 62 60 60 61 60 60 60 61 62 60 59 62 61 60 60 60 59 59 59 59 59 -193 -209 -209 -209 -193 -193 -193 -193 -209 -193 -193 -193 -193 -193 0 10 14 12 10 9 9 9 10 10 14 12 14 16 16 17 -193 -193 63 66 66 63 64 63 62 62 61 62 62 62 62 59 57 -193 15 19 23 18 19 20 23 -209 -209 -209 -177 -177 -193 -193 75 76 -193 75 77 -209 -209 -209 -209 -209 -209 -177 -177 74 77 86 86 88 87 88 89 89 91 91 91 94 100 100 99 100 -193 -193 36 35 32 33 34 33 32 32 30 31 32 31 32 31 33 32 32 32 32 32 33 32 34 32 35 34 36 38 42 53 -209 -209 47 -209 -209 -193 67 -193 138 137 137 138 138 139 139 137 137 0 0 0 0 0
    0 0 0 0 0 0 0 0 0 0 0 0 0 0 0 0 0 0 0 0 0 0 0 0 0 0 0 0 0 0 0 0 0 0 0 0 0 0 0 0 0 0 0 0 0 0 0 0 0 0 0 0 0 0 0 0 0 0 0 0 0 0 0 0 0 0 0 0 0 58 -193 -193 59 58 58 57 58 59 58 58 58 58 58 58 60 61 60 62 60 60 59 59 59 59 58 59 59 58 59 61 61 61 60 61 59 60 62 60 58 58 58 61 59 59 60 60 60 61 62 61 61 61 61 61 61 61 59 60 62 60 62 62 63 62 64 63 63 62 64 64 63 64 66 63 61 63 63 61 62 62 62 61 60 63 61 61 62 62 61 61 62 63 61 60 63 62 60 60 60 60 59 60 60 60 60 64 65 68 67 69 68 65 64 -193 -193 -193 60 -193 -193 10 15 13 9 0 0 0 10 10 14 -209 -209 -209 58 60 58 62 64 65 64 63 64 63 61 62 61 61 62 62 62 59 58 60 20 23 24 20 21 22 24 -209 -209 -209 -209 -209 -193 -193 76 76 76 76 77 77 77 -193 -209 56 -193 -193 -209 -193 74 83 85 87 87 88 89 90 91 91 91 93 98 98 96 99 97 98 99 100 -209 34 35 34 33 32 29 31 31 31 32 31 34 31 32 32 32 33 33 33 34 31 35 34 37 39 47 58 70 -209 -209 -209 -209 -193 -177 137 140 138 138 139 139 140 140 138 138 0 0 0 0 0
    0 0 0 0 0 0 0 0 0 0 0 0 0 0 0 0 0 0 0 0 0 0 0 0 0 0 0 0 0 0 0 0 0 0 0 0 0 0 0 0 0 0 0 0 0 0 0 0 0 0 0 0 0 0 0 0 0 0 0 0 0 0 0 0 0 0 0 0 0 61 60 62 60 59 59 57 58 59 58 59 59 59 59 59 60 61 60 61 61 60 60 60 60 60 59 61 60 60 60 61 61 61 61 61 60 60 62 60 59 60 59 64 61 61 61 61 61 62 62 61 60 60 60 60 60 61 59 60 63 61 62 63 64 63 64 63 64 62 64 64 64 65 67 63 61 63 63 62 62 62 62 61 61 63 61 61 62 62 62 62 62 64 62 60 63 62 61 61 60 60 59 60 62 60 61 63 65 66 66 68 67 64 63 62 62 61 60 61 58 -209 59 -193 63 -193 -193 -209 -209 -193 -193 58 57 58 61 63 61 65 65 65 64 63 64 62 61 62 61 61 61 62 62 60 60 62 -209 36 -209 21 22 23 -209 -209 -209 -209 -209 -193 -209 74 76 76 76 76 77 77 77 75 -193 59 65 -209 -209 -193 73 81 84 88 87 89 90 90 91 91 92 93 95 95 95 97 97 97 99 99 100 96 99 -193 -209 -193 28 32 32 31 31 31 34 32 33 33 32 34 33 34 35 32 37 36 39 40 51 59 69 -209 -209 -193 -209 -193 -177 138 141 139 139 140 140 140 140 139 139 0 0 0 0 0
    0 0 0 0 0 0 0 0 0 0 0 0 0 0 0 0 0 0 0 0 0 0 0 0 0 0 0 0 0 0 0 0 0 0 0 0 0 0 0 0 0 0 0 0 0 0 0 0 0 0 0 0 0 0 0 0 0 0 0 0 0 0 0 0 0 0 0 0 0 61 61 62 60 60 60 57 58 59 58 59 59 59 59 59 61 62 61 61 61 60 61 61 61 61 60 62 61 61 61 62 61 62 61 62 59 60 61 60 59 61 61 67 62 62 63 62 62 62 62 61 59 59 60 59 59 60 60 60 64 62 63 64 64 64 64 63 64 61 64 64 63 64 66 63 61 63 62 62 61 62 62 61 61 63 61 61 62 62 62 62 62 64 62 60 63 62 61 60 60 60 59 60 62 60 62 63 65 66 65 67 66 64 63 62 62 61 60 61 59 58 61 62 64 62 61 62 61 60 60 59 59 60 64 65 65 66 66 65 65 64 64 62 62 62 61 61 61 62 63 60 61 63 60 56 56 -209 24 28 -209 -209 -209 -193 -193 -193 75 74 77 77 76 77 78 77 78 75 77 69 69 69 68 70 72 80 81 82 84 89 90 91 91 91 92 93 94 94 94 97 97 97 98 98 99 98 100 99 97 -193 -209 35 -209 32 32 32 34 32 34 33 33 35 34 35 36 34 39 39 42 45 54 61 70 -209 -209 -209 -209 -209 -209 139 142 140 139 141 140 140 140 139 140 0 0 0 0 0
    0 0 0 0 0 0 0 0 0 0 0 0 0 0 0 0 0 0 0 0 0 0 0 0 0 0 0 0 0 0 0 0 0 0 0 0 0 0 0 0 0 0 0 0 0 0 0 0 0 0 0 0 0 0 0 0 0 0 0 0 0 0 0 0 0 0 0 0 0 61 60 62 60 60 60 58 58 59 59 59 60 60 60 60 61 62 61 62 62 61 62 63 63 63 61 66 63 62 63 62 62 62 62 62 59 60 61 59 59 61 61 68 63 63 63 63 62 63 62 61 59 59 60 58 59 61 60 61 66 63 64 64 65 64 65 64 64 61 64 64 64 63 66 63 61 63 62 62 61 62 62 61 61 63 61 61 62 62 62 62 62 63 61 60 62 62 61 60 59 60 59 60 62 61 63 64 65 66 65 66 66 64 63 62 62 61 60 61 59 58 63 63 64 63 62 64 63 62 62 61 62 63 66 67 67 66 66 66 65 65 65 63 63 63 62 62 62 63 64 61 63 64 62 60 59 60 -209 -193 59 -209 -193 67 -193 72 76 75 78 77 77 77 78 77 78 75 77 71 71 70 68 68 70 73 74 72 74 75 83 86 89 90 91 90 92 93 94 96 98 98 99 99 101 100 101 101 101 94 95 -209 -193 -209 -193 34 35 34 35 35 34 36 36 37 39 39 44 45 49 53 56 64 74 -193 -193 -209 -209 -193 143 140 144 141 140 142 141 140 140 139 140 0 0 0 0 0
    0 0 0 0 0 0 0 0 0 0 0 0 0 0 0 0 0 0 0 0 0 0 0 0 0 0 0 0 0 0 0 0 0 0 0 0 0 0 0 0 0 0 0 0 0 0 0 0 0 0 0 0 0 0 0 0 0 0 0 0 0 0 0 0 0 0 0 0 0 62 60 62 61 61 61 60 60 60 60 60 61 61 60 61 61 62 61 61 62 60 64 64 66 66 64 68 65 64 64 63 63 63 62 63 60 61 61 60 59 63 63 68 64 63 64 63 63 63 62 62 60 60 61 59 61 65 63 64 68 65 66 66 66 65 65 64 65 62 65 66 65 65 67 65 62 64 63 62 62 62 62 62 61 64 61 61 62 63 62 63 62 63 62 61 62 62 61 60 59 60 59 60 62 61 65 64 66 66 65 66 65 64 63 62 62 61 60 61 59 59 63 62 63 63 62 63 63 63 63 62 63 65 67 67 68 67 66 66 66 65 65 64 64 64 64 63 64 64 65 63 67 67 65 64 64 66 62 63 64 69 64 69 74 72 77 76 78 77 77 78 79 77 78 76 77 73 72 70 70 69 69 71 72 71 72 72 74 75 84 88 90 89 91 93 94 95 98 99 99 100 101 101 102 103 104 -193 -193 -209 -209 -193 63 61 -193 -193 -193 38 37 38 -209 -209 52 53 53 55 56 56 59 67 76 -209 -177 -177 -209 145 144 141 145 141 140 142 141 141 140 140 141 0 0 0 0 0
    0 0 0 0 0 0 0 0 0 0 0 0 0 0 0 0 0 0 0 0 0 0 0 0 0 0 0 0 0 0 0 0 0 0 0 0 0 0 0 0 0 0 0 0 0 0 0 0 0 0 0 0 0 0 0 0 0 0 0 0 0 0 0 0 0 0 0 0 0 62 61 62 62 62 62 63 62 62 62 62 63 62 62 62 61 62 61 62 62 61 66 66 69 68 66 69 66 65 65 64 64 63 62 63 60 61 62 60 60 66 64 68 64 63 64 64 63 64 63 63 60 61 62 61 63 66 66 67 70 67 67 68 67 67 67 66 66 62 66 67 66 67 68 67 64 65 64 63 63 63 63 62 61 66 62 62 64 65 64 65 64 64 62 62 63 62 61 60 59 60 59 60 62 61 66 64 66 66 66 66 65 64 64 62 63 61 61 61 60 59 64 62 63 63 63 63 63 63 64 62 64 67 67 66 68 66 66 66 65 65 65 64 65 64 64 64 65 65 66 63 68 68 66 66 67 67 64 66 67 70 66 69 75 73 77 77 78 77 77 78 79 77 78 75 76 72 71 70 69 68 68 68 69 67 69 70 71 71 72 76 83 86 89 93 95 96 99 100 100 100 102 102 103 103 105 106 -193 -193 -209 -193 -193 64 67 64 63 62 62 64 63 -193 62 61 59 59 60 63 66 70 -209 -177 -177 -193 -209 149 147 142 146 142 142 144 142 141 140 140 141 0 0 0 0 0
    0 0 0 0 0 0 0 0 0 0 0 0 0 0 0 0 0 0 0 0 0 0 0 0 0 0 0 0 0 0 0 0 0 0 0 0 0 0 0 0 0 0 0 0 0 0 0 0 0 0 0 0 0 0 0 0 0 0 0 0 0 0 0 0 0 0 0 0 0 62 61 62 62 62 62 65 63 64 63 63 64 63 62 62 61 62 62 62 63 62 67 67 70 69 67 69 66 66 66 65 65 63 63 64 61 62 62 61 62 67 64 68 64 63 64 64 64 64 63 63 60 62 62 61 63 66 67 68 70 68 68 68 68 68 68 67 66 64 68 68 67 68 68 68 65 66 65 64 64 64 64 63 62 67 62 63 65 68 67 67 66 65 63 63 63 63 62 61 60 60 60 61 64 63 67 65 67 66 66 66 66 65 65 62 64 61 61 60 60 59 64 62 63 63 63 64 64 64 65 63 65 68 67 67 68 66 67 66 66 66 65 65 66 65 66 66 66 67 67 66 69 69 67 67 69 68 66 67 68 70 66 70 76 74 78 78 78 77 78 78 79 77 78 75 75 71 71 69 69 68 67 66 67 64 67 68 70 69 71 71 71 74 84 91 93 95 100 102 101 102 103 103 104 104 105 106 -193 -193 -193 -177 -193 66 69 68 66 67 66 67 66 65 66 64 63 63 64 67 68 -193 -193 -177 -177 -209 -209 -209 147 144 147 143 142 144 142 141 140 140 141 0 0 0 0 0
    0 0 0 0 0 0 0 0 0 0 0 0 0 0 0 0 0 0 0 0 0 0 0 0 0 0 0 0 0 0 0 0 0 0 0 0 0 0 0 0 0 0 0 0 0 0 0 0 0 0 0 0 0 0 0 0 0 0 0 0 0 0 0 0 0 0 0 0 0 62 61 62 62 63 62 65 63 64 63 63 64 63 62 62 61 63 62 62 64 63 67 66 70 68 67 69 66 66 66 65 66 63 63 64 61 63 63 61 61 68 65 68 63 63 64 63 64 64 63 63 60 62 63 61 64 66 67 69 70 68 69 69 68 68 68 67 66 64 68 68 67 68 68 68 65 67 65 64 64 64 64 63 61 67 61 64 66 69 68 68 67 66 64 64 64 64 63 62 61 61 61 62 65 64 67 65 67 67 67 66 66 65 65 62 65 61 61 59 59 59 64 62 63 64 63 64 64 65 65 64 66 68 67 68 69 67 68 67 67 68 67 67 67 67 69 67 68 68 68 68 70 70 69 68 70 69 67 69 69 72 66 70 77 75 78 78 78 78 78 78 79 76 77 75 74 71 70 68 69 68 68 67 68 64 67 69 70 70 70 71 71 71 74 86 92 94 100 103 103 103 104 104 104 104 106 106 573 -193 -193 -193 68 66 -193 68 67 69 68 69 68 67 68 66 65 66 66 68 69 71 -209 -209 -209 79 -209 -209 147 -177 147 142 142 144 142 141 139 140 140 0 0 0 0 0
    0 0 0 0 0 0 0 0 0 0 0 0 0 0 0 0 0 0 0 0 0 0 0 0 0 0 0 0 0 0 0 0 0 0 0 0 0 0 0 0 0 0 0 0 0 0 0 0 0 0 0 0 0 0 0 0 0 0 0 0 0 0 0 0 0 0 0 0 0 63 62 62 63 64 63 66 64 64 64 63 64 63 63 62 61 63 63 64 66 66 68 67 70 69 67 68 66 66 66 65 66 63 63 65 61 63 64 62 63 68 66 68 64 63 64 63 64 64 63 63 61 62 63 63 66 66 68 70 71 69 69 69 69 69 68 68 67 65 67 67 67 -193 68 68 65 67 65 64 64 64 64 63 61 66 60 65 67 70 69 68 67 66 65 65 65 65 63 62 61 62 61 62 65 64 68 64 67 67 67 66 66 65 66 62 66 61 61 60 61 60 66 63 63 65 64 65 65 65 66 64 66 68 67 68 69 68 68 68 68 68 68 68 69 68 70 68 69 68 69 70 70 71 70 70 71 70 70 71 71 74 68 71 79 76 78 78 78 77 78 78 78 76 77 75 73 71 71 69 70 70 70 70 70 67 70 70 70 70 70 70 70 71 73 81 89 93 101 104 104 104 105 104 105 105 106 107 -193 -193 104 -193 68 -193 -193 -193 68 71 69 70 70 69 70 67 67 68 67 68 69 71 -209 -209 -209 79 -193 -209 144 143 145 141 141 142 141 140 138 139 139 0 0 0 0 0
    0 0 0 0 0 0 0 0 0 0 0 0 0 0 0 0 0 0 0 0 0 0 0 0 0 0 0 0 0 0 0 0 0 0 0 0 0 0 0 0 0 0 0 0 0 0 0 0 0 0 0 0 0 0 0 0 0 0 0 0 0 0 0 0 0 0 0 0 0 66 65 65 66 67 66 68 65 65 65 64 64 63 63 63 61 64 65 66 69 69 69 68 70 69 67 68 66 66 66 65 66 63 63 65 61 64 65 64 66 69 67 68 65 64 65 64 65 65 63 64 62 64 65 66 68 67 69 70 71 70 70 70 69 69 69 68 67 66 68 68 67 66 67 68 65 66 66 65 64 64 65 63 61 67 61 66 67 71 70 69 68 67 66 66 65 66 64 63 62 62 62 63 66 64 68 64 68 67 67 66 66 65 66 63 66 62 62 60 62 61 67 63 64 65 64 65 65 65 66 65 67 68 67 68 69 68 69 69 69 69 68 69 69 69 70 69 70 68 71 71 71 72 72 72 72 73 73 74 73 75 70 71 78 76 77 78 77 77 77 78 78 76 76 75 73 72 72 70 72 72 72 73 73 72 74 74 73 73 71 71 70 71 73 -193 -209 92 101 106 105 105 105 105 105 106 107 107 103 105 104 -209 70 -193 -209 -193 69 71 70 71 70 70 70 69 68 70 68 68 70 72 -193 -209 -209 -193 -193 -193 142 141 142 139 140 141 139 139 137 138 137 0 0 0 0 0
    0 0 0 0 0 0 0 0 0 0 0 0 0 0 0 0 0 0 0 0 0 0 0 0 0 0 0 0 0 0 0 0 0 0 0 0 0 0 0 0 0 0 0 0 0 0 0 0 0 0 0 0 0 0 0 0 0 0 0 0 0 0 0 0 0 0 0 0 0 69 68 67 69 69 68 69 67 67 66 65 66 65 64 65 62 67 69 69 71 71 70 69 70 69 68 68 66 66 66 65 66 63 63 66 63 67 68 68 69 70 68 68 66 65 65 64 66 66 65 66 65 67 68 69 70 69 70 71 72 71 71 70 70 70 70 69 68 68 68 68 68 66 67 68 66 67 66 66 65 66 66 65 61 69 65 68 69 72 70 69 69 68 67 66 66 67 64 64 63 63 63 64 65 64 68 65 68 68 67 66 67 66 66 64 66 63 64 63 64 63 68 64 65 66 65 66 66 66 66 65 67 69 68 69 70 69 70 69 69 69 69 69 70 69 71 69 70 68 72 72 72 73 73 73 74 75 74 75 74 75 71 72 77 76 77 78 77 77 77 78 78 76 76 76 73 73 73 71 73 73 74 75 74 75 76 76 76 75 73 71 70 71 73 80 -209 91 101 111 106 106 106 106 106 106 108 108 103 104 103 64 71 70 71 70 70 71 70 70 70 70 70 70 70 71 70 70 71 74 74 -209 -209 -209 -209 -193 140 140 -193 138 139 -193 138 138 -193 -193 -209 0 0 0 0 0
    0 0 0 0 0 0 0 0 0 0 0 0 0 0 0 0 0 0 0 0 0 0 0 0 0 0 0 0 0 0 0 0 0 0 0 0 0 0 0 0 0 0 0 0 0 0 0 0 0 0 0 0 0 0 0 0 0 0 0 0 0 0 0 0 0 0 0 0 0 71 70 69 71 71 70 71 68 68 67 67 67 66 67 67 65 71 74 73 73 72 71 69 71 70 69 69 67 67 67 66 67 64 65 68 66 69 69 70 70 71 68 69 67 66 67 65 66 67 67 68 67 69 70 71 71 70 71 72 72 72 71 71 71 71 70 70 69 69 68 68 68 67 68 69 67 68 67 67 67 67 68 67 62 71 68 70 70 72 70 69 69 68 68 67 67 67 66 66 66 65 65 66 66 65 68 67 68 68 68 67 68 68 68 66 68 66 67 66 68 66 69 66 66 67 66 67 66 67 68 67 69 70 69 70 70 70 70 70 70 69 69 70 70 70 71 70 71 69 73 73 73 74 75 74 75 75 75 75 74 76 72 73 77 77 77 79 77 77 78 78 78 76 76 76 74 74 74 72 74 74 75 75 75 75 77 78 77 77 74 72 70 71 73 -193 -177 92 101 114 107 107 107 107 107 107 108 110 102 103 101 -209 74 71 72 71 72 73 72 71 71 71 71 71 72 73 72 72 72 76 75 84 -209 -209 -209 -209 138 140 -193 -193 -193 -193 -193 -193 -193 -193 -193 0 0 0 0 0
    0 0 0 0 0 0 0 0 0 0 0 0 0 0 0 0 0 0 0 0 0 0 0 0 0 0 0 0 0 0 0 0 0 0 0 0 0 0 0 0 0 0 0 0 0 0 0 0 0 0 0 0 0 0 0 0 0 0 0 0 0 0 0 0 0 0 0 0 0 72 71 70 71 71 71 71 69 69 68 68 69 68 69 69 69 74 76 74 74 -209 71 70 71 70 69 69 68 67 67 67 68 65 66 69 69 71 71 71 71 71 70 70 68 68 68 67 67 67 67 69 69 70 70 71 72 71 72 72 73 73 72 72 71 71 71 70 69 69 68 68 68 67 68 70 68 69 68 68 68 69 70 69 65 73 71 73 72 73 71 70 70 69 69 68 68 69 67 67 68 68 68 69 69 67 69 68 69 69 69 69 69 69 69 68 69 68 69 69 70 69 70 67 68 69 67 68 67 69 69 69 70 71 70 71 71 71 71 71 71 70 70 71 71 71 72 72 72 71 74 74 74 75 76 75 75 76 75 75 75 76 73 75 78 77 77 80 77 78 78 78 78 77 77 77 74 75 75 73 75 75 76 76 76 76 78 79 78 78 75 74 71 73 74 -193 -177 92 102 114 107 107 107 106 106 106 108 109 99 99 95 -193 76 75 74 74 74 74 73 72 72 72 72 73 73 74 73 73 74 76 75 83 -209 -209 -209 -209 138 140 -193 -193 -193 -193 -193 -193 -193 -193 126 0 0 0 0 0
    0 0 0 0 0 0 0 0 0 0 0 0 0 0 0 0 0 0 0 0 0 0 0 0 0 0 0 0 0 0 0 0 0 0 0 0 0 0 0 0 0 0 0 0 0 0 0 0 0 0 0 0 0 0 0 0 0 0 0 0 0 0 0 0 0 0 0 0 0 72 72 71 72 72 72 72 71 70 70 70 71 -193 -193 71 -193 75 76 74 -193 -209 71 70 71 70 69 69 69 67 68 68 69 67 68 71 71 73 72 73 72 73 71 71 70 70 70 69 68 68 68 69 69 70 71 72 72 72 72 73 73 73 72 72 72 71 71 70 69 69 68 68 68 68 69 70 69 70 69 69 70 71 71 71 69 74 73 74 73 74 72 70 70 70 69 69 69 70 69 69 70 69 70 71 72 70 71 70 71 71 70 70 70 70 70 69 70 69 70 71 71 70 70 69 69 70 69 69 69 70 71 71 72 72 71 73 72 72 72 72 72 70 71 72 72 72 73 73 73 72 74 75 74 76 77 75 76 77 76 76 76 77 74 75 78 77 77 80 78 78 78 78 78 77 77 77 75 76 76 74 76 76 77 77 76 76 77 79 78 79 75 74 72 73 75 -193 -177 94 102 114 107 107 106 106 -177 105 107 107 94 94 90 79 80 79 78 78 78 79 76 -193 74 73 73 73 73 74 73 73 73 75 73 82 -209 -209 -209 -209 -209 -193 -177 -177 -177 718 717 717 -193 -193 124 0 0 0 0 0
    0 0 0 0 0 0 0 0 0 0 0 0 0 0 0 0 0 0 0 0 0 0 0 0 0 0 0 0 0 0 0 0 0 0 0 0 0 0 0 0 0 0 0 0 0 0 0 0 0 0 0 0 0 0 0 0 0 0 0 0 0 0 0 0 0 0 0 0 0 73 73 72 73 -193 72 72 71 71 71 71 72 -193 73 73 74 75 76 74 -193 -209 71 70 71 70 70 69 69 67 69 69 69 68 69 72 72 74 72 74 73 73 -193 73 72 71 71 72 70 72 71 72 72 73 73 74 74 74 73 74 73 73 72 72 72 71 70 70 69 69 68 68 68 68 69 -193 70 70 70 71 71 72 73 73 72 74 74 75 74 74 72 70 70 70 70 70 70 70 70 70 71 71 72 73 73 73 73 72 72 71 71 71 71 72 72 71 71 71 71 72 72 71 70 70 70 71 70 70 70 72 72 72 73 73 73 74 74 74 74 74 74 71 72 73 73 73 73 73 73 73 75 76 75 77 77 76 77 77 77 77 76 76 75 76 79 78 77 80 78 78 78 78 78 77 77 77 75 77 77 75 77 77 77 78 77 77 78 79 79 79 76 74 72 74 76 -193 -177 94 102 110 106 106 -177 -177 -177 -177 106 106 93 92 89 81 83 82 81 80 82 83 79 -193 75 75 74 74 73 74 72 72 73 74 72 81 -209 -209 -209 -209 -209 -193 -177 718 719 717 717 717 717 -193 123 0 0 0 0 0
    0 0 0 0 0 0 0 0 0 0 0 0 0 0 0 0 0 0 0 0 0 0 0 0 0 0 0 0 0 0 0 0 0 0 0 0 0 0 0 0 0 0 0 0 0 0 0 0 0 0 0 0 0 0 0 0 0 0 0 0 0 0 0 0 0 0 0 0 0 74 74 72 74 -193 -193 -193 72 72 72 73 74 74 74 74 74 75 75 -193 -193 -193 71 70 71 71 70 70 70 68 69 70 70 70 70 73 73 74 72 74 73 73 -193 73 73 72 73 73 73 74 73 74 74 74 74 75 76 76 75 75 74 74 73 73 72 71 71 70 69 70 69 69 69 69 70 72 71 71 71 -193 72 73 73 74 73 75 75 74 74 74 72 71 71 71 71 71 71 71 71 71 72 72 73 73 74 73 73 72 72 72 71 72 72 73 73 72 72 72 73 73 73 72 70 70 71 72 71 71 70 72 72 73 74 74 74 75 75 76 75 75 75 72 72 74 73 73 73 73 74 74 76 77 75 77 77 77 79 78 78 77 77 77 76 77 79 78 77 80 78 78 79 78 77 77 77 78 76 77 77 75 77 78 78 79 78 78 79 79 80 79 77 76 73 75 78 -209 -209 95 102 105 -177 -177 -177 -177 -177 103 105 105 92 90 86 82 84 83 82 81 84 84 82 -193 77 76 75 76 74 75 73 73 74 74 72 82 -209 -209 -209 135 136 -193 718 719 719 718 718 717 -193 -193 -193 0 0 0 0 0
    0 0 0 0 0 0 0 0 0 0 0 0 0 0 0 0 0 0 0 0 0 0 0 0 0 0 0 0 0 0 0 0 0 0 0 0 0 0 0 0 0 0 0 0 0 0 0 0 0 0 0 0 0 0 0 0 0 0 0 0 0 0 0 0 0 0 0 0 0 75 75 73 74 -193 -193 -193 74 74 73 75 76 75 75 75 75 76 76 74 73 72 71 71 71 71 70 70 70 68 70 71 71 71 72 74 74 75 73 75 73 74 73 74 73 73 74 74 74 75 75 75 75 75 75 76 77 77 76 76 75 75 74 74 74 73 72 72 71 71 70 70 70 70 71 73 72 72 72 73 73 74 74 75 73 75 76 75 75 75 73 72 71 72 72 71 72 72 72 72 73 73 73 73 74 73 73 73 72 72 71 72 72 73 73 73 73 73 73 74 73 73 71 70 72 72 72 72 71 74 74 74 75 75 74 75 75 76 75 75 75 72 72 74 73 74 73 73 74 74 76 77 76 77 77 78 80 79 78 78 78 77 76 78 79 78 77 80 78 78 79 78 77 77 77 78 76 78 78 76 78 78 78 79 78 78 79 79 80 80 78 78 75 77 82 -209 -193 96 102 103 -177 -177 -177 -177 -177 103 104 100 90 87 84 82 83 82 82 79 84 84 85 -209 -193 -193 -193 -193 76 77 75 73 74 76 73 84 -177 -209 -209 135 135 -193 718 719 720 718 718 717 -193 -193 -209 0 0 0 0 0
    0 0 0 0 0 0 0 0 0 0 0 0 0 0 0 0 0 0 0 0 0 0 0 0 0 0 0 0 0 0 0 0 0 0 0 0 0 0 0 0 0 0 0 0 0 0 0 0 0 0 0 0 0 0 0 0 0 0 0 0 0 0 0 0 0 0 0 0 0 76 76 74 75 -193 -193 -193 76 76 75 76 77 77 76 76 76 77 76 75 74 72 72 72 72 72 71 71 72 70 73 74 73 74 73 76 77 76 75 76 74 75 74 74 74 74 75 75 74 76 76 77 76 76 76 77 78 77 77 77 76 76 76 76 75 74 74 74 73 74 73 74 72 73 72 76 74 74 74 74 74 75 75 76 74 75 76 75 75 76 74 73 72 72 72 72 73 73 73 73 74 74 74 73 74 73 73 72 71 71 71 72 73 73 74 73 73 74 74 75 73 73 71 71 72 73 73 73 73 77 75 75 76 75 75 76 76 76 74 75 75 72 72 75 74 74 74 74 75 75 77 77 76 77 77 78 80 79 78 78 78 77 77 79 79 78 78 81 78 79 79 78 78 78 78 78 76 78 78 77 79 78 78 78 78 78 78 79 81 79 80 79 77 77 83 93 98 96 102 102 -177 103 103 103 103 102 103 93 91 87 83 81 83 82 81 78 84 84 86 -209 -209 -209 -209 -193 -193 79 77 75 76 79 78 87 -209 -209 -209 -193 136 -193 719 720 -193 -193 719 -193 -193 -193 -209 0 0 0 0 0
    0 0 0 0 0 0 0 0 0 0 0 0 0 0 0 0 0 0 0 0 0 0 0 0 0 0 0 0 0 0 0 0 0 0 0 0 0 0 0 0 0 0 0 0 0 0 0 0 0 0 0 0 0 0 0 0 0 0 0 0 0 0 0 0 0 0 0 0 0 77 77 75 75 -193 -193 -193 77 77 75 77 78 77 76 77 77 77 76 75 74 73 73 73 72 73 72 73 73 73 75 78 76 77 76 78 79 77 76 77 75 75 75 75 75 74 75 76 75 76 77 78 77 78 77 78 78 78 77 77 77 76 76 77 76 75 75 76 75 77 78 79 77 77 75 79 78 75 76 76 76 76 76 77 75 75 77 76 76 75 75 73 73 73 73 73 74 74 74 74 75 75 75 74 74 74 73 72 72 72 71 74 74 74 75 75 75 75 75 75 74 74 72 72 73 73 74 74 74 78 76 76 77 76 76 77 76 76 74 75 75 73 73 76 75 75 75 75 76 76 77 77 76 78 78 78 80 79 79 78 79 77 78 80 80 80 80 82 80 80 80 80 79 78 78 78 77 79 78 77 79 78 79 79 79 79 79 79 81 79 81 79 78 78 84 94 96 96 102 101 101 102 102 102 101 101 101 91 91 87 83 82 84 83 82 79 84 85 -193 -209 -209 -209 -209 -193 -193 82 79 77 78 81 83 89 -177 -177 -177 138 137 -193 -193 -193 -193 -193 -193 -193 -193 -193 -209 0 0 0 0 0
    0 0 0 0 0 0 0 0 0 0 0 0 0 0 0 0 0 0 0 0 0 0 0 0 0 0 0 0 0 0 0 0 0 0 0 0 0 0 0 0 0 0 0 0 0 0 0 0 0 0 0 0 0 0 0 0 0 0 0 0 0 0 0 0 0 0 0 0 0 77 77 76 76 -193 -193 -193 78 78 76 78 78 77 76 77 77 77 77 76 75 74 74 74 73 73 73 73 74 74 76 80 78 79 77 79 80 78 77 78 76 77 76 76 76 75 76 77 75 77 77 78 78 78 77 79 79 79 78 78 78 77 77 78 76 76 76 78 76 78 80 81 78 78 77 80 79 76 77 77 77 77 77 77 76 76 77 76 76 76 76 74 74 75 75 75 75 75 75 75 76 77 76 75 75 74 74 73 74 73 73 75 75 76 76 76 76 75 75 75 74 74 73 73 73 73 74 74 74 79 77 77 77 77 77 78 77 77 75 75 76 75 74 78 76 77 76 76 77 77 78 78 77 79 78 79 81 79 79 79 80 78 78 80 81 80 81 83 80 81 80 80 79 78 79 78 77 79 79 78 80 79 80 80 80 81 81 81 83 82 84 83 82 80 86 96 95 96 102 100 100 101 101 101 -177 101 100 91 92 88 84 84 84 84 83 82 85 85 -193 -209 86 -193 -209 -193 -193 86 85 83 83 86 86 -193 -177 -177 -193 139 138 146 -193 -193 141 -193 719 718 -193 -193 -193 0 0 0 0 0
    0 0 0 0 0 0 0 0 0 0 0 0 0 0 0 0 0 0 0 0 0 0 0 0 0 0 0 0 0 0 0 0 0 0 0 0 0 0 0 0 0 0 0 0 0 0 0 0 0 0 0 0 0 0 0 0 0 0 0 0 0 0 0 0 0 0 0 0 0 78 78 77 76 80 79 80 80 80 78 79 79 78 77 78 78 78 77 77 76 75 75 75 74 74 74 74 75 75 76 81 78 80 78 80 82 79 78 79 77 78 77 77 77 76 77 78 76 77 77 78 78 78 78 80 80 79 78 79 79 78 78 78 77 77 78 79 77 79 82 82 78 78 77 80 80 77 77 77 77 78 78 78 77 76 78 77 77 77 77 75 75 76 76 76 77 76 76 76 77 77 77 76 76 75 75 74 76 74 75 77 76 77 77 78 78 77 77 76 75 76 74 74 73 73 74 74 74 79 76 77 77 77 77 78 77 78 75 77 78 76 75 80 76 78 77 76 78 78 78 78 78 79 79 79 82 79 81 81 82 80 80 82 83 81 82 83 81 82 80 80 79 78 78 78 77 79 79 79 81 80 81 81 81 82 82 82 84 82 84 83 83 81 86 94 93 96 102 99 100 101 101 100 -177 100 100 90 93 88 84 84 84 83 83 82 84 84 85 86 85 87 -209 -193 -193 88 88 86 85 88 87 -193 -177 150 151 139 138 144 -193 -193 140 -193 718 718 721 -177 119 0 0 0 0 0
    0 0 0 0 0 0 0 0 0 0 0 0 0 0 0 0 0 0 0 0 0 0 0 0 0 0 0 0 0 0 0 0 0 0 0 0 0 0 0 0 0 0 0 0 0 0 0 0 0 0 0 0 0 0 0 0 0 0 0 0 0 0 0 0 0 0 0 0 0 79 79 78 77 83 82 83 82 82 80 81 80 79 78 80 78 79 78 78 76 77 76 76 75 75 75 75 76 77 77 80 79 79 78 80 82 79 78 80 78 79 78 78 78 76 77 79 77 77 77 78 78 78 78 81 80 79 79 80 79 79 78 79 77 77 79 80 78 80 83 83 78 79 77 79 81 77 78 78 78 78 78 78 77 76 79 77 77 77 77 76 76 77 76 77 78 77 77 77 78 78 78 78 77 76 76 76 77 76 76 80 78 79 79 80 79 78 79 78 76 77 75 75 74 74 75 74 75 79 77 77 78 78 78 80 78 78 76 78 78 77 77 81 77 79 77 77 79 78 78 79 78 80 79 80 82 80 82 82 83 80 82 84 84 82 83 83 81 82 80 80 79 78 78 78 77 79 78 78 81 80 81 81 82 83 82 83 84 83 84 84 84 83 86 94 92 96 102 99 100 101 101 100 -177 -177 100 91 94 89 84 84 84 82 83 81 83 83 84 85 84 88 89 87 88 89 89 89 87 89 -193 -193 149 149 150 139 138 -193 -193 -193 -193 -193 718 719 721 -177 118 0 0 0 0 0
    0 0 0 0 0 0 0 0 0 0 0 0 0 0 0 0 0 0 0 0 0 0 0 0 0 0 0 0 0 0 0 0 0 0 0 0 0 0 0 0 0 0 0 0 0 0 0 0 0 0 0 0 0 0 0 0 0 0 0 0 0 0 0 0 0 0 0 0 0 79 79 79 78 84 82 84 83 83 81 81 80 80 79 81 79 79 79 78 77 78 77 77 76 76 75 76 76 78 77 80 79 79 79 81 82 80 79 80 79 80 79 79 78 77 78 79 77 77 77 78 78 79 78 82 81 79 79 80 80 79 79 80 78 78 81 81 80 81 84 83 79 79 78 80 81 78 78 78 78 78 79 79 77 76 79 77 77 77 78 77 77 78 77 78 79 78 77 78 78 78 78 78 77 77 77 77 78 78 79 83 81 82 82 83 82 80 80 79 78 78 77 76 75 75 75 75 75 78 77 78 78 79 79 80 79 79 77 78 79 78 78 81 77 79 77 76 79 78 78 78 79 80 79 80 82 79 82 83 83 80 83 85 84 83 83 84 82 83 81 80 79 79 79 79 77 79 78 79 82 81 82 82 83 83 83 84 85 84 85 85 86 85 88 93 91 96 102 99 100 101 101 101 -177 -177 101 92 96 92 85 84 83 82 82 80 82 82 83 84 83 87 87 87 87 89 89 90 88 90 89 -193 -177 -177 145 137 137 -193 -177 -177 -193 718 718 719 721 -177 118 0 0 0 0 0
    0 0 0 0 0 0 0 0 0 0 0 0 0 0 0 0 0 0 0 0 0 0 0 0 0 0 0 0 0 0 0 0 0 0 0 0 0 0 0 0 0 0 0 0 0 0 0 0 0 0 0 0 0 0 0 0 0 0 0 0 0 0 0 0 0 0 0 0 0 80 80 79 78 84 83 84 84 83 82 82 80 80 80 81 80 79 79 78 77 78 78 77 76 76 76 76 76 78 78 80 79 79 79 81 82 80 80 80 80 81 80 81 79 78 79 80 79 78 78 78 78 80 79 83 82 79 80 80 80 80 79 80 78 78 82 82 81 83 85 85 80 81 80 81 82 78 78 79 78 79 79 78 77 76 78 77 77 77 78 77 77 78 77 80 79 78 78 78 78 79 78 79 76 77 77 77 79 79 81 83 82 83 84 85 83 82 82 80 79 79 78 77 75 76 76 76 75 78 78 79 79 80 81 81 80 79 78 79 80 79 79 81 78 80 78 77 81 78 79 78 79 80 79 81 82 79 83 83 84 81 84 85 84 84 84 86 83 84 82 81 80 80 80 80 77 80 78 79 83 82 83 83 83 84 84 84 86 85 86 86 86 86 88 93 91 97 103 100 101 102 102 102 101 -177 103 93 99 95 84 83 82 81 82 80 82 82 83 84 83 86 86 86 86 88 88 89 89 89 89 101 -177 -177 136 136 136 -193 -193 -193 -193 -177 718 719 721 -193 118 0 0 0 0 0
    0 0 0 0 0 0 0 0 0 0 0 0 0 0 0 0 0 0 0 0 0 0 0 0 0 0 0 0 0 0 0 0 0 0 0 0 0 0 0 0 0 0 0 0 0 0 0 0 0 0 0 0 0 0 0 0 0 0 0 0 0 0 0 0 0 0 0 0 0 80 80 80 79 84 83 84 84 83 83 82 81 81 81 82 80 80 80 78 78 79 78 78 77 76 77 77 78 79 78 80 79 80 80 82 83 81 81 81 81 82 81 82 80 78 81 81 80 78 78 79 80 82 81 85 83 80 81 81 81 81 80 81 78 79 83 82 82 83 84 85 81 81 81 83 83 79 80 80 79 79 80 79 78 77 79 77 77 78 78 77 78 78 78 80 79 78 78 79 78 79 79 79 76 77 78 78 79 79 81 83 83 83 84 85 83 82 82 81 80 79 79 77 76 77 76 76 76 78 79 80 81 81 83 82 81 80 79 80 81 80 80 80 78 81 80 79 83 79 79 79 81 80 80 81 82 79 83 84 84 82 86 86 85 84 85 86 83 85 83 83 82 82 82 82 79 83 79 81 84 83 84 84 85 85 85 86 86 86 86 87 87 87 88 93 92 98 103 101 102 103 102 102 102 -177 104 95 100 98 84 83 82 81 82 81 82 83 84 84 84 86 86 86 86 89 88 89 89 90 89 101 -193 -177 133 134 136 -193 -193 -193 -193 -193 717 718 721 118 117 0 0 0 0 0
    0 0 0 0 0 0 0 0 0 0 0 0 0 0 0 0 0 0 0 0 0 0 0 0 0 0 0 0 0 0 0 0 0 0 0 0 0 0 0 0 0 0 0 0 0 0 0 0 0 0 0 0 0 0 0 0 0 0 0 0 0 0 0 0 0 0 0 0 0 81 80 80 79 84 83 84 84 83 83 82 82 82 82 83 82 81 81 79 80 81 80 79 78 77 79 79 80 80 80 81 80 80 81 83 83 81 81 81 82 83 82 82 80 78 81 81 81 79 79 81 82 83 83 85 84 82 82 82 82 82 81 82 79 80 83 83 82 82 83 84 81 80 81 83 83 80 81 80 80 80 81 80 78 77 80 78 78 79 79 78 79 79 78 81 80 79 79 79 79 79 79 80 77 79 79 79 81 82 83 85 84 84 85 85 84 83 83 82 80 80 80 78 77 78 78 78 78 80 81 82 83 83 84 83 82 81 81 81 82 81 82 80 79 82 82 80 84 79 79 79 82 81 81 82 82 79 84 85 85 82 86 87 86 85 86 86 83 85 83 83 83 84 84 83 81 84 81 84 86 85 85 85 86 86 86 87 87 86 86 87 88 88 89 93 91 98 104 102 103 104 103 103 103 105 106 97 101 100 89 85 84 83 83 83 83 84 84 84 84 86 86 87 87 90 89 90 90 90 89 102 -209 -177 132 134 136 134 134 -193 134 -193 -193 -177 -177 117 117 0 0 0 0 0
    0 0 0 0 0 0 0 0 0 0 0 0 0 0 0 0 0 0 0 0 0 0 0 0 0 0 0 0 0 0 0 0 0 0 0 0 0 0 0 0 0 0 0 0 0 0 0 0 0 0 0 0 0 0 0 0 0 0 0 0 0 0 0 0 0 0 0 0 0 81 81 80 79 84 82 83 83 83 84 83 83 83 83 83 83 82 82 79 81 82 81 80 81 79 82 82 83 83 82 83 83 81 82 84 84 82 82 82 83 83 83 83 81 80 82 83 82 80 81 84 84 85 86 87 85 83 84 84 84 83 82 82 80 81 84 83 82 82 83 83 81 81 81 83 83 80 81 81 80 81 81 81 79 79 81 79 79 81 81 80 81 81 79 81 81 80 80 80 80 80 80 82 79 81 82 81 83 84 85 86 85 85 85 86 84 83 84 83 81 81 81 80 78 80 80 78 78 81 82 82 83 83 85 84 82 82 82 82 83 82 83 81 81 84 84 83 85 79 79 80 83 81 81 82 83 80 84 85 85 82 87 87 86 85 86 86 84 85 84 84 84 85 85 84 83 86 83 86 88 87 87 86 88 87 87 88 87 87 87 87 88 89 90 92 91 98 104 103 104 104 104 104 105 106 107 99 102 101 90 87 85 84 85 84 83 84 84 85 84 86 87 87 88 92 90 91 91 92 91 102 -209 -177 131 133 137 134 134 -193 134 -193 -193 -177 -177 116 116 0 0 0 0 0
    0 0 0 0 0 0 0 0 0 0 0 0 0 0 0 0 0 0 0 0 0 0 0 0 0 0 0 0 0 0 0 0 0 0 0 0 0 0 0 0 0 0 0 0 0 0 0 0 0 0 0 0 0 0 0 0 0 0 0 0 0 0 0 0 0 0 0 0 0 81 81 81 79 83 82 83 83 83 84 84 84 84 84 84 84 83 83 80 82 83 83 81 83 80 83 84 85 85 84 84 85 83 84 85 85 83 83 83 85 85 85 85 84 83 85 85 85 82 84 87 87 87 89 88 86 85 86 85 85 85 84 83 81 82 84 83 82 82 83 83 81 81 82 84 83 82 82 82 81 82 82 82 79 81 83 80 81 82 82 81 82 82 80 82 81 80 81 81 82 81 82 83 81 83 84 83 85 85 86 87 86 86 86 86 85 84 85 84 82 82 83 81 80 81 81 79 79 82 82 82 84 84 85 84 83 83 83 83 84 83 84 83 84 85 86 85 86 80 81 82 84 82 82 83 83 81 85 85 85 84 88 88 87 87 87 88 85 86 85 85 85 86 86 86 85 87 86 88 90 89 89 88 90 89 89 89 88 87 87 88 88 90 90 92 91 99 104 104 105 105 105 105 106 107 108 100 101 100 90 88 84 84 85 85 84 85 85 85 85 88 88 89 90 93 92 93 93 94 94 102 -209 -193 129 133 138 134 134 -193 -193 -193 -193 -177 -177 116 116 0 0 0 0 0
    0 0 0 0 0 0 0 0 0 0 0 0 0 0 0 0 0 0 0 0 0 0 0 0 0 0 0 0 0 0 0 0 0 0 0 0 0 0 0 0 0 0 0 0 0 0 0 0 0 0 0 0 0 0 0 0 0 0 0 0 0 0 0 0 0 0 0 0 0 82 81 81 79 83 82 84 83 84 85 84 85 85 86 86 85 85 85 82 84 84 83 82 83 81 84 85 85 86 86 85 86 84 85 86 85 85 84 84 86 86 86 87 86 85 87 87 87 85 86 -209 89 88 91 90 88 87 87 87 86 86 85 83 81 82 84 83 82 82 82 82 81 81 82 85 84 83 84 84 83 83 83 83 80 83 84 82 83 83 83 83 83 83 81 82 82 82 83 82 83 83 83 84 83 85 84 84 86 87 87 87 87 87 87 87 86 85 86 85 83 83 84 83 82 82 82 79 80 83 83 84 86 85 86 85 84 84 84 84 85 84 85 84 85 86 86 86 86 80 82 82 85 82 82 84 84 82 85 85 86 85 89 89 88 88 88 88 87 87 86 86 86 86 87 87 86 89 88 89 91 90 92 91 93 91 90 90 88 87 88 88 89 91 91 93 92 99 104 105 105 106 105 106 107 108 109 102 102 101 91 88 83 82 85 86 85 86 86 86 87 89 89 89 90 94 92 93 93 94 93 102 -209 -209 127 133 139 -193 -193 -193 717 -177 -177 -177 -177 116 115 0 0 0 0 0
    0 0 0 0 0 0 0 0 0 0 0 0 0 0 0 0 0 0 0 0 0 0 0 0 0 0 0 0 0 0 0 0 0 0 0 0 0 0 0 0 0 0 0 0 0 0 0 0 0 0 0 0 0 0 0 0 0 0 0 0 0 0 0 0 0 0 0 0 0 82 82 82 80 83 83 85 84 85 86 85 86 87 86 87 86 86 86 84 86 86 85 84 85 84 86 87 87 87 87 86 87 85 86 87 86 85 85 85 87 86 87 88 86 86 87 87 87 86 86 -193 89 89 92 90 89 88 88 87 87 87 86 83 82 82 84 83 82 81 81 82 81 81 82 85 84 84 85 84 84 84 84 84 82 85 86 84 85 85 84 84 84 84 82 83 82 83 83 83 84 84 84 85 84 86 85 86 87 88 87 88 87 87 87 87 86 85 87 86 85 85 85 84 83 84 83 80 82 84 85 86 88 87 88 86 86 85 85 85 86 84 86 85 86 86 86 86 86 81 83 83 85 82 82 84 84 83 86 86 86 86 89 89 89 89 89 89 87 87 86 87 87 87 88 87 88 90 89 90 91 91 94 93 95 95 93 95 90 89 90 90 91 93 93 94 93 100 104 104 105 -177 105 106 107 108 109 103 103 102 92 -209 77 76 83 86 85 88 87 87 88 89 89 90 90 93 92 92 93 93 94 102 -209 -209 126 133 141 -193 -193 718 718 -177 -177 -193 -177 117 115 0 0 0 0 0
    0 0 0 0 0 0 0 0 0 0 0 0 0 0 0 0 0 0 0 0 0 0 0 0 0 0 0 0 0 0 0 0 0 0 0 0 0 0 0 0 0 0 0 0 0 0 0 0 0 0 0 0 0 0 0 0 0 0 0 0 0 0 0 0 0 0 0 0 0 83 83 83 81 84 84 86 85 85 87 86 86 87 87 87 87 87 88 86 88 88 87 87 88 87 88 89 89 89 89 88 89 86 86 87 86 87 86 86 87 86 87 88 87 87 87 87 87 87 88 90 89 89 92 91 90 89 89 88 88 88 87 84 83 83 84 84 82 82 81 82 83 82 82 85 84 85 86 85 85 85 85 86 83 87 87 86 86 86 86 85 85 85 83 83 82 83 84 83 84 84 84 85 85 86 85 86 88 89 88 88 88 88 88 87 87 86 87 86 86 86 86 85 85 85 85 81 83 85 86 87 89 89 89 87 86 86 85 86 86 85 86 85 86 86 86 86 86 81 84 84 85 83 83 85 85 84 86 86 87 87 89 89 89 88 89 89 88 88 87 88 88 88 89 88 89 91 91 91 93 92 95 94 97 96 96 98 93 92 92 93 93 95 94 94 94 100 103 104 104 105 105 106 107 108 108 103 103 102 95 100 -209 -209 89 97 -193 93 88 88 88 90 90 91 91 93 91 92 92 93 94 102 -209 -209 125 134 142 -193 -193 -193 -193 -177 -177 -193 -193 116 115 0 0 0 0 0
    0 0 0 0 0 0 0 0 0 0 0 0 0 0 0 0 0 0 0 0 0 0 0 0 0 0 0 0 0 0 0 0 0 0 0 0 0 0 0 0 0 0 0 0 0 0 0 0 0 0 0 0 0 0 0 0 0 0 0 0 0 0 0 0 0 0 0 0 0 86 85 85 85 87 86 -193 86 86 88 86 87 -193 -193 88 88 88 88 87 89 89 88 88 89 89 89 89 89 89 90 89 89 87 87 88 87 87 87 86 87 86 88 88 87 87 88 88 88 89 89 91 90 90 94 91 91 90 90 89 89 89 89 85 84 84 84 84 82 82 81 82 83 83 82 86 85 86 86 86 86 86 86 87 85 88 89 87 88 87 86 86 86 86 84 83 83 84 84 84 85 85 84 86 86 86 84 87 88 89 88 88 87 88 88 88 87 86 88 87 87 87 87 86 86 86 86 82 84 85 86 86 89 89 89 87 86 86 86 86 87 86 86 86 86 86 86 86 86 82 84 84 85 83 83 86 86 85 87 87 87 87 89 89 89 88 89 89 88 89 88 89 89 89 90 90 91 92 92 93 93 93 95 95 97 95 96 96 92 91 93 93 93 96 95 94 94 100 102 103 103 104 104 106 106 107 107 103 103 102 95 98 97 93 94 97 97 99 96 93 93 94 93 93 93 95 92 92 93 94 -193 -209 -193 -209 125 134 144 138 138 139 139 -193 -177 140 -193 116 115 0 0 0 0 0
    0 0 0 0 0 0 0 0 0 0 0 0 0 0 0 0 0 0 0 0 0 0 0 0 0 0 0 0 0 0 0 0 0 0 0 0 0 0 0 0 0 0 0 0 0 0 0 0 0 0 0 0 0 0 0 0 0 0 0 0 0 0 0 0 0 0 0 0 0 90 88 88 88 88 87 -193 87 87 88 87 -193 -193 -193 89 88 88 89 88 89 90 89 89 89 89 89 90 89 89 90 89 89 87 87 87 87 87 87 86 87 86 88 88 88 88 89 89 89 90 91 93 91 90 95 92 91 91 90 90 90 90 90 86 85 85 84 84 81 81 79 81 82 83 82 86 85 86 87 86 87 86 87 88 86 89 90 89 89 88 87 87 87 86 85 83 84 85 85 85 85 85 85 86 87 86 84 87 88 88 88 88 87 88 88 88 87 87 88 87 88 88 87 87 87 86 86 83 85 86 86 86 89 89 88 88 87 87 86 87 87 86 87 86 86 86 86 86 85 83 85 84 85 84 84 86 86 86 87 88 87 88 89 89 89 89 90 90 89 90 91 91 91 91 92 91 92 93 93 93 93 93 95 94 96 94 96 94 92 92 94 94 94 97 96 95 94 100 102 102 102 103 103 105 106 106 106 103 103 100 94 97 97 94 95 97 100 101 99 98 97 97 96 95 95 97 92 93 93 96 -193 -177 -209 -209 126 135 144 138 138 140 139 139 -193 140 -193 116 114 0 0 0 0 0
    0 0 0 0 0 0 0 0 0 0 0 0 0 0 0 0 0 0 0 0 0 0 0 0 0 0 0 0 0 0 0 0 0 0 0 0 0 0 0 0 0 0 0 0 0 0 0 0 0 0 0 0 0 0 0 0 0 0 0 0 0 0 0 0 0 0 0 0 0 91 89 91 90 89 -193 -193 -209 88 90 88 -193 -193 -193 89 89 89 90 89 90 90 89 89 89 89 90 90 90 89 90 88 89 87 87 87 86 87 87 86 88 86 89 89 89 89 89 89 90 91 92 94 91 91 96 92 92 92 90 90 90 90 91 85 86 85 84 85 81 81 80 81 82 83 82 86 85 86 -193 87 87 87 87 88 87 90 91 89 89 88 87 87 87 87 85 84 85 86 85 86 87 86 86 87 88 87 84 88 88 88 88 87 87 87 88 88 88 87 88 87 88 88 87 87 87 86 86 82 85 86 86 87 90 91 89 89 88 88 87 88 88 87 88 87 87 87 86 87 85 84 86 85 85 85 85 87 87 87 87 88 87 88 88 89 89 89 90 90 91 91 92 93 93 92 93 92 94 93 93 93 93 93 95 94 96 94 97 96 97 97 98 99 98 99 98 96 96 100 101 101 102 102 103 104 105 105 105 104 103 100 96 97 98 97 98 100 103 103 102 101 100 100 99 98 98 98 93 94 95 -193 -193 -209 -209 -209 125 135 143 138 138 139 139 139 -193 139 -193 115 113 0 0 0 0 0
    0 0 0 0 0 0 0 0 0 0 0 0 0 0 0 0 0 0 0 0 0 0 0 0 0 0 0 0 0 0 0 0 0 0 0 0 0 0 0 0 0 0 0 0 0 0 0 0 0 0 0 0 0 0 0 0 0 0 0 0 0 0 0 0 0 0 0 0 0 92 91 93 92 92 -193 -193 -193 90 92 90 89 90 -193 90 89 89 90 89 90 90 89 89 89 89 90 90 90 90 90 89 90 88 88 88 87 87 88 87 88 87 89 90 90 90 90 90 90 91 93 94 92 91 96 92 92 92 91 90 90 91 91 85 87 86 85 86 85 85 87 86 87 86 85 -193 -193 -193 -193 -193 -193 -193 -193 89 88 90 91 89 90 88 88 87 87 87 86 85 86 87 86 86 87 87 87 87 88 87 85 89 89 88 88 87 87 87 88 88 88 87 89 87 88 88 88 87 87 87 86 83 87 88 87 88 90 91 89 90 88 89 88 89 89 -193 -193 -193 -193 -193 87 88 86 85 87 86 86 87 87 89 87 88 88 88 87 88 89 89 89 90 91 91 91 92 93 93 93 93 94 93 95 93 94 94 94 94 95 95 96 95 98 97 98 99 99 100 100 100 99 97 96 101 100 100 101 101 102 102 103 104 102 103 103 96 95 95 -193 -209 99 101 106 106 104 104 103 102 102 101 100 98 93 95 96 -209 -193 -209 -209 -209 128 135 140 137 138 139 138 138 -193 138 -193 115 113 0 0 0 0 0
    0 0 0 0 0 0 0 0 0 0 0 0 0 0 0 0 0 0 0 0 0 0 0 0 0 0 0 0 0 0 0 0 0 0 0 0 0 0 0 0 0 0 0 0 0 0 0 0 0 0 0 0 0 0 0 0 0 0 0 0 0 0 0 0 0 0 0 0 0 92 93 95 94 94 95 96 95 92 94 90 89 90 90 90 90 90 90 90 90 91 90 89 89 89 90 91 92 91 92 91 92 90 89 89 88 88 89 88 88 87 89 90 90 91 90 90 91 92 93 93 92 91 96 93 93 93 91 91 91 91 91 86 88 87 87 90 90 88 92 90 91 88 87 -193 -193 -193 -193 88 -193 -193 89 90 89 91 92 90 90 89 88 88 88 88 87 86 87 88 86 87 88 88 88 88 89 88 86 90 90 88 88 88 87 88 88 88 88 87 89 87 88 89 88 88 88 88 88 87 89 90 89 90 90 91 89 90 88 88 88 89 90 -193 89 89 -193 -193 88 89 87 87 89 88 88 89 89 91 88 88 88 88 88 88 89 90 89 90 91 91 92 92 94 94 93 94 95 94 96 94 95 95 95 96 96 96 97 96 98 98 98 99 99 100 100 100 100 98 97 101 100 100 101 101 101 100 102 102 98 103 103 95 94 96 99 101 99 101 105 106 104 104 103 102 102 101 101 97 94 96 99 -209 -209 -209 -209 134 133 136 139 137 137 138 138 138 137 137 117 115 113 0 0 0 0 0
    0 0 0 0 0 0 0 0 0 0 0 0 0 0 0 0 0 0 0 0 0 0 0 0 0 0 0 0 0 0 0 0 0 0 0 0 0 0 0 0 0 0 0 0 0 0 0 0 0 0 0 0 0 0 0 0 0 0 0 0 0 0 0 0 0 0 0 0 0 94 96 97 94 95 95 97 97 94 95 91 89 90 90 90 90 90 91 90 90 91 90 90 89 89 91 92 94 93 94 93 93 92 91 90 89 88 89 88 88 87 89 89 90 91 90 90 91 93 94 92 91 91 95 92 92 92 91 90 91 91 91 86 89 88 89 92 93 91 94 92 92 90 88 91 -193 89 89 89 89 89 90 91 89 91 93 91 91 90 89 89 88 88 87 86 87 88 87 87 89 89 89 89 90 89 87 90 91 88 88 88 -193 87 88 88 88 87 89 88 88 89 89 90 89 90 90 89 91 92 91 91 90 91 89 90 88 88 88 89 90 -193 90 90 -193 89 89 90 89 89 90 89 89 90 90 91 88 88 88 88 88 88 89 89 89 90 92 92 92 93 95 95 94 94 95 95 96 94 96 96 96 97 97 98 98 98 100 100 101 101 102 102 102 102 102 100 100 102 100 99 101 100 100 99 101 101 96 104 104 99 100 100 -209 -193 99 100 104 104 103 104 103 103 102 102 102 99 95 99 -193 -193 -209 -209 128 135 134 136 137 136 136 137 137 136 135 132 118 115 113 0 0 0 0 0
    0 0 0 0 0 0 0 0 0 0 0 0 0 0 0 0 0 0 0 0 0 0 0 0 0 0 0 0 0 0 0 0 0 0 0 0 0 0 0 0 0 0 0 0 0 0 0 0 0 0 0 0 0 0 0 0 0 0 0 0 0 0 0 0 0 0 0 0 0 100 99 99 96 97 98 98 98 96 96 91 90 91 91 91 91 90 92 91 91 92 90 90 -193 90 93 94 96 94 95 94 94 93 92 90 89 88 89 88 88 86 88 89 89 90 90 90 91 94 93 90 90 90 94 92 92 91 90 90 91 90 90 86 88 88 89 92 94 92 95 92 92 90 89 92 89 89 89 89 90 89 90 91 89 91 93 91 91 90 89 89 88 88 87 86 87 88 87 88 89 89 89 90 90 90 88 90 91 88 88 88 -193 87 87 88 87 87 90 88 89 89 89 91 90 91 91 90 92 93 92 91 90 90 89 90 88 88 88 90 90 90 91 91 90 90 91 91 90 91 92 91 90 91 92 91 89 89 88 89 88 88 89 90 90 91 92 92 93 93 95 95 95 94 95 95 97 94 96 96 96 98 97 99 99 99 102 102 103 104 106 106 107 110 107 103 102 103 100 100 101 100 100 99 100 101 95 105 105 -193 103 -193 -193 -209 99 99 104 -193 -193 103 103 103 103 102 104 101 -193 -193 -177 -209 -209 132 133 136 135 136 136 136 135 135 135 134 130 127 119 116 113 0 0 0 0 0
    0 0 0 0 0 0 0 0 0 0 0 0 0 0 0 0 0 0 0 0 0 0 0 0 0 0 0 0 0 0 0 0 0 0 0 0 0 0 0 0 0 0 0 0 0 0 0 0 0 0 0 0 0 0 0 0 0 0 0 0 0 0 0 0 0 0 0 0 0 -209 103 101 97 99 -193 99 100 99 98 93 91 95 94 92 93 92 94 93 93 -193 -209 -209 874 877 879 -193 96 94 95 94 95 95 93 91 90 88 90 88 88 85 -209 -209 -209 -193 90 89 91 95 92 89 89 89 93 91 91 91 89 89 90 89 90 85 88 88 89 92 95 92 95 93 93 90 89 93 90 90 89 89 90 90 90 91 89 91 93 92 91 -193 89 -209 -193 -209 -209 86 88 90 87 88 90 90 90 90 90 90 87 90 90 86 -193 87 -193 -193 86 87 87 88 90 89 89 89 89 92 91 92 91 91 92 93 92 91 89 90 88 89 87 87 88 90 -193 90 91 91 90 91 92 92 91 92 93 92 91 92 92 91 89 88 88 88 87 88 89 89 90 91 92 92 93 94 95 95 95 94 96 96 97 94 97 97 97 98 98 99 99 101 104 104 105 107 108 110 111 117 116 104 104 104 100 100 101 100 100 99 101 101 97 105 111 -209 107 -193 125 -209 -209 99 -193 101 101 102 103 104 103 104 109 -209 -209 -209 -209 -209 -209 135 134 136 135 136 135 135 134 134 134 133 127 125 119 117 113 0 0 0 0 0
    0 0 0 0 0 0 0 0 0 0 0 0 0 0 0 0 0 0 0 0 0 0 0 0 0 0 0 0 0 0 0 0 0 0 0 0 0 0 0 0 0 0 0 0 0 0 0 0 0 0 0 0 0 0 0 0 0 0 0 0 0 0 0 0 0 0 0 0 0 -209 -209 102 98 100 -193 -193 -193 101 -193 -209 -193 -209 -209 97 100 99 -209 -209 -209 -209 -209 -209 875 878 879 -193 -209 -193 -193 94 96 95 94 92 91 -209 -209 -209 -209 -209 -209 -209 -209 -209 -209 -209 -209 -209 -209 -193 -193 89 92 91 90 90 87 88 90 -193 -209 84 -193 88 90 93 97 93 95 93 94 90 90 95 91 90 90 89 91 91 91 92 89 92 96 94 -193 -193 -209 -209 -209 -209 -209 -209 88 91 88 89 92 91 91 91 91 91 88 90 -193 -193 -209 -193 -193 85 85 86 88 89 92 89 90 90 90 93 92 92 91 91 93 93 92 92 89 89 88 89 87 87 -193 90 -193 91 92 92 92 92 94 93 92 94 95 93 93 93 93 92 -193 -193 87 88 87 88 89 89 90 92 93 93 94 95 96 96 96 95 97 97 97 94 97 98 97 99 99 100 100 103 105 105 107 110 112 115 117 120 121 117 107 106 100 100 101 100 100 99 101 102 98 107 120 -193 -193 126 130 -209 -209 -209 -209 -209 100 102 -193 107 -193 111 -193 -209 217 -209 -193 139 137 137 136 -193 135 136 135 135 134 133 133 131 126 124 119 117 114 0 0 0 0 0
    0 0 0 0 0 0 0 0 0 0 0 0 0 0 0 0 0 0 0 0 0 0 0 0 0 0 0 0 0 0 0 0 0 0 0 0 0 0 0 0 0 0 0 0 0 0 0 0 0 0 0 0 0 0 0 0 0 0 0 0 0 0 0 0 0 0 0 0 0 -209 -209 -209 -193 -193 -193 -193 -193 -193 -209 -209 -209 -209 -209 -209 -193 -209 -209 -193 -209 -209 -209 -209 876 879 879 -193 -193 -209 -193 -193 -209 96 96 -193 -193 -209 844 845 847 -209 -209 135 135 136 138 137 -209 138 143 -209 -209 -209 -209 -209 -209 -209 79 76 -209 447 -193 -193 -177 -209 -209 96 100 94 96 93 94 89 -193 -209 -193 92 91 90 93 93 93 93 90 92 98 -193 -209 -209 -209 -209 -209 -209 -209 -209 -209 -193 -209 90 95 95 94 94 93 93 -209 -209 -193 -193 -209 -209 -209 -209 82 86 90 91 95 92 91 92 90 95 93 93 92 92 94 94 93 93 90 89 88 88 86 86 -209 -209 -209 -193 -193 -193 94 95 98 97 95 97 98 96 96 95 94 93 -209 -209 -193 88 87 88 89 90 91 92 93 94 94 95 97 97 97 96 99 99 98 94 98 -193 98 101 100 100 101 104 107 107 109 113 115 117 119 121 122 121 117 115 101 101 102 101 101 100 102 103 -209 114 124 127 127 130 130 131 -193 -209 133 -209 -209 -209 -209 -209 -209 -209 132 -209 -209 -193 138 138 137 136 136 136 135 136 134 134 133 132 133 131 125 123 120 118 114 0 0 0 0 0
    0 0 0 0 0 0 0 0 0 0 0 0 0 0 0 0 0 0 0 0 0 0 0 0 0 0 0 0 0 0 0 0 0 0 0 0 0 0 0 0 0 0 0 0 0 0 0 0 0 0 0 0 0 0 0 0 0 0 0 0 0 0 0 0 0 0 0 0 0 -193 -209 -209 -193 -209 -209 -209 -177 -193 -193 -193 -193 -193 127 127 -193 131 -193 -209 -209 -209 136 -209 -193 -193 -193 135 136 -209 -209 -209 -209 -209 -193 -193 840 842 842 844 845 -193 136 136 135 136 137 137 137 138 143 -193 146 -193 -193 -209 -209 -209 -209 70 -209 451 -193 -193 -193 -209 -209 -209 -209 94 -193 -193 -193 -209 -209 137 -209 -193 -209 94 98 99 -193 95 90 93 -193 -193 -193 -209 -193 -209 -209 -209 -209 -193 -209 -209 -209 -193 101 101 -193 -209 -209 -209 967 970 -193 -193 -193 -193 -193 -209 -193 -193 -209 -193 -193 -193 95 95 92 97 95 94 94 93 96 94 94 94 90 90 -209 -209 -209 -209 143 -193 -193 -193 -209 -209 -209 -209 -209 100 98 99 101 98 99 -193 -209 -193 -209 -209 -209 88 88 88 90 91 92 93 94 94 95 96 97 97 99 98 101 -193 -193 -193 -209 135 133 -193 -209 -193 102 108 110 110 112 115 116 118 120 122 123 122 121 121 102 102 103 102 103 102 104 -209 -209 121 128 131 130 131 130 132 -193 -209 135 -209 -209 -209 -209 127 132 128 134 -209 134 136 137 137 136 135 135 135 135 135 134 135 133 132 133 131 124 122 120 118 114 0 0 0 0 0
    0 0 0 0 0 0 0 0 0 0 0 0 0 0 0 0 0 0 0 0 0 0 0 0 0 0 0 0 0 0 0 0 0 0 0 0 0 0 0 0 0 0 0 0 0 0 0 0 0 0 0 0 0 0 0 0 0 0 0 0 0 0 0 0 0 0 0 0 0 124 122 -193 -177 -209 -209 -209 -177 -177 -193 -193 -193 130 131 131 127 133 135 135 136 134 135 136 135 136 135 135 135 -193 -209 -209 -209 -209 -209 -209 840 843 842 843 844 133 136 136 136 136 137 137 137 138 141 -193 144 147 148 -209 -193 -209 -209 -209 -209 -209 -193 133 136 137 135 -193 -209 -209 -209 -209 -209 -209 134 136 135 129 131 -209 -193 -209 131 -209 -177 -209 132 132 133 133 133 -193 -193 -209 -209 -193 -193 -193 -209 -209 -193 123 -209 -209 -209 -209 -209 -193 -209 -209 -209 -209 -209 -209 135 135 136 136 136 130 128 -193 -193 100 97 97 96 96 98 96 96 96 91 -209 -209 -193 -193 139 140 140 140 140 139 143 -209 -193 -193 -209 -209 -209 -209 -193 101 -209 -209 -209 -209 -209 -209 -193 92 90 92 93 95 93 94 95 96 96 97 98 99 99 103 -177 -193 136 135 135 134 133 134 126 105 116 116 114 116 117 118 120 121 124 124 123 123 122 -193 -193 116 -193 109 -193 124 131 131 130 132 133 133 133 131 133 128 132 137 -193 -209 -209 138 135 135 133 135 135 135 136 137 136 136 135 135 135 135 135 134 135 133 133 134 132 124 122 120 118 115 0 0 0 0 0
    0 0 0 0 0 0 0 0 0 0 0 0 0 0 0 0 0 0 0 0 0 0 0 0 0 0 0 0 0 0 0 0 0 0 0 0 0 0 0 0 0 0 0 0 0 0 0 0 0 0 0 0 0 0 0 0 0 0 0 0 0 0 0 0 0 0 0 0 0 126 124 -193 -209 -209 -209 -209 -193 -193 -193 -193 134 133 134 133 130 133 134 135 135 133 134 135 134 135 135 135 134 134 134 -209 -209 -209 -193 -193 -193 -209 -193 842 -209 134 137 136 136 136 137 137 137 138 140 139 142 145 146 144 141 142 141 -209 -209 -209 135 134 136 137 136 136 137 136 135 137 136 133 133 134 134 130 132 133 129 131 132 133 -193 128 134 134 135 135 135 135 135 -193 -193 -193 -193 132 133 127 124 127 -209 125 130 -193 -209 -193 -209 -209 -209 136 138 137 137 137 137 137 137 133 132 131 133 -193 99 99 99 98 100 98 98 99 -209 -209 -209 138 138 139 139 139 139 139 139 141 140 138 137 137 -209 -209 -209 -209 -193 -209 -193 -209 -209 -209 -209 133 -209 -209 -209 96 -209 96 96 96 98 98 98 99 100 101 -209 132 135 136 136 136 135 134 135 132 -209 -193 120 118 119 120 120 122 123 125 125 124 125 124 124 122 124 126 125 132 133 136 135 134 134 134 133 133 131 132 129 133 137 140 -209 139 140 137 137 135 137 136 135 136 137 136 136 135 135 135 136 135 135 135 133 133 134 132 124 123 122 120 116 0 0 0 0 0
    0 0 0 0 0 0 0 0 0 0 0 0 0 0 0 0 0 0 0 0 0 0 0 0 0 0 0 0 0 0 0 0 0 0 0 0 0 0 0 0 0 0 0 0 0 0 0 0 0 0 0 0 0 0 0 0 0 0 0 0 0 0 0 0 0 0 0 0 0 129 126 131 -193 -209 -209 136 -193 -193 134 135 135 135 134 134 131 133 133 134 134 133 134 134 134 135 135 135 134 134 134 -193 133 132 130 131 131 132 133 -193 135 135 137 137 136 136 137 137 137 137 139 138 140 143 145 143 140 142 141 -193 138 136 135 134 136 136 135 134 135 135 134 136 135 133 133 134 134 131 133 134 132 133 134 134 133 132 136 135 135 135 135 135 135 135 134 134 134 133 134 130 128 130 132 131 134 -209 -193 -193 -209 -193 138 137 138 137 137 137 137 137 137 134 133 132 133 134 -193 101 101 100 -193 -209 -193 -193 -209 -209 137 138 138 139 139 139 139 139 139 141 139 138 137 137 136 134 133 129 123 125 -193 -209 -193 133 -193 136 137 137 137 -193 130 -209 97 98 98 99 99 99 101 -209 132 134 136 136 136 136 135 135 135 134 134 132 123 120 122 123 123 124 123 126 125 125 126 125 126 126 132 135 136 137 136 137 136 136 136 135 133 133 133 135 135 138 142 143 140 142 142 139 139 137 138 136 136 136 137 136 136 135 136 135 135 134 133 135 132 133 134 132 124 124 124 124 118 0 0 0 0 0
    0 0 0 0 0 0 0 0 0 0 0 0 0 0 0 0 0 0 0 0 0 0 0 0 0 0 0 0 0 0 0 0 0 0 0 0 0 0 0 0 0 0 0 0 0 0 0 0 0 0 0 0 0 0 0 0 0 0 0 0 0 0 0 0 0 0 0 0 0 131 129 133 134 134 135 136 135 135 135 135 135 135 134 134 132 134 133 134 134 133 134 134 134 135 134 135 134 133 135 133 134 133 131 132 133 133 134 135 135 135 137 136 136 136 136 137 137 137 138 137 139 141 142 141 139 141 140 139 138 136 136 134 135 135 135 134 135 135 135 136 135 134 134 135 135 132 134 134 133 134 135 135 134 134 137 136 136 136 135 135 135 135 135 135 134 134 134 132 131 133 134 134 136 136 135 136 -193 137 137 137 138 137 137 137 136 137 137 134 134 133 134 134 135 134 135 135 137 137 137 137 -193 137 138 138 139 139 139 139 139 139 139 140 138 137 137 137 136 135 134 132 127 130 132 -193 133 134 136 137 137 137 137 134 132 134 135 -193 -193 -193 -209 -209 -193 137 135 135 136 136 136 136 136 135 136 135 135 135 128 123 125 126 125 125 124 126 126 126 128 128 129 131 136 138 138 138 137 137 137 136 136 136 133 135 135 137 138 141 145 144 142 142 141 139 139 136 137 135 135 136 136 136 136 136 137 136 135 135 134 136 134 134 136 134 130 132 131 132 123 0 0 0 0 0
    0 0 0 0 0 0 0 0 0 0 0 0 0 0 0 0 0 0 0 0 0 0 0 0 0 0 0 0 0 0 0 0 0 0 0 0 0 0 0 0 0 0 0 0 0 0 0 0 0 0 0 0 0 0 0 0 0 0 0 0 0 0 0 0 0 0 0 0 0 132 130 133 135 135 135 136 135 135 135 135 135 135 134 134 132 133 133 134 134 132 134 134 134 135 135 135 135 134 135 134 134 134 133 133 133 134 135 135 136 135 137 136 135 135 136 136 136 136 137 137 138 140 141 141 139 140 140 139 138 136 136 134 135 135 135 134 135 135 135 136 135 134 134 134 135 133 133 134 133 134 135 135 135 135 137 137 136 136 136 135 135 135 135 135 134 134 135 133 133 134 135 135 136 136 136 137 137 137 137 137 138 137 137 137 136 137 137 135 135 134 135 134 134 134 135 135 136 137 137 137 137 137 138 138 139 139 139 139 138 139 139 140 138 137 136 136 136 136 135 134 131 133 134 134 135 136 137 137 138 137 137 135 134 135 136 134 134 134 -193 136 137 138 136 136 136 136 136 135 135 135 135 135 134 134 128 124 127 128 128 127 125 129 129 130 132 132 133 135 137 141 138 138 137 137 137 137 137 136 134 136 137 138 140 143 147 146 144 144 142 140 141 138 138 135 135 136 136 136 136 136 136 135 137 137 137 140 141 140 142 142 141 143 144 145 142 0 0 0 0 0
    0 0 0 0 0 0 0 0 0 0 0 0 0 0 0 0 0 0 0 0 0 0 0 0 0 0 0 0 0 0 0 0 0 0 0 0 0 0 0 0 0 0 0 0 0 0 0 0 0 0 0 0 0 0 0 0 0 0 0 0 0 0 0 0 0 0 0 0 0 133 131 134 136 135 136 136 136 135 135 136 135 134 134 134 132 133 133 133 134 132 134 134 134 135 135 135 135 134 135 134 135 135 133 134 134 134 135 135 135 135 136 135 135 135 135 136 135 135 137 136 138 140 140 140 139 140 140 139 138 137 135 134 134 135 135 134 135 134 135 135 135 134 134 134 135 133 134 134 133 135 136 136 136 135 137 138 137 137 136 135 135 135 135 135 134 134 135 134 134 135 136 136 137 137 137 137 137 137 137 137 137 136 137 136 135 136 136 135 135 134 135 134 134 134 135 134 135 136 135 136 136 137 138 138 139 139 139 139 139 139 139 140 137 137 136 136 136 136 135 134 133 134 135 135 136 136 137 137 138 137 136 135 134 135 136 135 135 135 -193 137 138 139 138 136 136 136 135 135 135 134 134 134 132 134 128 126 129 130 131 130 128 132 132 133 134 135 135 137 139 144 139 138 138 137 137 137 137 137 133 136 138 139 140 143 146 145 144 144 142 141 142 139 138 135 135 136 136 135 135 135 136 133 137 139 139 145 147 147 148 148 147 149 149 150 149 0 0 0 0 0
    0 0 0 0 0 0 0 0 0 0 0 0 0 0 0 0 0 0 0 0 0 0 0 0 0 0 0 0 0 0 0 0 0 0 0 0 0 0 0 0 0 0 0 0 0 0 0 0 0 0 0 0 0 0 0 0 0 0 0 0 0 0 0 0 0 0 0 0 0 134 132 135 137 135 136 136 136 135 135 135 135 134 134 134 133 133 133 133 134 132 134 134 134 135 134 135 135 134 135 134 135 135 134 134 134 134 134 134 135 134 136 135 135 135 135 136 135 135 137 136 138 140 140 140 138 141 142 141 140 138 136 135 135 135 135 135 135 134 134 136 135 133 133 134 135 133 133 134 133 135 136 136 136 135 137 138 137 137 136 136 135 135 135 135 135 135 136 134 135 136 136 136 137 137 136 137 136 136 136 136 137 136 136 136 134 136 135 134 135 134 134 133 133 133 134 134 134 136 134 135 136 136 138 138 139 139 139 139 139 139 139 139 137 136 136 136 135 135 135 134 133 134 135 135 136 136 136 137 137 137 136 135 134 135 136 136 136 136 136 138 138 139 138 136 135 135 135 135 135 134 134 134 132 135 129 128 131 133 133 132 131 133 135 136 136 137 137 138 140 146 140 139 138 138 137 137 137 137 133 137 138 139 140 144 145 145 144 144 142 142 144 141 138 135 134 135 135 134 134 133 134 131 137 138 141 147 147 148 148 149 148 150 149 149 149 0 0 0 0 0
    0 0 0 0 0 0 0 0 0 0 0 0 0 0 0 0 0 0 0 0 0 0 0 0 0 0 0 0 0 0 0 0 0 0 0 0 0 0 0 0 0 0 0 0 0 0 0 0 0 0 0 0 0 0 0 0 0 0 0 0 0 0 0 0 0 0 0 0 0 135 133 135 137 136 135 136 136 135 135 135 135 134 134 134 133 132 133 133 134 132 134 134 133 134 134 134 135 134 135 135 135 135 134 135 134 134 134 134 135 134 136 135 135 135 135 136 135 135 136 135 137 139 139 139 138 140 143 143 142 140 138 136 136 -193 136 135 135 133 134 135 134 132 132 133 134 132 133 134 133 135 135 136 136 135 137 138 137 138 137 136 136 136 136 136 136 136 136 135 136 136 136 136 137 137 137 137 136 137 137 137 137 136 136 136 133 135 135 134 134 133 134 132 132 133 133 133 133 135 133 135 135 136 137 138 139 139 138 139 138 139 138 139 137 136 135 135 135 135 135 134 133 134 134 134 135 135 135 136 136 136 135 134 134 134 136 136 136 136 136 137 138 139 137 136 135 135 135 135 135 134 134 134 133 135 130 130 132 134 135 133 133 134 136 138 137 138 138 140 141 147 140 139 139 138 138 138 138 138 135 138 139 139 141 144 145 145 144 144 142 143 145 143 139 135 135 136 135 133 133 133 134 132 138 139 145 148 148 148 149 150 149 150 150 148 148 0 0 0 0 0
    0 0 0 0 0 0 0 0 0 0 0 0 0 0 0 0 0 0 0 0 0 0 0 0 0 0 0 0 0 0 0 0 0 0 0 0 0 0 0 0 0 0 0 0 0 0 0 0 0 0 0 0 0 0 0 0 0 0 0 0 0 0 0 0 0 0 0 0 0 135 134 135 137 135 135 136 136 135 135 135 135 134 134 135 133 132 133 133 133 132 134 134 133 134 134 134 135 134 135 135 135 136 134 135 134 133 134 134 135 134 135 135 134 135 135 -193 -193 135 136 134 136 138 138 138 136 138 140 141 141 140 138 136 -193 -193 -193 135 135 134 134 135 133 132 131 133 134 132 133 134 133 135 135 136 136 134 138 138 138 138 138 137 137 136 137 136 136 136 137 136 136 136 136 136 137 137 137 137 137 137 137 137 137 136 136 135 133 135 134 134 134 133 133 131 131 132 132 132 132 134 132 134 135 136 137 138 138 139 138 139 138 138 138 138 136 136 135 135 134 134 134 133 133 133 134 133 135 134 134 135 136 136 135 134 134 134 136 135 136 135 135 137 138 138 137 -193 135 135 135 135 135 134 134 134 133 135 131 132 134 135 135 134 134 135 138 139 138 140 140 141 143 148 141 140 140 139 139 138 138 138 136 140 141 140 141 145 145 145 145 144 143 145 146 145 141 138 137 137 136 134 135 134 134 135 140 142 148 148 149 148 149 150 149 150 150 148 149 0 0 0 0 0
    0 0 0 0 0 0 0 0 0 0 0 0 0 0 0 0 0 0 0 0 0 0 0 0 0 0 0 0 0 0 0 0 0 0 0 0 0 0 0 0 0 0 0 0 0 0 0 0 0 0 0 0 0 0 0 0 0 0 0 0 0 0 0 0 0 0 0 0 0 135 134 135 137 136 135 136 136 135 135 135 136 135 135 135 134 132 134 134 134 133 134 134 134 135 134 135 135 135 135 136 135 136 135 135 133 133 134 133 135 134 135 135 134 135 135 -193 -193 135 135 133 135 137 137 138 135 138 139 140 140 139 137 136 -193 -193 -193 136 135 134 134 135 133 132 131 132 134 132 133 134 133 135 135 136 136 134 137 138 137 138 137 136 136 136 137 137 137 137 137 136 137 137 136 136 137 136 136 137 136 136 136 137 137 135 135 135 133 135 133 134 133 132 132 130 130 132 132 132 131 134 132 134 135 137 137 138 138 139 138 139 138 138 138 137 136 135 135 134 134 134 134 133 133 133 134 133 134 133 134 135 135 136 135 134 135 135 136 135 135 135 135 136 137 138 137 -193 135 136 136 135 135 135 135 134 133 135 131 132 133 134 134 134 134 135 138 139 139 141 142 143 144 149 141 140 140 140 139 139 139 139 137 140 141 140 141 145 145 146 145 144 145 146 148 147 143 142 141 141 140 138 138 137 138 140 146 145 150 148 148 148 149 149 149 149 149 147 149 0 0 0 0 0
    0 0 0 0 0 0 0 0 0 0 0 0 0 0 0 0 0 0 0 0 0 0 0 0 0 0 0 0 0 0 0 0 0 0 0 0 0 0 0 0 0 0 0 0 0 0 0 0 0 0 0 0 0 0 0 0 0 0 0 0 0 0 0 0 0 0 0 0 0 135 134 135 137 136 135 136 136 135 135 135 135 134 135 135 134 133 134 134 134 134 135 135 134 135 135 135 135 135 135 136 136 137 136 136 135 135 135 134 135 134 135 135 134 134 135 -193 -193 134 135 133 135 138 138 138 137 139 139 141 140 140 138 137 -193 -193 -193 136 135 134 134 135 133 132 131 132 135 132 133 134 133 135 135 136 136 133 137 138 137 138 138 137 136 137 138 137 138 138 138 137 137 137 136 136 136 136 136 136 135 136 135 136 136 135 135 134 132 134 132 134 133 132 132 128 130 131 131 131 130 133 132 134 135 137 137 138 138 139 138 139 138 138 138 136 135 135 134 134 133 134 134 132 133 133 134 134 134 134 134 135 135 136 135 134 134 135 136 136 135 135 134 136 137 138 137 -193 136 137 136 136 135 135 135 134 133 135 130 132 133 134 134 133 134 135 138 139 140 142 143 143 144 148 141 140 140 140 139 139 139 139 137 141 142 141 142 146 146 146 146 145 146 148 149 149 143 145 145 145 146 145 142 143 142 -193 152 148 150 148 148 148 149 149 148 149 150 148 151 0 0 0 0 0
    0 0 0 0 0 0 0 0 0 0 0 0 0 0 0 0 0 0 0 0 0 0 0 0 0 0 0 0 0 0 0 0 0 0 0 0 0 0 0 0 0 0 0 0 0 0 0 0 0 0 0 0 0 0 0 0 0 0 0 0 0 0 0 0 0 0 0 0 0 135 134 135 138 136 135 136 137 136 135 136 136 134 135 135 135 133 134 134 134 135 135 136 135 135 135 135 -193 135 -209 -209 136 139 138 138 137 136 136 135 136 134 135 134 134 134 134 -193 -193 134 134 132 135 138 138 138 137 139 140 141 141 140 138 137 -193 -193 -193 136 135 134 134 135 133 132 131 132 135 133 133 134 133 135 136 136 136 133 137 138 138 139 139 138 137 138 139 138 138 138 138 137 137 136 135 135 136 135 135 136 135 135 135 136 136 135 135 134 132 134 131 134 132 131 131 128 129 130 129 130 128 132 132 133 135 136 137 138 138 138 138 139 138 138 137 136 134 134 134 133 133 133 133 132 134 134 134 134 135 134 135 135 135 136 135 135 135 135 136 136 135 135 134 136 137 138 138 137 136 137 136 136 135 135 135 134 133 134 131 131 133 134 133 133 134 135 138 139 139 141 142 143 143 147 141 140 140 140 139 139 138 139 137 141 141 141 142 146 146 146 146 146 147 149 149 149 145 148 150 150 151 153 152 151 151 154 152 149 151 149 149 149 149 150 149 150 150 148 152 0 0 0 0 0
    0 0 0 0 0 0 0 0 0 0 0 0 0 0 0 0 0 0 0 0 0 0 0 0 0 0 0 0 0 0 0 0 0 0 0 0 0 0 0 0 0 0 0 0 0 0 0 0 0 0 0 0 0 0 0 0 0 0 0 0 0 0 0 0 0 0 0 0 0 136 -209 -209 -209 -209 -193 138 -193 -209 136 136 136 134 135 135 135 133 134 134 135 135 136 -193 135 135 135 135 -193 135 -209 137 137 140 139 139 137 137 136 135 136 134 135 134 134 134 134 135 134 134 134 132 134 137 137 138 137 139 139 141 141 140 139 138 138 -193 -193 138 135 134 134 135 133 131 129 132 136 133 134 134 134 136 136 137 137 133 138 138 139 140 140 140 139 139 140 138 138 138 137 136 136 136 135 135 135 135 135 136 135 135 135 136 136 135 135 133 131 133 129 133 130 129 130 127 128 129 128 129 127 131 131 132 134 136 136 138 138 138 137 138 137 137 137 136 134 135 134 133 133 134 133 132 134 133 134 134 135 135 135 135 136 136 136 136 135 135 136 136 135 135 134 137 137 138 138 137 136 137 136 136 136 135 135 134 134 135 132 133 134 135 135 134 135 136 138 139 140 141 142 143 144 147 141 140 140 140 139 139 138 139 138 141 141 142 142 146 146 147 146 147 148 150 149 151 149 153 153 153 154 155 155 154 154 155 155 153 153 150 150 150 150 151 150 150 150 148 152 0 0 0 0 0
    0 0 0 0 0 0 0 0 0 0 0 0 0 0 0 0 0 0 0 0 0 0 0 0 0 0 0 0 0 0 0 0 0 0 0 0 0 0 0 0 0 0 0 0 0 0 0 0 0 0 0 0 0 0 0 0 0 0 0 0 0 0 0 0 0 0 0 0 0 -209 -209 -209 -209 -209 -209 141 -193 -209 -193 137 137 135 -193 -193 136 133 135 136 -193 -209 -193 -193 135 -193 -193 -193 -209 -193 -209 137 136 140 140 138 137 137 136 135 -193 135 135 134 134 134 134 134 134 134 -193 -193 -193 -209 136 137 -193 138 138 139 140 140 139 139 139 -209 -209 140 135 135 135 135 132 130 128 132 136 133 134 135 134 136 137 137 137 -193 -193 138 -193 141 142 141 141 141 142 139 139 138 137 136 136 136 135 135 135 135 135 135 135 135 135 136 136 135 135 133 132 133 -193 -193 128 128 128 126 128 129 127 128 127 131 132 132 134 135 136 138 -193 138 137 138 137 137 138 136 135 135 134 134 133 134 133 132 133 133 133 134 135 135 135 135 136 136 136 137 136 136 136 136 136 135 134 137 137 138 138 138 136 137 136 136 136 135 135 135 135 136 -193 -193 137 137 137 136 136 137 138 139 142 142 142 143 144 146 140 140 141 140 139 139 138 139 138 140 140 141 142 146 146 147 147 147 148 150 149 151 151 154 154 154 155 156 157 156 156 156 156 156 156 151 151 150 151 151 150 150 150 149 153 0 0 0 0 0
    0 0 0 0 0 0 0 0 0 0 0 0 0 0 0 0 0 0 0 0 0 0 0 0 0 0 0 0 0 0 0 0 0 0 0 0 0 0 0 0 0 0 0 0 0 0 0 0 0 0 0 0 0 0 0 0 0 0 0 0 0 0 0 0 0 0 0 0 0 -209 -209 -209 -209 -209 -209 -193 -193 -209 -193 138 138 136 -193 -193 137 134 136 137 -209 -209 -193 -193 135 134 134 -193 -193 -193 -209 -209 137 143 144 138 -193 138 136 135 -209 134 136 135 134 134 133 134 134 134 -193 -193 -193 -193 135 -209 -209 137 -193 -193 138 139 137 138 138 -209 -209 142 -209 136 -209 -193 133 131 129 133 140 135 136 136 135 137 138 138 138 653 -193 -193 -193 143 145 142 143 143 144 140 139 139 137 136 136 135 135 134 135 135 135 135 135 135 135 136 136 135 135 133 133 134 -193 -209 126 127 127 127 129 130 127 129 130 133 134 134 136 137 137 -193 -193 -193 -193 138 137 137 138 135 135 135 134 133 134 134 133 132 133 133 133 134 135 135 135 135 136 137 136 137 136 137 136 137 136 135 134 137 138 138 138 138 136 137 136 136 136 136 136 135 136 137 -209 -193 138 138 138 138 139 138 139 141 145 146 146 145 145 146 141 141 142 141 140 140 139 140 139 141 141 141 142 146 146 147 147 148 149 150 150 152 153 154 154 155 156 156 157 157 157 156 157 158 156 152 152 151 151 152 151 151 152 152 156 0 0 0 0 0
    0 0 0 0 0 0 0 0 0 0 0 0 0 0 0 0 0 0 0 0 0 0 0 0 0 0 0 0 0 0 0 0 0 0 0 0 0 0 0 0 0 0 0 0 0 0 0 0 0 0 0 0 0 0 0 0 0 0 0 0 0 0 0 0 0 0 0 0 0 -209 -209 -209 -193 155 -193 -193 -193 -209 -193 139 140 137 137 138 138 136 137 138 -209 -209 -193 136 134 134 134 135 -193 -209 -193 -209 147 152 156 155 154 154 155 -209 -209 -209 -193 -193 134 133 134 134 134 -193 -193 690 -193 -209 -193 -193 -193 -193 133 -193 137 137 -193 138 -193 149 152 146 -209 -209 -209 -209 -209 -209 132 135 145 138 138 137 137 139 140 140 140 654 -193 -193 -193 148 148 146 147 146 147 141 139 138 136 136 136 135 135 134 135 135 135 135 135 135 135 136 136 136 136 135 135 -193 -193 -209 -193 129 129 128 129 130 129 131 134 136 136 137 138 139 139 -193 -193 -193 -193 139 138 137 139 135 135 135 134 134 134 134 134 132 134 134 134 135 136 136 136 136 137 138 137 138 138 138 138 138 137 136 136 138 139 138 139 138 137 137 137 136 137 136 136 135 137 137 -193 -193 139 139 140 140 143 141 144 146 150 150 150 148 147 147 141 141 142 141 140 140 139 140 140 141 142 142 143 146 147 148 147 148 150 150 150 153 154 155 155 157 157 157 158 158 157 157 158 160 156 152 152 151 151 152 151 152 153 154 157 0 0 0 0 0
    0 0 0 0 0 0 0 0 0 0 0 0 0 0 0 0 0 0 0 0 0 0 0 0 0 0 0 0 0 0 0 0 0 0 0 0 0 0 0 0 0 0 0 0 0 0 0 0 0 0 0 0 0 0 0 0 0 0 0 0 0 0 0 0 0 0 0 0 0 -209 -209 -193 156 156 155 153 153 -193 146 145 146 141 140 141 140 137 138 143 -209 -209 140 141 136 137 137 140 -209 -209 308 -209 -193 156 160 159 159 158 158 158 157 157 155 -209 -209 -193 -193 -193 -193 -193 -209 693 698 -193 -209 -209 -209 -193 -193 137 138 138 -193 -193 -193 -193 -193 149 152 147 -193 -209 -209 -209 135 136 148 140 139 139 139 142 143 145 143 652 -193 -209 150 152 152 150 150 149 149 142 140 138 136 136 136 135 135 134 135 135 134 135 134 134 135 136 136 136 136 136 138 -193 -193 -193 -193 -193 -193 -209 -193 132 134 135 137 142 143 143 143 143 145 147 144 147 143 143 141 141 144 136 136 136 135 134 135 135 135 133 135 135 135 137 139 138 138 138 139 141 140 140 142 144 145 149 147 143 144 147 151 144 143 141 138 138 137 136 137 137 137 136 137 138 138 138 141 140 142 143 149 146 148 149 152 152 152 150 148 146 142 141 143 141 140 140 139 140 141 142 143 143 144 147 148 148 148 149 150 151 151 155 156 157 156 158 158 159 159 159 158 159 159 163 158 154 154 152 152 153 152 153 155 155 159 0 0 0 0 0
    0 0 0 0 0 0 0 0 0 0 0 0 0 0 0 0 0 0 0 0 0 0 0 0 0 0 0 0 0 0 0 0 0 0 0 0 0 0 0 0 0 0 0 0 0 0 0 0 0 0 0 0 0 0 0 0 0 0 0 0 0 0 0 0 0 0 0 0 0 158 157 157 157 158 157 155 154 154 153 151 151 151 149 -193 -209 -209 -177 -209 -209 -209 -193 153 -193 -193 154 154 157 -209 -193 -193 -193 161 162 161 162 160 160 161 159 159 158 157 156 -209 -209 -193 137 139 -209 -193 707 -193 716 -193 -193 -193 -193 141 144 144 144 147 -209 -209 -209 152 154 152 154 -193 -209 -209 -209 142 152 147 145 144 144 148 149 151 149 -209 -193 155 153 155 154 153 153 151 151 144 140 138 137 136 137 135 -193 135 135 135 135 135 135 134 135 136 136 136 137 139 141 145 -209 -193 -193 -193 154 -193 -209 -209 142 147 144 150 151 149 149 149 151 -193 151 153 152 151 151 151 152 148 138 139 136 135 136 -193 -193 -193 136 139 139 141 147 146 143 142 144 147 147 148 150 152 153 155 154 154 154 154 155 154 152 150 140 141 139 137 138 137 137 137 137 140 139 139 143 144 148 148 153 153 153 153 154 154 155 154 152 149 144 143 145 142 141 141 140 141 141 143 144 144 146 148 149 149 149 150 151 152 152 156 157 158 157 159 159 159 160 160 159 160 159 164 159 156 157 155 153 155 154 155 157 158 162 0 0 0 0 0
    0 0 0 0 0 0 0 0 0 0 0 0 0 0 0 0 0 0 0 0 0 0 0 0 0 0 0 0 0 0 0 0 0 0 0 0 0 0 0 0 0 0 0 0 0 0 0 0 0 0 0 0 0 0 0 0 0 0 0 0 0 0 0 0 0 0 0 0 0 159 158 159 158 158 158 155 155 156 155 153 154 154 154 -193 -193 -193 -193 -193 -209 -193 154 155 -193 156 156 156 159 -193 -193 -193 -193 162 162 161 163 161 161 162 160 160 159 159 159 155 -193 -209 143 151 -209 -209 713 -209 -193 725 -193 -193 -193 145 149 -209 151 152 -193 155 -193 154 156 155 156 159 158 -209 -209 153 155 153 152 153 151 152 153 154 154 -209 154 157 155 157 156 155 155 153 153 148 141 139 138 137 138 -209 -209 -193 -193 136 -193 136 136 135 136 137 137 137 139 144 149 152 153 155 156 156 157 157 156 -193 154 155 153 154 155 153 154 153 155 157 155 157 156 154 154 154 154 153 145 146 140 136 140 -193 145 -209 145 152 151 150 152 152 151 149 150 152 152 153 153 155 155 157 157 156 156 157 157 157 155 155 149 150 145 139 139 137 138 138 139 143 143 142 148 150 153 151 155 155 155 155 156 156 157 156 156 152 147 146 148 144 142 142 141 142 143 145 146 146 147 150 150 150 151 152 152 152 154 158 158 159 158 159 159 159 160 160 159 160 158 163 160 158 160 158 156 158 157 158 159 160 162 0 0 0 0 0
    0 0 0 0 0 0 0 0 0 0 0 0 0 0 0 0 0 0 0 0 0 0 0 0 0 0 0 0 0 0 0 0 0 0 0 0 0 0 0 0 0 0 0 0 0 0 0 0 0 0 0 0 0 0 0 0 0 0 0 0 0 0 0 0 0 0 0 0 0 159 159 159 157 158 159 156 156 156 156 156 156 157 157 157 158 157 157 -193 157 157 155 155 156 156 156 156 158 161 162 164 163 162 163 162 164 162 161 162 160 161 160 160 160 157 156 -193 -209 -193 -209 -209 -193 -193 -193 -193 -193 -193 -193 148 152 -193 156 156 157 156 157 156 158 158 158 161 160 159 156 155 157 156 155 155 154 154 155 156 156 154 155 157 156 157 156 155 156 154 154 152 143 141 -193 -209 -193 -209 -209 -209 -193 -193 -209 137 137 136 138 139 139 139 144 150 154 155 155 157 157 158 158 158 158 156 156 158 155 156 157 156 157 156 158 159 158 159 158 156 157 156 156 154 153 152 153 153 153 153 154 154 154 155 155 154 155 155 154 153 153 154 154 155 155 157 157 159 158 158 158 158 158 159 156 157 154 155 154 148 147 140 140 141 145 151 151 151 153 154 155 154 157 157 156 156 157 157 158 157 157 154 151 149 150 147 144 145 144 144 145 147 148 149 149 151 152 152 152 153 153 153 155 159 158 160 158 160 160 160 160 160 158 160 158 163 160 160 163 161 157 160 160 160 162 161 161 0 0 0 0 0
    0 0 0 0 0 0 0 0 0 0 0 0 0 0 0 0 0 0 0 0 0 0 0 0 0 0 0 0 0 0 0 0 0 0 0 0 0 0 0 0 0 0 0 0 0 0 0 0 0 0 0 0 0 0 0 0 0 0 0 0 0 0 0 0 0 0 0 0 0 159 158 159 157 158 159 156 156 156 156 156 156 157 157 157 158 157 158 158 158 158 156 156 157 157 157 156 159 161 162 164 163 162 162 161 163 161 160 161 159 160 159 159 160 157 158 158 156 159 -193 157 157 156 156 155 155 156 156 153 154 156 157 158 158 157 157 156 158 158 159 161 159 160 158 157 159 158 157 157 156 157 157 158 159 156 156 158 157 158 157 156 157 156 157 161 152 152 -209 -209 -193 -209 -209 -209 -209 -209 -193 -193 140 137 140 145 144 145 149 154 157 156 156 158 157 158 159 159 158 157 158 159 156 158 159 157 159 157 159 159 159 160 159 158 159 158 158 156 156 155 157 155 155 156 156 157 156 156 157 156 156 156 156 155 155 156 156 156 156 160 158 159 159 158 160 159 159 160 157 159 156 157 156 154 154 153 153 151 153 154 153 154 155 155 156 155 157 157 157 157 158 158 158 158 159 156 154 152 152 149 147 147 148 148 148 149 151 151 151 153 154 153 154 154 154 155 156 160 159 160 158 159 159 159 159 159 158 159 157 163 161 160 164 162 158 161 161 161 163 162 161 0 0 0 0 0
    0 0 0 0 0 0 0 0 0 0 0 0 0 0 0 0 0 0 0 0 0 0 0 0 0 0 0 0 0 0 0 0 0 0 0 0 0 0 0 0 0 0 0 0 0 0 0 0 0 0 0 0 0 0 0 0 0 0 0 0 0 0 0 0 0 0 0 0 0 158 157 158 156 156 158 156 155 156 156 157 157 157 157 157 158 157 159 158 158 158 157 156 158 158 158 157 160 162 162 164 163 163 163 161 163 161 160 160 159 160 159 159 160 158 159 159 158 161 160 158 158 157 157 156 156 157 156 154 156 157 158 160 159 158 157 157 158 159 159 161 159 160 159 158 160 159 158 158 157 158 157 158 159 157 156 158 156 158 157 157 157 158 161 164 162 159 161 157 159 158 156 156 155 157 -193 -193 -209 -209 -193 -193 152 153 152 158 160 157 157 159 157 159 159 159 158 157 158 160 157 159 160 158 160 158 160 160 160 160 160 159 160 158 159 157 159 157 159 158 157 159 159 158 158 157 158 158 157 157 157 156 157 157 157 158 156 160 158 159 159 159 160 160 159 160 158 159 158 158 158 156 156 155 155 155 156 156 156 156 156 156 157 156 158 158 158 158 158 159 159 159 160 157 156 154 154 151 150 150 151 152 151 152 153 153 155 157 156 155 154 154 155 155 157 160 158 159 158 159 159 159 159 159 157 159 156 161 158 158 162 160 157 160 162 161 164 163 163 0 0 0 0 0
    0 0 0 0 0 0 0 0 0 0 0 0 0 0 0 0 0 0 0 0 0 0 0 0 0 0 0 0 0 0 0 0 0 0 0 0 0 0 0 0 0 0 0 0 0 0 0 0 0 0 0 0 0 0 0 0 0 0 0 0 0 0 0 0 0 0 0 0 0 158 157 158 156 156 157 155 156 156 157 157 157 157 158 157 158 157 160 159 158 159 158 157 159 158 159 158 160 162 162 163 163 163 163 161 164 160 160 160 159 160 159 159 160 157 159 159 158 161 160 158 158 157 157 157 157 158 156 155 158 158 158 161 159 158 158 157 159 159 160 162 159 161 159 158 160 159 158 158 157 158 157 159 159 156 156 157 156 157 156 157 158 159 162 163 164 163 164 162 162 161 159 159 158 159 158 156 157 -193 155 159 155 155 154 160 161 157 157 159 158 159 160 159 158 157 159 161 158 160 160 158 160 159 161 160 160 160 160 160 160 159 159 157 159 157 159 158 157 159 159 159 158 158 159 158 158 158 158 157 158 158 158 158 156 160 158 159 159 158 160 159 158 160 157 159 158 159 159 157 158 157 157 159 159 158 158 158 158 158 159 157 160 159 159 159 159 159 159 159 160 158 158 156 156 154 153 154 155 155 155 155 156 156 157 158 157 155 155 155 156 157 158 162 158 160 158 159 159 159 159 159 156 159 156 159 155 155 156 155 154 155 157 156 161 162 163 0 0 0 0 0
    0 0 0 0 0 0 0 0 0 0 0 0 0 0 0 0 0 0 0 0 0 0 0 0 0 0 0 0 0 0 0 0 0 0 0 0 0 0 0 0 0 0 0 0 0 0 0 0 0 0 0 0 0 0 0 0 0 0 0 0 0 0 0 0 0 0 0 0 0 157 156 158 156 155 157 155 156 155 156 157 157 156 157 156 158 157 160 159 158 158 158 158 159 158 159 158 160 162 162 163 163 162 163 162 164 160 160 160 159 160 159 159 159 157 158 158 157 161 159 158 158 157 157 157 157 158 156 155 158 158 158 160 159 158 157 157 159 159 159 161 159 161 159 158 161 159 158 159 158 159 158 159 160 157 158 158 156 158 156 158 158 158 160 161 162 162 163 161 161 160 159 159 158 159 158 156 157 156 157 159 156 156 155 161 161 158 158 159 158 159 160 160 159 158 160 161 159 161 161 159 161 159 161 160 161 160 160 160 160 158 159 157 158 157 159 158 158 159 159 159 158 158 159 158 158 158 158 157 158 159 158 158 157 160 158 159 159 158 160 159 158 159 157 159 158 158 158 158 158 158 158 160 160 159 159 159 158 158 158 157 159 158 159 159 159 159 159 159 160 158 157 156 156 157 157 157 159 158 158 157 159 159 158 158 158 155 155 155 157 157 159 163 158 160 159 160 159 159 159 158 155 159 156 158 154 155 157 159 156 161 165 165 166 168 168 0 0 0 0 0
    0 0 0 0 0 0 0 0 0 0 0 0 0 0 0 0 0 0 0 0 0 0 0 0 0 0 0 0 0 0 0 0 0 0 0 0 0 0 0 0 0 0 0 0 0 0 0 0 0 0 0 0 0 0 0 0 0 0 0 0 0 0 0 0 0 0 0 0 0 157 156 157 156 155 157 155 155 155 156 157 157 156 157 156 158 157 160 158 158 158 158 158 159 158 159 158 160 161 161 163 163 163 162 162 164 160 160 160 159 159 159 159 159 157 158 157 157 161 159 158 158 158 157 158 157 158 156 156 159 159 158 160 159 159 158 158 159 159 159 162 159 161 159 158 161 159 159 159 158 159 158 159 161 157 159 159 157 158 157 158 158 157 158 159 160 161 162 159 160 159 159 159 158 159 158 157 159 158 159 161 158 158 156 162 161 158 158 160 158 160 160 160 159 158 160 162 159 161 161 160 161 160 162 161 161 160 160 159 160 158 159 157 158 157 159 158 158 159 160 160 159 158 160 159 158 159 158 157 158 159 159 158 157 160 158 158 158 158 159 159 158 159 157 159 158 158 158 158 158 158 158 160 160 159 159 159 158 157 158 156 159 158 158 158 159 159 159 159 160 157 157 156 156 157 157 158 159 159 159 158 160 160 159 159 158 156 156 157 159 158 160 163 158 160 159 160 159 159 159 158 155 160 156 159 156 158 163 165 165 167 172 171 172 173 172 0 0 0 0 0
    0 0 0 0 0 0 0 0 0 0 0 0 0 0 0 0 0 0 0 0 0 0 0 0 0 0 0 0 0 0 0 0 0 0 0 0 0 0 0 0 0 0 0 0 0 0 0 0 0 0 0 0 0 0 0 0 0 0 0 0 0 0 0 0 0 0 0 0 0 157 156 157 156 155 157 155 156 156 157 158 157 156 157 157 158 157 159 158 158 158 158 158 159 159 159 158 160 160 161 162 161 162 161 160 164 159 160 159 158 159 158 158 158 156 158 157 156 161 159 158 158 158 157 158 157 159 157 157 160 160 159 162 160 160 158 158 160 160 160 162 160 162 159 158 162 159 159 159 158 159 158 160 161 157 160 159 157 159 158 158 158 157 157 158 159 160 160 158 158 158 158 158 158 159 158 157 159 158 159 160 157 157 155 162 160 158 158 160 158 160 160 160 159 159 161 162 159 162 162 160 162 160 162 161 161 160 159 159 159 158 158 157 158 156 159 158 158 159 159 159 158 158 159 159 158 159 158 158 158 159 159 158 157 160 157 158 158 158 159 158 158 158 157 159 158 159 158 158 158 158 158 160 160 159 159 159 158 158 158 157 160 159 159 159 159 159 160 159 161 158 158 156 156 157 157 157 158 158 158 158 160 160 158 159 158 157 157 157 159 158 160 163 158 159 159 159 159 158 158 158 155 159 156 159 158 163 167 169 169 170 175 174 175 175 173 0 0 0 0 0
    0 0 0 0 0 0 0 0 0 0 0 0 0 0 0 0 0 0 0 0 0 0 0 0 0 0 0 0 0 0 0 0 0 0 0 0 0 0 0 0 0 0 0 0 0 0 0 0 0 0 0 0 0 0 0 0 0 0 0 0 0 0 0 0 0 0 0 0 0 157 156 157 156 154 156 155 156 156 157 158 157 157 157 157 158 157 159 157 157 158 158 158 159 158 159 158 159 159 159 159 159 160 158 158 163 158 159 158 158 158 157 158 158 156 158 156 156 161 159 158 158 158 157 157 157 159 157 157 160 160 159 162 160 160 159 159 160 160 161 162 160 162 159 158 162 159 159 159 158 159 158 160 161 157 160 159 158 159 158 159 158 157 157 157 159 159 159 157 158 158 157 158 157 159 157 157 159 157 158 159 157 157 155 161 159 157 157 160 158 160 160 160 159 159 162 163 160 163 163 161 163 161 163 161 162 160 159 159 159 158 158 157 158 156 159 157 157 159 159 159 157 157 159 158 158 159 159 158 159 159 160 159 158 160 158 158 158 158 159 158 158 158 157 159 158 159 158 158 158 158 158 159 159 159 159 159 158 158 158 157 160 159 159 159 159 159 160 159 161 158 157 156 155 156 156 156 158 158 157 157 159 159 158 158 157 157 156 157 158 158 160 163 158 159 158 159 159 158 158 157 155 159 157 161 163 168 170 171 171 172 176 175 175 174 174 0 0 0 0 0
    0 0 0 0 0 0 0 0 0 0 0 0 0 0 0 0 0 0 0 0 0 0 0 0 0 0 0 0 0 0 0 0 0 0 0 0 0 0 0 0 0 0 0 0 0 0 0 0 0 0 0 0 0 0 0 0 0 0 0 0 0 0 0 0 0 0 0 0 0 156 155 157 156 154 156 155 156 156 158 158 158 157 158 157 159 158 159 157 157 157 158 158 159 157 158 158 158 158 157 157 157 159 158 158 164 158 159 158 157 157 157 157 157 155 158 156 156 161 159 158 158 158 157 157 157 159 156 157 160 160 159 162 160 161 159 159 160 160 161 162 161 163 160 159 163 159 159 159 158 159 157 159 161 157 160 159 157 159 158 159 158 157 157 157 158 159 158 157 158 157 157 157 157 158 157 158 159 157 158 159 157 157 155 161 159 157 157 159 158 159 160 160 158 159 162 163 160 164 163 162 163 162 163 162 162 161 160 160 159 158 158 157 158 156 158 157 157 159 159 158 157 157 159 158 158 159 159 158 159 160 160 158 159 160 158 158 158 158 159 158 158 158 157 159 158 158 158 158 158 158 158 160 159 160 159 160 158 158 158 157 160 159 159 159 159 159 160 159 161 158 158 156 154 156 156 156 157 157 157 157 159 159 157 157 158 156 156 156 158 157 160 162 158 158 158 159 158 158 158 157 155 160 159 163 166 170 172 173 172 173 177 176 177 176 175 0 0 0 0 0
    0 0 0 0 0 0 0 0 0 0 0 0 0 0 0 0 0 0 0 0 0 0 0 0 0 0 0 0 0 0 0 0 0 0 0 0 0 0 0 0 0 0 0 0 0 0 0 0 0 0 0 0 0 0 0 0 0 0 0 0 0 0 0 0 0 0 0 0 0 156 155 157 157 154 156 156 -193 157 158 159 159 159 160 159 161 159 160 159 158 158 158 158 158 157 158 157 157 157 155 155 156 158 157 159 164 158 160 158 158 157 157 157 157 155 157 156 156 161 159 158 158 158 157 158 157 159 156 157 159 159 159 162 160 161 159 159 160 160 161 163 162 163 160 159 163 159 159 159 158 158 157 159 160 156 160 158 157 158 159 159 158 157 157 156 158 158 157 156 157 157 157 157 157 158 157 159 160 158 159 160 157 157 156 161 158 156 157 159 158 159 159 159 158 159 161 162 159 163 162 161 163 161 163 162 162 161 160 160 159 159 158 157 158 156 157 156 156 159 159 158 157 157 159 158 159 159 158 158 159 159 160 158 159 159 158 158 158 158 159 158 158 158 157 158 157 158 158 158 158 157 158 159 158 159 159 159 158 158 158 157 159 159 159 160 159 159 161 160 161 158 159 157 155 156 156 156 157 157 157 156 158 158 156 157 157 156 155 156 157 157 161 162 158 158 158 159 158 158 158 157 155 161 161 164 167 171 173 175 174 175 177 177 177 176 176 0 0 0 0 0
    0 0 0 0 0 0 0 0 0 0 0 0 0 0 0 0 0 0 0 0 0 0 0 0 0 0 0 0 0 0 0 0 0 0 0 0 0 0 0 0 0 0 0 0 0 0 0 0 0 0 0 0 0 0 0 0 0 0 0 0 0 0 0 0 0 0 0 0 0 157 156 157 157 154 156 156 -193 157 159 160 161 160 162 161 162 161 160 159 159 158 159 158 158 157 157 156 157 156 155 155 156 158 157 159 164 159 160 158 158 157 157 157 157 155 157 156 156 161 159 158 158 158 157 158 157 159 156 157 159 159 159 162 160 161 159 160 160 159 161 163 162 164 160 159 164 159 160 159 158 158 157 158 159 155 159 158 157 158 159 159 158 157 157 156 157 158 157 156 157 157 157 157 158 159 157 159 161 159 160 160 158 158 157 161 158 156 157 158 157 158 159 159 157 158 161 161 159 162 162 160 162 161 163 162 162 161 160 160 159 159 158 157 157 156 157 156 156 159 159 158 157 158 159 158 159 159 158 158 159 159 159 158 159 159 158 159 158 158 159 157 158 157 157 158 157 157 157 157 157 157 158 159 158 159 159 160 158 158 158 157 159 159 159 160 159 160 162 160 162 158 160 158 156 158 157 156 157 157 157 156 157 157 156 156 157 155 155 156 157 156 162 161 158 158 158 159 159 158 159 157 156 163 163 165 168 172 174 175 175 176 177 177 177 176 176 0 0 0 0 0</data></disparity>
</opencv_storage>
