<?xml version="1.0"?>
<opencv_storage>
<gps_time_stamp>36042</gps_time_stamp>
<gps_x>-1.2702868461608887e+001</gps_x>
<gps_y>1.2385165691375732e+000</gps_y>
<gps_z>-3.3391981124877930e+000</gps_z>
<image_time_stamp>23966</image_time_stamp>
<disparity type_id="opencv-matrix">
  <rows>94</rows>
  <cols>320</cols>
  <dt>s</dt>
  <data>
    0 0 0 0 0 0 0 0 0 0 0 0 0 0 0 0 0 0 0 0 0 0 0 0 0 0 0 0 0 0 0 0 0 0 0 0 0 0 0 0 0 0 0 0 0 0 0 0 0 0 0 0 0 0 0 0 0 0 0 0 0 0 0 0 0 0 0 0 0 9 9 9 0 0 0 0 0 0 0 0 0 0 0 12 10 12 11 11 10 11 11 11 0 0 0 0 0 0 0 0 9 9 9 9 9 9 0 0 0 0 0 0 0 0 0 0 0 0 0 0 0 9 11 0 0 0 0 -177 0 0 0 0 0 9 9 9 0 0 0 -193 -193 -193 -193 -193 -193 11 12 13 -193 11 10 9 -193 -193 -193 -193 -209 10 9 10 10 11 -193 -193 -209 -193 -209 -193 10 -193 -209 -193 -193 12 11 12 -193 11 -209 10 11 10 10 -193 -193 928 -193 11 12 9 11 10 10 10 0 0 0 0 0 0 9 0 10 0 9 11 16 11 11 10 12 11 12 13 12 10 17 13 16 13 14 14 14 18 15 13 16 13 15 16 16 16 13 17 18 16 17 19 18 17 17 17 17 13 17 18 21 21 20 19 21 23 22 22 22 21 21 23 24 24 14 22 20 21 19 21 22 17 17 17 20 22 22 22 23 23 26 27 27 27 26 30 28 29 29 31 30 31 31 34 29 32 31 30 31 31 31 31 30 31 31 30 30 30 30 31 32 31 32 32 33 33 32 33 36 0 0 0 0 0
    0 0 0 0 0 0 0 0 0 0 0 0 0 0 0 0 0 0 0 0 0 0 0 0 0 0 0 0 0 0 0 0 0 0 0 0 0 0 0 0 0 0 0 0 0 0 0 0 0 0 0 0 0 0 0 0 0 0 0 0 0 0 0 0 0 0 0 0 0 10 10 10 9 9 0 0 0 0 0 0 0 0 0 11 10 12 11 10 10 11 12 11 0 0 0 0 0 0 0 0 9 9 9 9 9 9 0 0 0 0 0 0 0 0 0 0 0 0 0 0 0 0 10 0 0 0 0 -177 0 0 0 0 0 9 9 9 0 0 0 -193 -193 -209 -209 10 11 11 12 14 -193 12 10 10 -193 9 9 -193 -209 10 9 10 10 11 10 -193 -209 10 -193 -193 -193 -193 -209 13 -193 12 12 12 -193 11 -209 10 11 11 11 -193 -193 929 -193 11 12 9 10 10 10 10 0 9 0 0 0 0 9 0 10 0 9 11 15 10 11 10 12 11 12 12 12 10 16 13 16 13 14 14 14 18 15 13 16 13 15 16 15 17 13 17 18 17 17 18 18 18 16 18 16 14 17 19 21 21 20 19 21 23 22 22 22 22 22 24 25 25 15 21 20 21 19 21 22 18 17 17 20 21 22 22 22 22 26 26 26 26 25 29 28 28 28 30 30 31 30 33 29 32 31 31 31 31 31 31 29 31 30 30 30 30 30 32 34 32 34 34 33 34 33 34 37 0 0 0 0 0
    0 0 0 0 0 0 0 0 0 0 0 0 0 0 0 0 0 0 0 0 0 0 0 0 0 0 0 0 0 0 0 0 0 0 0 0 0 0 0 0 0 0 0 0 0 0 0 0 0 0 0 0 0 0 0 0 0 0 0 0 0 0 0 0 0 0 0 0 0 10 10 10 10 9 0 9 0 0 0 0 0 0 0 10 9 11 10 10 10 10 11 11 0 9 0 0 0 0 0 0 9 9 9 9 10 9 0 0 0 0 0 0 0 0 0 0 0 0 0 0 0 9 10 0 0 0 0 -177 0 0 0 0 0 9 10 9 0 0 0 9 0 -209 -209 -193 11 11 12 14 11 12 11 10 9 9 9 12 9 10 10 11 11 11 10 13 9 11 -193 -193 -193 -193 -193 13 11 13 12 12 12 12 -193 11 11 10 -193 -193 -193 928 -193 11 11 9 10 9 10 10 9 9 0 0 0 8 9 9 11 9 9 11 16 10 11 10 11 10 11 11 11 9 15 13 16 13 14 14 14 17 15 13 15 13 15 15 15 17 14 17 17 16 17 18 17 18 16 18 15 13 15 19 21 20 18 18 21 23 22 22 22 23 23 25 25 25 16 21 20 21 19 21 22 17 17 17 20 21 21 21 22 22 26 26 26 26 25 28 27 28 28 29 30 30 30 32 29 32 31 30 30 31 30 31 29 31 30 30 30 31 30 32 34 32 34 34 34 35 34 35 37 0 0 0 0 0
    0 0 0 0 0 0 0 0 0 0 0 0 0 0 0 0 0 0 0 0 0 0 0 0 0 0 0 0 0 0 0 0 0 0 0 0 0 0 0 0 0 0 0 0 0 0 0 0 0 0 0 0 0 0 0 0 0 0 0 0 0 0 0 0 0 0 0 0 0 10 10 10 10 10 0 9 9 0 0 0 0 0 0 10 0 11 10 10 10 10 11 11 0 9 0 0 0 0 0 0 9 9 9 9 10 9 9 0 0 0 0 0 0 0 0 0 0 0 0 0 9 9 11 0 0 0 0 -177 0 0 0 0 9 9 10 9 0 0 0 9 0 -193 -209 -193 10 11 12 13 11 12 11 10 10 10 10 13 10 11 11 12 12 12 11 13 10 11 11 11 -193 -193 -193 13 11 13 13 13 13 14 -193 12 -193 10 10 -193 -193 926 -193 -193 10 9 10 9 9 10 9 9 0 0 0 0 9 9 12 10 9 11 17 11 11 10 11 10 11 11 11 9 14 12 15 13 14 14 14 17 15 13 15 13 15 16 16 18 15 18 18 17 17 18 17 18 15 18 15 12 16 20 21 20 18 18 21 23 22 22 22 23 24 25 25 25 17 21 20 20 19 21 21 17 17 17 20 21 21 21 21 21 25 25 25 26 25 28 27 27 28 29 30 29 29 31 28 31 31 30 30 30 30 31 30 31 30 30 29 30 30 32 34 31 33 34 33 34 34 34 37 0 0 0 0 0
    0 0 0 0 0 0 0 0 0 0 0 0 0 0 0 0 0 0 0 0 0 0 0 0 0 0 0 0 0 0 0 0 0 0 0 0 0 0 0 0 0 0 0 0 0 0 0 0 0 0 0 0 0 0 0 0 0 0 0 0 0 0 0 0 0 0 0 0 0 10 10 10 10 10 0 0 0 0 0 0 0 0 0 9 0 10 10 10 10 10 10 10 0 9 0 0 0 0 0 0 9 9 10 10 10 9 10 0 0 0 0 0 0 0 0 0 0 0 0 0 9 9 11 0 0 0 0 -177 0 0 0 0 9 10 10 9 0 0 0 9 0 0 0 0 9 10 11 12 10 11 11 11 11 11 11 13 11 12 12 13 13 13 12 13 10 10 10 11 9 9 10 11 11 12 12 13 14 16 14 13 -193 9 10 -193 -193 925 -193 0 0 9 10 0 10 10 9 11 9 10 10 9 10 10 13 11 9 12 17 11 11 10 12 10 11 11 11 9 14 12 14 12 13 13 13 15 14 13 15 13 15 16 16 19 15 18 18 17 17 17 17 17 14 17 15 11 15 20 21 18 17 17 21 23 23 23 23 23 24 25 25 25 18 21 20 20 19 21 21 17 17 17 20 21 21 20 21 20 25 25 25 25 25 28 27 27 28 28 30 29 29 31 28 32 32 31 30 30 31 31 30 31 30 30 29 30 30 32 34 31 32 33 31 34 32 34 37 0 0 0 0 0
    0 0 0 0 0 0 0 0 0 0 0 0 0 0 0 0 0 0 0 0 0 0 0 0 0 0 0 0 0 0 0 0 0 0 0 0 0 0 0 0 0 0 0 0 0 0 0 0 0 0 0 0 0 0 0 0 0 0 0 0 0 0 0 0 0 0 0 0 0 11 11 10 10 10 0 0 0 0 0 0 0 0 0 0 0 10 10 9 9 9 9 9 0 0 0 0 0 0 0 0 9 10 10 10 10 9 11 9 0 0 0 0 0 0 0 0 0 0 0 0 9 9 10 0 0 0 0 0 0 0 0 0 9 9 9 0 0 0 0 0 0 0 0 0 0 0 10 10 9 10 10 10 11 13 13 14 13 13 13 15 14 13 12 13 10 9 9 10 0 0 9 10 10 12 13 14 15 19 15 14 -193 8 9 -193 -193 -193 0 0 0 0 9 0 9 9 10 11 9 11 10 10 10 10 12 10 9 11 15 10 10 9 11 10 11 10 10 9 13 12 13 12 12 11 12 14 13 13 13 13 14 16 16 19 16 17 18 17 17 17 17 17 14 18 16 11 20 22 22 18 17 17 21 22 23 23 22 23 25 25 25 25 19 21 21 21 20 21 22 18 17 17 20 20 20 20 20 20 25 25 25 25 25 28 27 27 28 28 30 28 29 30 28 31 32 31 30 31 31 30 30 31 30 30 30 31 30 31 34 31 32 33 30 32 31 34 37 0 0 0 0 0
    0 0 0 0 0 0 0 0 0 0 0 0 0 0 0 0 0 0 0 0 0 0 0 0 0 0 0 0 0 0 0 0 0 0 0 0 0 0 0 0 0 0 0 0 0 0 0 0 0 0 0 0 0 0 0 0 0 0 0 0 0 0 0 0 0 0 0 0 0 12 11 11 11 11 0 0 0 0 0 0 0 0 0 0 0 10 10 9 9 9 0 0 0 0 0 0 0 0 0 0 10 10 11 11 11 9 11 10 0 0 0 0 0 0 0 0 0 0 0 0 0 0 10 0 0 0 0 0 0 0 0 0 9 9 0 0 0 0 0 0 0 0 0 0 0 0 8 0 0 9 9 9 10 13 12 13 14 14 14 17 15 13 12 12 9 9 9 9 0 0 0 9 10 13 14 15 18 21 17 16 9 0 9 0 -193 -193 0 0 0 0 9 0 10 9 10 11 10 11 11 10 10 10 11 10 9 11 14 9 9 9 10 9 10 9 9 0 12 12 12 12 11 11 12 12 13 12 12 12 13 15 16 19 16 17 18 17 17 17 17 17 15 20 18 12 26 27 24 17 17 16 20 22 22 22 22 22 25 25 25 25 21 22 22 22 21 22 22 18 18 18 20 20 20 20 20 19 25 24 25 25 25 28 27 26 28 28 30 29 29 30 29 31 32 31 30 30 31 30 30 31 30 31 30 31 30 32 34 31 32 33 29 31 30 34 36 0 0 0 0 0
    0 0 0 0 0 0 0 0 0 0 0 0 0 0 0 0 0 0 0 0 0 0 0 0 0 0 0 0 0 0 0 0 0 0 0 0 0 0 0 0 0 0 0 0 0 0 0 0 0 0 0 0 0 0 0 0 0 0 0 0 0 0 0 0 0 0 0 0 0 12 11 11 11 11 0 0 0 0 0 0 9 9 0 9 0 11 9 9 9 0 0 0 0 0 0 0 9 9 9 9 10 10 11 11 10 0 10 10 0 0 0 0 0 0 0 0 0 0 0 0 0 0 9 0 0 0 0 0 0 0 0 0 0 0 0 0 0 0 0 9 0 0 0 0 0 0 0 0 0 9 9 9 10 14 12 11 12 12 11 17 13 11 11 10 9 0 9 -193 -193 -193 -193 9 11 13 14 14 17 21 17 16 10 0 9 0 -193 0 0 0 0 0 0 0 9 0 9 10 9 10 10 10 9 9 11 10 9 10 12 0 0 0 9 9 9 9 9 0 10 11 11 11 10 10 11 12 13 13 12 13 13 15 18 19 16 17 18 17 17 17 18 17 17 22 21 17 27 31 27 18 18 16 20 21 21 21 21 22 24 24 24 24 22 23 23 23 22 23 23 19 18 18 20 20 20 19 19 18 25 24 24 25 24 27 26 26 27 27 29 28 29 30 29 30 31 31 31 30 31 30 30 31 31 32 30 32 31 32 34 32 32 34 29 31 30 34 35 0 0 0 0 0
    0 0 0 0 0 0 0 0 0 0 0 0 0 0 0 0 0 0 0 0 0 0 0 0 0 0 0 0 0 0 0 0 0 0 0 0 0 0 0 0 0 0 0 0 0 0 0 0 0 0 0 0 0 0 0 0 0 0 0 0 0 0 0 0 0 0 0 0 0 12 12 11 12 11 0 0 0 0 0 0 9 9 10 10 9 10 9 9 0 0 0 0 0 0 0 0 9 9 9 9 9 9 10 10 10 0 9 9 0 0 0 0 0 0 0 0 0 0 0 0 0 0 9 0 0 0 0 0 0 0 0 0 0 0 0 0 9 0 0 10 0 0 0 -177 0 0 0 0 0 9 10 10 10 14 14 11 12 10 -193 18 11 9 10 9 -193 -193 -193 385 -193 -193 -193 -193 10 12 13 13 16 21 16 16 10 9 9 0 -193 0 0 0 0 0 0 0 9 0 9 10 9 10 10 9 9 9 10 10 9 9 12 0 0 0 9 9 9 9 9 0 10 11 11 11 10 10 10 13 13 13 13 13 13 15 18 18 15 16 18 16 16 17 18 17 19 23 22 22 28 32 29 21 20 16 21 21 21 21 21 22 24 24 24 22 22 22 23 23 22 23 23 19 18 18 20 20 19 19 19 17 25 24 25 25 25 28 27 26 28 27 29 28 29 30 29 30 31 31 31 30 31 30 30 31 31 32 31 32 32 32 34 33 32 34 30 31 30 33 33 0 0 0 0 0
    0 0 0 0 0 0 0 0 0 0 0 0 0 0 0 0 0 0 0 0 0 0 0 0 0 0 0 0 0 0 0 0 0 0 0 0 0 0 0 0 0 0 0 0 0 0 0 0 0 0 0 0 0 0 0 0 0 0 0 0 0 0 0 0 0 0 0 0 0 13 12 12 12 12 0 0 9 0 0 9 10 10 11 11 10 11 9 9 9 0 0 0 0 0 0 0 9 9 9 9 9 9 10 10 10 0 0 9 0 0 0 0 0 0 0 0 0 0 0 0 0 0 9 0 0 0 0 0 0 0 0 0 0 0 0 0 9 9 0 10 0 0 -177 -177 -177 -177 -177 0 0 9 9 9 9 13 14 12 15 10 10 19 10 9 10 -193 -193 -193 384 385 384 385 386 -193 10 11 11 11 13 20 16 15 10 9 9 0 -193 0 0 0 0 0 0 0 9 0 9 10 10 10 10 9 9 9 11 10 9 9 12 8 9 9 9 9 9 9 9 0 10 11 11 11 10 10 11 15 14 13 13 14 14 16 19 19 15 17 19 16 16 17 18 17 18 22 22 21 28 33 30 22 20 17 21 21 21 21 21 22 24 24 24 22 23 23 23 23 22 23 23 18 18 18 20 20 19 19 20 18 25 25 25 26 25 28 28 27 28 27 29 28 30 29 29 29 31 31 31 30 31 30 30 31 31 31 31 32 32 32 33 32 32 34 30 30 30 32 31 0 0 0 0 0
    0 0 0 0 0 0 0 0 0 0 0 0 0 0 0 0 0 0 0 0 0 0 0 0 0 0 0 0 0 0 0 0 0 0 0 0 0 0 0 0 0 0 0 0 0 0 0 0 0 0 0 0 0 0 0 0 0 0 0 0 0 0 0 0 0 0 0 0 0 13 12 12 12 12 0 0 0 0 0 0 9 9 10 12 10 12 10 10 10 9 9 9 0 0 0 0 0 0 0 0 9 9 10 9 10 0 0 9 0 0 0 0 0 0 0 0 0 0 0 0 0 0 9 0 0 0 0 0 0 0 0 0 0 0 0 0 10 9 9 11 -177 -177 -177 -177 -177 -177 -177 -177 0 9 0 9 9 13 15 14 20 19 22 21 11 9 10 -193 382 383 384 384 384 384 385 382 9 11 11 10 13 20 15 15 9 0 9 0 0 0 0 0 0 0 0 0 9 0 9 10 10 10 9 9 9 9 10 10 0 0 12 0 9 9 10 10 10 9 9 0 11 12 12 12 11 10 11 16 14 13 14 14 14 17 19 19 15 18 20 17 17 18 19 17 20 23 23 22 28 33 30 22 21 17 21 21 21 21 21 22 24 24 24 23 23 23 23 23 22 23 23 18 18 18 20 20 19 19 20 18 25 25 26 26 26 29 29 28 29 27 29 29 30 29 29 29 31 30 30 30 30 30 30 31 31 31 31 32 33 32 32 32 32 33 30 29 29 31 31 0 0 0 0 0
    0 0 0 0 0 0 0 0 0 0 0 0 0 0 0 0 0 0 0 0 0 0 0 0 0 0 0 0 0 0 0 0 0 0 0 0 0 0 0 0 0 0 0 0 0 0 0 0 0 0 0 0 0 0 0 0 0 0 0 0 0 0 0 0 0 0 0 0 0 12 11 11 12 11 0 0 0 0 0 0 0 0 0 12 10 12 10 10 10 10 10 10 0 0 0 0 0 0 0 0 9 9 10 9 10 0 0 9 0 0 0 0 0 0 0 0 0 0 0 0 0 0 0 0 0 0 0 0 0 0 0 0 0 0 0 9 11 10 10 12 -177 -177 -177 -177 -177 -177 -177 -177 0 0 0 0 0 11 15 15 21 22 24 20 10 9 10 386 383 384 384 385 384 385 385 382 9 10 10 10 13 20 16 15 9 9 9 0 0 0 0 0 0 0 0 0 9 0 9 10 10 9 9 9 0 0 9 9 0 0 10 0 0 9 10 11 11 10 10 9 12 13 12 11 11 11 12 17 14 13 13 14 14 17 20 19 15 18 20 18 18 18 19 17 21 23 23 25 29 34 31 22 21 17 21 20 20 21 20 21 24 24 24 22 23 23 23 22 22 22 22 18 18 18 20 19 19 19 19 18 25 25 25 25 26 29 30 29 29 28 29 29 31 29 29 29 31 30 30 30 30 30 30 31 31 31 31 32 33 31 32 32 32 33 30 29 29 31 31 0 0 0 0 0
    0 0 0 0 0 0 0 0 0 0 0 0 0 0 0 0 0 0 0 0 0 0 0 0 0 0 0 0 0 0 0 0 0 0 0 0 0 0 0 0 0 0 0 0 0 0 0 0 0 0 0 0 0 0 0 0 0 0 0 0 0 0 0 0 0 0 0 0 0 13 12 12 12 12 0 0 0 0 0 0 0 0 0 12 10 12 10 10 10 10 10 10 0 0 0 0 0 0 0 0 -193 9 10 10 11 0 0 0 0 0 0 0 0 0 0 0 0 0 0 0 0 0 0 0 0 0 0 0 0 0 0 0 0 0 0 10 12 10 10 13 -177 -177 -177 -177 -177 -177 -177 -177 0 0 0 0 0 9 13 12 18 17 16 16 9 0 10 387 384 384 385 385 384 386 386 383 9 11 11 10 13 20 16 15 10 9 9 0 -193 0 0 0 0 0 0 0 9 0 9 10 10 10 9 9 0 9 9 0 0 0 10 0 0 9 10 11 11 10 10 9 12 12 11 11 10 10 11 16 14 13 13 14 14 17 20 18 14 19 20 18 18 18 19 17 -193 24 24 26 30 35 32 23 21 17 21 20 20 20 20 20 23 23 23 20 23 23 23 22 22 22 22 18 18 17 20 19 19 18 19 17 23 25 25 24 27 28 30 29 29 28 28 28 31 29 29 29 31 30 30 30 30 30 30 31 31 31 31 32 33 31 32 33 32 33 30 29 30 31 31 0 0 0 0 0
    0 0 0 0 0 0 0 0 0 0 0 0 0 0 0 0 0 0 0 0 0 0 0 0 0 0 0 0 0 0 0 0 0 0 0 0 0 0 0 0 0 0 0 0 0 0 0 0 0 0 0 0 0 0 0 0 0 0 0 0 0 0 0 0 0 0 0 0 0 13 12 12 12 12 9 9 9 0 0 0 0 0 0 12 10 12 10 10 10 10 11 11 0 0 0 0 0 0 0 0 -193 9 11 10 11 0 0 0 0 0 0 0 0 0 0 0 0 0 0 0 0 0 0 0 0 0 0 0 0 0 0 0 0 0 9 11 12 11 11 14 -177 -177 -177 -177 -177 -177 -177 -177 0 0 0 0 0 0 10 -193 15 20 14 14 0 0 9 387 384 384 384 384 384 386 386 383 9 10 10 9 13 20 16 15 9 9 9 0 -193 0 0 0 0 9 9 -193 10 9 10 10 10 9 9 9 0 0 0 0 0 0 11 0 9 10 11 11 11 10 10 9 11 12 11 10 10 10 11 16 13 13 13 14 15 17 20 17 14 19 20 18 18 18 19 -193 -209 24 24 27 31 35 32 24 22 18 21 19 19 19 19 -193 22 22 22 18 23 22 23 22 22 22 22 17 17 17 20 18 18 17 18 16 22 23 23 21 26 27 30 29 29 28 28 29 31 29 29 28 30 29 29 29 30 30 30 31 31 30 32 33 34 32 32 33 32 32 30 29 30 31 32 0 0 0 0 0
    0 0 0 0 0 0 0 0 0 0 0 0 0 0 0 0 0 0 0 0 0 0 0 0 0 0 0 0 0 0 0 0 0 0 0 0 0 0 0 0 0 0 0 0 0 0 0 0 0 0 0 0 0 0 0 0 0 0 0 0 0 0 0 0 0 0 0 0 0 12 12 12 12 12 9 10 9 0 0 0 0 0 0 12 10 12 10 10 10 10 11 11 0 0 0 0 0 0 0 0 -193 9 11 10 11 0 0 0 0 0 0 0 0 0 0 0 0 0 0 0 0 0 0 0 0 0 0 0 0 0 0 0 0 0 9 12 13 11 11 14 10 9 9 -177 -177 -177 -177 -177 0 0 0 0 0 0 9 -193 10 19 13 12 0 0 10 -193 -193 -193 383 382 383 385 385 382 9 11 11 10 13 20 15 15 10 9 9 0 9 0 0 0 0 10 10 -193 10 9 10 11 11 9 -193 9 0 0 0 0 0 0 12 0 9 10 11 11 10 10 10 9 10 11 10 10 9 10 10 16 13 13 13 15 16 18 20 17 13 20 19 18 18 18 18 -193 -193 24 24 27 32 36 33 23 22 19 21 19 18 19 19 -193 21 21 21 15 22 22 22 21 21 21 22 17 17 17 20 18 18 17 18 16 21 22 23 20 26 27 30 30 30 29 29 29 31 29 29 28 29 28 28 28 29 29 30 30 31 30 32 32 34 32 32 34 33 33 31 30 31 31 32 0 0 0 0 0
    0 0 0 0 0 0 0 0 0 0 0 0 0 0 0 0 0 0 0 0 0 0 0 0 0 0 0 0 0 0 0 0 0 0 0 0 0 0 0 0 0 0 0 0 0 0 0 0 0 0 0 0 0 0 0 0 0 0 0 0 0 0 0 0 0 0 0 0 0 -193 11 12 12 12 9 10 9 0 0 0 0 0 0 11 10 11 9 10 10 10 11 11 0 0 0 0 0 0 0 0 -193 9 11 10 11 0 0 0 0 0 0 0 0 0 0 0 0 0 0 0 0 0 0 0 0 0 0 0 0 0 0 0 0 0 9 12 13 11 12 14 11 10 9 10 9 0 0 0 0 0 0 0 0 0 0 0 0 13 10 11 0 0 12 10 9 9 -193 -193 382 -193 -193 -193 10 11 11 10 12 19 15 15 9 9 9 0 9 0 0 0 0 10 10 -193 11 10 11 11 11 9 0 9 0 0 0 0 0 0 11 0 9 10 11 11 10 10 10 9 9 11 10 10 9 10 10 16 13 13 14 16 18 19 20 18 14 21 19 18 18 18 18 15 22 22 21 27 32 36 32 23 22 20 22 19 18 18 18 18 20 20 20 13 21 20 21 20 20 20 21 16 16 17 20 18 18 17 19 17 21 23 23 21 26 27 31 30 31 30 29 28 31 28 29 27 29 27 27 28 29 29 29 30 30 29 31 32 33 31 32 34 33 33 31 30 32 32 33 0 0 0 0 0
    0 0 0 0 0 0 0 0 0 0 0 0 0 0 0 0 0 0 0 0 0 0 0 0 0 0 0 0 0 0 0 0 0 0 0 0 0 0 0 0 0 0 0 0 0 0 0 0 0 0 0 0 0 0 0 0 0 0 0 0 0 0 0 0 0 0 0 0 0 -193 11 12 12 11 10 11 9 0 0 0 0 0 0 11 9 11 9 10 10 10 11 11 0 0 0 0 0 0 0 0 -193 10 11 10 11 9 0 0 0 0 0 0 0 0 0 0 0 0 0 0 0 0 0 0 0 0 0 0 0 0 0 0 0 0 0 11 12 11 12 15 11 10 9 10 9 0 9 0 0 0 0 0 0 0 0 0 0 14 11 11 0 9 12 11 9 9 10 10 -193 -193 -193 9 10 11 11 10 12 19 15 15 9 0 9 0 9 0 0 0 0 11 11 11 12 10 11 12 11 9 0 0 0 0 0 0 0 0 13 9 10 10 11 11 10 10 10 9 0 11 10 10 9 10 10 15 13 14 14 17 19 20 21 19 15 22 20 18 18 18 17 15 20 21 17 27 32 36 30 23 22 21 22 19 18 18 18 18 20 19 20 13 20 20 21 20 20 20 21 16 16 17 21 18 18 18 19 18 22 23 24 22 27 28 30 30 31 31 29 28 30 28 28 27 29 27 26 27 29 29 29 29 30 28 32 32 33 31 31 34 33 32 31 29 32 32 33 0 0 0 0 0
    0 0 0 0 0 0 0 0 0 0 0 0 0 0 0 0 0 0 0 0 0 0 0 0 0 0 0 0 0 0 0 0 0 0 0 0 0 0 0 0 0 0 0 0 0 0 0 0 0 0 0 0 0 0 0 0 0 0 0 0 0 0 0 0 0 0 0 0 0 -193 11 12 12 11 10 12 10 9 0 0 0 0 0 12 10 12 10 10 11 11 11 12 0 0 0 0 0 0 0 0 -193 10 11 10 12 9 0 0 0 0 0 0 0 0 0 0 0 0 0 0 0 0 0 0 0 0 0 0 0 0 0 0 0 0 0 11 11 11 11 14 11 10 10 10 9 9 9 9 0 0 0 0 0 0 0 0 0 12 10 10 0 9 12 11 10 10 10 10 -193 10 10 10 10 11 11 10 12 18 14 15 0 0 0 0 9 0 0 0 0 11 12 11 12 10 12 12 11 9 0 0 0 0 0 0 0 0 13 10 10 10 11 11 10 10 10 9 0 11 10 10 10 10 11 15 13 14 15 18 20 20 21 19 16 23 20 18 19 18 16 14 19 20 14 27 33 36 30 23 22 21 22 19 18 18 18 17 20 20 20 14 22 21 22 21 21 21 21 16 16 17 -193 18 18 18 19 18 22 23 24 21 26 27 29 29 31 31 29 28 29 27 28 27 29 26 26 27 29 29 29 29 30 28 32 31 33 30 31 33 33 31 31 29 32 32 33 0 0 0 0 0
    0 0 0 0 0 0 0 0 0 0 0 0 0 0 0 0 0 0 0 0 0 0 0 0 0 0 0 0 0 0 0 0 0 0 0 0 0 0 0 0 0 0 0 0 0 0 0 0 0 0 0 0 0 0 0 0 0 0 0 0 0 0 0 0 0 0 0 0 0 -193 11 12 11 11 11 13 11 10 9 9 9 0 0 12 11 12 10 11 11 11 11 12 0 0 0 0 0 0 0 0 -193 10 12 11 13 10 10 9 0 0 0 0 0 0 0 0 0 0 0 0 0 0 0 0 0 0 0 0 0 0 0 0 0 0 0 10 10 10 11 14 11 10 10 10 9 9 9 9 0 0 0 9 0 0 0 0 0 9 0 9 0 9 11 11 10 10 10 10 -193 11 10 10 10 11 11 10 12 17 14 15 0 0 0 0 9 0 0 0 0 11 12 12 12 11 12 12 12 10 0 0 0 0 0 0 0 0 10 9 10 10 11 11 9 9 9 9 0 11 10 10 9 10 11 15 13 14 15 18 20 21 21 19 16 23 19 18 18 17 16 15 20 21 13 28 36 36 31 23 23 22 22 19 18 18 17 17 20 20 20 16 -193 24 24 24 23 23 22 17 16 18 -193 19 18 18 19 18 21 22 23 20 26 27 28 28 30 31 29 28 29 27 28 28 29 26 26 27 29 29 29 29 29 28 32 32 33 30 31 33 32 31 31 28 31 31 33 0 0 0 0 0
    0 0 0 0 0 0 0 0 0 0 0 0 0 0 0 0 0 0 0 0 0 0 0 0 0 0 0 0 0 0 0 0 0 0 0 0 0 0 0 0 0 0 0 0 0 0 0 0 0 0 0 0 0 0 0 0 0 0 0 0 0 0 0 0 0 0 0 0 0 10 11 11 11 11 12 13 11 10 10 10 10 10 9 12 11 12 10 10 10 11 11 11 0 0 0 0 0 0 0 0 10 10 12 12 14 10 12 10 0 0 0 0 0 0 0 0 0 0 0 0 0 0 0 0 0 0 0 0 0 0 0 0 0 0 0 10 9 10 11 13 11 10 10 10 9 10 10 9 0 0 9 9 0 0 0 0 0 0 0 0 0 0 10 11 10 10 10 11 10 11 10 10 10 11 12 10 11 17 14 15 0 0 0 0 0 0 0 0 0 11 13 12 13 11 13 12 12 10 0 0 0 0 9 9 9 9 10 9 9 9 10 10 0 0 0 0 0 11 10 9 9 10 10 15 13 14 17 20 22 22 21 20 17 23 19 17 17 16 16 14 19 20 12 28 36 36 32 24 23 22 23 18 18 17 17 17 20 20 21 18 25 26 26 26 25 25 24 19 17 18 -193 19 19 18 19 19 22 23 24 22 26 27 28 28 31 32 29 27 27 26 28 28 29 26 26 27 30 29 30 29 29 28 33 32 33 30 31 33 33 31 31 29 32 32 32 0 0 0 0 0
    0 0 0 0 0 0 0 0 0 0 0 0 0 0 0 0 0 0 0 0 0 0 0 0 0 0 0 0 0 0 0 0 0 0 0 0 0 0 0 0 0 0 0 0 0 0 0 0 0 0 0 0 0 0 0 0 0 0 0 0 0 0 0 0 0 0 0 0 0 10 10 11 11 10 12 13 11 11 12 11 11 11 11 12 12 12 11 11 11 11 11 12 9 0 0 0 9 9 9 9 10 10 12 12 14 10 14 10 0 0 0 0 0 0 9 0 0 0 0 0 0 0 0 0 0 0 0 0 0 0 0 0 0 0 0 10 9 9 10 11 10 9 9 10 9 10 10 9 0 9 10 10 0 0 0 0 0 0 0 0 0 0 9 10 10 10 10 11 10 11 11 11 11 11 12 10 11 16 13 14 0 0 0 0 0 0 0 0 0 11 13 12 13 11 13 12 12 10 9 0 0 0 10 10 10 10 11 9 9 9 10 10 0 0 0 0 0 10 9 9 9 10 10 15 13 15 18 21 22 22 22 20 18 23 19 17 17 15 15 14 19 20 12 28 36 37 33 24 24 23 23 19 18 17 17 17 20 20 21 -193 26 27 27 27 27 27 26 20 18 19 -193 20 20 19 20 20 22 23 25 24 27 29 30 29 32 33 29 27 27 26 27 29 29 27 26 28 31 30 30 30 30 29 34 33 34 31 32 35 35 33 33 30 34 34 33 0 0 0 0 0
    0 0 0 0 0 0 0 0 0 0 0 0 0 0 0 0 0 0 0 0 0 0 0 0 0 0 0 0 0 0 0 0 0 0 0 0 0 0 0 0 0 0 0 0 0 0 0 0 0 0 0 0 0 0 0 0 0 0 0 0 0 0 0 0 0 0 0 0 0 9 10 11 10 -193 12 13 12 12 13 12 12 12 12 13 13 13 13 12 12 12 12 12 10 9 0 0 9 9 9 9 10 9 11 12 13 10 16 11 0 0 0 0 0 0 9 0 0 0 0 0 0 0 0 0 0 0 0 0 0 0 0 0 0 0 0 9 0 0 9 10 9 9 0 9 9 9 9 9 0 9 10 9 0 0 0 0 0 0 0 0 0 0 0 10 10 10 10 11 10 11 11 11 11 11 11 10 11 15 12 13 0 0 0 0 0 0 0 0 0 11 13 12 13 11 13 12 12 10 0 0 0 0 10 9 10 10 10 9 9 0 9 9 0 0 0 0 0 11 10 10 9 10 11 17 13 16 19 21 22 22 22 20 18 23 20 17 17 15 15 14 19 20 -177 28 36 37 33 26 25 24 24 20 19 19 19 18 -193 21 22 20 26 29 29 29 29 30 29 23 21 21 -193 -193 -193 20 21 21 23 24 27 25 28 31 33 31 34 35 30 27 26 26 27 29 29 28 27 29 32 31 31 31 30 30 34 33 34 32 34 37 37 35 35 34 37 36 35 0 0 0 0 0
    0 0 0 0 0 0 0 0 0 0 0 0 0 0 0 0 0 0 0 0 0 0 0 0 0 0 0 0 0 0 0 0 0 0 0 0 0 0 0 0 0 0 0 0 0 0 0 0 0 0 0 0 0 0 0 0 0 0 0 0 0 0 0 0 0 0 0 0 0 9 10 10 11 -193 12 14 12 13 13 13 13 13 13 13 13 13 13 12 12 12 12 12 12 10 0 0 9 9 9 9 10 9 11 12 13 11 17 12 9 0 9 9 9 0 9 0 0 0 0 0 0 0 0 0 0 0 0 0 0 0 0 0 0 0 0 0 0 0 9 9 9 0 0 9 9 9 9 9 9 9 9 9 0 0 0 0 0 0 0 0 0 0 0 9 9 10 10 11 10 11 11 11 11 11 12 10 11 14 12 12 0 0 0 0 0 0 0 0 0 11 13 12 13 11 13 12 12 10 9 0 0 0 10 9 9 10 0 0 0 0 9 10 9 9 9 10 10 12 11 11 11 11 12 18 14 17 20 22 23 23 22 21 20 23 20 18 18 15 15 14 19 20 -177 28 36 37 35 27 26 25 25 21 20 20 20 20 -177 23 24 -193 27 31 32 32 32 33 32 -193 23 23 -193 -193 -193 -193 -193 23 25 26 30 27 31 36 37 35 37 37 32 27 27 27 29 31 31 30 29 32 35 33 32 32 31 32 35 33 34 32 35 38 39 37 37 36 38 38 37 0 0 0 0 0
    0 0 0 0 0 0 0 0 0 0 0 0 0 0 0 0 0 0 0 0 0 0 0 0 0 0 0 0 0 0 0 0 0 0 0 0 0 0 0 0 0 0 0 0 0 0 0 0 0 0 0 0 0 0 0 0 0 0 0 0 0 0 0 0 0 0 0 0 0 10 10 11 11 10 13 14 14 13 14 14 14 14 13 13 14 13 15 13 12 13 12 13 14 10 9 0 9 9 9 9 10 9 11 12 13 11 17 12 10 0 10 10 9 9 9 0 0 0 0 0 0 0 0 0 0 0 0 0 0 0 0 0 0 0 0 0 0 0 9 9 0 0 0 9 9 9 10 9 9 9 9 9 0 0 0 0 0 0 0 0 0 0 0 9 9 10 10 11 10 11 11 11 11 11 11 10 11 14 12 12 0 0 0 0 0 0 0 0 0 11 13 11 13 11 13 12 12 10 9 0 9 9 11 9 10 10 0 0 0 0 10 10 10 9 9 10 11 13 12 12 11 12 14 19 15 17 21 22 23 23 22 21 20 24 20 18 18 15 15 14 19 20 -177 28 36 37 35 28 27 25 26 22 22 22 22 -193 -177 -193 26 26 30 35 34 35 34 34 35 26 24 24 27 24 -193 -193 -193 24 26 29 33 29 35 38 39 38 40 38 34 29 30 29 34 35 33 32 32 35 36 35 34 34 33 35 36 35 36 34 37 39 40 38 38 38 39 38 38 0 0 0 0 0
    0 0 0 0 0 0 0 0 0 0 0 0 0 0 0 0 0 0 0 0 0 0 0 0 0 0 0 0 0 0 0 0 0 0 0 0 0 0 0 0 0 0 0 0 0 0 0 0 0 0 0 0 0 0 0 0 0 0 0 0 0 0 0 0 0 0 0 0 0 10 10 11 11 11 13 14 14 14 14 15 14 14 14 13 15 13 16 14 13 13 13 14 16 10 9 0 9 9 9 9 9 9 11 11 14 11 16 12 10 0 11 10 10 9 10 0 0 0 0 0 0 0 0 0 0 0 0 0 0 0 0 0 0 0 0 0 0 0 0 0 0 0 0 9 9 9 10 9 9 9 9 9 0 0 0 0 0 0 0 0 0 0 0 0 0 9 9 10 10 10 10 10 10 10 10 10 11 13 11 11 0 0 0 0 0 0 0 0 0 11 12 11 12 10 13 12 12 11 10 9 10 10 11 10 11 10 0 0 0 0 11 11 11 10 10 11 13 13 13 12 12 12 14 20 16 18 21 22 23 23 23 22 20 24 20 18 18 15 15 14 20 21 13 28 34 34 34 29 28 26 26 23 23 23 23 -193 -193 26 27 28 31 35 35 35 34 35 36 28 25 25 28 25 24 24 25 24 28 31 36 32 37 40 41 41 41 40 37 32 36 34 38 37 35 34 34 37 37 36 36 35 35 38 38 37 38 37 39 41 41 40 39 39 40 39 39 0 0 0 0 0
    0 0 0 0 0 0 0 0 0 0 0 0 0 0 0 0 0 0 0 0 0 0 0 0 0 0 0 0 0 0 0 0 0 0 0 0 0 0 0 0 0 0 0 0 0 0 0 0 0 0 0 0 0 0 0 0 0 0 0 0 0 0 0 0 0 0 0 0 0 10 10 11 12 11 13 14 15 14 15 15 15 15 15 13 16 13 17 14 13 14 14 14 17 10 9 0 9 9 -193 9 10 0 11 12 14 11 16 13 11 0 11 10 10 10 10 0 0 0 0 0 0 0 0 0 0 0 0 0 0 0 0 0 0 0 0 0 0 0 0 0 0 0 0 9 9 9 10 9 9 10 9 9 0 0 0 0 0 0 0 0 0 0 0 0 0 9 -193 10 9 10 10 10 10 10 10 10 10 14 11 11 0 0 0 0 0 0 0 0 0 10 12 10 11 9 12 12 12 11 11 9 10 10 12 10 11 10 0 0 0 0 12 11 12 10 10 11 13 14 13 12 12 12 14 20 16 18 21 22 23 23 22 21 20 23 20 18 18 15 15 15 21 22 19 28 32 32 32 29 28 27 26 24 23 23 24 25 27 28 29 30 34 36 36 36 35 37 38 33 27 28 31 26 25 25 26 25 30 35 39 36 40 42 43 42 43 41 40 37 39 39 40 39 36 36 -193 38 38 37 37 37 37 40 40 39 39 39 41 43 42 41 40 40 41 40 41 0 0 0 0 0
    0 0 0 0 0 0 0 0 0 0 0 0 0 0 0 0 0 0 0 0 0 0 0 0 0 0 0 0 0 0 0 0 0 0 0 0 0 0 0 0 0 0 0 0 0 0 0 0 0 0 0 0 0 0 0 0 0 0 0 0 0 0 0 0 0 0 0 0 0 10 10 12 12 12 13 14 15 14 15 15 15 14 14 13 16 13 18 14 13 14 14 14 18 11 11 9 11 10 -193 10 11 9 12 13 14 11 16 13 11 0 11 11 10 10 10 0 0 0 0 0 0 0 0 0 0 0 0 0 0 0 0 0 0 0 0 0 0 0 0 0 0 0 0 9 9 9 10 9 9 9 9 9 0 0 0 0 0 0 0 0 0 0 0 0 0 0 0 9 9 9 10 9 10 10 10 10 11 15 12 11 0 0 0 0 0 0 0 0 0 10 11 10 11 0 11 11 11 11 11 10 11 12 12 11 11 10 0 0 0 0 12 12 12 10 10 11 13 13 13 12 12 12 14 21 17 19 21 22 24 23 22 21 20 23 20 18 18 15 15 16 21 22 20 28 31 31 31 30 28 27 27 25 24 24 26 28 30 30 31 33 35 37 38 38 36 38 40 37 32 35 36 31 28 28 29 27 37 39 41 40 41 43 44 43 44 42 41 40 41 41 41 40 38 38 -193 40 39 39 39 39 39 41 41 40 41 41 43 45 43 43 41 41 42 42 42 0 0 0 0 0
    0 0 0 0 0 0 0 0 0 0 0 0 0 0 0 0 0 0 0 0 0 0 0 0 0 0 0 0 0 0 0 0 0 0 0 0 0 0 0 0 0 0 0 0 0 0 0 0 0 0 0 0 0 0 0 0 0 0 0 0 0 0 0 0 0 0 0 0 0 11 11 12 12 12 13 15 15 14 15 15 15 14 15 13 16 14 18 15 14 14 15 16 19 12 12 10 15 13 -193 12 13 10 14 13 14 11 13 12 10 0 11 11 10 10 10 0 0 0 0 0 0 0 0 0 0 0 0 0 0 0 0 0 0 0 0 0 0 0 0 0 0 0 0 0 0 9 9 0 0 9 9 9 0 0 0 0 0 0 0 0 0 0 0 0 0 0 0 9 9 9 10 -193 10 11 10 10 11 15 12 12 0 0 0 0 0 0 0 0 0 10 11 10 11 0 10 10 10 10 11 10 12 13 13 11 11 11 0 0 9 0 14 12 13 11 10 11 13 13 13 11 12 11 14 21 17 19 21 22 24 23 22 21 20 23 20 19 18 15 15 16 21 22 20 27 30 30 31 30 30 29 30 28 27 27 29 33 33 33 34 35 37 38 39 38 37 40 41 40 37 38 38 35 32 32 35 31 41 41 42 41 42 44 44 44 44 42 42 41 42 42 42 41 40 -193 433 41 41 40 40 41 41 42 42 41 43 42 44 46 44 44 42 42 43 43 43 0 0 0 0 0
    0 0 0 0 0 0 0 0 0 0 0 0 0 0 0 0 0 0 0 0 0 0 0 0 0 0 0 0 0 0 0 0 0 0 0 0 0 0 0 0 0 0 0 0 0 0 0 0 0 0 0 0 0 0 0 0 0 0 0 0 0 0 0 0 0 0 0 0 0 11 11 12 13 13 13 15 16 14 15 16 15 15 15 13 17 14 19 16 15 16 17 18 20 15 15 12 19 17 16 14 14 11 14 14 14 11 12 11 10 9 11 11 10 10 10 0 0 0 0 0 0 0 0 0 0 0 0 0 0 0 0 0 0 0 0 0 0 0 0 0 0 0 0 0 0 0 9 9 0 9 9 9 0 0 0 0 0 0 0 0 0 0 0 0 0 0 0 9 9 9 9 -193 9 10 9 9 11 15 12 11 0 0 0 0 0 0 0 0 0 10 11 11 12 0 11 11 10 10 11 10 12 13 14 12 12 12 0 9 10 9 15 13 14 11 11 11 13 13 14 11 12 11 14 21 17 19 21 21 23 22 22 21 19 23 19 19 19 16 16 17 21 22 22 28 31 30 31 31 31 31 32 31 30 30 32 36 36 36 36 37 39 39 40 40 39 41 44 41 40 39 39 37 36 35 39 36 42 42 43 42 43 44 45 44 44 43 43 42 43 43 43 43 42 -193 -193 42 42 42 41 42 41 43 42 41 44 43 45 47 45 45 43 43 44 44 44 0 0 0 0 0
    0 0 0 0 0 0 0 0 0 0 0 0 0 0 0 0 0 0 0 0 0 0 0 0 0 0 0 0 0 0 0 0 0 0 0 0 0 0 0 0 0 0 0 0 0 0 0 0 0 0 0 0 0 0 0 0 0 0 0 0 0 0 0 0 0 0 0 0 0 11 11 13 13 13 13 15 16 15 15 16 15 15 15 13 17 14 18 15 14 15 17 19 21 17 18 15 23 21 19 17 16 12 15 14 14 11 10 10 9 9 11 10 9 9 9 0 0 0 0 0 0 0 0 0 0 0 0 0 0 0 0 0 0 0 0 0 0 0 0 0 0 0 0 0 0 0 9 0 0 9 9 9 0 0 0 0 0 0 0 0 0 0 0 0 0 0 0 0 0 0 -193 0 9 9 9 9 10 13 11 11 0 0 0 0 0 0 0 0 0 10 12 12 13 10 13 13 11 11 12 10 12 13 13 12 11 11 0 9 10 9 15 13 14 11 11 11 13 13 14 11 12 10 14 21 17 19 21 21 23 22 21 21 19 23 19 19 19 17 17 19 22 23 24 29 32 30 32 32 33 32 33 32 33 33 35 38 38 38 38 38 40 40 40 40 39 42 45 40 41 40 40 39 38 38 41 39 43 42 43 43 44 44 45 44 45 44 44 44 44 44 44 44 -193 43 -193 -193 43 43 -193 -193 42 43 42 42 44 43 46 47 45 46 44 44 45 45 45 0 0 0 0 0
    0 0 0 0 0 0 0 0 0 0 0 0 0 0 0 0 0 0 0 0 0 0 0 0 0 0 0 0 0 0 0 0 0 0 0 0 0 0 0 0 0 0 0 0 0 0 0 0 0 0 0 0 0 0 0 0 0 0 0 0 0 0 0 0 0 0 0 0 0 12 12 13 14 14 13 16 17 15 15 16 15 15 14 13 16 13 17 14 14 15 17 19 21 19 20 19 24 23 21 19 17 12 15 14 13 10 9 9 8 9 10 10 9 9 9 0 0 0 0 0 0 0 0 0 0 0 0 0 0 0 0 0 0 0 0 0 0 0 0 8 0 0 0 0 0 0 9 0 0 9 0 0 0 0 0 0 0 0 0 0 0 0 0 0 0 0 -193 0 0 0 -193 0 8 9 0 0 10 13 11 11 0 0 0 0 0 0 0 0 0 10 12 13 17 12 16 18 12 12 13 11 12 13 14 12 12 12 0 10 10 10 16 13 15 12 11 12 13 13 13 10 11 10 13 21 18 19 20 21 -193 22 21 20 19 22 18 19 20 18 18 21 24 25 25 29 32 30 32 32 34 32 34 33 34 34 36 39 39 38 39 39 40 40 41 41 40 42 46 42 41 41 40 40 40 40 42 41 43 42 43 43 44 44 45 44 44 43 44 44 44 44 44 -193 -193 44 44 -193 44 44 -193 -193 43 44 42 42 45 44 47 48 46 47 45 45 46 45 45 0 0 0 0 0
    0 0 0 0 0 0 0 0 0 0 0 0 0 0 0 0 0 0 0 0 0 0 0 0 0 0 0 0 0 0 0 0 0 0 0 0 0 0 0 0 0 0 0 0 0 0 0 0 0 0 0 0 0 0 0 0 0 0 0 0 0 0 0 0 0 0 0 0 0 12 13 14 15 14 14 17 18 15 15 16 16 15 14 13 15 12 16 14 13 14 16 19 22 20 21 22 26 25 23 21 19 13 15 13 12 9 0 0 0 0 9 9 0 0 0 0 0 0 0 0 0 0 0 0 0 0 0 0 0 0 0 0 0 0 0 0 0 0 0 0 0 0 0 0 0 0 9 0 0 0 0 0 0 0 0 0 0 0 0 0 0 0 0 0 0 0 -193 0 0 0 -193 0 0 0 0 0 10 12 11 11 0 0 0 0 0 0 0 0 0 11 14 16 21 17 20 21 14 13 13 11 12 12 13 12 12 12 0 11 11 10 17 13 15 12 11 11 12 12 13 10 11 9 13 21 18 19 20 21 -193 21 21 20 18 22 18 19 21 -193 19 386 388 -193 -193 29 32 30 32 33 34 33 34 34 35 35 36 39 -193 -193 -193 40 41 41 42 42 40 42 47 42 42 42 41 41 42 41 43 41 44 43 44 44 44 44 44 43 44 43 43 -193 43 44 44 -193 -193 -193 -193 -193 45 -193 -193 -193 43 45 43 43 46 46 48 48 46 47 46 46 46 46 46 0 0 0 0 0
    0 0 0 0 0 0 0 0 0 0 0 0 0 0 0 0 0 0 0 0 0 0 0 0 0 0 0 0 0 0 0 0 0 0 0 0 0 0 0 0 0 0 0 0 0 0 0 0 0 0 0 0 0 0 0 0 0 0 0 0 0 0 0 0 0 0 0 0 0 13 13 14 15 15 14 16 17 15 15 16 16 15 14 14 15 12 15 14 13 15 17 20 22 22 23 25 27 28 26 24 24 18 20 17 13 9 0 0 0 0 0 0 0 0 0 0 0 0 0 0 0 0 0 0 0 0 0 0 0 0 0 0 0 0 0 0 0 0 0 0 0 0 0 0 0 0 0 0 0 0 0 0 0 0 0 0 0 0 0 0 0 0 0 0 0 0 -193 0 0 0 0 0 0 0 0 0 10 11 11 11 0 0 0 0 0 0 0 0 -193 12 -193 19 24 21 22 22 15 14 14 12 12 12 13 12 12 12 9 11 11 11 17 13 14 -177 -177 -177 -193 13 13 10 11 10 13 21 18 19 20 20 -193 21 20 19 17 22 18 19 -193 383 382 386 388 388 -193 30 32 31 33 34 35 34 35 35 36 36 37 -209 -209 -193 737 41 41 41 43 42 39 42 48 43 43 42 41 41 42 42 44 41 44 43 43 44 44 43 44 42 43 -193 43 -193 -193 -193 -193 175 -193 -193 -193 -193 46 -193 -193 -193 44 45 43 44 47 46 49 48 46 47 46 46 47 47 46 0 0 0 0 0
    0 0 0 0 0 0 0 0 0 0 0 0 0 0 0 0 0 0 0 0 0 0 0 0 0 0 0 0 0 0 0 0 0 0 0 0 0 0 0 0 0 0 0 0 0 0 0 0 0 0 0 0 0 0 0 0 0 0 0 0 0 0 0 0 0 0 0 0 0 13 14 14 15 15 14 17 17 15 16 16 16 15 15 15 15 12 15 14 14 15 18 21 23 23 25 27 29 30 27 26 25 22 23 20 15 10 0 0 0 0 0 0 0 0 0 0 0 0 0 0 0 0 9 0 0 0 0 0 0 0 0 0 0 0 0 0 0 0 0 0 0 0 -177 0 0 0 0 0 0 0 0 0 0 0 0 0 0 0 0 0 0 0 0 0 0 -193 381 0 0 -193 0 0 0 0 0 0 10 11 11 11 0 0 0 0 0 0 0 0 -193 13 -209 22 25 23 23 23 19 15 14 13 13 12 13 12 12 12 9 11 11 10 17 13 14 13 -177 -177 -177 13 14 11 12 11 13 21 18 18 19 20 21 21 19 18 16 21 17 20 -193 382 382 385 387 388 -177 30 33 31 33 34 36 35 35 35 37 36 37 -193 -193 -193 -193 41 41 42 44 44 41 43 48 43 43 42 41 41 41 41 43 40 43 42 42 43 43 42 43 42 43 -193 -193 -193 -193 -193 -193 175 -193 -193 -193 46 47 46 46 46 44 45 43 44 46 46 49 48 46 47 46 46 47 47 46 0 0 0 0 0
    0 0 0 0 0 0 0 0 0 0 0 0 0 0 0 0 0 0 0 0 0 0 0 0 0 0 0 0 0 0 0 0 0 0 0 0 0 0 0 0 0 0 0 0 0 0 0 0 0 0 0 0 0 0 0 0 0 0 0 0 0 0 0 0 0 0 0 0 0 13 15 15 15 15 14 17 17 16 17 17 17 16 15 15 15 13 16 14 15 17 19 22 24 25 27 29 30 32 29 27 27 25 25 23 18 11 0 0 0 9 9 0 0 0 0 0 0 0 0 0 0 0 11 0 0 0 0 0 0 0 0 0 0 0 0 0 0 0 0 0 0 0 -177 0 0 0 0 0 0 0 0 0 0 0 0 0 0 0 0 0 0 0 9 0 -193 -193 380 0 9 -193 -193 0 9 9 9 0 10 10 11 12 0 0 0 0 0 0 0 10 -209 19 25 26 27 25 25 24 21 17 15 14 14 12 13 12 13 12 9 11 11 10 17 13 14 -177 -177 -177 -177 14 14 11 12 11 13 20 17 17 18 19 20 20 19 18 15 21 17 20 383 381 381 385 387 387 -177 31 33 32 34 35 36 35 36 35 37 36 37 -177 -193 732 736 41 41 42 44 44 41 43 48 42 42 41 41 41 41 41 42 39 42 41 42 42 42 41 42 41 43 -193 -193 -193 -193 -193 -193 175 -193 -193 45 46 46 46 46 46 44 45 43 44 46 46 49 47 46 47 46 46 47 47 46 0 0 0 0 0
    0 0 0 0 0 0 0 0 0 0 0 0 0 0 0 0 0 0 0 0 0 0 0 0 0 0 0 0 0 0 0 0 0 0 0 0 0 0 0 0 0 0 0 0 0 0 0 0 0 0 0 0 0 0 0 0 0 0 0 0 0 0 0 0 0 0 0 0 0 13 15 15 15 15 14 17 17 17 18 17 18 17 16 17 16 14 18 16 17 19 21 24 25 27 29 30 32 34 31 29 28 26 27 26 22 16 0 9 9 10 10 9 0 0 0 0 0 0 0 0 10 10 14 10 10 9 0 0 0 0 0 0 0 0 0 0 0 0 0 0 0 0 -177 0 0 0 0 0 0 9 0 0 0 9 0 10 -193 0 0 0 0 0 9 -193 -193 -193 380 0 10 10 9 0 10 10 10 0 11 10 10 11 0 0 0 9 9 0 9 14 -193 23 27 27 29 27 27 26 23 20 16 14 14 13 13 12 13 11 9 11 11 10 17 13 14 -177 -177 -177 -177 14 14 11 13 12 13 20 17 16 18 18 19 20 18 17 15 21 17 20 382 381 381 385 387 387 -193 31 34 33 35 35 36 35 36 35 37 36 -193 -177 -193 731 735 41 41 42 44 43 41 42 46 42 41 41 41 40 41 41 42 39 42 41 41 42 42 -193 42 41 -193 302 -193 -193 -193 -193 -193 174 -193 45 45 45 45 45 45 45 44 44 43 44 46 45 48 47 46 47 46 46 47 47 46 0 0 0 0 0
    0 0 0 0 0 0 0 0 0 0 0 0 0 0 0 0 0 0 0 0 0 0 0 0 0 0 0 0 0 0 0 0 0 0 0 0 0 0 0 0 0 0 0 0 0 0 0 0 0 0 0 0 0 0 0 0 0 0 0 0 0 0 0 0 0 0 0 0 0 13 15 15 15 15 14 17 16 17 18 17 18 18 17 17 16 15 18 17 18 20 22 25 26 28 31 30 33 35 32 30 29 28 29 28 26 24 10 11 11 13 12 10 9 0 0 9 11 12 12 12 17 11 17 13 13 11 9 0 0 0 0 0 0 0 0 0 0 0 0 0 0 0 9 9 9 9 9 9 9 11 12 11 0 19 21 24 24 22 -193 9 0 -193 -209 -193 -193 -193 -177 -193 10 11 10 9 10 11 10 9 12 9 10 11 0 0 0 9 9 0 11 18 -193 25 28 29 30 28 28 28 25 21 18 15 15 13 13 12 13 11 0 11 10 10 17 13 13 14 12 13 14 14 15 12 14 13 13 19 17 15 17 18 18 19 17 16 14 20 17 20 -177 -177 381 385 387 -193 31 32 34 33 35 35 -193 35 36 35 37 36 -193 -177 -193 -193 -193 41 41 42 44 43 41 42 45 41 41 41 41 41 41 41 42 40 42 41 41 42 42 -193 43 41 42 -193 -193 -193 -193 -193 -193 -193 -193 45 45 45 45 45 46 45 44 44 43 44 46 45 48 46 46 46 46 46 46 46 46 0 0 0 0 0
    0 0 0 0 0 0 0 0 0 0 0 0 0 0 0 0 0 0 0 0 0 0 0 0 0 0 0 0 0 0 0 0 0 0 0 0 0 0 0 0 0 0 0 0 0 0 0 0 0 0 0 0 0 0 0 0 0 0 0 0 0 0 0 0 0 0 0 0 0 13 16 15 15 15 14 16 16 18 19 17 19 19 17 18 16 16 19 18 -193 -193 22 25 27 29 31 30 33 34 32 30 29 28 31 30 27 26 19 17 15 19 17 12 14 13 11 12 21 24 22 21 24 14 19 17 17 14 12 -193 -193 -193 -193 0 0 0 0 0 0 0 0 -193 9 10 12 13 13 13 12 11 12 18 25 26 -193 26 27 27 27 27 25 19 -193 -193 -193 -193 9 -193 -193 10 12 13 12 11 13 13 12 -193 13 9 11 12 0 9 9 11 12 11 15 22 26 27 29 30 30 28 29 29 26 22 19 16 15 13 13 12 13 11 0 10 10 9 16 12 13 14 12 13 15 15 15 13 15 14 13 19 17 15 17 17 17 19 16 16 14 20 17 20 -177 -177 381 386 388 29 31 31 34 34 35 35 -193 35 36 35 37 37 -193 -177 -193 38 40 40 41 42 44 43 41 42 45 41 41 41 41 40 41 41 42 40 42 41 41 41 42 41 43 41 42 -193 -193 -193 -193 -193 -193 -193 44 45 45 45 45 46 46 45 44 45 44 45 46 46 47 46 46 46 46 46 46 46 46 0 0 0 0 0
    0 0 0 0 0 0 0 0 0 0 0 0 0 0 0 0 0 0 0 0 0 0 0 0 0 0 0 0 0 0 0 0 0 0 0 0 0 0 0 0 0 0 0 0 0 0 0 0 0 0 0 0 0 0 0 0 0 0 0 0 0 0 0 0 0 0 0 0 0 13 16 15 15 15 14 16 16 18 19 16 19 19 18 18 16 17 19 19 -193 -193 23 26 27 29 32 30 34 34 33 32 30 31 33 31 29 28 26 24 23 24 24 20 23 25 24 22 25 26 25 24 25 17 21 19 21 18 17 -193 -209 -209 -193 -193 0 0 0 0 0 0 12 26 17 18 20 20 21 21 20 20 18 25 26 28 27 28 29 28 28 29 27 25 25 26 25 14 12 -193 14 12 16 17 15 14 19 20 -193 -193 -193 10 12 15 9 10 11 14 17 17 22 25 28 29 30 32 31 29 31 30 28 23 20 17 16 14 13 12 13 12 9 10 9 9 16 12 12 14 12 13 15 15 16 13 15 15 13 19 17 14 16 17 16 18 16 15 14 20 17 20 -193 -193 -177 -177 -193 28 30 31 34 34 35 35 37 36 37 36 37 37 37 -193 -193 38 39 39 41 42 43 43 42 43 45 42 41 41 41 40 40 41 42 40 42 -193 41 41 43 42 43 41 42 42 42 -193 -193 -193 -193 -193 44 45 45 45 46 46 46 46 45 45 45 46 47 46 47 46 46 47 47 46 47 46 46 0 0 0 0 0
    0 0 0 0 0 0 0 0 0 0 0 0 0 0 0 0 0 0 0 0 0 0 0 0 0 0 0 0 0 0 0 0 0 0 0 0 0 0 0 0 0 0 0 0 0 0 0 0 0 0 0 0 0 0 0 0 0 0 0 0 0 0 0 0 0 0 0 0 0 13 16 15 15 15 14 16 16 19 19 17 19 19 19 20 17 19 21 22 25 25 26 28 28 30 34 31 34 34 33 32 31 33 33 32 30 29 28 27 26 26 26 25 27 28 28 26 27 28 26 25 25 20 21 20 22 20 19 -209 -209 -209 -209 -209 0 0 0 0 0 -193 21 28 25 25 25 24 25 25 25 25 24 26 27 29 28 29 30 29 28 30 29 27 27 28 28 23 19 -193 21 17 20 20 20 20 23 25 22 -193 -193 10 14 17 11 11 13 17 21 23 26 28 29 31 31 33 31 30 31 31 28 24 21 18 17 15 14 13 14 12 9 9 9 0 15 12 12 15 13 13 16 16 16 14 16 15 13 18 17 14 16 17 16 18 16 15 14 20 18 20 -193 -193 -193 -177 28 28 30 31 34 34 35 35 37 36 37 36 38 37 38 -193 39 38 39 39 41 42 43 42 42 43 45 42 41 40 41 40 40 40 42 40 42 -193 41 41 43 42 43 41 42 42 42 43 -193 -193 44 43 44 45 45 45 45 46 46 45 45 46 45 46 47 47 47 46 47 46 48 47 47 47 47 0 0 0 0 0
    0 0 0 0 0 0 0 0 0 0 0 0 0 0 0 0 0 0 0 0 0 0 0 0 0 0 0 0 0 0 0 0 0 0 0 0 0 0 0 0 0 0 0 0 0 0 0 0 0 0 0 0 0 0 0 0 0 0 0 0 0 0 0 0 0 0 0 0 0 12 16 14 14 15 14 16 16 20 21 18 20 21 21 21 19 21 23 25 27 28 28 30 29 32 35 31 35 34 33 33 32 34 33 32 30 30 28 28 27 27 27 26 28 30 30 28 28 29 27 26 26 21 21 21 23 20 19 -209 -209 -209 -209 -209 -209 -193 0 0 0 14 23 29 27 28 27 26 26 28 27 27 26 27 27 30 29 31 31 30 29 31 30 29 29 29 30 26 24 26 25 20 23 22 23 24 25 27 26 23 22 12 16 19 14 14 15 20 23 25 27 30 29 33 33 34 32 30 32 32 29 26 22 20 18 16 14 13 14 12 10 10 9 0 15 12 12 15 13 13 16 16 16 14 16 16 13 18 17 13 16 16 15 18 16 15 14 21 19 20 -193 23 -193 -193 27 28 29 31 34 34 34 35 37 37 37 36 38 38 38 39 39 38 39 39 40 41 42 41 42 43 45 42 41 40 41 40 40 40 41 40 41 -193 41 41 42 42 43 42 42 42 43 43 44 42 44 43 44 45 45 45 45 45 45 45 45 45 45 45 47 47 47 47 48 47 48 47 48 47 48 0 0 0 0 0
    0 0 0 0 0 0 0 0 0 0 0 0 0 0 0 0 0 0 0 0 0 0 0 0 0 0 0 0 0 0 0 0 0 0 0 0 0 0 0 0 0 0 0 0 0 0 0 0 0 0 0 0 0 0 0 0 0 0 0 0 0 0 0 0 0 0 0 0 0 13 17 15 15 15 15 17 17 22 21 18 21 21 21 22 20 21 -209 26 28 29 29 31 30 31 34 30 34 34 32 32 31 33 33 31 30 30 28 29 27 28 28 27 30 31 30 29 29 30 28 28 27 23 22 21 23 21 20 -209 -209 -209 -209 -209 -209 -193 -209 -193 -177 21 24 29 30 31 28 28 28 29 29 29 28 29 29 31 31 33 32 32 30 32 31 30 30 31 31 28 27 29 27 24 25 26 26 27 28 30 29 26 24 16 18 21 17 17 18 21 25 27 29 31 30 34 34 34 32 31 33 33 31 29 -193 21 19 17 15 13 15 12 10 10 9 9 15 12 12 15 14 13 17 17 17 15 17 16 13 18 17 13 16 17 15 18 16 15 15 21 19 20 -193 23 -177 -193 28 28 29 31 33 34 34 34 36 36 38 37 38 38 39 39 39 38 39 38 39 41 41 40 42 43 44 42 41 40 41 40 40 40 41 40 41 40 40 40 42 42 43 41 42 41 42 43 43 42 43 42 43 44 45 44 44 44 45 44 45 45 46 44 48 47 47 47 48 47 49 47 49 47 48 0 0 0 0 0
    0 0 0 0 0 0 0 0 0 0 0 0 0 0 0 0 0 0 0 0 0 0 0 0 0 0 0 0 0 0 0 0 0 0 0 0 0 0 0 0 0 0 0 0 0 0 0 0 0 0 0 0 0 0 0 0 0 0 0 0 0 0 0 0 0 0 0 0 0 13 17 15 16 16 16 18 18 22 21 19 21 21 21 22 21 22 -193 27 29 29 29 31 30 31 33 29 32 32 32 32 32 33 33 32 31 30 30 30 29 29 29 29 31 32 32 30 31 31 28 28 27 24 22 22 24 -209 22 -209 -209 -209 -209 -209 -209 -193 -193 -193 -193 -209 -209 30 31 32 30 29 29 31 30 31 30 31 31 34 33 35 34 32 31 32 31 30 31 31 32 29 30 33 31 30 29 33 32 30 31 34 35 31 26 21 19 22 20 -193 20 23 26 28 31 32 31 34 35 35 33 32 34 35 32 31 -193 -193 20 19 15 14 15 13 11 11 10 9 16 12 13 16 14 14 17 17 17 15 17 16 14 18 18 14 17 18 16 19 17 16 16 21 20 21 -193 22 -193 26 27 27 28 30 33 34 33 34 37 36 38 37 38 38 39 39 39 38 39 38 39 40 41 38 42 43 43 42 41 40 41 40 40 40 41 40 40 40 41 40 42 42 43 41 41 41 42 43 43 41 43 42 42 43 45 44 44 44 45 44 45 45 46 44 48 47 47 47 48 47 49 47 49 47 48 0 0 0 0 0
    0 0 0 0 0 0 0 0 0 0 0 0 0 0 0 0 0 0 0 0 0 0 0 0 0 0 0 0 0 0 0 0 0 0 0 0 0 0 0 0 0 0 0 0 0 0 0 0 0 0 0 0 0 0 0 0 0 0 0 0 0 0 0 0 0 0 0 0 0 14 17 16 17 17 17 18 18 22 21 19 21 22 22 23 22 23 27 28 29 29 30 31 30 31 33 29 31 31 31 31 31 32 32 31 31 31 32 32 31 31 31 31 33 34 33 31 31 31 28 28 26 24 22 22 25 -209 -209 -209 -209 -209 -209 -209 -193 -193 -209 -193 -209 -193 -193 34 36 37 34 34 34 35 34 34 34 34 33 35 34 35 34 32 31 32 31 31 32 32 33 32 37 37 37 39 41 40 39 37 36 37 39 37 -209 -209 20 22 21 -193 20 23 26 28 31 32 31 34 35 36 33 32 35 36 34 33 33 -209 22 -193 16 15 16 14 12 13 10 10 17 13 13 17 14 14 18 17 17 16 18 17 14 18 18 14 18 19 17 20 18 17 17 22 20 21 21 22 24 26 27 27 28 30 33 34 33 34 37 36 38 37 38 38 39 39 39 37 38 37 38 40 40 36 42 43 43 42 41 40 41 40 40 40 40 40 40 40 41 40 42 42 43 41 41 42 43 43 43 42 43 42 43 43 46 44 44 44 45 44 45 46 46 44 48 47 47 47 48 46 49 47 49 47 48 0 0 0 0 0
    0 0 0 0 0 0 0 0 0 0 0 0 0 0 0 0 0 0 0 0 0 0 0 0 0 0 0 0 0 0 0 0 0 0 0 0 0 0 0 0 0 0 0 0 0 0 0 0 0 0 0 0 0 0 0 0 0 0 0 0 0 0 0 0 0 0 0 0 0 14 17 16 18 18 17 19 20 23 22 20 22 23 23 23 22 23 27 28 29 29 30 30 30 31 33 29 31 30 32 31 32 32 32 31 31 32 33 32 32 32 32 32 34 34 33 31 32 31 29 28 26 23 22 22 -193 -209 -209 -209 -209 -209 -193 -209 -193 -209 -209 -193 -209 -209 -209 38 39 39 38 37 37 38 36 37 36 36 35 36 35 35 34 32 31 32 31 31 32 33 34 33 39 39 38 41 44 43 42 39 38 38 40 39 -209 -193 21 24 -193 -193 -193 -193 26 29 32 33 31 34 35 36 33 33 36 36 35 34 35 30 25 -209 20 17 17 15 13 14 11 11 17 13 14 18 15 15 18 18 18 17 18 17 14 18 18 14 18 19 17 20 19 18 19 22 21 21 21 22 24 26 27 27 28 30 33 33 33 33 36 36 38 37 38 38 39 38 38 37 38 37 38 39 40 35 42 44 43 42 41 40 41 40 40 40 40 40 39 40 40 40 42 41 -193 -193 41 42 43 43 44 42 43 42 42 43 46 44 44 44 45 44 45 46 46 44 48 47 46 47 48 46 49 47 49 47 48 0 0 0 0 0
    0 0 0 0 0 0 0 0 0 0 0 0 0 0 0 0 0 0 0 0 0 0 0 0 0 0 0 0 0 0 0 0 0 0 0 0 0 0 0 0 0 0 0 0 0 0 0 0 0 0 0 0 0 0 0 0 0 0 0 0 0 0 0 0 0 0 0 0 0 15 19 18 20 19 19 21 22 25 23 22 23 23 24 25 24 24 28 28 29 29 30 30 30 30 33 29 30 29 31 31 32 32 31 30 31 32 33 32 32 32 32 32 34 33 32 31 32 31 29 28 26 24 23 23 26 -209 -193 -209 -209 -209 -209 -209 -209 -209 -209 -209 -209 -209 -193 41 40 41 39 38 39 39 38 38 38 38 37 38 37 35 34 32 30 31 30 30 31 32 33 33 38 38 38 40 44 43 43 39 38 38 40 39 -209 -193 22 25 -193 -193 -193 -193 27 30 34 34 31 35 36 37 34 34 36 36 36 35 36 32 28 36 24 19 19 17 15 18 12 12 19 14 15 18 16 16 19 19 18 17 19 18 15 18 19 15 19 20 18 21 20 19 20 24 23 23 22 23 25 27 28 28 28 31 33 34 33 32 36 36 37 37 37 38 39 38 38 38 38 37 38 39 40 36 42 44 43 42 41 41 41 40 40 40 40 39 39 39 40 40 41 -193 -193 -193 41 41 43 43 44 41 43 42 41 42 46 44 44 44 44 44 45 46 46 44 48 46 46 47 48 46 49 47 49 47 48 0 0 0 0 0
    0 0 0 0 0 0 0 0 0 0 0 0 0 0 0 0 0 0 0 0 0 0 0 0 0 0 0 0 0 0 0 0 0 0 0 0 0 0 0 0 0 0 0 0 0 0 0 0 0 0 0 0 0 0 0 0 0 0 0 0 0 0 0 0 0 0 0 0 0 20 22 22 23 23 23 25 26 27 26 25 25 25 26 28 28 26 30 30 30 30 31 31 31 31 34 30 30 29 30 31 31 31 30 29 31 32 33 33 32 31 32 33 34 33 33 32 32 31 30 29 27 25 24 24 26 26 31 -209 -209 -209 -209 -209 -209 -209 55 -193 50 54 48 43 42 42 41 39 40 41 39 40 40 40 39 39 39 36 34 33 31 31 30 30 31 31 33 33 38 38 38 41 44 44 44 40 39 38 39 39 -209 25 23 26 25 -193 -193 -193 27 30 34 35 31 35 36 37 34 34 36 37 36 36 36 34 32 38 30 23 22 21 20 22 16 17 21 17 18 20 18 18 20 19 19 18 19 18 15 19 19 16 20 21 20 22 21 20 21 25 25 24 24 24 27 28 30 29 28 32 32 33 33 31 35 35 37 37 37 37 39 38 38 37 38 37 38 38 39 35 42 43 42 42 41 41 40 40 40 40 39 40 39 39 40 -193 -193 -193 -193 -193 41 42 43 44 44 42 43 42 41 41 46 44 43 44 44 44 45 46 46 43 48 46 46 47 47 45 48 47 48 46 48 0 0 0 0 0
    0 0 0 0 0 0 0 0 0 0 0 0 0 0 0 0 0 0 0 0 0 0 0 0 0 0 0 0 0 0 0 0 0 0 0 0 0 0 0 0 0 0 0 0 0 0 0 0 0 0 0 0 0 0 0 0 0 0 0 0 0 0 0 0 0 0 0 0 0 27 28 28 27 26 26 28 30 31 30 30 30 30 33 34 36 31 33 33 32 32 33 33 33 32 34 30 30 30 31 30 31 30 29 29 32 32 34 34 32 32 33 34 34 34 33 33 33 32 31 30 28 26 25 26 26 26 33 44 -209 -193 -209 -209 -209 -193 -193 -193 49 53 50 44 44 44 43 41 42 42 41 42 42 42 41 42 41 37 35 34 32 31 30 30 30 31 32 33 38 39 40 42 47 46 46 42 40 39 39 38 39 25 24 27 25 -193 -193 -193 27 30 35 35 32 35 37 37 34 35 37 37 37 37 37 36 36 39 35 28 26 25 23 24 22 22 23 21 21 22 21 21 22 21 20 19 20 19 16 20 20 17 22 22 21 23 22 22 23 27 26 26 26 26 28 29 31 30 28 32 31 33 33 31 35 34 36 36 37 37 38 37 38 37 38 36 37 36 38 33 41 43 41 41 41 41 41 40 40 40 40 40 -193 -193 -193 -193 -193 -193 174 -193 42 42 44 44 44 -193 42 -193 41 41 46 43 43 43 43 43 44 45 45 42 47 46 46 46 46 45 48 46 48 46 47 0 0 0 0 0
    0 0 0 0 0 0 0 0 0 0 0 0 0 0 0 0 0 0 0 0 0 0 0 0 0 0 0 0 0 0 0 0 0 0 0 0 0 0 0 0 0 0 0 0 0 0 0 0 0 0 0 0 0 0 0 0 0 0 0 0 0 0 0 0 0 0 0 0 0 27 29 29 28 27 28 30 32 33 33 33 34 34 37 37 38 34 34 34 32 33 34 34 34 33 33 32 30 31 32 31 31 30 29 30 32 32 34 35 33 33 34 34 35 34 34 34 33 33 32 32 30 29 29 30 28 29 38 45 43 44 -193 -193 48 49 52 51 49 53 50 46 46 46 44 42 44 44 43 44 45 44 43 45 43 38 36 35 33 31 30 30 30 30 32 33 38 40 41 43 47 45 46 42 40 39 39 38 -193 27 26 27 26 -193 -193 -193 27 30 35 36 33 34 37 37 35 36 38 38 37 38 38 37 37 39 36 31 29 28 27 26 25 25 26 24 24 24 24 24 24 23 23 22 23 21 20 21 21 20 25 25 24 25 24 23 25 30 27 27 27 29 29 30 34 31 29 34 30 33 33 32 35 34 35 35 36 36 38 36 37 35 37 36 36 35 36 32 39 42 39 40 41 41 41 -177 -177 -177 -177 41 -193 -193 -193 172 174 173 174 171 -193 42 44 44 -193 -193 -193 -193 41 41 45 43 43 43 43 43 44 45 45 42 47 45 46 46 45 44 48 46 47 46 47 0 0 0 0 0
    0 0 0 0 0 0 0 0 0 0 0 0 0 0 0 0 0 0 0 0 0 0 0 0 0 0 0 0 0 0 0 0 0 0 0 0 0 0 0 0 0 0 0 0 0 0 0 0 0 0 0 0 0 0 0 0 0 0 0 0 0 0 0 0 0 0 0 0 0 28 34 32 32 31 32 34 36 37 37 37 37 38 40 38 39 36 34 35 33 33 34 34 34 33 33 32 30 32 32 32 30 29 29 30 33 34 35 36 34 35 35 36 35 35 35 35 34 33 34 33 33 33 35 35 33 38 41 47 45 45 47 47 49 49 52 51 49 52 50 47 47 47 45 43 45 46 44 45 47 46 45 48 46 39 37 35 33 31 30 29 29 29 31 32 37 40 41 42 45 43 43 41 39 39 38 38 -193 29 28 28 27 -193 -209 -193 27 30 35 36 34 34 36 37 35 36 38 38 37 38 39 38 38 40 37 33 31 32 31 32 33 31 32 31 30 29 28 28 27 27 27 26 27 27 27 26 28 33 35 38 36 37 35 35 37 42 37 42 43 43 -193 41 40 39 36 37 31 31 33 32 35 33 34 34 35 35 38 36 37 36 38 37 37 36 37 34 38 42 39 40 41 41 41 -177 -177 -177 -177 41 -193 -193 -193 173 174 173 174 171 -193 -193 44 44 -193 -193 -209 -193 40 41 44 43 43 43 43 43 43 45 45 42 46 45 45 45 45 44 47 46 47 46 47 0 0 0 0 0
    0 0 0 0 0 0 0 0 0 0 0 0 0 0 0 0 0 0 0 0 0 0 0 0 0 0 0 0 0 0 0 0 0 0 0 0 0 0 0 0 0 0 0 0 0 0 0 0 0 0 0 0 0 0 0 0 0 0 0 0 0 0 0 0 0 0 0 0 0 34 40 40 38 37 38 38 39 39 40 40 39 41 40 39 40 38 34 35 34 34 35 35 35 35 34 34 31 33 33 32 30 30 29 31 34 35 36 37 37 37 37 37 37 36 36 37 36 35 36 36 37 38 39 39 39 41 43 49 46 46 47 47 49 49 51 50 49 52 50 48 48 49 47 44 47 48 46 48 49 48 46 50 48 41 38 36 35 31 30 30 29 29 31 33 37 40 40 41 43 42 42 40 39 38 37 38 37 32 30 30 28 -193 -209 -193 29 32 35 37 35 35 36 37 36 37 38 38 37 38 39 39 38 40 37 35 33 34 32 34 36 35 36 37 36 35 35 34 32 32 31 31 31 30 31 26 27 31 28 28 28 30 29 35 37 42 40 46 48 45 44 44 44 45 41 40 32 31 31 32 34 32 32 32 33 33 37 36 37 36 38 37 37 37 38 36 38 42 39 40 40 41 40 -177 -177 -177 -177 42 -193 -193 -193 173 174 173 174 171 -193 -193 -193 -193 -193 -193 -193 -193 41 41 44 42 42 43 43 43 43 44 44 41 44 44 45 44 44 43 47 46 47 47 47 0 0 0 0 0
    0 0 0 0 0 0 0 0 0 0 0 0 0 0 0 0 0 0 0 0 0 0 0 0 0 0 0 0 0 0 0 0 0 0 0 0 0 0 0 0 0 0 0 0 0 0 0 0 0 0 0 0 0 0 0 0 0 0 0 0 0 0 0 0 0 0 0 0 0 -209 43 43 40 40 41 -193 -209 -209 -193 -209 -209 -209 -209 -193 -209 38 35 36 34 35 35 35 36 35 35 34 32 34 34 33 31 30 29 32 36 36 37 38 38 38 37 38 37 37 38 38 -209 37 39 38 40 41 41 41 41 43 46 51 48 47 48 48 49 50 51 50 49 51 50 49 50 50 48 46 49 49 47 49 50 48 47 51 50 40 38 37 35 31 30 30 29 30 32 35 37 40 40 41 42 41 41 40 38 38 37 38 38 34 33 32 30 -193 -193 -193 31 34 36 38 36 36 35 37 36 37 38 38 38 38 39 40 39 40 38 36 34 33 31 34 36 36 36 38 37 37 37 36 34 34 34 32 31 30 29 -193 -193 -193 24 26 26 25 -193 29 34 42 -209 48 52 48 44 44 -209 48 -209 -209 36 33 32 33 35 34 32 31 33 33 36 37 37 37 38 37 38 37 39 39 38 43 39 40 40 40 -177 -177 -177 -177 -177 42 -193 -193 172 173 173 173 174 172 -193 -193 -193 -193 -193 -193 -193 -193 41 42 43 42 42 43 43 43 42 44 43 41 43 43 44 44 44 43 47 46 47 47 47 0 0 0 0 0
    0 0 0 0 0 0 0 0 0 0 0 0 0 0 0 0 0 0 0 0 0 0 0 0 0 0 0 0 0 0 0 0 0 0 0 0 0 0 0 0 0 0 0 0 0 0 0 0 0 0 0 0 0 0 0 0 0 0 0 0 0 0 0 0 0 0 0 0 0 -209 44 44 -209 -209 -193 -209 -209 -209 -209 -209 -209 -209 -209 -193 -209 -193 35 36 35 35 35 36 36 36 35 35 33 36 36 35 32 31 30 33 36 37 37 38 38 37 37 38 38 38 38 -209 -209 -209 41 41 43 44 43 43 43 45 47 52 49 47 47 48 49 49 51 50 49 51 50 50 50 51 49 46 49 50 47 49 50 49 47 52 52 40 39 38 35 31 30 30 29 31 34 36 35 39 39 40 40 40 40 39 37 37 36 38 38 37 36 35 33 -193 -209 -193 35 36 36 38 37 37 35 37 36 37 38 38 38 39 39 40 39 41 39 36 35 34 32 34 37 37 37 38 38 38 37 37 35 36 35 31 30 -193 -193 -193 -193 -193 15 26 39 -209 -209 -209 -209 52 -209 59 61 58 -209 -209 -209 -193 -193 73 75 75 77 -193 -193 36 34 31 34 33 36 38 38 38 39 38 39 38 40 41 39 44 39 40 40 40 41 -177 -177 -177 -177 42 -193 -193 -193 173 173 173 174 172 -193 173 -193 -193 -193 173 -193 -193 41 42 43 42 42 42 43 43 42 43 42 42 44 44 45 45 44 44 48 46 47 47 47 0 0 0 0 0
    0 0 0 0 0 0 0 0 0 0 0 0 0 0 0 0 0 0 0 0 0 0 0 0 0 0 0 0 0 0 0 0 0 0 0 0 0 0 0 0 0 0 0 0 0 0 0 0 0 0 0 0 0 0 0 0 0 0 0 0 0 0 0 0 0 0 0 0 0 -209 -209 43 -209 -209 43 -209 -209 -209 -209 -209 -177 -209 -193 -177 -177 -209 36 37 35 35 36 36 37 37 35 35 32 35 35 35 32 30 29 33 36 37 37 39 38 38 37 38 38 38 39 -209 -193 -193 -193 41 44 45 44 44 44 44 49 52 50 47 47 48 49 49 51 50 49 51 51 50 51 51 49 46 49 50 47 50 50 49 49 53 53 40 39 39 -193 -193 32 32 30 33 36 37 34 39 39 39 39 38 39 39 37 38 36 38 38 38 38 38 35 -209 -209 40 39 39 37 39 37 37 35 37 35 37 38 38 38 38 39 40 39 41 39 37 36 36 32 35 37 38 38 39 40 40 38 38 37 37 37 32 -193 -193 -193 0 0 -177 11 26 -209 61 -209 -209 -209 58 66 65 67 66 -209 -209 -193 -193 74 -193 76 75 79 79 78 -209 -193 31 35 33 36 38 38 39 39 38 39 38 40 41 39 44 39 40 40 40 41 41 40 -177 -177 42 -193 -193 -193 -193 -193 174 174 172 -193 173 -193 -193 176 174 -193 -193 41 42 43 42 42 42 43 43 42 43 42 42 44 45 46 45 45 45 48 46 47 47 46 0 0 0 0 0
    0 0 0 0 0 0 0 0 0 0 0 0 0 0 0 0 0 0 0 0 0 0 0 0 0 0 0 0 0 0 0 0 0 0 0 0 0 0 0 0 0 0 0 0 0 0 0 0 0 0 0 0 0 0 0 0 0 0 0 0 0 0 0 0 0 0 0 0 0 -209 -193 44 42 44 45 43 -193 -193 -193 -209 -209 -209 -209 -209 -193 -209 -193 37 35 36 36 36 36 36 34 35 32 35 35 34 32 31 30 34 36 -193 37 39 -193 38 38 38 38 39 40 -209 540 -193 -193 41 44 45 44 44 43 45 51 53 51 47 47 -193 48 49 51 50 49 50 50 50 51 51 49 46 50 51 48 51 51 51 51 54 54 40 40 41 -193 -193 36 36 34 36 38 39 35 40 39 39 -193 -193 -193 -193 37 39 37 38 38 39 39 37 33 -193 -209 39 39 39 35 38 37 37 35 36 35 37 38 38 38 38 39 40 39 41 39 37 35 35 31 35 37 39 38 39 39 40 39 39 37 38 38 34 -193 -193 -193 0 0 0 10 27 -177 62 -193 61 -209 60 67 66 67 68 -209 -209 -209 -193 75 -209 77 76 80 81 81 77 -193 30 35 32 36 38 38 39 39 38 39 39 40 41 39 44 40 41 41 41 41 41 41 -177 41 43 42 -177 -193 -193 -193 174 175 -177 172 174 176 176 176 174 173 170 -209 -193 -193 -209 -193 42 43 43 41 42 41 42 44 46 48 46 45 45 48 46 47 47 46 0 0 0 0 0
    0 0 0 0 0 0 0 0 0 0 0 0 0 0 0 0 0 0 0 0 0 0 0 0 0 0 0 0 0 0 0 0 0 0 0 0 0 0 0 0 0 0 0 0 0 0 0 0 0 0 0 0 0 0 0 0 0 0 0 0 0 0 0 0 0 0 0 0 0 -209 -209 -193 43 46 48 46 43 43 44 -193 -209 -193 -209 -209 -209 -209 36 37 35 35 35 36 36 36 34 35 32 35 35 35 33 31 31 34 37 -193 -193 39 -193 -209 39 39 40 -193 42 -209 540 -193 -193 43 45 46 46 46 44 47 54 55 54 -193 -193 -193 -193 49 50 50 50 49 51 50 52 52 51 48 51 52 50 52 52 52 52 54 54 43 42 45 -193 38 37 37 35 37 39 40 34 39 39 -193 -193 979 -209 -193 -193 -193 38 39 38 39 39 37 33 36 -193 38 37 38 34 37 36 37 34 36 35 37 38 38 38 39 39 40 39 41 39 38 36 36 31 36 39 42 41 43 45 47 41 40 38 39 38 -193 -193 -193 0 0 0 0 0 -193 -177 -177 63 63 63 62 69 67 69 70 -209 -209 -193 -193 -193 -193 78 77 81 83 83 82 79 -193 34 33 37 39 39 39 40 39 40 40 41 42 39 45 40 41 41 41 41 42 41 43 41 43 42 -193 -193 -177 -177 -177 -177 -177 172 174 176 177 176 174 172 169 168 -209 96 -209 -193 42 43 43 41 42 41 43 46 48 50 48 46 46 49 46 47 47 46 0 0 0 0 0
    0 0 0 0 0 0 0 0 0 0 0 0 0 0 0 0 0 0 0 0 0 0 0 0 0 0 0 0 0 0 0 0 0 0 0 0 0 0 0 0 0 0 0 0 0 0 0 0 0 0 0 0 0 0 0 0 0 0 0 0 0 0 0 0 0 0 0 0 0 -193 -177 -209 -209 50 52 -193 -193 -193 -209 -209 -209 -209 -209 -209 -209 -209 -209 37 36 36 35 36 37 37 35 35 33 36 37 37 35 32 32 36 38 -193 -193 -193 -209 -209 -193 40 42 44 50 -209 -193 -209 -193 49 51 52 50 50 49 52 58 59 -209 -193 -209 50 -193 52 51 51 51 50 51 51 52 51 52 50 51 53 51 52 52 52 52 52 53 44 43 51 48 39 39 39 37 39 40 41 32 37 37 -193 978 979 -193 -193 -193 -193 38 39 38 39 41 39 36 -209 -193 40 38 39 35 37 36 38 34 37 36 37 38 38 38 39 38 40 -193 41 39 39 37 37 31 37 -193 44 42 47 53 55 48 43 39 40 40 -193 -193 -193 0 0 0 0 9 -193 -177 -177 64 64 66 64 71 70 -209 -209 -177 -193 -209 -193 76 -193 79 78 82 84 85 85 -193 85 -193 30 36 39 39 40 41 40 41 41 42 43 40 46 40 42 41 41 42 42 -177 -177 41 43 -193 -193 -193 175 175 175 175 173 172 174 176 176 175 173 172 169 -193 -209 -193 -209 -193 43 43 43 41 42 41 44 47 50 52 49 48 48 50 47 48 48 46 0 0 0 0 0
    0 0 0 0 0 0 0 0 0 0 0 0 0 0 0 0 0 0 0 0 0 0 0 0 0 0 0 0 0 0 0 0 0 0 0 0 0 0 0 0 0 0 0 0 0 0 0 0 0 0 0 0 0 0 0 0 0 0 0 0 0 0 0 0 0 0 0 0 0 -193 -193 -177 -177 -209 -209 -209 -193 -193 -193 -177 -209 -177 -209 -209 -209 -209 -209 -209 -209 -209 36 -193 -193 38 36 34 32 -209 -209 -209 -209 444 -209 -193 -193 -209 -193 289 -209 -209 -209 -209 -193 -193 52 -193 -209 -193 -193 -209 -209 -209 -209 -209 -209 -209 -209 -209 -209 -209 -209 -209 -209 -209 -209 51 -193 -193 -193 -209 470 471 -193 -209 -193 -209 -209 -193 45 45 46 42 43 42 44 54 55 43 42 42 -225 -225 44 -209 30 36 37 -209 -193 -193 -209 -209 -209 -209 -209 -193 -193 40 -209 -209 -209 -209 -209 -209 -225 -193 36 37 36 38 33 36 35 37 37 38 38 39 38 40 -209 42 41 40 -209 -209 -209 -209 -209 -209 -209 44 -209 -193 -209 42 37 39 -209 -209 -193 0 0 0 0 -177 0 -209 -193 66 65 65 65 64 -193 69 -209 -209 -193 -209 -193 77 77 77 80 80 83 85 86 -193 -209 -209 -209 -209 35 40 39 41 42 41 42 43 44 46 40 48 41 43 42 42 -177 -193 -177 -177 -177 -193 -193 -193 174 176 175 176 176 174 173 174 177 176 174 173 171 169 -193 -209 -193 -209 -193 -193 43 43 41 42 -193 45 49 51 53 51 50 50 51 48 48 48 46 0 0 0 0 0
    0 0 0 0 0 0 0 0 0 0 0 0 0 0 0 0 0 0 0 0 0 0 0 0 0 0 0 0 0 0 0 0 0 0 0 0 0 0 0 0 0 0 0 0 0 0 0 0 0 0 0 0 0 0 0 0 0 0 0 0 0 0 0 0 0 0 0 0 0 -177 -193 -209 -193 -209 -209 -209 -177 -177 -177 -177 -177 -177 -193 -209 -209 -193 -193 -209 -209 -209 -209 -209 -177 -209 -209 -209 -193 -209 -209 -209 -209 -209 283 285 285 284 284 288 287 289 286 290 289 -193 -193 -209 -209 -209 -209 54 -209 -209 -209 -209 -209 -193 273 -193 -193 -209 -209 -209 -193 -193 -209 -209 -209 -209 468 -209 -193 -209 -209 -209 -209 -193 -209 -209 21 24 -209 -193 -193 -193 -209 -209 -209 -209 -209 54 -225 54 -209 -209 -193 -209 -209 -193 -209 -209 -209 -209 -193 -209 -209 -209 70 -209 -209 74 75 -209 -209 -209 -209 -209 -209 34 33 36 31 35 33 37 38 -193 -193 40 39 41 -209 43 -193 -209 -209 -209 396 -193 -209 -209 -209 -209 -209 468 -209 -209 -209 -209 -209 -209 -209 -193 -209 -193 -193 -209 -193 -209 -193 -193 -193 63 -209 -209 -209 -209 -209 -209 -209 -209 -209 -193 -193 -193 82 82 84 85 87 88 -209 -209 -209 -209 -193 -193 39 41 42 41 43 43 45 47 41 52 42 43 42 41 -209 -209 -209 -193 -209 -209 -177 174 174 176 175 175 177 175 173 175 178 176 173 172 170 -193 -193 -209 -193 -209 -209 -209 -209 -193 -193 -193 39 48 50 53 53 52 51 50 51 48 49 48 45 0 0 0 0 0
    0 0 0 0 0 0 0 0 0 0 0 0 0 0 0 0 0 0 0 0 0 0 0 0 0 0 0 0 0 0 0 0 0 0 0 0 0 0 0 0 0 0 0 0 0 0 0 0 0 0 0 0 0 0 0 0 0 0 0 0 0 0 0 0 0 0 0 0 0 -177 279 -209 -193 -209 -209 -209 476 478 483 484 -177 -177 -209 -209 -209 -209 -209 -209 279 -209 -209 -209 -209 -209 -209 -209 34 -209 -209 -193 -193 -193 284 285 285 284 284 286 285 286 284 286 286 284 288 285 284 283 283 284 -193 -193 -209 -209 -209 -193 -193 -193 275 277 -209 -209 -209 -209 -209 -209 -193 281 283 284 284 283 283 279 280 -193 283 -209 -209 -209 -193 799 -209 797 -193 799 -193 -193 957 -209 43 -209 -209 -193 222 226 -209 -193 284 -193 -209 -209 -209 -193 -209 71 75 79 80 82 83 85 87 -193 -193 -193 -193 -193 -193 -209 -209 -209 -209 -193 -209 -209 -209 -193 -193 -209 -209 -209 -209 -209 -209 -193 -193 -209 -209 -209 -209 -209 -209 -193 -209 -209 -209 -209 -209 -209 -209 -209 -209 -209 -209 -209 -209 -209 -209 60 -209 -209 -209 -209 -209 -193 -209 -209 -209 -209 -209 -209 -209 -209 -193 81 83 83 85 85 -193 851 -193 -209 -209 -193 -209 -193 -193 -209 45 45 46 48 42 -193 -209 -209 -209 -209 -209 -209 -209 -209 -209 -209 -209 -209 -193 -193 173 173 177 174 172 175 -209 -193 171 170 -209 -209 -209 -193 -193 -209 -209 -209 -209 -209 -209 -209 -209 53 54 -193 -193 -193 53 52 50 47 -209 -193 43 0 0 0 0 0
    0 0 0 0 0 0 0 0 0 0 0 0 0 0 0 0 0 0 0 0 0 0 0 0 0 0 0 0 0 0 0 0 0 0 0 0 0 0 0 0 0 0 0 0 0 0 0 0 0 0 0 0 0 0 0 0 0 0 0 0 0 0 0 0 0 0 0 0 0 278 279 280 280 -209 -193 -209 -193 479 483 -193 -193 -209 -209 -193 -209 -209 -209 282 279 279 277 277 278 279 279 -209 35 -193 -193 -193 -193 287 285 285 285 284 283 284 282 283 282 283 284 283 285 284 284 284 283 284 282 -193 -193 -193 -209 -193 -193 277 278 281 -193 280 282 279 -193 281 281 280 283 283 283 283 283 281 280 281 282 -193 -193 -209 -193 284 284 -193 -209 797 -209 -209 -209 -209 -177 -193 -209 284 -193 -193 283 284 285 284 282 280 277 -193 276 276 274 -193 -193 -193 -193 -193 290 287 285 286 285 284 285 -193 -193 285 287 287 -193 -193 -193 -193 -193 -193 283 285 285 286 284 287 286 286 286 286 285 285 -193 -193 283 284 283 292 -209 276 -193 -209 -209 -209 -209 989 -209 -193 -209 -193 -209 -209 -209 282 282 283 285 284 287 285 287 285 287 287 286 286 286 -193 -193 -193 -193 -193 -193 -193 -209 -193 -209 210 212 -193 -193 -209 -209 -209 -209 71 76 -193 84 -193 -209 -193 291 291 292 290 290 288 -193 -193 -209 -209 -193 -193 -209 -209 -209 -209 -209 -209 -209 -193 -193 -193 -193 -209 -209 -209 -209 0 0 0 0 -209 -209 -209 -209 -209 -209 -209 -193 -209 -209 -193 -209 0 0 0 0 0
    0 0 0 0 0 0 0 0 0 0 0 0 0 0 0 0 0 0 0 0 0 0 0 0 0 0 0 0 0 0 0 0 0 0 0 0 0 0 0 0 0 0 0 0 0 0 0 0 0 0 0 0 0 0 0 0 0 0 0 0 0 0 0 0 0 0 0 0 0 279 279 280 280 -193 -193 -209 -193 480 485 -193 -193 -209 -209 -193 282 -193 280 281 279 278 277 277 278 280 279 -209 -193 286 -193 286 285 286 284 284 284 283 282 283 281 282 281 282 283 282 284 283 283 283 283 284 281 281 280 280 281 280 281 279 279 281 280 281 281 279 280 280 281 280 282 282 283 282 283 281 280 281 282 280 280 281 281 283 284 286 283 -193 282 284 282 -209 -177 -193 -193 284 283 283 283 283 284 283 281 279 278 278 277 277 276 276 278 281 283 286 288 286 285 285 286 285 285 285 284 286 287 287 287 287 286 285 285 -193 -193 -193 284 285 283 286 286 285 285 285 284 284 283 283 283 282 281 283 280 278 281 283 283 282 -209 -193 -209 280 281 280 280 280 281 282 282 283 284 284 286 285 286 284 286 285 284 285 285 285 285 -193 285 285 286 -193 -193 -193 -193 -193 -193 -209 -193 -209 -209 -209 -209 -193 -193 -193 -193 -193 -193 291 292 291 292 290 290 289 286 286 -209 -209 97 99 100 98 96 96 95 -209 101 102 102 -193 -209 -209 -209 -209 -209 -209 -193 0 0 -209 -209 -209 -209 -209 -209 -209 -209 -209 -209 -209 -209 0 0 0 0 0
    0 0 0 0 0 0 0 0 0 0 0 0 0 0 0 0 0 0 0 0 0 0 0 0 0 0 0 0 0 0 0 0 0 0 0 0 0 0 0 0 0 0 0 0 0 0 0 0 0 0 0 0 0 0 0 0 0 0 0 0 0 0 0 0 0 0 0 0 0 279 280 280 281 -193 -193 -209 478 481 485 -209 -209 -209 -209 283 282 283 281 282 279 279 278 278 279 280 -193 -209 -193 285 -193 285 285 286 284 284 283 283 282 283 281 281 280 281 283 282 283 283 283 283 283 284 282 281 280 280 281 281 281 279 279 281 280 280 281 279 279 280 281 280 283 282 283 283 283 282 281 282 282 280 280 281 281 283 283 285 283 282 282 283 281 -193 -209 282 283 284 283 283 283 283 283 283 282 281 279 280 280 280 279 -193 280 282 284 286 288 286 285 285 286 285 285 284 284 286 286 287 286 287 285 284 284 284 283 284 283 284 282 285 285 285 285 285 283 284 283 283 283 282 281 282 281 279 282 283 284 283 282 -193 281 281 282 280 281 280 281 282 282 283 284 284 286 284 285 284 285 284 284 285 284 284 284 284 285 285 286 285 283 -193 -193 -193 -193 283 -193 -209 -193 -193 -209 -193 -193 -193 -193 -193 -193 290 291 291 292 290 290 289 286 286 285 284 -209 -209 -209 -193 -209 -209 -209 -193 -193 -193 -193 -209 -209 -209 -209 -209 -209 -209 -209 -209 -209 -209 -209 -209 -209 -209 -209 -209 -209 -209 -209 -209 -209 0 0 0 0 0
    0 0 0 0 0 0 0 0 0 0 0 0 0 0 0 0 0 0 0 0 0 0 0 0 0 0 0 0 0 0 0 0 0 0 0 0 0 0 0 0 0 0 0 0 0 0 0 0 0 0 0 0 0 0 0 0 0 0 0 0 0 0 0 0 0 0 0 0 0 280 281 281 281 281 -193 -193 -193 -193 -193 -193 280 281 281 282 282 283 282 282 280 279 279 279 279 280 280 -209 -193 284 -193 285 285 285 284 283 283 282 282 283 281 281 280 281 282 282 283 283 283 282 283 283 281 281 280 280 281 280 281 279 280 280 280 281 281 279 280 279 281 280 283 283 283 283 284 282 281 282 282 280 280 281 281 283 283 284 282 282 282 283 281 -193 -209 283 284 285 284 284 284 284 284 284 282 282 281 281 281 281 281 281 281 283 284 286 287 285 285 285 286 285 285 284 283 285 286 287 286 286 285 284 284 284 283 283 282 283 282 284 285 284 285 285 284 285 283 284 283 283 282 283 283 280 282 284 285 283 282 282 282 281 282 281 282 281 282 283 283 284 284 284 286 285 285 284 285 284 284 285 284 284 284 284 285 285 286 285 283 283 283 -193 283 282 -193 283 283 -209 -193 -193 -193 286 -193 -193 -193 290 291 290 292 290 290 288 286 286 285 284 284 -209 -209 -209 -209 285 288 291 291 -193 -209 -209 -209 -209 -209 -209 -193 183 170 170 -209 -209 -209 -209 -209 125 128 -209 -209 -209 283 285 289 0 0 0 0 0
    0 0 0 0 0 0 0 0 0 0 0 0 0 0 0 0 0 0 0 0 0 0 0 0 0 0 0 0 0 0 0 0 0 0 0 0 0 0 0 0 0 0 0 0 0 0 0 0 0 0 0 0 0 0 0 0 0 0 0 0 0 0 0 0 0 0 0 0 0 281 281 281 281 281 280 281 -193 -193 -193 280 280 281 281 282 281 282 282 282 280 279 279 278 279 280 280 -209 -193 284 -193 285 285 285 284 283 283 282 282 282 281 281 280 280 282 282 282 283 283 282 282 283 281 280 280 280 281 280 281 279 280 280 281 281 281 279 280 279 281 281 283 283 283 283 284 283 281 282 282 281 280 281 281 283 282 283 282 282 282 283 281 -193 -209 284 285 286 285 284 285 284 284 285 283 283 281 282 282 282 282 283 282 284 284 286 287 285 285 284 285 284 284 283 283 285 285 286 285 286 285 284 284 283 283 283 282 283 282 284 285 285 285 285 284 285 284 284 284 283 283 284 284 282 283 284 285 283 282 282 282 281 282 281 282 281 283 283 283 284 284 284 286 285 285 284 285 285 284 285 285 285 284 285 285 285 286 285 283 283 283 283 283 283 282 283 283 -193 284 284 285 286 290 291 289 290 291 290 291 290 290 288 287 287 285 285 284 -193 -209 -209 -193 285 287 290 290 291 291 -193 -193 -193 -209 -209 183 184 172 172 -209 -193 285 286 290 291 -177 292 294 293 289 288 288 0 0 0 0 0
    0 0 0 0 0 0 0 0 0 0 0 0 0 0 0 0 0 0 0 0 0 0 0 0 0 0 0 0 0 0 0 0 0 0 0 0 0 0 0 0 0 0 0 0 0 0 0 0 0 0 0 0 0 0 0 0 0 0 0 0 0 0 0 0 0 0 0 0 0 282 281 281 281 281 -193 281 -193 280 280 280 280 281 280 282 -193 282 -209 -193 -193 279 279 279 279 280 280 -209 -209 284 284 285 285 285 284 284 283 283 282 282 281 280 279 279 281 281 281 283 283 282 282 282 281 280 280 280 281 280 281 279 280 280 281 281 281 279 280 279 281 281 283 283 283 283 284 283 281 282 282 281 280 281 281 282 282 282 282 282 282 283 281 -193 282 284 286 286 285 285 286 284 284 286 283 283 282 282 283 283 283 283 282 284 284 286 286 285 285 284 285 284 284 283 283 284 285 286 285 286 285 284 284 284 283 283 282 283 282 283 285 285 285 285 284 285 284 284 284 283 284 285 286 284 284 285 286 284 283 282 282 282 283 281 282 282 283 283 283 284 284 284 285 285 285 284 285 285 285 285 285 285 284 285 285 285 286 285 284 283 283 284 283 283 283 283 284 284 285 285 285 287 290 290 289 290 291 290 291 289 289 288 287 287 285 285 284 283 283 284 284 285 286 289 288 290 290 289 287 -193 -209 -209 -193 -209 -193 -209 284 286 286 289 292 294 294 293 295 293 289 289 288 0 0 0 0 0
    0 0 0 0 0 0 0 0 0 0 0 0 0 0 0 0 0 0 0 0 0 0 0 0 0 0 0 0 0 0 0 0 0 0 0 0 0 0 0 0 0 0 0 0 0 0 0 0 0 0 0 0 0 0 0 0 0 0 0 0 0 0 0 0 0 0 0 0 0 282 282 282 281 282 -193 281 -193 281 280 280 280 281 280 281 281 282 -193 282 -193 280 280 279 280 281 280 -209 -209 284 284 284 285 284 284 283 283 283 281 281 279 278 277 277 280 280 280 283 283 282 282 282 281 280 280 280 281 281 281 279 281 281 281 281 281 279 280 279 281 281 283 282 283 283 284 283 282 282 282 280 280 281 281 282 281 282 281 282 282 282 281 282 282 284 286 286 285 285 287 284 284 287 283 283 282 283 283 283 283 283 282 284 284 285 286 285 284 284 284 284 284 283 283 284 285 287 285 286 285 284 284 284 283 283 282 283 282 283 284 284 284 284 284 285 284 284 284 284 284 285 286 284 285 286 287 284 284 283 283 282 284 282 283 282 284 284 284 284 284 284 285 285 285 284 285 285 285 285 285 285 284 285 285 285 286 285 284 284 284 285 284 284 283 283 284 284 285 286 286 287 289 290 289 290 290 290 290 289 289 288 287 288 286 286 284 283 284 284 284 285 285 287 287 288 289 288 287 287 -193 284 -193 -193 -193 -193 286 287 286 289 292 293 293 293 294 292 288 289 288 0 0 0 0 0
    0 0 0 0 0 0 0 0 0 0 0 0 0 0 0 0 0 0 0 0 0 0 0 0 0 0 0 0 0 0 0 0 0 0 0 0 0 0 0 0 0 0 0 0 0 0 0 0 0 0 0 0 0 0 0 0 0 0 0 0 0 0 0 0 0 0 0 0 0 282 282 282 281 282 280 281 -193 280 280 280 280 280 280 281 281 281 281 282 280 280 280 280 280 280 280 -193 -209 283 283 283 284 284 283 283 283 283 281 281 279 276 276 276 278 279 279 281 281 281 282 281 281 281 281 281 282 281 282 281 282 281 281 281 281 279 279 279 281 281 282 282 282 283 284 283 282 282 281 280 281 281 281 282 281 281 281 282 282 282 281 282 282 284 285 286 285 285 287 284 283 287 283 284 283 283 283 283 284 284 282 284 283 285 285 284 284 284 284 284 284 283 283 285 285 287 285 286 286 284 284 284 284 284 282 283 282 282 283 283 283 283 283 284 283 283 284 283 284 284 285 284 286 286 288 285 285 285 285 284 285 283 285 284 286 285 285 285 284 285 284 285 284 283 284 284 284 285 284 285 283 285 285 285 286 285 284 284 285 286 285 285 284 284 285 285 287 287 286 287 288 289 288 289 289 289 289 288 288 288 286 288 286 286 285 284 284 285 284 286 285 287 286 288 287 287 286 286 285 284 284 285 285 285 286 287 286 288 290 292 291 290 293 290 287 288 288 0 0 0 0 0
    0 0 0 0 0 0 0 0 0 0 0 0 0 0 0 0 0 0 0 0 0 0 0 0 0 0 0 0 0 0 0 0 0 0 0 0 0 0 0 0 0 0 0 0 0 0 0 0 0 0 0 0 0 0 0 0 0 0 0 0 0 0 0 0 0 0 0 0 0 283 283 282 281 281 280 280 279 280 279 279 279 279 279 280 280 281 280 281 280 280 280 280 280 280 279 280 280 282 282 282 283 283 283 283 282 282 281 280 278 276 276 275 278 279 278 280 280 280 282 280 281 281 281 281 282 282 282 281 282 281 282 281 281 279 279 278 280 281 282 281 282 283 284 284 282 282 281 281 281 281 281 281 280 280 280 281 281 281 280 281 281 283 285 285 284 285 287 284 283 287 283 284 283 283 283 283 284 284 282 284 283 285 284 284 284 284 284 284 283 283 284 285 285 287 285 286 286 284 284 284 284 284 282 283 282 282 283 282 283 282 282 283 282 282 283 283 284 284 286 285 286 286 289 286 286 285 286 285 286 284 286 284 287 285 286 286 285 286 285 286 284 284 285 284 284 285 284 285 283 285 285 285 286 285 285 285 286 287 285 285 285 285 286 285 288 287 287 287 287 288 287 287 287 287 287 286 286 287 285 287 285 286 285 285 285 286 285 287 285 288 287 288 286 286 285 285 285 284 284 284 284 285 287 287 286 287 288 291 290 289 292 289 287 288 287 0 0 0 0 0
    0 0 0 0 0 0 0 0 0 0 0 0 0 0 0 0 0 0 0 0 0 0 0 0 0 0 0 0 0 0 0 0 0 0 0 0 0 0 0 0 0 0 0 0 0 0 0 0 0 0 0 0 0 0 0 0 0 0 0 0 0 0 0 0 0 0 0 0 0 283 282 282 281 281 -193 280 279 279 278 278 278 279 279 279 279 280 280 281 280 280 280 281 280 280 279 279 279 281 281 282 282 282 282 282 282 282 281 280 278 277 276 275 278 279 278 280 280 280 282 280 281 280 281 281 282 282 282 281 282 281 281 281 281 279 279 278 281 281 282 281 282 283 284 284 282 282 281 280 280 279 280 279 278 278 278 279 280 279 280 281 281 283 284 285 284 284 286 283 282 287 283 284 283 284 284 283 285 285 282 284 284 285 284 283 284 283 283 283 283 282 283 283 284 285 285 285 285 284 284 284 284 284 282 283 282 282 283 282 282 282 282 283 282 282 284 283 286 285 286 286 287 287 289 286 286 285 285 285 285 283 285 283 286 284 286 286 285 287 285 286 285 284 285 285 285 285 284 285 283 286 286 285 286 285 286 285 287 288 286 285 286 285 287 286 289 289 287 288 287 288 287 287 287 286 286 286 285 287 286 288 286 286 285 286 286 288 287 287 285 288 287 287 286 285 284 284 284 284 284 284 284 285 286 287 285 286 286 289 288 287 291 288 287 287 287 0 0 0 0 0
    0 0 0 0 0 0 0 0 0 0 0 0 0 0 0 0 0 0 0 0 0 0 0 0 0 0 0 0 0 0 0 0 0 0 0 0 0 0 0 0 0 0 0 0 0 0 0 0 0 0 0 0 0 0 0 0 0 0 0 0 0 0 0 0 0 0 0 0 0 282 282 282 281 -193 -193 280 -193 279 278 278 278 279 278 279 279 280 280 281 281 281 280 280 280 279 279 279 279 280 281 281 281 282 283 283 283 283 281 281 279 278 277 275 278 280 278 280 280 280 282 279 281 280 281 281 282 282 283 281 282 281 282 282 281 280 280 279 281 282 282 282 282 283 284 284 282 282 281 280 280 279 279 279 277 278 278 279 280 280 281 282 282 284 285 286 285 285 287 284 283 287 283 284 283 284 284 283 285 285 283 284 284 284 284 283 284 282 282 281 282 282 282 283 283 284 284 285 285 284 284 285 284 284 283 283 283 282 283 282 282 282 282 283 283 283 284 284 287 287 288 287 287 287 289 286 286 284 284 284 284 283 284 282 284 283 285 285 284 287 285 287 285 285 285 285 286 285 285 285 284 286 286 286 286 285 286 285 287 287 286 285 287 285 287 287 290 290 288 289 288 288 287 287 287 287 286 286 285 287 286 289 286 287 285 286 286 288 287 288 285 287 286 287 286 286 285 285 284 285 284 284 284 284 285 285 284 284 284 287 286 286 291 288 287 287 287 0 0 0 0 0
    0 0 0 0 0 0 0 0 0 0 0 0 0 0 0 0 0 0 0 0 0 0 0 0 0 0 0 0 0 0 0 0 0 0 0 0 0 0 0 0 0 0 0 0 0 0 0 0 0 0 0 0 0 0 0 0 0 0 0 0 0 0 0 0 0 0 0 0 0 -193 282 -193 -193 281 -193 -193 -193 279 278 278 277 278 278 279 278 279 279 281 280 280 280 280 279 279 279 279 279 280 281 281 281 282 283 283 283 283 281 281 279 280 278 276 278 280 278 -193 -193 280 280 279 280 280 281 281 282 282 283 281 283 282 282 282 282 281 281 279 281 282 281 282 282 282 283 283 282 281 280 280 279 278 279 279 278 278 278 280 281 280 281 283 283 284 285 285 285 285 287 284 283 287 283 284 283 283 283 283 284 284 282 283 283 284 283 283 283 282 282 281 282 282 282 283 284 284 285 285 285 285 284 285 285 284 283 283 283 283 283 282 282 282 282 283 283 283 284 284 287 288 288 288 288 288 289 286 286 284 284 283 283 282 283 282 283 282 284 284 284 286 285 287 285 285 286 286 286 286 285 285 284 286 286 286 286 285 286 285 287 287 286 285 287 286 288 288 291 291 289 290 288 288 287 287 287 287 285 286 285 287 286 289 287 287 286 287 286 288 287 288 284 286 285 286 287 286 285 285 284 285 285 284 284 283 284 284 284 284 283 286 285 286 290 288 287 287 287 0 0 0 0 0
    0 0 0 0 0 0 0 0 0 0 0 0 0 0 0 0 0 0 0 0 0 0 0 0 0 0 0 0 0 0 0 0 0 0 0 0 0 0 0 0 0 0 0 0 0 0 0 0 0 0 0 0 0 0 0 0 0 0 0 0 0 0 0 0 0 0 0 0 0 -193 -193 -193 -193 281 -193 -193 279 279 277 277 277 278 277 278 279 279 279 281 280 280 279 280 279 279 279 279 278 280 281 281 281 283 283 283 283 283 281 281 280 280 -193 276 279 -209 -193 -209 -193 -193 -209 279 280 280 281 282 283 283 284 282 283 282 283 282 282 281 281 280 281 281 281 282 282 282 282 283 282 281 280 280 279 278 278 278 278 278 279 279 281 281 281 283 283 284 284 284 285 285 286 283 283 285 283 283 283 283 283 282 284 284 282 283 283 284 283 283 283 282 282 281 282 283 283 283 285 284 285 285 286 285 284 284 284 284 283 283 283 282 282 281 281 281 282 283 282 282 284 284 287 288 288 289 288 288 289 286 286 284 283 283 283 282 282 281 282 282 283 283 284 286 285 288 286 285 286 286 286 285 284 285 283 285 286 286 286 285 286 286 287 287 286 286 288 287 289 289 292 292 290 290 289 288 287 287 287 286 285 286 285 288 286 289 288 288 287 288 287 288 286 289 284 284 284 284 286 286 285 285 283 285 285 284 283 282 283 283 283 283 282 285 284 285 290 287 287 287 287 0 0 0 0 0
    0 0 0 0 0 0 0 0 0 0 0 0 0 0 0 0 0 0 0 0 0 0 0 0 0 0 0 0 0 0 0 0 0 0 0 0 0 0 0 0 0 0 0 0 0 0 0 0 0 0 0 0 0 0 0 0 0 0 0 0 0 0 0 0 0 0 0 0 0 -193 -193 283 282 281 280 280 279 278 277 277 277 278 277 279 279 280 280 281 280 -193 280 280 279 279 279 279 278 280 280 281 281 282 283 282 283 283 281 281 279 280 -193 -193 280 -209 -193 -209 -193 -193 -209 279 281 281 282 282 283 283 285 283 284 283 283 282 282 281 281 280 281 281 282 282 282 282 282 284 282 282 281 280 279 278 279 278 278 278 279 279 280 281 282 283 283 283 283 284 284 284 284 283 282 285 283 283 283 282 282 282 283 283 282 283 282 283 283 283 283 282 283 282 283 284 284 284 286 285 286 285 286 285 284 285 285 284 284 284 284 282 282 281 281 281 281 282 282 282 283 283 285 288 287 288 288 288 288 286 286 284 283 283 283 282 282 281 281 281 282 283 284 287 285 288 286 286 286 286 286 285 284 285 283 284 285 285 286 285 286 285 287 286 286 285 287 287 289 289 291 291 290 290 289 288 287 286 286 286 285 286 286 288 286 289 288 288 288 288 288 288 286 289 284 284 283 284 286 285 285 285 283 285 285 284 283 281 282 282 282 282 282 284 284 285 289 287 286 287 287 0 0 0 0 0
    0 0 0 0 0 0 0 0 0 0 0 0 0 0 0 0 0 0 0 0 0 0 0 0 0 0 0 0 0 0 0 0 0 0 0 0 0 0 0 0 0 0 0 0 0 0 0 0 0 0 0 0 0 0 0 0 0 0 0 0 0 0 0 0 0 0 0 0 0 282 282 283 282 282 280 -193 279 -193 -193 277 277 278 278 279 280 280 279 281 279 280 279 280 279 278 278 278 278 279 279 280 280 282 281 282 282 283 280 281 279 280 -209 -193 280 -209 -209 -209 -193 -193 -209 -209 282 -193 282 283 283 283 285 283 284 283 283 282 282 281 281 280 281 281 282 282 282 282 283 284 283 283 281 280 280 -193 -193 279 278 279 279 279 281 281 282 283 283 283 283 283 284 284 284 282 282 284 282 283 283 282 282 282 283 283 281 282 282 283 283 283 283 283 283 283 284 285 284 284 286 284 285 285 286 285 284 285 285 284 285 284 284 283 283 282 282 282 282 282 282 282 282 283 284 286 286 287 287 287 288 285 285 284 283 283 283 282 282 281 281 281 283 283 285 287 285 289 287 286 286 286 286 285 284 284 283 284 285 285 285 284 285 285 286 285 285 284 286 286 288 289 291 290 290 289 288 287 287 286 286 286 285 286 286 287 286 288 287 288 287 287 287 287 286 288 283 283 282 283 285 284 284 284 282 284 284 283 282 281 282 281 281 282 282 284 283 285 289 286 286 286 286 0 0 0 0 0
    0 0 0 0 0 0 0 0 0 0 0 0 0 0 0 0 0 0 0 0 0 0 0 0 0 0 0 0 0 0 0 0 0 0 0 0 0 0 0 0 0 0 0 0 0 0 0 0 0 0 0 0 0 0 0 0 0 0 0 0 0 0 0 0 0 0 0 0 0 282 282 284 282 282 280 -209 -193 -193 -193 -193 276 278 278 279 279 279 279 281 280 280 279 280 278 278 278 278 278 279 279 279 279 281 281 281 281 282 280 281 279 280 -193 278 281 -193 -209 -209 -193 338 -193 -209 -209 -209 -209 -193 283 283 284 283 283 282 282 282 282 281 281 279 280 281 282 282 282 282 283 284 283 283 282 280 -193 -193 -209 -193 279 279 279 279 281 281 282 284 283 284 283 283 284 284 284 283 282 284 282 283 282 282 282 282 283 283 282 282 282 283 283 283 283 283 283 283 283 285 284 284 285 284 285 285 285 285 284 285 284 284 285 284 284 284 283 282 282 282 282 282 282 282 282 282 283 285 285 286 285 286 287 285 285 283 283 283 282 282 282 281 281 281 282 283 285 287 285 289 287 286 286 285 285 284 284 284 283 283 284 284 285 284 285 284 286 284 284 283 285 285 287 288 289 289 288 288 287 286 287 285 285 285 285 286 286 287 285 287 286 287 286 286 285 286 284 286 282 282 281 282 285 284 284 284 283 285 284 283 283 281 282 281 281 281 282 284 283 285 289 286 287 287 286 0 0 0 0 0
    0 0 0 0 0 0 0 0 0 0 0 0 0 0 0 0 0 0 0 0 0 0 0 0 0 0 0 0 0 0 0 0 0 0 0 0 0 0 0 0 0 0 0 0 0 0 0 0 0 0 0 0 0 0 0 0 0 0 0 0 0 0 0 0 0 0 0 0 0 282 282 284 282 282 281 -209 -193 -193 -193 -193 277 278 278 278 279 278 279 281 280 280 279 279 278 278 278 278 278 279 278 279 279 282 281 281 281 281 279 281 278 279 277 277 280 -193 -209 -209 -193 -193 -209 -209 -209 -209 -193 -209 -209 282 284 282 283 282 282 282 282 281 281 280 281 281 282 282 282 282 283 284 283 283 282 281 -193 -193 -193 -193 -209 -209 281 280 281 282 283 285 283 284 284 283 284 284 284 283 282 284 282 283 282 282 282 282 283 283 282 282 282 283 283 283 283 283 283 282 283 284 283 284 285 284 285 284 285 285 284 285 284 284 285 284 284 284 283 283 282 282 282 282 282 282 282 282 283 284 284 286 285 286 286 284 284 283 283 282 282 282 281 280 280 280 282 282 284 286 285 290 288 286 286 285 285 284 284 284 282 282 284 284 285 284 284 284 285 283 283 282 283 283 286 286 287 288 287 287 287 286 287 286 286 287 286 287 287 287 285 287 286 286 285 285 284 284 282 283 280 281 280 282 285 284 285 285 284 286 285 284 284 282 282 281 281 281 282 284 283 285 289 286 287 287 286 0 0 0 0 0
    0 0 0 0 0 0 0 0 0 0 0 0 0 0 0 0 0 0 0 0 0 0 0 0 0 0 0 0 0 0 0 0 0 0 0 0 0 0 0 0 0 0 0 0 0 0 0 0 0 0 0 0 0 0 0 0 0 0 0 0 0 0 0 0 0 0 0 0 0 -193 282 284 283 282 281 -193 -193 -193 -193 -193 277 278 278 278 279 278 279 280 280 280 279 279 278 278 278 278 277 279 279 279 280 282 281 281 281 281 278 279 277 278 277 277 280 -193 -209 -209 -193 -193 -209 -193 -193 -209 -209 -209 -209 282 283 282 282 282 282 282 282 281 281 280 281 281 282 282 283 282 283 284 283 284 283 282 281 -193 -193 -193 -193 282 282 281 283 283 284 285 284 284 284 283 284 284 284 283 282 284 283 283 282 282 282 282 283 283 282 283 282 284 283 283 284 283 283 283 284 285 284 285 285 284 285 284 285 285 284 285 284 284 286 285 286 284 284 283 282 283 283 283 283 282 283 282 283 284 284 285 284 286 285 285 284 283 283 283 282 282 282 281 281 281 281 282 284 285 284 290 288 287 286 286 285 284 284 284 282 282 283 284 284 284 284 283 284 283 283 282 283 282 284 286 287 288 286 288 287 286 287 286 287 287 287 288 287 287 285 287 286 286 285 284 283 282 282 282 279 281 280 282 285 285 285 285 284 287 285 285 284 282 282 281 281 282 282 284 283 285 288 286 287 286 286 0 0 0 0 0
    0 0 0 0 0 0 0 0 0 0 0 0 0 0 0 0 0 0 0 0 0 0 0 0 0 0 0 0 0 0 0 0 0 0 0 0 0 0 0 0 0 0 0 0 0 0 0 0 0 0 0 0 0 0 0 0 0 0 0 0 0 0 0 0 0 0 0 0 0 -193 282 284 283 283 281 -193 -193 -193 -193 -193 278 -193 279 279 279 279 279 281 280 281 280 280 278 278 279 279 278 279 279 280 280 282 281 281 281 281 278 280 278 279 277 277 280 -193 279 -193 -193 -209 -177 -177 404 -209 -209 -209 -193 283 284 282 283 282 282 282 282 281 281 281 281 281 282 282 283 282 283 285 283 284 283 283 282 -193 -193 -193 283 284 283 283 283 284 284 286 284 284 284 284 285 284 284 283 282 284 283 283 283 282 282 282 283 283 282 283 282 284 284 284 284 284 284 284 285 286 285 286 286 284 286 285 286 285 284 285 284 284 286 285 285 284 284 283 282 283 283 283 283 282 283 282 282 283 283 284 283 284 284 284 284 284 283 283 283 283 282 282 281 282 281 282 283 284 283 290 288 287 286 286 285 284 284 283 282 281 282 283 283 283 283 283 284 282 283 282 283 282 284 285 286 287 286 287 286 286 287 286 286 287 287 288 287 287 285 286 286 286 284 283 282 281 281 281 279 280 279 281 284 285 285 285 284 286 285 284 284 283 282 281 282 282 283 283 283 285 288 286 287 286 286 0 0 0 0 0
    0 0 0 0 0 0 0 0 0 0 0 0 0 0 0 0 0 0 0 0 0 0 0 0 0 0 0 0 0 0 0 0 0 0 0 0 0 0 0 0 0 0 0 0 0 0 0 0 0 0 0 0 0 0 0 0 0 0 0 0 0 0 0 0 0 0 0 0 0 283 283 284 283 283 282 -193 -193 -193 -193 -209 279 -193 280 280 280 280 280 281 281 281 280 280 279 279 279 279 278 279 278 279 279 282 281 280 280 281 278 280 279 279 276 278 280 281 279 278 278 278 -193 -193 -177 -209 -209 -193 -193 282 283 282 282 282 282 282 282 281 281 281 282 282 283 283 283 283 283 285 283 284 284 283 283 -193 283 283 283 284 284 283 283 284 284 286 284 284 284 283 284 284 284 283 281 284 283 283 282 282 282 282 283 284 282 283 283 284 284 284 284 284 284 284 285 286 285 286 286 284 285 285 286 285 284 284 283 284 285 284 285 283 283 284 283 283 283 283 283 282 283 282 282 283 283 283 282 284 284 284 284 284 283 284 283 284 283 283 282 283 282 283 284 284 283 290 287 287 286 286 285 284 284 283 282 281 282 283 283 283 283 283 284 282 283 282 283 282 283 284 284 285 285 286 286 286 286 286 286 287 287 288 287 286 285 286 285 285 284 283 282 281 281 281 279 280 279 281 283 283 284 284 283 285 284 284 284 282 282 281 281 282 283 284 283 286 288 286 287 287 286 0 0 0 0 0
    0 0 0 0 0 0 0 0 0 0 0 0 0 0 0 0 0 0 0 0 0 0 0 0 0 0 0 0 0 0 0 0 0 0 0 0 0 0 0 0 0 0 0 0 0 0 0 0 0 0 0 0 0 0 0 0 0 0 0 0 0 0 0 0 0 0 0 0 0 282 282 284 283 283 282 -193 281 282 -193 -209 280 -193 280 -193 280 280 280 281 281 281 280 280 278 278 278 278 277 278 277 278 278 281 279 279 279 279 277 279 278 277 273 277 279 279 277 277 277 278 278 -193 -193 277 278 280 281 282 282 281 282 281 282 282 282 281 281 281 282 283 283 283 284 283 283 285 283 284 284 283 283 282 283 283 283 284 284 283 284 284 284 286 284 285 284 283 284 284 284 283 281 284 283 283 283 282 283 283 283 285 282 284 283 285 284 284 284 284 284 284 284 285 284 285 285 284 285 284 285 285 284 284 283 283 285 284 285 284 284 285 283 284 284 283 283 283 283 282 282 282 282 282 282 284 283 284 284 284 283 284 284 284 283 283 282 283 283 283 284 284 284 289 287 287 286 286 286 284 284 283 282 281 282 283 283 283 282 282 284 282 283 282 283 283 283 284 284 285 284 286 285 286 286 286 286 287 286 287 286 286 284 285 284 285 283 283 282 281 281 280 278 279 278 280 282 283 283 283 283 284 283 284 283 282 281 280 280 282 283 284 283 286 288 286 287 287 286 0 0 0 0 0
    0 0 0 0 0 0 0 0 0 0 0 0 0 0 0 0 0 0 0 0 0 0 0 0 0 0 0 0 0 0 0 0 0 0 0 0 0 0 0 0 0 0 0 0 0 0 0 0 0 0 0 0 0 0 0 0 0 0 0 0 0 0 0 0 0 0 0 0 0 -209 282 284 283 282 282 283 282 282 281 -193 280 280 280 280 280 280 279 280 280 281 280 280 278 278 278 278 277 278 277 278 277 280 278 278 278 278 276 278 277 277 274 277 278 278 277 277 276 277 278 277 -193 276 278 280 -193 282 281 280 281 281 282 282 282 281 281 282 283 283 283 283 284 283 283 284 282 283 283 283 284 282 283 283 283 285 285 284 284 283 284 286 284 285 284 283 284 284 284 283 281 284 283 283 283 283 283 283 284 285 282 284 283 285 284 284 284 284 284 283 284 284 284 284 284 283 284 284 284 284 284 284 283 284 285 285 286 285 285 286 284 285 284 284 284 283 282 281 281 281 281 281 281 282 282 283 283 283 284 285 284 284 283 283 283 283 282 283 283 283 284 288 286 286 285 285 285 284 285 283 282 281 282 283 283 282 282 282 283 282 283 282 283 283 283 283 283 284 284 285 284 285 285 286 285 287 285 286 285 284 283 284 283 284 282 282 281 280 280 279 277 278 276 279 280 281 282 282 282 283 282 283 283 282 281 279 279 281 284 284 283 287 288 286 287 287 287 0 0 0 0 0
    0 0 0 0 0 0 0 0 0 0 0 0 0 0 0 0 0 0 0 0 0 0 0 0 0 0 0 0 0 0 0 0 0 0 0 0 0 0 0 0 0 0 0 0 0 0 0 0 0 0 0 0 0 0 0 0 0 0 0 0 0 0 0 0 0 0 0 0 0 -209 281 283 283 282 282 283 282 282 281 -193 280 281 281 280 280 280 279 280 281 281 280 280 278 278 278 278 277 277 277 277 277 280 278 278 278 278 276 277 277 277 274 277 278 277 276 276 276 277 278 277 -193 276 278 280 -193 282 281 -193 281 280 282 282 282 282 281 282 283 283 284 284 284 283 283 284 282 283 283 283 283 282 283 283 284 285 285 284 284 283 284 285 284 284 284 283 284 284 284 282 281 284 283 283 282 283 282 282 283 284 282 283 283 285 284 284 284 284 283 283 283 283 283 284 283 283 283 283 284 284 284 284 283 285 285 285 286 286 286 286 285 285 285 285 284 283 283 281 281 280 280 279 280 280 281 282 282 283 284 285 284 284 283 284 283 283 283 282 283 282 284 287 285 285 284 285 285 283 284 282 281 281 282 282 283 282 282 282 283 283 283 283 283 283 282 283 283 283 284 285 284 285 284 286 285 287 284 284 284 283 282 283 282 283 280 280 279 279 280 277 276 277 274 278 279 281 283 283 282 283 282 284 284 283 282 280 280 281 284 284 283 287 288 286 287 288 287 0 0 0 0 0
    0 0 0 0 0 0 0 0 0 0 0 0 0 0 0 0 0 0 0 0 0 0 0 0 0 0 0 0 0 0 0 0 0 0 0 0 0 0 0 0 0 0 0 0 0 0 0 0 0 0 0 0 0 0 0 0 0 0 0 0 0 0 0 0 0 0 0 0 0 -193 -193 282 283 282 282 283 282 282 282 281 281 281 281 280 280 280 279 280 281 281 279 280 279 278 278 278 277 278 277 277 277 280 278 279 278 278 276 278 278 277 275 277 278 277 276 276 275 276 277 276 -193 277 278 280 -193 282 281 280 281 280 282 282 282 282 281 283 283 283 284 283 284 283 283 283 281 282 283 282 283 281 282 282 283 284 284 283 283 282 283 285 284 284 284 284 284 283 284 282 281 284 282 283 282 282 282 282 283 284 282 283 283 284 284 284 284 284 283 282 283 282 283 283 282 282 283 283 284 284 284 284 283 286 284 284 285 285 285 285 284 285 285 285 284 284 283 281 281 280 280 279 279 280 280 281 282 283 283 284 284 284 283 284 283 283 283 282 283 282 285 286 285 285 284 285 285 283 284 282 281 281 282 282 283 282 283 282 283 283 283 283 283 283 282 282 282 283 284 285 284 285 285 287 286 288 285 285 284 282 282 282 282 282 280 280 279 279 279 277 276 276 275 279 280 282 284 284 284 284 283 284 284 284 282 280 280 281 284 284 283 287 287 287 288 288 288 0 0 0 0 0
    0 0 0 0 0 0 0 0 0 0 0 0 0 0 0 0 0 0 0 0 0 0 0 0 0 0 0 0 0 0 0 0 0 0 0 0 0 0 0 0 0 0 0 0 0 0 0 0 0 0 0 0 0 0 0 0 0 0 0 0 0 0 0 0 0 0 0 0 0 -209 -193 282 283 282 282 283 282 283 282 282 281 282 281 281 280 281 280 280 280 281 279 280 279 278 278 278 277 278 278 278 278 280 279 279 278 278 276 278 278 277 275 277 277 277 275 275 275 275 277 276 278 277 279 281 282 282 281 280 282 281 283 282 283 283 282 283 284 283 284 284 284 283 282 283 281 282 282 281 282 281 282 282 282 283 283 283 283 282 283 284 283 283 284 284 284 283 283 281 280 284 283 283 282 282 282 282 283 284 282 283 282 284 284 284 285 283 283 282 283 282 283 283 283 283 283 283 284 284 285 284 284 287 285 285 285 285 284 285 284 285 285 284 285 284 283 282 281 281 280 279 280 280 280 280 281 282 283 284 284 283 283 284 283 283 283 282 283 282 285 285 284 284 284 284 285 283 284 282 281 281 282 282 283 282 283 282 284 283 284 284 284 284 283 283 283 283 285 285 285 286 285 288 287 288 285 285 283 282 282 282 282 282 280 281 280 280 281 278 278 278 277 280 281 283 284 284 284 283 283 284 284 284 282 281 280 281 285 284 284 289 288 287 288 289 288 0 0 0 0 0
    0 0 0 0 0 0 0 0 0 0 0 0 0 0 0 0 0 0 0 0 0 0 0 0 0 0 0 0 0 0 0 0 0 0 0 0 0 0 0 0 0 0 0 0 0 0 0 0 0 0 0 0 0 0 0 0 0 0 0 0 0 0 0 0 0 0 0 0 0 -193 -193 281 282 281 282 283 282 283 282 282 282 282 282 281 281 282 280 281 281 281 280 280 280 279 278 278 277 279 278 278 278 280 279 279 278 278 276 278 278 278 275 277 278 277 276 276 275 276 278 277 280 279 281 282 282 283 281 280 281 280 282 281 282 282 281 283 284 283 283 284 284 283 282 283 281 282 281 281 282 280 281 281 282 282 282 282 283 281 283 283 283 283 284 284 284 283 283 281 280 284 283 282 282 282 282 282 283 284 282 282 282 283 284 283 285 283 282 282 282 282 283 282 282 282 283 283 284 284 284 283 284 287 284 285 285 285 285 286 285 286 285 285 285 284 283 282 281 280 280 279 280 280 279 279 280 281 282 284 284 283 283 284 284 283 283 283 282 282 286 285 284 284 284 284 285 283 284 281 281 282 282 282 282 282 283 282 284 283 284 284 285 285 284 283 283 283 285 285 284 285 285 287 287 287 285 283 283 -193 282 281 282 282 281 282 281 -193 282 280 280 279 279 280 281 283 283 282 282 281 282 283 283 283 281 281 281 282 287 286 285 290 288 288 288 289 288 0 0 0 0 0
    0 0 0 0 0 0 0 0 0 0 0 0 0 0 0 0 0 0 0 0 0 0 0 0 0 0 0 0 0 0 0 0 0 0 0 0 0 0 0 0 0 0 0 0 0 0 0 0 0 0 0 0 0 0 0 0 0 0 0 0 0 0 0 0 0 0 0 0 0 -193 -193 279 -193 280 281 282 281 283 282 282 282 282 282 281 281 282 281 281 281 281 -193 281 280 279 278 278 277 279 278 277 278 280 278 278 278 278 276 278 279 278 275 278 278 277 276 276 276 276 278 278 280 279 281 282 282 282 280 279 280 279 281 281 281 282 281 282 283 283 283 284 285 283 283 283 281 282 281 281 282 280 281 280 281 281 281 282 282 281 282 282 282 282 283 283 283 282 282 280 280 283 282 282 282 282 282 282 283 283 281 282 282 283 283 283 284 282 282 281 281 281 282 281 281 282 282 282 283 283 283 282 283 286 283 284 284 285 285 286 285 286 284 284 284 283 283 282 281 280 279 279 279 279 278 278 279 281 282 283 283 283 283 284 284 283 283 282 282 281 287 284 284 283 283 284 284 283 284 281 281 282 282 282 282 281 282 282 284 283 284 285 286 286 284 284 283 283 285 284 284 -193 285 287 287 287 285 282 283 -193 -193 281 282 282 -193 -193 -193 -193 -193 280 280 278 278 279 280 281 281 280 279 280 280 282 282 282 281 281 281 282 289 286 286 290 288 288 288 289 288 0 0 0 0 0
    0 0 0 0 0 0 0 0 0 0 0 0 0 0 0 0 0 0 0 0 0 0 0 0 0 0 0 0 0 0 0 0 0 0 0 0 0 0 0 0 0 0 0 0 0 0 0 0 0 0 0 0 0 0 0 0 0 0 0 0 0 0 0 0 0 0 0 0 0 -193 -193 -193 -193 278 280 282 281 282 282 282 282 282 282 281 281 282 280 281 281 281 280 280 280 279 278 277 276 279 277 277 278 279 279 278 278 278 276 278 279 278 275 277 277 276 275 275 275 275 278 278 279 279 280 281 280 281 279 278 279 278 280 280 280 281 280 282 283 283 283 283 284 283 283 283 282 282 281 280 282 280 281 280 281 281 282 282 283 281 282 282 282 282 282 282 282 281 281 279 280 282 281 281 281 281 281 281 282 282 281 282 282 283 282 282 283 282 281 280 281 280 281 281 281 281 282 282 282 282 282 282 283 285 283 284 284 285 286 286 285 284 283 282 283 282 281 280 280 279 278 279 279 279 278 278 279 280 282 283 283 282 283 284 284 283 -193 282 282 282 287 284 283 283 283 283 284 283 283 281 281 282 282 282 282 281 282 282 283 283 283 283 284 284 283 282 282 281 284 283 283 -193 -193 -193 -193 285 283 280 282 -193 -193 281 282 -193 -193 -193 -193 -193 -193 280 279 277 277 279 279 281 281 280 280 280 280 282 282 281 281 280 281 281 288 286 286 290 287 288 288 289 288 0 0 0 0 0
    0 0 0 0 0 0 0 0 0 0 0 0 0 0 0 0 0 0 0 0 0 0 0 0 0 0 0 0 0 0 0 0 0 0 0 0 0 0 0 0 0 0 0 0 0 0 0 0 0 0 0 0 0 0 0 0 0 0 0 0 0 0 0 0 0 0 0 0 0 276 -193 -193 -193 278 280 282 281 282 282 282 282 282 282 281 281 281 280 280 280 280 279 279 280 278 277 277 276 279 278 277 278 279 279 278 278 278 276 277 278 277 275 276 277 276 275 276 275 276 278 278 280 279 -193 -193 -193 281 280 278 279 278 280 280 280 280 279 281 282 282 282 283 283 282 283 283 282 282 281 280 281 280 281 280 281 281 281 281 283 281 282 281 281 281 281 281 281 280 280 279 280 281 281 281 281 281 281 281 282 282 281 281 282 282 282 282 284 282 282 281 281 281 281 281 281 281 281 282 282 282 282 282 283 285 282 285 285 285 285 285 284 283 282 281 282 281 280 279 279 278 278 279 279 278 277 278 279 280 282 283 283 282 283 284 285 284 283 283 282 282 287 284 283 282 282 283 283 282 282 280 280 281 282 281 281 281 282 281 283 282 282 282 283 283 282 281 281 280 282 282 282 -193 283 -193 -193 283 282 280 280 280 282 281 282 -193 -193 -193 -193 -193 -193 280 280 278 278 279 280 282 281 280 281 281 281 282 282 282 282 281 281 281 289 286 286 290 287 287 287 288 288 0 0 0 0 0
    0 0 0 0 0 0 0 0 0 0 0 0 0 0 0 0 0 0 0 0 0 0 0 0 0 0 0 0 0 0 0 0 0 0 0 0 0 0 0 0 0 0 0 0 0 0 0 0 0 0 0 0 0 0 0 0 0 0 0 0 0 0 0 0 0 0 0 0 0 276 -193 -193 -193 278 280 281 280 282 282 282 282 282 282 281 281 282 281 281 281 280 280 280 280 279 278 277 277 280 278 278 278 280 279 279 279 278 276 278 278 277 275 276 277 277 277 278 278 278 280 280 282 -193 -193 -193 -193 281 280 278 279 278 279 279 279 280 278 280 281 281 281 282 283 282 283 283 283 283 281 280 281 280 280 279 -193 280 281 281 282 281 282 281 280 280 280 280 280 279 279 278 279 281 281 -193 281 281 281 281 282 281 281 281 281 281 281 282 284 282 282 281 281 281 281 281 281 281 282 282 282 282 282 282 283 285 282 285 284 285 284 284 283 282 280 280 280 281 280 279 279 278 278 279 279 279 278 278 279 281 282 284 283 283 284 285 285 284 283 283 282 283 287 283 282 282 282 282 282 282 282 279 279 281 281 281 281 280 281 281 282 282 282 282 283 282 282 281 281 280 282 282 282 -193 282 282 284 283 282 280 280 280 282 280 282 -193 -193 -193 -193 -193 283 281 282 280 280 280 282 282 282 281 282 281 283 283 284 283 285 284 284 283 291 286 287 290 286 287 287 288 287 0 0 0 0 0
    0 0 0 0 0 0 0 0 0 0 0 0 0 0 0 0 0 0 0 0 0 0 0 0 0 0 0 0 0 0 0 0 0 0 0 0 0 0 0 0 0 0 0 0 0 0 0 0 0 0 0 0 0 0 0 0 0 0 0 0 0 0 0 0 0 0 0 0 0 -193 274 -193 -193 278 279 280 280 281 281 281 282 282 282 281 281 282 281 281 281 281 281 280 281 280 280 279 280 282 279 279 279 280 279 279 279 278 275 277 278 277 275 276 278 278 278 279 280 280 281 281 283 -193 282 281 -193 281 279 278 279 278 279 279 279 279 277 279 280 280 280 281 282 281 283 283 283 283 282 280 280 279 280 -193 279 279 279 280 281 281 282 280 280 280 280 279 279 279 278 277 279 280 281 281 281 281 281 281 282 281 281 280 281 281 281 281 283 281 281 281 281 281 281 282 281 282 282 282 282 282 282 282 283 284 282 284 283 284 284 283 283 282 280 280 280 281 280 279 279 279 279 279 279 279 278 279 280 281 282 284 284 284 285 286 286 285 283 283 282 283 287 283 282 282 282 282 282 282 282 280 -193 281 281 281 281 280 281 281 282 283 283 283 284 283 282 281 281 281 282 282 282 -193 -193 282 284 283 282 281 281 280 281 280 281 281 -193 -193 281 282 282 281 283 281 282 282 283 283 283 282 283 282 283 283 284 284 286 286 287 284 291 287 287 291 286 287 286 287 287 0 0 0 0 0
    0 0 0 0 0 0 0 0 0 0 0 0 0 0 0 0 0 0 0 0 0 0 0 0 0 0 0 0 0 0 0 0 0 0 0 0 0 0 0 0 0 0 0 0 0 0 0 0 0 0 0 0 0 0 0 0 0 0 0 0 0 0 0 0 0 0 0 0 0 -193 274 -193 -209 277 279 279 279 281 281 281 282 281 281 281 281 281 281 282 282 281 282 281 282 281 281 281 282 283 280 280 280 281 280 278 278 277 274 276 277 277 274 276 278 278 279 280 281 281 282 282 283 281 281 281 280 280 278 277 278 278 278 278 278 278 276 278 279 279 279 280 281 281 282 283 282 283 282 281 280 279 -193 -193 -193 -193 279 -193 280 280 281 280 279 279 279 279 279 279 278 278 279 -193 281 281 281 282 282 281 282 281 280 280 281 280 280 280 282 281 281 280 281 281 282 282 282 282 282 282 282 282 282 281 282 283 281 283 282 283 283 283 283 282 281 281 280 281 280 280 280 279 279 280 280 280 279 280 281 282 282 284 283 284 285 286 286 286 284 284 283 285 288 283 282 282 282 282 283 282 282 -193 -209 282 282 281 282 281 282 282 284 284 284 284 285 283 282 281 281 280 281 281 281 -193 -193 -209 283 282 282 281 -193 280 -193 280 281 280 -193 -193 280 282 282 281 283 282 283 282 283 283 282 282 283 282 283 283 284 284 285 285 286 285 291 287 287 291 286 287 286 287 286 0 0 0 0 0
    0 0 0 0 0 0 0 0 0 0 0 0 0 0 0 0 0 0 0 0 0 0 0 0 0 0 0 0 0 0 0 0 0 0 0 0 0 0 0 0 0 0 0 0 0 0 0 0 0 0 0 0 0 0 0 0 0 0 0 0 0 0 0 0 0 0 0 0 0 -209 274 -193 -193 277 279 279 279 280 280 280 280 280 280 279 279 280 280 281 281 282 282 282 282 281 282 282 282 283 280 279 279 280 279 278 278 277 273 275 277 276 274 275 279 278 279 280 281 281 282 282 283 281 281 280 279 279 278 277 277 277 277 277 277 278 275 277 278 278 278 279 280 281 282 282 282 283 282 281 -193 -193 -193 -193 -193 -193 279 -193 280 280 280 280 279 279 279 279 279 279 278 278 279 -193 281 281 281 282 282 282 282 281 281 281 281 280 279 279 281 280 280 280 280 281 282 282 282 282 282 282 282 282 281 281 281 282 281 282 281 283 283 283 283 282 281 281 281 281 280 280 280 280 280 280 280 280 279 281 281 282 283 284 283 284 285 286 285 285 284 285 284 285 288 283 283 282 283 283 283 283 282 -193 -209 -193 -193 -193 282 282 282 283 284 285 285 284 286 283 282 281 281 280 280 279 279 278 278 279 281 280 281 280 280 280 280 280 281 280 281 280 281 282 282 282 283 282 284 282 283 282 282 281 283 282 282 282 284 284 287 287 287 286 292 287 288 291 286 286 286 286 286 0 0 0 0 0
    0 0 0 0 0 0 0 0 0 0 0 0 0 0 0 0 0 0 0 0 0 0 0 0 0 0 0 0 0 0 0 0 0 0 0 0 0 0 0 0 0 0 0 0 0 0 0 0 0 0 0 0 0 0 0 0 0 0 0 0 0 0 0 0 0 0 0 0 0 276 273 -193 -209 277 279 279 279 280 279 280 280 279 279 278 279 279 279 280 281 282 283 282 283 281 282 282 282 282 280 278 278 279 279 277 277 276 272 273 276 276 274 276 279 279 280 281 281 282 282 282 283 280 280 279 278 279 278 277 277 277 277 277 277 277 274 275 277 277 277 279 280 281 282 282 282 282 282 282 281 -193 -193 278 279 280 280 -193 280 280 280 280 279 279 279 279 278 278 278 277 279 280 280 281 281 282 281 281 282 -193 281 281 281 281 280 279 281 280 280 280 280 281 282 282 282 282 282 282 282 281 281 280 280 281 280 282 281 282 282 282 283 282 281 281 281 281 280 280 280 280 279 280 280 280 279 280 281 281 282 283 283 283 284 285 283 284 283 284 284 285 288 283 283 283 283 283 284 283 283 281 -193 -193 -193 -193 283 282 282 283 284 285 285 284 286 283 282 281 281 280 280 279 279 277 278 279 280 280 281 280 280 281 281 280 281 280 281 281 281 282 282 282 283 283 284 283 284 282 282 282 283 283 283 282 284 285 287 287 287 286 291 287 288 290 286 286 285 286 286 0 0 0 0 0</data></disparity>
</opencv_storage>
