<?xml version="1.0"?>
<opencv_storage>
<gps_time_stamp>27710</gps_time_stamp>
<gps_x>-6.2021484375000000e+000</gps_x>
<gps_y>9.5358157157897949e-001</gps_y>
<gps_z>-1.7236886024475098e+000</gps_z>
<image_time_stamp>15664</image_time_stamp>
<disparity type_id="opencv-matrix">
  <rows>82</rows>
  <cols>320</cols>
  <dt>s</dt>
  <data>
    0 0 0 0 0 0 0 0 0 0 0 0 0 0 0 0 0 0 0 0 0 0 0 0 0 0 0 0 0 0 0 0 0 0 0 0 0 0 0 0 0 0 0 0 0 0 0 0 0 0 0 0 0 0 0 0 0 0 0 0 0 0 0 0 0 0 0 0 0 -193 107 106 108 106 106 107 107 109 108 109 111 111 115 113 114 114 112 114 113 114 113 108 109 111 113 117 115 117 117 118 120 118 116 114 110 109 108 108 109 112 114 116 115 115 114 110 113 107 107 108 107 107 106 106 106 105 108 -209 -209 -193 -193 107 109 111 113 114 115 117 117 116 110 111 106 105 105 105 106 105 106 107 106 107 107 107 107 105 105 105 104 104 105 105 105 105 107 107 105 105 104 104 103 103 103 103 104 104 104 105 104 106 105 105 104 104 104 104 104 104 104 104 103 103 104 106 105 105 105 105 105 105 106 105 105 107 108 107 108 111 113 112 113 107 107 106 106 105 104 104 106 105 106 106 106 107 106 107 107 106 106 107 107 107 107 106 106 106 106 107 108 106 106 106 107 108 107 107 107 107 111 111 111 110 110 116 117 115 112 110 109 110 109 110 110 110 111 110 110 112 112 112 110 110 108 109 110 111 111 110 113 119 111 114 109 107 106 108 112 115 116 119 120 129 129 127 128 128 127 126 126 126 123 122 122 121 115 115 116 116 -225 118 118 116 117 116 111 0 0 0 0 0
    0 0 0 0 0 0 0 0 0 0 0 0 0 0 0 0 0 0 0 0 0 0 0 0 0 0 0 0 0 0 0 0 0 0 0 0 0 0 0 0 0 0 0 0 0 0 0 0 0 0 0 0 0 0 0 0 0 0 0 0 0 0 0 0 0 0 0 0 0 112 110 109 111 108 108 109 108 110 110 110 113 112 116 113 114 116 115 116 115 115 116 109 114 115 116 118 118 119 119 119 121 120 117 115 112 113 113 114 114 116 118 118 118 117 116 114 116 110 109 110 108 108 108 107 107 106 109 -193 -209 109 107 109 112 113 115 116 117 119 119 118 116 117 111 107 107 107 107 107 107 108 106 108 108 109 108 106 106 105 105 104 104 105 105 106 107 107 106 106 104 104 103 103 103 102 103 104 103 105 104 105 105 105 104 104 104 103 104 104 104 104 103 104 105 106 106 105 106 106 106 106 106 106 106 108 109 108 110 112 113 112 114 108 108 106 107 105 105 105 107 105 106 105 106 106 106 106 107 106 106 107 107 107 106 106 106 106 106 106 106 105 105 105 107 108 107 107 107 108 112 112 112 111 111 117 118 116 114 112 110 111 109 110 110 111 111 110 110 112 112 112 111 110 108 110 111 113 112 112 116 121 115 116 110 107 106 109 113 116 117 119 120 130 129 127 128 128 127 126 126 126 122 122 122 120 115 115 116 116 117 117 118 117 118 118 116 0 0 0 0 0
    0 0 0 0 0 0 0 0 0 0 0 0 0 0 0 0 0 0 0 0 0 0 0 0 0 0 0 0 0 0 0 0 0 0 0 0 0 0 0 0 0 0 0 0 0 0 0 0 0 0 0 0 0 0 0 0 0 0 0 0 0 0 0 0 0 0 0 0 0 114 113 111 113 110 109 110 109 111 110 111 113 112 116 114 115 116 116 117 116 117 117 112 117 118 119 119 119 119 119 119 120 120 118 116 115 116 117 118 118 119 120 120 120 119 119 117 117 113 111 112 110 109 109 108 108 107 111 111 108 111 109 109 113 114 116 116 118 119 119 119 118 118 115 109 109 109 109 109 110 109 107 109 110 110 110 107 106 106 105 104 105 106 107 107 109 109 107 107 106 105 105 103 103 103 103 104 103 105 104 105 104 105 104 104 104 104 104 104 104 104 104 105 105 106 106 105 106 106 106 106 107 106 106 109 110 109 110 112 112 112 114 109 109 107 108 107 105 105 107 105 105 105 105 105 105 106 106 105 106 106 106 106 106 105 105 105 105 106 105 105 105 105 107 108 107 108 107 109 113 113 112 111 112 118 119 118 116 114 113 114 111 112 112 113 112 112 112 114 114 113 111 111 109 111 112 113 111 113 117 122 116 115 109 107 106 110 115 117 118 120 120 130 127 126 127 127 126 126 126 126 122 122 122 119 114 115 115 114 116 116 116 116 117 118 117 0 0 0 0 0
    0 0 0 0 0 0 0 0 0 0 0 0 0 0 0 0 0 0 0 0 0 0 0 0 0 0 0 0 0 0 0 0 0 0 0 0 0 0 0 0 0 0 0 0 0 0 0 0 0 0 0 0 0 0 0 0 0 0 0 0 0 0 0 0 0 0 0 0 0 115 115 113 115 113 112 112 110 113 114 115 116 114 117 115 116 117 117 118 118 118 119 115 120 120 120 119 119 119 119 119 119 119 119 116 117 118 119 120 120 120 121 121 121 120 120 118 118 116 114 115 113 111 111 110 108 107 113 111 109 112 110 111 114 115 117 117 118 120 120 120 119 119 116 111 111 110 111 111 112 110 108 110 110 111 111 108 107 106 106 105 107 107 109 109 111 111 109 109 109 105 106 105 104 104 104 105 104 105 105 105 104 105 104 105 105 105 105 105 105 105 105 106 106 107 106 106 106 107 106 108 108 107 107 110 112 112 111 112 110 112 114 110 109 108 108 108 106 105 108 104 105 105 -193 105 105 106 106 105 106 106 107 106 106 106 105 105 105 106 105 105 105 105 108 109 108 108 108 109 113 113 113 111 112 118 119 119 117 117 117 118 117 117 116 115 113 113 114 115 114 114 112 112 110 112 113 114 111 114 118 122 114 113 109 107 107 111 116 119 119 120 121 130 126 126 127 127 126 126 126 126 122 123 123 119 114 114 115 114 115 115 115 115 116 116 115 0 0 0 0 0
    0 0 0 0 0 0 0 0 0 0 0 0 0 0 0 0 0 0 0 0 0 0 0 0 0 0 0 0 0 0 0 0 0 0 0 0 0 0 0 0 0 0 0 0 0 0 0 0 0 0 0 0 0 0 0 0 0 0 0 0 0 0 0 0 0 0 0 0 0 117 116 115 115 115 114 114 113 115 -193 -193 -193 115 118 116 117 118 118 118 118 118 119 116 121 122 122 120 120 120 120 120 120 119 119 117 118 119 121 121 120 120 122 121 122 121 120 118 118 117 116 116 114 113 112 111 108 107 113 111 110 114 112 112 115 116 118 118 119 120 120 120 119 119 117 113 112 112 113 113 113 111 109 111 111 112 111 109 109 108 108 107 111 110 113 111 113 114 112 112 114 107 108 106 105 105 105 106 106 107 108 106 106 107 105 106 105 105 106 106 106 106 106 107 107 108 107 106 107 107 107 109 109 108 109 112 114 114 112 113 110 111 114 110 109 107 108 108 106 105 107 104 105 105 105 105 105 106 106 105 107 107 109 108 107 107 106 106 106 107 104 104 104 104 107 109 107 108 108 110 113 113 113 111 112 117 119 119 119 120 120 122 121 120 120 117 114 114 114 115 115 114 113 113 111 114 114 116 113 115 118 122 116 113 114 110 109 115 118 120 120 122 123 129 125 125 126 126 125 125 125 125 121 122 121 117 113 114 115 113 115 115 115 115 116 116 115 0 0 0 0 0
    0 0 0 0 0 0 0 0 0 0 0 0 0 0 0 0 0 0 0 0 0 0 0 0 0 0 0 0 0 0 0 0 0 0 0 0 0 0 0 0 0 0 0 0 0 0 0 0 0 0 0 0 0 0 0 0 0 0 0 0 0 0 0 0 0 0 0 0 0 -193 -193 116 117 116 115 115 114 -193 -209 -193 -193 -193 119 116 117 118 -193 -193 -193 -193 -193 -193 121 124 123 120 120 119 120 -193 -209 -209 117 115 -193 119 -193 -209 -209 -209 122 121 122 121 120 118 118 117 117 116 115 114 115 113 109 -193 -193 112 110 113 111 112 115 116 118 118 120 121 121 120 119 119 118 116 114 114 115 115 115 113 111 112 111 113 112 111 110 110 110 109 114 114 116 114 115 116 116 116 117 109 111 109 109 108 107 109 108 108 111 109 108 108 107 108 107 106 107 108 108 108 108 108 108 110 108 107 107 108 108 111 110 110 110 114 115 115 113 114 110 112 114 110 109 107 108 109 106 106 108 104 106 105 106 106 106 106 107 107 111 109 113 112 110 109 109 109 107 109 104 103 103 104 107 108 107 108 107 110 113 113 114 112 114 118 120 120 120 121 122 122 123 122 121 117 114 113 114 115 114 114 113 113 112 114 115 117 115 117 118 121 118 115 118 115 114 118 119 122 122 123 125 129 125 125 126 126 125 125 125 124 121 122 121 116 113 114 116 114 116 116 116 116 117 117 117 0 0 0 0 0
    0 0 0 0 0 0 0 0 0 0 0 0 0 0 0 0 0 0 0 0 0 0 0 0 0 0 0 0 0 0 0 0 0 0 0 0 0 0 0 0 0 0 0 0 0 0 0 0 0 0 0 0 0 0 0 0 0 0 0 0 0 0 0 0 0 0 0 0 0 -193 -193 117 117 117 116 116 -209 -209 -209 -193 187 -193 119 116 117 118 -193 -193 -193 -193 -193 -193 -193 128 126 120 120 119 119 -209 -209 -209 -193 114 -209 -209 -209 -209 -209 -209 -209 601 -193 -209 -209 118 118 118 118 117 117 116 117 117 -209 -209 -209 -193 110 113 111 112 114 116 118 118 120 122 122 121 119 120 120 118 116 116 116 116 117 115 113 113 112 113 112 113 112 111 111 111 115 115 117 116 116 117 117 117 118 113 115 114 115 113 111 112 112 112 116 114 111 112 109 111 110 108 110 110 110 110 110 110 110 112 110 109 109 109 109 114 112 111 112 115 116 116 115 116 111 114 115 111 110 109 110 110 107 107 109 105 107 -193 106 106 107 107 107 109 116 112 117 116 114 113 114 114 110 112 105 103 103 103 106 107 106 107 107 111 113 114 114 113 116 118 120 120 121 121 122 122 123 121 122 116 113 112 113 114 113 113 113 113 112 115 115 117 116 117 118 119 118 116 119 117 116 119 119 124 122 123 126 128 125 125 126 126 125 125 125 124 122 122 121 117 115 116 117 116 117 117 117 118 118 118 118 0 0 0 0 0
    0 0 0 0 0 0 0 0 0 0 0 0 0 0 0 0 0 0 0 0 0 0 0 0 0 0 0 0 0 0 0 0 0 0 0 0 0 0 0 0 0 0 0 0 0 0 0 0 0 0 0 0 0 0 0 0 0 0 0 0 0 0 0 0 0 0 0 0 0 -193 -193 116 117 117 116 117 -209 -209 -193 -177 188 -193 -193 116 117 118 -193 -193 -193 -193 -193 607 -193 129 127 119 118 118 119 -193 -209 -209 114 113 117 -209 -209 -209 -209 -209 -209 -193 -209 -209 -209 -193 -193 119 119 118 -193 117 118 -209 -209 -209 -209 -193 110 113 112 112 114 115 118 -209 -193 -209 -209 -209 120 -209 -193 119 117 117 117 117 117 116 114 114 112 114 113 114 113 112 111 111 116 116 118 117 117 119 119 118 118 114 116 115 117 115 113 114 115 114 117 115 113 114 112 113 112 110 112 112 113 112 112 112 113 115 112 111 110 111 111 115 113 113 114 116 116 117 116 116 112 115 115 112 112 111 112 112 110 109 110 106 108 -193 107 107 108 108 108 113 118 115 118 117 115 115 116 116 112 115 107 103 104 103 107 108 107 108 107 111 114 115 115 114 117 118 120 120 120 121 121 122 123 121 123 117 113 112 113 114 113 113 114 114 114 116 117 118 117 118 119 118 118 116 118 117 117 119 120 124 123 123 127 127 125 125 126 126 125 125 125 123 122 123 122 118 117 118 118 116 117 117 117 119 118 118 119 0 0 0 0 0
    0 0 0 0 0 0 0 0 0 0 0 0 0 0 0 0 0 0 0 0 0 0 0 0 0 0 0 0 0 0 0 0 0 0 0 0 0 0 0 0 0 0 0 0 0 0 0 0 0 0 0 0 0 0 0 0 0 0 0 0 0 0 0 0 0 0 0 0 0 -209 -193 116 118 -193 -193 -193 -209 -193 -193 189 189 -193 118 116 116 118 -193 -193 -193 -193 -193 -193 -193 131 130 118 118 118 119 -193 -209 -209 114 113 -193 -209 -209 -209 -209 604 -209 601 600 -193 -209 -193 -193 119 119 118 -193 -193 -193 -209 -209 -193 -209 -193 110 113 -193 -193 -193 115 -193 -209 -209 -209 -209 -209 -209 -209 -209 -193 -193 -193 -193 -193 -193 -193 115 115 113 115 -193 -193 -193 114 111 111 115 116 118 117 117 119 119 118 118 115 117 116 118 116 114 115 117 116 118 116 114 115 114 116 115 113 116 115 116 115 115 114 114 115 113 112 111 111 112 116 114 114 115 116 116 117 116 116 112 116 115 113 114 114 114 114 114 113 115 108 110 107 108 108 109 108 110 115 118 116 118 117 116 115 117 117 114 116 111 105 105 104 110 109 108 109 109 113 114 116 115 115 117 118 120 120 120 121 121 122 123 121 123 117 114 113 113 116 115 115 117 116 117 118 118 119 118 118 119 117 118 117 119 118 119 120 122 126 124 124 130 128 126 126 127 126 125 125 125 123 122 123 122 119 118 118 119 116 117 116 116 117 116 117 117 0 0 0 0 0
    0 0 0 0 0 0 0 0 0 0 0 0 0 0 0 0 0 0 0 0 0 0 0 0 0 0 0 0 0 0 0 0 0 0 0 0 0 0 0 0 0 0 0 0 0 0 0 0 0 0 0 0 0 0 0 0 0 0 0 0 0 0 0 0 0 0 0 0 0 -193 204 -209 -209 -209 -209 -209 -209 -209 -193 193 190 -209 -209 -193 116 118 -193 -193 -193 118 118 -209 123 131 133 -193 118 -193 -209 -209 -209 -209 -193 -193 -193 287 -209 -193 289 291 -209 -209 599 -209 -209 -209 -209 -193 -209 -193 -193 -193 -209 -209 363 372 -193 -209 109 -193 -193 -193 -193 -193 -209 -209 -209 -209 -209 -209 -209 -209 -209 -193 -193 -193 -193 -193 -193 -209 116 116 113 116 -209 -193 -193 -193 112 112 116 116 117 117 117 118 119 118 -193 -193 117 117 119 117 117 117 118 117 118 116 -193 -193 115 116 116 115 -209 -193 117 116 116 114 113 115 114 112 110 111 113 117 114 114 115 116 116 117 116 116 111 115 115 114 114 114 115 116 116 117 118 110 113 109 109 110 112 110 112 117 119 117 119 117 117 116 118 118 117 118 117 109 112 113 118 114 110 112 111 114 115 117 116 116 117 118 119 120 120 121 120 122 122 121 123 117 115 114 115 118 118 118 119 117 118 118 119 120 118 118 118 117 118 118 119 118 119 120 121 125 123 125 129 127 125 125 126 125 125 125 125 122 122 123 122 119 119 119 120 116 117 115 114 116 114 115 116 0 0 0 0 0
    0 0 0 0 0 0 0 0 0 0 0 0 0 0 0 0 0 0 0 0 0 0 0 0 0 0 0 0 0 0 0 0 0 0 0 0 0 0 0 0 0 0 0 0 0 0 0 0 0 0 0 0 0 0 0 0 0 0 0 0 0 0 0 0 0 0 0 0 0 203 207 214 -193 223 -209 -209 -209 -209 -209 -209 238 -209 -209 -209 -209 -209 -209 -209 -209 -209 -209 -193 -209 -209 -209 -209 -209 261 262 263 -209 269 281 281 284 288 287 -193 286 286 -209 265 -209 -209 -193 -209 -209 -193 -193 -193 290 -193 -193 -209 -209 -193 -193 -209 -193 -193 -209 -209 -193 -209 -209 -209 -209 283 293 -209 -209 -209 -209 -193 -209 -193 -193 -193 -209 -209 115 115 -209 115 -209 -209 -209 -193 -193 113 116 116 117 117 117 118 119 118 -193 -209 117 117 118 116 116 116 116 116 117 -193 -193 -193 116 116 -193 -209 -177 -193 -209 116 116 -193 114 114 115 111 110 111 114 118 114 115 116 116 117 117 116 116 111 115 115 -193 -193 -193 115 116 117 118 120 115 117 114 114 116 117 114 115 119 120 119 120 118 118 118 119 120 119 119 118 113 117 118 119 116 113 114 113 116 116 117 116 116 117 117 119 119 119 120 118 121 122 121 124 118 118 116 117 119 119 119 120 119 119 118 119 119 118 117 117 114 116 117 118 118 119 120 121 124 124 124 127 125 125 125 126 125 124 124 124 122 122 123 122 120 119 119 121 118 118 117 114 117 113 116 118 0 0 0 0 0
    0 0 0 0 0 0 0 0 0 0 0 0 0 0 0 0 0 0 0 0 0 0 0 0 0 0 0 0 0 0 0 0 0 0 0 0 0 0 0 0 0 0 0 0 0 0 0 0 0 0 0 0 0 0 0 0 0 0 0 0 0 0 0 0 0 0 0 0 0 203 206 214 -193 219 226 230 231 231 231 232 239 -209 -209 -209 -209 -209 235 -209 234 -193 243 247 -209 -209 -209 -209 261 265 269 273 -193 279 284 -209 286 293 291 -209 -209 284 -209 266 -209 -209 -209 -209 -209 -209 285 283 290 294 293 296 -209 -193 0 -193 339 342 345 -209 -209 -209 -209 -209 -209 282 287 289 -209 -209 -209 -209 -209 -193 -209 -209 -209 -209 -209 -209 -209 -209 -209 -209 -209 116 113 113 116 116 117 117 117 118 118 118 -193 -209 -193 117 118 115 116 115 115 115 117 -193 28 -193 -193 116 -193 -209 13 -177 -209 -193 -193 -209 116 115 116 114 113 115 117 119 115 116 116 117 117 117 116 116 111 116 115 -193 -193 -193 -193 116 118 120 121 118 119 118 119 120 119 118 118 120 121 120 120 118 118 118 119 120 119 119 119 116 120 121 121 119 116 116 115 116 116 118 116 116 117 117 119 119 119 120 119 121 122 121 123 118 120 116 117 119 120 120 121 119 119 118 118 117 116 116 115 112 114 115 117 116 119 121 120 122 124 124 127 125 125 125 125 125 125 124 124 121 122 122 122 120 120 120 122 120 120 119 116 120 114 -209 -209 0 0 0 0 0
    0 0 0 0 0 0 0 0 0 0 0 0 0 0 0 0 0 0 0 0 0 0 0 0 0 0 0 0 0 0 0 0 0 0 0 0 0 0 0 0 0 0 0 0 0 0 0 0 0 0 0 0 0 0 0 0 0 0 0 0 0 0 0 0 0 0 0 0 0 189 194 -209 -209 -209 -193 -209 226 224 228 -193 -209 -209 -209 -209 -209 -209 238 236 233 234 240 247 -209 -209 -209 -209 -209 272 278 -209 -209 287 -193 -209 -193 299 -209 -209 -209 -209 -209 -209 -209 -193 -209 -209 -209 -209 -209 -193 286 289 287 288 -209 -193 0 -209 336 343 346 347 -209 -209 -209 -209 -209 -209 290 291 -209 -209 -209 -209 -209 -209 -193 0 0 -209 -209 -209 -209 -209 -177 -177 -193 -193 113 112 115 116 117 117 117 118 118 119 -193 -209 -193 116 117 113 114 113 114 115 117 -193 29 30 -193 -193 -193 27 9 -193 -209 -209 -209 -209 -193 117 116 115 113 115 117 119 115 116 116 117 117 118 117 116 112 116 116 -177 -177 33 -193 116 118 120 122 120 120 119 121 122 121 120 119 121 121 120 120 118 118 118 119 120 119 120 120 118 121 122 122 121 118 117 117 117 117 119 116 116 118 117 119 119 119 119 118 121 121 120 122 119 120 119 118 119 122 122 122 120 119 118 118 117 117 116 115 111 114 116 116 114 118 120 120 122 124 123 126 124 124 125 125 125 125 123 124 121 122 122 122 121 121 121 122 121 122 121 118 -193 -209 -209 -209 0 0 0 0 0
    0 0 0 0 0 0 0 0 0 0 0 0 0 0 0 0 0 0 0 0 0 0 0 0 0 0 0 0 0 0 0 0 0 0 0 0 0 0 0 0 0 0 0 0 0 0 0 0 0 0 0 0 0 0 0 0 0 0 0 0 0 0 0 0 0 0 0 0 0 184 186 188 190 193 192 197 -193 191 -209 182 -193 -209 -209 -209 -209 267 260 -209 -209 -193 -193 354 -193 -209 -209 -193 -193 278 -193 -193 -193 -193 -209 -193 -193 -193 -193 -193 0 0 0 0 0 0 0 -209 -209 -209 -209 -209 286 -209 278 279 282 0 0 9 -209 -209 -209 -209 -209 -209 -209 -209 -209 -209 293 293 294 -209 -193 -209 -209 0 0 0 0 13 -209 -209 -193 -193 0 0 0 -209 -193 107 111 113 -177 -177 116 117 117 -209 -193 -209 -193 114 116 111 111 -193 111 114 -193 26 29 31 35 -193 30 29 -193 -193 -209 -209 -209 -209 -209 113 114 114 112 113 117 118 115 116 117 117 118 118 118 117 114 117 -209 -177 -177 31 -193 116 118 120 122 120 120 119 120 122 122 120 119 121 121 121 120 118 118 118 119 120 119 120 120 120 122 123 123 122 120 119 119 119 118 119 117 117 118 117 118 118 119 119 117 120 121 120 122 119 120 119 118 120 122 123 123 120 120 119 119 118 117 115 111 109 111 114 113 110 117 119 119 121 124 123 125 124 124 124 125 125 124 123 123 120 122 122 122 121 121 121 123 121 122 122 120 122 122 -209 -209 0 0 0 0 0
    0 0 0 0 0 0 0 0 0 0 0 0 0 0 0 0 0 0 0 0 0 0 0 0 0 0 0 0 0 0 0 0 0 0 0 0 0 0 0 0 0 0 0 0 0 0 0 0 0 0 0 0 0 0 0 0 0 0 0 0 0 0 0 0 0 0 0 0 0 183 184 185 186 -193 189 192 190 188 187 184 185 184 184 184 -209 -209 -209 188 195 -209 -177 -177 -177 -209 -209 -209 -209 -209 185 187 185 184 183 -209 -209 -209 0 0 0 0 0 0 0 0 0 -209 -209 280 282 283 -193 -193 -193 -193 -193 0 0 0 -193 -209 -209 -209 0 0 -193 -209 -209 -209 -209 -209 -209 -209 295 -209 -209 -193 0 0 0 -193 9 9 0 0 0 0 -193 -209 -209 -177 -209 -209 -209 -209 -209 -209 -209 -209 -209 -209 -193 0 -209 -209 11 14 -193 -193 27 26 29 31 36 -193 29 28 -193 -193 -209 -209 -177 -177 -177 -193 -193 111 112 112 118 119 116 117 118 118 118 119 119 -193 -193 -193 -209 -177 -177 30 30 116 119 120 122 -177 119 119 121 123 123 120 119 121 120 120 120 118 118 118 119 120 119 120 120 119 122 123 123 121 120 119 119 119 119 120 116 116 117 117 118 117 118 118 114 120 120 119 121 119 120 119 119 120 122 124 124 121 121 119 119 118 118 114 109 107 110 115 114 110 117 119 120 121 124 123 125 123 124 124 125 125 124 123 123 120 122 123 123 121 122 122 123 122 123 122 120 121 121 -193 -193 0 0 0 0 0
    0 0 0 0 0 0 0 0 0 0 0 0 0 0 0 0 0 0 0 0 0 0 0 0 0 0 0 0 0 0 0 0 0 0 0 0 0 0 0 0 0 0 0 0 0 0 0 0 0 0 0 0 0 0 0 0 0 0 0 0 0 0 0 0 0 0 0 0 0 182 183 184 184 -193 187 188 188 187 186 184 185 184 184 184 184 -193 -193 184 186 -209 -193 356 356 -209 184 -193 -193 183 184 185 184 183 182 182 -209 -209 -193 -193 0 0 -193 0 0 0 -209 -209 -209 -193 281 281 281 282 -193 -193 282 -193 -193 -209 -209 -209 0 0 0 0 0 0 -209 -209 -209 -209 -209 -209 -209 -209 -209 -193 0 0 0 0 0 0 0 0 0 0 -193 -177 -209 -177 -209 -209 -209 -209 -209 -209 -209 -209 -209 0 0 0 11 15 14 12 15 21 27 28 33 35 39 46 29 28 -193 -209 -209 -209 -209 -177 34 49 -177 -193 -193 113 121 120 115 117 118 119 120 -193 -193 45 -193 -209 -193 -177 -177 -193 -193 117 119 121 122 121 121 120 122 123 121 119 118 120 120 120 120 118 118 118 119 120 119 120 120 119 121 122 122 120 119 119 119 118 119 120 115 115 116 116 117 116 117 117 111 119 120 120 121 120 122 122 122 122 125 126 125 123 122 121 120 118 118 109 106 106 108 113 110 107 118 120 120 122 124 123 124 123 124 124 124 124 124 122 122 119 121 122 123 122 122 122 123 123 126 125 123 122 122 123 125 0 0 0 0 0
    0 0 0 0 0 0 0 0 0 0 0 0 0 0 0 0 0 0 0 0 0 0 0 0 0 0 0 0 0 0 0 0 0 0 0 0 0 0 0 0 0 0 0 0 0 0 0 0 0 0 0 0 0 0 0 0 0 0 0 0 0 0 0 0 0 0 0 0 0 182 183 184 184 186 186 187 187 186 186 184 184 184 183 184 183 183 183 184 184 -193 -193 -193 -193 183 183 183 182 182 183 184 182 182 182 181 -193 185 -193 -193 -193 -193 187 -193 -193 -193 -209 -209 -209 -209 281 280 280 282 282 281 281 285 -209 33 -209 -193 -193 -193 -193 8 -193 -209 -209 -209 -209 -209 -209 -209 -209 -209 -209 -209 -193 0 0 0 -209 -193 0 0 0 0 0 -209 -209 -177 -209 -209 -209 -209 364 364 364 367 371 -209 -209 -193 -177 19 21 -209 12 21 -177 49 59 65 62 64 -209 -209 -209 -209 -209 -209 -209 -209 -209 52 60 100 -193 -209 -209 59 61 -209 -209 -209 52 53 50 46 50 -209 -209 -209 -193 117 118 119 120 122 123 123 122 123 -193 125 120 121 120 123 122 121 120 118 118 118 119 119 118 119 119 118 121 122 122 120 120 119 120 118 119 120 115 114 116 115 116 116 117 117 110 118 120 120 120 120 121 122 121 122 124 126 125 123 123 121 120 119 118 107 105 104 104 107 -193 104 118 120 120 121 124 124 124 123 123 123 123 124 124 117 107 114 118 120 122 121 122 121 124 127 134 -193 -209 126 126 -209 -209 0 0 0 0 0
    0 0 0 0 0 0 0 0 0 0 0 0 0 0 0 0 0 0 0 0 0 0 0 0 0 0 0 0 0 0 0 0 0 0 0 0 0 0 0 0 0 0 0 0 0 0 0 0 0 0 0 0 0 0 0 0 0 0 0 0 0 0 0 0 0 0 0 0 0 182 183 184 184 186 185 187 186 186 185 184 183 183 183 183 183 183 183 183 184 183 -193 -193 -193 183 183 183 182 182 182 182 181 181 181 179 -193 184 -193 -193 -193 -193 187 189 -193 -193 -209 -209 -209 -209 281 279 279 282 282 282 -193 286 -209 -209 -209 61 -193 -193 -193 11 -209 -209 -209 -209 -209 -209 -209 -209 -209 -209 -193 -209 -209 -209 -209 -209 183 181 -193 -193 0 0 0 -193 175 173 177 -193 -193 177 363 364 365 367 370 370 -177 -193 -209 175 181 183 183 183 -193 60 63 68 67 67 -193 -193 182 -193 -193 -209 -209 -209 -209 59 67 -209 -193 -209 -209 -209 59 -209 -209 -209 -193 53 49 -209 -209 -209 -209 -209 -209 -209 115 117 120 121 123 123 122 -209 -209 -209 -193 122 121 125 130 123 120 118 118 119 120 120 119 120 121 120 123 -193 177 -193 -209 -209 183 -209 119 120 114 114 115 115 116 116 118 118 110 119 121 121 119 119 121 121 121 121 122 125 123 123 123 120 119 115 117 107 106 106 111 -193 -193 108 120 121 119 120 123 123 122 121 121 121 121 122 -193 101 104 112 118 120 124 123 125 123 128 133 140 -193 -209 -209 -209 189 -209 0 0 0 0 0
    0 0 0 0 0 0 0 0 0 0 0 0 0 0 0 0 0 0 0 0 0 0 0 0 0 0 0 0 0 0 0 0 0 0 0 0 0 0 0 0 0 0 0 0 0 0 0 0 0 0 0 0 0 0 0 0 0 0 0 0 0 0 0 0 0 0 0 0 0 182 183 184 185 186 -193 186 185 185 184 183 183 182 182 183 182 182 184 184 185 184 -193 -193 -193 183 184 183 182 181 182 182 181 181 181 179 180 183 -193 -193 -193 -193 186 188 -193 -193 -209 -209 -209 -209 281 279 279 281 -209 -193 -193 -193 -209 -209 -209 -193 -209 -209 -209 -209 -193 -193 179 -193 -193 180 184 -209 -209 -209 -209 -193 -209 -209 186 183 184 182 182 -193 -193 -193 -193 -177 176 174 178 179 -193 179 -193 362 363 365 366 368 -193 -193 184 180 183 184 184 184 184 -209 63 67 -193 67 180 179 181 180 -177 -193 180 179 176 177 -193 -209 -209 -193 -193 170 173 179 -193 -209 -209 -209 -209 -209 -209 -209 -209 -209 -209 -209 -209 117 119 120 123 124 124 -209 -209 -209 116 -209 -209 -209 -209 -209 -209 -209 -209 -209 -209 -209 -209 -177 -177 -209 172 173 177 182 183 181 180 179 180 181 113 113 114 115 117 117 119 119 117 121 123 124 121 121 124 125 127 123 125 127 124 124 124 -193 117 109 -193 -193 103 103 -193 -193 -209 -193 119 120 118 120 123 122 121 119 119 115 109 109 98 96 100 106 -209 -209 -209 126 128 124 130 135 146 -177 -209 -209 187 190 189 0 0 0 0 0
    0 0 0 0 0 0 0 0 0 0 0 0 0 0 0 0 0 0 0 0 0 0 0 0 0 0 0 0 0 0 0 0 0 0 0 0 0 0 0 0 0 0 0 0 0 0 0 0 0 0 0 0 0 0 0 0 0 0 0 0 0 0 0 0 0 0 0 0 0 182 183 184 184 185 185 186 185 184 184 183 182 182 182 183 182 182 184 183 185 184 183 -193 183 183 183 183 182 182 182 182 181 181 181 180 181 184 186 185 185 -193 186 188 -193 -193 -209 -209 -209 -209 282 278 279 281 -209 -209 -209 -209 -193 183 184 -209 -209 -209 -209 -209 182 182 181 181 181 181 184 183 183 184 184 186 185 185 185 183 185 183 183 182 181 179 178 179 177 175 179 179 179 179 181 -193 -193 -193 -193 -193 179 181 183 181 183 184 184 184 184 184 -193 -193 -193 -193 181 179 181 180 180 181 180 180 177 179 178 174 176 175 174 175 177 181 182 185 180 175 173 178 177 172 169 171 170 171 174 176 -209 -209 -209 -209 -209 -209 -209 103 113 -209 -193 171 177 180 183 181 180 -193 -193 -193 -193 180 180 177 175 178 179 181 182 181 180 179 180 182 182 -209 -209 118 120 120 122 122 122 122 124 125 124 124 127 127 133 131 133 133 128 127 127 124 120 114 118 118 107 105 108 111 113 -193 118 120 116 120 122 121 120 116 113 107 104 102 97 94 98 103 -209 -209 -209 -209 130 124 130 134 148 -177 -209 -209 187 189 187 0 0 0 0 0
    0 0 0 0 0 0 0 0 0 0 0 0 0 0 0 0 0 0 0 0 0 0 0 0 0 0 0 0 0 0 0 0 0 0 0 0 0 0 0 0 0 0 0 0 0 0 0 0 0 0 0 0 0 0 0 0 0 0 0 0 0 0 0 0 0 0 0 0 0 182 183 184 184 185 184 185 185 184 184 183 182 183 183 183 182 182 184 183 184 184 183 184 183 183 183 183 182 182 182 182 181 182 182 181 183 185 186 186 185 185 186 187 187 186 186 186 186 -193 -209 -193 -193 -209 -193 -193 -193 181 182 183 184 186 184 185 -193 -193 -209 -209 -193 182 181 181 184 182 183 184 184 185 185 185 185 183 185 184 184 183 182 180 179 180 178 176 180 179 180 180 181 -193 -193 -193 181 181 179 181 183 181 182 184 184 183 183 184 182 181 182 -193 181 180 182 180 180 181 181 180 178 179 179 176 179 178 177 178 179 183 183 185 180 175 173 177 176 172 170 173 172 175 177 179 176 177 177 175 173 173 174 175 173 172 172 176 179 180 182 182 180 180 181 181 181 182 182 181 178 180 181 181 182 182 181 180 181 182 183 183 183 -209 -209 -209 -193 118 118 120 121 122 122 125 130 131 136 136 137 -193 132 130 132 130 -209 -193 122 123 -209 -209 -209 -209 -209 -209 118 117 -209 119 119 119 110 107 104 102 102 101 99 96 99 -193 -209 -193 -193 -193 -193 -209 -193 -193 149 158 -209 -209 186 187 186 0 0 0 0 0
    0 0 0 0 0 0 0 0 0 0 0 0 0 0 0 0 0 0 0 0 0 0 0 0 0 0 0 0 0 0 0 0 0 0 0 0 0 0 0 0 0 0 0 0 0 0 0 0 0 0 0 0 0 0 0 0 0 0 0 0 0 0 0 0 0 0 0 0 0 182 183 184 184 184 183 185 -193 183 184 183 183 183 183 183 183 183 184 182 184 184 184 184 183 183 183 183 182 182 181 181 181 182 182 182 183 185 186 186 185 186 185 186 186 185 185 185 185 184 183 182 181 182 182 181 180 181 182 183 185 185 185 185 186 185 183 183 182 181 181 181 183 182 182 183 183 185 185 185 185 184 186 185 185 184 182 181 180 181 179 177 180 180 180 180 181 181 180 181 181 180 180 182 183 181 183 184 184 183 183 184 182 182 182 -193 181 180 182 181 181 181 181 181 178 180 180 176 180 180 179 180 181 184 184 186 182 175 173 177 177 172 170 174 173 178 179 180 178 178 178 176 174 174 175 178 174 173 176 179 180 180 182 182 180 181 181 181 181 182 182 181 179 181 181 181 182 182 181 180 182 182 182 183 183 182 182 182 186 184 188 -193 -209 -209 -209 -209 -209 -209 -209 -209 -209 -209 -209 -209 -193 -209 -209 -209 -209 -209 -209 -209 -209 -209 -209 -209 123 -209 -209 -193 124 125 -209 102 99 98 99 99 98 96 99 -193 -209 -193 154 -193 147 153 157 166 167 169 176 181 185 186 185 0 0 0 0 0
    0 0 0 0 0 0 0 0 0 0 0 0 0 0 0 0 0 0 0 0 0 0 0 0 0 0 0 0 0 0 0 0 0 0 0 0 0 0 0 0 0 0 0 0 0 0 0 0 0 0 0 0 0 0 0 0 0 0 0 0 0 0 0 0 0 0 0 0 0 182 183 184 183 183 182 184 183 182 -193 182 182 182 183 183 182 183 184 183 184 185 184 184 183 183 183 183 182 182 181 181 180 182 182 182 183 185 186 185 185 186 186 186 186 185 185 185 185 184 183 182 181 182 182 181 180 180 182 183 184 184 184 184 185 184 183 182 181 181 181 181 183 182 182 183 183 184 184 185 185 184 186 185 185 184 183 181 181 181 179 178 180 179 180 180 181 180 180 181 181 181 181 182 183 183 183 184 184 184 184 184 182 182 183 -193 181 181 182 181 181 181 181 181 178 181 180 178 182 182 182 183 184 185 185 186 184 179 176 179 179 174 172 175 174 179 179 180 179 178 178 177 175 175 176 179 176 175 178 180 181 181 182 182 180 181 181 181 181 182 182 181 180 182 181 182 182 182 182 180 181 182 182 182 182 182 182 182 185 183 186 185 185 185 183 183 182 184 -209 -193 -209 -209 -209 -209 -209 193 -193 180 180 180 179 180 179 178 -209 -193 -209 -209 -209 119 124 -209 -209 104 98 97 99 -193 -193 -193 100 -209 153 155 153 154 151 156 164 170 171 172 179 181 184 184 184 0 0 0 0 0
    0 0 0 0 0 0 0 0 0 0 0 0 0 0 0 0 0 0 0 0 0 0 0 0 0 0 0 0 0 0 0 0 0 0 0 0 0 0 0 0 0 0 0 0 0 0 0 0 0 0 0 0 0 0 0 0 0 0 0 0 0 0 0 0 0 0 0 0 0 183 183 184 183 183 182 184 183 181 -193 181 180 181 182 182 182 182 184 183 185 186 184 184 183 182 183 182 181 181 181 181 180 182 182 182 182 185 185 185 185 185 185 186 186 185 185 185 185 184 183 182 181 182 183 181 180 180 182 183 184 184 183 182 184 183 182 182 181 181 181 182 183 182 182 182 183 184 184 184 183 183 185 184 184 183 182 181 181 181 180 179 180 180 180 180 181 180 180 181 181 181 181 182 183 182 183 184 184 184 184 184 183 183 183 -193 181 181 183 181 181 181 181 181 179 182 181 179 182 183 184 185 185 186 185 186 185 181 179 180 180 175 172 176 175 179 179 180 179 178 178 178 176 177 178 181 178 179 180 181 181 181 182 182 180 181 181 181 181 182 182 181 180 182 181 181 182 182 181 180 181 181 181 182 182 182 182 182 184 183 184 184 185 184 184 184 183 185 185 184 -193 -209 -193 186 186 188 183 181 180 180 179 180 180 178 175 176 182 -209 -209 113 -193 -209 -209 107 100 99 101 -193 -209 -193 102 -209 151 154 151 154 152 165 168 175 178 179 182 182 184 184 184 0 0 0 0 0
    0 0 0 0 0 0 0 0 0 0 0 0 0 0 0 0 0 0 0 0 0 0 0 0 0 0 0 0 0 0 0 0 0 0 0 0 0 0 0 0 0 0 0 0 0 0 0 0 0 0 0 0 0 0 0 0 0 0 0 0 0 0 0 0 0 0 0 0 0 183 184 184 183 183 182 184 183 180 182 180 180 180 181 182 182 183 185 185 187 188 186 185 183 182 183 183 181 181 180 181 180 182 182 182 182 184 185 185 184 185 185 185 185 185 185 186 185 183 183 181 181 182 182 180 180 180 181 182 183 183 183 182 183 183 181 181 181 181 181 181 183 181 181 181 182 183 183 183 183 182 185 184 184 183 182 181 182 182 180 179 181 180 181 180 181 180 180 181 180 181 182 182 182 182 183 184 184 184 184 184 183 183 184 184 182 182 183 181 181 181 181 181 180 182 181 179 182 183 184 185 185 185 185 186 184 183 181 181 180 178 177 179 179 181 180 181 180 180 180 179 178 178 179 181 179 180 180 181 181 181 182 181 180 181 181 181 181 181 182 180 180 182 181 180 181 181 181 180 181 181 181 181 182 182 182 182 183 182 184 184 185 185 184 184 184 186 186 186 -193 -209 -193 186 186 187 183 181 180 180 179 180 180 179 175 176 181 -209 -209 114 120 -209 -209 110 105 104 104 -209 -209 -193 -193 -209 151 153 151 154 154 -193 171 180 182 183 184 183 184 184 184 0 0 0 0 0
    0 0 0 0 0 0 0 0 0 0 0 0 0 0 0 0 0 0 0 0 0 0 0 0 0 0 0 0 0 0 0 0 0 0 0 0 0 0 0 0 0 0 0 0 0 0 0 0 0 0 0 0 0 0 0 0 0 0 0 0 0 0 0 0 0 0 0 0 0 183 184 184 183 183 182 184 183 180 182 180 180 180 182 182 182 183 185 185 187 189 187 187 184 183 183 183 182 182 181 181 181 182 183 182 181 184 184 184 184 184 184 185 184 184 184 185 184 183 183 181 181 181 182 179 179 179 181 181 183 182 182 181 182 182 181 181 180 181 181 180 182 181 180 180 181 182 182 182 182 181 185 184 185 184 183 182 183 182 181 180 181 180 181 180 181 180 180 181 180 181 181 182 182 181 182 184 183 183 183 184 183 183 183 183 181 182 183 181 181 181 181 181 179 181 181 179 181 183 183 185 185 185 184 185 184 185 183 182 181 181 181 182 182 182 181 182 181 181 181 180 180 179 180 182 180 180 180 181 181 180 182 181 180 181 181 181 181 181 182 180 181 182 181 180 181 181 181 180 181 181 181 181 182 182 182 182 183 183 184 185 185 185 185 184 184 186 187 186 186 185 -193 184 184 185 183 182 180 180 179 180 180 180 176 177 180 -209 -209 116 121 -209 -193 111 109 108 110 -209 -209 -193 -209 -209 -193 -193 172 170 170 173 175 182 184 184 184 182 184 184 184 0 0 0 0 0
    0 0 0 0 0 0 0 0 0 0 0 0 0 0 0 0 0 0 0 0 0 0 0 0 0 0 0 0 0 0 0 0 0 0 0 0 0 0 0 0 0 0 0 0 0 0 0 0 0 0 0 0 0 0 0 0 0 0 0 0 0 0 0 0 0 0 0 0 0 183 183 183 183 182 182 183 183 181 182 180 180 181 182 183 182 184 185 185 187 188 186 186 184 183 184 184 182 182 182 182 182 183 183 183 181 184 184 184 183 183 184 184 183 183 182 184 183 182 182 179 179 179 180 177 178 178 180 180 182 182 182 181 183 182 181 181 180 181 181 180 182 180 180 179 180 182 181 182 181 180 184 185 185 184 183 182 183 182 181 180 181 180 181 181 181 180 180 181 180 181 181 181 181 181 182 183 183 184 183 184 183 183 184 183 182 182 183 182 181 182 181 181 180 182 181 180 181 183 183 184 184 185 184 185 183 185 183 182 182 182 183 182 183 182 181 182 181 181 180 180 180 180 181 181 180 180 179 180 181 180 182 181 180 181 181 181 181 181 182 180 180 182 181 180 181 181 181 180 181 181 180 181 181 181 182 182 183 183 184 185 185 185 185 185 185 185 186 186 184 184 -193 183 183 184 182 181 180 180 179 180 180 180 178 179 181 184 187 -209 -193 -209 -209 -193 -209 109 -209 -209 -209 -193 -209 -209 167 171 177 177 179 180 182 183 185 185 185 183 184 183 183 0 0 0 0 0
    0 0 0 0 0 0 0 0 0 0 0 0 0 0 0 0 0 0 0 0 0 0 0 0 0 0 0 0 0 0 0 0 0 0 0 0 0 0 0 0 0 0 0 0 0 0 0 0 0 0 0 0 0 0 0 0 0 0 0 0 0 0 0 0 0 0 0 0 0 182 182 182 181 181 181 183 182 180 181 180 180 181 183 183 183 185 185 186 187 188 186 186 184 183 183 184 182 182 182 182 182 183 183 183 181 184 184 184 183 183 183 184 182 182 181 182 182 180 180 177 178 178 180 177 178 179 181 181 182 182 182 180 183 182 182 181 180 180 180 180 182 180 179 178 180 181 181 181 181 180 183 185 185 185 183 183 184 182 182 181 181 180 181 181 181 179 180 181 179 181 181 181 180 181 182 183 182 183 183 184 183 183 184 184 182 183 184 183 182 182 182 181 181 182 181 180 182 183 183 184 184 184 184 184 183 184 182 182 182 182 183 183 183 183 181 182 181 181 180 180 180 180 181 181 180 181 180 180 180 180 182 181 180 181 181 181 181 181 182 180 181 182 181 179 181 181 181 180 181 181 181 181 182 182 183 183 183 183 184 185 185 185 185 184 184 185 185 185 183 183 182 182 182 183 181 181 180 180 179 180 180 179 177 179 180 182 186 188 185 184 184 184 184 183 -193 177 -193 180 -193 -193 -193 173 179 179 180 181 183 183 185 185 185 183 184 184 183 0 0 0 0 0
    0 0 0 0 0 0 0 0 0 0 0 0 0 0 0 0 0 0 0 0 0 0 0 0 0 0 0 0 0 0 0 0 0 0 0 0 0 0 0 0 0 0 0 0 0 0 0 0 0 0 0 0 0 0 0 0 0 0 0 0 0 0 0 0 0 0 0 0 0 181 181 181 180 180 180 182 182 180 181 180 181 181 183 184 183 -209 -209 186 187 188 186 186 183 183 183 184 182 182 181 182 181 182 183 182 180 184 183 183 183 183 183 183 182 182 181 181 181 180 180 177 178 178 181 178 179 180 182 181 183 182 182 180 182 181 181 181 180 180 180 180 182 180 179 178 180 181 181 181 181 179 182 184 184 184 182 182 183 182 181 181 181 180 181 181 181 179 180 180 179 180 181 180 180 180 181 182 182 183 183 183 183 183 184 184 182 183 184 183 182 183 182 181 181 182 181 180 181 183 183 184 185 184 184 184 183 184 183 182 182 182 183 183 183 182 181 181 180 181 180 181 181 180 182 182 181 182 180 180 180 180 182 180 180 181 181 181 181 181 182 179 181 182 181 179 180 181 181 181 181 181 181 181 182 183 183 184 183 183 184 184 184 185 184 184 184 185 185 184 183 182 182 182 182 183 181 180 179 179 179 179 180 179 176 178 179 181 186 187 185 186 185 184 185 185 184 182 184 184 185 182 180 180 181 179 181 182 183 184 185 185 185 183 184 184 184 0 0 0 0 0
    0 0 0 0 0 0 0 0 0 0 0 0 0 0 0 0 0 0 0 0 0 0 0 0 0 0 0 0 0 0 0 0 0 0 0 0 0 0 0 0 0 0 0 0 0 0 0 0 0 0 0 0 0 0 0 0 0 0 0 0 0 0 0 0 0 0 0 0 0 180 181 180 180 180 179 182 182 181 181 181 181 182 183 184 -193 -209 -209 185 186 187 185 185 183 182 183 183 182 182 181 182 181 182 183 181 179 183 182 182 182 181 181 182 181 181 180 181 181 180 179 176 178 178 182 179 180 181 183 182 183 181 181 179 182 180 181 180 179 180 180 179 182 180 179 178 179 181 180 180 180 178 181 182 182 181 180 180 182 181 181 180 180 179 180 180 180 178 180 180 179 180 181 180 180 180 182 182 182 183 182 183 183 183 184 184 182 183 184 184 182 183 182 181 181 182 180 180 180 183 183 184 184 184 184 184 183 184 183 182 183 183 183 183 183 182 181 181 180 181 180 181 181 181 182 182 181 182 180 180 180 180 182 180 180 181 181 181 181 181 181 178 181 181 180 179 180 181 180 180 180 180 180 180 181 182 182 183 182 183 183 184 184 184 184 184 183 185 184 184 183 182 181 181 182 183 181 181 179 179 179 179 179 178 175 178 176 179 186 187 186 187 186 185 186 185 184 182 183 184 184 182 182 180 181 180 182 183 183 184 185 185 185 183 184 184 184 0 0 0 0 0
    0 0 0 0 0 0 0 0 0 0 0 0 0 0 0 0 0 0 0 0 0 0 0 0 0 0 0 0 0 0 0 0 0 0 0 0 0 0 0 0 0 0 0 0 0 0 0 0 0 0 0 0 0 0 0 0 0 0 0 0 0 0 0 0 0 0 0 0 0 180 181 180 180 180 180 182 183 181 182 181 181 181 182 183 182 184 183 184 185 185 183 184 183 182 183 183 182 182 181 182 181 182 182 181 178 182 181 181 181 180 180 180 180 180 180 181 180 180 180 -193 -193 -193 -209 -193 181 183 184 182 183 182 181 178 181 180 180 180 179 180 180 180 182 180 179 178 179 180 180 180 180 177 180 181 181 180 180 179 182 180 180 180 180 180 180 180 181 178 180 180 178 180 180 179 179 180 181 182 182 182 182 183 184 183 183 184 182 183 184 184 183 183 183 181 181 181 180 179 179 182 182 183 183 183 184 184 183 184 182 182 182 183 183 182 183 182 181 181 181 181 180 181 181 181 182 182 181 181 180 179 179 180 182 180 180 180 181 181 181 181 180 177 180 181 180 177 179 180 179 180 180 179 180 179 181 182 182 183 182 182 182 183 183 184 184 183 183 185 185 184 183 182 181 181 182 182 181 181 179 179 179 179 179 178 174 178 175 177 185 186 185 186 186 185 185 185 184 182 183 184 184 182 182 181 181 181 182 183 183 184 185 184 185 184 184 184 183 0 0 0 0 0
    0 0 0 0 0 0 0 0 0 0 0 0 0 0 0 0 0 0 0 0 0 0 0 0 0 0 0 0 0 0 0 0 0 0 0 0 0 0 0 0 0 0 0 0 0 0 0 0 0 0 0 0 0 0 0 0 0 0 0 0 0 0 0 0 0 0 0 0 0 180 181 180 180 180 180 183 183 182 183 182 182 182 183 183 183 183 183 182 184 184 183 184 183 182 183 184 182 182 182 182 181 182 182 180 178 182 181 180 180 180 179 179 179 180 179 181 180 180 181 -193 -193 -209 -193 -193 183 185 185 183 183 182 181 179 181 180 180 179 180 180 180 180 182 179 179 178 179 180 179 179 179 176 179 180 180 180 180 179 182 180 181 181 181 181 181 181 182 178 180 180 178 180 180 178 179 180 181 181 181 182 182 183 184 183 183 183 182 183 184 184 183 183 183 181 181 181 179 179 179 181 181 182 182 182 183 183 182 183 182 181 182 183 183 182 183 183 182 182 181 181 180 181 181 181 182 181 181 181 179 178 179 180 181 179 179 180 180 181 181 181 180 177 180 180 180 176 178 179 178 179 179 179 179 179 181 181 181 183 181 182 182 183 183 183 184 184 183 185 185 184 183 182 181 181 181 182 180 180 179 179 178 179 179 177 175 178 174 175 184 184 183 184 184 184 184 183 184 182 183 184 184 182 182 181 181 181 183 184 184 184 186 185 185 184 184 184 184 0 0 0 0 0
    0 0 0 0 0 0 0 0 0 0 0 0 0 0 0 0 0 0 0 0 0 0 0 0 0 0 0 0 0 0 0 0 0 0 0 0 0 0 0 0 0 0 0 0 0 0 0 0 0 0 0 0 0 0 0 0 0 0 0 0 0 0 0 0 0 0 0 0 0 180 180 180 179 179 179 182 183 182 183 182 182 182 183 184 183 184 183 183 184 184 183 184 183 183 184 184 182 182 182 182 181 183 183 181 179 182 181 180 180 179 179 178 178 179 178 180 180 180 181 -193 -193 -193 186 184 184 185 186 183 183 182 181 180 181 180 180 179 179 180 179 179 182 179 178 178 179 179 179 179 179 175 179 180 180 180 180 180 182 181 182 182 182 182 182 181 182 178 181 180 178 180 179 178 178 180 180 181 181 182 182 182 183 183 183 183 182 183 184 184 182 183 183 181 181 180 178 178 178 180 181 181 182 181 183 183 182 182 181 181 182 183 183 182 183 183 182 182 181 181 181 181 180 180 182 181 180 181 179 178 178 180 181 180 179 180 180 181 181 181 180 178 179 180 180 177 178 179 178 179 179 179 179 178 181 181 181 183 181 182 182 182 183 183 183 183 183 185 184 184 182 182 180 181 181 181 180 180 179 179 178 179 179 177 175 178 174 175 184 185 183 184 184 184 184 183 183 182 182 183 182 181 181 180 180 180 182 183 184 184 185 184 184 184 184 184 183 0 0 0 0 0
    0 0 0 0 0 0 0 0 0 0 0 0 0 0 0 0 0 0 0 0 0 0 0 0 0 0 0 0 0 0 0 0 0 0 0 0 0 0 0 0 0 0 0 0 0 0 0 0 0 0 0 0 0 0 0 0 0 0 0 0 0 0 0 0 0 0 0 0 0 179 180 180 179 178 178 182 183 183 184 183 183 183 184 184 184 183 183 182 183 183 183 184 183 183 184 184 183 183 183 183 182 183 183 181 179 182 181 180 179 179 179 178 178 179 177 179 179 180 180 179 182 184 189 187 186 187 187 185 185 183 181 181 181 180 179 177 178 179 178 178 182 178 178 178 179 179 178 179 179 174 179 179 179 179 180 180 182 181 182 182 183 182 183 182 182 179 180 179 179 179 179 177 178 180 180 180 181 181 181 182 183 181 181 183 182 183 183 183 182 182 183 181 181 179 177 178 178 180 180 180 181 -193 183 183 181 182 181 182 182 183 183 183 184 183 183 183 182 182 181 181 180 180 182 181 180 180 179 177 178 180 181 180 179 180 180 180 181 181 179 178 179 180 180 178 179 179 178 179 179 179 180 179 181 180 181 183 181 182 181 182 182 182 182 183 182 183 183 183 181 182 180 181 181 181 180 180 179 179 178 179 179 177 176 178 173 175 184 186 184 184 184 184 185 184 183 182 182 183 182 181 180 180 179 180 181 182 183 184 184 184 184 184 183 183 183 0 0 0 0 0
    0 0 0 0 0 0 0 0 0 0 0 0 0 0 0 0 0 0 0 0 0 0 0 0 0 0 0 0 0 0 0 0 0 0 0 0 0 0 0 0 0 0 0 0 0 0 0 0 0 0 0 0 0 0 0 0 0 0 0 0 0 0 0 0 0 0 0 0 0 179 180 180 178 177 176 182 184 184 184 184 184 -193 -209 -209 -193 -193 183 183 183 183 183 183 183 183 183 184 183 183 183 183 182 183 183 182 179 182 181 180 179 179 178 178 178 178 176 178 179 179 179 179 183 185 189 188 186 187 188 186 185 183 182 181 181 179 178 175 176 177 175 177 182 178 178 179 179 179 179 179 180 175 179 179 178 179 179 179 180 179 181 182 183 182 182 181 182 179 180 179 179 179 179 178 179 180 180 180 180 180 180 180 182 180 180 182 182 183 183 183 182 182 182 180 180 179 176 178 178 180 180 180 181 181 183 183 182 182 182 182 182 183 183 183 183 183 183 183 182 181 181 180 180 180 182 180 179 180 179 177 178 181 180 180 179 180 180 180 181 181 179 179 179 179 180 178 179 179 178 179 179 179 180 179 180 180 180 182 180 181 181 182 182 182 182 182 181 183 182 182 180 181 179 181 182 181 180 180 180 179 178 179 179 176 176 177 173 173 181 184 182 183 183 182 184 183 183 183 183 183 182 181 181 179 179 178 180 182 182 184 183 183 183 184 183 183 182 0 0 0 0 0
    0 0 0 0 0 0 0 0 0 0 0 0 0 0 0 0 0 0 0 0 0 0 0 0 0 0 0 0 0 0 0 0 0 0 0 0 0 0 0 0 0 0 0 0 0 0 0 0 0 0 0 0 0 0 0 0 0 0 0 0 0 0 0 0 0 0 0 0 0 179 180 180 179 177 176 182 185 186 185 -193 -209 -209 -209 -209 -209 -209 184 183 184 183 183 184 183 183 183 184 183 183 183 183 182 183 183 182 180 182 181 181 -209 -209 -209 -193 -193 178 177 179 180 180 180 181 -193 -193 -193 188 186 -193 188 186 186 184 182 182 180 178 176 174 176 176 174 177 182 178 179 180 180 180 179 180 180 175 180 178 177 177 178 178 180 178 180 181 182 182 182 179 180 178 178 177 178 179 178 177 179 180 179 179 180 180 179 180 181 179 179 181 181 183 182 182 181 182 182 180 180 179 176 178 178 179 180 179 180 180 182 183 182 182 181 181 181 182 182 182 182 182 183 182 181 181 180 180 179 179 181 180 179 180 179 178 179 181 180 180 179 180 180 180 181 181 178 179 178 179 180 178 179 179 177 179 179 179 180 178 180 179 180 182 180 180 180 181 180 180 181 181 180 182 182 181 180 182 179 181 182 181 180 180 180 179 178 179 178 175 176 176 172 172 175 180 176 179 179 179 181 182 182 183 182 183 182 181 180 179 178 177 180 181 182 184 183 183 183 184 183 182 181 0 0 0 0 0
    0 0 0 0 0 0 0 0 0 0 0 0 0 0 0 0 0 0 0 0 0 0 0 0 0 0 0 0 0 0 0 0 0 0 0 0 0 0 0 0 0 0 0 0 0 0 0 0 0 0 0 0 0 0 0 0 0 0 0 0 0 0 0 0 0 0 0 0 0 180 181 182 181 179 178 183 189 192 -209 -209 -209 -209 -209 -209 -209 -209 183 182 183 183 182 183 183 183 184 184 183 184 183 184 182 183 183 182 181 183 181 181 -209 -209 -209 -209 -193 -193 177 179 180 180 181 181 -209 -209 -209 -193 -209 -193 -193 -209 186 -193 183 183 181 178 176 174 175 176 173 176 182 178 179 180 180 180 179 180 180 175 179 177 -193 -193 -193 -193 178 177 179 180 182 182 182 178 179 178 178 176 177 179 178 177 179 181 179 180 181 180 180 180 181 180 179 182 183 183 182 182 182 182 182 180 180 179 175 178 177 178 179 179 180 179 182 183 182 182 181 181 181 182 181 181 180 181 182 182 182 181 180 179 178 179 180 179 178 179 179 177 179 182 180 180 180 180 180 180 181 181 178 179 178 179 180 178 179 178 177 178 179 179 179 177 179 177 179 180 178 179 178 179 179 180 181 180 180 182 182 182 181 183 180 181 182 181 180 180 179 179 177 179 178 175 176 176 172 173 174 177 174 175 175 175 178 179 180 180 181 182 181 180 179 177 177 176 180 181 182 183 183 182 183 183 182 181 181 0 0 0 0 0
    0 0 0 0 0 0 0 0 0 0 0 0 0 0 0 0 0 0 0 0 0 0 0 0 0 0 0 0 0 0 0 0 0 0 0 0 0 0 0 0 0 0 0 0 0 0 0 0 0 0 0 0 0 0 0 0 0 0 0 0 0 0 0 0 0 0 0 0 0 182 182 184 184 181 181 185 193 -209 -209 -209 -209 -177 -177 299 299 -209 -193 181 182 182 182 183 184 184 185 184 184 184 184 184 183 183 183 182 181 183 181 181 -209 -209 -209 -209 -193 -193 -193 180 -193 180 181 181 -209 -209 -209 -193 -209 -193 -193 -209 186 184 183 182 -193 177 177 174 175 175 173 176 182 178 179 179 180 180 179 179 180 175 179 -193 -193 -193 -193 -193 -193 -193 179 180 182 182 182 178 178 178 178 177 178 179 179 178 180 182 180 180 181 180 180 181 182 181 180 183 184 184 183 183 182 181 182 181 180 179 176 179 178 178 179 179 180 180 183 -209 -209 -193 -193 183 182 182 182 181 181 182 184 185 183 181 181 179 178 179 179 177 176 177 178 176 179 182 179 180 179 180 180 179 180 180 178 180 179 179 180 178 180 179 177 178 178 178 178 176 177 175 177 178 176 176 176 177 178 179 180 180 180 182 182 182 182 183 180 181 182 180 180 180 179 179 177 179 178 175 177 177 174 176 177 178 175 175 174 174 177 178 179 179 180 182 180 180 179 176 177 175 181 181 183 183 183 182 183 183 182 181 181 0 0 0 0 0
    0 0 0 0 0 0 0 0 0 0 0 0 0 0 0 0 0 0 0 0 0 0 0 0 0 0 0 0 0 0 0 0 0 0 0 0 0 0 0 0 0 0 0 0 0 0 0 0 0 0 0 0 0 0 0 0 0 0 0 0 0 0 0 0 0 0 0 0 0 183 183 186 188 -209 -209 187 196 -209 -193 -177 -209 299 -177 300 300 -193 -193 180 182 182 183 184 185 185 186 184 184 185 184 184 183 183 183 182 181 183 181 -193 -209 -209 -209 -193 0 0 -193 -193 -193 -193 -193 -209 -209 -209 -209 -209 -209 -193 -193 -209 -209 -209 182 182 -193 -209 -193 174 -193 -193 172 176 182 178 179 179 180 180 179 179 180 174 -193 -193 -177 -209 -193 -193 -209 -209 180 181 182 183 183 179 179 179 178 177 178 179 179 178 181 182 179 180 180 180 180 181 182 181 180 183 184 184 182 183 182 181 181 180 180 180 176 180 179 179 180 180 -193 -209 -209 -193 -177 -209 -209 -209 -193 -193 -193 182 182 183 186 185 183 182 181 180 179 180 179 177 175 176 178 176 178 182 178 179 179 180 180 179 180 180 178 180 180 180 180 179 180 179 178 179 178 178 178 176 176 175 177 178 175 176 177 176 177 178 180 179 179 182 182 181 182 183 181 181 182 180 180 180 179 179 177 178 178 175 178 177 176 177 179 179 176 175 174 175 178 178 180 179 180 182 181 180 180 178 179 178 182 183 184 184 183 183 183 183 182 182 181 0 0 0 0 0
    0 0 0 0 0 0 0 0 0 0 0 0 0 0 0 0 0 0 0 0 0 0 0 0 0 0 0 0 0 0 0 0 0 0 0 0 0 0 0 0 0 0 0 0 0 0 0 0 0 0 0 0 0 0 0 0 0 0 0 0 0 0 0 0 0 0 0 0 0 185 -209 187 -193 -209 -209 -209 -209 -209 -193 243 298 300 302 300 301 299 302 -209 186 184 187 188 189 190 189 -209 -193 186 185 184 182 183 183 182 182 183 181 -209 -209 -209 -209 -193 0 0 -209 -209 -209 -193 -209 -209 -209 -209 -209 -209 -209 418 -209 -209 -209 -209 -209 -209 -209 -209 -209 -209 -193 -193 -193 175 182 178 179 179 181 180 180 180 180 174 -193 -177 -177 -209 -209 -209 -209 -193 -193 180 182 183 183 178 178 179 178 177 179 179 179 178 181 182 179 180 180 180 180 180 181 181 180 183 184 185 182 183 182 181 181 180 180 180 176 180 179 179 180 180 -209 84 84 -209 -209 -209 -193 117 -193 -193 -193 182 182 183 186 184 183 183 182 180 180 180 180 177 174 174 176 175 177 182 177 178 179 180 180 179 180 181 178 181 180 180 181 180 180 179 178 179 179 178 178 177 177 177 179 179 176 177 178 177 176 178 179 178 178 180 180 180 181 183 180 181 181 179 179 179 179 178 177 178 178 175 179 179 178 179 179 179 175 174 174 175 177 176 179 180 180 181 181 180 179 177 179 178 182 183 184 184 183 183 183 183 183 182 182 0 0 0 0 0
    0 0 0 0 0 0 0 0 0 0 0 0 0 0 0 0 0 0 0 0 0 0 0 0 0 0 0 0 0 0 0 0 0 0 0 0 0 0 0 0 0 0 0 0 0 0 0 0 0 0 0 0 0 0 0 0 0 0 0 0 0 0 0 0 0 0 0 0 0 -209 -209 -209 -193 -193 -209 -209 -209 -209 -209 -225 -225 -225 -225 299 299 298 -193 -209 -209 -209 194 194 195 -209 -209 -209 -209 -209 185 184 183 183 183 183 182 -193 -209 -193 -209 -209 -209 0 0 0 -193 0 -193 -209 -209 -209 -209 -209 -209 -209 -209 -209 -193 -209 -209 -209 -209 -209 -209 -209 -209 -209 298 302 -193 173 181 178 180 180 181 181 180 181 181 176 -209 -177 -177 -209 -209 -177 -193 -177 -209 178 181 182 182 178 177 179 178 178 179 180 180 179 182 182 179 179 180 180 179 180 181 180 180 183 184 185 182 183 182 181 180 179 180 179 176 180 178 178 180 -193 -209 89 87 -209 -209 -209 109 116 -193 -193 -193 182 181 182 186 184 183 183 182 181 180 181 180 177 173 173 175 174 177 182 177 178 179 180 180 180 181 181 178 181 181 181 181 180 180 179 178 179 179 178 178 178 177 178 180 180 178 179 178 177 176 177 178 177 178 179 179 179 180 182 179 180 181 179 179 179 179 178 178 179 178 176 180 179 179 181 180 179 175 174 174 175 178 176 179 180 180 181 181 181 179 175 178 177 183 183 184 184 183 183 183 183 183 182 182 0 0 0 0 0
    0 0 0 0 0 0 0 0 0 0 0 0 0 0 0 0 0 0 0 0 0 0 0 0 0 0 0 0 0 0 0 0 0 0 0 0 0 0 0 0 0 0 0 0 0 0 0 0 0 0 0 0 0 0 0 0 0 0 0 0 0 0 0 0 0 0 0 0 0 -209 -209 373 -225 -225 -225 -225 -225 -225 -225 -225 -225 -225 -225 -225 288 290 -193 278 280 -209 -209 -209 -209 -209 -209 -209 -209 -209 190 187 183 183 184 -209 -209 -209 -209 675 -225 -209 -193 0 0 0 0 0 -193 -209 -209 -209 -209 -209 -209 -209 -209 -209 -209 -209 -209 -209 -209 -209 -209 -209 -209 -209 298 300 302 -193 -193 179 181 181 182 182 182 181 182 -193 -209 -177 -177 -209 -209 -177 -177 -193 -209 174 179 181 181 177 177 179 178 178 179 180 180 179 182 182 179 179 180 180 179 179 180 180 -193 183 184 185 183 183 182 181 180 179 180 180 176 180 179 179 -193 95 91 92 88 -209 -209 -209 112 118 -177 -177 -193 182 181 181 185 183 182 182 181 181 180 181 179 176 172 171 172 173 176 182 176 177 179 180 180 180 181 181 178 182 181 181 181 180 180 179 178 179 179 178 178 178 178 178 180 180 178 179 179 177 175 176 178 177 179 179 179 180 180 180 178 180 181 178 179 179 179 179 179 180 179 177 181 180 179 180 177 173 172 173 174 176 179 178 181 182 182 183 182 182 180 176 179 178 183 184 184 184 183 183 183 184 184 183 183 0 0 0 0 0
    0 0 0 0 0 0 0 0 0 0 0 0 0 0 0 0 0 0 0 0 0 0 0 0 0 0 0 0 0 0 0 0 0 0 0 0 0 0 0 0 0 0 0 0 0 0 0 0 0 0 0 0 0 0 0 0 0 0 0 0 0 0 0 0 0 0 0 0 0 -193 367 376 -225 -225 -225 -225 -225 -225 -225 -225 -225 -225 -225 -225 -225 -225 -225 273 274 -209 -209 -209 -209 -209 -209 -209 -209 -209 -209 187 -209 -209 -209 -225 -225 -225 -225 -225 -225 -225 -225 -209 0 0 -209 -209 -209 -193 -193 325 -209 -209 -193 -209 -209 -209 -209 -209 -209 -209 -209 -209 -209 445 450 -193 298 299 300 301 301 302 183 182 184 184 183 183 184 -209 -209 -177 -177 -209 -193 78 85 94 -209 174 179 181 181 177 178 179 178 178 179 181 181 180 183 183 179 179 180 181 -193 180 181 182 -193 -193 185 186 183 183 183 181 179 179 180 181 -193 -193 181 -193 93 94 92 91 87 -209 -209 -209 114 -193 118 -177 -193 -193 179 180 184 182 182 182 181 180 180 181 179 177 172 170 170 172 175 181 175 176 178 180 181 180 181 181 178 182 182 181 181 180 180 179 178 179 179 178 178 178 178 179 180 180 178 179 180 177 175 175 177 177 179 179 178 180 179 179 177 179 180 178 179 179 179 179 180 181 180 178 181 180 180 179 174 -209 171 171 174 178 180 180 182 184 183 183 182 181 177 171 176 175 183 183 184 184 184 183 184 184 185 184 184 0 0 0 0 0
    0 0 0 0 0 0 0 0 0 0 0 0 0 0 0 0 0 0 0 0 0 0 0 0 0 0 0 0 0 0 0 0 0 0 0 0 0 0 0 0 0 0 0 0 0 0 0 0 0 0 0 0 0 0 0 0 0 0 0 0 0 0 0 0 0 0 0 0 0 -193 364 368 -193 -193 234 234 234 -225 -225 -225 -225 -225 -225 -225 -225 -225 -225 -225 -225 -225 -209 370 -209 -209 -209 -209 -209 -209 -209 -209 -209 -225 -225 -225 -225 -225 -225 -225 -225 -225 -225 -225 -225 -225 317 317 318 318 318 325 -209 -209 -209 -193 -209 23 -209 -209 -209 -209 -209 -209 -209 -209 -225 -225 300 302 302 302 301 300 -209 -209 -209 -209 -209 -209 -209 -209 -209 -209 -209 -209 -193 87 87 -193 520 -193 -193 -209 626 -193 -193 -193 178 178 179 181 181 180 184 184 180 180 -193 -193 -193 -193 183 -193 -193 186 187 187 185 185 184 182 179 179 181 -193 -209 -209 -193 91 92 94 93 92 -209 -209 25 -209 -193 -193 119 -193 -193 -193 179 178 184 180 181 182 181 180 181 182 181 179 -193 -193 -193 171 174 181 174 175 178 180 181 181 181 180 179 182 182 182 181 181 180 179 179 179 179 178 178 179 178 179 180 180 179 180 180 177 174 175 176 177 178 177 177 179 -209 178 176 179 180 177 179 179 179 180 181 181 181 180 182 182 -209 -209 -209 -209 -209 -209 174 180 -193 -193 184 188 187 186 185 186 184 179 179 178 183 183 184 184 184 184 185 185 185 185 185 0 0 0 0 0
    0 0 0 0 0 0 0 0 0 0 0 0 0 0 0 0 0 0 0 0 0 0 0 0 0 0 0 0 0 0 0 0 0 0 0 0 0 0 0 0 0 0 0 0 0 0 0 0 0 0 0 0 0 0 0 0 0 0 0 0 0 0 0 0 0 0 0 0 0 237 239 239 234 235 234 232 231 229 230 -225 -225 -225 -225 -225 -225 -225 -225 -209 -193 -209 -209 -209 -209 -209 -209 -209 -209 -209 -209 -193 292 293 294 294 -225 -225 -225 -225 -225 -225 -225 -225 -225 -225 -225 -225 -225 -225 -225 -225 -225 -225 -209 -209 -209 -209 -209 -209 -209 -225 -225 -225 -225 -225 -225 -225 -225 -225 -225 -225 -225 -225 0 0 0 -177 -193 0 -177 -177 0 -209 -209 85 89 89 -193 -193 -193 -209 -193 114 -193 -209 -209 -209 -209 -193 -177 398 398 -193 186 188 182 181 74 -177 -177 -209 -193 186 -193 188 190 191 188 187 188 185 176 -193 -193 122 122 124 -193 89 91 95 96 100 103 -209 -193 -209 115 120 -177 -193 -193 182 181 180 186 181 183 186 185 183 185 186 187 -209 -209 -209 -209 -193 170 176 172 172 177 180 181 181 181 181 180 184 184 183 182 182 181 180 180 180 179 178 178 179 178 180 180 181 180 181 182 179 176 176 177 179 180 179 -209 -193 -209 176 174 179 179 176 178 180 180 180 182 183 183 184 184 -193 -177 -177 -177 -177 -193 -177 -209 -209 -209 -193 184 188 188 188 188 189 187 186 185 186 186 184 185 184 185 184 186 185 186 186 185 0 0 0 0 0
    0 0 0 0 0 0 0 0 0 0 0 0 0 0 0 0 0 0 0 0 0 0 0 0 0 0 0 0 0 0 0 0 0 0 0 0 0 0 0 0 0 0 0 0 0 0 0 0 0 0 0 0 0 0 0 0 0 0 0 0 0 0 0 0 0 0 0 0 0 234 235 235 232 232 231 229 229 227 229 229 230 -225 231 -225 235 235 236 236 235 235 235 239 -209 -209 -209 -209 -193 -193 0 0 -209 296 297 -193 221 226 230 -225 -225 -225 -225 317 -209 -225 -209 -193 -209 -209 -193 -209 0 0 -209 -209 -193 -193 -209 15 -209 -193 352 351 -225 -225 -225 -225 -225 -225 -225 -225 -225 -225 -225 -225 -225 -225 -225 -225 -225 -193 10 -225 -225 -225 -209 -209 -209 -193 -225 -225 -225 -225 -225 -225 -225 -225 -225 -225 -225 -225 -225 -225 -225 193 189 77 81 85 86 -177 -193 -177 -177 -193 -177 194 193 193 -193 124 121 123 124 124 124 -225 -193 85 88 92 92 100 96 106 -209 109 115 119 119 119 -193 -209 -177 -209 189 184 183 186 185 184 185 186 188 -193 131 128 134 145 -177 169 169 169 174 180 181 181 182 181 182 185 185 184 182 182 181 180 179 179 179 178 178 179 179 181 181 182 181 182 184 181 178 177 176 181 182 -209 -209 -209 -209 -209 171 177 178 175 178 180 181 181 183 184 185 186 185 0 0 0 -177 -177 -177 -177 -177 -209 -209 -209 -209 -209 -209 188 188 189 188 187 186 188 187 187 186 185 186 185 187 187 189 188 188 0 0 0 0 0
    0 0 0 0 0 0 0 0 0 0 0 0 0 0 0 0 0 0 0 0 0 0 0 0 0 0 0 0 0 0 0 0 0 0 0 0 0 0 0 0 0 0 0 0 0 0 0 0 0 0 0 0 0 0 0 0 0 0 0 0 0 0 0 0 0 0 0 0 0 232 233 233 231 231 231 229 228 227 228 228 229 229 231 232 232 233 233 232 232 232 233 236 237 250 -209 -193 -193 0 0 0 -209 -209 -193 -177 -177 -177 229 230 305 313 315 -177 -209 -177 379 381 -209 -209 -193 -209 0 0 13 27 -193 -209 -193 -209 74 -209 -209 -209 354 -209 -225 -225 -225 -225 -225 -225 -225 -225 -225 -225 -225 -225 -209 -209 -193 9 -177 12 -193 -193 89 89 99 108 72 72 72 72 -225 -225 -225 -225 -225 -225 -225 -225 -225 -225 -225 -225 -225 -225 -225 -225 -225 -225 -225 -225 -225 92 -225 -225 -225 -225 204 -225 -225 -225 -225 -225 -225 -225 -225 -225 -225 90 89 89 87 -209 -177 -193 116 120 119 120 -193 -209 183 184 188 182 183 185 185 184 -225 -225 189 126 126 124 129 132 133 124 -209 -209 171 180 183 183 184 184 184 186 186 184 181 182 180 179 178 179 179 178 178 180 181 183 -193 -193 -193 -193 186 -209 -209 177 175 181 -209 -209 -209 -209 -209 -209 168 174 176 174 179 181 182 182 184 186 186 186 -209 0 0 0 0 -193 -193 -177 -177 -209 -209 -209 -209 -209 -209 -209 -193 190 189 189 188 190 189 188 187 186 187 186 189 189 193 191 191 0 0 0 0 0
    0 0 0 0 0 0 0 0 0 0 0 0 0 0 0 0 0 0 0 0 0 0 0 0 0 0 0 0 0 0 0 0 0 0 0 0 0 0 0 0 0 0 0 0 0 0 0 0 0 0 0 0 0 0 0 0 0 0 0 0 0 0 0 0 0 0 0 0 0 231 232 232 231 231 231 229 228 227 228 229 229 229 231 231 232 232 233 232 233 232 233 234 236 247 238 -193 -209 0 0 0 -209 -193 226 225 222 225 229 229 -193 314 -177 -177 -209 376 377 -177 -209 -209 -209 -209 -209 0 16 30 42 55 -209 -209 -209 -209 -209 -209 -209 -193 330 322 323 -193 -225 -225 -209 -209 68 75 80 85 85 -193 -193 -177 -177 -209 86 86 86 85 88 76 70 71 69 70 70 71 70 -225 -225 -225 -225 -225 -193 -193 -209 -209 -193 -209 -193 -225 -225 -225 -225 -209 -209 -209 160 174 156 -193 -193 113 115 115 -225 -225 -225 -225 -225 -225 -225 -225 -225 -225 -225 -225 -209 100 -225 -225 -225 -225 -225 -225 -225 -225 -225 -225 -225 -225 -225 -225 -225 -225 -225 -225 133 133 134 133 128 121 -177 -177 -209 -209 -209 186 187 186 185 186 185 184 181 180 178 175 174 176 176 177 177 181 -209 -193 -209 124 -193 -193 -193 -209 -209 175 175 180 -209 -209 -193 -209 -209 152 163 -193 -193 -193 180 184 184 185 187 189 189 -209 -193 0 0 0 -177 0 0 -177 -177 -209 102 104 -209 -209 -177 -177 -209 -209 -209 192 192 193 192 191 189 188 192 190 194 194 197 196 195 0 0 0 0 0
    0 0 0 0 0 0 0 0 0 0 0 0 0 0 0 0 0 0 0 0 0 0 0 0 0 0 0 0 0 0 0 0 0 0 0 0 0 0 0 0 0 0 0 0 0 0 0 0 0 0 0 0 0 0 0 0 0 0 0 0 0 0 0 0 0 0 0 0 0 231 231 232 231 231 231 229 229 228 229 229 229 230 231 232 232 233 233 233 233 232 233 233 234 235 234 235 -209 0 0 -193 -209 226 227 227 224 226 229 229 231 -209 -209 -209 377 -193 -177 -193 -209 -209 -209 -209 -209 0 15 27 42 -193 -209 67 70 -209 -177 233 -209 -209 -193 323 324 328 -193 420 -209 -209 -193 -193 -193 -209 79 82 84 -193 -193 -193 -193 81 -209 -193 -193 55 60 58 57 59 61 64 69 62 -193 -209 -209 -209 -193 -209 -209 -209 -177 -193 -193 -209 -209 -209 -209 -209 -209 -209 -209 190 -193 -209 204 -209 126 122 122 122 -225 -225 -225 -225 -225 -225 -225 -225 -225 -225 228 -225 -177 -225 -225 -225 226 222 230 219 219 222 224 222 -193 -209 -209 -177 -177 -193 -193 -209 -209 -209 -209 -209 -209 -209 -209 -209 -209 -225 -225 -225 -225 -225 -225 -225 -225 -225 -225 -225 -225 -225 -209 -209 -209 -209 -193 -209 -209 122 126 -209 -209 -193 -209 -209 -209 -209 -209 -193 228 -209 -209 150 -209 0 0 0 184 187 187 188 189 192 -209 -209 0 0 0 0 -177 0 0 -177 -177 -209 95 -209 -209 -209 -209 -209 -209 -209 -209 194 195 196 195 195 194 195 199 198 199 199 201 200 -193 0 0 0 0 0
    0 0 0 0 0 0 0 0 0 0 0 0 0 0 0 0 0 0 0 0 0 0 0 0 0 0 0 0 0 0 0 0 0 0 0 0 0 0 0 0 0 0 0 0 0 0 0 0 0 0 0 0 0 0 0 0 0 0 0 0 0 0 0 0 0 0 0 0 0 231 232 232 231 231 231 230 229 229 229 230 230 231 232 232 233 233 233 233 233 233 233 233 234 233 233 233 -209 -193 0 -209 -193 226 228 227 225 227 229 229 231 230 232 -209 -209 -209 -209 -209 436 -209 -209 -209 -209 -193 14 25 -209 -193 -209 -209 -209 -177 -177 -177 231 -209 -209 321 321 325 -209 -193 -193 -209 -209 228 229 -193 -193 -193 -193 -193 -209 -209 -209 -209 -209 52 -193 -193 -193 -209 56 59 64 69 70 63 70 -209 -209 -193 -209 -209 -209 -193 221 223 -193 -193 224 228 -209 204 -209 -209 198 196 198 200 204 206 -209 -209 407 -193 -209 -209 -209 -209 -193 -177 222 224 226 224 227 227 -193 -193 -209 231 226 222 228 224 220 222 224 222 219 223 -193 -209 -193 147 -209 -193 -209 -209 -209 234 237 236 233 229 231 -225 -225 -225 -225 -225 -225 -225 -225 -225 -225 -225 -225 -225 -225 -225 -225 368 -209 -209 -209 -209 -209 220 -193 214 219 222 226 228 227 230 230 -225 -209 -209 -209 -209 -209 -209 -209 -209 -209 -193 194 -193 -209 -209 0 0 0 9 -177 0 0 0 0 -209 89 -209 -209 -193 -209 -209 -209 -209 -209 -209 -193 -193 196 196 196 199 202 202 203 204 204 204 206 0 0 0 0 0
    0 0 0 0 0 0 0 0 0 0 0 0 0 0 0 0 0 0 0 0 0 0 0 0 0 0 0 0 0 0 0 0 0 0 0 0 0 0 0 0 0 0 0 0 0 0 0 0 0 0 0 0 0 0 0 0 0 0 0 0 0 0 0 0 0 0 0 0 0 231 232 233 231 232 232 230 230 230 231 231 231 232 233 233 233 233 233 233 233 233 232 232 234 233 233 233 -193 -193 -193 -209 227 227 228 226 226 227 228 228 230 229 230 229 -209 -209 -209 -177 -177 -209 -209 -209 -193 -209 -209 -209 -209 -209 -209 -209 -193 223 227 229 230 -193 -193 -193 -193 -193 -193 -193 229 -193 228 228 229 229 229 228 229 -209 228 225 227 224 -209 -193 -209 -193 220 219 -193 62 69 -209 -209 -209 -209 -209 -209 -193 -193 -193 225 223 224 225 225 227 224 226 219 211 -177 206 202 201 201 201 205 207 210 -209 393 399 406 -209 -209 -193 223 223 223 224 226 224 227 226 227 -193 230 231 226 224 228 228 225 226 227 226 221 227 227 228 -193 -193 -209 208 -193 -209 -193 233 234 232 231 229 230 230 226 227 218 220 220 223 228 229 -193 -225 -225 -225 -225 -209 -193 -193 -193 -193 -193 -193 -193 -193 221 218 222 225 225 228 229 232 -225 -225 -225 -225 211 210 214 218 -209 -209 -209 -209 224 -193 -209 -209 0 0 0 11 11 -193 -193 -193 -193 -193 88 96 -209 -209 -209 -209 -209 -209 -209 -209 -209 -193 197 197 198 201 205 206 208 208 208 208 211 0 0 0 0 0
    0 0 0 0 0 0 0 0 0 0 0 0 0 0 0 0 0 0 0 0 0 0 0 0 0 0 0 0 0 0 0 0 0 0 0 0 0 0 0 0 0 0 0 0 0 0 0 0 0 0 0 0 0 0 0 0 0 0 0 0 0 0 0 0 0 0 0 0 0 230 231 233 231 232 232 231 231 231 232 232 231 232 233 232 232 233 233 232 233 232 232 232 234 234 234 234 -193 -193 -209 -193 228 227 228 226 226 226 228 228 229 229 229 229 230 -209 -193 -193 -177 -209 -209 -209 -193 -209 -193 -193 -193 -193 -193 -193 224 224 227 229 229 229 230 -193 -193 -193 -193 228 228 227 228 227 229 228 228 227 228 226 227 224 226 223 226 -209 -209 221 222 221 226 -193 -193 -193 -209 -209 -209 -209 -209 -209 -193 226 226 224 225 226 225 226 224 226 220 217 214 207 203 201 201 200 205 210 213 215 -209 -209 403 -209 224 224 223 223 224 226 226 225 227 226 228 228 229 230 226 225 227 228 227 227 228 227 223 228 228 228 228 -193 221 219 220 227 227 231 231 231 231 229 231 231 228 -193 220 221 221 223 226 227 223 224 225 224 -193 223 224 221 219 222 220 220 222 222 222 219 222 226 225 229 229 232 230 -225 -225 -225 216 217 218 220 220 220 -193 -209 227 -193 -209 -209 0 0 0 13 13 -209 -209 -209 -209 -193 88 96 -209 -209 -209 -209 -209 -209 -209 -209 -193 200 198 199 200 203 209 212 212 214 214 214 215 0 0 0 0 0
    0 0 0 0 0 0 0 0 0 0 0 0 0 0 0 0 0 0 0 0 0 0 0 0 0 0 0 0 0 0 0 0 0 0 0 0 0 0 0 0 0 0 0 0 0 0 0 0 0 0 0 0 0 0 0 0 0 0 0 0 0 0 0 0 0 0 0 0 0 229 230 232 231 231 232 231 231 231 232 232 231 232 232 231 232 232 232 232 233 232 232 232 234 234 233 233 234 231 231 230 228 228 228 226 226 226 228 228 228 228 227 228 229 -193 -193 -193 -193 -193 -193 -193 -193 227 226 -193 227 222 226 225 224 224 227 229 229 229 229 227 -193 -193 229 227 227 226 227 226 228 228 227 227 227 226 227 224 226 223 226 223 222 222 223 222 225 -193 -193 225 229 -193 -209 231 -193 229 226 227 227 226 226 226 226 227 225 227 222 219 218 212 205 201 200 200 206 213 216 217 218 -209 -209 218 226 225 224 224 225 227 227 226 227 226 228 228 229 229 226 225 227 228 227 226 227 227 223 226 226 226 226 227 223 223 222 226 227 230 230 229 230 229 229 230 228 227 221 222 222 224 227 228 225 226 227 226 226 225 225 222 220 222 221 220 222 221 221 219 221 224 224 227 229 231 230 229 230 221 219 220 219 222 221 221 -193 -193 225 227 -209 -209 -193 9 -193 19 -209 -209 -209 -209 -209 -209 -193 -209 -209 -209 -209 -209 -209 -209 -209 -209 200 201 200 201 203 206 212 214 214 215 215 216 216 0 0 0 0 0
    0 0 0 0 0 0 0 0 0 0 0 0 0 0 0 0 0 0 0 0 0 0 0 0 0 0 0 0 0 0 0 0 0 0 0 0 0 0 0 0 0 0 0 0 0 0 0 0 0 0 0 0 0 0 0 0 0 0 0 0 0 0 0 0 0 0 0 0 0 229 229 231 230 231 232 231 231 231 231 231 231 232 232 231 231 232 232 231 232 232 231 231 234 234 -193 -193 233 230 231 230 228 228 227 226 226 226 227 227 227 227 225 226 227 226 226 -193 -193 -193 227 227 227 228 227 224 227 223 226 225 224 225 226 228 229 228 229 227 227 228 228 227 227 226 227 226 228 228 227 227 227 225 227 225 226 223 225 223 223 223 223 222 225 224 223 224 227 -193 227 230 227 229 226 228 228 227 228 227 227 228 227 228 224 222 221 218 -209 204 -209 200 206 215 218 219 219 219 219 219 227 226 224 224 225 228 227 227 227 226 228 228 229 229 226 226 227 228 226 225 227 226 222 224 224 223 224 225 223 223 222 224 226 228 229 228 228 228 228 228 228 227 223 224 224 225 227 228 226 227 228 227 227 226 226 222 221 222 222 221 222 222 221 220 222 224 223 226 227 229 228 228 229 223 221 221 221 223 222 222 222 222 224 226 228 -209 -209 -209 -209 -193 -193 -209 -209 -193 -193 -209 -209 -209 -209 -209 -209 -177 -177 -209 -209 -209 209 211 209 204 206 211 214 216 216 216 216 216 216 0 0 0 0 0
    0 0 0 0 0 0 0 0 0 0 0 0 0 0 0 0 0 0 0 0 0 0 0 0 0 0 0 0 0 0 0 0 0 0 0 0 0 0 0 0 0 0 0 0 0 0 0 0 0 0 0 0 0 0 0 0 0 0 0 0 0 0 0 0 0 0 0 0 0 229 229 231 230 231 232 231 232 231 231 231 231 232 232 230 231 232 232 231 232 232 231 231 234 -193 -193 -193 -193 231 231 230 229 228 228 226 227 226 227 226 227 226 224 225 227 226 227 -193 227 225 227 227 226 227 226 224 226 224 225 225 224 225 226 228 228 227 228 227 227 228 227 226 227 226 227 226 228 227 227 227 227 225 227 225 226 223 225 223 224 224 224 223 224 224 223 223 224 223 225 228 227 229 227 228 228 228 229 228 228 229 228 228 226 224 222 219 -209 -209 -209 200 207 216 218 219 220 220 220 220 228 226 225 224 226 228 227 227 227 226 228 228 229 229 226 226 227 228 226 225 226 225 222 224 223 223 223 224 223 224 222 223 225 227 228 227 228 227 228 228 228 226 224 225 225 225 227 227 226 227 228 228 226 226 225 223 222 223 222 222 222 222 222 220 222 223 223 225 225 227 226 227 228 223 222 222 221 223 222 222 222 222 223 225 227 -193 -209 -209 -209 -193 -193 -193 -209 29 -193 -209 -209 -209 -209 130 -209 -209 -177 -209 -209 -193 218 217 219 214 214 216 218 219 219 218 219 218 218 0 0 0 0 0
    0 0 0 0 0 0 0 0 0 0 0 0 0 0 0 0 0 0 0 0 0 0 0 0 0 0 0 0 0 0 0 0 0 0 0 0 0 0 0 0 0 0 0 0 0 0 0 0 0 0 0 0 0 0 0 0 0 0 0 0 0 0 0 0 0 0 0 0 0 228 229 230 230 230 232 231 232 232 232 232 232 232 233 231 231 232 232 232 232 232 231 231 233 -209 -193 672 -193 230 231 230 229 229 228 226 227 227 227 227 227 226 224 225 227 226 227 -193 227 225 226 227 226 227 227 225 226 224 225 225 224 226 225 227 227 226 227 226 226 227 226 226 227 226 227 226 228 227 227 227 227 225 227 225 226 223 224 224 225 225 224 223 224 223 223 223 223 222 223 227 226 228 227 228 228 228 229 228 228 229 228 228 226 224 223 219 219 217 -209 200 211 218 219 220 220 220 220 222 229 226 225 225 227 228 227 227 227 225 228 227 228 228 226 226 227 228 226 225 226 225 222 224 224 223 223 224 223 224 223 224 225 227 227 226 227 227 227 227 227 226 225 225 225 225 227 227 227 227 228 228 226 226 226 223 223 223 222 222 223 223 222 221 223 223 223 225 224 226 225 225 227 223 222 222 221 223 222 221 222 222 223 225 227 228 227 -193 -193 -193 -193 -193 -193 -177 -193 -209 87 -209 -209 -209 -209 -209 -209 221 217 219 222 221 226 220 219 219 220 221 220 220 220 219 218 0 0 0 0 0
    0 0 0 0 0 0 0 0 0 0 0 0 0 0 0 0 0 0 0 0 0 0 0 0 0 0 0 0 0 0 0 0 0 0 0 0 0 0 0 0 0 0 0 0 0 0 0 0 0 0 0 0 0 0 0 0 0 0 0 0 0 0 0 0 0 0 0 0 0 228 228 230 229 230 232 231 233 232 233 233 232 233 233 231 231 232 232 232 232 232 231 231 233 -209 -193 -193 -193 230 231 230 230 230 228 227 228 227 228 227 227 226 222 225 226 225 227 225 227 225 226 227 225 227 226 225 226 224 225 225 224 226 224 227 226 225 226 226 226 227 225 226 227 225 227 226 228 227 227 227 226 224 227 224 226 223 224 224 225 225 224 223 224 223 223 223 223 222 222 226 224 227 226 228 228 228 229 228 228 228 228 228 226 226 225 221 221 219 220 -193 216 220 220 221 221 222 222 225 229 227 226 226 227 228 227 226 226 224 227 227 228 228 226 226 228 228 227 226 227 225 222 224 224 224 224 224 224 225 223 224 224 226 226 225 227 227 227 227 227 226 225 226 225 225 227 226 227 227 228 228 225 226 226 224 223 223 223 223 223 223 223 222 223 224 224 225 224 225 225 225 227 222 222 222 221 223 222 221 222 221 223 224 226 227 227 227 227 227 226 -193 -193 -193 -193 -193 -193 -193 224 224 226 227 225 224 222 223 225 224 228 223 222 221 222 222 221 220 220 218 217 0 0 0 0 0
    0 0 0 0 0 0 0 0 0 0 0 0 0 0 0 0 0 0 0 0 0 0 0 0 0 0 0 0 0 0 0 0 0 0 0 0 0 0 0 0 0 0 0 0 0 0 0 0 0 0 0 0 0 0 0 0 0 0 0 0 0 0 0 0 0 0 0 0 0 227 228 230 229 229 232 231 233 232 233 233 232 232 232 230 231 231 231 231 231 231 231 230 233 -209 -193 -193 232 230 230 230 230 230 229 227 228 228 228 227 227 226 221 224 225 224 226 224 226 225 226 227 225 228 227 225 226 224 225 225 224 226 224 227 226 225 226 226 226 226 225 226 227 225 227 226 227 227 227 227 226 224 226 224 225 222 223 223 225 225 224 223 224 224 223 223 222 222 222 226 224 227 227 228 228 228 228 228 227 228 228 227 226 226 225 221 222 221 222 219 219 223 222 223 224 225 224 227 230 227 226 226 228 228 227 226 225 223 226 226 228 227 226 226 228 229 228 226 227 225 223 224 224 224 224 224 224 225 223 224 224 225 225 224 226 226 226 226 226 226 225 226 226 226 226 226 227 227 228 228 225 226 226 224 223 223 223 223 223 223 223 222 223 224 224 225 224 225 225 225 226 223 222 222 221 223 222 221 222 221 223 223 225 226 225 225 226 226 226 227 -193 -193 225 226 228 225 225 225 226 227 225 225 223 224 225 225 227 224 223 223 223 224 222 222 221 218 218 0 0 0 0 0
    0 0 0 0 0 0 0 0 0 0 0 0 0 0 0 0 0 0 0 0 0 0 0 0 0 0 0 0 0 0 0 0 0 0 0 0 0 0 0 0 0 0 0 0 0 0 0 0 0 0 0 0 0 0 0 0 0 0 0 0 0 0 0 0 0 0 0 0 0 227 227 229 228 228 231 230 232 231 232 232 231 232 231 228 230 230 231 230 230 230 230 230 232 -209 231 229 232 231 231 230 230 231 229 228 228 228 228 228 227 226 221 224 224 223 226 224 226 225 226 227 226 228 227 226 226 226 226 226 224 227 224 227 226 225 226 226 226 226 224 227 226 225 227 226 227 227 227 227 225 224 227 224 225 223 223 224 224 224 223 223 223 223 222 222 221 222 221 225 224 226 227 228 228 228 228 228 227 228 228 227 226 226 225 222 222 222 224 220 221 224 223 225 225 226 224 228 230 227 226 226 228 227 227 226 225 223 226 226 227 226 226 226 228 228 227 226 227 225 223 224 224 224 224 224 224 225 223 224 224 225 224 224 225 225 225 226 226 225 225 227 226 226 227 226 227 227 228 228 224 226 226 226 224 223 224 223 223 223 223 222 222 223 224 224 223 224 224 224 226 223 223 223 222 223 222 221 222 221 222 222 224 224 223 224 224 226 225 226 225 225 225 226 228 225 225 225 226 226 225 224 223 224 224 224 227 224 224 224 224 224 223 224 222 220 220 0 0 0 0 0
    0 0 0 0 0 0 0 0 0 0 0 0 0 0 0 0 0 0 0 0 0 0 0 0 0 0 0 0 0 0 0 0 0 0 0 0 0 0 0 0 0 0 0 0 0 0 0 0 0 0 0 0 0 0 0 0 0 0 0 0 0 0 0 0 0 0 0 0 0 226 227 228 228 226 230 229 231 230 230 231 231 231 231 227 229 230 230 230 230 230 229 229 232 231 230 228 231 231 230 231 231 231 229 229 229 229 229 228 227 226 221 223 223 222 225 223 225 224 225 227 226 228 228 227 227 227 227 227 226 228 224 228 226 225 225 227 226 226 224 227 226 224 227 226 226 227 227 227 225 224 227 226 227 224 225 225 225 225 223 223 222 222 221 221 220 221 221 224 224 225 227 228 228 228 229 228 228 228 228 227 227 226 226 224 224 224 225 222 223 225 224 225 224 226 224 228 230 227 226 226 228 227 227 226 224 223 226 226 227 225 226 226 227 227 226 225 226 224 222 223 223 223 224 224 224 225 224 224 224 225 224 223 225 224 225 225 225 224 224 228 227 227 227 226 228 228 229 229 225 227 227 227 225 223 224 224 223 224 223 222 222 222 224 224 222 224 223 224 225 223 223 223 222 224 222 222 222 221 222 222 223 223 223 223 224 225 224 224 224 223 223 225 228 225 225 225 226 226 225 224 224 224 224 224 227 224 224 224 224 224 223 225 223 220 222 0 0 0 0 0
    0 0 0 0 0 0 0 0 0 0 0 0 0 0 0 0 0 0 0 0 0 0 0 0 0 0 0 0 0 0 0 0 0 0 0 0 0 0 0 0 0 0 0 0 0 0 0 0 0 0 0 0 0 0 0 0 0 0 0 0 0 0 0 0 0 0 0 0 0 227 227 228 228 226 229 228 230 229 229 230 230 231 230 227 229 229 230 229 229 229 229 229 231 229 228 226 229 230 230 231 231 232 230 230 230 230 229 229 227 225 220 222 221 220 223 222 224 224 225 226 226 228 228 227 227 227 228 227 226 228 223 228 226 225 225 227 226 226 224 227 227 225 227 226 226 227 227 227 225 225 228 227 227 224 225 224 225 225 222 222 222 222 221 220 221 221 221 223 223 224 227 227 228 228 229 228 228 229 229 227 228 227 227 225 226 224 225 223 223 224 224 224 223 225 224 228 230 227 226 226 228 227 226 226 224 222 226 225 226 224 225 225 226 227 225 224 225 223 222 223 223 223 224 223 224 224 224 224 224 225 224 223 224 223 224 223 224 224 224 228 227 227 227 227 228 228 229 228 225 226 227 227 225 223 225 224 223 224 223 223 222 222 224 223 222 224 223 224 225 223 223 223 222 224 222 222 223 222 222 222 223 223 222 222 223 223 223 223 223 222 222 224 227 224 224 225 225 226 224 224 224 224 224 225 226 224 224 224 224 224 223 225 222 220 222 0 0 0 0 0
    0 0 0 0 0 0 0 0 0 0 0 0 0 0 0 0 0 0 0 0 0 0 0 0 0 0 0 0 0 0 0 0 0 0 0 0 0 0 0 0 0 0 0 0 0 0 0 0 0 0 0 0 0 0 0 0 0 0 0 0 0 0 0 0 0 0 0 0 0 227 227 227 227 225 228 227 229 228 229 230 230 231 230 227 229 229 230 229 229 229 229 229 231 228 228 226 228 230 230 231 231 232 230 231 230 230 230 229 228 225 220 222 221 220 223 221 223 224 225 227 226 228 228 228 227 228 228 227 226 228 223 227 225 224 224 227 226 226 224 227 227 225 227 226 227 227 227 227 225 226 228 227 227 225 225 225 225 225 222 223 222 222 222 221 221 221 221 222 223 224 227 226 227 227 228 228 228 228 228 226 228 227 227 226 226 224 225 223 223 224 223 223 222 224 223 228 229 226 226 226 228 226 226 225 223 222 225 225 226 224 225 225 226 226 225 224 225 223 222 223 223 223 224 223 224 224 224 224 224 224 223 222 224 222 223 223 223 224 225 228 227 227 227 226 228 227 227 227 224 225 227 226 225 224 226 224 223 224 223 222 222 222 224 223 222 223 223 223 224 223 223 223 222 224 222 222 223 222 222 221 223 222 221 221 222 223 223 222 223 221 222 223 226 224 224 224 225 225 224 223 224 224 224 225 226 224 224 224 225 224 223 224 222 220 222 0 0 0 0 0
    0 0 0 0 0 0 0 0 0 0 0 0 0 0 0 0 0 0 0 0 0 0 0 0 0 0 0 0 0 0 0 0 0 0 0 0 0 0 0 0 0 0 0 0 0 0 0 0 0 0 0 0 0 0 0 0 0 0 0 0 0 0 0 0 0 0 0 0 0 227 227 227 227 224 228 227 229 228 228 229 230 230 230 226 229 228 229 229 229 229 228 228 231 228 228 226 227 229 230 230 231 -193 230 231 230 230 230 229 228 226 221 223 222 221 223 222 224 224 225 227 226 228 228 228 227 228 228 227 227 228 222 226 223 223 222 226 225 224 223 227 226 225 227 226 226 227 227 227 225 227 228 228 227 224 225 225 224 225 222 222 222 221 222 220 221 222 221 222 222 223 226 225 226 226 227 226 227 227 227 225 227 227 226 225 225 224 224 223 223 223 222 221 222 223 223 228 228 226 225 225 228 226 225 225 223 222 225 225 226 223 225 225 226 226 226 225 226 223 223 224 224 224 225 224 225 224 224 224 224 224 223 222 223 222 223 223 223 223 225 228 227 226 227 226 227 226 227 226 223 224 226 226 224 224 225 224 223 224 223 222 222 222 224 223 223 224 223 223 224 222 223 223 221 224 222 222 223 221 222 221 222 222 221 221 222 223 224 222 223 221 222 223 225 223 223 223 224 224 223 223 223 224 223 225 225 223 224 224 224 224 222 224 222 220 222 0 0 0 0 0
    0 0 0 0 0 0 0 0 0 0 0 0 0 0 0 0 0 0 0 0 0 0 0 0 0 0 0 0 0 0 0 0 0 0 0 0 0 0 0 0 0 0 0 0 0 0 0 0 0 0 0 0 0 0 0 0 0 0 0 0 0 0 0 0 0 0 0 0 0 226 227 226 227 224 228 228 229 228 228 229 230 230 230 226 229 228 229 229 229 229 228 228 231 228 228 227 227 228 229 230 231 -193 230 230 230 230 230 229 228 227 222 225 224 222 224 223 224 224 226 227 226 228 228 228 227 228 228 227 226 227 222 224 222 222 221 225 224 223 223 228 226 225 226 226 226 226 227 227 224 227 228 227 227 224 225 224 223 224 221 222 222 221 221 221 222 223 221 223 223 224 226 225 225 225 226 225 226 227 226 224 227 226 226 225 225 224 224 223 222 223 222 221 222 224 223 229 228 226 225 225 228 226 225 225 223 222 224 225 225 223 224 225 226 226 226 226 226 224 224 225 225 225 226 224 226 225 225 225 224 224 223 222 224 222 223 222 222 223 225 227 227 226 226 226 226 226 226 225 223 224 226 226 224 224 225 223 223 223 223 222 221 223 224 223 224 224 223 223 223 222 223 222 221 224 222 222 222 221 222 221 222 221 220 221 221 222 223 221 222 221 222 223 224 223 222 223 224 224 223 223 223 224 223 225 225 223 223 224 224 223 222 224 221 221 224 0 0 0 0 0
    0 0 0 0 0 0 0 0 0 0 0 0 0 0 0 0 0 0 0 0 0 0 0 0 0 0 0 0 0 0 0 0 0 0 0 0 0 0 0 0 0 0 0 0 0 0 0 0 0 0 0 0 0 0 0 0 0 0 0 0 0 0 0 0 0 0 0 0 0 226 227 226 228 225 228 228 230 229 229 230 230 230 230 227 229 228 229 228 228 228 228 228 231 228 228 227 228 228 229 229 230 -193 229 230 230 230 230 229 228 226 222 225 224 222 224 223 223 224 226 227 226 228 228 227 227 228 227 226 225 226 221 223 221 222 221 225 224 223 223 228 225 225 226 226 226 226 227 227 224 227 228 227 227 224 226 224 224 224 222 222 222 222 222 221 223 223 222 224 223 225 226 225 225 225 225 225 225 227 226 224 227 227 226 226 225 224 223 223 222 223 222 222 223 225 225 229 228 226 225 225 228 226 225 225 222 223 225 225 225 223 224 224 225 225 225 225 226 223 225 225 225 225 227 225 227 225 225 225 225 225 223 223 224 222 223 223 222 223 225 227 226 226 226 226 225 225 226 224 223 223 226 226 223 224 224 223 222 223 223 222 221 223 224 224 225 224 223 223 222 222 222 221 220 223 221 222 222 221 222 221 221 221 220 220 220 221 222 221 221 220 221 223 223 223 222 222 223 223 223 223 223 224 222 226 224 223 223 223 224 223 222 223 221 221 225 0 0 0 0 0
    0 0 0 0 0 0 0 0 0 0 0 0 0 0 0 0 0 0 0 0 0 0 0 0 0 0 0 0 0 0 0 0 0 0 0 0 0 0 0 0 0 0 0 0 0 0 0 0 0 0 0 0 0 0 0 0 0 0 0 0 0 0 0 0 0 0 0 0 0 226 227 226 228 225 228 229 230 230 230 230 231 231 230 227 229 228 228 228 228 228 228 228 231 228 228 228 229 229 229 229 230 -193 229 230 229 230 229 228 228 226 222 226 226 223 224 223 223 224 226 226 226 227 227 227 227 228 227 226 224 225 221 222 221 221 220 225 223 223 222 228 225 225 225 225 226 226 227 227 224 228 228 227 227 224 226 224 224 225 222 222 222 221 221 222 223 223 222 224 224 226 227 225 225 225 225 225 225 227 225 224 227 226 226 226 225 225 224 224 223 223 224 223 224 225 225 229 227 226 225 225 228 225 224 225 222 223 225 225 225 223 223 224 224 224 223 223 224 222 224 224 225 225 227 225 227 225 226 226 225 225 224 223 224 222 223 223 222 223 226 227 226 226 226 226 225 225 225 224 223 223 225 226 222 224 224 222 222 223 222 222 221 224 224 224 225 225 223 223 222 222 222 221 220 223 222 223 222 221 222 221 221 221 220 220 220 221 221 220 221 220 221 223 223 223 221 222 223 223 223 222 222 223 222 225 223 223 223 223 223 223 221 223 220 222 224 0 0 0 0 0
    0 0 0 0 0 0 0 0 0 0 0 0 0 0 0 0 0 0 0 0 0 0 0 0 0 0 0 0 0 0 0 0 0 0 0 0 0 0 0 0 0 0 0 0 0 0 0 0 0 0 0 0 0 0 0 0 0 0 0 0 0 0 0 0 0 0 0 0 0 226 227 226 228 225 228 228 230 230 230 231 231 230 230 227 229 227 228 228 228 228 228 228 231 229 229 229 229 229 230 229 230 230 228 229 229 229 229 228 228 226 223 226 226 224 224 223 224 224 226 226 226 226 228 227 227 228 227 225 225 225 221 221 220 221 219 223 222 222 222 228 225 225 225 225 227 226 227 227 224 228 228 227 227 225 226 224 223 225 222 222 222 222 221 222 223 223 221 223 223 226 226 225 225 224 225 226 225 227 225 224 226 226 225 226 225 225 223 224 223 223 224 222 223 224 224 229 227 225 225 224 227 225 224 225 222 223 224 224 224 222 222 223 223 223 222 223 224 222 224 225 226 225 227 225 227 225 226 226 225 225 224 223 224 222 223 223 222 223 225 226 226 226 225 226 224 224 225 223 223 223 225 225 222 225 225 223 222 223 223 222 222 224 224 224 225 224 223 223 222 222 222 221 221 224 223 224 223 222 222 221 221 221 219 221 220 221 221 220 221 220 221 223 222 223 221 223 223 223 223 223 222 223 221 225 222 223 222 222 222 222 221 223 220 223 223 0 0 0 0 0
    0 0 0 0 0 0 0 0 0 0 0 0 0 0 0 0 0 0 0 0 0 0 0 0 0 0 0 0 0 0 0 0 0 0 0 0 0 0 0 0 0 0 0 0 0 0 0 0 0 0 0 0 0 0 0 0 0 0 0 0 0 0 0 0 0 0 0 0 0 225 227 226 229 226 227 228 231 231 231 231 231 230 231 228 229 228 229 229 229 229 229 228 231 229 229 229 228 228 229 228 229 230 228 229 229 229 229 227 228 226 223 225 226 224 225 224 224 224 226 226 226 226 227 227 226 227 226 225 225 224 222 221 220 220 219 222 221 222 221 228 224 225 225 225 227 226 227 227 224 228 228 227 227 224 226 224 223 225 222 222 222 222 222 223 225 223 222 223 223 226 226 225 224 224 225 225 225 226 224 224 226 226 225 226 225 225 223 225 223 223 224 222 223 223 224 229 226 225 225 224 227 224 224 225 222 224 224 224 224 222 222 223 222 222 221 222 224 222 225 226 227 226 227 225 227 224 225 225 225 224 223 223 224 222 223 223 222 223 226 226 226 226 225 226 224 224 225 223 224 224 225 225 223 226 225 223 223 224 223 223 223 225 224 224 225 224 223 223 221 221 221 221 221 224 223 225 223 222 223 221 222 221 220 221 220 221 221 221 221 221 221 223 222 223 221 223 223 222 223 222 222 223 220 225 221 222 222 222 222 222 221 223 220 222 221 0 0 0 0 0
    0 0 0 0 0 0 0 0 0 0 0 0 0 0 0 0 0 0 0 0 0 0 0 0 0 0 0 0 0 0 0 0 0 0 0 0 0 0 0 0 0 0 0 0 0 0 0 0 0 0 0 0 0 0 0 0 0 0 0 0 0 0 0 0 0 0 0 0 0 223 226 226 229 227 228 229 232 232 233 232 230 230 231 228 230 228 229 229 229 229 229 228 230 229 230 228 226 228 228 227 228 229 227 228 228 228 229 226 227 225 223 226 226 226 225 225 225 226 227 227 226 226 227 226 226 227 225 224 225 225 223 221 221 221 219 223 221 222 221 228 224 225 225 225 227 225 227 227 223 228 227 227 227 224 226 224 223 224 223 223 223 223 223 225 226 224 223 223 223 227 226 225 224 224 225 225 225 226 224 225 226 226 224 225 224 225 222 224 222 223 225 222 224 224 224 228 225 225 224 224 226 224 223 224 222 224 224 224 223 222 222 222 221 222 221 222 224 223 225 226 228 227 227 226 227 224 225 225 224 224 223 223 223 223 223 223 223 224 226 226 225 226 225 226 224 224 224 223 224 224 225 225 223 226 225 223 223 224 223 223 223 225 224 224 226 224 223 223 221 221 220 221 221 223 222 224 223 222 222 222 222 222 220 221 220 221 222 221 221 221 221 223 222 223 221 223 222 221 222 221 220 222 219 223 220 222 222 221 221 221 221 222 219 222 219 0 0 0 0 0
    0 0 0 0 0 0 0 0 0 0 0 0 0 0 0 0 0 0 0 0 0 0 0 0 0 0 0 0 0 0 0 0 0 0 0 0 0 0 0 0 0 0 0 0 0 0 0 0 0 0 0 0 0 0 0 0 0 0 0 0 0 0 0 0 0 0 0 0 0 222 224 226 229 228 -193 229 232 231 231 231 229 229 230 228 230 228 229 229 229 229 229 228 230 229 230 228 226 228 228 227 227 228 225 227 227 227 227 225 225 224 223 226 226 227 227 227 227 228 228 228 226 227 226 226 225 226 224 224 223 224 223 222 222 221 220 223 221 221 221 227 223 224 224 225 226 225 226 227 223 229 228 227 227 224 226 225 224 225 223 223 224 223 223 225 227 225 224 223 224 228 226 225 224 225 225 226 225 226 224 225 225 225 223 223 222 225 222 224 222 223 226 223 225 224 225 228 225 225 224 223 226 223 223 224 221 223 224 223 222 222 222 222 221 221 220 221 224 223 224 227 228 228 227 226 227 225 225 225 224 224 223 223 223 223 223 224 223 224 226 225 225 226 225 226 224 224 224 223 224 225 225 225 223 226 224 222 222 223 223 223 224 225 224 225 226 225 223 223 221 221 220 221 222 222 222 224 222 222 222 222 221 222 220 222 221 222 222 221 221 222 221 223 221 223 222 223 222 221 222 221 220 221 219 222 220 221 221 221 221 221 220 222 219 222 219 0 0 0 0 0
    0 0 0 0 0 0 0 0 0 0 0 0 0 0 0 0 0 0 0 0 0 0 0 0 0 0 0 0 0 0 0 0 0 0 0 0 0 0 0 0 0 0 0 0 0 0 0 0 0 0 0 0 0 0 0 0 0 0 0 0 0 0 0 0 0 0 0 0 0 223 224 228 230 230 -193 230 232 230 230 230 228 228 229 228 229 227 229 229 229 229 230 228 229 229 229 227 225 227 227 226 226 227 224 225 225 225 226 224 224 223 223 226 226 227 227 227 227 228 228 228 226 226 226 225 224 224 222 223 221 223 222 223 222 222 221 223 222 222 221 227 223 224 223 224 226 225 226 227 223 229 227 227 227 225 226 225 224 225 223 223 224 223 223 225 226 225 224 224 224 228 226 225 224 226 226 226 225 226 224 225 225 224 222 222 221 224 222 223 222 223 227 224 225 225 226 228 225 224 224 223 225 222 222 223 221 223 223 222 222 221 222 221 220 220 219 221 223 223 224 227 229 228 227 226 227 225 225 225 224 224 223 224 223 224 223 224 223 224 226 226 224 226 225 226 224 225 224 223 224 225 224 225 223 226 224 223 223 223 224 225 224 226 224 225 226 225 223 222 221 221 220 220 222 222 222 224 222 222 222 222 222 222 221 223 221 222 222 222 222 222 221 223 221 223 222 224 223 222 222 221 220 221 219 222 220 221 221 221 221 221 221 222 219 222 219 0 0 0 0 0
    0 0 0 0 0 0 0 0 0 0 0 0 0 0 0 0 0 0 0 0 0 0 0 0 0 0 0 0 0 0 0 0 0 0 0 0 0 0 0 0 0 0 0 0 0 0 0 0 0 0 0 0 0 0 0 0 0 0 0 0 0 0 0 0 0 0 0 0 0 223 226 229 231 232 -193 -193 232 230 229 230 228 227 229 227 229 227 229 229 229 0 -256 -1 -13041 229 229 227 224 227 226 224 224 226 222 223 223 223 224 223 224 223 223 225 226 227 227 228 227 228 227 228 227 226 226 225 224 224 222 223 221 224 223 225 224 224 223 224 223 223 222 227 223 224 224 224 226 225 226 227 223 229 227 227 227 225 227 225 224 226 225 224 225 223 222 225 226 225 224 223 223 227 226 225 224 226 225 226 225 226 224 225 225 224 221 222 220 224 221 223 222 225 228 224 225 225 226 228 225 224 224 223 225 221 222 222 220 222 222 222 221 220 221 221 219 220 219 220 222 222 224 227 228 228 226 226 226 224 224 224 223 223 222 224 223 224 223 224 223 225 225 226 224 226 225 226 224 225 224 224 224 226 224 225 223 226 224 224 223 224 224 226 225 226 224 226 226 225 223 222 221 221 220 220 222 222 222 224 223 222 222 222 222 222 221 223 221 222 222 222 222 223 221 223 222 224 223 225 223 222 222 221 220 220 219 221 220 221 221 220 221 221 221 222 220 221 219 0 0 0 0 0
    0 0 0 0 0 0 0 0 0 0 0 0 0 0 0 0 0 0 0 0 0 0 0 0 0 0 0 0 0 0 0 0 0 0 0 0 0 0 0 0 0 0 0 0 0 0 0 0 0 0 0 0 0 0 0 0 0 0 0 0 0 0 0 0 0 0 0 0 0 -193 226 229 231 232 -193 -209 -209 -193 230 231 229 228 229 228 229 228 230 230 229 230 231 229 229 229 229 227 224 227 224 222 222 224 221 222 222 223 222 222 224 224 223 225 225 227 227 228 228 228 227 228 226 226 225 224 223 223 221 223 221 226 225 226 224 225 224 225 224 224 222 226 222 224 224 225 226 225 226 227 224 229 228 228 228 226 228 226 226 227 225 225 225 223 222 224 226 224 223 223 223 226 225 224 224 225 225 225 224 225 224 224 225 225 221 222 221 224 222 224 223 225 228 225 225 225 226 227 225 224 224 223 225 222 221 222 220 222 222 221 220 220 220 220 219 219 218 219 222 222 223 227 228 227 225 225 225 223 223 223 222 222 221 223 222 223 223 224 223 224 225 225 224 226 224 226 224 225 224 224 224 226 224 224 223 226 224 224 223 224 224 226 225 226 223 225 225 224 223 222 221 222 220 221 223 222 223 225 223 223 222 223 222 223 221 223 221 222 222 222 222 223 221 223 221 224 222 224 221 221 221 220 220 220 218 221 220 222 221 221 221 221 221 223 220 221 219 0 0 0 0 0
    0 0 0 0 0 0 0 0 0 0 0 0 0 0 0 0 0 0 0 0 0 0 0 0 0 0 0 0 0 0 0 0 0 0 0 0 0 0 0 0 0 0 0 0 0 0 0 0 0 0 0 0 0 0 0 0 0 0 0 0 0 0 0 0 0 0 0 0 0 -193 226 229 231 232 234 -209 -193 -193 230 231 229 228 229 228 229 229 230 230 229 230 231 229 229 228 228 226 223 227 223 221 220 223 220 221 221 223 222 222 224 224 224 225 225 227 227 228 228 229 227 228 226 227 226 225 223 224 222 223 222 228 227 228 224 224 224 224 223 224 222 226 223 225 225 226 227 226 226 227 225 230 229 229 229 226 228 227 226 226 225 225 224 222 222 223 226 224 224 224 223 226 226 225 225 225 225 225 224 225 223 224 224 225 221 221 220 222 221 223 222 224 227 224 224 225 225 227 225 224 224 223 225 222 221 221 220 221 221 221 220 220 221 221 220 219 219 220 222 223 223 226 226 227 224 224 223 222 222 222 221 222 221 222 222 223 222 223 223 224 224 225 223 225 224 226 224 224 223 224 224 225 224 224 223 225 224 224 223 223 224 226 225 226 223 225 225 225 223 222 221 222 220 222 225 224 225 227 225 224 223 224 223 224 222 224 222 223 223 223 223 224 221 223 221 224 222 224 220 220 220 220 220 220 219 221 220 222 222 221 221 221 222 222 220 220 218 0 0 0 0 0
    0 0 0 0 0 0 0 0 0 0 0 0 0 0 0 0 0 0 0 0 0 0 0 0 0 0 0 0 0 0 0 0 0 0 0 0 0 0 0 0 0 0 0 0 0 0 0 0 0 0 0 0 0 0 0 0 0 0 0 0 0 0 0 0 0 0 0 0 0 -193 227 230 232 233 235 -209 -193 -193 230 230 228 227 228 228 229 229 231 231 229 230 231 230 228 228 227 225 222 225 222 220 219 222 220 221 221 223 222 223 225 225 224 225 224 227 227 228 229 229 227 229 226 227 226 225 224 225 222 224 222 229 228 228 225 224 223 224 223 224 222 225 223 225 225 226 227 226 226 227 225 230 -193 229 230 227 229 228 228 227 226 226 227 224 223 223 226 225 225 224 223 225 225 225 225 226 226 225 225 225 223 224 224 225 220 220 220 220 220 222 221 222 226 223 224 225 225 227 225 225 225 224 226 223 222 222 220 222 221 221 220 220 221 221 220 220 219 221 222 223 223 226 226 226 224 223 223 222 222 222 221 221 220 222 221 222 222 223 223 224 224 225 223 225 224 226 224 224 223 224 224 225 224 223 223 225 223 224 223 223 224 226 226 227 224 226 225 225 223 222 221 222 220 222 225 224 224 226 224 224 222 224 223 223 221 223 221 223 223 223 223 224 221 223 221 224 222 223 220 219 219 220 220 220 220 221 220 222 222 222 221 221 221 221 220 219 218 0 0 0 0 0
    0 0 0 0 0 0 0 0 0 0 0 0 0 0 0 0 0 0 0 0 0 0 0 0 0 0 0 0 0 0 0 0 0 0 0 0 0 0 0 0 0 0 0 0 0 0 0 0 0 0 0 0 0 0 0 0 0 0 0 0 0 0 0 0 0 0 0 0 0 -193 227 229 232 232 235 -209 -209 -193 230 231 228 227 228 228 229 229 231 231 229 230 232 230 228 227 227 224 221 224 221 219 218 222 219 221 221 223 222 223 225 225 224 226 225 227 227 228 228 229 227 229 226 226 225 225 224 224 222 224 221 229 228 228 224 223 223 224 223 223 222 225 223 225 225 226 226 226 226 227 224 -193 -193 -193 -193 227 230 229 228 228 227 227 228 225 223 223 227 225 225 225 224 225 225 225 225 226 226 225 225 225 224 225 225 226 220 219 219 219 221 222 222 222 225 223 224 226 225 227 226 225 226 225 227 224 223 224 221 222 222 221 221 221 222 222 221 220 220 221 223 224 224 226 226 226 225 224 223 223 222 222 221 221 220 221 221 222 222 223 223 224 224 225 223 225 224 225 224 224 223 225 225 225 224 224 223 225 223 224 223 223 224 226 226 227 224 225 225 225 223 222 221 222 220 222 224 223 223 224 223 223 221 222 221 222 221 222 221 222 223 223 222 223 221 222 221 222 220 221 219 218 218 219 219 220 220 221 220 221 221 221 221 221 221 220 219 218 218 0 0 0 0 0
    0 0 0 0 0 0 0 0 0 0 0 0 0 0 0 0 0 0 0 0 0 0 0 0 0 0 0 0 0 0 0 0 0 0 0 0 0 0 0 0 0 0 0 0 0 0 0 0 0 0 0 0 0 0 0 0 0 0 0 0 0 0 0 0 0 0 0 0 0 -193 226 229 231 232 235 -209 -209 -209 230 231 229 228 228 228 229 229 231 231 229 229 231 229 228 227 226 224 222 225 221 219 217 221 219 221 221 223 222 223 225 225 225 226 225 227 227 228 228 228 226 228 226 226 225 224 223 223 221 223 220 228 228 228 224 223 224 224 223 223 222 225 223 225 226 226 226 226 225 227 224 -193 -193 -193 -193 227 230 230 229 228 228 228 229 226 224 223 227 225 225 225 223 224 224 224 224 225 226 225 225 225 224 225 226 227 220 219 220 219 221 222 222 222 225 223 224 226 225 227 226 225 225 224 227 225 222 223 221 221 222 222 222 221 222 222 221 221 221 222 223 225 225 226 226 225 225 224 223 223 221 221 220 220 220 221 221 222 222 223 223 224 224 225 223 224 224 225 224 224 223 225 225 225 224 224 223 225 224 224 223 223 224 226 225 227 224 225 225 225 223 221 220 222 220 221 224 222 222 224 223 222 220 222 221 221 221 222 221 223 223 223 222 224 221 222 220 221 219 220 218 218 218 219 220 220 221 221 221 221 221 221 221 221 220 220 219 218 218 0 0 0 0 0
    0 0 0 0 0 0 0 0 0 0 0 0 0 0 0 0 0 0 0 0 0 0 0 0 0 0 0 0 0 0 0 0 0 0 0 0 0 0 0 0 0 0 0 0 0 0 0 0 0 0 0 0 0 0 0 0 0 0 0 0 0 0 0 0 0 0 0 0 0 -193 226 228 231 232 235 -209 -209 -209 229 230 229 227 227 227 228 228 231 231 229 229 233 230 228 228 227 225 223 226 222 219 218 221 218 220 220 222 221 223 226 226 225 -193 -193 -193 -193 228 228 228 226 228 226 226 225 224 222 222 220 221 218 226 226 227 223 223 223 224 222 223 222 224 223 225 226 226 227 226 226 227 -193 -209 -193 -209 -193 229 231 230 230 230 229 229 231 227 224 223 227 226 225 225 223 224 223 224 223 224 225 225 225 225 224 224 226 227 221 220 220 219 221 222 223 222 226 223 224 227 226 227 226 226 226 225 228 225 223 224 221 221 222 222 222 221 222 222 222 221 221 224 224 226 225 226 225 225 224 223 223 222 221 221 220 220 220 221 221 222 221 223 223 224 224 225 223 224 224 225 223 223 222 225 225 224 224 224 224 225 224 225 224 224 226 227 226 228 225 226 225 225 223 221 220 222 220 221 224 222 222 224 222 222 219 222 220 221 221 222 222 224 224 225 223 225 221 222 219 220 218 220 218 218 219 220 221 222 222 221 221 222 222 221 221 221 221 220 219 218 217 0 0 0 0 0
    0 0 0 0 0 0 0 0 0 0 0 0 0 0 0 0 0 0 0 0 0 0 0 0 0 0 0 0 0 0 0 0 0 0 0 0 0 0 0 0 0 0 0 0 0 0 0 0 0 0 0 0 0 0 0 0 0 0 0 0 0 0 0 0 0 0 0 0 0 -209 -193 229 -209 232 239 -209 -209 -209 -193 -209 -209 227 228 228 229 230 232 232 231 231 234 232 229 229 -193 -193 224 226 221 217 216 219 217 219 219 222 221 223 228 227 -209 -193 -193 -209 -193 -193 -193 -193 226 228 225 226 225 -193 222 222 220 221 218 227 225 226 222 222 222 223 222 223 223 224 224 226 226 227 227 227 226 227 -209 -209 -193 -209 -209 229 231 230 230 230 229 229 231 227 223 222 227 -193 225 225 222 223 223 223 223 223 224 224 224 225 223 224 226 228 221 220 220 218 220 222 224 222 225 223 224 227 226 227 227 226 226 225 228 226 223 225 222 221 222 223 223 222 223 223 223 222 222 225 225 226 225 226 225 225 224 223 223 222 221 221 220 220 220 220 221 221 221 222 223 224 224 225 223 224 223 224 223 222 222 225 225 224 224 225 224 225 225 226 224 225 227 228 227 229 226 227 225 224 222 221 220 221 219 221 223 222 221 224 222 221 219 222 221 221 221 223 222 225 226 227 224 226 222 223 218 218 217 218 217 218 219 221 221 225 224 223 222 223 222 221 221 222 221 220 219 218 216 0 0 0 0 0
    0 0 0 0 0 0 0 0 0 0 0 0 0 0 0 0 0 0 0 0 0 0 0 0 0 0 0 0 0 0 0 0 0 0 0 0 0 0 0 0 0 0 0 0 0 0 0 0 0 0 0 0 0 0 0 0 0 0 0 0 0 0 0 0 0 0 0 0 0 -193 -209 -209 -209 -209 -193 -209 -209 258 -209 -209 -209 -209 -209 -193 232 235 234 235 233 234 236 234 -209 -193 320 -193 322 -193 -193 -209 213 -193 215 -209 -193 223 221 224 229 -209 -209 996 997 999 1000 -209 -209 -209 226 229 225 226 225 -193 -193 223 221 222 220 228 227 226 221 -193 -193 -193 222 224 223 224 225 227 228 228 228 227 226 -193 801 820 827 -209 -209 -209 -193 -193 -193 228 227 228 230 -209 222 -193 -209 -209 225 226 222 223 223 224 223 223 224 224 224 225 223 224 227 228 222 221 221 219 221 223 224 223 225 223 224 228 226 228 227 227 227 226 229 227 224 227 222 222 222 223 224 222 223 224 224 222 223 225 225 227 226 227 225 224 224 223 223 222 221 221 220 220 219 219 220 221 221 222 222 223 223 223 222 223 223 223 222 221 221 225 225 223 224 225 224 226 225 226 224 225 228 228 227 229 227 226 224 224 222 221 220 221 -193 -193 -193 -193 -193 -193 -193 221 218 221 220 220 220 222 221 224 226 228 226 227 223 225 220 218 217 218 216 217 219 221 221 225 225 223 223 223 223 222 222 222 221 220 220 218 216 0 0 0 0 0
    0 0 0 0 0 0 0 0 0 0 0 0 0 0 0 0 0 0 0 0 0 0 0 0 0 0 0 0 0 0 0 0 0 0 0 0 0 0 0 0 0 0 0 0 0 0 0 0 0 0 0 0 0 0 0 0 0 0 0 0 0 0 0 0 0 0 0 0 0 -225 -225 -225 152 -193 -225 -225 -225 252 -225 -225 -225 -225 -209 248 -193 242 238 238 -193 -193 237 -209 -225 -225 322 -225 -225 -225 -225 -209 -209 -209 518 -177 508 506 -193 -193 -225 -225 -225 -225 -225 -225 -225 -209 -209 -209 -209 -209 -193 -193 -193 -193 -193 -209 -193 -209 -209 -209 -193 -209 -209 505 506 511 -193 -209 -193 224 227 228 228 -193 -193 -193 -209 -209 -209 -209 -193 1008 -209 -209 -209 -209 -209 -209 -209 -209 -209 -209 -209 -193 -209 -209 226 226 223 223 224 225 224 224 225 225 225 225 224 224 227 228 222 221 222 219 222 223 224 222 224 223 224 228 225 228 228 227 227 226 229 228 225 228 223 223 223 224 225 223 224 224 224 223 222 224 224 228 225 227 225 224 224 223 223 222 221 221 -193 220 219 218 220 220 219 220 -193 221 222 222 221 221 222 222 221 220 221 225 225 223 224 225 225 226 226 226 225 225 228 228 227 229 227 226 224 224 222 220 220 221 -193 -193 -177 -193 -193 -177 -177 -209 -209 -193 220 220 -193 -209 220 223 226 228 226 227 225 227 222 223 221 220 218 220 222 223 224 227 226 223 224 224 223 222 222 222 222 220 221 218 216 0 0 0 0 0
    0 0 0 0 0 0 0 0 0 0 0 0 0 0 0 0 0 0 0 0 0 0 0 0 0 0 0 0 0 0 0 0 0 0 0 0 0 0 0 0 0 0 0 0 0 0 0 0 0 0 0 0 0 0 0 0 0 0 0 0 0 0 0 0 0 0 0 0 0 -225 -225 -225 -225 -225 -225 -225 -225 -225 -225 -225 -225 -225 -225 -225 -225 -225 -225 -225 -225 -225 -225 -225 -225 -225 -225 -225 -225 -225 -225 -225 -225 -225 -225 -225 -225 -225 -225 -225 -225 -225 -225 -225 -225 -225 -225 -225 -225 -225 -225 -209 -209 -209 -209 -209 -193 -209 -209 -209 -209 -209 -209 493 501 503 503 -209 -209 0 -209 225 228 -209 -209 -193 784 -209 -225 -225 -225 -225 -225 -225 -209 -209 -193 -193 -209 -193 -193 -193 -209 -209 -209 -193 -209 445 -209 -193 -209 -209 224 -193 224 225 226 226 227 226 225 225 227 228 -193 -193 -193 -209 -193 -193 -193 -193 223 222 224 229 225 228 228 228 227 227 229 228 225 229 -193 223 223 226 227 224 225 223 223 224 222 226 223 228 224 226 225 224 224 223 222 222 221 222 -193 220 219 218 221 221 -193 -193 -193 221 -193 222 223 223 222 222 221 220 222 225 227 223 225 226 226 227 227 227 226 226 229 228 227 230 228 226 224 223 222 221 220 -193 -193 0 0 0 0 -177 -177 -177 -209 -209 -209 -209 -209 -209 -209 -177 -177 -177 -193 228 227 229 226 227 227 225 222 223 225 224 225 227 226 223 224 224 223 221 222 222 222 221 222 219 217 0 0 0 0 0</data></disparity>
</opencv_storage>
