<?xml version="1.0"?>
<opencv_storage>
<gps_time_stamp>16543</gps_time_stamp>
<gps_x>1.7047217115759850e-002</gps_x>
<gps_y>1.2001496739685535e-002</gps_y>
<gps_z>-4.6609723940491676e-003</gps_z>
<image_time_stamp>4465</image_time_stamp>
<disparity type_id="opencv-matrix">
  <rows>92</rows>
  <cols>320</cols>
  <dt>s</dt>
  <data>
    0 0 0 0 0 0 0 0 0 0 0 0 0 0 0 0 0 0 0 0 0 0 0 0 0 0 0 0 0 0 0 0 0 0 0 0 0 0 0 0 0 0 0 0 0 0 0 0 0 0 0 0 0 0 0 0 0 0 0 0 0 0 0 0 0 0 0 0 0 14 14 17 14 14 16 15 14 13 13 12 10 11 10 0 0 0 0 0 0 0 0 0 0 0 0 0 0 0 0 0 0 0 0 0 9 9 11 11 11 11 12 9 11 10 10 10 9 10 12 11 11 12 12 10 9 0 9 0 0 0 0 0 0 0 0 0 0 0 0 0 0 0 0 0 0 0 0 0 0 0 0 0 0 0 0 0 0 0 11 -209 -209 -209 -209 -209 0 0 -209 -209 -209 14 -209 -209 -193 24 19 19 18 -193 -193 11 11 11 0 0 0 0 10 10 9 10 9 11 9 9 9 11 10 12 13 12 11 12 18 23 24 29 37 39 -193 -193 -193 -177 -209 -209 9 11 12 13 14 14 14 12 16 14 14 15 14 16 16 18 20 19 22 23 25 26 27 27 27 28 28 30 29 29 28 28 28 29 26 26 24 24 24 26 25 28 29 33 35 36 37 38 39 41 42 41 42 42 43 46 45 46 46 47 46 49 47 49 50 51 51 52 53 53 53 54 53 52 53 53 53 53 53 52 52 55 56 55 56 56 55 55 56 56 56 55 56 57 58 59 -209 -193 -193 -209 -209 0 0 0 0 0
    0 0 0 0 0 0 0 0 0 0 0 0 0 0 0 0 0 0 0 0 0 0 0 0 0 0 0 0 0 0 0 0 0 0 0 0 0 0 0 0 0 0 0 0 0 0 0 0 0 0 0 0 0 0 0 0 0 0 0 0 0 0 0 0 0 0 0 0 0 14 14 17 14 13 15 14 14 13 13 13 10 11 12 0 0 0 0 0 0 0 0 0 9 0 0 0 0 0 0 0 0 0 9 0 9 9 11 10 11 11 12 9 10 9 9 9 9 9 11 10 11 12 12 10 9 0 0 0 0 0 0 0 0 0 0 0 0 0 0 0 0 0 0 0 0 0 0 0 0 0 0 0 0 0 0 0 -209 -209 -209 -209 -209 -209 -209 -209 -209 -209 -209 -209 -209 -209 -193 -209 -193 23 19 19 17 -177 -193 11 11 11 0 0 0 0 10 10 9 10 9 11 9 9 0 10 10 12 15 13 12 13 19 24 25 30 37 39 -193 -193 -177 -177 -209 -193 -193 12 12 13 14 15 14 12 16 14 14 15 14 15 15 18 19 18 22 23 25 26 28 27 28 29 28 30 28 29 28 28 28 28 26 25 24 24 24 25 25 27 28 31 33 34 36 37 39 41 42 41 43 43 44 46 44 46 45 46 45 48 47 48 49 50 51 51 52 53 52 53 52 52 53 52 52 52 52 51 51 54 55 55 56 56 56 56 56 56 56 56 57 58 59 60 -209 -209 -209 -209 -209 0 0 0 0 0
    0 0 0 0 0 0 0 0 0 0 0 0 0 0 0 0 0 0 0 0 0 0 0 0 0 0 0 0 0 0 0 0 0 0 0 0 0 0 0 0 0 0 0 0 0 0 0 0 0 0 0 0 0 0 0 0 0 0 0 0 0 0 0 0 0 0 0 0 0 14 14 18 14 13 15 15 15 14 13 14 11 13 18 0 9 0 0 0 0 0 0 0 9 0 9 9 0 0 0 0 0 0 9 0 9 9 11 10 10 11 12 9 10 9 9 9 0 9 10 10 10 11 11 10 9 0 0 0 0 0 0 0 0 0 0 0 0 0 0 0 0 0 0 0 0 0 0 0 0 0 0 0 0 0 0 0 -209 -209 -209 44 -193 41 -193 -209 -209 -209 -193 -209 -209 -209 -209 -209 221 -193 20 20 18 -177 -193 11 10 11 0 0 0 0 11 11 9 10 10 11 9 9 9 10 10 13 16 14 13 15 21 25 26 31 38 38 41 -193 -177 -177 -193 -193 -193 12 12 13 14 15 14 12 16 15 15 16 14 16 16 18 19 19 22 23 25 26 28 27 28 29 28 29 28 28 27 27 27 27 26 25 25 25 25 25 25 27 28 32 33 33 35 37 40 41 42 42 43 44 45 47 45 45 46 45 45 48 46 47 48 49 50 51 52 53 51 53 52 52 53 52 53 52 52 52 51 53 54 54 56 56 56 56 57 57 57 56 57 58 60 61 -193 -209 -193 -209 -193 0 0 0 0 0
    0 0 0 0 0 0 0 0 0 0 0 0 0 0 0 0 0 0 0 0 0 0 0 0 0 0 0 0 0 0 0 0 0 0 0 0 0 0 0 0 0 0 0 0 0 0 0 0 0 0 0 0 0 0 0 0 0 0 0 0 0 0 0 0 0 0 0 0 0 15 15 18 14 13 16 16 16 15 14 14 12 14 20 10 10 0 0 9 0 0 0 0 0 0 9 0 0 0 0 0 0 0 8 0 9 9 11 10 10 11 12 9 10 9 10 9 9 9 10 9 10 10 11 9 9 0 0 0 0 0 0 0 0 0 0 0 0 0 0 0 0 0 0 0 0 0 0 0 0 0 0 0 0 9 0 10 -209 -209 -209 42 43 42 45 -209 43 -209 -193 -209 -209 -209 -209 -193 -193 -193 -193 -209 -193 -177 -193 10 10 10 0 0 0 0 10 10 9 9 10 11 10 10 9 12 11 14 17 14 14 18 21 25 26 30 36 37 40 -193 -177 493 -193 -193 -193 13 12 13 14 15 14 12 17 16 16 17 15 17 17 19 20 20 22 24 25 27 28 28 28 28 28 28 27 28 27 26 26 26 25 24 25 25 24 25 25 27 28 33 34 33 35 38 41 43 43 43 45 45 46 48 46 46 46 45 45 47 46 47 47 49 49 51 52 53 51 53 53 52 54 52 53 53 53 52 51 53 54 54 57 57 56 57 57 57 57 56 57 58 59 -193 -193 -209 -193 -193 -193 0 0 0 0 0
    0 0 0 0 0 0 0 0 0 0 0 0 0 0 0 0 0 0 0 0 0 0 0 0 0 0 0 0 0 0 0 0 0 0 0 0 0 0 0 0 0 0 0 0 0 0 0 0 0 0 0 0 0 0 0 0 0 0 0 0 0 0 0 0 0 0 0 0 0 15 15 19 15 14 18 18 16 17 15 15 13 15 20 11 11 9 9 9 9 0 0 0 0 0 0 0 0 0 0 0 0 0 0 0 0 0 10 10 10 11 12 9 10 9 10 9 9 0 10 9 10 10 11 9 9 0 0 0 0 0 0 0 0 0 0 0 0 0 0 0 0 0 0 0 0 0 0 0 0 0 0 9 0 12 10 13 -209 -209 37 39 40 40 42 41 41 -209 -209 -209 -209 -209 -209 -193 -177 -193 -177 -193 -193 -177 -193 11 10 10 0 0 0 0 9 9 0 9 9 10 10 11 10 14 14 18 20 17 16 20 22 25 26 29 35 37 40 41 -209 -209 -193 -209 11 13 13 13 14 14 14 12 18 17 17 17 16 17 17 19 19 20 22 23 24 26 27 27 27 27 27 27 26 27 26 26 26 26 25 24 25 25 25 26 26 27 29 34 35 33 36 39 43 44 44 44 46 46 46 48 46 46 46 45 45 47 46 47 47 49 49 51 52 53 51 53 53 53 54 52 53 53 53 52 50 53 54 54 58 58 57 57 57 57 58 57 57 58 59 -193 -193 -193 -193 -193 -193 0 0 0 0 0
    0 0 0 0 0 0 0 0 0 0 0 0 0 0 0 0 0 0 0 0 0 0 0 0 0 0 0 0 0 0 0 0 0 0 0 0 0 0 0 0 0 0 0 0 0 0 0 0 0 0 0 0 0 0 0 0 0 0 0 0 0 0 0 0 0 0 0 0 0 16 15 20 16 17 21 21 20 20 20 20 17 18 21 12 12 10 9 10 9 9 9 0 0 0 0 0 0 0 0 0 0 0 0 0 0 0 10 9 9 10 11 9 10 9 11 9 9 9 9 9 10 10 11 9 9 0 0 0 0 0 0 0 0 0 0 0 0 0 0 0 0 0 0 0 0 0 0 0 0 0 0 10 10 12 13 16 -209 -209 41 40 42 41 42 42 42 41 -193 42 42 41 -209 -193 -193 -193 -193 -193 -209 -177 -193 12 10 10 0 0 0 0 0 0 0 0 9 10 11 13 13 17 20 22 24 21 19 22 22 24 26 29 34 35 39 40 39 -209 -209 -193 13 14 13 13 14 14 14 12 18 17 17 17 16 17 18 19 19 19 21 23 25 26 26 26 26 26 26 26 26 26 26 25 25 25 25 25 25 25 25 26 26 27 28 35 35 35 38 41 48 46 45 46 47 47 46 48 46 45 46 45 44 47 46 47 46 48 49 50 52 52 51 53 53 53 54 52 53 53 53 52 50 52 53 55 58 58 58 58 57 58 58 57 58 58 59 -193 -193 -193 -193 -193 -193 0 0 0 0 0
    0 0 0 0 0 0 0 0 0 0 0 0 0 0 0 0 0 0 0 0 0 0 0 0 0 0 0 0 0 0 0 0 0 0 0 0 0 0 0 0 0 0 0 0 0 0 0 0 0 0 0 0 0 0 0 0 0 0 0 0 0 0 0 0 0 0 0 0 0 19 19 23 20 21 24 24 24 23 24 23 21 22 22 14 14 11 10 10 9 9 9 0 0 0 0 0 0 0 0 0 0 0 0 0 0 0 9 9 9 9 10 0 9 9 11 9 9 0 9 9 9 9 10 9 9 0 0 0 0 0 0 0 0 0 0 0 0 0 0 0 0 0 0 0 0 0 0 0 0 9 0 11 10 12 16 -193 -193 52 44 43 43 42 42 42 42 41 40 41 42 41 41 -209 -193 -193 -193 -193 -209 -209 -209 15 13 11 0 0 0 0 0 0 0 0 9 10 12 16 17 21 23 25 26 24 21 23 23 25 26 29 34 34 37 38 39 -193 -193 -193 15 15 13 13 13 13 14 11 15 16 16 17 15 17 18 19 19 19 20 21 23 24 25 24 25 25 25 25 25 25 25 24 25 25 25 25 25 25 25 26 27 27 28 35 35 33 38 41 51 46 45 47 47 47 46 48 47 45 46 46 45 47 46 47 46 48 49 50 52 52 51 53 53 53 54 52 53 53 53 53 51 53 53 54 58 58 57 57 57 57 57 57 57 57 58 60 -193 -193 -193 -193 -193 0 0 0 0 0
    0 0 0 0 0 0 0 0 0 0 0 0 0 0 0 0 0 0 0 0 0 0 0 0 0 0 0 0 0 0 0 0 0 0 0 0 0 0 0 0 0 0 0 0 0 0 0 0 0 0 0 0 0 0 0 0 0 0 0 0 0 0 0 0 0 0 0 0 0 21 22 25 23 24 35 42 43 35 33 -193 -209 24 24 18 18 13 11 11 10 9 10 0 0 0 0 0 0 0 0 0 0 0 0 0 0 0 9 9 9 10 10 0 9 9 11 9 9 0 0 0 9 9 9 0 0 0 0 0 0 0 0 0 0 0 0 0 0 0 0 0 0 0 0 0 0 0 9 9 0 9 0 11 11 -193 18 -209 54 48 43 42 42 41 40 41 41 39 39 40 41 40 40 41 -193 -193 -193 -193 -209 31 -209 21 19 14 9 0 0 0 0 0 0 0 9 11 15 19 22 24 27 29 30 27 24 24 24 25 26 28 32 31 35 36 37 -193 -209 -193 17 15 14 13 12 13 14 11 15 15 15 16 14 17 18 19 18 19 20 21 22 23 24 23 23 24 24 24 24 24 24 24 25 25 25 25 27 27 27 27 29 29 31 38 39 37 42 43 52 47 45 47 47 47 46 49 47 45 46 46 45 48 46 47 46 48 49 50 52 52 50 53 53 53 54 52 53 54 54 54 51 53 52 54 57 57 57 56 56 56 -193 57 57 57 59 -193 59 -193 -193 -193 -193 0 0 0 0 0
    0 0 0 0 0 0 0 0 0 0 0 0 0 0 0 0 0 0 0 0 0 0 0 0 0 0 0 0 0 0 0 0 0 0 0 0 0 0 0 0 0 0 0 0 0 0 0 0 0 0 0 0 0 0 0 0 0 0 0 0 0 0 0 0 0 0 0 0 0 26 28 35 38 35 40 43 45 -209 -209 -209 -209 -209 24 20 21 16 12 12 10 9 10 0 0 0 0 0 0 0 0 0 0 0 0 0 0 0 9 9 9 10 10 0 10 9 11 9 9 0 0 0 9 0 9 0 0 0 0 0 0 0 0 0 0 0 0 0 0 0 0 0 0 0 0 0 0 9 9 9 0 9 9 12 13 -193 -193 -193 51 45 43 43 42 41 41 41 41 40 40 41 41 41 41 42 42 42 -193 -209 -209 37 -209 24 24 19 11 0 0 0 0 0 0 0 9 11 17 23 25 27 31 34 34 32 26 26 25 25 26 27 30 29 31 33 36 30 28 21 20 16 15 13 13 13 15 12 14 14 15 16 15 17 18 19 17 19 21 20 21 22 23 22 22 23 23 23 23 23 23 23 25 24 24 25 28 27 28 28 30 32 35 38 39 37 41 42 51 46 45 47 47 47 46 49 47 45 47 47 46 48 47 48 47 49 49 51 52 52 51 54 54 54 55 52 54 54 54 54 51 53 52 54 57 57 56 56 56 56 -193 57 56 57 58 -193 -193 -193 -193 -193 -193 0 0 0 0 0
    0 0 0 0 0 0 0 0 0 0 0 0 0 0 0 0 0 0 0 0 0 0 0 0 0 0 0 0 0 0 0 0 0 0 0 0 0 0 0 0 0 0 0 0 0 0 0 0 0 0 0 0 0 0 0 0 0 0 0 0 0 0 0 0 0 0 0 0 0 29 32 37 39 38 42 48 45 -209 -209 -209 -209 -209 24 21 22 18 12 11 10 9 9 0 0 0 0 0 0 0 0 0 0 0 0 0 0 0 9 9 9 10 11 0 10 10 11 9 9 9 0 0 9 0 0 0 0 0 0 0 0 0 0 0 0 0 0 0 0 0 0 0 0 0 0 0 0 0 9 9 0 0 9 12 13 -209 -193 -193 47 44 42 43 42 42 41 42 42 41 41 41 41 41 41 42 42 42 42 41 42 40 39 33 28 24 12 0 0 0 0 0 0 0 9 12 18 24 26 28 32 36 35 33 29 28 27 25 26 27 29 28 30 32 36 32 32 -193 20 16 14 13 12 13 15 12 14 14 15 15 15 17 18 18 16 19 20 20 21 21 22 21 21 22 22 22 23 23 23 23 25 25 25 26 29 29 31 30 32 36 37 39 40 37 41 41 50 46 45 47 47 47 46 50 48 46 48 48 47 49 48 49 48 50 51 52 53 53 52 55 55 55 55 53 54 55 55 55 52 54 53 55 58 57 56 56 56 56 56 57 55 56 56 -193 -193 230 -193 -193 -193 0 0 0 0 0
    0 0 0 0 0 0 0 0 0 0 0 0 0 0 0 0 0 0 0 0 0 0 0 0 0 0 0 0 0 0 0 0 0 0 0 0 0 0 0 0 0 0 0 0 0 0 0 0 0 0 0 0 0 0 0 0 0 0 0 0 0 0 0 0 0 0 0 0 0 34 36 38 40 39 42 -193 -209 -209 -209 -209 -209 23 23 19 21 17 11 11 9 0 0 0 0 0 0 0 0 0 0 0 0 0 0 0 0 0 9 9 9 11 11 0 11 10 12 9 9 0 0 0 9 0 9 0 0 0 0 0 0 0 0 0 0 0 0 0 0 0 0 0 0 0 0 0 0 9 9 9 0 0 10 12 13 -193 -193 -209 46 43 42 42 42 42 41 42 42 41 41 41 41 41 41 42 42 42 42 42 43 41 41 41 37 31 22 0 0 0 0 0 0 0 9 11 18 24 28 29 33 36 35 34 32 29 28 26 26 27 28 28 29 30 34 31 34 -193 22 18 16 13 12 13 15 13 15 14 14 15 15 16 18 17 15 18 20 19 20 20 21 20 20 22 22 22 22 23 23 23 25 25 25 26 31 30 34 31 34 38 39 40 40 37 40 41 48 46 45 46 46 47 47 50 48 46 49 48 48 50 49 50 49 51 52 53 54 53 53 55 55 55 56 54 54 55 56 56 53 55 54 56 58 57 -177 -177 -177 55 56 56 54 55 56 -193 229 229 230 229 230 0 0 0 0 0
    0 0 0 0 0 0 0 0 0 0 0 0 0 0 0 0 0 0 0 0 0 0 0 0 0 0 0 0 0 0 0 0 0 0 0 0 0 0 0 0 0 0 0 0 0 0 0 0 0 0 0 0 0 0 0 0 0 0 0 0 0 0 0 0 0 0 0 0 0 36 37 39 41 38 41 -209 -209 21 -193 22 21 21 21 17 20 16 11 11 9 0 0 0 0 0 0 0 0 0 0 0 0 0 0 0 0 0 9 9 9 11 11 0 11 10 12 9 9 9 0 9 9 0 9 0 0 0 0 0 0 0 0 0 0 0 9 0 0 0 0 0 0 0 0 0 0 9 9 -193 0 0 9 11 13 -193 -193 -209 -209 -209 41 42 42 42 41 43 43 41 42 41 41 41 41 43 42 43 42 43 44 42 42 42 40 40 30 -209 0 0 0 0 0 0 0 11 19 25 29 29 33 37 35 35 33 31 28 26 26 27 28 28 29 30 33 32 35 -193 23 19 16 13 12 13 15 13 14 13 13 14 14 14 17 16 14 16 19 18 19 19 20 19 19 21 21 21 21 22 23 23 25 25 25 26 32 30 35 32 34 39 39 39 40 36 39 40 47 46 44 46 46 47 47 50 48 47 50 48 48 50 50 51 49 52 52 53 55 54 54 56 55 55 55 53 54 54 55 55 52 55 54 55 57 -177 -177 -177 -177 55 55 56 54 55 55 226 228 228 229 228 229 0 0 0 0 0
    0 0 0 0 0 0 0 0 0 0 0 0 0 0 0 0 0 0 0 0 0 0 0 0 0 0 0 0 0 0 0 0 0 0 0 0 0 0 0 0 0 0 0 0 0 0 0 0 0 0 0 0 0 0 0 0 0 0 0 0 0 0 0 0 0 0 0 0 0 37 37 39 40 37 -209 -209 -209 19 -193 19 17 19 20 16 20 16 11 10 9 0 0 0 0 0 0 0 0 0 0 0 0 0 0 9 0 0 9 9 9 11 11 0 11 10 11 9 0 0 0 0 9 0 0 0 0 0 0 0 0 0 0 0 0 0 9 9 0 0 9 0 0 0 0 0 0 9 9 -193 -193 -193 -193 11 -193 -209 -209 -209 -209 -209 41 41 41 41 41 42 42 41 41 40 40 40 40 42 41 42 42 43 44 43 43 42 39 40 31 15 10 0 0 0 0 0 0 11 20 25 30 29 32 36 36 36 35 33 29 26 27 28 30 28 29 30 34 33 36 28 25 19 17 14 13 14 16 15 15 13 13 13 14 14 15 15 13 15 18 17 18 18 19 17 18 20 20 20 21 21 23 23 25 26 26 27 34 32 35 33 34 38 39 39 39 36 39 40 45 45 44 46 45 46 46 50 47 46 49 48 48 50 50 51 50 52 52 53 55 54 55 56 55 55 56 53 54 54 55 54 52 54 53 55 56 -177 -177 -177 -177 55 55 56 53 55 55 224 227 228 228 228 228 0 0 0 0 0
    0 0 0 0 0 0 0 0 0 0 0 0 0 0 0 0 0 0 0 0 0 0 0 0 0 0 0 0 0 0 0 0 0 0 0 0 0 0 0 0 0 0 0 0 0 0 0 0 0 0 0 0 0 0 0 0 0 0 0 0 0 0 0 0 0 0 0 0 0 39 38 39 40 34 -209 -193 -193 18 -193 18 14 19 21 15 20 16 9 10 0 0 0 0 0 0 0 0 0 0 0 0 0 0 0 9 0 0 9 9 0 11 11 0 11 10 11 0 0 0 0 0 0 0 0 0 0 0 0 0 0 0 0 0 0 0 9 9 0 0 9 0 0 0 0 0 0 9 -193 -193 -193 -193 -193 -193 -193 -193 -193 -209 -209 -193 41 41 41 41 41 43 42 41 41 38 38 38 38 41 40 41 41 42 43 42 42 41 37 38 30 15 12 9 0 9 9 9 0 11 17 24 29 28 31 36 35 36 36 34 31 27 28 30 33 30 30 31 35 34 37 34 29 19 17 14 13 15 17 16 14 12 12 13 13 12 14 14 12 14 17 16 17 17 18 15 16 18 19 18 19 20 23 24 27 27 28 29 36 33 36 34 34 38 39 39 39 36 39 40 44 44 43 45 45 46 46 49 47 47 49 47 49 49 50 51 49 52 52 53 55 54 55 55 55 56 56 54 54 54 55 54 52 54 53 55 55 -177 -177 -177 -177 54 53 56 52 55 55 224 227 227 228 227 228 0 0 0 0 0
    0 0 0 0 0 0 0 0 0 0 0 0 0 0 0 0 0 0 0 0 0 0 0 0 0 0 0 0 0 0 0 0 0 0 0 0 0 0 0 0 0 0 0 0 0 0 0 0 0 0 0 0 0 0 0 0 0 0 0 0 0 0 0 0 0 0 0 0 0 39 38 39 40 -193 -209 -193 -209 18 18 17 14 20 21 17 21 18 10 10 0 0 0 0 0 0 0 0 0 0 0 0 0 0 0 9 0 0 10 9 9 11 11 0 11 10 11 0 0 0 0 0 0 0 0 0 0 0 0 0 0 0 0 0 0 0 9 9 -177 0 9 0 0 0 0 0 0 -193 -209 -193 -193 -193 223 -177 227 -193 -193 -209 -193 117 -193 41 41 40 41 42 42 40 39 34 35 33 36 41 38 40 39 41 43 42 42 40 33 34 28 15 13 10 9 9 9 9 0 11 14 22 28 28 29 34 35 36 35 35 32 28 29 32 35 32 32 33 37 38 41 44 39 -193 16 13 10 15 17 16 14 11 12 12 12 12 13 13 11 14 17 17 16 17 18 15 16 18 18 17 17 19 22 26 27 -193 29 31 37 34 36 35 35 38 38 39 39 36 39 40 43 44 43 44 44 46 46 50 47 47 49 47 49 50 50 51 50 52 52 53 55 53 55 54 55 56 56 54 54 53 54 52 52 54 52 55 55 -177 -177 -177 -177 54 53 56 51 55 55 223 226 227 227 227 228 0 0 0 0 0
    0 0 0 0 0 0 0 0 0 0 0 0 0 0 0 0 0 0 0 0 0 0 0 0 0 0 0 0 0 0 0 0 0 0 0 0 0 0 0 0 0 0 0 0 0 0 0 0 0 0 0 0 0 0 0 0 0 0 0 0 0 0 0 0 0 0 0 0 0 38 38 38 39 30 -193 -193 -193 17 -193 15 13 19 20 16 20 17 10 10 9 0 0 0 0 0 0 0 0 0 0 0 0 0 0 9 0 8 10 10 10 12 12 10 13 11 12 0 0 0 0 0 0 0 0 0 0 0 0 0 0 0 0 0 0 0 9 9 -177 0 9 0 0 0 0 0 0 -209 -193 -193 -193 -193 224 225 -193 -193 -193 -193 -193 117 -193 40 41 40 40 41 41 39 38 31 32 29 34 38 36 38 39 41 43 43 42 39 32 31 27 14 13 10 9 10 10 10 0 0 9 17 25 25 27 31 34 35 35 35 34 29 30 35 37 35 34 34 38 39 43 49 46 -193 -209 -209 -209 20 20 19 16 12 12 13 13 12 13 13 12 13 18 17 17 17 19 16 17 19 20 19 19 -193 -193 -209 31 -193 32 34 38 35 37 36 35 38 38 39 39 36 39 39 42 43 42 44 44 45 46 50 47 48 49 47 50 49 51 51 50 52 53 53 55 54 55 54 55 57 57 54 54 53 53 51 52 54 52 54 55 56 55 55 55 55 53 57 51 55 55 -193 -193 -193 -193 -193 -193 0 0 0 0 0
    0 0 0 0 0 0 0 0 0 0 0 0 0 0 0 0 0 0 0 0 0 0 0 0 0 0 0 0 0 0 0 0 0 0 0 0 0 0 0 0 0 0 0 0 0 0 0 0 0 0 0 0 0 0 0 0 0 0 0 0 0 0 0 0 0 0 0 0 0 38 38 38 -193 -193 -209 -193 16 17 15 14 12 18 19 14 18 16 11 11 10 9 9 0 0 0 0 0 0 0 0 0 0 0 0 9 0 9 11 12 12 15 16 13 21 14 14 8 0 0 0 0 0 0 0 0 0 0 0 0 0 0 0 0 0 0 9 -177 -177 -177 9 0 0 -193 -193 0 -193 -209 -193 -193 -193 224 225 226 -193 -193 -193 -209 -209 -193 -209 41 42 41 41 42 42 41 39 30 31 28 34 37 34 37 39 41 43 43 42 39 30 27 26 13 12 10 9 10 9 10 0 0 0 12 23 23 25 29 32 33 35 36 35 31 33 37 39 37 37 36 39 40 43 48 49 -193 51 55 54 54 -209 20 17 12 12 12 12 12 13 12 11 13 18 18 17 17 19 16 20 21 -193 -193 -177 -177 -177 -193 -209 -193 32 -193 -193 -193 36 35 34 38 38 38 38 36 39 40 42 43 43 43 44 46 46 50 47 48 49 47 50 49 51 51 50 51 53 53 55 54 56 54 56 57 57 54 54 53 53 51 52 54 52 54 55 56 56 56 55 55 55 57 51 55 55 -193 55 57 59 58 58 0 0 0 0 0
    0 0 0 0 0 0 0 0 0 0 0 0 0 0 0 0 0 0 0 0 0 0 0 0 0 0 0 0 0 0 0 0 0 0 0 0 0 0 0 0 0 0 0 0 0 0 0 0 0 0 0 0 0 0 0 0 0 0 0 0 0 0 0 0 0 0 0 0 0 40 39 38 -193 27 -193 20 17 19 17 16 13 19 20 15 18 18 12 12 12 11 10 9 0 0 0 0 0 0 0 0 0 0 0 9 9 10 13 15 17 20 23 22 26 21 21 11 0 0 0 0 0 0 0 0 0 0 0 0 0 0 0 -177 -177 -177 -177 -177 -177 -177 9 -193 -209 -193 -193 -193 -193 228 225 223 225 226 227 227 -193 -193 -209 -209 -209 -193 -193 41 42 40 41 42 41 40 38 30 30 27 33 36 32 35 37 40 42 42 41 35 28 26 26 14 13 11 10 13 12 13 0 0 0 12 24 23 24 28 31 32 35 36 35 33 35 39 40 38 38 38 40 41 43 46 48 45 50 54 54 54 57 -209 -177 13 13 13 13 12 13 12 11 13 18 19 18 17 19 17 21 -193 325 323 320 321 -177 -193 -209 -209 -193 -193 -193 -193 -193 -193 35 39 39 39 39 37 39 40 42 42 43 43 44 46 46 49 47 48 49 46 50 49 51 51 49 51 52 52 55 54 56 54 56 57 57 54 54 53 53 51 52 54 52 54 55 55 55 55 55 55 54 56 51 55 56 55 56 57 58 58 58 0 0 0 0 0
    0 0 0 0 0 0 0 0 0 0 0 0 0 0 0 0 0 0 0 0 0 0 0 0 0 0 0 0 0 0 0 0 0 0 0 0 0 0 0 0 0 0 0 0 0 0 0 0 0 0 0 0 0 0 0 0 0 0 0 0 0 0 0 0 0 0 0 0 0 41 39 38 -193 -193 -193 -193 19 20 20 19 16 21 22 17 20 21 15 15 15 15 16 13 12 17 0 0 0 0 0 0 0 0 0 10 9 12 16 18 21 23 26 25 28 25 25 20 -209 0 0 0 0 0 0 0 9 0 0 0 9 -177 -177 -177 -177 -177 11 -193 10 -177 -193 -193 -193 -193 -193 228 226 229 226 224 -193 -193 228 228 -193 -193 -193 -193 -209 -193 -193 41 42 40 41 41 41 40 38 30 30 27 34 37 32 35 37 40 42 42 41 35 29 28 29 19 17 14 15 22 21 22 -193 19 10 19 25 23 24 28 -193 32 35 37 37 36 37 41 43 40 40 40 42 42 44 47 48 48 50 52 53 54 55 -177 -177 -193 14 13 13 12 13 12 11 13 19 20 18 18 19 17 22 324 324 322 319 320 322 -193 73 -209 -209 -177 -177 -193 -193 -193 -193 40 40 40 39 38 40 41 41 42 42 43 44 46 45 49 47 48 49 46 50 48 50 50 48 50 52 52 54 52 55 53 55 57 57 54 54 52 52 51 52 53 52 53 54 54 54 54 54 54 53 55 50 55 56 56 56 58 59 59 59 0 0 0 0 0
    0 0 0 0 0 0 0 0 0 0 0 0 0 0 0 0 0 0 0 0 0 0 0 0 0 0 0 0 0 0 0 0 0 0 0 0 0 0 0 0 0 0 0 0 0 0 0 0 0 0 0 0 0 0 0 0 0 0 0 0 0 0 0 0 0 0 0 0 0 40 39 37 -193 -193 -193 -209 21 21 23 21 19 23 24 22 23 24 23 20 22 22 24 25 25 28 29 27 -209 23 -193 23 -193 9 10 11 12 20 21 21 24 25 28 27 30 28 28 26 -193 -209 -209 -193 -209 -193 -209 -193 -209 -193 9 11 12 10 9 -177 -177 9 15 20 17 17 -193 -193 -193 -193 -193 -193 225 228 224 -193 -193 -193 -193 -193 -193 -193 -193 -193 -209 -209 41 42 43 41 41 42 41 41 38 32 32 27 37 37 33 35 37 39 42 41 41 34 30 29 31 23 22 20 22 27 28 27 30 28 27 26 26 25 24 28 -193 34 37 39 39 39 39 43 46 42 42 42 43 44 46 49 49 49 51 53 53 54 56 -177 -177 -193 15 15 13 13 13 12 11 13 19 20 19 19 20 18 22 -209 -193 -193 -193 321 322 -193 74 75 -209 -209 -177 -193 -193 -177 -177 -193 -209 -209 -193 -193 40 42 41 41 42 43 44 46 45 49 47 48 48 46 50 47 50 49 47 49 51 51 53 51 54 52 55 56 57 53 54 53 52 51 52 53 52 53 53 53 53 53 53 53 53 54 51 55 58 57 58 59 60 60 60 0 0 0 0 0
    0 0 0 0 0 0 0 0 0 0 0 0 0 0 0 0 0 0 0 0 0 0 0 0 0 0 0 0 0 0 0 0 0 0 0 0 0 0 0 0 0 0 0 0 0 0 0 0 0 0 0 0 0 0 0 0 0 0 0 0 0 0 0 0 0 0 0 0 0 40 39 37 -193 -193 -193 -209 24 23 26 23 22 25 26 26 26 27 27 24 25 25 28 30 29 33 34 34 38 32 33 33 30 28 27 20 22 25 26 24 26 26 30 29 32 32 31 30 -193 -193 -193 -177 -193 -193 -193 -193 -193 -193 22 21 -177 -177 19 19 24 16 24 27 26 27 26 25 -209 -209 -209 -209 -209 -209 -193 339 338 335 -177 -209 -209 -209 -193 -209 39 42 42 42 43 41 41 42 41 41 38 33 33 29 38 37 34 36 37 39 41 40 40 33 32 30 33 26 26 24 26 29 31 30 32 30 28 28 28 28 26 29 -193 36 37 39 40 39 39 43 46 42 43 43 44 45 46 50 50 50 52 53 53 54 56 -177 -177 -209 -209 18 16 14 13 12 11 14 20 21 20 20 21 20 23 -193 -193 717 -193 -193 -193 73 75 76 -209 -193 -209 -193 -193 -177 -177 -193 -193 -209 -209 -209 42 43 41 41 43 43 44 46 45 49 47 49 48 46 50 48 50 49 47 49 51 51 53 51 54 51 54 56 57 52 54 52 52 50 52 53 52 53 53 53 53 53 53 53 53 54 52 55 58 58 59 60 61 60 60 0 0 0 0 0
    0 0 0 0 0 0 0 0 0 0 0 0 0 0 0 0 0 0 0 0 0 0 0 0 0 0 0 0 0 0 0 0 0 0 0 0 0 0 0 0 0 0 0 0 0 0 0 0 0 0 0 0 0 0 0 0 0 0 0 0 0 0 0 0 0 0 0 0 0 -193 -193 38 -193 -193 -193 -193 27 26 29 26 27 28 29 31 29 30 31 28 28 30 32 34 33 35 36 36 38 36 35 36 34 33 33 28 28 28 30 27 29 28 33 31 35 35 34 34 -193 -193 -193 -193 -193 -193 31 33 32 34 29 28 30 29 28 27 29 27 29 32 31 32 30 32 33 30 33 32 -193 -193 -193 -193 -193 -193 -193 -209 -209 -209 -209 39 40 42 42 42 43 41 41 42 41 41 39 35 34 32 40 39 37 38 38 39 40 40 39 33 34 32 34 31 29 27 29 30 33 31 34 32 30 29 30 31 27 31 -193 37 38 40 -193 40 40 43 46 42 43 43 44 45 47 50 50 50 53 54 54 55 57 -209 -209 -193 -209 22 20 18 16 12 12 15 21 22 21 21 22 22 -209 -177 -209 715 -193 -193 -209 74 75 76 72 74 74 -193 -177 -193 286 -193 -193 -209 -209 -193 43 45 42 43 44 44 45 47 46 50 48 49 48 46 50 47 50 49 47 49 51 51 53 51 54 51 54 56 56 53 54 52 52 51 53 53 53 53 54 53 53 53 53 54 53 54 53 55 60 59 60 61 62 61 61 0 0 0 0 0
    0 0 0 0 0 0 0 0 0 0 0 0 0 0 0 0 0 0 0 0 0 0 0 0 0 0 0 0 0 0 0 0 0 0 0 0 0 0 0 0 0 0 0 0 0 0 0 0 0 0 0 0 0 0 0 0 0 0 0 0 0 0 0 0 0 0 0 0 0 -193 -193 38 -193 -193 -193 36 32 31 33 30 34 33 33 36 34 33 34 31 31 33 35 36 35 36 37 37 38 37 36 36 35 34 35 32 33 32 36 32 35 32 36 34 36 36 36 36 36 34 37 -193 37 35 36 37 36 37 36 36 37 35 34 32 33 31 33 34 34 35 34 36 37 36 38 37 37 37 36 36 38 37 -193 38 39 -193 -209 40 40 42 42 43 43 41 41 42 42 41 40 38 36 35 41 40 39 40 40 40 41 40 40 35 36 34 35 34 33 30 32 33 35 33 36 33 32 30 32 34 28 33 -193 38 -193 -193 -193 -193 40 43 46 42 43 44 45 46 47 51 50 50 53 54 54 55 -193 -193 57 60 62 -209 -209 -193 22 18 14 16 22 23 23 23 23 -209 -177 -177 712 713 713 -209 74 75 75 76 73 75 75 -209 -209 -209 -193 -209 -209 -193 -193 -193 47 -193 -193 -193 -193 -193 48 49 47 51 49 49 48 46 50 47 49 48 47 49 51 52 53 51 55 52 55 56 56 54 55 53 53 52 54 54 54 53 54 54 53 54 54 54 54 55 55 56 61 61 61 62 62 62 61 0 0 0 0 0
    0 0 0 0 0 0 0 0 0 0 0 0 0 0 0 0 0 0 0 0 0 0 0 0 0 0 0 0 0 0 0 0 0 0 0 0 0 0 0 0 0 0 0 0 0 0 0 0 0 0 0 0 0 0 0 0 0 0 0 0 0 0 0 0 0 0 0 0 0 -193 -193 -193 -193 -193 -193 38 38 37 38 36 41 40 38 39 38 37 37 35 35 35 36 37 36 37 37 37 38 37 36 36 36 36 36 36 36 36 38 36 37 36 38 36 37 37 37 37 37 37 38 36 39 38 38 38 38 38 38 38 38 37 37 35 35 34 35 35 36 36 36 38 38 38 39 39 39 39 38 38 39 38 40 39 40 40 40 41 41 41 41 42 43 41 41 42 42 42 41 40 38 37 43 41 40 41 41 41 42 41 41 37 39 38 38 37 36 33 35 35 36 35 36 34 33 32 33 36 30 35 -193 40 -193 -193 -193 -193 42 44 48 43 45 46 46 46 47 51 49 49 53 54 54 -193 -193 58 58 61 64 60 60 61 -193 -209 17 19 24 26 26 26 -193 -177 -177 -177 -177 711 710 -193 75 76 76 77 74 76 78 75 -193 -209 -209 -209 -209 -193 -209 -209 -209 -209 -209 -209 -209 -193 -193 -209 48 52 50 49 48 46 49 47 49 48 47 49 51 52 53 52 55 53 55 56 57 55 55 54 54 54 55 55 55 54 54 54 54 54 54 54 54 55 55 57 62 62 62 63 63 62 61 0 0 0 0 0
    0 0 0 0 0 0 0 0 0 0 0 0 0 0 0 0 0 0 0 0 0 0 0 0 0 0 0 0 0 0 0 0 0 0 0 0 0 0 0 0 0 0 0 0 0 0 0 0 0 0 0 0 0 0 0 0 0 0 0 0 0 0 0 0 0 0 0 0 0 -193 40 39 39 38 40 39 39 39 39 38 41 41 40 40 39 38 38 36 36 36 37 37 36 37 38 36 38 37 37 37 37 37 37 37 38 38 39 38 39 38 39 38 38 38 38 38 38 37 39 38 39 38 38 39 38 38 38 38 38 37 37 36 36 35 36 36 36 37 36 38 39 39 40 40 40 39 39 39 40 39 41 39 40 40 41 41 41 41 41 42 43 42 42 42 42 42 41 41 38 38 43 42 41 42 42 42 43 42 42 38 39 39 39 38 37 36 37 36 37 36 37 35 34 34 35 37 32 36 -193 41 -193 42 42 42 43 45 49 44 45 47 46 47 47 50 49 49 53 54 54 -193 -193 58 58 61 66 61 62 63 62 61 60 -193 26 38 36 38 -209 -177 -177 -177 -193 -193 -193 77 77 78 78 78 75 79 83 79 83 87 -209 -209 -209 -209 -209 76 89 98 98 101 -193 -193 -209 -193 -193 -193 51 49 48 47 48 47 48 47 47 49 51 52 53 52 54 53 55 55 56 54 56 54 55 55 56 56 55 55 55 54 54 54 54 55 54 55 55 57 62 63 62 63 63 62 61 0 0 0 0 0
    0 0 0 0 0 0 0 0 0 0 0 0 0 0 0 0 0 0 0 0 0 0 0 0 0 0 0 0 0 0 0 0 0 0 0 0 0 0 0 0 0 0 0 0 0 0 0 0 0 0 0 0 0 0 0 0 0 0 0 0 0 0 0 0 0 0 0 0 0 40 40 39 39 39 40 39 40 39 39 39 41 40 39 39 39 38 38 37 37 36 37 37 36 38 38 37 39 38 38 37 37 37 37 37 39 38 39 39 40 39 40 39 39 39 39 38 38 38 39 38 39 39 38 38 38 38 39 38 38 37 37 37 36 35 36 36 36 37 37 39 40 40 41 40 40 40 39 40 -193 39 41 40 40 40 41 41 41 40 41 41 42 41 41 42 42 42 42 42 39 39 44 42 41 42 42 42 42 42 42 38 39 39 39 38 38 36 37 36 37 36 37 35 35 36 37 38 35 37 42 41 42 44 43 43 44 46 49 44 46 48 46 47 48 51 49 49 53 53 53 -193 57 58 58 61 65 61 63 64 62 62 61 58 -193 43 45 43 -193 -177 -177 -193 -193 -193 -193 -193 79 78 78 78 75 77 78 75 77 84 85 87 87 89 87 88 89 97 96 100 101 98 -193 -193 651 655 -193 48 46 46 47 46 47 47 46 49 50 51 52 51 53 52 54 55 55 54 55 54 56 56 57 56 56 56 55 55 54 54 54 55 55 55 56 58 63 64 63 64 63 63 62 0 0 0 0 0
    0 0 0 0 0 0 0 0 0 0 0 0 0 0 0 0 0 0 0 0 0 0 0 0 0 0 0 0 0 0 0 0 0 0 0 0 0 0 0 0 0 0 0 0 0 0 0 0 0 0 0 0 0 0 0 0 0 0 0 0 0 0 0 0 0 0 0 0 0 39 40 39 39 39 40 39 41 39 40 39 41 39 39 39 39 38 39 37 38 37 38 38 37 39 39 37 39 38 39 38 38 38 37 38 39 39 40 40 41 41 41 41 40 40 40 39 39 38 39 38 39 39 39 38 39 39 39 39 39 38 37 37 37 36 36 36 37 37 38 40 41 41 42 41 41 41 40 40 -193 40 41 40 41 41 41 41 41 40 41 41 42 41 41 41 42 41 42 42 40 40 44 43 41 43 43 42 43 42 42 39 40 40 39 39 38 36 36 36 36 36 36 35 35 36 38 39 36 38 43 42 42 45 44 44 44 46 50 45 47 49 47 48 49 52 50 50 54 54 53 -193 -193 58 57 60 65 61 63 65 63 62 61 60 59 55 55 55 52 -209 -193 86 81 81 -193 -193 79 78 78 78 74 75 76 75 79 85 85 87 89 91 90 90 90 97 95 97 100 96 97 -193 -193 -177 651 -193 46 46 47 46 47 47 46 49 50 52 52 51 53 51 53 54 53 54 55 54 56 57 58 58 57 56 56 55 55 55 55 55 55 56 57 60 64 65 64 65 64 63 63 0 0 0 0 0
    0 0 0 0 0 0 0 0 0 0 0 0 0 0 0 0 0 0 0 0 0 0 0 0 0 0 0 0 0 0 0 0 0 0 0 0 0 0 0 0 0 0 0 0 0 0 0 0 0 0 0 0 0 0 0 0 0 0 0 0 0 0 0 0 0 0 0 0 0 39 40 39 39 39 40 39 41 40 40 39 40 39 39 39 39 39 39 38 38 37 39 39 38 39 40 39 40 39 39 38 38 39 38 38 40 40 41 41 42 42 42 42 41 41 41 39 39 38 39 38 39 39 38 38 38 38 39 39 39 38 38 38 38 38 37 37 38 38 39 41 42 42 43 42 42 41 41 41 -193 40 42 41 42 41 42 41 42 39 40 40 41 41 41 41 41 41 42 42 41 40 45 43 42 43 43 43 43 43 42 39 40 40 39 39 38 37 36 37 37 36 36 35 35 37 39 40 38 39 44 42 43 45 44 44 44 46 50 45 47 49 48 48 50 52 51 50 -193 -193 -193 -193 -193 59 57 60 65 61 63 65 64 63 62 61 62 57 57 59 58 -193 81 87 81 81 81 80 79 78 77 78 73 75 75 73 78 85 85 88 88 90 89 90 89 93 93 93 97 94 95 95 -193 -193 -193 -177 -193 48 48 48 49 48 -193 50 51 52 52 51 53 52 53 54 53 54 54 55 57 58 59 59 58 58 56 56 56 55 55 56 56 57 57 62 64 66 64 65 64 63 63 0 0 0 0 0
    0 0 0 0 0 0 0 0 0 0 0 0 0 0 0 0 0 0 0 0 0 0 0 0 0 0 0 0 0 0 0 0 0 0 0 0 0 0 0 0 0 0 0 0 0 0 0 0 0 0 0 0 0 0 0 0 0 0 0 0 0 0 0 0 0 0 0 0 0 39 39 39 39 40 41 40 42 40 40 39 40 39 39 39 39 38 39 38 38 37 39 39 39 40 41 40 40 40 40 39 39 39 39 39 41 41 42 42 43 43 43 42 42 41 41 40 40 39 39 38 39 39 38 38 39 39 39 39 40 39 39 39 39 39 39 39 40 40 41 42 44 43 44 43 43 42 42 42 43 41 42 41 42 42 42 42 42 39 40 40 40 40 40 40 40 39 41 42 41 41 46 43 43 44 44 43 43 43 42 40 40 40 39 39 38 38 37 37 37 36 37 36 36 38 39 41 39 40 45 43 43 45 44 44 45 46 50 45 47 49 48 48 50 52 52 51 -193 -193 -177 -193 58 59 57 59 65 61 63 65 64 63 62 61 62 57 58 61 60 -193 78 87 81 82 82 80 80 79 78 79 73 74 -193 -193 -193 -193 -193 -209 -209 -209 81 85 87 93 94 93 97 94 95 94 -193 -193 -209 -209 -193 49 49 49 50 -193 -193 52 52 53 53 52 54 53 54 54 53 54 54 55 57 58 60 61 59 59 57 57 56 56 56 57 57 58 58 64 64 66 64 65 64 63 63 0 0 0 0 0
    0 0 0 0 0 0 0 0 0 0 0 0 0 0 0 0 0 0 0 0 0 0 0 0 0 0 0 0 0 0 0 0 0 0 0 0 0 0 0 0 0 0 0 0 0 0 0 0 0 0 0 0 0 0 0 0 0 0 0 0 0 0 0 0 0 0 0 0 0 39 40 40 40 41 42 41 43 41 41 40 41 39 39 39 39 39 39 38 39 38 40 40 39 41 42 41 41 41 41 39 40 40 39 40 41 41 43 43 44 43 44 43 43 42 43 41 41 39 40 39 40 39 39 39 40 40 40 41 41 40 41 41 41 41 41 41 41 41 42 43 45 44 44 44 44 43 42 42 44 42 42 42 42 42 42 42 42 39 40 40 40 40 40 40 40 39 42 42 41 42 46 44 44 45 44 44 44 44 43 41 41 41 40 40 39 38 38 38 38 38 38 38 37 39 40 41 39 40 44 43 43 44 43 44 45 46 50 45 47 49 49 48 50 53 52 51 -193 -193 -193 -193 58 59 57 58 65 61 62 64 63 63 62 61 62 57 58 61 60 -193 79 87 81 82 82 80 81 79 78 78 -209 -209 50 46 48 50 50 51 54 55 -209 -209 87 94 96 94 97 94 94 94 92 -193 -193 -209 -209 51 51 51 -193 124 -193 -193 53 54 54 53 54 53 54 54 53 55 54 56 57 58 61 63 60 61 58 58 57 57 57 58 58 59 58 65 64 66 64 65 64 64 63 0 0 0 0 0
    0 0 0 0 0 0 0 0 0 0 0 0 0 0 0 0 0 0 0 0 0 0 0 0 0 0 0 0 0 0 0 0 0 0 0 0 0 0 0 0 0 0 0 0 0 0 0 0 0 0 0 0 0 0 0 0 0 0 0 0 0 0 0 0 0 0 0 0 0 40 41 40 41 42 42 42 43 42 41 40 41 40 39 39 39 39 39 39 39 38 41 41 40 42 42 42 41 41 41 40 40 40 39 40 41 42 43 43 45 44 44 44 44 43 43 42 41 40 41 40 41 40 40 40 41 41 42 42 42 42 42 42 42 42 42 42 42 42 43 44 45 45 45 44 44 44 43 42 45 42 43 43 43 43 43 43 43 40 40 41 41 41 41 41 41 40 42 42 42 42 45 44 44 45 44 44 45 44 43 41 42 42 40 41 40 39 39 39 39 40 40 40 39 40 41 41 41 41 44 43 43 44 43 44 46 46 51 46 48 50 49 49 51 53 53 -193 -193 -193 -177 57 59 60 57 58 66 61 63 65 63 63 63 62 63 57 57 61 59 -193 77 87 81 82 82 81 81 -193 -193 -193 73 -209 45 44 46 47 48 48 53 54 -209 -209 89 96 98 95 98 95 95 94 93 95 93 -193 -209 -177 -193 -209 117 118 119 -193 -193 55 55 -209 55 53 54 54 53 55 54 55 57 57 61 63 60 61 58 58 58 58 58 58 58 59 58 66 64 67 64 65 64 64 63 0 0 0 0 0
    0 0 0 0 0 0 0 0 0 0 0 0 0 0 0 0 0 0 0 0 0 0 0 0 0 0 0 0 0 0 0 0 0 0 0 0 0 0 0 0 0 0 0 0 0 0 0 0 0 0 0 0 0 0 0 0 0 0 0 0 0 0 0 0 0 0 0 0 0 42 43 43 43 45 44 44 44 43 42 41 42 40 39 40 40 40 40 40 41 39 42 41 41 42 42 42 41 41 42 40 41 41 40 41 42 42 44 43 45 44 45 45 44 44 44 43 43 42 42 41 42 41 41 41 42 42 43 43 43 43 42 42 42 42 42 42 42 43 44 45 46 45 46 45 45 45 43 43 46 43 43 43 44 43 43 43 44 41 41 42 41 41 41 41 41 41 42 42 42 43 44 44 44 45 45 44 45 44 43 42 42 42 41 41 41 41 41 41 40 41 41 41 41 42 42 42 42 43 44 43 43 44 43 44 46 46 51 46 48 50 50 50 51 54 54 -193 -177 -177 -177 58 60 61 57 58 66 62 63 66 64 64 63 62 63 57 57 61 58 66 73 87 -193 -193 -193 -193 81 -193 79 79 73 75 44 43 45 46 45 47 53 55 -209 -209 87 95 99 95 98 96 96 95 94 96 95 94 100 96 104 106 107 109 111 109 109 -209 -209 -209 -209 54 54 54 53 55 54 56 57 57 61 64 61 61 59 59 58 57 58 58 58 58 58 66 63 67 64 65 64 64 64 0 0 0 0 0
    0 0 0 0 0 0 0 0 0 0 0 0 0 0 0 0 0 0 0 0 0 0 0 0 0 0 0 0 0 0 0 0 0 0 0 0 0 0 0 0 0 0 0 0 0 0 0 0 0 0 0 0 0 0 0 0 0 0 0 0 0 0 0 0 0 0 0 0 0 44 46 46 46 48 46 45 45 44 43 42 42 41 40 41 41 41 41 41 41 40 42 42 43 43 43 44 43 43 43 42 42 42 41 41 42 43 44 44 45 44 45 45 45 45 45 44 44 43 43 43 42 43 42 42 43 43 43 44 44 44 43 43 43 43 43 43 43 44 45 45 46 46 46 46 45 45 44 44 47 44 44 44 44 44 44 44 45 42 42 44 42 42 42 42 42 41 42 42 42 43 44 44 44 44 45 44 44 44 43 42 42 42 41 41 41 41 41 41 41 41 41 41 41 42 42 42 43 43 44 44 44 45 44 45 46 46 51 46 48 50 50 50 52 54 54 -193 -193 -177 -193 58 60 61 57 59 67 62 64 66 64 64 63 62 63 57 57 60 57 58 72 86 -193 -177 -177 -177 -193 -193 79 79 73 -193 43 42 43 43 43 45 52 -209 -209 -209 -209 -193 -193 -193 -193 96 96 95 94 98 96 95 100 99 102 103 105 106 107 106 107 106 105 114 -209 -193 56 55 54 55 53 56 56 57 61 65 61 60 59 59 58 58 58 58 58 59 58 67 63 67 64 65 64 64 64 0 0 0 0 0
    0 0 0 0 0 0 0 0 0 0 0 0 0 0 0 0 0 0 0 0 0 0 0 0 0 0 0 0 0 0 0 0 0 0 0 0 0 0 0 0 0 0 0 0 0 0 0 0 0 0 0 0 0 0 0 0 0 0 0 0 0 0 0 0 0 0 0 0 0 47 49 49 49 50 47 46 46 45 43 43 43 42 41 42 42 42 42 42 42 40 43 43 44 45 45 46 46 45 45 43 44 43 43 43 44 45 46 45 47 46 46 46 46 46 46 45 45 44 44 44 44 44 44 44 44 44 45 46 45 45 44 44 44 43 44 44 44 46 46 46 47 46 47 46 45 46 44 45 47 45 45 45 45 45 44 44 45 42 43 45 43 43 43 43 43 42 43 43 42 45 44 44 45 44 44 44 44 44 43 42 43 42 41 42 42 41 42 42 41 42 42 42 42 42 43 42 43 44 45 45 44 46 45 47 48 47 52 47 50 51 51 51 52 54 55 -193 -193 -193 -193 58 60 61 58 59 67 62 63 66 64 64 63 62 63 57 57 60 56 57 72 -193 -193 -177 -177 -177 -193 -193 -193 79 64 -193 45 44 44 43 43 45 52 -209 -209 -209 -209 -193 454 447 446 -193 97 95 94 99 98 95 101 100 102 102 104 104 105 105 105 103 103 112 115 116 -209 -209 -209 58 55 58 56 56 61 66 61 60 59 60 59 58 59 59 59 60 59 68 63 68 64 65 64 64 64 0 0 0 0 0
    0 0 0 0 0 0 0 0 0 0 0 0 0 0 0 0 0 0 0 0 0 0 0 0 0 0 0 0 0 0 0 0 0 0 0 0 0 0 0 0 0 0 0 0 0 0 0 0 0 0 0 0 0 0 0 0 0 0 0 0 0 0 0 0 0 0 0 0 0 49 50 50 49 50 47 46 47 46 44 44 45 44 43 44 44 44 43 45 43 42 45 45 46 48 47 48 48 47 47 45 46 45 45 45 46 47 48 48 49 47 48 48 49 49 48 48 47 46 46 47 45 46 46 46 47 47 47 48 46 46 45 45 45 44 45 46 45 47 47 46 47 47 47 46 46 47 45 46 48 46 46 46 46 46 45 45 46 44 43 46 44 44 44 44 44 43 43 44 43 47 44 45 45 45 45 44 44 44 43 43 43 43 42 43 43 43 44 43 43 44 44 44 43 43 44 43 44 44 45 45 44 46 45 47 48 48 52 48 51 51 52 51 52 54 54 54 57 -193 58 58 59 60 58 60 67 62 63 66 64 64 63 62 63 57 57 60 57 59 72 -193 -193 -177 -177 -177 -177 -177 -193 -193 57 55 47 45 45 45 45 46 53 -209 -209 -209 -209 -193 454 447 447 447 -193 96 94 100 98 95 101 100 101 101 104 103 103 104 105 103 104 109 106 105 109 108 107 -193 103 -209 63 60 66 70 62 60 59 60 59 59 59 59 59 60 59 67 63 67 64 65 64 63 63 0 0 0 0 0
    0 0 0 0 0 0 0 0 0 0 0 0 0 0 0 0 0 0 0 0 0 0 0 0 0 0 0 0 0 0 0 0 0 0 0 0 0 0 0 0 0 0 0 0 0 0 0 0 0 0 0 0 0 0 0 0 0 0 0 0 0 0 0 0 0 0 0 0 0 50 50 51 49 50 47 45 47 47 45 46 47 47 46 48 48 48 46 49 45 44 47 46 48 49 48 49 49 49 49 47 48 47 46 47 49 49 50 51 51 49 50 50 51 51 51 51 50 49 50 50 48 49 49 49 50 49 50 50 48 48 47 46 46 45 47 48 47 50 49 47 48 48 47 46 46 47 46 47 49 48 47 47 47 47 46 46 47 45 44 47 45 45 45 45 45 45 45 47 45 49 45 46 46 45 45 45 45 45 44 44 44 44 44 44 45 45 47 46 46 46 46 46 45 45 45 44 46 46 46 46 46 48 47 50 50 50 53 50 51 51 52 52 53 55 55 55 57 58 58 58 59 60 58 59 67 62 63 65 64 64 63 62 63 57 58 61 58 62 72 -193 -193 -177 -177 -177 -177 -177 -193 78 56 55 47 46 45 45 45 47 54 -209 -209 -177 -193 99 454 448 447 447 446 97 95 101 99 95 100 99 99 100 102 102 100 103 103 102 103 106 104 104 107 106 106 106 107 106 101 -209 -209 -209 -209 -193 61 61 61 60 60 59 59 60 60 67 62 67 63 64 63 63 63 0 0 0 0 0
    0 0 0 0 0 0 0 0 0 0 0 0 0 0 0 0 0 0 0 0 0 0 0 0 0 0 0 0 0 0 0 0 0 0 0 0 0 0 0 0 0 0 0 0 0 0 0 0 0 0 0 0 0 0 0 0 0 0 0 0 0 0 0 0 0 0 0 0 0 50 50 50 49 50 47 46 47 49 46 49 50 49 49 51 51 51 49 51 49 46 50 49 50 51 49 50 50 50 49 48 48 47 46 48 50 50 51 52 51 51 51 51 52 52 52 51 51 51 51 52 50 50 51 50 52 51 51 51 49 49 49 47 47 47 49 51 49 52 51 49 49 49 48 47 47 48 47 49 51 50 49 48 48 47 47 47 47 47 46 49 47 47 47 47 47 47 47 49 46 51 47 48 48 47 47 47 47 47 46 47 47 47 47 46 47 47 50 48 48 49 48 48 47 47 46 45 48 48 47 49 49 51 51 52 52 51 54 51 52 52 53 53 54 55 55 55 57 58 58 58 59 60 58 60 67 62 63 65 -177 64 63 62 63 57 58 62 58 64 -193 -193 -193 -177 -177 304 305 -177 -193 79 57 55 46 45 45 45 46 49 55 -193 -209 -177 92 100 -193 447 447 446 445 99 97 102 100 96 100 98 98 98 101 100 95 100 100 99 101 104 102 102 105 105 105 104 105 106 106 110 108 106 107 111 118 63 62 61 61 60 59 61 60 66 62 67 63 64 63 63 62 0 0 0 0 0
    0 0 0 0 0 0 0 0 0 0 0 0 0 0 0 0 0 0 0 0 0 0 0 0 0 0 0 0 0 0 0 0 0 0 0 0 0 0 0 0 0 0 0 0 0 0 0 0 0 0 0 0 0 0 0 0 0 0 0 0 0 0 0 0 0 0 0 0 0 51 50 51 50 50 48 47 49 51 49 51 52 52 52 53 52 53 51 53 52 51 53 53 52 53 51 51 51 51 50 49 50 49 49 52 53 52 53 53 53 52 52 52 53 53 53 52 52 52 52 53 51 51 52 51 53 52 52 52 50 51 51 48 49 49 51 52 51 53 51 50 50 51 49 49 48 50 50 52 52 52 50 50 50 48 48 48 48 48 47 50 49 49 49 49 49 49 48 51 48 52 47 49 49 48 49 49 49 48 47 49 50 49 49 48 48 48 51 50 50 51 50 50 49 49 48 46 50 50 49 52 50 52 52 53 53 52 54 52 52 53 54 53 54 55 55 55 57 58 59 58 59 61 60 62 68 63 64 66 65 65 64 63 63 58 58 62 59 -209 -193 -193 -193 -177 -177 305 305 -177 -193 78 61 57 48 47 48 46 47 52 56 71 -193 -177 91 99 -193 -193 446 446 445 100 99 103 100 97 100 99 99 97 99 99 93 98 98 95 96 102 101 102 105 104 105 105 105 106 107 111 112 111 112 116 121 123 124 -209 62 61 60 62 62 67 63 67 63 64 63 63 62 0 0 0 0 0
    0 0 0 0 0 0 0 0 0 0 0 0 0 0 0 0 0 0 0 0 0 0 0 0 0 0 0 0 0 0 0 0 0 0 0 0 0 0 0 0 0 0 0 0 0 0 0 0 0 0 0 0 0 0 0 0 0 0 0 0 0 0 0 0 0 0 0 0 0 52 51 52 52 51 51 50 52 53 52 54 54 53 54 54 54 54 53 54 54 54 55 55 54 54 52 53 52 53 52 51 52 52 52 55 55 54 54 54 54 53 53 53 53 54 54 54 53 53 54 54 53 53 54 53 54 54 54 53 51 52 52 50 51 51 52 53 52 54 52 51 51 52 51 51 51 52 53 55 54 53 52 51 51 49 50 49 48 49 48 50 50 51 51 51 51 51 51 52 50 53 48 50 51 49 50 51 51 51 49 51 52 51 52 50 50 50 52 51 51 52 51 51 50 50 49 47 51 52 51 53 52 53 53 54 54 53 54 52 52 53 54 54 55 55 55 55 57 58 59 58 59 62 61 65 69 64 65 67 66 66 64 63 64 58 60 64 61 -193 -193 -193 -193 -177 -177 305 305 -177 -193 78 64 59 50 50 50 47 48 54 61 -177 -193 98 91 99 -193 -193 445 444 444 101 101 103 101 99 100 100 99 97 99 99 92 97 97 93 94 102 102 104 105 104 105 105 106 106 107 109 110 111 114 118 120 122 123 127 129 -209 61 63 64 68 65 67 64 65 63 63 62 0 0 0 0 0
    0 0 0 0 0 0 0 0 0 0 0 0 0 0 0 0 0 0 0 0 0 0 0 0 0 0 0 0 0 0 0 0 0 0 0 0 0 0 0 0 0 0 0 0 0 0 0 0 0 0 0 0 0 0 0 0 0 0 0 0 0 0 0 0 0 0 0 0 0 53 53 53 53 53 54 53 55 55 55 55 55 55 55 55 55 55 54 54 55 55 56 56 55 55 54 54 54 54 53 53 54 54 54 56 56 55 54 55 54 54 54 53 54 54 54 54 53 54 55 55 54 54 55 54 55 55 55 54 53 54 54 52 53 53 54 54 54 54 53 53 53 53 53 53 54 55 55 56 55 55 54 53 52 51 51 50 49 51 49 51 52 53 53 53 53 54 53 55 54 56 53 53 54 52 53 54 55 54 53 55 55 55 55 54 53 52 54 53 53 53 53 53 51 51 51 49 52 53 53 54 53 54 54 54 55 54 54 53 53 54 54 55 55 55 56 55 57 58 58 58 59 62 63 66 70 65 66 68 67 66 64 64 64 58 62 65 66 -193 -193 85 -193 -193 -177 -177 -177 -193 -193 78 67 61 53 55 56 52 53 56 66 73 88 93 90 99 103 -193 -193 -193 -193 101 101 103 100 99 100 -193 99 97 -193 -193 91 95 96 -193 89 101 100 103 104 104 105 104 105 106 106 108 109 112 115 118 120 121 124 126 129 132 130 -193 -193 -193 66 68 65 65 64 63 62 0 0 0 0 0
    0 0 0 0 0 0 0 0 0 0 0 0 0 0 0 0 0 0 0 0 0 0 0 0 0 0 0 0 0 0 0 0 0 0 0 0 0 0 0 0 0 0 0 0 0 0 0 0 0 0 0 0 0 0 0 0 0 0 0 0 0 0 0 0 0 0 0 0 0 55 54 54 54 54 56 56 56 57 56 57 57 56 56 56 56 -193 55 56 56 57 57 57 55 56 55 55 55 55 55 55 55 56 55 57 56 56 55 55 55 54 54 54 54 55 55 54 53 55 56 56 55 55 56 55 56 55 55 54 54 55 55 53 55 54 55 55 55 55 54 55 55 55 55 56 56 57 56 58 56 56 55 54 54 53 54 53 52 54 52 54 54 55 56 55 56 56 56 57 57 58 56 56 56 55 56 58 58 57 57 57 57 57 57 56 54 54 54 55 54 54 54 54 52 52 52 51 53 53 54 54 54 55 55 56 55 55 55 55 55 55 55 56 56 56 56 55 57 57 58 58 58 62 64 66 70 65 66 68 67 66 65 64 65 59 64 67 71 74 76 86 80 -193 -193 -177 -177 -193 -193 78 66 59 55 57 57 56 56 58 67 74 87 91 90 100 102 101 -193 101 102 100 101 103 100 99 100 -193 -193 98 99 -193 90 95 -193 75 84 92 95 101 102 103 104 103 105 106 106 108 110 112 115 118 120 121 124 126 130 132 131 135 136 136 -193 69 66 66 65 63 62 0 0 0 0 0
    0 0 0 0 0 0 0 0 0 0 0 0 0 0 0 0 0 0 0 0 0 0 0 0 0 0 0 0 0 0 0 0 0 0 0 0 0 0 0 0 0 0 0 0 0 0 0 0 0 0 0 0 0 0 0 0 0 0 0 0 0 0 0 0 0 0 0 0 0 56 55 55 55 55 57 58 57 58 57 57 58 57 57 57 56 -193 56 57 58 58 58 57 55 57 56 56 56 56 56 55 56 57 56 57 56 56 56 56 55 55 55 54 54 55 55 55 54 56 57 57 56 56 57 57 57 57 57 55 55 57 56 54 56 55 56 56 56 56 56 56 56 56 57 57 58 59 58 59 57 57 56 55 55 55 56 55 55 56 55 56 56 58 57 -193 57 58 57 58 58 59 57 57 58 57 58 59 59 59 58 58 58 57 57 57 55 55 55 55 55 55 55 55 54 54 54 54 54 55 55 55 55 56 56 57 57 57 56 56 56 57 57 57 56 56 56 56 56 57 57 57 57 62 65 67 70 65 66 68 67 66 65 65 65 59 67 69 76 79 79 86 81 82 82 -193 -193 -193 -193 -193 67 58 56 57 57 -193 55 59 69 75 87 90 90 100 101 100 102 100 101 99 101 103 99 99 101 -193 -193 -193 -193 -193 90 95 -209 -209 76 84 90 96 101 101 103 103 105 106 107 108 110 114 116 119 121 121 124 126 130 131 132 135 136 137 137 -193 -193 67 66 64 62 0 0 0 0 0
    0 0 0 0 0 0 0 0 0 0 0 0 0 0 0 0 0 0 0 0 0 0 0 0 0 0 0 0 0 0 0 0 0 0 0 0 0 0 0 0 0 0 0 0 0 0 0 0 0 0 0 0 0 0 0 0 0 0 0 0 0 0 0 0 0 0 0 0 0 58 -193 55 57 59 63 63 59 60 59 59 60 59 59 59 58 60 59 63 66 62 61 60 56 59 56 57 57 57 56 56 57 58 57 59 57 56 56 56 55 55 55 55 55 55 56 55 55 57 59 58 57 57 59 58 58 58 58 57 57 58 58 56 57 56 56 56 56 56 56 56 57 57 58 58 59 60 59 60 57 58 57 56 56 56 57 57 56 57 56 57 58 60 59 58 58 58 58 58 58 59 57 58 58 58 59 60 60 60 59 59 59 58 58 58 57 57 56 57 57 57 57 56 55 55 56 56 55 56 56 57 57 57 57 58 58 58 57 57 57 57 57 58 56 57 57 57 58 59 59 60 61 67 68 69 71 67 67 68 67 67 65 65 66 60 69 71 78 81 81 85 81 82 82 82 81 78 78 78 -193 -209 59 61 62 61 59 64 71 76 87 89 89 99 99 99 101 100 101 99 101 103 99 100 102 -193 -177 -193 -193 -193 91 100 -209 -209 75 82 88 88 90 94 97 99 103 105 106 108 112 115 117 119 120 120 123 124 127 128 129 133 133 135 136 135 138 138 143 -209 -193 0 0 0 0 0
    0 0 0 0 0 0 0 0 0 0 0 0 0 0 0 0 0 0 0 0 0 0 0 0 0 0 0 0 0 0 0 0 0 0 0 0 0 0 0 0 0 0 0 0 0 0 0 0 0 0 0 0 0 0 0 0 0 0 0 0 0 0 0 0 0 0 0 0 0 65 73 -193 74 73 71 70 64 64 62 62 65 62 63 64 63 70 70 73 73 70 66 65 -193 62 58 58 58 58 57 58 59 60 59 61 59 58 57 58 57 57 58 57 56 57 57 57 57 60 -193 59 60 59 60 60 60 60 59 59 59 60 60 58 60 58 57 57 56 56 56 57 57 58 59 60 66 65 65 67 60 60 59 58 57 56 57 57 57 58 58 58 59 62 60 60 60 60 59 58 58 59 57 58 59 59 59 61 61 61 60 60 60 59 60 60 58 59 58 59 59 58 58 57 56 57 57 57 57 58 57 58 59 58 58 59 58 59 58 58 57 58 57 58 57 58 58 58 60 61 62 65 68 70 71 71 72 67 68 68 67 67 65 66 67 61 72 73 80 81 82 84 81 82 82 82 81 79 79 78 74 74 67 68 70 69 68 70 72 77 87 88 89 99 97 97 100 99 100 98 100 103 100 101 -193 -177 -177 -177 -193 -193 93 102 62 68 71 72 74 77 81 85 90 95 101 104 106 108 113 117 118 119 119 119 122 122 124 125 126 129 130 133 133 133 134 135 137 136 137 0 0 0 0 0
    0 0 0 0 0 0 0 0 0 0 0 0 0 0 0 0 0 0 0 0 0 0 0 0 0 0 0 0 0 0 0 0 0 0 0 0 0 0 0 0 0 0 0 0 0 0 0 0 0 0 0 0 0 0 0 0 0 0 0 0 0 0 0 0 0 0 0 0 0 72 75 75 76 75 73 73 68 68 66 67 69 67 69 70 71 73 74 75 76 73 70 69 -193 66 61 60 60 59 58 60 61 62 60 63 60 60 59 60 59 60 63 61 59 65 64 70 66 68 -193 62 65 63 64 63 62 64 63 63 66 65 67 64 68 66 59 58 56 57 57 58 58 59 62 65 70 71 71 72 67 67 64 61 59 58 59 59 59 61 61 61 63 67 63 63 64 63 62 61 60 62 58 60 60 60 60 63 62 62 61 61 61 60 62 62 60 63 62 63 64 62 61 58 58 58 57 58 57 59 58 59 59 59 58 59 59 59 58 58 58 58 57 58 57 59 58 59 61 64 66 69 72 72 73 73 73 69 69 69 68 68 66 67 69 64 73 76 81 82 83 84 81 82 82 82 81 79 79 78 74 75 71 71 73 73 73 74 75 79 86 87 89 98 94 95 99 98 99 97 100 102 99 102 -193 -177 -177 -177 -193 -193 94 103 61 70 71 73 74 76 77 79 87 89 92 99 101 105 111 117 119 121 120 120 122 122 124 124 125 127 127 131 132 132 133 132 133 133 133 0 0 0 0 0
    0 0 0 0 0 0 0 0 0 0 0 0 0 0 0 0 0 0 0 0 0 0 0 0 0 0 0 0 0 0 0 0 0 0 0 0 0 0 0 0 0 0 0 0 0 0 0 0 0 0 0 0 0 0 0 0 0 0 0 0 0 0 0 0 0 0 0 0 0 74 76 76 76 75 74 74 70 70 69 69 71 70 72 73 74 74 76 76 77 75 73 71 68 69 66 64 63 61 61 64 66 65 62 66 62 63 62 65 65 66 70 69 67 72 73 74 73 72 -193 66 67 67 67 67 66 68 68 69 72 72 72 72 73 73 65 62 58 58 57 60 61 63 69 71 74 75 74 74 -193 71 -193 67 64 62 63 62 62 66 66 66 68 70 67 68 69 -193 67 67 67 68 61 67 63 62 63 66 64 64 63 63 64 63 66 67 64 68 67 69 70 67 67 61 60 60 59 59 58 59 58 59 61 60 60 61 60 60 59 60 59 59 58 58 57 60 59 61 65 69 71 73 74 74 75 75 75 71 70 70 69 69 68 69 71 69 75 77 81 83 83 84 81 81 82 82 81 79 79 78 75 76 73 74 75 76 76 76 77 80 86 87 89 97 93 94 97 97 98 96 99 102 99 103 -193 -177 -177 -177 -193 106 99 105 -209 76 74 75 77 78 79 80 85 87 89 91 91 99 105 107 115 119 119 119 121 122 124 124 125 127 128 131 132 131 133 133 134 135 135 0 0 0 0 0
    0 0 0 0 0 0 0 0 0 0 0 0 0 0 0 0 0 0 0 0 0 0 0 0 0 0 0 0 0 0 0 0 0 0 0 0 0 0 0 0 0 0 0 0 0 0 0 0 0 0 0 0 0 0 0 0 0 0 0 0 0 0 0 0 0 0 0 0 0 74 76 77 76 76 75 75 73 72 71 71 73 72 74 74 75 75 77 77 77 75 75 73 71 72 70 68 67 65 64 67 67 66 63 68 64 65 64 68 69 70 72 73 72 73 75 76 75 75 -193 -193 69 69 70 70 69 71 71 72 75 75 75 75 75 75 72 71 65 63 60 66 67 69 73 73 75 77 76 76 74 73 -193 70 69 67 66 64 66 69 68 68 70 72 69 70 71 -193 71 71 71 71 67 71 69 66 67 69 67 67 66 -193 -193 67 69 -193 67 70 -193 71 73 70 70 66 63 64 61 63 60 60 59 60 63 62 62 64 62 62 62 62 62 61 61 61 59 63 61 64 69 73 73 74 74 76 76 76 77 73 72 71 71 70 69 70 72 71 76 79 82 83 84 83 81 81 82 82 81 79 79 78 75 77 77 76 78 79 79 78 79 81 86 87 88 96 93 93 97 96 97 95 98 102 99 103 -193 -177 -193 -193 107 108 102 106 -209 80 76 76 77 78 79 80 85 86 88 -193 -193 92 95 99 107 112 112 115 119 120 123 123 126 128 130 132 133 133 134 135 136 137 137 0 0 0 0 0
    0 0 0 0 0 0 0 0 0 0 0 0 0 0 0 0 0 0 0 0 0 0 0 0 0 0 0 0 0 0 0 0 0 0 0 0 0 0 0 0 0 0 0 0 0 0 0 0 0 0 0 0 0 0 0 0 0 0 0 0 0 0 0 0 0 0 0 0 0 75 76 77 76 77 76 75 74 73 73 73 74 74 75 75 76 75 77 77 77 76 76 75 74 74 73 71 70 68 67 68 68 68 65 70 67 69 69 71 73 73 74 75 74 75 76 77 77 76 -193 -193 -193 71 71 72 71 74 73 74 76 76 76 76 76 76 73 73 72 68 64 70 70 71 74 74 76 77 76 76 75 74 74 72 71 69 69 67 69 70 70 70 72 73 71 71 73 -193 73 73 74 73 70 73 72 68 69 71 69 69 68 -193 -193 70 71 -193 70 72 -193 73 74 72 72 71 67 69 65 67 63 61 63 63 68 66 67 68 66 66 66 66 65 64 65 65 62 68 66 67 71 75 74 75 75 77 77 77 78 75 73 72 72 72 70 71 74 73 77 81 82 83 84 83 82 81 82 81 81 79 79 78 76 78 80 79 80 81 81 80 80 82 86 86 88 96 92 93 96 95 96 95 98 102 99 104 -193 -193 -193 106 108 109 103 105 83 81 77 76 77 79 80 80 83 84 86 87 -193 91 93 93 -193 108 108 112 116 119 122 123 126 129 131 133 134 134 135 136 138 138 138 0 0 0 0 0
    0 0 0 0 0 0 0 0 0 0 0 0 0 0 0 0 0 0 0 0 0 0 0 0 0 0 0 0 0 0 0 0 0 0 0 0 0 0 0 0 0 0 0 0 0 0 0 0 0 0 0 0 0 0 0 0 0 0 0 0 0 0 0 0 0 0 0 0 0 76 77 77 77 77 77 76 76 75 75 74 76 75 76 76 77 76 78 78 78 77 77 76 75 76 74 73 73 72 70 70 70 70 68 73 72 72 73 74 75 75 76 77 76 76 77 78 79 78 82 -193 74 74 74 75 73 78 76 76 77 77 77 77 77 77 74 74 73 71 68 71 71 72 74 74 76 78 77 76 76 75 75 73 73 71 70 69 71 72 71 72 73 74 73 73 75 74 74 74 75 74 73 74 74 70 71 73 71 71 71 -209 -209 -193 73 -193 72 74 74 74 75 74 74 73 71 73 70 70 68 65 70 69 71 68 70 70 69 69 68 68 68 67 69 68 68 71 69 70 72 77 76 76 76 78 78 78 79 77 74 74 74 73 72 73 75 74 78 82 83 83 84 83 82 81 82 81 81 78 80 77 77 78 81 80 81 82 82 81 81 82 85 86 88 96 92 93 96 95 96 95 98 102 100 104 -193 -193 -193 106 108 109 103 104 83 82 77 77 78 80 81 83 85 86 87 89 90 92 94 94 100 106 108 109 111 115 120 121 125 128 132 134 136 136 136 137 139 139 139 0 0 0 0 0
    0 0 0 0 0 0 0 0 0 0 0 0 0 0 0 0 0 0 0 0 0 0 0 0 0 0 0 0 0 0 0 0 0 0 0 0 0 0 0 0 0 0 0 0 0 0 0 0 0 0 0 0 0 0 0 0 0 0 0 0 0 0 0 0 0 0 0 0 0 77 77 77 77 78 78 77 77 76 76 76 77 76 77 78 78 77 79 79 79 78 78 77 76 77 76 74 74 73 72 72 72 72 70 74 75 75 75 75 77 76 77 78 78 77 78 79 80 80 82 79 78 76 77 78 75 81 78 77 78 78 78 78 77 78 75 76 75 73 73 75 74 74 76 75 77 79 78 77 76 76 75 74 74 73 72 71 73 74 74 73 75 76 75 74 78 76 75 76 78 76 75 76 76 73 74 76 74 74 74 75 75 75 75 77 74 76 75 75 76 75 75 75 73 74 73 73 72 70 73 72 72 70 72 71 71 70 71 70 70 70 73 70 72 73 72 72 73 79 77 76 77 80 79 79 81 79 76 76 76 76 74 75 78 76 80 83 84 84 85 83 83 82 83 81 81 78 80 77 78 79 82 81 82 82 82 82 82 83 85 86 88 96 92 93 96 95 97 95 98 102 100 105 -193 -193 -193 106 108 109 104 104 85 82 78 78 79 81 82 84 86 86 87 88 89 90 92 92 94 99 -193 107 109 111 115 118 122 127 132 135 137 138 136 138 141 140 140 0 0 0 0 0
    0 0 0 0 0 0 0 0 0 0 0 0 0 0 0 0 0 0 0 0 0 0 0 0 0 0 0 0 0 0 0 0 0 0 0 0 0 0 0 0 0 0 0 0 0 0 0 0 0 0 0 0 0 0 0 0 0 0 0 0 0 0 0 0 0 0 0 0 0 77 77 77 77 78 78 78 78 77 77 77 79 77 78 78 79 77 79 79 79 78 79 78 76 77 76 74 74 74 72 73 73 73 72 76 76 77 76 76 78 77 78 79 78 78 79 80 81 81 83 82 81 80 82 83 79 83 79 79 80 79 79 79 78 79 76 78 77 76 77 78 78 77 79 77 80 81 79 78 78 77 77 76 76 75 74 74 75 76 76 75 77 78 77 76 80 78 77 78 80 78 78 78 78 74 78 80 77 76 76 78 77 77 77 78 75 77 76 76 76 76 76 76 74 75 74 75 74 73 73 73 73 71 74 73 72 72 73 73 72 72 74 73 74 74 74 73 75 82 78 77 78 81 80 80 82 80 77 80 80 79 76 79 83 79 83 84 85 84 85 83 83 82 83 82 81 78 81 77 80 80 83 82 82 83 83 82 82 83 85 87 88 96 92 94 96 96 98 96 98 102 101 105 -193 -193 -193 106 108 109 103 102 86 84 80 80 81 83 83 84 86 86 87 88 89 90 91 90 90 90 95 104 105 108 111 118 120 124 130 134 137 138 137 139 142 141 141 0 0 0 0 0
    0 0 0 0 0 0 0 0 0 0 0 0 0 0 0 0 0 0 0 0 0 0 0 0 0 0 0 0 0 0 0 0 0 0 0 0 0 0 0 0 0 0 0 0 0 0 0 0 0 0 0 0 0 0 0 0 0 0 0 0 0 0 0 0 0 0 0 0 0 78 77 77 78 79 79 78 78 78 78 78 80 78 78 79 80 78 80 80 80 78 79 78 77 77 76 75 75 74 73 75 74 75 74 77 77 78 77 77 78 78 79 79 79 79 79 81 82 82 84 84 83 83 84 85 82 84 81 80 81 80 80 80 79 80 77 80 79 77 80 80 80 79 81 79 81 82 81 78 79 78 78 77 77 75 75 75 76 77 77 77 79 79 79 78 82 79 78 79 81 79 79 80 80 76 80 82 78 78 79 80 79 78 78 80 76 79 77 78 78 78 78 78 75 78 76 77 76 74 74 74 74 73 76 74 74 74 74 74 74 74 76 74 76 75 76 75 76 83 79 78 79 82 80 81 82 81 79 83 83 83 79 84 86 84 86 86 86 84 85 84 85 83 84 83 83 80 84 79 82 81 84 82 83 83 83 83 83 84 86 87 88 96 93 94 97 96 98 97 99 102 101 105 -193 -193 -193 106 108 108 102 100 88 84 81 82 82 84 84 85 87 87 87 88 89 90 91 90 89 87 89 92 95 98 -209 -209 125 129 135 136 137 140 138 140 144 142 142 0 0 0 0 0
    0 0 0 0 0 0 0 0 0 0 0 0 0 0 0 0 0 0 0 0 0 0 0 0 0 0 0 0 0 0 0 0 0 0 0 0 0 0 0 0 0 0 0 0 0 0 0 0 0 0 0 0 0 0 0 0 0 0 0 0 0 0 0 0 0 0 0 0 0 78 78 78 78 79 79 78 79 79 78 78 81 79 79 80 81 79 81 81 81 79 81 79 78 77 77 75 76 75 73 76 75 76 75 78 78 79 78 78 79 79 80 81 80 80 81 83 84 83 85 85 83 83 85 86 84 85 82 82 82 81 82 80 80 81 78 81 80 79 81 81 81 80 82 80 83 83 82 80 80 79 78 77 77 75 75 75 76 77 77 77 79 79 79 78 82 80 78 80 82 80 80 81 81 78 82 83 80 79 80 81 80 79 79 81 77 80 78 79 79 79 79 79 77 79 77 78 77 75 75 75 75 75 78 76 76 76 77 77 77 77 78 76 79 78 79 79 79 84 80 79 79 83 81 81 82 82 80 84 85 85 82 87 87 86 88 87 86 85 86 85 86 85 86 86 85 85 88 88 86 85 86 83 84 84 84 83 84 84 86 88 89 97 93 95 97 97 98 97 99 103 102 105 -193 -193 -193 106 107 108 101 99 88 85 82 82 83 84 85 86 88 88 88 89 89 90 91 90 90 89 90 91 92 92 96 -209 -209 131 136 138 138 142 141 142 146 143 143 0 0 0 0 0
    0 0 0 0 0 0 0 0 0 0 0 0 0 0 0 0 0 0 0 0 0 0 0 0 0 0 0 0 0 0 0 0 0 0 0 0 0 0 0 0 0 0 0 0 0 0 0 0 0 0 0 0 0 0 0 0 0 0 0 0 0 0 0 0 0 0 0 0 0 78 78 78 78 79 79 78 79 79 79 79 82 80 80 81 82 81 82 82 82 80 81 80 79 78 78 77 77 76 74 75 75 77 76 79 78 79 80 79 81 80 81 83 82 83 84 84 87 85 86 86 84 85 86 87 85 85 83 83 83 82 83 82 81 82 79 82 81 80 82 81 82 82 83 83 85 84 84 82 81 81 80 78 78 75 75 74 76 77 77 76 79 79 78 78 82 80 79 81 83 81 81 82 83 80 84 84 81 80 81 83 81 79 80 81 78 81 80 80 80 81 81 80 78 81 79 79 78 77 76 77 77 76 80 77 78 79 79 79 80 80 81 78 82 80 82 82 81 85 80 79 80 84 81 81 83 83 81 85 86 85 83 87 88 87 89 88 87 85 86 86 87 87 88 87 87 88 90 90 88 86 86 83 84 85 84 84 84 85 87 88 90 98 93 95 97 97 99 98 100 103 102 106 -177 -177 -177 106 107 107 100 99 89 85 81 82 83 84 85 86 88 88 88 89 89 89 91 90 89 89 89 89 90 88 91 91 90 -209 -177 138 139 144 141 144 147 144 145 0 0 0 0 0
    0 0 0 0 0 0 0 0 0 0 0 0 0 0 0 0 0 0 0 0 0 0 0 0 0 0 0 0 0 0 0 0 0 0 0 0 0 0 0 0 0 0 0 0 0 0 0 0 0 0 0 0 0 0 0 0 0 0 0 0 0 0 0 0 0 0 0 0 0 78 78 78 78 80 80 79 79 80 79 80 82 81 81 81 83 82 82 83 82 81 82 81 81 78 78 77 77 76 75 76 77 78 78 80 79 80 81 79 82 81 82 84 83 85 86 86 89 87 88 89 87 88 87 88 86 86 84 84 83 83 84 82 82 82 80 83 82 82 83 82 82 83 84 84 86 85 85 84 83 83 82 80 79 75 75 73 75 76 76 76 79 79 78 78 82 81 81 82 84 83 83 84 85 83 86 85 83 82 83 84 83 80 82 82 80 82 82 82 82 82 82 82 80 83 82 81 80 78 78 78 78 77 80 77 79 80 79 80 82 81 82 80 83 82 83 84 83 85 81 80 81 84 81 82 83 83 81 85 86 86 84 89 89 89 90 90 88 87 87 87 87 88 88 88 88 89 90 91 90 89 87 85 86 86 86 85 85 85 88 90 90 100 94 96 97 98 99 99 100 103 -193 106 -177 -177 -177 -193 107 107 99 99 90 85 81 83 83 84 85 87 88 89 89 89 90 90 91 91 90 89 89 88 89 88 89 90 89 96 -209 -209 -209 147 143 144 149 145 145 0 0 0 0 0
    0 0 0 0 0 0 0 0 0 0 0 0 0 0 0 0 0 0 0 0 0 0 0 0 0 0 0 0 0 0 0 0 0 0 0 0 0 0 0 0 0 0 0 0 0 0 0 0 0 0 0 0 0 0 0 0 0 0 0 0 0 0 0 0 0 0 0 0 0 80 80 79 79 81 80 80 79 81 80 80 83 83 82 82 84 83 83 83 83 82 82 83 82 79 80 77 78 77 77 78 79 81 80 81 80 81 82 80 83 82 83 84 84 87 88 87 89 89 89 90 89 91 90 91 89 87 86 86 84 85 85 83 83 83 81 84 83 84 84 83 84 84 85 85 87 86 86 85 84 85 84 83 82 77 76 73 75 76 77 77 79 79 79 79 82 82 83 83 85 84 84 85 86 85 87 86 85 83 84 85 84 80 83 83 82 83 84 83 84 84 84 84 83 84 84 83 82 79 80 80 78 77 80 77 79 81 80 81 84 83 84 82 84 84 85 86 85 85 82 81 82 85 82 82 83 84 82 86 87 87 86 89 90 90 90 91 90 88 88 88 88 -193 -193 89 89 90 92 93 91 91 90 89 90 89 88 87 87 86 90 92 92 101 95 98 98 98 100 99 101 103 -193 106 -177 -177 -177 -193 107 107 100 99 91 88 84 85 85 84 86 87 88 89 89 89 89 89 91 91 91 90 90 89 89 89 89 89 89 94 -209 -209 -209 -209 145 144 149 146 146 0 0 0 0 0
    0 0 0 0 0 0 0 0 0 0 0 0 0 0 0 0 0 0 0 0 0 0 0 0 0 0 0 0 0 0 0 0 0 0 0 0 0 0 0 0 0 0 0 0 0 0 0 0 0 0 0 0 0 0 0 0 0 0 0 0 0 0 0 0 0 0 0 0 0 82 82 81 81 82 81 81 80 82 81 81 84 84 83 83 85 84 84 84 84 83 82 84 83 80 82 79 79 78 79 80 81 82 81 82 81 82 83 82 84 83 85 -193 86 89 89 89 90 89 89 90 89 92 91 91 90 88 87 87 85 85 85 83 83 83 83 85 84 85 84 84 85 86 85 86 88 87 87 86 86 86 86 86 85 79 80 74 76 77 78 77 79 79 80 81 82 83 84 85 86 86 86 86 87 87 88 87 86 85 86 86 85 81 84 83 84 84 85 85 85 85 85 85 84 85 85 -193 84 81 -193 81 80 79 81 78 79 83 82 83 86 85 85 84 85 85 85 87 86 85 83 82 84 86 83 83 84 84 84 87 87 88 88 90 91 91 90 91 91 90 89 89 89 90 90 91 91 91 93 95 93 94 92 93 94 92 92 90 88 87 93 94 94 101 96 98 98 99 100 99 101 104 -193 106 -177 -177 -177 -193 107 107 100 99 91 91 87 87 87 86 86 87 88 89 89 88 88 88 91 92 91 91 90 89 90 89 89 88 89 94 -209 -209 -209 -209 145 144 149 147 147 0 0 0 0 0
    0 0 0 0 0 0 0 0 0 0 0 0 0 0 0 0 0 0 0 0 0 0 0 0 0 0 0 0 0 0 0 0 0 0 0 0 0 0 0 0 0 0 0 0 0 0 0 0 0 0 0 0 0 0 0 0 0 0 0 0 0 0 0 0 0 0 0 0 0 82 82 81 81 83 81 81 80 83 82 81 85 85 84 84 86 85 85 85 85 83 82 84 84 82 83 80 80 80 82 81 82 82 82 82 81 82 83 82 85 84 86 -209 88 90 90 89 90 88 88 89 -193 91 90 90 89 88 87 87 85 86 86 84 84 84 84 85 85 86 85 85 86 86 86 87 89 88 -193 -193 87 87 87 88 87 81 83 74 76 76 79 77 79 80 80 82 82 84 85 86 87 87 87 87 88 88 89 88 88 86 87 87 87 82 87 84 87 86 87 87 87 86 86 -193 -193 -193 -193 -209 -193 -193 -193 83 -193 82 84 81 82 85 84 85 88 86 86 85 86 86 86 87 87 86 84 84 85 86 84 83 85 85 85 87 88 89 89 91 91 91 91 92 91 90 89 89 90 90 90 91 92 92 95 96 94 96 94 96 97 95 94 92 89 88 95 95 96 102 97 99 99 100 101 100 101 104 -193 106 -177 -177 -177 106 106 107 100 99 92 92 88 88 88 87 87 88 87 88 88 87 87 87 90 91 90 91 90 89 90 90 89 89 90 96 -209 -209 -209 -209 144 144 149 147 147 0 0 0 0 0
    0 0 0 0 0 0 0 0 0 0 0 0 0 0 0 0 0 0 0 0 0 0 0 0 0 0 0 0 0 0 0 0 0 0 0 0 0 0 0 0 0 0 0 0 0 0 0 0 0 0 0 0 0 0 0 0 0 0 0 0 0 0 0 0 0 0 0 0 0 84 84 83 83 85 83 83 81 84 82 81 85 85 84 84 85 85 84 85 85 83 83 84 84 83 84 83 83 83 84 83 84 83 82 83 81 82 83 83 85 85 87 -209 -193 91 90 90 90 88 88 -209 -193 90 90 90 89 88 87 87 85 86 86 84 84 84 84 86 86 86 86 86 87 87 86 87 90 88 89 88 88 -177 89 89 -177 83 85 73 76 75 79 77 79 81 81 83 82 85 86 86 88 87 88 88 89 89 89 89 89 88 88 -193 -193 83 89 86 89 87 88 88 88 87 -193 768 769 -193 767 765 -193 -209 -193 -193 86 85 85 84 84 87 86 87 89 87 87 86 87 87 86 87 87 86 85 85 86 87 85 84 85 86 86 88 88 90 90 91 92 92 91 92 92 91 90 90 90 91 91 93 94 93 96 97 95 98 95 98 98 96 97 94 91 91 97 96 98 101 97 100 99 100 100 100 101 104 104 106 -193 -193 -193 106 106 106 99 99 91 90 88 88 88 87 87 89 88 89 89 88 88 88 90 91 90 91 90 90 90 90 89 89 91 -193 -209 -209 -209 -209 144 143 149 147 147 0 0 0 0 0
    0 0 0 0 0 0 0 0 0 0 0 0 0 0 0 0 0 0 0 0 0 0 0 0 0 0 0 0 0 0 0 0 0 0 0 0 0 0 0 0 0 0 0 0 0 0 0 0 0 0 0 0 0 0 0 0 0 0 0 0 0 0 0 0 0 0 0 0 0 85 86 86 86 87 85 85 83 86 83 81 85 85 84 84 85 84 84 84 84 83 82 84 84 83 85 85 85 86 86 86 85 85 84 84 82 83 84 84 86 86 87 -209 -193 91 90 90 90 88 -193 -209 -193 90 90 90 89 88 87 87 86 86 86 84 85 85 85 87 87 87 87 87 87 87 87 87 90 89 89 88 89 -177 -177 -177 -177 85 88 74 83 77 82 78 79 81 81 83 82 86 86 87 88 88 88 88 90 89 89 89 89 -209 -193 -193 -193 84 89 87 92 88 89 88 88 87 -193 767 767 765 766 763 -193 -209 -193 -193 87 88 88 87 87 90 89 89 91 -193 88 87 87 87 86 87 88 86 86 86 87 88 87 86 86 87 87 88 89 91 91 91 92 92 91 92 92 92 90 90 91 92 92 95 96 94 97 99 96 99 97 99 99 98 98 96 92 94 98 96 100 101 98 99 99 99 100 100 101 104 104 106 -193 -193 -193 106 106 106 99 98 91 90 88 88 88 89 89 90 90 92 92 90 89 90 90 91 90 90 90 90 90 90 89 89 92 -193 -193 -209 -209 -209 143 143 149 147 147 0 0 0 0 0
    0 0 0 0 0 0 0 0 0 0 0 0 0 0 0 0 0 0 0 0 0 0 0 0 0 0 0 0 0 0 0 0 0 0 0 0 0 0 0 0 0 0 0 0 0 0 0 0 0 0 0 0 0 0 0 0 0 0 0 0 0 0 0 0 0 0 0 0 0 -193 91 90 89 91 87 87 85 87 84 81 84 86 84 84 85 85 84 85 85 84 83 84 85 84 86 86 87 88 89 89 88 88 87 86 84 85 85 85 86 86 87 -193 90 91 91 91 91 -193 -193 -193 91 92 91 91 90 89 88 88 86 86 86 85 85 85 85 87 87 88 88 88 88 88 87 88 91 89 90 89 89 -177 90 91 91 87 89 77 89 82 84 79 80 81 81 84 82 86 87 87 89 89 89 89 90 89 90 89 89 -209 -193 -193 -193 84 89 87 92 89 89 88 88 -193 -193 766 767 -177 766 -193 -193 -209 -193 -193 88 89 89 89 89 92 90 90 92 89 88 87 87 87 86 87 87 86 87 87 89 89 89 88 88 88 88 89 89 92 91 92 92 92 91 92 93 93 90 91 92 93 92 97 97 96 99 100 98 100 99 100 100 99 99 98 94 97 98 97 100 100 98 99 99 99 100 100 102 104 104 106 105 105 106 105 105 105 100 99 91 91 89 89 88 89 90 91 91 93 93 90 90 90 90 91 90 90 89 89 89 90 89 89 94 -193 -209 -209 134 -193 142 142 149 146 146 0 0 0 0 0
    0 0 0 0 0 0 0 0 0 0 0 0 0 0 0 0 0 0 0 0 0 0 0 0 0 0 0 0 0 0 0 0 0 0 0 0 0 0 0 0 0 0 0 0 0 0 0 0 0 0 0 0 0 0 0 0 0 0 0 0 0 0 0 0 0 0 0 0 0 91 94 94 93 95 91 90 87 88 85 83 85 87 85 85 85 85 85 85 85 84 83 85 85 86 87 88 89 90 90 90 90 90 89 88 87 87 87 87 87 88 88 -193 90 92 92 92 92 90 90 92 92 93 92 92 91 90 89 89 87 87 86 85 85 85 86 88 88 89 89 89 89 88 88 88 92 90 91 90 90 90 90 91 91 88 90 84 90 88 -193 84 83 83 83 85 83 86 87 88 89 89 89 90 91 90 91 90 90 -193 -193 -193 -193 86 90 88 94 89 89 88 88 -193 -193 -177 -193 -193 -193 -193 90 90 90 90 89 90 89 90 89 92 90 90 91 89 88 87 87 86 85 87 87 86 87 89 90 90 90 89 89 90 89 89 89 94 92 92 92 92 91 93 94 94 91 93 93 94 94 97 98 97 100 101 99 101 100 101 101 100 100 98 95 97 98 97 101 100 98 100 100 100 101 100 102 104 104 106 104 105 106 105 105 105 100 99 92 92 90 89 88 88 89 89 90 93 91 89 89 90 89 90 89 89 89 89 89 89 89 89 96 -193 -209 -209 135 149 143 143 149 146 146 0 0 0 0 0
    0 0 0 0 0 0 0 0 0 0 0 0 0 0 0 0 0 0 0 0 0 0 0 0 0 0 0 0 0 0 0 0 0 0 0 0 0 0 0 0 0 0 0 0 0 0 0 0 0 0 0 0 0 0 0 0 0 0 0 0 0 0 0 0 0 0 0 0 0 94 96 97 97 98 96 92 92 90 86 83 85 87 86 86 86 86 86 86 86 85 83 85 86 87 88 89 90 91 92 92 92 92 91 90 88 89 88 88 89 89 90 91 92 93 93 92 92 90 91 93 93 94 93 94 92 92 91 90 88 88 87 86 87 86 88 89 89 90 90 90 91 90 88 90 93 91 91 91 91 91 91 92 91 89 90 88 92 91 94 90 87 87 86 87 85 87 88 88 90 90 90 91 92 92 92 91 91 90 -193 -193 -193 -193 90 88 96 91 91 88 89 89 89 90 89 90 90 90 91 91 91 91 89 91 90 91 90 93 90 90 92 89 88 87 87 87 86 87 88 87 88 89 90 90 91 90 90 90 89 89 89 94 92 92 92 92 92 94 94 94 92 93 94 94 94 97 99 98 101 102 101 102 101 101 102 101 100 99 96 99 99 99 101 100 99 101 100 100 101 101 102 103 104 106 104 104 105 104 104 103 100 100 93 97 95 94 91 91 90 90 91 94 91 89 89 89 89 90 90 90 90 90 90 91 91 92 101 -193 -193 -209 -209 149 143 143 149 146 147 0 0 0 0 0
    0 0 0 0 0 0 0 0 0 0 0 0 0 0 0 0 0 0 0 0 0 0 0 0 0 0 0 0 0 0 0 0 0 0 0 0 0 0 0 0 0 0 0 0 0 0 0 0 0 0 0 0 0 0 0 0 0 0 0 0 0 0 0 0 0 0 0 0 0 97 98 98 99 99 98 95 96 95 89 86 86 88 87 87 87 87 87 87 87 86 84 85 87 88 90 90 91 92 93 93 93 93 92 91 90 91 90 90 92 91 91 93 93 94 94 93 93 91 92 94 93 95 94 94 93 93 92 91 89 89 88 87 88 88 89 90 91 91 92 91 93 92 91 93 94 93 92 91 92 92 92 93 91 90 91 90 95 94 97 94 90 90 89 88 86 87 88 89 91 92 92 93 93 93 93 92 92 91 90 91 90 87 90 89 94 93 92 90 90 90 90 91 91 91 91 91 92 92 92 92 90 92 92 92 92 94 92 91 93 91 90 88 88 88 87 88 89 89 89 90 92 92 92 91 92 91 89 90 89 94 92 92 92 92 92 94 94 94 92 94 95 95 95 97 99 99 102 102 101 102 101 101 102 100 100 99 97 100 100 100 102 100 100 101 101 101 101 101 103 104 105 106 104 104 105 104 104 103 101 100 95 100 98 98 94 95 93 93 94 96 92 89 88 90 90 90 90 91 91 92 93 94 95 97 104 114 -177 -209 -209 150 143 144 149 146 147 0 0 0 0 0
    0 0 0 0 0 0 0 0 0 0 0 0 0 0 0 0 0 0 0 0 0 0 0 0 0 0 0 0 0 0 0 0 0 0 0 0 0 0 0 0 0 0 0 0 0 0 0 0 0 0 0 0 0 0 0 0 0 0 0 0 0 0 0 0 0 0 0 0 0 98 98 98 98 99 98 95 96 96 96 89 89 91 91 90 89 89 89 90 90 89 89 87 89 91 93 93 93 94 95 95 95 95 94 93 92 93 91 91 93 93 93 94 94 95 95 94 93 91 93 95 94 95 95 94 94 94 94 92 90 90 89 88 90 89 90 91 92 93 93 92 95 94 93 96 96 94 94 92 93 92 92 94 92 91 92 91 96 96 98 96 93 93 92 91 88 88 90 90 92 93 93 94 94 94 94 93 93 92 91 92 90 89 90 90 93 94 94 91 91 91 91 93 92 92 91 91 92 92 92 92 90 92 92 93 93 95 93 93 95 92 91 89 89 89 88 89 91 90 91 92 93 93 94 93 94 92 90 90 90 95 92 92 93 92 93 95 95 95 93 94 95 96 96 97 100 100 102 103 102 102 101 101 102 100 100 99 98 100 100 100 102 100 101 102 102 102 102 102 104 104 105 106 104 104 104 104 103 102 101 100 96 101 100 100 97 99 97 99 99 99 97 93 90 91 90 91 91 92 92 94 96 97 98 101 106 117 -193 -209 -209 150 143 145 149 146 147 0 0 0 0 0
    0 0 0 0 0 0 0 0 0 0 0 0 0 0 0 0 0 0 0 0 0 0 0 0 0 0 0 0 0 0 0 0 0 0 0 0 0 0 0 0 0 0 0 0 0 0 0 0 0 0 0 0 0 0 0 0 0 0 0 0 0 0 0 0 0 0 0 0 0 97 97 97 97 98 97 94 96 96 97 93 91 94 95 93 92 91 91 93 93 92 93 90 93 94 97 96 95 96 97 96 97 96 96 94 94 94 93 93 95 94 94 95 95 95 95 95 93 92 94 96 95 95 95 95 95 96 95 93 92 91 92 90 91 91 91 92 93 94 94 93 96 94 94 99 96 95 94 93 94 93 93 94 91 91 92 92 96 96 98 97 94 95 95 94 91 91 91 91 93 95 95 96 96 96 95 95 94 94 92 93 91 90 90 91 91 94 95 91 91 92 92 94 92 93 92 92 93 93 93 93 91 92 91 93 93 95 94 93 95 93 93 91 90 90 89 90 92 92 92 94 94 95 95 95 96 94 91 91 91 95 93 93 93 93 94 95 95 95 93 95 96 96 96 96 101 101 103 103 102 103 101 102 102 100 100 99 99 101 100 101 103 101 102 103 103 103 103 103 104 104 105 105 103 103 104 104 103 102 101 101 99 102 101 102 98 100 98 100 100 99 98 95 91 91 90 90 90 91 91 93 95 96 99 102 108 119 -209 -209 -193 150 144 145 148 146 147 0 0 0 0 0
    0 0 0 0 0 0 0 0 0 0 0 0 0 0 0 0 0 0 0 0 0 0 0 0 0 0 0 0 0 0 0 0 0 0 0 0 0 0 0 0 0 0 0 0 0 0 0 0 0 0 0 0 0 0 0 0 0 0 0 0 0 0 0 0 0 0 0 0 0 97 97 97 97 98 97 95 96 96 98 99 96 98 98 97 96 95 95 96 97 96 97 93 95 96 99 97 97 97 97 96 97 97 97 95 96 96 94 95 97 95 95 96 96 96 96 96 94 93 95 97 96 96 97 96 97 97 97 95 94 94 94 92 93 92 92 93 94 95 95 94 98 95 96 101 97 97 95 94 95 94 94 95 92 92 93 93 96 97 98 97 96 97 98 97 94 94 94 94 95 98 97 98 97 98 97 97 96 95 93 94 92 91 91 92 92 95 96 93 93 93 93 97 94 95 94 93 94 93 93 93 91 92 91 92 93 95 94 94 95 94 93 92 91 91 90 92 94 94 94 95 96 96 96 96 96 94 92 92 92 95 93 93 94 93 95 96 96 96 95 97 98 98 98 98 102 103 104 105 104 104 103 103 103 101 100 100 100 101 101 103 104 101 102 103 103 103 103 104 104 103 105 105 103 104 104 104 103 102 102 102 100 103 101 102 98 100 100 101 101 101 101 98 93 93 91 91 90 92 92 94 97 99 101 104 110 -193 -209 -177 -193 150 144 146 148 146 146 0 0 0 0 0
    0 0 0 0 0 0 0 0 0 0 0 0 0 0 0 0 0 0 0 0 0 0 0 0 0 0 0 0 0 0 0 0 0 0 0 0 0 0 0 0 0 0 0 0 0 0 0 0 0 0 0 0 0 0 0 0 0 0 0 0 0 0 0 0 0 0 0 0 0 97 97 97 97 98 97 94 96 95 97 100 98 99 100 100 99 99 100 100 100 99 100 97 99 98 100 98 97 97 98 97 97 97 97 95 96 96 94 95 97 95 95 96 96 96 97 96 95 94 96 97 96 96 97 96 98 98 97 96 94 95 95 93 94 93 92 93 95 97 97 96 100 97 98 102 98 98 97 96 96 95 96 96 92 94 94 95 97 97 98 97 96 97 98 97 95 95 95 97 97 100 99 100 99 99 98 99 98 97 94 96 93 94 94 95 95 97 98 96 95 96 95 99 95 96 95 94 95 94 94 94 91 93 92 93 94 95 96 94 95 95 94 93 92 93 92 94 96 96 96 97 97 97 96 97 95 95 92 92 92 95 93 94 94 94 97 97 97 97 96 99 99 99 100 99 103 104 105 105 105 105 104 103 104 102 101 101 101 102 102 103 104 102 104 105 105 104 105 105 105 104 105 105 104 104 104 104 103 102 103 102 101 103 102 103 98 101 100 102 102 102 103 101 96 95 93 93 92 94 94 98 100 102 103 105 111 -193 -209 -177 -193 150 145 147 148 146 147 0 0 0 0 0
    0 0 0 0 0 0 0 0 0 0 0 0 0 0 0 0 0 0 0 0 0 0 0 0 0 0 0 0 0 0 0 0 0 0 0 0 0 0 0 0 0 0 0 0 0 0 0 0 0 0 0 0 0 0 0 0 0 0 0 0 0 0 0 0 0 0 0 0 0 98 97 97 97 98 97 94 95 94 95 98 96 99 100 99 99 99 100 100 100 100 100 97 100 99 101 98 98 97 98 97 97 97 97 95 95 95 94 95 96 95 95 95 95 95 97 96 95 94 95 97 96 97 97 96 98 99 98 97 95 96 96 94 96 94 93 95 95 98 98 97 100 98 98 102 99 99 98 97 97 97 97 97 92 95 94 95 97 97 97 97 96 96 97 97 95 97 96 100 99 101 100 101 100 100 100 100 99 99 96 97 95 97 96 97 96 97 99 97 97 98 98 101 97 98 96 96 96 95 96 95 92 94 93 94 95 96 97 95 96 95 95 94 93 95 95 98 98 98 98 99 98 99 98 98 96 96 94 94 94 96 94 95 96 95 99 99 98 98 98 100 100 100 101 99 103 104 105 105 105 105 104 104 104 102 101 101 101 102 103 104 105 104 106 107 107 106 106 107 106 105 105 105 104 105 105 104 103 103 103 103 102 104 103 103 99 102 102 104 104 103 104 102 99 95 92 93 93 101 102 105 105 104 104 107 112 119 -209 -209 147 150 146 148 148 146 147 0 0 0 0 0
    0 0 0 0 0 0 0 0 0 0 0 0 0 0 0 0 0 0 0 0 0 0 0 0 0 0 0 0 0 0 0 0 0 0 0 0 0 0 0 0 0 0 0 0 0 0 0 0 0 0 0 0 0 0 0 0 0 0 0 0 0 0 0 0 0 0 0 0 0 98 98 98 99 99 98 95 96 95 97 100 99 100 101 100 100 100 101 101 100 100 100 100 102 100 101 99 99 98 98 97 97 97 96 94 94 94 93 94 96 95 94 95 95 95 96 96 94 94 95 97 96 96 97 97 98 99 98 98 95 96 96 95 96 94 94 95 95 97 97 96 99 96 97 102 98 99 98 97 97 97 97 98 92 96 94 95 96 96 96 96 95 95 96 96 95 98 97 102 100 102 101 102 101 101 100 101 99 99 96 97 95 97 96 96 96 97 98 98 98 99 100 101 98 98 97 97 96 96 96 96 93 94 94 95 95 96 97 94 96 96 96 97 95 98 98 100 99 99 99 100 99 100 98 99 97 98 96 97 96 97 96 96 98 96 100 99 99 99 99 100 101 101 102 100 104 104 105 106 106 105 105 104 104 102 101 101 102 103 104 105 106 106 107 108 108 107 107 107 106 105 105 105 104 105 105 105 103 103 103 103 103 104 103 104 101 104 105 106 106 106 106 104 103 97 92 97 -209 110 109 112 112 108 107 109 113 119 -209 -209 149 151 147 149 148 147 148 0 0 0 0 0
    0 0 0 0 0 0 0 0 0 0 0 0 0 0 0 0 0 0 0 0 0 0 0 0 0 0 0 0 0 0 0 0 0 0 0 0 0 0 0 0 0 0 0 0 0 0 0 0 0 0 0 0 0 0 0 0 0 0 0 0 0 0 0 0 0 0 0 0 0 99 98 99 100 100 99 96 98 97 98 100 100 100 102 101 101 101 102 102 101 101 101 -193 -209 -193 -193 -193 99 98 98 97 97 97 97 94 94 94 93 94 97 95 -193 -193 95 94 96 96 94 93 95 97 96 97 98 97 98 99 98 98 96 -193 96 95 96 94 94 95 95 96 96 96 99 95 96 102 99 99 98 98 98 97 98 98 92 96 94 96 97 97 96 96 95 95 97 98 97 100 99 103 101 103 102 102 101 101 100 101 98 99 96 97 95 97 96 96 95 97 98 97 97 99 100 101 99 99 97 97 96 96 97 95 93 94 94 94 95 96 97 95 97 97 96 98 96 99 99 100 99 99 99 100 99 100 99 99 97 99 98 98 98 97 97 98 99 97 101 100 100 100 100 101 102 102 103 101 105 105 106 106 106 105 106 106 106 103 103 103 104 104 105 106 106 106 107 108 108 107 106 107 106 105 105 105 104 105 105 106 104 104 104 103 103 104 104 104 103 105 106 107 107 107 106 105 105 103 98 104 110 114 113 115 116 113 110 110 113 118 -209 -209 -193 150 147 149 148 147 148 0 0 0 0 0
    0 0 0 0 0 0 0 0 0 0 0 0 0 0 0 0 0 0 0 0 0 0 0 0 0 0 0 0 0 0 0 0 0 0 0 0 0 0 0 0 0 0 0 0 0 0 0 0 0 0 0 0 0 0 0 0 0 0 0 0 0 0 0 0 0 0 0 0 0 99 98 100 100 100 99 97 99 98 98 100 100 101 102 102 102 102 103 -193 -193 -193 -193 -209 -209 -193 -209 -209 -193 -193 99 98 98 97 97 95 96 95 94 96 98 -193 -193 -193 -193 94 97 98 95 94 96 98 97 97 98 98 98 99 98 98 96 -209 -193 94 95 93 93 94 94 94 95 94 98 95 96 102 99 100 99 99 98 98 99 99 92 96 95 96 97 98 97 96 96 96 97 98 98 102 100 103 101 103 102 102 101 101 100 101 99 99 97 97 96 97 96 96 95 96 97 96 96 97 99 101 98 98 97 97 97 97 97 96 93 95 94 95 95 96 96 95 97 97 97 98 96 99 98 100 99 98 98 99 98 100 98 99 97 99 99 99 99 98 98 99 100 99 102 100 100 100 100 101 102 102 103 102 105 106 106 107 107 106 108 108 108 106 106 105 105 105 106 107 106 107 107 108 108 107 106 107 106 106 106 106 106 106 107 108 106 105 105 105 105 105 105 106 105 107 108 108 108 108 107 107 106 106 105 106 109 111 113 115 116 115 113 112 115 118 -209 -209 -193 149 146 149 147 146 148 0 0 0 0 0
    0 0 0 0 0 0 0 0 0 0 0 0 0 0 0 0 0 0 0 0 0 0 0 0 0 0 0 0 0 0 0 0 0 0 0 0 0 0 0 0 0 0 0 0 0 0 0 0 0 0 0 0 0 0 0 0 0 0 0 0 0 0 0 0 0 0 0 0 0 99 99 101 101 100 100 98 99 99 98 100 100 101 104 103 104 105 108 107 107 107 -209 -209 -209 -209 -209 -209 -193 -209 101 100 99 99 99 97 98 97 96 97 100 97 -193 -193 96 96 99 100 96 96 97 99 98 98 98 98 98 99 97 97 96 -193 -193 94 94 93 91 93 94 94 94 94 98 95 96 102 100 100 99 99 98 97 99 98 92 96 94 96 96 99 98 97 97 98 99 -193 -193 -193 100 103 102 104 -193 102 102 102 101 102 100 100 98 98 97 97 96 97 95 97 97 96 96 98 99 101 98 98 98 98 98 98 98 97 94 96 95 95 95 95 95 94 95 96 96 98 96 99 98 100 99 98 98 99 98 100 98 99 96 99 99 100 99 98 98 99 100 99 102 101 101 101 102 102 103 103 104 103 106 106 107 108 108 107 110 111 110 108 108 107 106 106 106 107 106 107 108 108 109 107 107 108 106 106 106 106 105 106 107 108 106 107 107 107 107 108 108 109 107 108 110 110 110 109 108 108 107 107 107 108 109 110 113 115 116 116 115 113 116 118 -209 -209 148 148 144 149 146 146 147 0 0 0 0 0
    0 0 0 0 0 0 0 0 0 0 0 0 0 0 0 0 0 0 0 0 0 0 0 0 0 0 0 0 0 0 0 0 0 0 0 0 0 0 0 0 0 0 0 0 0 0 0 0 0 0 0 0 0 0 0 0 0 0 0 0 0 0 0 0 0 0 0 0 0 102 100 103 103 102 102 100 101 100 99 100 101 102 105 106 109 108 111 109 110 109 -193 -193 -193 -193 -209 -209 -209 -209 -193 103 102 102 101 100 101 100 99 100 101 100 99 99 100 100 101 102 100 100 100 101 100 100 99 99 99 100 98 99 97 -193 -209 -193 94 93 92 94 96 96 95 96 101 99 100 103 102 102 101 101 100 100 100 100 93 97 96 98 97 100 99 99 100 100 -193 -209 -209 -209 101 104 103 -209 -193 104 104 104 104 104 101 101 100 99 98 99 97 98 97 97 97 97 97 99 101 102 99 99 99 101 100 101 100 99 97 99 98 98 96 96 94 93 93 94 94 98 95 98 97 100 98 98 98 99 97 100 97 98 96 100 100 100 99 98 98 100 101 100 102 102 101 102 103 104 104 104 105 104 106 106 107 107 107 107 112 113 111 110 110 110 108 108 108 108 107 108 108 108 108 107 107 109 106 107 106 107 107 107 109 109 107 109 109 110 109 109 111 112 110 111 112 111 111 110 109 109 107 108 108 108 109 110 114 115 116 116 116 113 116 117 -193 -209 -209 -193 144 149 146 146 147 0 0 0 0 0
    0 0 0 0 0 0 0 0 0 0 0 0 0 0 0 0 0 0 0 0 0 0 0 0 0 0 0 0 0 0 0 0 0 0 0 0 0 0 0 0 0 0 0 0 0 0 0 0 0 0 0 0 0 0 0 0 0 0 0 0 0 0 0 0 0 0 0 0 0 105 103 105 105 104 104 103 102 102 100 101 102 105 106 108 110 110 113 110 112 111 110 -193 -193 -193 -193 109 -193 -209 -193 106 104 104 104 103 104 104 104 102 104 105 104 104 -193 -209 -193 105 105 104 103 103 102 102 101 101 101 102 99 -193 -193 -209 -209 -209 -209 98 97 98 99 102 99 98 103 102 103 105 104 104 104 104 104 104 103 102 97 100 99 101 99 102 100 101 101 -193 -209 -209 -209 -209 103 107 105 107 -193 106 106 107 106 106 104 104 102 100 100 100 99 99 99 99 98 98 98 101 103 103 100 100 101 102 102 103 102 101 100 102 103 100 99 99 96 94 93 94 95 99 95 99 97 100 98 98 98 99 98 100 97 99 97 101 101 102 102 101 101 103 104 103 104 104 103 104 104 105 105 105 105 105 106 106 107 108 108 108 113 113 111 111 112 110 108 108 108 108 106 107 107 107 108 107 107 110 108 110 111 111 114 111 112 112 110 111 111 112 111 111 113 114 113 113 113 112 112 110 110 110 108 109 108 108 110 111 115 115 116 116 116 114 116 116 119 -209 -209 -193 145 150 145 146 147 0 0 0 0 0
    0 0 0 0 0 0 0 0 0 0 0 0 0 0 0 0 0 0 0 0 0 0 0 0 0 0 0 0 0 0 0 0 0 0 0 0 0 0 0 0 0 0 0 0 0 0 0 0 0 0 0 0 0 0 0 0 0 0 0 0 0 0 0 0 0 0 0 0 0 106 104 106 107 106 106 104 104 104 102 103 104 106 107 110 110 112 114 111 113 112 112 112 -193 -193 112 111 113 107 108 107 106 106 105 105 105 105 106 104 107 109 107 108 108 -193 -193 -193 -193 108 106 106 105 105 104 104 103 -209 -209 -209 -209 -209 -209 -193 -209 -209 101 100 100 -193 100 99 103 -193 106 107 108 107 106 107 107 107 106 105 104 103 103 104 102 103 102 102 102 -209 -209 -209 -209 -193 -193 108 -193 109 108 107 108 109 108 108 106 106 103 102 102 102 101 101 101 101 99 99 100 102 104 104 100 100 102 104 103 104 103 103 103 105 105 103 102 102 99 98 97 97 98 101 99 101 99 101 99 99 99 100 99 100 98 100 100 104 104 105 105 105 105 107 108 106 106 106 105 105 105 106 105 105 105 105 106 107 108 109 108 109 113 114 112 112 113 110 108 108 108 107 106 106 107 106 108 108 109 111 111 114 115 116 118 116 116 114 113 114 113 114 114 114 115 116 114 115 114 114 113 111 111 110 109 110 109 110 111 112 115 115 116 116 116 114 116 116 118 -209 -209 -193 143 150 145 145 147 0 0 0 0 0
    0 0 0 0 0 0 0 0 0 0 0 0 0 0 0 0 0 0 0 0 0 0 0 0 0 0 0 0 0 0 0 0 0 0 0 0 0 0 0 0 0 0 0 0 0 0 0 0 0 0 0 0 0 0 0 0 0 0 0 0 0 0 0 0 0 0 0 0 0 108 107 107 108 108 108 106 106 106 105 106 107 108 109 112 111 112 114 111 113 112 112 112 112 113 113 111 114 109 110 109 108 107 106 106 105 106 107 105 107 110 109 110 111 113 109 110 109 110 108 108 107 108 106 107 -193 -193 -193 -209 -209 -209 -209 -209 -193 -209 -209 100 102 -209 -193 100 104 117 109 108 110 109 108 109 108 108 107 107 106 105 105 106 104 106 105 105 -193 105 106 -209 -193 108 106 109 108 110 109 110 110 111 111 110 108 108 105 104 103 103 102 102 103 102 100 100 101 104 106 106 101 101 103 105 104 107 104 104 104 106 106 105 104 104 101 102 101 101 103 104 103 104 102 103 102 102 101 101 100 102 101 102 103 106 107 108 108 107 108 109 110 108 108 106 105 105 105 106 106 106 106 106 107 108 109 110 109 110 113 114 113 113 113 110 109 109 108 107 105 106 106 105 107 107 109 112 112 114 115 115 117 116 116 114 112 114 114 115 115 115 116 116 115 114 115 114 114 112 111 111 109 111 111 110 112 112 114 114 115 115 115 114 116 117 119 -209 -209 -193 142 149 144 144 146 0 0 0 0 0
    0 0 0 0 0 0 0 0 0 0 0 0 0 0 0 0 0 0 0 0 0 0 0 0 0 0 0 0 0 0 0 0 0 0 0 0 0 0 0 0 0 0 0 0 0 0 0 0 0 0 0 0 0 0 0 0 0 0 0 0 0 0 0 0 0 0 0 0 0 108 109 108 110 109 110 109 108 109 106 106 108 108 109 110 110 111 113 110 112 111 111 111 112 113 113 111 114 109 111 110 109 108 107 107 106 107 108 107 108 111 110 111 112 114 109 111 110 111 109 109 109 109 108 109 108 -193 -209 -209 -209 -209 -209 -209 -193 -209 -209 -209 -193 -209 -193 -193 106 118 111 110 112 111 110 110 109 110 108 108 108 106 106 107 106 108 107 106 106 107 108 108 107 109 107 109 109 111 111 111 111 112 113 112 111 110 108 106 106 104 104 104 105 104 103 104 104 106 107 108 104 103 106 107 106 109 106 105 105 106 107 105 105 105 103 105 104 104 107 107 107 107 106 106 105 104 104 103 103 104 104 105 106 108 109 110 110 109 108 110 111 109 109 106 105 105 105 106 106 106 107 107 109 109 111 111 111 111 114 114 114 113 114 110 110 110 109 107 106 106 106 105 107 108 110 113 113 114 115 115 116 115 115 112 111 111 112 112 114 115 114 115 114 114 115 115 114 112 112 111 110 112 111 110 111 111 113 112 114 114 114 114 116 117 119 -193 -209 141 141 148 143 144 146 0 0 0 0 0
    0 0 0 0 0 0 0 0 0 0 0 0 0 0 0 0 0 0 0 0 0 0 0 0 0 0 0 0 0 0 0 0 0 0 0 0 0 0 0 0 0 0 0 0 0 0 0 0 0 0 0 0 0 0 0 0 0 0 0 0 0 0 0 0 0 0 0 0 0 108 109 107 108 109 111 112 110 110 107 107 108 108 109 110 109 111 113 111 112 111 111 111 111 113 112 111 114 109 111 110 109 109 108 108 107 108 110 108 110 112 111 113 114 116 110 112 111 112 110 110 110 110 108 110 109 111 -193 -209 -209 -193 -193 -209 -209 -193 109 -193 106 109 -193 104 107 117 112 111 114 113 112 112 111 112 109 110 110 107 107 107 107 109 108 108 108 109 109 109 108 109 108 110 110 113 113 113 114 114 114 114 113 113 110 110 110 108 109 108 110 108 107 107 107 108 110 110 108 106 108 109 108 110 107 107 107 107 108 106 106 107 104 107 107 107 111 110 110 109 108 108 108 107 107 106 106 106 107 106 109 109 111 111 111 110 110 112 113 111 112 108 107 107 107 108 107 107 108 107 110 111 113 112 112 112 114 115 115 114 115 112 114 115 115 114 112 111 111 108 111 112 115 116 114 115 117 116 116 115 114 111 111 112 112 111 114 114 113 115 116 114 117 116 115 113 114 113 110 112 111 109 110 110 112 111 112 113 113 112 116 118 120 -193 -209 139 140 147 142 143 145 0 0 0 0 0
    0 0 0 0 0 0 0 0 0 0 0 0 0 0 0 0 0 0 0 0 0 0 0 0 0 0 0 0 0 0 0 0 0 0 0 0 0 0 0 0 0 0 0 0 0 0 0 0 0 0 0 0 0 0 0 0 0 0 0 0 0 0 0 0 0 0 0 0 0 108 108 107 107 109 112 112 110 110 107 108 109 109 108 110 110 111 114 111 113 111 112 112 111 112 112 111 113 109 111 110 109 109 108 108 107 108 111 109 111 112 112 113 114 116 111 112 111 112 111 111 110 110 108 110 108 110 109 110 110 111 114 113 112 111 110 107 107 111 111 107 107 117 111 110 113 112 111 111 110 111 108 110 110 108 108 109 109 111 110 110 110 111 111 110 109 109 108 110 111 114 113 113 114 115 115 115 114 113 111 111 111 109 111 110 112 110 108 109 109 109 111 111 110 108 110 110 109 111 109 108 108 108 108 107 107 108 106 108 108 109 113 111 112 111 110 110 110 110 109 107 109 107 109 107 110 111 112 113 113 112 113 114 115 114 114 110 109 109 110 110 109 108 109 108 111 112 115 113 112 113 115 115 115 114 115 113 118 119 120 120 120 119 120 119 117 117 118 117 115 116 117 116 116 116 115 112 113 113 114 113 115 114 113 115 117 115 118 117 115 113 113 112 110 112 110 109 110 111 113 112 113 114 114 115 118 120 122 134 -193 139 139 146 142 143 145 0 0 0 0 0
    0 0 0 0 0 0 0 0 0 0 0 0 0 0 0 0 0 0 0 0 0 0 0 0 0 0 0 0 0 0 0 0 0 0 0 0 0 0 0 0 0 0 0 0 0 0 0 0 0 0 0 0 0 0 0 0 0 0 0 0 0 0 0 0 0 0 0 0 0 108 109 107 109 111 114 113 111 110 108 108 109 109 108 110 109 111 114 111 113 111 112 112 111 112 111 111 112 109 110 110 109 109 108 108 107 108 112 110 112 112 113 114 114 117 111 112 111 112 111 111 110 110 108 110 108 110 108 109 109 110 112 111 112 112 110 108 108 113 116 113 109 118 111 110 112 110 110 110 110 110 108 109 110 108 109 109 110 112 111 112 112 111 111 111 109 109 108 111 111 113 113 113 114 114 114 114 113 113 110 110 110 109 111 110 111 110 109 110 111 111 112 113 113 111 114 111 110 113 110 109 109 108 108 108 108 110 107 109 109 111 114 112 113 112 111 111 112 111 111 108 111 108 110 109 111 112 113 114 114 113 114 115 115 114 114 112 111 111 111 111 110 111 111 110 113 113 116 114 113 114 115 115 115 115 116 115 121 122 123 122 123 123 123 122 120 120 120 117 116 116 117 116 116 116 115 113 113 113 115 114 117 116 114 115 118 116 119 118 116 113 113 112 110 111 110 109 111 112 115 114 114 115 116 117 120 122 123 134 143 140 141 146 142 144 145 0 0 0 0 0
    0 0 0 0 0 0 0 0 0 0 0 0 0 0 0 0 0 0 0 0 0 0 0 0 0 0 0 0 0 0 0 0 0 0 0 0 0 0 0 0 0 0 0 0 0 0 0 0 0 0 0 0 0 0 0 0 0 0 0 0 0 0 0 0 0 0 0 0 0 108 109 108 110 112 114 112 111 111 109 109 110 109 108 110 109 111 113 111 113 111 111 112 111 113 111 111 112 109 111 110 109 109 108 108 107 109 113 111 113 112 114 115 115 117 112 113 111 112 112 111 111 110 109 110 109 110 109 110 110 110 111 110 112 112 110 108 108 111 117 115 110 118 111 110 112 111 111 111 110 110 108 109 110 108 109 109 110 112 111 111 112 112 111 111 109 109 108 111 111 113 113 113 114 114 114 113 112 112 110 110 110 109 110 110 110 110 110 110 111 111 112 113 114 114 115 110 110 113 110 109 109 108 108 108 109 111 108 110 111 112 115 113 114 112 112 112 112 112 111 108 111 108 111 109 112 113 113 114 115 114 114 115 115 114 114 112 111 111 112 111 111 111 112 112 114 113 117 114 114 114 115 115 115 116 117 116 122 123 124 123 124 124 124 122 121 121 120 117 116 116 117 116 116 116 116 114 115 116 117 117 121 121 117 116 121 119 121 122 118 113 113 112 110 112 110 109 112 114 116 116 116 116 116 118 120 122 124 -209 -209 141 142 147 143 145 145 0 0 0 0 0
    0 0 0 0 0 0 0 0 0 0 0 0 0 0 0 0 0 0 0 0 0 0 0 0 0 0 0 0 0 0 0 0 0 0 0 0 0 0 0 0 0 0 0 0 0 0 0 0 0 0 0 0 0 0 0 0 0 0 0 0 0 0 0 0 0 0 0 0 0 108 108 108 110 111 112 111 110 110 109 109 109 108 108 110 108 110 112 110 112 111 111 112 111 113 111 112 112 108 110 110 109 109 108 108 107 109 115 112 114 113 115 116 116 117 113 113 112 112 112 112 111 110 109 110 109 110 109 110 110 109 110 108 111 111 110 108 107 109 116 115 110 117 111 110 112 111 111 111 110 111 108 110 111 109 110 110 111 112 111 112 112 112 111 111 109 108 108 111 110 113 112 113 114 114 113 113 112 112 109 110 110 109 110 111 111 110 110 111 110 111 111 112 113 114 114 109 109 113 110 109 109 108 108 108 110 111 109 110 111 113 115 113 114 112 112 112 112 112 111 108 111 109 112 110 113 113 113 114 115 114 115 115 115 115 115 114 113 113 113 112 113 113 113 113 114 114 117 115 115 114 115 114 115 116 118 116 121 123 124 124 124 124 124 122 121 122 121 117 116 116 117 116 116 116 116 115 118 118 119 120 122 123 121 120 123 121 123 125 123 118 117 115 114 116 113 111 114 116 117 117 117 117 117 119 121 124 128 -209 -193 141 143 147 143 145 145 0 0 0 0 0
    0 0 0 0 0 0 0 0 0 0 0 0 0 0 0 0 0 0 0 0 0 0 0 0 0 0 0 0 0 0 0 0 0 0 0 0 0 0 0 0 0 0 0 0 0 0 0 0 0 0 0 0 0 0 0 0 0 0 0 0 0 0 0 0 0 0 0 0 0 109 109 110 111 111 113 111 111 111 110 110 110 109 110 111 109 111 112 110 112 111 111 111 112 113 112 112 112 108 111 110 109 109 107 108 107 110 116 113 115 113 115 116 117 118 113 113 112 113 113 112 112 111 109 109 109 109 108 109 109 108 109 108 111 110 108 107 105 106 109 113 110 117 111 111 113 112 112 112 111 111 108 111 111 109 111 111 112 113 112 113 113 112 110 110 109 108 108 110 110 113 112 113 114 114 113 113 112 111 109 110 110 109 110 111 110 111 111 111 110 111 110 111 113 114 112 107 107 113 110 109 109 108 108 108 110 111 108 109 111 112 115 113 114 112 112 112 113 112 112 108 111 109 111 110 112 112 112 114 115 114 114 115 115 114 115 114 113 113 113 113 114 114 114 113 114 114 117 115 115 114 115 115 115 116 118 117 122 123 125 124 124 124 123 122 121 121 121 117 116 116 117 116 116 117 117 117 120 120 120 121 123 124 123 121 124 121 124 126 123 121 120 117 117 118 115 113 115 117 118 118 118 118 118 120 122 126 131 137 142 140 142 146 142 144 144 0 0 0 0 0
    0 0 0 0 0 0 0 0 0 0 0 0 0 0 0 0 0 0 0 0 0 0 0 0 0 0 0 0 0 0 0 0 0 0 0 0 0 0 0 0 0 0 0 0 0 0 0 0 0 0 0 0 0 0 0 0 0 0 0 0 0 0 0 0 0 0 0 0 0 109 109 111 111 110 113 111 112 112 112 112 111 109 111 111 109 111 113 110 111 110 111 111 112 113 112 113 112 109 112 111 110 109 108 109 107 111 118 115 116 113 115 116 117 118 114 114 113 113 114 113 113 111 109 109 109 108 -193 -193 108 107 108 107 110 108 107 106 104 105 107 112 -193 -193 -193 111 114 112 112 112 111 111 108 111 113 109 111 111 113 113 113 113 113 112 111 111 110 108 108 110 110 114 113 113 114 113 113 113 111 110 108 109 109 109 109 110 110 111 112 111 110 110 109 111 112 113 110 106 107 112 109 109 108 107 107 108 110 111 108 109 111 113 115 113 114 112 112 112 113 112 111 108 111 108 110 110 112 111 112 113 114 113 114 115 115 114 116 115 114 114 114 114 114 114 114 113 114 114 118 115 115 114 115 114 115 117 118 117 121 123 125 124 124 124 123 122 122 122 121 116 117 117 118 116 116 118 118 118 121 121 121 122 123 124 123 122 125 120 123 126 122 121 120 117 117 119 117 113 116 117 118 119 119 119 119 121 123 129 132 136 140 139 142 144 142 143 143 0 0 0 0 0
    0 0 0 0 0 0 0 0 0 0 0 0 0 0 0 0 0 0 0 0 0 0 0 0 0 0 0 0 0 0 0 0 0 0 0 0 0 0 0 0 0 0 0 0 0 0 0 0 0 0 0 0 0 0 0 0 0 0 0 0 0 0 0 0 0 0 0 0 0 111 111 115 113 112 114 111 113 113 115 115 113 110 110 112 109 111 112 110 111 110 110 111 111 113 112 113 111 109 112 111 110 110 109 109 108 113 119 116 117 114 115 117 118 119 115 113 114 113 114 113 113 111 108 108 108 107 -193 -193 107 -193 -193 106 108 106 -193 -209 102 104 106 -193 -209 -209 -193 111 114 113 113 112 111 111 109 112 114 -193 111 112 115 114 114 114 114 113 112 111 110 108 108 110 110 114 113 113 114 113 113 113 111 110 108 109 109 109 109 110 109 111 111 110 109 109 108 110 111 112 109 106 107 112 110 109 108 107 107 109 110 110 108 109 111 113 115 112 113 112 112 112 113 112 111 108 110 108 110 109 111 111 111 113 114 113 114 114 114 114 115 115 114 114 114 114 114 113 114 112 114 114 118 116 115 114 115 115 115 117 119 119 122 124 126 125 125 125 124 123 122 123 123 116 117 118 119 118 117 120 120 120 123 122 122 123 123 124 123 122 124 119 123 125 122 -193 -193 117 118 120 118 115 117 119 120 121 121 121 121 122 123 129 131 135 138 137 141 143 141 143 143 0 0 0 0 0
    0 0 0 0 0 0 0 0 0 0 0 0 0 0 0 0 0 0 0 0 0 0 0 0 0 0 0 0 0 0 0 0 0 0 0 0 0 0 0 0 0 0 0 0 0 0 0 0 0 0 0 0 0 0 0 0 0 0 0 0 0 0 0 0 0 0 0 0 0 117 116 118 118 118 118 -193 111 113 119 -209 -209 -209 -193 -209 113 115 114 110 111 110 110 111 111 -209 -193 113 111 108 111 111 110 109 108 109 107 113 119 117 118 114 116 118 119 120 115 113 114 113 115 114 114 111 108 108 109 107 -209 -193 -193 -209 -209 -193 -193 106 -209 -209 101 104 106 -193 -209 -193 110 111 114 113 113 112 111 111 109 112 114 110 113 113 116 114 114 115 115 113 112 112 111 108 109 111 111 115 113 113 114 113 113 113 111 110 108 109 109 109 108 110 109 110 111 109 108 109 108 110 111 113 109 105 107 113 111 109 108 108 108 109 110 110 108 108 110 112 114 111 112 111 111 112 112 111 109 107 110 107 109 108 111 110 111 113 113 112 113 114 113 112 114 114 112 112 113 113 113 112 112 110 111 111 117 116 114 113 114 115 116 118 119 119 122 125 127 126 126 125 125 124 124 125 123 119 120 121 121 121 120 122 122 122 124 123 123 124 124 125 124 123 124 120 122 124 118 -209 -209 115 118 120 119 117 119 121 121 123 123 122 122 123 123 129 131 134 136 136 140 142 141 142 143 0 0 0 0 0
    0 0 0 0 0 0 0 0 0 0 0 0 0 0 0 0 0 0 0 0 0 0 0 0 0 0 0 0 0 0 0 0 0 0 0 0 0 0 0 0 0 0 0 0 0 0 0 0 0 0 0 0 0 0 0 0 0 0 0 0 0 0 0 0 0 0 0 0 0 120 117 119 120 121 -209 -209 115 -209 -209 -193 -209 -209 -209 -209 -193 -209 -209 -209 -209 -209 -209 -209 -209 -209 -209 115 -193 -193 112 112 110 110 108 109 108 114 120 120 120 117 119 120 121 121 117 113 114 113 115 114 114 111 108 108 -193 -209 -209 -209 -209 -209 -209 -209 -209 -209 -209 -209 -193 104 106 -193 -209 -193 111 111 114 113 113 113 112 112 109 112 115 110 112 114 116 113 114 115 115 114 113 112 112 109 110 112 111 115 113 113 114 112 112 112 110 110 107 108 108 109 108 109 108 109 109 108 107 108 107 109 109 113 -209 103 105 114 111 109 108 108 108 109 110 110 108 108 110 111 113 110 111 110 110 111 111 110 108 107 109 107 108 108 111 110 111 112 112 111 112 113 112 111 112 112 110 111 111 112 112 111 111 109 109 109 117 116 114 114 115 116 116 118 119 120 121 124 126 125 125 124 124 123 124 125 123 121 124 124 125 125 124 125 125 125 127 124 125 124 125 126 124 124 124 -193 123 -193 -209 -209 -209 -209 115 120 121 118 119 122 122 123 124 123 123 123 123 129 131 134 136 136 140 142 141 143 142 0 0 0 0 0
    0 0 0 0 0 0 0 0 0 0 0 0 0 0 0 0 0 0 0 0 0 0 0 0 0 0 0 0 0 0 0 0 0 0 0 0 0 0 0 0 0 0 0 0 0 0 0 0 0 0 0 0 0 0 0 0 0 0 0 0 0 0 0 0 0 0 0 0 0 125 123 125 131 136 135 126 129 -209 132 132 132 -193 -193 128 127 131 -209 -209 -209 -209 -209 -209 -209 -209 -209 -193 -193 -193 -193 -193 -193 -193 109 111 111 117 122 -193 -193 122 123 123 124 125 120 116 116 115 117 116 117 -193 110 110 -209 -209 -209 -209 -209 -209 -209 -209 -209 -209 -209 -209 -209 -209 -209 -209 -209 -209 -193 115 116 116 116 115 114 113 110 -193 115 -209 110 112 114 111 112 114 114 114 112 -193 -193 -193 -209 111 110 115 114 115 -193 112 113 -193 112 111 107 -193 107 110 110 110 108 109 110 109 107 108 107 110 109 113 -209 102 104 117 112 109 107 108 108 110 110 110 107 108 110 111 113 110 110 110 109 111 111 109 108 106 109 107 108 109 111 111 111 112 112 111 111 112 111 110 111 110 109 109 109 110 110 110 110 108 108 109 116 116 114 114 115 116 117 118 119 119 121 123 124 124 124 124 123 122 124 126 124 123 127 126 128 130 129 129 127 128 129 126 127 126 126 127 125 125 125 122 125 130 130 131 131 -209 124 129 125 122 121 122 122 122 123 122 122 121 121 127 130 134 137 137 142 143 141 143 142 0 0 0 0 0
    0 0 0 0 0 0 0 0 0 0 0 0 0 0 0 0 0 0 0 0 0 0 0 0 0 0 0 0 0 0 0 0 0 0 0 0 0 0 0 0 0 0 0 0 0 0 0 0 0 0 0 0 0 0 0 0 0 0 0 0 0 0 0 0 0 0 0 0 0 129 132 133 134 137 136 135 135 134 133 132 132 130 126 130 129 131 -209 -209 -209 -193 -209 -209 -209 -209 -209 -209 -193 -193 -193 -193 -209 -209 -193 -193 -209 122 125 130 127 125 126 125 127 127 125 121 119 119 120 120 120 120 116 116 -209 -209 -209 -209 -209 -209 -209 -209 -209 -209 -209 -209 -209 -209 -209 -209 -209 -193 -193 -193 -193 119 -193 -193 -193 -193 -193 -193 -193 -209 -209 113 114 110 112 112 113 115 -193 -193 339 342 -209 -209 -209 -209 -193 116 -193 114 116 -193 -193 -193 -193 -209 -209 113 114 110 108 108 109 -193 106 107 106 -193 -209 -193 -209 -209 111 120 116 109 107 108 108 110 110 110 107 108 111 112 113 111 110 110 110 111 112 110 109 107 110 110 111 112 114 112 112 114 112 112 111 112 111 110 112 111 109 111 110 112 112 110 109 107 108 108 116 117 114 114 115 117 117 118 119 119 120 123 123 123 123 123 122 121 124 126 124 125 129 128 129 131 131 131 129 129 130 127 128 127 127 127 126 126 126 124 128 131 133 133 135 136 134 136 133 133 128 127 126 125 125 123 122 121 121 126 131 135 136 136 141 142 140 142 142 0 0 0 0 0
    0 0 0 0 0 0 0 0 0 0 0 0 0 0 0 0 0 0 0 0 0 0 0 0 0 0 0 0 0 0 0 0 0 0 0 0 0 0 0 0 0 0 0 0 0 0 0 0 0 0 0 0 0 0 0 0 0 0 0 0 0 0 0 0 0 0 0 0 0 129 132 133 134 137 135 134 135 134 134 132 133 131 128 131 131 132 -209 -209 -209 -193 -209 -209 -209 -209 -209 -209 -193 -209 -193 -209 -209 -209 -209 125 128 126 129 131 128 126 127 126 127 127 127 124 122 123 123 123 125 125 122 122 -193 -209 -209 -209 -209 -209 -209 -209 124 124 -209 -209 -209 -209 -209 725 -193 127 -193 123 122 122 122 -193 -193 -193 -193 -193 -193 -209 -209 -193 -193 117 117 -193 120 -193 -193 338 339 343 -209 -209 -209 -209 -209 -209 -209 -209 119 121 122 -193 -193 -209 -209 118 120 -209 -193 -209 -193 -193 70 -209 -209 -193 -209 -209 -193 123 120 122 120 115 110 111 110 113 114 112 109 111 115 117 118 116 115 113 113 116 116 115 114 111 115 117 120 122 120 118 119 118 116 117 116 116 115 115 118 116 116 121 118 118 117 116 111 107 110 110 117 118 115 116 117 118 118 119 119 119 120 123 123 123 122 123 122 121 125 127 125 129 132 130 131 132 131 132 129 129 129 127 129 127 127 127 126 127 126 125 131 131 133 133 135 135 134 135 134 134 132 129 129 128 126 123 122 121 121 127 132 135 136 136 140 141 140 141 141 0 0 0 0 0
    0 0 0 0 0 0 0 0 0 0 0 0 0 0 0 0 0 0 0 0 0 0 0 0 0 0 0 0 0 0 0 0 0 0 0 0 0 0 0 0 0 0 0 0 0 0 0 0 0 0 0 0 0 0 0 0 0 0 0 0 0 0 0 0 0 0 0 0 0 129 131 132 133 135 133 133 134 133 133 132 132 131 129 131 131 131 -193 -209 -209 -209 -209 -209 -193 -177 -177 -209 132 -193 -193 -193 -209 137 137 132 133 130 130 131 128 126 127 126 127 127 128 125 124 126 127 126 129 130 -193 126 131 -193 -209 -209 -209 -209 -209 -209 125 126 -193 -209 -209 -209 -209 726 -193 129 129 126 126 125 126 126 126 -209 -193 -193 129 133 -193 131 129 127 123 131 129 131 131 -193 -209 -209 -209 -209 -209 -209 -209 -209 -209 -209 -209 124 127 124 123 124 123 122 125 -193 -193 -193 -193 -209 -209 -209 -209 -209 -193 124 126 124 122 124 123 120 119 118 118 118 120 118 116 119 121 122 125 122 -209 119 -209 -209 -209 -193 121 119 121 122 125 128 128 123 124 123 121 121 122 121 121 120 123 123 123 129 133 130 129 125 -193 115 117 115 118 119 117 118 120 121 121 120 121 121 121 124 124 123 123 123 123 123 128 131 128 132 133 131 132 132 132 132 129 129 130 128 130 128 128 128 127 128 127 127 132 131 133 133 134 135 135 136 134 135 134 133 135 135 133 127 123 123 122 129 132 135 136 136 140 141 140 141 141 0 0 0 0 0</data></disparity>
</opencv_storage>
