<?xml version="1.0"?>
<opencv_storage>
<gps_time_stamp>22641</gps_time_stamp>
<gps_x>-3.0713064670562744e+000</gps_x>
<gps_y>3.6069810390472412e-001</gps_y>
<gps_z>-3.6667400598526001e-001</gps_z>
<image_time_stamp>10564</image_time_stamp>
<disparity type_id="opencv-matrix">
  <rows>90</rows>
  <cols>320</cols>
  <dt>s</dt>
  <data>
    0 0 0 0 0 0 0 0 0 0 0 0 0 0 0 0 0 0 0 0 0 0 0 0 0 0 0 0 0 0 0 0 0 0 0 0 0 0 0 0 0 0 0 0 0 0 0 0 0 0 0 0 0 0 0 0 0 0 0 0 0 0 0 0 0 0 0 0 0 0 0 0 0 0 0 0 0 0 0 -225 11 12 13 14 14 14 15 14 9 10 10 10 11 0 0 0 0 0 0 0 0 0 0 0 0 0 0 0 0 0 0 0 0 0 0 0 0 0 0 0 0 0 0 0 0 0 0 0 0 0 0 0 0 0 0 0 0 0 0 0 9 12 -225 -225 -225 -225 -225 -209 105 -193 16 -193 12 13 12 12 13 12 12 11 11 12 11 0 0 14 10 10 10 -193 -193 9 10 11 0 0 0 9 12 13 14 14 14 14 15 13 14 12 17 13 13 13 13 9 9 9 9 0 0 0 13 11 13 16 16 16 16 17 17 -225 18 18 18 17 18 20 18 16 14 15 15 15 15 15 13 14 16 18 17 19 19 19 20 23 23 24 25 26 26 29 29 29 29 29 29 29 29 29 29 30 30 31 31 32 33 35 35 35 36 36 36 37 39 39 38 40 41 41 42 43 44 44 49 47 47 46 47 47 47 46 46 42 43 41 42 42 43 43 43 43 43 42 41 40 40 38 37 37 38 38 40 -209 54 65 62 62 61 62 62 64 64 64 63 65 65 0 0 0 0 0
    0 0 0 0 0 0 0 0 0 0 0 0 0 0 0 0 0 0 0 0 0 0 0 0 0 0 0 0 0 0 0 0 0 0 0 0 0 0 0 0 0 0 0 0 0 0 0 0 0 0 0 0 0 0 0 0 0 0 0 0 0 0 0 0 0 0 0 0 0 9 0 0 0 0 0 0 0 0 0 14 11 12 12 13 13 13 15 13 9 10 9 10 10 0 0 0 0 0 0 0 0 0 0 0 0 0 0 0 0 0 0 0 0 0 0 0 0 0 0 0 0 0 0 0 0 0 0 0 0 0 0 0 0 0 0 0 0 0 0 0 9 11 -225 -225 -225 -225 -209 -193 106 -193 -193 -193 13 13 12 12 12 12 11 11 11 12 12 0 0 13 9 9 -193 -177 -193 0 9 10 0 0 9 9 11 13 14 14 14 14 15 13 14 12 17 13 13 12 12 9 9 9 9 0 0 0 14 11 13 16 16 16 17 17 17 11 17 17 17 17 18 20 18 17 14 16 16 16 16 15 13 14 16 18 17 19 20 20 21 23 24 25 25 26 26 29 28 28 29 29 29 29 29 29 29 30 30 30 31 32 33 35 35 35 36 35 35 37 39 40 39 42 44 44 44 46 46 45 50 47 48 46 47 47 46 45 45 42 43 40 41 42 44 43 43 43 42 40 39 37 38 37 36 37 38 -193 -193 -193 56 60 60 61 61 62 62 63 63 63 63 65 65 0 0 0 0 0
    0 0 0 0 0 0 0 0 0 0 0 0 0 0 0 0 0 0 0 0 0 0 0 0 0 0 0 0 0 0 0 0 0 0 0 0 0 0 0 0 0 0 0 0 0 0 0 0 0 0 0 0 0 0 0 0 0 0 0 0 0 0 0 0 0 0 0 0 0 0 0 0 0 0 0 0 0 0 0 13 11 11 11 12 13 13 14 12 9 9 9 9 9 0 0 0 0 0 0 0 0 0 0 0 0 0 0 0 0 0 0 0 0 0 0 0 0 0 0 0 0 0 0 0 0 0 0 0 0 0 0 0 0 0 0 0 0 0 0 0 0 10 -225 -225 -225 -225 -225 -193 106 -193 -193 -193 13 13 12 12 12 12 11 11 11 13 13 -193 0 13 9 -193 -193 -177 -177 -193 9 9 0 0 0 9 11 12 13 13 13 14 14 13 13 11 15 12 12 12 11 9 9 9 9 0 0 0 14 11 13 16 16 17 17 17 17 11 17 17 16 16 18 20 17 16 14 16 15 15 15 15 14 15 17 19 18 20 20 21 22 22 24 24 24 25 25 28 27 28 29 29 29 29 29 29 29 30 30 30 31 32 33 34 34 34 35 35 35 37 39 40 41 43 45 45 45 46 46 46 50 47 48 47 47 46 46 45 45 42 43 40 41 42 44 43 43 42 40 38 38 37 39 37 37 38 39 -209 -193 58 58 60 60 62 62 62 62 63 63 64 63 65 65 0 0 0 0 0
    0 0 0 0 0 0 0 0 0 0 0 0 0 0 0 0 0 0 0 0 0 0 0 0 0 0 0 0 0 0 0 0 0 0 0 0 0 0 0 0 0 0 0 0 0 0 0 0 0 0 0 0 0 0 0 0 0 0 0 0 0 0 0 0 0 0 0 0 0 0 0 0 0 0 0 0 0 0 0 11 10 10 11 11 12 12 14 11 0 0 0 0 0 0 0 0 0 0 0 0 0 0 0 0 0 0 0 0 0 0 0 0 0 0 0 0 0 0 0 0 0 0 0 0 0 0 0 0 0 0 0 0 0 0 0 0 0 0 0 0 0 9 -225 -225 -225 -225 -225 -225 105 -193 -193 -193 -193 12 12 11 11 11 10 11 12 13 15 -209 0 12 -193 -177 -177 -177 -177 -193 -193 0 0 0 0 9 10 11 12 13 13 13 14 12 12 11 12 10 10 10 10 9 9 9 9 0 0 0 14 11 12 15 17 17 17 17 17 12 17 16 15 16 18 19 16 16 14 16 16 15 15 15 14 16 17 19 18 20 21 22 22 23 24 24 25 25 26 28 28 29 29 29 30 29 29 29 29 29 29 29 30 30 31 32 32 32 33 33 34 36 38 39 40 42 44 44 45 46 46 45 50 47 48 47 47 46 46 45 45 42 43 40 41 42 43 43 42 40 38 36 37 36 37 37 37 39 -193 -193 55 58 59 62 61 62 62 62 62 63 64 64 63 65 65 0 0 0 0 0
    0 0 0 0 0 0 0 0 0 0 0 0 0 0 0 0 0 0 0 0 0 0 0 0 0 0 0 0 0 0 0 0 0 0 0 0 0 0 0 0 0 0 0 0 0 0 0 0 0 0 0 0 0 0 0 0 0 0 0 0 0 0 0 0 0 0 0 0 0 0 0 0 0 0 0 0 0 0 0 10 9 10 10 10 11 11 13 9 0 0 0 0 0 0 0 0 0 0 0 0 0 0 0 0 0 0 0 0 0 0 0 0 0 0 0 0 0 0 0 0 0 0 0 0 0 0 0 0 0 0 0 0 0 0 0 0 0 0 0 0 0 -177 -225 -225 -225 -225 -225 -225 104 103 -193 -193 -193 12 11 11 11 10 10 10 12 13 -193 -209 -193 -193 -209 -177 -177 -177 -177 -177 -193 -193 0 0 0 9 10 11 13 13 14 15 -209 -209 -193 10 9 0 9 9 9 0 0 0 0 9 0 0 14 11 12 15 17 17 17 16 16 12 16 15 15 15 19 19 16 17 15 16 16 15 15 15 15 17 18 19 19 21 22 22 22 23 23 24 24 25 25 27 27 28 29 29 30 29 29 29 29 29 29 29 29 30 30 31 31 31 32 31 33 35 36 37 39 40 42 42 43 46 46 45 50 46 48 47 47 46 46 45 45 42 43 40 40 41 42 41 39 38 36 35 35 35 -193 37 38 39 -209 51 56 58 59 62 61 63 62 63 63 63 64 63 63 66 65 0 0 0 0 0
    0 0 0 0 0 0 0 0 0 0 0 0 0 0 0 0 0 0 0 0 0 0 0 0 0 0 0 0 0 0 0 0 0 0 0 0 0 0 0 0 0 0 0 0 0 0 0 0 0 0 0 0 0 0 0 0 0 0 0 0 0 0 0 0 0 0 0 0 0 0 0 0 0 0 0 0 0 0 0 10 9 10 10 10 10 11 13 9 0 0 0 0 0 0 0 0 0 0 0 0 0 0 0 0 0 0 9 0 0 0 0 0 0 0 0 0 0 0 0 0 0 0 0 0 0 0 0 0 0 0 0 0 0 0 0 0 0 0 0 0 0 0 -225 -225 -225 -225 -225 -225 103 101 -193 101 -193 -193 11 10 10 10 10 10 12 -209 -177 -209 -209 -209 -209 -177 -177 -177 -177 -177 -209 -193 0 0 0 10 11 12 13 14 15 -193 -209 -193 -209 -209 -209 0 0 0 0 0 0 0 0 9 9 0 15 12 12 15 17 17 17 16 16 12 15 15 14 16 18 18 16 17 15 17 16 16 15 15 16 17 18 19 19 21 22 22 23 24 24 24 25 25 25 27 27 28 29 29 30 29 29 29 29 29 29 29 29 30 30 30 30 30 32 30 33 34 34 36 37 39 40 41 42 44 45 44 49 46 47 47 46 46 45 45 45 41 42 39 38 40 40 40 38 38 37 36 37 37 -193 39 40 41 55 56 58 59 60 62 61 63 62 63 63 64 64 63 63 67 66 0 0 0 0 0
    0 0 0 0 0 0 0 0 0 0 0 0 0 0 0 0 0 0 0 0 0 0 0 0 0 0 0 0 0 0 0 0 0 0 0 0 0 0 0 0 0 0 0 0 0 0 0 0 0 0 0 0 0 0 0 0 0 0 0 0 0 0 0 0 0 0 0 0 0 0 0 0 0 0 0 0 0 0 0 9 9 9 10 10 10 10 12 0 0 0 0 0 0 0 0 0 0 0 0 0 0 0 0 0 0 0 9 0 0 0 0 0 0 0 0 0 0 0 0 0 0 0 0 0 0 0 0 0 0 0 0 0 0 0 0 0 0 0 0 0 0 -225 -225 -225 -225 -225 -225 -225 105 104 -209 -209 -209 -193 10 10 9 9 9 10 -193 -193 -177 -209 -209 -209 -209 -209 -209 -193 -193 -193 -209 -177 -193 0 9 11 12 14 15 16 17 -209 -193 -209 -209 -193 -193 -193 -209 0 0 0 0 0 0 9 9 0 15 12 12 16 17 17 16 16 16 12 15 14 15 16 17 18 15 17 15 16 15 15 15 16 16 17 17 19 19 21 21 22 23 24 25 25 25 26 26 28 28 29 29 30 31 30 30 30 29 29 30 30 29 30 31 30 31 31 32 30 32 33 32 34 35 37 38 39 41 43 44 43 48 46 47 46 46 46 45 45 45 41 41 37 36 39 40 39 38 38 38 38 39 39 41 40 44 50 56 56 58 58 59 62 61 64 62 63 63 63 64 64 63 67 65 0 0 0 0 0
    0 0 0 0 0 0 0 0 0 0 0 0 0 0 0 0 0 0 0 0 0 0 0 0 0 0 0 0 0 0 0 0 0 0 0 0 0 0 0 0 0 0 0 0 0 0 0 0 0 0 0 0 0 0 0 0 0 0 0 0 0 0 0 0 0 0 0 0 0 9 0 0 0 0 0 0 0 0 0 0 0 9 9 9 9 9 10 0 0 0 0 0 0 0 0 0 0 0 0 0 0 0 0 0 0 0 9 9 9 0 0 0 0 0 0 0 0 0 0 0 0 0 0 0 0 0 0 0 0 0 0 0 0 0 0 0 0 0 0 0 0 0 -225 0 -193 -193 -225 -225 106 107 -209 -209 -209 -193 10 9 9 9 0 10 -193 -193 -177 -209 -209 -209 -209 -209 -209 -193 -193 -193 -209 -177 -209 0 9 13 14 15 17 18 -193 -193 -209 -209 -209 -209 -177 -193 -209 -209 0 0 0 0 0 9 0 0 14 12 12 16 17 16 16 16 16 12 15 14 15 14 16 17 15 17 15 16 16 16 16 16 16 18 17 19 19 21 22 23 24 25 25 25 26 26 26 27 27 28 29 29 30 29 29 30 30 29 30 30 30 31 31 31 31 31 32 30 32 32 32 33 34 36 37 38 40 41 43 43 48 45 47 46 46 46 44 45 45 41 41 37 37 39 40 40 39 39 39 40 40 40 44 44 50 54 57 58 58 59 59 62 61 64 62 63 62 63 64 64 63 67 65 0 0 0 0 0
    0 0 0 0 0 0 0 0 0 0 0 0 0 0 0 0 0 0 0 0 0 0 0 0 0 0 0 0 0 0 0 0 0 0 0 0 0 0 0 0 0 0 0 0 0 0 0 0 0 0 0 0 0 0 0 0 0 0 0 0 0 0 0 0 0 0 0 0 0 0 0 0 0 0 0 0 0 0 0 0 0 0 9 9 9 9 10 0 0 0 0 0 0 0 0 0 0 0 0 0 0 0 0 0 0 0 9 10 10 0 9 0 0 0 0 0 0 0 0 0 0 0 0 0 0 0 0 0 0 0 0 0 0 0 0 0 0 0 0 0 0 -177 -225 0 -193 61 59 -225 -193 -209 19 -209 15 11 10 9 9 0 9 -193 -193 -193 -177 -209 -209 -209 -209 -209 -209 95 95 -193 -193 -177 -209 9 10 15 18 17 19 20 -209 -209 -193 -209 -209 -209 -209 -209 86 91 97 0 0 0 0 0 0 0 14 12 12 15 16 16 16 16 15 11 14 15 15 14 16 16 15 17 16 16 16 16 17 17 17 18 17 19 19 21 22 23 24 25 25 26 26 27 26 27 27 28 28 29 29 29 29 29 29 29 31 30 30 31 31 32 31 31 32 30 32 32 32 32 34 35 36 37 38 40 41 41 47 45 47 46 46 45 44 45 45 41 41 38 38 40 41 41 41 41 41 42 43 44 49 51 55 57 59 59 59 60 60 63 62 65 63 63 63 64 64 64 63 67 65 0 0 0 0 0
    0 0 0 0 0 0 0 0 0 0 0 0 0 0 0 0 0 0 0 0 0 0 0 0 0 0 0 0 0 0 0 0 0 0 0 0 0 0 0 0 0 0 0 0 0 0 0 0 0 0 0 0 0 0 0 0 0 0 0 0 0 0 0 0 0 0 0 0 0 0 0 0 0 0 0 0 0 0 0 0 0 9 9 9 9 9 9 0 0 0 0 0 0 0 0 0 0 0 0 0 0 0 0 0 0 0 9 9 10 0 0 0 0 0 0 0 0 0 0 0 0 0 0 0 0 0 0 0 0 0 0 0 0 0 0 0 0 0 0 0 0 0 0 0 -193 -193 -193 -193 -209 15 17 14 14 12 10 10 9 9 9 -193 -193 -193 -177 -209 -209 -209 -209 -209 -209 92 93 -193 -193 -177 -209 11 12 18 19 19 20 -193 -209 -209 73 -193 -193 -209 -209 83 86 92 97 -209 -193 -193 0 0 0 0 13 12 12 15 16 16 16 15 15 11 15 15 15 14 16 16 16 17 16 16 16 16 17 16 17 18 17 19 20 21 22 24 24 25 25 27 27 27 27 27 27 27 28 29 29 29 28 29 29 28 31 29 30 30 31 31 31 31 32 30 33 32 32 32 34 35 35 35 37 38 40 40 46 44 47 47 46 45 44 45 45 41 42 39 39 41 41 42 42 43 44 44 48 54 54 56 58 58 60 60 60 60 60 63 62 65 63 63 63 64 65 64 63 68 65 0 0 0 0 0
    0 0 0 0 0 0 0 0 0 0 0 0 0 0 0 0 0 0 0 0 0 0 0 0 0 0 0 0 0 0 0 0 0 0 0 0 0 0 0 0 0 0 0 0 0 0 0 0 0 0 0 0 0 0 0 0 0 0 0 0 0 0 0 0 0 0 0 0 0 0 0 0 0 0 0 0 0 0 0 0 0 0 0 0 0 0 0 0 0 0 0 0 0 0 0 0 0 0 0 0 0 0 0 0 0 8 9 10 10 0 0 0 0 0 0 0 0 0 0 0 0 0 0 0 0 0 -177 0 0 0 0 0 0 0 0 0 0 0 0 0 0 0 0 0 -193 -193 -193 -193 -193 14 15 14 13 12 10 10 9 9 10 -193 -177 -209 570 -209 -209 -209 -209 -209 93 92 93 -193 -177 -177 -209 13 13 19 20 20 21 -193 -209 -209 74 74 77 -193 -193 83 86 92 99 -209 -193 -193 -193 0 0 0 13 11 12 15 16 16 15 15 15 12 15 16 15 15 16 16 16 16 14 14 15 15 15 16 16 18 17 19 20 20 22 23 24 25 25 26 26 26 26 27 27 27 28 29 29 28 28 29 29 28 30 29 30 30 31 31 31 31 32 30 33 32 32 32 33 33 32 33 35 36 38 40 46 44 46 47 46 46 45 45 45 41 41 39 39 41 42 43 44 45 48 49 54 57 57 58 60 60 61 61 61 61 60 63 62 65 63 63 64 65 65 65 63 68 64 0 0 0 0 0
    0 0 0 0 0 0 0 0 0 0 0 0 0 0 0 0 0 0 0 0 0 0 0 0 0 0 0 0 0 0 0 0 0 0 0 0 0 0 0 0 0 0 0 0 0 0 0 0 0 0 0 0 0 0 0 0 0 0 0 0 0 0 0 0 0 0 0 0 0 0 0 0 0 0 0 0 0 0 0 0 0 0 0 0 0 0 0 0 0 0 0 0 0 0 0 0 0 0 0 0 0 0 0 0 0 9 9 10 10 0 0 0 0 0 0 0 0 0 0 0 0 0 0 0 0 0 0 0 0 0 0 0 0 0 0 0 0 0 0 0 0 0 0 0 -193 -193 -209 -193 -193 13 14 13 12 12 10 10 9 -193 -193 -177 -177 -177 -209 -209 -209 -209 -209 -209 91 91 92 -209 -177 -193 14 16 15 19 22 22 23 -209 -209 -209 75 74 77 81 83 81 86 92 98 -209 -193 -193 -193 0 0 0 14 12 13 15 16 16 15 15 15 12 15 16 17 15 16 16 16 16 14 14 15 15 16 16 16 17 16 18 20 20 21 23 23 24 24 26 26 26 27 27 27 27 28 29 28 28 28 29 29 28 30 29 30 30 31 31 31 31 32 30 32 31 31 31 31 32 31 32 34 35 38 39 46 44 46 47 46 46 44 45 45 40 41 39 40 41 42 44 46 47 51 51 54 56 57 57 60 59 61 60 60 60 60 64 62 65 64 64 64 65 66 65 63 68 63 0 0 0 0 0
    0 0 0 0 0 0 0 0 0 0 0 0 0 0 0 0 0 0 0 0 0 0 0 0 0 0 0 0 0 0 0 0 0 0 0 0 0 0 0 0 0 0 0 0 0 0 0 0 0 0 0 0 0 0 0 0 0 0 0 0 0 0 0 0 0 0 0 0 0 0 0 0 0 0 0 0 0 0 0 0 0 0 0 0 0 0 0 0 0 0 0 0 0 0 0 0 0 0 0 0 0 0 0 0 0 9 9 10 10 0 0 0 0 0 0 0 0 0 0 0 0 0 0 0 0 0 0 0 0 0 0 0 0 0 0 0 0 0 0 0 0 9 0 0 -193 -193 -193 -193 -209 13 13 13 12 12 10 10 10 -193 -193 -177 -177 330 -209 -209 -209 -193 -209 88 90 90 92 -209 -193 14 14 18 16 20 23 24 24 -209 -209 -209 75 73 77 80 79 77 84 91 97 -209 -193 -177 -193 0 0 0 15 12 13 16 16 15 15 15 16 12 15 16 16 14 15 15 15 15 13 13 14 14 15 15 15 17 15 18 20 19 20 22 23 24 23 26 26 26 26 27 26 26 28 28 28 28 28 29 29 29 31 30 30 30 32 32 31 32 32 31 32 31 31 31 31 32 30 31 33 34 36 39 46 44 46 47 46 46 45 45 45 41 41 40 41 41 43 45 49 50 53 54 56 58 58 59 61 60 62 61 61 61 61 63 62 65 64 63 64 65 65 65 63 67 63 0 0 0 0 0
    0 0 0 0 0 0 0 0 0 0 0 0 0 0 0 0 0 0 0 0 0 0 0 0 0 0 0 0 0 0 0 0 0 0 0 0 0 0 0 0 0 0 0 0 0 0 0 0 0 0 0 0 0 0 0 0 0 0 0 0 0 0 0 0 0 0 0 0 0 0 0 0 0 0 0 0 0 0 0 0 0 0 9 9 9 9 9 0 0 0 0 0 0 0 0 0 0 0 0 0 0 0 0 0 0 9 9 9 10 0 0 0 0 0 0 0 0 0 0 0 0 0 0 0 0 0 0 0 0 0 0 0 0 0 0 0 0 0 0 0 0 9 0 0 -193 -209 -193 14 15 12 12 12 12 12 10 10 10 -193 -177 -177 -177 -209 -209 -209 89 84 84 86 89 89 91 -209 -193 11 12 16 15 20 23 25 25 -209 -209 -209 77 74 77 79 78 75 82 90 -193 -177 -209 -177 -193 0 0 0 13 11 13 14 14 14 14 14 15 13 16 17 16 15 15 15 15 15 13 14 14 14 15 15 15 16 14 17 19 18 19 21 23 23 24 27 27 27 28 28 27 27 28 28 28 28 27 28 28 28 30 30 30 30 32 32 31 32 32 31 32 31 31 31 31 31 30 31 33 33 36 38 46 44 46 47 47 47 45 46 46 41 42 40 41 42 45 48 52 52 54 55 56 57 58 58 61 60 61 61 61 61 61 63 63 65 64 63 64 65 65 65 63 67 63 0 0 0 0 0
    0 0 0 0 0 0 0 0 0 0 0 0 0 0 0 0 0 0 0 0 0 0 0 0 0 0 0 0 0 0 0 0 0 0 0 0 0 0 0 0 0 0 0 0 0 0 0 0 0 0 0 0 0 0 0 0 0 0 0 0 0 0 0 0 0 0 0 0 0 0 0 0 0 0 0 0 0 0 0 0 0 0 0 0 0 0 0 0 0 0 0 0 0 0 0 0 0 0 0 0 0 0 0 0 0 9 9 9 10 0 0 0 0 0 0 0 0 0 0 0 0 0 0 0 0 0 0 0 0 0 0 0 0 0 0 0 0 0 0 0 0 9 0 -193 -193 -209 -193 11 12 10 11 11 12 12 11 11 11 -193 -193 -193 -209 -209 -209 83 86 83 81 85 86 87 90 -209 -193 9 10 14 13 18 23 25 25 -209 -209 -209 82 -209 80 -193 -209 75 81 89 -193 -209 -209 -193 0 0 0 0 11 9 11 13 13 14 13 12 14 12 15 16 15 14 14 14 15 15 13 13 14 14 15 15 14 16 13 16 19 18 19 21 22 23 23 26 26 27 28 29 28 27 -193 -193 -193 28 26 28 27 28 29 29 30 30 32 32 31 32 32 31 32 31 31 30 31 31 30 30 32 33 36 38 47 45 48 48 48 47 46 46 46 42 43 41 42 44 49 51 54 53 55 55 56 57 58 57 60 59 61 60 60 61 61 63 62 64 64 63 64 65 65 65 63 67 63 0 0 0 0 0
    0 0 0 0 0 0 0 0 0 0 0 0 0 0 0 0 0 0 0 0 0 0 0 0 0 0 0 0 0 0 0 0 0 0 0 0 0 0 0 0 0 0 0 0 0 0 0 0 0 0 0 0 0 0 0 0 0 0 0 0 0 0 0 0 0 0 0 0 0 0 0 0 0 0 0 0 0 0 0 0 0 0 0 0 0 0 0 0 0 0 0 0 0 0 0 0 0 0 0 0 0 0 0 0 0 9 9 9 9 0 0 0 0 0 0 0 0 0 0 0 0 0 0 0 0 0 0 0 0 0 0 0 0 0 0 0 0 0 0 0 0 11 11 -193 -193 -209 9 11 12 9 10 10 12 13 12 13 12 -193 -209 -209 -209 -209 -209 86 87 84 84 85 86 87 -193 -193 -193 0 9 11 11 15 22 25 24 -209 -209 -209 -209 -209 82 -209 -209 76 81 88 -209 -209 -209 -193 0 0 0 0 12 10 11 12 12 13 12 11 13 12 14 15 14 14 14 15 15 15 13 14 14 14 15 14 15 16 13 16 19 18 19 20 22 22 23 26 26 27 -193 30 -193 -193 -193 -193 -177 -193 -209 27 26 27 28 29 29 29 31 31 30 31 32 31 31 31 31 30 30 30 30 29 31 33 36 39 48 45 49 48 48 48 47 47 47 43 45 43 44 47 52 53 55 54 55 56 56 57 59 58 61 60 61 61 61 62 61 63 62 63 64 63 64 65 65 65 63 68 63 0 0 0 0 0
    0 0 0 0 0 0 0 0 0 0 0 0 0 0 0 0 0 0 0 0 0 0 0 0 0 0 0 0 0 0 0 0 0 0 0 0 0 0 0 0 0 0 0 0 0 0 0 0 0 0 0 0 0 0 0 0 0 0 0 0 0 0 0 0 0 0 0 0 0 0 0 0 0 0 0 0 0 0 0 0 0 0 0 0 0 0 0 0 0 0 0 0 0 0 0 0 0 0 0 0 0 0 0 0 0 9 9 9 10 0 0 0 0 0 0 0 0 0 0 0 0 0 0 0 0 0 0 0 0 0 0 0 0 0 0 0 0 0 0 0 0 11 10 -209 -193 -209 0 10 -193 9 10 10 13 14 13 14 -209 -209 -209 -209 -209 -193 87 86 87 85 86 86 87 87 90 -193 -193 -209 9 -193 10 13 21 26 23 -209 -209 -209 -209 -209 83 -193 -209 -193 81 -209 -209 -209 0 0 0 0 0 0 13 10 11 12 13 13 12 12 13 12 14 15 15 14 14 15 15 15 14 14 14 14 14 15 15 17 13 18 20 19 19 21 22 23 23 -193 26 -193 -193 -193 -177 -177 -193 -193 -177 -193 -209 27 26 27 28 28 28 28 30 30 30 31 31 31 31 31 31 30 31 29 30 29 31 34 37 39 49 46 49 49 49 49 47 48 48 43 46 45 46 49 54 55 56 55 56 56 56 57 59 58 61 60 61 61 61 62 61 62 62 62 63 62 64 64 64 64 62 67 63 0 0 0 0 0
    0 0 0 0 0 0 0 0 0 0 0 0 0 0 0 0 0 0 0 0 0 0 0 0 0 0 0 0 0 0 0 0 0 0 0 0 0 0 0 0 0 0 0 0 0 0 0 0 0 0 0 0 0 0 0 0 0 0 0 0 0 0 0 0 0 0 0 0 0 0 0 0 0 0 0 0 0 0 0 0 0 0 0 0 0 0 0 0 0 0 0 0 0 0 0 0 0 0 0 0 0 0 0 0 0 10 9 9 10 0 0 0 0 0 0 0 0 0 0 0 0 0 0 0 0 0 0 0 0 0 0 0 0 0 0 0 0 0 0 0 0 10 -209 -209 -193 -193 0 -193 -209 0 0 10 13 -193 13 -209 -193 -209 -209 -209 -209 87 88 87 88 87 87 88 88 89 90 90 -193 -209 -209 260 -193 -193 -193 -209 91 -209 -209 -209 -209 -209 83 85 -193 81 81 -193 -209 -193 0 0 0 0 0 0 11 9 10 11 13 13 12 12 13 12 15 15 15 14 15 15 14 16 14 14 14 14 14 15 15 18 13 19 21 20 20 22 22 23 -193 26 26 -193 -209 -209 -193 -177 -177 -193 -177 -193 -193 27 26 27 28 28 28 28 30 29 29 30 31 30 30 31 31 30 31 30 31 29 31 34 37 39 49 46 49 49 49 49 48 48 49 44 48 46 49 52 56 56 56 55 56 56 56 57 58 57 61 59 61 61 61 62 61 62 62 61 63 62 64 64 63 64 62 67 64 0 0 0 0 0
    0 0 0 0 0 0 0 0 0 0 0 0 0 0 0 0 0 0 0 0 0 0 0 0 0 0 0 0 0 0 0 0 0 0 0 0 0 0 0 0 0 0 0 0 0 0 0 0 0 0 0 0 0 0 0 0 0 0 0 0 0 0 0 0 0 0 0 0 0 0 0 0 0 0 0 0 0 0 0 0 0 0 0 0 0 0 0 0 0 0 0 0 0 0 0 0 0 0 0 0 0 0 0 0 0 10 10 10 11 0 0 0 0 0 0 0 0 0 0 0 0 0 0 0 0 0 0 0 0 0 0 0 0 0 0 0 0 0 0 0 0 11 -209 -193 -193 -193 0 -193 -209 -193 0 -193 -193 -209 -209 -209 -209 -209 -209 -209 88 87 88 87 88 87 87 88 89 89 91 91 92 -193 -193 -193 -193 93 94 88 90 90 -209 -209 -193 85 83 85 84 82 80 85 -209 -209 -193 -193 0 0 0 0 11 9 11 12 14 13 12 12 13 13 15 15 14 14 15 15 14 16 14 14 14 14 14 14 16 18 13 20 21 20 20 21 22 23 -193 -193 -193 -193 -209 -177 -193 -177 -177 -193 -177 -177 -177 26 26 27 27 28 27 28 29 28 29 29 31 30 30 30 30 30 30 29 31 29 31 33 37 39 50 47 49 48 49 49 49 49 50 45 49 49 52 55 57 57 57 56 56 56 56 57 58 57 61 59 61 61 62 62 62 62 62 60 62 -193 -193 63 63 64 63 68 65 0 0 0 0 0
    0 0 0 0 0 0 0 0 0 0 0 0 0 0 0 0 0 0 0 0 0 0 0 0 0 0 0 0 0 0 0 0 0 0 0 0 0 0 0 0 0 0 0 0 0 0 0 0 0 0 0 0 0 0 0 0 0 0 0 0 0 0 0 0 0 0 0 0 0 0 0 0 0 0 0 9 0 0 0 0 0 0 0 0 0 0 0 0 0 0 0 0 0 0 0 0 0 0 0 0 0 0 0 0 0 10 10 10 11 8 0 0 0 0 0 0 0 0 0 0 0 0 0 0 0 0 0 0 0 0 0 0 0 0 0 0 0 0 0 0 0 10 -209 -193 0 0 0 -193 -209 0 0 -193 -209 -209 -209 -209 -209 -209 -209 -193 90 89 88 88 88 87 87 88 89 88 90 90 91 87 88 -209 -193 90 90 87 89 88 90 -193 88 86 84 85 84 83 79 84 -193 -209 -193 384 0 0 0 0 10 9 11 13 14 13 13 13 13 13 15 15 14 13 15 14 14 16 14 14 14 14 15 15 17 18 13 19 20 19 20 21 22 23 -193 -193 -193 31 -209 -177 -177 -193 -177 -193 -177 -177 -177 26 25 27 27 28 27 27 28 27 29 29 30 30 29 30 30 30 30 28 30 28 30 32 35 39 50 47 50 48 49 50 49 50 50 46 51 51 53 55 57 57 57 56 56 56 56 56 58 56 61 59 60 61 62 63 -193 -193 -193 -193 -209 -209 -177 -193 63 65 65 -193 68 0 0 0 0 0
    0 0 0 0 0 0 0 0 0 0 0 0 0 0 0 0 0 0 0 0 0 0 0 0 0 0 0 0 0 0 0 0 0 0 0 0 0 0 0 0 0 0 0 0 0 0 0 0 0 0 0 0 0 0 0 0 0 0 0 0 0 0 0 0 0 0 0 0 0 0 0 0 0 0 0 0 0 0 0 0 9 0 0 0 0 0 0 0 0 0 0 0 0 0 0 0 0 0 0 0 0 0 0 0 0 10 10 10 10 0 0 0 0 0 0 0 0 0 0 0 0 0 0 0 0 0 0 0 9 0 0 0 0 0 0 0 0 0 0 0 0 0 9 0 0 0 0 0 -209 0 -193 -209 -209 -209 -209 -209 -209 -209 92 90 90 88 88 88 88 87 88 88 89 88 89 89 89 86 86 86 86 87 88 86 87 87 88 87 87 85 84 85 85 84 80 84 83 -193 -177 -177 -193 0 0 0 0 0 10 11 11 11 12 11 12 13 14 14 14 13 15 14 14 16 14 14 14 15 15 14 18 18 14 20 20 20 21 22 23 24 26 -193 -193 -193 -177 -177 -177 -193 -193 -193 -177 -177 -177 -209 25 26 26 27 26 27 27 26 28 27 29 29 29 29 29 29 30 28 30 28 30 31 35 39 49 47 50 48 50 50 50 51 51 48 52 52 54 55 56 57 57 55 55 55 56 56 58 56 61 59 60 61 63 -193 -177 -177 -177 -209 -193 -209 -193 145 -193 -193 -193 140 -193 0 0 0 0 0
    0 0 0 0 0 0 0 0 0 0 0 0 0 0 0 0 0 0 0 0 0 0 0 0 0 0 0 0 0 0 0 0 0 0 0 0 0 0 0 0 0 0 0 0 0 0 0 0 0 0 0 0 0 0 0 0 0 0 0 0 0 0 0 0 0 0 0 0 0 0 0 0 0 0 0 0 0 0 0 0 0 0 0 0 0 0 0 0 0 0 0 0 0 0 0 0 0 0 0 0 0 0 0 0 0 9 9 9 9 0 0 0 0 0 0 0 0 0 0 0 0 0 0 0 0 0 0 0 9 0 0 0 0 0 0 0 0 0 0 0 0 0 0 0 0 0 0 0 -209 -193 -209 -209 -209 -209 -209 -209 -209 -193 92 90 90 89 88 88 88 88 88 89 89 87 89 88 89 85 85 85 85 85 86 85 86 85 87 87 87 85 85 85 85 85 82 85 84 81 -193 -177 -193 0 0 0 0 0 9 10 11 11 11 11 11 12 13 13 13 13 15 13 14 17 15 15 15 15 15 15 18 18 14 20 20 20 22 23 23 25 28 -209 -209 -177 -177 -177 -177 -177 -193 -209 -193 -193 -193 -193 -209 26 26 26 25 26 25 25 26 25 27 27 27 28 28 29 29 28 30 29 31 31 36 39 49 48 50 49 50 51 50 52 52 49 52 52 54 55 56 56 56 55 55 54 56 56 57 56 60 59 60 61 -193 -177 -177 -177 -177 -209 -193 148 145 144 142 140 141 141 140 0 0 0 0 0
    0 0 0 0 0 0 0 0 0 0 0 0 0 0 0 0 0 0 0 0 0 0 0 0 0 0 0 0 0 0 0 0 0 0 0 0 0 0 0 0 0 0 0 0 0 0 0 0 0 0 0 0 0 0 0 0 0 0 0 0 0 0 0 0 0 0 0 0 0 0 0 0 0 0 0 9 0 0 0 0 0 0 0 0 0 0 0 0 0 0 0 0 0 0 0 0 0 0 0 0 0 0 0 0 0 0 9 0 0 0 0 0 0 0 0 0 0 0 0 0 0 0 0 0 0 0 0 0 9 0 0 0 0 0 0 0 0 0 0 0 0 0 9 0 0 0 0 0 -209 -209 -193 -209 -209 -209 -209 -209 -193 93 92 90 91 89 88 88 88 88 88 89 90 88 89 89 90 86 86 85 86 85 86 85 85 84 85 86 86 84 84 86 86 86 83 86 85 83 83 -209 -177 -209 0 0 0 0 9 10 11 11 11 11 11 13 13 13 13 13 14 13 14 17 14 15 15 15 15 15 18 18 14 20 19 21 22 23 24 27 -193 -209 -209 -177 -177 -177 -177 -177 -193 -193 -193 -193 -209 -177 -193 26 26 26 25 25 24 24 25 25 26 26 26 27 27 28 29 28 29 29 30 31 35 38 49 48 51 49 50 51 51 52 52 49 53 52 54 55 56 56 56 55 55 54 56 56 58 57 61 59 60 -193 -193 -177 -177 -177 -177 -209 -193 148 145 144 142 141 141 140 140 0 0 0 0 0
    0 0 0 0 0 0 0 0 0 0 0 0 0 0 0 0 0 0 0 0 0 0 0 0 0 0 0 0 0 0 0 0 0 0 0 0 0 0 0 0 0 0 0 0 0 0 0 0 0 0 0 0 0 0 0 0 0 0 0 0 0 0 0 0 0 0 0 0 0 0 0 0 0 0 9 0 0 0 0 0 0 0 0 0 0 0 0 0 0 0 0 0 0 0 0 0 0 0 0 0 0 0 0 0 0 0 9 0 -193 0 0 0 0 0 0 0 0 0 0 0 0 0 0 0 0 0 0 0 8 0 0 0 0 0 0 0 0 0 0 0 0 8 10 8 0 0 0 0 -209 -209 -177 -209 -193 -209 -209 -193 -193 93 92 91 92 90 89 89 89 89 89 90 91 89 89 89 91 87 86 86 86 84 85 85 85 84 85 85 85 83 84 85 85 85 83 86 86 84 84 83 -193 -193 76 -193 9 10 11 11 12 11 11 11 11 12 12 12 13 13 14 13 14 17 14 15 15 15 15 16 18 18 15 20 20 21 23 24 23 27 -209 -209 -193 -177 -177 -177 -177 -177 62 64 61 -209 -209 -193 -193 27 26 27 25 25 25 24 25 25 26 26 26 27 27 28 29 28 29 29 31 31 35 39 49 49 51 50 50 51 51 52 52 50 53 53 54 55 55 56 56 54 55 53 55 56 58 57 61 59 60 -193 -177 -177 -177 -177 -193 -193 146 147 145 144 142 141 141 140 140 0 0 0 0 0
    0 0 0 0 0 0 0 0 0 0 0 0 0 0 0 0 0 0 0 0 0 0 0 0 0 0 0 0 0 0 0 0 0 0 0 0 0 0 0 0 0 0 0 0 0 0 0 0 0 0 0 0 0 0 0 0 0 0 0 0 0 0 0 0 0 0 0 0 0 0 0 9 9 0 9 0 0 0 0 0 0 0 0 0 0 0 0 0 0 0 0 0 0 0 0 0 0 0 0 0 0 0 0 0 0 0 8 0 0 0 0 0 0 0 0 0 0 0 0 0 0 0 0 0 0 0 0 0 0 0 0 0 0 0 0 0 0 0 0 0 0 0 0 0 0 0 0 0 -209 -209 -193 -193 -193 -209 -193 94 -193 93 93 91 92 91 89 89 89 89 89 89 92 89 89 91 92 88 87 87 87 84 85 85 84 84 84 84 85 83 84 85 85 85 82 86 87 83 83 84 83 80 -193 78 0 10 11 12 13 12 13 12 12 13 13 13 13 13 14 12 13 17 14 15 15 15 16 16 18 18 15 20 20 22 23 24 23 -193 -177 -177 -177 -209 61 60 -193 62 62 64 61 -193 -209 -193 28 28 27 28 26 26 25 25 25 25 26 26 26 27 27 28 29 29 30 31 34 33 37 40 49 49 50 49 50 50 51 52 52 50 53 53 54 55 55 55 55 54 54 52 55 55 57 57 61 59 -193 -177 -177 -177 -177 -177 -193 147 146 146 144 144 143 142 141 141 140 0 0 0 0 0
    0 0 0 0 0 0 0 0 0 0 0 0 0 0 0 0 0 0 0 0 0 0 0 0 0 0 0 0 0 0 0 0 0 0 0 0 0 0 0 0 0 0 0 0 0 0 0 0 0 0 0 0 0 0 0 0 0 0 0 0 0 0 0 0 0 0 0 0 0 0 0 0 0 0 0 0 0 0 0 0 0 0 0 0 0 0 0 0 0 0 0 0 0 0 0 0 0 0 0 0 0 0 0 0 0 0 0 0 0 0 0 9 0 0 0 0 0 0 0 0 0 0 0 0 0 0 0 0 0 0 0 0 0 0 0 0 0 0 0 0 0 0 0 0 0 -193 0 0 -209 -209 -193 -193 -177 -177 -193 95 98 94 94 92 94 92 89 89 90 88 88 88 90 87 89 89 90 87 86 86 87 83 85 84 84 84 84 84 84 83 84 84 84 84 81 85 86 83 83 84 84 83 81 -193 0 11 13 12 14 13 14 13 12 14 13 13 13 13 14 12 13 17 14 15 15 15 16 16 18 18 15 20 20 21 22 23 -193 -209 -209 -177 -193 60 62 61 62 63 63 63 62 60 -193 -193 28 28 27 28 27 26 25 25 25 25 26 26 26 27 27 27 29 29 30 34 37 37 40 42 50 49 50 49 50 50 51 52 52 51 53 53 54 55 55 55 55 54 54 51 55 55 56 57 62 -193 -193 -177 -177 -177 -177 174 146 147 146 145 145 144 143 143 142 141 140 0 0 0 0 0
    0 0 0 0 0 0 0 0 0 0 0 0 0 0 0 0 0 0 0 0 0 0 0 0 0 0 0 0 0 0 0 0 0 0 0 0 0 0 0 0 0 0 0 0 0 0 0 0 0 0 0 0 0 0 0 0 0 0 0 0 0 0 0 0 0 0 0 0 0 0 0 0 0 0 0 0 0 0 0 0 0 0 0 0 0 0 0 0 0 0 0 0 0 0 0 0 0 0 0 0 0 0 0 0 0 0 0 0 0 0 0 9 0 0 0 0 0 0 0 0 0 0 0 0 0 0 0 0 0 0 0 0 0 0 0 0 0 0 9 9 10 10 0 9 0 0 0 0 -209 -209 -193 -193 -177 -177 95 95 99 95 94 93 95 92 90 90 90 87 86 87 88 85 87 88 88 86 86 86 87 83 84 84 83 84 84 84 84 82 84 84 84 84 81 85 86 83 83 84 84 83 -193 -177 588 14 15 14 14 13 15 12 12 14 12 12 12 13 14 12 13 17 14 15 15 15 16 16 18 18 16 20 20 21 21 -209 -209 -209 -209 -177 63 62 64 63 63 65 63 65 64 61 -193 -177 28 28 27 28 27 26 25 25 25 26 26 26 26 26 27 27 29 30 31 37 39 40 42 45 51 50 50 49 50 50 51 52 52 51 53 53 54 55 55 55 55 54 54 51 55 55 56 57 63 -193 -177 -177 -177 -177 -177 -193 146 147 145 144 145 145 143 144 142 141 139 0 0 0 0 0
    0 0 0 0 0 0 0 0 0 0 0 0 0 0 0 0 0 0 0 0 0 0 0 0 0 0 0 0 0 0 0 0 0 0 0 0 0 0 0 0 0 0 0 0 0 0 0 0 0 0 0 0 0 0 0 0 0 0 0 0 0 0 0 0 0 0 0 0 0 0 0 0 0 0 0 0 9 0 0 0 0 0 0 0 0 0 0 0 0 0 0 0 0 0 0 0 0 0 0 0 0 0 0 0 0 0 0 0 0 0 0 9 0 0 0 0 0 0 0 0 0 0 0 0 0 0 0 0 0 0 0 0 0 9 9 9 9 10 10 10 11 11 9 10 0 0 0 0 -193 -209 -193 -193 -177 -177 95 94 98 94 93 92 94 91 89 90 90 86 88 87 88 84 87 89 88 87 87 86 87 83 84 84 82 83 84 83 83 82 84 84 85 84 82 85 86 84 83 84 84 83 83 -193 590 -193 15 11 12 12 13 -193 -193 -193 11 11 12 13 13 12 14 17 14 16 15 16 16 16 18 18 16 20 21 20 21 -177 -177 -177 -209 62 65 64 65 64 64 66 64 65 65 62 63 -193 30 29 27 29 28 27 25 25 25 25 25 26 25 26 26 27 29 31 33 39 42 42 44 46 51 50 50 50 50 50 51 52 52 51 54 53 54 55 54 54 54 53 53 50 55 55 57 58 63 61 -193 -177 -177 -177 -193 150 146 147 145 143 145 144 143 144 142 142 139 0 0 0 0 0
    0 0 0 0 0 0 0 0 0 0 0 0 0 0 0 0 0 0 0 0 0 0 0 0 0 0 0 0 0 0 0 0 0 0 0 0 0 0 0 0 0 0 0 0 0 0 0 0 0 0 0 0 0 0 0 0 0 0 0 0 0 0 0 0 0 0 0 0 0 0 0 0 0 0 0 0 9 0 0 0 0 0 0 0 0 0 0 0 0 0 0 0 0 0 0 0 0 0 0 0 0 0 0 0 0 0 0 0 0 0 0 9 0 0 0 9 0 9 0 0 0 0 0 0 0 0 0 0 0 0 0 0 0 9 9 9 9 10 10 11 12 12 10 12 0 0 0 0 -193 -209 -193 -193 -177 -177 95 95 99 92 92 91 93 90 89 88 88 84 87 87 88 84 87 89 89 88 88 87 89 84 84 83 80 82 82 82 82 80 84 85 85 85 83 85 87 84 83 84 84 83 84 84 591 -209 -193 -209 -209 -209 -209 -209 -209 -177 -209 10 11 12 12 12 14 17 15 16 15 16 16 17 18 18 17 20 21 21 21 -177 -177 -193 61 63 66 66 66 65 66 67 65 66 66 64 65 -193 34 32 28 30 29 27 26 25 25 26 25 26 26 26 26 27 30 34 35 40 43 44 45 47 52 50 50 50 50 50 51 53 52 51 54 53 54 55 54 54 54 53 53 49 55 55 57 59 64 60 -193 -177 -193 -177 -177 149 145 147 145 143 145 145 143 145 142 142 139 0 0 0 0 0
    0 0 0 0 0 0 0 0 0 0 0 0 0 0 0 0 0 0 0 0 0 0 0 0 0 0 0 0 0 0 0 0 0 0 0 0 0 0 0 0 0 0 0 0 0 0 0 0 0 0 0 0 0 0 0 0 0 0 0 0 0 0 0 0 0 0 0 0 0 9 0 0 0 0 0 0 9 9 0 9 0 0 0 0 0 0 0 0 0 0 0 0 0 0 0 0 0 0 0 0 0 0 0 0 0 0 0 0 0 0 0 9 0 0 0 9 9 9 0 0 0 0 9 9 0 0 0 0 0 0 0 0 9 10 10 9 10 11 11 12 13 14 10 12 10 0 0 0 12 17 -209 -193 -177 -177 -177 95 99 92 92 91 92 90 88 88 88 84 87 86 87 85 87 89 89 88 88 87 89 84 84 83 80 81 82 82 82 80 83 85 85 85 83 84 86 84 82 84 83 83 84 85 -177 -177 94 -193 -209 -209 -209 -209 -209 -177 -209 -193 12 14 13 12 15 19 17 17 15 16 16 18 18 18 17 20 21 22 -193 -193 -177 -209 61 63 66 65 66 66 67 68 65 66 66 64 66 60 -193 35 30 31 29 28 27 25 25 26 26 27 26 27 27 27 32 36 37 41 45 45 46 48 52 50 50 51 50 50 51 53 52 51 54 53 54 55 55 55 54 54 54 50 56 57 59 60 67 62 -193 -193 -193 -209 -177 148 144 146 144 143 145 145 144 145 142 143 140 0 0 0 0 0
    0 0 0 0 0 0 0 0 0 0 0 0 0 0 0 0 0 0 0 0 0 0 0 0 0 0 0 0 0 0 0 0 0 0 0 0 0 0 0 0 0 0 0 0 0 0 0 0 0 0 0 0 0 0 0 0 0 0 0 0 0 0 0 0 0 0 0 0 0 9 0 0 0 0 0 0 9 9 0 0 0 0 0 0 0 0 0 0 0 0 0 0 0 0 0 0 0 0 0 0 0 0 0 0 0 0 0 0 0 0 0 9 0 0 0 10 10 10 9 9 0 0 9 10 0 0 0 0 0 0 0 0 9 10 11 10 11 11 12 11 12 14 10 11 10 8 0 9 13 16 -209 -193 98 -177 -177 94 98 91 91 90 91 89 88 87 86 83 87 86 87 85 87 88 88 88 88 87 89 85 84 83 80 82 83 83 82 80 83 85 85 85 83 84 86 84 82 84 83 83 85 87 -193 -177 98 -193 -209 -209 -209 -209 -209 -177 -209 -193 13 17 15 14 19 21 19 18 15 16 17 19 18 18 17 20 22 23 -193 -209 -209 -209 62 64 67 66 66 67 68 69 67 67 68 66 68 62 -193 37 32 33 32 30 28 26 26 27 27 28 28 28 28 28 33 37 40 42 46 48 48 49 52 50 50 51 50 50 51 53 52 51 54 53 55 56 55 55 54 55 55 52 57 59 61 62 68 63 -177 -177 -177 -209 -177 148 144 146 144 143 146 145 144 146 142 144 -193 0 0 0 0 0
    0 0 0 0 0 0 0 0 0 0 0 0 0 0 0 0 0 0 0 0 0 0 0 0 0 0 0 0 0 0 0 0 0 0 0 0 0 0 0 0 0 0 0 0 0 0 0 0 0 0 0 0 0 0 0 0 0 0 0 0 0 0 0 0 0 0 0 0 0 9 0 0 0 0 0 0 9 9 0 0 0 0 0 0 0 0 0 0 0 0 0 0 0 0 0 0 0 0 0 0 0 0 0 0 0 0 0 0 0 0 0 10 9 0 0 11 10 11 10 9 0 9 10 10 0 0 0 0 0 0 0 0 9 10 11 11 11 12 12 11 11 13 9 11 10 9 9 10 13 15 15 -209 -177 -177 -177 94 97 90 90 89 90 88 87 86 86 82 87 86 86 84 87 87 87 87 87 86 89 85 84 82 79 83 83 83 83 81 83 85 84 85 83 83 85 84 82 84 83 84 85 89 92 -193 101 -209 -209 -209 -209 -209 -209 -177 -193 -209 13 18 16 15 20 20 18 18 15 17 18 19 18 19 18 20 22 22 22 -209 -209 -209 61 -209 66 66 -193 68 70 70 68 69 70 68 70 68 60 -193 35 35 34 32 29 27 27 28 28 29 28 29 29 29 34 39 42 44 48 49 49 50 52 51 50 51 50 50 50 53 52 51 54 54 55 56 56 55 55 56 56 53 57 60 61 62 68 62 -177 -177 -177 -209 -177 147 144 146 143 143 146 145 144 146 -193 -193 -193 0 0 0 0 0
    0 0 0 0 0 0 0 0 0 0 0 0 0 0 0 0 0 0 0 0 0 0 0 0 0 0 0 0 0 0 0 0 0 0 0 0 0 0 0 0 0 0 0 0 0 0 0 0 0 0 0 0 0 0 0 0 0 0 0 0 0 0 0 0 0 0 0 0 0 9 0 0 0 0 9 -193 -193 9 0 9 9 0 0 0 0 0 0 0 0 0 0 0 0 0 0 0 0 0 0 0 0 0 0 0 0 0 0 0 0 0 0 9 9 0 0 12 11 12 11 10 9 10 10 11 0 0 0 0 0 0 0 0 0 10 11 10 11 12 12 11 10 12 0 10 10 9 9 10 12 14 13 -209 -177 -193 -177 94 97 90 89 89 90 87 86 86 85 81 87 86 85 82 86 86 86 86 86 84 88 85 84 81 79 83 84 83 84 82 83 84 84 85 83 83 85 84 82 85 84 85 86 90 95 -193 -193 -209 -209 -209 -209 -209 -209 -193 -177 -209 -209 -193 17 16 20 19 18 17 15 16 17 18 17 18 18 20 22 22 22 -209 -209 -209 -193 494 -193 -193 -193 68 70 72 70 71 72 71 74 73 67 68 37 37 36 33 30 28 28 28 28 29 28 29 29 30 35 40 43 44 48 49 50 49 52 50 50 50 50 50 50 52 52 51 54 53 54 56 55 55 55 57 57 55 59 61 62 63 67 63 58 -177 -177 -209 -177 -193 143 146 143 144 146 146 144 147 -193 -193 -193 0 0 0 0 0
    0 0 0 0 0 0 0 0 0 0 0 0 0 0 0 0 0 0 0 0 0 0 0 0 0 0 0 0 0 0 0 0 0 0 0 0 0 0 0 0 0 0 0 0 0 0 0 0 0 0 0 0 0 0 0 0 0 0 0 0 0 0 0 0 0 0 0 0 0 9 0 0 0 0 -193 -193 339 -193 0 9 9 0 9 9 0 0 0 0 0 0 0 0 0 0 0 0 0 0 0 0 0 0 0 0 0 0 0 0 0 0 0 9 0 0 0 11 10 11 10 10 9 10 10 10 0 0 0 0 0 0 0 0 0 10 10 10 11 12 12 11 11 13 9 10 10 9 9 9 11 13 12 -177 -209 -209 -177 94 97 89 89 88 89 87 86 85 85 81 87 85 84 81 85 85 85 86 85 84 88 87 86 81 80 84 84 83 84 81 82 84 84 85 84 83 85 84 83 85 84 85 87 92 97 -193 -209 -209 -209 -209 -209 -209 -177 -193 -193 -209 -209 -209 -193 19 21 19 18 17 14 16 16 16 17 18 18 19 21 22 23 21 -209 -193 -193 495 498 -193 -209 69 71 73 73 74 75 74 76 76 74 77 88 -209 -193 36 32 28 28 28 29 31 30 30 31 32 36 41 44 44 47 49 50 49 52 50 50 51 51 50 50 52 52 51 54 53 55 56 56 56 56 57 58 57 60 63 64 64 68 64 58 -177 -177 -193 -177 -193 143 146 143 144 146 146 145 148 -193 -209 70 0 0 0 0 0
    0 0 0 0 0 0 0 0 0 0 0 0 0 0 0 0 0 0 0 0 0 0 0 0 0 0 0 0 0 0 0 0 0 0 0 0 0 0 0 0 0 0 0 0 0 0 0 0 0 0 0 0 0 0 0 0 0 0 0 0 0 0 0 0 0 0 0 0 0 0 0 0 0 9 9 9 -193 10 9 10 10 0 9 9 0 0 0 0 0 0 0 0 0 0 0 0 0 0 0 0 0 8 0 0 0 0 0 0 0 0 0 9 0 0 0 11 10 11 10 9 9 9 10 10 0 0 0 0 0 0 0 0 0 10 10 10 11 12 13 12 12 14 9 10 10 9 9 9 10 12 11 -177 -209 -209 -209 93 94 88 87 87 88 86 86 85 85 83 87 86 85 82 86 85 85 86 86 85 89 87 85 76 76 76 82 78 80 79 81 84 85 86 85 84 85 85 84 84 84 84 86 92 98 -193 -209 -209 -177 -209 -209 -177 -177 -193 -193 56 -209 -209 -209 23 -193 20 20 18 16 18 17 17 18 18 18 18 21 23 23 23 -209 497 497 495 497 -209 -177 -193 70 74 75 76 77 76 77 77 76 81 89 95 92 -209 -209 31 30 29 31 33 32 33 34 36 38 43 45 45 47 49 50 49 52 50 50 51 51 51 50 52 53 52 54 53 54 56 56 56 57 58 59 58 61 64 65 64 68 63 58 -177 -177 -193 -177 -193 143 146 143 144 146 146 145 -193 -209 -209 69 0 0 0 0 0
    0 0 0 0 0 0 0 0 0 0 0 0 0 0 0 0 0 0 0 0 0 0 0 0 0 0 0 0 0 0 0 0 0 0 0 0 0 0 0 0 0 0 0 0 0 0 0 0 0 0 0 0 0 0 0 0 0 0 0 0 0 0 0 0 0 0 0 0 0 9 0 0 9 9 9 9 -193 10 9 10 11 0 9 9 0 0 0 0 0 0 0 0 0 0 0 0 0 0 0 0 0 9 0 0 0 0 0 0 0 0 0 0 0 0 0 10 9 10 9 9 0 9 9 9 0 0 0 0 0 0 0 0 0 9 10 10 10 11 12 11 11 13 9 10 10 9 9 9 10 11 10 14 -209 -209 -209 -177 92 87 86 86 87 86 86 85 85 84 87 87 87 85 86 85 85 86 87 85 87 86 83 73 72 72 72 72 75 75 78 82 85 85 84 84 84 85 84 84 83 84 86 96 99 17 19 -177 -177 0 -209 -209 -193 -209 49 54 53 46 43 37 -193 -193 22 21 18 20 19 19 19 18 17 17 21 23 24 24 -193 497 498 498 -193 -177 -177 -193 70 75 77 78 79 77 78 75 75 82 90 99 92 95 95 -193 -193 -193 34 35 35 35 36 38 39 44 46 45 46 49 50 49 51 50 50 51 51 51 50 52 53 52 54 54 55 56 57 57 57 58 59 59 61 65 66 65 68 63 58 -177 -177 -193 -177 -193 142 145 143 143 146 146 145 -193 -193 -193 69 0 0 0 0 0
    0 0 0 0 0 0 0 0 0 0 0 0 0 0 0 0 0 0 0 0 0 0 0 0 0 0 0 0 0 0 0 0 0 0 0 0 0 0 0 0 0 0 0 0 0 0 0 0 0 0 0 0 0 0 0 0 0 0 0 0 0 0 0 0 0 0 0 0 0 10 0 0 9 9 9 9 -193 10 9 10 10 0 9 9 0 0 0 0 0 0 0 0 0 0 0 0 0 0 0 0 0 8 0 0 9 9 0 0 0 0 0 0 0 0 0 10 9 10 9 9 0 9 9 9 0 0 0 0 0 0 0 0 0 0 9 9 10 11 13 12 12 14 10 11 10 9 9 9 9 10 10 13 -209 -209 -209 -177 91 87 85 85 86 86 87 86 86 85 87 88 87 86 86 84 84 85 86 84 85 84 76 70 69 69 69 70 72 74 75 82 85 86 85 85 84 85 85 84 83 84 86 99 100 18 19 11 10 11 11 -209 -209 -209 47 52 49 45 45 42 43 -209 24 24 22 22 21 20 21 18 15 15 20 24 24 25 -193 498 -193 -193 -193 -209 -177 -177 71 76 78 78 79 75 74 71 70 72 77 80 81 86 87 89 89 91 -193 -209 -209 38 38 40 40 45 47 46 46 48 50 49 51 50 50 51 52 51 51 52 53 52 54 54 55 56 57 57 58 58 60 59 62 65 66 65 68 63 -193 -177 -177 -193 140 144 142 145 142 143 146 146 145 -193 68 72 70 0 0 0 0 0
    0 0 0 0 0 0 0 0 0 0 0 0 0 0 0 0 0 0 0 0 0 0 0 0 0 0 0 0 0 0 0 0 0 0 0 0 0 0 0 0 0 0 0 0 0 0 0 0 0 0 0 0 0 0 0 0 0 0 0 0 0 0 0 0 0 0 0 0 0 11 9 9 9 10 10 10 -193 11 9 10 10 9 9 9 0 0 0 0 0 0 0 0 0 0 0 0 0 0 0 0 0 0 0 0 0 9 0 0 0 0 0 0 0 0 0 10 9 9 0 0 0 9 10 9 0 0 0 0 0 0 0 0 0 0 0 0 10 12 14 15 15 19 -193 -193 12 -193 -193 -209 9 11 10 14 -193 -209 -209 -209 87 87 85 85 86 86 87 87 87 87 88 89 89 88 87 84 84 85 85 81 82 81 74 70 69 69 69 70 73 74 75 81 86 86 85 85 84 85 85 85 84 85 88 100 -193 19 20 15 12 14 15 19 -177 -209 45 49 -193 45 46 45 46 -193 -193 -193 27 27 24 23 23 19 14 15 20 25 25 25 -193 500 -193 32 -193 -209 -177 -177 71 76 76 76 76 72 71 69 67 68 71 70 72 72 82 86 87 90 91 93 92 -209 42 44 43 49 49 47 48 49 50 49 51 50 50 51 51 51 50 51 53 52 54 54 55 56 57 58 59 59 60 60 62 64 65 64 68 64 -193 -177 -177 -193 139 144 142 145 142 143 146 146 145 -193 68 72 70 0 0 0 0 0
    0 0 0 0 0 0 0 0 0 0 0 0 0 0 0 0 0 0 0 0 0 0 0 0 0 0 0 0 0 0 0 0 0 0 0 0 0 0 0 0 0 0 0 0 0 0 0 0 0 0 0 0 0 0 0 0 0 0 0 0 0 0 0 0 0 0 0 0 0 12 10 11 9 10 10 11 -193 12 10 11 11 10 10 9 0 0 0 0 0 0 0 0 -193 0 -193 0 -193 0 0 0 0 9 -209 0 -193 9 0 0 0 0 0 0 0 0 0 10 9 9 0 9 9 9 10 10 0 0 0 9 9 0 0 0 0 0 0 0 10 11 16 20 -209 -209 -209 -209 -209 -209 -209 -209 -209 -193 -193 -193 -193 -209 -209 -209 85 87 85 85 85 86 88 87 88 88 89 90 90 90 88 85 85 86 86 81 80 79 73 70 69 69 68 71 74 75 76 81 85 86 85 85 85 85 86 86 85 86 89 101 -193 20 21 19 15 17 17 -193 -209 -209 46 51 -193 49 50 47 47 -193 -209 -209 -193 39 37 26 26 21 15 16 21 26 25 24 23 -209 -193 31 -193 233 -193 -193 70 75 75 73 72 69 68 67 64 65 65 65 66 71 77 82 85 89 90 92 95 95 86 -209 -209 -209 -193 48 48 50 51 49 50 50 50 51 51 51 50 51 53 53 54 54 55 56 57 58 59 59 60 59 61 63 64 63 67 63 -177 -177 -177 -209 -193 143 141 145 142 143 146 146 145 -193 68 72 69 0 0 0 0 0
    0 0 0 0 0 0 0 0 0 0 0 0 0 0 0 0 0 0 0 0 0 0 0 0 0 0 0 0 0 0 0 0 0 0 0 0 0 0 0 0 0 0 0 0 0 0 0 0 0 0 0 0 0 0 0 0 0 0 0 0 0 0 0 0 0 0 0 0 0 18 20 19 -209 -209 -209 -193 -193 14 12 13 13 11 15 10 0 0 0 0 0 -193 -209 -209 -209 -209 -193 -209 -193 -193 -209 -209 -209 11 -193 -209 -193 -193 -193 -193 -193 0 -193 0 0 0 0 11 9 9 0 9 9 9 11 11 0 0 -209 -193 -209 -193 0 0 0 0 0 0 -209 -209 -193 -209 -209 -209 -193 -209 -209 -209 -209 -209 -209 -209 -209 -209 -209 -209 -209 -209 -193 -193 85 85 86 87 89 89 89 89 90 91 91 92 89 87 87 87 88 81 80 79 72 70 69 70 69 71 74 76 76 80 85 85 85 85 85 86 86 86 85 86 89 98 99 21 23 21 19 21 -193 682 -177 -193 47 51 50 52 51 48 48 -193 -193 -209 -209 -193 42 39 37 23 16 15 20 25 24 23 22 22 -209 29 -193 234 236 -193 69 74 73 70 69 67 66 65 62 62 62 63 64 71 78 85 87 90 91 94 97 93 89 89 87 89 -209 -193 50 51 51 48 49 50 50 50 51 50 49 50 53 53 54 54 55 56 57 58 59 59 60 59 60 62 63 61 67 63 -177 -177 -177 -209 -193 142 141 145 142 143 146 145 145 -193 68 72 69 0 0 0 0 0
    0 0 0 0 0 0 0 0 0 0 0 0 0 0 0 0 0 0 0 0 0 0 0 0 0 0 0 0 0 0 0 0 0 0 0 0 0 0 0 0 0 0 0 0 0 0 0 0 0 0 0 0 0 0 0 0 0 0 0 0 0 0 0 0 0 0 0 0 0 26 35 39 -209 -209 -209 -209 -209 -209 -209 18 19 15 -209 -209 -193 0 0 0 -193 -209 -177 -193 -209 -209 39 42 42 43 42 42 41 -193 39 -209 35 37 40 41 39 38 38 -209 -209 0 0 13 11 10 0 9 9 10 12 12 0 -193 46 -209 43 46 48 48 -193 42 -193 -209 43 44 -209 41 43 41 44 44 44 44 46 45 -193 45 46 -193 44 49 -209 -209 -193 -209 86 86 87 89 90 89 90 90 91 92 92 93 90 88 88 88 89 84 83 81 73 72 70 71 70 73 75 77 77 81 85 85 85 85 85 86 85 86 85 86 89 95 97 -193 -209 -193 -209 -193 -177 -177 -177 45 47 50 50 52 51 50 49 47 42 46 51 52 52 -193 52 -193 16 15 21 27 24 22 22 21 -209 -193 -209 -209 -193 -209 69 73 72 68 66 64 65 64 61 61 61 60 60 69 75 75 88 90 91 94 98 95 92 92 91 92 -209 -193 -193 51 51 48 49 50 50 50 50 50 49 50 53 53 53 54 55 55 57 58 59 59 59 59 60 62 63 61 67 63 -177 -209 -193 -193 -193 142 141 144 142 143 146 145 145 -193 68 72 69 0 0 0 0 0
    0 0 0 0 0 0 0 0 0 0 0 0 0 0 0 0 0 0 0 0 0 0 0 0 0 0 0 0 0 0 0 0 0 0 0 0 0 0 0 0 0 0 0 0 0 0 0 0 0 0 0 0 0 0 0 0 0 0 0 0 0 0 0 0 0 0 0 0 0 35 40 42 43 44 43 43 43 43 -193 -209 -193 -209 -209 42 46 -193 -209 -209 -209 -209 -209 -209 -193 -193 42 44 43 44 43 44 43 43 43 42 41 41 43 43 43 43 42 43 43 -209 0 18 12 10 9 -193 -209 12 15 -209 -209 -209 45 45 43 47 50 48 48 45 46 44 45 46 44 43 46 42 44 44 44 44 45 45 46 45 47 46 45 49 53 -209 -209 -209 -193 86 88 90 91 90 90 91 92 92 92 93 90 89 89 89 90 85 84 81 72 71 70 71 70 74 75 77 78 81 85 85 85 86 85 86 85 86 85 85 88 92 94 101 -193 -177 -177 -177 -177 -193 -177 46 47 50 50 52 50 51 50 49 45 51 55 57 56 58 57 59 59 15 21 29 -193 22 22 20 -209 -209 -209 -209 -209 73 70 73 71 67 64 63 63 63 60 60 60 59 59 64 70 73 87 90 92 94 96 96 93 94 94 94 94 -209 51 52 51 48 49 50 50 50 51 51 50 51 54 54 54 54 55 56 58 58 59 59 60 59 60 61 62 61 67 62 -177 -177 -193 -193 -193 141 140 144 142 143 145 145 145 -193 69 72 69 0 0 0 0 0
    0 0 0 0 0 0 0 0 0 0 0 0 0 0 0 0 0 0 0 0 0 0 0 0 0 0 0 0 0 0 0 0 0 0 0 0 0 0 0 0 0 0 0 0 0 0 0 0 0 0 0 0 0 0 0 0 0 0 0 0 0 0 0 0 0 0 0 0 0 40 42 43 43 44 44 44 43 44 44 43 43 43 43 44 47 49 -209 -209 -209 -193 -193 45 46 44 44 45 45 45 45 45 45 45 45 44 43 44 45 45 46 45 44 44 45 45 -209 23 19 14 11 -209 -209 -209 -193 -193 -209 45 45 46 44 48 50 47 47 46 46 45 46 47 45 44 49 43 44 45 45 45 46 45 46 45 47 47 46 50 52 -193 -209 -209 -193 85 88 91 91 90 90 91 92 93 93 94 91 90 90 90 91 86 85 79 70 70 68 69 70 74 75 77 78 82 85 85 85 85 85 86 85 86 85 84 87 90 92 98 -177 -177 -177 -177 -177 -193 -193 47 48 50 50 52 49 52 50 49 46 53 57 57 57 59 59 60 60 -193 23 35 -209 22 22 -193 -209 -193 -209 -193 75 75 71 73 71 67 64 62 63 62 59 59 59 58 58 61 67 69 78 90 94 95 96 98 95 96 96 96 96 -209 -209 52 51 48 49 50 50 50 51 50 50 50 53 53 54 54 55 55 58 58 58 59 59 58 59 60 62 60 66 61 55 -177 -177 -193 -193 -193 140 144 142 143 145 145 145 -193 69 73 70 0 0 0 0 0
    0 0 0 0 0 0 0 0 0 0 0 0 0 0 0 0 0 0 0 0 0 0 0 0 0 0 0 0 0 0 0 0 0 0 0 0 0 0 0 0 0 0 0 0 0 0 0 0 0 0 0 0 0 0 0 0 0 0 0 0 0 0 0 0 0 0 0 0 0 42 44 45 44 45 45 45 44 45 46 45 46 46 46 46 48 49 47 47 45 48 47 47 47 46 46 46 46 46 45 46 45 46 47 46 45 48 47 47 49 47 46 46 47 46 43 -193 31 -209 -209 -209 -209 -209 -193 -193 -193 46 46 47 44 48 50 47 47 46 47 46 46 47 45 45 51 44 45 46 45 45 46 45 46 44 47 47 46 49 50 52 -209 -209 -209 85 88 92 91 89 91 90 93 92 93 93 90 90 91 91 91 86 85 78 69 71 68 69 71 75 76 78 79 81 84 85 85 85 84 85 85 86 86 85 87 89 91 -193 -177 -177 -177 -177 -177 -193 -193 48 47 48 49 51 46 51 49 49 46 54 58 58 59 61 60 61 61 61 -209 39 -209 -193 -193 -209 521 516 -193 75 77 76 73 73 72 67 64 62 63 62 59 59 59 57 57 59 63 65 -177 90 95 95 98 99 96 97 98 99 -193 -209 -193 -193 51 48 48 50 50 50 51 50 49 50 53 53 54 54 55 55 57 58 58 59 59 58 59 59 61 60 64 61 -177 -177 -177 -193 -193 141 140 144 142 143 145 145 145 -193 70 73 70 0 0 0 0 0
    0 0 0 0 0 0 0 0 0 0 0 0 0 0 0 0 0 0 0 0 0 0 0 0 0 0 0 0 0 0 0 0 0 0 0 0 0 0 0 0 0 0 0 0 0 0 0 0 0 0 0 0 0 0 0 0 0 0 0 0 0 0 0 0 0 0 0 0 0 44 46 46 45 45 46 45 45 46 47 47 47 48 48 48 50 49 48 47 46 49 48 48 48 47 47 47 47 48 46 47 46 47 48 47 47 49 49 48 50 49 47 48 48 47 45 44 45 44 45 -193 -193 -193 45 47 48 47 46 48 46 49 49 48 48 47 48 47 48 48 46 46 51 45 45 46 45 45 45 45 46 44 47 46 46 49 49 51 -193 -209 -209 -209 88 94 91 89 90 90 92 92 92 92 89 90 90 91 91 86 86 -209 67 71 69 70 73 77 78 79 80 82 84 85 85 85 84 85 85 85 86 86 87 89 90 -193 -177 -177 -177 -177 -193 -193 -193 51 50 49 49 51 44 48 48 48 49 55 59 59 60 62 61 63 62 63 60 -209 58 -209 -209 -209 -193 -193 -193 77 78 77 74 74 73 67 65 63 64 63 60 60 59 58 56 58 61 -177 -177 90 97 97 99 100 98 99 100 100 -193 -177 -177 719 -193 48 49 50 50 50 51 50 49 51 52 53 54 54 55 55 57 57 57 59 59 58 59 59 60 59 63 60 54 -177 -177 -193 -193 -193 140 144 141 143 145 145 145 148 71 74 71 0 0 0 0 0
    0 0 0 0 0 0 0 0 0 0 0 0 0 0 0 0 0 0 0 0 0 0 0 0 0 0 0 0 0 0 0 0 0 0 0 0 0 0 0 0 0 0 0 0 0 0 0 0 0 0 0 0 0 0 0 0 0 0 0 0 0 0 0 0 0 0 0 0 0 44 46 46 46 46 46 45 46 47 48 47 48 49 50 49 50 49 49 48 47 50 48 49 48 47 48 47 47 47 46 47 45 47 48 48 49 50 50 49 50 50 49 49 49 48 47 47 49 50 48 50 48 47 48 49 48 48 46 47 46 49 49 48 48 49 49 49 50 50 47 47 52 46 47 47 45 45 46 45 47 44 47 46 46 49 50 51 52 -193 54 -209 87 96 90 89 90 90 91 91 91 91 89 89 90 90 90 86 87 -209 71 75 -193 72 74 79 79 80 81 82 84 85 85 85 84 85 85 85 86 86 87 88 88 -193 -193 -177 -177 -193 -193 51 -193 52 51 51 51 51 44 48 49 50 52 56 62 61 61 64 63 64 63 65 62 57 61 -209 -209 -209 -209 -193 78 78 79 78 75 74 73 67 66 65 65 64 61 61 60 59 57 57 57 -177 -177 91 99 98 100 101 98 99 100 101 -177 -177 -177 -177 -177 49 49 50 49 50 50 50 48 51 52 53 53 54 55 55 56 57 57 59 58 57 58 59 59 59 62 60 54 -177 -177 -177 -193 -193 140 144 141 143 145 145 145 148 -193 75 72 0 0 0 0 0
    0 0 0 0 0 0 0 0 0 0 0 0 0 0 0 0 0 0 0 0 0 0 0 0 0 0 0 0 0 0 0 0 0 0 0 0 0 0 0 0 0 0 0 0 0 0 0 0 0 0 0 0 0 0 0 0 0 0 0 0 0 0 0 0 0 0 0 0 0 45 47 48 47 46 47 46 47 48 49 48 49 50 51 50 51 50 50 49 49 50 48 49 49 48 48 48 48 47 47 48 46 48 50 50 51 52 51 51 51 51 49 50 50 49 49 49 50 51 50 51 50 49 50 49 48 48 46 47 46 49 48 48 49 49 49 49 50 50 48 49 53 47 48 48 47 46 47 46 48 45 48 47 47 50 50 51 52 51 53 -209 -209 -177 90 88 90 90 90 90 90 90 87 89 89 90 89 88 88 -209 -193 -209 -193 72 75 80 80 80 82 82 84 84 85 85 84 85 85 85 86 85 86 85 79 78 -209 -209 -209 54 52 53 53 54 53 52 53 53 46 50 51 53 54 57 64 61 62 65 63 64 63 65 63 58 64 68 -193 -193 -193 79 79 79 80 80 76 74 73 67 66 65 66 65 62 62 61 59 57 56 56 -177 -177 94 101 98 100 101 98 99 101 -193 -177 -177 -177 -177 -177 -193 49 50 50 50 51 50 49 52 53 53 53 54 55 55 56 56 56 58 58 57 58 59 59 59 62 60 54 -177 -177 -177 -193 -193 140 143 141 142 145 145 145 148 -193 76 73 0 0 0 0 0
    0 0 0 0 0 0 0 0 0 0 0 0 0 0 0 0 0 0 0 0 0 0 0 0 0 0 0 0 0 0 0 0 0 0 0 0 0 0 0 0 0 0 0 0 0 0 0 0 0 0 0 0 0 0 0 0 0 0 0 0 0 0 0 0 0 0 0 0 0 46 48 49 47 47 48 46 47 48 50 49 50 51 51 50 51 51 51 50 50 51 50 51 50 49 49 49 49 48 48 49 47 50 51 51 53 52 52 51 52 51 49 50 50 49 50 51 51 52 51 52 51 50 51 50 48 49 47 47 47 50 49 49 49 50 50 49 50 50 49 50 54 49 50 50 49 48 49 47 49 45 50 48 48 51 51 51 51 51 54 -209 -209 94 90 88 89 91 91 90 90 89 88 89 89 90 89 89 90 -209 -193 103 -209 -209 -193 84 83 82 84 83 84 84 85 85 84 85 85 85 86 85 85 82 74 73 73 61 58 55 53 53 54 54 54 53 53 53 47 53 54 57 57 59 68 63 63 66 64 64 63 66 65 59 66 70 -193 76 87 81 81 81 81 81 76 74 73 67 66 65 66 65 62 62 61 60 58 56 57 -177 86 98 103 98 99 101 98 99 100 -177 -177 -177 -177 -177 -177 -193 50 51 50 50 51 51 50 53 53 53 54 55 55 55 56 56 56 58 58 57 58 59 60 59 63 61 54 -177 -177 -177 -193 -193 139 143 141 142 145 144 145 147 -193 77 74 0 0 0 0 0
    0 0 0 0 0 0 0 0 0 0 0 0 0 0 0 0 0 0 0 0 0 0 0 0 0 0 0 0 0 0 0 0 0 0 0 0 0 0 0 0 0 0 0 0 0 0 0 0 0 0 0 0 0 0 0 0 0 0 0 0 0 0 0 0 0 0 0 0 0 46 48 49 48 47 48 46 48 49 50 50 50 51 52 50 52 51 51 51 51 51 51 51 51 50 50 50 50 48 49 50 48 51 52 52 53 52 52 51 52 51 49 50 50 48 51 52 52 53 52 53 52 52 52 51 49 50 47 48 48 51 50 49 50 51 50 50 50 50 49 51 54 50 51 51 51 50 50 49 50 45 51 50 49 51 51 51 51 51 54 -209 -209 -209 87 85 88 90 90 90 90 89 88 89 89 90 89 89 90 -209 -193 -209 -209 -209 -193 84 83 81 84 84 85 85 85 86 85 85 85 85 87 85 85 83 75 73 73 60 57 55 53 53 54 55 54 53 54 53 49 54 55 59 58 59 67 63 63 66 64 64 63 65 65 60 67 70 71 76 87 81 81 81 81 81 77 74 73 67 66 65 65 64 62 61 60 59 57 55 56 59 -209 -177 105 99 99 102 98 99 -193 -177 -177 -177 -177 -177 -177 -209 52 52 51 51 53 51 51 54 54 53 54 55 55 55 55 56 56 58 58 57 58 59 60 61 65 63 55 -177 -177 -177 -193 -193 139 143 141 142 145 144 144 147 -193 78 76 0 0 0 0 0
    0 0 0 0 0 0 0 0 0 0 0 0 0 0 0 0 0 0 0 0 0 0 0 0 0 0 0 0 0 0 0 0 0 0 0 0 0 0 0 0 0 0 0 0 0 0 0 0 0 0 0 0 0 0 0 0 0 0 0 0 0 0 0 0 0 0 0 0 0 48 49 50 49 48 49 47 49 49 51 51 51 52 52 51 52 52 52 52 52 52 52 52 51 51 51 50 50 49 49 50 47 52 51 52 52 52 52 52 51 52 50 51 51 49 52 53 53 53 53 53 52 52 53 51 49 50 49 50 50 52 50 50 51 51 50 50 51 50 50 51 54 51 51 52 51 51 51 50 51 46 51 51 50 52 51 51 51 52 54 -193 -209 -209 82 82 86 88 88 88 89 88 87 88 88 88 87 87 88 56 62 -209 -209 -193 -193 -209 81 79 83 84 84 85 85 86 84 85 85 85 87 86 86 84 78 75 75 62 57 55 54 54 54 55 55 54 54 54 50 54 55 60 58 59 67 63 63 66 64 64 63 65 65 60 67 70 71 76 87 81 81 81 81 81 77 74 73 66 66 65 65 63 61 60 59 58 56 54 55 58 -209 113 -177 100 100 102 98 -193 -177 -177 -177 -177 -177 -177 -177 -209 55 53 52 52 54 52 53 55 55 54 54 55 55 54 55 56 55 58 57 57 58 59 60 61 65 63 55 -177 -177 -193 -193 -193 139 143 141 142 145 144 144 147 141 78 77 0 0 0 0 0
    0 0 0 0 0 0 0 0 0 0 0 0 0 0 0 0 0 0 0 0 0 0 0 0 0 0 0 0 0 0 0 0 0 0 0 0 0 0 0 0 0 0 0 0 0 0 0 0 0 0 0 0 0 0 0 0 0 0 0 0 0 0 0 0 0 0 0 0 0 50 51 51 50 49 50 48 50 50 51 51 52 52 53 52 53 53 53 53 53 53 52 53 51 51 51 50 51 49 50 51 49 53 52 53 53 52 52 52 52 52 51 52 53 51 54 54 54 54 53 54 53 53 54 52 51 52 52 51 51 52 51 51 51 52 51 51 52 51 51 52 54 52 52 53 52 52 51 51 52 46 52 51 50 52 52 52 52 52 55 -209 65 76 79 78 85 87 87 87 88 87 86 87 87 87 86 86 87 56 62 -209 54 -193 -193 -209 82 79 83 84 85 84 85 85 84 84 85 85 87 86 86 85 80 77 76 59 56 55 53 54 54 55 55 54 54 54 51 54 55 60 59 60 67 63 63 66 64 64 63 65 65 60 67 70 71 75 87 80 81 81 81 81 78 74 73 66 65 64 64 63 61 59 58 57 54 52 54 58 -193 -177 -177 -193 100 -193 -193 -193 -177 -177 -177 -177 -177 -177 -177 -209 54 53 52 53 54 52 53 55 54 53 54 54 55 54 55 55 55 57 57 57 58 59 60 61 63 62 55 -177 -177 -209 -193 -193 140 143 141 142 145 144 144 146 -193 78 76 0 0 0 0 0
    0 0 0 0 0 0 0 0 0 0 0 0 0 0 0 0 0 0 0 0 0 0 0 0 0 0 0 0 0 0 0 0 0 0 0 0 0 0 0 0 0 0 0 0 0 0 0 0 0 0 0 0 0 0 0 0 0 0 0 0 0 0 0 0 0 0 0 0 0 52 52 51 51 50 51 49 51 51 52 52 52 52 53 52 54 54 54 54 54 54 53 53 52 52 51 51 51 50 51 52 50 54 53 53 54 52 52 52 52 52 51 53 54 53 56 55 55 55 55 55 55 55 55 54 53 54 54 53 53 53 51 52 52 53 52 52 52 52 51 53 54 53 53 53 53 53 53 52 53 48 52 52 51 52 53 53 53 54 56 -209 67 74 77 77 84 87 86 87 87 87 86 87 87 86 84 86 85 67 66 -209 -193 -193 -177 -209 -193 81 84 84 85 84 85 86 85 85 85 85 87 85 86 85 79 75 74 58 55 55 53 54 54 55 55 54 54 54 51 54 55 60 59 60 67 63 64 66 64 64 63 65 65 59 67 70 70 74 86 80 80 81 81 81 78 74 72 66 65 64 64 63 61 59 57 55 53 51 54 58 -193 -177 -193 -193 99 -193 -193 -193 -177 -177 -177 -177 -177 -177 -177 -209 55 53 54 54 56 55 55 56 55 53 54 54 54 54 54 54 54 57 56 57 58 60 61 60 63 62 -193 -177 -193 -209 -209 141 141 144 141 143 145 144 145 146 141 -193 77 0 0 0 0 0
    0 0 0 0 0 0 0 0 0 0 0 0 0 0 0 0 0 0 0 0 0 0 0 0 0 0 0 0 0 0 0 0 0 0 0 0 0 0 0 0 0 0 0 0 0 0 0 0 0 0 0 0 0 0 0 0 0 0 0 0 0 0 0 0 0 0 0 0 0 52 53 52 52 51 52 51 51 52 52 52 52 53 54 52 54 54 54 54 55 55 54 54 53 52 53 52 53 51 53 53 53 55 54 53 54 51 52 52 51 52 51 53 54 54 56 56 56 56 56 56 56 56 56 55 55 55 56 54 54 54 52 53 53 53 53 52 53 53 52 53 54 54 54 54 54 54 54 54 55 51 53 53 52 53 54 54 54 55 58 -193 -193 73 76 77 83 86 86 86 86 86 86 86 86 85 84 85 83 71 -193 -209 -209 -193 -193 -209 -193 84 85 84 85 84 85 86 86 85 85 85 86 85 86 81 73 68 69 57 56 55 53 54 55 55 55 53 54 54 51 54 55 60 59 60 67 63 64 65 64 64 63 65 65 59 66 69 68 73 86 80 80 80 81 80 77 73 72 65 64 64 63 62 61 59 57 55 53 52 54 58 -193 -177 -209 -193 97 101 -193 -193 -193 -193 -193 -177 -177 -193 -193 -209 55 54 55 55 57 55 56 57 55 54 54 54 54 53 54 54 55 56 56 57 59 60 61 60 63 62 -209 -209 -209 -209 -193 142 141 144 142 143 145 144 145 147 142 -193 -193 0 0 0 0 0
    0 0 0 0 0 0 0 0 0 0 0 0 0 0 0 0 0 0 0 0 0 0 0 0 0 0 0 0 0 0 0 0 0 0 0 0 0 0 0 0 0 0 0 0 0 0 0 0 0 0 0 0 0 0 0 0 0 0 0 0 0 0 0 0 0 0 0 0 0 53 54 53 53 52 53 51 52 52 52 52 53 53 54 53 55 54 55 55 56 55 55 55 54 54 54 53 54 52 54 54 54 55 54 54 54 52 53 52 51 52 51 54 55 55 56 56 56 56 56 56 56 56 56 56 56 56 57 56 55 55 53 54 54 54 53 52 53 53 52 53 54 55 55 55 55 55 55 55 56 54 54 54 53 54 56 55 55 56 61 -193 -193 73 75 77 82 85 85 86 86 87 86 87 -193 85 85 86 82 71 -193 -209 55 55 -209 -209 -209 86 86 84 85 84 86 86 86 85 84 83 83 80 79 70 62 62 65 56 55 54 53 54 55 55 55 54 54 54 52 54 55 60 59 60 67 63 64 65 64 64 62 65 64 59 66 68 67 72 86 79 79 80 80 80 76 73 71 64 63 63 62 61 60 58 57 55 53 53 55 58 -193 -209 -209 -193 95 101 -193 -193 -193 -193 -193 -193 -193 -193 -193 -193 56 54 56 56 57 56 57 58 57 54 55 55 55 54 55 55 55 56 56 57 59 60 61 59 64 -177 -209 -209 -209 -209 137 142 141 144 142 143 146 144 146 147 -193 -193 -193 0 0 0 0 0
    0 0 0 0 0 0 0 0 0 0 0 0 0 0 0 0 0 0 0 0 0 0 0 0 0 0 0 0 0 0 0 0 0 0 0 0 0 0 0 0 0 0 0 0 0 0 0 0 0 0 0 0 0 0 0 0 0 0 0 0 0 0 0 0 0 0 0 0 0 54 55 53 53 52 53 51 52 53 52 52 53 53 54 53 55 55 56 56 56 56 56 56 56 55 55 54 55 54 55 55 55 56 55 54 54 53 54 53 52 53 52 55 55 56 56 56 56 56 56 56 56 56 57 57 57 57 58 57 56 56 55 55 54 54 54 52 54 54 53 54 55 56 56 56 56 56 56 57 57 56 55 55 54 55 57 57 57 58 64 -193 -193 73 75 78 81 85 86 86 86 87 87 -193 -193 -193 87 87 81 70 -209 58 55 56 -209 -209 -209 85 85 84 85 84 86 86 85 83 80 79 77 74 73 63 59 60 61 55 54 54 54 55 55 56 57 55 56 56 56 57 58 64 61 61 67 63 64 65 64 64 63 65 64 59 66 68 67 72 85 78 79 80 80 79 76 73 71 64 64 63 62 61 60 59 57 56 55 54 55 58 65 -209 -209 -193 94 100 -193 -193 -193 97 97 94 97 97 91 99 -193 54 57 57 57 56 58 58 58 56 56 56 56 55 56 56 57 57 56 58 59 62 63 61 66 -209 -209 -209 -209 -209 138 144 141 144 142 143 145 143 145 147 141 -193 -193 0 0 0 0 0
    0 0 0 0 0 0 0 0 0 0 0 0 0 0 0 0 0 0 0 0 0 0 0 0 0 0 0 0 0 0 0 0 0 0 0 0 0 0 0 0 0 0 0 0 0 0 0 0 0 0 0 0 0 0 0 0 0 0 0 0 0 0 0 0 0 0 0 0 0 55 56 54 54 53 53 52 53 53 53 53 54 54 56 55 57 56 57 57 58 57 58 57 57 57 57 56 56 55 56 56 55 56 55 55 55 55 55 54 53 54 54 56 56 57 56 56 56 57 57 57 56 57 57 57 57 57 58 57 56 56 55 55 55 55 54 52 54 54 53 55 57 58 57 58 58 58 58 58 58 57 57 56 55 56 59 59 59 61 68 -209 73 74 75 79 81 84 85 86 86 87 87 -193 -193 -193 88 87 78 71 61 56 55 55 56 -209 75 84 84 83 84 84 87 85 85 82 77 76 73 71 67 60 57 59 60 54 55 55 55 56 56 57 58 57 58 58 60 60 65 69 63 63 68 64 64 65 64 64 63 66 65 60 68 70 70 73 84 78 78 79 79 77 74 72 69 64 64 62 62 61 60 59 57 56 55 54 55 58 65 -209 -209 -193 94 100 95 95 98 97 97 94 97 97 91 98 -193 56 59 58 58 57 58 58 58 57 57 57 58 56 56 57 58 57 57 58 60 63 65 64 -209 -209 -209 -209 -193 -193 139 145 142 144 142 143 145 143 145 146 141 74 72 0 0 0 0 0
    0 0 0 0 0 0 0 0 0 0 0 0 0 0 0 0 0 0 0 0 0 0 0 0 0 0 0 0 0 0 0 0 0 0 0 0 0 0 0 0 0 0 0 0 0 0 0 0 0 0 0 0 0 0 0 0 0 0 0 0 0 0 0 0 0 0 0 0 0 56 58 55 56 55 54 53 54 55 55 -193 57 58 60 59 61 59 59 59 59 59 59 59 59 58 59 58 58 57 59 57 57 57 56 56 57 57 57 57 56 56 56 58 58 61 57 56 57 58 58 58 57 58 57 57 58 57 58 57 56 57 55 55 55 55 54 52 54 54 54 56 58 59 58 59 59 59 59 60 60 59 58 59 58 57 62 62 61 65 70 -209 73 74 76 79 80 82 84 84 84 86 86 87 86 85 86 84 75 71 -193 55 -193 54 55 63 75 84 83 83 83 84 86 85 85 82 76 75 72 69 62 59 57 59 59 54 56 56 57 57 57 58 59 58 60 62 67 66 72 72 67 66 70 65 64 65 64 64 63 66 66 60 70 72 73 75 84 79 78 78 78 76 73 71 68 64 64 62 62 61 60 59 57 56 55 54 56 60 68 -209 -193 -193 94 100 95 96 98 97 97 95 97 96 91 96 -193 57 60 58 58 57 58 58 57 57 57 56 57 56 57 58 59 58 57 59 62 63 66 -193 -209 -209 -209 140 149 141 140 147 142 145 142 143 144 142 144 145 140 -193 71 0 0 0 0 0
    0 0 0 0 0 0 0 0 0 0 0 0 0 0 0 0 0 0 0 0 0 0 0 0 0 0 0 0 0 0 0 0 0 0 0 0 0 0 0 0 0 0 0 0 0 0 0 0 0 0 0 0 0 0 0 0 0 0 0 0 0 0 0 0 0 0 0 0 0 59 65 56 -193 -193 -193 55 57 -193 60 -193 69 72 73 71 70 66 62 63 62 61 63 62 63 62 63 66 64 62 66 62 61 62 63 62 62 66 69 66 68 -193 -209 65 70 71 62 57 58 59 58 60 59 60 58 58 60 59 60 58 57 57 56 56 55 55 55 52 55 55 55 57 60 62 61 62 61 62 61 63 -193 -193 62 68 65 62 67 67 66 68 72 75 74 74 77 81 81 83 84 84 84 85 86 86 84 83 85 81 75 72 -193 54 -193 -193 -193 -193 78 85 83 83 84 84 86 85 85 82 77 75 72 67 60 58 57 59 59 54 57 57 58 58 58 59 60 60 63 68 70 70 74 73 70 69 71 66 65 66 65 65 64 67 67 62 71 74 74 76 84 79 78 78 77 76 73 72 68 64 64 62 63 61 61 60 57 58 57 56 57 63 70 82 -193 93 94 100 95 96 98 97 97 94 96 96 90 95 -193 58 61 58 58 57 57 58 57 57 57 56 58 57 58 59 60 60 58 60 62 64 65 -209 -209 -209 -193 142 150 142 142 148 143 145 143 143 144 141 144 145 140 71 70 0 0 0 0 0
    0 0 0 0 0 0 0 0 0 0 0 0 0 0 0 0 0 0 0 0 0 0 0 0 0 0 0 0 0 0 0 0 0 0 0 0 0 0 0 0 0 0 0 0 0 0 0 0 0 0 0 0 0 0 0 0 0 0 0 0 0 0 0 0 0 0 0 0 0 66 72 57 -193 -193 -193 -193 -193 -193 69 72 74 75 76 75 75 73 69 69 66 66 67 67 68 68 69 72 70 71 70 -193 67 69 70 71 69 72 73 72 73 -193 -209 -209 74 74 -209 -193 60 60 61 65 -193 65 62 63 66 62 64 61 57 57 56 56 56 55 55 54 56 56 58 61 69 67 66 67 66 66 66 -193 -193 -193 -209 74 -193 70 71 70 69 70 74 76 75 75 78 82 81 83 85 84 84 86 86 -193 85 84 85 80 76 76 78 54 -193 -209 75 76 79 86 83 83 84 84 85 85 84 82 77 75 73 68 62 58 58 59 60 56 58 59 60 59 59 60 61 63 68 71 73 73 74 75 72 72 72 68 67 67 66 66 65 69 68 64 73 75 75 76 83 79 78 78 77 75 73 72 69 65 64 62 64 62 62 61 58 61 60 58 61 68 72 84 98 93 93 99 94 95 98 97 97 94 96 96 90 93 -193 65 67 62 60 59 58 58 57 57 57 57 58 58 59 59 60 61 58 61 62 64 -193 -209 -209 -209 -193 140 152 143 142 148 144 145 143 143 144 141 144 144 -193 71 69 0 0 0 0 0
    0 0 0 0 0 0 0 0 0 0 0 0 0 0 0 0 0 0 0 0 0 0 0 0 0 0 0 0 0 0 0 0 0 0 0 0 0 0 0 0 0 0 0 0 0 0 0 0 0 0 0 0 0 0 0 0 0 0 0 0 0 0 0 0 0 0 0 0 0 73 74 73 -193 -193 -193 -193 70 73 73 75 76 77 78 77 77 76 73 73 70 70 70 70 71 71 71 73 73 74 73 -193 72 73 75 75 73 74 75 75 75 76 -193 74 75 75 -193 -209 68 63 65 69 -209 70 -193 71 71 -193 69 66 59 59 57 57 56 55 56 54 57 57 64 68 72 70 69 70 69 69 70 -193 -177 -177 -193 76 76 74 74 73 72 73 76 77 76 76 79 83 82 84 85 84 84 86 86 85 85 85 84 80 77 79 82 -193 -209 75 76 76 79 85 83 82 84 83 85 85 84 82 77 76 74 71 68 60 59 61 62 58 61 63 65 61 62 63 65 69 71 73 74 74 76 77 75 74 74 70 69 69 68 67 66 70 69 67 73 76 76 77 83 79 78 78 77 75 73 72 69 65 65 63 64 62 63 64 60 71 71 66 69 71 75 85 98 93 93 99 94 95 98 96 96 94 96 95 90 91 -193 71 71 69 64 61 60 59 57 58 58 58 59 59 59 60 61 61 59 62 62 67 -209 -209 -209 -209 -193 -193 155 142 142 149 144 145 143 143 143 140 143 144 138 70 69 0 0 0 0 0
    0 0 0 0 0 0 0 0 0 0 0 0 0 0 0 0 0 0 0 0 0 0 0 0 0 0 0 0 0 0 0 0 0 0 0 0 0 0 0 0 0 0 0 0 0 0 0 0 0 0 0 0 0 0 0 0 0 0 0 0 0 0 0 0 0 0 0 0 0 76 76 76 76 75 76 74 74 75 74 78 78 78 79 79 79 78 76 76 73 72 72 73 73 73 73 75 75 76 75 80 75 76 78 77 76 76 77 77 76 77 77 75 76 77 76 74 74 70 72 -193 -193 73 74 74 75 -193 73 -193 65 62 58 58 57 56 57 56 60 67 70 73 74 72 71 72 72 72 73 -193 -193 -177 -193 78 78 76 76 75 74 74 78 78 77 77 81 83 82 84 85 84 85 86 86 86 85 86 85 82 79 81 82 -209 -193 76 77 77 80 85 82 82 83 83 85 85 84 82 77 77 75 73 73 64 62 65 67 61 67 68 68 64 65 66 67 70 73 75 76 76 79 79 77 76 76 72 71 71 70 68 68 71 71 69 74 77 77 78 83 79 78 78 77 75 73 72 69 65 65 63 65 62 65 66 64 74 75 73 74 75 81 87 98 93 93 99 95 96 98 97 96 94 96 95 90 92 91 73 72 73 70 63 63 65 60 64 61 62 62 62 62 62 62 62 59 62 61 67 -209 -209 -209 -193 -193 -193 156 140 141 149 143 144 143 142 142 140 142 142 137 70 68 0 0 0 0 0
    0 0 0 0 0 0 0 0 0 0 0 0 0 0 0 0 0 0 0 0 0 0 0 0 0 0 0 0 0 0 0 0 0 0 0 0 0 0 0 0 0 0 0 0 0 0 0 0 0 0 0 0 0 0 0 0 0 0 0 0 0 0 0 0 0 0 0 0 0 79 77 80 81 80 81 78 78 78 77 82 80 79 80 80 80 79 78 78 75 75 75 76 75 76 75 78 77 79 77 83 77 79 81 79 78 78 79 78 77 78 78 76 77 78 79 76 77 74 76 76 78 76 77 76 77 76 76 75 73 70 67 61 61 58 61 60 69 73 73 77 76 74 74 74 74 74 75 76 -193 -193 -193 79 80 78 78 77 77 77 80 80 79 78 82 84 82 84 85 84 85 86 87 86 86 87 86 83 81 81 81 -193 76 78 78 79 81 85 83 83 84 84 85 85 84 82 77 78 76 75 74 69 66 69 69 67 70 70 69 67 68 69 70 72 76 76 77 77 80 80 78 78 78 74 73 73 73 70 70 73 72 71 74 78 78 79 82 80 79 78 77 75 73 72 69 65 66 63 66 64 66 68 68 75 78 76 77 79 84 88 97 93 93 99 95 96 98 97 96 94 96 95 90 92 91 78 76 78 77 -209 -193 82 74 76 70 71 69 70 70 68 66 66 59 61 61 69 -209 -177 107 111 120 -193 153 140 140 149 143 144 143 142 141 139 140 141 135 69 67 0 0 0 0 0
    0 0 0 0 0 0 0 0 0 0 0 0 0 0 0 0 0 0 0 0 0 0 0 0 0 0 0 0 0 0 0 0 0 0 0 0 0 0 0 0 0 0 0 0 0 0 0 0 0 0 0 0 0 0 0 0 0 0 0 0 0 0 0 0 0 0 0 0 0 83 81 84 84 84 84 82 82 81 79 83 82 80 81 80 81 80 79 80 77 77 77 78 77 78 78 81 81 83 80 85 80 82 83 80 79 79 80 79 78 79 79 77 79 80 81 79 81 79 81 81 82 78 80 78 79 78 78 78 76 74 74 69 71 64 72 71 75 76 76 81 78 76 76 76 76 76 77 78 76 78 79 81 81 79 79 78 79 79 82 81 80 80 84 84 83 84 85 84 85 86 87 85 86 87 86 84 84 82 81 77 78 79 80 80 81 85 83 83 84 84 85 85 84 83 78 79 78 76 75 73 71 72 72 72 73 73 72 70 71 71 72 73 78 77 77 77 81 80 79 79 80 76 76 76 76 73 73 76 74 74 76 80 79 80 82 80 80 80 77 76 73 72 69 66 66 64 67 66 68 71 72 77 81 80 80 81 85 88 97 93 93 99 95 96 98 97 96 94 96 95 90 92 90 79 78 81 79 82 80 84 86 86 83 77 74 74 75 74 73 71 68 71 68 75 88 105 107 115 123 -193 149 139 140 149 143 143 143 142 140 -193 139 140 130 -193 66 0 0 0 0 0
    0 0 0 0 0 0 0 0 0 0 0 0 0 0 0 0 0 0 0 0 0 0 0 0 0 0 0 0 0 0 0 0 0 0 0 0 0 0 0 0 0 0 0 0 0 0 0 0 0 0 0 0 0 0 0 0 0 0 0 0 0 0 0 0 0 0 0 0 0 84 82 85 85 84 85 83 83 82 80 83 82 80 81 81 81 80 80 81 78 79 78 80 79 80 81 84 84 84 83 86 82 83 84 81 80 80 80 80 79 81 80 78 81 82 82 80 82 81 82 82 83 80 82 80 80 80 80 80 79 77 81 76 80 79 81 82 83 81 79 84 80 79 78 79 78 78 79 80 78 80 81 82 82 81 81 80 82 82 84 83 82 82 84 84 84 84 84 84 85 86 87 85 86 87 85 85 85 83 81 79 81 81 82 82 83 85 84 84 85 84 85 85 84 83 78 82 81 78 77 75 74 74 74 74 75 74 74 73 74 74 74 74 79 77 77 77 82 80 80 81 81 79 79 80 80 76 76 79 77 77 78 81 80 81 83 82 81 81 79 77 73 72 69 66 66 65 68 66 69 73 76 80 82 82 82 83 86 89 97 93 94 100 96 97 98 97 97 94 96 96 90 92 90 78 79 82 80 83 83 84 87 87 87 82 79 79 80 78 78 76 75 75 79 82 88 102 106 116 123 135 144 138 139 149 142 143 143 142 140 -193 140 140 132 134 67 0 0 0 0 0
    0 0 0 0 0 0 0 0 0 0 0 0 0 0 0 0 0 0 0 0 0 0 0 0 0 0 0 0 0 0 0 0 0 0 0 0 0 0 0 0 0 0 0 0 0 0 0 0 0 0 0 0 0 0 0 0 0 0 0 0 0 0 0 0 0 0 0 0 0 85 83 85 86 85 85 83 83 82 81 84 82 81 81 81 81 81 81 81 79 80 80 83 82 83 84 85 86 86 85 86 83 84 84 81 80 80 81 81 79 81 81 79 82 82 82 80 81 82 82 82 83 80 83 82 82 82 81 82 81 80 85 81 85 85 85 86 86 84 82 85 82 82 81 81 81 80 82 82 79 82 83 84 84 83 83 82 84 84 84 84 83 83 85 85 84 85 85 84 86 87 87 86 87 87 86 86 86 84 82 81 82 83 83 83 83 86 84 84 85 85 85 84 85 84 80 84 84 82 80 78 77 76 76 76 76 76 75 75 76 75 76 76 80 78 77 78 83 80 81 82 82 80 82 83 83 78 81 83 79 80 80 82 81 82 83 83 83 83 82 82 79 78 74 70 68 69 71 70 72 76 82 83 84 84 84 84 86 89 97 93 93 100 96 97 98 97 97 94 97 96 90 94 90 81 81 83 81 84 84 85 87 88 88 85 85 85 85 85 85 85 86 84 89 87 89 97 103 114 123 135 142 138 139 149 142 143 143 142 141 -193 140 140 133 135 -209 0 0 0 0 0
    0 0 0 0 0 0 0 0 0 0 0 0 0 0 0 0 0 0 0 0 0 0 0 0 0 0 0 0 0 0 0 0 0 0 0 0 0 0 0 0 0 0 0 0 0 0 0 0 0 0 0 0 0 0 0 0 0 0 0 0 0 0 0 0 0 0 0 0 0 86 84 86 86 85 85 84 84 83 82 84 82 81 82 81 82 81 82 82 80 82 82 84 84 85 86 87 87 87 86 87 84 84 84 82 80 81 81 82 80 82 82 80 82 82 82 80 82 83 83 83 84 82 84 83 83 83 82 83 83 81 86 84 86 85 85 85 86 85 84 86 83 83 83 83 82 81 83 83 80 83 83 84 85 84 84 83 84 85 85 84 84 84 86 85 85 85 85 86 86 87 88 87 88 88 87 87 86 85 83 82 82 83 83 83 83 86 84 84 85 85 85 85 85 85 82 85 85 83 83 80 80 79 77 79 78 78 76 77 79 77 78 78 82 79 78 79 83 81 82 83 83 81 84 84 84 82 84 85 83 83 82 84 82 83 83 84 84 85 85 86 85 86 86 86 87 86 88 83 83 84 85 85 85 85 85 85 87 89 96 93 93 99 96 96 98 97 97 95 98 97 91 97 92 83 83 85 83 85 85 85 88 89 89 87 87 87 87 87 88 89 89 88 90 89 91 95 101 104 120 135 141 139 139 149 143 143 143 142 141 -193 141 141 133 134 -209 0 0 0 0 0
    0 0 0 0 0 0 0 0 0 0 0 0 0 0 0 0 0 0 0 0 0 0 0 0 0 0 0 0 0 0 0 0 0 0 0 0 0 0 0 0 0 0 0 0 0 0 0 0 0 0 0 0 0 0 0 0 0 0 0 0 0 0 0 0 0 0 0 0 0 86 85 86 87 85 86 85 85 83 83 85 83 81 82 82 82 82 82 83 81 83 83 85 86 87 87 88 -193 -193 87 87 84 84 84 82 81 82 82 83 81 84 83 81 84 83 83 82 84 86 85 85 85 83 85 84 85 84 83 84 83 83 86 84 86 85 85 86 87 86 85 86 84 84 84 83 83 82 83 83 79 83 84 85 85 84 85 84 85 85 85 85 85 85 86 85 85 85 85 86 87 87 88 87 89 89 88 88 87 86 84 83 83 83 84 83 84 86 84 85 85 85 85 85 86 85 82 86 85 85 84 82 82 81 80 81 81 80 78 80 82 80 80 81 84 80 79 81 84 82 82 84 84 82 84 85 85 84 86 86 85 85 86 86 86 86 83 85 85 86 87 87 87 88 88 88 88 87 88 85 85 85 86 86 85 86 86 86 87 90 97 93 93 100 96 97 99 98 98 95 98 98 92 100 94 86 85 86 85 85 86 85 88 89 89 88 87 87 87 88 88 89 89 89 90 89 91 95 99 103 -209 -177 141 139 139 149 143 143 143 142 141 -193 141 140 133 133 133 0 0 0 0 0
    0 0 0 0 0 0 0 0 0 0 0 0 0 0 0 0 0 0 0 0 0 0 0 0 0 0 0 0 0 0 0 0 0 0 0 0 0 0 0 0 0 0 0 0 0 0 0 0 0 0 0 0 0 0 0 0 0 0 0 0 0 0 0 0 0 0 0 0 0 86 84 85 86 85 86 85 85 84 84 86 84 82 83 83 83 83 83 84 82 85 86 87 88 90 89 90 -193 -193 87 87 85 84 84 83 82 82 82 84 82 85 84 83 84 84 84 84 86 87 87 87 87 85 87 86 86 85 85 85 85 85 87 85 86 85 85 85 87 86 85 87 85 85 85 84 84 83 84 84 79 83 84 85 85 85 85 85 86 86 85 86 85 85 86 86 85 85 85 86 87 87 89 88 89 89 89 89 88 86 84 84 84 84 85 84 85 86 85 86 86 86 86 85 86 86 84 87 86 85 84 83 83 82 81 83 82 81 80 82 84 82 82 82 84 81 80 82 84 82 82 84 85 83 85 85 86 85 87 88 87 87 89 89 89 89 86 88 88 88 89 89 89 90 89 89 89 89 90 88 89 88 87 88 87 87 87 87 88 90 97 93 93 100 96 97 99 98 98 96 99 99 92 103 98 88 85 86 86 84 84 85 88 88 88 88 87 88 88 88 89 89 89 89 90 90 91 95 100 103 -209 -209 138 138 138 149 142 142 142 141 140 140 141 141 134 134 134 0 0 0 0 0
    0 0 0 0 0 0 0 0 0 0 0 0 0 0 0 0 0 0 0 0 0 0 0 0 0 0 0 0 0 0 0 0 0 0 0 0 0 0 0 0 0 0 0 0 0 0 0 0 0 0 0 0 0 0 0 0 0 0 0 0 0 0 0 0 0 0 0 0 0 86 85 86 87 85 86 86 85 84 85 86 84 83 84 84 84 84 85 86 84 87 89 90 92 -193 91 92 -209 -209 87 87 85 85 85 83 82 83 83 85 84 86 85 84 85 85 85 85 86 87 88 87 87 86 87 87 87 86 86 86 86 86 87 86 87 85 86 86 87 87 86 88 86 86 86 86 86 85 85 85 80 83 84 85 86 86 86 86 87 87 86 86 86 85 86 86 86 85 85 86 87 87 89 89 89 90 90 90 88 87 86 85 85 85 86 85 85 86 86 86 86 87 86 85 87 87 85 87 87 87 85 85 85 84 83 84 84 83 83 84 85 84 83 83 84 81 81 82 84 81 82 84 85 84 85 86 86 86 89 89 89 89 90 90 90 89 87 89 89 88 89 89 90 90 90 90 90 89 91 91 91 90 89 90 87 88 88 87 88 91 97 93 93 100 96 97 99 98 98 96 99 100 93 104 -209 -209 -209 -209 140 -193 77 82 86 87 87 86 87 87 88 89 89 90 89 90 91 90 92 95 101 -209 -209 -209 138 138 139 147 141 141 142 141 140 140 141 140 136 135 136 0 0 0 0 0
    0 0 0 0 0 0 0 0 0 0 0 0 0 0 0 0 0 0 0 0 0 0 0 0 0 0 0 0 0 0 0 0 0 0 0 0 0 0 0 0 0 0 0 0 0 0 0 0 0 0 0 0 0 0 0 0 0 0 0 0 0 0 0 0 0 0 0 0 0 -193 85 87 87 86 86 86 85 84 85 86 84 84 85 85 86 86 87 88 86 89 92 94 95 -193 93 -193 -193 -209 -193 -193 -193 86 85 83 82 84 85 -193 87 89 -193 -193 87 87 86 85 87 87 88 87 87 87 88 88 88 87 88 87 88 88 89 88 87 86 87 87 88 88 87 -193 -193 88 88 87 87 86 86 86 81 83 84 86 86 86 87 87 87 87 87 87 87 86 86 86 85 85 85 86 86 86 88 88 88 90 90 90 88 87 86 86 85 85 86 85 86 86 86 86 86 87 87 85 88 88 87 88 88 87 87 86 86 85 85 86 86 85 85 85 86 85 85 84 84 82 81 82 84 82 82 85 86 85 86 87 88 88 90 90 90 90 90 91 91 89 87 89 89 88 89 89 90 90 90 90 90 90 91 91 91 90 90 91 89 88 90 88 89 92 99 94 94 101 97 98 100 98 98 97 100 100 93 -193 -209 -193 -209 -193 142 146 -193 -193 -193 86 87 85 87 87 89 89 90 91 89 90 91 89 91 94 -193 -193 390 -193 140 139 140 146 141 141 142 141 140 140 141 140 137 137 137 0 0 0 0 0
    0 0 0 0 0 0 0 0 0 0 0 0 0 0 0 0 0 0 0 0 0 0 0 0 0 0 0 0 0 0 0 0 0 0 0 0 0 0 0 0 0 0 0 0 0 0 0 0 0 0 0 0 0 0 0 0 0 0 0 0 0 0 0 0 0 0 0 0 0 -193 -193 87 87 86 86 85 84 83 84 86 84 84 86 87 -193 -209 -193 -193 88 -193 -193 -193 -209 -209 -193 -193 -177 -177 -177 805 805 -193 -209 -209 -209 -209 -209 -193 -209 -209 -209 -209 88 87 86 85 87 87 87 87 87 87 88 88 89 88 89 88 89 89 90 89 88 87 89 87 89 -209 -209 -209 -193 -209 -209 -193 -193 86 85 -193 80 83 84 86 87 87 88 88 87 88 87 87 87 86 86 86 85 85 85 86 86 86 88 88 88 -193 -193 90 88 87 87 86 86 86 87 85 86 86 86 86 86 87 87 85 89 88 87 89 89 88 87 86 87 86 86 87 88 87 86 87 88 87 86 86 84 81 81 82 84 82 82 85 87 86 87 88 89 90 91 91 92 90 91 92 91 89 88 90 90 88 90 90 90 90 90 90 90 89 90 91 91 90 91 92 90 90 98 -209 -209 -193 -193 95 96 102 98 98 100 99 99 97 100 100 93 106 -209 -209 137 140 143 145 144 143 -193 -193 87 -193 89 89 91 91 92 93 90 91 91 -193 -193 -193 -209 -193 -193 144 141 141 141 146 141 141 142 141 140 141 141 140 137 139 138 0 0 0 0 0
    0 0 0 0 0 0 0 0 0 0 0 0 0 0 0 0 0 0 0 0 0 0 0 0 0 0 0 0 0 0 0 0 0 0 0 0 0 0 0 0 0 0 0 0 0 0 0 0 0 0 0 0 0 0 0 0 0 0 0 0 0 0 0 0 0 0 0 0 0 -209 -209 -209 -209 -209 -193 -193 82 80 82 84 82 80 -193 -193 492 -193 -193 -209 -209 -209 -209 -209 -209 -209 -193 -193 -177 -177 -177 804 805 806 -209 -209 -209 -209 -209 -209 -209 -209 -209 -209 -193 87 -193 85 87 88 88 87 87 87 88 89 90 88 89 88 89 89 90 89 -193 87 -193 -209 -209 -209 -209 -209 -177 -193 -209 -193 -193 -209 -193 -193 81 84 84 85 87 88 88 88 88 -193 87 88 88 87 87 87 86 86 86 87 87 87 -193 -209 -209 -193 -193 -193 88 88 87 87 87 86 88 86 86 87 86 87 87 87 88 86 90 89 89 90 90 89 -193 87 88 87 87 88 89 -209 -209 -209 -193 -193 88 87 84 81 80 83 84 83 83 86 89 88 89 89 91 91 92 92 93 90 92 93 92 90 89 90 90 88 90 90 91 90 90 90 90 89 91 90 90 90 91 92 -193 92 106 123 132 132 132 -193 99 103 99 99 100 99 99 98 101 101 95 -193 -193 -209 138 141 143 145 144 143 147 144 -209 -193 91 91 93 94 96 99 92 -193 -193 -209 -209 -209 -193 -193 -193 146 142 142 141 145 141 142 142 141 140 141 141 140 137 138 138 0 0 0 0 0
    0 0 0 0 0 0 0 0 0 0 0 0 0 0 0 0 0 0 0 0 0 0 0 0 0 0 0 0 0 0 0 0 0 0 0 0 0 0 0 0 0 0 0 0 0 0 0 0 0 0 0 0 0 0 0 0 0 0 0 0 0 0 0 0 0 0 0 0 0 146 -193 -193 -193 -209 -177 -193 -209 -209 -209 -209 -193 -193 -209 -209 495 -193 -209 -209 -209 -209 -177 -209 -209 -209 -193 -209 -177 -177 -177 804 -209 -209 -209 -209 -209 -209 -209 -209 -209 -193 -209 -209 -209 -209 150 -209 88 89 89 88 88 88 89 89 90 87 89 -193 -193 -193 90 -209 -209 -209 -209 -209 -209 -209 -209 -209 -193 -209 -209 -193 -193 -209 -209 -193 81 83 84 85 86 87 87 87 -193 -209 -193 -209 88 -193 87 -193 -193 -193 87 -209 -193 -209 -177 -177 -177 -193 822 -209 86 87 85 85 86 86 87 85 86 86 86 87 87 88 -209 -209 91 92 90 -193 -209 -193 -193 88 89 88 89 89 91 -209 -193 686 690 692 692 -209 -193 -193 80 85 84 84 85 87 93 89 89 90 93 92 92 92 93 91 93 93 93 90 89 90 90 88 90 90 91 90 90 91 91 89 91 90 90 90 92 93 -193 90 -193 127 135 134 136 -209 -193 104 99 99 101 99 99 99 102 -193 -209 -209 -193 143 140 142 144 145 144 143 146 144 146 144 -193 -193 94 95 99 -209 -209 -209 -193 148 147 145 145 146 146 146 143 144 143 145 142 142 142 141 140 141 141 140 138 139 138 0 0 0 0 0
    0 0 0 0 0 0 0 0 0 0 0 0 0 0 0 0 0 0 0 0 0 0 0 0 0 0 0 0 0 0 0 0 0 0 0 0 0 0 0 0 0 0 0 0 0 0 0 0 0 0 0 0 0 0 0 0 0 0 0 0 0 0 0 0 0 0 0 0 0 145 145 146 -193 -193 802 -177 -209 -209 -209 -209 50 51 -209 -209 497 -209 -209 -193 -209 -209 -209 -209 -209 142 142 142 -193 -209 -193 -193 -193 -193 -209 -193 -193 -209 -193 139 -193 138 143 144 -193 145 147 147 -193 -193 92 -193 -193 -193 -193 89 91 -209 -209 -193 -209 -193 -209 -209 -193 -209 -209 -209 -193 140 139 142 145 146 -209 -209 -209 -209 -209 -209 79 82 83 84 86 87 -193 -193 -193 -177 -209 -209 -209 -209 -209 -193 669 670 -193 671 -193 667 -193 -193 -177 -209 -177 -177 -209 -209 -209 81 83 84 -193 83 85 -193 -193 87 -209 -209 -209 -209 -193 -209 -209 -209 461 462 463 -209 89 89 89 90 93 -209 -193 685 688 690 689 -177 -193 144 142 138 140 -193 -193 88 100 90 89 90 94 93 92 92 93 90 92 93 93 89 88 88 89 87 92 -209 -193 -209 -193 95 95 91 92 90 90 90 93 -209 69 -209 -209 134 138 138 139 -193 -177 -209 -193 -193 -193 -193 -193 -193 -193 -193 -209 -209 -193 144 141 143 144 144 143 143 146 146 148 147 149 149 -193 94 -193 151 152 151 146 148 146 145 145 146 146 146 142 144 143 145 142 142 142 141 140 141 142 140 139 141 140 0 0 0 0 0
    0 0 0 0 0 0 0 0 0 0 0 0 0 0 0 0 0 0 0 0 0 0 0 0 0 0 0 0 0 0 0 0 0 0 0 0 0 0 0 0 0 0 0 0 0 0 0 0 0 0 0 0 0 0 0 0 0 0 0 0 0 0 0 0 0 0 0 0 0 144 145 145 145 145 -193 -193 -209 -209 -209 -193 -209 -193 -209 -193 -209 -193 -193 142 -209 -209 -209 -209 -209 143 142 143 145 148 148 147 146 145 -193 143 143 141 138 139 139 139 143 144 143 144 147 147 146 146 -193 -209 -209 -209 -209 90 -209 -209 -209 -193 -209 -209 -209 -209 -209 -209 141 140 143 141 140 143 145 145 145 141 140 140 -193 -209 -209 -209 82 84 85 -209 -193 -193 -193 -193 -209 -177 -209 -193 668 668 670 671 671 -177 -177 -177 -193 -193 -193 -177 -177 -177 -193 -193 140 -209 -209 -193 -193 82 -193 -193 -193 -193 -209 -209 -193 -209 -209 -209 139 -209 459 460 461 -209 90 91 91 91 96 -209 -193 686 689 690 688 690 -193 142 141 138 140 141 138 -209 -193 91 90 91 96 94 93 92 93 91 93 94 93 89 88 88 -177 -177 -193 139 144 144 -193 -209 -209 -209 -209 -209 -209 92 -209 -209 -193 -209 137 138 140 140 140 138 -193 -209 -193 -193 -177 -193 -193 -177 -177 -177 -177 -209 139 144 142 143 144 143 142 143 146 146 150 149 151 151 152 152 153 152 152 152 147 149 147 146 146 146 146 146 143 144 143 143 142 142 142 141 140 142 142 141 141 143 142 0 0 0 0 0
    0 0 0 0 0 0 0 0 0 0 0 0 0 0 0 0 0 0 0 0 0 0 0 0 0 0 0 0 0 0 0 0 0 0 0 0 0 0 0 0 0 0 0 0 0 0 0 0 0 0 0 0 0 0 0 0 0 0 0 0 0 0 0 0 0 0 0 0 0 143 144 144 144 144 145 146 147 147 146 146 145 144 146 -193 144 143 143 143 143 141 141 142 141 143 142 142 143 147 147 146 146 145 141 142 142 141 139 140 140 139 142 143 142 143 146 146 146 146 146 145 146 -193 147 -193 145 146 145 -193 143 142 142 141 143 141 140 140 143 141 140 143 144 143 144 141 140 140 140 -193 -209 -193 -193 -209 -193 -209 -177 -177 -193 -209 -209 -193 -209 -193 -177 -177 -177 -177 -177 -177 -177 -177 -209 141 144 139 138 -177 140 141 141 142 141 140 145 -193 -193 -193 -193 -193 -193 -193 -193 142 143 139 140 -193 -193 -193 -193 141 -193 -209 -193 -193 -209 -193 -193 689 691 692 691 -193 140 141 141 138 139 140 138 138 139 -193 90 91 98 94 93 93 94 91 93 95 93 89 88 89 -193 -193 -193 140 145 144 141 138 139 139 -209 -209 -209 -209 -209 -193 -193 -193 138 139 142 141 141 140 140 136 -209 -177 -177 -177 -177 -177 -177 -177 -209 139 141 144 142 143 144 143 141 143 146 146 150 151 153 152 153 153 154 154 154 153 149 150 149 147 147 147 147 147 143 145 143 142 142 141 142 141 141 143 143 141 143 146 145 0 0 0 0 0
    0 0 0 0 0 0 0 0 0 0 0 0 0 0 0 0 0 0 0 0 0 0 0 0 0 0 0 0 0 0 0 0 0 0 0 0 0 0 0 0 0 0 0 0 0 0 0 0 0 0 0 0 0 0 0 0 0 0 0 0 0 0 0 0 0 0 0 0 0 142 143 144 144 143 144 145 147 146 146 146 146 144 147 145 146 145 145 143 144 143 142 143 142 143 142 141 142 145 144 144 144 144 141 142 142 141 139 140 140 139 141 142 142 142 145 145 145 145 146 145 146 148 147 146 145 145 144 143 142 142 142 142 143 141 140 141 144 141 141 143 143 142 144 141 141 140 141 141 139 140 140 140 -193 144 -193 -193 -193 144 144 146 143 -193 -193 -193 -193 -193 -193 -193 -193 -193 141 141 145 140 139 141 141 142 141 142 142 140 144 143 142 143 142 143 141 142 142 141 143 140 140 139 139 -193 140 141 142 139 147 -193 146 144 -193 -193 -193 -193 -193 -193 140 141 141 139 139 140 138 139 139 140 90 92 99 95 94 93 94 91 93 96 94 89 88 -177 -193 -193 141 141 146 144 141 139 140 141 -193 -193 -193 -193 138 139 141 139 139 141 143 142 142 141 141 138 142 -209 -193 -177 -177 -177 -193 -193 142 141 143 144 143 143 144 144 141 144 146 146 151 151 153 153 155 154 155 155 155 155 151 151 150 148 148 148 148 148 144 146 144 143 143 143 143 142 142 145 146 143 148 148 148 0 0 0 0 0
    0 0 0 0 0 0 0 0 0 0 0 0 0 0 0 0 0 0 0 0 0 0 0 0 0 0 0 0 0 0 0 0 0 0 0 0 0 0 0 0 0 0 0 0 0 0 0 0 0 0 0 0 0 0 0 0 0 0 0 0 0 0 0 0 0 0 0 0 0 142 143 143 144 143 144 144 146 146 146 146 145 144 147 145 146 145 145 144 145 144 143 144 142 143 142 141 141 144 143 144 144 143 141 142 142 141 140 141 141 140 141 143 142 142 144 144 145 145 145 145 146 147 146 146 144 145 143 142 142 142 142 142 142 141 140 141 145 142 141 144 143 142 144 142 142 141 142 142 140 142 142 142 145 145 145 145 146 144 145 146 143 144 143 142 144 144 144 143 141 142 141 142 146 141 141 143 141 143 142 144 143 140 144 143 142 142 141 142 141 141 141 141 143 140 141 140 141 140 140 141 142 140 145 144 144 142 147 144 142 143 142 141 141 141 141 139 139 141 138 139 139 141 -193 93 -193 97 94 92 94 91 94 97 95 -177 -177 -193 141 141 142 142 146 144 141 140 141 141 141 -193 141 139 140 142 142 141 140 142 145 143 143 142 143 140 144 141 -193 -209 -209 -193 139 147 143 142 143 144 143 143 144 143 140 145 145 145 149 151 153 154 155 154 155 156 156 155 152 152 150 149 149 149 149 149 146 148 145 145 147 146 144 144 145 147 148 148 150 150 150 0 0 0 0 0
    0 0 0 0 0 0 0 0 0 0 0 0 0 0 0 0 0 0 0 0 0 0 0 0 0 0 0 0 0 0 0 0 0 0 0 0 0 0 0 0 0 0 0 0 0 0 0 0 0 0 0 0 0 0 0 0 0 0 0 0 0 0 0 0 0 0 0 0 0 143 143 144 144 144 144 144 146 145 145 145 145 144 146 144 146 145 145 144 145 144 144 144 143 143 142 142 142 144 142 143 144 143 141 142 143 142 141 142 142 141 142 143 142 143 144 144 145 145 145 145 146 147 145 146 144 145 143 141 141 142 142 142 142 141 140 141 146 142 142 144 143 143 144 143 142 141 143 143 141 143 142 143 145 146 145 144 145 144 144 145 143 143 142 142 144 143 143 142 141 142 141 142 147 142 141 143 142 144 143 145 144 140 145 143 142 142 141 142 141 141 141 141 143 141 142 141 142 141 141 142 141 139 143 142 143 141 146 144 142 143 143 141 141 141 142 140 139 141 138 139 140 141 141 138 138 -193 -209 -193 94 91 96 -193 -209 -209 -193 140 142 142 142 142 146 145 141 141 142 142 142 142 143 141 141 144 143 142 141 143 145 142 143 142 144 141 145 143 140 141 142 142 143 149 144 143 144 144 144 143 143 142 138 143 144 145 149 151 153 155 156 155 155 156 157 156 153 153 151 150 150 150 150 150 148 149 145 149 152 150 146 147 148 149 151 152 152 152 152 0 0 0 0 0
    0 0 0 0 0 0 0 0 0 0 0 0 0 0 0 0 0 0 0 0 0 0 0 0 0 0 0 0 0 0 0 0 0 0 0 0 0 0 0 0 0 0 0 0 0 0 0 0 0 0 0 0 0 0 0 0 0 0 0 0 0 0 0 0 0 0 0 0 0 143 143 144 144 143 143 143 145 144 144 144 144 143 146 144 146 145 145 144 145 144 144 144 142 142 141 141 142 143 142 142 144 144 142 143 143 142 142 143 143 141 143 144 143 143 144 144 145 145 145 146 146 147 146 148 147 148 144 143 143 142 143 143 143 141 140 141 146 142 142 145 143 143 144 143 143 142 143 144 142 144 143 144 146 146 144 144 145 143 144 144 142 143 142 141 143 142 142 142 141 142 141 141 147 142 142 144 143 145 143 146 145 141 145 144 142 142 141 142 141 141 141 142 143 141 142 142 142 141 141 142 141 139 141 141 142 141 144 144 142 143 143 142 141 141 142 140 139 141 139 140 141 142 141 140 141 140 138 -193 -209 137 137 137 139 138 142 142 144 143 143 143 146 146 142 142 142 142 142 142 143 141 142 144 144 142 142 144 145 143 145 144 145 142 145 143 142 142 143 143 145 150 145 144 145 145 144 143 143 143 138 145 145 147 150 152 154 156 157 156 156 157 158 157 154 154 152 151 151 152 151 151 149 150 149 153 155 153 148 149 150 152 153 153 153 153 154 0 0 0 0 0
    0 0 0 0 0 0 0 0 0 0 0 0 0 0 0 0 0 0 0 0 0 0 0 0 0 0 0 0 0 0 0 0 0 0 0 0 0 0 0 0 0 0 0 0 0 0 0 0 0 0 0 0 0 0 0 0 0 0 0 0 0 0 0 0 0 0 0 0 0 142 143 143 143 143 143 142 145 143 143 143 144 143 146 143 146 144 145 145 146 145 145 144 143 142 141 141 142 143 141 142 144 143 142 143 144 142 142 143 143 141 143 144 143 142 144 144 145 146 147 147 148 149 148 149 148 149 145 144 144 143 143 143 143 141 140 140 146 142 142 145 143 144 144 143 144 142 144 144 142 144 143 144 146 146 145 144 145 143 144 144 142 143 142 141 143 143 142 142 141 142 141 142 147 142 142 145 144 145 144 146 146 141 146 145 143 143 142 143 141 141 142 143 144 142 143 142 142 142 141 142 140 138 140 140 141 140 143 143 141 142 142 142 141 141 141 140 139 141 139 140 141 142 141 141 142 141 140 140 139 139 140 140 141 141 146 146 146 145 145 144 147 147 143 142 143 142 142 142 143 141 141 144 143 142 142 145 146 144 148 146 147 143 146 144 142 144 144 144 146 150 145 145 145 145 144 143 143 143 138 147 147 149 151 152 154 157 157 156 156 158 159 159 156 156 153 153 153 153 152 153 151 152 152 153 156 155 150 152 152 154 155 155 155 155 156 0 0 0 0 0
    0 0 0 0 0 0 0 0 0 0 0 0 0 0 0 0 0 0 0 0 0 0 0 0 0 0 0 0 0 0 0 0 0 0 0 0 0 0 0 0 0 0 0 0 0 0 0 0 0 0 0 0 0 0 0 0 0 0 0 0 0 0 0 0 0 0 0 0 0 142 143 143 143 143 143 142 145 143 143 143 144 143 145 143 146 143 144 145 146 145 145 144 143 140 -193 140 141 142 141 141 144 143 142 143 143 142 142 142 143 140 142 144 143 142 143 144 145 147 149 148 149 150 149 150 149 149 145 144 144 143 144 143 143 142 140 141 147 142 142 145 143 145 144 144 144 142 144 145 142 145 142 145 146 146 145 145 144 143 144 144 142 143 142 141 143 143 142 142 142 142 141 143 147 143 143 145 145 146 144 146 146 142 146 146 144 143 142 143 142 142 142 143 145 143 143 143 143 142 142 142 140 138 140 139 140 139 142 143 141 142 142 142 141 141 142 140 139 141 140 141 141 141 141 142 142 142 141 141 140 141 143 142 143 143 148 147 147 146 145 145 147 147 143 143 143 142 143 142 144 142 141 143 143 142 143 145 146 145 148 147 148 144 146 144 143 144 144 144 146 150 145 145 145 145 144 143 143 144 139 149 148 149 151 152 154 157 157 156 156 158 160 160 157 158 155 154 154 155 155 155 154 153 154 154 157 157 152 154 154 156 156 156 156 156 156 0 0 0 0 0
    0 0 0 0 0 0 0 0 0 0 0 0 0 0 0 0 0 0 0 0 0 0 0 0 0 0 0 0 0 0 0 0 0 0 0 0 0 0 0 0 0 0 0 0 0 0 0 0 0 0 0 0 0 0 0 0 0 0 0 0 0 0 0 0 0 0 0 0 0 143 143 143 143 143 144 143 146 144 143 143 144 143 145 143 146 144 144 145 146 145 146 143 143 139 -193 139 140 141 140 140 144 143 142 143 143 142 142 142 143 140 143 144 143 142 143 144 145 147 150 149 151 150 149 150 148 149 145 143 144 143 144 143 143 142 141 142 148 143 143 146 143 145 144 144 144 142 145 145 142 145 142 145 146 146 146 145 144 143 145 144 142 143 141 141 142 142 142 142 142 142 141 142 147 143 143 144 144 145 144 147 146 142 146 146 144 143 142 143 141 141 141 143 145 143 144 143 143 143 142 143 141 138 140 139 140 139 142 143 141 142 143 142 142 142 142 141 139 142 140 141 141 141 141 141 142 142 140 140 140 142 144 143 144 145 148 147 148 146 146 145 147 147 143 143 144 142 143 143 144 142 141 144 143 142 144 146 147 145 149 147 148 144 146 144 143 144 144 143 144 150 145 144 145 144 143 143 144 145 139 150 149 149 150 152 153 156 156 156 157 158 161 161 159 160 157 156 157 158 157 158 157 156 156 156 158 159 155 156 156 157 157 157 157 157 157 0 0 0 0 0
    0 0 0 0 0 0 0 0 0 0 0 0 0 0 0 0 0 0 0 0 0 0 0 0 0 0 0 0 0 0 0 0 0 0 0 0 0 0 0 0 0 0 0 0 0 0 0 0 0 0 0 0 0 0 0 0 0 0 0 0 0 0 0 0 0 0 0 0 0 144 144 143 143 142 144 142 145 145 144 143 145 144 146 143 146 144 145 146 147 146 147 144 144 139 -193 -193 140 140 140 139 144 142 142 143 143 142 142 142 143 140 144 145 145 143 145 147 148 150 152 150 151 150 149 150 148 149 145 143 145 143 144 143 143 142 141 142 148 143 143 146 144 146 144 144 145 142 145 145 142 146 142 146 146 146 146 144 143 143 144 143 142 143 141 141 142 142 142 141 142 142 141 143 147 143 143 144 145 145 145 147 146 143 147 146 145 143 142 143 141 141 140 142 144 142 143 143 143 142 142 143 141 139 140 139 140 139 142 144 142 143 143 143 142 142 143 141 139 142 141 141 141 141 140 140 141 141 140 139 139 141 143 143 144 145 148 147 148 147 146 144 146 148 143 143 144 142 143 143 145 143 141 145 143 143 145 146 147 145 148 148 148 144 146 144 143 143 143 142 142 150 144 144 144 144 143 143 144 145 139 151 150 150 150 151 153 156 155 155 156 158 162 162 160 161 157 158 159 160 161 162 162 161 160 160 162 162 163 159 157 159 157 158 157 158 158 0 0 0 0 0
    0 0 0 0 0 0 0 0 0 0 0 0 0 0 0 0 0 0 0 0 0 0 0 0 0 0 0 0 0 0 0 0 0 0 0 0 0 0 0 0 0 0 0 0 0 0 0 0 0 0 0 0 0 0 0 0 0 0 0 0 0 0 0 0 0 0 0 0 0 144 144 143 143 142 144 143 146 145 145 144 145 145 147 144 147 145 147 149 150 -209 -209 -209 -193 -193 -209 -209 141 -193 139 139 143 141 141 142 142 141 142 142 143 140 145 147 147 147 148 151 151 153 155 153 152 151 150 150 148 149 144 143 145 143 144 143 143 143 141 142 148 143 143 147 144 146 144 144 145 142 145 145 142 146 142 147 147 147 147 145 143 143 143 142 141 142 140 141 141 141 141 141 141 141 140 142 146 143 142 143 144 145 144 147 146 143 146 146 145 143 143 143 141 142 140 142 143 142 143 142 142 142 141 143 141 139 140 139 141 140 143 144 142 143 143 143 143 143 144 142 140 143 142 142 140 141 139 140 140 141 139 138 139 140 141 142 142 144 147 146 148 146 145 144 145 147 143 143 143 142 143 143 145 143 141 145 143 143 146 147 147 145 149 148 148 144 145 143 143 144 143 142 142 150 144 144 144 144 143 144 145 146 140 151 151 150 150 151 152 155 154 155 155 157 160 161 161 161 157 161 161 161 164 -193 165 165 165 165 166 167 169 165 162 161 158 158 158 159 159 0 0 0 0 0
    0 0 0 0 0 0 0 0 0 0 0 0 0 0 0 0 0 0 0 0 0 0 0 0 0 0 0 0 0 0 0 0 0 0 0 0 0 0 0 0 0 0 0 0 0 0 0 0 0 0 0 0 0 0 0 0 0 0 0 0 0 0 0 0 0 0 0 0 0 145 145 144 144 143 146 -193 149 147 146 145 146 146 147 145 148 146 148 -193 -209 -209 -209 -209 -193 -209 -193 -193 -209 -193 140 139 144 141 141 142 142 141 142 142 144 141 147 149 148 -193 151 153 154 154 156 154 152 152 150 150 148 149 145 143 146 143 146 144 144 145 142 143 149 142 143 146 143 146 144 144 145 143 146 146 143 147 143 149 149 149 149 146 144 143 143 141 140 141 140 140 140 141 140 140 139 140 139 141 145 142 142 143 144 145 144 146 146 142 146 147 145 143 144 145 143 143 141 143 144 142 143 142 141 141 140 142 140 139 139 139 140 140 142 144 142 143 143 144 143 143 144 142 140 144 142 142 140 140 138 138 138 139 137 137 138 139 141 141 142 144 146 145 147 146 145 144 145 148 143 143 144 142 143 144 145 144 141 147 144 146 149 148 148 147 149 148 146 144 145 143 143 144 143 143 143 150 144 144 144 144 143 144 145 146 140 152 151 151 151 151 153 155 154 155 156 157 160 161 161 160 156 161 163 163 166 166 167 168 168 167 169 170 171 169 167 164 160 159 159 160 160 0 0 0 0 0
    0 0 0 0 0 0 0 0 0 0 0 0 0 0 0 0 0 0 0 0 0 0 0 0 0 0 0 0 0 0 0 0 0 0 0 0 0 0 0 0 0 0 0 0 0 0 0 0 0 0 0 0 0 0 0 0 0 0 0 0 0 0 0 0 0 0 0 0 0 145 145 144 144 143 147 -193 150 148 147 146 147 146 148 146 148 146 149 -209 -209 -209 -193 -209 177 179 175 175 -193 -209 -209 140 145 141 141 142 143 142 143 143 145 141 149 150 150 -193 153 156 156 156 158 155 153 154 152 -193 149 151 147 145 148 145 147 145 146 147 144 146 149 144 145 148 145 147 144 145 145 143 146 146 143 148 144 150 150 150 151 148 144 144 142 141 140 141 139 140 140 140 139 139 137 139 137 140 144 142 142 144 144 145 145 147 146 143 147 147 146 145 145 146 143 144 142 144 144 142 143 141 140 140 140 141 139 139 137 138 139 -193 142 144 142 143 143 144 143 144 144 143 141 145 143 143 141 141 139 139 139 140 137 136 138 139 141 141 141 144 146 145 148 147 146 145 146 149 143 144 145 143 144 145 146 145 142 149 146 148 151 149 149 149 150 149 146 145 145 143 144 144 142 142 142 150 144 144 144 143 143 144 145 146 139 152 152 152 152 152 153 155 154 155 156 156 158 160 161 158 156 161 165 166 168 168 169 171 170 170 171 172 172 172 169 166 162 162 161 162 162 0 0 0 0 0
    0 0 0 0 0 0 0 0 0 0 0 0 0 0 0 0 0 0 0 0 0 0 0 0 0 0 0 0 0 0 0 0 0 0 0 0 0 0 0 0 0 0 0 0 0 0 0 0 0 0 0 0 0 0 0 0 0 0 0 0 0 0 0 0 0 0 0 0 0 145 145 144 144 144 -193 -193 -209 149 -193 147 148 147 149 147 149 147 151 -209 -209 -193 176 177 176 178 175 175 175 174 -209 141 147 142 142 142 143 144 145 146 148 143 151 -193 153 162 165 163 163 161 163 161 -209 -209 -209 -209 -209 -193 -193 -193 148 145 148 145 147 -193 148 149 151 146 148 149 147 148 145 146 146 144 147 147 144 149 146 -193 -209 -209 -193 -193 146 148 142 140 139 141 139 140 138 138 137 -193 135 -209 135 -193 142 141 142 144 144 146 146 148 146 144 148 148 148 147 146 146 144 146 143 146 -193 -193 145 143 142 141 -193 -193 -193 138 -209 -209 -209 -193 141 143 142 143 144 144 144 144 145 143 142 147 144 144 143 143 141 142 142 144 139 136 -193 -193 143 144 143 146 147 147 149 148 148 147 148 150 144 145 146 143 145 145 147 145 142 150 148 151 154 152 151 151 151 151 149 149 148 147 148 146 144 143 142 150 144 143 143 143 143 144 146 147 140 152 152 152 152 152 153 155 154 154 155 156 157 158 160 158 158 164 169 171 171 173 173 173 173 172 173 173 173 174 170 167 164 164 164 164 164 0 0 0 0 0
    0 0 0 0 0 0 0 0 0 0 0 0 0 0 0 0 0 0 0 0 0 0 0 0 0 0 0 0 0 0 0 0 0 0 0 0 0 0 0 0 0 0 0 0 0 0 0 0 0 0 0 0 0 0 0 0 0 0 0 0 0 0 0 0 0 0 0 0 0 -193 146 145 -193 145 -209 -209 -209 -193 -193 148 150 149 150 -193 151 151 156 169 173 173 177 177 176 177 175 176 176 175 176 -193 148 143 143 144 145 147 -193 -193 -193 147 152 -193 169 170 170 166 167 166 167 169 -193 173 -193 -193 -193 177 -193 -209 -209 -193 149 -209 -193 -209 -209 -193 155 149 150 151 149 150 146 147 147 145 148 148 -193 150 -193 -209 -209 -209 -193 -193 -209 -209 -209 138 138 141 138 140 137 136 135 -193 131 -209 -209 -209 -209 -193 140 144 143 147 149 150 149 148 -193 -193 -193 150 151 149 147 150 -193 151 -209 -209 -209 -209 -209 -209 -193 -209 -209 -209 -209 -209 -209 -209 142 144 143 144 145 145 144 145 146 145 144 149 148 148 149 -193 145 -193 -209 -209 142 -193 -193 140 146 146 145 147 148 148 150 149 149 148 149 151 145 145 146 142 146 145 147 145 -193 151 -193 153 156 155 154 154 153 155 -193 -193 151 151 -193 -193 149 149 147 151 145 144 144 144 143 144 146 147 140 151 152 152 151 152 153 154 154 154 155 155 157 158 160 159 162 168 172 175 177 178 177 177 177 176 176 175 176 175 171 169 167 166 166 167 166 0 0 0 0 0
    0 0 0 0 0 0 0 0 0 0 0 0 0 0 0 0 0 0 0 0 0 0 0 0 0 0 0 0 0 0 0 0 0 0 0 0 0 0 0 0 0 0 0 0 0 0 0 0 0 0 0 0 0 0 0 0 0 0 0 0 0 0 0 0 0 0 0 0 0 -209 -193 -209 -209 -209 -177 -209 -209 -209 -209 150 151 150 152 -209 -209 -209 169 171 175 175 177 177 176 177 176 176 177 175 177 174 173 -209 -209 -193 149 -209 -193 -193 -209 -209 -193 172 173 173 172 169 170 169 171 172 174 175 176 177 179 179 181 179 181 -193 178 180 -209 174 175 171 171 -193 -209 -209 151 151 148 148 148 -193 -193 -193 -193 150 -209 -209 -209 -193 -193 171 -209 -193 -193 -193 -193 -209 136 138 135 -209 -193 -209 -193 -209 -209 -209 -209 -209 -209 146 -209 148 -193 171 -193 -193 171 173 174 171 170 -209 151 154 -209 157 -193 -209 -209 -209 -209 -209 -209 -209 -193 -209 -209 -209 -209 -193 -193 -193 146 146 147 146 146 147 147 147 150 155 156 158 167 172 -193 172 176 173 -193 -209 -209 -209 151 150 -193 -193 -193 -193 151 -193 -193 150 151 152 147 146 -193 141 147 146 148 147 144 -193 -193 156 159 159 157 160 160 163 168 170 -193 170 171 171 -193 161 154 -193 147 145 144 144 144 145 146 147 139 151 152 152 151 152 153 154 154 154 156 156 157 158 161 159 -193 170 174 178 180 179 178 179 179 178 177 176 176 174 173 172 169 168 168 169 168 0 0 0 0 0</data></disparity>
</opencv_storage>
