<?xml version="1.0"?>
<opencv_storage>
<gps_time_stamp>25132</gps_time_stamp>
<gps_x>-5.0225033760070801e+000</gps_x>
<gps_y>5.9339249134063721e-001</gps_y>
<gps_z>-1.0122988224029541e+000</gps_z>
<image_time_stamp>13064</image_time_stamp>
<disparity type_id="opencv-matrix">
  <rows>81</rows>
  <cols>320</cols>
  <dt>s</dt>
  <data>
    0 0 0 0 0 0 0 0 0 0 0 0 0 0 0 0 0 0 0 0 0 0 0 0 0 0 0 0 0 0 0 0 0 0 0 0 0 0 0 0 0 0 0 0 0 0 0 0 0 0 0 0 0 0 0 0 0 0 0 0 0 0 0 0 0 0 0 0 0 130 130 129 131 128 129 129 129 129 128 128 129 125 131 129 129 130 128 129 128 128 130 129 130 128 127 128 128 127 128 126 126 126 128 129 131 130 129 129 128 128 128 127 127 125 127 131 129 130 132 132 131 131 131 128 127 125 125 124 123 123 124 123 126 124 127 127 127 131 128 128 128 127 128 127 128 128 123 125 125 127 126 128 127 124 130 129 129 129 128 127 127 127 127 125 126 125 125 125 126 127 124 125 125 124 126 126 127 125 125 127 128 127 129 129 129 128 130 128 129 126 126 126 125 127 125 125 125 125 125 125 128 126 125 126 125 126 -177 -177 -193 -177 -177 -209 -209 -209 -209 -209 229 229 230 231 231 232 232 232 -209 -177 235 240 248 245 239 239 239 239 240 239 240 238 235 246 247 246 245 245 245 246 246 247 247 -209 -209 259 -209 121 122 128 126 127 127 130 132 132 -193 133 133 -177 159 172 180 181 183 183 190 195 193 195 195 193 194 194 194 193 191 192 190 189 191 195 197 199 202 204 203 203 203 203 203 203 202 201 202 203 203 -193 138 137 137 137 136 137 137 137 138 137 137 0 0 0 0 0
    0 0 0 0 0 0 0 0 0 0 0 0 0 0 0 0 0 0 0 0 0 0 0 0 0 0 0 0 0 0 0 0 0 0 0 0 0 0 0 0 0 0 0 0 0 0 0 0 0 0 0 0 0 0 0 0 0 0 0 0 0 0 0 0 0 0 0 0 0 130 130 129 131 128 128 129 129 129 128 128 129 125 130 129 129 129 128 128 128 128 130 129 129 128 127 128 129 128 129 127 128 128 130 130 132 130 129 129 128 128 127 127 127 125 126 131 128 129 131 131 130 130 130 128 126 126 126 124 123 124 124 124 126 124 128 127 127 131 128 128 128 128 128 127 129 128 123 126 125 126 125 127 126 124 131 130 130 131 130 129 128 129 129 127 128 127 126 126 128 129 125 126 126 125 127 126 127 126 125 128 128 127 129 129 130 128 130 129 129 127 127 127 126 129 126 126 128 127 127 127 130 127 127 128 127 128 -177 -177 -193 -177 -177 -193 -209 -209 -209 -209 228 228 229 230 230 231 231 230 221 233 240 240 247 243 239 238 239 239 239 239 239 237 236 245 246 245 243 242 243 244 245 246 245 -193 -209 -209 -209 121 122 130 127 127 127 131 133 -193 -193 134 133 145 161 172 180 180 182 182 189 194 192 195 194 193 194 193 194 192 191 192 189 188 191 195 198 201 204 205 204 204 204 204 204 204 202 201 202 203 -193 137 138 138 138 137 137 137 137 138 138 138 137 0 0 0 0 0
    0 0 0 0 0 0 0 0 0 0 0 0 0 0 0 0 0 0 0 0 0 0 0 0 0 0 0 0 0 0 0 0 0 0 0 0 0 0 0 0 0 0 0 0 0 0 0 0 0 0 0 0 0 0 0 0 0 0 0 0 0 0 0 0 0 0 0 0 0 130 130 129 131 128 128 129 128 129 128 128 129 124 130 129 129 129 127 127 127 127 128 127 128 127 127 127 128 127 129 127 129 129 131 130 133 130 129 130 128 128 127 127 127 125 126 131 127 129 130 131 130 130 130 128 126 126 126 124 123 124 124 124 126 124 127 127 127 131 128 128 128 127 128 127 129 128 123 126 124 125 125 127 126 123 132 130 131 131 130 130 129 130 130 127 129 128 127 127 129 129 125 126 126 125 127 126 127 126 126 128 128 127 129 130 130 129 130 129 130 128 127 127 126 130 127 126 128 127 127 128 131 128 127 128 128 128 -177 -177 -193 -177 -177 -209 -209 -209 -209 -193 227 226 228 228 228 230 230 227 225 234 237 238 246 241 238 238 238 238 238 239 239 236 237 244 245 243 241 241 242 244 245 245 244 244 246 -193 -209 122 123 132 127 128 128 131 -193 -193 -193 134 -209 146 162 173 179 180 182 181 188 194 191 195 194 192 193 193 193 191 191 192 189 189 193 196 200 202 205 206 206 205 205 204 204 203 201 200 -193 135 136 137 138 138 138 137 137 137 137 138 139 138 138 0 0 0 0 0
    0 0 0 0 0 0 0 0 0 0 0 0 0 0 0 0 0 0 0 0 0 0 0 0 0 0 0 0 0 0 0 0 0 0 0 0 0 0 0 0 0 0 0 0 0 0 0 0 0 0 0 0 0 0 0 0 0 0 0 0 0 0 0 0 0 0 0 0 0 130 131 129 132 128 128 129 128 129 128 128 129 124 130 130 129 129 126 126 126 126 127 127 128 126 126 127 128 128 128 127 128 127 130 130 134 130 129 129 128 128 127 127 127 125 126 131 127 129 130 131 130 131 130 129 126 126 126 124 123 124 124 123 126 124 127 126 126 130 127 127 128 126 127 126 129 128 123 126 125 125 126 128 126 124 132 130 131 131 131 131 130 130 130 127 130 128 127 127 130 129 125 126 127 125 127 126 127 126 126 128 128 127 129 130 129 129 130 129 130 128 128 128 126 131 128 127 129 127 127 129 131 128 128 128 128 129 -177 -177 -193 -177 -177 -209 -209 -209 -193 228 227 227 229 229 230 231 231 230 233 236 238 240 244 240 238 237 238 238 238 238 238 236 238 244 245 242 240 241 243 244 245 244 243 243 246 254 -209 124 125 133 128 128 129 132 -193 -193 -193 -193 -177 148 162 173 179 180 181 180 187 192 191 195 193 191 192 192 192 190 190 191 188 189 195 198 201 204 207 208 208 208 206 205 205 202 199 -209 137 137 137 137 138 138 138 137 137 137 137 139 139 138 138 0 0 0 0 0
    0 0 0 0 0 0 0 0 0 0 0 0 0 0 0 0 0 0 0 0 0 0 0 0 0 0 0 0 0 0 0 0 0 0 0 0 0 0 0 0 0 0 0 0 0 0 0 0 0 0 0 0 0 0 0 0 0 0 0 0 0 0 0 0 0 0 0 0 0 130 131 129 132 129 128 129 128 129 128 128 129 124 129 129 129 129 126 126 126 127 127 127 128 126 126 127 128 127 128 127 127 128 129 130 133 129 128 129 128 128 127 127 127 125 127 131 127 129 130 131 130 131 130 129 126 127 127 124 123 124 124 124 126 124 127 126 126 130 127 127 127 126 126 126 128 127 123 125 125 125 126 128 126 124 132 130 132 132 131 131 130 130 130 127 130 128 127 127 131 128 126 126 127 126 127 127 127 125 126 129 128 127 129 130 129 129 130 130 130 128 128 128 126 130 127 126 128 127 127 129 131 128 127 128 128 -193 -177 -177 -193 -193 -193 -209 -209 -193 230 227 228 227 229 229 230 231 231 232 234 237 238 241 243 239 238 237 238 238 238 238 238 236 241 244 244 241 240 241 243 244 244 243 243 244 247 -193 120 123 125 134 128 128 129 132 -177 -177 -177 -177 -193 -193 -193 173 180 180 181 180 187 191 190 195 192 190 192 191 191 190 190 191 188 190 196 199 202 205 209 209 210 210 207 205 -193 -209 -209 139 138 138 138 138 138 139 138 137 137 137 137 139 139 138 138 0 0 0 0 0
    0 0 0 0 0 0 0 0 0 0 0 0 0 0 0 0 0 0 0 0 0 0 0 0 0 0 0 0 0 0 0 0 0 0 0 0 0 0 0 0 0 0 0 0 0 0 0 0 0 0 0 0 0 0 0 0 0 0 0 0 0 0 0 0 0 0 0 0 0 132 132 130 133 129 128 129 128 129 128 127 128 124 128 129 127 127 125 125 125 126 126 127 127 126 125 127 130 129 129 129 126 128 128 130 133 128 127 129 128 128 127 127 127 125 127 131 127 128 130 131 129 130 130 129 126 127 127 125 123 124 124 124 126 125 127 126 127 130 127 127 127 126 126 126 128 127 123 125 125 125 126 127 126 124 131 129 131 131 130 130 129 130 130 127 129 128 127 127 131 129 126 127 128 127 127 127 127 125 126 129 128 126 129 130 129 129 129 130 130 128 128 128 126 130 126 126 127 126 126 128 130 127 128 128 129 -193 -177 -177 -177 -193 -193 -209 -193 -193 230 226 227 227 229 229 230 231 231 233 235 238 237 242 242 239 238 238 238 238 239 238 237 236 241 243 242 239 239 240 242 243 243 243 243 244 247 -193 120 123 125 133 127 127 128 131 -177 -177 -177 -177 -209 -209 -193 173 181 180 181 180 186 190 189 194 191 190 191 191 191 190 191 192 188 194 197 199 202 205 210 209 210 210 206 -209 139 143 139 139 138 139 139 139 139 140 139 138 138 138 137 140 139 138 137 0 0 0 0 0
    0 0 0 0 0 0 0 0 0 0 0 0 0 0 0 0 0 0 0 0 0 0 0 0 0 0 0 0 0 0 0 0 0 0 0 0 0 0 0 0 0 0 0 0 0 0 0 0 0 0 0 0 0 0 0 0 0 0 0 0 0 0 0 0 0 0 0 0 0 134 134 131 133 129 128 128 128 128 127 127 127 123 126 129 127 126 125 125 125 127 127 128 128 127 127 129 131 130 132 132 130 130 128 129 132 127 127 128 127 127 127 127 127 125 127 130 127 128 129 130 129 129 129 129 126 127 127 125 124 126 124 123 126 125 127 125 127 130 126 127 128 126 126 126 129 126 124 126 125 125 127 128 126 124 130 128 130 130 129 129 129 130 130 127 128 128 126 127 131 128 126 127 128 127 127 127 127 126 126 129 128 126 129 130 129 129 129 129 130 128 128 128 126 129 126 125 127 125 126 128 129 127 128 128 129 -193 -177 -177 -193 -193 -193 -209 -177 -193 229 225 226 226 228 228 229 229 229 232 236 238 237 243 242 239 238 239 238 239 239 239 237 237 241 242 240 238 238 240 242 243 243 243 242 244 247 -193 121 123 124 133 127 127 127 131 -177 -177 -177 -177 -209 -209 -193 173 181 181 181 179 186 189 188 193 189 189 191 190 191 190 190 191 188 196 197 199 202 205 209 208 210 210 -209 137 138 141 140 140 139 140 139 140 141 142 141 140 140 141 140 143 141 139 139 0 0 0 0 0
    0 0 0 0 0 0 0 0 0 0 0 0 0 0 0 0 0 0 0 0 0 0 0 0 0 0 0 0 0 0 0 0 0 0 0 0 0 0 0 0 0 0 0 0 0 0 0 0 0 0 0 0 0 0 0 0 0 0 0 0 0 0 0 0 0 0 0 0 0 -193 -193 131 134 130 128 128 128 128 127 127 127 124 126 129 127 126 126 125 126 126 126 127 127 127 126 128 130 130 134 -193 -193 -193 -193 -193 -193 -193 -193 128 127 127 126 127 127 125 126 129 127 128 129 130 128 129 130 130 127 128 -193 127 126 128 125 123 126 126 128 125 127 -193 126 128 128 127 126 126 129 127 124 127 126 126 127 128 126 124 130 128 130 130 129 129 128 129 129 126 127 126 125 126 130 128 126 126 128 127 126 127 127 126 127 129 128 126 128 130 129 129 129 130 130 129 128 128 126 128 126 125 126 125 125 128 128 127 128 128 130 -193 -177 -177 -177 -193 -193 -209 -177 229 228 224 226 225 226 226 228 228 228 231 236 237 237 242 240 238 238 238 238 238 239 239 237 238 240 242 239 237 238 239 243 243 243 243 242 244 247 -193 122 124 125 133 127 127 127 131 -193 -177 -177 -177 -177 -193 -193 173 180 180 180 178 186 188 188 192 189 189 190 190 191 190 190 192 188 195 196 198 201 204 207 206 209 -209 -193 138 139 142 141 141 140 141 140 140 141 143 143 142 143 144 143 145 143 142 141 0 0 0 0 0
    0 0 0 0 0 0 0 0 0 0 0 0 0 0 0 0 0 0 0 0 0 0 0 0 0 0 0 0 0 0 0 0 0 0 0 0 0 0 0 0 0 0 0 0 0 0 0 0 0 0 0 0 0 0 0 0 0 0 0 0 0 0 0 0 0 0 0 0 0 -193 -193 132 134 130 128 128 128 129 128 128 128 125 128 130 129 127 126 126 126 126 125 128 128 -193 -193 131 133 134 138 139 -193 -209 -209 -193 -193 -193 -193 127 127 128 127 128 128 127 126 130 128 129 130 131 130 130 130 -193 -193 130 -193 128 128 130 -193 124 128 -209 -209 -193 -193 -193 126 128 129 128 126 127 130 127 124 128 127 126 127 128 126 125 130 128 131 130 129 128 128 129 129 126 128 126 124 126 130 128 127 126 128 128 127 129 129 127 127 130 129 127 128 130 129 129 129 130 130 130 129 129 127 128 126 124 125 124 124 127 127 127 128 128 130 131 -177 -177 -193 -193 -209 -209 -209 229 228 224 227 226 227 227 228 229 229 233 237 238 237 242 239 238 238 237 237 237 238 238 237 238 240 241 239 238 238 240 243 243 243 243 240 244 246 131 125 124 127 133 127 127 127 131 136 -177 -177 -177 -177 -193 -193 -193 -193 178 179 178 185 188 188 191 189 189 190 190 191 190 191 192 189 194 195 197 200 203 204 203 207 -209 138 138 139 143 141 142 141 141 140 141 141 144 145 143 143 144 143 143 144 142 142 0 0 0 0 0
    0 0 0 0 0 0 0 0 0 0 0 0 0 0 0 0 0 0 0 0 0 0 0 0 0 0 0 0 0 0 0 0 0 0 0 0 0 0 0 0 0 0 0 0 0 0 0 0 0 0 0 0 0 0 0 0 0 0 0 0 0 0 0 0 0 0 0 0 0 -193 -193 134 136 132 130 130 130 131 130 130 131 127 132 133 132 132 132 131 131 128 127 130 131 -193 -209 -209 -193 137 143 143 142 141 139 -193 136 -209 -193 -193 129 130 129 130 131 131 128 132 131 131 132 133 133 134 134 -193 -193 135 135 134 -193 135 129 124 131 -209 -209 -193 -209 -209 129 132 133 132 129 131 132 129 126 130 130 128 129 129 126 124 129 127 130 129 128 128 128 129 130 126 129 127 124 126 130 129 128 128 130 129 130 131 131 130 130 131 131 128 -193 130 128 129 130 131 130 130 130 130 128 128 126 124 124 124 124 127 127 127 128 128 130 131 -193 -209 -209 -209 -209 -209 -209 230 228 225 227 226 227 227 228 229 229 233 236 238 237 241 237 237 237 236 237 237 238 238 236 239 239 241 239 238 239 240 242 243 243 243 240 245 -209 134 131 127 128 133 127 127 128 132 136 -209 -177 -177 -193 -193 -193 -193 -193 177 178 178 185 188 188 190 189 188 189 190 191 191 191 193 190 193 193 196 199 200 199 199 -209 -193 138 138 140 144 142 144 143 144 142 145 144 147 147 145 143 143 142 142 143 142 142 0 0 0 0 0
    0 0 0 0 0 0 0 0 0 0 0 0 0 0 0 0 0 0 0 0 0 0 0 0 0 0 0 0 0 0 0 0 0 0 0 0 0 0 0 0 0 0 0 0 0 0 0 0 0 0 0 0 0 0 0 0 0 0 0 0 0 0 0 0 0 0 0 0 0 140 145 138 141 134 133 132 132 133 133 133 134 132 137 138 137 138 138 138 -209 -209 -209 135 135 -209 -209 -209 142 140 147 147 145 144 143 140 139 138 -209 -209 134 135 133 133 134 135 132 134 133 133 134 135 136 137 137 138 138 139 141 139 140 140 135 127 133 -209 -193 -193 -193 -209 -193 134 135 -209 133 135 -209 133 -209 135 136 135 135 133 129 126 131 128 131 130 130 129 130 131 131 128 -193 131 126 130 133 132 132 132 132 133 133 -193 -193 -193 -193 134 134 -209 -209 -193 128 129 131 132 131 131 131 131 129 130 126 124 124 123 124 127 126 127 127 129 130 131 -209 -209 -209 -209 -209 -209 -193 231 229 226 228 227 227 227 228 229 229 233 235 235 236 240 237 237 237 236 237 237 237 237 236 238 239 240 238 237 238 240 242 242 242 242 240 246 -209 137 135 131 130 133 127 128 128 132 136 137 -177 -193 -209 148 157 170 175 175 177 178 185 187 187 189 188 188 189 191 191 192 192 193 190 193 193 195 197 197 195 195 -209 -193 138 139 141 145 144 146 146 147 147 148 148 149 149 147 144 143 143 143 144 143 143 0 0 0 0 0
    0 0 0 0 0 0 0 0 0 0 0 0 0 0 0 0 0 0 0 0 0 0 0 0 0 0 0 0 0 0 0 0 0 0 0 0 0 0 0 0 0 0 0 0 0 0 0 0 0 0 0 0 0 0 0 0 0 0 0 0 0 0 0 0 0 0 0 0 0 143 150 146 146 140 138 137 135 136 136 137 138 137 139 141 140 141 142 143 144 -193 142 -193 140 147 -209 145 148 144 150 149 148 148 146 143 144 142 -193 -209 138 139 138 137 138 139 137 136 -193 -193 -193 137 139 141 140 141 141 142 144 142 143 143 139 -209 -193 146 -193 -193 -193 -209 -209 137 138 138 137 138 -193 -209 -209 139 140 139 137 135 -193 129 133 131 134 132 132 132 131 131 133 130 -193 -193 130 134 136 135 -193 -193 136 137 137 -193 -193 -193 138 137 -193 -193 -209 -209 129 130 133 134 134 133 133 134 133 -193 132 128 -193 124 124 128 126 127 128 130 131 132 -209 -209 -209 -209 -209 -209 -193 232 230 228 229 228 227 228 228 229 229 233 234 235 236 240 237 237 237 236 238 238 238 238 237 239 239 240 238 238 238 240 242 242 242 242 241 -193 146 143 139 136 133 134 128 128 129 132 137 138 -193 -193 139 149 157 169 173 174 176 179 185 186 188 190 189 188 189 192 193 193 193 193 190 192 193 194 195 194 192 -193 -193 142 140 141 143 147 146 148 148 148 148 149 149 150 150 149 146 146 145 144 145 144 144 0 0 0 0 0
    0 0 0 0 0 0 0 0 0 0 0 0 0 0 0 0 0 0 0 0 0 0 0 0 0 0 0 0 0 0 0 0 0 0 0 0 0 0 0 0 0 0 0 0 0 0 0 0 0 0 0 0 0 0 0 0 0 0 0 0 0 0 0 0 0 0 0 0 0 145 151 148 148 146 144 141 141 140 140 140 141 141 142 144 143 144 145 145 146 -193 146 147 144 -209 -209 149 150 148 151 151 150 150 148 147 147 146 147 143 141 143 143 141 143 144 148 141 -209 -193 -209 141 143 145 143 143 143 143 146 144 145 146 143 146 143 148 148 145 149 141 140 139 140 141 140 140 141 139 142 143 143 142 140 137 -193 132 135 134 136 136 135 135 134 134 135 134 -193 -193 -209 139 142 140 141 140 139 140 139 140 140 -193 140 -193 139 141 -209 -209 -193 134 136 136 136 136 135 137 -209 -209 -209 -209 -209 128 128 131 126 128 129 131 133 -193 -209 -209 -209 -209 -209 -209 -209 232 230 228 228 227 226 227 226 226 226 231 231 233 234 238 236 236 237 237 238 238 238 238 237 239 239 240 238 238 238 240 242 241 242 241 240 -193 148 146 142 140 136 135 130 129 130 133 137 139 140 140 141 149 156 168 171 172 175 180 185 186 188 192 190 189 189 191 192 192 193 193 189 191 192 193 193 192 190 -193 144 145 143 144 146 148 147 149 148 148 148 149 149 150 151 150 148 149 148 146 147 146 145 0 0 0 0 0
    0 0 0 0 0 0 0 0 0 0 0 0 0 0 0 0 0 0 0 0 0 0 0 0 0 0 0 0 0 0 0 0 0 0 0 0 0 0 0 0 0 0 0 0 0 0 0 0 0 0 0 0 0 0 0 0 0 0 0 0 0 0 0 0 0 0 0 0 0 145 151 150 148 148 148 146 147 146 145 145 145 145 145 147 146 146 147 147 147 147 149 149 148 -209 150 150 150 149 151 151 149 150 149 148 149 148 149 147 145 147 147 145 148 149 152 147 -209 147 151 147 147 148 145 145 146 146 148 145 147 148 147 151 149 149 149 147 150 144 142 141 142 144 143 143 143 140 146 147 147 146 143 141 140 138 138 138 139 140 139 139 139 -193 140 138 139 -193 -193 142 -193 144 145 144 143 143 142 143 142 141 142 141 141 144 -193 -193 -193 138 140 139 140 140 137 144 -193 -209 -209 140 -209 -193 135 135 128 131 131 133 135 -209 -209 -209 -209 -209 -209 -209 -193 231 230 228 228 228 226 227 226 227 226 230 230 231 233 236 235 236 236 236 238 239 238 237 237 239 239 239 238 238 238 240 242 241 242 241 -193 148 148 147 143 142 137 136 131 130 131 134 138 139 141 142 144 150 155 166 169 171 174 180 185 186 188 192 191 189 189 190 190 189 190 191 188 189 190 191 191 190 189 -193 146 148 147 147 148 149 148 150 149 149 148 149 149 150 151 150 148 149 149 148 149 148 147 0 0 0 0 0
    0 0 0 0 0 0 0 0 0 0 0 0 0 0 0 0 0 0 0 0 0 0 0 0 0 0 0 0 0 0 0 0 0 0 0 0 0 0 0 0 0 0 0 0 0 0 0 0 0 0 0 0 0 0 0 0 0 0 0 0 0 0 0 0 0 0 0 0 0 142 149 149 148 147 148 148 148 148 148 147 147 148 148 148 147 148 148 148 148 149 150 150 149 151 150 150 149 149 150 150 149 150 149 149 149 149 150 149 148 149 149 148 149 151 152 150 151 150 153 150 151 151 148 148 148 148 149 147 149 149 149 153 151 150 150 149 151 145 144 143 144 146 146 145 145 142 149 149 148 148 147 145 145 145 143 145 143 145 144 143 143 143 144 143 143 147 146 146 -193 148 148 147 146 146 145 146 145 144 144 144 144 147 144 143 143 144 145 143 145 145 142 147 148 147 147 144 147 143 141 143 132 134 134 135 137 -193 -209 -177 -209 -209 -209 237 234 233 231 230 229 229 228 228 227 228 228 230 230 231 233 234 233 234 235 235 237 238 238 237 238 239 239 239 238 238 238 239 242 241 241 -193 -193 148 148 147 145 144 139 138 133 131 132 135 139 140 143 145 148 151 155 164 168 172 175 181 185 187 188 192 192 190 189 189 190 189 190 190 188 188 189 189 190 190 189 -193 147 149 148 149 149 149 149 150 149 149 149 150 150 150 151 150 148 150 150 149 150 149 148 0 0 0 0 0
    0 0 0 0 0 0 0 0 0 0 0 0 0 0 0 0 0 0 0 0 0 0 0 0 0 0 0 0 0 0 0 0 0 0 0 0 0 0 0 0 0 0 0 0 0 0 0 0 0 0 0 0 0 0 0 0 0 0 0 0 0 0 0 0 0 0 0 0 0 142 149 150 148 147 149 149 149 149 149 149 148 149 149 149 148 149 148 149 149 150 151 151 150 152 151 150 150 149 150 150 148 150 149 149 150 150 150 149 148 149 149 148 149 150 151 149 150 150 152 150 150 151 149 148 149 148 149 147 149 149 149 151 151 150 150 149 152 146 146 145 146 148 147 147 147 144 150 151 149 149 149 148 148 149 147 149 147 149 148 147 147 146 146 146 146 149 148 148 149 149 149 149 148 148 147 148 147 147 146 146 147 149 146 145 146 147 147 147 148 148 145 148 149 148 148 147 148 147 146 149 137 139 138 139 145 -177 -177 -177 -209 -209 -209 234 233 232 232 231 230 230 229 229 228 229 229 230 230 231 233 232 232 233 233 234 236 237 237 236 237 238 238 239 238 238 238 239 241 241 241 -193 -193 149 148 148 146 147 141 140 137 134 135 137 141 142 146 148 150 151 154 161 168 173 178 183 187 189 189 192 193 190 189 190 190 188 189 190 188 187 188 188 188 189 189 -193 148 151 149 150 150 150 150 151 150 150 150 150 150 151 151 151 148 150 150 150 151 150 149 0 0 0 0 0
    0 0 0 0 0 0 0 0 0 0 0 0 0 0 0 0 0 0 0 0 0 0 0 0 0 0 0 0 0 0 0 0 0 0 0 0 0 0 0 0 0 0 0 0 0 0 0 0 0 0 0 0 0 0 0 0 0 0 0 0 0 0 0 0 0 0 0 0 0 145 150 151 149 148 149 150 150 150 150 150 149 149 149 149 148 149 148 149 149 150 150 151 150 152 151 151 150 151 151 151 149 151 150 149 150 150 150 149 148 149 149 149 149 149 150 149 150 149 151 149 149 151 149 148 149 148 149 147 149 150 148 149 150 150 150 150 152 147 148 148 149 149 149 149 148 146 151 152 149 149 149 148 149 149 148 150 148 149 149 148 148 146 147 146 147 149 149 148 149 149 149 149 148 148 148 148 147 147 146 146 148 149 148 146 147 148 148 148 149 149 147 149 149 149 149 148 148 148 148 150 142 147 147 148 151 -209 -177 -177 -177 -209 -209 235 234 233 233 232 231 231 230 229 228 230 230 229 230 231 232 231 231 232 232 234 235 237 236 237 238 239 239 239 238 239 239 241 241 242 242 -193 150 149 148 148 147 147 143 142 141 138 139 141 142 143 147 149 150 151 153 162 169 179 183 185 189 190 190 193 194 191 189 191 189 188 189 190 189 187 189 189 189 190 189 188 -193 -193 149 151 150 151 151 152 151 151 150 151 151 151 152 151 149 151 151 151 152 151 150 0 0 0 0 0
    0 0 0 0 0 0 0 0 0 0 0 0 0 0 0 0 0 0 0 0 0 0 0 0 0 0 0 0 0 0 0 0 0 0 0 0 0 0 0 0 0 0 0 0 0 0 0 0 0 0 0 0 0 0 0 0 0 0 0 0 0 0 0 0 0 0 0 0 0 150 152 152 150 149 150 151 151 151 150 150 150 150 149 149 148 148 148 148 148 149 150 151 150 152 151 151 151 152 151 152 150 151 151 150 151 150 150 149 148 149 148 148 148 149 149 149 149 149 150 148 148 150 149 149 149 148 150 148 150 150 147 148 149 149 149 148 151 148 149 149 150 150 150 150 149 -193 152 152 149 149 149 148 149 149 148 149 147 148 148 148 148 147 147 147 147 149 149 149 149 149 149 149 148 148 148 148 147 147 147 147 148 150 149 146 148 149 149 149 149 150 148 150 150 150 149 149 149 149 148 150 146 148 149 150 152 -209 -177 -193 -193 -209 -177 -193 232 232 232 231 230 230 229 228 228 229 228 228 228 229 228 228 228 230 229 233 234 236 236 236 238 238 239 240 239 240 240 241 241 241 242 239 -209 150 149 149 148 148 144 143 143 140 142 144 146 146 149 150 151 151 152 163 172 184 186 188 191 192 191 194 194 192 189 190 189 188 188 189 188 187 189 189 189 190 190 189 188 -209 145 150 149 151 151 152 151 151 151 151 151 152 153 153 151 153 153 154 154 154 152 0 0 0 0 0
    0 0 0 0 0 0 0 0 0 0 0 0 0 0 0 0 0 0 0 0 0 0 0 0 0 0 0 0 0 0 0 0 0 0 0 0 0 0 0 0 0 0 0 0 0 0 0 0 0 0 0 0 0 0 0 0 0 0 0 0 0 0 0 0 0 0 0 0 0 152 152 153 150 150 150 151 151 151 151 151 150 150 149 149 148 148 148 148 148 149 150 151 150 152 151 151 151 152 151 152 151 152 151 151 151 151 150 150 148 149 148 148 147 148 149 149 149 149 150 148 147 150 149 149 149 148 150 148 150 150 148 147 149 149 149 148 151 148 149 150 150 150 -193 -193 149 -209 -193 151 148 148 148 147 150 149 148 149 148 148 149 148 148 146 147 146 146 149 148 149 149 149 149 149 148 148 149 148 147 147 147 147 148 151 149 146 149 149 149 148 149 150 148 150 150 149 149 149 149 149 148 150 147 148 149 150 152 -193 -209 -193 -209 -209 -209 -209 233 233 234 233 231 231 230 230 229 230 229 228 229 230 225 226 228 228 228 232 233 237 236 236 238 239 239 240 240 241 239 241 241 241 241 240 244 149 149 148 147 147 143 143 143 141 144 146 148 148 150 151 152 152 153 162 171 185 186 188 191 192 191 194 194 192 189 190 189 187 187 188 187 186 188 188 188 189 190 189 -193 -209 142 147 149 151 151 152 151 151 150 151 151 152 153 153 152 153 154 155 155 155 154 0 0 0 0 0
    0 0 0 0 0 0 0 0 0 0 0 0 0 0 0 0 0 0 0 0 0 0 0 0 0 0 0 0 0 0 0 0 0 0 0 0 0 0 0 0 0 0 0 0 0 0 0 0 0 0 0 0 0 0 0 0 0 0 0 0 0 0 0 0 0 0 0 0 0 153 153 154 151 150 150 151 151 151 151 151 150 150 149 149 148 148 148 149 148 149 150 152 151 153 151 151 151 152 151 152 151 152 152 152 152 151 150 150 148 148 148 148 147 148 148 148 149 148 150 148 147 150 149 149 149 149 150 148 151 151 149 147 149 149 149 148 151 148 149 150 150 151 -193 -193 -193 -209 -193 151 148 148 149 148 150 150 148 149 148 148 149 148 148 146 147 146 146 148 148 149 149 149 149 149 148 148 149 148 147 147 147 148 148 151 149 146 148 149 148 148 148 149 148 150 150 149 148 148 149 148 147 149 146 148 148 150 152 -193 -209 -209 -209 -209 -209 -209 234 233 234 234 231 232 231 231 230 231 230 229 230 232 226 227 229 229 230 233 234 237 237 237 239 240 240 241 241 242 240 241 241 242 240 241 244 -193 149 147 146 147 144 144 144 142 145 147 148 148 149 151 152 153 153 162 171 -193 186 188 191 192 191 195 194 192 190 190 189 187 187 188 187 186 187 187 188 189 189 189 188 186 -209 152 152 153 153 154 153 152 151 152 151 153 154 154 153 155 157 158 159 158 159 0 0 0 0 0
    0 0 0 0 0 0 0 0 0 0 0 0 0 0 0 0 0 0 0 0 0 0 0 0 0 0 0 0 0 0 0 0 0 0 0 0 0 0 0 0 0 0 0 0 0 0 0 0 0 0 0 0 0 0 0 0 0 0 0 0 0 0 0 0 0 0 0 0 0 154 152 153 151 149 150 151 151 151 151 151 150 150 149 149 149 149 148 149 148 150 151 152 151 152 151 151 151 152 151 152 151 152 152 152 152 151 150 150 147 148 147 147 147 148 148 148 148 147 149 147 146 150 149 149 150 149 151 149 152 152 150 147 148 148 149 148 151 148 149 150 151 -193 -193 -193 -193 -209 -193 150 147 149 149 148 151 150 149 150 148 148 149 148 148 145 147 145 146 148 148 149 149 149 149 149 148 148 149 148 147 148 147 148 148 151 150 146 148 149 148 148 148 149 147 149 150 148 147 148 148 147 146 148 145 147 148 150 152 -209 -209 -209 -209 -209 -193 -209 234 234 234 234 231 233 232 232 232 233 231 231 231 233 225 225 228 227 229 233 234 236 236 237 238 240 240 241 241 242 240 241 242 242 240 242 244 -193 148 147 145 147 143 143 144 142 145 146 148 148 149 151 152 153 154 164 172 186 185 188 190 191 190 194 193 192 190 191 189 188 188 189 188 187 188 188 188 188 188 188 187 185 -209 158 154 155 156 156 155 154 153 154 153 154 156 156 155 160 164 164 165 165 166 0 0 0 0 0
    0 0 0 0 0 0 0 0 0 0 0 0 0 0 0 0 0 0 0 0 0 0 0 0 0 0 0 0 0 0 0 0 0 0 0 0 0 0 0 0 0 0 0 0 0 0 0 0 0 0 0 0 0 0 0 0 0 0 0 0 0 0 0 0 0 0 0 0 0 -193 -209 154 152 150 152 154 153 153 152 152 151 151 150 149 149 149 148 149 149 151 151 153 151 152 152 151 151 152 151 152 150 152 152 152 152 151 150 150 147 148 146 147 146 147 148 147 147 146 148 147 146 150 -193 150 150 150 152 150 153 153 151 147 148 148 149 148 151 149 149 151 151 -209 -209 -193 -209 -209 -209 -209 146 148 149 148 151 150 149 149 148 148 149 148 148 146 147 146 147 149 149 150 149 150 149 149 147 148 149 148 147 148 147 148 149 151 151 146 149 150 149 148 148 149 147 149 150 148 146 147 148 147 145 148 144 148 148 150 152 -209 -209 -209 -209 -209 -193 -209 235 235 235 235 233 235 232 233 233 233 232 232 232 233 227 227 229 228 228 232 234 235 235 236 237 239 239 240 240 242 240 240 241 242 240 243 245 -193 -209 147 145 146 143 143 144 142 145 146 148 148 149 150 151 153 -193 166 174 186 186 189 190 191 190 193 194 193 191 192 190 189 188 189 188 187 188 188 187 187 188 188 187 184 179 168 156 157 159 159 156 156 155 156 155 156 159 158 162 168 172 171 182 180 179 0 0 0 0 0
    0 0 0 0 0 0 0 0 0 0 0 0 0 0 0 0 0 0 0 0 0 0 0 0 0 0 0 0 0 0 0 0 0 0 0 0 0 0 0 0 0 0 0 0 0 0 0 0 0 0 0 0 0 0 0 0 0 0 0 0 0 0 0 0 0 0 0 0 0 -193 -209 -193 154 152 153 155 155 154 153 153 -193 151 150 149 148 148 147 149 148 151 151 153 152 153 153 152 152 -193 151 153 151 153 152 152 152 151 150 150 147 147 145 147 145 147 147 147 147 146 148 147 145 149 -193 150 150 150 152 151 153 153 -209 146 147 148 149 148 151 149 150 152 -193 -177 367 -209 -209 -209 -209 -209 145 147 149 148 151 150 149 149 148 148 149 149 149 147 148 149 149 150 151 151 150 150 149 149 146 147 150 147 147 148 148 149 149 152 151 146 150 151 149 149 149 150 148 149 150 148 146 146 147 146 144 147 144 147 148 150 153 -193 -209 -209 -209 -209 -209 -209 234 235 235 235 233 235 233 234 235 235 234 233 233 233 228 227 228 227 228 231 233 234 234 236 236 238 238 239 240 241 240 240 241 241 240 243 245 246 -209 -209 145 146 144 143 145 143 145 146 147 148 149 149 151 154 -193 166 175 187 186 189 191 192 190 194 194 194 192 194 191 190 189 190 189 187 189 188 187 187 188 188 187 185 -209 -209 155 155 159 161 158 157 158 159 158 159 163 163 165 171 178 181 186 186 186 0 0 0 0 0
    0 0 0 0 0 0 0 0 0 0 0 0 0 0 0 0 0 0 0 0 0 0 0 0 0 0 0 0 0 0 0 0 0 0 0 0 0 0 0 0 0 0 0 0 0 0 0 0 0 0 0 0 0 0 0 0 0 0 0 0 0 0 0 0 0 0 0 0 0 -193 -193 -193 -209 154 154 157 158 157 -193 -193 -193 -193 149 148 148 148 146 149 147 149 150 -193 153 -193 -193 153 -209 -193 153 155 153 154 153 152 153 152 149 149 146 145 143 -193 145 146 146 146 146 145 147 146 143 148 -193 150 150 149 151 -193 -193 -193 -209 143 145 146 148 148 150 150 151 154 -193 362 363 366 -193 -193 -193 -209 -225 -225 -225 148 151 150 -193 149 148 148 150 149 151 -193 152 152 151 154 153 154 152 150 148 -193 144 147 149 146 147 147 148 148 149 152 151 146 150 -193 -193 149 149 150 149 150 151 148 146 147 147 146 144 145 144 146 148 150 153 157 -209 -209 -209 -209 -209 -209 233 233 234 234 233 235 233 234 236 235 235 234 233 233 228 228 229 227 227 230 233 233 233 235 236 237 238 240 241 241 241 241 241 242 241 243 246 246 -193 251 -209 146 -193 143 145 143 144 145 146 147 148 148 150 153 -193 167 177 188 186 189 190 191 190 194 194 194 192 195 192 191 190 191 189 187 189 189 188 187 188 188 187 185 -209 -209 154 155 159 161 159 158 162 165 166 167 170 170 170 177 183 182 185 186 187 0 0 0 0 0
    0 0 0 0 0 0 0 0 0 0 0 0 0 0 0 0 0 0 0 0 0 0 0 0 0 0 0 0 0 0 0 0 0 0 0 0 0 0 0 0 0 0 0 0 0 0 0 0 0 0 0 0 0 0 0 0 0 0 0 0 0 0 0 0 0 0 0 0 0 -193 -193 160 160 157 156 158 160 -193 -177 -177 -177 -177 -193 -193 148 147 145 148 146 147 148 -193 -193 0 0 154 -209 157 -193 157 156 -177 -177 -177 154 153 150 -193 810 811 811 814 -177 -209 146 383 385 -193 -193 145 143 148 -209 -193 -193 -193 -193 -193 -209 -193 -193 141 142 143 148 148 150 151 152 -193 357 361 362 -193 -193 709 -225 -225 -225 -225 -225 -225 -193 -193 654 -193 -225 -225 147 147 -225 -225 -225 156 153 160 158 159 155 153 149 -193 144 146 149 145 147 146 147 148 149 153 152 146 152 -177 -177 -177 -193 -193 -209 152 153 -209 148 148 148 147 143 145 144 144 146 149 153 159 -209 345 -209 -209 -209 -209 233 233 234 236 234 236 233 235 237 236 235 235 233 233 228 229 229 227 228 230 232 233 233 235 236 238 239 240 242 242 241 242 242 242 241 243 245 246 -193 251 262 264 268 142 144 142 143 143 146 146 147 147 149 155 -177 -209 178 185 185 189 189 190 189 194 194 195 193 195 193 192 191 191 189 187 189 189 188 187 188 188 188 185 -209 -209 -193 155 159 163 162 161 164 167 169 170 176 178 175 179 183 182 185 187 187 0 0 0 0 0
    0 0 0 0 0 0 0 0 0 0 0 0 0 0 0 0 0 0 0 0 0 0 0 0 0 0 0 0 0 0 0 0 0 0 0 0 0 0 0 0 0 0 0 0 0 0 0 0 0 0 0 0 0 0 0 0 0 0 0 0 0 0 0 0 0 0 0 0 0 156 157 157 157 157 158 161 -193 -177 -177 -177 -177 -177 -177 -193 -225 -225 -225 148 -225 146 -225 -225 -225 -209 -209 155 -209 -193 156 -193 -193 156 -177 -177 154 -209 -209 811 811 812 811 -177 -177 -209 -209 -193 383 384 385 -193 -209 -209 -209 -209 560 564 -209 961 -209 486 -209 -193 140 140 148 146 149 151 -209 -209 -193 -209 -193 -225 -225 -225 -225 -225 -225 -225 -225 -225 -225 -225 -225 -225 -225 -225 -225 -225 -225 -225 -225 -225 -225 -193 -209 -225 -193 -209 -209 -193 -193 146 -193 145 -193 -193 147 148 149 153 152 146 153 -177 -177 -177 -193 -177 -209 -209 -193 -209 -209 -193 151 150 144 147 146 145 147 150 154 162 -209 344 -209 -209 -209 -209 233 233 234 236 234 236 234 236 237 236 236 236 234 233 230 231 230 229 229 230 232 232 234 235 236 238 239 240 242 241 241 241 242 241 240 242 244 245 247 249 255 260 265 261 -193 142 143 142 147 147 147 148 150 158 -209 -209 178 183 183 186 187 188 188 194 194 195 194 195 194 194 192 192 189 187 189 189 188 187 187 187 187 185 -209 -209 -209 156 159 163 -209 162 164 167 170 173 180 181 178 179 183 183 185 187 187 0 0 0 0 0
    0 0 0 0 0 0 0 0 0 0 0 0 0 0 0 0 0 0 0 0 0 0 0 0 0 0 0 0 0 0 0 0 0 0 0 0 0 0 0 0 0 0 0 0 0 0 0 0 0 0 0 0 0 0 0 0 0 0 0 0 0 0 0 0 0 0 0 0 0 -225 -225 -225 -225 -225 -225 -225 -225 -225 -225 -225 -225 -225 -225 -225 -225 -225 -225 -225 -225 -225 -225 -225 -225 -225 -225 -225 -225 -225 -225 -225 -225 -225 -225 -225 -225 -225 -225 -225 -225 -225 -225 -225 -225 -225 -225 -225 -225 -225 -225 -225 -225 -225 -225 -225 -225 -225 -225 -225 -225 -225 -225 -225 -225 -225 -225 -225 -225 -225 -225 -225 -225 -225 -225 -225 -225 -225 -225 -225 -225 -225 -225 -225 -225 -225 -225 -225 -225 -225 -225 -225 -225 -225 -225 -225 -225 -225 -225 -225 -225 -225 -225 -225 -225 -225 -193 -193 -193 -193 -193 -193 150 153 153 -225 -225 -225 -225 -193 0 -177 -177 -193 -193 -209 -209 -209 150 149 147 147 147 147 148 150 157 166 -209 -209 -209 -209 -209 235 235 235 235 238 236 237 235 237 239 238 237 236 234 233 230 230 229 228 229 230 232 232 233 234 235 237 238 239 242 241 241 242 243 242 241 244 245 245 247 252 255 255 260 259 259 256 -209 132 -225 -225 146 149 151 163 -193 174 178 181 181 183 184 185 185 192 193 195 195 195 194 195 193 194 189 187 188 188 187 186 187 187 186 -193 -209 -209 -209 157 160 164 -209 163 164 168 170 173 180 181 178 179 183 183 185 187 187 0 0 0 0 0
    0 0 0 0 0 0 0 0 0 0 0 0 0 0 0 0 0 0 0 0 0 0 0 0 0 0 0 0 0 0 0 0 0 0 0 0 0 0 0 0 0 0 0 0 0 0 0 0 0 0 0 0 0 0 0 0 0 0 0 0 0 0 0 0 0 0 0 0 0 -225 -225 -225 -225 -225 -225 -225 -225 -225 -225 -225 -225 -225 -225 -225 -225 -225 -225 -225 -225 -225 -225 -225 -225 -225 -225 -225 -225 -225 -225 -225 -225 -225 -225 -225 -225 -225 -225 -225 -225 -225 -225 -225 -225 -225 -225 -225 -225 -225 -225 -225 -225 -225 -225 -225 -225 -225 -225 -225 -225 -225 -225 -225 -225 -225 -225 -225 -225 -225 -225 -225 -225 -225 -225 -225 -225 -225 -225 -225 -225 -225 -225 -225 -225 -225 -225 -225 -225 -225 -225 -225 -225 -225 -225 -225 -225 -225 -225 -225 -225 -225 -225 -225 -225 -225 -225 -225 -225 -225 -225 -225 -225 -225 -225 -225 -225 -225 -225 -225 -225 -225 -225 -225 -225 -225 -225 -225 -225 -225 -225 -225 -225 -225 -225 -225 -225 -225 -225 -225 -225 -225 -193 233 233 233 234 238 236 237 235 238 240 238 237 236 234 232 231 230 229 228 229 230 231 231 233 235 235 236 237 239 241 241 242 242 243 242 242 244 245 246 248 250 251 250 254 255 256 256 258 258 252 -193 -209 -209 -209 210 214 -193 182 183 183 185 185 185 185 191 193 195 195 197 196 197 197 197 194 190 192 191 188 187 187 187 187 -193 -209 -209 -193 -209 -193 -193 -209 163 165 168 170 173 181 183 181 181 184 184 186 188 189 0 0 0 0 0
    0 0 0 0 0 0 0 0 0 0 0 0 0 0 0 0 0 0 0 0 0 0 0 0 0 0 0 0 0 0 0 0 0 0 0 0 0 0 0 0 0 0 0 0 0 0 0 0 0 0 0 0 0 0 0 0 0 0 0 0 0 0 0 0 0 0 0 0 0 -225 -225 -225 -225 -225 -225 -225 -225 -225 -225 -225 -225 -225 -225 -225 -225 -225 -225 -225 -225 -225 -225 -225 -225 -225 -225 -225 -225 -225 -225 -225 -225 -225 -225 -225 -225 -225 -225 -225 -225 -225 -225 -225 -225 -225 -225 -225 -225 -225 -225 -225 -225 -225 -225 -225 -225 -225 -225 -225 -225 -225 -225 -225 -225 -225 -225 -225 -225 -225 -225 -225 -225 -225 -225 -225 -225 -225 -225 -225 -225 -225 -225 -225 -225 -225 -225 -225 -225 -225 -225 -225 -225 -225 -225 -225 -225 -225 -225 -225 -225 -225 -225 -225 -225 -225 -225 -225 -225 -225 -225 -225 -225 -225 -225 -225 -225 -225 -225 -225 -225 -225 -225 -225 -225 -225 -225 -225 -225 -225 -225 -225 -225 -225 -225 -225 -225 -225 -225 -225 -225 -225 231 231 231 231 234 238 236 236 236 238 241 239 239 236 235 233 232 231 229 228 228 229 230 229 233 234 235 236 237 239 241 241 243 243 244 244 244 246 248 249 251 252 251 252 254 255 254 256 257 257 252 261 252 239 -209 -209 -209 234 -193 188 185 188 187 187 187 192 194 197 196 198 197 199 199 199 198 193 195 195 188 187 187 -209 -209 -209 76 83 -209 -209 -209 -209 -209 -209 166 172 178 178 181 183 180 180 183 183 185 189 191 0 0 0 0 0
    0 0 0 0 0 0 0 0 0 0 0 0 0 0 0 0 0 0 0 0 0 0 0 0 0 0 0 0 0 0 0 0 0 0 0 0 0 0 0 0 0 0 0 0 0 0 0 0 0 0 0 0 0 0 0 0 0 0 0 0 0 0 0 0 0 0 0 0 0 -225 -225 -225 -225 -225 -225 -225 -225 -225 -225 -225 -225 -225 -225 -225 -225 -225 -225 -225 -225 -225 -225 -225 -225 -225 -225 -225 -225 -225 -225 -225 -225 -225 -225 -225 -225 -225 -225 -225 -225 -225 -225 -225 -225 -225 -225 -225 -225 -225 -225 -225 -225 -225 -225 -225 -225 -225 -225 -225 -225 -225 -225 -225 -225 -225 -225 -225 -225 -225 -225 -225 -225 -225 -225 -225 -225 -225 -225 -225 -225 -225 -225 -225 -225 -225 -225 -225 -225 -225 -225 -225 -225 -225 -225 -225 -225 -225 -225 -225 -225 -225 -225 -225 -225 -225 -225 -225 -225 -225 -225 -225 -225 -225 -225 -225 -225 -225 -225 -225 -225 -225 -225 -225 -225 -225 -225 -225 -225 -225 -225 -225 -225 -225 -225 -225 -225 -225 -225 -225 -225 -225 -225 231 231 231 235 238 237 236 237 239 241 240 240 237 235 232 232 232 230 228 228 229 230 230 233 234 235 235 237 239 241 241 243 244 244 245 246 247 249 250 252 253 253 254 255 255 254 256 257 256 252 251 249 248 253 -193 252 253 252 -209 -193 195 193 190 191 196 199 201 199 200 200 200 200 200 199 189 192 192 186 -209 -209 -209 69 -209 75 80 -209 -209 -209 -209 -209 -209 -209 175 182 182 184 184 181 179 183 182 185 189 190 0 0 0 0 0
    0 0 0 0 0 0 0 0 0 0 0 0 0 0 0 0 0 0 0 0 0 0 0 0 0 0 0 0 0 0 0 0 0 0 0 0 0 0 0 0 0 0 0 0 0 0 0 0 0 0 0 0 0 0 0 0 0 0 0 0 0 0 0 0 0 0 0 0 0 -225 -225 -225 -225 -225 -225 -225 -225 -225 -225 -225 -225 -225 -225 -225 -225 -225 -225 -225 -225 -225 -225 -225 -225 -225 -225 -225 -225 -225 -225 -225 -225 -225 -225 -225 -225 -225 -225 -225 -225 -225 -225 -225 -225 -225 -225 -225 -225 -225 -225 -225 -225 -225 -225 -225 -225 -225 -225 -225 -225 -225 -225 -225 -225 -225 -225 -225 -225 -225 -225 -225 -225 -225 -225 -225 -225 -225 -225 -225 -225 -225 -225 -225 -225 -225 -225 -225 -225 -225 -225 -225 -225 -225 -225 -225 -225 -225 -225 -225 -225 -225 -225 -225 -225 -225 -225 -225 -225 -225 -225 -225 -225 -225 -225 -225 -225 -225 -225 -225 -225 -225 -225 -225 -225 -225 -225 -225 -225 -225 -225 -225 -225 -225 -225 -225 -225 -225 -225 -225 -225 -225 -225 231 230 231 235 239 237 237 238 240 242 241 241 238 236 232 232 230 228 228 228 228 230 228 233 234 235 236 239 241 242 242 244 244 245 246 247 247 249 249 251 252 252 252 253 253 253 257 258 257 251 247 247 249 257 -193 252 254 253 257 258 -209 -209 -209 198 200 201 203 200 200 201 201 201 201 -193 193 -193 -209 -209 -209 -209 -209 -209 74 -209 -209 -209 -209 -209 -209 -209 -209 164 173 180 180 183 183 -209 172 178 178 181 186 187 0 0 0 0 0
    0 0 0 0 0 0 0 0 0 0 0 0 0 0 0 0 0 0 0 0 0 0 0 0 0 0 0 0 0 0 0 0 0 0 0 0 0 0 0 0 0 0 0 0 0 0 0 0 0 0 0 0 0 0 0 0 0 0 0 0 0 0 0 0 0 0 0 0 0 -225 -225 -225 -225 -225 -225 -225 -225 -225 -225 -225 -225 -225 -225 -225 -225 -225 -225 -225 -225 -225 -225 -225 -225 -225 -225 -225 -225 -225 -225 -225 -225 -225 -225 -225 -225 -225 -225 -225 -225 -225 -225 -225 -225 -225 -225 -225 -225 -225 -225 -225 -225 -225 -225 -225 -225 -225 -225 -225 -225 -225 -225 -225 -225 -225 -225 -225 -225 -225 -225 -225 -225 -225 -225 -225 -225 -225 -225 -225 -225 -225 -225 -225 -225 -225 -225 -225 -225 -225 -225 -225 -225 -225 -225 -225 -225 -225 -225 -225 -225 -225 -225 -225 -225 -225 -225 -225 -225 -225 -225 -225 -225 -225 -225 -225 -225 -225 -225 -225 -225 -225 -225 -225 -225 -225 -225 -225 -225 -225 -225 -225 -225 -225 -225 -225 -225 -225 -225 -225 -225 -225 -225 231 231 232 237 240 237 238 239 241 242 242 241 237 235 232 231 229 228 227 227 228 229 227 233 235 235 237 240 242 243 244 245 245 246 246 247 246 247 248 249 250 250 251 252 252 252 256 258 257 252 251 249 252 259 -193 257 259 257 260 260 254 251 249 -209 204 -209 -209 198 198 200 199 199 198 194 194 202 212 -209 -209 -209 -209 -209 -209 -209 -209 -209 -209 -209 -209 -209 -209 164 171 179 180 184 183 -209 174 176 174 -193 168 -209 0 0 0 0 0
    0 0 0 0 0 0 0 0 0 0 0 0 0 0 0 0 0 0 0 0 0 0 0 0 0 0 0 0 0 0 0 0 0 0 0 0 0 0 0 0 0 0 0 0 0 0 0 0 0 0 0 0 0 0 0 0 0 0 0 0 0 0 0 0 0 0 0 0 0 -225 -225 -225 -225 -225 -225 -225 -225 -225 -225 -225 -225 -225 -225 -225 -225 -225 -225 -225 -225 -225 -225 -225 -225 -225 -225 -225 -225 -225 -225 -225 -225 -225 -225 -225 -225 -225 -225 -225 -225 -225 -225 -225 -225 -225 -225 -225 -225 -225 -225 -225 -225 -225 -225 -225 -225 -225 -225 -225 -225 -225 -225 -225 -225 -225 -225 -225 -225 -225 -225 -225 -225 -225 -225 -225 -225 -225 -225 -225 -225 -225 -225 -225 -225 -225 -225 -225 -225 -225 -225 -225 -225 -225 -225 -225 -225 -225 -225 -225 -225 -225 -225 -225 -225 -225 -225 -225 -225 -225 -225 -225 -225 -225 -225 -225 -225 -225 -225 -225 -225 -225 -225 -225 -225 -225 -225 -225 -225 -225 -225 -225 -225 -225 -225 -225 -225 -225 -225 -225 -225 -225 -225 233 232 233 239 240 237 238 240 241 241 242 241 237 235 232 231 229 227 227 228 228 229 228 233 236 237 239 242 244 244 244 245 245 245 246 247 246 247 247 249 250 251 251 252 253 254 259 260 259 255 262 257 260 -193 -209 -209 -193 260 261 260 258 256 252 253 -193 -209 -209 244 -209 203 203 -209 -209 186 195 204 -209 -209 -209 -209 -209 -209 -209 -209 -209 -209 -209 -209 -209 -209 -209 157 163 -193 -209 -209 -209 -209 -209 -209 -209 -209 -209 157 0 0 0 0 0
    0 0 0 0 0 0 0 0 0 0 0 0 0 0 0 0 0 0 0 0 0 0 0 0 0 0 0 0 0 0 0 0 0 0 0 0 0 0 0 0 0 0 0 0 0 0 0 0 0 0 0 0 0 0 0 0 0 0 0 0 0 0 0 0 0 0 0 0 0 -225 -225 -225 -225 -225 -225 -225 -225 -225 -225 -225 -225 -225 -225 -225 -225 -225 -225 -225 -225 -225 -225 -225 -225 -225 -225 -225 -225 -225 -225 -225 -225 -225 -225 -225 -225 -225 -225 -225 -225 -225 -225 -225 -225 -225 -225 -225 -225 -225 -225 -225 -225 -225 -225 -225 -225 -225 -225 -225 -225 -225 -225 -225 -225 -225 -225 -225 -225 -225 -225 -225 -225 -225 -225 -225 -225 -225 -225 -225 -225 -225 -225 -225 -225 -225 -225 -225 -225 -225 -225 -225 -225 -225 -225 -225 -225 -225 -225 -225 -225 -225 -225 -225 -225 -225 -225 -225 -225 -225 -225 -225 -225 -225 -225 -225 -225 -225 -225 -225 -225 -225 -225 -225 -225 -225 -225 -225 -225 -225 -225 -225 -225 -225 -225 -225 -225 -225 -225 -225 -225 -225 -225 -225 233 236 243 240 238 239 241 242 241 243 242 235 236 232 231 228 228 226 228 228 230 228 233 237 236 240 243 244 243 244 245 245 245 246 247 246 246 246 247 249 250 251 252 253 255 261 262 262 259 265 263 265 272 276 -193 -193 -193 -193 -193 261 261 258 259 257 250 251 250 252 -209 -209 -209 -209 -209 -209 -209 -209 243 255 -209 -193 267 269 269 268 270 -209 -209 -209 -209 -209 150 154 158 -209 -209 -209 -209 -193 -209 -209 -193 -193 -209 0 0 0 0 0
    0 0 0 0 0 0 0 0 0 0 0 0 0 0 0 0 0 0 0 0 0 0 0 0 0 0 0 0 0 0 0 0 0 0 0 0 0 0 0 0 0 0 0 0 0 0 0 0 0 0 0 0 0 0 0 0 0 0 0 0 0 0 0 0 0 0 0 0 0 296 -225 295 295 -225 -225 -225 -225 294 292 292 297 296 298 298 311 334 345 -177 -209 289 -193 -209 -193 -193 -209 -193 0 -177 0 0 669 -225 -225 -193 -193 -209 -193 -193 -209 -209 -209 -193 -193 290 296 293 -209 -209 -225 -225 -225 285 287 -209 -209 -225 -225 -209 -209 -209 -209 -225 -225 -225 -225 -209 283 285 286 288 287 286 287 288 291 -193 287 291 289 -193 -193 -193 -193 -193 -225 -225 -225 -225 -225 -225 -225 -225 -225 -225 -225 -225 -225 -225 -225 -225 -225 -225 -225 -225 -225 -225 -225 -225 -225 -225 -225 -225 -225 -225 -225 -225 -225 -225 -225 -225 -225 -225 -225 -225 -225 -225 -225 -225 -225 -225 -225 -225 -225 -225 -225 -193 286 282 282 279 279 277 232 238 245 241 239 240 241 242 241 242 241 233 235 232 231 228 228 225 227 228 231 228 233 237 236 240 242 244 243 243 245 246 245 248 248 248 248 248 248 251 252 253 253 254 256 263 264 264 263 267 267 270 278 280 283 284 -193 273 -193 263 -193 263 263 264 263 -193 -209 264 -209 -209 -209 -209 -209 -209 -209 -209 -209 -209 -209 266 267 269 271 271 273 -209 -209 -209 -209 -209 144 150 -209 -209 -209 -209 -209 -209 -209 -209 -209 -209 -209 0 0 0 0 0
    0 0 0 0 0 0 0 0 0 0 0 0 0 0 0 0 0 0 0 0 0 0 0 0 0 0 0 0 0 0 0 0 0 0 0 0 0 0 0 0 0 0 0 0 0 0 0 0 0 0 0 0 0 0 0 0 0 0 0 0 0 0 0 0 0 0 0 0 0 296 295 295 295 295 292 291 293 294 292 290 295 294 298 -177 -193 340 346 359 -209 290 288 -193 289 -193 -193 -193 -193 -193 0 0 -193 -193 10 -193 -193 -209 -209 -193 288 290 -193 290 290 289 295 290 293 -209 -209 289 -193 288 289 -209 -193 -193 293 295 -209 -209 -209 -193 289 289 286 283 285 287 287 289 289 287 289 291 292 290 290 293 291 -193 -193 -193 -193 284 -193 -193 -225 -225 -225 -225 -225 -225 -225 -225 -225 -225 -225 -225 -225 -225 -225 -225 571 572 574 573 577 -225 -225 -209 -209 -209 -225 -225 -193 -225 -193 -225 289 -193 288 285 287 291 291 291 -193 -225 -225 -225 -225 -225 -225 297 298 293 292 287 285 282 282 281 -193 -209 244 241 238 240 241 241 239 240 240 233 237 242 232 231 229 227 229 231 235 229 235 246 -193 245 245 246 245 244 246 -209 247 251 -209 252 251 250 251 253 254 255 253 255 258 265 266 266 265 269 272 274 279 281 284 285 283 281 -193 267 277 277 267 272 272 276 -193 281 281 -193 -209 -209 -209 -209 -209 -209 -209 -209 -209 267 268 270 270 270 271 -209 -209 -209 -209 -209 143 -209 -209 -209 -209 -209 -209 -209 75 -193 -209 282 285 0 0 0 0 0
    0 0 0 0 0 0 0 0 0 0 0 0 0 0 0 0 0 0 0 0 0 0 0 0 0 0 0 0 0 0 0 0 0 0 0 0 0 0 0 0 0 0 0 0 0 0 0 0 0 0 0 0 0 0 0 0 0 0 0 0 0 0 0 0 0 0 0 0 0 296 296 295 295 295 292 292 292 292 291 290 294 294 297 299 -193 -193 347 -193 -193 292 289 -193 289 289 -193 289 -193 -193 -193 -177 -193 -209 -209 -209 -209 -209 -193 -193 288 290 291 290 290 288 294 289 292 291 292 290 291 291 292 291 293 293 293 294 297 293 288 285 289 288 285 284 286 287 287 288 289 287 289 292 292 291 291 293 291 -193 -193 290 287 285 286 286 -225 286 -225 -225 -225 -225 -225 -225 -225 -225 -193 -193 -193 289 290 290 -193 572 -193 574 -193 -193 -209 -193 -193 288 -193 -209 -209 -209 -193 289 288 288 288 286 287 291 289 289 285 293 -209 -225 -225 -225 -209 295 297 292 290 287 286 284 284 284 285 279 -193 240 236 239 237 236 235 236 236 231 241 253 -209 -209 -209 -209 282 284 286 285 286 284 282 283 282 282 282 284 283 283 285 -193 283 -193 -209 254 257 256 255 259 257 258 259 266 269 274 267 272 277 278 280 282 285 286 284 282 282 281 282 282 -193 280 280 281 282 282 282 282 281 281 -209 -209 -209 265 -209 -209 -209 268 270 271 271 272 271 270 -209 -209 -209 142 -209 -209 -209 -209 -209 -193 -193 -209 -193 0 -193 -193 285 0 0 0 0 0
    0 0 0 0 0 0 0 0 0 0 0 0 0 0 0 0 0 0 0 0 0 0 0 0 0 0 0 0 0 0 0 0 0 0 0 0 0 0 0 0 0 0 0 0 0 0 0 0 0 0 0 0 0 0 0 0 0 0 0 0 0 0 0 0 0 0 0 0 0 296 295 295 294 295 292 293 293 293 292 292 295 295 297 299 302 302 299 -193 294 293 -193 -193 291 291 290 290 290 291 291 -209 676 680 -193 -193 -209 -193 290 290 289 290 292 290 291 290 293 290 291 290 291 288 290 290 291 291 292 292 292 293 296 291 287 284 288 287 285 285 286 287 287 289 290 288 289 292 292 290 291 292 291 289 291 289 287 286 287 287 287 289 291 289 290 288 289 290 290 290 289 288 290 289 290 289 289 288 288 288 287 289 290 287 290 288 289 289 287 288 286 288 288 288 287 287 287 290 289 290 286 292 294 295 295 -193 292 292 295 290 288 286 285 284 284 285 285 282 286 285 288 289 288 286 286 -193 -209 -193 -209 -193 -193 -193 284 285 284 285 286 285 286 284 283 284 282 283 284 285 285 284 288 286 286 287 286 -209 -209 -209 -209 260 -209 259 263 268 276 280 275 276 280 280 281 283 286 287 286 284 284 283 283 284 283 281 281 281 282 282 282 282 281 281 281 274 277 276 279 284 282 274 274 274 275 274 274 272 -209 -209 -209 -209 -209 -209 -209 -209 -209 -193 -193 -209 -193 -209 -193 -193 285 0 0 0 0 0
    0 0 0 0 0 0 0 0 0 0 0 0 0 0 0 0 0 0 0 0 0 0 0 0 0 0 0 0 0 0 0 0 0 0 0 0 0 0 0 0 0 0 0 0 0 0 0 0 0 0 0 0 0 0 0 0 0 0 0 0 0 0 0 0 0 0 0 0 0 295 295 295 294 295 293 293 294 294 293 293 295 295 297 298 300 300 299 297 294 294 -193 292 292 292 290 291 290 291 -193 -193 675 679 -193 -193 -193 290 291 291 290 291 293 291 292 291 294 291 292 291 291 288 291 291 292 291 293 292 292 293 295 293 289 285 289 288 286 286 287 287 288 289 291 288 290 292 292 290 291 291 290 288 291 289 288 287 288 288 288 290 292 289 290 289 289 290 290 290 289 288 290 289 289 288 288 287 287 287 286 287 289 286 288 288 288 288 287 288 286 287 288 288 287 287 287 290 289 289 287 292 292 293 293 293 291 291 294 289 287 286 285 284 285 285 286 283 287 286 288 289 289 287 287 286 287 284 286 284 284 286 286 286 285 284 286 284 286 284 283 283 282 284 285 286 286 285 288 287 287 287 286 283 282 283 283 -193 -209 -193 278 279 282 285 283 281 283 283 283 285 287 288 286 285 285 285 284 285 284 283 282 282 282 282 282 282 282 281 282 281 281 -193 281 285 285 280 280 279 279 279 278 278 277 267 274 -209 -209 -209 -209 -209 -209 -209 -209 -209 -209 -209 283 284 285 0 0 0 0 0
    0 0 0 0 0 0 0 0 0 0 0 0 0 0 0 0 0 0 0 0 0 0 0 0 0 0 0 0 0 0 0 0 0 0 0 0 0 0 0 0 0 0 0 0 0 0 0 0 0 0 0 0 0 0 0 0 0 0 0 0 0 0 0 0 0 0 0 0 0 295 295 295 294 295 294 294 294 294 294 293 295 295 296 297 298 298 297 296 294 294 293 293 292 292 291 291 290 292 291 -193 -193 -193 -193 291 291 290 291 292 291 292 293 292 292 292 294 292 293 292 292 289 291 291 292 291 293 292 292 293 295 293 290 285 289 288 286 286 287 287 288 289 291 288 290 292 292 291 291 291 290 288 291 289 287 286 288 287 288 290 292 288 289 289 289 289 290 289 289 288 289 289 288 288 288 287 287 287 287 287 290 287 288 289 288 288 287 288 286 286 288 287 286 287 287 289 289 289 287 291 291 292 292 292 290 290 293 289 287 286 286 285 285 286 287 284 287 287 287 288 288 286 286 286 287 284 286 284 285 286 286 286 285 285 286 284 286 284 283 284 283 284 285 286 286 285 288 287 287 287 286 285 283 285 285 284 284 285 286 287 286 291 287 286 287 285 286 287 287 288 287 286 286 286 285 285 285 284 283 283 283 283 282 283 283 281 282 282 281 282 282 284 284 282 281 281 281 281 280 280 280 271 277 280 -209 278 -209 -209 -209 -193 282 283 282 283 284 284 286 0 0 0 0 0
    0 0 0 0 0 0 0 0 0 0 0 0 0 0 0 0 0 0 0 0 0 0 0 0 0 0 0 0 0 0 0 0 0 0 0 0 0 0 0 0 0 0 0 0 0 0 0 0 0 0 0 0 0 0 0 0 0 0 0 0 0 0 0 0 0 0 0 0 0 295 294 294 294 294 294 294 295 295 294 294 296 295 295 296 297 296 296 295 294 294 293 293 293 292 291 292 290 292 291 292 -193 -193 291 291 291 290 291 292 291 292 293 292 292 292 294 292 292 292 291 289 291 291 292 291 293 292 292 292 293 291 290 285 289 288 285 286 287 287 287 289 291 288 290 292 292 291 291 291 291 288 292 289 287 287 287 288 288 289 291 288 288 289 289 289 290 288 288 287 289 289 288 288 288 287 288 287 287 288 290 287 289 290 288 288 287 288 287 286 288 287 286 287 287 289 289 290 288 291 291 292 292 291 290 290 293 289 287 286 286 285 285 286 287 284 286 287 287 287 288 286 286 285 286 284 285 284 284 285 286 286 286 285 286 285 286 285 284 284 283 284 284 286 286 285 288 287 288 287 287 287 285 286 286 285 285 286 286 289 287 291 287 287 287 286 286 286 286 287 286 286 286 286 285 286 286 284 284 284 283 283 283 284 283 281 282 282 281 283 282 283 283 282 281 281 281 281 281 281 281 277 280 281 282 281 281 282 283 284 284 284 284 284 285 285 287 0 0 0 0 0
    0 0 0 0 0 0 0 0 0 0 0 0 0 0 0 0 0 0 0 0 0 0 0 0 0 0 0 0 0 0 0 0 0 0 0 0 0 0 0 0 0 0 0 0 0 0 0 0 0 0 0 0 0 0 0 0 0 0 0 0 0 0 0 0 0 0 0 0 0 294 293 293 293 294 294 294 295 295 295 295 295 295 295 295 296 295 295 295 293 293 292 292 293 292 291 292 290 292 290 292 292 291 292 291 291 290 291 292 291 292 293 291 292 292 293 291 292 291 291 289 291 291 292 291 -193 292 292 292 292 291 290 285 289 288 285 287 288 288 288 289 291 288 291 292 292 291 291 291 291 289 292 289 288 287 288 288 288 289 291 288 288 288 289 288 289 288 288 287 288 288 287 287 287 287 287 287 287 287 290 288 288 290 288 288 288 288 287 286 288 287 286 287 287 288 289 289 288 290 290 292 292 291 290 290 292 289 287 287 286 285 285 286 287 284 286 287 287 287 288 286 286 285 286 285 284 284 284 285 286 287 286 286 286 285 287 286 286 285 285 285 286 288 288 287 289 288 288 288 287 287 285 287 287 285 286 286 286 288 286 290 286 287 287 286 286 287 286 287 286 285 285 286 285 286 287 285 285 284 284 284 283 284 283 281 283 283 282 286 284 285 284 283 282 282 282 282 282 282 282 281 281 282 282 282 282 283 284 285 284 285 285 285 286 286 287 0 0 0 0 0
    0 0 0 0 0 0 0 0 0 0 0 0 0 0 0 0 0 0 0 0 0 0 0 0 0 0 0 0 0 0 0 0 0 0 0 0 0 0 0 0 0 0 0 0 0 0 0 0 0 0 0 0 0 0 0 0 0 0 0 0 0 0 0 0 0 0 0 0 0 294 293 293 293 294 294 295 295 295 295 295 295 295 294 295 295 294 294 294 293 293 292 292 293 292 292 292 289 292 290 292 292 292 292 292 291 291 292 293 291 292 292 291 291 291 293 291 291 291 290 290 291 291 292 290 292 291 291 291 291 290 290 286 289 288 286 287 288 288 288 290 291 289 291 292 292 291 291 291 290 289 292 289 288 288 288 288 288 288 291 287 288 288 289 289 289 288 288 287 288 288 287 287 287 287 287 287 286 287 290 288 288 289 288 288 288 288 287 286 288 287 286 287 287 288 288 289 288 290 289 291 291 291 289 289 292 289 287 287 286 285 286 287 287 284 286 287 287 286 287 286 286 285 286 285 284 285 285 286 286 286 286 286 286 285 287 286 286 286 286 286 286 288 288 287 289 287 287 287 287 287 285 287 286 285 285 286 285 288 286 289 286 287 287 287 286 287 286 287 286 285 285 286 285 286 287 285 285 284 284 284 284 285 284 282 284 284 283 289 286 285 283 282 282 282 282 283 283 282 283 283 283 283 283 284 283 283 284 285 285 285 285 285 285 285 286 0 0 0 0 0
    0 0 0 0 0 0 0 0 0 0 0 0 0 0 0 0 0 0 0 0 0 0 0 0 0 0 0 0 0 0 0 0 0 0 0 0 0 0 0 0 0 0 0 0 0 0 0 0 0 0 0 0 0 0 0 0 0 0 0 0 0 0 0 0 0 0 0 0 0 293 293 293 293 294 295 295 295 296 295 295 295 294 294 295 294 294 293 294 293 293 293 293 293 292 292 292 289 292 289 292 291 291 292 291 291 291 291 293 291 292 291 291 291 291 292 291 291 291 291 290 291 291 292 291 292 291 291 290 290 289 289 286 288 288 286 288 288 288 288 290 291 289 292 292 292 291 291 291 290 289 292 288 289 288 289 288 289 289 290 287 288 288 289 289 289 288 288 287 288 288 286 287 287 287 287 287 286 287 289 288 288 289 287 288 288 288 287 286 288 288 286 288 286 287 287 288 288 289 288 290 289 289 288 288 290 288 286 287 287 286 286 287 287 284 285 288 286 286 287 286 286 285 287 285 285 285 285 286 287 286 286 286 286 286 287 286 286 286 286 286 287 288 287 287 289 288 287 287 286 287 286 287 286 285 286 286 285 288 286 288 286 286 286 287 287 288 287 287 287 286 286 287 285 287 287 286 285 284 284 284 284 285 284 282 284 283 283 288 285 283 282 281 282 281 282 283 282 282 283 283 283 284 284 284 284 283 284 284 284 284 284 284 284 284 284 0 0 0 0 0
    0 0 0 0 0 0 0 0 0 0 0 0 0 0 0 0 0 0 0 0 0 0 0 0 0 0 0 0 0 0 0 0 0 0 0 0 0 0 0 0 0 0 0 0 0 0 0 0 0 0 0 0 0 0 0 0 0 0 0 0 0 0 0 0 0 0 0 0 0 293 293 293 293 294 295 295 295 295 295 295 294 294 293 294 294 293 293 294 292 293 293 293 293 292 291 291 289 292 289 291 291 291 291 291 290 290 290 292 290 292 291 290 291 291 292 291 291 291 291 291 292 292 292 291 292 292 291 291 290 289 290 287 289 288 286 288 288 288 288 290 291 288 292 291 291 291 291 291 290 289 292 288 289 288 289 288 289 289 290 287 288 288 289 288 289 288 287 287 288 288 286 286 286 286 286 286 285 287 288 287 287 289 287 288 288 288 287 286 288 287 286 288 286 287 288 288 288 288 287 288 288 288 287 287 289 288 286 286 287 286 286 288 287 285 285 288 286 286 287 286 286 285 287 286 285 285 285 286 286 286 287 286 286 286 287 287 287 286 288 286 287 288 288 288 289 288 288 287 287 287 286 287 286 286 286 286 285 288 286 288 286 287 287 288 288 289 287 288 288 286 287 287 286 288 288 286 286 285 284 284 284 285 284 281 282 281 281 284 283 -193 282 281 281 281 283 283 283 283 283 283 284 283 284 283 283 283 283 284 284 284 284 284 284 283 284 0 0 0 0 0
    0 0 0 0 0 0 0 0 0 0 0 0 0 0 0 0 0 0 0 0 0 0 0 0 0 0 0 0 0 0 0 0 0 0 0 0 0 0 0 0 0 0 0 0 0 0 0 0 0 0 0 0 0 0 0 0 0 0 0 0 0 0 0 0 0 0 0 0 0 292 292 293 293 294 295 294 295 295 294 294 294 293 292 293 293 292 293 294 292 293 292 292 292 291 291 291 289 291 289 291 290 291 291 291 290 290 290 292 289 292 291 290 291 291 292 291 291 291 290 291 291 291 292 290 292 291 291 290 290 290 290 287 289 288 287 289 289 289 289 291 291 289 292 291 291 291 291 291 289 289 292 287 289 288 288 288 288 288 290 287 288 288 289 288 288 288 287 287 288 288 286 286 286 286 286 286 285 286 288 287 287 289 287 288 288 288 286 286 289 287 286 288 286 287 287 288 288 287 287 288 287 287 287 287 288 288 286 286 287 286 286 288 287 285 284 287 286 285 286 286 285 285 286 285 285 285 285 286 286 286 287 286 286 286 287 288 287 287 289 287 288 289 288 288 288 288 287 287 286 287 286 287 286 286 285 286 285 288 285 287 286 287 287 288 288 288 287 288 288 287 287 288 286 288 288 286 286 284 284 284 284 285 284 282 282 281 282 284 283 282 281 280 281 281 283 283 283 283 283 283 283 283 283 283 282 282 282 283 283 284 285 284 285 284 284 0 0 0 0 0
    0 0 0 0 0 0 0 0 0 0 0 0 0 0 0 0 0 0 0 0 0 0 0 0 0 0 0 0 0 0 0 0 0 0 0 0 0 0 0 0 0 0 0 0 0 0 0 0 0 0 0 0 0 0 0 0 0 0 0 0 0 0 0 0 0 0 0 0 0 291 292 293 293 293 294 294 294 294 294 294 293 293 291 292 292 291 292 293 291 292 291 292 292 291 291 291 289 291 289 291 291 291 291 291 290 290 290 292 289 292 290 290 291 291 293 291 292 292 291 291 292 292 292 291 292 292 291 291 290 290 291 288 289 289 287 289 289 289 290 291 290 289 292 290 291 291 291 290 289 289 292 286 289 288 288 288 288 288 289 286 288 289 289 288 288 287 287 287 287 288 285 286 285 286 286 286 285 287 288 287 288 289 287 288 288 288 286 286 289 287 286 288 286 286 287 288 288 287 287 287 287 287 287 287 288 288 286 286 287 287 286 288 287 284 284 287 286 285 286 285 285 285 286 286 285 286 286 286 287 286 287 286 287 286 288 288 288 288 290 288 288 289 288 288 288 288 287 287 286 287 286 287 286 286 285 286 285 287 285 287 286 287 287 287 288 287 287 287 288 286 286 287 285 287 287 286 286 284 284 284 284 285 284 282 283 282 283 283 283 282 281 280 281 281 282 282 283 282 283 283 283 283 283 282 282 281 282 283 283 283 285 285 286 284 284 0 0 0 0 0
    0 0 0 0 0 0 0 0 0 0 0 0 0 0 0 0 0 0 0 0 0 0 0 0 0 0 0 0 0 0 0 0 0 0 0 0 0 0 0 0 0 0 0 0 0 0 0 0 0 0 0 0 0 0 0 0 0 0 0 0 0 0 0 0 0 0 0 0 0 291 292 293 293 293 294 293 294 293 293 293 293 292 290 291 291 289 290 292 291 291 291 292 291 291 291 290 289 291 290 291 291 292 291 291 290 290 290 291 289 292 290 290 291 291 293 291 292 292 290 292 291 292 292 290 292 292 291 290 289 290 291 288 288 288 287 289 289 289 290 291 289 289 292 290 291 291 291 290 289 290 291 286 289 288 288 288 288 287 289 286 288 289 289 288 287 286 286 286 286 287 284 285 285 286 287 286 285 288 288 288 288 289 287 288 288 288 286 286 289 287 286 287 286 286 287 288 287 286 287 286 286 287 286 286 288 288 286 286 288 287 286 287 286 284 283 286 285 284 285 285 285 285 286 286 285 286 286 286 287 286 287 287 288 287 288 288 288 288 290 288 288 288 288 288 288 288 286 286 286 286 286 287 285 286 286 287 285 288 285 287 285 287 287 287 287 286 286 286 286 285 285 285 284 287 287 286 286 284 285 285 285 285 284 283 283 284 284 283 283 281 281 280 280 281 282 282 283 283 283 283 283 283 283 283 282 281 282 283 283 283 285 285 286 285 283 0 0 0 0 0
    0 0 0 0 0 0 0 0 0 0 0 0 0 0 0 0 0 0 0 0 0 0 0 0 0 0 0 0 0 0 0 0 0 0 0 0 0 0 0 0 0 0 0 0 0 0 0 0 0 0 0 0 0 0 0 0 0 0 0 0 0 0 0 0 0 0 0 0 0 291 292 293 293 294 294 293 293 293 293 293 292 292 290 290 291 288 291 291 290 291 291 292 291 290 291 290 289 291 289 291 290 291 291 291 290 290 290 291 289 291 289 290 290 291 292 291 291 291 290 292 291 291 292 290 292 292 291 290 289 289 290 289 288 287 287 288 288 288 290 291 288 288 292 289 290 291 290 289 288 290 291 286 290 288 288 288 288 287 289 287 288 288 289 288 286 286 286 286 286 286 284 284 284 286 287 286 285 289 288 288 288 288 288 288 288 288 286 287 289 286 287 287 285 286 286 288 287 285 286 286 286 286 286 286 287 288 286 286 287 286 285 287 286 283 282 286 285 284 285 286 286 286 286 286 285 286 287 286 287 286 288 288 288 287 288 288 288 288 289 287 288 288 288 287 287 287 286 286 285 286 286 286 285 286 285 287 285 287 285 286 285 286 286 286 287 285 285 284 285 284 284 284 284 287 288 286 286 285 285 285 285 285 284 283 283 284 284 283 283 282 281 280 281 281 282 282 284 283 283 283 283 283 283 282 282 280 281 282 282 283 283 285 284 283 282 0 0 0 0 0
    0 0 0 0 0 0 0 0 0 0 0 0 0 0 0 0 0 0 0 0 0 0 0 0 0 0 0 0 0 0 0 0 0 0 0 0 0 0 0 0 0 0 0 0 0 0 0 0 0 0 0 0 0 0 0 0 0 0 0 0 0 0 0 0 0 0 0 0 0 292 293 293 293 294 294 293 293 292 292 293 292 291 290 290 291 288 291 292 291 291 291 292 291 290 291 289 289 290 289 290 290 291 290 291 290 290 290 291 289 291 289 290 291 291 292 291 292 291 290 292 291 291 291 290 292 291 290 290 289 289 290 290 289 287 287 288 288 288 290 291 287 287 292 289 290 290 290 289 288 290 291 285 290 289 288 288 288 287 289 287 288 288 289 288 287 287 287 287 288 287 284 285 285 287 287 285 285 290 287 287 288 288 288 288 288 288 285 287 289 286 287 287 285 286 286 287 286 285 286 285 285 286 286 285 287 288 286 286 287 287 286 286 285 283 282 286 285 285 286 286 286 286 286 287 285 286 287 286 286 286 288 288 288 287 289 288 288 288 289 287 288 288 287 287 286 287 285 286 285 286 285 286 285 286 285 286 285 287 284 285 284 286 286 286 287 285 285 284 286 284 284 285 284 288 288 286 286 285 285 285 285 286 284 283 283 284 284 283 284 282 282 281 282 281 283 283 284 283 283 282 283 282 282 282 281 279 281 281 282 282 282 284 283 283 282 0 0 0 0 0
    0 0 0 0 0 0 0 0 0 0 0 0 0 0 0 0 0 0 0 0 0 0 0 0 0 0 0 0 0 0 0 0 0 0 0 0 0 0 0 0 0 0 0 0 0 0 0 0 0 0 0 0 0 0 0 0 0 0 0 0 0 0 0 0 0 0 0 0 0 292 294 293 293 294 294 293 293 292 293 293 292 292 290 290 291 289 292 292 291 292 292 292 292 291 291 289 289 290 289 290 289 290 290 290 290 290 290 290 289 291 289 291 291 291 292 291 292 291 290 291 291 290 290 289 291 290 289 289 288 288 289 290 290 287 287 288 288 288 291 290 287 287 292 288 289 290 290 288 288 290 291 285 290 289 288 288 288 287 288 287 289 289 290 289 288 289 288 288 289 288 285 286 285 288 287 285 284 290 287 287 288 288 288 288 288 288 285 288 289 286 288 287 285 286 285 287 286 285 286 285 284 286 285 285 287 288 286 285 287 287 286 287 286 284 282 286 286 285 286 286 286 286 286 287 285 286 286 286 286 286 287 288 287 286 289 287 287 287 289 287 287 287 287 286 285 287 285 286 285 286 285 286 285 286 285 286 285 286 284 285 284 286 286 287 288 285 286 285 287 285 285 286 285 289 288 286 286 285 285 285 285 286 283 283 283 283 284 283 283 282 282 281 282 282 283 283 284 283 283 282 282 282 282 281 281 279 280 280 281 281 281 283 282 283 283 0 0 0 0 0
    0 0 0 0 0 0 0 0 0 0 0 0 0 0 0 0 0 0 0 0 0 0 0 0 0 0 0 0 0 0 0 0 0 0 0 0 0 0 0 0 0 0 0 0 0 0 0 0 0 0 0 0 0 0 0 0 0 0 0 0 0 0 0 0 0 0 0 0 0 291 293 293 293 293 293 292 293 292 293 292 292 292 291 291 292 290 293 292 292 292 293 292 292 291 290 289 289 289 289 289 289 290 289 290 289 290 289 290 289 291 289 290 291 291 292 291 292 291 290 292 291 290 290 289 290 289 288 288 287 287 289 289 290 287 287 288 288 288 291 290 288 286 292 288 289 290 290 288 288 290 291 285 290 289 288 287 288 287 288 287 289 289 290 289 288 289 289 288 289 288 286 286 286 287 287 285 284 291 287 287 289 287 288 288 288 288 286 288 289 286 288 287 285 286 286 286 286 285 286 285 284 285 284 284 287 288 286 285 287 287 286 287 286 283 282 286 285 285 286 286 286 286 286 287 285 286 286 286 286 286 287 288 287 286 290 287 287 287 288 286 287 286 286 285 285 286 285 285 285 286 285 286 285 286 285 286 285 286 284 286 285 286 287 287 288 285 286 285 287 286 286 286 285 289 288 286 286 285 285 285 285 285 282 282 282 282 283 282 282 282 282 282 282 282 283 282 284 283 283 282 282 282 282 281 280 278 279 280 281 280 281 283 282 283 284 0 0 0 0 0
    0 0 0 0 0 0 0 0 0 0 0 0 0 0 0 0 0 0 0 0 0 0 0 0 0 0 0 0 0 0 0 0 0 0 0 0 0 0 0 0 0 0 0 0 0 0 0 0 0 0 0 0 0 0 0 0 0 0 0 0 0 0 0 0 0 0 0 0 0 290 293 292 292 293 293 292 292 291 292 292 292 292 291 292 293 292 294 293 292 292 292 291 291 290 289 288 288 288 288 288 288 290 289 290 290 290 290 290 289 291 289 290 290 291 292 291 292 291 290 291 290 289 290 288 289 289 288 288 288 288 290 289 291 287 286 288 288 288 292 290 288 286 292 288 289 289 290 287 288 290 290 285 290 288 288 287 288 287 288 287 289 290 290 290 289 289 289 289 290 288 286 287 287 288 288 285 285 291 287 288 290 288 289 288 289 289 286 288 289 286 289 287 285 286 286 287 286 285 286 285 284 286 285 284 289 288 286 285 287 287 286 287 286 283 283 286 285 285 285 286 285 286 285 286 285 286 286 286 285 285 286 287 286 285 289 286 286 286 287 286 286 286 285 284 284 286 285 285 285 285 285 286 285 286 285 287 285 287 284 287 285 287 288 286 288 284 285 285 285 285 285 285 285 289 287 286 286 285 285 285 284 284 282 282 281 282 283 282 282 282 282 282 282 282 282 282 284 283 283 282 282 282 281 281 280 277 278 279 280 279 280 283 282 284 286 0 0 0 0 0
    0 0 0 0 0 0 0 0 0 0 0 0 0 0 0 0 0 0 0 0 0 0 0 0 0 0 0 0 0 0 0 0 0 0 0 0 0 0 0 0 0 0 0 0 0 0 0 0 0 0 0 0 0 0 0 0 0 0 0 0 0 0 0 0 0 0 0 0 0 291 293 292 292 293 293 292 292 292 293 292 292 293 292 293 293 293 294 293 293 292 -193 291 291 289 288 288 287 287 287 287 287 289 289 291 290 291 291 290 290 291 289 290 290 290 292 291 292 290 289 290 289 288 288 287 288 288 287 287 287 288 290 289 291 287 286 288 288 288 292 289 288 285 292 288 288 289 289 286 288 290 290 284 289 288 288 287 288 288 289 287 290 290 291 290 290 290 290 289 291 288 288 288 288 289 290 287 287 292 288 289 290 288 289 289 289 289 286 288 288 286 288 287 285 286 286 286 286 285 287 286 285 287 285 284 290 288 286 285 286 286 286 287 286 283 283 286 285 285 285 285 285 285 285 286 285 286 285 286 285 285 286 288 286 285 289 285 285 285 286 285 285 285 285 283 283 285 284 284 284 285 284 286 285 286 285 287 286 288 285 287 285 286 287 285 286 283 283 284 284 284 284 285 284 289 287 286 286 285 285 285 284 285 282 282 282 284 283 283 282 282 282 282 283 282 282 283 285 284 283 282 282 282 281 281 279 277 277 278 278 277 278 -193 -209 285 287 0 0 0 0 0
    0 0 0 0 0 0 0 0 0 0 0 0 0 0 0 0 0 0 0 0 0 0 0 0 0 0 0 0 0 0 0 0 0 0 0 0 0 0 0 0 0 0 0 0 0 0 0 0 0 0 0 0 0 0 0 0 0 0 0 0 0 0 0 0 0 0 0 0 0 292 294 292 292 293 293 293 293 292 293 293 293 294 292 293 293 293 294 294 -193 -193 -193 -193 -193 290 289 288 287 287 287 287 287 289 290 290 290 291 291 291 291 292 289 291 290 290 292 290 291 290 289 290 289 288 288 287 288 288 288 288 287 288 290 289 292 287 286 288 288 288 291 289 287 284 292 288 288 288 289 286 287 289 290 284 289 288 288 288 289 289 290 288 291 291 292 291 290 291 290 290 291 289 288 288 289 289 290 287 288 292 289 290 291 288 290 289 289 289 286 288 288 286 288 286 285 286 286 286 285 286 286 286 285 286 284 284 290 287 285 285 286 286 286 286 286 283 284 286 285 285 285 285 285 285 285 286 285 286 286 286 286 286 286 288 286 285 290 285 285 285 286 285 285 284 284 282 283 284 283 284 284 285 284 286 286 286 286 288 286 288 285 288 285 286 286 284 284 283 283 283 283 284 284 285 285 290 287 286 286 285 285 285 284 284 281 282 283 284 283 283 283 282 282 282 283 282 282 283 284 284 283 282 282 282 281 281 280 277 278 278 279 277 278 -193 -209 285 288 0 0 0 0 0
    0 0 0 0 0 0 0 0 0 0 0 0 0 0 0 0 0 0 0 0 0 0 0 0 0 0 0 0 0 0 0 0 0 0 0 0 0 0 0 0 0 0 0 0 0 0 0 0 0 0 0 0 0 0 0 0 0 0 0 0 0 0 0 0 0 0 0 0 0 293 294 293 292 294 293 293 293 292 293 293 293 294 292 294 293 294 295 295 -193 -193 -193 -193 -193 290 289 287 286 286 285 285 286 287 289 290 289 291 291 290 291 292 289 290 290 290 291 289 291 289 288 290 289 288 288 287 288 288 288 287 287 287 289 289 292 287 286 287 287 287 291 289 287 284 292 288 288 288 289 285 287 289 290 284 289 288 288 287 289 290 290 287 291 291 292 292 291 291 291 290 291 289 288 288 289 288 289 288 289 292 290 290 291 289 290 289 290 289 287 288 288 286 288 286 285 286 286 287 286 286 287 287 285 287 284 284 290 287 285 285 285 286 285 286 286 283 284 287 285 286 285 285 285 285 285 286 285 286 286 286 286 286 286 288 285 285 290 284 285 284 285 284 284 284 284 282 283 284 283 284 284 285 284 286 286 286 286 287 286 288 284 289 285 286 286 285 285 283 284 284 283 284 285 287 285 291 287 286 286 285 284 284 284 284 281 282 283 284 284 283 283 283 282 282 282 282 282 282 284 283 283 282 282 282 281 281 280 278 279 279 281 278 -193 -209 -209 -209 288 0 0 0 0 0
    0 0 0 0 0 0 0 0 0 0 0 0 0 0 0 0 0 0 0 0 0 0 0 0 0 0 0 0 0 0 0 0 0 0 0 0 0 0 0 0 0 0 0 0 0 0 0 0 0 0 0 0 0 0 0 0 0 0 0 0 0 0 0 0 0 0 0 0 0 293 294 293 292 294 293 294 293 292 293 293 293 294 293 295 294 295 -193 297 -193 -193 -193 -193 293 290 289 286 285 285 285 285 286 287 289 289 288 290 291 289 290 290 288 288 288 289 290 288 291 289 289 291 289 289 288 288 288 288 288 288 286 287 289 289 293 287 286 287 287 288 291 289 287 284 292 288 288 288 288 285 287 289 290 284 290 288 288 288 290 290 290 287 292 291 293 292 292 292 292 291 292 289 288 288 289 287 288 287 288 291 290 290 292 289 291 290 290 289 287 288 289 286 289 286 286 286 287 287 287 287 288 288 286 288 286 286 290 287 285 285 285 286 286 286 286 283 284 286 285 286 285 285 285 285 285 286 285 286 285 286 286 286 286 287 285 285 290 285 285 284 285 284 284 284 284 282 282 283 283 284 283 285 284 286 285 286 285 287 285 287 284 289 286 287 287 285 286 285 285 286 285 285 286 288 286 291 287 286 286 285 284 284 284 284 281 283 284 284 284 284 283 283 282 282 282 281 282 282 283 283 282 282 282 282 282 281 281 279 280 279 281 279 -209 -193 -193 -193 288 0 0 0 0 0
    0 0 0 0 0 0 0 0 0 0 0 0 0 0 0 0 0 0 0 0 0 0 0 0 0 0 0 0 0 0 0 0 0 0 0 0 0 0 0 0 0 0 0 0 0 0 0 0 0 0 0 0 0 0 0 0 0 0 0 0 0 0 0 0 0 0 0 0 0 292 293 292 292 293 293 294 293 293 294 293 294 295 294 295 294 296 -209 -193 -193 -193 -193 290 292 289 288 286 285 286 286 286 287 288 290 290 289 290 290 289 290 290 287 287 287 289 290 288 291 289 289 291 290 289 289 288 289 289 288 288 286 287 289 289 293 288 286 288 288 288 291 289 287 284 292 288 288 288 288 285 287 289 290 284 289 287 288 288 290 290 290 287 292 291 294 292 292 292 291 291 291 288 287 287 288 287 287 287 288 290 290 291 292 290 291 290 290 289 288 289 289 286 288 286 286 286 287 288 287 288 289 289 287 288 286 286 290 288 286 286 286 287 286 287 287 284 285 286 285 285 284 285 285 285 285 285 285 286 286 286 286 286 286 287 285 285 289 285 285 284 285 284 284 284 284 282 282 283 283 283 283 285 284 285 285 285 285 286 285 286 283 289 285 288 287 285 287 285 286 286 285 286 286 288 286 291 287 286 286 285 285 284 284 284 281 283 284 285 284 284 283 283 282 283 282 282 282 282 283 284 283 282 282 282 281 281 281 279 280 280 282 -193 -209 -193 -193 -193 289 0 0 0 0 0
    0 0 0 0 0 0 0 0 0 0 0 0 0 0 0 0 0 0 0 0 0 0 0 0 0 0 0 0 0 0 0 0 0 0 0 0 0 0 0 0 0 0 0 0 0 0 0 0 0 0 0 0 0 0 0 0 0 0 0 0 0 0 0 0 0 0 0 0 0 291 292 292 291 292 293 294 293 293 294 294 294 295 294 295 294 295 -193 295 -193 0 -256 -1 -5804 288 286 285 284 286 286 286 288 289 290 290 289 290 290 289 290 290 288 287 287 289 290 289 291 290 290 292 291 290 289 289 290 290 288 288 286 287 289 289 293 288 286 288 288 288 291 289 287 284 292 288 288 288 288 285 287 288 289 284 289 287 287 288 290 291 290 288 292 291 294 292 292 291 290 290 290 287 287 286 287 286 287 287 288 290 291 291 293 290 292 290 290 289 288 288 289 286 288 286 286 286 287 288 287 289 289 289 287 287 286 287 289 288 285 286 286 287 286 287 287 284 285 286 285 285 284 285 284 285 285 286 285 287 287 287 287 286 286 287 285 285 288 284 284 284 285 284 284 284 283 282 282 283 283 283 283 285 284 285 285 285 285 286 284 285 283 288 285 288 287 285 286 285 285 286 285 286 285 287 286 291 286 286 286 285 284 284 284 284 281 283 283 284 284 283 283 282 282 282 281 281 281 282 283 284 283 282 282 282 281 281 281 279 281 -193 -193 -193 -193 -193 -193 -209 289 0 0 0 0 0
    0 0 0 0 0 0 0 0 0 0 0 0 0 0 0 0 0 0 0 0 0 0 0 0 0 0 0 0 0 0 0 0 0 0 0 0 0 0 0 0 0 0 0 0 0 0 0 0 0 0 0 0 0 0 0 0 0 0 0 0 0 0 0 0 0 0 0 0 0 291 291 291 291 292 292 293 293 293 293 293 293 294 293 294 293 294 293 295 294 -193 -193 287 287 287 285 285 284 286 287 287 289 289 290 290 288 289 289 289 289 289 288 287 287 290 291 290 292 291 291 293 291 291 290 290 290 291 289 289 287 288 290 290 293 288 287 288 288 289 291 289 287 284 291 287 288 288 288 285 286 287 288 283 288 287 287 288 290 292 291 290 292 291 293 291 291 291 290 289 289 287 286 286 287 286 287 286 289 290 291 291 293 290 292 289 290 288 288 288 288 286 287 285 286 285 287 289 287 290 289 290 287 288 287 288 289 288 285 286 286 287 286 287 286 284 285 286 285 285 284 284 284 284 285 285 285 287 287 288 287 287 287 287 286 286 288 284 284 284 285 284 283 284 283 282 282 283 283 282 283 284 284 285 285 285 285 285 284 285 284 288 285 287 286 285 286 284 285 284 284 285 285 286 285 291 286 286 286 285 284 284 284 284 280 283 283 283 283 283 282 282 281 282 280 280 280 282 282 284 283 283 282 283 282 281 282 280 282 282 287 -209 285 -193 -193 -209 287 0 0 0 0 0
    0 0 0 0 0 0 0 0 0 0 0 0 0 0 0 0 0 0 0 0 0 0 0 0 0 0 0 0 0 0 0 0 0 0 0 0 0 0 0 0 0 0 0 0 0 0 0 0 0 0 0 0 0 0 0 0 0 0 0 0 0 0 0 0 0 0 0 0 0 292 292 291 291 292 292 293 292 292 293 293 293 294 292 293 292 293 293 294 293 291 291 288 288 287 286 286 285 288 288 288 289 289 290 289 287 289 288 289 289 290 288 288 288 292 291 291 292 291 290 293 291 290 289 290 290 291 290 290 288 289 290 290 293 288 287 288 288 288 291 289 287 284 291 288 288 288 287 285 286 287 288 282 287 287 286 288 291 293 292 291 292 291 293 291 291 290 289 288 288 286 286 286 288 286 287 287 289 290 291 291 293 290 292 289 289 288 287 287 287 286 286 284 286 284 285 288 287 290 289 290 288 288 287 288 288 287 285 286 285 287 286 286 286 284 285 285 284 285 283 284 284 284 286 285 285 287 287 288 287 287 287 287 286 286 288 285 284 283 284 284 283 283 283 281 -209 282 282 282 282 284 283 284 284 285 284 285 284 284 283 285 284 284 284 284 285 283 284 283 283 285 284 285 283 291 285 285 285 284 284 284 284 284 281 283 284 284 284 284 283 283 281 282 280 280 280 282 283 284 283 284 283 284 284 283 283 283 284 285 -193 -193 -193 288 -193 -209 -193 0 0 0 0 0
    0 0 0 0 0 0 0 0 0 0 0 0 0 0 0 0 0 0 0 0 0 0 0 0 0 0 0 0 0 0 0 0 0 0 0 0 0 0 0 0 0 0 0 0 0 0 0 0 0 0 0 0 0 0 0 0 0 0 0 0 0 0 0 0 0 0 0 0 0 292 292 292 291 292 293 293 293 292 293 293 293 294 292 293 292 292 292 294 293 292 291 290 289 289 288 288 286 289 288 289 289 290 290 289 286 288 287 289 289 290 289 289 290 293 292 292 292 291 290 293 291 290 289 290 290 291 289 290 288 288 290 291 293 288 287 288 288 288 291 289 287 284 291 288 288 288 287 285 286 287 287 282 287 286 286 288 291 293 293 291 292 291 292 291 291 290 289 288 288 286 286 286 288 286 287 287 290 290 291 292 292 289 292 288 289 287 287 287 287 286 286 284 285 283 284 287 285 288 287 288 287 288 287 287 287 287 285 285 285 286 285 286 286 284 284 285 284 285 284 284 284 284 285 285 285 286 287 287 287 286 287 287 286 287 287 285 284 284 284 284 283 283 -193 281 -209 282 282 281 282 283 283 284 284 284 283 284 283 284 282 283 283 283 282 284 284 282 282 282 283 285 284 285 283 289 285 285 285 284 283 283 284 285 282 284 284 284 284 284 283 283 281 281 280 280 281 282 283 284 284 284 284 285 285 284 285 285 285 286 288 289 -193 -193 -209 -209 286 0 0 0 0 0
    0 0 0 0 0 0 0 0 0 0 0 0 0 0 0 0 0 0 0 0 0 0 0 0 0 0 0 0 0 0 0 0 0 0 0 0 0 0 0 0 0 0 0 0 0 0 0 0 0 0 0 0 0 0 0 0 0 0 0 0 0 0 0 0 0 0 0 0 0 291 292 292 291 292 292 293 293 292 293 293 293 295 292 293 292 291 292 294 292 292 290 291 289 290 291 290 288 290 289 290 290 291 290 289 286 288 287 288 289 290 289 290 291 294 293 293 293 292 291 293 291 290 289 291 290 291 289 290 288 288 289 291 292 288 287 288 288 288 291 289 287 285 292 288 288 288 287 285 286 287 287 282 286 286 286 288 289 292 292 291 292 291 292 290 290 289 289 287 287 286 286 286 288 286 286 287 290 289 291 291 291 288 291 287 288 287 286 286 287 285 285 284 285 284 284 287 285 288 287 288 288 288 288 287 286 287 285 285 285 286 285 286 285 284 284 285 284 285 284 284 284 284 286 285 285 286 287 287 287 286 287 287 286 287 287 285 284 284 284 284 283 283 -193 281 -209 -193 282 282 282 284 283 283 283 283 281 282 282 283 281 282 283 284 283 286 286 283 283 283 285 285 284 284 283 287 284 284 284 283 282 283 283 284 282 284 284 285 284 285 283 283 281 281 280 280 280 282 282 284 284 284 284 285 285 285 285 286 286 286 287 287 -193 -193 -209 -209 -209 0 0 0 0 0
    0 0 0 0 0 0 0 0 0 0 0 0 0 0 0 0 0 0 0 0 0 0 0 0 0 0 0 0 0 0 0 0 0 0 0 0 0 0 0 0 0 0 0 0 0 0 0 0 0 0 0 0 0 0 0 0 0 0 0 0 0 0 0 0 0 0 0 0 0 290 291 291 291 291 292 293 293 292 294 294 294 295 294 294 294 292 293 294 292 291 289 291 289 289 -193 289 288 289 290 290 289 290 290 288 286 287 286 287 289 290 290 291 292 295 294 294 294 293 292 293 291 290 289 291 290 291 289 289 287 288 289 291 291 288 286 288 288 288 290 288 286 285 291 288 289 288 287 286 287 288 287 283 286 286 286 287 288 291 292 291 292 290 291 290 290 289 288 287 287 285 285 285 288 286 287 287 290 289 291 290 290 287 290 286 287 286 286 286 286 286 285 284 286 284 284 288 286 288 288 289 288 289 288 288 286 287 286 286 285 286 285 286 285 284 284 284 284 284 283 284 283 284 286 285 285 286 287 287 287 286 287 286 286 287 286 285 284 284 284 284 283 283 -209 282 -209 -209 283 282 282 284 283 283 283 283 281 281 282 283 281 281 284 288 288 290 290 285 285 284 287 286 284 283 282 285 283 283 283 283 282 283 284 285 283 284 285 286 285 286 284 284 281 282 281 280 281 281 -193 283 284 285 284 284 285 284 285 285 -193 -193 -193 285 -209 -209 -209 -209 -209 0 0 0 0 0
    0 0 0 0 0 0 0 0 0 0 0 0 0 0 0 0 0 0 0 0 0 0 0 0 0 0 0 0 0 0 0 0 0 0 0 0 0 0 0 0 0 0 0 0 0 0 0 0 0 0 0 0 0 0 0 0 0 0 0 0 0 0 0 0 0 0 0 0 0 289 291 291 291 291 292 293 293 293 294 294 295 296 295 294 294 292 292 293 291 289 288 289 287 288 289 289 288 290 290 290 290 290 289 288 286 288 287 288 290 291 291 293 294 296 296 296 297 295 292 294 291 290 289 290 290 291 288 289 287 288 289 292 291 288 286 288 288 288 290 288 286 286 291 289 289 289 287 286 288 288 287 283 286 286 286 287 288 290 291 291 291 290 291 290 290 289 288 286 287 285 286 285 288 286 288 289 291 290 291 288 289 286 289 285 286 286 286 286 286 285 285 284 285 284 284 286 285 286 286 287 286 288 287 288 286 287 286 286 286 286 286 286 285 284 283 284 283 284 283 283 283 284 285 285 285 286 287 287 287 285 286 286 286 287 286 285 284 284 285 284 283 283 -209 -193 -177 -209 282 282 281 283 282 283 282 282 280 281 282 283 282 282 284 291 292 293 290 284 283 282 286 284 283 282 -193 284 283 284 284 283 283 284 284 285 283 285 285 285 285 285 283 283 281 282 282 282 281 282 282 283 284 285 284 284 284 284 284 284 -193 -209 -209 -193 -209 -209 -209 -209 -209 0 0 0 0 0
    0 0 0 0 0 0 0 0 0 0 0 0 0 0 0 0 0 0 0 0 0 0 0 0 0 0 0 0 0 0 0 0 0 0 0 0 0 0 0 0 0 0 0 0 0 0 0 0 0 0 0 0 0 0 0 0 0 0 0 0 0 0 0 0 0 0 0 0 0 288 290 291 291 291 293 293 293 293 294 294 295 296 295 294 294 291 291 291 289 287 287 288 287 287 289 290 289 291 291 291 290 291 290 289 286 289 288 289 291 292 293 295 296 296 297 297 297 294 292 293 290 289 288 290 289 290 288 289 287 288 290 291 291 288 286 288 287 288 290 288 286 286 291 289 289 289 288 287 289 288 286 283 286 285 285 286 287 289 290 290 291 290 291 289 289 288 288 286 286 286 286 286 289 287 289 290 291 291 291 288 288 286 288 285 286 285 285 285 285 285 284 284 285 284 284 285 284 285 286 287 286 287 287 288 286 287 286 286 286 286 286 286 284 285 284 284 284 284 284 283 283 284 286 286 286 286 287 287 287 285 286 286 285 287 286 285 284 284 285 285 284 284 -209 -193 -177 -193 282 282 281 283 282 282 282 282 281 282 283 285 283 283 285 289 289 290 288 283 282 280 284 283 282 281 282 283 283 284 284 283 283 284 284 284 283 284 284 284 284 285 283 283 281 282 282 282 281 282 281 283 284 285 284 284 283 284 283 283 281 281 -193 -209 -209 -209 -209 -209 -209 0 0 0 0 0
    0 0 0 0 0 0 0 0 0 0 0 0 0 0 0 0 0 0 0 0 0 0 0 0 0 0 0 0 0 0 0 0 0 0 0 0 0 0 0 0 0 0 0 0 0 0 0 0 0 0 0 0 0 0 0 0 0 0 0 0 0 0 0 0 0 0 0 0 0 288 290 291 291 291 293 293 293 293 294 295 295 296 295 294 293 292 292 292 290 289 288 289 289 288 289 290 290 291 291 291 290 291 290 289 287 290 290 291 293 294 294 296 297 296 -193 297 -209 293 291 292 289 288 287 289 288 290 287 288 287 288 290 292 290 289 286 288 288 288 290 288 286 287 291 290 290 290 289 288 289 288 286 284 286 285 285 286 286 288 290 290 290 289 290 289 289 288 288 286 286 286 287 286 289 288 289 290 291 290 289 286 286 285 286 284 285 284 284 285 285 285 284 284 285 284 284 285 284 285 285 286 286 287 287 288 286 286 286 286 286 286 286 286 284 286 285 284 285 285 284 284 284 285 286 285 286 286 287 287 286 285 286 285 285 287 286 285 285 285 285 285 284 284 -193 283 -177 -193 282 282 281 283 283 283 283 283 282 283 284 286 284 283 284 287 287 286 284 282 281 279 284 283 282 281 282 282 283 283 283 282 282 283 283 284 283 284 284 284 284 285 283 283 281 282 281 282 280 280 280 281 282 284 283 283 283 283 283 283 282 281 279 281 -193 -193 -209 -193 -209 0 0 0 0 0
    0 0 0 0 0 0 0 0 0 0 0 0 0 0 0 0 0 0 0 0 0 0 0 0 0 0 0 0 0 0 0 0 0 0 0 0 0 0 0 0 0 0 0 0 0 0 0 0 0 0 0 0 0 0 0 0 0 0 0 0 0 0 0 0 0 0 0 0 0 288 290 291 291 291 292 292 293 293 294 295 295 295 294 294 294 292 292 293 291 291 291 292 292 291 292 292 291 291 291 291 291 292 292 290 288 291 292 292 293 294 292 294 295 295 -193 -193 -193 292 290 292 289 287 287 288 287 289 287 288 287 288 291 292 291 289 287 289 289 289 290 288 287 289 292 291 291 290 290 289 291 289 286 284 286 285 285 286 286 286 289 289 290 289 290 289 288 288 288 287 287 286 287 287 290 289 289 290 290 289 288 286 285 285 286 284 284 284 284 285 285 285 284 284 285 285 285 285 285 285 285 286 286 288 288 289 286 287 287 287 286 286 286 286 284 286 285 284 285 285 284 283 283 284 284 284 285 285 285 286 285 285 285 284 285 287 286 286 285 285 285 285 285 285 283 283 -209 283 283 282 282 283 283 283 283 283 282 283 283 285 283 282 282 283 282 282 281 280 279 279 283 283 282 282 283 282 283 283 283 282 282 283 283 283 283 283 283 284 284 285 284 284 281 282 281 281 279 279 279 281 -193 283 282 283 282 282 283 283 281 281 280 281 279 279 -193 281 281 0 0 0 0 0
    0 0 0 0 0 0 0 0 0 0 0 0 0 0 0 0 0 0 0 0 0 0 0 0 0 0 0 0 0 0 0 0 0 0 0 0 0 0 0 0 0 0 0 0 0 0 0 0 0 0 0 0 0 0 0 0 0 0 0 0 0 0 0 0 0 0 0 0 0 289 291 291 291 292 293 292 293 293 294 295 295 295 295 294 294 293 294 294 294 294 294 295 294 294 295 293 292 291 292 291 291 292 292 291 290 292 292 292 293 293 291 292 294 294 293 295 -193 292 291 292 289 288 288 288 288 289 287 288 288 290 292 293 291 290 288 291 290 290 290 288 288 290 292 292 292 291 291 290 292 290 287 284 286 285 286 286 286 286 289 289 290 288 290 288 288 287 288 287 288 288 289 288 291 291 291 291 290 288 288 286 285 285 286 284 284 284 284 285 285 285 285 285 286 285 285 286 286 286 286 286 286 287 288 288 287 287 288 287 287 287 287 287 285 287 286 284 285 285 284 283 283 284 284 284 285 285 284 286 286 285 285 285 285 288 285 286 285 285 285 286 285 285 283 284 282 284 283 283 282 283 284 284 284 283 283 284 284 285 283 283 282 283 282 282 281 280 280 279 283 283 282 282 283 283 284 284 284 283 282 283 284 284 283 283 283 284 283 285 283 283 281 282 281 282 279 279 279 281 -193 283 282 282 282 282 282 282 281 281 279 281 279 280 281 282 282 0 0 0 0 0
    0 0 0 0 0 0 0 0 0 0 0 0 0 0 0 0 0 0 0 0 0 0 0 0 0 0 0 0 0 0 0 0 0 0 0 0 0 0 0 0 0 0 0 0 0 0 0 0 0 0 0 0 0 0 0 0 0 0 0 0 0 0 0 0 0 0 0 0 0 289 291 292 292 292 293 293 294 293 294 295 -193 295 294 295 294 293 295 296 295 295 296 297 295 297 -193 294 293 292 292 292 292 293 292 291 292 293 293 293 294 293 292 293 294 295 294 -193 -193 293 292 292 290 289 288 288 288 289 287 289 289 291 293 294 293 292 290 292 291 290 291 288 288 290 292 292 292 292 292 292 293 291 288 286 287 285 286 287 286 285 287 288 289 288 290 288 288 288 289 288 290 290 291 290 293 293 293 293 291 290 288 286 285 286 286 284 284 284 285 285 286 286 285 285 286 285 286 286 286 286 286 286 286 286 287 288 286 286 288 288 288 287 288 287 285 288 287 285 285 285 284 283 283 284 284 284 285 286 286 288 288 287 288 287 285 287 286 286 285 285 285 286 285 285 284 284 284 285 285 286 284 285 286 286 286 285 285 285 284 285 283 283 283 283 282 282 282 281 280 280 283 282 282 282 284 284 285 285 285 283 283 284 285 284 284 283 283 283 283 285 282 282 280 281 281 281 279 279 279 281 -193 283 282 282 281 282 282 -193 282 281 279 281 279 -209 -193 283 282 0 0 0 0 0
    0 0 0 0 0 0 0 0 0 0 0 0 0 0 0 0 0 0 0 0 0 0 0 0 0 0 0 0 0 0 0 0 0 0 0 0 0 0 0 0 0 0 0 0 0 0 0 0 0 0 0 0 0 0 0 0 0 0 0 0 0 0 0 0 0 0 0 0 0 288 291 292 292 293 293 293 294 293 294 295 -193 -193 294 294 293 293 295 296 -193 295 296 297 296 298 -209 -209 293 293 293 293 293 294 292 292 292 293 294 293 294 293 293 293 294 -209 -193 -209 -193 293 292 292 290 289 289 288 289 289 288 289 290 292 294 295 294 293 291 293 292 291 291 288 288 290 291 292 292 293 292 292 294 291 289 287 287 286 287 287 287 285 286 288 289 288 290 288 288 288 289 289 291 291 292 291 293 293 293 292 291 290 288 286 286 286 286 284 285 284 285 285 286 286 285 285 287 286 286 286 286 286 286 287 286 287 287 288 287 287 289 289 289 288 288 288 286 288 288 285 285 285 285 284 284 285 284 285 287 287 287 290 289 288 289 287 286 287 286 287 286 286 286 286 286 286 284 285 285 287 287 288 285 287 289 288 288 286 286 286 284 285 283 283 283 283 283 282 282 282 282 281 283 282 283 282 285 285 286 286 287 285 285 286 287 286 285 285 284 284 285 286 283 283 281 282 282 282 279 278 278 280 281 283 282 281 281 282 281 282 281 279 278 280 279 -193 -209 -193 281 0 0 0 0 0
    0 0 0 0 0 0 0 0 0 0 0 0 0 0 0 0 0 0 0 0 0 0 0 0 0 0 0 0 0 0 0 0 0 0 0 0 0 0 0 0 0 0 0 0 0 0 0 0 0 0 0 0 0 0 0 0 0 0 0 0 0 0 0 0 0 0 0 0 0 286 291 291 292 293 293 293 294 293 294 295 -193 294 294 294 293 294 296 297 -193 -193 298 299 298 300 -209 -209 294 293 -193 294 293 294 293 293 293 294 294 293 294 294 -193 293 -193 -209 -193 -209 -209 -193 293 292 291 290 289 288 289 289 288 289 291 293 295 295 295 294 293 294 292 291 291 288 289 290 291 293 293 293 293 293 295 292 290 288 288 286 287 287 287 286 286 288 289 288 291 288 288 288 290 291 291 293 293 292 294 294 293 293 291 290 287 286 286 286 286 284 285 284 285 285 286 286 285 285 287 286 286 286 286 286 286 286 286 286 287 289 288 287 290 290 289 288 289 288 286 288 288 285 285 285 284 284 284 284 284 284 286 286 286 289 289 287 289 287 286 287 286 287 286 286 286 286 286 286 285 286 286 288 288 289 286 289 290 289 289 286 287 287 284 284 283 283 283 -193 282 281 281 281 -193 280 282 281 282 282 286 287 287 288 290 287 287 289 290 289 287 287 285 284 285 287 283 283 281 283 282 282 279 278 278 280 282 283 282 281 281 282 281 282 281 279 279 280 280 281 282 283 281 0 0 0 0 0
    0 0 0 0 0 0 0 0 0 0 0 0 0 0 0 0 0 0 0 0 0 0 0 0 0 0 0 0 0 0 0 0 0 0 0 0 0 0 0 0 0 0 0 0 0 0 0 0 0 0 0 0 0 0 0 0 0 0 0 0 0 0 0 0 0 0 0 0 0 286 291 292 292 293 294 293 294 293 294 295 -193 293 292 293 292 292 295 296 -193 -193 298 300 299 301 -193 -209 295 294 -209 -193 -193 295 293 293 293 294 294 294 -193 -193 -193 -193 -193 -209 -209 -209 -209 -193 293 292 291 290 289 288 289 289 288 289 291 293 295 295 296 295 294 295 293 292 292 289 291 291 292 293 294 294 293 293 295 291 290 288 288 286 287 287 288 286 286 288 288 287 290 287 287 288 291 -193 292 294 295 294 295 294 294 293 291 290 287 286 286 287 287 284 285 284 285 286 286 286 285 285 287 285 286 285 285 285 285 286 285 285 286 288 287 287 289 290 289 289 289 288 286 289 289 286 286 286 285 284 284 285 284 284 286 286 286 289 288 287 289 287 286 287 286 287 286 286 286 287 287 287 285 286 286 288 289 289 287 290 291 290 290 287 289 -193 284 284 283 283 282 -193 281 280 280 280 279 278 279 280 281 282 287 288 288 289 291 288 288 290 291 290 287 288 285 285 286 288 284 283 281 282 282 282 279 278 279 281 283 284 284 283 281 282 281 283 281 279 278 279 280 283 284 285 283 0 0 0 0 0
    0 0 0 0 0 0 0 0 0 0 0 0 0 0 0 0 0 0 0 0 0 0 0 0 0 0 0 0 0 0 0 0 0 0 0 0 0 0 0 0 0 0 0 0 0 0 0 0 0 0 0 0 0 0 0 0 0 0 0 0 0 0 0 0 0 0 0 0 0 290 293 293 293 293 294 294 295 294 295 296 -193 -193 291 292 291 291 294 296 -193 -193 299 303 303 305 305 -193 -193 -193 -209 -209 -209 296 293 294 293 294 294 294 -193 -193 -193 -193 465 -193 -209 -209 -209 -193 293 292 291 290 289 288 289 289 289 290 293 294 295 296 297 296 296 296 294 293 293 290 293 292 292 294 295 295 295 295 296 292 291 290 289 287 288 288 289 287 -193 288 -193 286 290 286 287 288 292 294 294 296 -193 295 295 -193 -193 293 290 290 286 286 286 288 287 284 285 285 285 287 287 287 285 285 287 286 287 286 286 286 286 286 286 286 287 287 287 287 289 290 289 289 290 289 287 290 290 287 286 287 286 285 284 285 284 285 286 287 287 290 289 288 289 287 286 288 286 288 287 287 287 287 287 287 286 287 287 289 290 291 291 293 294 294 294 292 293 -193 285 284 283 283 282 -193 281 279 280 280 279 278 280 281 281 282 287 289 289 289 291 289 289 290 292 291 290 290 287 286 287 290 286 285 281 283 282 281 278 279 279 281 282 284 284 284 281 282 281 282 281 279 279 279 279 282 284 286 285 0 0 0 0 0
    0 0 0 0 0 0 0 0 0 0 0 0 0 0 0 0 0 0 0 0 0 0 0 0 0 0 0 0 0 0 0 0 0 0 0 0 0 0 0 0 0 0 0 0 0 0 0 0 0 0 0 0 0 0 0 0 0 0 0 0 0 0 0 0 0 0 0 0 0 292 293 293 293 294 294 294 296 295 295 297 297 293 291 291 290 291 -193 -209 -209 -209 303 308 308 309 -193 -177 -193 -209 -209 -209 -193 -209 293 293 293 294 294 -193 466 468 467 -193 464 -193 -193 -209 -209 -209 -193 293 292 291 290 289 290 289 290 291 295 295 297 297 299 299 299 298 295 294 294 292 294 292 292 294 295 295 295 295 295 292 292 291 289 288 290 290 291 289 -193 291 -193 287 290 286 287 290 -193 -193 295 -193 -193 -193 296 -209 -209 293 290 289 286 286 286 288 287 285 285 285 286 287 287 287 286 286 287 -193 -193 286 -193 286 285 286 286 286 287 287 288 287 290 292 290 289 290 290 -193 -193 -193 287 286 286 285 284 283 284 283 284 287 287 287 291 290 289 291 289 289 289 287 289 288 288 288 287 288 287 286 288 288 291 293 294 296 297 299 298 298 296 298 -193 -193 283 282 283 281 -193 280 279 280 280 279 279 280 281 281 282 286 290 290 290 291 289 289 291 292 292 290 290 288 286 288 291 287 286 281 282 282 281 279 279 279 282 283 285 287 286 281 282 282 284 -193 278 277 277 279 282 283 284 284 0 0 0 0 0
    0 0 0 0 0 0 0 0 0 0 0 0 0 0 0 0 0 0 0 0 0 0 0 0 0 0 0 0 0 0 0 0 0 0 0 0 0 0 0 0 0 0 0 0 0 0 0 0 0 0 0 0 0 0 0 0 0 0 0 0 0 0 0 0 0 0 0 0 0 293 295 294 294 294 293 294 297 296 295 296 -193 -193 -193 -193 -193 -193 -209 -209 -193 -209 306 310 311 -193 969 972 -209 -209 -209 -209 -209 -209 -193 293 292 294 293 -193 466 468 467 464 -225 -209 772 774 774 773 -209 -193 -193 -193 290 289 291 289 292 293 296 296 298 298 300 301 301 300 -209 -209 -209 -209 -193 292 293 295 295 296 295 295 295 293 -193 -193 290 -193 -193 -193 -193 -193 -209 -209 -209 -209 -193 286 -193 292 -193 -209 -193 -193 -193 -193 -209 -209 -209 -209 -193 291 287 286 286 288 287 285 286 285 286 287 289 288 287 286 -193 688 -193 -193 -193 -193 286 286 287 286 286 287 288 287 290 292 291 290 290 -193 -193 -193 -193 -193 285 286 285 283 283 284 283 284 288 289 291 292 291 290 292 291 291 290 288 290 289 289 288 287 287 287 -193 287 288 -193 236 -193 299 302 302 302 303 300 302 -193 -209 282 -193 -193 -193 -193 280 280 281 -193 -209 280 281 281 282 283 286 290 290 291 292 290 291 291 292 293 290 290 287 285 286 289 286 286 282 285 285 284 283 282 284 291 293 294 296 -209 -209 -209 291 289 -209 -209 274 277 280 283 283 285 285 0 0 0 0 0
    0 0 0 0 0 0 0 0 0 0 0 0 0 0 0 0 0 0 0 0 0 0 0 0 0 0 0 0 0 0 0 0 0 0 0 0 0 0 0 0 0 0 0 0 0 0 0 0 0 0 0 0 0 0 0 0 0 0 0 0 0 0 0 0 0 0 0 0 0 298 301 298 298 297 -225 -193 299 297 -193 -177 -177 -177 -177 841 -193 -193 -193 -209 -193 -225 -225 -225 -193 -209 -193 975 -209 -209 -209 -209 -209 -209 -209 -193 -193 -193 -193 -225 -225 -225 468 -225 -225 -225 -225 -225 775 -193 -225 -225 -225 -225 291 288 291 290 293 295 298 297 297 298 301 302 303 -209 -209 -209 -209 -193 -209 -209 -193 -193 295 -209 -193 -209 -209 -209 -209 -209 -209 -209 402 -193 400 -193 -193 -193 -193 300 -209 -209 -193 295 -209 -193 -193 -193 -193 -193 -193 -193 -193 -193 -225 -225 -225 -209 -193 289 290 287 286 286 287 -193 -193 -209 -209 287 -193 685 687 -209 -209 -209 -193 -193 -193 285 285 285 286 285 289 -209 -209 -209 -209 -209 -209 -209 -209 -209 -209 285 285 287 287 287 285 289 294 -209 -209 -209 -193 -193 293 292 292 290 289 290 289 289 287 285 285 -225 -225 -225 -225 -225 -225 -225 302 304 304 304 305 302 304 -193 123 -209 -209 -209 -193 -193 -209 -209 -209 -209 -209 -209 -209 280 281 283 288 291 291 292 294 292 293 293 292 293 290 290 287 284 288 292 289 286 282 291 296 -193 297 303 -209 298 303 302 306 309 310 309 303 301 -209 -209 -209 279 281 285 286 288 290 0 0 0 0 0
    0 0 0 0 0 0 0 0 0 0 0 0 0 0 0 0 0 0 0 0 0 0 0 0 0 0 0 0 0 0 0 0 0 0 0 0 0 0 0 0 0 0 0 0 0 0 0 0 0 0 0 0 0 0 0 0 0 0 0 0 0 0 0 0 0 0 0 0 0 -225 -225 -225 -225 -225 -225 -225 -225 -225 -225 -225 -225 -225 -225 -225 -225 -225 -225 -225 -225 -225 -225 -225 -225 -225 -225 -225 -225 -225 -225 519 -225 -225 -209 -193 -225 -225 -225 -225 -225 -225 -225 -225 -225 -225 -225 -225 -225 -225 -225 -225 -225 -225 -225 -225 -225 -225 294 296 301 296 297 298 302 -209 -193 -209 -209 -209 -225 -225 -225 -225 -209 -209 -209 -209 -209 -177 -177 559 556 554 552 553 400 -193 -225 -225 -225 -225 -225 -225 -225 -225 -225 -225 -225 -225 -225 -225 -225 -225 -225 -225 -225 -225 -225 -225 -225 -225 -209 -209 -209 -209 -209 -209 -225 897 -225 -225 -225 -225 -225 -225 -209 -193 -193 27 -193 -193 -193 -225 -209 -209 -193 -193 -193 -193 229 -193 221 223 223 222 -177 -177 219 221 -193 298 -225 -225 295 -225 -225 -225 -225 -225 -225 -225 294 -225 -225 -225 290 291 292 292 -225 -225 -225 -225 -225 -225 -225 -225 -225 -225 -225 -225 -225 -225 -225 -225 -225 -225 -225 -225 -225 -193 -225 -193 977 980 -209 -209 -193 -193 -209 -209 -193 283 289 293 292 293 295 294 294 293 291 292 -209 289 287 285 293 297 297 302 312 314 317 318 318 316 314 311 312 311 310 312 313 312 312 311 308 306 -209 292 291 292 293 293 294 0 0 0 0 0
    0 0 0 0 0 0 0 0 0 0 0 0 0 0 0 0 0 0 0 0 0 0 0 0 0 0 0 0 0 0 0 0 0 0 0 0 0 0 0 0 0 0 0 0 0 0 0 0 0 0 0 0 0 0 0 0 0 0 0 0 0 0 0 0 0 0 0 0 0 -225 -225 -225 -225 -225 -225 -225 -225 -225 -225 -225 -225 -225 -225 -225 -225 -225 -225 -225 -225 -225 -225 -225 -225 -225 -225 -225 -225 -225 -225 -225 -225 -225 -225 -225 -225 -225 -225 -225 -225 -225 -225 -225 -225 -225 -225 -225 -225 -225 -225 -225 -225 -225 -225 -225 -225 -225 -225 -225 -225 -225 -225 -225 -225 -225 -225 -225 -225 -225 -225 -225 -225 -225 -225 -225 -225 -225 -225 -225 -225 -225 -225 -225 -225 -225 -225 -225 -225 -225 -225 -225 -225 -225 -225 -225 -225 -225 -225 -225 -225 -225 -225 -225 -225 -225 -225 -225 -225 -225 -225 -225 -225 -225 -225 -225 -225 -225 -225 -225 -225 -225 -225 -225 -225 -225 -225 -225 -225 -225 -225 -225 -225 -225 -225 -225 -225 -225 -225 -209 -209 -209 -209 -209 -209 -209 -209 -209 -209 -225 -225 -225 -225 -225 -225 -225 -225 -225 -225 -225 -225 -225 -225 -225 -225 -225 -225 -225 -225 -225 -225 -225 -225 -225 -225 -225 -225 -225 -225 -225 -225 -225 -225 -225 -225 -225 -225 -225 -225 -225 -225 -225 -225 -225 -225 -225 -209 195 -193 210 -209 -209 -209 -177 -177 298 297 297 299 -209 -209 -209 -209 -209 -209 -209 282 286 294 298 304 313 318 323 321 323 322 319 315 313 313 313 310 311 312 311 313 315 314 314 316 -193 308 305 299 296 297 0 0 0 0 0
    0 0 0 0 0 0 0 0 0 0 0 0 0 0 0 0 0 0 0 0 0 0 0 0 0 0 0 0 0 0 0 0 0 0 0 0 0 0 0 0 0 0 0 0 0 0 0 0 0 0 0 0 0 0 0 0 0 0 0 0 0 0 0 0 0 0 0 0 0 -225 -225 -225 -225 -225 -225 -225 -225 -225 -225 -225 -225 -225 -225 -225 -225 -225 -225 -225 -225 -225 -225 -225 -225 -225 -225 -225 -225 -225 -225 -225 -225 -225 -225 -225 -225 -225 -225 -225 -225 -225 -225 -225 -225 -225 -225 -225 -225 -225 -225 -225 -225 -225 -225 -225 -225 -225 -225 -225 -225 -225 -225 -225 -225 -225 -225 -225 -225 -225 -225 -225 -225 -225 -225 -225 -225 -225 -225 -225 -225 -225 -225 -225 -225 -225 -225 -225 -225 -225 -225 -225 -225 -225 -225 -225 -225 -225 -225 -225 -225 -225 -225 -225 -225 -225 -225 -225 -225 -225 -225 -225 -225 -225 -225 -225 -225 -225 -225 -225 -225 -225 -225 -225 -225 -225 -225 -225 -225 -225 -225 -225 -225 -225 -225 -225 -225 -225 -225 -225 -225 -225 -225 -225 -225 -225 -225 -225 -225 -225 -225 -225 -225 -225 -225 -225 -225 -225 -225 -225 -225 -225 -225 -225 -225 -225 -225 -225 -225 -225 -225 -225 -225 -225 -225 -225 -225 -225 -225 -225 -225 -225 -225 -225 -225 -225 -225 -225 -225 -225 -225 -225 -225 -225 -225 -225 -225 -225 -225 -225 -225 -225 -225 -209 -209 -209 -209 -209 -209 -209 -209 -209 -209 -209 -209 -209 274 282 290 297 308 315 318 323 321 323 322 321 317 316 315 315 313 314 315 314 316 319 316 315 316 316 313 314 -193 308 309 0 0 0 0 0
    0 0 0 0 0 0 0 0 0 0 0 0 0 0 0 0 0 0 0 0 0 0 0 0 0 0 0 0 0 0 0 0 0 0 0 0 0 0 0 0 0 0 0 0 0 0 0 0 0 0 0 0 0 0 0 0 0 0 0 0 0 0 0 0 0 0 0 0 0 -225 -225 -225 -225 -225 -225 -225 -225 -225 -225 -225 -225 -225 -225 -225 -225 -225 -225 -225 -225 -225 -225 -225 -225 -225 -225 -225 -225 -225 -225 -225 -225 -225 -225 -225 -225 -225 -225 -225 -225 -225 -225 -225 -225 -225 -225 -225 -225 -225 -225 -225 -225 -225 -225 -225 -225 -225 -225 -225 -225 -225 -225 -225 -225 -225 -225 -225 -225 -225 -225 -225 -225 -225 -225 -225 -225 -225 -225 -225 -225 -225 -225 -225 -225 -225 -225 -225 -225 -225 -225 -225 -225 -225 -225 -225 -225 -225 -225 -225 -225 -225 -225 -225 -225 -225 -225 -225 -225 -225 -225 -225 -225 -225 -225 -225 -225 -225 -225 -225 -225 -225 -225 -225 -225 -225 -225 -225 -225 -225 -225 -225 -225 -225 -225 -225 -225 -225 -225 -225 -225 -225 -225 -225 -225 -225 -225 -225 -225 -225 -225 -225 -225 -225 -225 -225 -225 -225 -225 -225 -225 -225 -225 -225 -225 -225 -225 -225 -225 -225 -225 -225 -225 -225 -225 -225 -225 -225 -225 -225 -225 -225 -225 -225 -225 -225 -225 -225 -225 -225 -225 -225 -225 -225 -225 -225 -225 -225 -225 -225 -225 -225 -225 -225 -225 -209 -209 -209 -209 -209 -209 -209 -209 -209 -209 260 266 279 286 295 307 315 319 324 321 323 323 321 319 318 317 317 315 318 318 318 322 324 320 319 318 318 314 314 314 311 311 0 0 0 0 0</data></disparity>
</opencv_storage>
