<?xml version="1.0"?>
<opencv_storage>
<gps_time_stamp>26542</gps_time_stamp>
<gps_x>-5.7692089080810547e+000</gps_x>
<gps_y>8.3922517299652100e-001</gps_y>
<gps_z>-1.4568911790847778e+000</gps_z>
<image_time_stamp>14467</image_time_stamp>
<disparity type_id="opencv-matrix">
  <rows>79</rows>
  <cols>320</cols>
  <dt>s</dt>
  <data>
    0 0 0 0 0 0 0 0 0 0 0 0 0 0 0 0 0 0 0 0 0 0 0 0 0 0 0 0 0 0 0 0 0 0 0 0 0 0 0 0 0 0 0 0 0 0 0 0 0 0 0 0 0 0 0 0 0 0 0 0 0 0 0 0 0 0 0 0 0 140 139 139 140 141 141 142 142 141 141 143 143 143 143 140 142 142 142 143 142 142 143 141 143 141 140 140 138 139 139 138 140 138 142 140 140 144 142 141 141 141 141 140 140 140 138 139 140 140 139 138 139 140 138 140 139 139 140 139 140 140 140 140 140 139 139 139 139 138 138 138 142 139 140 141 140 141 141 142 141 138 140 141 141 141 141 142 140 141 141 140 140 139 139 139 138 138 139 139 139 140 141 140 141 141 141 141 141 141 141 140 141 139 139 140 138 137 137 136 136 136 137 137 137 137 138 139 138 140 140 140 141 141 140 141 140 142 140 141 140 142 140 140 139 139 139 139 139 140 139 140 141 141 140 141 139 140 139 139 140 138 138 140 140 140 138 137 137 -193 -193 -209 135 138 139 139 140 140 139 139 140 139 138 137 137 133 134 134 134 135 135 135 137 137 137 137 138 139 139 139 143 139 139 140 139 139 138 138 139 137 140 141 141 142 144 148 148 148 148 148 148 148 149 147 144 142 141 141 141 141 141 140 139 138 139 138 139 141 142 139 145 149 151 154 156 157 156 0 0 0 0 0
    0 0 0 0 0 0 0 0 0 0 0 0 0 0 0 0 0 0 0 0 0 0 0 0 0 0 0 0 0 0 0 0 0 0 0 0 0 0 0 0 0 0 0 0 0 0 0 0 0 0 0 0 0 0 0 0 0 0 0 0 0 0 0 0 0 0 0 0 0 141 140 140 140 141 141 142 142 141 140 142 142 143 142 139 141 142 141 142 142 142 142 140 143 140 140 140 138 138 138 137 138 137 140 140 139 144 141 141 141 141 141 140 140 140 138 139 141 140 140 138 139 141 138 139 139 138 140 139 140 140 140 141 140 139 140 139 139 138 138 138 142 139 139 141 140 141 141 142 141 138 141 142 141 141 141 141 140 141 141 140 140 138 139 139 138 138 139 139 139 140 140 140 141 141 141 141 141 141 141 140 141 139 139 140 138 137 137 136 136 136 137 137 137 138 139 140 139 141 140 141 141 141 141 141 140 142 140 140 140 142 139 139 139 139 138 139 139 140 139 140 141 141 141 141 139 140 140 138 141 138 137 140 139 140 138 137 138 137 137 137 136 138 140 139 140 139 139 139 139 139 138 137 137 135 135 136 136 137 137 138 139 139 138 139 139 140 139 140 144 139 139 140 140 139 139 139 139 138 141 143 142 143 146 149 149 149 149 149 148 149 149 147 144 142 142 142 142 141 141 140 140 139 139 139 141 145 147 145 150 152 154 159 159 158 158 0 0 0 0 0
    0 0 0 0 0 0 0 0 0 0 0 0 0 0 0 0 0 0 0 0 0 0 0 0 0 0 0 0 0 0 0 0 0 0 0 0 0 0 0 0 0 0 0 0 0 0 0 0 0 0 0 0 0 0 0 0 0 0 0 0 0 0 0 0 0 0 0 0 0 142 140 140 140 141 142 142 142 141 139 141 142 142 141 138 140 141 141 142 141 141 141 140 142 141 140 140 138 138 137 137 137 135 -193 138 138 143 140 140 140 141 141 140 140 140 138 139 141 141 139 138 139 141 138 139 139 138 140 139 140 140 140 141 140 139 139 138 139 138 138 138 142 139 139 141 140 141 141 142 141 138 141 142 141 141 141 141 140 141 141 140 140 139 140 139 138 138 139 140 140 140 141 140 142 142 141 141 141 141 141 140 141 139 139 139 138 137 136 135 135 134 136 136 137 137 138 139 139 141 140 141 141 141 141 142 140 142 140 140 140 141 139 139 139 139 138 139 139 139 139 140 140 140 140 140 139 140 139 138 140 137 137 139 139 139 138 137 138 137 137 137 137 139 140 139 140 139 139 139 139 139 138 137 138 137 136 137 137 138 138 139 140 140 139 139 140 140 140 140 145 140 139 141 140 140 139 140 140 138 142 145 143 145 147 150 150 150 149 149 148 149 150 148 145 144 143 143 143 142 142 141 141 140 140 140 144 149 150 149 152 154 155 158 159 158 158 0 0 0 0 0
    0 0 0 0 0 0 0 0 0 0 0 0 0 0 0 0 0 0 0 0 0 0 0 0 0 0 0 0 0 0 0 0 0 0 0 0 0 0 0 0 0 0 0 0 0 0 0 0 0 0 0 0 0 0 0 0 0 0 0 0 0 0 0 0 0 0 0 0 0 143 141 141 140 142 142 142 142 141 138 140 141 141 140 138 139 140 140 141 141 141 141 140 142 141 140 140 138 139 138 137 137 135 -193 137 138 141 140 139 140 140 141 140 139 140 138 139 141 141 140 139 140 141 139 140 140 139 141 140 140 140 140 141 140 139 139 138 138 138 138 137 143 139 139 141 140 141 141 142 141 138 140 142 141 140 140 141 140 141 141 140 140 139 140 139 138 139 140 140 140 141 141 140 142 142 141 141 141 141 141 140 141 139 139 139 138 137 136 135 134 133 134 135 136 136 137 139 138 141 141 142 142 142 141 142 140 142 140 140 140 140 139 139 138 138 138 139 139 139 138 140 140 140 140 140 139 139 139 138 140 137 136 139 139 138 138 136 137 136 137 138 137 139 139 139 140 139 139 139 139 139 138 137 138 137 136 137 -193 138 138 139 140 140 139 140 140 140 140 140 146 140 140 141 140 140 140 140 140 138 143 146 145 145 148 150 149 150 149 148 149 149 150 149 146 146 144 144 144 143 144 143 142 142 143 145 149 151 153 152 154 155 157 158 159 158 158 0 0 0 0 0
    0 0 0 0 0 0 0 0 0 0 0 0 0 0 0 0 0 0 0 0 0 0 0 0 0 0 0 0 0 0 0 0 0 0 0 0 0 0 0 0 0 0 0 0 0 0 0 0 0 0 0 0 0 0 0 0 0 0 0 0 0 0 0 0 0 0 0 0 0 144 141 141 140 142 142 142 142 141 138 140 141 142 140 138 138 140 140 142 140 141 141 140 142 141 140 141 139 140 138 137 137 135 136 137 137 141 139 139 139 140 141 140 139 140 138 140 141 141 140 139 141 141 140 141 141 140 142 140 140 140 141 141 140 139 139 137 138 138 138 137 143 140 140 141 141 141 141 142 141 138 140 142 140 139 140 141 140 142 141 140 140 139 141 138 138 139 140 140 140 141 141 140 142 141 141 140 140 140 140 140 140 139 139 138 138 137 136 135 134 133 134 135 136 136 137 139 138 141 141 142 143 142 142 143 141 143 141 140 140 140 139 138 138 138 138 138 138 138 138 139 140 139 140 139 139 140 140 138 141 137 136 138 138 137 137 136 137 136 137 138 137 139 139 139 140 140 139 139 139 139 138 137 138 137 136 137 137 137 138 139 140 140 140 140 141 140 140 140 147 141 140 141 141 140 140 140 141 138 145 147 146 146 148 150 149 150 148 147 148 148 149 148 146 147 146 146 146 146 146 146 145 145 147 150 152 153 153 153 154 155 156 157 158 158 158 0 0 0 0 0
    0 0 0 0 0 0 0 0 0 0 0 0 0 0 0 0 0 0 0 0 0 0 0 0 0 0 0 0 0 0 0 0 0 0 0 0 0 0 0 0 0 0 0 0 0 0 0 0 0 0 0 0 0 0 0 0 0 0 0 0 0 0 0 0 0 0 0 0 0 144 141 140 140 141 141 142 141 141 137 139 141 141 139 138 138 140 141 142 141 140 141 140 142 142 140 141 140 140 139 138 137 135 137 138 138 141 139 139 139 140 141 140 139 140 138 140 142 142 141 140 141 141 140 142 142 140 142 140 140 140 141 141 139 138 138 136 137 137 137 136 143 140 140 141 141 141 142 142 141 138 140 141 140 139 140 141 140 142 141 140 140 139 141 138 137 139 140 139 140 140 140 140 142 141 140 140 140 140 140 139 140 138 139 138 138 137 136 134 134 133 133 134 135 134 136 138 138 140 140 142 143 143 142 143 141 143 141 141 141 140 138 138 138 138 137 138 138 137 138 139 139 139 140 139 139 140 140 138 141 138 137 139 139 137 137 136 136 135 136 137 136 139 139 138 140 140 139 139 139 139 138 138 139 137 136 137 137 137 137 138 140 140 139 140 140 140 140 140 147 141 140 141 141 140 140 140 141 138 146 148 148 147 148 150 149 149 148 147 147 148 149 148 147 149 148 148 148 148 148 149 148 148 149 152 152 153 153 152 153 154 155 156 157 157 159 0 0 0 0 0
    0 0 0 0 0 0 0 0 0 0 0 0 0 0 0 0 0 0 0 0 0 0 0 0 0 0 0 0 0 0 0 0 0 0 0 0 0 0 0 0 0 0 0 0 0 0 0 0 0 0 0 0 0 0 0 0 0 0 0 0 0 0 0 0 0 0 0 0 0 145 141 140 140 141 141 141 140 140 137 138 139 139 138 138 137 140 140 -193 -193 -193 142 141 143 142 140 -193 141 -193 -209 139 138 136 138 139 138 141 139 138 139 139 141 140 139 140 138 140 142 142 141 140 141 140 140 -193 -193 139 140 139 140 140 140 140 138 137 138 136 137 137 136 136 144 140 140 141 141 141 142 142 141 138 141 140 140 140 140 140 139 141 140 139 139 139 140 137 137 139 139 139 139 140 140 139 142 141 140 140 140 140 140 139 140 138 139 138 138 137 136 134 133 132 132 133 134 133 135 138 138 140 140 142 143 143 143 143 141 143 141 141 142 140 138 138 138 138 138 138 138 137 138 138 139 139 139 138 139 139 139 138 141 138 137 139 139 137 137 136 136 134 136 137 136 139 139 138 139 140 139 139 139 139 137 138 139 138 137 138 138 138 138 138 139 139 138 138 139 139 140 140 146 141 141 141 142 141 141 141 142 139 147 148 148 147 149 150 150 150 148 149 149 150 150 149 149 151 151 151 150 151 150 151 150 150 150 151 152 152 152 152 153 153 154 155 156 156 158 0 0 0 0 0
    0 0 0 0 0 0 0 0 0 0 0 0 0 0 0 0 0 0 0 0 0 0 0 0 0 0 0 0 0 0 0 0 0 0 0 0 0 0 0 0 0 0 0 0 0 0 0 0 0 0 0 0 0 0 0 0 0 0 0 0 0 0 0 0 0 0 0 0 0 145 141 140 140 141 141 141 140 139 137 137 139 139 138 139 138 140 141 -193 -193 -193 -193 -193 -193 142 140 -193 142 -209 -193 -193 138 136 138 139 138 141 139 138 139 139 140 140 140 140 138 140 142 142 141 140 141 -193 -193 -193 -193 139 139 139 139 139 140 139 138 138 138 137 137 137 137 137 144 140 140 141 141 141 141 142 141 138 141 141 140 141 140 140 139 140 139 139 139 138 139 137 137 139 139 138 139 139 139 139 141 141 140 140 140 140 140 139 140 138 139 138 138 136 136 134 133 132 132 133 135 134 135 138 139 141 142 143 144 143 143 144 141 143 141 140 142 139 138 138 138 138 138 138 138 137 138 139 139 139 139 138 138 139 139 138 140 138 137 138 138 136 136 135 135 133 135 136 136 139 138 138 139 139 138 138 138 138 137 138 138 138 137 138 139 139 139 139 139 139 138 138 139 138 140 141 146 141 141 141 142 142 142 141 142 140 148 149 149 149 150 151 151 151 149 150 150 151 150 149 150 153 153 154 152 154 153 153 153 152 151 152 152 152 153 153 154 155 155 155 156 157 160 0 0 0 0 0
    0 0 0 0 0 0 0 0 0 0 0 0 0 0 0 0 0 0 0 0 0 0 0 0 0 0 0 0 0 0 0 0 0 0 0 0 0 0 0 0 0 0 0 0 0 0 0 0 0 0 0 0 0 0 0 0 0 0 0 0 0 0 0 0 0 0 0 0 0 145 141 140 140 141 140 140 140 140 137 138 140 140 139 142 -193 -193 -193 -193 -193 -193 -193 -193 -209 -209 -209 -209 -209 -209 -209 -209 -193 -193 139 140 138 141 139 139 139 139 140 140 140 140 137 139 141 142 -193 -193 -193 -193 -193 -193 -209 -209 -209 -193 -209 -209 -209 -209 -193 136 137 136 136 136 136 137 145 140 140 141 141 141 141 142 141 139 142 141 141 142 141 140 138 140 139 139 139 139 139 137 137 139 138 138 138 139 139 139 141 140 140 140 140 139 140 139 139 139 139 138 138 -193 -193 134 133 132 132 132 135 133 135 139 139 141 143 143 144 142 144 143 141 142 141 140 143 139 138 138 138 138 138 138 138 -193 138 139 139 139 139 139 138 139 139 138 139 138 138 138 137 136 136 135 134 132 135 136 136 139 138 137 138 139 138 138 138 138 137 138 138 137 137 138 139 140 140 140 140 140 139 139 140 139 141 141 146 141 141 142 142 142 142 141 142 141 149 148 149 148 150 151 151 151 150 150 150 150 151 150 153 156 156 157 157 160 159 159 158 157 154 154 154 153 153 154 155 155 155 155 156 157 160 0 0 0 0 0
    0 0 0 0 0 0 0 0 0 0 0 0 0 0 0 0 0 0 0 0 0 0 0 0 0 0 0 0 0 0 0 0 0 0 0 0 0 0 0 0 0 0 0 0 0 0 0 0 0 0 0 0 0 0 0 0 0 0 0 0 0 0 0 0 0 0 0 0 0 147 141 141 141 141 140 141 141 141 139 140 144 143 143 -193 -193 -193 -193 -193 595 -193 596 596 600 603 609 -209 -209 -209 -209 -209 -209 -209 -193 141 138 141 139 138 139 139 140 140 140 140 137 138 140 141 -193 516 515 517 -209 -209 -209 -193 -209 -209 -209 -209 -209 -209 -209 135 -193 135 134 135 135 136 146 140 141 141 141 141 142 142 142 -193 143 141 142 144 143 140 138 140 139 140 140 139 139 137 137 139 139 138 138 139 139 139 141 140 140 140 140 139 140 139 139 139 139 -193 138 -209 -209 134 -209 -209 130 -193 132 130 133 137 -209 -193 141 141 144 143 145 144 141 141 142 140 143 139 138 138 138 138 138 139 138 137 138 139 139 139 139 138 138 139 138 138 139 138 138 138 137 136 136 136 134 131 135 136 136 140 138 137 138 139 138 138 138 138 137 137 138 138 137 138 139 140 141 140 140 140 139 139 140 140 142 142 146 142 142 143 143 142 142 141 142 141 147 147 148 148 150 150 150 151 150 150 150 150 151 151 154 157 156 157 160 163 163 163 163 162 157 157 157 154 154 155 155 156 156 156 156 157 161 0 0 0 0 0
    0 0 0 0 0 0 0 0 0 0 0 0 0 0 0 0 0 0 0 0 0 0 0 0 0 0 0 0 0 0 0 0 0 0 0 0 0 0 0 0 0 0 0 0 0 0 0 0 0 0 0 0 0 0 0 0 0 0 0 0 0 0 0 0 0 0 0 0 0 -193 142 142 142 143 142 141 142 143 141 142 148 -193 -193 -193 -193 148 -193 -209 -209 -209 595 597 601 604 608 -209 -209 -209 -209 -209 -209 -209 -209 148 140 142 140 139 139 139 140 141 141 -193 -193 137 138 -193 -209 515 511 -209 -209 -209 -209 -209 -209 -209 -209 -209 -209 -209 -209 -209 -209 135 134 135 136 138 149 142 143 143 143 143 143 144 143 -193 -193 142 145 148 149 146 140 143 140 142 141 140 140 137 138 139 139 139 138 139 139 139 141 141 140 140 140 139 140 139 139 139 140 -193 -193 -209 -209 -209 -209 -209 -209 -209 -193 -193 132 -209 -177 -209 -209 -193 -193 144 147 146 144 143 144 141 146 139 138 139 139 138 139 139 139 137 138 139 139 139 140 139 139 139 139 139 139 138 138 138 137 136 137 137 135 133 137 139 137 141 138 138 138 139 138 138 138 138 136 137 138 138 137 139 139 140 140 139 140 139 138 138 137 138 142 143 146 142 142 143 143 142 142 141 142 141 146 145 146 147 149 150 150 150 149 149 150 150 151 151 155 158 158 159 162 164 164 164 164 164 160 160 158 154 155 156 156 157 156 156 156 158 162 0 0 0 0 0
    0 0 0 0 0 0 0 0 0 0 0 0 0 0 0 0 0 0 0 0 0 0 0 0 0 0 0 0 0 0 0 0 0 0 0 0 0 0 0 0 0 0 0 0 0 0 0 0 0 0 0 0 0 0 0 0 0 0 0 0 0 0 0 0 0 0 0 0 0 162 -209 146 148 148 144 142 144 146 145 147 152 -209 -209 -209 -209 -209 -193 -209 -209 -209 -193 -193 -209 -209 -209 -209 -209 -209 -209 -209 -209 -209 -209 167 -209 -209 145 139 140 139 140 142 143 -193 -209 138 140 -209 -209 -209 -209 -209 -209 -209 -209 -193 -209 -209 -209 -209 -209 -209 -209 -209 -209 -193 134 136 138 142 151 144 146 146 145 146 147 148 147 -193 -193 -209 -209 -209 -193 154 145 148 143 146 142 141 140 137 138 139 138 138 138 139 139 139 142 142 141 -193 -193 140 140 139 140 140 141 -193 -193 -209 -209 -209 -209 -209 -209 -209 -209 -209 -209 -209 -177 -209 -209 -209 -193 -193 149 150 151 149 149 147 149 142 140 140 140 138 139 139 139 138 139 140 140 141 142 140 140 140 140 140 140 138 138 138 138 137 139 139 138 138 140 141 138 142 138 138 138 139 138 138 138 138 136 137 138 -193 137 140 140 141 141 140 141 141 140 142 137 142 147 147 146 143 143 144 143 142 142 141 141 142 146 145 147 147 150 150 150 150 149 150 150 150 151 152 156 159 158 161 162 164 164 164 164 164 161 162 158 155 155 156 156 158 156 156 157 159 164 0 0 0 0 0
    0 0 0 0 0 0 0 0 0 0 0 0 0 0 0 0 0 0 0 0 0 0 0 0 0 0 0 0 0 0 0 0 0 0 0 0 0 0 0 0 0 0 0 0 0 0 0 0 0 0 0 0 0 0 0 0 0 0 0 0 0 0 0 0 0 0 0 0 0 163 160 152 155 155 152 144 150 152 151 152 154 -209 -209 -209 -193 -209 -209 -209 -193 -193 -209 -209 -209 -193 -209 -209 -209 -209 -209 -209 -209 -209 166 168 167 168 163 146 146 143 143 146 149 -209 -209 -193 -209 -209 -209 -209 -209 -209 -209 -209 -209 -193 20 -209 -209 -209 -209 -209 -209 -209 -209 -209 -209 -193 146 151 154 149 149 149 149 150 150 152 -209 -209 154 -193 154 156 156 155 150 150 146 148 144 142 141 138 138 139 138 -193 -193 -193 -193 140 144 143 142 -193 -193 141 141 140 141 142 145 147 148 -209 -209 -209 -209 -209 701 -193 -177 -209 -209 -209 -193 -209 -193 -209 154 -193 154 156 158 155 155 154 153 146 143 144 141 139 141 141 141 139 141 143 143 145 146 144 143 143 141 143 141 140 139 140 139 141 143 145 143 145 150 149 141 147 140 138 139 140 139 139 138 138 137 137 138 138 137 140 141 142 142 143 144 147 148 150 152 152 153 152 148 144 144 145 144 143 142 141 141 142 146 146 147 148 150 150 151 151 151 151 151 152 153 156 158 163 161 163 164 164 165 164 164 165 160 163 158 155 155 157 156 158 156 157 159 161 165 0 0 0 0 0
    0 0 0 0 0 0 0 0 0 0 0 0 0 0 0 0 0 0 0 0 0 0 0 0 0 0 0 0 0 0 0 0 0 0 0 0 0 0 0 0 0 0 0 0 0 0 0 0 0 0 0 0 0 0 0 0 0 0 0 0 0 0 0 0 0 0 0 0 0 162 162 155 157 157 157 155 155 157 156 156 158 -193 -193 -193 157 156 156 -193 162 165 168 170 169 172 -209 -209 -209 -209 -193 -193 -193 -209 168 168 168 168 167 159 154 151 150 151 156 -193 -209 -209 -209 -209 -209 -209 -209 -209 -209 -209 -209 -177 -177 -209 -209 -209 -209 -209 -193 -193 165 165 163 160 157 155 161 155 153 153 153 153 154 155 -193 -209 155 156 155 157 156 155 150 -193 146 148 145 143 143 139 140 141 140 -193 -209 -193 -209 -209 146 145 144 -193 -193 143 144 142 144 147 151 153 153 158 157 157 -193 -209 702 -193 -193 -209 -193 160 162 160 161 160 159 160 158 162 164 162 159 160 157 151 149 149 146 141 144 146 147 -193 148 149 149 150 151 150 148 148 145 147 146 145 143 144 146 150 153 155 156 158 157 158 156 155 149 143 146 146 143 141 139 139 138 138 141 139 138 143 145 147 146 -209 -209 154 154 155 156 156 156 155 151 146 146 147 145 143 142 141 140 143 145 146 147 148 151 151 152 152 152 153 153 153 156 161 161 164 162 164 164 165 165 164 163 164 159 163 156 154 154 156 155 158 156 159 161 163 165 0 0 0 0 0
    0 0 0 0 0 0 0 0 0 0 0 0 0 0 0 0 0 0 0 0 0 0 0 0 0 0 0 0 0 0 0 0 0 0 0 0 0 0 0 0 0 0 0 0 0 0 0 0 0 0 0 0 0 0 0 0 0 0 0 0 0 0 0 0 0 0 0 0 0 162 163 158 161 161 162 161 162 164 165 164 164 163 161 -193 160 159 159 162 164 167 170 171 170 172 -209 -209 -209 -209 -193 -193 -193 -193 168 168 168 168 167 165 160 159 156 155 162 164 -209 -193 161 164 -209 -193 -209 -209 -209 -193 166 -209 -209 -193 -193 162 -193 164 163 163 165 165 165 163 162 159 164 161 158 157 157 156 158 158 159 -193 158 160 157 159 159 157 153 152 148 150 148 148 149 147 146 151 -193 -209 -209 -209 -209 -209 -193 -209 147 -209 -193 146 -193 -193 -193 -209 155 158 160 162 161 161 162 -193 -209 -209 -193 -193 160 161 163 162 163 162 162 162 160 163 164 161 161 161 159 154 153 153 152 149 151 153 153 -193 156 156 155 157 156 155 152 152 150 151 151 152 150 150 153 155 157 159 162 163 162 162 162 160 157 153 154 153 151 150 145 143 142 -193 -193 149 144 150 150 152 151 158 163 158 158 159 159 159 159 158 154 149 149 150 147 143 143 142 140 143 146 146 147 149 152 153 153 154 155 155 155 155 159 164 163 165 163 164 164 164 165 164 163 164 158 163 156 154 154 157 155 159 158 161 163 165 165 0 0 0 0 0
    0 0 0 0 0 0 0 0 0 0 0 0 0 0 0 0 0 0 0 0 0 0 0 0 0 0 0 0 0 0 0 0 0 0 0 0 0 0 0 0 0 0 0 0 0 0 0 0 0 0 0 0 0 0 0 0 0 0 0 0 0 0 0 0 0 0 0 0 0 163 163 161 164 163 163 164 165 166 166 167 167 166 165 166 164 164 164 166 167 168 171 172 170 172 -193 -209 -193 170 171 -193 168 169 168 168 168 168 167 166 165 165 164 162 166 167 166 165 165 166 -193 -193 -209 -209 -193 -193 166 -209 -193 166 165 163 163 164 164 164 165 165 165 164 164 162 165 164 162 161 162 160 162 163 164 160 162 163 161 163 163 160 157 157 155 156 154 154 155 156 154 157 157 157 157 157 156 156 156 158 -209 -209 -209 -209 -209 -209 -209 166 160 161 162 163 162 161 162 161 -193 -193 163 163 161 162 163 163 164 162 163 162 161 163 163 161 161 161 160 156 157 156 157 156 157 160 160 161 160 160 161 161 159 159 155 155 153 154 155 155 154 154 157 158 161 162 164 165 163 163 163 162 162 158 159 158 156 157 155 154 155 159 160 157 155 157 155 157 156 161 165 162 162 162 162 162 162 161 157 152 153 152 149 144 144 143 141 145 148 149 150 152 155 156 156 158 158 157 157 157 160 164 162 164 163 164 164 164 164 164 162 163 158 163 157 156 156 159 157 161 163 164 165 167 167 0 0 0 0 0
    0 0 0 0 0 0 0 0 0 0 0 0 0 0 0 0 0 0 0 0 0 0 0 0 0 0 0 0 0 0 0 0 0 0 0 0 0 0 0 0 0 0 0 0 0 0 0 0 0 0 0 0 0 0 0 0 0 0 0 0 0 0 0 0 0 0 0 0 0 163 164 163 164 164 164 165 166 166 167 167 167 167 167 167 167 167 166 168 168 169 171 172 170 171 170 -193 170 170 171 -193 -193 -193 -193 -193 168 168 167 166 166 167 166 165 167 167 167 167 166 167 -193 167 -193 -209 -193 -193 166 166 166 166 165 163 162 164 164 164 165 164 165 165 165 163 166 164 164 163 164 163 164 165 165 164 165 165 164 165 165 164 162 161 160 162 161 159 160 162 160 163 162 163 163 162 163 162 162 165 163 166 167 169 170 170 169 168 163 162 163 162 162 161 162 161 160 163 163 162 161 162 164 163 165 163 164 163 163 164 164 162 163 162 162 159 162 160 162 161 162 164 164 164 163 162 163 164 162 162 160 159 158 159 160 159 157 159 162 161 163 163 164 165 164 164 164 162 163 161 162 161 160 162 160 159 160 164 163 161 160 161 157 159 158 162 165 163 163 163 163 163 163 163 161 155 156 155 153 149 148 147 145 148 150 152 151 153 157 159 160 162 162 160 159 158 162 164 163 164 162 163 163 163 164 163 161 163 158 163 158 158 157 160 158 161 164 165 167 169 169 0 0 0 0 0
    0 0 0 0 0 0 0 0 0 0 0 0 0 0 0 0 0 0 0 0 0 0 0 0 0 0 0 0 0 0 0 0 0 0 0 0 0 0 0 0 0 0 0 0 0 0 0 0 0 0 0 0 0 0 0 0 0 0 0 0 0 0 0 0 0 0 0 0 0 163 163 163 164 164 165 165 166 166 167 168 167 167 168 168 167 167 167 168 168 169 171 171 169 170 169 -193 170 170 171 169 168 169 -193 -193 168 168 167 165 166 167 167 166 167 167 167 167 166 167 167 167 168 -193 -193 -193 166 166 166 166 164 163 163 164 164 164 165 164 165 166 165 164 166 164 164 163 164 164 164 165 166 164 165 165 165 165 166 163 161 161 159 162 162 160 162 163 163 164 164 164 164 164 164 164 164 166 165 167 168 168 170 170 169 168 163 163 163 162 162 161 162 161 159 162 162 162 161 161 163 163 165 164 165 164 164 165 164 164 164 163 163 162 164 163 164 163 163 165 165 165 164 164 164 165 164 164 163 162 162 163 163 162 160 162 164 162 164 163 164 164 163 163 164 163 164 163 164 163 162 163 162 162 164 165 164 163 162 163 160 163 160 163 165 163 164 164 164 164 164 164 163 158 160 158 156 154 154 153 152 153 153 154 154 158 162 163 164 164 164 164 163 162 164 165 163 164 163 163 163 163 163 162 160 162 158 161 157 157 157 159 159 161 164 166 168 169 169 0 0 0 0 0
    0 0 0 0 0 0 0 0 0 0 0 0 0 0 0 0 0 0 0 0 0 0 0 0 0 0 0 0 0 0 0 0 0 0 0 0 0 0 0 0 0 0 0 0 0 0 0 0 0 0 0 0 0 0 0 0 0 0 0 0 0 0 0 0 0 0 0 0 0 163 164 164 164 164 165 166 166 167 168 169 168 168 169 169 169 170 169 169 168 170 171 170 168 169 168 169 169 170 171 169 168 169 168 168 168 168 167 165 167 167 167 167 168 167 167 167 166 167 167 167 168 167 166 167 165 166 165 166 164 163 163 164 164 164 165 164 165 166 165 164 166 164 164 164 164 164 164 165 166 164 166 166 166 166 166 164 162 162 160 161 161 160 162 164 164 165 164 165 165 164 164 163 163 165 164 166 167 166 169 168 168 168 163 163 163 162 163 162 162 161 159 162 162 162 161 162 163 163 165 164 165 165 165 165 165 165 164 163 164 162 164 163 164 164 164 165 165 165 164 164 164 165 164 164 164 163 163 164 164 163 161 163 164 162 163 163 163 164 163 164 164 163 164 163 164 164 163 164 163 163 165 165 164 164 162 163 162 164 162 164 166 164 165 165 165 165 164 165 164 159 163 161 161 159 158 158 156 156 156 157 157 159 161 163 164 164 165 165 165 164 165 166 163 164 163 163 163 163 163 162 159 162 158 159 156 155 155 156 156 156 160 163 167 169 170 0 0 0 0 0
    0 0 0 0 0 0 0 0 0 0 0 0 0 0 0 0 0 0 0 0 0 0 0 0 0 0 0 0 0 0 0 0 0 0 0 0 0 0 0 0 0 0 0 0 0 0 0 0 0 0 0 0 0 0 0 0 0 0 0 0 0 0 0 0 0 0 0 0 0 162 164 164 164 164 165 165 166 168 169 170 169 169 169 170 170 170 170 169 167 169 171 169 167 169 168 168 169 170 171 169 168 169 168 168 168 167 167 165 166 165 165 166 167 167 166 166 166 167 167 166 167 166 166 167 165 166 165 166 165 164 163 163 164 164 165 164 164 166 165 164 166 164 164 164 164 163 163 165 166 164 167 167 166 167 166 164 163 162 160 161 161 161 163 164 164 165 164 164 165 164 164 163 163 164 164 166 166 165 167 166 168 168 164 163 163 163 163 163 163 161 159 162 162 162 161 162 163 163 165 164 166 166 165 166 165 165 164 164 164 162 164 163 165 164 164 165 165 165 164 163 164 165 164 164 164 163 163 164 164 164 161 163 164 162 163 163 163 164 163 163 164 163 164 163 164 164 163 164 163 163 165 165 164 163 162 163 162 164 162 164 166 164 165 165 165 165 165 166 164 159 163 160 161 161 161 161 159 159 159 160 160 161 162 163 164 164 165 165 165 164 165 166 163 164 163 163 163 163 163 162 158 161 157 158 156 154 154 155 156 156 162 164 169 170 170 0 0 0 0 0
    0 0 0 0 0 0 0 0 0 0 0 0 0 0 0 0 0 0 0 0 0 0 0 0 0 0 0 0 0 0 0 0 0 0 0 0 0 0 0 0 0 0 0 0 0 0 0 0 0 0 0 0 0 0 0 0 0 0 0 0 0 0 0 0 0 0 0 0 0 162 164 164 164 165 165 166 166 167 169 170 168 168 168 169 169 170 169 167 166 169 170 169 167 168 168 168 170 170 171 168 168 168 167 167 167 167 166 163 166 164 165 165 167 166 166 166 166 166 167 166 167 166 166 167 165 166 166 166 165 163 163 163 164 163 165 164 164 166 165 164 166 164 164 164 164 163 163 165 165 164 167 166 165 166 166 164 163 162 159 161 161 161 164 164 164 165 164 164 165 164 164 163 163 164 163 166 166 165 167 166 168 169 164 164 164 163 163 163 163 161 159 162 161 161 161 162 163 163 166 165 167 166 166 166 165 165 164 164 164 162 164 163 165 164 164 165 164 164 163 163 164 165 164 163 164 163 163 164 164 164 161 164 164 162 163 163 163 164 163 163 163 162 163 163 164 164 163 164 164 164 165 166 164 164 163 162 162 163 162 164 166 164 165 165 165 165 165 166 165 159 164 160 160 160 160 160 159 158 159 160 161 162 162 163 164 164 166 165 166 164 165 166 163 164 163 163 163 163 163 161 157 161 157 156 156 154 155 158 162 164 169 172 173 175 175 0 0 0 0 0
    0 0 0 0 0 0 0 0 0 0 0 0 0 0 0 0 0 0 0 0 0 0 0 0 0 0 0 0 0 0 0 0 0 0 0 0 0 0 0 0 0 0 0 0 0 0 0 0 0 0 0 0 0 0 0 0 0 0 0 0 0 0 0 0 0 0 0 0 0 163 164 165 165 166 166 166 167 167 169 169 168 168 168 169 169 169 169 167 165 168 168 167 166 167 167 167 169 170 172 168 168 168 167 167 167 166 166 162 166 164 165 165 167 166 166 166 166 166 166 166 167 166 166 167 165 166 166 166 164 163 162 163 163 163 164 164 164 166 165 164 166 164 164 164 164 163 163 165 165 163 167 167 166 167 166 165 164 162 159 161 161 162 164 164 164 165 165 165 165 164 164 162 163 164 163 165 165 165 166 166 168 168 164 164 164 164 164 163 163 161 159 162 162 161 160 162 163 163 166 165 167 166 166 165 164 165 164 164 164 162 164 162 165 164 163 165 164 163 163 162 163 164 163 163 164 163 164 164 164 164 161 164 164 162 163 163 163 164 163 163 163 162 163 163 164 164 163 164 164 164 166 166 165 164 163 162 162 163 162 163 166 164 165 165 165 165 165 166 165 159 164 160 161 160 160 160 158 158 159 159 160 162 162 163 164 165 166 165 166 164 165 166 163 163 163 163 163 162 163 160 157 161 158 157 158 158 162 166 -193 171 179 182 179 181 180 0 0 0 0 0
    0 0 0 0 0 0 0 0 0 0 0 0 0 0 0 0 0 0 0 0 0 0 0 0 0 0 0 0 0 0 0 0 0 0 0 0 0 0 0 0 0 0 0 0 0 0 0 0 0 0 0 0 0 0 0 0 0 0 0 0 0 0 0 0 0 0 0 0 0 164 165 165 165 166 166 166 166 166 167 168 167 168 168 168 169 169 169 167 165 167 165 165 163 164 166 166 168 169 172 167 167 168 167 166 166 166 166 162 166 164 165 166 167 167 166 167 166 166 166 166 166 165 165 166 165 166 166 166 164 163 162 162 164 163 164 163 164 166 164 164 166 164 164 164 164 163 162 165 165 163 167 167 166 167 167 166 164 163 160 161 162 162 164 164 164 165 165 165 165 164 164 162 163 164 163 164 164 164 165 164 167 168 164 164 164 164 164 163 163 161 159 162 162 161 160 163 163 163 166 165 167 166 166 165 164 165 164 164 164 163 164 161 164 164 163 164 163 163 162 162 163 164 163 163 163 163 164 164 164 164 161 164 163 162 163 163 163 164 163 163 163 163 164 163 164 164 164 164 164 165 166 166 165 164 164 163 162 163 161 163 165 164 164 164 164 165 165 166 165 159 163 160 160 160 159 160 159 159 159 160 160 162 162 163 163 164 165 164 165 163 165 165 163 163 163 163 163 162 163 160 157 163 161 161 165 167 169 172 179 177 181 183 181 182 181 0 0 0 0 0
    0 0 0 0 0 0 0 0 0 0 0 0 0 0 0 0 0 0 0 0 0 0 0 0 0 0 0 0 0 0 0 0 0 0 0 0 0 0 0 0 0 0 0 0 0 0 0 0 0 0 0 0 0 0 0 0 0 0 0 0 0 0 0 0 0 0 0 0 0 164 165 165 165 166 166 166 165 165 166 167 166 166 167 167 170 169 170 167 165 166 163 163 161 161 165 164 168 169 172 167 167 167 166 166 166 165 165 161 165 163 164 165 167 166 166 166 166 166 166 165 166 164 165 164 164 165 165 165 164 163 163 162 164 163 164 163 164 166 164 164 166 164 164 164 164 163 162 165 165 163 167 167 166 167 167 167 165 164 161 161 163 163 165 164 165 166 165 165 165 164 164 161 163 163 162 164 164 163 164 163 166 167 163 163 164 164 163 163 163 161 159 162 162 160 160 163 164 164 167 166 168 167 167 166 165 165 165 165 165 163 164 161 164 164 163 164 163 163 162 162 164 164 163 163 163 163 164 164 164 164 161 165 163 162 163 163 163 164 163 164 163 163 164 164 164 165 164 165 164 165 166 166 165 165 165 164 163 164 162 163 165 164 164 164 164 165 165 166 165 159 161 159 158 159 158 159 158 158 159 159 159 162 161 163 163 163 164 163 164 163 165 165 163 163 163 163 163 163 163 160 158 165 165 166 168 172 173 175 180 178 181 182 181 182 181 0 0 0 0 0
    0 0 0 0 0 0 0 0 0 0 0 0 0 0 0 0 0 0 0 0 0 0 0 0 0 0 0 0 0 0 0 0 0 0 0 0 0 0 0 0 0 0 0 0 0 0 0 0 0 0 0 0 0 0 0 0 0 0 0 0 0 0 0 0 0 0 0 0 0 163 164 165 165 167 166 165 165 164 165 166 165 166 166 167 169 168 169 165 164 164 163 161 160 159 164 163 167 168 172 167 167 167 166 166 166 165 165 160 164 162 163 163 166 166 166 166 166 166 166 165 166 163 164 164 163 164 165 165 164 163 163 162 164 162 164 163 164 165 164 164 166 164 164 164 164 163 162 164 164 163 167 167 166 168 168 168 166 166 162 162 164 165 166 165 166 166 165 165 166 165 165 162 164 164 163 164 164 163 163 163 166 166 163 163 164 164 163 163 163 160 159 162 162 160 160 163 164 164 167 167 168 167 168 166 166 166 165 166 165 163 164 161 164 163 163 165 164 163 163 163 165 164 163 164 163 163 163 164 163 163 162 164 163 162 163 163 163 164 162 164 162 163 164 164 164 165 164 165 164 165 166 166 165 165 165 164 163 164 163 163 164 164 164 163 163 164 164 165 164 159 160 159 159 159 159 159 159 159 159 160 160 162 161 163 163 163 164 163 164 164 166 165 163 163 164 163 163 163 164 160 160 167 168 169 170 174 175 177 180 179 181 182 181 182 182 0 0 0 0 0
    0 0 0 0 0 0 0 0 0 0 0 0 0 0 0 0 0 0 0 0 0 0 0 0 0 0 0 0 0 0 0 0 0 0 0 0 0 0 0 0 0 0 0 0 0 0 0 0 0 0 0 0 0 0 0 0 0 0 0 0 0 0 0 0 0 0 0 0 0 164 165 165 165 167 165 164 164 164 165 165 165 165 164 165 -193 167 168 163 162 163 162 160 160 159 165 162 167 168 171 167 167 167 166 165 165 165 164 161 163 161 162 162 166 165 165 165 165 165 165 165 166 162 164 163 163 164 164 165 164 163 164 163 164 163 164 163 164 165 164 164 166 163 164 164 164 162 161 164 163 161 166 166 166 167 168 167 166 165 162 162 164 165 166 165 166 167 166 166 166 165 165 162 164 164 163 164 164 163 163 163 166 166 162 163 164 164 163 163 163 160 159 162 162 160 160 163 164 164 166 166 -193 -193 -193 167 166 166 166 166 165 163 163 161 163 163 163 164 164 163 163 163 165 164 163 164 163 163 163 164 163 163 162 164 162 162 162 163 162 164 162 163 162 163 164 164 164 165 164 165 164 165 166 166 165 165 165 165 163 164 163 163 164 163 163 163 162 164 164 164 162 158 157 157 157 158 158 157 159 160 160 160 161 163 162 164 163 162 163 163 164 163 166 165 163 163 164 164 164 163 164 159 163 168 169 169 170 175 176 178 180 180 181 182 181 181 182 0 0 0 0 0
    0 0 0 0 0 0 0 0 0 0 0 0 0 0 0 0 0 0 0 0 0 0 0 0 0 0 0 0 0 0 0 0 0 0 0 0 0 0 0 0 0 0 0 0 0 0 0 0 0 0 0 0 0 0 0 0 0 0 0 0 0 0 0 0 0 0 0 0 0 165 166 166 165 167 164 164 164 163 164 164 164 164 164 164 -193 166 167 161 162 162 162 159 159 159 165 163 167 167 170 167 167 167 166 165 165 165 164 161 162 160 160 160 165 164 164 164 165 165 165 164 165 162 164 163 163 164 165 165 165 164 164 164 165 163 164 163 164 165 163 164 166 163 164 164 164 162 161 163 163 160 165 165 164 165 166 166 165 165 162 162 164 165 166 165 166 167 166 166 166 165 165 162 164 164 162 164 164 164 163 164 166 165 162 163 164 164 163 163 163 160 159 163 162 160 161 164 164 165 166 167 -193 -193 -193 167 166 166 166 166 165 163 163 160 163 162 163 164 163 163 163 164 165 164 163 164 163 163 163 164 163 163 161 164 161 162 162 163 162 164 162 164 161 164 164 164 163 164 163 164 163 165 166 166 165 165 165 165 163 164 163 163 163 163 163 162 162 164 163 164 161 157 156 157 156 158 158 158 161 161 163 163 163 164 164 165 165 163 164 163 164 163 166 164 163 163 164 164 163 163 164 159 164 168 169 169 170 175 176 178 181 180 181 182 181 182 182 0 0 0 0 0
    0 0 0 0 0 0 0 0 0 0 0 0 0 0 0 0 0 0 0 0 0 0 0 0 0 0 0 0 0 0 0 0 0 0 0 0 0 0 0 0 0 0 0 0 0 0 0 0 0 0 0 0 0 0 0 0 0 0 0 0 0 0 0 0 0 0 0 0 0 166 166 167 166 168 165 164 164 163 164 164 163 163 162 162 -193 163 165 159 161 161 162 160 161 160 165 164 168 168 168 166 167 166 165 165 165 164 163 160 161 160 160 159 164 163 162 163 164 164 164 163 165 162 163 163 164 164 165 165 164 164 164 164 164 163 164 162 164 164 163 164 166 164 164 164 164 162 162 163 162 159 164 163 162 163 165 165 164 164 161 162 164 164 166 165 166 166 165 165 165 165 164 162 164 164 162 164 165 165 164 164 166 165 162 163 164 164 163 163 163 160 160 163 163 160 161 164 165 165 166 167 -193 -193 -193 167 166 166 166 166 165 163 163 160 163 162 162 164 163 162 163 164 164 164 163 164 163 163 163 163 162 163 162 164 161 163 163 163 162 164 161 164 161 163 163 163 163 163 161 163 162 164 165 165 164 164 165 164 163 163 163 163 163 163 162 161 161 163 162 162 159 158 157 158 157 160 160 158 162 162 165 165 165 166 165 166 165 164 164 164 163 163 166 163 162 162 163 163 163 163 163 157 164 167 168 169 170 175 176 178 181 181 182 182 182 182 182 0 0 0 0 0
    0 0 0 0 0 0 0 0 0 0 0 0 0 0 0 0 0 0 0 0 0 0 0 0 0 0 0 0 0 0 0 0 0 0 0 0 0 0 0 0 0 0 0 0 0 0 0 0 0 0 0 0 0 0 0 0 0 0 0 0 0 0 0 0 0 0 0 0 0 167 166 166 165 167 165 164 164 163 164 163 163 163 162 161 -193 162 164 159 160 160 162 161 163 162 166 165 167 168 167 166 166 166 165 165 165 164 163 160 161 160 160 159 164 163 162 163 163 164 163 163 164 162 163 164 165 164 165 165 164 164 164 163 163 160 163 161 163 163 163 164 166 164 164 164 164 163 162 163 162 159 163 162 161 161 164 164 162 162 160 161 163 163 165 164 165 165 164 164 165 164 163 161 164 164 161 163 164 164 163 164 166 164 162 163 164 163 163 163 162 160 160 163 163 160 161 163 164 164 165 165 167 -193 -193 166 166 165 166 166 165 163 163 160 163 161 162 163 163 162 162 163 164 163 163 164 163 163 163 163 162 163 162 164 161 163 163 163 162 164 161 164 161 164 163 163 163 163 161 163 162 164 164 164 164 163 165 164 163 163 163 163 163 163 162 161 161 162 162 160 158 158 156 157 157 158 159 157 161 163 166 168 167 168 167 167 166 164 164 164 163 164 166 163 162 162 163 164 163 163 162 157 164 166 167 168 169 174 176 178 181 182 182 182 182 183 183 0 0 0 0 0
    0 0 0 0 0 0 0 0 0 0 0 0 0 0 0 0 0 0 0 0 0 0 0 0 0 0 0 0 0 0 0 0 0 0 0 0 0 0 0 0 0 0 0 0 0 0 0 0 0 0 0 0 0 0 0 0 0 0 0 0 0 0 0 0 0 0 0 0 0 167 166 166 164 166 165 164 164 163 163 163 163 163 162 161 162 160 162 159 160 159 160 160 163 163 167 165 167 167 166 165 166 166 165 165 165 165 163 161 161 162 162 159 164 163 161 162 163 164 163 162 164 161 163 164 165 163 164 164 164 164 164 163 163 160 163 161 164 163 163 164 166 164 165 165 164 163 163 164 163 160 164 163 162 162 164 164 161 162 160 160 162 162 165 163 164 165 164 164 164 164 163 162 164 164 161 163 163 164 162 164 165 164 161 162 164 163 163 162 161 159 160 163 163 160 161 162 164 164 164 165 166 166 167 166 166 165 165 165 165 162 162 159 162 161 162 163 162 161 162 164 163 163 163 164 163 163 164 163 162 163 162 163 161 162 162 162 162 163 161 164 161 164 164 164 163 163 162 163 161 163 163 163 163 163 164 164 162 163 163 163 162 163 162 161 161 162 162 160 158 159 157 158 158 158 160 158 161 163 165 167 168 168 167 167 165 164 163 163 163 163 166 162 162 162 163 164 163 163 162 157 166 167 167 168 169 174 176 178 181 181 182 181 182 182 182 0 0 0 0 0
    0 0 0 0 0 0 0 0 0 0 0 0 0 0 0 0 0 0 0 0 0 0 0 0 0 0 0 0 0 0 0 0 0 0 0 0 0 0 0 0 0 0 0 0 0 0 0 0 0 0 0 0 0 0 0 0 0 0 0 0 0 0 0 0 0 0 0 0 0 167 166 166 162 166 164 164 165 164 163 163 163 163 162 161 161 160 161 158 159 159 159 159 163 -193 166 165 167 167 166 165 165 166 166 165 165 165 162 161 161 162 162 158 163 163 160 161 162 164 162 161 163 160 162 164 165 162 164 164 164 164 165 163 163 159 164 161 164 163 163 165 166 164 165 165 165 163 164 164 162 161 164 163 162 162 165 164 161 162 160 161 163 162 165 163 164 165 164 163 164 163 163 162 164 164 161 164 163 164 162 164 165 163 161 162 164 163 163 162 161 159 160 163 163 160 161 162 164 164 164 164 165 165 166 165 165 163 164 164 164 161 161 159 161 160 162 163 162 161 162 164 163 163 164 164 163 163 164 163 161 163 162 163 160 162 161 162 162 163 161 164 161 164 164 164 164 163 161 162 160 162 162 163 162 163 164 163 162 163 163 164 163 163 163 162 162 162 163 161 159 160 158 159 158 160 161 160 162 164 165 167 168 168 167 166 165 164 163 163 162 163 165 162 162 162 164 164 164 163 163 158 167 168 168 168 169 173 174 176 179 179 180 180 181 181 179 0 0 0 0 0
    0 0 0 0 0 0 0 0 0 0 0 0 0 0 0 0 0 0 0 0 0 0 0 0 0 0 0 0 0 0 0 0 0 0 0 0 0 0 0 0 0 0 0 0 0 0 0 0 0 0 0 0 0 0 0 0 0 0 0 0 0 0 0 0 0 0 0 0 0 169 167 167 163 166 164 165 165 164 164 163 163 163 162 161 160 160 161 -193 -193 159 -193 160 164 -193 -193 -193 167 167 165 165 165 166 166 165 165 165 162 163 161 163 162 158 162 162 160 161 162 163 162 161 162 160 163 164 165 163 164 164 164 164 164 163 162 159 164 162 164 163 164 165 166 165 165 165 165 163 164 164 162 160 163 162 161 160 164 163 160 161 160 161 162 162 164 163 163 165 163 163 164 163 163 162 164 164 161 164 164 164 163 165 165 163 161 162 164 163 162 162 160 159 160 163 163 160 161 161 163 163 163 164 165 164 165 165 164 163 163 164 163 161 160 160 161 161 162 163 163 161 163 164 163 163 164 164 163 163 164 163 161 163 162 163 160 161 161 161 161 163 161 163 161 163 163 164 163 162 160 162 160 162 161 162 161 162 163 163 162 162 164 164 163 164 163 163 163 163 163 162 160 161 158 159 159 161 163 161 162 164 164 167 169 169 167 167 165 164 164 164 163 163 166 162 162 162 164 164 164 164 163 158 167 167 167 167 168 172 172 176 178 179 180 179 180 180 179 0 0 0 0 0
    0 0 0 0 0 0 0 0 0 0 0 0 0 0 0 0 0 0 0 0 0 0 0 0 0 0 0 0 0 0 0 0 0 0 0 0 0 0 0 0 0 0 0 0 0 0 0 0 0 0 0 0 0 0 0 0 0 0 0 0 0 0 0 0 0 0 0 0 0 170 169 169 164 167 165 166 166 165 164 163 163 163 161 160 159 159 160 -193 -193 -193 -209 162 165 -209 167 -193 167 167 165 165 166 167 167 166 166 166 163 165 162 164 -209 158 162 162 160 161 162 163 161 160 161 160 163 165 165 163 164 164 164 164 164 163 162 159 164 162 164 163 164 165 166 165 166 165 165 164 164 164 162 160 163 161 161 159 163 162 159 159 159 159 161 160 163 161 162 164 163 162 163 163 163 161 163 164 160 164 164 164 163 166 165 163 161 162 164 163 162 162 160 159 160 163 164 160 160 160 162 162 162 163 164 163 164 164 163 162 163 163 163 160 161 160 161 161 162 163 163 161 163 164 163 163 164 164 163 163 164 163 161 163 162 162 160 160 160 160 160 162 160 162 160 163 162 163 162 161 160 161 159 161 160 161 160 161 163 162 161 162 164 164 163 164 163 162 162 162 163 161 160 161 158 159 159 162 163 162 162 165 164 167 169 169 168 167 166 165 165 165 164 164 166 163 162 163 164 165 164 163 162 158 165 166 164 165 167 171 172 178 178 179 179 180 180 180 179 0 0 0 0 0
    0 0 0 0 0 0 0 0 0 0 0 0 0 0 0 0 0 0 0 0 0 0 0 0 0 0 0 0 0 0 0 0 0 0 0 0 0 0 0 0 0 0 0 0 0 0 0 0 0 0 0 0 0 0 0 0 0 0 0 0 0 0 0 0 0 0 0 0 0 171 172 173 164 166 165 166 166 165 164 162 162 163 160 159 158 -193 -193 -193 -193 -209 -209 163 166 -193 168 168 167 168 166 166 166 167 167 166 166 166 163 168 164 -209 -209 -209 163 163 160 161 162 163 161 160 161 160 163 166 166 163 -193 165 -193 165 164 163 162 159 165 161 164 163 164 166 167 165 166 166 166 164 164 165 162 160 161 160 159 158 160 160 157 157 158 159 159 158 162 160 161 163 162 161 162 162 163 161 163 164 159 163 163 164 162 165 165 163 161 162 164 163 162 163 160 159 161 163 164 160 160 160 161 161 161 162 164 162 164 164 163 162 162 162 163 160 161 160 161 161 162 162 162 160 163 164 162 163 164 164 164 164 164 163 161 164 162 162 159 159 159 159 159 161 160 162 160 162 162 163 162 161 160 161 159 160 160 161 159 160 162 161 160 161 164 164 163 164 163 163 163 162 163 161 160 161 158 159 159 161 163 162 162 164 163 167 169 169 168 167 165 164 164 164 162 162 165 163 162 163 164 165 164 164 162 158 163 164 160 162 166 170 171 178 178 180 180 180 180 179 178 0 0 0 0 0
    0 0 0 0 0 0 0 0 0 0 0 0 0 0 0 0 0 0 0 0 0 0 0 0 0 0 0 0 0 0 0 0 0 0 0 0 0 0 0 0 0 0 0 0 0 0 0 0 0 0 0 0 0 0 0 0 0 0 0 0 0 0 0 0 0 0 0 0 0 170 -209 -209 164 166 165 -193 -193 -193 -193 160 161 162 161 -193 158 -209 -193 -177 -193 -209 -209 -193 166 168 168 168 167 168 166 165 165 166 167 166 166 166 160 169 -209 -209 -193 -209 -193 164 160 161 162 164 160 160 161 -193 163 -209 -193 -193 -209 -209 -209 164 164 162 161 -193 164 159 163 -193 165 166 167 166 167 167 166 165 165 165 162 161 160 159 158 156 159 158 156 156 158 158 159 158 160 159 160 163 161 160 161 161 162 161 163 164 157 162 162 164 162 166 164 163 161 161 164 163 162 162 159 159 160 -193 -193 159 159 159 160 161 161 162 -193 163 164 164 163 162 162 162 163 160 161 161 162 162 163 162 162 160 163 164 161 163 164 164 164 164 165 164 161 165 162 162 159 158 158 158 159 161 159 161 159 162 162 163 162 160 160 160 158 159 159 160 158 159 160 158 158 160 164 164 163 165 163 163 163 162 163 162 160 161 159 159 159 162 163 162 162 164 162 166 169 169 167 167 165 164 163 163 159 159 164 162 161 163 164 165 164 164 163 159 162 163 159 161 165 169 170 178 179 180 180 181 181 179 178 0 0 0 0 0
    0 0 0 0 0 0 0 0 0 0 0 0 0 0 0 0 0 0 0 0 0 0 0 0 0 0 0 0 0 0 0 0 0 0 0 0 0 0 0 0 0 0 0 0 0 0 0 0 0 0 0 0 0 0 0 0 0 0 0 0 0 0 0 0 0 0 0 0 0 -225 -225 -225 -225 -225 -225 -225 -225 -225 -225 -225 -225 -225 -225 -225 -225 -225 -225 -225 -225 -225 -225 -193 -193 -193 -193 -209 167 168 166 165 164 166 167 167 166 167 157 171 185 -209 -209 -193 -209 -209 -193 -209 -193 -193 161 159 160 -209 -193 -209 -193 -209 -225 -209 676 -193 163 161 159 -193 -193 -193 -193 -209 -193 166 167 167 168 168 167 166 166 167 165 164 -193 -193 -193 -193 157 -193 155 155 158 159 159 158 160 159 159 162 161 160 161 160 162 160 162 164 155 154 154 160 160 166 163 162 160 160 163 163 162 162 -193 -193 -193 -193 -193 -193 159 159 160 161 161 162 -193 162 163 163 163 162 162 162 162 160 161 161 162 162 164 163 162 160 163 164 161 163 164 164 164 164 165 164 162 165 162 162 159 158 158 157 159 160 159 161 159 161 162 163 163 161 161 161 158 158 159 159 157 158 158 156 157 159 165 164 163 165 163 164 164 163 164 162 160 162 159 160 159 161 163 162 161 163 161 165 -193 -193 167 166 165 -209 -209 -193 -209 156 163 162 160 162 165 165 165 165 163 160 163 165 160 159 164 167 168 178 179 180 180 180 180 179 179 0 0 0 0 0
    0 0 0 0 0 0 0 0 0 0 0 0 0 0 0 0 0 0 0 0 0 0 0 0 0 0 0 0 0 0 0 0 0 0 0 0 0 0 0 0 0 0 0 0 0 0 0 0 0 0 0 0 0 0 0 0 0 0 0 0 0 0 0 0 0 0 0 0 0 -225 -225 -225 -225 -225 -225 -225 -225 -225 -225 -225 -225 -225 -225 -225 -225 -225 -225 -209 -209 -209 647 644 646 -209 -193 -177 -209 -209 -193 163 162 -177 166 166 165 164 -193 -209 190 199 -225 -225 -225 -193 412 -193 414 419 -193 -193 -193 419 -225 412 414 -225 -225 -225 676 677 -193 160 -193 280 285 283 286 -209 -209 564 565 -193 168 169 168 168 168 170 169 170 595 -193 -193 -193 -209 -209 -209 -209 -209 158 -193 158 160 159 159 162 162 160 161 160 163 161 162 164 -225 -225 -225 -225 158 165 162 -193 -193 -193 -193 -209 -209 -209 68 67 -177 -177 -177 -193 -193 158 160 162 161 162 -193 163 163 163 -193 161 161 162 161 160 160 -193 161 161 164 164 163 160 163 164 161 163 164 164 165 164 165 164 162 165 162 161 159 156 157 157 158 159 158 160 158 161 162 165 165 163 162 162 160 160 161 160 157 158 157 -193 155 158 166 165 164 -193 -193 -193 -193 164 165 163 161 163 160 160 159 162 164 163 161 164 161 165 -209 -209 -209 166 -209 -209 -193 -209 -209 -193 161 163 161 164 166 167 167 167 166 165 166 167 164 160 165 166 167 180 179 180 180 181 181 179 179 0 0 0 0 0
    0 0 0 0 0 0 0 0 0 0 0 0 0 0 0 0 0 0 0 0 0 0 0 0 0 0 0 0 0 0 0 0 0 0 0 0 0 0 0 0 0 0 0 0 0 0 0 0 0 0 0 0 0 0 0 0 0 0 0 0 0 0 0 0 0 0 0 0 0 -225 -193 -177 -193 561 569 571 580 -209 -177 -193 -225 664 -177 -209 -209 -209 -209 -209 -193 46 52 48 -193 -209 -193 -193 -193 -209 -209 -209 -193 -209 -209 -209 -209 -209 -209 -209 -225 -225 -225 -225 -225 -225 -225 -225 -225 -225 -225 -209 -225 -225 -225 -193 689 -193 -225 -225 -225 484 -193 -209 -225 -225 -225 -225 -209 -209 -209 -209 557 559 -209 -209 167 167 169 170 170 172 -209 788 789 789 790 -209 -209 -209 915 -193 -209 -193 -193 157 158 163 163 161 161 160 164 163 164 -225 -225 -225 -225 -225 -225 -193 -193 -193 -193 -193 -209 -209 -193 -209 -193 65 -177 -177 -177 -193 -193 155 161 162 157 161 162 162 162 -193 -193 -193 -209 -225 -209 -193 156 -209 -193 -225 162 -193 166 163 166 165 163 164 165 164 165 164 165 163 161 164 159 157 157 -225 -193 -193 -209 -209 611 612 -209 -209 598 -209 -193 163 161 163 163 164 164 164 -225 -225 -225 -193 155 158 166 166 165 -193 -193 -193 -177 -193 168 167 166 167 165 165 161 163 166 165 161 -193 -193 -209 -209 -209 -209 -193 -209 -209 -193 -209 -209 147 158 -193 -193 167 169 170 170 170 169 169 169 170 -193 162 -209 -209 -193 182 180 181 181 181 181 178 179 0 0 0 0 0
    0 0 0 0 0 0 0 0 0 0 0 0 0 0 0 0 0 0 0 0 0 0 0 0 0 0 0 0 0 0 0 0 0 0 0 0 0 0 0 0 0 0 0 0 0 0 0 0 0 0 0 0 0 0 0 0 0 0 0 0 0 0 0 0 0 0 0 0 0 -225 492 492 -209 -209 569 583 -193 -209 -177 -193 -177 -209 -193 207 204 -193 -193 -209 -209 -193 -193 -193 203 204 206 206 205 -209 -209 -209 -209 -209 -209 -209 -209 201 203 202 203 202 -225 -225 -225 -225 -225 -225 -225 -225 -225 200 202 202 -193 -193 -209 -193 -193 526 531 -209 -209 -177 -209 -209 591 -225 -225 -225 -225 -193 549 -193 -209 -193 -193 -209 -209 -209 -209 -209 -209 789 789 790 -209 -209 -193 -193 -209 -225 -225 -225 -225 -225 -225 -209 -225 -225 -225 -225 -225 -225 -225 -225 -225 -225 -225 -225 -225 -225 -193 -193 -209 -209 -209 -209 588 592 -209 196 199 199 200 199 199 197 197 197 -209 -209 -209 -209 -209 -209 -193 -193 -225 -225 -225 -225 -225 -225 -225 -225 -225 -225 -225 -225 -225 -225 165 166 165 165 165 165 165 162 160 162 -225 -225 -225 -225 -225 -225 -225 -193 -193 -209 -209 -209 195 194 194 189 -209 -225 -225 -225 -225 -225 -225 -225 -225 -225 -225 -225 169 -209 -209 -209 -209 -209 -209 -209 181 180 174 176 -193 174 -209 167 171 -209 -209 -209 -209 -209 -209 -209 -209 -209 -209 -209 -209 -209 -209 -209 -177 0 0 -209 175 175 175 174 175 174 174 180 -209 -209 -209 -209 -193 185 181 182 181 182 181 179 180 0 0 0 0 0
    0 0 0 0 0 0 0 0 0 0 0 0 0 0 0 0 0 0 0 0 0 0 0 0 0 0 0 0 0 0 0 0 0 0 0 0 0 0 0 0 0 0 0 0 0 0 0 0 0 0 0 0 0 0 0 0 0 0 0 0 0 0 0 0 0 0 0 0 0 195 -193 -209 -209 -209 -193 -193 -209 -209 -193 -193 -177 203 203 202 201 200 199 201 201 204 202 201 203 203 204 205 204 202 -193 201 -209 -209 -193 -193 201 201 203 203 203 203 204 205 -225 -225 -225 -225 -225 -225 200 201 203 202 202 202 -193 -193 201 -193 -193 -193 -209 -193 -209 -193 -193 -177 -193 619 613 -193 544 -177 -193 -193 -209 199 199 200 -209 -209 -209 -193 -193 -193 0 -193 195 192 196 -225 -225 -225 202 -209 -225 -225 -225 -225 204 204 -193 -209 203 -209 -209 -209 -193 197 196 196 -193 -193 197 196 -193 -193 594 -193 195 195 197 197 198 198 197 197 198 198 -193 -209 -193 -193 50 -193 49 -193 -193 -209 -225 -225 -225 -225 -225 -225 -225 -225 -225 -225 -225 -225 -225 -225 -225 -225 -225 -225 -225 -225 -225 -225 -225 -225 -225 -225 -225 -225 -225 -209 206 200 200 198 197 196 195 193 193 188 -225 -225 -225 -225 -225 -225 -225 -225 -225 -225 -225 -225 -225 -209 -193 -193 -209 -193 199 197 191 187 188 186 187 186 -193 -209 -209 -209 -209 -209 -209 -209 -209 -209 -209 -209 -209 -209 -209 -209 0 -177 0 -209 -193 182 182 182 183 185 185 187 -193 190 -193 -193 187 189 183 185 183 184 182 180 181 0 0 0 0 0
    0 0 0 0 0 0 0 0 0 0 0 0 0 0 0 0 0 0 0 0 0 0 0 0 0 0 0 0 0 0 0 0 0 0 0 0 0 0 0 0 0 0 0 0 0 0 0 0 0 0 0 0 0 0 0 0 0 0 0 0 0 0 0 0 0 0 0 0 0 197 199 198 -193 -209 -209 -209 -209 -193 199 199 -193 202 204 202 203 201 201 202 202 205 203 202 203 203 204 204 203 202 -193 201 -209 -193 200 200 202 201 203 202 203 202 203 203 202 200 200 -225 -225 -193 -177 200 202 201 201 201 -193 -193 201 200 200 198 -193 198 -193 -193 204 -193 551 -193 -193 543 545 -177 -209 -209 199 198 198 199 200 -193 199 -193 -193 -193 -193 198 196 194 197 -193 -193 -193 202 -193 -193 201 202 203 202 203 202 202 202 -193 201 199 198 197 196 196 196 196 197 197 198 198 198 198 196 196 198 197 198 197 197 197 197 198 199 -193 198 -193 -193 -193 53 -193 -193 -193 -193 -193 -193 -193 -225 -225 -225 -193 198 195 196 196 197 194 195 191 196 -225 -225 -225 -225 -225 -225 -225 -225 -225 -225 -225 -193 203 204 200 199 198 197 196 194 194 194 190 186 187 -225 -225 -225 -225 -225 -225 -225 -225 -225 -225 -225 205 208 206 205 202 202 201 200 196 196 191 191 191 191 191 -193 -209 -209 -209 -209 -209 -209 -209 -209 -209 -209 -209 -209 -193 -193 -193 -193 -209 -193 186 186 186 186 187 187 189 190 192 190 -193 187 188 185 186 186 186 185 183 184 0 0 0 0 0
    0 0 0 0 0 0 0 0 0 0 0 0 0 0 0 0 0 0 0 0 0 0 0 0 0 0 0 0 0 0 0 0 0 0 0 0 0 0 0 0 0 0 0 0 0 0 0 0 0 0 0 0 0 0 0 0 0 0 0 0 0 0 0 0 0 0 0 0 0 199 200 199 199 -193 -193 202 202 202 200 200 -193 202 204 202 202 201 201 201 201 203 202 202 203 203 203 204 203 202 -193 201 202 201 201 201 202 201 203 203 203 202 202 201 199 198 198 199 198 197 198 199 201 200 200 201 200 200 201 200 199 198 199 199 199 202 202 202 -193 -209 -209 -177 -177 -193 -193 199 199 198 198 199 199 196 198 198 -193 -209 198 198 196 195 197 198 198 -193 201 200 202 202 203 204 203 203 202 202 202 201 201 200 198 198 198 197 197 197 197 198 198 199 198 198 197 197 198 198 197 197 197 196 197 197 198 196 197 196 197 198 196 197 198 196 -193 -193 200 -209 -193 202 201 197 197 196 196 195 195 194 195 190 195 190 190 -225 190 192 -225 -225 -225 -193 209 209 207 203 203 200 199 198 197 196 195 194 194 191 187 189 186 -225 -225 -225 -225 -225 -225 -225 -225 -225 -225 204 207 206 204 202 202 201 201 197 196 192 191 191 191 191 196 196 195 191 195 189 -193 -193 200 200 199 198 198 -193 -209 -193 -193 -193 186 187 187 188 187 189 189 191 192 194 193 191 -193 189 188 190 190 191 188 187 187 0 0 0 0 0
    0 0 0 0 0 0 0 0 0 0 0 0 0 0 0 0 0 0 0 0 0 0 0 0 0 0 0 0 0 0 0 0 0 0 0 0 0 0 0 0 0 0 0 0 0 0 0 0 0 0 0 0 0 0 0 0 0 0 0 0 0 0 0 0 0 0 0 0 0 200 200 200 200 -193 200 202 202 202 200 200 -193 202 202 201 201 201 201 200 201 202 202 202 202 202 203 203 203 202 200 201 201 201 201 201 202 202 203 204 204 202 203 201 200 198 199 199 199 198 199 199 201 200 200 200 199 200 200 201 199 199 200 201 200 202 202 202 202 202 -209 -193 -193 -193 198 199 199 198 198 199 199 197 198 198 198 197 198 197 196 195 197 197 198 200 201 200 202 202 203 204 203 204 203 203 203 202 202 201 199 199 198 198 197 197 197 199 198 199 198 198 198 198 199 198 197 197 197 196 196 197 197 195 196 194 195 196 194 195 194 194 197 196 198 200 199 202 201 197 197 196 196 196 195 194 194 189 194 190 189 189 189 191 189 192 199 200 203 204 203 201 201 200 199 198 197 195 195 194 194 192 188 190 187 186 186 186 187 -225 -225 -225 193 -193 200 203 205 204 203 201 201 201 201 198 197 194 191 192 191 190 194 194 191 188 193 188 198 -193 199 199 198 198 198 197 198 -193 -193 190 187 188 188 189 188 190 191 194 194 196 196 196 191 193 191 192 191 192 190 191 190 0 0 0 0 0
    0 0 0 0 0 0 0 0 0 0 0 0 0 0 0 0 0 0 0 0 0 0 0 0 0 0 0 0 0 0 0 0 0 0 0 0 0 0 0 0 0 0 0 0 0 0 0 0 0 0 0 0 0 0 0 0 0 0 0 0 0 0 0 0 0 0 0 0 0 200 200 200 200 200 200 202 202 201 201 200 -193 201 202 201 201 201 201 201 201 202 201 202 202 203 202 203 203 202 201 201 201 201 201 201 202 202 203 204 204 202 203 201 200 199 199 200 199 198 199 199 201 200 199 200 199 199 199 200 199 199 201 201 200 202 202 202 201 202 199 200 200 199 198 199 199 198 198 199 199 197 199 199 198 198 198 198 197 195 197 198 198 200 201 200 202 201 203 204 204 204 204 204 204 204 203 201 199 199 198 198 197 197 198 199 198 199 199 199 198 199 199 198 198 197 196 196 196 196 197 194 195 194 194 195 192 194 194 193 196 195 197 199 199 201 200 197 197 196 196 196 194 194 194 189 193 190 189 190 189 191 190 192 198 198 201 202 201 200 200 200 198 197 197 195 194 193 194 192 188 191 189 188 189 188 188 191 -225 -225 192 -193 200 203 204 204 202 201 201 201 200 198 198 195 192 193 192 191 194 194 191 189 192 188 197 197 198 199 197 198 197 197 197 195 194 190 187 189 189 190 188 191 191 195 196 197 197 196 194 195 193 193 191 193 191 192 192 0 0 0 0 0
    0 0 0 0 0 0 0 0 0 0 0 0 0 0 0 0 0 0 0 0 0 0 0 0 0 0 0 0 0 0 0 0 0 0 0 0 0 0 0 0 0 0 0 0 0 0 0 0 0 0 0 0 0 0 0 0 0 0 0 0 0 0 0 0 0 0 0 0 0 200 200 200 200 200 200 201 201 201 201 201 202 201 202 201 201 201 201 201 201 201 202 202 202 203 203 203 203 202 201 201 201 201 201 201 202 201 203 203 203 202 202 201 200 199 199 200 199 199 199 199 201 200 199 199 199 199 199 200 199 198 200 200 199 201 201 200 200 201 199 199 200 199 198 199 199 198 199 199 200 198 199 199 199 198 199 198 197 195 197 198 198 199 200 200 201 201 203 203 204 204 204 204 204 204 203 201 200 199 199 198 197 197 198 199 199 200 199 199 199 199 199 198 197 197 196 196 196 196 196 194 195 194 195 195 193 194 194 195 198 197 198 199 198 200 200 197 196 195 195 195 194 195 194 188 193 190 189 191 189 191 191 192 197 198 201 201 201 200 200 200 199 198 197 195 194 193 193 192 189 191 190 190 192 193 195 197 -193 199 193 197 199 203 204 204 202 201 201 201 201 199 198 197 194 195 194 193 196 196 193 190 192 189 197 198 198 199 197 198 197 196 197 195 194 191 188 190 190 192 190 192 192 196 196 197 197 196 195 195 194 194 192 194 193 193 192 0 0 0 0 0
    0 0 0 0 0 0 0 0 0 0 0 0 0 0 0 0 0 0 0 0 0 0 0 0 0 0 0 0 0 0 0 0 0 0 0 0 0 0 0 0 0 0 0 0 0 0 0 0 0 0 0 0 0 0 0 0 0 0 0 0 0 0 0 0 0 0 0 0 0 200 200 200 200 200 200 201 202 201 203 202 202 202 202 201 201 201 201 201 201 201 201 202 202 202 202 202 202 201 200 201 201 201 201 201 201 201 202 202 202 202 202 201 200 200 200 201 200 199 199 200 201 199 199 199 199 198 199 200 198 198 199 199 199 199 200 199 199 200 199 199 200 199 198 199 199 198 199 199 200 198 200 199 199 199 199 198 198 195 197 198 198 199 200 200 201 201 203 203 203 204 204 204 204 204 204 202 201 200 199 199 198 198 198 199 199 199 199 199 198 198 199 198 197 196 196 196 195 196 196 194 195 194 195 196 193 194 195 196 198 198 199 200 199 200 200 197 196 196 195 195 194 194 194 189 192 190 188 191 190 191 192 193 198 198 200 201 201 200 200 200 199 197 196 195 194 193 193 192 188 191 190 190 193 195 199 -193 -193 -193 188 -193 199 203 204 204 202 201 201 201 201 199 199 198 195 197 196 196 197 197 196 192 194 192 198 198 198 199 197 197 197 196 197 195 194 192 189 191 190 193 192 193 193 196 196 196 196 197 195 196 195 195 193 195 194 195 194 0 0 0 0 0
    0 0 0 0 0 0 0 0 0 0 0 0 0 0 0 0 0 0 0 0 0 0 0 0 0 0 0 0 0 0 0 0 0 0 0 0 0 0 0 0 0 0 0 0 0 0 0 0 0 0 0 0 0 0 0 0 0 0 0 0 0 0 0 0 0 0 0 0 0 200 201 200 200 200 200 201 202 201 203 201 202 201 202 201 201 201 201 201 201 201 201 201 201 201 201 201 202 201 200 201 201 201 202 201 201 201 202 202 202 201 201 200 200 200 200 201 200 200 199 200 200 199 199 199 198 198 199 200 198 198 199 199 199 199 199 199 199 200 199 199 200 198 198 199 199 198 199 199 200 198 200 200 200 199 200 199 199 197 198 199 199 200 200 200 200 201 202 203 203 204 204 204 204 205 204 202 201 201 200 199 198 198 198 199 199 199 198 198 198 198 198 197 196 196 195 196 195 196 196 193 196 195 196 196 195 195 196 197 198 198 199 199 199 200 199 197 197 196 195 195 194 194 194 189 192 190 188 191 191 191 193 194 198 199 200 201 200 200 200 200 198 197 196 195 194 192 193 191 188 190 189 189 191 195 200 201 203 -193 192 197 199 203 203 204 202 201 201 201 201 200 200 199 196 198 197 197 197 197 197 195 196 194 198 197 198 198 196 197 196 195 195 194 194 192 189 191 190 193 194 195 193 196 196 196 196 195 195 194 194 195 194 196 195 196 195 0 0 0 0 0
    0 0 0 0 0 0 0 0 0 0 0 0 0 0 0 0 0 0 0 0 0 0 0 0 0 0 0 0 0 0 0 0 0 0 0 0 0 0 0 0 0 0 0 0 0 0 0 0 0 0 0 0 0 0 0 0 0 0 0 0 0 0 0 0 0 0 0 0 0 200 201 200 200 200 200 201 201 201 202 201 202 201 202 201 201 202 202 202 202 201 202 201 201 201 201 201 201 201 201 201 202 202 203 202 202 201 202 202 201 201 200 200 199 199 200 201 200 200 199 199 200 199 199 198 198 198 198 200 198 198 199 199 199 199 199 199 198 200 199 198 200 198 198 199 199 199 199 199 -193 199 201 200 200 200 201 199 200 198 199 199 199 200 200 200 200 200 202 202 203 204 204 204 204 205 204 203 202 202 201 200 199 198 198 199 199 199 198 198 197 197 198 197 196 195 195 195 195 195 195 192 194 195 196 196 194 194 195 196 198 198 198 198 198 199 199 197 196 196 195 194 194 194 193 189 191 189 188 191 190 191 191 193 196 198 199 199 199 199 199 199 197 197 195 194 194 193 193 191 189 191 189 192 193 195 199 201 203 202 -193 -193 199 203 204 205 202 202 202 202 202 201 201 200 197 199 197 197 197 197 197 196 196 195 198 197 198 198 196 196 195 194 195 193 193 192 189 192 191 195 197 197 195 197 196 196 195 195 195 193 194 195 193 196 194 196 195 0 0 0 0 0
    0 0 0 0 0 0 0 0 0 0 0 0 0 0 0 0 0 0 0 0 0 0 0 0 0 0 0 0 0 0 0 0 0 0 0 0 0 0 0 0 0 0 0 0 0 0 0 0 0 0 0 0 0 0 0 0 0 0 0 0 0 0 0 0 0 0 0 0 0 200 201 200 200 200 200 201 201 201 203 202 202 201 202 201 201 202 202 202 202 201 202 202 201 202 201 201 201 201 201 201 202 202 203 202 202 202 202 202 201 201 200 200 199 199 199 200 200 200 199 199 200 199 199 198 198 198 198 200 199 199 199 199 199 199 199 199 198 199 198 198 199 198 198 199 199 199 200 199 -193 198 200 200 200 199 200 199 199 199 199 200 200 200 200 200 201 201 202 203 203 204 204 204 204 205 204 202 202 201 200 199 198 198 197 198 198 198 197 198 197 197 198 197 196 195 195 196 195 196 195 193 194 196 197 196 196 195 196 197 198 198 199 198 198 198 199 197 196 196 195 193 194 194 193 189 191 190 189 192 192 192 192 194 195 198 198 198 198 198 197 198 196 196 195 195 194 193 193 192 189 194 192 195 196 197 200 201 202 201 197 -193 198 202 202 204 201 201 201 201 201 201 201 201 199 200 199 199 199 199 198 198 196 195 197 197 198 197 195 195 194 193 193 192 192 190 188 190 189 193 196 198 197 198 197 197 197 197 197 195 195 195 194 195 194 195 194 0 0 0 0 0
    0 0 0 0 0 0 0 0 0 0 0 0 0 0 0 0 0 0 0 0 0 0 0 0 0 0 0 0 0 0 0 0 0 0 0 0 0 0 0 0 0 0 0 0 0 0 0 0 0 0 0 0 0 0 0 0 0 0 0 0 0 0 0 0 0 0 0 0 0 201 201 201 201 201 201 202 202 202 203 202 202 202 202 202 201 202 202 202 202 201 202 202 202 202 201 201 201 201 201 201 202 202 203 203 202 202 202 202 201 201 201 200 199 200 200 200 200 200 199 199 200 199 199 198 199 198 199 200 199 198 199 199 199 198 198 198 197 198 198 198 199 198 199 199 200 199 200 199 199 198 199 199 199 199 199 198 199 199 199 200 200 200 200 201 201 202 203 203 203 204 204 204 204 204 203 202 202 201 200 199 198 197 197 197 198 197 196 197 197 197 198 197 197 196 196 197 195 196 196 195 195 197 198 198 197 197 198 199 199 199 200 199 198 198 198 197 196 196 194 193 193 194 193 190 190 190 189 193 192 193 193 194 195 197 197 197 197 197 197 198 196 196 194 195 194 193 193 193 190 195 195 196 197 198 200 201 200 200 198 198 199 201 201 202 199 200 199 199 200 200 200 201 200 201 201 200 200 200 198 198 195 194 196 195 196 196 194 195 194 193 193 193 193 192 191 194 193 197 199 200 199 199 199 199 199 199 199 198 198 198 197 197 196 196 195 0 0 0 0 0
    0 0 0 0 0 0 0 0 0 0 0 0 0 0 0 0 0 0 0 0 0 0 0 0 0 0 0 0 0 0 0 0 0 0 0 0 0 0 0 0 0 0 0 0 0 0 0 0 0 0 0 0 0 0 0 0 0 0 0 0 0 0 0 0 0 0 0 0 0 201 202 201 201 201 201 202 202 202 203 202 202 202 203 202 201 202 202 203 202 202 203 202 202 203 202 202 201 201 201 201 202 202 203 203 202 202 202 202 201 201 201 200 200 200 200 200 200 201 200 199 200 199 199 199 199 198 199 200 199 198 199 198 198 198 198 197 196 197 197 197 198 198 198 199 200 199 200 199 199 199 199 199 199 198 199 198 198 199 199 201 201 201 201 201 201 202 203 203 203 204 204 204 203 203 203 201 201 200 199 198 197 196 196 196 197 197 196 197 196 196 198 197 197 196 196 197 196 196 196 196 195 198 198 198 198 198 199 200 200 200 201 199 198 198 198 197 196 195 194 193 192 193 192 190 189 190 190 193 192 194 195 195 195 197 196 196 197 197 196 197 196 196 194 195 194 193 193 193 192 196 197 197 197 199 200 200 200 200 199 200 201 202 201 201 199 199 199 199 199 199 199 201 200 201 200 200 199 200 198 198 195 195 196 195 195 196 193 194 194 193 193 193 194 193 193 197 197 199 201 202 201 200 200 200 199 199 199 199 199 199 200 199 198 199 198 0 0 0 0 0
    0 0 0 0 0 0 0 0 0 0 0 0 0 0 0 0 0 0 0 0 0 0 0 0 0 0 0 0 0 0 0 0 0 0 0 0 0 0 0 0 0 0 0 0 0 0 0 0 0 0 0 0 0 0 0 0 0 0 0 0 0 0 0 0 0 0 0 0 0 201 202 201 201 200 201 201 202 202 203 202 203 202 203 202 202 202 202 203 203 202 203 202 203 203 202 202 201 201 201 201 202 202 203 203 202 201 202 202 200 200 200 200 200 200 200 200 200 201 200 199 200 199 199 199 199 198 199 200 199 198 198 198 198 197 198 197 196 197 197 197 198 198 198 199 199 199 200 199 199 199 199 199 199 199 199 198 198 199 199 201 201 201 201 201 201 202 203 202 203 204 204 204 203 203 203 201 201 200 199 197 196 196 196 195 197 196 195 197 196 196 197 197 197 196 196 197 196 197 197 196 196 199 199 199 200 199 200 201 201 201 201 199 198 198 198 197 195 195 194 192 192 192 191 189 189 190 190 193 193 195 196 196 196 198 197 197 197 197 197 197 196 196 193 195 194 194 193 194 193 196 198 198 198 199 201 200 200 200 200 201 202 203 202 202 200 199 199 199 198 199 199 200 200 200 200 200 199 199 198 198 195 195 196 194 196 196 192 194 194 193 193 194 194 194 195 198 198 200 201 202 201 200 199 199 199 199 199 -193 200 200 201 201 201 201 201 0 0 0 0 0
    0 0 0 0 0 0 0 0 0 0 0 0 0 0 0 0 0 0 0 0 0 0 0 0 0 0 0 0 0 0 0 0 0 0 0 0 0 0 0 0 0 0 0 0 0 0 0 0 0 0 0 0 0 0 0 0 0 0 0 0 0 0 0 0 0 0 0 0 0 201 202 201 202 200 201 202 202 202 203 202 203 202 203 202 202 202 202 204 203 202 203 202 203 203 202 202 201 200 201 -193 202 202 203 203 202 201 202 201 200 200 200 200 199 200 200 200 200 201 200 199 200 199 200 199 199 199 199 200 199 198 198 197 198 197 197 196 196 196 197 197 198 197 198 199 199 199 200 199 199 199 198 198 199 198 199 198 198 199 199 201 202 201 201 201 201 202 203 202 203 203 204 204 202 203 202 200 201 199 199 197 196 196 195 195 197 195 195 196 195 195 196 197 197 196 196 197 196 197 198 198 197 200 200 200 202 200 200 201 202 201 202 199 199 198 198 197 196 195 194 191 192 192 190 190 189 190 190 193 193 195 196 197 196 198 197 197 197 197 197 196 195 195 193 195 194 194 193 194 193 196 198 198 198 199 200 200 200 200 200 201 202 203 202 202 201 199 199 198 198 198 199 200 200 200 200 200 199 199 198 198 196 195 196 195 196 197 192 194 195 193 193 194 195 195 196 198 199 200 201 202 201 199 199 199 199 199 199 201 201 201 202 203 202 202 203 0 0 0 0 0
    0 0 0 0 0 0 0 0 0 0 0 0 0 0 0 0 0 0 0 0 0 0 0 0 0 0 0 0 0 0 0 0 0 0 0 0 0 0 0 0 0 0 0 0 0 0 0 0 0 0 0 0 0 0 0 0 0 0 0 0 0 0 0 0 0 0 0 0 0 201 202 202 202 201 202 202 202 202 203 202 203 202 204 203 202 203 203 205 203 203 204 202 203 203 202 202 200 200 201 -193 202 203 203 204 203 202 202 202 200 200 200 199 199 200 200 200 200 201 200 198 199 199 200 199 200 199 200 200 199 199 198 198 198 197 197 196 195 196 197 197 198 197 198 199 199 199 200 199 198 198 197 197 198 198 198 198 198 200 200 202 203 202 201 202 202 203 203 203 203 203 203 203 202 202 201 199 -193 199 198 196 195 195 194 193 196 195 194 195 194 194 196 197 197 196 197 197 197 198 198 198 197 200 200 200 202 200 200 201 201 201 202 199 199 198 198 198 196 195 194 191 192 192 190 190 189 190 190 193 193 195 197 197 197 198 197 197 197 197 196 195 195 195 192 195 195 195 194 194 193 196 198 198 197 199 200 200 199 200 200 201 202 203 202 202 200 199 199 198 197 198 198 200 200 200 200 199 199 199 198 198 196 195 196 195 196 196 191 193 194 193 193 194 196 195 196 199 199 200 202 202 200 199 198 199 199 200 200 201 202 202 203 204 203 203 204 0 0 0 0 0
    0 0 0 0 0 0 0 0 0 0 0 0 0 0 0 0 0 0 0 0 0 0 0 0 0 0 0 0 0 0 0 0 0 0 0 0 0 0 0 0 0 0 0 0 0 0 0 0 0 0 0 0 0 0 0 0 0 0 0 0 0 0 0 0 0 0 0 0 0 202 202 202 202 201 202 203 202 202 202 202 202 202 204 202 202 202 202 206 204 203 204 202 203 203 202 202 201 201 202 -193 203 203 204 205 205 203 203 203 200 200 200 199 199 199 200 199 200 200 199 198 199 199 200 199 200 199 200 201 200 199 199 198 198 197 197 197 195 195 197 197 198 197 198 198 199 199 199 198 197 197 196 196 197 197 197 197 198 201 201 203 204 203 202 202 202 203 203 203 203 203 203 203 201 201 200 197 -193 197 196 195 193 193 193 192 195 194 193 195 194 193 196 197 198 197 197 198 197 198 199 199 197 200 200 200 202 201 201 201 201 201 201 199 198 197 197 197 195 194 193 190 191 191 190 190 189 190 191 193 193 196 197 197 196 198 196 196 196 196 195 195 194 195 192 196 195 195 194 195 195 197 198 197 197 199 199 199 199 200 200 201 202 203 202 201 200 199 199 197 197 197 198 199 200 199 200 199 199 199 198 198 196 195 196 194 195 195 189 191 193 192 192 193 195 194 196 199 199 200 201 201 199 197 198 199 199 200 200 202 202 203 204 204 203 204 205 0 0 0 0 0
    0 0 0 0 0 0 0 0 0 0 0 0 0 0 0 0 0 0 0 0 0 0 0 0 0 0 0 0 0 0 0 0 0 0 0 0 0 0 0 0 0 0 0 0 0 0 0 0 0 0 0 0 0 0 0 0 0 0 0 0 0 0 0 0 0 0 0 0 0 202 202 202 202 201 202 203 202 202 202 202 202 201 204 203 202 203 203 207 204 204 204 204 205 205 204 204 202 203 204 -193 202 203 204 206 206 204 204 203 201 200 200 200 199 199 199 198 199 200 199 197 199 199 200 199 200 199 200 201 201 200 199 198 198 197 197 196 194 193 196 197 197 198 199 199 200 200 199 198 195 196 192 192 194 195 195 194 195 200 200 203 204 203 203 203 203 204 -193 203 -193 203 203 202 199 197 194 193 190 191 192 192 192 192 193 192 195 194 193 195 194 194 196 198 198 198 198 198 197 198 199 199 196 199 200 201 203 202 202 202 202 201 202 199 198 197 196 196 194 194 193 190 191 191 189 190 189 191 191 193 193 196 197 197 196 198 195 195 196 196 195 194 194 195 192 196 196 196 196 197 197 198 199 198 198 199 199 199 199 200 200 200 202 202 202 200 200 198 198 196 196 197 197 199 200 199 199 199 -193 -209 -193 197 195 195 196 194 194 194 188 190 194 192 192 194 196 194 197 199 199 200 201 201 200 198 198 199 199 201 201 202 202 202 203 204 203 204 206 0 0 0 0 0
    0 0 0 0 0 0 0 0 0 0 0 0 0 0 0 0 0 0 0 0 0 0 0 0 0 0 0 0 0 0 0 0 0 0 0 0 0 0 0 0 0 0 0 0 0 0 0 0 0 0 0 0 0 0 0 0 0 0 0 0 0 0 0 0 0 0 0 0 0 203 203 203 204 202 204 205 203 203 204 204 202 202 -193 203 202 203 203 207 204 204 204 204 207 206 205 204 202 203 -193 -209 -209 -209 202 205 206 203 205 204 202 -193 201 -193 200 199 199 198 199 200 199 195 198 200 201 200 200 200 -193 201 201 200 198 197 196 197 196 194 192 190 196 195 193 197 197 197 197 197 198 -193 190 194 189 190 191 194 193 -193 192 -193 -193 202 204 203 203 -193 -193 206 -193 -193 -193 -193 -193 -193 197 195 191 191 189 190 190 191 190 190 190 191 194 193 193 196 194 195 197 199 199 198 199 198 197 199 199 200 197 200 200 201 204 204 203 204 203 203 203 200 198 197 196 196 194 193 193 191 190 190 189 190 189 192 193 194 193 196 198 197 196 197 196 196 197 197 196 194 195 195 193 197 196 196 196 -193 198 198 199 198 197 199 200 199 199 199 -193 -209 201 202 201 199 198 195 197 194 194 195 195 199 200 199 -193 -209 -209 -209 -209 -193 -193 194 195 192 193 193 187 190 196 193 194 196 198 197 199 201 201 201 201 201 200 198 199 199 199 200 200 202 202 202 203 204 202 205 207 0 0 0 0 0
    0 0 0 0 0 0 0 0 0 0 0 0 0 0 0 0 0 0 0 0 0 0 0 0 0 0 0 0 0 0 0 0 0 0 0 0 0 0 0 0 0 0 0 0 0 0 0 0 0 0 0 0 0 0 0 0 0 0 0 0 0 0 0 0 0 0 0 0 0 205 204 204 205 203 206 206 204 203 205 205 203 203 209 204 204 204 203 209 204 204 204 204 206 206 205 205 202 204 -193 -193 -177 -209 -193 -193 -193 200 203 202 200 -193 -193 -193 -193 199 -193 197 199 202 200 196 199 -193 202 -193 -193 201 -193 -193 -193 198 197 194 194 195 194 190 191 187 195 191 191 195 195 195 -193 -193 -193 -177 -177 -177 -177 -209 -193 -193 -209 -193 -209 533 762 -193 204 204 -193 -193 -193 -193 -225 -193 -225 -209 -225 -225 -225 190 188 188 -225 -225 -225 -225 189 190 -193 -193 -193 -193 193 196 196 197 197 198 199 199 199 198 197 197 198 199 196 199 199 200 -193 203 202 202 201 201 202 200 198 197 195 197 194 193 194 192 190 190 189 189 188 191 192 192 191 195 197 197 197 197 196 197 199 199 197 194 195 195 194 196 195 195 -193 -193 -193 198 199 198 198 200 200 200 199 200 -193 -177 202 203 202 199 200 194 197 192 192 191 191 -209 -209 -209 -209 -209 -209 -209 -209 -209 -193 -193 -193 -193 191 193 187 193 198 195 196 199 201 199 200 201 201 201 201 201 199 197 198 199 198 199 200 202 202 202 203 204 203 205 208 0 0 0 0 0
    0 0 0 0 0 0 0 0 0 0 0 0 0 0 0 0 0 0 0 0 0 0 0 0 0 0 0 0 0 0 0 0 0 0 0 0 0 0 0 0 0 0 0 0 0 0 0 0 0 0 0 0 0 0 0 0 0 0 0 0 0 0 0 0 0 0 0 0 0 -225 -225 -225 -225 -225 -225 -225 -225 -225 -225 -225 -225 -225 -225 -225 -225 -225 201 211 204 204 205 205 206 206 206 207 202 205 207 -225 -225 -209 -209 -209 -225 -209 -209 -209 -209 -193 -193 -225 -209 -225 -225 -225 -225 -225 -225 -225 -225 -225 -225 -225 -225 -209 203 200 201 199 -225 194 -193 -193 -225 -225 -225 182 -193 188 188 191 191 191 191 192 194 -225 -193 -209 -225 -225 -225 -225 -225 -225 -225 -225 -225 -225 -225 -225 -225 -225 -225 -225 -225 -225 -225 -225 -225 -225 -225 -225 -225 -225 -225 -225 -225 -225 -225 -225 -225 -225 -225 -225 -225 -225 -225 197 198 198 199 199 198 197 196 195 -225 -225 -225 -225 -225 -225 -225 -225 -225 -225 -225 -225 -225 -225 -225 -225 -225 198 -225 -225 -225 -225 188 187 185 186 185 189 190 190 190 194 197 198 198 197 198 199 201 200 198 194 195 194 196 195 195 195 -193 -193 197 197 200 199 199 200 201 200 200 201 -209 678 -193 204 -193 -209 201 197 -193 195 190 188 -209 -209 -209 -209 -209 -209 -209 -209 -193 -177 -177 -177 -209 -193 -209 -209 -209 194 -193 195 196 200 201 200 200 202 202 200 201 200 197 194 196 197 195 198 199 201 202 202 203 203 203 205 209 0 0 0 0 0
    0 0 0 0 0 0 0 0 0 0 0 0 0 0 0 0 0 0 0 0 0 0 0 0 0 0 0 0 0 0 0 0 0 0 0 0 0 0 0 0 0 0 0 0 0 0 0 0 0 0 0 0 0 0 0 0 0 0 0 0 0 0 0 0 0 0 0 0 0 -225 -225 -225 -225 -225 -225 -225 -225 -225 -225 -225 -225 -225 -225 -225 -225 -225 -225 -225 -225 -225 204 204 204 204 -225 -225 -225 -225 -225 -225 -225 -225 -225 -225 -225 -225 -225 -225 -225 -225 -225 -225 -225 -225 -225 -225 -225 -225 -225 -225 -225 -225 -225 -225 -225 -225 -225 -225 -225 -225 -225 -225 -225 -225 -225 -225 -225 -225 -225 -225 -225 -225 -225 -225 -225 -225 -225 -225 -225 -225 -225 -225 -225 -225 -225 -225 -225 -225 -225 -225 -225 -225 -225 -225 -225 -225 -225 -225 -225 -225 -225 -225 -225 -225 -225 -225 -225 -225 -225 -225 -225 -225 -225 -225 -225 -225 -225 -225 -225 -225 -225 -225 -225 -225 -225 -225 -225 -225 -225 -225 -225 -225 -225 -225 -225 -225 -225 -225 -225 -225 -225 -225 -225 -225 -225 -225 -225 -225 -225 -225 -225 -225 -225 -225 -225 -225 -225 189 192 197 199 200 -225 -225 -225 -225 -225 -225 -225 -225 -225 -225 -225 -225 -225 -225 -225 -225 -225 -225 -225 -225 198 200 201 200 200 202 -193 -225 -225 -225 -225 -225 -225 -225 -225 -225 -225 39 41 48 -209 25 23 -209 15 18 14 -177 -177 -193 -209 -209 -209 -209 -209 -209 -193 -209 197 202 203 201 201 202 -193 197 197 196 195 193 196 197 195 198 201 203 203 203 204 204 204 207 211 0 0 0 0 0
    0 0 0 0 0 0 0 0 0 0 0 0 0 0 0 0 0 0 0 0 0 0 0 0 0 0 0 0 0 0 0 0 0 0 0 0 0 0 0 0 0 0 0 0 0 0 0 0 0 0 0 0 0 0 0 0 0 0 0 0 0 0 0 0 0 0 0 0 0 -225 -225 -225 -225 -225 -225 -225 -225 -225 -225 -225 -225 -225 -225 -225 -225 -225 -225 -225 -225 -225 -225 -225 -225 -225 -225 -225 -225 -225 -225 -225 -225 -225 -225 -225 -225 -225 -225 -225 -225 -225 -225 -225 -225 -225 -225 -225 -225 -225 -225 -225 -225 -225 -225 -225 -225 -225 -225 -225 -225 -225 -225 -225 -225 -225 -225 -225 -225 -225 -225 -225 -225 -225 -225 -225 -225 -225 -225 -225 -225 -225 -225 -225 -225 -225 -225 -225 -225 -225 -225 -225 -225 -225 -225 -225 -225 -225 -225 -225 -225 -225 -225 -225 -225 -225 -225 -225 -225 -225 -225 -225 -225 -225 -225 -225 -225 -225 -225 -225 -225 -225 -225 -225 -225 -225 -225 -225 -225 -225 -225 -225 -225 -225 -225 -225 -225 -225 -225 -225 -225 -225 -225 -225 -225 -225 -225 -225 -225 -225 -225 -225 -225 -225 -225 -225 -225 -225 -225 -225 -225 -225 -225 -225 -225 -225 -225 -225 -225 -225 -225 -225 -225 -225 -225 -225 -225 -225 -225 -225 -225 -225 -225 -225 -225 -225 -225 -225 -225 -225 -225 -225 -225 -225 -225 -225 -225 -225 -225 -225 -225 -225 45 54 -209 27 24 -193 18 17 14 -177 -177 -209 -209 -209 -209 -209 -209 -209 -209 -209 -209 207 206 -193 -193 -193 -209 -193 187 194 196 194 197 198 197 200 202 203 204 203 204 204 204 207 211 0 0 0 0 0
    0 0 0 0 0 0 0 0 0 0 0 0 0 0 0 0 0 0 0 0 0 0 0 0 0 0 0 0 0 0 0 0 0 0 0 0 0 0 0 0 0 0 0 0 0 0 0 0 0 0 0 0 0 0 0 0 0 0 0 0 0 0 0 0 0 0 0 0 0 -225 -225 -225 -225 -225 -225 -225 -225 -225 -225 -225 -225 -225 -225 -225 -225 -225 -225 -225 -225 -225 -225 -225 -225 -225 -225 -225 -225 -225 -225 -225 -225 -225 -225 -225 -225 -225 -225 -225 -225 -225 -225 -225 -225 -225 -225 -225 -225 -225 -225 -225 -225 -225 -225 -225 -225 -225 -225 -225 -225 -225 -225 -225 -225 -225 -225 -225 -225 -225 -225 -225 -225 -225 -225 -225 -225 -225 -225 -225 -225 -225 -225 -225 -225 -225 -225 -225 -225 -225 -225 -225 -225 -225 -225 -225 -225 -225 -225 -225 -225 -225 -225 -225 -225 -225 -225 -225 -225 -225 -225 -225 -225 -225 -225 -225 -225 -225 -225 -225 -225 -225 -225 -225 -225 -225 -225 -225 -225 -225 -225 -225 -225 -225 -225 -225 -225 -225 -225 -225 -225 -225 -225 -225 -225 -225 -225 -225 -225 -225 -225 -225 -225 -225 -225 -225 -225 -225 -225 -225 -225 -225 -225 -225 -225 -225 -225 -225 -225 -225 -225 -225 -225 -225 -225 -225 -225 -225 -225 -225 -225 -225 -225 -225 -225 -225 -225 -225 -225 -225 -225 -225 -225 -225 -225 -225 -225 -225 -225 -225 -225 -225 49 57 -209 31 25 -193 19 19 16 -177 -177 -209 -177 -177 -193 -193 -209 -209 -209 -209 -209 207 205 202 -193 -193 -209 -209 -193 199 200 197 200 200 199 200 203 204 203 203 203 202 203 208 213 0 0 0 0 0
    0 0 0 0 0 0 0 0 0 0 0 0 0 0 0 0 0 0 0 0 0 0 0 0 0 0 0 0 0 0 0 0 0 0 0 0 0 0 0 0 0 0 0 0 0 0 0 0 0 0 0 0 0 0 0 0 0 0 0 0 0 0 0 0 0 0 0 0 0 -225 -225 -225 -225 -225 -225 -225 -225 -225 -225 -225 -225 -225 -225 -225 -225 -225 -225 -225 -225 -225 -225 -225 -225 -225 -225 -225 -225 -225 -225 -225 -225 -225 -225 -225 -225 -225 -225 -225 -225 -225 -225 -225 -225 -225 -225 -225 -225 -225 -225 -225 -225 -225 -225 -225 -225 -225 -225 -225 -225 -225 -225 -225 -225 -225 -225 -225 -225 -225 -225 -225 -225 -225 -225 -225 -225 -225 -225 -225 -225 -225 -225 -225 -225 -225 -225 -225 -225 -225 -225 -225 -225 -225 -225 -225 -225 -225 -225 -225 -225 -225 -225 -225 -225 -225 -225 -225 -225 -225 -225 -225 -225 -225 -225 -225 -225 -225 -225 -225 -225 -225 -225 -225 -225 -225 -225 -225 -225 -225 -225 -225 -225 -225 -225 -225 -225 -225 -225 -225 -225 -225 -225 -225 -225 -225 -225 -225 -225 -225 -225 -225 -225 -225 -225 -225 -225 -225 -225 -225 -225 -225 -225 -225 -225 -225 -225 -225 -225 -225 -225 -225 -225 -225 -225 -225 -225 -225 -225 -225 -225 -225 -225 -225 -225 -225 -225 -225 -225 -225 -225 -225 -225 -225 -225 -225 -225 -225 -225 -225 -225 -225 54 68 -193 -209 -193 -209 15 19 16 16 21 -209 -209 -209 -209 -209 -209 -209 -209 -209 -209 -193 -177 207 205 207 -209 -209 -193 -193 204 199 202 -209 -209 200 203 206 203 203 204 202 204 210 214 0 0 0 0 0
    0 0 0 0 0 0 0 0 0 0 0 0 0 0 0 0 0 0 0 0 0 0 0 0 0 0 0 0 0 0 0 0 0 0 0 0 0 0 0 0 0 0 0 0 0 0 0 0 0 0 0 0 0 0 0 0 0 0 0 0 0 0 0 0 0 0 0 0 0 -225 -225 -225 -225 -225 -225 -225 -225 -225 -225 -225 -225 -225 -225 -225 -225 -225 -225 -225 -225 -225 -225 -225 -225 -225 -225 -225 -225 -225 -225 -225 -225 -225 -225 -225 -225 -225 -225 -225 -225 -225 -225 -225 -225 -225 -225 -225 -225 -225 -225 -225 -225 -225 -225 -225 -225 -225 -225 -225 -225 -225 -225 -225 -225 -225 -225 -225 -225 -225 -225 -225 -225 -225 -225 -225 -225 -225 -225 -225 -225 -225 -225 -225 -225 -225 -225 -225 -225 -225 -225 -225 -225 -225 -225 -225 -225 -225 -225 -225 -225 -225 -225 -225 -225 -225 -225 -225 -225 -225 -225 -225 -225 -225 -225 -225 -225 -225 -225 -225 -225 -225 -225 -225 -225 -225 -225 -225 -225 -225 -225 -225 -225 -225 -225 -225 -225 -225 -225 -225 -225 -225 -225 -225 -225 -225 -225 -225 -225 -225 -225 -225 -225 -225 -225 -225 -225 -225 -225 -225 -225 -225 -225 -225 -225 -225 -225 -225 -225 -225 -225 -225 -225 -225 -225 -225 -225 -225 -225 -225 -225 -225 -225 -225 -225 -225 -225 -225 -225 -225 -225 -225 -225 -225 -225 -225 -225 -225 -225 -225 -225 -225 77 74 80 -209 -209 -209 13 19 17 18 23 -209 -209 -209 -209 -209 -209 -209 -209 -209 -209 -177 215 214 212 212 212 -209 -209 211 214 -209 -209 -209 -209 -209 203 207 204 203 205 203 205 212 216 0 0 0 0 0
    0 0 0 0 0 0 0 0 0 0 0 0 0 0 0 0 0 0 0 0 0 0 0 0 0 0 0 0 0 0 0 0 0 0 0 0 0 0 0 0 0 0 0 0 0 0 0 0 0 0 0 0 0 0 0 0 0 0 0 0 0 0 0 0 0 0 0 0 0 -225 -225 -225 -225 -225 -225 -225 -225 -225 -225 -225 -225 -225 -225 -225 -225 -225 -225 -225 -225 -225 -225 -225 -225 -225 -225 -225 -225 -225 -225 -225 -225 -225 -225 -225 -225 -225 -225 -225 -225 -225 -225 -225 -225 -225 -225 -225 -225 -225 -225 -225 -225 -225 -225 -225 -225 -225 -225 -225 -225 -225 -225 -225 -225 -225 -225 -225 -225 -225 -225 -225 -225 -225 -225 -225 -225 -225 -225 -225 -225 -225 -225 -225 -225 -225 -225 -225 -225 -225 -225 -225 -225 -225 -225 -225 -225 -225 -225 -225 -225 -225 -225 -225 -225 -225 -225 -225 -225 -225 -225 -225 -225 -225 -225 -225 -225 -225 -225 -225 -225 -225 -225 -225 -225 -225 -225 -225 -225 -225 -225 -225 -225 -225 -225 -225 -225 -225 -225 -225 -225 -225 -225 -225 -225 -225 -225 -225 -225 -225 -225 -225 -225 -225 -225 -225 -225 -225 -225 -225 -225 -225 -225 -225 -225 -225 -225 -225 -225 -225 -225 -225 -225 -225 -225 -225 -225 -225 -225 -225 -225 -225 -225 -225 -225 -225 -225 -225 -225 -225 -225 -225 -225 -225 -225 -225 -225 -225 -225 -225 -225 -225 -225 75 82 -193 -209 -209 13 21 19 20 -193 -209 -209 -209 -209 -209 -209 -209 -209 -209 -209 220 -193 -193 -193 213 213 -209 -209 212 -209 -209 -209 -209 -209 -209 201 206 205 205 205 203 206 212 217 0 0 0 0 0
    0 0 0 0 0 0 0 0 0 0 0 0 0 0 0 0 0 0 0 0 0 0 0 0 0 0 0 0 0 0 0 0 0 0 0 0 0 0 0 0 0 0 0 0 0 0 0 0 0 0 0 0 0 0 0 0 0 0 0 0 0 0 0 0 0 0 0 0 0 -225 -225 -225 -225 -225 -225 -225 -225 -225 -225 -225 -225 -225 -225 -225 -225 -225 -225 -225 -225 -225 -225 -225 -225 -225 -225 -225 -225 -225 -225 -225 -225 -225 -225 -225 -225 -225 -225 -225 -225 -225 -225 -225 -225 -225 -225 -225 -225 -225 -225 -225 -225 -225 -225 -225 -225 -225 -225 -225 -225 -225 -225 -225 -225 -225 -225 -225 -225 -225 -225 -225 -225 -225 -225 -225 -225 -225 -225 -225 -225 -225 -225 -225 -225 -225 -225 -225 -225 -225 -225 -225 -225 -225 -225 -225 -225 -225 -225 -225 -225 -225 -225 -225 -225 -225 -225 -225 -225 -225 -225 -225 -225 -225 -225 -225 -225 -225 -225 -225 -225 -225 -225 -225 -225 -225 -225 -225 -225 -225 -225 -225 -225 -225 -225 -225 -225 -225 -225 -225 -225 -225 -225 -225 -225 -225 -225 -225 -225 -225 -225 -225 -225 -225 -225 -225 -225 -225 -225 -225 -225 -225 -225 -225 -225 -225 -225 -225 -225 -225 -225 -225 -225 -225 -225 -225 -225 -225 -225 -225 -225 -225 -225 -225 -225 -225 -225 -225 -225 -225 -225 -225 -225 -225 -225 -225 -225 -225 -225 -225 -225 -225 -225 75 83 88 -193 -209 -209 20 18 21 -209 -209 -209 -209 -209 -209 -209 -209 -209 -193 -193 -209 -209 232 -209 -209 -209 -209 -209 -209 -209 -209 -209 -209 -209 -209 202 209 211 209 209 208 -209 213 223 0 0 0 0 0
    0 0 0 0 0 0 0 0 0 0 0 0 0 0 0 0 0 0 0 0 0 0 0 0 0 0 0 0 0 0 0 0 0 0 0 0 0 0 0 0 0 0 0 0 0 0 0 0 0 0 0 0 0 0 0 0 0 0 0 0 0 0 0 0 0 0 0 0 0 -225 -225 -225 -225 -225 -225 -225 -225 -225 -225 -225 -225 -225 -225 -225 -225 -225 -225 -225 -225 -225 -225 -225 -225 -225 -225 -225 -225 -225 -225 -225 -225 -225 -225 -225 -225 -225 -225 -225 -225 -225 -225 -225 -225 -225 -225 -225 -225 -225 -225 -225 -225 -225 -225 -225 -225 -225 -225 -225 -225 -225 -225 -225 -225 -225 -225 -225 -225 -225 -225 -225 -225 -225 -225 -225 -225 -225 -225 -225 -225 -225 -225 -225 -225 -225 -225 -225 -225 -225 -225 -225 -225 -225 -225 -225 -225 -225 -225 -225 -225 -225 -225 -225 -225 -225 -225 -225 -225 -225 -225 -225 -225 -225 -225 -225 -225 -225 -225 -225 -225 -225 -225 -225 -225 -225 -225 -225 -225 -225 -225 -225 -225 -225 -225 -225 -225 -225 -225 -225 -225 -225 -225 -225 -225 -225 -225 -225 -225 -225 -225 -225 -225 -225 -225 -225 -225 -225 -225 -225 -225 -225 -225 -225 -225 -225 -225 -225 -225 -225 -225 -225 -225 -225 -225 -225 -225 -225 -225 -225 -225 -225 -225 -225 -225 -225 -225 -225 -225 -225 -225 -225 -225 -225 -225 -225 -225 -225 -225 -225 -225 -225 -225 76 83 88 -193 -209 -209 -177 -177 -177 -209 -209 -209 -209 -209 -209 -209 -209 -209 237 242 239 238 236 241 -209 -209 -209 -209 -193 236 244 239 -193 236 -209 -209 -193 -193 213 -209 -209 -209 -209 -209 0 0 0 0 0
    0 0 0 0 0 0 0 0 0 0 0 0 0 0 0 0 0 0 0 0 0 0 0 0 0 0 0 0 0 0 0 0 0 0 0 0 0 0 0 0 0 0 0 0 0 0 0 0 0 0 0 0 0 0 0 0 0 0 0 0 0 0 0 0 0 0 0 0 0 -225 -225 -225 -225 -225 -225 -225 -225 -225 -225 -225 -225 -225 -225 -225 -225 -225 -225 -225 -225 -225 -225 -225 -225 -225 -225 -225 -225 -225 -225 -225 -225 -225 -225 -225 -225 -225 -225 -225 -225 -225 -225 -225 -225 -225 -225 -225 -225 -225 -225 -225 -225 -225 -225 -225 -225 -225 -225 -225 -225 -225 -225 -225 -225 -225 -225 -225 -225 -225 -225 -225 -225 -225 -225 -225 -225 -225 -225 -225 -225 -225 -225 -225 -225 -225 -225 -225 -225 -225 -225 -225 -225 -225 -225 -225 -225 -225 -225 -225 -225 -225 -225 -225 -225 -225 -225 -225 -225 -225 -225 -225 -225 -225 -225 -225 -225 -225 -225 -225 -225 -225 -225 -225 -225 -225 -225 -225 -225 -225 -225 -225 -225 -225 -225 -225 -225 -225 -225 -225 -225 -225 -225 -225 -225 -225 -225 -225 -225 -225 -225 -225 -225 -225 -225 -225 -225 -225 -225 -225 -225 -225 -225 -225 -225 -225 -225 -225 -225 -225 -225 -225 -225 -225 -225 -225 -225 -225 -225 -225 -225 -225 -225 -225 -225 -225 -225 -225 -225 -225 -225 -225 -225 -225 -225 -225 -225 -225 -225 -225 -225 -225 265 -209 -209 -193 -209 -209 -177 -209 -209 -209 -209 -209 -209 -209 -209 -209 233 233 235 239 244 244 243 241 243 -209 238 -209 -209 235 240 247 245 243 242 241 237 -193 -193 -209 -209 -209 -209 -209 -193 0 0 0 0 0
    0 0 0 0 0 0 0 0 0 0 0 0 0 0 0 0 0 0 0 0 0 0 0 0 0 0 0 0 0 0 0 0 0 0 0 0 0 0 0 0 0 0 0 0 0 0 0 0 0 0 0 0 0 0 0 0 0 0 0 0 0 0 0 0 0 0 0 0 0 -225 -225 -225 -225 -225 -225 -225 -225 -225 -225 -225 -225 -225 -225 -225 -225 -225 -225 -225 -225 -225 -225 -225 -225 -225 -225 -225 -225 -225 -225 -225 -225 -225 -225 -225 -225 -225 -225 -225 -225 -225 -225 -225 -225 -225 -225 -225 -225 -225 -225 -225 -225 -225 -225 -225 -225 -225 -225 -225 -225 -225 -225 -225 -225 -225 -225 -225 -225 -225 -225 -225 -225 -225 -225 -225 -225 -225 -225 -225 -225 -225 -225 -225 -225 -225 -225 -225 -225 -225 -225 -225 -225 -225 -225 -225 -225 -225 -225 -225 -225 -225 -225 -225 -225 -225 -225 -225 -225 -225 -225 -225 -225 -225 -225 -225 -225 -225 -225 -225 -225 -225 -225 -225 -225 -225 -225 -225 -225 -225 -225 -225 -225 -225 -225 -225 -225 -225 -225 -225 -225 -225 -225 -225 -225 -225 -225 -225 -225 -225 -225 -225 -225 -225 -225 -225 -225 -225 -225 -225 -225 -225 -225 -225 -225 -225 -225 -225 -225 -225 -225 -225 -225 -225 -225 -225 -225 -225 -225 -225 -225 -225 -225 -225 -225 -225 -225 -225 -225 -225 -225 -225 -225 -225 -225 -225 -225 -225 -225 -225 -225 252 264 264 265 264 -193 -209 -193 -209 -209 -209 -209 -209 -209 -209 -209 -193 234 236 239 243 247 248 248 247 246 -209 -209 -209 -209 -209 243 250 -193 -193 246 246 243 239 241 243 245 -193 249 250 252 0 0 0 0 0
    0 0 0 0 0 0 0 0 0 0 0 0 0 0 0 0 0 0 0 0 0 0 0 0 0 0 0 0 0 0 0 0 0 0 0 0 0 0 0 0 0 0 0 0 0 0 0 0 0 0 0 0 0 0 0 0 0 0 0 0 0 0 0 0 0 0 0 0 0 -225 -225 -225 -225 -225 -225 -225 -225 -225 -225 -225 -225 -225 -225 -225 -225 -225 -225 -225 -225 -225 -225 -225 -225 -225 -225 -225 -225 -225 -225 -225 -225 -225 -225 -225 -225 -225 -225 -225 -225 -225 -225 -225 -225 -225 -225 -225 -225 -225 -225 -225 -225 -225 -225 -225 -225 -225 -225 -225 -225 -225 -225 -225 -225 -225 -225 -225 -225 -225 -225 -225 -225 -225 -225 -225 -225 -225 -225 -225 -225 -225 -225 -225 -225 -225 -225 -225 -225 -225 -225 -225 -225 -225 -225 -225 -225 -225 -225 -225 -225 -225 -225 -225 -225 -225 -225 -225 -225 -225 -225 -225 -225 -225 -225 -225 -225 -225 -225 -225 -225 -225 -225 -225 -225 -225 -225 -225 -225 -225 -225 -225 -225 -225 -225 -225 -225 -225 -225 -225 -225 -225 -225 -225 -225 -225 -225 -225 -225 -225 -225 -225 -225 -225 -225 -225 -225 -225 -225 -225 -225 -225 -225 -225 -225 -225 -225 -225 -225 -225 -225 -225 -225 -225 -225 -225 -225 -225 -225 -225 -225 -225 -225 -225 -225 -225 -225 -225 -225 -225 -225 -225 -225 -225 -225 -225 -225 -225 -225 -225 231 247 262 264 265 264 260 261 -209 -209 -209 119 -209 -209 -209 -209 -209 -209 -209 241 247 246 249 252 250 248 -209 -209 -209 -209 -209 -209 -209 256 -209 -209 -193 247 246 245 246 247 249 249 249 251 253 0 0 0 0 0
    0 0 0 0 0 0 0 0 0 0 0 0 0 0 0 0 0 0 0 0 0 0 0 0 0 0 0 0 0 0 0 0 0 0 0 0 0 0 0 0 0 0 0 0 0 0 0 0 0 0 0 0 0 0 0 0 0 0 0 0 0 0 0 0 0 0 0 0 0 -225 -225 -225 -225 -225 -225 -225 -225 -225 -225 -225 -225 -225 -225 -225 -225 -225 -225 -225 -225 -225 -225 -225 -225 -225 -225 -225 -225 -225 -225 -225 -225 -225 -225 -225 -225 -225 -225 -225 -225 -225 -225 -225 -225 -225 -225 -225 -225 -225 -225 -225 -225 -225 -225 -225 -225 -225 -225 -225 -225 -225 -225 -225 -225 -225 -225 -225 -225 -225 -225 -225 -225 -225 -225 -225 -225 -225 -225 -225 -225 -225 -225 -225 -225 -225 -225 -225 -225 -225 -225 -225 -225 -225 -225 -225 -225 -225 -225 -225 -225 -225 -225 -225 -225 -225 -225 -225 -225 -225 -225 -225 -225 -225 -225 -225 -225 -225 -225 -225 -225 -225 -225 -225 -225 -225 -225 -225 -225 -225 -225 -225 -225 -225 -225 -225 -225 -225 -225 -225 -225 -225 -225 -225 -225 -225 -225 -225 -225 -225 -225 -225 -225 -225 -225 -225 -225 -225 -225 -225 -225 -225 -225 -225 -225 -225 -225 -225 -225 -225 -225 -225 -225 -225 -225 -225 -225 -225 -225 -225 -225 -225 -225 -225 -225 -225 -225 -225 -225 -225 -225 -225 -225 -225 -225 -225 -225 -225 232 232 232 248 262 266 266 266 262 262 263 262 -193 -209 -193 252 253 253 253 253 -193 248 250 250 252 254 253 -209 -209 -209 -209 -209 -209 -209 -209 261 -209 -209 -209 -209 -209 -209 247 249 250 251 251 253 256 0 0 0 0 0
    0 0 0 0 0 0 0 0 0 0 0 0 0 0 0 0 0 0 0 0 0 0 0 0 0 0 0 0 0 0 0 0 0 0 0 0 0 0 0 0 0 0 0 0 0 0 0 0 0 0 0 0 0 0 0 0 0 0 0 0 0 0 0 0 0 0 0 0 0 -225 -225 -225 -225 -225 -225 -225 -225 -225 -225 -225 -225 -225 -225 -225 -225 -225 -225 -225 -225 -225 -225 -225 -225 -225 -225 -225 -225 -225 -225 -225 -225 -225 -225 -225 -225 -225 -225 -225 -225 -225 -225 -225 -225 -225 -225 -225 -225 -225 -225 -225 -225 -225 -225 -225 -225 -225 -225 -225 -225 -225 -225 -225 -225 -225 -225 -225 -225 -225 -225 -225 -225 -225 -225 -225 -225 -225 -225 -225 -225 -225 -225 -225 -225 -225 -225 -225 -225 -225 -225 -225 -225 -225 -225 -225 -225 -225 -225 -225 -225 -225 -225 -225 -225 -225 -225 -225 -225 -225 -225 -225 -225 -225 -225 -225 -225 -225 -225 -225 -225 -225 -225 -225 -225 -225 -225 -225 -225 -225 -225 -225 -225 -225 -225 -225 -225 -225 -225 -225 -225 -225 -225 -225 -225 -225 -225 -225 -225 -225 -225 -225 -225 -225 -225 -225 -225 -225 -225 -225 -225 -225 -225 -225 -225 -225 -225 -225 -225 -225 -225 -225 -225 -225 -225 -225 -225 -225 -225 -225 -225 -225 -225 -225 -225 -225 -225 -225 -225 -225 -225 -225 -225 -225 -225 -225 -225 -209 237 -193 -193 251 263 267 267 267 265 265 265 265 266 266 261 258 259 258 258 260 260 253 254 255 257 256 258 -209 -209 -209 -209 -209 264 -209 259 -193 -209 -209 -209 -209 -209 -209 -209 253 256 255 256 258 260 0 0 0 0 0
    0 0 0 0 0 0 0 0 0 0 0 0 0 0 0 0 0 0 0 0 0 0 0 0 0 0 0 0 0 0 0 0 0 0 0 0 0 0 0 0 0 0 0 0 0 0 0 0 0 0 0 0 0 0 0 0 0 0 0 0 0 0 0 0 0 0 0 0 0 -225 -225 -225 -225 -225 -225 -225 -225 -225 -225 -225 -225 -225 -225 -225 -225 -225 -225 -225 -225 -225 -225 -225 -225 -225 -225 -225 -225 -225 -225 -225 -225 -225 -225 -225 -225 -225 -225 -225 -225 -225 -225 -225 -225 -225 -225 -225 -225 -225 -225 -225 -225 -225 -225 -225 -225 -225 -225 -225 -225 -225 -225 -225 -225 -225 -225 -225 -225 -225 -225 -225 -225 -225 -225 -225 -225 -225 -225 -225 -225 -225 -225 -225 -225 -225 -225 -225 -225 -225 -225 -225 -225 -225 -225 -225 -225 -225 -225 -225 -225 -225 -225 -225 -225 -225 -225 -225 -225 -225 -225 -225 -225 -225 -225 -225 -225 -225 -225 -225 -225 -225 -225 -225 -225 -225 -225 -225 -225 -225 -225 -225 -225 -225 -225 -225 -225 -225 -225 -225 -225 -225 -225 -225 -225 -225 -225 -225 -225 -225 -225 -225 -225 -225 -225 -225 -225 -225 -225 -225 -225 -225 -225 -225 -225 -225 -225 -225 -225 -225 -225 -225 -225 -225 -225 -225 -225 -225 -225 -225 -225 -225 -225 -225 -225 -225 -225 -225 -225 -225 -225 -225 -225 -225 -225 -225 -209 -209 -209 -209 -193 252 263 266 266 266 265 265 266 265 267 266 264 262 262 262 261 262 263 259 259 258 260 258 259 -209 -209 -193 -193 262 -209 -209 -209 272 -209 -209 -209 -209 -209 -209 -209 257 259 258 259 260 261 0 0 0 0 0
    0 0 0 0 0 0 0 0 0 0 0 0 0 0 0 0 0 0 0 0 0 0 0 0 0 0 0 0 0 0 0 0 0 0 0 0 0 0 0 0 0 0 0 0 0 0 0 0 0 0 0 0 0 0 0 0 0 0 0 0 0 0 0 0 0 0 0 0 0 -225 -225 -225 -225 -225 -225 -225 -225 -225 -225 -225 -225 -225 -225 -225 -225 -225 -225 -225 -225 0 -256 -1 5406 -225 -225 -225 -225 -225 -225 -225 -225 -225 -225 -225 -225 -225 -225 -225 -225 -225 -225 -225 -225 -225 -225 -225 -225 -225 -225 -225 -225 -225 -225 -225 -225 -225 -225 -225 -225 -225 -225 -225 -225 -225 -225 -225 -225 -225 -225 -225 -225 -225 -225 -225 -225 -225 -225 -225 -225 -225 -225 -225 -225 -225 -225 -225 -225 -225 -225 -225 -225 -225 -225 -225 -225 -225 -225 -225 -225 -225 -225 -225 -225 -225 -225 -225 -225 -225 -225 -225 -225 -225 -225 -225 -225 -225 -225 -225 -225 -225 -225 -225 -225 -225 -225 -225 -225 -225 -225 -225 -225 -225 -225 -225 -225 -225 -225 -225 -225 -225 -225 -225 -225 -225 -225 -225 -225 -225 -225 -225 -225 -225 -225 -225 -225 -225 -225 -225 -225 -225 -225 -225 -225 -225 -225 -225 -225 -225 -225 -225 -225 -225 -225 -225 -225 -225 -225 -225 -225 -225 -225 -225 -225 -225 -225 -225 -225 -225 -225 -225 -225 -225 -225 -225 -209 -209 -209 -209 -209 252 263 266 266 266 265 265 266 265 267 266 264 262 263 263 261 263 263 259 259 260 260 258 259 -193 -193 -193 -193 263 266 265 -209 -193 -209 -209 -209 -209 -209 -209 -209 256 256 257 258 259 259 0 0 0 0 0
    0 0 0 0 0 0 0 0 0 0 0 0 0 0 0 0 0 0 0 0 0 0 0 0 0 0 0 0 0 0 0 0 0 0 0 0 0 0 0 0 0 0 0 0 0 0 0 0 0 0 0 0 0 0 0 0 0 0 0 0 0 0 0 0 0 0 0 0 0 -225 -225 -225 -225 -225 -225 -225 -225 -225 -225 -225 -225 -225 -225 -225 -225 -225 -225 -225 -225 -225 -225 -225 -225 -225 -225 -225 -225 -225 -225 -225 -225 -225 -225 -225 -225 -225 -225 -225 -225 -225 -225 -225 -225 -225 -225 -225 -225 -225 -225 -225 -225 -225 -225 -225 -225 -225 -225 -225 -225 -225 -225 -225 -225 -225 -225 -225 -225 -225 -225 -225 -225 -225 -225 -225 -225 -225 -225 -225 -225 -225 -225 -225 -225 -225 -225 -225 -225 -225 -225 -225 -225 -225 -225 -225 -225 -225 -225 -225 -225 -225 -225 -225 -225 -225 -225 -225 -225 -225 -225 -225 -225 -225 -225 -225 -225 -225 -225 -225 -225 -225 -225 -225 -225 -225 -225 -225 -225 -225 -225 -225 -225 -225 -225 -225 -225 -225 -225 -225 -225 -225 -225 -225 -225 -225 -225 -225 -225 -225 -225 -225 -225 -225 -225 -225 -225 -225 -225 -225 -225 -225 -225 -225 -225 -225 -225 -225 -225 -225 -225 -225 -225 -225 -225 -225 -225 -225 -225 -225 -225 -225 -225 -225 -225 -225 -225 -225 -225 -225 -225 -225 -225 -225 -225 -209 -209 -209 -209 -209 -209 252 263 266 266 265 264 265 266 265 267 266 264 263 264 264 262 263 263 259 260 259 260 258 259 -209 -209 -209 -209 264 267 267 275 -193 -209 -209 -209 -193 -193 -209 -209 -193 -193 254 257 257 257 0 0 0 0 0
    0 0 0 0 0 0 0 0 0 0 0 0 0 0 0 0 0 0 0 0 0 0 0 0 0 0 0 0 0 0 0 0 0 0 0 0 0 0 0 0 0 0 0 0 0 0 0 0 0 0 0 0 0 0 0 0 0 0 0 0 0 0 0 0 0 0 0 0 0 -225 -225 -225 -225 -225 -225 -225 -225 -225 -225 -225 -225 -225 -225 -225 -225 -225 -225 -225 -225 -225 -225 -225 -225 -225 -225 -225 -225 -225 -225 -225 -225 -225 -225 -225 -225 -225 -225 -225 -225 -225 -225 -225 -225 -225 -225 -225 -225 -225 -225 -225 -225 -225 -225 -225 -225 -225 -225 -225 -225 -225 -225 -225 -225 -225 -225 -225 -225 -225 -225 -225 -225 -225 -225 -225 -225 -225 -225 -225 -225 -225 -225 -225 -225 -225 -225 -225 -225 -225 -225 -225 -225 -225 -225 -225 -225 -225 -225 -225 -225 -225 -225 -225 -225 -225 -225 -225 -225 -225 -225 -225 -225 -225 -225 -225 -225 -225 -225 -225 -225 -225 -225 -225 -225 -225 -225 -225 -225 -225 -225 -225 -225 -225 -225 -225 -225 -225 -225 -225 -225 -225 -225 -225 -225 -225 -225 -225 -225 -225 -225 -225 -225 -225 -225 -225 -225 -225 -225 -225 -225 -225 -225 -225 -225 -225 -225 -225 -225 -225 -225 -225 -225 -225 -225 -225 -225 -225 -225 -225 -225 -225 -225 -225 -225 -225 -225 -225 -225 -225 -225 -225 -225 -225 -225 -209 -209 -209 -209 -209 -209 252 263 266 266 265 264 265 265 265 266 266 264 263 264 263 262 264 265 262 263 263 264 -193 -193 -193 -177 -193 -209 270 276 279 -193 283 290 291 291 291 292 -209 -209 255 -209 252 256 258 257 0 0 0 0 0
    0 0 0 0 0 0 0 0 0 0 0 0 0 0 0 0 0 0 0 0 0 0 0 0 0 0 0 0 0 0 0 0 0 0 0 0 0 0 0 0 0 0 0 0 0 0 0 0 0 0 0 0 0 0 0 0 0 0 0 0 0 0 0 0 0 0 0 0 0 -225 -225 -225 -225 -225 -225 -225 -225 -225 -225 -225 -225 -225 -225 -225 -225 -225 -225 -225 -225 -225 -225 -225 -225 -225 -225 -225 -225 -225 -225 -225 -225 -225 -225 -225 -225 -225 -225 -225 -225 -225 -225 -225 -225 -225 -225 -225 -225 -225 -225 -225 -225 -225 -225 -225 -225 -225 -225 -225 -225 -225 -225 -225 -225 -225 -225 -225 -225 -225 -225 -225 -225 -225 -225 -225 -225 -225 -225 -225 -225 -225 -225 -225 -225 -225 -225 -225 -225 -225 -225 -225 -225 -225 -225 -225 -225 -225 -225 -225 -225 -225 -225 -225 -225 -225 -225 -225 -225 -225 -225 -225 -225 -225 -225 -225 -225 -225 -225 -225 -225 -225 -225 -225 -225 -225 -225 -225 -225 -225 -225 -225 -225 -225 -225 -225 -225 -225 -225 -225 -225 -225 -225 -225 -225 -225 -225 -225 -225 -225 -225 -225 -225 -225 -225 -225 -225 -225 -225 -225 -225 -225 -225 -225 -225 -225 -225 -225 -225 -225 -225 -225 -225 -225 -225 -225 -225 -225 -225 -225 -225 -225 -225 -225 -225 -225 -225 -225 -225 -225 -225 -225 -225 -225 -225 -209 -209 -209 -209 -209 -209 249 -209 -209 -193 266 266 267 267 267 269 268 266 265 266 266 265 266 267 265 266 266 267 267 267 -193 -177 -209 -209 282 281 282 283 286 293 295 295 295 295 295 292 -209 -209 255 260 262 262 0 0 0 0 0
    0 0 0 0 0 0 0 0 0 0 0 0 0 0 0 0 0 0 0 0 0 0 0 0 0 0 0 0 0 0 0 0 0 0 0 0 0 0 0 0 0 0 0 0 0 0 0 0 0 0 0 0 0 0 0 0 0 0 0 0 0 0 0 0 0 0 0 0 0 -225 -225 -225 -225 -225 -225 -225 -225 -225 -225 -225 -225 -225 -225 -225 -225 -225 -225 -225 -225 -225 -225 -225 -225 -225 -225 -225 -225 -225 -225 -225 -225 -225 -225 -225 -225 -225 -225 -225 -225 -225 -225 -225 -225 -225 -225 -225 -225 -225 -225 -225 -225 -225 -225 -225 -225 -225 -225 -225 -225 -225 -225 -225 -225 -225 -225 -225 -225 -225 -225 -225 -225 -225 -225 -225 -225 -225 -225 -225 -225 -225 -225 -225 -225 -225 -225 -225 -225 -225 -225 -225 -225 -225 -225 -225 -225 -225 -225 -225 -225 -225 -225 -225 -225 -225 -225 -225 -225 -225 -225 -225 -225 -225 -225 -225 -225 -225 -225 -225 -225 -225 -225 -225 -225 -225 -225 -225 -225 -225 -225 -225 -225 -225 -225 -225 -225 -225 -225 -225 -225 -225 -225 -225 -225 -225 -225 -225 -225 -225 -225 -225 -225 -225 -225 -225 -225 -225 -225 -225 -225 -225 -225 -225 -225 -225 -225 -225 -225 -225 -225 -225 -225 -225 -225 -225 -225 -225 -225 -225 -225 -225 -225 -225 -225 -225 -225 -225 -225 -225 -225 -225 -225 -225 -225 -209 -209 -209 -209 -209 -209 -209 -209 -209 -209 -193 267 270 270 270 273 272 270 268 269 269 267 268 268 267 267 267 269 269 269 -193 -193 -209 -209 284 283 285 285 290 296 297 296 294 293 290 288 289 -209 268 265 265 265 0 0 0 0 0
    0 0 0 0 0 0 0 0 0 0 0 0 0 0 0 0 0 0 0 0 0 0 0 0 0 0 0 0 0 0 0 0 0 0 0 0 0 0 0 0 0 0 0 0 0 0 0 0 0 0 0 0 0 0 0 0 0 0 0 0 0 0 0 0 0 0 0 0 0 -225 -225 -225 -225 -225 -225 -225 -225 -225 -225 -225 -225 -225 -225 -225 -225 -225 -225 -225 -225 -225 -225 -225 -225 -225 -225 -225 -225 -225 -225 -225 -225 -225 -225 -225 -225 -225 -225 -225 -225 -225 -225 -225 -225 -225 -225 -225 -225 -225 -225 -225 -225 -225 -225 -225 -225 -225 -225 -225 -225 -225 -225 -225 -225 -225 -225 -225 -225 -225 -225 -225 -225 -225 -225 -225 -225 -225 -225 -225 -225 -225 -225 -225 -225 -225 -225 -225 -225 -225 -225 -225 -225 -225 -225 -225 -225 -225 -225 -225 -225 -225 -225 -225 -225 -225 -225 -225 -225 -225 -225 -225 -225 -225 -225 -225 -225 -225 -225 -225 -225 -225 -225 -225 -225 -225 -225 -225 -225 -225 -225 -225 -225 -225 -225 -225 -225 -225 -225 -225 -225 -225 -225 -225 -225 -225 -225 -225 -225 -225 -225 -225 -225 -225 -225 -225 -225 -225 -225 -225 -225 -225 -225 -225 -225 -225 -225 -225 -225 -225 -225 -225 -225 -225 -225 -225 -225 -225 -225 -225 -225 -225 -225 -225 -225 -225 -225 -225 -225 -225 -225 -225 -225 -225 -225 176 180 -209 -209 -209 -209 -209 -209 -209 -209 -209 269 274 271 271 274 271 269 267 268 269 267 269 270 269 269 270 272 272 271 274 273 -209 282 284 283 285 287 293 296 297 296 294 292 289 287 288 281 277 274 271 272 0 0 0 0 0</data></disparity>
</opencv_storage>
