<?xml version="1.0"?>
<opencv_storage>
<gps_time_stamp>20133</gps_time_stamp>
<gps_x>-1.2707549333572388e+000</gps_x>
<gps_y>5.8009356260299683e-002</gps_y>
<gps_z>1.2759411707520485e-002</gps_z>
<image_time_stamp>8063</image_time_stamp>
<disparity type_id="opencv-matrix">
  <rows>90</rows>
  <cols>320</cols>
  <dt>s</dt>
  <data>
    0 0 0 0 0 0 0 0 0 0 0 0 0 0 0 0 0 0 0 0 0 0 0 0 0 0 0 0 0 0 0 0 0 0 0 0 0 0 0 0 0 0 0 0 0 0 0 0 0 0 0 0 0 0 0 0 0 0 0 0 0 0 0 0 0 0 0 0 0 0 0 0 0 0 0 0 0 0 0 0 0 0 0 0 0 0 0 0 0 0 0 0 0 0 0 0 9 0 0 0 9 0 0 0 0 0 0 0 0 0 0 0 0 0 0 0 0 0 0 0 0 0 0 0 0 9 0 0 0 0 0 0 0 9 9 8 0 0 0 0 0 0 0 0 0 0 0 14 0 0 0 0 0 0 0 0 0 0 0 9 9 10 9 9 10 10 10 11 12 10 10 10 9 0 0 0 0 0 0 0 0 0 0 0 13 9 11 12 12 12 12 12 12 -225 -225 -225 -225 -225 -225 14 14 13 13 13 13 12 15 17 15 15 15 15 17 17 17 16 17 23 23 24 25 26 26 29 28 29 27 27 28 28 29 29 28 29 28 29 30 30 32 32 33 34 32 33 33 32 32 31 33 33 33 34 32 34 34 34 35 32 33 33 32 33 34 33 36 35 35 35 35 36 36 36 37 34 37 37 38 -225 -225 -225 45 48 47 45 46 45 46 45 46 44 44 42 42 40 40 40 39 37 36 34 36 37 38 39 -225 41 -225 -225 -225 40 40 41 42 42 41 0 0 0 0 0
    0 0 0 0 0 0 0 0 0 0 0 0 0 0 0 0 0 0 0 0 0 0 0 0 0 0 0 0 0 0 0 0 0 0 0 0 0 0 0 0 0 0 0 0 0 0 0 0 0 0 0 0 0 0 0 0 0 0 0 0 0 0 0 0 0 0 0 0 0 0 0 0 0 0 0 0 0 0 0 0 0 0 0 0 0 0 0 0 0 -193 0 0 0 0 0 0 9 0 0 0 9 0 0 0 0 0 0 0 0 0 0 0 0 0 0 0 0 0 0 0 0 0 0 0 0 0 0 0 0 0 0 0 0 10 10 9 0 0 0 0 0 0 0 0 0 9 9 14 0 9 0 0 0 0 0 0 0 0 0 9 9 10 0 0 10 10 9 10 10 9 9 9 0 0 0 0 0 0 0 0 0 0 0 0 13 9 11 12 12 12 12 12 12 -225 -225 -225 -225 -225 15 14 14 13 13 13 13 13 15 16 14 14 15 15 16 16 16 15 16 22 23 24 25 26 26 29 28 29 27 27 27 27 29 28 27 28 28 29 30 31 33 32 34 35 33 34 34 33 32 31 33 33 33 35 33 34 34 34 35 32 33 33 32 33 32 32 35 34 35 34 34 34 34 35 36 33 36 36 38 -225 -225 -225 47 49 47 45 45 45 45 45 46 45 44 43 43 42 42 41 -193 38 37 35 36 -225 -225 40 -225 -225 -225 -225 -225 40 40 41 42 42 41 0 0 0 0 0
    0 0 0 0 0 0 0 0 0 0 0 0 0 0 0 0 0 0 0 0 0 0 0 0 0 0 0 0 0 0 0 0 0 0 0 0 0 0 0 0 0 0 0 0 0 0 0 0 0 0 0 0 0 0 0 0 0 0 0 0 0 0 0 0 0 0 0 0 0 0 0 0 0 0 0 0 0 0 0 0 0 0 0 0 0 0 0 0 0 -193 0 0 0 0 0 0 9 0 0 0 0 0 0 0 0 0 0 0 0 0 0 0 0 0 0 0 0 0 0 0 0 0 0 0 0 -193 0 0 0 0 0 0 0 10 11 10 0 9 0 9 9 0 0 0 0 9 9 15 0 10 0 0 0 0 -193 0 0 0 0 9 10 10 9 0 10 10 10 10 9 0 0 0 0 0 0 0 0 0 0 0 0 0 0 0 14 9 11 13 13 13 13 13 13 -225 -225 -225 -225 14 14 13 13 13 13 13 13 15 15 16 15 15 15 15 16 16 15 15 16 21 22 23 25 25 25 27 27 28 26 27 27 27 29 28 27 28 28 28 30 31 33 32 34 34 33 35 34 34 33 32 34 34 33 35 33 34 34 34 35 33 34 34 33 34 34 34 35 35 35 34 33 33 33 34 34 31 35 35 -225 -225 -225 -225 47 49 46 45 45 44 45 44 45 44 44 44 44 43 43 43 43 -193 -209 35 -193 -225 -225 -225 -225 -225 -225 -225 -225 -225 39 41 42 42 41 0 0 0 0 0
    0 0 0 0 0 0 0 0 0 0 0 0 0 0 0 0 0 0 0 0 0 0 0 0 0 0 0 0 0 0 0 0 0 0 0 0 0 0 0 0 0 0 0 0 0 0 0 0 0 0 0 0 0 0 0 0 0 0 0 0 0 0 0 0 0 0 0 0 0 0 0 0 0 0 0 0 0 0 0 0 0 0 0 0 0 0 0 0 0 -193 0 0 0 0 0 0 0 0 0 0 0 0 0 0 0 0 0 0 0 0 0 0 0 0 0 0 0 0 0 0 0 -209 -209 -193 0 -193 0 0 0 0 0 0 0 10 10 11 9 10 10 10 10 9 9 9 9 10 10 15 9 11 0 0 0 -193 -193 0 0 0 0 9 10 10 9 10 12 11 10 10 0 0 0 0 0 0 0 0 0 0 0 0 0 0 0 0 14 9 12 13 13 13 13 13 13 -225 -225 -225 -225 14 14 13 13 13 13 13 14 15 15 17 15 16 16 16 16 16 15 15 15 20 21 22 23 23 25 25 26 27 26 26 26 26 29 28 28 29 28 29 30 31 33 32 34 34 34 36 35 35 33 33 35 34 34 35 33 35 34 35 35 34 34 35 34 35 35 35 36 36 36 35 34 33 32 33 34 32 35 36 -225 -225 -225 46 46 47 46 45 45 44 44 43 45 44 44 44 45 44 45 44 45 -193 -193 37 -193 -225 -225 -193 39 -225 -225 -225 -225 -225 -225 -225 -225 41 40 0 0 0 0 0
    0 0 0 0 0 0 0 0 0 0 0 0 0 0 0 0 0 0 0 0 0 0 0 0 0 0 0 0 0 0 0 0 0 0 0 0 0 0 0 0 0 0 0 0 0 0 0 0 0 0 0 0 0 0 0 0 0 0 0 0 0 0 0 0 0 0 0 0 0 0 0 0 0 0 0 0 0 0 0 0 0 0 0 0 0 0 0 0 0 0 0 0 0 0 0 0 0 0 0 0 0 0 0 0 0 0 0 0 0 0 0 0 0 0 0 0 0 9 0 0 9 -209 -209 -193 9 -193 0 9 0 0 0 0 0 9 9 12 10 11 11 11 11 10 10 10 9 10 9 16 10 11 0 0 0 -193 -193 0 0 0 0 9 10 11 10 11 12 11 11 10 0 0 0 0 0 0 0 0 0 0 0 0 0 0 0 0 14 10 12 14 14 14 14 14 14 -225 -225 -225 15 14 14 13 13 13 12 14 14 14 15 16 15 16 16 15 16 16 16 16 16 18 19 20 22 20 22 22 23 23 24 25 25 25 29 28 29 29 29 30 31 33 34 32 35 34 34 36 35 36 34 34 35 34 35 36 34 35 34 36 35 34 35 36 35 35 36 35 37 37 37 36 34 34 33 35 35 34 37 38 40 -225 43 46 46 47 46 45 45 43 44 43 45 44 45 44 45 45 46 46 47 43 44 40 42 41 42 -193 -193 40 -225 -225 -225 -225 -225 -225 -225 -225 40 0 0 0 0 0
    0 0 0 0 0 0 0 0 0 0 0 0 0 0 0 0 0 0 0 0 0 0 0 0 0 0 0 0 0 0 0 0 0 0 0 0 0 0 0 0 0 0 0 0 0 0 0 0 0 0 0 0 0 0 0 0 0 0 0 0 0 0 0 0 0 0 0 0 0 0 0 0 0 0 0 0 0 0 0 0 0 0 0 0 0 0 0 0 0 0 0 0 0 0 0 0 0 0 0 0 0 0 0 0 0 0 0 0 0 0 0 0 0 0 0 0 0 9 0 0 9 9 9 11 11 15 12 18 20 -209 -209 -209 0 10 10 14 11 12 12 11 11 11 10 10 10 10 9 15 10 12 0 0 0 -193 -193 0 0 0 0 9 9 11 10 11 12 12 11 10 0 0 0 0 0 0 0 0 0 0 0 0 0 0 0 0 14 10 12 14 14 14 14 14 14 -225 -225 14 14 15 15 13 13 13 13 16 15 15 15 16 17 17 17 16 17 16 17 18 19 18 19 19 22 21 23 22 22 23 24 25 25 25 28 28 29 29 29 30 31 34 34 33 35 34 34 36 34 36 34 34 35 34 35 36 34 36 34 36 35 35 35 36 36 36 36 35 37 37 37 37 35 35 34 36 36 36 39 40 41 43 44 45 45 46 46 44 44 43 43 43 45 44 45 45 47 46 47 47 48 44 46 42 44 42 42 41 41 41 42 -225 -225 -225 -225 -225 -225 41 40 0 0 0 0 0
    0 0 0 0 0 0 0 0 0 0 0 0 0 0 0 0 0 0 0 0 0 0 0 0 0 0 0 0 0 0 0 0 0 0 0 0 0 0 0 0 0 0 0 0 0 0 0 0 0 0 0 0 0 0 0 0 0 0 0 0 0 0 0 0 0 0 0 0 0 0 0 0 0 0 0 0 0 0 0 0 0 0 0 0 0 0 0 0 0 0 0 0 0 0 0 0 0 0 0 0 0 0 0 0 0 0 0 0 0 0 0 0 9 0 0 0 0 0 0 0 0 9 9 11 12 18 15 -225 23 -193 -209 -209 -225 14 11 16 12 12 12 11 11 11 10 10 9 9 0 15 10 12 0 0 0 -193 -193 0 0 0 0 9 9 11 10 11 11 11 10 9 0 0 0 0 0 0 0 0 0 0 0 0 0 0 0 0 14 10 13 15 15 15 15 15 16 -225 -225 14 15 16 16 14 14 13 15 15 15 15 15 16 17 17 18 15 17 16 17 18 19 18 19 19 22 21 23 22 21 22 24 24 24 25 27 27 29 29 29 30 31 34 34 33 35 34 34 36 34 36 33 35 35 34 35 36 34 36 34 36 35 35 36 36 36 36 36 35 36 37 37 37 37 37 37 40 40 41 42 42 43 44 44 45 44 44 44 43 43 42 42 42 44 43 44 44 46 45 47 46 47 44 46 42 44 42 43 42 41 41 42 41 -225 -225 -225 -225 -225 41 41 0 0 0 0 0
    0 0 0 0 0 0 0 0 0 0 0 0 0 0 0 0 0 0 0 0 0 0 0 0 0 0 0 0 0 0 0 0 0 0 0 0 0 0 0 0 0 0 0 0 0 0 0 0 0 0 0 0 0 0 0 0 0 0 0 0 0 0 0 0 0 0 0 0 0 0 0 0 0 0 0 0 0 0 0 0 0 0 0 0 0 0 0 0 0 0 0 0 0 0 0 0 0 0 0 0 0 0 0 0 0 0 0 0 0 0 0 0 0 0 0 0 0 0 0 0 0 0 9 11 11 19 -225 -225 24 -193 -209 -209 -225 15 12 17 12 12 13 11 11 11 10 10 9 9 0 14 11 12 0 0 0 -177 -193 0 0 0 0 9 9 10 9 11 12 11 10 9 0 0 0 0 0 0 0 0 0 0 0 0 0 0 0 0 15 11 13 15 15 15 15 16 16 -225 13 13 16 15 15 13 13 14 14 15 14 14 15 15 17 17 18 16 18 17 18 19 21 19 20 19 22 21 23 22 21 22 24 25 25 26 28 28 30 30 30 31 32 34 34 33 35 34 35 36 35 36 34 35 35 34 35 36 34 36 34 36 35 36 36 36 36 36 36 35 36 37 37 38 38 39 40 42 48 45 46 46 46 46 45 46 45 43 43 42 41 40 41 40 41 40 40 41 42 42 44 42 43 41 44 41 44 42 43 42 41 41 42 40 -225 -225 -225 -225 -225 39 39 0 0 0 0 0
    0 0 0 0 0 0 0 0 0 0 0 0 0 0 0 0 0 0 0 0 0 0 0 0 0 0 0 0 0 0 0 0 0 0 0 0 0 0 0 0 0 0 0 0 0 0 0 0 0 0 0 0 0 0 0 0 0 0 0 0 0 0 0 0 0 0 0 0 0 0 0 0 0 0 0 0 0 0 0 0 0 0 0 0 0 0 0 0 0 0 0 0 0 0 0 0 0 0 0 0 0 0 9 0 0 0 0 0 0 0 0 0 0 0 0 0 0 0 0 0 0 0 9 10 11 16 -225 -225 22 -193 -209 -209 -193 15 12 16 12 12 12 11 11 11 10 10 9 9 0 13 11 12 0 0 0 -177 -177 0 0 0 0 9 9 10 9 10 11 10 9 0 0 0 0 0 0 0 0 0 0 0 0 0 0 0 0 0 16 11 14 16 16 16 16 16 16 10 13 13 15 15 14 12 12 14 14 14 14 14 14 14 17 17 17 16 19 17 18 20 21 19 20 20 22 21 23 22 22 22 25 25 26 26 28 29 30 31 31 31 33 34 34 33 36 34 35 37 35 37 35 36 36 34 35 35 33 36 34 37 35 36 36 37 37 37 36 36 36 38 38 39 40 41 42 46 54 50 50 50 50 49 49 49 47 43 43 42 41 39 39 38 36 36 33 35 33 36 37 37 37 38 41 40 44 42 43 42 42 41 42 40 42 28 -225 -225 -225 35 36 0 0 0 0 0
    0 0 0 0 0 0 0 0 0 0 0 0 0 0 0 0 0 0 0 0 0 0 0 0 0 0 0 0 0 0 0 0 0 0 0 0 0 0 0 0 0 0 0 0 0 0 0 0 0 0 0 0 0 0 0 0 0 0 0 0 0 0 0 0 0 0 0 0 0 0 0 0 0 0 0 0 0 0 0 0 0 0 0 0 0 0 0 0 0 0 0 0 0 0 0 0 0 0 0 0 0 0 9 0 0 0 0 0 0 0 0 0 0 0 0 0 0 0 0 0 0 0 0 10 11 14 -225 -225 22 -193 -209 -209 -209 -209 12 16 12 12 12 11 10 10 9 9 0 0 0 13 11 12 0 0 0 -193 -193 0 0 0 0 9 9 10 9 9 11 10 10 0 0 0 0 0 0 0 0 0 0 0 0 0 0 0 0 0 15 11 14 16 16 16 17 16 16 10 13 14 16 15 15 12 12 14 13 14 14 14 13 14 17 17 17 17 18 17 19 20 21 20 21 20 22 21 23 22 22 22 25 26 27 27 30 30 31 32 32 32 34 34 35 33 36 34 36 37 35 37 35 36 36 35 35 36 34 36 33 37 35 37 36 37 37 37 36 36 36 38 38 40 41 42 43 50 56 53 53 53 53 52 52 52 48 43 43 42 41 38 37 34 29 29 25 27 25 26 -193 28 26 34 37 39 43 43 43 42 42 41 41 38 41 29 32 29 32 32 36 0 0 0 0 0
    0 0 0 0 0 0 0 0 0 0 0 0 0 0 0 0 0 0 0 0 0 0 0 0 0 0 0 0 0 0 0 0 0 0 0 0 0 0 0 0 0 0 0 0 0 0 0 0 0 0 0 0 0 0 0 0 0 0 0 0 0 0 0 0 0 0 0 0 0 0 0 0 0 0 0 0 0 0 0 0 0 0 0 0 0 0 0 0 0 0 0 0 0 0 0 0 0 0 0 0 0 9 9 0 0 0 0 0 0 0 0 0 0 0 0 0 0 0 0 0 0 0 0 10 11 15 13 17 23 -193 -193 23 -209 18 11 14 12 10 10 10 10 9 9 9 0 0 0 13 11 12 0 0 0 -193 -193 0 0 0 0 0 0 10 9 10 11 11 10 9 0 0 0 0 0 0 0 0 0 0 0 0 0 0 0 0 15 11 14 16 16 17 17 16 15 10 13 13 15 15 15 12 13 14 14 15 15 14 14 15 17 17 18 18 19 18 20 21 22 21 21 20 22 21 23 22 22 22 25 26 28 28 31 30 32 33 33 33 34 34 35 33 36 34 36 37 35 36 35 36 36 34 35 35 34 35 33 36 35 36 36 37 37 37 37 36 37 39 40 41 43 44 48 53 57 55 55 56 56 55 54 54 50 43 41 41 41 38 36 33 28 28 26 27 24 25 -209 -209 25 33 39 41 45 45 45 44 43 44 43 40 40 34 36 32 34 34 37 0 0 0 0 0
    0 0 0 0 0 0 0 0 0 0 0 0 0 0 0 0 0 0 0 0 0 0 0 0 0 0 0 0 0 0 0 0 0 0 0 0 0 0 0 0 0 0 0 0 0 0 0 0 0 0 0 0 0 0 0 0 0 0 0 0 0 0 0 0 0 0 0 0 0 0 0 0 0 0 0 0 0 0 0 0 0 0 0 0 0 0 0 0 0 0 0 0 0 0 0 0 0 0 0 0 0 9 9 0 0 0 0 0 0 0 0 0 0 0 0 0 0 0 0 0 0 0 9 11 11 15 13 16 23 21 23 -225 -225 16 10 13 12 9 10 9 9 0 0 0 0 0 0 14 11 13 0 0 0 -193 -193 0 0 0 0 0 0 10 9 10 10 11 10 9 0 0 0 0 0 0 0 0 0 0 0 0 0 0 0 0 15 11 14 16 17 17 16 16 15 10 12 12 16 14 14 12 13 13 14 14 14 13 14 14 17 18 19 18 20 19 21 22 23 21 21 20 22 21 23 22 22 22 25 27 29 29 31 31 32 33 34 34 35 35 36 34 37 35 37 37 35 36 35 36 36 34 35 36 34 35 34 36 35 37 37 38 37 37 37 37 38 40 41 42 46 47 51 54 57 56 56 56 56 56 55 55 50 43 41 41 40 37 35 33 29 29 26 26 24 -209 -209 -209 23 29 43 45 48 48 48 45 46 47 45 42 42 39 40 38 39 38 39 0 0 0 0 0
    0 0 0 0 0 0 0 0 0 0 0 0 0 0 0 0 0 0 0 0 0 0 0 0 0 0 0 0 0 0 0 0 0 0 0 0 0 0 0 0 0 0 0 0 0 0 0 0 0 0 0 0 0 0 0 0 0 0 0 0 0 0 0 0 0 0 0 0 0 0 0 0 0 0 0 0 0 0 0 0 0 0 0 0 0 0 0 0 0 0 0 0 0 0 0 0 0 0 0 0 0 9 9 0 0 0 0 0 0 0 0 0 0 0 0 0 0 0 0 0 0 0 8 11 11 15 13 15 21 19 18 -225 15 19 13 13 11 9 9 0 0 0 0 0 0 0 0 14 11 14 0 0 0 -193 -193 0 0 0 0 0 0 10 9 9 9 10 9 0 0 0 0 0 0 0 0 0 0 0 0 0 0 0 0 0 16 12 13 16 17 17 16 16 15 10 12 12 18 14 14 12 13 14 14 15 14 13 15 14 17 17 18 18 19 19 21 22 23 21 21 20 22 22 23 23 22 22 26 27 30 30 32 32 33 34 35 35 36 36 37 35 37 35 37 37 35 35 34 35 35 33 34 35 34 36 34 36 34 37 36 37 37 37 37 37 38 40 42 43 48 50 53 55 57 56 56 56 56 56 55 55 51 44 42 41 41 38 37 35 30 30 26 -193 -193 -209 -193 -209 -209 -209 52 49 51 50 50 46 48 47 46 42 43 41 44 42 43 43 42 0 0 0 0 0
    0 0 0 0 0 0 0 0 0 0 0 0 0 0 0 0 0 0 0 0 0 0 0 0 0 0 0 0 0 0 0 0 0 0 0 0 0 0 0 0 0 0 0 0 0 0 0 0 0 0 0 0 0 0 0 0 0 0 0 0 0 0 0 0 0 0 0 0 0 0 0 0 0 0 0 0 0 0 0 0 0 0 0 0 0 0 0 0 0 0 0 0 0 0 0 0 0 0 0 0 0 9 9 0 0 0 0 0 0 0 0 0 0 0 0 0 0 0 0 0 0 0 0 10 12 16 15 16 21 19 -225 -225 -225 22 17 15 12 0 0 0 0 0 0 0 0 0 0 15 12 15 10 9 0 -193 -193 9 0 0 0 0 0 9 9 0 9 9 0 0 0 0 0 0 0 0 0 0 0 0 0 0 0 0 0 0 16 12 13 17 17 16 16 15 15 10 11 12 18 14 15 13 14 14 14 15 14 13 15 15 17 18 18 19 20 20 21 21 23 22 21 20 21 22 23 23 23 23 26 29 32 32 33 33 34 35 36 36 38 37 38 37 38 36 37 37 36 35 35 35 35 34 35 35 34 35 34 35 33 36 35 36 35 36 35 36 38 40 41 44 50 52 54 55 57 56 57 57 57 56 56 55 53 46 44 43 43 41 40 39 35 37 27 -209 -193 -209 -193 138 -209 -209 56 52 53 52 51 49 51 51 49 46 48 49 52 47 46 45 44 0 0 0 0 0
    0 0 0 0 0 0 0 0 0 0 0 0 0 0 0 0 0 0 0 0 0 0 0 0 0 0 0 0 0 0 0 0 0 0 0 0 0 0 0 0 0 0 0 0 0 0 0 0 0 0 0 0 0 0 0 0 0 0 0 0 0 0 0 0 0 0 0 0 0 0 0 0 0 0 0 0 0 0 0 0 0 0 0 0 0 0 0 0 0 0 0 0 0 0 0 0 0 0 0 0 0 0 9 0 0 0 0 0 0 0 0 0 0 0 0 0 0 0 0 0 0 0 0 9 11 15 13 15 19 19 -225 -225 -225 22 19 18 14 0 0 0 0 0 0 0 0 0 0 -193 12 16 11 10 9 -193 -193 10 0 0 0 0 0 9 0 0 0 0 0 0 0 0 0 0 0 0 0 0 0 0 0 0 0 0 0 0 16 12 13 17 16 16 15 15 14 10 12 12 18 13 13 13 13 14 14 14 14 13 16 15 16 18 18 19 20 20 20 20 23 22 21 21 21 22 23 23 23 23 27 29 33 33 35 35 35 36 36 37 39 38 39 38 39 38 38 39 38 36 36 34 35 34 35 36 34 35 34 35 33 36 34 34 34 35 35 36 38 40 41 45 52 53 54 55 57 56 57 57 57 57 57 57 55 51 49 48 47 44 43 42 38 41 28 -209 -193 -209 -209 138 -209 -209 58 54 54 53 53 53 54 54 53 53 55 56 56 54 50 50 48 0 0 0 0 0
    0 0 0 0 0 0 0 0 0 0 0 0 0 0 0 0 0 0 0 0 0 0 0 0 0 0 0 0 0 0 0 0 0 0 0 0 0 0 0 0 0 0 0 0 0 0 0 0 0 0 0 0 0 0 0 0 0 0 0 0 0 0 0 0 0 0 0 0 0 0 0 0 0 0 0 0 0 0 0 0 0 0 0 0 0 0 0 0 0 0 0 0 0 0 0 0 0 0 0 0 0 0 9 0 0 0 0 0 0 0 0 0 0 0 0 0 0 0 0 0 0 0 0 0 11 13 12 14 18 15 17 -225 -225 20 18 17 13 9 9 0 0 0 0 0 0 0 0 16 12 17 12 11 10 11 11 10 0 9 0 9 0 9 0 0 0 0 0 0 0 0 0 0 0 0 0 0 0 0 0 0 0 0 0 0 16 12 14 17 16 16 15 15 14 10 12 14 17 13 13 13 13 14 14 14 13 13 16 15 16 19 19 20 21 20 21 20 23 22 21 21 21 22 23 24 24 24 27 29 33 33 35 35 35 36 36 37 39 38 40 39 39 38 39 39 39 36 36 33 34 33 34 35 35 35 34 35 34 36 34 34 34 34 35 36 38 40 42 46 53 54 55 55 57 56 57 57 57 57 57 57 57 55 55 54 53 51 52 53 41 47 33 -209 -209 -209 -209 -209 -193 57 58 55 56 55 54 55 56 56 55 55 57 58 57 56 53 54 52 0 0 0 0 0
    0 0 0 0 0 0 0 0 0 0 0 0 0 0 0 0 0 0 0 0 0 0 0 0 0 0 0 0 0 0 0 0 0 0 0 0 0 0 0 0 0 0 0 0 0 0 0 0 0 0 0 0 0 0 0 0 0 0 0 0 0 0 0 0 0 0 0 0 0 0 0 0 0 0 0 0 0 0 0 0 0 0 0 0 0 0 0 0 0 0 0 0 0 0 0 0 0 0 0 0 0 0 9 0 0 0 0 0 0 0 0 0 0 0 0 0 0 0 0 0 0 0 0 0 10 12 11 13 17 13 14 16 19 16 14 14 11 9 9 9 0 0 0 0 0 0 0 -177 13 18 13 12 11 11 11 11 9 9 0 9 0 9 0 0 0 0 0 0 0 0 0 0 0 0 0 0 0 0 0 0 0 0 0 0 15 12 13 16 15 15 15 14 14 10 13 14 17 13 14 14 14 14 14 14 13 14 17 16 17 19 20 20 20 21 21 20 23 22 21 21 22 22 23 24 24 24 27 29 32 33 35 35 35 36 37 37 39 39 41 40 40 39 39 39 39 36 35 32 32 32 33 34 34 35 34 34 34 36 35 34 35 35 36 38 40 43 45 50 54 54 55 56 58 57 58 58 58 59 58 59 58 57 57 56 55 55 55 57 51 54 53 57 59 61 60 -193 58 58 59 57 57 56 55 56 56 56 55 56 57 58 57 57 54 56 54 0 0 0 0 0
    0 0 0 0 0 0 0 0 0 0 0 0 0 0 0 0 0 0 0 0 0 0 0 0 0 0 0 0 0 0 0 0 0 0 0 0 0 0 0 0 0 0 0 0 0 0 0 0 0 0 0 0 0 0 0 0 0 0 0 0 0 0 0 0 0 0 0 0 0 0 0 0 0 0 0 0 0 0 0 0 0 0 0 0 0 0 0 0 0 0 0 0 0 0 0 0 9 0 0 0 0 0 9 0 0 0 0 0 0 0 0 0 0 0 0 0 0 0 0 0 0 0 0 0 10 12 11 12 14 -225 9 10 -193 12 11 12 10 0 0 0 0 0 0 0 0 0 0 -177 13 19 14 13 12 12 12 11 9 9 0 0 0 9 0 0 0 0 0 0 0 0 0 0 0 0 0 0 0 0 0 0 0 0 0 0 16 12 13 15 15 15 14 14 14 10 12 13 16 13 14 14 14 14 14 14 14 14 18 16 17 20 21 21 21 21 21 21 22 22 21 21 22 22 23 24 23 24 27 29 32 32 34 35 35 36 37 37 40 39 41 40 40 39 39 39 38 35 35 32 32 32 32 34 32 35 33 33 35 36 35 34 35 36 38 40 43 46 49 52 54 55 56 56 58 58 58 58 59 59 58 59 59 58 57 57 56 56 56 57 54 56 57 58 60 61 61 59 59 59 59 57 57 56 55 57 57 56 56 56 56 57 56 57 55 56 55 0 0 0 0 0
    0 0 0 0 0 0 0 0 0 0 0 0 0 0 0 0 0 0 0 0 0 0 0 0 0 0 0 0 0 0 0 0 0 0 0 0 0 0 0 0 0 0 0 0 0 0 0 0 0 0 0 0 0 0 0 0 0 0 0 0 0 0 0 0 0 0 0 0 0 0 0 0 0 0 0 0 0 0 0 0 0 0 0 0 0 0 0 0 0 0 0 0 0 0 0 0 9 0 0 0 0 0 9 0 0 0 0 0 0 0 0 0 0 0 0 0 0 0 0 0 0 0 0 9 11 12 11 11 11 -209 -193 -193 -209 10 10 11 9 0 0 0 0 0 0 0 0 0 0 -177 14 20 14 14 13 13 12 12 10 10 0 9 9 9 0 0 0 0 0 0 0 0 0 0 0 0 0 0 0 9 9 9 0 0 0 0 16 12 13 15 15 14 14 14 14 10 11 12 14 13 14 14 14 14 14 15 14 15 18 17 18 20 21 21 21 21 21 20 22 22 21 21 21 22 23 24 24 24 27 28 30 30 33 35 35 37 38 38 41 41 42 41 40 40 40 39 38 35 35 32 32 32 31 33 31 34 32 33 35 36 34 34 35 36 38 40 43 48 50 52 55 55 56 56 58 57 58 58 58 58 58 58 59 58 58 58 57 57 57 58 57 57 57 58 60 60 60 59 59 59 59 58 57 56 56 57 57 56 56 56 56 57 56 58 56 57 57 0 0 0 0 0
    0 0 0 0 0 0 0 0 0 0 0 0 0 0 0 0 0 0 0 0 0 0 0 0 0 0 0 0 0 0 0 0 0 0 0 0 0 0 0 0 0 0 0 0 0 0 0 0 0 0 0 0 0 0 0 0 0 0 0 0 0 0 0 0 0 0 0 0 0 0 0 0 0 0 0 0 0 0 0 0 0 0 0 0 0 0 0 0 0 0 0 0 0 0 0 0 9 9 0 0 0 0 9 0 0 0 0 0 0 0 0 0 0 0 0 0 0 0 0 0 0 0 9 9 11 12 11 12 11 -209 -209 -193 -209 10 11 11 9 0 0 0 0 0 0 0 0 0 0 -177 14 20 15 14 14 13 12 12 10 11 0 9 9 9 8 0 0 0 0 0 0 0 0 9 0 0 0 0 0 9 9 9 0 0 0 0 15 11 12 13 13 13 13 13 14 11 12 13 15 14 14 14 14 14 15 15 14 15 18 18 18 20 20 21 21 21 21 20 21 21 21 21 21 22 23 24 23 24 27 28 29 29 31 35 34 37 38 38 41 41 42 41 40 40 40 39 38 35 35 32 32 32 32 33 31 35 32 33 35 36 34 34 35 37 39 42 45 50 52 53 55 56 56 56 57 57 57 58 58 58 57 58 59 59 59 59 59 59 59 59 58 58 58 59 61 60 60 59 59 59 59 -193 -193 57 56 59 58 56 56 56 -193 -193 -193 -193 56 58 58 0 0 0 0 0
    0 0 0 0 0 0 0 0 0 0 0 0 0 0 0 0 0 0 0 0 0 0 0 0 0 0 0 0 0 0 0 0 0 0 0 0 0 0 0 0 0 0 0 0 0 0 0 0 0 0 0 0 0 0 0 0 0 0 0 0 0 0 0 0 0 0 0 0 0 0 0 0 0 0 0 0 0 0 0 0 0 0 0 0 0 0 0 0 0 0 0 0 0 0 0 0 9 9 0 0 0 0 0 0 0 0 0 0 0 0 0 0 0 0 0 0 0 0 0 0 0 0 9 10 11 13 12 13 11 -209 -209 -193 -209 -193 10 11 9 9 0 0 0 0 0 -193 0 -193 0 -193 13 20 15 15 14 14 13 13 11 11 0 9 0 9 9 0 0 0 0 9 0 0 0 10 0 0 0 0 0 9 9 9 0 9 0 0 13 10 11 12 12 11 11 12 13 11 13 15 15 14 15 15 14 15 15 15 15 15 18 19 18 20 20 21 21 21 21 20 20 21 21 21 22 22 23 24 24 25 27 28 29 29 31 33 33 35 37 37 40 40 41 41 40 40 39 39 38 35 35 32 32 32 32 34 32 34 33 34 36 37 35 34 37 39 42 45 47 51 52 53 55 56 56 56 57 57 57 57 58 58 57 58 60 60 60 61 60 60 59 60 59 59 59 59 61 60 -193 -193 -193 59 59 -193 -193 57 56 59 -193 -209 -209 -209 -209 -193 -193 -193 56 -193 57 0 0 0 0 0
    0 0 0 0 0 0 0 0 0 0 0 0 0 0 0 0 0 0 0 0 0 0 0 0 0 0 0 0 0 0 0 0 0 0 0 0 0 0 0 0 0 0 0 0 0 0 0 0 0 0 0 0 0 0 0 0 0 0 0 0 0 0 0 0 0 0 0 0 0 0 0 0 0 0 0 0 0 0 0 0 0 0 0 0 0 0 0 0 0 0 0 0 0 0 0 0 9 9 0 0 0 0 0 0 0 0 0 0 0 0 0 0 0 0 0 0 0 0 0 0 0 0 9 9 11 13 12 12 10 -209 -209 -209 -209 -193 10 11 9 9 9 9 0 0 0 -193 -193 -193 0 18 13 19 15 14 15 14 12 13 11 11 0 0 0 0 0 0 0 0 9 10 0 0 0 10 9 9 9 9 9 9 9 9 0 9 0 9 12 10 11 12 11 11 11 13 12 11 14 15 15 15 16 15 13 15 15 15 14 15 18 19 19 21 21 21 21 21 21 21 20 21 21 21 22 23 23 24 24 25 27 28 28 28 30 31 31 34 35 36 39 40 41 41 40 40 40 39 38 35 35 32 32 33 33 33 32 34 34 34 37 37 35 35 38 41 44 49 50 53 52 53 54 55 55 55 57 57 57 58 58 58 57 59 60 60 61 61 60 60 60 60 59 59 59 59 60 59 -193 -193 -193 -193 -193 -193 -193 56 56 60 -193 -209 -209 -209 -209 -177 -177 -193 -209 -193 59 0 0 0 0 0
    0 0 0 0 0 0 0 0 0 0 0 0 0 0 0 0 0 0 0 0 0 0 0 0 0 0 0 0 0 0 0 0 0 0 0 0 0 0 0 0 0 0 0 0 0 0 0 0 0 0 0 0 0 0 0 0 0 0 0 0 0 0 0 0 0 0 0 0 0 0 0 0 0 0 0 0 0 0 0 0 0 0 0 0 0 0 0 0 0 0 0 0 0 0 0 0 9 9 0 0 0 0 0 0 0 0 0 0 0 0 0 0 0 0 0 0 0 0 0 0 0 0 0 0 10 11 11 10 0 -193 -193 -193 -209 -193 0 9 0 0 9 0 0 0 0 0 0 -193 0 18 13 19 15 14 15 13 12 12 11 11 0 0 0 0 0 0 0 0 9 10 0 0 0 10 9 9 9 9 9 9 9 9 0 0 0 12 13 10 11 12 12 11 12 13 11 12 14 14 15 15 16 14 13 15 15 15 15 15 18 19 19 21 21 21 21 22 21 21 20 21 22 21 22 23 23 24 24 25 28 27 28 28 29 31 31 32 35 35 39 40 41 40 40 40 40 39 38 34 34 31 32 32 32 32 32 33 34 35 38 38 36 38 41 45 48 51 51 53 52 52 54 55 54 55 56 57 56 58 58 58 57 59 60 61 61 62 60 60 60 60 59 59 59 59 -193 -193 -193 -193 -193 -193 -193 -177 -193 56 56 -193 -209 -193 -193 -193 -177 -177 402 403 -209 -193 60 0 0 0 0 0
    0 0 0 0 0 0 0 0 0 0 0 0 0 0 0 0 0 0 0 0 0 0 0 0 0 0 0 0 0 0 0 0 0 0 0 0 0 0 0 0 0 0 0 0 0 0 0 0 0 0 0 0 0 0 0 0 0 0 0 0 0 0 0 0 0 0 0 0 0 0 0 0 0 0 0 0 0 0 0 0 0 0 0 0 0 0 0 0 0 0 0 0 0 0 0 0 9 9 0 0 0 0 0 0 0 0 0 0 0 0 0 0 0 0 0 0 0 0 0 0 0 0 0 0 10 10 10 9 0 0 0 -193 -193 0 0 0 0 0 0 0 0 0 0 0 0 -193 -177 19 13 19 15 15 14 13 12 12 10 10 0 0 0 0 9 0 0 0 9 10 0 0 0 10 9 9 9 9 10 10 10 10 0 9 9 12 12 9 10 11 11 10 11 12 11 12 13 14 15 14 16 14 13 15 15 15 15 15 18 18 19 21 20 21 21 22 21 21 20 21 22 22 22 24 23 24 25 25 28 27 27 27 28 30 30 31 34 35 39 40 41 40 40 40 40 39 37 34 33 31 31 32 31 32 30 32 34 37 40 42 41 43 47 50 51 53 51 53 52 52 53 54 54 54 56 57 57 58 59 59 57 60 60 60 61 61 60 60 60 60 60 59 59 59 -193 -193 -193 -193 -193 -193 -193 -177 -177 55 -193 -209 -209 -193 -193 -193 -177 -177 402 403 -209 -193 61 0 0 0 0 0
    0 0 0 0 0 0 0 0 0 0 0 0 0 0 0 0 0 0 0 0 0 0 0 0 0 0 0 0 0 0 0 0 0 0 0 0 0 0 0 0 0 0 0 0 0 0 0 0 0 0 0 0 0 0 0 0 0 0 0 0 0 0 0 0 0 0 0 0 0 0 0 0 0 0 0 0 0 0 0 0 0 0 0 0 0 0 0 0 0 0 0 0 0 0 0 0 9 9 0 0 0 0 0 0 0 0 0 0 0 0 0 0 0 0 0 0 0 0 0 0 0 0 0 0 10 9 11 9 0 0 0 0 0 0 0 0 0 0 0 0 0 0 0 0 0 -209 -177 21 14 20 15 15 15 13 12 12 10 10 0 0 0 0 9 0 0 0 9 10 0 0 0 10 9 9 10 10 11 11 11 11 0 10 10 13 11 9 9 11 10 10 11 12 11 12 13 14 14 14 16 14 13 15 15 16 16 16 18 17 20 20 20 22 21 22 21 21 21 22 22 22 22 24 23 24 25 25 27 27 27 27 28 30 31 31 34 36 40 41 41 40 40 40 40 39 37 33 33 31 32 32 31 32 30 34 37 41 43 45 45 46 50 52 52 53 51 53 52 52 53 53 53 54 56 57 57 58 59 59 58 60 60 60 61 61 60 60 60 60 60 59 59 59 60 -193 -193 -193 -177 -193 -193 -177 -177 -193 -193 -209 -209 -193 -193 -193 -193 -177 403 403 -209 -193 62 0 0 0 0 0
    0 0 0 0 0 0 0 0 0 0 0 0 0 0 0 0 0 0 0 0 0 0 0 0 0 0 0 0 0 0 0 0 0 0 0 0 0 0 0 0 0 0 0 0 0 0 0 0 0 0 0 0 0 0 0 0 0 0 0 0 0 0 0 0 0 0 0 0 0 0 0 0 0 0 0 0 0 0 0 0 0 0 0 0 0 0 0 0 0 0 0 0 0 0 0 0 9 9 0 0 0 0 0 0 0 0 0 0 0 0 0 0 0 0 0 0 0 0 0 0 0 0 0 0 10 10 11 9 0 0 0 0 0 0 0 0 0 0 0 0 0 0 0 0 0 -193 9 21 14 20 16 15 15 13 12 12 10 10 0 0 0 0 9 9 9 0 9 10 0 0 0 10 10 10 11 11 11 11 11 11 9 10 11 14 11 9 9 11 10 10 11 11 10 12 13 14 14 14 16 13 13 15 15 16 16 16 18 17 20 20 19 22 21 22 21 21 21 22 23 23 22 24 23 24 24 25 27 27 27 27 28 29 30 31 33 35 39 40 41 39 40 40 40 39 37 33 33 31 33 33 32 33 31 35 39 43 44 48 46 48 50 52 52 53 51 53 51 52 53 53 52 54 55 57 56 58 59 59 58 60 60 59 60 61 60 60 60 60 60 59 60 59 60 -193 -193 -193 -177 -193 -193 -177 -177 -193 -193 -209 -209 -209 -209 -193 -193 -177 404 404 -209 59 62 0 0 0 0 0
    0 0 0 0 0 0 0 0 0 0 0 0 0 0 0 0 0 0 0 0 0 0 0 0 0 0 0 0 0 0 0 0 0 0 0 0 0 0 0 0 0 0 0 0 0 0 0 0 0 0 0 0 0 0 0 0 0 0 0 0 0 0 0 0 0 0 0 0 0 0 0 0 0 0 0 0 0 0 0 0 0 0 0 0 0 0 0 0 0 0 0 0 0 0 0 0 9 9 0 0 0 0 0 0 0 0 0 0 0 0 0 0 0 0 0 0 0 0 0 0 0 0 0 0 10 10 11 0 0 0 0 0 0 0 0 0 0 0 0 0 0 0 0 0 0 0 9 19 14 19 15 15 15 13 12 12 10 11 0 0 0 0 10 9 9 9 9 10 0 0 0 10 10 10 11 11 11 11 12 12 9 10 11 14 9 0 9 10 10 10 11 11 10 12 14 14 14 14 16 14 14 15 16 16 17 17 19 16 20 20 20 22 22 21 22 22 22 22 23 23 22 24 24 25 25 26 27 27 27 27 28 29 29 30 32 35 39 40 41 39 40 40 40 39 38 33 33 30 33 33 33 34 33 37 41 45 47 50 48 49 51 52 52 53 51 53 51 52 53 53 52 54 55 56 56 58 59 59 59 61 60 59 60 62 60 60 60 60 60 60 60 60 61 -193 -193 -193 -193 -193 -193 -177 -177 -193 -209 -209 -209 -209 -209 -209 -209 -193 404 404 -193 59 63 0 0 0 0 0
    0 0 0 0 0 0 0 0 0 0 0 0 0 0 0 0 0 0 0 0 0 0 0 0 0 0 0 0 0 0 0 0 0 0 0 0 0 0 0 0 0 0 0 0 0 0 0 0 0 0 0 0 0 0 0 0 0 0 0 0 0 0 0 0 0 0 0 0 0 0 0 0 0 0 0 0 0 0 0 0 0 0 0 0 0 0 0 0 0 0 0 0 0 0 0 0 9 0 0 0 0 0 0 0 0 0 0 0 0 0 0 0 0 0 0 0 0 0 0 0 0 0 0 0 10 11 12 0 0 0 0 0 0 0 0 0 0 0 0 0 0 0 0 0 0 0 -177 17 13 19 15 15 15 13 12 12 10 11 0 0 0 0 10 9 9 9 9 10 0 0 0 10 10 10 10 11 11 11 12 12 9 11 13 15 10 0 10 11 10 10 11 11 11 13 15 15 15 15 17 14 15 16 16 16 17 16 19 15 20 20 20 22 21 21 21 22 23 23 23 23 22 24 23 25 25 25 26 26 27 27 27 28 29 29 30 34 -193 40 40 39 40 40 40 39 38 33 33 30 33 33 34 34 35 38 43 47 47 50 48 50 51 52 52 53 51 52 51 52 53 52 52 53 54 56 56 58 59 58 59 62 60 60 60 61 60 60 60 60 59 59 60 60 62 -193 -193 -193 -193 -193 -193 -177 -177 -193 -209 -193 -193 -193 -193 -193 -209 -209 404 -193 -193 59 -193 0 0 0 0 0
    0 0 0 0 0 0 0 0 0 0 0 0 0 0 0 0 0 0 0 0 0 0 0 0 0 0 0 0 0 0 0 0 0 0 0 0 0 0 0 0 0 0 0 0 0 0 0 0 0 0 0 0 0 0 0 0 0 0 0 0 0 0 0 0 0 0 0 0 0 0 0 0 0 0 0 0 0 0 0 0 0 0 0 0 0 0 0 0 0 0 0 0 0 0 0 0 0 0 0 0 0 0 0 0 0 0 0 0 0 0 0 0 0 0 0 0 0 0 0 0 0 0 0 0 10 11 11 0 0 0 0 0 0 0 0 0 0 0 0 0 0 0 0 0 0 0 0 16 13 18 15 15 15 13 12 12 11 11 0 0 0 0 9 0 9 0 9 9 0 0 0 10 10 10 10 10 11 12 12 12 10 11 14 14 10 9 11 12 11 11 11 11 10 13 14 14 15 14 18 15 15 17 16 16 17 17 19 14 20 20 20 23 22 22 22 23 24 23 24 23 22 24 23 25 25 25 25 26 26 26 26 27 28 28 29 34 -193 39 40 39 40 40 40 40 38 33 33 29 33 34 35 35 37 40 45 49 48 51 48 50 51 52 51 53 50 52 50 52 52 52 51 53 54 56 56 57 58 58 60 63 61 60 60 61 59 59 59 59 59 59 59 60 62 61 -193 -193 -193 -193 -193 228 228 -193 -193 -193 -193 -193 -193 -193 -193 -209 -177 -193 -193 58 62 0 0 0 0 0
    0 0 0 0 0 0 0 0 0 0 0 0 0 0 0 0 0 0 0 0 0 0 0 0 0 0 0 0 0 0 0 0 0 0 0 0 0 0 0 0 0 0 0 0 0 0 0 0 0 0 0 0 0 0 0 0 0 0 0 0 0 0 0 0 0 0 0 0 0 0 0 0 0 0 0 0 0 0 0 0 0 0 0 0 0 0 0 0 0 0 -193 -193 -193 0 0 0 0 0 0 0 0 0 0 0 0 0 0 0 0 0 0 0 0 0 0 0 0 0 0 0 0 0 0 0 9 9 0 0 0 0 0 0 0 0 0 0 0 0 0 0 0 0 0 0 0 0 9 16 13 19 15 15 15 13 12 12 11 11 0 0 0 0 9 9 9 0 9 9 0 0 0 9 9 9 10 10 11 11 12 12 10 11 12 13 11 10 11 12 12 11 12 11 11 13 15 15 15 15 19 16 17 18 17 16 18 18 19 14 21 20 20 23 22 21 22 23 24 23 24 24 23 25 24 24 25 25 25 25 26 26 26 27 28 28 29 34 -209 39 41 40 40 40 41 40 39 34 34 30 34 35 36 38 39 43 47 50 50 52 49 51 51 52 51 53 50 52 50 52 52 51 51 53 54 57 56 57 58 58 61 64 62 60 60 62 60 59 59 59 59 59 59 60 62 61 -193 -193 -193 -193 -193 229 -193 -193 -193 -193 -193 -193 -193 -193 -193 -193 -193 -193 -193 59 63 0 0 0 0 0
    0 0 0 0 0 0 0 0 0 0 0 0 0 0 0 0 0 0 0 0 0 0 0 0 0 0 0 0 0 0 0 0 0 0 0 0 0 0 0 0 0 0 0 0 0 0 0 0 0 0 0 0 0 0 0 0 0 0 0 0 0 0 0 0 0 0 0 0 0 0 0 0 0 0 0 0 0 0 0 0 0 0 0 0 0 0 0 0 0 0 -193 -193 -193 0 0 0 0 0 0 0 0 0 0 0 0 0 0 0 0 0 0 0 0 0 0 0 0 0 0 9 9 9 0 0 9 -193 0 0 0 0 0 -193 -193 0 0 0 0 0 0 0 0 0 0 0 0 -193 -209 18 13 19 15 15 16 14 13 12 11 11 0 0 0 0 10 9 9 9 9 10 0 0 0 9 9 9 9 10 10 11 11 11 10 11 11 11 10 10 11 11 11 11 11 11 11 13 15 15 15 14 20 16 18 19 17 17 18 18 18 14 21 20 20 22 21 21 22 23 24 23 25 24 23 25 24 25 25 25 25 25 26 26 25 26 27 28 29 34 -209 39 40 40 40 41 41 41 40 35 35 31 36 37 38 40 41 44 48 50 50 52 49 51 51 52 51 53 50 52 50 53 52 52 51 53 54 57 57 58 58 59 62 65 62 61 61 62 60 60 60 60 59 60 59 60 62 61 61 -193 -193 -193 -193 -193 -193 -193 61 -193 -193 -193 -193 -193 -193 -193 -209 -193 -193 59 63 0 0 0 0 0
    0 0 0 0 0 0 0 0 0 0 0 0 0 0 0 0 0 0 0 0 0 0 0 0 0 0 0 0 0 0 0 0 0 0 0 0 0 0 0 0 0 0 0 0 0 0 0 0 0 0 0 0 0 0 0 0 0 0 0 0 0 0 0 0 0 0 0 0 0 0 0 0 0 0 0 0 0 0 0 0 0 0 0 0 0 0 0 0 0 0 0 0 0 0 0 0 0 0 0 0 0 0 0 0 0 0 0 0 0 0 0 0 0 0 0 0 0 9 9 10 10 10 9 0 9 11 -193 0 0 0 -193 -193 -193 0 0 -209 0 0 0 0 -209 -209 -209 -209 -209 -209 -209 19 14 19 16 16 17 14 -193 13 11 12 9 9 0 0 10 11 10 10 9 10 9 9 9 10 10 10 9 10 9 10 11 11 9 10 9 9 0 0 9 10 11 10 11 11 11 13 15 16 15 15 20 17 18 19 17 17 17 18 18 14 20 19 20 22 21 22 22 23 24 23 24 23 23 24 23 24 24 24 24 24 25 25 25 25 26 27 28 33 -193 39 40 39 41 40 41 41 41 37 36 32 38 38 40 42 42 44 46 49 49 52 49 50 51 52 51 53 51 52 50 53 53 52 52 54 55 58 57 58 58 59 62 65 63 61 61 62 60 60 60 60 59 60 59 60 62 61 61 60 60 60 60 -193 -193 -193 62 -193 -193 -193 -193 -193 -193 -193 -193 -193 -193 59 63 0 0 0 0 0
    0 0 0 0 0 0 0 0 0 0 0 0 0 0 0 0 0 0 0 0 0 0 0 0 0 0 0 0 0 0 0 0 0 0 0 0 0 0 0 0 0 0 0 0 0 0 0 0 0 0 0 0 0 0 0 0 0 0 0 0 0 0 0 0 0 0 0 0 0 0 0 0 0 0 0 0 0 0 0 0 0 0 0 0 0 0 0 0 0 0 0 0 0 0 0 0 0 0 0 0 0 0 0 0 0 0 0 0 0 0 0 0 0 0 9 9 9 10 11 11 11 10 10 0 10 17 -193 0 0 0 -193 -193 -193 9 9 -209 0 9 -193 -209 -209 -209 -209 -209 -209 -209 -209 -209 15 20 16 17 18 -193 -193 -193 -193 14 10 10 9 0 11 11 11 11 10 11 9 10 9 10 10 10 9 10 9 10 10 10 9 10 0 0 0 9 10 11 11 10 10 11 11 13 16 16 14 13 21 17 19 19 16 16 16 18 18 14 20 19 20 22 21 22 23 23 24 23 24 23 23 23 23 24 24 24 24 24 24 24 25 25 25 26 27 32 -193 38 40 39 40 40 41 42 42 39 38 35 39 40 41 43 42 43 45 47 48 51 48 50 50 52 51 53 51 52 51 54 53 52 53 54 56 58 58 58 58 59 62 65 62 61 60 62 60 60 60 59 59 60 59 61 63 61 61 61 61 61 60 60 61 60 63 -193 -193 -193 -193 -193 -193 -193 -193 58 -193 59 62 0 0 0 0 0
    0 0 0 0 0 0 0 0 0 0 0 0 0 0 0 0 0 0 0 0 0 0 0 0 0 0 0 0 0 0 0 0 0 0 0 0 0 0 0 0 0 0 0 0 0 0 0 0 0 0 0 0 0 0 0 0 0 0 0 0 0 0 0 0 0 0 0 0 0 0 0 0 0 0 0 0 0 0 0 0 0 0 0 0 0 0 0 0 0 0 0 0 0 0 0 0 0 0 0 0 0 0 0 0 0 0 0 0 0 0 0 0 0 9 10 10 10 11 12 12 12 11 11 9 11 17 10 9 0 0 -193 -193 -193 9 10 12 11 12 -209 -209 -177 -209 -209 -209 -209 -209 -209 -209 -209 -209 -193 -193 -209 -177 -177 -193 -193 15 11 10 9 0 11 12 11 11 11 12 10 10 10 10 10 10 9 10 9 10 10 10 9 10 0 0 0 9 10 10 11 10 10 10 11 13 15 15 13 12 21 17 18 18 15 15 15 17 17 14 20 19 20 22 21 22 23 24 24 22 24 23 23 23 23 23 24 24 24 24 24 24 25 25 25 26 26 30 -193 36 39 39 40 41 42 43 44 41 41 38 41 42 43 44 42 43 45 45 46 50 47 49 49 51 51 53 52 52 51 54 54 53 53 55 56 58 57 57 58 58 60 63 61 60 59 61 60 59 60 59 59 60 59 62 63 61 61 61 61 60 60 60 61 60 63 65 62 -193 61 61 60 60 58 58 57 60 61 0 0 0 0 0
    0 0 0 0 0 0 0 0 0 0 0 0 0 0 0 0 0 0 0 0 0 0 0 0 0 0 0 0 0 0 0 0 0 0 0 0 0 0 0 0 0 0 0 0 0 0 0 0 0 0 0 0 0 0 0 0 0 0 0 0 0 0 0 0 0 0 0 0 0 0 0 0 0 0 0 0 0 0 0 0 0 0 0 0 0 0 0 0 0 0 0 0 0 0 0 0 0 0 0 8 0 0 0 0 0 0 0 0 0 0 0 0 10 11 12 11 11 11 12 12 12 11 10 9 10 18 -193 0 -193 -209 -193 -193 -193 11 11 -193 12 -193 -209 -209 -209 -209 -209 -209 -209 -209 -209 -209 -209 -209 -193 -193 -193 -177 -177 -193 -193 -193 13 11 9 0 12 12 12 11 11 12 10 10 10 10 9 9 9 10 10 11 11 11 10 11 9 0 0 9 10 10 11 10 10 10 11 13 15 -209 -209 -209 -209 15 17 17 14 14 14 16 16 14 19 18 19 21 21 22 23 24 24 22 23 23 23 23 23 23 23 23 23 23 23 23 24 24 24 25 25 29 -193 36 39 39 41 41 43 45 45 42 42 40 41 43 43 44 42 43 44 44 45 49 46 48 48 51 50 53 52 53 51 54 54 53 53 54 56 57 57 57 57 57 60 63 61 60 59 60 60 59 59 59 59 60 59 62 63 61 61 60 60 60 60 59 60 59 64 65 62 62 61 61 61 60 59 58 57 60 61 0 0 0 0 0
    0 0 0 0 0 0 0 0 0 0 0 0 0 0 0 0 0 0 0 0 0 0 0 0 0 0 0 0 0 0 0 0 0 0 0 0 0 0 0 0 0 0 0 0 0 0 0 0 0 0 0 0 0 0 0 0 0 0 0 0 0 0 0 0 0 0 0 0 0 0 0 0 0 0 0 0 0 0 0 0 0 0 0 0 0 0 0 0 0 0 0 0 0 0 0 0 0 0 0 9 0 0 0 0 0 0 0 0 0 0 0 0 10 11 12 12 11 11 12 12 11 10 10 0 10 17 -193 -193 -209 -209 -193 -193 13 12 13 -193 -193 -193 -177 -193 -209 -209 -209 -209 -209 -209 -209 -209 -209 -209 -209 -209 -177 -177 -177 -193 -193 -209 17 9 0 0 12 12 11 11 11 13 11 12 11 10 9 10 10 13 11 12 12 12 11 13 12 10 9 10 11 11 12 11 10 10 11 14 -209 -209 -209 -209 -209 -193 -193 18 14 14 14 16 16 14 18 17 18 21 21 22 23 24 24 22 23 23 23 22 22 23 23 23 23 23 22 22 23 23 23 24 25 28 31 36 39 39 41 42 43 46 46 43 43 41 41 43 43 44 42 43 43 44 45 48 46 48 47 50 50 53 52 53 52 54 54 53 53 54 55 57 56 56 56 57 59 62 61 59 59 60 59 58 59 58 58 60 59 61 63 61 60 60 60 60 59 59 -193 59 64 65 63 62 61 62 61 60 59 58 58 61 62 0 0 0 0 0
    0 0 0 0 0 0 0 0 0 0 0 0 0 0 0 0 0 0 0 0 0 0 0 0 0 0 0 0 0 0 0 0 0 0 0 0 0 0 0 0 0 0 0 0 0 0 0 0 0 0 0 0 0 0 0 0 0 0 0 0 0 0 0 0 0 0 0 0 0 0 0 0 0 0 0 0 0 0 0 0 0 0 0 0 0 0 0 0 0 0 0 0 0 0 0 0 0 0 0 9 0 0 0 0 0 0 0 0 0 0 0 0 9 10 12 11 11 11 11 10 10 9 9 0 9 13 0 -193 9 16 12 12 12 12 13 -193 -193 -209 -177 -209 -209 -209 53 55 53 53 53 52 -209 -209 -209 -209 -177 -177 -177 -193 -193 -209 27 -209 0 0 13 13 11 11 11 12 12 12 12 11 12 14 15 18 14 15 15 15 14 15 13 10 9 10 11 11 12 11 10 10 12 14 -209 -177 45 -209 -209 -193 -193 19 14 15 14 16 16 15 19 18 19 22 22 24 24 25 24 23 23 23 23 23 22 23 23 22 23 23 22 22 23 23 23 25 25 28 29 35 38 39 41 42 44 46 46 44 44 41 42 43 43 44 42 43 43 44 45 48 46 48 47 51 51 54 52 53 52 55 54 53 53 54 55 57 56 56 56 57 59 62 60 59 58 59 59 58 58 58 58 59 58 60 62 60 60 59 59 59 -193 59 60 59 64 64 62 62 60 61 61 60 59 58 58 62 63 0 0 0 0 0
    0 0 0 0 0 0 0 0 0 0 0 0 0 0 0 0 0 0 0 0 0 0 0 0 0 0 0 0 0 0 0 0 0 0 0 0 0 0 0 0 0 0 0 0 0 0 0 0 0 0 0 0 0 0 0 0 0 0 0 0 0 0 0 0 0 0 0 0 0 0 0 0 0 0 0 0 0 0 0 0 0 0 0 0 0 0 0 0 0 0 0 0 0 0 0 0 0 0 9 10 0 0 0 0 0 0 0 0 0 0 0 0 10 10 11 11 10 10 10 10 10 9 0 0 0 11 0 9 9 12 11 13 13 12 -193 -193 -193 -209 -209 49 53 54 53 54 53 54 53 52 -193 -209 -193 -193 -177 -177 -177 -193 -193 42 42 42 -193 0 14 13 12 11 10 12 12 13 12 10 11 14 18 21 17 18 18 18 19 20 13 10 9 10 11 11 13 12 11 11 14 18 -209 -193 45 -193 -193 46 -209 18 13 14 14 16 17 15 19 18 20 23 23 24 25 24 24 23 23 23 23 23 22 22 22 22 23 23 23 23 24 24 24 25 26 28 29 35 38 39 43 43 44 48 45 44 44 42 42 42 42 44 42 43 44 44 45 48 47 48 47 51 51 53 52 53 52 54 54 54 53 54 55 57 56 56 56 57 59 61 59 58 58 58 58 58 58 57 57 59 57 60 62 60 60 59 -193 -193 -193 59 -193 58 62 63 61 61 60 60 60 59 59 58 58 62 64 0 0 0 0 0
    0 0 0 0 0 0 0 0 0 0 0 0 0 0 0 0 0 0 0 0 0 0 0 0 0 0 0 0 0 0 0 0 0 0 0 0 0 0 0 0 0 0 0 0 0 0 0 0 0 0 0 0 0 0 0 0 0 0 0 0 0 0 0 0 0 0 0 0 0 0 0 0 0 0 0 0 0 0 0 0 0 0 0 0 0 0 0 0 0 0 0 0 0 0 0 0 0 0 9 10 0 0 0 0 0 0 0 0 0 0 0 0 10 11 11 11 10 10 10 10 10 9 0 0 9 11 9 10 10 11 12 13 14 13 18 -209 -209 -193 50 49 52 52 53 54 53 53 53 52 54 -209 -193 -193 -193 -193 45 47 46 45 45 45 45 11 16 13 12 11 10 12 12 13 12 9 10 16 23 24 22 24 22 25 25 25 22 10 0 9 11 11 12 11 11 12 16 20 -209 -193 46 -193 44 47 -193 17 13 15 14 17 18 16 19 18 20 23 23 24 24 24 23 23 22 22 22 22 22 22 22 22 23 24 23 23 24 24 23 25 27 27 28 35 38 38 42 42 43 49 44 44 44 42 42 42 42 44 42 43 44 44 45 48 47 48 47 51 51 53 52 53 52 54 55 54 53 54 55 57 56 56 56 57 58 60 58 58 57 57 57 57 57 57 56 58 57 60 62 61 -193 -193 -193 -193 -193 -193 -193 58 60 62 60 60 59 60 60 59 58 57 59 62 64 0 0 0 0 0
    0 0 0 0 0 0 0 0 0 0 0 0 0 0 0 0 0 0 0 0 0 0 0 0 0 0 0 0 0 0 0 0 0 0 0 0 0 0 0 0 0 0 0 0 0 0 0 0 0 0 0 0 0 0 0 0 0 0 0 0 0 0 0 0 0 0 0 0 0 0 0 0 0 0 0 0 0 0 0 0 0 0 0 0 0 0 0 0 0 0 0 0 0 0 0 0 0 0 9 10 0 0 0 0 0 0 0 0 0 9 9 0 10 11 10 10 9 9 10 9 9 9 9 9 9 11 10 10 10 10 12 13 -193 -193 -193 -209 51 44 52 51 52 53 54 55 53 54 53 52 54 51 50 49 49 48 46 48 48 47 47 47 47 15 18 14 12 11 10 11 12 13 12 0 0 -209 -177 36 35 34 -209 37 31 29 27 13 0 10 12 11 12 11 12 12 -193 -209 -209 -209 45 48 45 47 47 -193 13 15 15 18 20 18 19 17 20 22 22 23 23 23 23 22 22 22 22 22 21 22 22 21 23 23 22 22 23 24 24 25 28 29 30 37 40 40 44 44 44 49 43 44 44 42 42 42 42 44 42 43 44 44 45 48 47 48 48 51 52 54 53 53 52 55 55 54 54 55 55 56 56 56 56 57 58 60 58 58 57 56 56 56 56 56 55 57 57 61 62 61 -193 -193 -193 -193 -193 -193 -193 57 59 61 59 59 59 60 59 59 58 58 59 62 63 0 0 0 0 0
    0 0 0 0 0 0 0 0 0 0 0 0 0 0 0 0 0 0 0 0 0 0 0 0 0 0 0 0 0 0 0 0 0 0 0 0 0 0 0 0 0 0 0 0 0 0 0 0 0 0 0 0 0 0 0 0 0 0 0 0 0 0 0 0 0 0 0 0 0 0 0 0 0 0 0 0 0 0 0 0 0 0 0 0 0 0 0 0 0 0 0 0 0 0 0 0 0 0 9 9 0 0 0 0 0 0 0 0 0 9 9 0 9 10 10 10 9 0 9 0 0 0 0 9 9 10 9 10 9 10 12 -193 -209 -209 -209 52 53 49 53 52 53 53 54 55 53 53 52 51 53 49 49 49 49 49 47 48 48 47 47 48 47 19 20 15 12 11 10 11 13 14 12 0 0 -209 -177 41 41 41 42 41 36 34 30 18 10 12 14 12 13 12 12 14 -193 -209 -209 -209 44 47 44 47 46 44 17 17 18 20 22 20 21 18 20 22 22 22 22 23 23 22 22 22 22 22 22 22 22 22 23 23 23 23 24 25 26 28 34 36 37 41 44 42 45 44 43 47 43 44 44 42 42 41 42 44 42 44 44 44 46 49 48 49 49 52 52 54 53 53 53 54 55 54 54 55 55 56 56 56 57 57 58 60 58 58 57 56 56 56 56 56 55 57 56 62 62 -193 -193 -193 -193 -193 226 -193 -193 -193 58 -193 -193 -193 -193 -193 -193 -193 58 58 60 62 64 0 0 0 0 0
    0 0 0 0 0 0 0 0 0 0 0 0 0 0 0 0 0 0 0 0 0 0 0 0 0 0 0 0 0 0 0 0 0 0 0 0 0 0 0 0 0 0 0 0 0 0 0 0 0 0 0 0 0 0 0 0 0 0 0 0 0 0 0 0 0 0 0 0 0 0 0 0 0 0 0 0 0 0 0 0 0 0 0 0 0 0 0 0 0 0 0 0 0 0 0 0 0 0 9 9 0 0 0 0 0 0 0 0 0 9 9 9 9 10 9 9 0 0 0 0 0 0 0 8 0 10 9 9 9 10 12 -209 -209 -209 -193 53 53 51 54 52 53 53 54 55 53 53 52 51 53 49 50 49 48 49 47 49 48 47 48 48 47 -193 20 15 11 10 9 11 13 14 11 0 -209 43 42 42 43 43 43 41 38 35 30 20 12 12 15 12 13 12 13 -193 -193 -193 -209 -209 41 43 42 45 45 43 -193 20 21 23 23 21 21 18 20 22 22 22 22 23 23 22 23 23 23 23 22 23 22 22 23 23 23 24 25 25 27 30 37 38 38 42 45 42 44 43 43 45 43 44 43 42 42 41 42 44 43 45 45 45 47 49 49 49 49 52 52 53 53 53 53 54 55 54 54 55 55 57 57 57 57 57 59 63 60 60 58 56 57 57 57 56 -177 56 55 62 62 -193 -193 -193 227 -193 225 226 -193 -193 57 -209 -193 -193 -193 -193 -193 -193 -193 -193 60 63 64 0 0 0 0 0
    0 0 0 0 0 0 0 0 0 0 0 0 0 0 0 0 0 0 0 0 0 0 0 0 0 0 0 0 0 0 0 0 0 0 0 0 0 0 0 0 0 0 0 0 0 0 0 0 0 0 0 0 0 0 0 0 0 0 0 0 0 0 0 0 0 0 0 0 0 0 0 0 0 0 0 0 0 0 0 0 0 0 0 0 0 0 0 0 0 0 0 0 0 0 0 0 0 0 9 9 0 0 0 0 0 0 0 0 0 9 9 9 9 10 9 10 9 0 0 0 0 8 0 9 0 9 0 9 9 10 12 -209 -209 -209 48 51 53 50 53 52 53 51 53 54 52 52 51 50 52 48 50 50 48 49 47 49 48 47 48 48 47 43 20 15 11 9 9 10 14 14 11 0 -209 43 43 43 43 44 44 42 40 38 34 17 10 10 14 11 13 12 14 16 -193 -209 -209 -209 39 42 41 43 43 42 38 27 27 27 25 23 21 18 18 21 21 22 21 23 23 22 23 24 23 23 23 23 22 22 23 23 23 24 25 26 27 32 39 40 40 43 46 43 46 44 44 45 42 43 43 42 42 41 41 43 43 46 46 46 48 49 49 50 49 52 52 53 53 53 53 54 55 54 54 55 55 57 57 57 58 58 61 65 61 61 59 57 57 -177 57 57 -177 57 55 63 62 -193 -193 225 225 -193 223 225 -193 -193 57 -193 -193 -193 -193 -177 -193 -193 -193 -193 58 61 63 0 0 0 0 0
    0 0 0 0 0 0 0 0 0 0 0 0 0 0 0 0 0 0 0 0 0 0 0 0 0 0 0 0 0 0 0 0 0 0 0 0 0 0 0 0 0 0 0 0 0 0 0 0 0 0 0 0 0 0 0 0 0 0 0 0 0 0 0 0 0 0 0 0 0 0 0 0 0 0 0 0 0 0 0 0 0 0 0 0 0 0 0 0 0 0 0 0 0 0 0 0 0 0 0 9 0 0 0 0 0 0 0 0 0 9 9 0 9 9 9 9 8 9 0 0 0 9 9 9 0 9 0 0 0 9 11 -209 -209 -209 51 53 54 52 54 53 54 52 53 54 51 52 51 50 52 48 50 50 48 50 47 49 48 47 48 47 46 43 -193 14 11 9 9 10 14 17 11 -177 42 44 44 44 44 44 44 43 41 40 37 -193 -193 9 13 11 13 12 14 17 -193 -209 -193 -209 36 40 41 43 43 41 36 32 30 30 26 22 21 19 18 20 21 21 21 22 22 22 22 23 23 23 23 23 22 22 23 23 23 25 26 27 31 36 40 42 41 46 49 45 48 46 45 -193 43 43 43 42 42 41 41 43 44 47 48 47 49 50 50 50 50 52 52 53 53 53 53 54 55 55 54 55 56 58 57 58 58 59 62 66 61 62 59 -177 -177 -177 -177 -177 -177 -177 55 64 -193 225 224 224 225 225 223 225 224 -193 57 -193 -177 -177 -177 -177 -177 -177 -177 -193 58 60 -193 0 0 0 0 0
    0 0 0 0 0 0 0 0 0 0 0 0 0 0 0 0 0 0 0 0 0 0 0 0 0 0 0 0 0 0 0 0 0 0 0 0 0 0 0 0 0 0 0 0 0 0 0 0 0 0 0 0 0 0 0 0 0 0 0 0 0 0 0 0 0 0 0 0 0 0 0 0 0 0 0 0 0 0 0 0 0 0 0 0 0 0 0 0 0 0 0 0 0 0 0 0 0 0 0 9 0 0 0 0 0 0 0 0 0 10 10 9 9 9 9 9 0 9 0 9 9 10 9 9 0 9 0 9 0 9 -193 122 -209 -209 -193 52 53 52 53 52 53 51 52 53 51 52 50 50 52 48 50 51 48 50 47 48 47 46 47 47 45 42 -193 14 11 10 9 10 15 15 11 -177 -193 44 44 44 44 45 45 44 41 41 41 -209 -209 9 13 11 13 13 14 18 23 -209 -177 -209 34 40 41 43 43 41 38 35 34 32 27 22 21 19 18 20 20 21 20 22 22 22 22 24 23 23 23 23 23 22 23 23 23 25 26 28 36 38 41 44 42 46 49 46 -193 46 47 -193 43 44 44 44 43 41 42 44 45 49 49 48 49 50 50 50 50 52 52 52 53 52 53 54 55 55 55 56 57 58 58 58 59 60 62 66 61 62 59 -177 -177 -177 -177 -177 -177 -177 55 -193 -193 225 224 224 224 224 222 225 224 -193 -193 -193 -177 -177 -177 -177 -177 -177 -177 -193 57 60 -193 0 0 0 0 0
    0 0 0 0 0 0 0 0 0 0 0 0 0 0 0 0 0 0 0 0 0 0 0 0 0 0 0 0 0 0 0 0 0 0 0 0 0 0 0 0 0 0 0 0 0 0 0 0 0 0 0 0 0 0 0 0 0 0 0 0 0 0 0 0 0 0 0 0 0 0 0 0 0 0 0 0 0 0 0 0 0 0 0 0 0 0 0 0 0 0 0 0 0 0 0 0 0 0 0 9 0 0 0 0 0 0 0 9 0 10 11 10 9 10 10 10 9 9 0 9 9 11 10 9 9 10 9 9 9 10 -177 -177 -193 -209 -209 51 53 52 52 52 53 52 52 54 53 53 52 52 53 50 52 52 49 51 48 49 48 46 48 47 45 43 26 14 11 10 9 10 15 16 10 -177 43 45 45 45 45 45 46 45 42 42 42 -209 -209 -193 14 12 15 14 15 19 -193 -193 -177 -209 34 -193 42 44 46 43 39 38 37 37 29 22 20 18 17 19 19 20 19 21 21 21 22 23 23 23 23 23 23 22 23 22 22 25 26 -193 -193 -209 48 53 -193 -193 -193 -193 -193 -193 50 -193 45 45 45 46 45 -193 -193 46 46 50 50 49 50 50 50 50 49 51 51 52 52 52 52 54 55 56 56 57 58 59 59 59 59 60 62 66 61 62 -177 -177 -177 -177 -177 -177 -177 58 56 -193 221 224 224 224 224 224 221 224 -193 -193 59 -193 -193 -193 -177 -177 -177 402 -193 -193 57 60 61 0 0 0 0 0
    0 0 0 0 0 0 0 0 0 0 0 0 0 0 0 0 0 0 0 0 0 0 0 0 0 0 0 0 0 0 0 0 0 0 0 0 0 0 0 0 0 0 0 0 0 0 0 0 0 0 0 0 0 0 0 0 0 0 0 0 0 0 0 0 0 0 0 0 0 0 0 0 0 0 0 0 0 0 0 0 0 0 0 0 0 0 11 0 0 8 0 0 0 0 0 0 0 0 0 0 0 0 0 0 0 0 0 0 0 10 11 10 10 10 10 10 9 9 9 9 10 12 10 9 10 10 9 9 9 -193 -177 -193 -209 -193 -193 -193 52 52 51 52 53 52 53 54 53 54 52 53 53 51 53 52 50 51 49 50 49 47 48 47 45 43 -193 14 10 10 9 10 15 20 10 -177 43 45 45 45 45 46 47 45 43 42 -209 -193 -209 -209 19 -193 17 16 17 21 -193 -177 -209 -209 -193 -209 42 45 49 45 40 39 38 38 29 22 19 17 16 18 18 19 17 20 20 20 21 22 23 23 23 24 24 23 23 21 -193 -193 -209 -209 -177 81 -209 -209 -209 -209 -209 -209 -193 -193 -193 -193 -193 47 47 48 48 -193 -193 49 49 52 51 49 50 50 50 50 48 49 49 51 52 51 52 54 56 57 57 57 59 59 59 59 59 60 62 66 61 61 -177 -177 -177 -177 59 58 57 59 56 -193 221 224 223 223 -193 -193 -193 -193 60 60 60 62 -193 -177 -193 403 -193 402 -193 57 57 60 61 0 0 0 0 0
    0 0 0 0 0 0 0 0 0 0 0 0 0 0 0 0 0 0 0 0 0 0 0 0 0 0 0 0 0 0 0 0 0 0 0 0 0 0 0 0 0 0 0 0 0 0 0 0 0 0 0 0 0 0 0 0 0 0 0 0 0 0 0 0 0 0 0 0 0 0 0 0 0 0 0 0 0 0 9 -193 -193 -209 -193 -193 -193 0 25 -193 -193 -193 -193 -193 -193 9 10 0 9 0 0 9 0 0 0 0 0 0 0 0 -193 11 12 10 10 11 11 11 9 10 0 9 10 12 11 10 11 11 10 10 -193 -209 -177 -193 -209 -209 -209 51 53 54 52 54 54 53 54 54 53 53 52 53 53 51 52 52 50 51 49 50 49 47 48 48 45 43 -193 13 10 10 9 10 16 23 9 -193 42 45 45 44 44 45 46 44 42 41 -209 -209 -193 -209 19 17 19 19 19 21 -193 -193 -209 -193 -193 -193 44 48 51 49 43 42 39 39 30 21 19 18 17 18 19 19 17 20 20 20 21 22 23 23 24 24 24 24 23 21 -193 -193 -209 -209 -177 84 -209 -209 -209 -209 -209 -209 -193 -193 100 102 -193 51 50 52 51 46 51 51 51 53 52 49 50 49 49 48 46 47 48 51 51 51 53 53 55 57 57 57 58 59 59 59 59 60 62 66 62 61 -177 -177 58 59 59 59 57 59 56 222 220 223 222 -193 61 62 61 62 60 61 62 63 61 59 57 57 57 -193 58 58 58 61 61 0 0 0 0 0
    0 0 0 0 0 0 0 0 0 0 0 0 0 0 0 0 0 0 0 0 0 0 0 0 0 0 0 0 0 0 0 0 0 0 0 0 0 0 0 0 0 0 0 0 0 0 0 0 0 0 0 0 0 0 0 0 0 0 0 0 0 0 0 0 0 0 0 0 0 0 0 0 0 0 0 0 0 0 10 -209 -209 -209 -193 29 28 -193 28 31 -209 -193 -209 -209 -193 15 17 11 10 11 10 9 0 0 0 0 0 0 0 0 -193 12 13 12 11 12 -193 12 10 10 -193 10 10 14 12 11 13 14 -193 12 -209 -209 -209 -193 -209 -209 -209 -193 53 54 52 53 54 52 53 54 53 53 52 53 53 51 52 52 51 50 50 50 48 46 48 48 44 43 42 16 13 12 12 12 18 26 11 -209 42 44 44 44 43 44 45 44 42 40 -209 -209 -193 -209 21 20 21 21 21 22 27 -193 -209 -209 -209 -193 47 52 52 51 44 46 40 41 34 23 21 20 18 18 19 20 17 20 20 20 21 23 23 23 24 25 25 24 23 20 -193 -193 -209 -193 -209 86 -193 83 -209 -209 -193 -193 86 -209 97 102 103 -209 -193 -209 -193 52 -193 -209 53 55 -209 -193 51 49 50 48 46 46 47 50 50 50 52 52 55 57 57 57 58 59 59 59 59 60 62 64 61 60 59 58 58 59 59 59 58 59 57 -193 220 222 -193 -193 61 62 61 62 61 62 62 63 61 59 57 57 57 57 58 58 58 62 62 0 0 0 0 0
    0 0 0 0 0 0 0 0 0 0 0 0 0 0 0 0 0 0 0 0 0 0 0 0 0 0 0 0 0 0 0 0 0 0 0 0 0 0 0 0 0 0 0 0 0 0 0 0 0 0 0 0 0 0 0 0 0 0 0 0 0 0 0 0 0 0 0 0 0 0 0 0 0 0 0 0 -209 -193 11 -209 -209 -193 31 33 33 31 30 34 28 30 27 -193 -193 25 25 25 20 19 13 12 0 0 0 0 0 0 0 10 -193 13 17 -193 -193 -193 -193 -193 -193 -209 -209 -193 -209 17 14 13 16 -193 -209 -209 -209 -209 -193 -193 122 -209 -209 -193 52 54 51 53 53 52 53 54 54 53 52 53 53 52 53 52 51 50 50 50 48 46 48 48 44 43 43 21 20 21 21 22 21 28 -193 -209 42 44 44 43 43 43 45 44 42 40 40 -209 -209 -209 -209 -209 -209 -193 -193 24 30 -209 -209 -193 -193 -193 52 55 54 54 -193 -193 -209 44 -209 24 22 21 17 16 17 18 14 19 19 20 20 23 25 24 24 24 24 23 22 19 -193 -193 20 -193 -193 -193 89 87 88 -209 77 75 82 -209 -193 95 95 -209 -209 -209 -193 94 95 95 -193 -193 95 105 -193 -193 49 46 -193 -193 -193 48 48 48 51 52 54 56 56 56 58 59 59 59 59 60 61 63 61 59 -177 58 58 59 59 59 58 59 57 -193 220 222 -193 -193 61 62 61 61 61 62 62 64 61 60 58 58 58 58 59 59 57 62 61 0 0 0 0 0
    0 0 0 0 0 0 0 0 0 0 0 0 0 0 0 0 0 0 0 0 0 0 0 0 0 0 0 0 0 0 0 0 0 0 0 0 0 0 0 0 0 0 0 0 0 0 0 0 0 0 0 0 0 0 0 0 0 0 0 0 0 0 0 0 0 0 0 0 0 -209 0 0 0 0 0 0 -193 -177 -209 -193 -193 36 35 35 36 34 33 36 31 34 31 36 29 29 31 33 29 32 22 20 0 0 9 9 0 9 0 11 -209 16 -193 -209 -209 -193 -193 -193 -209 -193 -193 -193 -193 -193 -193 -193 -209 -193 -193 -193 351 350 -193 -193 -193 -209 -209 -193 51 53 50 53 53 53 53 54 54 53 53 54 53 52 53 53 51 49 49 49 47 46 47 47 43 42 41 28 26 28 28 30 24 31 32 -209 42 43 43 43 42 42 45 44 43 42 42 -209 41 42 41 -209 -209 -193 -193 26 34 -193 -209 45 49 56 54 56 55 55 -209 -209 56 48 -209 -193 -209 -209 20 17 16 17 13 17 18 19 19 22 24 24 23 23 23 21 21 18 -193 -193 19 19 -193 90 91 -177 89 -193 79 75 78 -209 -209 -193 94 -209 -209 -193 94 99 98 97 98 93 99 106 111 114 118 118 120 123 132 -193 44 45 47 49 52 55 55 56 58 59 58 58 58 59 60 61 60 58 58 58 58 58 58 58 58 59 57 -193 -193 -193 -193 60 62 62 61 62 61 63 62 64 62 60 59 59 59 59 60 60 59 63 63 0 0 0 0 0
    0 0 0 0 0 0 0 0 0 0 0 0 0 0 0 0 0 0 0 0 0 0 0 0 0 0 0 0 0 0 0 0 0 0 0 0 0 0 0 0 0 0 0 0 0 0 0 0 0 0 0 0 0 0 0 0 0 0 0 0 0 0 0 0 0 0 0 0 0 42 -193 -209 -193 -193 -209 -209 -177 -177 -193 37 -209 38 37 37 38 37 36 37 34 37 35 38 35 35 37 38 38 39 31 28 -193 0 10 -177 -177 -177 -177 -177 -193 -193 -209 -193 -209 22 -193 -193 236 235 234 235 234 -193 -193 -193 -177 -177 -177 -177 352 351 350 352 -193 -193 -209 -209 51 -193 51 54 54 54 54 54 55 54 53 54 54 53 53 52 51 49 49 48 47 46 47 47 44 41 40 37 36 35 35 37 31 35 35 -193 41 42 42 42 42 42 45 44 43 42 42 42 42 42 42 -209 36 33 36 36 38 44 44 47 51 -193 -193 57 -193 56 -209 -209 59 53 50 -209 -209 -209 -209 -193 19 18 13 16 17 19 18 22 23 24 23 23 23 21 20 17 18 -193 17 -193 -177 91 91 89 89 -193 79 73 73 58 -209 -209 -209 -209 94 92 95 100 98 97 99 95 101 107 110 113 118 118 118 121 127 -209 -193 42 46 47 51 54 55 55 57 58 57 57 55 56 58 59 59 57 57 57 57 57 58 58 58 58 57 -193 -193 -193 61 60 62 63 61 62 62 63 62 63 62 60 59 60 60 60 61 61 60 65 63 0 0 0 0 0
    0 0 0 0 0 0 0 0 0 0 0 0 0 0 0 0 0 0 0 0 0 0 0 0 0 0 0 0 0 0 0 0 0 0 0 0 0 0 0 0 0 0 0 0 0 0 0 0 0 0 0 0 0 0 0 0 0 0 0 0 0 0 0 0 0 0 0 0 0 41 42 42 43 45 -209 -193 -209 -193 -209 40 40 40 40 39 39 39 38 38 36 38 37 38 37 38 39 39 40 40 38 36 36 -209 18 -193 -209 -209 -209 -209 -209 -209 -193 -193 -193 26 30 -193 -193 235 233 -209 -209 -209 -209 -209 -193 -193 -193 357 355 354 353 356 353 -177 -209 -193 49 54 50 53 53 53 54 54 55 54 53 55 54 54 54 52 52 48 49 48 47 47 47 48 45 43 41 40 39 38 38 39 37 38 37 41 41 42 41 42 41 42 45 44 43 43 42 43 43 43 43 -209 40 39 41 41 41 45 45 49 52 -193 -193 -193 -193 -193 -209 58 60 55 56 -209 -209 -209 -209 -209 -209 -193 14 17 17 20 19 22 24 24 23 23 23 20 20 16 17 -193 -209 -193 -177 92 92 89 -193 -209 77 71 68 55 -209 -209 -209 -209 97 93 95 99 96 94 97 95 101 106 112 114 117 117 117 119 122 120 -209 41 44 45 48 52 52 54 56 58 57 56 54 54 57 58 59 56 57 57 57 57 57 57 58 57 57 55 56 59 61 60 62 63 61 62 62 63 63 63 62 60 59 60 60 61 61 62 62 65 64 0 0 0 0 0
    0 0 0 0 0 0 0 0 0 0 0 0 0 0 0 0 0 0 0 0 0 0 0 0 0 0 0 0 0 0 0 0 0 0 0 0 0 0 0 0 0 0 0 0 0 0 0 0 0 0 0 0 0 0 0 0 0 0 0 0 0 0 0 0 0 0 0 0 0 40 41 41 41 42 42 42 42 42 41 41 42 41 41 40 40 40 39 39 38 39 38 38 38 39 40 40 41 40 40 40 41 41 -209 35 -209 -209 -209 -209 -209 33 36 -193 37 36 38 37 36 -193 -193 -209 -193 -193 -193 -209 -193 38 -209 -209 -193 -193 -193 -209 -209 -193 -193 44 49 54 51 54 53 54 55 54 55 54 53 55 53 54 53 52 52 48 49 49 48 48 48 50 47 45 42 42 40 40 39 40 38 39 38 41 41 42 41 42 41 42 45 44 43 43 42 43 43 44 44 42 42 42 43 44 44 47 46 50 -209 -193 -177 -193 -193 -193 -193 -193 -193 56 57 -193 -209 59 60 -209 -193 -209 -209 20 17 20 20 23 24 24 24 24 24 21 21 17 18 -209 -193 -177 -177 92 92 89 -209 -209 76 70 62 53 55 -209 -209 98 101 99 99 101 94 94 96 95 100 106 110 114 116 117 116 118 119 118 119 -193 43 44 44 46 47 52 55 -193 -193 52 50 52 57 58 60 57 58 57 57 57 58 58 58 57 56 55 56 59 61 61 63 64 62 63 63 64 64 63 62 60 60 61 61 61 61 61 62 64 63 0 0 0 0 0
    0 0 0 0 0 0 0 0 0 0 0 0 0 0 0 0 0 0 0 0 0 0 0 0 0 0 0 0 0 0 0 0 0 0 0 0 0 0 0 0 0 0 0 0 0 0 0 0 0 0 0 0 0 0 0 0 0 0 0 0 0 0 0 0 0 0 0 0 0 40 40 41 41 42 41 42 42 42 42 42 42 42 41 41 41 41 40 40 39 39 39 39 39 40 40 41 41 41 41 41 42 42 41 42 42 41 43 43 42 40 39 39 40 40 41 41 40 41 -193 42 -193 -193 41 41 41 41 41 41 41 41 41 41 41 41 44 44 49 55 52 55 54 54 55 54 55 53 52 54 51 53 51 51 51 49 49 49 48 49 48 49 46 45 41 41 40 40 39 40 39 39 38 41 41 41 41 42 41 42 46 45 44 44 43 44 44 46 46 44 44 44 45 47 47 49 47 51 -193 -177 -177 -177 -177 -177 -177 -193 -193 -193 -193 -193 -209 65 65 66 -193 -209 -177 -193 15 20 20 23 24 24 24 24 24 21 21 18 -193 -193 -177 95 93 92 92 90 -193 -209 77 -209 -209 48 52 54 -209 -209 -209 -209 103 104 -209 96 103 98 102 106 110 115 116 116 115 117 117 117 118 -193 -193 -209 -209 45 45 52 -209 -193 -209 -209 48 51 58 59 60 58 58 57 57 57 58 58 58 57 55 55 57 59 62 62 62 63 62 62 63 63 63 62 62 60 60 61 61 61 62 61 62 63 63 0 0 0 0 0
    0 0 0 0 0 0 0 0 0 0 0 0 0 0 0 0 0 0 0 0 0 0 0 0 0 0 0 0 0 0 0 0 0 0 0 0 0 0 0 0 0 0 0 0 0 0 0 0 0 0 0 0 0 0 0 0 0 0 0 0 0 0 0 0 0 0 0 0 0 40 40 41 41 42 42 43 43 43 42 43 43 42 42 41 41 41 41 41 40 40 41 41 41 42 42 42 42 42 42 42 42 43 42 43 44 42 44 44 43 42 41 40 41 41 42 42 42 42 42 43 43 42 42 42 42 42 42 42 42 42 42 42 42 42 45 44 49 55 52 55 54 55 54 54 54 53 52 54 51 52 49 50 50 49 49 49 48 49 47 49 46 45 41 40 40 40 40 41 40 40 39 41 41 42 41 42 42 42 46 45 45 45 44 45 44 47 47 46 46 45 47 48 48 50 48 51 -177 -177 -177 -177 -177 -177 -177 -177 -193 -193 -177 -193 -209 67 70 69 -193 -209 -209 -193 65 -209 19 25 25 25 24 24 24 -177 -193 -193 93 99 95 95 94 93 93 91 -209 -209 76 52 46 45 48 52 54 54 -209 -209 -209 -209 62 -209 -209 -209 -193 109 116 118 116 116 115 116 115 116 117 118 -193 -209 -193 -209 -209 -209 -209 -209 -209 -209 -209 -209 -193 -193 -193 59 60 57 57 57 58 58 58 57 55 55 57 60 63 62 62 63 62 62 63 62 63 61 61 60 60 61 61 61 62 61 62 63 63 0 0 0 0 0
    0 0 0 0 0 0 0 0 0 0 0 0 0 0 0 0 0 0 0 0 0 0 0 0 0 0 0 0 0 0 0 0 0 0 0 0 0 0 0 0 0 0 0 0 0 0 0 0 0 0 0 0 0 0 0 0 0 0 0 0 0 0 0 0 0 0 0 0 0 40 41 41 42 43 43 43 43 44 43 44 43 44 43 42 42 42 42 42 41 42 42 42 42 43 43 43 43 42 42 42 42 42 42 43 44 43 44 44 43 42 42 41 42 41 43 42 42 42 43 43 43 42 43 42 43 42 43 42 42 42 42 42 42 42 44 43 46 54 51 54 54 55 54 54 54 54 52 55 51 53 48 51 50 50 49 49 48 49 47 49 46 46 41 40 40 40 40 41 40 41 40 41 42 42 42 43 42 43 47 45 45 46 45 45 45 47 47 47 47 47 49 49 49 51 49 52 -177 -193 -177 -177 -177 -177 -177 -177 -177 -193 -177 -177 56 67 71 70 73 75 74 -193 73 73 -209 33 28 27 25 24 -177 -193 -193 93 92 99 94 95 94 93 94 91 -193 -209 -193 44 41 42 44 49 51 52 53 53 52 53 55 -193 -193 -209 -209 -209 118 118 116 117 115 116 114 115 116 117 117 -193 -193 -209 -209 -209 -209 -209 -209 -193 -193 120 124 127 125 128 -193 -209 -209 -209 58 58 59 57 56 55 59 61 65 63 63 63 62 63 63 62 62 60 60 59 60 61 61 61 61 60 62 62 62 0 0 0 0 0
    0 0 0 0 0 0 0 0 0 0 0 0 0 0 0 0 0 0 0 0 0 0 0 0 0 0 0 0 0 0 0 0 0 0 0 0 0 0 0 0 0 0 0 0 0 0 0 0 0 0 0 0 0 0 0 0 0 0 0 0 0 0 0 0 0 0 0 0 0 41 41 42 42 43 43 44 44 44 44 45 44 45 44 43 43 43 43 43 42 43 43 42 43 44 43 43 43 42 42 42 42 43 43 43 44 43 44 44 44 43 43 42 43 42 45 45 44 44 44 44 44 43 44 43 44 43 44 43 42 42 42 42 41 41 44 43 45 53 51 54 54 55 54 53 54 54 53 55 51 53 47 52 50 50 49 49 49 49 47 49 45 46 41 40 40 40 40 41 40 41 40 41 42 42 42 44 43 43 48 46 46 47 46 47 46 48 48 48 48 48 49 49 50 50 49 52 -177 -209 -177 -177 -177 -177 -177 -177 -193 47 -177 -193 56 66 71 71 73 76 74 74 73 74 75 -209 -209 28 26 25 -209 -177 -177 92 91 98 94 95 94 93 94 91 -193 -193 -193 41 41 42 43 45 46 48 50 51 50 50 53 53 -209 -177 -177 -209 -209 119 116 117 115 116 114 115 116 117 117 119 -209 -209 -209 -209 -209 -209 128 129 124 122 125 126 124 128 125 132 134 135 -209 -193 61 -209 54 54 60 63 67 64 64 63 62 63 63 62 62 60 60 59 60 61 61 61 62 60 62 62 61 0 0 0 0 0
    0 0 0 0 0 0 0 0 0 0 0 0 0 0 0 0 0 0 0 0 0 0 0 0 0 0 0 0 0 0 0 0 0 0 0 0 0 0 0 0 0 0 0 0 0 0 0 0 0 0 0 0 0 0 0 0 0 0 0 0 0 0 0 0 0 0 0 0 0 42 42 43 43 43 44 44 44 45 45 46 45 45 45 44 44 44 44 44 43 44 44 43 44 45 44 43 43 43 42 42 43 43 44 44 45 44 44 45 44 44 44 43 44 44 47 47 46 45 45 45 45 45 45 44 45 44 44 43 43 43 43 42 41 40 44 43 45 53 51 54 53 55 53 53 54 54 53 55 51 54 47 52 50 51 49 49 49 49 47 49 45 47 42 43 41 42 42 42 41 42 41 42 42 43 42 45 43 44 48 46 46 48 47 47 47 49 49 49 49 49 50 49 50 50 49 52 -177 -209 -193 -177 -177 -177 -177 -177 -209 45 45 50 56 63 68 70 72 74 74 74 74 74 76 73 74 29 33 -209 81 -177 -177 91 90 96 92 94 93 93 93 91 92 -193 -209 40 40 41 42 44 45 46 47 47 47 48 51 51 -193 -177 -177 -177 -209 120 116 117 115 116 113 115 116 117 117 119 -193 -209 -177 -193 -209 133 128 129 126 125 126 127 125 128 125 130 131 134 139 -193 -193 133 -209 -209 -209 66 68 64 64 64 63 63 64 62 62 60 60 59 59 60 60 60 61 59 63 62 62 0 0 0 0 0
    0 0 0 0 0 0 0 0 0 0 0 0 0 0 0 0 0 0 0 0 0 0 0 0 0 0 0 0 0 0 0 0 0 0 0 0 0 0 0 0 0 0 0 0 0 0 0 0 0 0 0 0 0 0 0 0 0 0 0 0 0 0 0 0 0 0 0 0 0 43 43 43 44 43 44 45 45 46 45 46 45 46 46 45 45 45 45 45 44 45 45 44 44 45 44 44 44 43 43 43 44 45 45 45 45 45 45 45 45 45 44 43 45 46 47 48 46 46 45 45 46 45 46 45 46 44 45 44 43 43 43 42 41 40 44 43 45 53 51 54 53 55 53 53 54 54 52 55 50 54 46 52 50 51 49 49 49 50 47 50 46 47 43 44 43 43 43 43 42 43 42 43 43 43 43 45 44 44 48 46 46 47 47 47 47 49 49 49 49 49 51 49 50 49 49 52 -177 -193 -193 -193 -193 -177 -193 -209 54 44 45 50 55 62 67 69 71 73 73 74 74 75 76 74 76 -209 40 53 -193 -193 92 90 89 94 91 92 91 91 91 90 90 -209 -209 40 41 41 42 44 44 45 47 48 46 46 48 50 52 -209 -177 -193 -209 -209 115 118 114 115 113 114 116 117 116 118 -193 -209 -193 129 -193 132 128 129 127 125 127 126 125 127 124 127 128 132 135 131 132 130 129 136 135 135 140 -193 -193 64 63 64 64 62 62 60 61 59 58 59 59 60 60 59 62 61 60 0 0 0 0 0
    0 0 0 0 0 0 0 0 0 0 0 0 0 0 0 0 0 0 0 0 0 0 0 0 0 0 0 0 0 0 0 0 0 0 0 0 0 0 0 0 0 0 0 0 0 0 0 0 0 0 0 0 0 0 0 0 0 0 0 0 0 0 0 0 0 0 0 0 0 44 44 44 44 43 44 45 45 46 45 46 46 46 46 45 45 45 45 45 45 45 45 45 45 46 45 44 44 43 43 43 45 46 46 47 46 46 46 46 46 45 45 44 46 46 47 48 47 46 46 46 46 45 46 45 47 45 45 44 44 43 43 42 42 40 45 43 44 53 51 54 53 55 53 53 54 54 52 56 50 54 46 53 51 51 49 50 50 50 47 50 46 47 43 44 43 43 43 43 43 43 42 43 43 44 44 45 44 43 48 46 45 47 46 46 47 49 49 50 49 50 51 50 50 50 49 52 -177 -209 -177 -193 -193 -193 56 56 51 44 46 50 55 61 67 70 71 -193 74 74 74 76 77 73 76 -193 46 55 70 -193 90 89 89 93 90 91 90 89 90 89 -193 -209 -193 41 42 42 42 43 44 45 46 48 46 46 47 49 51 53 -193 -209 -209 -209 113 117 113 115 112 113 115 116 115 118 -193 -193 -209 128 132 131 127 128 126 125 126 124 124 125 123 126 126 130 132 128 129 127 126 133 132 134 139 139 139 -193 -193 65 64 62 62 60 61 59 59 60 60 59 61 58 61 60 59 0 0 0 0 0
    0 0 0 0 0 0 0 0 0 0 0 0 0 0 0 0 0 0 0 0 0 0 0 0 0 0 0 0 0 0 0 0 0 0 0 0 0 0 0 0 0 0 0 0 0 0 0 0 0 0 0 0 0 0 0 0 0 0 0 0 0 0 0 0 0 0 0 0 0 44 44 44 45 44 46 46 46 47 47 47 46 46 46 45 45 45 45 45 45 46 46 46 46 46 45 45 45 44 44 44 46 48 48 47 47 46 46 46 46 45 45 44 47 47 48 48 48 47 47 47 47 46 47 45 48 45 45 44 44 43 43 43 43 40 45 44 44 52 51 53 54 55 53 53 54 54 53 56 52 54 46 53 51 52 50 50 50 50 47 50 46 47 43 44 43 43 43 43 43 43 43 43 43 44 44 45 44 43 48 45 45 46 46 46 47 50 50 51 50 50 51 50 50 50 49 52 -177 -209 -193 -193 -193 -193 56 55 50 44 46 50 54 60 67 70 -193 -177 -193 75 75 77 78 74 76 77 46 55 69 -193 88 88 88 92 90 90 89 89 89 -193 -193 -209 -209 41 43 42 42 43 43 45 46 48 45 45 46 48 51 52 -209 -209 -209 -209 -209 116 112 114 111 113 115 116 115 118 -193 -193 -193 127 131 130 128 129 127 125 127 124 125 124 124 124 125 128 129 126 129 128 126 133 133 134 138 139 139 135 141 140 -193 -193 63 60 62 60 60 61 61 61 63 60 61 60 59 0 0 0 0 0
    0 0 0 0 0 0 0 0 0 0 0 0 0 0 0 0 0 0 0 0 0 0 0 0 0 0 0 0 0 0 0 0 0 0 0 0 0 0 0 0 0 0 0 0 0 0 0 0 0 0 0 0 0 0 0 0 0 0 0 0 0 0 0 0 0 0 0 0 0 44 44 45 46 45 47 47 48 49 48 49 47 47 46 46 46 46 46 46 46 48 47 47 47 47 47 46 46 45 45 45 48 50 49 48 47 47 47 46 46 45 45 44 48 47 47 48 48 48 47 47 48 46 47 46 49 46 46 45 44 44 44 43 43 41 45 44 45 52 51 53 53 55 53 53 54 55 54 57 54 56 48 54 52 53 51 51 51 50 47 49 45 47 44 45 44 44 43 43 44 44 43 43 44 44 44 45 45 43 47 45 44 46 45 45 47 50 50 52 50 51 52 50 51 51 50 52 -193 56 -193 -193 -193 -193 56 55 50 45 47 51 55 60 -193 -177 414 416 417 76 76 78 80 74 76 -193 47 54 67 -193 86 87 88 90 89 -193 88 88 88 -193 -209 -209 -209 42 43 43 42 44 44 46 46 49 46 45 47 50 53 52 53 -209 -209 -193 -209 116 112 114 111 113 115 117 115 118 -193 121 124 127 131 129 129 129 128 126 128 124 126 124 125 124 126 129 129 127 131 131 130 134 134 135 137 139 140 136 141 140 137 144 153 -193 -193 155 157 -193 -193 -193 -193 -193 62 63 60 0 0 0 0 0
    0 0 0 0 0 0 0 0 0 0 0 0 0 0 0 0 0 0 0 0 0 0 0 0 0 0 0 0 0 0 0 0 0 0 0 0 0 0 0 0 0 0 0 0 0 0 0 0 0 0 0 0 0 0 0 0 0 0 0 0 0 0 0 0 0 0 0 0 0 46 46 46 48 46 49 50 51 51 50 51 49 48 48 47 47 46 47 48 48 49 49 49 48 49 49 48 49 48 47 49 50 52 51 49 48 48 47 47 46 46 45 44 48 47 47 48 48 48 47 47 47 46 47 47 50 47 46 46 45 45 45 45 44 42 46 45 45 51 51 52 53 55 53 54 55 56 55 57 55 58 49 55 53 53 51 52 51 51 47 49 46 47 45 46 45 45 44 43 44 44 44 44 44 44 44 45 46 44 48 45 45 46 46 46 48 51 51 53 51 51 52 -177 52 52 50 52 52 56 -193 -209 58 58 55 55 51 47 49 53 55 61 -177 -177 415 417 418 -193 76 77 79 73 75 -193 48 54 66 -177 83 84 87 87 87 -193 87 87 86 -193 -193 -193 -193 43 45 44 44 44 44 47 46 48 46 45 48 52 54 50 49 -209 -193 -193 -193 116 112 114 112 113 116 117 115 118 -193 122 124 127 131 129 129 130 129 127 129 125 127 124 125 123 126 128 128 126 130 130 129 134 133 133 136 137 138 135 140 138 136 142 150 150 153 155 157 159 155 158 159 153 156 -193 -209 0 0 0 0 0
    0 0 0 0 0 0 0 0 0 0 0 0 0 0 0 0 0 0 0 0 0 0 0 0 0 0 0 0 0 0 0 0 0 0 0 0 0 0 0 0 0 0 0 0 0 0 0 0 0 0 0 0 0 0 0 0 0 0 0 0 0 0 0 0 0 0 0 0 0 50 49 48 51 50 53 53 54 54 53 53 52 51 51 50 50 48 49 50 51 51 50 50 50 51 51 51 52 52 52 53 53 54 52 50 50 48 47 48 48 47 47 46 50 48 48 50 48 49 48 47 48 47 48 49 51 49 48 48 47 46 46 46 46 43 49 47 46 51 51 52 53 55 53 54 55 56 55 57 56 59 50 55 53 53 52 52 52 51 47 50 47 48 45 47 46 46 45 44 45 45 45 45 45 45 45 45 48 46 48 47 47 48 47 47 49 52 52 54 51 51 52 -177 52 52 51 53 52 56 57 -193 58 58 56 55 52 50 52 55 56 61 -177 -177 -177 418 418 -193 76 77 79 73 74 49 50 55 66 -177 81 82 87 85 85 -193 86 85 85 -193 86 81 86 44 46 45 45 45 46 47 46 47 46 45 48 52 55 47 45 -209 -193 -193 -177 -193 111 114 112 113 116 116 115 117 -193 122 124 126 131 129 129 130 129 126 129 125 128 123 125 122 125 127 127 126 129 129 126 133 131 129 133 136 136 133 137 135 135 139 143 144 146 153 155 157 154 157 157 154 155 157 155 0 0 0 0 0
    0 0 0 0 0 0 0 0 0 0 0 0 0 0 0 0 0 0 0 0 0 0 0 0 0 0 0 0 0 0 0 0 0 0 0 0 0 0 0 0 0 0 0 0 0 0 0 0 0 0 0 0 0 0 0 0 0 0 0 0 0 0 0 0 0 0 0 0 0 51 52 51 54 54 56 56 58 56 56 55 55 54 54 54 53 52 52 53 53 52 52 53 52 53 54 54 55 56 56 57 56 56 54 53 52 50 49 50 50 50 50 50 52 50 50 51 49 49 48 48 50 48 50 51 52 51 50 50 49 49 47 48 48 46 51 50 48 52 52 53 53 55 54 54 55 56 56 57 57 59 52 55 54 54 52 52 52 51 47 50 47 48 45 48 48 47 47 45 46 47 47 47 47 46 46 47 50 49 50 48 47 49 48 48 51 53 52 55 51 52 53 53 53 53 52 54 54 57 58 57 58 58 57 57 55 53 54 57 57 62 -177 -177 -177 419 -193 75 76 77 79 73 73 -193 52 55 67 -177 82 83 87 84 84 86 85 84 83 84 85 79 86 45 47 45 46 46 46 48 47 47 47 46 49 54 59 -209 -193 -209 -193 -193 -193 115 111 114 112 113 115 116 114 117 118 121 124 126 130 128 129 130 129 127 129 125 129 123 -193 -209 -209 127 126 125 130 131 130 133 130 128 131 135 135 133 137 136 135 140 142 142 142 150 153 154 152 154 154 153 156 156 155 0 0 0 0 0
    0 0 0 0 0 0 0 0 0 0 0 0 0 0 0 0 0 0 0 0 0 0 0 0 0 0 0 0 0 0 0 0 0 0 0 0 0 0 0 0 0 0 0 0 0 0 0 0 0 0 0 0 0 0 0 0 0 0 0 0 0 0 0 0 0 0 0 0 0 54 54 54 56 57 58 59 60 58 57 57 56 56 56 56 56 54 55 55 56 54 54 55 53 54 55 56 56 57 58 58 57 57 55 54 54 52 51 52 52 53 53 53 54 52 51 52 49 50 48 48 50 49 52 53 53 53 53 52 52 51 50 50 51 49 52 52 51 53 53 54 55 56 55 55 56 57 57 58 57 60 53 56 56 56 54 54 53 52 49 51 49 49 47 49 50 50 50 48 50 51 50 51 51 50 51 50 53 52 52 51 51 52 51 52 53 55 54 56 52 53 54 53 54 54 53 55 55 58 59 59 59 59 58 58 57 55 55 58 57 63 70 -193 -193 -193 74 75 75 77 79 73 72 54 54 56 67 81 82 82 87 84 84 86 84 84 83 84 84 78 86 46 47 46 46 46 46 48 48 48 50 50 52 55 68 -209 -209 95 -209 -193 -193 114 110 114 112 112 115 115 114 116 118 121 124 125 129 128 129 130 130 127 -193 -193 -193 -209 -209 -209 -209 -209 -209 -209 -209 134 133 135 132 131 131 134 134 133 136 136 136 141 143 142 141 147 150 150 149 151 149 149 153 154 155 0 0 0 0 0
    0 0 0 0 0 0 0 0 0 0 0 0 0 0 0 0 0 0 0 0 0 0 0 0 0 0 0 0 0 0 0 0 0 0 0 0 0 0 0 0 0 0 0 0 0 0 0 0 0 0 0 0 0 0 0 0 0 0 0 0 0 0 0 0 0 0 0 0 0 57 58 58 59 60 59 62 63 60 59 59 58 58 58 59 58 56 57 56 57 56 56 57 55 56 57 57 58 59 59 59 57 58 57 56 55 54 52 54 54 55 55 55 55 53 53 53 50 51 50 50 51 50 54 55 55 55 54 54 53 53 52 52 53 52 54 54 53 54 55 56 56 58 57 57 57 59 59 58 58 61 55 57 58 57 56 55 55 54 52 53 51 51 50 51 51 51 52 50 52 53 53 53 54 54 54 53 54 54 54 54 54 55 54 54 55 57 56 57 54 54 54 54 55 55 54 55 56 58 60 60 60 60 59 59 58 57 57 59 58 63 71 71 -209 -193 74 75 75 77 78 72 71 56 55 57 67 79 81 82 87 83 84 86 85 84 83 84 84 78 87 -193 48 47 47 47 48 51 51 51 53 52 54 56 69 76 -209 93 -193 -193 107 114 110 114 111 112 114 114 113 116 117 121 124 125 129 127 129 130 130 127 -193 -193 -193 -209 -209 -209 -209 -209 -209 -209 -209 -209 -193 137 133 131 130 133 134 134 135 135 135 140 140 141 138 143 147 141 143 143 141 145 150 152 153 0 0 0 0 0
    0 0 0 0 0 0 0 0 0 0 0 0 0 0 0 0 0 0 0 0 0 0 0 0 0 0 0 0 0 0 0 0 0 0 0 0 0 0 0 0 0 0 0 0 0 0 0 0 0 0 0 0 0 0 0 0 0 0 0 0 0 0 0 0 0 0 0 0 0 60 62 62 62 64 62 63 65 61 61 61 60 60 60 61 60 58 59 58 59 58 59 61 58 58 59 59 60 60 60 60 58 59 58 58 58 57 55 56 57 57 58 57 57 55 55 55 52 53 51 51 53 52 56 57 57 56 56 55 55 55 54 54 54 54 55 55 54 55 57 57 57 59 58 58 58 60 60 59 59 62 56 58 59 59 57 57 56 55 53 54 52 52 50 51 50 53 53 52 54 55 55 56 56 57 57 55 56 55 56 56 56 57 57 57 57 58 58 58 55 55 55 56 56 56 55 56 56 59 60 60 60 59 59 60 59 59 59 61 59 65 72 72 73 74 74 75 75 77 78 69 68 56 56 57 67 79 81 83 87 83 84 85 85 84 83 84 84 77 87 -193 49 49 49 49 49 53 53 53 54 53 55 56 67 75 -209 -193 -209 109 108 116 111 114 112 112 114 114 113 116 117 120 123 124 128 127 129 130 129 127 -193 -193 -209 -209 -209 -209 -209 -209 -209 -209 -209 -209 -209 -209 -193 -209 126 134 135 135 135 136 136 140 139 140 137 142 144 139 145 143 141 144 148 150 152 0 0 0 0 0
    0 0 0 0 0 0 0 0 0 0 0 0 0 0 0 0 0 0 0 0 0 0 0 0 0 0 0 0 0 0 0 0 0 0 0 0 0 0 0 0 0 0 0 0 0 0 0 0 0 0 0 0 0 0 0 0 0 0 0 0 0 0 0 0 0 0 0 0 0 61 64 64 63 65 63 64 65 62 63 62 62 62 62 63 62 61 63 61 62 62 64 66 61 62 62 61 62 62 62 61 59 60 60 60 61 60 58 60 60 60 61 60 60 58 57 57 55 55 53 53 54 54 57 59 58 58 58 57 57 57 57 55 55 55 56 56 55 56 58 59 59 61 60 60 60 61 61 60 59 63 57 59 59 60 57 57 56 56 54 55 53 53 51 52 51 54 55 54 56 57 57 57 57 58 58 57 57 57 57 57 57 59 58 58 58 59 59 59 57 57 57 57 57 57 56 57 56 58 59 59 59 59 59 60 59 60 62 64 60 67 73 73 73 75 75 75 75 76 77 64 64 57 57 57 66 77 79 81 87 82 83 85 84 84 83 83 83 77 86 -209 51 51 52 52 51 54 55 54 54 54 55 57 66 -209 -209 -193 110 113 111 117 112 115 113 112 114 113 113 115 116 120 123 124 128 128 129 130 129 128 130 -193 -193 -209 -209 58 58 57 59 59 -209 -209 -209 -209 -193 -209 -209 124 131 131 132 133 133 -209 -193 138 137 141 142 139 146 145 141 145 150 152 153 0 0 0 0 0
    0 0 0 0 0 0 0 0 0 0 0 0 0 0 0 0 0 0 0 0 0 0 0 0 0 0 0 0 0 0 0 0 0 0 0 0 0 0 0 0 0 0 0 0 0 0 0 0 0 0 0 0 0 0 0 0 0 0 0 0 0 0 0 0 0 0 0 0 0 62 65 65 64 65 64 64 65 62 64 62 62 62 62 64 64 62 65 63 66 65 67 67 62 64 64 63 63 63 63 61 60 61 61 61 62 62 62 63 64 63 63 63 63 63 61 60 59 59 59 57 58 57 60 61 60 60 60 59 59 59 59 57 57 58 58 57 57 58 60 61 60 61 61 61 61 61 62 61 60 63 58 59 60 60 58 58 57 57 56 56 55 55 53 55 54 56 57 57 58 59 59 59 59 60 59 59 58 59 59 58 58 60 59 59 59 60 60 59 59 58 58 58 59 58 57 58 57 58 59 59 59 58 59 60 59 62 65 66 63 68 75 74 74 75 75 75 75 76 77 66 66 57 58 58 67 77 77 79 87 81 82 84 83 83 82 82 82 76 85 83 54 54 54 54 53 55 56 54 55 55 56 59 66 -193 -209 -209 -209 117 -193 -193 -193 116 114 113 114 112 113 115 115 120 123 124 127 127 129 129 129 128 130 126 129 -209 -209 59 58 57 59 59 59 58 -193 -209 -209 -209 -209 -209 -209 -209 124 128 127 -209 -209 -193 134 138 140 140 145 143 140 144 149 151 153 0 0 0 0 0
    0 0 0 0 0 0 0 0 0 0 0 0 0 0 0 0 0 0 0 0 0 0 0 0 0 0 0 0 0 0 0 0 0 0 0 0 0 0 0 0 0 0 0 0 0 0 0 0 0 0 0 0 0 0 0 0 0 0 0 0 0 0 0 0 0 0 0 0 0 63 67 67 66 67 65 65 66 63 65 63 62 63 63 65 64 63 65 63 67 66 68 68 64 65 65 64 64 63 63 62 60 62 62 61 63 63 63 66 66 64 65 64 65 66 66 65 63 65 68 70 71 65 66 65 62 63 62 61 61 60 61 59 59 60 59 59 60 60 61 63 62 63 62 62 62 62 63 62 61 63 59 60 60 61 59 60 58 58 58 59 58 58 57 59 57 60 60 61 61 61 61 61 61 62 60 60 60 60 61 59 59 61 60 60 61 61 61 60 60 60 59 60 61 60 59 59 58 59 59 59 59 59 60 61 60 64 66 67 64 68 75 74 74 75 75 75 75 76 77 68 68 59 60 60 68 77 76 78 86 80 81 83 83 83 81 82 82 75 84 80 62 58 56 56 54 55 56 55 55 57 58 60 65 69 71 -209 -209 -193 -209 -209 -193 -193 115 113 113 111 112 114 113 119 123 123 126 127 128 129 129 128 130 125 129 -209 -209 61 59 59 61 60 60 59 62 -193 -209 -209 -209 -209 -209 -209 -209 -209 -209 -209 -209 127 128 126 132 134 138 137 138 143 149 150 153 0 0 0 0 0
    0 0 0 0 0 0 0 0 0 0 0 0 0 0 0 0 0 0 0 0 0 0 0 0 0 0 0 0 0 0 0 0 0 0 0 0 0 0 0 0 0 0 0 0 0 0 0 0 0 0 0 0 0 0 0 0 0 0 0 0 0 0 0 0 0 0 0 0 0 67 69 69 68 69 67 67 68 65 66 64 63 63 63 66 65 63 65 63 67 66 68 68 64 65 66 65 65 64 64 62 61 64 64 63 64 64 64 66 66 65 65 65 65 67 67 67 65 68 70 73 73 69 69 67 64 65 65 63 62 61 62 60 61 61 60 60 62 62 63 65 63 64 64 64 64 63 63 63 61 63 59 61 61 62 61 62 61 61 61 61 61 61 60 62 59 63 62 63 62 63 63 63 62 63 61 61 61 61 61 60 59 62 61 62 62 62 63 62 63 63 62 63 63 63 61 61 60 61 61 60 61 60 62 64 63 68 69 70 67 70 78 75 75 75 75 75 75 76 77 71 70 61 61 59 68 78 76 78 86 80 81 83 83 83 81 82 82 75 83 79 71 68 63 62 56 58 58 57 56 58 59 60 63 69 73 -209 -209 -193 -193 -193 -193 -193 114 113 112 111 113 114 112 119 123 -193 126 127 128 128 128 128 130 125 129 -209 -209 64 61 62 63 62 62 60 61 61 -193 67 70 68 -193 70 70 -193 -209 -209 -209 -209 -209 116 121 124 130 131 134 139 146 150 153 0 0 0 0 0
    0 0 0 0 0 0 0 0 0 0 0 0 0 0 0 0 0 0 0 0 0 0 0 0 0 0 0 0 0 0 0 0 0 0 0 0 0 0 0 0 0 0 0 0 0 0 0 0 0 0 0 0 0 0 0 0 0 0 0 0 0 0 0 0 0 0 0 0 0 69 71 71 69 70 69 69 70 68 68 66 65 66 66 67 67 64 66 64 69 68 69 69 65 66 67 66 67 64 66 -193 63 -193 -193 65 65 66 67 68 67 66 66 66 67 68 68 68 67 70 72 74 76 73 71 -193 66 67 66 63 62 61 63 61 61 61 60 60 63 63 65 66 64 65 66 66 66 65 64 63 62 64 61 62 63 65 64 66 64 63 64 64 64 64 62 64 60 65 62 64 63 64 64 64 63 64 62 62 62 61 62 61 60 64 62 64 64 64 66 64 66 67 65 66 66 66 64 62 62 62 62 62 63 62 64 68 69 72 73 75 71 72 81 76 77 76 75 75 75 76 77 72 72 65 64 60 70 -177 81 83 88 81 82 84 83 83 82 82 83 76 84 80 74 73 73 73 69 66 63 59 58 59 59 60 64 69 74 -209 -209 112 -193 -193 -193 -193 115 113 112 111 113 115 112 119 124 -193 -193 128 128 128 128 129 130 125 130 -209 63 66 64 65 65 63 63 61 61 60 61 63 67 65 67 68 67 68 -193 -209 -209 -193 -209 -209 -209 116 119 122 129 136 137 138 151 0 0 0 0 0
    0 0 0 0 0 0 0 0 0 0 0 0 0 0 0 0 0 0 0 0 0 0 0 0 0 0 0 0 0 0 0 0 0 0 0 0 0 0 0 0 0 0 0 0 0 0 0 0 0 0 0 0 0 0 0 0 0 0 0 0 0 0 0 0 0 0 0 0 0 72 74 75 71 72 72 71 71 71 70 68 67 69 67 69 69 67 67 67 71 -193 70 70 67 68 68 68 -209 -209 -193 -193 -193 -209 -193 -209 69 69 70 70 69 69 68 68 69 71 71 71 -193 -193 74 78 82 83 -209 -209 -209 70 70 66 63 63 64 63 62 63 62 61 65 66 67 68 67 67 69 68 68 67 67 66 65 67 63 63 63 66 65 67 65 65 65 66 66 66 65 67 62 68 66 67 66 66 66 66 64 65 63 64 63 63 64 63 62 66 64 65 64 66 66 65 67 67 65 67 67 67 65 63 64 63 63 64 66 66 69 72 74 80 81 86 83 77 84 79 78 77 76 76 75 76 77 73 74 72 71 -209 -193 90 85 85 88 82 83 84 84 84 83 83 83 77 85 82 76 76 76 76 76 72 69 63 62 62 61 61 64 69 74 -209 -209 113 115 119 -193 115 115 114 113 112 115 116 113 120 -193 -193 -193 129 128 128 128 129 130 125 131 -193 65 67 66 68 68 66 65 63 63 62 63 64 66 64 65 66 65 67 68 -193 70 -193 -209 -209 -209 -209 113 120 123 129 127 131 139 0 0 0 0 0
    0 0 0 0 0 0 0 0 0 0 0 0 0 0 0 0 0 0 0 0 0 0 0 0 0 0 0 0 0 0 0 0 0 0 0 0 0 0 0 0 0 0 0 0 0 0 0 0 0 0 0 0 0 0 0 0 0 0 0 0 0 0 0 0 0 0 0 0 0 76 78 79 72 75 75 74 75 76 76 -209 -193 76 -193 -193 -209 -209 69 71 77 90 -193 -209 -193 -193 -193 -209 -209 -177 -177 -193 -209 -193 91 -193 -209 -209 74 72 72 71 71 71 73 74 74 74 76 78 81 84 87 89 90 -193 -209 -209 80 -209 67 68 67 67 65 67 66 65 69 69 70 70 69 70 71 71 71 70 69 69 69 71 68 64 64 67 66 69 67 67 67 68 69 69 69 70 67 71 70 -193 69 69 68 68 67 68 65 66 64 65 65 64 62 67 64 66 65 66 67 66 68 68 67 68 68 69 67 65 66 65 64 65 68 68 72 75 79 87 87 89 88 84 86 81 80 78 76 76 75 76 77 73 76 81 87 91 92 92 87 87 88 84 83 84 84 84 83 84 84 77 86 82 76 77 78 77 80 77 73 70 70 68 65 66 68 71 78 -209 -177 113 115 119 114 115 116 114 113 113 115 116 112 120 -193 -193 125 129 128 128 127 129 130 125 131 -193 68 68 69 71 71 69 69 68 67 68 68 66 67 66 68 67 67 68 69 70 71 71 74 -209 -209 -209 -209 -209 121 125 -209 125 -193 0 0 0 0 0
    0 0 0 0 0 0 0 0 0 0 0 0 0 0 0 0 0 0 0 0 0 0 0 0 0 0 0 0 0 0 0 0 0 0 0 0 0 0 0 0 0 0 0 0 0 0 0 0 0 0 0 0 0 0 0 0 0 0 0 0 0 0 0 0 0 0 0 0 0 78 80 81 74 76 78 78 78 83 89 -209 -209 89 90 89 89 91 -193 79 85 91 -193 -193 -193 -193 -193 -209 -193 -193 -193 92 91 91 92 91 90 88 85 76 74 73 73 73 75 77 77 78 82 84 86 87 90 90 92 92 92 90 90 89 -209 75 71 -193 68 70 70 -193 72 72 74 -209 71 72 74 -209 73 73 72 72 75 -193 -209 -193 68 68 69 71 69 69 69 70 71 72 72 73 70 75 -193 -193 579 -209 -193 71 70 71 68 69 67 68 66 66 64 69 65 67 66 67 68 68 69 70 69 70 70 71 70 68 68 69 68 68 71 71 74 79 84 90 89 90 90 88 88 84 83 81 77 77 77 78 79 74 80 87 90 93 93 93 89 89 89 85 84 85 84 84 83 84 84 78 86 83 78 80 83 82 85 85 -193 80 83 87 78 -193 -193 81 88 101 116 110 114 119 114 115 116 114 114 113 116 117 112 120 128 -193 126 130 128 128 127 130 130 125 132 -193 70 70 72 74 74 73 73 72 71 72 72 70 69 68 70 69 69 70 70 72 72 72 73 74 80 86 -209 -209 118 -209 -209 -209 -209 0 0 0 0 0
    0 0 0 0 0 0 0 0 0 0 0 0 0 0 0 0 0 0 0 0 0 0 0 0 0 0 0 0 0 0 0 0 0 0 0 0 0 0 0 0 0 0 0 0 0 0 0 0 0 0 0 0 0 0 0 0 0 0 0 0 0 0 0 0 0 0 0 0 0 83 83 84 79 81 85 85 86 88 91 92 90 90 91 91 91 92 91 89 89 92 -193 91 92 92 92 91 94 -193 91 92 92 92 92 91 91 89 89 84 80 76 75 76 77 81 81 81 84 86 87 88 91 91 93 93 93 92 91 91 91 89 -209 -193 -209 72 -209 -209 -209 88 87 -193 79 78 81 -193 81 82 83 81 86 -193 -193 91 -193 -209 -193 -209 -209 70 -193 -193 -193 74 74 78 -209 78 -193 -193 580 -209 -193 -209 -209 -209 -209 -209 70 70 68 68 67 71 66 68 67 68 69 70 71 71 71 72 72 73 73 74 72 72 74 71 75 74 77 82 86 91 90 90 91 89 89 87 86 84 80 79 79 79 80 75 83 89 90 93 93 93 90 90 90 86 85 86 85 85 84 85 85 79 86 85 82 84 86 86 87 -193 -193 87 89 89 89 89 91 90 91 101 112 109 113 118 114 115 116 115 115 114 117 118 114 121 129 -193 126 130 128 128 128 130 130 125 -193 -193 71 71 73 76 76 76 75 74 73 75 75 74 71 71 72 70 70 70 70 72 72 72 72 75 79 84 87 100 111 -209 -209 -209 171 0 0 0 0 0
    0 0 0 0 0 0 0 0 0 0 0 0 0 0 0 0 0 0 0 0 0 0 0 0 0 0 0 0 0 0 0 0 0 0 0 0 0 0 0 0 0 0 0 0 0 0 0 0 0 0 0 0 0 0 0 0 0 0 0 0 0 0 0 0 0 0 0 0 0 86 85 86 -209 86 89 89 89 90 92 93 92 91 92 91 92 93 92 90 90 92 91 92 92 92 92 92 94 93 92 93 92 92 92 92 92 90 90 88 87 83 80 80 80 84 83 83 86 -193 88 88 93 92 94 93 94 92 92 92 92 89 90 -177 -209 -209 -209 -209 90 89 90 -193 -193 86 86 89 87 87 88 87 89 90 -193 92 -193 -193 -209 -209 -209 -209 -209 -209 -193 80 79 84 -209 82 -193 -193 -193 90 -193 -193 -209 -193 -209 -193 -209 72 70 70 70 74 70 70 68 70 71 72 72 72 73 74 75 77 79 81 80 84 84 76 81 80 82 85 87 92 91 91 92 91 91 89 89 88 83 83 82 82 82 78 86 90 91 93 93 93 91 91 91 88 86 87 86 86 86 86 86 81 88 87 85 87 88 88 89 90 90 89 90 90 90 90 91 91 91 100 109 108 112 118 114 115 117 116 115 115 118 119 116 121 129 124 126 129 128 128 127 130 130 124 -193 74 72 72 75 80 79 78 77 76 75 77 77 78 73 74 77 73 72 70 70 71 71 72 72 75 79 84 86 -193 -209 -209 -209 -177 171 0 0 0 0 0
    0 0 0 0 0 0 0 0 0 0 0 0 0 0 0 0 0 0 0 0 0 0 0 0 0 0 0 0 0 0 0 0 0 0 0 0 0 0 0 0 0 0 0 0 0 0 0 0 0 0 0 0 0 0 0 0 0 0 0 0 0 0 0 0 0 0 0 0 0 88 87 87 -209 89 91 91 91 91 93 94 93 92 92 91 92 93 92 90 90 92 92 93 92 92 93 92 95 93 92 93 92 92 92 92 92 90 90 90 89 87 85 85 83 86 86 86 87 -209 90 90 95 93 95 94 94 93 93 93 93 90 92 -193 -193 90 91 92 92 91 92 92 90 89 88 91 89 89 90 89 90 90 91 92 89 91 -209 -193 -209 -209 -209 -209 -193 86 85 87 82 85 87 -193 -193 91 -193 90 -193 -193 -193 -193 -193 78 -209 74 78 82 77 75 71 71 71 73 74 74 75 75 77 80 84 85 87 88 88 83 84 84 84 86 88 94 91 92 93 93 93 91 90 90 86 86 86 85 85 82 88 91 92 93 93 93 92 92 92 90 89 89 88 88 88 88 87 84 89 89 87 88 89 89 90 90 91 90 90 91 91 91 92 92 93 100 107 107 111 118 114 115 117 116 116 116 119 120 117 121 129 124 126 129 128 128 127 129 129 124 -193 79 76 77 80 84 84 83 79 79 77 79 80 85 85 83 -193 -193 83 77 -193 72 73 73 75 78 81 84 86 88 92 -193 -193 -193 -177 0 0 0 0 0
    0 0 0 0 0 0 0 0 0 0 0 0 0 0 0 0 0 0 0 0 0 0 0 0 0 0 0 0 0 0 0 0 0 0 0 0 0 0 0 0 0 0 0 0 0 0 0 0 0 0 0 0 0 0 0 0 0 0 0 0 0 0 0 0 0 0 0 0 0 90 88 88 91 91 94 93 93 93 95 94 94 93 93 91 92 93 92 91 91 92 93 94 93 93 94 92 95 94 92 93 92 92 92 92 92 90 91 91 90 89 87 87 86 88 88 -193 -193 -193 91 92 98 94 96 95 95 94 93 94 94 91 93 -193 -193 91 93 94 94 93 94 93 91 90 90 93 90 90 91 91 91 92 92 93 90 92 92 92 -193 -209 -209 -209 87 88 88 88 87 87 89 -193 -193 91 -193 91 91 91 91 90 91 86 85 83 -193 86 84 84 79 75 74 79 79 79 82 83 -193 86 -193 88 89 89 89 87 86 87 86 88 88 95 92 92 93 94 94 93 92 92 89 89 89 89 88 88 90 93 92 94 93 93 93 93 93 91 90 91 90 90 90 90 89 87 90 90 89 90 91 90 91 91 91 90 91 92 92 92 93 94 95 100 106 106 110 118 114 116 117 116 116 116 120 -193 117 121 129 124 125 128 127 128 126 128 128 123 -193 83 80 86 87 87 87 86 85 86 83 84 85 89 90 89 90 90 88 89 89 84 76 76 79 82 83 85 85 87 89 91 94 -193 -193 0 0 0 0 0
    0 0 0 0 0 0 0 0 0 0 0 0 0 0 0 0 0 0 0 0 0 0 0 0 0 0 0 0 0 0 0 0 0 0 0 0 0 0 0 0 0 0 0 0 0 0 0 0 0 0 0 0 0 0 0 0 0 0 0 0 0 0 0 0 0 0 0 0 0 91 90 89 92 92 95 94 94 94 96 95 94 93 93 92 92 93 92 91 91 93 94 95 94 95 95 93 96 94 93 93 93 93 92 92 93 91 92 93 91 91 89 89 88 89 89 88 89 93 92 93 99 94 96 95 96 95 94 95 94 92 95 92 94 92 95 96 96 94 95 94 93 92 92 95 92 92 93 92 93 93 94 94 91 94 95 94 95 90 92 91 89 90 90 89 89 89 91 90 92 92 92 92 92 92 92 91 92 90 91 89 89 88 87 87 86 82 76 83 83 84 -193 -209 -209 -209 -193 90 90 90 91 89 88 89 88 89 89 97 92 93 94 96 95 95 94 95 91 93 94 94 91 92 94 96 94 95 94 93 93 94 93 93 91 92 92 92 92 92 90 90 91 92 91 92 94 92 92 93 92 92 93 93 93 93 94 96 97 101 107 106 110 117 115 116 118 117 117 117 120 121 118 121 128 124 125 128 127 127 126 128 128 122 -193 85 85 89 90 90 89 89 89 90 89 89 90 92 92 91 92 90 89 89 90 89 81 79 81 84 85 87 86 86 88 90 93 96 97 0 0 0 0 0
    0 0 0 0 0 0 0 0 0 0 0 0 0 0 0 0 0 0 0 0 0 0 0 0 0 0 0 0 0 0 0 0 0 0 0 0 0 0 0 0 0 0 0 0 0 0 0 0 0 0 0 0 0 0 0 0 0 0 0 0 0 0 0 0 0 0 0 0 0 94 92 92 95 94 97 96 96 95 97 95 95 93 93 91 92 92 93 91 91 95 94 96 97 97 98 94 97 95 94 95 94 93 94 93 95 93 95 98 94 95 92 90 89 90 90 88 90 94 93 94 100 96 98 96 97 96 95 95 95 93 95 93 96 93 96 96 96 95 96 95 93 92 93 96 93 92 93 92 94 94 94 95 91 94 96 96 97 92 93 93 91 92 91 91 90 90 92 90 93 92 92 92 93 92 92 91 93 91 93 91 91 90 89 89 90 88 83 86 87 87 89 -209 -193 -193 -193 91 91 91 92 90 89 89 89 90 90 97 93 93 94 97 96 96 95 96 92 96 96 96 94 96 97 98 95 97 94 93 94 95 93 93 92 92 93 93 93 93 91 92 93 94 94 95 97 94 94 94 94 93 95 95 94 94 96 97 99 101 106 106 110 117 115 117 118 117 117 117 120 122 119 121 127 124 125 127 126 127 125 127 126 121 -193 87 88 91 93 92 92 92 93 93 94 94 93 95 95 94 93 92 91 90 91 90 86 83 84 87 87 89 88 88 89 90 93 96 97 0 0 0 0 0
    0 0 0 0 0 0 0 0 0 0 0 0 0 0 0 0 0 0 0 0 0 0 0 0 0 0 0 0 0 0 0 0 0 0 0 0 0 0 0 0 0 0 0 0 0 0 0 0 0 0 0 0 0 0 0 0 0 0 0 0 0 0 0 0 0 0 0 0 0 99 99 99 100 98 100 98 98 97 98 96 95 93 92 89 90 89 91 90 90 96 -193 99 100 99 100 96 98 96 95 97 95 95 96 95 97 97 100 102 100 100 99 94 94 94 91 90 93 95 95 97 101 98 99 97 98 97 96 96 96 93 96 93 96 93 96 96 96 95 96 95 93 92 93 96 93 93 94 93 95 95 95 96 92 97 99 99 99 94 96 96 93 94 92 92 91 90 94 91 93 92 93 93 93 93 93 92 93 92 94 91 92 91 89 89 91 90 87 88 88 89 90 91 -193 -193 91 92 92 92 94 91 91 91 90 91 90 98 93 93 94 97 96 96 96 97 93 96 97 97 95 96 98 99 96 98 96 94 94 96 94 94 93 94 94 95 96 95 93 97 99 98 98 99 100 95 95 96 96 94 97 96 95 95 96 98 99 101 106 106 110 117 116 117 118 117 118 117 121 122 118 121 126 124 125 126 126 126 124 126 125 121 -193 87 88 91 95 94 94 94 96 96 98 99 97 98 98 96 95 93 92 92 92 92 88 87 87 90 89 91 91 90 91 92 94 96 97 0 0 0 0 0
    0 0 0 0 0 0 0 0 0 0 0 0 0 0 0 0 0 0 0 0 0 0 0 0 0 0 0 0 0 0 0 0 0 0 0 0 0 0 0 0 0 0 0 0 0 0 0 0 0 0 0 0 0 0 0 0 0 0 0 0 0 0 0 0 0 0 0 0 0 101 102 -193 102 100 101 99 99 98 98 97 95 94 93 89 89 88 90 91 91 -209 -209 102 -193 102 102 99 100 98 97 99 97 97 98 98 100 100 102 103 102 102 102 100 100 101 96 95 99 98 99 101 103 100 100 99 99 98 97 97 96 93 96 93 96 94 96 96 97 96 97 95 94 93 94 98 94 95 96 95 97 97 97 97 93 100 100 100 100 95 98 98 95 96 92 92 92 90 95 92 95 93 95 94 95 94 95 93 95 93 96 92 94 92 91 90 92 92 88 89 90 90 91 91 91 92 91 93 93 93 96 92 93 92 91 93 91 99 93 93 94 98 97 96 96 98 93 98 99 99 96 98 100 100 98 100 98 95 96 97 94 95 94 95 95 97 98 97 95 100 101 100 101 101 101 97 97 98 97 96 98 98 96 95 97 98 100 102 106 106 111 118 117 118 118 118 118 118 121 123 119 121 126 124 125 125 125 125 124 -193 125 117 -193 88 89 91 95 93 95 95 98 97 99 100 99 100 99 99 96 94 94 94 94 93 90 90 89 93 92 94 93 92 94 95 96 97 97 0 0 0 0 0
    0 0 0 0 0 0 0 0 0 0 0 0 0 0 0 0 0 0 0 0 0 0 0 0 0 0 0 0 0 0 0 0 0 0 0 0 0 0 0 0 0 0 0 0 0 0 0 0 0 0 0 0 0 0 0 0 0 0 0 0 0 0 0 0 0 0 0 0 0 102 104 104 103 102 102 101 100 100 99 98 96 96 95 91 92 89 91 94 95 -193 -193 104 -193 104 103 102 102 100 99 101 99 99 100 100 101 101 103 104 103 104 104 101 102 104 101 103 103 101 102 104 104 102 101 100 100 99 99 98 96 94 95 93 95 94 96 96 97 97 98 97 95 95 97 99 96 97 98 97 99 99 98 99 95 101 101 101 100 96 99 99 97 98 93 93 92 91 97 94 96 95 97 96 97 96 97 95 98 97 100 96 101 97 95 94 97 94 89 89 91 90 91 91 91 92 92 93 95 94 97 94 97 96 95 97 94 99 94 94 95 98 97 96 97 98 94 99 99 99 97 99 101 101 99 102 100 98 98 100 95 96 96 96 96 98 99 98 96 101 101 100 101 101 101 98 99 100 99 99 101 100 99 98 99 99 100 102 108 106 112 118 118 119 119 119 119 119 122 124 120 121 126 124 125 125 124 125 123 -193 124 115 114 90 92 93 97 95 97 97 100 100 101 102 101 102 101 101 99 98 98 98 97 94 91 91 90 95 93 96 95 94 96 98 98 99 100 0 0 0 0 0
    0 0 0 0 0 0 0 0 0 0 0 0 0 0 0 0 0 0 0 0 0 0 0 0 0 0 0 0 0 0 0 0 0 0 0 0 0 0 0 0 0 0 0 0 0 0 0 0 0 0 0 0 0 0 0 0 0 0 0 0 0 0 0 0 0 0 0 0 0 103 105 105 105 104 104 103 102 102 100 99 98 99 100 95 95 89 91 97 98 -193 -193 104 107 104 104 103 103 102 101 102 101 101 102 102 102 103 104 105 104 105 105 103 103 104 103 105 105 103 103 105 105 104 103 102 101 100 100 99 97 94 94 93 95 94 96 96 98 98 99 98 96 97 99 101 98 99 100 99 101 100 100 101 98 102 101 101 101 98 100 100 99 100 93 95 93 92 98 95 98 96 98 98 99 98 99 98 100 100 102 100 103 101 101 100 101 98 91 90 93 91 92 92 92 93 92 95 98 96 99 98 100 100 99 100 97 100 96 95 96 99 97 96 97 98 94 99 100 99 97 100 101 101 101 102 101 102 102 102 98 99 99 98 98 100 100 100 98 102 102 102 103 103 103 101 102 102 102 102 103 102 100 99 99 100 101 103 109 107 113 118 118 119 119 119 119 119 122 124 120 121 125 124 125 124 124 124 123 123 123 116 115 99 99 96 99 98 99 100 102 102 102 103 102 102 102 101 100 99 99 100 99 95 92 92 91 97 95 98 98 97 100 101 101 101 102 0 0 0 0 0
    0 0 0 0 0 0 0 0 0 0 0 0 0 0 0 0 0 0 0 0 0 0 0 0 0 0 0 0 0 0 0 0 0 0 0 0 0 0 0 0 0 0 0 0 0 0 0 0 0 0 0 0 0 0 0 0 0 0 0 0 0 0 0 0 0 0 0 0 0 104 105 105 105 105 105 105 103 103 101 101 101 102 103 102 102 94 98 102 101 105 103 104 107 104 105 104 104 103 103 103 103 102 104 103 104 104 105 105 105 106 105 104 104 105 105 106 107 104 104 107 106 105 104 103 103 102 102 101 98 95 95 94 95 95 98 98 100 101 102 101 99 100 102 102 100 101 101 101 103 102 102 102 101 104 103 103 102 100 101 102 100 101 94 96 93 93 98 97 99 97 100 99 100 100 100 100 102 102 103 102 104 103 103 -193 102 101 95 93 97 93 94 93 94 95 94 97 101 99 102 102 103 102 101 102 100 100 97 96 97 99 97 97 97 98 94 100 100 100 98 101 101 101 102 103 102 104 104 104 101 102 102 100 100 102 101 101 100 103 104 103 104 105 105 104 105 105 104 105 106 104 102 100 101 101 102 103 110 107 113 119 118 119 118 119 119 119 121 123 120 120 124 124 125 124 124 124 122 123 123 116 115 105 103 100 100 100 101 102 102 102 102 102 102 102 102 102 100 99 99 100 99 94 93 92 91 96 96 99 99 99 102 102 102 102 103 0 0 0 0 0
    0 0 0 0 0 0 0 0 0 0 0 0 0 0 0 0 0 0 0 0 0 0 0 0 0 0 0 0 0 0 0 0 0 0 0 0 0 0 0 0 0 0 0 0 0 0 0 0 0 0 0 0 0 0 0 0 0 0 0 0 0 0 0 0 0 0 0 0 0 105 106 106 106 106 106 105 104 -193 102 102 103 104 104 104 105 102 102 104 103 105 105 105 108 105 105 106 105 105 104 105 104 104 105 105 105 106 106 106 106 107 106 105 105 107 106 107 108 105 105 109 107 107 105 104 104 104 104 104 99 98 95 95 97 97 100 101 103 104 104 -193 103 -193 -193 -193 103 103 103 103 104 103 103 103 102 104 103 103 103 101 103 103 102 102 96 99 96 96 100 100 100 99 101 100 101 101 102 102 103 102 104 102 104 103 103 -193 102 101 99 96 100 95 96 95 96 98 96 99 103 101 103 103 104 103 103 103 101 101 98 97 97 99 97 97 96 98 94 100 100 100 99 101 101 102 103 103 102 105 106 106 104 105 -193 102 102 103 102 102 102 105 105 104 105 106 106 106 106 107 106 107 107 105 104 102 103 102 103 104 112 108 114 119 119 119 118 119 119 118 121 123 120 120 124 124 125 124 124 124 122 122 122 116 115 106 105 101 101 101 101 102 102 102 102 101 102 102 101 101 99 99 98 99 99 94 93 93 91 97 97 100 101 100 103 104 103 104 105 0 0 0 0 0
    0 0 0 0 0 0 0 0 0 0 0 0 0 0 0 0 0 0 0 0 0 0 0 0 0 0 0 0 0 0 0 0 0 0 0 0 0 0 0 0 0 0 0 0 0 0 0 0 0 0 0 0 0 0 0 0 0 0 0 0 0 0 0 0 0 0 0 0 0 106 107 107 107 106 107 106 105 105 102 103 104 105 105 105 107 105 103 106 105 107 108 107 112 107 107 107 106 106 106 106 105 105 106 106 105 106 106 106 106 107 106 105 106 107 106 107 107 105 105 109 107 107 106 105 105 105 106 106 101 101 97 99 100 101 104 -209 -193 -193 106 -193 -209 -193 106 106 105 105 104 104 105 104 104 104 103 105 -193 104 103 102 103 103 103 103 98 100 99 100 102 102 -193 101 102 102 102 103 103 103 -209 103 104 103 105 104 103 104 103 102 101 99 101 98 97 97 98 100 98 101 -209 -193 -209 104 104 104 103 103 102 101 99 97 98 99 98 97 97 98 94 101 100 100 99 101 101 102 103 104 103 106 107 107 106 106 106 104 103 105 103 103 103 105 105 105 105 107 107 107 108 109 108 108 108 107 106 104 105 104 104 106 114 109 115 119 119 119 118 118 118 118 121 122 120 120 123 124 125 123 123 -193 122 122 122 115 114 106 106 101 102 103 103 103 103 103 103 102 102 102 102 102 100 100 99 101 101 95 94 97 94 101 103 103 103 102 104 105 105 104 105 0 0 0 0 0</data></disparity>
</opencv_storage>
