<?xml version="1.0"?>
<opencv_storage>
<gps_time_stamp>37940</gps_time_stamp>
<gps_x>-1.3510633468627930e+001</gps_x>
<gps_y>1.4306387901306152e+000</gps_y>
<gps_z>-3.8965735435485840e+000</gps_z>
<image_time_stamp>25866</image_time_stamp>
<disparity type_id="opencv-matrix">
  <rows>92</rows>
  <cols>320</cols>
  <dt>s</dt>
  <data>
    0 0 0 0 0 0 0 0 0 0 0 0 0 0 0 0 0 0 0 0 0 0 0 0 0 0 0 0 0 0 0 0 0 0 0 0 0 0 0 0 0 0 0 0 0 0 0 0 0 0 0 0 0 0 0 0 0 0 0 0 0 0 0 0 0 0 0 0 0 10 9 10 11 9 9 9 10 9 9 9 0 0 0 0 0 0 0 0 0 0 0 0 0 0 10 10 10 9 10 11 11 11 11 9 10 9 11 9 10 9 9 9 9 9 0 0 0 0 0 0 0 11 10 11 9 9 9 0 9 9 0 0 0 9 15 18 17 14 13 11 11 11 10 11 10 10 11 11 13 15 12 13 0 0 0 0 0 0 0 0 0 0 11 9 10 10 10 10 10 10 10 -193 12 -193 -193 -193 12 18 13 19 14 13 12 -193 12 12 11 11 0 9 10 12 12 12 11 11 10 11 11 10 9 0 10 0 9 10 15 11 11 10 12 11 14 13 12 11 15 13 14 12 13 12 13 13 15 13 15 14 15 15 17 16 19 15 17 17 16 16 16 16 17 14 17 15 12 17 20 20 21 18 18 18 22 20 20 20 20 21 22 22 22 15 21 22 22 21 13 20 20 23 21 21 21 23 22 23 23 23 24 25 26 26 26 28 28 30 28 28 28 28 30 29 29 32 29 31 32 32 32 32 33 32 31 34 33 33 31 31 32 30 33 31 32 32 32 0 0 0 0 0
    0 0 0 0 0 0 0 0 0 0 0 0 0 0 0 0 0 0 0 0 0 0 0 0 0 0 0 0 0 0 0 0 0 0 0 0 0 0 0 0 0 0 0 0 0 0 0 0 0 0 0 0 0 0 0 0 0 0 0 0 0 0 0 0 0 0 0 0 0 10 0 10 11 9 0 0 9 0 0 0 0 0 0 0 0 0 0 0 0 0 0 0 0 0 10 10 10 9 10 11 11 11 12 10 11 10 12 9 10 9 9 9 9 9 9 0 0 0 0 0 0 11 10 11 9 9 9 0 9 9 0 0 0 0 10 16 13 12 12 11 10 10 10 10 10 10 10 10 11 13 10 12 0 -193 0 -193 -193 -193 -193 -209 0 9 11 9 10 10 10 10 9 10 9 9 11 11 -193 -193 14 -193 14 20 15 14 13 -193 -193 12 11 11 0 9 10 11 12 12 12 12 11 11 11 10 0 0 9 0 0 10 14 10 10 10 11 10 13 12 12 10 14 13 13 12 13 11 12 12 14 13 14 14 15 15 17 17 19 15 17 17 16 16 16 16 16 14 17 15 12 20 22 21 20 17 17 16 21 19 18 18 19 20 21 21 21 14 21 22 22 21 13 20 20 23 21 21 21 23 22 22 22 23 22 25 26 26 26 28 28 29 28 27 27 28 29 28 29 31 29 31 32 32 32 31 33 32 31 34 33 33 31 31 32 29 33 31 31 31 31 0 0 0 0 0
    0 0 0 0 0 0 0 0 0 0 0 0 0 0 0 0 0 0 0 0 0 0 0 0 0 0 0 0 0 0 0 0 0 0 0 0 0 0 0 0 0 0 0 0 0 0 0 0 0 0 0 0 0 0 0 0 0 0 0 0 0 0 0 0 0 0 0 0 0 9 0 9 10 9 0 0 0 0 0 0 0 0 0 0 0 0 0 0 0 0 0 0 0 0 10 10 10 9 11 11 11 11 12 10 11 10 12 9 10 9 9 9 10 9 9 0 9 9 10 9 0 12 11 11 10 9 9 0 9 9 0 0 0 0 0 10 11 10 10 10 9 10 9 10 9 9 9 9 10 12 10 12 10 0 0 -193 -193 -193 -193 -209 0 9 10 9 9 10 9 9 9 9 9 9 11 12 12 12 15 22 14 20 15 14 13 -193 -193 12 11 11 0 0 9 11 12 11 12 11 11 11 10 10 0 0 9 0 9 10 13 10 9 9 9 9 12 11 11 10 13 12 11 11 12 10 11 11 13 13 13 14 15 15 17 18 19 15 17 18 16 15 15 16 15 14 16 15 11 21 21 20 20 15 16 15 21 18 17 17 18 19 21 21 21 13 22 23 23 22 14 21 21 24 21 21 20 22 21 22 21 22 20 24 25 25 25 28 28 28 28 27 28 28 30 28 29 31 29 31 32 31 32 31 33 32 31 34 33 33 31 30 31 29 33 31 31 31 31 0 0 0 0 0
    0 0 0 0 0 0 0 0 0 0 0 0 0 0 0 0 0 0 0 0 0 0 0 0 0 0 0 0 0 0 0 0 0 0 0 0 0 0 0 0 0 0 0 0 0 0 0 0 0 0 0 0 0 0 0 0 0 0 0 0 0 0 0 0 0 0 0 0 0 0 0 9 9 0 0 0 0 0 0 0 0 0 0 0 0 0 0 0 0 0 0 0 0 0 10 9 9 9 10 11 11 11 12 10 10 9 11 9 9 9 9 9 10 10 10 0 10 10 11 9 9 12 11 12 10 9 9 0 9 9 0 0 0 0 0 0 9 9 9 9 9 9 9 9 9 9 9 9 10 12 10 12 11 0 0 -193 -193 -193 -209 -209 9 10 10 9 9 9 -193 9 9 9 9 9 11 13 12 11 16 22 14 20 15 14 13 -193 -193 12 11 11 0 0 9 10 11 11 11 11 11 11 10 10 0 0 9 0 9 10 11 9 9 9 0 0 11 10 10 10 13 12 11 11 12 10 10 11 13 12 13 14 14 13 16 17 18 14 16 17 15 15 15 15 14 13 16 14 11 21 21 20 20 15 15 15 20 17 17 16 17 19 20 20 20 12 23 23 24 23 17 22 23 24 20 20 19 22 21 21 20 20 18 24 24 25 -193 28 28 28 28 28 29 29 31 29 29 31 30 31 31 31 32 30 34 32 31 34 33 33 32 31 31 29 32 30 30 30 30 0 0 0 0 0
    0 0 0 0 0 0 0 0 0 0 0 0 0 0 0 0 0 0 0 0 0 0 0 0 0 0 0 0 0 0 0 0 0 0 0 0 0 0 0 0 0 0 0 0 0 0 0 0 0 0 0 0 0 0 0 0 0 0 0 0 0 0 0 0 0 0 0 0 0 0 0 0 0 0 0 0 0 0 0 0 0 0 0 0 0 0 0 0 0 0 0 0 0 0 9 9 9 9 9 10 11 10 11 10 10 9 11 9 9 9 9 10 10 10 10 0 11 10 11 9 9 12 11 12 10 0 9 0 9 10 0 0 0 0 0 0 0 8 0 0 0 9 0 9 9 8 0 0 9 11 9 11 12 -193 0 0 0 0 -193 0 9 10 10 8 0 9 -193 -193 9 -193 -193 0 11 12 11 10 13 22 14 20 15 14 13 -193 -193 12 11 11 0 0 9 10 11 11 11 11 11 11 10 10 9 0 0 8 9 10 10 0 0 0 0 0 10 9 9 10 12 12 11 11 11 10 10 10 12 11 12 13 13 13 15 17 17 14 16 17 15 15 15 15 14 13 16 14 13 25 25 23 22 17 17 15 21 16 16 16 17 18 20 20 20 12 23 23 24 23 18 21 23 24 19 19 18 21 20 20 20 20 15 23 24 24 -193 28 28 29 30 29 30 30 32 29 30 31 30 31 31 31 32 30 33 32 31 34 33 33 32 31 31 29 31 30 30 29 30 0 0 0 0 0
    0 0 0 0 0 0 0 0 0 0 0 0 0 0 0 0 0 0 0 0 0 0 0 0 0 0 0 0 0 0 0 0 0 0 0 0 0 0 0 0 0 0 0 0 0 0 0 0 0 0 0 0 0 0 0 0 0 0 0 0 0 0 0 0 0 0 0 0 0 0 0 0 0 0 0 0 0 0 0 0 9 0 0 0 0 0 0 0 0 0 0 0 0 0 0 0 0 0 -193 9 10 10 11 9 10 9 11 10 9 9 9 10 10 9 9 0 12 10 10 9 0 12 11 12 10 0 9 0 9 9 0 0 0 0 0 0 0 0 0 0 0 9 0 9 9 0 0 0 9 11 9 9 9 -193 -193 -209 -193 0 -193 0 9 9 10 0 0 0 -193 -193 -193 -193 -193 0 10 10 10 9 11 -193 13 20 15 14 14 13 13 12 11 12 0 9 9 10 11 10 11 11 11 11 10 9 0 0 0 0 8 10 0 0 0 0 0 0 0 0 0 9 12 11 11 11 11 10 10 11 12 11 12 13 13 12 14 17 17 14 17 17 15 15 15 14 13 13 17 15 17 27 29 28 25 21 21 18 22 16 16 16 17 17 19 19 19 12 23 23 24 22 18 21 23 24 19 19 18 20 20 20 19 19 14 23 23 24 -193 -193 29 29 31 30 30 30 32 29 30 31 30 30 30 30 32 30 32 32 30 33 33 33 32 31 32 30 31 30 30 29 30 0 0 0 0 0
    0 0 0 0 0 0 0 0 0 0 0 0 0 0 0 0 0 0 0 0 0 0 0 0 0 0 0 0 0 0 0 0 0 0 0 0 0 0 0 0 0 0 0 0 0 0 0 0 0 0 0 0 0 0 0 0 0 0 0 0 0 0 0 0 0 0 0 0 0 0 0 0 0 0 0 0 0 0 0 0 0 0 0 0 0 0 0 0 0 0 0 0 0 0 0 0 0 0 -193 9 10 10 11 9 10 9 10 9 9 0 9 10 10 9 9 0 12 9 10 9 0 11 10 12 9 0 9 0 9 9 0 0 0 0 0 0 0 0 0 0 0 0 0 0 0 0 0 0 9 11 9 8 -193 -193 -209 -209 -209 11 13 9 9 10 9 0 0 0 -193 -193 -193 -193 -193 0 10 10 9 9 10 21 12 20 15 14 14 13 13 12 11 12 0 9 9 10 11 10 11 12 11 10 10 9 0 0 0 0 0 9 0 0 0 0 0 0 0 0 0 9 12 11 11 11 11 10 11 11 13 11 12 12 12 12 14 17 16 14 17 17 15 15 15 14 13 14 18 16 22 28 31 30 28 23 24 22 23 17 17 16 17 17 19 19 19 12 22 23 23 22 18 21 23 24 18 18 17 20 19 19 18 18 14 22 23 23 -193 -193 30 30 31 30 31 30 31 29 30 30 30 30 30 30 31 29 31 31 30 32 32 32 31 30 32 30 31 30 30 30 30 0 0 0 0 0
    0 0 0 0 0 0 0 0 0 0 0 0 0 0 0 0 0 0 0 0 0 0 0 0 0 0 0 0 0 0 0 0 0 0 0 0 0 0 0 0 0 0 0 0 0 0 0 0 0 0 0 0 0 0 0 0 0 0 0 0 0 0 0 0 0 0 0 0 0 0 0 0 0 0 0 0 0 0 0 0 0 0 0 0 0 0 0 0 0 0 0 0 0 0 -193 -193 0 0 -193 9 10 9 10 9 10 9 10 9 9 9 9 10 10 9 9 0 12 9 9 9 0 11 10 12 9 0 9 9 9 9 0 0 0 0 0 0 0 0 0 0 0 0 0 0 0 0 0 0 9 10 9 0 0 -193 -209 -209 15 14 15 10 9 10 10 0 0 0 -193 -193 -193 -193 -193 0 10 10 9 9 10 21 13 20 15 14 14 13 13 12 11 12 0 9 9 10 11 10 11 12 11 11 10 10 9 0 9 0 0 10 0 0 0 0 0 0 0 0 0 9 12 11 11 11 11 10 11 11 13 11 11 12 12 11 14 17 15 13 18 17 15 15 15 14 13 14 18 18 25 29 32 32 30 25 25 24 24 17 17 17 17 16 19 19 19 12 22 22 23 22 19 21 23 25 18 18 17 20 19 19 18 18 14 22 22 23 -177 -193 32 30 32 31 31 29 31 29 30 30 30 29 30 29 31 29 30 31 30 31 31 31 31 30 32 31 31 31 31 30 31 0 0 0 0 0
    0 0 0 0 0 0 0 0 0 0 0 0 0 0 0 0 0 0 0 0 0 0 0 0 0 0 0 0 0 0 0 0 0 0 0 0 0 0 0 0 0 0 0 0 0 0 0 0 0 0 0 0 0 0 0 0 0 0 0 0 0 0 0 0 0 0 0 0 0 0 0 0 0 0 0 0 0 0 0 0 9 0 0 0 0 0 0 0 0 0 0 0 0 0 -193 -193 0 0 -193 0 9 9 10 0 9 9 10 9 9 9 9 10 11 10 9 0 12 0 9 0 0 11 10 11 9 -193 9 9 9 9 0 0 0 0 0 0 0 0 0 0 0 0 0 0 0 0 0 0 9 10 9 0 9 13 20 -193 15 13 12 9 9 9 9 0 0 0 -193 -193 -193 -193 -193 0 10 10 9 9 10 20 13 20 15 14 14 13 13 12 11 12 0 9 9 10 10 9 11 11 10 10 10 9 0 0 9 0 0 10 0 0 0 0 0 0 0 0 0 9 12 11 11 10 10 10 10 11 12 10 11 11 11 11 13 17 14 13 18 17 15 15 15 15 13 16 19 19 26 29 33 32 31 26 25 24 24 18 18 17 17 16 19 19 19 12 22 23 23 22 19 21 23 24 17 17 17 20 19 19 18 18 14 22 22 23 -177 -193 34 31 32 31 31 29 31 29 30 29 30 29 30 29 31 29 30 30 30 31 31 30 31 30 33 31 31 31 31 31 31 0 0 0 0 0
    0 0 0 0 0 0 0 0 0 0 0 0 0 0 0 0 0 0 0 0 0 0 0 0 0 0 0 0 0 0 0 0 0 0 0 0 0 0 0 0 0 0 0 0 0 0 0 0 0 0 0 0 0 0 0 0 0 0 0 0 0 0 0 0 0 0 0 0 0 0 0 0 0 0 0 0 0 0 9 9 10 0 0 0 0 0 0 0 0 0 0 0 0 0 -193 -193 0 0 -193 0 9 9 10 0 0 0 9 9 9 9 9 10 11 10 9 9 11 0 0 0 0 10 10 11 9 -193 9 9 9 9 0 0 0 0 0 0 0 0 0 0 0 0 0 0 0 0 0 0 9 11 9 0 0 -193 10 -193 0 0 0 0 0 9 9 0 0 0 -193 -193 -193 -193 -193 0 11 11 10 10 12 18 13 20 15 14 14 13 13 12 11 12 0 9 9 9 10 9 10 10 10 9 9 0 0 0 9 0 0 10 0 0 0 0 0 0 0 0 0 9 11 10 10 10 9 9 9 10 10 9 -193 10 10 10 12 16 13 12 19 17 15 15 15 15 -193 -193 21 21 27 31 33 33 31 26 25 24 24 18 18 17 17 15 19 18 19 12 22 23 23 21 19 21 22 24 16 16 16 20 18 18 18 18 14 22 22 23 -177 28 34 31 31 30 30 29 30 29 30 29 29 29 30 29 31 29 30 30 30 31 31 30 31 31 34 32 31 32 32 32 32 0 0 0 0 0
    0 0 0 0 0 0 0 0 0 0 0 0 0 0 0 0 0 0 0 0 0 0 0 0 0 0 0 0 0 0 0 0 0 0 0 0 0 0 0 0 0 0 0 0 0 0 0 0 0 0 0 0 0 0 0 0 0 0 0 0 0 0 0 0 0 0 0 0 0 0 0 0 0 0 0 9 0 0 0 9 10 0 0 0 0 0 0 0 0 0 0 0 0 0 -193 0 0 0 0 0 9 8 9 0 0 0 0 0 0 9 9 10 11 10 9 0 11 0 0 0 0 9 9 10 0 0 9 9 9 9 0 0 0 0 0 0 0 0 0 0 0 0 0 0 0 0 0 0 9 -193 9 0 0 0 0 0 0 0 0 0 0 0 0 0 0 0 0 -193 -193 -193 -193 9 11 12 10 10 12 15 13 20 15 14 14 13 13 12 12 12 0 9 9 10 10 9 10 11 10 10 10 9 9 9 12 10 9 11 0 0 0 0 0 0 0 0 0 9 11 10 9 9 9 8 8 9 9 9 -193 10 10 10 12 15 12 12 20 16 15 15 16 16 -193 -193 23 23 29 32 33 33 31 27 25 24 24 18 18 17 17 -193 19 18 19 12 22 22 23 21 19 20 21 23 16 16 17 20 19 18 18 18 14 23 23 24 -177 28 34 31 31 31 30 29 30 29 30 29 29 29 30 29 30 29 29 30 30 30 31 30 31 31 34 33 31 32 33 32 32 0 0 0 0 0
    0 0 0 0 0 0 0 0 0 0 0 0 0 0 0 0 0 0 0 0 0 0 0 0 0 0 0 0 0 0 0 0 0 0 0 0 0 0 0 0 0 0 0 0 0 0 0 0 0 0 0 0 0 0 0 0 0 0 0 0 0 0 0 0 0 0 0 0 0 0 0 0 0 0 0 0 0 0 0 0 9 0 0 0 0 0 0 0 0 0 0 0 0 0 -193 0 0 0 0 0 9 9 9 0 0 0 0 0 9 9 9 9 10 9 9 0 10 0 0 0 0 9 9 10 0 0 9 10 10 10 0 0 0 0 0 0 0 0 0 0 0 0 0 0 0 0 0 0 9 11 10 0 0 0 0 0 0 0 0 0 0 0 0 0 0 0 0 -193 9 -193 -193 9 11 12 10 9 12 13 12 20 14 14 14 13 13 12 12 13 9 9 9 10 10 10 11 11 10 10 11 10 10 10 13 11 10 11 0 0 0 0 0 0 0 0 0 9 10 10 9 9 9 0 0 9 9 9 0 9 10 10 11 14 12 12 20 16 15 15 16 17 -193 -193 24 25 29 32 32 32 31 27 25 24 24 18 18 17 17 15 19 18 19 12 22 22 22 20 18 19 21 23 15 15 17 21 19 19 19 19 16 24 25 25 18 28 33 31 31 31 31 29 30 29 31 29 29 28 30 29 30 28 29 30 30 30 30 30 31 32 34 33 31 33 33 33 33 0 0 0 0 0
    0 0 0 0 0 0 0 0 0 0 0 0 0 0 0 0 0 0 0 0 0 0 0 0 0 0 0 0 0 0 0 0 0 0 0 0 0 0 0 0 0 0 0 0 0 0 0 0 0 0 0 0 0 0 0 0 0 0 0 0 0 0 0 0 0 0 0 0 0 0 0 0 0 0 0 9 0 9 9 9 10 0 0 0 0 0 0 0 0 0 0 0 0 0 -193 0 0 0 0 0 9 9 10 0 0 0 0 0 11 10 10 10 10 9 9 0 9 0 0 0 0 9 9 10 0 0 9 10 10 10 0 0 0 0 0 0 0 0 0 0 0 0 0 0 0 0 0 0 9 11 11 9 0 0 0 0 0 0 0 0 0 0 0 0 0 0 0 0 9 -193 8 0 10 11 9 9 11 12 12 20 14 14 13 13 13 12 12 13 9 9 10 10 10 10 12 12 10 10 10 10 10 10 13 10 10 11 0 0 0 0 0 0 0 0 0 9 10 10 9 9 9 9 9 9 9 9 0 10 10 11 12 14 12 12 20 16 15 15 16 17 18 -193 24 24 29 32 32 32 31 27 25 24 23 18 18 17 17 15 19 19 19 13 22 21 21 19 17 18 20 23 15 16 18 21 20 19 20 20 17 24 25 25 20 28 32 30 31 31 30 29 29 29 30 28 28 28 29 29 29 28 28 30 30 30 30 29 30 32 34 33 31 33 33 33 33 0 0 0 0 0
    0 0 0 0 0 0 0 0 0 0 0 0 0 0 0 0 0 0 0 0 0 0 0 0 0 0 0 0 0 0 0 0 0 0 0 0 0 0 0 0 0 0 0 0 0 0 0 0 0 0 0 0 0 0 0 0 0 0 0 0 0 0 0 0 0 0 0 0 0 0 0 0 9 -193 10 11 11 10 11 10 10 0 0 0 0 0 0 0 0 0 0 0 0 0 0 0 0 0 0 9 10 10 11 0 0 0 9 9 12 11 11 11 11 10 9 9 9 0 0 0 0 9 9 10 0 0 9 10 10 10 0 0 0 0 0 0 0 0 0 0 0 0 0 0 8 0 0 9 9 11 12 10 9 9 9 0 0 0 0 0 0 0 0 0 0 0 0 0 9 -193 9 0 10 11 10 9 11 11 11 20 14 14 13 12 12 12 12 12 9 9 9 10 10 11 12 12 10 10 10 10 10 9 13 10 10 10 0 0 0 0 0 0 0 0 0 9 10 10 9 9 9 9 9 9 9 9 0 10 11 12 12 14 12 13 21 16 15 16 16 17 18 23 23 23 29 31 32 31 30 25 24 23 23 18 18 18 17 15 19 19 19 13 21 21 21 18 17 18 20 23 15 16 18 21 20 19 20 20 17 23 24 25 21 27 30 29 29 30 30 28 28 28 30 27 27 27 29 29 29 28 28 30 30 30 30 29 30 32 34 33 31 32 33 33 33 0 0 0 0 0
    0 0 0 0 0 0 0 0 0 0 0 0 0 0 0 0 0 0 0 0 0 0 0 0 0 0 0 0 0 0 0 0 0 0 0 0 0 0 0 0 0 0 0 0 0 0 0 0 0 0 0 0 0 0 0 0 0 0 0 0 0 0 0 0 0 0 0 0 0 0 0 0 10 10 11 14 13 12 13 11 12 0 0 0 0 0 0 0 0 0 0 0 0 0 8 8 8 0 -193 9 10 10 11 0 0 0 0 0 12 11 11 11 11 11 10 9 10 0 0 0 0 9 9 10 0 0 9 10 10 10 0 0 0 0 0 0 0 0 0 0 0 0 0 0 0 0 0 9 10 11 11 10 10 9 9 0 0 0 0 0 0 0 0 0 0 0 0 0 9 -193 9 9 10 11 10 9 11 11 11 20 13 13 13 12 12 11 11 12 9 9 9 10 10 11 12 12 10 10 10 10 10 0 13 10 10 11 0 0 0 0 0 0 0 0 0 9 10 10 9 9 9 9 9 9 9 9 0 11 11 12 12 14 12 13 21 17 15 16 17 17 18 22 23 22 28 30 31 30 29 23 22 21 22 18 18 18 17 15 20 19 19 13 21 21 21 18 18 18 20 23 15 16 19 21 20 19 19 20 17 23 24 25 22 27 30 29 29 29 29 28 27 28 30 27 27 27 29 29 28 28 28 30 30 30 29 29 30 32 34 33 30 32 33 33 33 0 0 0 0 0
    0 0 0 0 0 0 0 0 0 0 0 0 0 0 0 0 0 0 0 0 0 0 0 0 0 0 0 0 0 0 0 0 0 0 0 0 0 0 0 0 0 0 0 0 0 0 0 0 0 0 0 0 0 0 0 0 0 0 0 0 0 0 0 0 0 0 0 0 0 0 9 0 12 11 13 16 16 14 14 13 13 9 0 0 0 0 0 0 0 0 0 0 0 0 0 0 0 0 -193 9 10 10 11 0 0 0 0 0 12 11 11 11 11 11 10 10 10 0 0 0 0 9 9 10 9 0 9 9 9 9 0 0 0 0 0 0 0 0 0 0 0 0 0 0 0 0 0 9 9 11 11 10 10 9 9 0 0 0 0 0 0 0 0 0 0 0 0 0 9 9 9 9 10 12 10 10 11 10 10 19 13 13 12 12 12 11 11 12 9 9 9 10 9 10 11 11 9 9 9 0 0 0 11 10 10 11 0 0 0 0 0 0 0 0 0 9 9 10 9 9 9 9 9 9 9 9 0 11 11 13 13 14 13 13 21 17 15 16 17 17 19 22 22 21 27 29 30 29 28 22 20 20 22 18 18 18 18 15 20 20 20 13 21 21 21 18 18 17 20 22 16 17 20 21 20 20 20 20 18 23 24 25 23 27 30 29 29 29 29 28 27 28 30 27 27 28 30 30 28 28 28 31 30 30 30 29 30 33 34 33 30 33 33 33 33 0 0 0 0 0
    0 0 0 0 0 0 0 0 0 0 0 0 0 0 0 0 0 0 0 0 0 0 0 0 0 0 0 0 0 0 0 0 0 0 0 0 0 0 0 0 0 0 0 0 0 0 0 0 0 0 0 0 0 0 0 0 0 0 0 0 0 0 0 0 0 0 0 0 0 9 11 9 13 13 16 17 17 16 15 14 14 11 10 9 0 0 0 0 0 0 0 0 0 0 0 0 0 0 -193 0 10 10 11 0 0 0 0 0 12 10 10 10 11 10 10 9 10 0 0 0 0 -193 9 9 0 0 9 9 9 0 0 0 0 0 0 0 0 0 0 0 0 0 0 0 0 0 0 9 9 10 10 9 9 0 0 0 0 0 0 0 0 0 0 0 0 0 0 0 9 9 9 9 10 11 10 10 11 10 10 18 12 13 12 12 11 11 11 12 9 9 9 10 9 10 10 10 0 0 0 0 0 0 10 10 10 11 0 0 0 0 0 0 0 0 0 9 9 10 10 9 9 9 10 10 9 9 0 12 12 13 13 14 13 13 21 17 15 16 16 17 19 22 22 20 27 29 29 28 26 20 18 19 21 18 18 18 18 16 21 20 20 14 21 21 21 19 19 18 20 22 17 17 20 21 21 20 20 21 19 23 24 26 25 27 29 29 29 28 29 29 27 28 29 27 27 28 30 30 28 28 28 31 30 30 30 29 30 34 34 34 30 33 33 33 32 0 0 0 0 0
    0 0 0 0 0 0 0 0 0 0 0 0 0 0 0 0 0 0 0 0 0 0 0 0 0 0 0 0 0 0 0 0 0 0 0 0 0 0 0 0 0 0 0 0 0 0 0 0 0 0 0 0 0 0 0 0 0 0 0 0 0 0 0 0 0 0 0 0 0 -209 13 10 17 14 17 18 18 17 16 15 14 13 12 11 9 9 9 9 9 9 0 0 0 0 0 0 0 0 -193 0 10 10 11 0 0 0 0 0 12 10 10 10 10 10 9 9 10 0 0 0 0 -193 9 9 0 0 9 0 0 0 0 0 0 0 0 0 0 0 0 0 0 0 0 0 9 9 9 9 9 10 10 9 9 0 0 0 0 0 0 0 0 0 0 0 0 0 0 0 9 9 9 9 9 10 9 9 10 9 9 17 12 12 11 12 11 11 11 12 9 9 9 10 9 10 11 10 0 0 0 0 0 0 10 10 10 11 0 0 0 0 0 0 0 0 0 9 10 11 10 10 9 10 10 11 10 9 9 12 12 14 14 14 13 13 20 17 14 16 16 17 18 22 21 19 26 28 27 27 24 19 17 18 21 18 18 18 17 16 21 20 20 14 21 21 21 19 19 18 21 23 19 19 21 22 22 21 21 21 20 24 25 26 25 26 28 29 29 28 29 29 27 29 30 28 27 28 30 29 28 28 29 32 31 31 30 30 31 34 34 34 30 33 32 33 32 0 0 0 0 0
    0 0 0 0 0 0 0 0 0 0 0 0 0 0 0 0 0 0 0 0 0 0 0 0 0 0 0 0 0 0 0 0 0 0 0 0 0 0 0 0 0 0 0 0 0 0 0 0 0 0 0 0 0 0 0 0 0 0 0 0 0 0 0 0 0 0 0 0 0 -209 17 11 20 16 19 19 19 18 17 16 15 14 13 13 10 10 10 10 10 10 0 0 0 0 0 0 0 0 -193 0 10 10 11 0 0 0 0 0 12 10 11 10 10 10 9 9 10 0 0 0 0 -193 0 0 0 0 0 0 0 0 0 0 0 0 0 0 0 0 0 0 0 0 9 9 9 9 9 9 9 9 9 0 8 0 0 0 0 0 0 0 0 0 0 0 0 0 0 0 9 0 0 0 9 9 9 9 9 9 9 16 12 12 11 12 11 11 11 12 9 9 9 10 9 11 11 11 0 0 0 0 0 0 10 10 10 11 0 0 0 0 0 0 0 0 0 0 11 11 11 11 10 11 12 12 12 10 9 13 12 14 14 14 13 14 20 17 14 17 15 16 17 20 20 15 25 26 25 -193 23 18 17 18 21 18 18 18 17 16 21 21 20 14 22 22 22 21 21 20 23 24 21 21 22 23 22 22 22 22 21 24 25 26 25 26 28 29 29 29 30 30 27 29 30 28 28 28 29 29 28 29 29 32 31 31 30 30 31 34 34 34 30 33 32 33 32 0 0 0 0 0
    0 0 0 0 0 0 0 0 0 0 0 0 0 0 0 0 0 0 0 0 0 0 0 0 0 0 0 0 0 0 0 0 0 0 0 0 0 0 0 0 0 0 0 0 0 0 0 0 0 0 0 0 0 0 0 0 0 0 0 0 0 0 0 0 0 0 0 0 0 -209 16 13 20 17 19 20 19 19 18 17 16 15 15 14 11 10 10 10 11 11 0 0 0 0 0 0 0 0 -193 0 10 10 12 9 0 0 8 9 14 10 11 10 10 10 10 10 10 0 0 0 0 0 0 0 0 0 0 0 0 0 0 0 0 0 0 0 0 0 0 0 0 0 9 9 9 9 9 0 9 9 9 0 8 0 0 0 0 0 0 0 0 0 0 0 0 0 0 0 0 0 0 0 0 -193 0 0 9 9 9 14 11 12 11 11 10 10 10 12 9 9 9 10 9 10 10 11 0 0 0 0 0 0 0 9 9 11 0 0 0 0 0 0 0 0 0 9 13 13 13 12 11 13 13 14 14 11 10 14 12 15 15 15 14 14 20 17 14 17 15 15 16 18 18 12 23 22 21 22 23 17 16 18 21 18 18 18 18 16 22 21 21 15 23 23 23 24 24 24 27 30 25 24 24 24 23 23 23 23 22 24 24 26 25 26 27 29 29 29 30 30 27 30 31 29 28 29 29 29 28 29 30 32 31 31 30 31 32 35 34 34 30 33 32 33 32 0 0 0 0 0
    0 0 0 0 0 0 0 0 0 0 0 0 0 0 0 0 0 0 0 0 0 0 0 0 0 0 0 0 0 0 0 0 0 0 0 0 0 0 0 0 0 0 0 0 0 0 0 0 0 0 0 0 0 0 0 0 0 0 0 0 0 0 0 0 0 0 0 0 0 -209 15 13 20 17 19 20 19 19 19 17 16 15 15 14 11 11 11 10 11 11 9 0 0 0 0 -193 0 0 0 0 10 10 11 9 0 9 9 9 14 10 11 10 10 10 10 10 10 0 0 0 0 0 0 0 0 0 0 0 0 0 0 0 0 0 0 0 0 0 0 0 0 8 9 8 9 9 0 0 0 0 0 0 0 0 0 0 0 0 0 0 0 0 0 0 0 0 0 0 0 0 0 0 0 0 0 0 0 0 0 13 10 11 10 11 10 10 10 12 9 9 9 10 9 10 10 10 0 0 0 0 0 0 0 9 0 11 0 0 0 0 0 10 0 0 0 10 15 13 14 14 12 14 14 15 15 11 11 15 12 15 15 15 14 14 20 17 14 17 14 14 15 17 17 11 20 19 -193 -193 22 16 16 18 21 18 18 18 18 16 22 21 21 16 24 24 24 27 28 29 34 37 28 26 26 -193 24 24 24 23 22 24 25 27 26 26 27 30 29 29 31 30 28 30 31 29 29 29 30 28 28 29 30 32 32 31 31 31 32 35 34 34 30 33 32 33 33 0 0 0 0 0
    0 0 0 0 0 0 0 0 0 0 0 0 0 0 0 0 0 0 0 0 0 0 0 0 0 0 0 0 0 0 0 0 0 0 0 0 0 0 0 0 0 0 0 0 0 0 0 0 0 0 0 0 0 0 0 0 0 0 0 0 0 0 0 0 0 0 0 0 0 -209 16 14 21 17 19 20 20 19 19 17 17 15 15 14 11 10 10 10 11 11 9 0 0 0 0 -193 0 0 0 0 9 9 10 0 0 0 0 9 12 10 10 10 10 10 9 9 10 0 0 0 0 0 0 0 0 0 0 0 0 0 0 0 0 0 0 0 0 0 0 0 0 0 9 0 9 9 0 0 0 0 0 0 0 0 0 0 0 0 0 0 0 0 0 0 0 0 0 0 0 0 0 0 0 0 0 0 9 0 0 12 10 11 10 11 10 10 10 12 9 9 9 10 9 10 10 10 0 0 0 0 0 0 9 10 9 12 0 0 0 0 0 11 9 10 9 11 15 14 15 15 13 14 14 15 15 11 11 15 12 15 15 15 14 14 20 17 14 16 14 14 15 17 17 11 20 19 -193 -193 22 16 15 18 21 18 18 18 18 16 22 21 21 17 25 26 26 29 32 34 36 38 31 29 28 27 24 24 24 23 22 24 25 27 26 26 28 32 32 31 34 32 29 31 33 30 29 29 30 28 28 30 31 32 33 32 31 33 33 35 34 34 31 34 34 35 34 0 0 0 0 0
    0 0 0 0 0 0 0 0 0 0 0 0 0 0 0 0 0 0 0 0 0 0 0 0 0 0 0 0 0 0 0 0 0 0 0 0 0 0 0 0 0 0 0 0 0 0 0 0 0 0 0 0 0 0 0 0 0 0 0 0 0 0 0 0 0 0 0 0 0 -193 15 14 21 18 20 20 20 20 20 18 18 16 15 13 11 10 10 10 11 11 9 0 0 0 9 -193 9 0 0 0 9 0 9 0 0 0 0 9 11 9 10 10 10 10 9 9 10 0 0 0 0 0 0 0 0 0 0 0 0 0 0 0 0 0 0 0 0 0 0 0 0 0 9 0 9 9 0 0 0 0 0 0 0 0 0 0 0 0 0 0 0 0 0 0 0 0 0 0 0 0 0 0 0 0 0 0 9 9 9 11 10 11 10 11 10 9 10 11 9 9 8 9 9 10 10 11 0 0 10 9 9 10 11 10 10 12 0 0 0 9 0 13 10 12 10 12 16 15 15 15 13 15 14 16 16 11 11 15 13 15 16 15 14 14 21 17 14 16 14 14 15 17 17 11 22 19 -209 -193 -193 17 16 19 21 18 18 18 18 16 21 21 21 19 25 28 27 31 34 36 38 39 33 31 29 29 25 25 25 24 23 25 26 28 28 28 33 36 36 35 36 35 31 34 35 31 30 30 30 29 28 32 33 34 36 35 35 36 36 37 35 36 33 35 34 36 36 0 0 0 0 0
    0 0 0 0 0 0 0 0 0 0 0 0 0 0 0 0 0 0 0 0 0 0 0 0 0 0 0 0 0 0 0 0 0 0 0 0 0 0 0 0 0 0 0 0 0 0 0 0 0 0 0 0 0 0 0 0 0 0 0 0 0 0 0 0 0 0 0 0 0 -193 15 15 21 18 20 20 20 20 19 18 17 15 14 13 11 10 10 10 11 11 9 0 0 0 9 -193 9 9 0 0 10 9 10 0 0 0 0 9 12 10 10 10 10 10 9 9 10 0 0 0 0 0 0 0 0 0 0 0 0 0 0 0 0 0 0 0 0 0 0 0 0 0 9 0 9 9 0 0 0 0 0 0 0 0 0 0 0 0 0 0 0 0 9 0 9 0 0 0 -193 -193 0 -193 0 0 0 0 9 9 9 10 9 10 10 10 10 9 9 11 9 10 9 9 9 10 11 11 0 9 11 10 11 12 11 10 9 12 0 0 9 9 9 14 12 13 12 13 17 15 16 16 14 15 14 16 16 12 12 15 13 16 16 15 15 15 21 17 14 16 14 14 16 17 17 11 23 -193 -209 -209 -193 17 16 19 21 17 17 17 18 16 21 21 21 21 27 30 30 34 36 38 39 40 34 32 31 30 26 25 25 25 24 26 26 29 29 29 36 38 39 37 38 37 35 37 38 34 32 31 31 30 31 36 37 37 39 39 39 39 39 39 37 37 36 36 35 36 37 0 0 0 0 0
    0 0 0 0 0 0 0 0 0 0 0 0 0 0 0 0 0 0 0 0 0 0 0 0 0 0 0 0 0 0 0 0 0 0 0 0 0 0 0 0 0 0 0 0 0 0 0 0 0 0 0 0 0 0 0 0 0 0 0 0 0 0 0 0 0 0 0 0 0 9 14 15 20 17 19 20 19 19 19 17 16 15 13 13 11 11 11 11 11 11 10 9 9 0 10 9 9 9 0 0 10 9 9 0 -193 9 0 9 12 10 10 10 10 10 9 9 10 0 0 0 0 0 0 0 0 0 0 0 0 0 0 0 0 0 0 0 0 0 9 0 9 9 9 9 9 9 0 0 0 0 0 0 0 0 0 0 0 0 0 0 0 9 9 0 9 9 0 -193 -193 -193 -193 -193 -193 0 0 0 9 9 9 9 9 10 9 10 9 0 9 10 10 10 8 9 9 10 11 12 9 10 12 12 13 14 12 10 9 12 0 0 10 10 9 16 13 15 13 14 17 16 16 16 14 16 13 17 16 12 12 16 14 17 17 16 15 15 21 17 14 16 14 14 16 17 17 11 24 -193 -209 -209 -193 -193 17 20 22 17 17 17 17 17 22 22 22 23 28 34 33 36 38 39 41 41 36 34 33 33 27 26 25 25 24 27 27 30 30 30 38 39 40 39 39 39 38 40 40 37 36 34 34 34 36 39 39 39 42 42 42 42 42 40 39 38 38 37 36 37 39 0 0 0 0 0
    0 0 0 0 0 0 0 0 0 0 0 0 0 0 0 0 0 0 0 0 0 0 0 0 0 0 0 0 0 0 0 0 0 0 0 0 0 0 0 0 0 0 0 0 0 0 0 0 0 0 0 0 0 0 0 0 0 0 0 0 0 0 0 0 0 0 0 0 0 9 14 14 21 17 19 19 19 18 18 16 16 14 13 13 11 11 11 11 11 11 10 9 9 9 10 9 9 9 0 0 9 0 9 0 0 0 0 9 10 10 10 10 10 9 9 9 10 0 0 0 0 0 0 0 0 0 0 0 0 0 0 0 0 0 0 0 0 0 9 0 9 9 9 9 9 9 0 0 0 0 0 0 0 0 0 0 0 0 0 0 0 9 9 9 9 9 9 0 -193 -193 0 -193 -193 0 0 0 9 9 9 0 0 9 9 9 9 0 0 9 10 10 9 9 9 10 11 12 10 10 12 13 14 14 12 10 9 12 0 0 10 10 10 17 13 16 13 15 17 16 16 16 14 16 13 17 16 12 12 -193 14 17 18 17 15 16 21 18 15 16 14 14 17 18 18 12 25 28 28 30 41 -193 20 21 22 17 18 18 18 18 23 23 23 25 30 36 35 37 39 40 41 41 38 35 35 35 27 26 26 25 24 27 28 31 32 33 40 41 43 40 41 40 41 42 44 39 39 36 38 38 40 41 41 41 44 46 45 45 45 42 40 39 39 37 36 38 39 0 0 0 0 0
    0 0 0 0 0 0 0 0 0 0 0 0 0 0 0 0 0 0 0 0 0 0 0 0 0 0 0 0 0 0 0 0 0 0 0 0 0 0 0 0 0 0 0 0 0 0 0 0 0 0 0 0 0 0 0 0 0 0 0 0 0 0 0 0 0 0 0 0 0 0 14 14 20 17 19 19 19 19 19 16 16 14 12 12 10 10 10 10 11 11 11 10 10 11 12 10 9 0 0 0 9 0 0 0 9 9 9 9 11 10 11 10 10 9 9 9 10 0 0 0 0 0 0 0 0 0 0 0 0 0 0 0 0 0 0 0 0 0 0 0 0 9 9 0 9 9 0 0 0 0 0 0 0 0 0 0 0 0 0 0 0 10 9 9 9 9 9 9 -193 -193 0 0 0 0 0 0 9 9 9 0 0 0 0 0 0 0 0 0 10 10 9 9 10 10 11 12 10 10 13 14 15 15 14 11 11 12 9 9 11 10 10 17 14 17 14 15 17 16 17 17 14 16 12 17 16 12 -193 -193 15 -193 18 17 16 17 22 18 14 16 14 14 17 18 18 13 26 29 29 32 38 -193 25 23 23 19 19 20 -193 19 24 24 24 27 31 37 36 38 39 41 42 42 39 36 36 37 27 26 26 25 23 27 27 32 34 36 41 42 45 42 42 42 43 43 45 41 41 39 41 41 43 43 43 44 46 48 48 46 46 43 42 40 40 38 36 38 39 0 0 0 0 0
    0 0 0 0 0 0 0 0 0 0 0 0 0 0 0 0 0 0 0 0 0 0 0 0 0 0 0 0 0 0 0 0 0 0 0 0 0 0 0 0 0 0 0 0 0 0 0 0 0 0 0 0 0 0 0 0 0 0 0 0 0 0 0 0 0 0 0 0 0 0 13 14 20 17 18 19 19 18 18 16 16 13 12 11 10 10 10 11 12 12 12 12 13 16 16 13 11 0 0 0 9 0 0 0 9 10 9 10 10 10 10 10 10 9 9 9 9 0 0 0 0 0 0 0 0 0 0 0 0 0 0 0 0 0 0 0 0 0 0 0 0 9 9 0 9 9 0 0 0 0 0 0 0 0 0 0 0 0 0 0 0 10 9 0 0 0 0 9 -193 0 0 0 0 0 0 0 9 0 9 0 0 0 0 0 0 0 0 0 10 10 9 10 10 10 11 12 10 11 13 14 15 14 14 12 12 13 10 9 12 11 10 18 14 18 14 16 17 17 17 17 14 16 12 17 15 11 -193 -177 -193 -193 18 17 16 18 22 18 14 16 14 14 17 18 18 14 26 29 29 33 37 40 28 26 25 21 22 22 -193 21 25 25 26 29 33 38 37 38 39 41 42 42 39 37 38 40 29 27 26 25 24 30 31 35 37 39 42 43 45 43 43 43 43 44 46 43 43 41 43 43 45 45 45 46 48 49 49 47 47 45 43 41 41 38 37 39 40 0 0 0 0 0
    0 0 0 0 0 0 0 0 0 0 0 0 0 0 0 0 0 0 0 0 0 0 0 0 0 0 0 0 0 0 0 0 0 0 0 0 0 0 0 0 0 0 0 0 0 0 0 0 0 0 0 0 0 0 0 0 0 0 0 0 0 0 0 0 0 0 0 0 0 9 13 14 20 17 18 19 18 18 18 16 16 12 12 11 10 11 11 11 13 14 15 17 16 21 20 14 11 0 0 0 0 0 0 0 9 9 0 9 9 9 9 10 9 0 9 9 9 0 9 0 0 0 0 0 0 0 0 0 0 0 0 0 0 0 0 0 0 0 0 0 0 0 9 0 9 9 0 0 0 0 0 0 0 0 0 0 0 0 0 0 0 10 0 0 0 0 -193 9 9 0 0 0 0 0 0 0 9 0 9 0 0 0 0 0 -193 0 0 0 11 11 9 11 12 11 13 13 11 11 14 14 15 14 14 12 13 13 10 10 12 11 11 18 14 18 15 16 17 17 17 17 14 17 11 17 14 11 -193 -177 -193 -193 19 18 17 19 22 18 14 16 14 14 16 17 17 14 26 28 28 33 36 39 30 29 28 24 24 25 -193 23 26 27 28 32 35 38 37 39 39 41 42 42 38 37 38 40 30 30 28 27 27 37 39 39 40 41 43 44 46 44 44 44 44 45 46 44 44 43 45 45 46 47 47 48 49 50 50 48 49 46 45 43 43 40 38 40 41 0 0 0 0 0
    0 0 0 0 0 0 0 0 0 0 0 0 0 0 0 0 0 0 0 0 0 0 0 0 0 0 0 0 0 0 0 0 0 0 0 0 0 0 0 0 0 0 0 0 0 0 0 0 0 0 0 0 0 0 0 0 0 0 0 0 0 0 0 0 0 0 0 0 0 9 13 14 20 17 18 19 18 18 18 16 16 12 12 11 10 11 12 12 14 16 18 22 21 25 22 14 10 0 0 0 0 0 0 0 9 9 0 0 0 9 9 9 0 0 0 0 0 0 9 0 0 0 0 0 0 0 0 0 0 0 0 0 0 0 0 0 0 0 0 0 0 0 9 9 9 9 0 0 0 0 0 0 0 0 0 0 0 0 0 0 0 10 0 0 0 -193 -193 9 9 9 0 0 0 0 0 9 9 9 9 0 0 0 0 0 -193 -193 0 0 12 13 11 16 15 14 16 15 13 13 14 14 14 14 15 13 13 13 11 11 13 12 12 18 15 18 15 16 17 17 17 17 14 17 11 17 14 11 -193 -193 -193 -193 19 18 17 19 22 17 15 16 13 13 15 16 16 14 25 27 28 34 36 39 33 33 30 28 27 28 26 26 28 29 30 35 36 39 38 39 39 41 41 41 36 37 37 40 34 39 38 36 36 41 42 42 42 42 44 44 46 44 44 44 44 45 47 45 45 44 47 47 47 48 48 48 49 50 50 48 49 47 47 44 44 42 40 41 43 0 0 0 0 0
    0 0 0 0 0 0 0 0 0 0 0 0 0 0 0 0 0 0 0 0 0 0 0 0 0 0 0 0 0 0 0 0 0 0 0 0 0 0 0 0 0 0 0 0 0 0 0 0 0 0 0 0 0 0 0 0 0 0 0 0 0 0 0 0 0 0 0 0 0 10 13 14 19 17 17 18 18 17 18 16 16 13 12 11 11 12 14 14 17 19 22 26 25 28 -193 12 9 0 0 0 0 0 0 0 9 9 0 0 9 9 10 10 0 0 0 9 0 0 9 0 0 0 0 0 0 0 0 0 0 0 0 0 0 0 0 0 0 0 0 0 0 0 10 9 9 9 0 0 9 0 0 0 0 0 0 0 0 0 0 0 0 9 0 0 -193 -193 -193 10 9 9 0 9 0 8 0 9 9 9 9 0 0 -193 -193 -193 -177 -177 0 0 13 -193 14 23 22 19 20 19 16 15 15 14 14 14 14 13 13 13 11 11 13 12 12 18 15 18 15 16 17 17 18 17 14 18 12 18 15 11 -193 1008 16 -193 19 17 16 19 22 17 14 15 13 13 15 15 15 14 25 27 29 34 36 38 35 35 33 32 29 31 28 28 29 31 33 37 37 39 39 40 39 41 41 41 36 38 39 41 38 42 42 41 41 43 43 43 42 42 44 43 45 44 43 43 44 45 47 46 46 45 47 47 47 48 47 48 49 50 49 48 49 47 47 45 45 42 40 41 44 0 0 0 0 0
    0 0 0 0 0 0 0 0 0 0 0 0 0 0 0 0 0 0 0 0 0 0 0 0 0 0 0 0 0 0 0 0 0 0 0 0 0 0 0 0 0 0 0 0 0 0 0 0 0 0 0 0 0 0 0 0 0 0 0 0 0 0 0 0 0 0 0 0 0 10 13 13 18 17 17 18 17 17 17 16 16 13 13 12 12 14 16 17 19 -193 -193 29 28 31 -209 9 0 0 0 0 0 0 0 0 9 10 0 9 9 9 11 11 9 0 9 9 8 0 10 9 9 0 0 0 0 0 -177 0 0 0 0 0 0 0 0 0 0 0 0 0 0 0 10 10 10 9 0 0 9 0 0 0 0 0 0 0 0 0 0 0 0 -193 0 0 -193 -193 -193 10 10 9 0 9 9 9 9 10 9 9 9 0 0 -193 -193 927 925 -177 0 0 15 -193 -193 25 25 23 23 21 19 17 16 15 15 14 15 13 14 13 11 12 13 11 12 18 15 18 15 16 17 18 18 17 14 17 12 17 15 12 -193 1008 16 17 18 17 16 18 21 16 14 15 13 13 14 15 15 16 25 27 30 35 36 38 36 35 34 36 32 34 31 32 31 34 35 38 -193 -193 40 40 39 40 41 41 35 38 39 42 40 43 43 43 43 44 44 44 43 43 43 43 44 43 43 43 44 45 47 46 47 46 48 47 46 47 46 48 48 49 48 48 48 47 47 45 44 43 41 42 44 0 0 0 0 0
    0 0 0 0 0 0 0 0 0 0 0 0 0 0 0 0 0 0 0 0 0 0 0 0 0 0 0 0 0 0 0 0 0 0 0 0 0 0 0 0 0 0 0 0 0 0 0 0 0 0 0 0 0 0 0 0 0 0 0 0 0 0 0 0 0 0 0 0 0 11 14 13 17 17 17 18 18 17 18 16 16 14 14 13 13 16 18 -193 -193 -177 -193 -193 29 32 -209 -193 0 0 0 0 0 0 0 0 9 9 0 9 9 9 11 11 9 0 0 0 0 0 10 8 9 0 0 0 0 -177 -177 0 0 0 0 0 0 0 0 0 0 0 0 0 0 0 10 10 10 10 0 9 9 0 0 0 0 0 0 0 0 0 0 0 0 -177 -193 0 -193 -177 -193 11 10 10 9 9 10 10 9 10 0 0 9 0 0 -193 -193 926 925 -193 0 9 16 -209 -193 26 26 25 25 23 21 18 16 16 15 14 15 13 14 13 11 12 12 11 13 18 15 18 15 15 17 18 18 17 14 17 12 16 16 13 13 -193 16 17 18 17 16 18 20 15 14 14 13 12 14 14 14 18 25 28 30 35 36 38 36 36 35 37 35 36 34 35 33 35 37 39 -193 -193 40 40 39 40 40 40 35 39 39 43 41 44 44 44 45 45 45 45 44 44 43 43 43 43 42 42 44 45 46 46 47 47 47 48 46 48 46 48 47 48 48 48 48 48 47 46 45 43 43 43 45 0 0 0 0 0
    0 0 0 0 0 0 0 0 0 0 0 0 0 0 0 0 0 0 0 0 0 0 0 0 0 0 0 0 0 0 0 0 0 0 0 0 0 0 0 0 0 0 0 0 0 0 0 0 0 0 0 0 0 0 0 0 0 0 0 0 0 0 0 0 0 0 0 0 0 12 14 13 17 18 17 18 18 18 18 17 17 16 15 15 15 19 21 22 -193 -193 30 33 31 33 -193 20 12 0 0 0 0 0 0 0 9 9 0 9 9 9 11 11 9 0 0 0 0 0 10 0 0 0 0 0 -177 -177 -177 0 0 0 0 0 0 0 0 0 0 0 0 0 -177 9 11 10 11 10 9 9 10 9 0 0 0 0 0 0 0 0 0 0 0 -177 -209 -209 -193 392 -193 11 11 10 9 10 10 10 10 10 0 9 9 0 0 -193 926 926 924 -193 0 9 18 -209 -209 26 27 26 26 24 22 19 17 16 16 14 15 13 14 13 11 12 12 11 13 17 14 18 15 15 17 18 18 17 15 17 12 16 16 13 13 16 16 17 18 17 16 18 19 14 14 14 13 12 14 14 14 20 25 27 31 35 35 37 36 36 35 37 36 37 36 36 35 36 38 40 -193 -177 40 40 39 40 40 39 35 40 40 44 42 44 44 44 45 45 45 45 43 44 43 43 43 43 42 -193 43 45 46 46 47 47 47 48 46 48 46 48 47 48 48 48 48 48 46 46 45 43 43 43 45 0 0 0 0 0
    0 0 0 0 0 0 0 0 0 0 0 0 0 0 0 0 0 0 0 0 0 0 0 0 0 0 0 0 0 0 0 0 0 0 0 0 0 0 0 0 0 0 0 0 0 0 0 0 0 0 0 0 0 0 0 0 0 0 0 0 0 0 0 0 0 0 0 0 0 13 15 13 16 18 16 18 18 18 19 17 18 18 18 18 19 22 24 -193 26 30 31 33 33 33 29 22 17 11 0 9 9 9 9 9 11 12 10 11 11 11 13 13 10 0 0 0 0 0 10 0 0 0 0 0 -177 -177 0 0 0 0 0 0 0 0 0 0 0 9 10 9 9 9 11 11 12 11 10 10 10 10 9 0 0 -193 -193 0 0 -193 0 0 0 -177 -209 -193 -193 392 -193 12 11 11 9 11 12 12 11 12 9 9 10 0 0 926 925 926 -177 -177 -193 11 21 25 26 28 30 28 27 25 23 21 18 17 16 14 15 13 14 13 12 12 12 11 13 16 14 18 15 14 16 19 18 17 15 17 13 16 17 15 14 17 17 18 18 17 17 18 17 14 15 14 13 13 14 14 14 21 25 27 31 35 35 37 37 36 35 38 36 37 36 37 36 37 39 40 -177 -177 40 40 39 40 40 39 35 40 40 44 42 44 44 44 44 45 45 45 43 44 43 43 43 43 42 -193 43 44 45 46 46 46 46 47 46 48 46 48 47 47 48 48 47 47 46 46 45 44 44 44 46 0 0 0 0 0
    0 0 0 0 0 0 0 0 0 0 0 0 0 0 0 0 0 0 0 0 0 0 0 0 0 0 0 0 0 0 0 0 0 0 0 0 0 0 0 0 0 0 0 0 0 0 0 0 0 0 0 0 0 0 0 0 0 0 0 0 0 0 0 0 0 0 0 0 0 15 15 13 16 19 16 18 19 19 19 19 20 20 20 21 23 24 28 29 29 33 34 36 34 34 28 21 17 14 11 11 10 10 10 11 13 15 12 12 14 12 13 13 10 0 0 0 0 0 10 0 9 0 0 0 -177 0 0 0 0 0 0 0 0 0 0 0 0 9 11 10 10 10 11 12 13 12 10 11 12 13 12 10 25 -209 -193 27 -209 -209 -193 -193 -193 -177 -193 -193 -193 -177 -193 12 13 14 11 14 20 19 17 15 10 9 10 0 0 -193 925 -177 -177 -193 11 15 23 27 28 30 31 30 29 26 25 22 18 17 16 14 15 13 14 13 12 12 12 11 13 16 14 18 15 14 16 19 18 16 15 17 13 16 18 16 14 18 18 19 19 18 18 19 17 14 16 15 13 13 15 15 14 21 25 27 32 36 35 37 37 36 36 38 -193 37 37 38 37 38 39 -193 -177 -177 40 40 39 40 40 39 35 40 40 44 42 44 44 44 44 45 45 46 43 44 43 43 43 43 42 -193 43 44 45 45 45 45 46 47 46 48 46 48 47 47 47 47 47 47 46 47 45 45 45 45 48 0 0 0 0 0
    0 0 0 0 0 0 0 0 0 0 0 0 0 0 0 0 0 0 0 0 0 0 0 0 0 0 0 0 0 0 0 0 0 0 0 0 0 0 0 0 0 0 0 0 0 0 0 0 0 0 0 0 0 0 0 0 0 0 0 0 0 0 0 0 0 0 0 0 0 16 16 13 16 19 16 18 19 19 20 20 21 21 21 23 25 26 30 31 30 33 35 36 34 35 29 18 15 16 12 12 11 12 12 14 17 20 15 16 22 18 19 18 19 10 0 0 0 0 9 9 9 0 9 9 -177 -177 0 0 0 0 0 0 0 0 0 0 0 10 12 10 10 11 12 12 14 13 11 11 15 18 18 21 28 29 29 30 29 29 -177 -177 -177 -193 -209 -209 -209 -193 -193 14 18 19 16 21 25 24 23 19 12 9 10 0 0 -193 925 926 -193 -193 13 19 25 28 29 31 32 31 32 28 26 22 19 18 17 14 14 13 14 13 12 12 12 11 14 15 14 18 15 14 16 19 17 16 16 17 13 17 19 18 15 19 19 19 20 19 18 19 16 14 17 15 -193 -193 -193 15 14 21 25 26 32 35 35 37 37 36 36 38 -193 37 37 38 37 38 39 -193 -177 -177 40 41 40 40 40 39 36 41 41 45 42 44 44 44 44 45 45 46 43 44 44 44 44 43 43 -193 43 43 44 44 45 45 45 46 46 47 46 48 47 47 47 47 47 47 46 47 46 46 47 46 49 0 0 0 0 0
    0 0 0 0 0 0 0 0 0 0 0 0 0 0 0 0 0 0 0 0 0 0 0 0 0 0 0 0 0 0 0 0 0 0 0 0 0 0 0 0 0 0 0 0 0 0 0 0 0 0 0 0 0 0 0 0 0 0 0 0 0 0 0 0 0 0 0 0 0 16 17 13 16 20 16 18 20 20 20 21 22 23 22 25 27 27 30 31 30 33 35 35 35 36 31 -193 23 23 14 14 14 16 15 19 20 23 19 20 24 23 23 23 25 25 12 -193 0 0 9 9 10 9 10 11 10 -193 -209 -193 0 0 0 0 0 0 0 0 0 14 19 13 14 14 16 17 18 18 14 14 22 23 24 25 31 32 31 32 31 30 -193 -177 -177 -193 -209 -209 -209 -193 -193 16 20 22 21 24 26 26 -193 21 14 -193 10 0 0 0 -193 -193 -193 13 17 21 26 29 30 31 33 32 33 30 28 23 20 18 17 14 14 13 13 13 13 12 12 11 15 15 14 18 15 13 16 19 17 16 16 18 14 17 19 19 16 20 20 20 20 19 19 19 15 14 17 15 -193 -193 -193 17 16 22 25 26 32 35 35 37 37 36 36 38 -193 37 37 38 37 38 39 40 -177 -177 40 -193 -193 40 40 39 37 41 41 45 42 44 44 45 44 45 45 46 44 45 44 44 44 44 43 -193 -193 43 44 44 44 44 44 45 45 47 45 47 47 47 47 47 46 47 46 48 46 47 48 47 50 0 0 0 0 0
    0 0 0 0 0 0 0 0 0 0 0 0 0 0 0 0 0 0 0 0 0 0 0 0 0 0 0 0 0 0 0 0 0 0 0 0 0 0 0 0 0 0 0 0 0 0 0 0 0 0 0 0 0 0 0 0 0 0 0 0 0 0 0 0 0 0 0 0 0 17 17 13 16 20 15 18 20 20 21 22 23 24 23 26 29 29 31 31 30 34 34 35 36 35 34 30 34 30 25 20 21 21 19 22 22 24 22 23 26 25 25 26 27 28 -193 -193 -193 9 15 11 15 14 12 16 -193 -193 -209 -209 -209 0 0 0 0 0 0 9 12 20 25 21 21 21 22 22 22 21 19 18 25 25 25 26 32 33 32 32 32 31 30 -193 -193 -209 -193 -193 9 11 15 18 23 25 24 26 28 27 26 -193 -193 9 11 0 0 9 9 10 13 18 22 23 26 29 30 32 33 33 34 32 31 -193 20 19 17 14 14 13 13 13 12 12 11 11 15 14 14 18 15 13 16 19 17 16 17 18 14 17 19 19 17 21 21 21 21 20 20 19 15 14 18 15 -177 -177 -193 20 19 25 26 27 32 35 34 37 36 36 36 38 -193 37 38 38 37 38 40 40 -193 -193 40 -193 -177 -193 40 40 38 41 42 45 42 44 44 44 44 45 45 47 44 45 44 45 44 44 -193 -193 43 43 43 43 44 -193 -193 -193 -193 46 44 47 46 47 47 46 46 48 46 48 47 47 48 48 50 0 0 0 0 0
    0 0 0 0 0 0 0 0 0 0 0 0 0 0 0 0 0 0 0 0 0 0 0 0 0 0 0 0 0 0 0 0 0 0 0 0 0 0 0 0 0 0 0 0 0 0 0 0 0 0 0 0 0 0 0 0 0 0 0 0 0 0 0 0 0 0 0 0 0 17 17 13 16 20 15 18 20 20 21 -193 24 25 25 28 30 30 32 32 30 34 35 34 35 34 33 32 35 30 26 23 22 24 22 24 24 25 24 24 28 27 28 28 29 30 27 29 30 14 -193 16 -193 -193 17 21 -193 -177 -193 -209 -209 9 9 8 0 0 0 11 23 24 28 27 26 26 26 26 26 25 24 22 26 27 27 27 34 33 33 33 33 32 32 30 29 26 -209 12 9 13 19 21 24 27 26 28 29 28 27 -193 -193 10 13 9 9 10 10 11 16 22 24 25 27 30 30 31 34 34 34 33 31 -193 20 20 18 15 14 13 13 14 12 12 11 11 15 14 14 18 14 13 16 19 17 15 17 17 14 17 19 20 17 22 22 21 22 21 21 21 15 15 -193 16 -177 -177 -193 21 21 26 27 27 32 34 33 36 36 36 36 38 37 37 38 38 38 -193 -193 -193 -193 -209 -193 41 -193 -193 41 41 39 42 42 45 42 44 44 44 44 45 45 47 45 46 44 45 44 44 -193 -193 43 43 43 43 -193 -193 -193 -193 -193 46 44 46 46 47 46 46 47 48 46 47 46 47 47 47 49 0 0 0 0 0
    0 0 0 0 0 0 0 0 0 0 0 0 0 0 0 0 0 0 0 0 0 0 0 0 0 0 0 0 0 0 0 0 0 0 0 0 0 0 0 0 0 0 0 0 0 0 0 0 0 0 0 0 0 0 0 0 0 0 0 0 0 0 0 0 0 0 0 0 0 18 18 14 17 21 15 19 21 21 22 -193 25 27 27 29 32 31 32 33 31 35 35 35 36 35 35 36 37 33 29 26 24 25 24 25 25 26 26 27 31 30 30 30 31 33 30 31 33 24 -209 22 -193 -209 22 26 -209 -177 -193 -209 -209 0 0 0 0 0 0 12 26 26 31 31 29 29 29 28 29 27 27 25 28 29 29 29 35 34 33 34 34 33 33 32 32 28 27 24 -193 20 24 24 26 30 28 29 30 28 27 23 20 11 13 11 10 11 12 12 20 25 27 27 28 32 32 32 34 34 35 34 34 -193 21 20 18 15 14 14 12 15 12 12 11 11 16 14 14 18 14 13 16 19 16 15 18 18 14 17 19 21 18 22 22 22 23 21 21 21 15 16 -193 17 -177 -177 -193 22 22 26 27 27 32 33 33 36 35 36 36 38 37 37 38 39 38 -193 -193 -193 -193 -209 -193 42 -193 42 42 41 41 44 43 45 42 44 44 45 44 45 45 47 45 47 45 45 44 44 44 -193 43 43 43 43 -193 -193 -193 -193 -193 46 45 47 46 47 47 47 47 48 46 47 46 47 47 47 48 0 0 0 0 0
    0 0 0 0 0 0 0 0 0 0 0 0 0 0 0 0 0 0 0 0 0 0 0 0 0 0 0 0 0 0 0 0 0 0 0 0 0 0 0 0 0 0 0 0 0 0 0 0 0 0 0 0 0 0 0 0 0 0 0 0 0 0 0 0 0 0 0 0 0 19 19 14 17 21 16 19 21 21 22 -193 26 29 29 30 33 32 34 35 33 36 36 36 37 36 36 37 38 35 31 28 26 26 27 27 27 28 28 29 33 32 32 32 33 34 32 34 36 -193 33 29 -193 -193 28 30 -193 -177 -209 -209 -209 0 0 0 0 0 0 12 26 26 33 34 32 32 31 31 31 29 29 27 30 31 31 32 36 35 34 34 34 33 34 34 33 30 31 28 29 27 28 28 29 33 30 31 31 29 28 23 20 11 13 12 11 12 12 14 23 27 29 29 29 33 33 32 34 35 35 35 36 28 -193 20 19 14 14 14 12 15 12 12 12 11 17 14 14 18 15 14 16 19 16 14 18 18 14 17 20 21 19 23 23 23 23 22 22 22 15 17 -193 17 -193 -177 21 22 22 26 27 26 31 33 32 35 34 35 36 37 37 37 38 38 38 39 -193 -193 -177 -193 -193 42 -193 42 42 42 41 45 44 45 42 44 44 45 44 44 44 47 45 47 45 45 44 44 45 -193 43 -193 -193 43 -193 -193 -193 -193 -193 45 45 47 47 47 47 48 49 50 48 49 48 49 48 49 49 0 0 0 0 0
    0 0 0 0 0 0 0 0 0 0 0 0 0 0 0 0 0 0 0 0 0 0 0 0 0 0 0 0 0 0 0 0 0 0 0 0 0 0 0 0 0 0 0 0 0 0 0 0 0 0 0 0 0 0 0 0 0 0 0 0 0 0 0 0 0 0 0 0 0 19 19 15 18 21 16 20 -193 22 23 27 27 31 31 32 34 34 35 36 34 38 37 37 38 38 38 39 39 36 33 28 26 28 28 28 29 29 29 31 34 33 34 33 34 34 34 36 36 25 35 36 39 -193 35 36 -193 -193 -209 -193 -193 -193 0 0 0 0 -209 13 -193 28 34 36 35 34 34 34 34 31 31 29 31 32 33 33 36 35 34 35 35 34 34 34 35 32 34 33 33 32 34 32 32 36 32 33 33 31 29 24 21 12 14 13 12 12 13 16 25 30 30 31 30 33 34 33 34 35 35 36 37 31 -209 -193 20 15 14 14 12 15 12 13 12 12 18 14 14 18 15 14 16 19 16 14 18 18 15 17 20 21 19 23 23 23 24 23 22 22 16 17 20 17 -193 -177 21 22 22 26 27 26 31 32 32 35 34 34 36 37 37 37 38 38 38 39 40 -193 -193 -193 40 42 42 42 43 42 42 45 44 45 42 44 44 44 44 45 44 48 45 47 45 46 45 45 45 -193 44 -193 -193 43 -193 -193 321 -193 -193 45 45 47 47 48 48 48 50 50 49 50 49 50 49 49 50 0 0 0 0 0
    0 0 0 0 0 0 0 0 0 0 0 0 0 0 0 0 0 0 0 0 0 0 0 0 0 0 0 0 0 0 0 0 0 0 0 0 0 0 0 0 0 0 0 0 0 0 0 0 0 0 0 0 0 0 0 0 0 0 0 0 0 0 0 0 0 0 0 0 0 20 20 16 20 22 17 21 -193 23 24 30 29 32 32 33 35 34 36 36 35 39 39 38 39 39 39 40 40 37 33 27 26 28 28 28 29 30 30 32 34 34 34 34 34 35 35 37 36 25 38 38 40 40 38 38 -193 -193 -209 -177 -177 -193 0 0 0 0 -209 -193 -193 -193 35 37 36 36 35 35 35 33 32 31 31 33 34 34 36 35 34 35 35 35 34 35 35 33 36 37 36 37 38 37 36 38 35 35 35 32 30 -193 20 11 14 14 -193 -193 13 19 28 32 31 32 31 34 34 33 34 35 36 37 38 35 -209 -209 21 15 14 14 12 16 12 13 13 12 18 15 15 18 15 15 16 19 17 15 18 18 15 18 20 22 20 24 -193 24 24 23 23 23 16 18 20 18 18 -193 21 -193 22 26 27 26 31 32 32 35 34 34 35 36 37 36 38 38 38 39 40 -193 -193 41 41 42 42 42 42 41 41 44 44 45 42 44 44 45 -177 45 44 48 45 47 45 46 45 45 46 44 44 -193 -193 -193 -193 320 321 -193 -193 44 45 47 47 49 48 48 49 50 48 50 49 50 48 49 50 0 0 0 0 0
    0 0 0 0 0 0 0 0 0 0 0 0 0 0 0 0 0 0 0 0 0 0 0 0 0 0 0 0 0 0 0 0 0 0 0 0 0 0 0 0 0 0 0 0 0 0 0 0 0 0 0 0 0 0 0 0 0 0 0 0 0 0 0 0 0 0 0 0 0 20 20 18 21 22 18 21 -193 24 24 31 29 32 32 33 35 34 36 36 36 39 40 39 40 39 40 41 40 36 32 26 25 28 28 29 29 30 30 32 34 34 34 34 34 35 35 36 35 26 35 38 40 41 39 40 -209 -193 -209 -193 -193 -209 -193 0 0 0 -193 -193 -209 31 35 37 37 36 36 36 36 34 34 32 32 33 34 34 36 35 34 36 36 35 35 35 36 33 37 38 37 38 39 39 38 39 37 37 36 34 -193 -193 -193 -193 14 -193 13 -193 14 21 28 33 32 32 31 34 34 34 35 35 36 38 39 36 -193 -209 -209 15 15 14 12 16 12 14 13 13 18 15 15 18 15 15 17 19 17 15 19 18 15 18 20 22 20 24 -193 24 25 23 23 23 17 18 20 18 19 -193 21 -193 22 26 27 26 31 32 32 35 33 34 35 36 37 37 38 38 38 39 41 -193 40 41 41 41 41 41 42 40 41 42 43 44 43 45 45 45 45 46 45 48 45 46 45 45 45 45 45 44 44 -193 -193 44 44 -193 -193 -193 -193 45 47 47 47 51 48 48 49 50 48 49 49 50 48 49 50 0 0 0 0 0
    0 0 0 0 0 0 0 0 0 0 0 0 0 0 0 0 0 0 0 0 0 0 0 0 0 0 0 0 0 0 0 0 0 0 0 0 0 0 0 0 0 0 0 0 0 0 0 0 0 0 0 0 0 0 0 0 0 0 0 0 0 0 0 0 0 0 0 0 0 21 21 20 22 23 20 23 -193 26 26 33 30 33 33 34 35 35 35 36 36 38 39 38 39 38 39 40 39 34 30 25 25 27 28 29 29 30 31 33 34 34 34 34 35 36 37 37 35 29 37 39 40 40 39 40 -193 -209 -209 -209 -209 -209 0 0 0 0 -193 -193 -209 31 34 37 36 36 35 36 35 34 34 33 33 34 34 34 37 36 34 36 36 35 35 36 36 34 37 39 38 39 40 40 39 40 39 38 -193 -193 -177 -177 -193 -209 15 16 14 15 15 21 28 33 32 31 31 34 34 34 35 36 36 38 40 38 38 33 -209 17 17 15 12 17 12 14 13 13 19 15 15 19 16 16 17 19 17 15 19 18 15 17 20 22 20 24 -193 24 25 24 23 23 18 19 20 18 19 -193 22 -193 23 26 28 27 31 33 31 35 32 33 35 36 36 36 38 38 38 39 41 40 40 41 41 41 41 41 41 39 40 41 42 43 43 44 45 45 45 46 44 47 45 45 44 44 44 45 45 45 44 -193 45 45 45 45 46 46 46 45 49 47 47 51 48 48 49 49 48 49 49 50 47 49 51 0 0 0 0 0
    0 0 0 0 0 0 0 0 0 0 0 0 0 0 0 0 0 0 0 0 0 0 0 0 0 0 0 0 0 0 0 0 0 0 0 0 0 0 0 0 0 0 0 0 0 0 0 0 0 0 0 0 0 0 0 0 0 0 0 0 0 0 0 0 0 0 0 0 0 23 23 24 25 27 24 26 30 29 28 35 32 34 34 35 36 36 36 37 37 39 39 39 38 37 37 38 36 29 28 25 25 27 28 30 30 30 32 33 34 34 34 35 35 37 38 38 37 39 -209 -209 40 40 40 41 -209 -209 -209 -177 -193 -209 0 0 0 0 -209 -193 -193 32 35 37 36 36 36 36 35 34 34 34 33 34 35 35 37 36 35 36 37 36 36 36 37 35 37 39 38 39 39 41 40 40 39 38 -193 -193 -193 -193 -193 -193 15 -193 15 16 15 22 29 34 33 33 33 35 35 35 35 36 36 38 39 38 39 36 -209 18 19 16 13 18 12 14 13 13 19 15 15 19 15 16 17 19 17 15 19 18 15 17 20 22 20 24 -193 25 26 24 24 24 19 20 21 19 20 21 22 -193 -193 27 29 27 32 33 32 35 32 32 35 36 36 36 37 38 38 39 41 41 40 41 41 41 41 41 41 38 39 40 42 42 43 44 44 45 44 45 44 46 44 44 44 44 44 44 45 45 45 45 45 45 46 46 46 46 47 45 50 47 47 51 48 48 49 49 48 48 49 49 47 50 51 0 0 0 0 0
    0 0 0 0 0 0 0 0 0 0 0 0 0 0 0 0 0 0 0 0 0 0 0 0 0 0 0 0 0 0 0 0 0 0 0 0 0 0 0 0 0 0 0 0 0 0 0 0 0 0 0 0 0 0 0 0 0 0 0 0 0 0 0 0 0 0 0 0 0 37 33 34 36 35 33 34 36 35 33 37 34 35 35 36 36 37 36 38 37 39 39 39 37 37 36 37 33 27 27 23 24 28 29 31 30 31 33 33 34 34 34 35 35 37 39 38 38 39 39 40 39 40 41 41 -193 -209 -209 -177 -209 -209 -193 0 0 0 -209 -193 32 34 35 37 36 36 36 36 35 35 34 35 34 36 38 37 38 37 35 37 37 37 36 36 37 35 38 40 39 39 39 41 40 39 39 39 -193 -193 -193 -193 -193 768 -193 -193 -193 17 -193 23 30 35 34 34 34 36 35 35 36 37 37 38 38 38 39 37 39 -193 22 19 14 20 13 18 15 15 20 16 16 20 16 17 18 20 18 16 19 19 15 17 21 23 21 25 25 26 27 26 25 25 19 21 22 19 20 20 22 24 24 27 29 28 31 33 32 35 31 31 33 35 35 36 37 37 38 39 42 41 41 42 42 42 42 41 41 38 39 40 41 42 43 44 44 44 44 45 44 45 43 43 43 43 43 44 44 45 44 45 46 46 46 46 46 46 47 46 51 48 47 52 48 48 49 48 48 48 49 49 46 50 51 0 0 0 0 0
    0 0 0 0 0 0 0 0 0 0 0 0 0 0 0 0 0 0 0 0 0 0 0 0 0 0 0 0 0 0 0 0 0 0 0 0 0 0 0 0 0 0 0 0 0 0 0 0 0 0 0 0 0 0 0 0 0 0 0 0 0 0 0 0 0 0 0 0 0 38 35 35 37 37 35 36 37 37 34 37 35 35 35 36 36 37 37 38 37 39 39 39 38 38 37 38 35 29 29 25 25 30 30 32 31 32 33 33 34 34 34 35 34 36 38 37 38 39 39 39 39 41 42 42 46 -209 -193 -193 -209 -209 -209 -209 -209 -209 -209 -209 36 37 37 38 37 37 37 37 37 37 36 38 37 39 39 39 39 38 37 38 37 37 36 36 37 35 38 39 38 38 38 40 39 39 39 39 39 39 -193 765 766 768 -193 -193 -193 -193 -193 25 33 35 35 35 35 36 36 36 36 37 37 38 38 39 40 39 41 42 28 22 17 22 18 23 19 19 22 19 19 21 18 18 19 20 19 17 20 19 16 18 22 25 22 26 27 28 28 28 26 26 21 22 22 19 20 19 21 23 21 25 28 27 31 34 33 35 32 30 32 34 34 35 36 37 37 39 41 41 41 41 42 41 41 41 41 37 38 39 41 41 43 44 44 44 44 45 44 45 43 43 43 42 43 44 44 44 44 45 45 46 46 46 46 46 47 45 51 47 48 51 47 47 48 48 48 47 49 49 46 50 52 0 0 0 0 0
    0 0 0 0 0 0 0 0 0 0 0 0 0 0 0 0 0 0 0 0 0 0 0 0 0 0 0 0 0 0 0 0 0 0 0 0 0 0 0 0 0 0 0 0 0 0 0 0 0 0 0 0 0 0 0 0 0 0 0 0 0 0 0 0 0 0 0 0 0 36 33 34 36 37 36 37 38 37 35 37 35 35 34 36 36 37 37 38 38 39 39 39 38 38 37 38 34 29 30 25 27 31 31 32 31 32 33 33 33 34 33 34 33 35 38 37 37 39 38 39 40 43 45 44 48 48 52 -209 -209 -209 -209 -209 -209 -209 -209 -209 41 41 40 40 39 39 39 38 38 39 39 40 39 41 41 39 40 39 37 38 37 37 36 36 37 35 37 39 37 38 38 40 39 39 39 39 39 39 40 -209 766 768 -193 -193 -193 18 -193 25 35 36 35 35 36 37 36 36 36 37 37 39 39 39 41 41 42 43 39 36 23 28 32 31 33 27 31 -193 22 23 21 20 20 22 20 20 21 21 18 21 26 32 25 28 31 30 31 31 29 28 24 25 24 20 20 18 20 22 20 24 31 29 34 37 35 37 35 33 32 33 34 33 35 36 36 38 40 40 40 41 42 41 41 40 40 36 38 39 40 41 43 44 44 44 44 45 44 44 43 42 42 42 43 43 43 44 44 45 46 46 47 46 46 46 47 45 52 47 47 51 47 47 47 47 47 47 49 49 46 51 52 0 0 0 0 0
    0 0 0 0 0 0 0 0 0 0 0 0 0 0 0 0 0 0 0 0 0 0 0 0 0 0 0 0 0 0 0 0 0 0 0 0 0 0 0 0 0 0 0 0 0 0 0 0 0 0 0 0 0 0 0 0 0 0 0 0 0 0 0 0 0 0 0 0 0 34 32 34 36 37 36 37 38 38 36 36 36 35 35 36 37 37 37 38 38 39 39 39 38 38 37 39 33 29 33 27 28 33 32 33 32 32 33 32 32 33 33 34 32 35 38 36 37 39 39 40 42 45 49 47 51 51 53 -193 -209 -209 -209 -209 -209 -209 -193 -193 43 44 43 41 40 41 40 40 40 41 41 42 42 43 43 41 41 40 38 38 38 38 37 36 37 35 37 39 37 38 38 40 39 39 40 39 39 39 -193 -209 -209 -193 -209 -193 -193 -193 -193 26 36 36 35 36 36 37 36 37 37 38 38 40 39 40 41 42 42 43 40 40 30 36 38 37 37 37 38 40 39 37 30 28 27 31 30 32 33 36 36 -193 40 40 36 35 37 34 34 35 34 32 30 29 28 24 24 -193 23 28 30 35 38 35 36 38 37 37 36 33 32 34 33 32 34 36 36 38 40 40 40 41 42 41 41 40 39 34 37 38 40 39 43 44 44 44 44 45 44 44 43 42 42 42 42 43 43 -193 44 45 45 46 47 46 46 45 47 44 52 46 47 51 47 46 47 46 46 46 48 48 45 50 52 0 0 0 0 0
    0 0 0 0 0 0 0 0 0 0 0 0 0 0 0 0 0 0 0 0 0 0 0 0 0 0 0 0 0 0 0 0 0 0 0 0 0 0 0 0 0 0 0 0 0 0 0 0 0 0 0 0 0 0 0 0 0 0 0 0 0 0 0 0 0 0 0 0 0 34 32 34 35 36 36 37 38 38 37 37 37 35 35 37 37 38 37 38 38 38 39 38 37 37 34 36 31 28 33 29 29 34 32 34 32 33 33 32 32 33 33 35 32 37 38 37 38 40 40 42 44 47 52 50 53 53 54 55 53 52 -193 -193 51 52 51 50 45 49 47 43 43 44 42 42 42 43 43 43 44 45 44 42 42 42 40 39 38 38 37 36 37 35 37 39 37 38 38 40 39 39 40 39 39 39 -193 -193 -193 -209 -209 -193 18 -193 466 27 37 37 36 37 37 38 37 37 37 39 39 41 40 41 41 43 43 43 40 40 34 36 38 38 37 37 38 39 40 38 36 34 32 37 38 38 40 41 42 41 41 41 40 37 38 35 35 35 36 36 35 36 36 35 37 -193 -193 -193 40 39 39 37 37 38 37 37 36 35 33 35 34 33 34 36 36 38 41 40 40 41 42 40 39 39 38 32 36 37 40 39 43 44 44 44 44 45 44 43 43 42 42 41 42 43 42 -193 43 45 45 45 46 46 46 45 46 44 51 46 47 50 46 46 46 46 46 45 47 46 44 50 52 0 0 0 0 0
    0 0 0 0 0 0 0 0 0 0 0 0 0 0 0 0 0 0 0 0 0 0 0 0 0 0 0 0 0 0 0 0 0 0 0 0 0 0 0 0 0 0 0 0 0 0 0 0 0 0 0 0 0 0 0 0 0 0 0 0 0 0 0 0 0 0 0 0 0 37 35 35 36 36 36 37 38 39 38 37 37 37 37 38 38 39 36 38 38 37 37 37 33 34 31 35 30 28 34 31 32 35 34 35 32 34 34 33 33 34 34 36 34 38 39 38 39 41 42 44 46 48 53 50 53 53 54 54 53 51 53 48 51 52 51 51 47 51 50 45 47 48 45 45 44 45 45 45 45 47 44 43 44 44 41 40 39 39 37 37 37 36 37 38 37 37 36 39 37 38 38 38 38 38 38 -193 -193 -193 -209 -209 -209 -193 469 -193 38 39 38 38 39 39 37 38 38 40 39 41 41 41 41 43 43 42 40 39 36 36 37 38 37 37 37 38 39 38 37 36 34 38 38 38 40 40 -209 -209 38 41 -209 38 40 37 38 38 37 37 36 36 36 36 37 36 -193 -193 39 39 39 38 38 38 37 37 36 36 35 36 35 33 34 36 36 38 40 40 40 41 42 40 40 40 39 34 36 38 41 39 44 44 44 44 44 44 43 43 42 -193 41 -193 42 42 42 43 -193 45 45 46 46 46 45 44 46 43 50 45 48 49 46 46 46 45 46 45 47 46 44 50 51 0 0 0 0 0
    0 0 0 0 0 0 0 0 0 0 0 0 0 0 0 0 0 0 0 0 0 0 0 0 0 0 0 0 0 0 0 0 0 0 0 0 0 0 0 0 0 0 0 0 0 0 0 0 0 0 0 0 0 0 0 0 0 0 0 0 0 0 0 0 0 0 0 0 0 36 34 33 35 35 36 36 36 38 38 37 38 37 37 38 37 38 36 37 37 36 36 36 32 34 31 35 29 29 35 33 34 36 35 36 34 35 35 34 34 35 36 37 36 39 40 39 40 42 44 45 47 50 54 51 53 53 54 54 52 51 53 49 51 53 51 51 49 52 52 48 50 52 48 47 47 47 47 46 47 48 45 45 46 46 43 40 39 39 37 37 37 36 37 38 37 37 36 38 36 37 37 38 38 37 37 34 33 35 31 -193 -209 -209 470 -193 39 39 37 38 39 38 37 37 38 40 40 41 41 41 41 42 43 42 40 39 37 36 36 38 37 37 37 38 40 39 40 40 39 41 41 40 41 38 37 37 34 39 -209 38 -193 38 40 40 39 39 37 37 36 37 37 36 34 37 37 38 38 37 37 38 37 37 36 36 35 36 35 34 34 36 35 37 40 40 40 41 42 41 41 41 41 37 37 39 43 40 44 44 44 44 44 44 43 42 42 -193 41 -193 42 42 42 44 -193 45 45 46 46 45 45 44 45 43 49 45 48 48 45 45 46 45 46 45 47 45 44 49 51 0 0 0 0 0
    0 0 0 0 0 0 0 0 0 0 0 0 0 0 0 0 0 0 0 0 0 0 0 0 0 0 0 0 0 0 0 0 0 0 0 0 0 0 0 0 0 0 0 0 0 0 0 0 0 0 0 0 0 0 0 0 0 0 0 0 0 0 0 0 0 0 0 0 0 33 32 31 34 33 35 35 36 -193 38 37 38 37 37 38 38 38 37 38 38 37 37 37 34 36 34 36 31 32 35 35 35 37 36 36 35 36 36 36 36 37 37 38 37 40 40 40 41 43 45 46 48 51 54 53 53 53 54 54 52 51 53 50 51 53 52 52 50 52 53 50 52 53 50 50 50 50 50 48 49 50 45 45 47 47 42 39 38 39 36 36 36 35 36 37 37 36 36 38 37 37 38 38 38 38 38 36 36 37 36 33 29 -193 -193 36 39 39 37 40 40 40 38 38 39 40 40 41 41 41 40 41 42 42 39 38 37 37 37 38 38 38 38 38 40 39 40 40 40 41 41 40 42 -193 -193 37 36 39 -209 -209 43 38 40 40 40 39 37 37 37 37 38 -193 -193 -193 38 38 38 37 37 37 37 37 37 36 35 36 36 34 34 36 34 36 40 41 41 41 42 41 41 42 42 41 40 41 46 42 45 45 45 45 44 45 44 43 43 41 41 42 42 43 42 44 -193 45 45 46 46 45 45 44 46 43 49 45 48 48 45 45 46 45 46 44 47 44 44 48 50 0 0 0 0 0
    0 0 0 0 0 0 0 0 0 0 0 0 0 0 0 0 0 0 0 0 0 0 0 0 0 0 0 0 0 0 0 0 0 0 0 0 0 0 0 0 0 0 0 0 0 0 0 0 0 0 0 0 0 0 0 0 0 0 0 0 0 0 0 0 0 0 0 0 0 32 31 30 33 31 34 34 35 -193 38 37 38 37 37 38 38 38 37 38 38 37 36 36 35 37 36 37 33 35 38 37 36 37 36 36 36 37 36 37 37 38 39 40 39 40 42 41 42 43 46 46 50 52 54 53 53 53 53 53 52 51 53 50 51 53 52 52 51 53 53 51 52 54 52 51 52 52 52 49 51 51 45 46 47 47 43 40 39 39 35 35 34 36 35 37 37 36 36 38 38 39 39 40 40 40 41 40 40 40 40 39 37 38 -209 38 40 38 38 40 40 40 39 37 39 41 41 41 41 41 40 41 41 41 39 38 37 37 37 38 38 38 37 37 38 38 38 39 40 40 39 39 40 -193 37 38 35 37 -209 -209 -209 -209 41 41 41 40 39 38 37 37 39 -193 -193 -193 -193 38 38 36 36 37 37 38 37 36 34 36 36 34 35 35 33 35 39 41 41 41 42 42 42 42 43 42 41 44 48 43 46 46 45 45 45 45 44 43 43 42 42 42 42 -193 42 43 -193 44 45 46 46 45 45 45 46 44 48 45 48 47 45 45 46 45 46 44 46 44 44 48 49 0 0 0 0 0
    0 0 0 0 0 0 0 0 0 0 0 0 0 0 0 0 0 0 0 0 0 0 0 0 0 0 0 0 0 0 0 0 0 0 0 0 0 0 0 0 0 0 0 0 0 0 0 0 0 0 0 0 0 0 0 0 0 0 0 0 0 0 0 0 0 0 0 0 0 31 30 29 31 29 32 32 34 36 38 37 38 38 38 38 38 38 37 38 38 36 35 36 34 37 36 37 33 36 37 37 36 37 34 36 36 36 36 36 36 38 41 42 41 42 43 42 44 45 49 48 53 54 55 54 53 54 53 53 52 52 53 51 52 54 53 53 52 53 53 51 52 54 52 51 52 52 52 50 51 52 45 45 46 47 44 -193 -193 -193 33 34 34 36 35 37 38 37 37 39 40 40 41 42 42 41 42 42 42 41 41 40 39 40 -209 40 40 37 37 39 40 40 38 37 38 40 41 41 41 41 40 41 42 41 39 38 37 36 36 37 37 37 37 36 36 34 35 36 38 38 36 37 37 37 38 38 36 36 37 42 -209 -209 43 -209 -209 -209 39 38 37 37 38 -193 -193 -193 -193 39 40 37 37 38 39 39 40 38 36 37 37 35 34 35 34 33 39 41 41 41 42 42 41 42 43 42 42 45 48 43 47 46 46 45 45 45 44 43 43 42 42 42 42 -193 42 43 43 44 45 46 46 46 45 45 46 44 48 44 48 47 45 45 46 45 46 44 46 43 44 47 48 0 0 0 0 0
    0 0 0 0 0 0 0 0 0 0 0 0 0 0 0 0 0 0 0 0 0 0 0 0 0 0 0 0 0 0 0 0 0 0 0 0 0 0 0 0 0 0 0 0 0 0 0 0 0 0 0 0 0 0 0 0 0 0 0 0 0 0 0 0 0 0 0 0 0 32 31 30 32 28 32 32 33 36 37 37 38 39 38 39 39 39 37 38 38 36 34 35 33 36 35 36 31 35 37 37 36 36 34 35 36 36 35 36 36 39 50 45 44 45 45 44 46 48 51 51 55 55 56 54 53 54 54 54 52 52 54 51 53 55 53 53 53 54 54 52 53 54 52 52 52 52 52 50 51 51 45 46 46 47 44 -193 -193 35 31 33 32 35 35 38 39 38 39 41 42 41 42 43 42 41 43 42 42 41 41 39 38 40 -193 39 40 36 36 38 40 40 38 36 38 41 41 41 41 41 40 41 42 41 38 36 37 35 34 36 36 36 36 36 34 32 33 35 36 36 35 36 35 36 38 39 37 36 37 42 -193 -209 -193 -209 -209 -209 -209 -193 -193 -193 -209 -193 -209 -193 -193 -193 42 40 39 40 41 41 41 40 39 39 39 39 36 36 34 34 39 41 41 41 42 41 41 42 43 43 42 45 48 43 47 46 46 45 45 45 44 43 44 42 42 42 42 43 42 43 44 45 46 47 47 46 46 45 46 44 48 45 48 47 46 46 46 45 46 45 46 43 44 47 48 0 0 0 0 0
    0 0 0 0 0 0 0 0 0 0 0 0 0 0 0 0 0 0 0 0 0 0 0 0 0 0 0 0 0 0 0 0 0 0 0 0 0 0 0 0 0 0 0 0 0 0 0 0 0 0 0 0 0 0 0 0 0 0 0 0 0 0 0 0 0 0 0 0 0 35 34 33 36 31 34 33 35 36 38 38 39 39 38 39 39 39 37 38 37 35 33 34 32 36 35 36 30 35 36 37 35 36 33 34 35 36 34 35 36 40 54 49 47 48 47 46 48 50 53 52 55 57 57 55 54 55 55 54 53 53 54 52 53 55 54 54 53 54 54 53 54 55 53 53 53 53 53 50 52 52 46 47 47 47 45 -193 -193 34 30 32 30 34 35 37 40 38 39 -193 -193 42 43 44 43 42 43 43 43 42 41 40 38 41 40 40 40 36 36 39 40 39 38 36 38 41 42 41 41 41 40 40 41 41 38 36 37 35 34 36 36 36 36 36 34 32 33 34 36 35 34 35 35 36 38 39 38 36 37 43 48 -209 -193 -209 -209 -193 -193 -209 -193 -193 -209 -193 -209 -193 -209 -193 43 41 40 40 43 43 43 41 42 42 39 40 37 35 36 34 39 42 41 42 43 42 42 42 43 43 42 46 48 44 47 46 46 45 45 45 45 44 44 42 42 42 43 44 43 44 44 46 47 48 47 47 46 45 46 44 47 45 48 47 46 46 46 45 46 45 47 44 45 47 47 0 0 0 0 0
    0 0 0 0 0 0 0 0 0 0 0 0 0 0 0 0 0 0 0 0 0 0 0 0 0 0 0 0 0 0 0 0 0 0 0 0 0 0 0 0 0 0 0 0 0 0 0 0 0 0 0 0 0 0 0 0 0 0 0 0 0 0 0 0 0 0 0 0 0 36 35 34 38 34 36 35 35 37 38 38 38 39 38 39 39 39 37 39 37 36 33 35 33 36 35 36 29 35 36 38 34 34 32 33 35 36 33 36 37 42 55 51 49 49 48 47 50 52 53 53 54 56 56 56 54 55 54 54 53 54 55 53 54 56 55 54 53 55 55 53 54 55 53 53 53 53 54 51 52 52 46 48 48 48 45 37 36 34 30 33 30 34 35 -193 40 38 39 -193 -193 42 43 44 44 43 45 44 44 42 42 41 40 41 41 41 42 37 37 39 40 38 38 34 37 41 41 40 40 40 40 39 41 41 37 34 37 36 34 36 36 36 36 36 34 31 32 33 35 35 34 35 34 37 39 42 -209 -193 -209 -193 -193 -209 -209 -209 -209 -209 -193 -209 -177 -193 -209 32 -209 -193 -193 43 45 44 43 42 45 46 46 43 44 44 43 42 40 37 38 34 39 43 42 42 43 42 42 43 44 44 42 46 48 44 47 46 45 45 45 44 44 44 44 43 43 43 44 46 45 45 46 47 48 50 49 48 47 46 46 45 47 45 48 46 46 46 46 45 46 45 47 44 46 48 47 0 0 0 0 0
    0 0 0 0 0 0 0 0 0 0 0 0 0 0 0 0 0 0 0 0 0 0 0 0 0 0 0 0 0 0 0 0 0 0 0 0 0 0 0 0 0 0 0 0 0 0 0 0 0 0 0 0 0 0 0 0 0 0 0 0 0 0 0 0 0 0 0 0 0 35 35 34 39 36 37 35 35 36 36 36 37 37 36 38 39 39 37 39 37 36 33 36 34 37 36 38 29 38 38 41 36 36 31 34 37 39 -193 39 -193 44 -193 51 49 49 48 47 50 52 53 51 53 55 55 55 54 54 54 54 54 55 55 55 54 56 55 55 54 55 55 54 54 55 54 53 53 54 55 52 53 53 48 50 50 49 44 36 36 34 30 32 -193 -193 -193 -209 -209 37 40 42 44 42 44 45 45 44 46 45 45 43 43 41 40 42 42 42 43 38 40 41 42 39 39 34 37 40 41 40 40 40 39 39 41 40 36 33 36 35 33 35 35 35 35 36 32 31 31 32 34 34 33 33 -193 37 -209 -209 -209 -209 -209 54 56 57 -193 -209 52 -209 -193 -209 -193 -193 -209 33 -209 -193 43 44 46 46 46 44 48 49 49 44 46 47 45 46 -209 -193 40 36 40 48 44 44 44 44 44 44 45 46 43 47 48 44 47 45 45 44 45 44 44 43 44 42 42 43 44 45 45 45 46 46 48 50 49 49 48 47 47 45 48 45 48 46 46 46 46 45 46 46 48 45 48 49 48 0 0 0 0 0
    0 0 0 0 0 0 0 0 0 0 0 0 0 0 0 0 0 0 0 0 0 0 0 0 0 0 0 0 0 0 0 0 0 0 0 0 0 0 0 0 0 0 0 0 0 0 0 0 0 0 0 0 0 0 0 0 0 0 0 0 0 0 0 0 0 0 0 0 0 33 33 31 37 32 35 34 34 34 35 34 33 34 33 -209 -209 -209 -193 39 37 37 35 37 36 38 38 39 -209 41 41 43 39 37 -193 37 -209 -209 -209 -209 -209 -209 -209 52 49 49 47 47 50 52 53 51 53 55 55 57 55 55 54 54 54 55 56 56 54 57 56 56 56 56 56 55 54 56 55 54 54 55 56 52 53 54 50 50 50 49 44 36 -193 34 30 32 -193 -193 -209 -193 -209 -209 41 43 46 44 46 47 47 46 48 46 46 43 44 42 41 42 42 42 44 -209 -209 -193 43 -193 -193 34 37 40 41 40 40 39 39 39 40 40 36 33 37 36 34 35 36 36 36 37 32 31 31 32 35 34 34 34 33 38 -209 -209 -193 -193 59 58 59 59 59 58 56 57 -193 52 -193 -209 -209 36 40 43 47 44 45 46 47 49 52 54 -209 -209 51 51 48 47 51 -209 42 37 40 48 44 45 46 44 44 45 47 48 45 50 50 45 48 46 46 45 45 44 45 44 45 43 43 42 44 45 45 44 45 46 48 50 49 49 48 47 47 46 48 45 48 46 47 46 46 45 46 46 48 45 49 49 48 0 0 0 0 0
    0 0 0 0 0 0 0 0 0 0 0 0 0 0 0 0 0 0 0 0 0 0 0 0 0 0 0 0 0 0 0 0 0 0 0 0 0 0 0 0 0 0 0 0 0 0 0 0 0 0 0 0 0 0 0 0 0 0 0 0 0 0 0 0 0 0 0 0 0 33 35 34 -193 -209 -193 35 35 35 34 29 29 30 -209 -209 -193 79 -193 38 -193 36 35 37 37 38 37 39 -209 41 44 46 -209 -193 -209 -209 -193 -209 -209 -209 -225 -225 -225 52 49 50 48 47 50 52 52 50 53 54 54 57 56 56 55 55 55 56 56 56 54 56 56 56 56 56 57 55 55 56 56 55 55 56 57 52 54 54 51 50 50 49 45 -193 -209 -209 -193 33 -193 -193 -209 -209 -209 -209 43 45 49 46 48 48 48 47 50 47 47 44 45 43 42 44 44 43 44 0 -193 -193 -225 -225 -225 -225 36 38 -193 39 39 39 38 38 40 38 35 33 36 35 34 34 34 35 36 37 31 30 29 30 32 31 31 31 31 38 -193 -209 56 60 60 59 59 60 60 60 57 59 -193 57 -209 -209 -209 -209 46 53 -209 -209 -209 -209 -209 -209 56 -209 -209 55 57 57 -193 -193 -209 -209 -209 -209 39 48 44 46 47 45 45 45 47 49 47 51 50 45 47 45 46 44 45 44 45 45 46 45 45 44 45 47 46 44 46 46 50 51 51 51 49 48 48 47 49 46 49 47 47 47 47 46 46 46 49 47 51 50 50 0 0 0 0 0
    0 0 0 0 0 0 0 0 0 0 0 0 0 0 0 0 0 0 0 0 0 0 0 0 0 0 0 0 0 0 0 0 0 0 0 0 0 0 0 0 0 0 0 0 0 0 0 0 0 0 0 0 0 0 0 0 0 0 0 0 0 0 0 0 0 0 0 0 0 40 47 52 58 -209 61 -209 -209 -225 -209 -209 -209 -209 -209 -193 -209 -209 -209 -209 -193 -193 -225 -225 -225 -225 -225 -225 -225 -225 -225 -225 -225 -225 -225 -225 -225 -225 -225 -225 -225 -225 -225 -225 47 46 47 46 49 51 51 47 52 55 56 57 56 57 55 56 56 56 56 56 55 56 55 56 56 57 58 57 56 57 57 56 55 55 56 51 52 52 50 50 51 51 48 -209 -209 -209 -209 -193 -209 -209 -209 -193 -209 -209 44 46 50 45 -225 -225 48 48 50 48 48 45 48 44 44 46 -225 -225 -225 -225 -225 -225 -225 -225 -225 -225 -225 -225 -225 -225 -225 -225 36 36 -209 -209 28 28 31 30 30 29 29 32 33 35 28 28 29 29 -193 29 29 28 29 38 -209 -177 59 67 62 61 60 60 61 61 58 59 58 58 58 -209 -209 -209 52 54 59 -209 -209 -209 -209 -209 61 65 68 63 64 62 65 -209 -193 -193 -193 -209 -209 -193 48 50 50 49 47 47 48 49 49 51 50 45 45 44 44 43 43 43 44 43 45 43 48 47 48 51 49 45 47 48 51 53 52 53 51 49 50 48 51 48 50 48 49 49 49 47 48 47 50 49 53 52 51 0 0 0 0 0
    0 0 0 0 0 0 0 0 0 0 0 0 0 0 0 0 0 0 0 0 0 0 0 0 0 0 0 0 0 0 0 0 0 0 0 0 0 0 0 0 0 0 0 0 0 0 0 0 0 0 0 0 0 0 0 0 0 0 0 0 0 0 0 0 0 0 0 0 0 50 55 -193 -209 -193 -209 -193 -193 79 78 -193 -209 -209 71 -225 -225 -225 -225 -225 -225 -225 -225 -225 -225 -225 -225 -225 -225 -225 -225 -225 -225 -225 -225 -225 -225 -225 -225 -225 -225 -225 -225 -225 46 46 46 46 50 52 52 48 50 56 56 58 56 57 54 56 56 57 56 56 55 -193 55 57 57 58 58 57 57 58 56 54 52 53 55 50 51 51 50 50 52 52 50 -225 -225 -225 -225 -225 -225 -225 -225 -225 -225 -225 -225 -225 -225 -225 -225 -225 -225 -225 -225 -225 -225 -225 -225 -225 -225 -225 -225 -225 -225 -225 -225 -225 -225 -225 -225 -225 -225 -225 -225 -225 -225 -225 -225 -225 -209 -209 -209 -209 -209 -209 -193 -193 26 31 35 -225 -225 -225 -225 -225 -225 -225 28 27 28 38 -177 -177 62 68 63 61 61 60 60 61 59 61 59 60 61 63 65 -209 62 58 66 -209 -209 -209 -193 -209 68 69 71 71 69 69 69 -209 64 -209 54 -209 -209 -209 -193 -193 -193 55 -193 -209 -209 55 55 55 55 46 43 42 41 40 41 40 -193 -193 -209 -209 -209 -209 54 55 54 45 49 49 53 55 54 55 53 51 51 50 53 51 51 50 51 52 52 50 51 50 52 52 54 53 52 0 0 0 0 0
    0 0 0 0 0 0 0 0 0 0 0 0 0 0 0 0 0 0 0 0 0 0 0 0 0 0 0 0 0 0 0 0 0 0 0 0 0 0 0 0 0 0 0 0 0 0 0 0 0 0 0 0 0 0 0 0 0 0 0 0 0 0 0 0 0 0 0 0 0 52 55 -209 -209 122 -193 -193 -193 82 81 86 -209 -209 72 -225 -225 -225 -225 -225 -225 -225 -225 -225 -225 -225 -225 -225 -225 -225 -225 -225 -225 -225 -225 -225 -225 -225 -225 -225 -225 -225 -225 -225 -225 45 45 46 50 53 53 50 51 57 58 59 58 59 54 57 56 58 57 -193 55 -209 55 58 57 58 59 58 57 58 56 54 52 53 55 51 52 52 52 52 53 53 -225 -225 -225 -225 -225 -225 -225 -225 -225 -225 -225 -225 -225 -225 -225 -225 -225 -225 -225 -225 -225 -225 -225 -225 -225 -225 -225 -225 -225 -225 -225 -225 -225 -225 -225 -225 -225 -225 -225 -225 -225 -225 -225 -225 -225 -225 -225 -225 -225 -225 -225 -225 -225 -225 -225 -225 -225 -225 -225 -225 -225 -225 -225 -225 -225 -225 -225 -225 -225 -225 63 67 63 62 61 60 61 61 60 61 59 61 63 69 71 76 75 75 74 77 75 77 -193 -193 -209 -209 -209 75 75 75 74 75 72 -209 -209 69 -193 70 -193 70 74 70 75 75 74 70 71 -209 69 -209 -193 39 38 37 -193 -193 -209 -193 83 78 76 76 71 69 62 -209 56 54 56 58 58 58 58 56 55 53 55 54 53 53 54 54 56 55 57 54 56 56 57 54 54 0 0 0 0 0
    0 0 0 0 0 0 0 0 0 0 0 0 0 0 0 0 0 0 0 0 0 0 0 0 0 0 0 0 0 0 0 0 0 0 0 0 0 0 0 0 0 0 0 0 0 0 0 0 0 0 0 0 0 0 0 0 0 0 0 0 0 0 0 0 0 0 0 0 0 52 -193 -209 -209 -193 -209 -209 79 82 81 86 -209 -209 72 -225 -225 -225 -225 -225 -225 -225 -225 -225 -225 -225 -225 -225 -225 -225 -225 -225 -225 -225 -225 -225 -225 -225 -225 -225 -225 -225 -225 -225 -225 -225 44 45 50 54 54 53 50 58 59 60 60 62 -225 58 -225 -225 -225 -225 -225 -225 -225 59 -225 -225 -225 -225 -225 -225 -225 54 52 54 56 52 54 54 53 54 55 -225 -225 -225 -225 -225 -225 -225 -225 -225 -225 -225 -225 -225 -225 -225 -225 -225 -225 -225 -225 -225 -225 -225 -225 -225 -225 -225 -225 -225 -225 -225 -225 -225 -225 -225 -225 -225 -225 -225 -225 -225 -225 -225 -225 -225 -225 -225 -225 -225 -225 -225 -225 -225 -225 -225 -225 -225 -225 -225 -225 -225 -225 -225 -225 -225 -225 -225 -225 -225 -225 -225 -225 67 64 63 62 60 61 61 60 61 59 61 64 71 72 79 78 79 78 79 78 79 77 78 75 78 76 78 78 78 78 78 77 76 71 74 76 75 75 74 75 73 75 75 73 70 71 67 69 -209 -193 -193 -193 -193 -209 -209 -209 85 85 81 79 79 75 74 73 -193 60 56 58 59 59 57 60 59 56 54 57 -193 -209 57 59 57 61 62 67 62 61 59 60 55 -193 0 0 0 0 0
    0 0 0 0 0 0 0 0 0 0 0 0 0 0 0 0 0 0 0 0 0 0 0 0 0 0 0 0 0 0 0 0 0 0 0 0 0 0 0 0 0 0 0 0 0 0 0 0 0 0 0 0 0 0 0 0 0 0 0 0 0 0 0 0 0 0 0 0 0 -193 -209 -209 -209 -209 -209 -209 83 83 83 86 84 -209 -225 -225 -225 -225 -225 -225 -225 -225 -225 -225 -225 -225 -225 -225 -225 -225 -225 -225 -225 -225 -225 -225 -225 -225 -225 -225 -225 -225 -225 -225 -225 -225 -225 -225 52 55 55 54 49 57 58 -225 -225 -225 -225 -225 -225 -225 -225 -225 -225 -225 -225 -225 -225 -225 -225 -225 -225 -225 -225 -225 -225 55 58 55 56 56 56 57 -225 -225 -225 -225 -225 -225 -225 -225 -225 -225 -225 -225 -225 -225 -225 -225 -225 -225 -225 -225 -225 -225 -225 -225 -225 -225 -225 -225 -225 -225 -225 -225 -225 -225 -225 -225 -225 -225 -225 -225 -225 -225 -225 -225 -225 -225 -225 -225 -225 -225 -225 -225 -225 -225 -225 -225 -225 -225 -225 -225 -225 -225 -225 -225 -225 -225 -225 -225 -225 -225 -225 -225 -225 -225 64 63 62 61 61 61 60 61 59 61 65 71 72 79 79 80 79 80 79 79 78 80 77 80 78 79 80 81 81 82 80 78 75 78 79 77 78 77 76 75 76 76 74 71 72 70 71 -209 -193 -209 -193 -209 -209 -209 -209 85 84 82 81 82 76 76 77 77 -209 -209 -209 -209 -209 -209 -193 -209 -209 58 -209 -209 -209 -209 -209 59 66 68 71 71 68 62 66 59 60 0 0 0 0 0
    0 0 0 0 0 0 0 0 0 0 0 0 0 0 0 0 0 0 0 0 0 0 0 0 0 0 0 0 0 0 0 0 0 0 0 0 0 0 0 0 0 0 0 0 0 0 0 0 0 0 0 0 0 0 0 0 0 0 0 0 0 0 0 0 0 0 0 0 0 -209 -209 -209 -225 -225 87 88 84 -225 -225 -225 -225 -225 -225 -225 -225 -225 -225 -225 -225 -225 -225 -225 -225 -225 -225 -225 -225 -225 -225 -225 -225 -225 -225 -225 -225 -225 -225 -225 -225 -225 -225 -225 -225 -225 -225 -225 -225 -225 -225 -225 -225 -225 -225 -225 -225 -225 -225 -225 -225 -225 -225 -225 -225 -225 -225 -225 -225 -225 -225 -225 -225 -225 -225 -225 -225 -225 -225 -225 -225 -225 -225 -225 -225 -225 -225 -225 -225 -225 -225 -225 -225 -225 -225 -225 -225 -225 -225 -225 -225 -225 -225 -225 -225 -225 -225 -225 -225 -225 -225 -225 -225 -225 -225 -225 -225 -225 -225 -225 -225 -225 -225 -225 -225 -225 -225 -225 -225 -225 -225 -225 -225 -225 -225 -225 -225 -225 -225 -225 -225 -225 -225 -225 -225 -225 -225 -225 -225 -225 -225 -225 -225 -225 -225 -225 -225 -225 -225 62 62 61 61 62 61 62 60 62 66 72 73 79 79 80 79 80 79 79 78 81 -209 80 79 80 81 82 83 83 81 78 76 80 79 78 77 77 76 76 77 77 74 73 75 75 76 76 79 -193 -209 -209 -209 -193 -209 82 83 82 80 82 77 77 81 83 -209 -209 -209 -209 -209 -209 -209 -193 85 88 -209 -209 -209 -209 -209 58 66 67 69 70 68 65 67 64 68 0 0 0 0 0
    0 0 0 0 0 0 0 0 0 0 0 0 0 0 0 0 0 0 0 0 0 0 0 0 0 0 0 0 0 0 0 0 0 0 0 0 0 0 0 0 0 0 0 0 0 0 0 0 0 0 0 0 0 0 0 0 0 0 0 0 0 0 0 0 0 0 0 0 0 -209 -209 -209 -225 -225 86 88 84 -225 -225 -225 -225 -225 -225 -225 -225 -225 -225 -225 -225 -225 -225 -225 -225 -225 -225 -225 -225 -225 -225 -225 -225 -225 -225 -225 -225 -225 -225 -225 -225 -225 -225 -225 -225 -225 -225 -225 -225 -225 -225 -225 -225 -225 -225 -225 -225 -225 -225 -225 -225 -225 -225 -225 -225 -225 -225 -225 -225 -225 -225 -225 -225 -225 -225 -225 -225 -225 -225 -225 -225 -225 -225 -225 -225 -225 -225 -225 -225 -225 -225 -225 -225 -225 -225 -225 -225 -225 -225 -225 -225 -225 -225 -225 -225 -225 -225 -225 -225 -225 -225 -225 -225 -225 -225 -225 -225 -225 -225 -225 -225 -225 -225 -225 -225 -225 -225 -225 -225 -225 -225 -225 -225 -225 -225 -225 -225 -225 -225 -225 -225 -225 -225 -225 -225 -225 -225 -225 -225 -225 -225 -225 -225 -225 -225 -225 -225 -225 -225 -225 -225 61 62 64 63 66 63 66 68 76 74 81 79 81 80 80 79 80 79 81 78 81 79 80 81 82 82 83 80 77 76 80 79 77 77 76 76 75 77 76 74 73 77 78 80 79 82 83 84 85 -209 -193 -209 -193 81 79 78 80 76 77 83 85 83 -209 -209 -209 -209 -209 -209 86 87 89 90 90 86 -193 -209 58 68 67 69 69 68 67 68 69 72 0 0 0 0 0
    0 0 0 0 0 0 0 0 0 0 0 0 0 0 0 0 0 0 0 0 0 0 0 0 0 0 0 0 0 0 0 0 0 0 0 0 0 0 0 0 0 0 0 0 0 0 0 0 0 0 0 0 0 0 0 0 0 0 0 0 0 0 0 0 0 0 0 0 0 -209 -209 -225 -225 -225 86 88 84 -225 -225 -225 -225 -225 -225 -225 -225 -225 -225 -225 -225 -225 -225 -225 -225 -225 -225 -225 -225 -225 -225 -225 -225 -225 -225 -225 -225 -225 -225 -225 -225 -225 -225 -225 -225 -225 -225 -225 -225 -225 -225 -225 -225 -225 -225 -225 -225 -225 -225 -225 -225 -225 -225 -225 -225 -225 -225 -225 -225 -225 -225 -225 -225 -225 -225 -225 -225 -225 -225 -225 -225 -225 -225 -225 -225 -225 -225 -225 -225 -225 -225 -225 -225 -225 -225 -225 -225 -225 -225 -225 -225 -225 -225 -225 -225 -225 -225 -225 -225 -225 -225 -225 -225 -225 -225 -225 -225 -225 -225 -225 -225 -225 -225 -225 -225 -225 -225 -225 -225 -225 -225 -225 -225 -225 -225 -225 -225 -225 -225 -225 -225 -225 -225 -225 -225 -225 -225 -225 -225 -225 -225 -225 -225 -225 -225 -225 -225 -225 -225 -225 -225 -225 -225 -225 -225 -225 -225 -225 70 83 77 83 81 82 82 82 80 80 79 81 78 81 79 80 81 81 82 82 79 77 76 79 79 77 77 76 76 75 77 76 74 74 80 82 84 83 84 85 87 86 -193 -209 -209 -193 80 79 80 81 76 77 85 85 82 -209 -209 -209 -209 -209 -193 -193 -193 90 90 -193 86 88 -209 -209 70 70 71 71 69 69 69 70 72 0 0 0 0 0
    0 0 0 0 0 0 0 0 0 0 0 0 0 0 0 0 0 0 0 0 0 0 0 0 0 0 0 0 0 0 0 0 0 0 0 0 0 0 0 0 0 0 0 0 0 0 0 0 0 0 0 0 0 0 0 0 0 0 0 0 0 0 0 0 0 0 0 0 0 -193 -225 -225 -225 -225 -225 -193 85 -225 -225 -225 -225 -225 -225 -225 -225 -225 -225 -225 -225 -225 -225 -225 -225 -225 -225 -225 -225 -225 -225 -225 -225 -225 -225 -225 -225 -225 -225 -225 -225 -225 -225 -225 -225 -225 -225 -225 -225 -225 -225 -225 -225 -225 -225 -225 -225 -225 -225 -225 -225 -225 -225 -225 -225 -225 -225 -225 -225 -225 -225 -225 -225 -225 -225 -225 -225 -225 -225 -225 -225 -225 -225 -225 -225 -225 -225 -225 -225 -225 -225 -225 -225 -225 -225 -225 -225 -225 -225 -225 -225 -225 -225 -225 -225 -225 -225 -225 -225 -225 -225 -225 -225 -225 -225 -225 -225 -225 -225 -225 -225 -225 -225 -225 -225 -225 -225 -225 -225 -225 -225 -225 -225 -225 -225 -225 -225 -225 -225 -225 -225 -225 -225 -225 -225 -225 -225 -225 -225 -225 -225 -225 -225 -225 -225 -225 -225 -225 -225 -225 -225 -225 -225 -225 -225 -225 -225 -225 -225 -225 78 84 82 83 82 82 81 81 80 82 79 82 80 81 82 83 82 82 79 77 76 79 79 77 77 76 76 76 77 76 74 74 80 82 83 83 84 86 87 87 -193 -209 -193 -193 82 81 81 81 80 80 88 -209 -209 -209 -209 -209 -209 -193 91 -209 -193 91 92 -193 -193 -193 -193 -209 -209 -209 -209 77 -193 -193 -209 73 -209 0 0 0 0 0
    0 0 0 0 0 0 0 0 0 0 0 0 0 0 0 0 0 0 0 0 0 0 0 0 0 0 0 0 0 0 0 0 0 0 0 0 0 0 0 0 0 0 0 0 0 0 0 0 0 0 0 0 0 0 0 0 0 0 0 0 0 0 0 0 0 0 0 0 0 -225 -225 -225 -225 -225 -225 -225 -225 -225 -225 -225 -225 -225 -225 -225 -225 -225 -225 -225 -225 -225 -225 -225 -225 -225 -225 -225 -225 -225 -225 -225 -225 -225 -225 -225 -225 -225 -225 -225 -225 -225 -225 -225 -225 -225 -225 -225 -225 -225 -225 -225 -225 -225 -225 -225 -225 -225 -225 -225 -225 -225 -225 -225 -225 -225 -225 -225 -225 -225 -225 -225 -225 -225 -225 -225 -225 -225 -225 -225 -225 -225 -225 -225 -225 -225 -225 -225 -225 -225 -225 -225 -225 -225 -225 -225 -225 -225 -225 -225 -225 -225 -225 -225 -225 -225 -225 -225 -225 -225 -225 -225 -225 -225 -225 -225 -225 -225 -225 -225 -225 -225 -225 -225 -225 -225 -225 -225 -225 -225 -225 -225 -225 -225 -225 -225 -225 -225 -225 -225 -225 -225 -225 -225 -225 -225 -225 -225 -225 -225 -225 -225 -225 -225 -225 -225 -225 -225 -225 -225 -225 -225 -225 -225 -225 -225 -225 -225 -225 -225 -225 84 82 83 82 82 81 82 81 84 81 84 82 84 85 84 84 84 81 79 78 81 80 78 77 77 76 77 77 76 73 73 80 82 83 83 84 87 88 87 84 -209 -209 -209 -209 -193 -193 78 78 80 87 -209 84 -209 -193 91 90 91 92 -193 -193 91 -193 -209 -209 -209 -209 -209 -209 -209 -209 88 -209 -209 -209 -209 -209 0 0 0 0 0
    0 0 0 0 0 0 0 0 0 0 0 0 0 0 0 0 0 0 0 0 0 0 0 0 0 0 0 0 0 0 0 0 0 0 0 0 0 0 0 0 0 0 0 0 0 0 0 0 0 0 0 0 0 0 0 0 0 0 0 0 0 0 0 0 0 0 0 0 0 -225 -225 -225 -225 -225 -225 -225 -225 -225 -225 -225 -225 -225 -225 -225 -225 -225 -225 -225 -225 -225 -225 -225 -225 -225 -225 -225 -225 -225 -225 -225 -225 -225 -225 -225 -225 -225 -225 -225 -225 -225 -225 -225 -225 -225 -225 -225 -225 -225 -225 -225 -225 -225 -225 -225 -225 -225 -225 -225 -225 -225 -225 -225 -225 -225 -225 -225 -225 -225 -225 -225 -225 -225 -225 -225 -225 -225 -225 -225 -225 -225 -225 -225 -225 -225 -225 -225 -225 -225 -225 -225 -225 -225 -225 -225 -225 -225 -225 -225 -225 -225 -225 -225 -225 -225 -225 -225 -225 -225 -225 -225 -225 -225 -225 -225 -225 -225 -225 -225 -225 -225 -225 -225 -225 -225 -225 -225 -225 -225 -225 -225 -225 -225 -225 -225 -225 -225 -225 -225 -225 -225 -225 -225 -225 -225 -225 -225 -225 -225 -225 -225 -225 -225 -225 -225 -225 -225 -225 -225 -225 -225 -225 -225 -225 -225 -225 -225 -225 -225 -225 -225 -225 84 82 82 82 82 81 85 -225 85 83 85 85 84 85 85 80 78 77 81 80 79 79 78 77 78 78 77 72 72 81 83 84 85 85 89 90 89 85 -209 -209 -193 -209 -209 -209 -209 76 -209 -193 -193 85 87 90 92 92 92 93 91 90 92 -193 -193 -193 -209 -193 -209 -209 -193 -193 93 -193 -193 26 -209 -209 0 0 0 0 0
    0 0 0 0 0 0 0 0 0 0 0 0 0 0 0 0 0 0 0 0 0 0 0 0 0 0 0 0 0 0 0 0 0 0 0 0 0 0 0 0 0 0 0 0 0 0 0 0 0 0 0 0 0 0 0 0 0 0 0 0 0 0 0 0 0 0 0 0 0 -225 -225 -225 -225 -225 -225 -225 -225 -225 -225 -225 -225 -225 -225 -225 -225 -225 -225 -225 -225 -225 -225 -225 -225 -225 -225 -225 -225 -225 -225 -225 -225 -225 -225 -225 -225 -225 -225 -225 -225 -225 -225 -225 -225 -225 -225 -225 -225 -225 -225 -225 -225 -225 -225 -225 -225 -225 -225 -225 -225 -225 -225 -225 -225 -225 -225 -225 -225 -225 -225 -225 -225 -225 -225 -225 -225 -225 -225 -225 -225 -225 -225 -225 -225 -225 -225 -225 -225 -225 -225 -225 -225 -225 -225 -225 -225 -225 -225 -225 -225 -225 -225 -225 -225 -225 -225 -225 -225 -225 -225 -225 -225 -225 -225 -225 -225 -225 -225 -225 -225 -225 -225 -225 -225 -225 -225 -225 -225 -225 -225 -225 -225 -225 -225 -225 -225 -225 -225 -225 -225 -225 -225 -225 -225 -225 -225 -225 -225 -225 -225 -225 -225 -225 -225 -225 -225 -225 -225 -225 -225 -225 -225 -225 -225 -225 -225 -225 -225 -225 -225 -225 -225 -225 -225 -225 -225 -225 -225 -225 -225 -225 82 82 81 83 85 85 81 77 78 83 81 81 79 78 77 76 77 77 70 71 84 86 85 87 88 91 92 90 86 -209 -209 54 52 50 53 -193 -209 -209 -193 -193 87 88 89 92 92 93 94 93 92 93 94 94 94 92 94 95 94 -193 98 98 -193 -193 29 -209 -209 0 0 0 0 0
    0 0 0 0 0 0 0 0 0 0 0 0 0 0 0 0 0 0 0 0 0 0 0 0 0 0 0 0 0 0 0 0 0 0 0 0 0 0 0 0 0 0 0 0 0 0 0 0 0 0 0 0 0 0 0 0 0 0 0 0 0 0 0 0 0 0 0 0 0 -225 -225 -225 -225 -225 -225 -225 -225 -225 -225 -225 -225 -225 -225 -225 -225 -225 -225 -225 -225 -225 -225 -225 -225 -225 -225 -225 -225 -225 -225 -225 -225 -225 -225 -225 -225 -225 -225 -225 -225 -225 -225 -225 -225 -225 -225 -225 -225 -225 -225 -225 -225 -225 -225 -225 -225 -225 -225 -225 -225 -225 -225 -225 -225 -225 -225 -225 -225 -225 -225 -225 -225 -225 -225 -225 -225 -225 -225 -225 -225 -225 -225 -225 -225 -225 -225 -225 -225 -225 -225 -225 -225 -225 -225 -225 -225 -225 -225 -225 -225 -225 -225 -225 -225 -225 -225 -225 -225 -225 -225 -225 -225 -225 -225 -225 -225 -225 -225 -225 -225 -225 -225 -225 -225 -225 -225 -225 -225 -225 -225 -225 -225 -225 -225 -225 -225 -225 -225 -225 -225 -225 -225 -225 -225 -225 -225 -225 -225 -225 -225 -225 -225 -225 -225 -225 -225 -225 -225 -225 -225 -225 -225 -225 -225 -225 -225 -225 -225 -225 -225 -225 -225 -225 -225 -225 -225 -225 -225 -225 -225 -225 81 82 78 82 86 86 83 78 79 83 81 81 78 76 74 73 75 74 69 71 -209 88 87 88 89 91 92 90 86 -209 -209 -209 -193 50 -193 -193 -209 -209 -209 -193 -193 91 92 95 95 95 97 96 94 96 98 -193 -193 98 -193 99 99 -209 -209 100 -193 -193 30 -209 -209 0 0 0 0 0
    0 0 0 0 0 0 0 0 0 0 0 0 0 0 0 0 0 0 0 0 0 0 0 0 0 0 0 0 0 0 0 0 0 0 0 0 0 0 0 0 0 0 0 0 0 0 0 0 0 0 0 0 0 0 0 0 0 0 0 0 0 0 0 0 0 0 0 0 0 122 121 120 118 -225 -225 -225 -225 -225 -225 -225 -225 -225 -225 -225 -225 -225 -225 -225 -225 -225 -225 -225 -225 -225 -225 -225 -225 -225 -225 -225 -225 -225 -225 -225 -225 -225 -225 -225 -225 -225 -225 -225 -225 -225 -225 -225 -225 -225 -225 -225 -225 -225 -225 -225 -225 -225 -225 -225 -225 -225 -225 -225 -225 -225 -225 -225 -225 -225 -225 -225 -225 -225 -225 -225 -225 -225 -225 -225 -225 -225 -225 -225 -225 -225 -225 -225 -225 -225 -225 -225 -225 -225 -225 -225 -225 -225 -225 -225 -225 -225 -225 -225 -225 -225 -225 -225 -225 -225 -225 -225 -225 -225 -225 -225 -225 -225 -225 -225 -225 -225 -225 -225 -225 -225 -225 -225 -225 -225 -225 -225 -225 -225 -225 -225 -225 -225 -225 -225 -225 -225 -225 -225 -225 -225 -225 -225 -225 -225 -225 -225 -225 -225 -225 -225 -225 -225 -225 -225 -225 -225 -225 -225 -225 -225 -225 -225 -225 -225 -225 -225 -225 -225 -225 -225 -225 -225 -225 -225 -225 -225 -225 80 76 82 86 87 85 76 77 80 79 80 75 73 73 71 73 71 70 -209 -209 -193 86 87 88 89 91 88 85 -209 -209 -209 -209 -209 -209 -209 -209 -209 -193 -209 -209 -193 93 97 95 95 99 98 97 99 102 105 104 103 105 103 102 103 101 100 101 96 -209 -209 -209 0 0 0 0 0
    0 0 0 0 0 0 0 0 0 0 0 0 0 0 0 0 0 0 0 0 0 0 0 0 0 0 0 0 0 0 0 0 0 0 0 0 0 0 0 0 0 0 0 0 0 0 0 0 0 0 0 0 0 0 0 0 0 0 0 0 0 0 0 0 0 0 0 0 0 121 119 118 114 116 111 -193 -225 -225 -225 -225 -225 -225 -225 -225 -225 -225 -225 -225 -225 -225 -225 -225 -225 -225 -225 -225 -225 -225 -225 -225 -225 -225 -225 -225 -225 -225 -225 -225 -225 -225 -225 -225 -225 -225 -225 -225 -225 -225 -225 -225 -225 -225 -225 -225 -225 -225 -225 -225 -225 -225 -225 -225 -225 -225 -225 -225 -225 -225 -225 -225 -225 -225 -225 -225 -225 -225 -225 -225 -225 -225 -225 -225 -225 -225 -225 -225 -225 -225 -225 -225 -225 -225 -225 -225 -225 -225 -225 -225 -225 -225 -225 -225 -225 -225 -225 -225 -225 -225 -225 -225 -225 -225 -225 -225 -225 -225 -225 -225 -225 -225 -225 -225 -225 -225 -225 -225 -225 -225 -225 -225 -225 -225 -225 -225 -225 -225 -225 -225 -225 -225 -225 -225 -225 -225 -225 -225 -225 -225 -225 -225 -225 -225 -225 -225 -225 -225 -225 -225 -225 -225 -225 -225 -225 -225 -225 -225 -225 -225 -225 -225 -225 -225 -225 -225 -225 -225 -225 -225 -225 -225 -225 -209 -209 -209 -209 -209 -209 -209 77 75 78 79 75 72 72 68 73 -209 -209 -209 -209 -209 -193 88 89 89 92 -209 -209 -209 -209 107 110 -193 -209 -209 -209 -209 106 -209 -209 -193 92 97 -209 95 101 100 100 101 105 108 108 107 108 105 105 104 102 101 100 95 -193 -193 -209 0 0 0 0 0
    0 0 0 0 0 0 0 0 0 0 0 0 0 0 0 0 0 0 0 0 0 0 0 0 0 0 0 0 0 0 0 0 0 0 0 0 0 0 0 0 0 0 0 0 0 0 0 0 0 0 0 0 0 0 0 0 0 0 0 0 0 0 0 0 0 0 0 0 0 120 119 119 116 118 113 119 -209 137 139 138 138 139 140 141 -225 -225 -225 -225 -225 -225 137 137 137 138 137 139 138 138 138 137 137 137 136 -225 -225 -225 -225 -225 -225 -225 -225 -225 -225 -225 -225 -225 -225 -225 -225 -225 -225 -225 -225 -225 -225 -225 -225 -225 -225 -225 -225 -225 -225 -225 -225 -225 -225 -225 -225 -225 -225 -225 -225 -225 -225 -225 -225 -225 -225 -225 -225 -225 -225 -225 -225 -225 -225 -225 -225 -225 -225 -225 -225 -225 -225 -225 -225 -225 -225 -225 -225 -225 -225 -225 -225 -225 -225 -225 -225 -225 -225 -225 -225 -225 -225 -225 -225 -225 -225 -225 -225 -225 -225 -225 -225 -225 -225 -225 -225 -225 -225 -225 -225 -225 -225 -225 -225 -225 -225 -225 -225 -225 -225 -225 -225 -225 -225 -225 -225 -225 -225 -225 -225 -225 -225 -225 -225 -225 -225 -225 -225 -225 -225 -225 -225 -225 -225 -225 -225 -225 -225 -225 -225 -225 -225 -225 -225 -225 -225 -225 124 123 124 126 126 -193 -209 -209 -209 -209 83 82 77 74 74 71 74 -209 -209 -209 -209 -209 -209 -209 -209 111 -209 110 -209 -209 110 112 114 115 -193 -193 -193 110 110 108 -209 -209 97 103 101 103 105 106 -193 104 107 109 110 110 110 107 107 105 103 101 101 95 98 -193 -209 0 0 0 0 0
    0 0 0 0 0 0 0 0 0 0 0 0 0 0 0 0 0 0 0 0 0 0 0 0 0 0 0 0 0 0 0 0 0 0 0 0 0 0 0 0 0 0 0 0 0 0 0 0 0 0 0 0 0 0 0 0 0 0 0 0 0 0 0 0 0 0 0 0 0 121 120 120 118 121 119 124 135 139 140 138 138 139 140 140 -225 -225 -225 136 138 136 137 137 136 138 138 138 138 137 138 137 137 137 135 134 132 -225 -225 -225 -225 -225 -225 -225 -225 -225 -225 -225 -225 -225 -225 -225 -225 -225 -225 -225 -225 -225 -225 -225 -225 -225 -225 -225 -225 -225 -225 -225 -225 -225 -225 -225 -225 -225 -225 -225 -225 -225 -225 -225 -225 -225 -225 -225 -225 -225 -225 -225 -225 -225 -225 -225 -225 -225 -225 -225 -225 -225 -225 -225 -225 -225 -225 -225 -225 -225 -225 -225 -225 -225 -225 -225 -225 -225 -225 -225 -225 -225 -225 -225 -225 -225 -225 -225 -225 -225 -225 -225 -225 -225 -225 -225 -225 -225 -225 -225 -225 -225 -225 -225 -225 -225 -225 -225 -225 -225 -225 -225 -225 -225 -225 -225 -225 -225 -225 -225 -225 -225 -225 -225 -225 -225 -225 -225 -225 -209 -209 -209 -209 -193 -209 -209 -193 0 -193 -209 -209 -209 -209 -209 -225 -193 127 126 126 130 129 129 124 123 124 -209 -209 -209 -209 -209 -209 -209 -209 -209 -209 -209 -209 124 124 123 120 121 120 121 120 118 119 118 117 118 -193 -193 -193 -193 115 114 -193 -209 -209 -209 -209 116 117 115 111 110 112 114 114 113 113 107 107 103 101 99 100 95 98 97 -209 0 0 0 0 0
    0 0 0 0 0 0 0 0 0 0 0 0 0 0 0 0 0 0 0 0 0 0 0 0 0 0 0 0 0 0 0 0 0 0 0 0 0 0 0 0 0 0 0 0 0 0 0 0 0 0 0 0 0 0 0 0 0 0 0 0 0 0 0 0 0 0 0 0 0 124 122 121 120 125 126 136 139 140 141 139 139 140 140 140 138 -225 -225 135 138 137 137 137 137 138 138 138 138 137 136 136 136 136 134 132 133 -225 -225 -225 -225 -225 -225 -225 -225 -225 -225 -225 -225 -225 -225 -225 -225 -225 -225 -225 -225 -225 -225 -225 -225 -225 -225 -225 -225 -225 -225 -225 -225 -225 -225 -225 -225 -225 -225 -225 -225 -225 -225 -225 -225 -225 -225 -225 -225 -225 -225 -225 -225 -225 -225 -225 -225 -225 -225 -225 -225 -225 -225 -225 -225 -225 -225 -225 -225 -225 -225 -225 -225 -225 -225 -225 -225 -225 -225 -225 -225 -225 -225 -225 -225 -225 -225 -225 -225 -225 -225 -225 -225 -225 -225 -225 -225 -225 -225 -225 -225 -225 -225 -225 -225 -225 -225 -225 -225 -225 -225 -225 -225 -225 -225 -225 -225 -225 -225 -225 -225 -225 -225 -225 -225 -225 -225 -225 -209 -209 -209 -209 -193 0 -193 -209 -209 0 -209 -209 -209 -209 -209 -209 -209 -209 129 128 128 131 131 131 127 126 127 127 -209 -193 -209 -209 121 126 -193 -209 -193 124 129 131 131 129 122 122 122 122 121 121 121 120 119 119 -193 -193 -193 117 117 117 117 -209 -209 110 -209 121 121 120 119 119 120 119 120 119 119 115 112 -193 100 100 100 96 99 99 107 0 0 0 0 0
    0 0 0 0 0 0 0 0 0 0 0 0 0 0 0 0 0 0 0 0 0 0 0 0 0 0 0 0 0 0 0 0 0 0 0 0 0 0 0 0 0 0 0 0 0 0 0 0 0 0 0 0 0 0 0 0 0 0 0 0 0 0 0 0 0 0 0 0 0 130 130 129 125 134 137 138 140 141 142 140 140 142 141 141 139 138 135 136 138 137 136 137 137 138 138 138 138 137 136 136 136 136 134 132 133 -225 -225 -225 -225 -225 -225 -225 -225 -225 -225 -225 -225 -225 -225 -225 -225 -225 -225 -225 -225 -225 -225 -225 -225 -225 -225 -225 -225 -225 -225 -225 -225 -225 -225 -225 -225 -225 -225 -225 -225 -225 -225 -225 -225 -225 -225 -225 -225 -225 -225 -225 -225 -225 -225 -225 -225 -225 -225 -225 -225 -225 -225 -225 -225 -225 -225 -225 -225 -225 -225 -225 -225 -225 -225 -225 -225 -225 -225 -225 -225 -225 -225 -225 -225 -225 -225 -225 -225 -225 -225 -225 -225 -225 -225 -225 -225 -225 -225 -225 -225 -225 -225 -225 -225 -225 -225 -225 -225 -225 -225 -225 -225 -225 -225 -225 -225 -225 -225 -225 -225 -225 -225 -225 -225 -225 -225 -225 -209 -209 -209 0 0 0 -193 -209 -209 -209 -209 -209 -209 -209 -209 -209 -209 -209 132 131 132 133 133 133 130 129 130 130 131 124 121 123 124 133 134 134 133 132 136 136 135 132 124 123 123 122 121 122 121 121 119 119 116 118 115 -193 118 119 120 -209 -209 -209 -209 123 123 123 121 122 123 121 122 121 121 121 119 -193 -193 100 101 96 99 101 115 0 0 0 0 0
    0 0 0 0 0 0 0 0 0 0 0 0 0 0 0 0 0 0 0 0 0 0 0 0 0 0 0 0 0 0 0 0 0 0 0 0 0 0 0 0 0 0 0 0 0 0 0 0 0 0 0 0 0 0 0 0 0 0 0 0 0 0 0 0 0 0 0 0 0 135 136 135 134 137 139 141 142 141 143 142 142 143 142 143 141 140 136 137 139 137 136 137 137 138 138 138 138 137 136 136 136 136 134 132 133 -225 -225 -225 -225 -225 -225 -225 -225 -225 -225 -225 -225 -225 -225 -225 -225 -225 -225 -225 -225 -225 -225 -225 -225 -225 -225 -225 -225 -225 -225 -225 -225 -225 -225 -225 -225 -225 -225 -225 -225 -225 -225 -225 -225 -225 -225 -225 -225 -225 -225 -225 -225 -225 -225 -225 -225 -225 -225 -225 -225 -225 -225 -225 -225 -225 -225 -225 -225 -225 -225 -225 -225 -225 -225 -225 -225 -225 -225 -225 -225 -225 -225 -225 -225 -225 -225 -225 -225 -225 -225 -225 -225 -225 -225 -225 -225 -225 -225 -225 -225 -225 -225 -225 -225 -225 -225 -225 -225 -225 -225 -225 -225 -225 -225 -225 -225 -225 -225 -225 -225 -225 -225 -225 -225 -225 -225 -225 -209 -209 -209 0 0 0 0 -209 -209 0 -209 -209 -209 -209 -209 -209 -209 -209 -193 133 134 135 134 134 132 130 131 130 133 124 122 125 126 136 138 138 138 137 138 138 136 133 126 125 124 123 123 123 123 123 123 122 118 -193 -193 -209 123 125 124 -209 -209 -193 123 124 124 124 121 123 125 122 123 121 122 121 119 -193 97 99 -193 -209 -193 -193 118 0 0 0 0 0
    0 0 0 0 0 0 0 0 0 0 0 0 0 0 0 0 0 0 0 0 0 0 0 0 0 0 0 0 0 0 0 0 0 0 0 0 0 0 0 0 0 0 0 0 0 0 0 0 0 0 0 0 0 0 0 0 0 0 0 0 0 0 0 0 0 0 0 0 0 136 137 137 137 139 142 142 142 141 143 141 142 143 142 142 141 141 137 138 140 137 137 137 137 138 138 138 138 137 136 136 136 136 134 132 133 -225 -225 -225 -225 -225 -225 -225 -225 -225 -225 -225 -225 -225 -225 -225 -225 -225 -225 -225 -225 -225 -225 -225 -225 -225 -225 -225 -225 -225 -225 -225 -225 -225 -225 -225 -225 -225 -225 -225 -225 -225 -225 -225 -225 -225 -225 -225 -225 -225 -225 -225 -225 -225 -225 -225 -225 -225 -225 -225 -225 -225 -225 -225 -225 -225 -225 -225 -225 -225 -225 -225 -225 -225 -225 -225 -225 -225 -225 -225 -225 -225 -225 -225 -225 -225 -225 -225 -225 -225 -225 -225 -225 -225 -225 -225 -225 -225 -225 -225 -225 -225 -225 -225 -225 -225 -225 -225 -225 -225 -225 -225 -225 -225 -225 -225 -225 -225 -225 -225 -225 -225 -225 -225 -225 -225 -225 -209 -209 -209 -209 0 0 0 0 0 -209 0 -209 -209 -209 -209 -209 -209 -209 -209 -209 134 134 135 135 135 133 131 133 133 137 133 132 135 136 140 142 141 141 140 141 141 140 138 133 129 126 125 124 125 124 126 126 125 123 132 -193 -193 128 129 126 -193 -193 124 124 124 124 125 122 -193 -209 127 126 124 129 128 -209 -209 91 95 -193 -209 -193 -193 120 0 0 0 0 0
    0 0 0 0 0 0 0 0 0 0 0 0 0 0 0 0 0 0 0 0 0 0 0 0 0 0 0 0 0 0 0 0 0 0 0 0 0 0 0 0 0 0 0 0 0 0 0 0 0 0 0 0 0 0 0 0 0 0 0 0 0 0 0 0 0 0 0 0 0 147 145 144 143 144 147 146 144 143 143 142 143 143 142 142 141 141 137 138 139 137 137 137 137 138 138 138 138 137 136 136 136 136 134 132 133 -225 -225 -225 -225 -225 -225 -225 -225 -225 -225 -225 -225 -225 -225 -225 -225 -225 -225 -225 -225 -225 -225 -225 -225 -225 -225 -225 -225 -225 -225 -225 -225 -225 -225 -225 -225 -225 -225 -225 -225 -225 -225 -225 -225 -225 -225 -225 -225 -225 -225 -225 -225 -225 -225 -225 -225 -225 -225 -225 -225 -225 -225 -225 -225 -225 -225 -225 -225 -225 -225 -225 -225 -225 -225 -225 -225 -225 -225 -225 -225 -225 -225 -225 -225 -225 -225 -225 -225 -225 -225 -225 -225 -225 -225 -225 -225 -225 -225 -225 -225 -225 -225 -225 -225 -225 -225 -225 -225 -225 -225 -225 -225 -225 -225 -225 -225 -225 -225 -225 -225 -225 -225 -225 -225 -225 -209 -209 -209 -209 -209 0 0 0 0 0 -209 0 -209 -209 -209 -209 -209 -209 -209 -209 -209 134 134 135 135 135 133 132 133 135 139 138 137 140 142 144 145 143 143 143 144 144 142 139 137 132 131 127 128 131 130 133 132 132 135 137 140 139 136 134 131 130 131 128 126 124 125 127 124 133 -193 -193 134 133 137 138 -209 -209 87 88 -209 -209 -209 -209 122 0 0 0 0 0
    0 0 0 0 0 0 0 0 0 0 0 0 0 0 0 0 0 0 0 0 0 0 0 0 0 0 0 0 0 0 0 0 0 0 0 0 0 0 0 0 0 0 0 0 0 0 0 0 0 0 0 0 0 0 0 0 0 0 0 0 0 0 0 0 0 0 0 0 0 -193 151 149 149 149 150 149 147 146 147 145 146 146 143 143 142 142 138 138 139 137 137 137 137 138 138 138 138 137 137 136 136 136 134 133 134 -225 -225 -225 -225 -225 -225 -225 -225 -225 -225 -225 -225 -225 -225 -225 -225 -225 -225 -225 -225 -225 -225 -225 -225 -225 -225 -225 -225 -225 -225 -225 -225 -225 -225 -225 -225 -225 -225 -225 -225 -225 -225 -225 -225 -225 -225 -225 -225 -225 -225 -225 -225 -225 -225 -225 -225 -225 -225 -225 -225 -225 -225 -225 -225 -225 -225 -225 -225 -225 -225 -225 -225 -225 -225 -225 -225 -225 -225 -225 -225 -225 -225 -225 -225 -225 -225 -225 -225 -225 -225 -225 -225 -225 -225 -225 -225 -225 -225 -225 -225 -225 -225 -225 -225 -225 -225 -225 -225 -225 -225 -225 -225 -225 -225 -225 -225 -225 -225 -225 -225 -225 -225 -225 -225 -225 -209 -209 -209 -209 -209 0 0 0 0 0 -209 0 -209 -209 -209 -209 -209 -209 -209 -209 -209 134 134 135 135 135 133 132 134 136 140 140 140 144 147 147 148 146 146 146 146 146 144 141 139 134 134 131 132 135 135 137 136 137 139 139 142 142 139 137 135 134 134 132 130 126 126 129 126 135 138 139 137 136 138 139 -193 -209 -209 -193 -209 140 141 -193 -209 0 0 0 0 0
    0 0 0 0 0 0 0 0 0 0 0 0 0 0 0 0 0 0 0 0 0 0 0 0 0 0 0 0 0 0 0 0 0 0 0 0 0 0 0 0 0 0 0 0 0 0 0 0 0 0 0 0 0 0 0 0 0 0 0 0 0 0 0 0 0 0 0 0 0 156 153 151 151 151 152 152 150 148 150 148 149 148 144 143 143 143 138 138 139 138 137 137 137 139 139 138 138 137 136 135 135 135 133 130 135 -225 -225 -225 -225 -225 -225 -225 -225 -225 -225 -225 -225 -225 -225 -225 -225 -225 -225 -225 -225 -225 -225 -225 -225 -225 -225 -225 -225 -225 -225 -225 -225 -225 -225 -225 -225 -225 -225 -225 -225 -225 -225 -225 -225 -225 -225 -225 -225 -225 -225 -225 -225 -225 -225 -225 -225 -225 -225 -225 -225 -225 -225 -225 -225 -225 -225 -225 -225 -225 -225 -225 -225 -225 -225 -225 -225 -225 -225 -225 -225 -225 -225 -225 -225 -225 -225 -225 -225 -225 -225 -225 -225 -225 -225 -225 -225 -225 -225 -225 -225 -225 -225 -225 -225 -225 -225 -225 -225 -225 -225 -225 -225 -225 -225 -225 -225 -225 -225 -225 -225 -225 -225 -225 -225 -225 -225 -209 -209 -209 -209 0 0 0 0 0 -193 0 -209 -209 -209 -209 -209 -209 -209 -209 -209 -209 -209 -193 -209 -193 133 132 133 -193 140 141 142 147 149 148 149 147 147 148 148 148 147 144 143 138 139 135 136 139 138 139 139 139 141 140 143 142 139 137 135 133 133 131 130 128 127 130 129 136 139 141 139 138 140 141 140 -193 -209 -209 146 142 142 140 137 0 0 0 0 0
    0 0 0 0 0 0 0 0 0 0 0 0 0 0 0 0 0 0 0 0 0 0 0 0 0 0 0 0 0 0 0 0 0 0 0 0 0 0 0 0 0 0 0 0 0 0 0 0 0 0 0 0 0 0 0 0 0 0 0 0 0 0 0 0 0 0 0 0 0 157 154 152 152 152 154 154 151 149 151 150 151 149 146 144 143 143 138 138 139 139 136 137 136 138 139 137 137 135 134 134 134 133 132 128 -225 -225 -225 -225 -225 -225 -225 -225 -225 -225 -225 -225 -225 -225 -225 -225 -225 -225 -225 -225 -225 -225 -225 -225 -225 -225 -225 -225 -225 -225 -225 -225 -225 -225 -225 -225 -225 -225 -225 -225 -225 -225 -225 -225 -225 -225 -225 -225 -225 -225 -225 -225 -225 -225 -225 -225 -225 -225 -225 -225 -225 -225 -225 -225 -225 -225 -225 -225 -225 -225 -225 -225 -225 -225 -225 -225 -225 -225 -225 -225 -225 -225 -225 -225 -225 -225 -225 -225 -225 -225 -225 -225 -225 -225 -225 -225 -225 -225 -225 -225 -225 -225 -225 -225 -225 -225 -225 -225 -225 -225 -225 -225 -225 -225 -225 -225 -225 -225 -225 -225 -225 -225 -225 -225 -225 -225 -225 -225 -209 -209 0 0 0 -177 0 0 0 0 -209 -209 -209 -209 -209 157 -209 -209 -209 -209 -209 -209 -209 -193 -193 133 134 -209 -193 144 147 150 151 150 150 149 149 150 150 150 149 146 146 140 143 140 140 142 141 141 142 141 143 142 143 142 141 138 137 135 134 133 133 132 133 134 135 138 142 144 143 140 143 144 142 145 -209 148 149 145 144 142 139 0 0 0 0 0
    0 0 0 0 0 0 0 0 0 0 0 0 0 0 0 0 0 0 0 0 0 0 0 0 0 0 0 0 0 0 0 0 0 0 0 0 0 0 0 0 0 0 0 0 0 0 0 0 0 0 0 0 0 0 0 0 0 0 0 0 0 0 0 0 0 0 0 0 0 162 156 154 155 155 156 156 152 151 153 151 152 150 148 145 145 146 139 140 142 140 137 138 136 138 139 137 -225 -225 130 131 -225 -225 -225 -225 -225 -225 -225 -225 -225 -225 -225 -225 -225 -225 -225 -225 -225 -225 -225 -225 -225 -225 -225 -225 -225 -225 -225 -225 -225 -225 -225 -225 -225 -225 -225 -225 -225 -225 -225 -225 -225 -225 -225 -225 -225 -225 -225 -225 -225 -225 -225 -225 -225 -225 -225 -225 -225 -225 -225 -225 -225 -225 -225 -225 -225 -225 -225 -225 -225 -225 -225 -225 -225 -225 -225 -225 -225 -225 -225 -225 -225 -225 -225 -225 -225 -225 -225 -225 -225 -225 -225 -225 -225 -225 -225 -225 -225 -225 -225 -225 -225 -225 -225 -225 -225 -225 -225 -225 -225 -225 -225 -225 -225 -225 -225 -225 -225 -225 -225 -225 -225 -225 -225 -225 -225 -225 -225 -225 -225 -225 -225 -225 -225 -225 0 0 0 -177 0 0 -193 -209 -209 -209 -209 -209 -209 160 -209 -209 -209 -209 -209 -209 -209 -193 -193 135 135 -209 -209 -209 -209 152 -193 151 152 150 151 151 151 151 151 149 150 145 150 147 147 148 146 146 147 144 146 144 144 143 143 140 139 136 134 133 134 134 134 133 -209 -209 146 148 148 147 149 149 148 147 149 150 151 149 146 142 141 0 0 0 0 0
    0 0 0 0 0 0 0 0 0 0 0 0 0 0 0 0 0 0 0 0 0 0 0 0 0 0 0 0 0 0 0 0 0 0 0 0 0 0 0 0 0 0 0 0 0 0 0 0 0 0 0 0 0 0 0 0 0 0 0 0 0 0 0 0 0 0 0 0 0 165 160 158 158 158 159 157 154 153 155 -193 152 150 148 146 -193 -193 -193 -225 -225 -225 -225 -225 -225 -225 -225 -225 -225 -225 -225 -225 -225 -225 -225 -225 -225 -225 -225 -225 -225 -225 -225 -225 -225 -225 -225 -225 -225 -225 -225 -225 -225 -225 -225 -225 -225 -225 -225 -225 -225 -225 -225 -225 -225 -225 -225 -225 -225 -225 -225 -225 -225 -225 -225 -225 -225 -225 -225 -225 -225 -225 -225 -225 -225 -225 -225 -225 -225 -225 -225 -225 -225 -225 -225 -225 -225 -225 -225 -225 -225 -225 -225 -225 -225 -225 -225 -225 -225 -225 -225 -225 -225 -225 -225 -225 -225 -225 -225 -225 -225 -225 -225 -225 -225 -225 -225 -225 -225 -225 -225 -225 -225 -225 -225 -225 -225 -225 -225 -225 -225 -225 -225 -225 -225 -225 -225 -225 -225 -225 -225 -225 -225 -225 -225 -225 -225 -225 -225 -225 -225 -225 -225 -225 -225 -225 -225 -225 0 -177 -193 -209 -209 -209 -209 -209 -209 -209 -225 164 166 -209 -209 -209 -193 -209 -209 139 -193 135 -209 -209 -209 -209 150 152 154 152 153 152 152 153 153 153 153 150 152 149 152 150 150 151 149 148 149 146 148 146 148 147 146 145 141 -193 133 132 -193 134 -193 133 -209 -193 150 153 153 154 154 153 153 152 153 153 153 151 149 145 145 0 0 0 0 0
    0 0 0 0 0 0 0 0 0 0 0 0 0 0 0 0 0 0 0 0 0 0 0 0 0 0 0 0 0 0 0 0 0 0 0 0 0 0 0 0 0 0 0 0 0 0 0 0 0 0 0 0 0 0 0 0 0 0 0 0 0 0 0 0 0 0 0 0 0 167 165 165 164 165 164 162 160 158 157 -193 154 -193 148 146 145 -225 -225 -225 -225 -225 -225 -225 -225 -225 -225 -225 -225 -225 -225 -225 -225 -225 -225 -225 -225 -225 -225 -225 -225 -225 -225 -225 -225 -225 -225 -225 -225 -225 -225 -225 -225 -225 -225 -225 -225 -225 -225 -225 -225 -225 -225 -225 -225 -225 -225 -225 -225 -225 -225 -225 -225 -225 -225 -225 -225 -225 -225 -225 -225 -225 -225 -225 -225 -225 -225 -225 -225 -225 -225 -225 -225 -225 -225 -225 -225 -225 -225 -225 -225 -225 -225 -225 -225 -225 -225 -225 -225 -225 -225 -225 -225 -225 -225 -225 -225 -225 -225 -225 -225 -225 -225 -225 -225 -225 -225 -225 -225 -225 -225 -225 -225 -225 -225 -225 -225 -225 -225 -225 -225 -225 -225 -225 -225 -225 -225 -225 -225 -225 -225 -225 -225 -225 -225 -225 -225 -225 -225 -225 -225 -225 -225 -225 -225 -225 -225 -225 -193 -177 -177 -193 -209 -209 -209 -209 -209 -209 -225 165 165 159 156 -209 -193 -209 -209 -209 -209 -209 -209 -209 -209 -209 151 152 155 154 155 153 153 154 155 155 155 152 153 151 153 152 -193 153 151 149 150 148 150 149 152 150 150 154 -209 -209 -209 -209 -209 -209 -209 -209 -193 -193 154 156 157 159 160 160 158 158 159 160 160 154 152 150 -209 0 0 0 0 0
    0 0 0 0 0 0 0 0 0 0 0 0 0 0 0 0 0 0 0 0 0 0 0 0 0 0 0 0 0 0 0 0 0 0 0 0 0 0 0 0 0 0 0 0 0 0 0 0 0 0 0 0 0 0 0 0 0 0 0 0 0 0 0 0 0 0 0 0 0 168 168 168 167 168 167 165 166 167 165 -193 158 -193 149 144 -225 -225 -225 -225 -225 -225 -225 -225 -225 -225 -225 -225 -225 -225 -225 -225 -225 -225 -225 -225 -225 -225 -225 -225 -225 -225 -225 -225 -225 -225 -225 -225 -225 -225 -225 -225 -225 -225 -225 -225 -225 -225 -225 -225 -225 -225 -225 -225 -225 -225 -225 -225 -225 -225 -225 -225 -225 -225 -225 -225 -225 -225 -225 -225 -225 -225 -225 -225 -225 -225 -225 -225 -225 -225 -225 -225 -225 -225 -225 -225 -225 -225 -225 -225 -225 -225 -225 -225 -225 -225 -225 -225 -225 -225 -225 -225 -225 -225 -225 -225 -225 -225 -225 -225 -225 -225 -225 -225 -225 -225 -225 -225 -225 -225 -225 -225 -225 -225 -225 -225 -225 -225 -225 -225 -225 -225 -225 -225 -225 -225 -225 -225 -225 -225 -225 -225 -225 -225 -225 -225 -225 -225 -225 -225 -225 -225 -225 -225 -225 -225 -225 -225 -225 -225 -225 -225 -225 -225 -225 -225 -225 -225 -225 -225 -225 162 -193 -209 -209 -209 -193 -193 -209 -209 -209 -209 -209 -209 150 152 155 155 156 154 155 156 157 158 158 154 156 155 158 157 161 161 157 155 155 156 159 159 163 159 157 158 158 162 -209 -209 -209 -209 -209 -209 -193 -193 155 158 161 164 164 164 163 164 164 166 166 162 158 154 -193 0 0 0 0 0</data></disparity>
</opencv_storage>
