<?xml version="1.0"?>
<opencv_storage>
<gps_time_stamp>28431</gps_time_stamp>
<gps_x>-6.5264959335327148e+000</gps_x>
<gps_y>1.0243420600891113e+000</gps_y>
<gps_z>-1.9901384115219116e+000</gps_z>
<image_time_stamp>16364</image_time_stamp>
<disparity type_id="opencv-matrix">
  <rows>82</rows>
  <cols>320</cols>
  <dt>s</dt>
  <data>
    0 0 0 0 0 0 0 0 0 0 0 0 0 0 0 0 0 0 0 0 0 0 0 0 0 0 0 0 0 0 0 0 0 0 0 0 0 0 0 0 0 0 0 0 0 0 0 0 0 0 0 0 0 0 0 0 0 0 0 0 0 0 0 0 0 0 0 0 0 96 94 94 93 91 91 91 91 91 90 91 -193 91 99 96 101 100 101 102 102 100 100 98 99 99 95 99 93 92 92 92 92 92 92 93 90 94 95 95 97 97 98 97 97 98 96 99 98 98 96 94 94 93 92 93 91 91 90 90 90 89 90 90 89 89 89 88 89 90 92 91 94 95 92 93 93 93 92 92 92 91 89 88 88 88 88 89 89 90 89 90 91 89 90 92 91 91 91 91 91 91 92 92 90 91 92 92 93 93 93 94 92 94 95 93 94 98 95 95 93 93 93 92 92 92 89 90 89 91 92 92 93 93 94 93 93 93 92 96 92 91 92 91 91 91 92 92 90 92 92 92 92 91 90 90 97 92 93 93 93 92 93 94 94 91 93 93 93 94 96 95 94 95 93 93 94 95 94 94 95 95 96 98 95 99 97 96 97 97 96 96 96 98 95 96 97 97 96 99 99 99 98 99 98 98 98 98 96 95 96 95 96 98 98 98 98 98 99 99 99 100 98 101 102 100 100 98 98 97 95 98 99 99 102 -177 -209 -177 -193 138 146 141 141 143 142 142 140 0 0 0 0 0
    0 0 0 0 0 0 0 0 0 0 0 0 0 0 0 0 0 0 0 0 0 0 0 0 0 0 0 0 0 0 0 0 0 0 0 0 0 0 0 0 0 0 0 0 0 0 0 0 0 0 0 0 0 0 0 0 0 0 0 0 0 0 0 0 0 0 0 0 0 97 95 95 94 91 91 91 92 91 90 91 91 91 101 98 102 101 101 102 101 101 101 99 100 99 97 100 94 93 93 92 93 92 93 94 91 95 96 97 99 98 99 98 98 99 96 100 99 99 97 95 95 93 93 94 91 92 90 90 91 90 91 91 90 91 91 92 92 92 93 93 96 96 93 94 93 94 93 93 93 92 90 91 90 90 89 90 89 91 90 91 91 90 91 93 92 92 92 92 92 92 92 93 91 92 93 92 94 94 94 95 93 95 96 94 96 99 95 96 93 94 93 93 93 92 90 91 89 92 92 92 93 93 94 94 94 94 93 97 92 92 93 92 92 92 92 92 91 94 94 93 94 94 92 92 99 93 94 94 94 93 93 95 94 92 94 94 94 95 97 96 95 97 94 94 95 96 95 95 96 96 98 99 96 100 97 97 98 98 97 96 97 99 95 97 98 98 98 100 100 99 99 100 99 99 99 98 97 96 96 96 97 98 98 97 96 97 98 99 99 101 100 102 103 101 101 99 98 97 95 97 99 99 102 -177 -177 -177 -209 138 146 141 142 143 142 142 141 0 0 0 0 0
    0 0 0 0 0 0 0 0 0 0 0 0 0 0 0 0 0 0 0 0 0 0 0 0 0 0 0 0 0 0 0 0 0 0 0 0 0 0 0 0 0 0 0 0 0 0 0 0 0 0 0 0 0 0 0 0 0 0 0 0 0 0 0 0 0 0 0 0 0 97 96 96 95 92 91 92 92 92 91 92 93 92 102 100 103 102 101 102 102 102 102 101 102 101 99 101 96 95 94 93 94 93 93 95 92 97 99 99 101 100 101 100 100 100 98 100 100 100 98 96 97 94 94 95 91 92 90 91 91 91 92 92 91 92 93 94 94 94 95 94 98 98 94 95 94 95 94 94 94 94 92 94 93 93 92 93 92 93 91 92 92 92 92 94 93 93 94 93 93 93 93 93 92 93 95 92 95 95 95 97 95 97 98 95 97 99 96 96 94 94 94 94 93 93 91 92 90 94 93 94 94 93 94 95 95 95 94 98 93 93 93 92 92 92 93 93 92 95 95 95 96 96 94 93 100 94 94 95 94 93 93 95 94 92 95 95 94 95 97 97 95 97 95 96 97 98 96 97 98 98 99 100 97 100 96 97 97 97 97 96 97 99 95 99 99 99 99 100 100 99 100 100 100 99 99 99 98 97 98 97 98 99 98 97 96 97 99 100 100 102 101 103 104 103 102 100 99 98 95 97 99 100 103 -177 -209 -177 -209 138 147 141 142 143 142 142 141 0 0 0 0 0
    0 0 0 0 0 0 0 0 0 0 0 0 0 0 0 0 0 0 0 0 0 0 0 0 0 0 0 0 0 0 0 0 0 0 0 0 0 0 0 0 0 0 0 0 0 0 0 0 0 0 0 0 0 0 0 0 0 0 0 0 0 0 0 0 0 0 0 0 0 98 98 97 96 94 93 94 94 94 93 95 96 96 104 102 104 103 101 102 102 102 103 102 102 102 101 102 99 97 95 93 94 94 94 96 93 99 101 101 102 102 103 102 102 102 99 101 100 100 100 98 98 96 95 96 92 92 91 92 93 92 93 92 92 92 94 95 94 94 95 94 98 99 95 95 95 96 95 95 95 95 93 97 95 96 95 96 94 96 93 95 94 94 94 96 94 95 96 95 94 95 94 95 93 95 96 93 97 97 98 99 98 100 100 98 100 100 98 98 95 95 95 95 95 95 93 94 93 96 95 96 96 95 97 97 97 98 96 99 94 94 94 93 93 93 93 94 93 97 97 97 99 99 96 95 101 95 95 95 94 93 93 95 94 92 95 95 95 96 98 98 96 98 96 97 97 100 97 98 99 100 100 100 98 99 96 97 97 96 96 96 96 99 96 100 100 100 101 101 101 100 100 100 100 100 99 99 99 97 98 98 98 99 99 97 96 96 98 100 100 102 101 103 104 103 102 100 99 97 93 96 99 101 103 -209 -209 -177 -193 138 147 142 142 143 142 142 141 0 0 0 0 0
    0 0 0 0 0 0 0 0 0 0 0 0 0 0 0 0 0 0 0 0 0 0 0 0 0 0 0 0 0 0 0 0 0 0 0 0 0 0 0 0 0 0 0 0 0 0 0 0 0 0 0 0 0 0 0 0 0 0 0 0 0 0 0 0 0 0 0 0 0 100 99 99 98 97 96 97 97 97 96 99 100 100 105 103 104 103 102 102 102 102 103 102 102 102 102 102 101 99 98 94 97 95 96 98 95 100 102 102 103 102 104 103 103 103 100 102 101 100 100 99 99 97 97 98 93 94 92 93 94 92 93 92 92 92 93 94 94 93 95 94 98 99 96 96 96 97 96 96 96 96 94 99 98 98 97 98 96 98 96 97 96 97 95 97 96 97 99 98 96 96 95 96 95 96 98 93 97 97 98 101 100 102 102 100 101 102 99 99 96 96 96 97 96 96 94 97 95 98 96 97 96 96 98 99 98 100 98 101 96 97 97 94 94 95 95 96 96 99 99 100 101 101 98 98 101 95 95 96 94 93 93 95 94 93 95 96 95 97 99 99 97 100 97 99 99 101 98 101 101 102 100 101 98 98 96 97 97 96 95 97 96 99 98 101 101 101 102 102 102 100 100 100 100 99 100 99 99 97 98 98 98 98 98 96 95 95 96 99 100 103 102 103 104 103 102 101 99 97 93 96 100 101 104 -193 -209 -177 139 139 147 142 142 143 142 142 141 0 0 0 0 0
    0 0 0 0 0 0 0 0 0 0 0 0 0 0 0 0 0 0 0 0 0 0 0 0 0 0 0 0 0 0 0 0 0 0 0 0 0 0 0 0 0 0 0 0 0 0 0 0 0 0 0 0 0 0 0 0 0 0 0 0 0 0 0 0 0 0 0 0 0 101 100 101 100 99 100 100 100 100 99 101 101 101 104 103 104 103 102 103 103 102 104 102 103 103 102 103 102 101 101 96 100 99 99 100 99 102 103 103 104 103 105 104 105 104 101 102 101 100 101 100 100 98 98 98 93 96 94 94 95 93 93 92 92 92 93 95 95 94 97 95 99 100 97 97 97 98 98 98 98 98 95 101 100 100 99 99 96 98 96 97 97 97 96 98 97 99 100 99 98 98 97 98 96 98 99 94 98 99 100 101 101 102 102 101 102 102 101 99 97 98 97 99 98 97 96 99 97 99 97 97 96 96 99 99 99 101 100 102 99 100 99 97 96 97 96 98 99 101 101 102 102 102 100 99 101 95 95 96 94 93 93 95 94 94 96 97 96 98 99 99 98 100 97 99 100 102 100 103 103 104 101 103 100 99 98 99 98 97 96 99 96 101 103 103 102 103 103 103 102 100 100 99 99 98 99 99 98 96 98 98 98 98 98 95 94 94 95 98 101 103 102 103 104 104 102 102 101 99 94 97 100 101 104 116 -209 -209 138 139 147 142 142 143 142 141 140 0 0 0 0 0
    0 0 0 0 0 0 0 0 0 0 0 0 0 0 0 0 0 0 0 0 0 0 0 0 0 0 0 0 0 0 0 0 0 0 0 0 0 0 0 0 0 0 0 0 0 0 0 0 0 0 0 0 0 0 0 0 0 0 0 0 0 0 0 0 0 0 0 0 0 102 101 102 101 101 102 102 102 101 101 102 102 103 104 103 103 103 102 103 103 102 104 102 102 103 103 103 102 102 102 99 103 102 102 102 101 103 104 104 105 104 105 105 105 105 101 103 101 100 101 100 100 99 98 99 94 97 96 95 96 94 94 93 93 93 94 96 97 96 99 97 100 101 99 98 98 99 99 99 100 100 97 102 102 101 100 99 97 98 96 97 96 98 97 98 98 100 101 100 100 100 99 99 99 100 100 96 100 100 100 102 101 103 103 102 103 103 102 100 98 99 99 100 98 98 97 100 99 100 99 99 97 98 100 100 100 102 102 103 100 101 101 100 99 100 99 100 101 102 102 103 103 102 101 100 101 95 95 96 94 93 94 95 95 95 97 97 97 98 99 99 99 100 97 100 101 103 102 105 105 106 103 105 102 101 100 100 100 99 99 101 99 103 105 104 105 103 104 104 102 99 99 99 99 98 99 99 98 97 98 98 98 99 99 96 95 96 97 99 101 103 102 103 104 103 102 102 101 100 94 96 99 99 104 117 -209 -209 138 139 146 141 142 143 141 140 140 0 0 0 0 0
    0 0 0 0 0 0 0 0 0 0 0 0 0 0 0 0 0 0 0 0 0 0 0 0 0 0 0 0 0 0 0 0 0 0 0 0 0 0 0 0 0 0 0 0 0 0 0 0 0 0 0 0 0 0 0 0 0 0 0 0 0 0 0 0 0 0 0 0 0 102 102 103 101 102 104 104 103 103 102 102 103 104 105 104 103 104 102 103 103 102 103 102 102 103 102 103 103 102 103 102 105 105 104 104 103 104 104 104 105 104 105 105 105 105 101 103 101 100 101 100 100 99 99 100 94 99 97 96 97 95 95 93 93 93 95 96 97 96 99 97 100 102 99 99 99 100 100 101 101 101 98 103 103 102 101 99 97 98 97 98 97 99 98 99 100 101 103 101 101 101 100 101 100 101 101 97 101 101 101 102 102 103 103 102 103 104 102 101 98 100 100 100 99 98 97 100 100 101 100 99 98 99 100 101 101 102 103 103 102 103 102 102 102 102 101 102 102 102 102 103 103 102 101 100 100 96 95 96 94 93 94 95 95 97 97 98 97 99 99 100 99 100 97 101 102 104 103 107 106 107 104 105 102 101 101 101 101 101 101 103 102 105 106 106 106 105 106 105 102 100 100 99 100 99 100 100 98 97 98 99 99 99 100 98 97 99 101 102 103 105 104 104 105 104 103 103 102 102 97 97 101 100 104 -209 -209 -209 137 139 146 141 142 142 141 140 140 0 0 0 0 0
    0 0 0 0 0 0 0 0 0 0 0 0 0 0 0 0 0 0 0 0 0 0 0 0 0 0 0 0 0 0 0 0 0 0 0 0 0 0 0 0 0 0 0 0 0 0 0 0 0 0 0 0 0 0 0 0 0 0 0 0 0 0 0 0 0 0 0 0 0 103 103 103 101 102 105 104 103 103 103 102 103 104 105 104 104 104 103 104 104 103 104 102 102 103 103 103 103 103 104 102 105 105 104 104 103 104 104 104 105 104 105 105 105 105 101 103 100 100 100 100 100 99 99 100 94 100 99 97 98 96 96 93 94 93 94 96 96 95 97 97 100 103 100 100 100 101 101 102 102 102 99 103 103 102 101 100 98 98 97 99 98 100 99 100 100 101 103 102 102 102 101 102 101 102 102 98 102 102 102 103 102 103 103 102 103 103 102 101 98 100 100 101 99 99 98 100 100 101 100 99 99 100 100 101 101 102 103 104 103 104 104 104 103 103 102 103 102 102 101 102 102 101 101 100 99 96 96 96 95 94 96 95 96 99 98 99 98 100 100 100 100 100 98 102 103 105 105 108 108 108 106 107 103 101 101 101 101 101 102 104 104 106 107 107 107 106 106 105 102 100 100 99 100 99 101 101 99 98 99 99 100 100 101 99 99 102 103 104 105 106 106 106 106 106 104 105 104 105 101 101 103 103 111 -177 139 141 138 141 145 141 142 142 141 140 139 0 0 0 0 0
    0 0 0 0 0 0 0 0 0 0 0 0 0 0 0 0 0 0 0 0 0 0 0 0 0 0 0 0 0 0 0 0 0 0 0 0 0 0 0 0 0 0 0 0 0 0 0 0 0 0 0 0 0 0 0 0 0 0 0 0 0 0 0 0 0 0 0 0 0 102 103 103 101 102 105 104 103 103 102 102 102 103 104 103 103 104 103 105 -193 103 104 103 103 103 103 103 103 103 104 103 105 106 105 105 103 104 104 104 105 105 105 105 105 105 102 103 100 100 100 99 100 99 99 100 95 101 100 98 100 98 97 94 95 93 94 96 96 96 98 99 100 103 101 100 101 102 102 103 103 103 100 103 103 103 101 100 99 98 97 98 98 100 99 100 100 101 104 102 102 102 101 102 102 102 102 98 102 102 101 102 101 102 102 102 102 102 101 100 98 100 100 101 100 99 99 101 101 101 100 99 99 100 101 101 101 102 104 105 104 105 105 105 104 105 103 104 103 103 102 102 102 101 101 101 98 97 96 97 97 96 97 96 98 101 98 99 98 100 100 100 100 100 98 103 104 106 107 108 108 109 108 108 104 102 102 101 101 102 103 105 105 106 107 107 107 107 107 105 103 100 99 98 102 101 102 102 100 99 100 100 101 101 101 100 100 103 104 105 106 106 107 106 107 107 106 107 107 107 105 104 106 110 119 135 141 141 139 143 144 141 142 142 141 139 139 0 0 0 0 0
    0 0 0 0 0 0 0 0 0 0 0 0 0 0 0 0 0 0 0 0 0 0 0 0 0 0 0 0 0 0 0 0 0 0 0 0 0 0 0 0 0 0 0 0 0 0 0 0 0 0 0 0 0 0 0 0 0 0 0 0 0 0 0 0 0 0 0 0 0 102 -193 103 102 102 105 103 103 103 103 102 102 103 104 104 104 105 105 -193 -193 104 -193 103 103 103 103 103 103 102 103 103 105 106 106 105 104 105 105 105 -193 105 105 105 106 106 102 104 100 100 100 100 100 99 99 100 95 102 101 99 100 99 98 94 96 94 94 96 97 97 99 100 101 103 101 101 101 102 102 102 103 103 100 104 104 103 102 100 99 98 98 98 98 99 99 100 100 100 103 102 102 102 101 102 101 102 102 97 101 101 100 102 100 101 101 101 101 101 100 99 97 100 101 101 100 100 100 101 101 101 100 100 100 100 101 101 101 102 104 105 105 106 106 106 105 105 104 104 103 103 102 102 102 101 102 101 97 99 97 98 99 99 100 98 100 103 98 99 99 100 100 101 100 100 98 104 105 106 107 108 108 109 108 108 104 103 102 102 102 103 105 106 106 107 108 108 108 109 109 107 106 104 -193 104 105 104 103 102 100 100 100 101 101 101 102 101 101 104 104 105 106 106 106 106 106 106 106 108 108 108 107 107 109 114 119 132 138 139 138 144 143 141 142 142 140 139 139 0 0 0 0 0
    0 0 0 0 0 0 0 0 0 0 0 0 0 0 0 0 0 0 0 0 0 0 0 0 0 0 0 0 0 0 0 0 0 0 0 0 0 0 0 0 0 0 0 0 0 0 0 0 0 0 0 0 0 0 0 0 0 0 0 0 0 0 0 0 0 0 0 0 0 103 -193 -193 103 103 105 103 104 103 104 102 102 104 104 105 105 106 107 108 109 105 104 103 103 103 103 103 102 101 101 102 105 106 106 106 104 105 105 -193 -193 105 105 105 105 106 102 104 100 100 100 100 100 99 100 100 95 102 101 100 101 100 99 95 99 96 96 98 99 99 102 102 103 104 102 101 102 103 102 102 103 103 100 105 104 104 102 100 100 98 98 99 99 99 100 100 100 100 103 101 102 102 101 102 101 102 102 96 101 100 99 102 99 101 100 100 100 101 100 99 97 100 101 102 101 101 101 102 102 102 101 100 100 101 101 102 102 102 104 105 105 106 106 106 105 105 104 105 103 103 102 102 102 101 102 102 97 101 99 100 102 103 104 103 105 106 99 100 100 100 100 101 101 100 98 105 106 107 107 108 108 110 109 109 105 104 103 103 103 104 106 107 107 108 108 108 109 110 110 108 110 107 111 111 111 108 104 103 100 100 100 101 102 102 102 101 102 104 105 105 106 105 105 105 106 106 105 108 108 108 108 107 109 113 119 131 137 138 137 145 142 141 142 142 140 139 139 0 0 0 0 0
    0 0 0 0 0 0 0 0 0 0 0 0 0 0 0 0 0 0 0 0 0 0 0 0 0 0 0 0 0 0 0 0 0 0 0 0 0 0 0 0 0 0 0 0 0 0 0 0 0 0 0 0 0 0 0 0 0 0 0 0 0 0 0 0 0 0 0 0 0 104 -193 105 104 105 106 104 104 103 103 102 100 104 104 106 106 108 110 111 111 108 106 104 103 103 103 103 102 102 102 104 106 107 108 108 105 106 106 -193 -193 -193 104 104 104 105 102 104 101 101 101 101 100 100 101 101 95 103 103 102 -193 -193 102 99 102 100 98 100 100 100 102 102 103 104 102 102 102 103 103 103 103 103 100 105 104 104 101 100 99 98 98 99 99 99 100 100 100 100 103 101 102 102 102 102 102 102 102 96 100 100 99 101 99 101 100 101 101 101 100 100 97 101 101 102 101 101 101 102 102 102 101 99 100 101 101 101 101 102 104 105 105 106 106 106 106 105 104 105 102 102 102 102 102 101 102 102 99 102 101 102 104 104 105 103 106 105 98 99 99 100 100 101 101 101 99 106 106 107 107 108 108 109 108 109 105 105 104 104 104 104 106 107 107 108 108 108 109 110 111 109 114 111 118 118 118 114 108 104 100 100 100 101 102 102 102 102 103 105 105 106 106 106 106 106 107 108 108 109 110 110 110 109 110 114 119 129 136 137 137 145 141 141 142 141 140 139 139 0 0 0 0 0
    0 0 0 0 0 0 0 0 0 0 0 0 0 0 0 0 0 0 0 0 0 0 0 0 0 0 0 0 0 0 0 0 0 0 0 0 0 0 0 0 0 0 0 0 0 0 0 0 0 0 0 0 0 0 0 0 0 0 0 0 0 0 0 0 0 0 0 0 0 104 105 106 105 105 107 104 105 101 102 101 98 104 104 108 108 111 113 114 113 111 108 105 104 104 103 103 102 102 103 105 107 108 109 110 106 107 106 -193 -193 -193 -193 104 104 105 104 105 102 102 102 102 101 101 102 102 97 105 105 104 -193 -193 -193 103 105 104 102 102 102 101 102 103 104 105 103 103 103 104 104 104 104 104 101 105 105 104 102 100 100 98 99 101 100 100 101 101 101 101 104 102 103 103 103 103 103 103 103 97 100 100 99 101 99 101 100 101 101 102 101 100 98 102 102 102 101 102 102 102 103 102 101 100 101 101 101 101 101 101 104 105 105 105 106 106 106 105 104 105 102 102 101 102 102 101 102 102 99 102 101 102 104 104 105 104 106 104 98 98 98 99 100 101 101 101 100 106 107 107 107 107 108 109 109 110 107 107 106 106 106 106 108 108 108 108 108 109 109 110 112 110 115 114 118 119 119 118 115 107 101 101 101 101 103 103 103 104 105 107 107 107 108 107 107 108 109 110 110 111 111 111 111 111 113 117 120 129 136 136 137 144 141 141 141 141 140 139 140 0 0 0 0 0
    0 0 0 0 0 0 0 0 0 0 0 0 0 0 0 0 0 0 0 0 0 0 0 0 0 0 0 0 0 0 0 0 0 0 0 0 0 0 0 0 0 0 0 0 0 0 0 0 0 0 0 0 0 0 0 0 0 0 0 0 0 0 0 0 0 0 0 0 0 106 106 106 105 105 107 105 107 -209 -209 -193 101 110 111 113 111 114 114 114 114 113 109 107 105 105 103 103 103 103 104 105 106 108 109 110 107 108 107 -193 -193 -193 106 105 105 107 105 107 103 104 104 103 103 103 103 103 100 106 108 107 108 109 107 106 107 107 105 105 104 103 103 104 105 106 104 104 104 105 105 105 105 105 102 105 105 104 102 102 102 101 103 105 104 103 104 104 104 103 105 103 103 104 104 105 105 104 104 100 102 101 99 101 99 101 100 101 101 102 101 101 99 102 102 102 102 102 102 103 104 103 103 102 103 103 102 102 102 102 104 105 105 105 106 106 106 105 104 106 102 102 102 102 103 102 103 102 100 103 102 104 105 105 105 105 107 105 98 98 98 99 100 101 101 102 101 106 108 108 108 107 108 110 109 111 108 108 108 108 109 109 111 109 109 109 109 109 109 111 113 111 115 115 118 118 118 118 116 111 105 102 102 102 104 105 104 105 106 107 107 108 109 108 108 108 109 110 111 111 110 110 110 110 112 116 119 127 -193 136 137 144 140 141 141 140 140 139 140 0 0 0 0 0
    0 0 0 0 0 0 0 0 0 0 0 0 0 0 0 0 0 0 0 0 0 0 0 0 0 0 0 0 0 0 0 0 0 0 0 0 0 0 0 0 0 0 0 0 0 0 0 0 0 0 0 0 0 0 0 0 0 0 0 0 0 0 0 0 0 0 0 0 0 107 108 108 107 108 112 113 -193 -209 -193 -193 105 116 115 116 113 114 114 114 114 113 110 108 106 106 104 104 103 104 104 106 106 108 109 111 108 109 108 108 107 107 107 106 106 108 107 108 105 106 105 105 105 105 103 104 102 107 111 110 110 111 109 108 110 110 107 106 106 105 105 105 107 109 106 106 106 106 106 106 107 106 103 106 106 104 103 105 105 105 106 108 108 107 107 106 106 106 106 104 104 105 106 106 106 105 105 -209 105 104 101 102 100 101 100 101 102 102 102 102 102 104 104 104 105 105 105 105 106 105 104 104 105 105 105 104 104 104 105 106 107 107 107 107 106 105 105 107 102 102 102 102 103 103 103 103 101 104 103 105 105 105 106 106 108 106 98 99 98 100 101 101 102 102 102 107 108 109 108 108 109 111 111 112 110 110 110 111 110 112 113 109 110 110 109 109 110 112 113 111 116 115 118 118 118 118 117 115 114 110 106 105 107 107 106 106 107 108 108 109 109 109 109 109 111 111 112 111 111 111 111 110 112 115 -193 -209 -193 136 137 144 140 141 141 141 140 139 140 0 0 0 0 0
    0 0 0 0 0 0 0 0 0 0 0 0 0 0 0 0 0 0 0 0 0 0 0 0 0 0 0 0 0 0 0 0 0 0 0 0 0 0 0 0 0 0 0 0 0 0 0 0 0 0 0 0 0 0 0 0 0 0 0 0 0 0 0 0 0 0 0 0 0 108 109 111 109 114 117 118 118 -209 -193 -193 116 119 116 117 115 115 115 115 115 114 111 109 107 106 105 105 104 104 105 106 107 110 111 113 112 112 111 112 109 109 108 107 107 110 109 110 108 108 107 108 107 107 105 105 105 108 112 112 112 113 111 110 111 112 109 109 108 107 108 107 109 111 107 108 108 108 108 107 109 108 105 110 110 106 105 109 108 108 109 111 110 108 108 108 108 107 107 106 105 106 107 108 108 107 107 106 106 106 103 103 100 102 100 101 102 103 103 104 104 106 106 106 106 107 107 107 107 108 106 106 107 107 107 106 106 106 106 107 108 108 108 108 108 107 106 109 103 103 103 102 103 104 104 104 103 105 105 106 107 108 109 109 111 110 101 101 100 102 102 103 103 103 103 107 109 110 109 108 109 112 112 113 112 112 111 113 113 115 115 110 111 111 110 110 110 114 114 112 116 116 117 117 117 117 116 114 115 113 108 108 108 108 -209 106 108 108 109 110 110 110 110 110 113 112 113 112 111 111 111 111 112 116 119 -209 -193 135 137 144 140 140 141 140 140 139 140 0 0 0 0 0
    0 0 0 0 0 0 0 0 0 0 0 0 0 0 0 0 0 0 0 0 0 0 0 0 0 0 0 0 0 0 0 0 0 0 0 0 0 0 0 0 0 0 0 0 0 0 0 0 0 0 0 0 0 0 0 0 0 0 0 0 0 0 0 0 0 0 0 0 0 109 110 113 112 117 119 120 119 120 119 118 119 120 117 118 116 115 115 115 114 114 111 110 107 107 106 106 105 106 106 107 109 112 113 115 115 115 114 115 112 112 110 109 109 112 110 112 111 110 110 110 110 109 107 107 106 108 112 111 -193 112 111 110 112 112 110 110 110 109 110 108 110 113 108 109 109 109 109 108 111 110 106 114 114 113 109 114 110 111 112 113 112 110 110 110 109 109 109 107 106 108 109 110 109 109 110 109 109 109 106 106 104 104 104 103 104 106 106 107 107 108 109 108 109 108 108 109 108 111 109 108 109 109 108 107 108 108 106 108 110 109 111 111 111 109 109 113 104 104 104 103 104 105 105 105 105 107 106 107 108 110 110 111 113 112 103 103 103 103 104 104 104 104 105 108 109 110 110 109 110 112 112 113 112 112 110 114 113 114 115 110 111 111 111 110 110 114 114 113 115 115 116 116 116 116 115 115 116 115 109 110 109 -209 -193 -193 109 108 110 111 111 112 111 112 115 113 114 112 112 112 112 111 113 116 119 123 132 134 136 142 139 140 140 140 140 139 140 0 0 0 0 0
    0 0 0 0 0 0 0 0 0 0 0 0 0 0 0 0 0 0 0 0 0 0 0 0 0 0 0 0 0 0 0 0 0 0 0 0 0 0 0 0 0 0 0 0 0 0 0 0 0 0 0 0 0 0 0 0 0 0 0 0 0 0 0 0 0 0 0 0 0 111 111 115 114 118 120 121 121 122 121 120 120 120 117 118 116 115 114 114 114 114 111 111 108 108 107 108 107 108 108 109 111 113 113 115 115 115 115 115 114 113 111 110 112 114 112 113 113 112 112 113 112 111 108 109 108 108 112 111 -193 113 111 112 113 113 112 111 113 111 112 109 112 114 110 110 110 111 110 110 113 111 108 115 115 114 111 115 112 112 114 114 114 111 111 111 110 111 110 108 108 110 111 112 112 112 113 111 111 112 108 109 108 108 108 106 108 109 109 110 109 110 110 109 110 109 110 110 110 114 111 110 112 111 110 109 110 110 107 110 111 111 113 114 113 111 111 115 106 105 105 105 106 106 107 106 106 108 108 109 110 111 112 111 114 112 104 104 105 105 106 105 105 105 105 108 110 111 110 109 111 112 112 114 113 112 109 115 114 115 115 110 111 112 113 111 111 115 114 113 115 115 116 116 116 117 116 117 119 118 116 116 113 -209 -209 -209 111 110 114 114 113 114 113 114 116 114 114 113 112 113 111 112 113 115 119 123 129 133 136 141 139 140 140 140 140 139 140 0 0 0 0 0
    0 0 0 0 0 0 0 0 0 0 0 0 0 0 0 0 0 0 0 0 0 0 0 0 0 0 0 0 0 0 0 0 0 0 0 0 0 0 0 0 0 0 0 0 0 0 0 0 0 0 0 0 0 0 0 0 0 0 0 0 0 0 0 0 0 0 0 0 0 112 111 115 115 118 120 120 120 121 120 120 119 120 117 118 116 116 115 115 114 114 112 113 110 110 109 110 109 111 110 111 112 114 113 115 116 116 116 116 115 115 113 112 114 115 113 114 114 113 113 114 114 113 110 112 112 110 115 113 113 114 112 112 114 113 112 112 113 112 113 110 113 115 111 111 112 112 112 111 114 113 109 116 116 115 114 116 114 114 115 115 114 113 113 113 112 113 112 110 109 113 113 114 114 114 115 114 114 114 111 112 110 111 111 109 112 112 111 112 111 111 111 110 110 109 110 110 110 115 112 112 113 112 111 110 111 111 107 110 112 111 114 116 114 113 113 116 110 107 108 107 108 109 109 108 109 110 110 110 111 112 112 112 115 113 107 106 107 106 109 106 106 106 106 108 110 112 110 109 112 113 113 114 114 114 111 118 117 118 117 115 116 116 116 112 111 115 114 114 115 116 116 117 117 118 118 119 121 122 122 123 120 125 133 -209 -193 115 118 117 116 117 115 116 116 114 115 113 113 113 111 112 114 116 -193 -193 131 133 136 140 139 139 140 139 139 139 140 0 0 0 0 0
    0 0 0 0 0 0 0 0 0 0 0 0 0 0 0 0 0 0 0 0 0 0 0 0 0 0 0 0 0 0 0 0 0 0 0 0 0 0 0 0 0 0 0 0 0 0 0 0 0 0 0 0 0 0 0 0 0 0 0 0 0 0 0 0 0 0 0 0 0 113 111 116 116 118 120 120 120 120 119 119 118 119 116 118 117 116 115 115 115 114 113 113 111 111 112 111 111 113 114 115 115 116 114 115 117 117 117 116 114 116 114 113 115 115 114 114 115 114 114 115 115 113 110 114 114 111 115 113 112 113 112 113 114 112 112 111 113 111 113 110 113 116 112 112 113 114 113 113 115 115 110 118 117 117 116 117 115 115 116 115 115 114 114 113 113 114 113 111 111 115 114 115 114 115 116 115 115 115 112 113 112 113 113 111 114 114 112 113 112 112 112 110 111 109 110 111 111 116 113 112 114 113 112 111 112 111 107 110 113 111 115 117 116 115 116 116 114 110 111 109 111 112 113 110 112 113 111 111 113 112 113 113 115 113 111 109 111 109 112 108 108 107 108 109 110 112 111 109 112 113 113 114 115 115 113 119 119 121 120 120 120 120 119 115 113 116 114 115 115 115 116 117 117 118 118 121 122 123 123 124 123 125 126 123 120 118 120 119 118 118 117 117 117 115 115 113 113 114 112 113 115 117 120 126 133 134 137 139 139 139 139 139 139 139 140 0 0 0 0 0
    0 0 0 0 0 0 0 0 0 0 0 0 0 0 0 0 0 0 0 0 0 0 0 0 0 0 0 0 0 0 0 0 0 0 0 0 0 0 0 0 0 0 0 0 0 0 0 0 0 0 0 0 0 0 0 0 0 0 0 0 0 0 0 0 0 0 0 0 0 113 110 116 116 118 120 120 120 120 119 119 118 119 116 117 116 115 115 114 114 114 113 113 111 110 112 112 111 114 114 116 116 117 115 115 118 118 117 117 114 116 113 113 116 116 114 113 114 114 113 114 114 112 110 113 114 110 112 111 109 111 112 112 114 112 113 112 114 113 114 110 114 117 113 113 114 115 114 114 116 116 111 118 118 118 117 117 115 115 116 115 115 115 114 114 113 115 114 112 112 116 115 115 115 115 116 115 115 115 112 113 113 113 114 112 114 114 112 112 112 111 112 110 111 110 110 111 112 116 114 113 114 113 112 112 113 111 107 111 115 112 116 118 117 116 117 115 115 112 114 111 113 115 116 112 116 115 113 113 114 113 114 113 115 113 113 113 113 112 115 110 110 109 109 109 111 114 112 110 113 114 114 115 116 116 113 120 120 121 121 121 121 121 121 118 117 117 114 114 114 115 116 116 117 118 118 121 122 123 123 124 124 125 124 122 120 118 120 119 118 119 118 118 117 115 115 113 113 113 111 113 116 118 121 127 134 135 138 139 139 140 140 140 139 139 139 0 0 0 0 0
    0 0 0 0 0 0 0 0 0 0 0 0 0 0 0 0 0 0 0 0 0 0 0 0 0 0 0 0 0 0 0 0 0 0 0 0 0 0 0 0 0 0 0 0 0 0 0 0 0 0 0 0 0 0 0 0 0 0 0 0 0 0 0 0 0 0 0 0 0 113 110 116 116 118 120 120 119 119 119 119 118 118 116 117 116 115 114 114 114 114 113 113 111 111 114 113 113 115 116 117 117 117 115 115 117 117 117 117 115 116 113 114 116 116 113 113 114 113 113 114 113 111 109 112 113 109 109 109 107 110 111 111 114 112 113 114 115 114 116 111 114 117 114 114 115 115 115 115 117 116 111 118 117 117 116 117 114 115 116 116 115 115 115 114 113 115 114 112 112 117 115 115 115 115 116 115 115 116 112 114 113 113 114 112 115 113 111 112 111 111 112 110 111 109 111 111 112 117 114 113 115 114 113 113 114 112 108 113 115 113 115 117 116 116 117 114 114 113 115 113 115 117 119 116 118 116 115 115 115 114 115 114 116 113 114 115 116 115 116 112 112 110 111 110 111 115 112 111 114 114 114 115 115 116 112 119 119 120 120 121 121 121 121 119 118 118 114 115 114 115 116 116 117 118 119 121 123 123 123 124 124 125 123 122 120 118 119 120 118 119 119 118 118 115 115 113 113 113 112 114 116 118 121 129 134 136 139 140 140 140 140 140 139 139 139 0 0 0 0 0
    0 0 0 0 0 0 0 0 0 0 0 0 0 0 0 0 0 0 0 0 0 0 0 0 0 0 0 0 0 0 0 0 0 0 0 0 0 0 0 0 0 0 0 0 0 0 0 0 0 0 0 0 0 0 0 0 0 0 0 0 0 0 0 0 0 0 0 0 0 113 110 117 116 119 120 120 120 119 119 119 118 119 117 117 117 116 115 115 115 115 114 114 113 113 116 116 116 117 117 118 118 117 115 115 116 117 117 117 115 116 114 115 117 116 113 113 114 113 113 113 113 111 109 112 113 108 108 108 106 108 111 111 114 112 113 114 115 115 116 111 114 117 114 115 115 115 115 114 116 115 111 117 116 117 116 116 114 114 116 116 115 115 115 114 114 116 115 112 112 117 114 115 114 115 115 115 115 116 112 114 113 113 114 112 115 113 112 112 112 112 112 111 112 110 111 110 113 117 114 114 115 114 114 113 114 112 108 113 114 112 113 114 112 113 115 112 111 110 112 112 115 117 119 116 119 117 115 115 116 115 115 114 116 113 115 116 117 116 117 113 113 111 112 111 111 116 113 112 114 114 114 115 115 115 111 118 119 120 120 120 121 121 121 119 118 118 113 114 114 115 116 116 117 119 120 122 123 123 123 124 123 123 122 121 119 117 118 120 118 119 119 119 119 117 117 116 115 116 114 116 118 120 124 132 135 136 139 139 140 140 140 140 139 139 139 0 0 0 0 0
    0 0 0 0 0 0 0 0 0 0 0 0 0 0 0 0 0 0 0 0 0 0 0 0 0 0 0 0 0 0 0 0 0 0 0 0 0 0 0 0 0 0 0 0 0 0 0 0 0 0 0 0 0 0 0 0 0 0 0 0 0 0 0 0 0 0 0 0 0 114 110 118 117 119 121 121 121 121 120 120 119 120 118 118 118 117 116 116 116 116 115 115 114 114 117 117 116 117 118 118 118 118 116 116 117 118 117 118 116 117 114 116 117 116 112 112 114 113 113 113 113 111 109 113 113 109 109 108 107 107 111 110 114 112 113 114 116 116 117 112 115 117 114 114 114 114 114 114 116 114 111 116 115 116 116 115 114 113 116 115 115 115 115 114 114 116 115 112 112 117 113 114 113 114 115 114 115 115 111 114 113 113 114 112 115 114 113 113 112 112 113 112 113 110 112 110 114 117 115 114 115 114 114 114 114 111 108 113 114 111 112 112 109 111 112 111 110 109 111 111 114 117 118 116 119 116 115 115 115 115 115 114 115 112 115 116 117 116 117 114 114 112 113 111 111 117 112 111 113 113 114 115 115 115 110 119 119 120 120 121 121 121 121 119 119 118 112 113 113 114 116 117 118 120 122 123 124 124 124 124 124 123 122 121 119 117 117 120 118 119 119 119 119 117 117 116 115 116 115 117 119 122 127 133 135 136 139 139 139 139 139 139 139 138 139 0 0 0 0 0
    0 0 0 0 0 0 0 0 0 0 0 0 0 0 0 0 0 0 0 0 0 0 0 0 0 0 0 0 0 0 0 0 0 0 0 0 0 0 0 0 0 0 0 0 0 0 0 0 0 0 0 0 0 0 0 0 0 0 0 0 0 0 0 0 0 0 0 0 0 115 110 118 118 119 122 122 122 122 122 122 120 121 119 119 119 118 118 117 116 116 116 116 115 115 118 117 117 118 118 119 119 117 115 115 116 117 117 116 115 115 114 116 117 116 112 112 114 113 113 113 113 111 110 113 113 109 109 109 108 106 108 107 110 108 110 112 115 117 117 112 115 117 114 115 114 114 113 113 115 113 110 115 113 115 115 115 113 112 116 115 115 115 115 114 115 117 116 112 111 117 113 114 113 113 114 114 114 115 111 114 113 114 114 113 115 114 113 113 113 113 114 112 113 110 113 111 115 117 114 114 115 114 114 114 114 111 109 113 114 111 113 112 109 110 111 110 110 109 110 111 113 117 118 116 119 116 115 115 115 115 115 114 115 111 115 115 116 115 117 114 114 112 113 111 111 116 112 111 113 113 114 115 115 116 111 120 120 121 120 121 121 121 120 119 119 119 111 113 114 115 117 120 121 124 125 125 125 125 124 124 124 124 122 121 119 118 117 120 118 119 119 118 118 117 117 117 116 117 116 117 120 125 129 133 135 136 139 138 139 139 139 139 139 138 139 0 0 0 0 0
    0 0 0 0 0 0 0 0 0 0 0 0 0 0 0 0 0 0 0 0 0 0 0 0 0 0 0 0 0 0 0 0 0 0 0 0 0 0 0 0 0 0 0 0 0 0 0 0 0 0 0 0 0 0 0 0 0 0 0 0 0 0 0 0 0 0 0 0 0 115 111 119 119 119 122 122 123 122 123 124 122 121 120 120 119 118 118 117 117 117 116 116 116 116 118 118 117 118 119 119 118 117 115 114 115 116 115 115 113 112 112 115 117 116 112 111 114 112 112 112 112 111 110 112 113 109 -193 -193 110 -193 109 107 108 107 108 110 114 118 118 113 115 117 114 115 115 114 113 113 115 113 110 115 111 114 115 115 113 112 115 115 114 115 115 114 115 116 115 111 109 117 112 114 112 112 113 114 114 115 111 114 113 114 114 113 115 114 113 113 113 113 114 112 113 110 113 111 115 116 113 113 114 113 113 114 114 111 109 114 115 113 114 113 109 110 111 109 109 108 110 111 113 117 117 116 119 116 116 115 115 115 115 114 115 111 115 114 116 115 117 113 113 111 112 111 110 117 112 111 112 113 114 115 116 116 112 120 120 122 121 121 121 122 121 121 122 121 114 117 117 117 120 124 125 128 127 127 126 125 125 125 124 124 123 122 120 118 118 121 119 119 120 118 118 118 118 118 116 117 116 117 121 127 130 133 135 136 138 138 139 139 139 139 139 138 139 0 0 0 0 0
    0 0 0 0 0 0 0 0 0 0 0 0 0 0 0 0 0 0 0 0 0 0 0 0 0 0 0 0 0 0 0 0 0 0 0 0 0 0 0 0 0 0 0 0 0 0 0 0 0 0 0 0 0 0 0 0 0 0 0 0 0 0 0 0 0 0 0 0 0 116 111 118 118 119 121 122 122 121 123 124 123 123 122 120 120 119 119 118 117 117 117 117 116 116 118 118 118 119 119 119 118 117 116 116 115 116 115 115 113 110 110 111 116 116 112 111 113 112 112 113 112 111 110 113 114 110 110 112 110 -209 -209 -193 -209 -193 104 107 112 119 120 115 116 118 114 116 115 114 113 113 115 113 110 115 111 114 116 115 113 112 115 114 113 115 114 113 114 116 115 -193 108 117 112 113 112 111 112 113 113 115 110 113 112 113 114 113 115 114 113 113 113 113 114 113 112 109 113 110 115 115 111 111 113 111 113 113 113 110 109 115 115 114 115 114 109 110 110 109 109 107 108 109 111 115 116 116 119 115 116 115 115 115 115 115 115 111 115 114 116 115 116 112 112 110 111 109 109 117 112 111 113 113 115 116 117 117 114 121 122 123 123 122 122 123 123 124 124 124 121 122 123 123 124 126 125 127 127 126 125 125 124 124 124 124 122 122 120 118 118 121 120 120 120 118 118 118 118 118 116 117 117 117 121 128 129 132 135 136 138 137 138 139 139 139 139 138 138 0 0 0 0 0
    0 0 0 0 0 0 0 0 0 0 0 0 0 0 0 0 0 0 0 0 0 0 0 0 0 0 0 0 0 0 0 0 0 0 0 0 0 0 0 0 0 0 0 0 0 0 0 0 0 0 0 0 0 0 0 0 0 0 0 0 0 0 0 0 0 0 0 0 0 117 115 121 121 122 122 124 124 122 124 125 125 125 125 123 120 120 120 118 118 117 118 118 117 117 118 119 119 120 120 119 118 117 117 117 114 115 115 114 115 -209 -209 -209 -193 117 112 110 113 112 113 112 112 111 109 112 114 109 109 110 108 -209 -209 -193 -209 -193 104 109 114 -209 -193 117 118 118 115 117 116 114 114 114 116 113 110 115 110 113 116 114 113 111 114 114 113 114 113 112 114 115 114 -193 107 116 112 114 111 111 111 112 113 115 109 113 111 112 113 113 115 114 114 113 113 114 115 114 113 110 114 110 116 114 111 111 112 111 112 113 113 110 110 116 116 115 116 115 109 109 110 108 108 105 106 106 108 114 114 115 119 114 116 115 115 115 115 115 115 110 116 114 116 116 116 112 112 110 111 110 110 118 112 112 114 114 116 117 117 117 114 121 121 122 123 122 122 122 123 126 125 125 123 123 125 125 126 126 124 126 125 125 125 124 124 124 124 124 123 122 122 121 120 124 123 122 122 120 120 120 119 119 117 118 117 118 121 126 127 130 134 136 137 137 138 138 138 139 139 138 138 0 0 0 0 0
    0 0 0 0 0 0 0 0 0 0 0 0 0 0 0 0 0 0 0 0 0 0 0 0 0 0 0 0 0 0 0 0 0 0 0 0 0 0 0 0 0 0 0 0 0 0 0 0 0 0 0 0 0 0 0 0 0 0 0 0 0 0 0 0 0 0 0 0 0 120 -193 125 125 125 125 128 128 125 126 127 128 128 128 127 123 122 122 120 119 119 120 120 120 119 121 121 121 122 121 120 118 117 118 117 113 114 115 114 116 -209 -209 -209 -193 117 111 110 113 112 112 112 112 111 109 113 114 110 -193 -193 -209 108 112 113 117 114 110 117 -193 -209 -209 -193 121 120 117 -193 -193 -193 -193 -193 -193 113 110 -193 -209 114 116 115 113 111 114 114 113 114 113 112 113 114 114 109 107 116 112 115 112 112 112 112 113 115 110 113 111 112 113 114 116 115 115 115 114 115 116 115 115 111 116 109 116 114 110 111 110 110 111 113 114 111 112 117 118 117 117 116 110 -193 -193 108 108 -209 105 106 108 114 113 114 118 114 115 115 115 115 115 115 115 111 117 114 117 118 117 113 112 111 111 110 111 119 112 112 115 115 116 117 117 117 114 121 121 122 122 122 122 122 124 127 125 127 124 124 125 126 126 127 125 127 126 125 125 125 125 125 125 125 124 124 126 126 124 130 129 125 124 121 121 121 119 120 117 118 118 119 121 126 129 131 134 136 137 138 138 138 138 138 138 138 137 0 0 0 0 0
    0 0 0 0 0 0 0 0 0 0 0 0 0 0 0 0 0 0 0 0 0 0 0 0 0 0 0 0 0 0 0 0 0 0 0 0 0 0 0 0 0 0 0 0 0 0 0 0 0 0 0 0 0 0 0 0 0 0 0 0 0 0 0 0 0 0 0 0 0 124 126 127 127 128 126 130 129 127 128 129 130 131 131 131 127 125 126 123 121 121 121 122 122 121 122 123 123 124 122 -193 118 118 120 119 115 116 117 117 118 -209 -209 -193 115 118 112 110 113 112 113 113 112 112 110 115 117 -209 -209 121 122 122 122 123 124 123 120 121 -193 -193 126 124 124 123 -193 -193 -209 -193 -193 -193 -209 -209 -193 -209 -209 115 117 117 116 112 114 114 113 114 113 112 114 114 115 110 108 117 115 117 115 115 115 115 115 116 112 116 114 115 115 116 118 117 118 117 116 117 118 118 118 114 118 109 116 113 110 110 109 109 111 113 115 113 116 120 121 120 120 119 -193 -193 -209 113 112 -209 -193 110 111 115 114 115 118 113 115 115 115 115 115 116 116 112 119 117 121 122 122 117 114 112 -193 112 114 119 112 112 115 115 116 117 117 116 113 120 120 121 122 122 121 122 124 127 125 128 125 125 126 127 127 127 126 128 126 126 126 125 125 125 126 125 125 125 130 130 131 133 133 129 127 124 122 122 120 122 119 121 120 121 122 129 132 133 135 136 137 137 138 138 138 138 138 138 137 0 0 0 0 0
    0 0 0 0 0 0 0 0 0 0 0 0 0 0 0 0 0 0 0 0 0 0 0 0 0 0 0 0 0 0 0 0 0 0 0 0 0 0 0 0 0 0 0 0 0 0 0 0 0 0 0 0 0 0 0 0 0 0 0 0 0 0 0 0 0 0 0 0 0 128 128 129 129 130 127 131 130 128 129 130 131 131 131 132 130 128 131 128 125 125 124 125 125 123 124 124 125 127 125 -193 122 122 126 -209 -209 -209 -209 -209 124 127 -209 -209 121 122 117 112 116 114 114 115 114 114 112 119 121 -193 124 125 126 125 124 124 124 123 121 122 -193 124 125 126 125 126 122 122 122 -209 -209 -209 -209 -209 -209 -193 -209 -193 119 118 117 112 113 114 112 114 115 114 117 -193 118 116 113 120 118 120 118 118 118 118 118 118 115 118 117 118 117 117 119 119 119 121 119 119 120 121 122 -193 121 119 120 116 113 112 110 109 112 116 117 118 121 123 124 124 123 123 121 122 119 118 117 -209 -209 -193 115 117 115 116 118 112 115 115 115 116 116 117 117 115 121 122 123 125 124 123 122 -193 -193 -193 120 120 114 113 115 116 117 117 117 117 114 120 121 121 122 122 121 123 125 130 126 130 127 127 128 128 127 127 126 128 125 126 125 125 125 125 125 125 125 126 130 131 131 133 133 129 128 125 122 122 121 123 121 122 122 122 124 131 132 133 135 137 137 137 137 137 138 137 138 138 136 0 0 0 0 0
    0 0 0 0 0 0 0 0 0 0 0 0 0 0 0 0 0 0 0 0 0 0 0 0 0 0 0 0 0 0 0 0 0 0 0 0 0 0 0 0 0 0 0 0 0 0 0 0 0 0 0 0 0 0 0 0 0 0 0 0 0 0 0 0 0 0 0 0 0 130 129 130 130 131 128 131 130 128 130 131 131 131 130 132 130 130 132 130 128 128 126 128 128 124 126 128 131 132 131 134 127 129 131 -193 -193 -193 -193 -193 130 132 -193 -193 129 129 -209 -193 120 120 117 118 117 117 116 121 125 130 126 127 128 127 125 125 125 124 121 122 124 124 125 127 127 128 124 125 125 123 123 124 124 -193 -209 -193 -209 -209 121 121 120 114 114 116 116 117 120 120 122 123 122 123 122 123 122 123 122 121 121 121 120 121 119 121 121 121 121 120 121 122 122 124 122 121 122 123 125 123 123 122 121 118 115 114 110 110 113 118 119 121 123 125 127 127 125 125 124 126 123 122 123 -209 -209 -193 119 118 116 116 118 112 115 115 116 117 118 119 119 119 122 123 125 127 126 125 124 122 124 123 123 122 116 115 117 117 118 118 118 118 115 121 122 122 123 123 123 126 130 133 129 132 129 130 129 129 128 128 126 128 124 126 124 125 125 125 125 125 126 128 131 131 131 132 132 129 128 124 122 122 122 123 121 122 122 123 124 131 132 132 135 137 136 137 137 137 137 137 137 138 135 0 0 0 0 0
    0 0 0 0 0 0 0 0 0 0 0 0 0 0 0 0 0 0 0 0 0 0 0 0 0 0 0 0 0 0 0 0 0 0 0 0 0 0 0 0 0 0 0 0 0 0 0 0 0 0 0 0 0 0 0 0 0 0 0 0 0 0 0 0 0 0 0 0 0 129 129 129 130 131 128 132 130 129 130 131 130 131 129 131 128 129 132 130 129 130 129 131 131 130 132 133 134 135 134 137 131 132 132 -193 -193 -193 -193 -193 132 134 132 132 132 131 132 126 126 126 122 123 -193 -193 121 124 128 132 127 129 130 128 126 126 126 125 123 124 126 125 127 129 130 130 127 127 129 128 127 128 -193 -193 -193 -193 -209 -209 123 123 122 122 -193 123 125 123 130 129 131 132 129 131 129 128 129 128 127 125 125 124 123 123 122 123 123 124 124 122 125 127 126 128 127 124 124 127 129 127 126 125 123 -209 117 117 -209 110 116 -193 121 125 126 127 128 129 128 127 127 129 126 125 129 -193 -209 129 -209 120 118 118 118 113 116 116 118 119 120 121 121 122 124 125 126 128 127 127 126 124 126 125 125 124 119 118 119 119 119 118 119 119 117 122 123 123 124 124 126 130 131 133 130 132 130 130 130 129 128 128 125 127 123 125 -193 -193 124 124 124 125 128 131 131 132 131 131 132 130 129 125 122 123 122 124 121 122 122 123 125 132 132 132 134 137 136 137 137 137 137 137 137 137 134 0 0 0 0 0
    0 0 0 0 0 0 0 0 0 0 0 0 0 0 0 0 0 0 0 0 0 0 0 0 0 0 0 0 0 0 0 0 0 0 0 0 0 0 0 0 0 0 0 0 0 0 0 0 0 0 0 0 0 0 0 0 0 0 0 0 0 0 0 0 0 0 0 0 0 129 128 128 129 131 127 131 130 128 130 130 130 130 129 131 128 129 132 130 130 131 130 132 133 133 134 135 136 136 136 138 134 134 133 -193 -193 -193 -193 -193 134 135 133 134 134 133 134 131 131 131 127 130 -193 -209 -193 127 131 134 129 130 131 128 128 128 128 127 124 126 128 126 129 130 131 131 128 129 131 -193 -193 -193 -193 -193 -193 -193 -209 -209 126 -193 -193 -193 -193 127 130 129 133 133 133 133 131 133 131 131 132 131 131 130 130 128 126 127 126 125 126 127 126 125 129 131 130 131 131 127 127 129 130 130 128 127 -193 123 121 -209 -209 -209 -209 -193 126 131 130 129 130 130 129 129 129 130 127 128 131 -193 -209 -193 -193 -209 120 118 118 112 116 117 119 122 122 123 124 124 125 126 128 128 127 128 127 125 127 126 127 125 122 121 121 120 120 119 119 119 118 122 124 124 125 126 129 131 132 133 130 132 130 130 130 128 127 128 125 126 122 124 -193 122 124 123 125 127 132 133 132 133 132 132 133 132 131 129 125 126 126 127 123 124 123 124 128 132 133 132 135 137 136 137 137 137 137 137 137 137 134 0 0 0 0 0
    0 0 0 0 0 0 0 0 0 0 0 0 0 0 0 0 0 0 0 0 0 0 0 0 0 0 0 0 0 0 0 0 0 0 0 0 0 0 0 0 0 0 0 0 0 0 0 0 0 0 0 0 0 0 0 0 0 0 0 0 0 0 0 0 0 0 0 0 0 129 129 128 129 -193 127 131 130 128 129 130 130 130 129 131 127 129 132 130 130 132 130 132 133 134 134 135 -193 136 136 137 134 134 133 -193 -193 -193 -193 134 133 135 133 134 134 133 133 132 132 132 129 132 -193 -193 -193 131 132 134 129 130 131 130 130 130 129 129 126 128 130 127 128 130 131 131 129 130 130 130 131 131 130 -193 -193 -193 -193 -193 128 127 127 130 128 130 132 131 133 133 133 133 131 133 131 132 132 132 131 132 131 130 128 129 128 127 128 128 128 126 129 131 130 130 131 128 128 128 130 130 129 128 126 125 125 126 -193 -193 -193 130 129 133 131 130 131 131 130 130 130 131 127 128 131 -193 -209 -193 -177 -177 -209 115 116 108 115 119 121 125 125 126 127 126 126 127 129 128 127 129 127 126 128 128 128 126 125 125 124 123 123 121 121 120 119 123 124 124 125 126 131 132 132 133 130 132 130 131 130 129 127 128 125 126 122 124 122 122 124 123 126 130 133 133 132 133 132 132 133 132 131 130 126 130 131 130 125 126 125 128 131 132 133 133 135 138 136 137 137 137 138 137 137 137 133 0 0 0 0 0
    0 0 0 0 0 0 0 0 0 0 0 0 0 0 0 0 0 0 0 0 0 0 0 0 0 0 0 0 0 0 0 0 0 0 0 0 0 0 0 0 0 0 0 0 0 0 0 0 0 0 0 0 0 0 0 0 0 0 0 0 0 0 0 0 0 0 0 0 0 129 129 129 131 131 128 132 130 128 129 130 129 129 129 131 128 129 132 131 130 132 131 132 132 134 135 -193 -193 -193 136 137 135 135 133 133 -193 132 -193 133 133 134 133 134 134 133 133 132 132 133 130 131 131 -209 -209 133 133 135 130 131 132 132 132 131 130 130 127 130 -193 -193 127 129 130 131 129 130 130 129 130 131 130 130 128 130 -193 -193 128 128 128 -193 128 130 132 132 134 133 133 133 131 133 131 131 131 131 130 131 131 130 128 130 128 128 129 130 130 128 130 131 131 131 131 128 128 128 130 131 129 128 127 126 126 128 125 125 125 130 129 133 131 131 131 131 130 130 130 131 127 129 129 128 -193 130 -193 -193 121 119 119 117 117 122 123 126 126 127 128 127 127 127 130 128 127 129 128 127 128 128 129 126 127 128 127 127 126 124 123 122 120 121 122 122 123 125 131 133 131 133 130 132 130 130 130 128 127 127 125 126 123 125 124 125 127 128 129 131 133 133 131 132 131 132 132 132 131 131 128 133 134 133 128 129 128 131 134 133 134 134 136 139 137 138 137 137 138 137 138 137 134 0 0 0 0 0
    0 0 0 0 0 0 0 0 0 0 0 0 0 0 0 0 0 0 0 0 0 0 0 0 0 0 0 0 0 0 0 0 0 0 0 0 0 0 0 0 0 0 0 0 0 0 0 0 0 0 0 0 0 0 0 0 0 0 0 0 0 0 0 0 0 0 0 0 0 129 129 129 -193 -193 127 131 130 128 129 130 129 129 129 131 128 129 132 131 130 132 131 131 131 134 136 137 137 136 136 136 136 136 134 133 -193 132 134 134 133 134 133 134 134 133 134 132 -193 133 129 131 130 -193 -193 -193 -193 -193 130 131 133 133 133 132 130 130 128 -209 -177 -177 -209 -193 -193 -193 128 129 129 129 130 130 130 129 128 130 128 130 128 129 129 -193 -209 -193 -193 -193 134 133 133 133 131 133 131 131 131 131 130 131 131 130 129 130 129 128 129 130 130 128 130 131 131 130 130 128 128 128 130 131 129 128 127 127 127 129 126 126 125 129 128 132 131 130 130 130 129 129 129 130 126 127 127 127 128 128 128 124 123 122 122 123 122 125 126 127 126 129 128 128 126 126 129 128 127 129 128 127 128 129 129 126 127 130 128 129 130 129 129 128 128 125 126 126 125 126 133 134 132 133 131 132 130 131 131 128 126 127 125 126 123 125 123 122 122 124 123 125 128 131 128 131 131 132 132 131 130 130 127 133 133 133 129 130 129 132 134 134 134 134 137 139 137 137 137 137 138 138 138 137 134 0 0 0 0 0
    0 0 0 0 0 0 0 0 0 0 0 0 0 0 0 0 0 0 0 0 0 0 0 0 0 0 0 0 0 0 0 0 0 0 0 0 0 0 0 0 0 0 0 0 0 0 0 0 0 0 0 0 0 0 0 0 0 0 0 0 0 0 0 0 0 0 0 0 0 128 128 127 -193 -193 127 131 129 128 129 130 129 129 129 131 128 129 132 130 130 131 130 129 130 134 136 137 138 137 136 137 136 137 134 133 134 133 134 134 133 134 -193 -193 -193 133 134 132 -193 133 130 131 130 128 132 135 -193 -193 130 131 133 133 133 132 130 131 128 -209 -177 -193 -209 -193 -193 -193 128 128 128 128 130 130 129 129 128 130 128 -193 129 129 -193 -193 -209 -193 -193 -193 134 133 133 133 131 133 131 131 131 131 130 130 131 131 129 130 129 129 130 131 131 128 130 131 130 130 130 127 128 128 130 130 129 129 128 128 128 129 127 127 126 130 129 132 131 130 130 130 129 129 128 129 125 125 125 126 -193 126 128 125 124 124 124 125 124 126 127 127 126 129 128 128 126 125 129 128 127 129 128 127 128 129 129 127 128 130 128 131 132 131 131 131 130 128 127 128 125 125 133 134 132 134 132 133 131 131 131 129 127 128 125 125 123 124 122 121 120 121 120 120 122 125 124 126 127 128 128 128 127 128 125 -209 -209 -193 -193 -193 129 132 135 134 133 134 136 138 136 137 137 137 138 138 139 137 133 0 0 0 0 0
    0 0 0 0 0 0 0 0 0 0 0 0 0 0 0 0 0 0 0 0 0 0 0 0 0 0 0 0 0 0 0 0 0 0 0 0 0 0 0 0 0 0 0 0 0 0 0 0 0 0 0 0 0 0 0 0 0 0 0 0 0 0 0 0 0 0 0 0 0 128 127 127 -193 -209 127 131 129 127 129 130 130 129 129 131 128 130 132 130 130 131 131 130 131 134 136 138 139 137 137 137 137 137 134 133 134 133 134 134 133 134 -193 -193 -193 -193 -193 -193 -193 -193 130 131 131 -193 133 -209 -193 -193 130 132 133 134 -193 -193 -209 -193 -209 -209 -177 -209 -209 -177 -177 -193 128 128 128 128 129 130 129 128 128 130 -193 -193 129 -193 -209 -209 -209 -193 -193 -193 133 133 133 133 131 134 131 131 131 130 130 129 131 131 129 130 130 130 131 132 133 129 130 132 131 130 129 127 128 128 129 130 129 129 129 129 129 130 128 129 127 130 129 132 131 130 129 130 128 128 128 128 125 125 124 -193 -193 126 127 125 124 124 124 125 125 126 127 127 126 129 128 127 125 124 128 127 127 129 128 127 128 129 129 127 128 130 129 131 132 131 131 131 131 131 131 132 127 127 134 135 133 134 132 133 131 132 131 129 126 128 123 123 121 120 118 117 117 118 117 119 121 124 123 125 126 127 127 127 126 126 125 -209 70 -193 -193 -209 -193 128 134 133 131 133 135 137 136 136 136 136 138 138 139 138 134 0 0 0 0 0
    0 0 0 0 0 0 0 0 0 0 0 0 0 0 0 0 0 0 0 0 0 0 0 0 0 0 0 0 0 0 0 0 0 0 0 0 0 0 0 0 0 0 0 0 0 0 0 0 0 0 0 0 0 0 0 0 0 0 0 0 0 0 0 0 0 0 0 0 0 128 128 127 -209 -209 127 131 129 127 128 130 129 129 129 131 128 130 132 131 130 131 131 131 131 135 137 139 140 137 137 137 137 136 134 133 134 133 135 133 133 134 -193 -193 -193 -193 -193 -193 669 -193 130 131 131 -193 -193 -209 -209 -209 131 133 134 -193 -193 -193 -209 -209 -209 -193 -177 -209 -209 -177 -177 -193 128 128 127 128 129 130 129 127 127 129 -193 -193 -193 -193 -209 -209 -209 -193 -209 -193 133 133 133 133 131 134 131 131 132 131 129 129 130 131 129 130 130 130 132 133 133 131 131 132 132 130 130 128 128 128 129 130 129 130 130 130 130 130 129 130 128 131 129 132 131 130 130 130 128 128 127 128 124 124 124 -193 -193 125 127 125 124 124 124 125 125 125 126 126 125 128 128 127 125 123 129 127 127 129 128 127 128 129 129 127 128 130 129 131 132 132 131 131 130 131 131 133 130 130 135 136 134 134 132 132 131 131 131 128 126 127 123 122 121 120 117 114 114 115 115 116 118 121 121 123 125 127 127 127 126 126 -193 -209 70 71 71 78 -209 -177 -177 132 130 132 135 136 135 136 136 136 138 139 139 138 135 0 0 0 0 0
    0 0 0 0 0 0 0 0 0 0 0 0 0 0 0 0 0 0 0 0 0 0 0 0 0 0 0 0 0 0 0 0 0 0 0 0 0 0 0 0 0 0 0 0 0 0 0 0 0 0 0 0 0 0 0 0 0 0 0 0 0 0 0 0 0 0 0 0 0 128 129 -193 -209 -209 -193 129 127 126 127 129 129 128 -177 -177 129 130 133 132 130 131 132 131 131 135 -193 -193 139 136 137 -209 137 137 134 133 134 133 135 133 132 134 -193 134 -193 -193 -193 -193 668 670 -193 132 132 -209 -209 -193 -209 -193 -193 133 -193 -193 -193 -193 -193 -193 380 -193 -177 -209 -209 -193 -177 -193 -193 128 127 128 129 129 129 127 128 128 -209 -193 -193 -209 -209 -193 -209 -193 700 -193 -193 133 133 133 131 134 130 131 131 130 129 129 130 131 129 131 130 131 133 134 134 131 131 132 132 130 129 128 129 128 129 131 129 130 130 130 130 131 130 131 129 132 130 133 131 131 130 130 128 128 127 127 123 124 -209 -177 -177 -193 125 125 124 124 124 125 125 125 126 125 124 126 126 125 123 122 128 127 126 128 127 127 128 129 130 128 129 131 129 131 132 132 130 130 130 131 130 133 130 130 135 135 133 133 132 132 130 130 130 126 124 125 120 120 118 118 116 113 114 115 115 113 116 118 118 121 122 123 123 124 124 126 -209 -209 72 73 -193 80 -209 123 131 132 129 132 135 136 135 136 136 136 138 139 139 138 135 0 0 0 0 0
    0 0 0 0 0 0 0 0 0 0 0 0 0 0 0 0 0 0 0 0 0 0 0 0 0 0 0 0 0 0 0 0 0 0 0 0 0 0 0 0 0 0 0 0 0 0 0 0 0 0 0 0 0 0 0 0 0 0 0 0 0 0 0 0 0 0 0 0 0 -193 -209 -209 -209 -209 -209 127 126 124 125 127 128 -177 -177 -177 129 131 134 133 130 131 132 129 130 -193 -209 -209 139 -209 -193 -193 136 137 134 132 133 132 133 132 131 133 -193 134 134 -193 -193 666 668 669 -193 -193 -209 -209 -209 -177 -193 -193 -193 -209 -193 -193 -193 -193 -193 -193 382 569 570 -209 -209 -209 -193 -209 -209 126 126 127 129 129 129 127 127 127 -193 -193 127 -193 -193 -193 -209 696 698 709 -193 -193 132 132 129 133 -193 128 130 128 128 127 128 131 129 131 130 131 134 134 134 131 130 131 130 128 127 127 127 127 128 130 129 130 130 130 130 131 129 130 128 131 129 132 131 130 129 129 128 127 126 126 122 -193 -177 -177 -177 -193 124 125 124 125 124 126 126 125 126 125 124 125 124 124 123 120 125 126 125 128 127 127 127 129 130 128 129 131 129 132 132 132 130 129 128 130 129 132 129 129 136 136 133 133 132 132 130 129 130 125 124 125 120 120 120 120 118 115 115 115 115 112 114 117 119 121 123 124 124 124 125 129 128 -209 72 75 -193 -209 -193 126 132 132 130 133 135 136 136 137 136 137 138 139 140 138 137 0 0 0 0 0
    0 0 0 0 0 0 0 0 0 0 0 0 0 0 0 0 0 0 0 0 0 0 0 0 0 0 0 0 0 0 0 0 0 0 0 0 0 0 0 0 0 0 0 0 0 0 0 0 0 0 0 0 0 0 0 0 0 0 0 0 0 0 0 0 0 0 0 0 0 -225 -225 -225 -225 -225 -209 -193 -193 -209 -209 -193 -193 -177 -177 -177 128 130 134 133 132 133 414 -225 -225 -225 -225 -225 -225 -225 -193 -225 -225 -225 -225 131 -193 -193 132 -193 -193 -193 -209 -193 -193 -193 -193 666 668 669 -193 -209 -209 -209 -209 -209 -193 -225 -209 -209 -193 -193 -193 -193 -193 -209 -193 -209 570 -225 -225 -225 -225 -225 635 636 -209 126 127 127 128 126 125 124 -209 -209 125 -209 703 708 -209 696 696 706 -193 -193 -193 -209 -193 -193 544 125 128 126 126 -193 -193 131 -193 130 -193 -193 136 136 135 131 129 130 130 127 126 126 126 128 129 131 129 130 130 130 130 130 127 129 127 130 128 131 130 130 129 129 128 126 124 -209 -209 -209 -177 -177 -177 122 124 126 125 126 125 127 127 126 127 125 124 125 124 123 122 119 123 125 125 128 127 127 127 129 130 129 129 131 130 132 133 132 130 129 129 130 128 132 129 127 138 138 134 133 133 132 130 130 130 125 123 124 118 120 121 121 120 117 117 117 116 113 111 114 116 119 121 122 121 123 124 126 126 123 -209 -209 -209 -209 -209 125 131 131 130 133 135 136 136 137 136 137 138 139 140 138 139 0 0 0 0 0
    0 0 0 0 0 0 0 0 0 0 0 0 0 0 0 0 0 0 0 0 0 0 0 0 0 0 0 0 0 0 0 0 0 0 0 0 0 0 0 0 0 0 0 0 0 0 0 0 0 0 0 0 0 0 0 0 0 0 0 0 0 0 0 0 0 0 0 0 0 -225 -225 -225 -225 -225 -225 -225 -225 -225 -225 -225 -193 -193 -193 -209 -209 -193 -193 -193 517 -225 -225 -225 -225 -225 -225 -225 -225 -225 -225 -225 -225 -225 -225 -225 -225 -225 -225 -225 -225 -225 -225 -225 -225 -225 -225 -225 671 673 -225 -225 -225 -225 -225 -225 -225 -225 -225 -225 558 560 559 -193 -209 -209 -225 -225 -225 -225 -225 -225 -225 -225 -225 -225 -225 -225 -225 -225 -225 -193 -209 -209 -209 -209 -209 -209 -209 -209 -209 -193 696 703 -193 -209 -193 -209 542 541 544 -209 -209 -193 -193 -193 794 -193 796 799 -209 -193 -209 -209 -193 -193 -193 -209 -209 126 123 124 124 -209 -193 132 129 -209 -225 -193 130 129 127 128 -225 -225 129 131 129 128 127 127 -193 52 57 52 54 -177 -177 -177 -177 122 125 128 127 127 126 128 127 127 128 126 124 126 124 -193 122 -193 -193 -193 125 127 127 127 127 129 130 130 129 131 -193 -193 -193 132 130 129 128 130 128 132 127 121 -177 146 134 134 134 133 129 128 128 124 122 121 114 118 121 121 119 118 118 118 117 115 111 113 115 118 119 119 119 121 123 125 126 120 116 116 107 110 115 119 122 126 126 132 135 135 135 136 136 136 138 139 139 138 141 0 0 0 0 0
    0 0 0 0 0 0 0 0 0 0 0 0 0 0 0 0 0 0 0 0 0 0 0 0 0 0 0 0 0 0 0 0 0 0 0 0 0 0 0 0 0 0 0 0 0 0 0 0 0 0 0 0 0 0 0 0 0 0 0 0 0 0 0 0 0 0 0 0 0 -225 -225 -225 -225 -225 -225 -225 -225 -225 -225 -225 -225 -225 -225 -225 -225 -225 -225 -225 -225 -225 -225 -225 -225 -225 -225 -225 -225 -225 -225 -225 -225 -225 -225 -225 -225 -225 -225 -225 -225 -225 -225 -225 -225 -225 -225 -225 -225 -225 -225 -225 -225 -225 -225 -225 -225 -225 -225 -225 -225 -225 -225 -225 -225 -225 -225 -225 -225 -225 -225 -225 -225 -225 -225 -225 -225 -225 -225 -225 -225 -225 -225 -225 -225 -225 -225 -225 -225 -225 -225 -209 693 696 -225 -225 -225 -225 -177 -225 -225 -225 -225 -225 -225 794 794 793 795 797 794 -209 -209 -209 -193 -193 -177 -177 -193 -209 945 -225 -225 -225 -225 -225 -225 -225 -225 -225 -225 -225 -225 -225 -225 -225 -225 -225 -225 -225 -225 49 49 53 56 51 53 -177 -177 -177 -177 -193 124 129 128 128 127 128 128 127 128 127 125 126 124 -209 122 -193 -177 -209 -193 127 127 127 127 130 130 130 129 131 -193 -177 -177 131 129 129 128 130 129 133 -209 -209 156 154 -209 135 135 133 127 126 126 124 122 121 114 116 120 120 118 117 117 116 115 115 113 115 117 119 120 120 121 122 123 125 125 119 114 115 109 112 115 116 118 122 123 130 133 132 133 134 135 136 135 138 138 139 145 0 0 0 0 0
    0 0 0 0 0 0 0 0 0 0 0 0 0 0 0 0 0 0 0 0 0 0 0 0 0 0 0 0 0 0 0 0 0 0 0 0 0 0 0 0 0 0 0 0 0 0 0 0 0 0 0 0 0 0 0 0 0 0 0 0 0 0 0 0 0 0 0 0 0 -225 -225 -225 -225 -225 -225 -225 -225 -225 -225 -225 -225 -225 -225 -225 -225 -225 -225 -225 -225 -225 -225 -225 -225 -225 -225 -225 -225 -225 -225 -225 -225 -225 -225 -225 -225 -225 -225 -225 -225 -225 -225 -225 -225 -225 -225 -225 -225 -225 -225 -225 -225 -225 -225 -225 -225 -225 -225 -225 -225 -225 -225 -225 -225 -225 -225 -225 -225 -225 -225 -225 -225 -225 -225 -225 -225 -225 -225 -225 -225 -225 -225 -225 -225 -225 -225 -225 -225 -225 -225 -225 -225 -225 -225 -225 -225 -225 -225 -225 -225 -225 -225 -225 -225 -225 -225 -225 -225 -225 -225 -225 -225 -225 -225 -225 -225 -225 -225 -225 -225 -225 -225 -225 -225 -225 -225 -225 -225 -225 -225 -225 -225 -225 -225 -225 -225 -225 -225 -225 -225 -225 -225 52 53 47 -193 -177 -177 -177 -177 -193 124 128 128 128 127 128 127 127 128 -225 -225 -225 -225 -225 -225 -225 -225 -225 -225 -193 127 127 128 -225 131 132 -193 -193 -193 -177 -177 -193 -193 -193 128 131 129 134 -193 -209 159 161 158 141 140 137 126 125 125 123 123 121 114 116 120 120 119 117 118 117 115 115 113 115 118 120 121 121 122 125 125 127 128 122 117 117 114 114 116 117 118 121 126 133 133 132 133 134 134 134 132 132 132 138 146 0 0 0 0 0
    0 0 0 0 0 0 0 0 0 0 0 0 0 0 0 0 0 0 0 0 0 0 0 0 0 0 0 0 0 0 0 0 0 0 0 0 0 0 0 0 0 0 0 0 0 0 0 0 0 0 0 0 0 0 0 0 0 0 0 0 0 0 0 0 0 0 0 0 0 -225 -225 -225 -225 -225 -225 -225 -225 -225 -225 -225 -225 -225 -225 -225 -225 -225 -225 -225 -225 -225 -225 -225 -225 -225 -225 -225 -225 -225 -225 -225 -225 -225 -225 -225 -225 -225 -225 -225 -225 -225 -225 -225 -225 -225 -225 -225 -225 -225 -225 -225 -225 -225 -225 -225 -225 -225 -225 -225 -225 -225 -225 -225 -225 -225 -225 -225 -225 -225 -225 -225 -225 -225 -225 -225 -225 -225 -225 -225 -225 -225 -225 -225 -225 -225 -225 -225 -225 -225 -225 -225 -225 -225 -225 -225 -225 -225 -225 -225 -225 -225 -225 -225 -225 -225 -225 -225 -225 -225 -225 -225 -225 -225 -225 -225 -225 -225 -225 -225 -225 -225 -225 -225 -225 -225 -225 -225 -225 -225 -225 -225 -225 -225 -225 -225 -225 -225 -225 -225 -225 -225 -225 -225 -225 -225 -225 -225 -225 -225 -225 -225 -225 -225 -225 -225 -225 -225 -225 -225 -225 -225 -225 -225 -225 -225 -225 -225 -225 -225 -225 -225 -225 -225 -225 -225 -225 -225 -225 -225 -225 -225 -225 -225 -225 -225 -225 -225 133 138 -193 -193 158 154 -193 223 116 117 113 115 113 115 120 119 117 118 119 120 119 117 118 117 115 116 115 117 120 123 124 124 126 129 130 132 131 125 121 120 121 118 118 118 119 121 129 135 135 134 136 138 139 140 139 137 136 142 150 0 0 0 0 0
    0 0 0 0 0 0 0 0 0 0 0 0 0 0 0 0 0 0 0 0 0 0 0 0 0 0 0 0 0 0 0 0 0 0 0 0 0 0 0 0 0 0 0 0 0 0 0 0 0 0 0 0 0 0 0 0 0 0 0 0 0 0 0 0 0 0 0 0 0 -225 -225 -225 -225 -225 -225 -225 -225 -225 -225 -225 -225 -225 -225 -225 -225 -225 -225 -225 -225 -225 -225 -225 -225 -225 -225 -225 -225 -225 -225 -225 -225 -225 -225 -225 -225 -225 -225 -225 -225 -225 -225 -225 -225 -225 -225 -225 -225 -225 -225 -225 -225 -225 -225 -225 -225 -225 -225 -225 -225 -225 -225 -225 -225 -225 -225 -225 -225 -225 -225 -225 -225 -225 -225 -225 -225 -225 -225 -225 -225 -225 -225 -225 -225 -225 -225 -225 -225 -225 -225 -225 -225 -225 -225 -225 -225 -225 -225 -225 -225 -225 -225 -225 -225 -225 -225 -225 -225 -225 -225 -225 -225 -225 -225 -225 -225 -225 -225 -225 -225 -225 -225 -225 -225 -225 -225 -225 -225 -225 -225 -225 -225 -225 -225 -225 -225 -225 -225 -225 -225 -225 -225 -225 -225 -225 -225 -225 -225 -225 -225 -225 -225 -225 -225 -225 -225 -225 -225 -225 -225 -225 -225 -225 -225 -225 -225 -225 -225 -225 -225 -225 -225 -225 -225 -225 -225 -225 -225 -225 -225 -225 -225 -225 -225 -225 -225 -225 -225 -225 -225 -225 -225 -225 -225 -225 -225 -225 110 110 112 114 118 118 121 124 133 135 135 120 122 120 118 116 115 116 119 121 123 124 126 129 130 132 131 124 121 121 121 119 119 119 120 123 131 136 136 134 136 138 139 140 140 137 138 145 152 0 0 0 0 0
    0 0 0 0 0 0 0 0 0 0 0 0 0 0 0 0 0 0 0 0 0 0 0 0 0 0 0 0 0 0 0 0 0 0 0 0 0 0 0 0 0 0 0 0 0 0 0 0 0 0 0 0 0 0 0 0 0 0 0 0 0 0 0 0 0 0 0 0 0 -225 -225 -225 -225 -225 -225 -225 -225 -225 -225 -225 -225 -225 -225 -225 -225 -225 -225 -225 -225 -225 -225 -225 -225 -225 -225 -225 -225 -225 -225 -225 -225 -225 -225 -225 -225 -225 -225 -225 -225 -225 -225 -225 -225 -225 -225 -225 -225 -225 -225 -225 -225 -225 -225 -225 -225 -225 -225 -225 -225 -225 -225 -225 -225 -225 -225 -225 -225 -225 -225 -225 -225 -225 -225 -225 -225 -225 -225 -225 -225 -225 -225 -225 -225 -225 -225 -225 -225 -225 -225 -225 -225 -225 -225 -225 -225 -225 -225 -225 -225 -225 -225 -225 -225 -225 -225 -225 -225 -225 -225 -225 -225 -225 -225 -225 -225 -225 -225 -225 -225 -225 -225 -225 -225 -225 -225 -225 -225 -225 -225 -225 -225 -225 -225 -225 -225 -225 -225 -225 -225 -225 -225 -225 -225 -225 -225 -225 -225 -225 -225 -225 -225 -225 -225 -225 -225 -225 -225 -225 -225 -225 -225 -225 -225 -225 -225 -225 -225 -225 -225 -225 -225 -225 -225 -225 -225 -225 -225 -225 -225 -225 -225 -225 -225 -225 -225 -225 -225 -225 -225 -225 -225 -225 -225 -225 -225 -225 -225 -225 -225 -225 -225 122 122 125 133 135 136 137 138 137 138 120 121 119 127 127 126 124 125 128 130 132 131 124 121 120 120 120 120 120 121 124 132 136 137 136 138 139 139 141 140 137 140 148 154 0 0 0 0 0
    0 0 0 0 0 0 0 0 0 0 0 0 0 0 0 0 0 0 0 0 0 0 0 0 0 0 0 0 0 0 0 0 0 0 0 0 0 0 0 0 0 0 0 0 0 0 0 0 0 0 0 0 0 0 0 0 0 0 0 0 0 0 0 0 0 0 0 0 0 -225 -225 -225 -225 -225 -225 -225 -225 -225 -225 -225 -225 -225 -225 -225 -225 -225 -225 -225 -225 -225 -225 -225 -225 -225 -225 -225 -225 -225 -225 -225 -225 -225 -225 -225 -225 -225 -225 -225 -225 -225 -225 -225 -225 -225 -225 -225 -225 -225 -225 -225 -225 -225 -225 -225 -225 -225 -225 -225 -225 -225 -225 -225 -225 -225 -225 -225 -225 -225 -225 -225 -225 -225 -225 -225 -225 -225 -225 -225 -225 -225 -225 -225 -225 -225 -225 -225 -225 -225 -225 -225 -225 -225 -225 -225 -225 -225 -225 -225 -225 -225 -225 -225 -225 -225 -225 -225 -225 -225 -225 -225 -225 -225 -225 -225 -225 -225 -225 -225 -225 -225 -225 -225 -225 -225 -225 -225 -225 -225 -225 -225 -225 -225 -225 -225 -225 -225 -225 -225 -225 -225 -225 -225 -225 -225 -225 -225 -225 -225 -225 -225 -225 -225 -225 -225 -225 -225 -225 -225 -225 -225 -225 -225 -225 -225 -225 -225 -225 -225 -225 -225 -225 -225 -225 -225 -225 -225 -225 -225 -225 -225 -225 -225 -225 -225 -225 -225 -225 -225 -225 -225 -225 -225 -225 -225 -225 -225 -225 -225 -225 -225 -225 -225 -225 -225 -225 -225 138 138 140 138 138 139 140 139 140 138 137 136 137 135 132 131 131 124 120 120 119 119 119 119 120 121 126 133 135 135 137 138 139 141 141 139 141 150 155 0 0 0 0 0
    0 0 0 0 0 0 0 0 0 0 0 0 0 0 0 0 0 0 0 0 0 0 0 0 0 0 0 0 0 0 0 0 0 0 0 0 0 0 0 0 0 0 0 0 0 0 0 0 0 0 0 0 0 0 0 0 0 0 0 0 0 0 0 0 0 0 0 0 0 -225 -225 -225 -225 -225 -225 -225 -225 -225 -225 -225 -225 -225 -225 -225 -225 -225 -225 -225 -225 -225 -225 -225 -225 -225 -225 -225 -225 -225 -225 -225 -225 -225 -225 -225 -225 -225 -225 -225 -225 -225 -225 -225 -225 -225 -225 -225 -225 -225 -225 -225 -225 -225 -225 -225 -225 -225 -225 -225 -225 -225 -225 -225 -225 -225 -225 -225 -225 -225 -225 -225 -225 -225 -225 -225 -225 -225 -225 -225 -225 -225 -225 -225 -225 -225 -225 -225 -225 -225 -225 -225 -225 -225 -225 -225 -225 -225 -225 -225 -225 -225 -225 -225 -225 -225 -225 -225 -225 -225 -225 -225 -225 -225 -225 -225 -225 -225 -225 -225 -225 -225 -225 -225 -225 -225 -225 -225 -225 -225 -225 -225 -225 -225 -225 -225 -225 -225 -225 -225 -225 -225 -225 -225 -225 -225 -225 -225 -225 -225 -225 -225 -225 -225 -225 -225 -225 -225 -225 -225 -225 -225 -225 -225 -225 -225 -225 -225 -225 -225 -225 -225 -225 -225 -225 -225 -225 -225 -225 -225 -225 -225 -225 -225 -225 -225 -225 -225 -225 -225 -225 -225 -225 -225 -225 -225 -225 -225 -225 -225 -225 -225 -225 -225 -225 -225 -225 -225 -225 -225 -225 -225 139 139 140 139 140 140 141 -193 -209 -209 131 128 128 123 119 119 118 117 116 117 119 119 123 132 136 136 138 139 142 144 142 139 142 151 158 0 0 0 0 0
    0 0 0 0 0 0 0 0 0 0 0 0 0 0 0 0 0 0 0 0 0 0 0 0 0 0 0 0 0 0 0 0 0 0 0 0 0 0 0 0 0 0 0 0 0 0 0 0 0 0 0 0 0 0 0 0 0 0 0 0 0 0 0 0 0 0 0 0 0 -225 -225 -225 -225 -225 -225 -225 -225 -225 -225 -225 -225 -225 -225 -225 -225 -225 -225 -225 -225 -225 -225 -225 -225 -225 -225 -225 -225 -225 -225 -225 -225 -225 -225 -225 -225 -225 -225 -225 -225 -225 -225 -225 -225 -225 -225 -225 -225 -225 -225 -225 -225 -225 -225 -225 -225 -225 -225 -225 -225 -225 -225 -225 -225 -225 -225 -225 -225 -225 -225 -225 -225 -225 -225 -225 -225 -225 -225 -225 -225 -225 -225 -225 -225 -225 -225 -225 -225 -225 -225 -225 -225 -225 -225 -225 -225 -225 -225 -225 -225 -225 -225 -225 -225 -225 -225 -225 -225 -225 -225 -225 -225 -225 -225 -225 -225 -225 -225 -225 -225 -225 -225 -225 -225 -225 -225 -225 -225 -225 -225 -225 -225 -225 -225 -225 -225 -225 -225 -225 -225 -225 -225 -225 -225 -225 -225 -225 -225 -225 -225 -225 -225 -225 -225 -225 -225 -225 -225 -225 -225 -225 -225 -225 -225 -225 -225 -225 -225 -225 -225 -225 -225 -225 -225 -225 -225 -225 -225 -225 -225 -225 -225 -225 -225 -225 -225 -225 -225 -225 -225 -225 -225 -225 -225 -225 -225 -225 -225 -225 -225 -225 -225 -225 -225 -225 -225 -225 -225 -225 -225 -225 -225 -225 142 142 142 141 141 -209 -209 -209 -209 -209 -209 -209 -209 108 108 113 114 117 119 119 122 131 136 137 139 142 146 149 147 141 147 155 165 0 0 0 0 0
    0 0 0 0 0 0 0 0 0 0 0 0 0 0 0 0 0 0 0 0 0 0 0 0 0 0 0 0 0 0 0 0 0 0 0 0 0 0 0 0 0 0 0 0 0 0 0 0 0 0 0 0 0 0 0 0 0 0 0 0 0 0 0 0 0 0 0 0 0 -225 -225 -225 -225 -225 -225 -225 -225 -225 -225 -225 -225 -225 -225 -225 -225 -225 -225 -225 -225 -225 -225 -225 -225 -225 -225 -225 -225 -225 -225 -225 -225 -225 -225 -225 -225 -225 -225 -225 -225 -225 -225 -225 -225 -225 -225 -225 -225 -225 -225 -225 -225 -225 -225 -225 -225 -225 -225 -225 -225 -225 -225 -225 -225 -225 -225 -225 -225 -225 -225 -225 -225 -225 -225 -225 -225 -225 -225 -225 -225 -225 -225 -225 -225 -225 -225 -225 -225 -225 -225 -225 -225 -225 -225 -225 -225 -225 -225 -225 -225 -225 -225 -225 -225 -225 -225 -225 -225 -225 -225 -225 -225 -225 -225 -225 -225 -225 -225 -225 -225 -225 -225 -225 -225 -225 -225 -225 -225 -225 -225 -225 -225 -225 -225 -225 -225 -225 -225 -225 -225 -225 -225 -225 -225 -225 -225 -225 -225 -225 -225 -225 -225 -225 -225 -225 -225 -225 -225 -225 -225 -225 -225 -225 -225 -225 -225 -225 -225 -225 -225 -225 -225 -225 -225 -225 -225 -225 -225 -225 -225 -225 -225 -225 -225 -225 -225 -225 -225 -225 -225 -225 -225 -225 -225 -225 -225 -225 -225 -225 -225 -225 -225 -225 -225 -225 -225 -225 -225 -225 -225 -225 -225 -225 -225 -209 146 144 -209 -209 -209 -209 -209 -209 -209 -209 -209 -209 101 108 111 116 120 120 123 131 135 135 138 141 145 150 151 150 -193 164 170 0 0 0 0 0
    0 0 0 0 0 0 0 0 0 0 0 0 0 0 0 0 0 0 0 0 0 0 0 0 0 0 0 0 0 0 0 0 0 0 0 0 0 0 0 0 0 0 0 0 0 0 0 0 0 0 0 0 0 0 0 0 0 0 0 0 0 0 0 0 0 0 0 0 0 -225 -225 -225 -225 -225 -225 -225 -225 -225 -225 -225 -225 -225 -225 -225 -225 -225 -225 -225 -225 -225 -225 -225 -225 -225 -225 -225 -225 -225 -225 -225 -225 -225 -225 -225 -225 -225 -225 -225 -225 -225 -225 -225 -225 -225 -225 -225 -225 -225 -225 -225 -225 -225 -225 -225 -225 -225 -225 -225 -225 -225 -225 -225 -225 -225 -225 -225 -225 -225 -225 -225 -225 -225 -225 -225 -225 -225 -225 -225 -225 -225 -225 -225 -225 -225 -225 -225 -225 -225 -225 -225 -225 -225 -225 -225 -225 -225 -225 -225 -225 -225 -225 -225 -225 -225 -225 -225 -225 -225 -225 -225 -225 -225 -225 -225 -225 -225 -225 -225 -225 -225 -225 -225 -225 -225 -225 -225 -225 -225 -225 -225 -225 -225 -225 -225 -225 -225 -225 -225 -225 -225 -225 -225 -225 -225 -225 -225 -225 -225 -225 -225 -225 -225 -225 -225 -225 -225 -225 -225 -225 -225 -225 -225 -225 -225 -225 -225 -225 -225 -225 -225 -225 -225 -225 -225 -225 -225 -225 -225 -225 -225 -225 -225 -225 -225 -225 -225 -225 -225 -225 -225 -225 -225 -225 -225 -225 -225 -225 -225 -225 -225 -225 -225 -225 -225 -225 -225 -225 -225 -225 -225 -225 -225 -225 -225 -209 -209 -209 -209 -209 -209 -209 -209 -209 -209 -209 -209 -209 -209 -209 111 119 120 123 132 136 136 140 148 -209 150 151 -209 -193 166 176 0 0 0 0 0
    0 0 0 0 0 0 0 0 0 0 0 0 0 0 0 0 0 0 0 0 0 0 0 0 0 0 0 0 0 0 0 0 0 0 0 0 0 0 0 0 0 0 0 0 0 0 0 0 0 0 0 0 0 0 0 0 0 0 0 0 0 0 0 0 0 0 0 0 0 218 217 218 -193 -209 -193 -209 -209 -225 -225 -225 -225 -225 -225 -225 -225 -225 -225 -225 -225 -193 -177 -177 803 804 -193 801 802 802 -225 -225 -225 -225 -225 -225 -225 -225 -225 -225 -225 -225 -225 -225 -225 -225 -225 -225 -225 -225 -225 -225 -225 -225 -225 -225 -225 -225 -225 -225 -225 -225 -225 -225 -225 -225 -225 -225 -225 -225 -225 -225 -225 -225 -225 -225 -225 -225 -225 -225 -225 -225 -225 -225 -225 -225 -225 -225 -225 -225 -225 -225 -225 -225 -225 -225 -225 -225 -225 -225 -225 -225 -225 -225 -225 -225 -225 -225 -225 -225 -225 -225 -225 -225 -225 -225 -225 -225 -225 -225 -225 -225 -225 -225 -225 -225 -225 -225 -225 -225 -225 -225 -225 -225 -225 -225 -225 -225 -225 -225 -225 -225 -225 -225 -225 -225 -225 -225 -225 -225 -225 -225 -225 -225 -225 -225 -225 -225 -225 -225 -225 -225 -225 -225 -225 -225 -225 -225 -225 -225 -225 -225 -225 -225 -225 -225 -225 -225 -225 -225 -225 -225 -225 -225 -225 -225 -225 -225 -225 -225 -225 -225 -225 -225 -225 -225 -225 -225 -225 -225 -225 -225 -225 -225 -225 -225 -225 -225 -225 -225 -225 -225 -225 -225 -225 -209 -209 -209 -209 -209 -209 -209 -209 -209 -209 -209 -209 -209 -209 -209 -209 -209 -209 -209 117 125 132 134 141 -209 -209 -209 165 -209 -209 -193 183 0 0 0 0 0
    0 0 0 0 0 0 0 0 0 0 0 0 0 0 0 0 0 0 0 0 0 0 0 0 0 0 0 0 0 0 0 0 0 0 0 0 0 0 0 0 0 0 0 0 0 0 0 0 0 0 0 0 0 0 0 0 0 0 0 0 0 0 0 0 0 0 0 0 0 218 218 219 221 223 -193 221 -193 -193 -193 -193 -209 -193 716 -209 -193 -209 -209 -193 -193 -193 -193 -193 804 805 -193 -193 -193 -193 216 217 -225 -225 -225 -225 -225 -225 -225 -225 -225 -225 -225 218 218 219 -193 -225 -225 -225 -225 -225 -225 -225 -225 -225 -225 -225 -225 -225 317 -225 -225 -225 -225 -225 -225 -225 -225 -225 -225 481 -209 49 -193 -209 823 823 -193 -193 823 -193 -209 -209 -209 -193 -193 -193 -209 -177 777 37 -209 -209 -209 -209 -193 209 212 207 205 -193 193 188 191 -225 -225 -225 -225 -225 -225 -225 -225 -225 -225 -225 -225 -225 -225 -225 -225 -225 -225 -225 -225 -225 -225 -225 -225 -225 -225 -225 -225 -225 -225 -225 -225 -225 -225 -225 -225 -225 -225 -225 -225 -225 -225 -225 -225 -225 -225 -225 -225 -225 -225 -225 -225 -225 -225 -225 -225 -225 -225 -225 -225 -225 -225 -225 -225 -225 -225 -225 -225 -225 -225 -225 -225 -225 -225 -225 -225 -225 -225 -225 -225 -225 -225 -225 -225 -225 -225 -225 -225 -225 -225 -225 -225 -225 -225 -225 -225 -225 -225 -225 -225 -225 -225 -225 -225 -225 -225 -225 -225 -225 -225 -209 -209 -209 -209 -209 -209 -209 -209 -209 -209 -209 -209 -209 -209 -209 -209 -209 -209 -209 119 126 133 133 -209 -209 -209 -209 -209 199 -209 -209 190 0 0 0 0 0
    0 0 0 0 0 0 0 0 0 0 0 0 0 0 0 0 0 0 0 0 0 0 0 0 0 0 0 0 0 0 0 0 0 0 0 0 0 0 0 0 0 0 0 0 0 0 0 0 0 0 0 0 0 0 0 0 0 0 0 0 0 0 0 0 0 0 0 0 0 218 218 219 220 221 220 220 220 222 -193 -193 -193 -209 -177 -209 -193 216 216 -209 218 -193 -209 -209 -193 -193 -193 218 217 -193 217 219 219 220 221 221 217 218 218 219 219 220 219 219 219 219 219 220 221 220 219 -193 -225 451 -193 -209 -209 -209 310 312 -209 335 -193 -193 -209 -193 -209 -209 -193 -193 -193 486 -193 -193 -193 -209 -193 -193 -209 -193 -209 -193 -209 -209 -209 -209 -209 -193 -209 -209 -209 -193 213 213 -193 211 209 209 212 208 208 210 208 -209 -193 -193 203 -225 -225 -225 -225 -225 -225 -225 -225 -225 -225 -225 -225 -209 210 211 212 212 213 212 211 212 213 214 213 -193 -177 -177 -177 -177 -193 -209 -193 -209 -225 -225 -225 -225 -225 -225 -225 -225 -225 -225 -225 -225 -225 -225 -225 -225 -225 -225 -225 -225 -225 -225 -225 -225 -225 -225 -225 -225 -225 -225 -225 -225 -225 -225 -225 -225 -225 -225 -225 -225 -225 -225 -225 -225 -225 -225 -225 -225 -225 -225 -225 -225 -225 -225 -225 -225 -225 -225 -209 212 -225 -225 -225 -225 -225 -225 -225 -225 -225 -225 -225 -225 -225 -225 -225 -193 -209 -209 -209 -209 -209 -209 -209 -209 0 0 -193 -209 -209 -209 -209 -209 -209 -209 -209 -209 -209 -209 -209 -209 -209 -209 -209 -209 -209 197 197 0 0 0 0 0
    0 0 0 0 0 0 0 0 0 0 0 0 0 0 0 0 0 0 0 0 0 0 0 0 0 0 0 0 0 0 0 0 0 0 0 0 0 0 0 0 0 0 0 0 0 0 0 0 0 0 0 0 0 0 0 0 0 0 0 0 0 0 0 0 0 0 0 0 0 219 219 219 219 220 219 219 220 221 222 -193 -193 -209 -177 -209 218 217 217 218 219 -193 -193 218 219 219 218 219 218 216 217 218 219 219 221 221 219 220 219 219 219 219 219 218 218 218 218 218 219 218 217 216 -193 -177 -177 -193 -209 -209 -209 -209 -209 -209 -209 -177 -193 -209 -209 -209 -209 -209 -209 -209 -209 -209 -193 -193 -209 -193 -209 -209 -209 212 214 -193 -209 -193 220 227 228 -193 216 213 213 213 213 213 211 211 213 211 212 214 214 215 214 213 214 -193 217 220 218 -193 -209 -209 -209 -209 -209 -209 -209 -193 213 213 213 213 213 213 212 212 213 214 213 -193 -193 -177 -193 -193 -193 -209 -209 218 217 -193 213 -225 -225 -225 -225 -225 -225 -225 218 221 226 -209 -193 195 194 197 200 -225 -225 -225 -225 -225 -225 -225 -225 -225 -225 -193 220 220 221 -193 -225 -225 -225 -225 -225 -225 -225 -209 -209 -209 -209 -177 -193 -209 -193 -209 958 -193 -193 214 214 213 213 -193 212 212 211 212 -193 212 -193 211 211 -225 -225 -225 -225 -225 -225 -225 -193 -209 -209 -209 -209 -209 -209 -209 -209 -209 -193 0 -193 -193 -209 -209 -209 -193 189 195 198 200 201 201 -209 -209 -209 -209 -209 -209 -193 199 199 0 0 0 0 0
    0 0 0 0 0 0 0 0 0 0 0 0 0 0 0 0 0 0 0 0 0 0 0 0 0 0 0 0 0 0 0 0 0 0 0 0 0 0 0 0 0 0 0 0 0 0 0 0 0 0 0 0 0 0 0 0 0 0 0 0 0 0 0 0 0 0 0 0 0 219 219 220 219 220 219 219 219 220 220 222 220 218 -177 -193 218 218 218 219 219 219 218 219 220 219 219 219 218 217 217 218 218 218 221 220 218 220 219 219 219 219 219 218 218 217 217 216 217 217 -193 215 -193 -193 -193 214 -193 -193 216 215 -209 -209 -209 -177 -193 -193 -209 -209 -209 -209 -193 -209 -209 215 217 -193 -193 215 -209 -209 -209 215 216 216 -193 217 218 222 220 216 216 214 213 214 214 214 212 213 214 213 214 216 216 216 216 216 216 215 217 218 217 216 215 215 216 215 215 215 -193 -193 214 213 213 213 213 214 213 212 213 213 212 -193 -193 -193 -193 -193 215 215 213 217 215 214 213 214 216 217 217 218 219 218 216 216 215 214 205 202 200 202 204 205 -209 -193 206 212 216 220 218 219 216 216 218 218 -177 -177 218 -193 290 -225 -225 -193 -209 216 -209 -193 214 214 213 214 213 214 -177 -193 211 213 213 212 212 212 212 213 212 213 212 212 213 212 211 210 -177 805 804 -193 217 215 -209 -209 -209 -209 -193 -193 -209 -209 -209 -209 -209 -209 -193 -193 -209 -209 -209 -209 196 199 201 203 205 204 205 205 205 204 205 203 202 201 201 0 0 0 0 0
    0 0 0 0 0 0 0 0 0 0 0 0 0 0 0 0 0 0 0 0 0 0 0 0 0 0 0 0 0 0 0 0 0 0 0 0 0 0 0 0 0 0 0 0 0 0 0 0 0 0 0 0 0 0 0 0 0 0 0 0 0 0 0 0 0 0 0 0 0 219 219 220 220 220 219 219 219 219 219 221 219 218 -209 217 218 218 218 219 220 219 219 219 220 219 219 219 219 217 217 218 217 218 220 220 219 220 219 218 219 219 219 217 218 217 216 216 -209 -193 -193 215 214 -193 -193 215 215 216 215 215 215 -209 -209 -177 -193 -193 -209 -209 -209 -209 -193 -209 -209 215 216 216 215 215 -193 -193 215 215 216 216 216 216 218 221 219 216 216 215 214 215 215 214 213 214 215 215 215 217 217 218 217 217 217 216 217 218 216 216 215 215 215 215 215 215 214 212 214 213 213 213 213 213 213 211 212 213 212 213 213 -193 213 213 214 215 213 216 214 213 212 213 213 214 214 215 216 215 215 215 215 214 211 208 204 206 208 210 -193 205 207 214 216 217 217 215 213 213 216 216 216 216 217 216 215 217 215 216 215 216 216 214 214 214 213 213 213 214 -193 210 211 212 212 212 212 212 212 213 212 213 212 212 212 212 211 211 -193 -193 -193 -193 216 214 214 213 209 210 208 205 208 -209 -209 -209 -209 -209 -209 -209 -209 -209 -209 199 202 201 204 206 207 205 207 208 209 216 213 209 206 204 204 0 0 0 0 0
    0 0 0 0 0 0 0 0 0 0 0 0 0 0 0 0 0 0 0 0 0 0 0 0 0 0 0 0 0 0 0 0 0 0 0 0 0 0 0 0 0 0 0 0 0 0 0 0 0 0 0 0 0 0 0 0 0 0 0 0 0 0 0 0 0 0 0 0 0 219 219 220 220 220 219 219 219 219 219 222 219 218 -209 217 219 219 218 219 220 219 219 220 220 219 219 219 219 217 217 217 217 218 219 219 218 219 218 218 218 218 218 217 217 216 216 216 -209 -209 -193 -193 215 -193 -193 216 217 217 217 217 217 -209 -209 -209 -209 -209 -209 -209 -209 -193 -209 -209 -209 215 216 217 215 215 215 215 216 215 216 216 215 217 218 220 218 216 216 215 214 215 214 214 214 215 216 216 216 219 218 219 218 218 217 217 218 218 217 217 216 216 216 216 215 215 214 212 214 213 213 213 213 213 213 211 213 214 212 213 213 213 213 213 214 214 213 216 213 212 212 212 211 213 212 213 215 214 215 214 215 215 213 211 208 209 211 212 -193 211 211 215 216 216 216 215 213 213 215 215 215 215 216 215 215 216 215 215 215 216 215 214 214 214 213 213 213 214 -193 210 211 212 212 213 212 213 212 213 212 212 212 212 212 212 211 211 209 -193 -193 214 215 213 213 212 209 209 208 206 208 206 206 -193 -193 -209 -209 -209 -209 197 201 203 204 203 205 207 207 207 209 211 212 217 214 212 211 210 209 0 0 0 0 0
    0 0 0 0 0 0 0 0 0 0 0 0 0 0 0 0 0 0 0 0 0 0 0 0 0 0 0 0 0 0 0 0 0 0 0 0 0 0 0 0 0 0 0 0 0 0 0 0 0 0 0 0 0 0 0 0 0 0 0 0 0 0 0 0 0 0 0 0 0 220 220 220 220 220 219 218 219 219 219 222 219 218 -193 217 218 218 218 219 219 219 218 219 220 219 219 219 218 216 216 216 215 217 218 218 217 218 217 217 217 218 218 217 217 216 216 216 216 -193 -193 217 217 216 217 217 218 218 218 218 218 218 -209 -193 -209 -209 -209 -209 -209 214 -209 215 215 216 217 217 216 216 216 216 216 215 216 216 215 216 217 219 217 216 216 215 214 215 214 214 214 215 216 216 217 219 218 219 218 218 217 217 217 218 216 216 216 215 215 216 215 215 215 213 214 213 214 214 214 214 213 212 213 214 212 214 214 213 213 213 214 214 212 215 213 212 212 212 211 213 211 213 214 213 215 213 215 215 214 211 208 209 211 212 -193 214 214 216 217 217 217 216 215 214 215 215 215 215 216 215 216 216 215 215 215 216 215 214 214 213 213 213 213 213 210 210 211 212 212 214 213 213 212 213 212 212 212 212 211 212 210 210 209 214 215 213 214 212 212 211 208 208 207 205 208 206 206 205 209 -193 -209 -209 208 202 204 206 206 205 206 207 207 207 209 209 209 212 210 211 212 214 213 0 0 0 0 0
    0 0 0 0 0 0 0 0 0 0 0 0 0 0 0 0 0 0 0 0 0 0 0 0 0 0 0 0 0 0 0 0 0 0 0 0 0 0 0 0 0 0 0 0 0 0 0 0 0 0 0 0 0 0 0 0 0 0 0 0 0 0 0 0 0 0 0 0 0 220 220 220 219 219 219 218 219 219 218 223 220 219 218 217 218 218 218 218 219 218 218 218 219 218 218 219 218 -193 216 216 216 217 218 218 217 217 217 217 217 218 218 216 216 216 215 216 216 -209 216 217 217 217 217 217 218 218 218 218 218 218 218 218 218 218 216 216 215 215 215 215 216 216 217 218 216 216 216 216 217 215 216 216 215 216 217 219 217 216 217 216 215 215 215 215 214 215 216 216 217 218 218 218 218 217 217 215 217 217 215 216 215 215 215 216 215 216 215 213 214 213 214 214 214 214 213 212 213 214 213 214 214 213 213 213 214 214 212 215 213 212 213 213 211 213 212 213 214 213 215 213 215 215 215 212 209 210 212 213 218 215 215 217 217 217 217 217 216 215 216 215 215 215 216 215 216 216 215 215 215 216 215 214 214 213 213 212 213 213 209 209 211 211 210 213 212 213 212 213 212 212 211 212 211 212 210 210 208 213 214 212 213 210 210 209 207 207 207 205 207 206 207 206 209 211 207 208 209 204 205 208 207 206 206 207 206 206 208 207 206 205 205 211 213 216 214 0 0 0 0 0
    0 0 0 0 0 0 0 0 0 0 0 0 0 0 0 0 0 0 0 0 0 0 0 0 0 0 0 0 0 0 0 0 0 0 0 0 0 0 0 0 0 0 0 0 0 0 0 0 0 0 0 0 0 0 0 0 0 0 0 0 0 0 0 0 0 0 0 0 0 220 220 220 220 219 219 218 219 218 217 223 220 220 219 217 219 219 218 219 219 219 218 219 220 219 219 219 219 217 216 217 216 217 218 218 217 218 217 218 218 218 217 216 216 216 215 216 216 -193 -193 -193 217 217 218 218 218 219 218 218 218 218 218 218 217 217 216 216 215 214 214 215 215 216 216 218 216 216 215 216 216 215 215 216 215 217 217 219 217 217 217 216 215 215 215 215 215 216 216 216 217 218 217 218 217 217 216 215 216 216 214 215 215 215 215 216 216 216 215 214 214 214 214 214 214 214 213 212 213 214 213 214 214 213 213 213 214 215 212 215 214 213 214 213 212 214 213 214 214 213 215 214 215 215 214 212 210 211 212 212 217 215 215 217 218 217 217 216 216 215 216 215 215 215 216 215 216 216 215 214 215 215 214 213 214 213 212 212 213 213 208 209 210 209 208 212 211 212 211 213 211 212 211 212 211 212 210 209 207 211 212 210 211 209 208 208 207 207 207 205 207 206 207 207 209 209 207 209 209 207 209 210 208 209 208 208 207 207 208 207 205 207 205 211 215 217 216 0 0 0 0 0
    0 0 0 0 0 0 0 0 0 0 0 0 0 0 0 0 0 0 0 0 0 0 0 0 0 0 0 0 0 0 0 0 0 0 0 0 0 0 0 0 0 0 0 0 0 0 0 0 0 0 0 0 0 0 0 0 0 0 0 0 0 0 0 0 0 0 0 0 0 220 220 220 219 219 218 218 218 217 216 221 219 220 220 218 220 219 219 219 219 220 219 219 219 218 219 219 219 217 216 217 217 218 219 218 218 218 218 218 217 218 217 214 215 215 215 215 216 217 -193 217 218 218 218 218 218 219 218 218 218 217 217 217 217 217 216 216 215 215 215 215 215 216 216 217 216 216 215 216 216 215 216 216 215 217 217 218 217 216 217 216 215 215 215 215 215 216 216 216 217 218 217 217 217 217 216 215 216 216 214 215 214 215 214 216 216 215 215 214 215 214 215 215 215 214 214 212 214 214 213 214 213 213 213 213 214 215 212 215 214 213 214 214 213 214 213 215 215 213 215 214 215 215 215 213 212 212 213 212 216 215 214 217 217 216 216 215 216 215 216 215 215 215 216 216 216 215 215 214 215 215 214 213 214 213 212 212 212 212 207 209 209 208 206 210 209 210 210 212 211 212 211 211 210 211 209 209 206 209 211 209 210 209 208 208 208 208 208 206 208 207 208 207 208 208 207 208 209 208 211 211 210 211 211 210 208 209 210 208 206 210 207 213 217 219 219 0 0 0 0 0
    0 0 0 0 0 0 0 0 0 0 0 0 0 0 0 0 0 0 0 0 0 0 0 0 0 0 0 0 0 0 0 0 0 0 0 0 0 0 0 0 0 0 0 0 0 0 0 0 0 0 0 0 0 0 0 0 0 0 0 0 0 0 0 0 0 0 0 0 0 220 220 220 220 219 219 218 218 216 215 219 218 219 219 218 220 220 219 219 219 219 218 219 219 218 218 218 218 216 215 216 216 217 218 217 217 217 218 218 217 218 216 214 215 215 215 215 215 217 217 218 219 219 219 219 219 219 218 219 218 217 217 217 216 217 216 215 215 215 215 215 215 216 216 218 217 217 216 217 217 217 217 217 216 217 218 219 217 217 217 216 215 215 215 215 215 217 217 217 217 218 217 217 218 217 217 215 216 215 214 214 214 214 213 215 215 215 215 214 215 215 215 215 215 214 214 212 213 214 213 213 213 213 213 213 215 215 212 215 214 214 215 215 213 213 212 214 214 212 214 213 213 214 215 213 213 213 214 213 216 215 215 217 217 215 215 215 215 215 216 215 215 215 216 216 215 215 214 214 214 215 214 213 213 213 212 212 212 211 206 207 208 206 204 208 208 210 210 212 211 212 211 211 210 211 209 209 205 208 210 207 209 208 207 208 208 208 208 207 208 207 208 208 208 208 208 209 210 209 212 212 211 211 211 211 209 209 210 208 206 210 209 214 217 219 218 0 0 0 0 0
    0 0 0 0 0 0 0 0 0 0 0 0 0 0 0 0 0 0 0 0 0 0 0 0 0 0 0 0 0 0 0 0 0 0 0 0 0 0 0 0 0 0 0 0 0 0 0 0 0 0 0 0 0 0 0 0 0 0 0 0 0 0 0 0 0 0 0 0 0 220 219 220 220 219 219 218 218 216 214 218 217 219 219 219 221 -193 -193 219 219 220 218 218 218 217 218 218 218 216 214 215 215 216 217 216 216 217 217 217 217 217 215 213 215 215 215 215 216 218 218 219 220 220 220 219 219 220 218 219 218 216 216 216 215 216 215 214 214 214 214 215 215 216 216 218 217 217 216 217 217 217 216 217 216 217 218 219 217 216 217 216 216 215 215 215 215 217 217 217 217 218 217 218 218 218 217 215 215 215 214 214 213 213 212 214 216 215 215 214 215 215 215 215 215 214 214 212 213 215 213 214 214 213 213 214 215 215 212 214 214 214 215 215 212 213 211 214 213 212 213 213 213 215 215 214 214 213 215 214 217 216 216 217 217 215 215 215 215 215 216 215 215 214 215 216 215 215 214 213 214 215 213 213 213 213 212 212 213 211 206 207 208 206 204 208 208 210 210 212 211 211 210 211 209 210 208 208 205 207 209 206 208 207 207 207 207 208 208 206 208 207 209 209 209 209 209 211 210 210 212 212 211 211 211 210 209 209 210 208 206 210 210 214 216 218 217 0 0 0 0 0
    0 0 0 0 0 0 0 0 0 0 0 0 0 0 0 0 0 0 0 0 0 0 0 0 0 0 0 0 0 0 0 0 0 0 0 0 0 0 0 0 0 0 0 0 0 0 0 0 0 0 0 0 0 0 0 0 0 0 0 0 0 0 0 0 0 0 0 0 0 219 219 220 220 219 218 217 218 215 215 -193 218 220 -193 220 221 -193 -193 218 219 219 218 218 218 217 217 218 218 216 214 215 215 216 217 216 215 215 216 217 215 216 214 213 214 215 215 216 216 220 219 220 222 221 221 220 219 220 218 218 217 216 215 215 215 215 214 213 214 214 214 214 215 216 216 217 217 217 216 217 218 216 216 216 215 217 218 218 217 216 217 216 215 215 215 214 215 217 217 217 217 218 217 217 218 218 216 214 215 215 214 214 214 213 213 215 216 216 215 215 216 215 216 216 215 214 214 213 214 215 214 214 214 214 214 214 215 215 213 215 215 214 215 215 213 214 213 214 214 212 213 212 213 215 215 214 215 214 216 214 217 216 216 217 218 215 215 215 215 215 216 215 215 214 215 215 215 214 214 213 214 214 213 212 213 213 212 212 213 211 206 208 209 207 205 209 208 211 211 212 211 210 210 210 208 209 207 206 204 205 207 205 206 205 206 206 206 207 207 206 208 207 209 209 210 210 210 211 210 210 212 212 210 211 210 210 209 209 210 208 207 211 211 215 217 219 217 0 0 0 0 0
    0 0 0 0 0 0 0 0 0 0 0 0 0 0 0 0 0 0 0 0 0 0 0 0 0 0 0 0 0 0 0 0 0 0 0 0 0 0 0 0 0 0 0 0 0 0 0 0 0 0 0 0 0 0 0 0 0 0 0 0 0 0 0 0 0 0 0 0 0 219 218 219 219 218 217 217 217 215 215 -193 -193 -193 -193 220 220 220 -193 218 218 218 217 217 217 217 217 217 217 216 214 216 215 216 216 216 215 215 216 217 216 216 214 213 214 215 215 216 216 220 219 220 222 221 221 220 219 220 218 218 217 215 215 215 215 215 214 214 214 214 214 215 215 216 217 217 217 217 217 217 218 216 216 216 216 217 217 218 217 215 216 215 215 214 215 214 215 216 217 217 217 218 217 217 218 217 215 213 214 214 213 214 213 213 213 215 217 216 216 216 216 216 217 216 216 215 214 213 214 215 214 214 215 214 215 215 216 215 213 214 215 215 216 215 214 214 214 215 215 213 213 211 212 213 214 214 215 214 216 215 218 216 217 218 218 216 216 215 215 215 216 215 215 214 215 215 215 214 214 213 214 214 213 212 212 212 212 212 212 210 206 208 210 208 206 210 209 211 211 212 211 210 209 209 208 208 206 205 203 204 206 203 204 204 205 205 205 205 205 205 207 207 208 210 210 210 210 211 210 210 213 212 210 211 210 210 210 210 210 208 207 211 211 215 216 218 215 0 0 0 0 0
    0 0 0 0 0 0 0 0 0 0 0 0 0 0 0 0 0 0 0 0 0 0 0 0 0 0 0 0 0 0 0 0 0 0 0 0 0 0 0 0 0 0 0 0 0 0 0 0 0 0 0 0 0 0 0 0 0 0 0 0 0 0 0 0 0 0 0 0 0 219 -193 218 218 218 217 216 217 213 214 -193 -193 -193 -193 219 219 -193 -193 217 217 0 -256 -1 25500 217 217 217 217 216 214 216 215 216 217 216 215 215 216 217 216 216 214 214 215 215 216 216 216 219 219 220 221 220 221 219 218 219 217 217 216 214 214 214 215 215 215 214 214 215 215 215 216 216 217 217 217 217 217 217 218 217 217 216 216 217 217 217 216 215 215 215 215 214 215 214 215 216 217 217 217 217 217 216 217 216 214 212 212 213 213 213 212 212 212 214 216 216 215 216 217 216 217 216 216 215 214 213 214 215 214 214 215 214 215 215 216 215 213 214 215 215 216 215 214 214 214 215 214 213 212 211 211 211 213 212 214 212 215 214 217 215 216 217 218 216 216 215 216 215 216 215 215 214 215 215 214 213 213 212 214 213 212 212 212 212 212 212 212 210 206 208 211 209 206 210 209 210 212 211 211 210 209 210 208 208 207 205 204 204 205 203 204 203 204 203 204 204 204 205 207 207 208 209 209 209 209 210 210 210 213 212 211 211 211 211 211 211 211 208 208 211 212 216 217 217 215 0 0 0 0 0
    0 0 0 0 0 0 0 0 0 0 0 0 0 0 0 0 0 0 0 0 0 0 0 0 0 0 0 0 0 0 0 0 0 0 0 0 0 0 0 0 0 0 0 0 0 0 0 0 0 0 0 0 0 0 0 0 0 0 0 0 0 0 0 0 0 0 0 0 0 219 218 219 219 218 217 217 216 212 213 -193 -193 -209 -209 -209 218 220 -193 218 218 219 217 217 217 217 217 217 217 217 214 216 216 216 217 216 215 215 216 217 216 216 215 214 215 216 216 216 217 219 219 219 221 220 220 218 217 217 215 215 215 213 213 213 214 214 214 214 214 215 215 215 215 216 216 217 216 217 217 217 218 217 217 216 216 217 217 216 216 214 215 214 214 214 215 214 215 216 216 217 216 216 216 215 216 215 213 212 212 213 213 213 212 212 213 214 216 216 215 216 217 217 217 216 216 215 213 213 213 214 214 214 214 214 214 215 216 215 213 213 214 214 215 214 215 214 214 215 215 213 212 210 211 210 212 211 213 211 213 212 215 214 214 216 217 215 215 214 215 214 215 215 214 213 214 214 214 212 212 211 213 213 212 211 211 212 213 213 213 211 207 209 211 210 207 208 208 209 211 211 211 210 209 210 209 208 208 206 205 205 205 203 204 203 204 203 204 204 204 205 208 208 209 210 209 208 208 209 209 209 213 213 211 212 211 211 211 211 211 209 209 212 213 216 217 216 214 0 0 0 0 0
    0 0 0 0 0 0 0 0 0 0 0 0 0 0 0 0 0 0 0 0 0 0 0 0 0 0 0 0 0 0 0 0 0 0 0 0 0 0 0 0 0 0 0 0 0 0 0 0 0 0 0 0 0 0 0 0 0 0 0 0 0 0 0 0 0 0 0 0 0 220 219 219 219 219 217 216 216 213 213 214 -193 -209 -209 219 219 222 -193 218 218 219 218 218 218 217 217 217 218 217 214 216 216 216 216 216 215 215 216 217 216 216 215 215 216 217 217 216 217 220 219 220 221 220 220 218 217 217 215 215 214 212 212 211 213 213 214 213 214 214 214 214 215 215 216 216 216 216 217 217 218 217 217 216 216 217 217 216 215 213 214 213 214 213 214 213 214 215 216 216 216 215 216 215 216 215 214 212 212 213 214 214 213 213 214 214 216 216 215 216 217 217 217 216 216 215 213 213 213 214 214 214 214 214 214 215 216 215 213 213 214 214 215 214 215 214 214 215 215 214 213 211 211 209 210 210 211 210 211 211 213 213 213 215 216 214 214 214 214 214 215 214 214 213 214 214 213 212 212 211 213 213 212 211 211 212 213 214 213 211 210 211 213 212 210 209 209 210 211 210 211 210 209 210 209 208 208 206 205 205 205 204 204 204 205 204 204 205 205 206 208 208 209 210 210 209 209 210 210 211 214 213 212 212 212 211 211 211 211 209 209 212 213 216 216 215 214 0 0 0 0 0
    0 0 0 0 0 0 0 0 0 0 0 0 0 0 0 0 0 0 0 0 0 0 0 0 0 0 0 0 0 0 0 0 0 0 0 0 0 0 0 0 0 0 0 0 0 0 0 0 0 0 0 0 0 0 0 0 0 0 0 0 0 0 0 0 0 0 0 0 0 220 219 219 218 219 217 216 216 213 214 214 214 215 -193 218 218 221 219 217 218 219 217 217 217 217 217 217 218 217 214 215 216 216 216 216 215 215 216 217 217 217 216 216 216 217 217 217 217 220 219 219 221 219 219 217 217 217 215 215 214 212 211 210 212 212 213 213 213 214 214 214 215 215 215 216 216 217 217 217 218 217 217 217 217 216 216 215 215 213 213 213 214 212 214 213 214 215 216 217 216 215 216 215 217 215 214 213 213 214 214 214 213 213 214 214 215 216 215 215 216 216 216 215 216 215 214 213 214 214 214 214 214 215 215 216 216 215 213 213 214 214 215 214 214 213 214 214 214 213 212 210 210 208 211 211 212 210 212 213 215 213 214 215 216 215 215 214 214 214 215 215 214 213 213 213 213 211 211 211 213 212 212 211 211 212 213 214 214 212 212 212 214 213 211 210 210 210 211 210 211 210 209 210 209 208 209 207 207 206 206 205 205 205 206 204 204 206 205 206 208 209 210 211 211 210 211 211 212 212 214 213 212 212 212 211 211 211 211 209 209 211 213 215 215 214 213 0 0 0 0 0
    0 0 0 0 0 0 0 0 0 0 0 0 0 0 0 0 0 0 0 0 0 0 0 0 0 0 0 0 0 0 0 0 0 0 0 0 0 0 0 0 0 0 0 0 0 0 0 0 0 0 0 0 0 0 0 0 0 0 0 0 0 0 0 0 0 0 0 0 0 220 219 219 -193 -193 217 215 216 214 215 214 214 214 214 216 -193 219 -193 216 217 219 217 217 217 217 217 217 218 217 214 215 215 216 215 215 215 215 215 216 217 217 216 217 217 217 218 217 218 220 219 219 220 219 219 217 217 217 215 215 214 213 212 211 212 212 213 213 213 214 214 214 215 215 215 215 216 217 217 217 218 217 217 217 217 216 216 215 215 213 213 213 214 212 214 213 214 215 216 217 216 215 216 215 217 215 214 213 212 213 214 214 213 213 214 214 215 215 215 215 216 216 216 215 215 215 214 213 214 214 214 214 214 215 215 216 216 214 213 213 214 214 214 213 213 211 212 212 213 212 211 209 210 208 212 211 212 211 212 214 216 214 215 215 217 216 215 214 214 214 215 214 214 212 212 213 213 210 210 210 213 212 212 211 210 211 213 214 214 211 212 211 214 214 212 211 211 211 211 210 211 210 210 210 210 209 210 208 208 208 207 207 206 205 206 205 204 206 205 206 208 209 211 212 211 210 211 211 212 213 214 213 212 211 211 211 211 211 211 208 208 210 212 214 214 213 213 0 0 0 0 0
    0 0 0 0 0 0 0 0 0 0 0 0 0 0 0 0 0 0 0 0 0 0 0 0 0 0 0 0 0 0 0 0 0 0 0 0 0 0 0 0 0 0 0 0 0 0 0 0 0 0 0 0 0 0 0 0 0 0 0 0 0 0 0 0 0 0 0 0 0 220 219 219 -193 -193 -193 215 -193 214 -193 215 -193 -193 215 -193 -209 -209 -193 216 217 218 217 217 217 217 217 217 217 217 214 215 215 216 215 215 214 214 215 215 216 216 216 217 217 217 218 218 218 220 220 219 220 218 -193 217 217 216 215 215 214 214 212 212 213 213 213 213 213 214 214 214 215 215 215 215 216 217 217 217 218 217 217 217 217 215 215 214 214 213 213 213 214 212 214 212 214 215 215 216 215 214 216 214 216 214 213 213 212 213 214 214 214 214 215 214 215 215 215 215 215 215 215 214 214 215 213 213 214 213 214 213 214 215 215 215 216 214 213 212 213 213 213 212 212 210 211 212 212 212 211 209 210 207 212 211 211 211 212 214 216 213 214 214 215 215 214 213 213 213 213 213 213 211 211 212 213 210 210 209 213 211 212 211 210 211 213 213 213 211 212 211 213 213 212 211 211 210 211 210 211 210 210 211 210 209 210 209 209 209 208 207 206 205 206 204 203 205 205 207 208 210 211 212 212 210 211 210 211 212 213 212 211 211 211 210 211 210 210 207 208 210 211 213 214 213 212 0 0 0 0 0
    0 0 0 0 0 0 0 0 0 0 0 0 0 0 0 0 0 0 0 0 0 0 0 0 0 0 0 0 0 0 0 0 0 0 0 0 0 0 0 0 0 0 0 0 0 0 0 0 0 0 0 0 0 0 0 0 0 0 0 0 0 0 0 0 0 0 0 0 0 221 220 220 -193 -193 -193 215 -193 214 -193 215 214 214 215 214 215 217 216 215 216 218 216 217 217 217 216 217 217 217 214 216 216 216 215 215 215 214 215 216 -193 216 216 217 -193 217 218 218 218 220 219 219 218 218 -193 216 216 216 215 215 214 214 213 213 213 213 213 214 214 214 214 214 215 214 214 215 216 216 217 217 217 217 217 217 217 215 215 213 213 213 213 212 213 211 214 212 214 214 214 214 214 213 215 213 215 213 213 212 212 213 215 215 214 214 216 215 215 215 215 214 214 215 215 213 214 214 213 212 213 213 213 212 213 214 214 215 216 213 213 212 213 213 213 212 213 210 212 212 212 212 211 209 209 206 210 209 210 210 211 213 215 212 212 212 214 214 214 212 213 212 213 212 213 211 211 211 212 210 209 210 213 211 212 211 210 211 212 213 213 210 212 211 213 213 212 211 211 210 210 209 211 210 210 211 209 209 210 209 209 209 207 207 206 206 206 205 204 206 207 209 210 212 211 212 211 210 211 209 210 211 213 212 211 211 211 210 211 210 210 207 208 209 211 213 214 213 213 0 0 0 0 0
    0 0 0 0 0 0 0 0 0 0 0 0 0 0 0 0 0 0 0 0 0 0 0 0 0 0 0 0 0 0 0 0 0 0 0 0 0 0 0 0 0 0 0 0 0 0 0 0 0 0 0 0 0 0 0 0 0 0 0 0 0 0 0 0 0 0 0 0 0 221 220 220 219 220 218 216 -193 214 -193 215 214 214 215 214 215 217 217 216 216 218 217 217 217 217 216 217 217 217 214 216 216 216 215 216 215 215 215 -193 -193 216 216 217 -193 218 219 219 219 220 219 218 218 218 217 216 216 216 215 215 214 215 213 214 214 214 214 215 214 214 214 215 215 213 211 215 215 215 217 217 217 216 217 217 216 215 215 213 213 213 213 212 213 211 213 211 214 213 212 213 213 212 214 212 214 213 213 213 213 213 215 215 214 214 216 215 215 215 214 214 214 214 214 212 213 214 212 211 213 212 213 212 212 213 213 214 215 212 213 212 213 213 213 211 212 210 211 212 212 212 211 209 209 206 210 209 208 210 210 212 213 211 211 211 213 213 213 212 212 212 212 212 213 211 210 211 212 210 210 210 213 211 212 211 210 211 212 213 213 210 212 210 212 212 211 210 210 209 209 208 210 209 210 210 209 209 211 210 210 210 208 208 207 207 207 206 206 208 209 210 211 212 212 213 212 209 211 209 210 211 213 211 211 211 211 210 211 210 210 206 207 208 209 211 213 213 214 0 0 0 0 0
    0 0 0 0 0 0 0 0 0 0 0 0 0 0 0 0 0 0 0 0 0 0 0 0 0 0 0 0 0 0 0 0 0 0 0 0 0 0 0 0 0 0 0 0 0 0 0 0 0 0 0 0 0 0 0 0 0 0 0 0 0 0 0 0 0 0 0 0 0 222 221 220 220 220 219 216 216 214 -193 214 213 213 214 214 215 217 217 216 217 218 217 217 218 217 217 217 218 217 214 216 216 216 215 215 215 215 215 -193 -193 216 216 217 -209 218 219 219 219 220 220 219 218 218 217 217 216 216 216 216 215 215 214 214 214 214 214 215 214 214 213 214 214 211 207 214 214 214 215 216 216 215 216 216 216 215 215 213 213 214 213 213 214 212 213 212 214 213 212 213 212 211 213 212 214 213 214 213 213 214 215 215 214 214 216 214 214 214 214 213 213 213 213 211 212 213 212 211 213 212 213 212 212 212 213 214 214 212 212 212 212 213 212 211 211 209 211 212 212 212 210 210 210 207 211 209 208 209 208 212 211 210 209 210 212 212 212 211 211 211 212 212 214 210 211 211 212 211 210 211 214 211 212 211 210 211 212 212 212 209 212 210 211 212 210 210 209 209 208 206 208 208 209 210 208 209 210 210 211 210 209 209 208 208 209 208 207 210 211 211 211 213 212 213 212 209 211 209 210 211 212 211 211 211 211 210 210 209 209 205 206 207 207 208 212 212 215 0 0 0 0 0
    0 0 0 0 0 0 0 0 0 0 0 0 0 0 0 0 0 0 0 0 0 0 0 0 0 0 0 0 0 0 0 0 0 0 0 0 0 0 0 0 0 0 0 0 0 0 0 0 0 0 0 0 0 0 0 0 0 0 0 0 0 0 0 0 0 0 0 0 0 222 220 221 220 221 219 217 217 215 215 215 214 214 214 214 215 217 217 216 216 219 217 217 218 217 217 217 218 217 214 217 216 216 215 215 215 214 215 215 215 216 216 217 -209 218 219 219 219 220 220 219 218 219 217 217 217 217 216 216 215 216 214 214 213 214 213 214 213 214 212 213 213 210 206 214 213 213 215 215 215 215 216 216 215 215 215 213 214 214 214 214 214 213 214 213 215 214 213 213 213 212 213 212 215 214 214 214 214 215 215 215 214 214 215 214 214 214 213 213 213 213 213 210 212 213 211 211 213 213 213 212 212 213 213 214 215 213 212 213 213 214 213 211 212 209 211 212 212 212 211 211 211 210 210 210 208 208 208 210 208 208 206 208 210 210 211 210 210 211 211 212 213 210 210 211 213 211 210 211 214 211 212 211 210 210 212 212 211 208 211 210 210 211 210 209 209 208 207 206 206 207 207 208 206 207 208 209 209 209 208 208 207 209 210 208 207 210 212 212 211 213 212 213 212 210 212 209 210 211 212 211 210 211 211 209 209 208 208 205 205 205 205 206 209 210 214 0 0 0 0 0
    0 0 0 0 0 0 0 0 0 0 0 0 0 0 0 0 0 0 0 0 0 0 0 0 0 0 0 0 0 0 0 0 0 0 0 0 0 0 0 0 0 0 0 0 0 0 0 0 0 0 0 0 0 0 0 0 0 0 0 0 0 0 0 0 0 0 0 0 0 221 220 220 219 220 219 217 217 215 215 216 215 215 215 214 216 217 217 216 216 218 217 217 218 217 217 217 217 217 214 217 216 216 215 215 215 215 215 215 215 216 -193 217 -209 218 219 220 219 220 220 219 219 219 218 218 217 217 216 216 215 215 213 213 212 213 213 214 213 213 212 213 214 210 209 215 213 213 215 215 214 214 215 215 214 215 215 213 214 214 214 214 214 213 214 213 214 214 214 214 214 214 215 215 216 215 215 215 215 215 215 214 214 214 215 213 213 213 212 212 212 212 212 210 212 212 211 211 213 214 214 213 213 214 214 215 216 215 214 214 215 215 213 212 211 209 211 211 212 211 211 212 211 211 211 210 210 209 210 210 207 209 206 209 212 211 211 210 210 211 212 213 213 211 210 211 213 212 210 211 214 211 211 211 210 210 211 211 211 207 211 209 210 211 210 209 209 208 207 206 206 207 207 207 207 207 207 209 209 208 208 207 207 208 210 208 206 209 212 212 211 212 211 212 212 211 213 211 211 212 212 211 211 211 211 209 209 208 207 204 205 205 204 206 208 210 214 0 0 0 0 0
    0 0 0 0 0 0 0 0 0 0 0 0 0 0 0 0 0 0 0 0 0 0 0 0 0 0 0 0 0 0 0 0 0 0 0 0 0 0 0 0 0 0 0 0 0 0 0 0 0 0 0 0 0 0 0 0 0 0 0 0 0 0 0 0 0 0 0 0 0 220 219 219 219 220 219 217 217 216 216 216 216 215 215 214 216 216 217 216 216 218 217 217 218 218 217 217 217 216 213 216 215 216 215 214 214 214 215 215 214 215 -209 -193 -209 218 219 220 220 220 220 220 220 220 219 218 218 218 217 217 215 215 213 213 212 213 213 214 214 214 213 214 214 212 211 215 213 213 215 214 214 214 215 215 213 214 215 213 215 214 215 214 214 214 214 213 214 215 215 215 215 215 215 216 216 216 215 215 215 215 215 214 213 213 215 214 213 213 212 212 212 212 212 210 212 212 212 211 213 214 214 214 214 214 215 215 216 215 214 215 215 215 213 212 211 210 211 211 212 211 212 212 211 212 212 211 211 211 212 211 209 211 208 210 212 211 211 210 210 211 211 213 213 212 211 211 212 212 211 212 214 211 211 211 210 210 210 210 209 206 209 208 209 210 209 209 209 209 207 206 206 207 207 207 207 207 208 209 210 210 209 209 209 210 211 208 207 209 212 212 210 212 210 211 212 212 213 211 212 212 212 211 211 211 211 210 210 208 207 205 205 205 204 206 208 210 214 0 0 0 0 0</data></disparity>
</opencv_storage>
